# .PCD v0.7 - Point Cloud Data file format
VERSION 0.7
FIELDS x y z intensity
SIZE 4 4 4 4
TYPE F F F F
COUNT 1 1 1 1
WIDTH 1352
HEIGHT 1
VIEWPOINT 0 0 0 1 0 0 0
POINTS 1352
DATA ascii
-1.6639756 -0.21063906 0.42792141 0
-1.6697646 -0.21137187 0.55995423 0
-1.5576929 -0.21714589 -0.056149397 0
-0.94000697 -0.13103908 0.033883974 0
-0.93944967 -0.13096139 0.10193827 0
-0.94625497 -0.13191006 0.17230605 0
-1.681427 -0.2343947 0.43313405 0
-1.6708206 -0.23291615 0.56124741 0
-1.5423745 -0.23484461 -0.055699404 0
-0.94883132 -0.14447071 0.034264918 0
-0.94410253 -0.14375068 0.10263143 0
-0.94409502 -0.14374954 0.17222869 0
-1.6720482 -0.25458896 0.43150967 0
-1.6674893 -0.25389481 0.56115782 0
-1.5493746 -0.25591117 -0.056064125 0
-0.95402676 -0.15757719 0.034521461 0
-0.94341272 -0.15582407 0.1027616 0
-0.94240284 -0.15565726 0.17226391 0
-1.6689732 -0.27566534 0.43157774 0
-1.6763834 -0.27688929 0.56527948 0
-1.5465713 -0.27549589 -0.056083769 0
-0.94944292 -0.16912743 0.03442993 0
-0.94264072 -0.16791573 0.10289967 0
-0.94255036 -0.16789964 0.17266364 0
-1.6701773 -0.29751423 0.43282357 0
-1.6782503 -0.29895231 0.56713349 0
-1.5438792 -0.29511914 -0.056116454 0
-0.93671966 -0.17905799 0.034047604 0
-0.94309098 -0.1802759 0.10318844 0
-0.93788916 -0.17928155 0.17220967 0
-1.6721886 -0.31964606 0.43435341 0
-1.6661143 -0.31848493 0.56434286 0
-1.5391519 -0.31435353 -0.056084067 0
-0.94374573 -0.19274886 0.034388479 0
-0.93833131 -0.19164303 0.10292354 0
-0.94362909 -0.19272505 0.17369545 0
-1.6710207 -0.34128615 0.43513188 0
-1.6642983 -0.33991319 0.56513274 0
-1.5362947 -0.33397421 -0.056128744 0
-0.94014752 -0.20437813 0.034348421 0
-0.95322317 -0.20722063 0.1048349 0
-0.95144731 -0.20683458 0.17560005 0
-1.6695662 -0.36294603 0.43590865 0
-1.6678474 -0.36257237 0.56784314 0
-1.5244095 -0.35154852 -0.055851821 0
-0.94685805 -0.2183577 0.0346913 0
-0.94530851 -0.21800035 0.10425809 0
-0.93976027 -0.21672085 0.17393295 0
-1.6676369 -0.38457859 0.43663466 0
-1.6754053 -0.38637009 0.57202739 0
-1.5283962 -0.37279636 -0.056165427 0
-0.94095349 -0.22951119 0.034578111 0
-0.93960649 -0.22918263 0.10393927 0
-0.95043898 -0.23182483 0.17643568 0
-1.6787176 -0.40946177 0.440851 0
-1.6653979 -0.4062129 0.57031184 0
-1.5208095 -0.39129806 -0.056063257 0
-0.98846483 -0.25432795 0.036438853 0
-0.996521 -0.25640076 0.11058353 0
-0.9858194 -0.2536473 0.18358193 0
-1.6749482 -0.43095732 0.44125122 0
-1.6725888 -0.43035021 0.57458454 0
-1.5131572 -0.40971059 -0.055966914 0
-1.0496004 -0.28419542 0.038821403 0
-1.0435219 -0.28254959 0.11618481 0
-1.6607395 -0.44967076 0.31029722 0
-1.6763295 -0.45389196 0.44308567 0
-1.6632645 -0.45035443 0.57328409 0
-1.5052198 -0.42797464 -0.055868231 0
-1.1232498 -0.31937021 0.041690905 0
-1.1221393 -0.31905451 0.12537539 0
-1.6819794 -0.47823218 0.31536591 0
-1.6719462 -0.47537944 0.44347417 0
-1.6768575 -0.47677585 0.57999253 0
-1.504688 -0.44837612 -0.056053609 0
-1.2048286 -0.35902214 0.04488305 0
-1.2035145 -0.35863057 0.1349612 0
-1.6701875 -0.49769264 0.3143051 0
-1.6646905 -0.49605459 0.44317132 0
-1.6665195 -0.49659961 0.57853389 0
-1.5051973 -0.46924236 -0.056288235 0
-1.3017493 -0.40581784 0.048680112 0
-1.314114 -0.4096725 0.14793052 0
-1.6733185 -0.52165377 0.3161054 0
-1.6773627 -0.52291459 0.4482623 0
-1.6662629 -0.51945424 0.58066952 0
-1.4910245 -0.48550519 -0.055982415 0
-1.414549 -0.46060339 0.053111047 0
-1.4209241 -0.46267921 0.16059729 0
-1.6691858 -0.54351783 0.31659251 0
-1.6834517 -0.54816306 0.45169842 0
-1.6729401 -0.54474032 0.58534044 0
-1.4815747 -0.50314748 -0.055861063 0
-1.5554528 -0.52823675 0.058646552 0
-1.5579501 -0.52908486 0.17682339 0
-1.6735502 -0.56834304 0.31875244 0
-1.6729816 -0.56814986 0.450773 0
-1.4840574 -0.52492297 -0.056199439 0
-1.7230957 -0.60947269 0.19642247 0
-1.6768175 -0.59310377 0.32077178 0
-1.6729599 -0.5917393 0.45273894 0
-1.4657453 -0.53930485 -0.05575873 0
-1.6881262 -0.62112743 0.19331242 0
-1.6695484 -0.61429191 0.32083553 0
-1.671528 -0.61502028 0.45441124 0
-1.4623345 -0.55905408 -0.055892348 0
-1.6827344 -0.64331353 0.19360729 0
-1.6821417 -0.64308691 0.32478598 0
-1.6649035 -0.63649672 0.45475316 0
-1.4626164 -0.58037335 -0.056178 0
-1.6723996 -0.66361636 0.19336434 0
-1.6742096 -0.6643346 0.32484391 0
-1.671371 -0.66320819 0.4587644 0
-1.4543264 -0.59838694 -0.056144543 0
-1.6724709 -0.68814313 0.19435905 0
-1.6707236 -0.68742418 0.32582122 0
-1.6692964 -0.68683702 0.4605324 0
-1.4373927 -0.61269391 -0.055784244 0
-1.6874828 -0.71929574 0.19714056 0
-1.6823469 -0.71710652 0.32982284 0
-1.6803968 -0.71627533 0.46604624 0
-1.428881 -0.63044244 -0.055757582 0
-1.6782253 -0.74045658 0.19713268 0
-1.6739835 -0.73858505 0.32998037 0
-1.6800165 -0.74124694 0.4684923 0
-1.4271148 -0.65125191 -0.056004226 0
-1.676868 -0.7652247 0.19808942 0
-1.6729838 -0.76345217 0.33165208 0
-1.6715844 -0.76281357 0.46878237 0
-1.4288013 -0.67388564 -0.056398939 0
-1.6758983 -0.79042757 0.19913487 0
-1.6749691 -0.78998929 0.3339912 0
-1.6737275 -0.78940368 0.47213364 0
-1.4034084 -0.68364149 -0.055732001 0
-1.9295866 -0.93995833 0.07662753 0
-1.6776768 -0.81724566 0.20055309 0
-1.6713692 -0.8141731 0.33529112 0
-1.6717935 -0.81437975 0.4744432 0
-1.3971711 -0.70250577 -0.055831175 0
-1.8814929 -0.94602555 0.07518474 0
-1.6787299 -0.84407514 0.20193355 0
-1.6761892 -0.8427977 0.33836019 0
-1.6717424 -0.84056187 0.47739467 0
-1.3928264 -0.72243404 -0.056016639 0
-1.8286593 -0.94849271 0.073544942 0
-1.6709154 -0.86667377 0.20229027 0
-1.6691884 -0.86577803 0.33912084 0
-1.3793104 -0.73760968 -0.055842172 0
-1.7762285 -0.94986838 0.071911626 0
-1.6760859 -0.89631546 0.20426647 0
-1.6742158 -0.89531535 0.34240556 0
-1.3811462 -0.76110828 -0.056300044 0
-1.738077 -0.95780218 0.070849717 0
-1.6812011 -0.92645961 0.20629528 0
-1.6743536 -0.9226861 0.34478262 0
-1.3577958 -0.77068615 -0.05573938 0
-1.6939687 -0.96149826 0.069539741 0
-1.674836 -0.95063853 0.20696671 0
-1.6811845 -0.95424193 0.34863594 0
-1.3522933 -0.79023945 -0.055917561 0
-1.6753112 -0.97900134 0.069274403 0
-1.6714792 -0.97676206 0.20805532 0
-1.6733594 -0.97786081 0.34953901 0
-1.3566698 -0.81588405 -0.056518868 0
-1.6848768 -1.0132636 0.070191979 0
-1.6722817 -1.0056891 0.2097149 0
-1.6799475 -1.0102992 0.35354453 0
-1.3384086 -0.82802606 -0.056188032 0
-1.6842527 -1.0419875 0.070706993 0
-1.6786307 -1.0385095 0.21213424 0
-1.6720203 -1.0344198 0.35458937 0
-1.3252115 -0.84311694 -0.056075256 0
-1.6730392 -1.0644095 0.070793301 0
-1.6676918 -1.0610075 0.21242341 0
-1.6743563 -1.0652475 0.35790113 0
-1.3122873 -0.85829508 -0.055981267 0
-1.6796507 -1.0985672 0.071652733 0
-1.6717739 -1.0934156 0.21468014 0
-1.6642231 -1.088477 0.35863644 0
-1.3003845 -0.8740837 -0.055938601 0
-1.6780587 -1.1279463 0.072185002 0
-1.6701455 -1.1226271 0.21626918 0
-1.6845342 -1.1322988 0.36605704 0
-1.2980387 -0.89643967 -0.056318812 0
-1.6712406 -1.154177 0.072511151 0
-1.6759843 -1.1574531 0.21889523 0
-1.6767443 -1.1579779 0.36750376 0
-1.2796364 -0.90773827 -0.056011878 0
-1.6724854 -1.1864144 0.07320755 0
-1.6809663 -1.1924305 0.22148946 0
-2.0414078 -1.4481176 0.4513905 0
-1.2675623 -0.92338282 -0.055987887 0
-1.6718779 -1.2179152 0.0738464 0
-1.6715595 -1.2176832 0.22225273 0
-2.0017936 -1.4582493 0.44665599 0
-1.2636454 -0.94511116 -0.056336079 0
-1.6710557 -1.2498232 0.074499317 0
-1.6701274 -1.2491289 0.22413595 0
-1.2410709 -0.95282865 -0.055860136 0
-1.6692787 -1.2815841 0.075133614 0
-1.6742465 -1.2853981 0.22684297 0
-1.2269489 -0.96678299 -0.055768028 0
-1.5893178 -1.2523142 0.072238646 0
-1.5844178 -1.2484531 0.21678492 0
-1.5870144 -1.2504992 0.36439198 0
-1.2242258 -0.98987478 -0.05620636 0
-1.5692682 -1.2688664 0.072047867 0
-1.5764933 -1.2747084 0.21787959 0
-1.571336 -1.2705383 0.36443669 0
-1.2032516 -0.99823093 -0.05581608 0
-1.6667981 -1.3827943 0.077318937 0
-1.6719129 -1.3870375 0.23346244 0
-1.7668877 -1.4658296 0.41403869 0
-1.1988372 -1.0203236 -0.056202844 0
-1.676108 -1.4265261 0.078577839 0
-1.6725658 -1.4235114 0.23603794 0
-1.7589539 -1.4970359 0.41656393 0
-1.4635445 -1.2456144 0.49032614 0
-1.1793079 -1.0295867 -0.055890661 0
-1.7190361 -1.5007927 0.41155335 0
-1.4260782 -1.2450278 0.48298812 0
-1.1591613 -1.0380056 -0.055550914 0
-1.6218119 -1.4522998 0.077722691 0
-1.6336452 -1.4628963 0.2356707 0
-1.6260532 -1.4560978 0.39365083 0
-1.403213 -1.256549 0.48056483 0
-1.1549207 -1.0607119 -0.05598335 0
-1.3533754 -1.2429782 0.46881992 0
-1.1464474 -1.0798547 -0.056227297 0
-1.3208386 -1.2441161 0.46293908 0
-1.1186012 -1.0805274 -0.055524494 0
-1.2916827 -1.2477179 0.45819071 0
-1.1174504 -1.1069515 -0.056154814 0
-1.2735245 -1.2615592 0.45734835 0
-1.1011102 -1.1185833 -0.056037068 0
-1.2571545 -1.2771038 0.45720848 0
-1.0866637 -1.1320726 -0.05602289 0
-1.0715805 -1.1448716 -0.055984084 0
-1.060189 -1.1616796 -0.056148723 0
-1.0400207 -1.1688036 -0.055855636 0
-1.0252868 -1.1818812 -0.055859186 0
-1.0212581 -1.2076263 -0.056463704 0
-0.99294579 -1.2045872 -0.055732578 0
-0.98413432 -1.2250034 -0.056099366 0
-0.96252197 -1.2294929 -0.055745497 0
-0.94833934 -1.2433168 -0.055826407 0
-0.93106699 -1.2530832 -0.055734083 0
-0.91819566 -1.2688255 -0.055915579 0
-0.90681976 -1.2869178 -0.056205209 0
-0.88730782 -1.293516 -0.056000963 0
-0.87146699 -1.3053594 -0.05603417 0
-0.85340577 -1.3138331 -0.055932183 0
-0.79993695 -1.2315168 0.48856601 0
-0.83666086 -1.3242614 -0.055923194 0
-0.78739637 -1.2462859 0.49045277 0
-0.82195365 -1.3380007 -0.056061864 0
-0.76576692 -1.2465383 0.4867188 0
-0.80407482 -1.3466251 -0.055994552 0
-0.74083072 -1.2407069 0.48076138 0
-0.79201967 -1.3651994 -0.056347724 0
-0.72196126 -1.2444402 0.47864732 0
-0.76989335 -1.3664132 -0.055993244 0
-0.7038964 -1.2492813 0.47706234 0
-0.75376177 -1.3780725 -0.056077629 0
-0.68488574 -1.2521492 0.47482651 0
-0.733383 -1.3818628 -0.055851646 0
-0.65738243 -1.2386601 0.4665353 0
-0.71154159 -1.3824698 -0.055509642 0
-0.64576685 -1.2546746 0.46946707 0
-0.69415033 -1.3914639 -0.055515409 0
-0.62532425 -1.2534981 0.46604359 0
-0.68578798 -1.4191588 -0.056271359 0
-0.5966447 -1.2346871 0.4562203 0
-0.66133499 -1.4137228 -0.055721194 0
-0.57903922 -1.2378007 0.45464057 0
-0.64723957 -1.4302409 -0.056046568 0
-0.55876058 -1.2347239 0.45089042 0
-0.62561291 -1.4301232 -0.055728834 0
-0.54774344 -1.252117 0.45468718 0
-0.60734326 -1.4373828 -0.055709288 0
-0.536048 -1.2686502 0.45820343 0
-0.59146971 -1.4504902 -0.055924203 0
-0.50703013 -1.2434149 0.34259588 0
-0.51752877 -1.2691612 0.45599815 0
-0.5743584 -1.4608722 -0.056041192 0
-0.48986208 -1.245957 0.34156963 0
-0.50002509 -1.2718065 0.45465025 0
-0.55952382 -1.4775081 -0.056404617 0
-0.44275948 -1.1691741 0.31896645 0
-0.48638013 -1.284361 0.45691264 0
-0.536466 -1.4723331 -0.055944737 0
-0.5171327 -1.4768227 -0.055863466 0
-0.49902824 -1.4847984 -0.05592303 0
-0.40794235 -1.2137834 0.13761473 0
-0.47629726 -1.4785594 -0.055457756 0
-0.39927199 -1.2394515 0.13994378 0
-0.46276885 -1.501067 -0.056078956 0
-0.44117618 -1.4977587 -0.055743396 0
-0.42426273 -1.5102437 -0.056004785 0
-0.40706027 -1.5223733 -0.056260053 0
-0.38310599 -1.5086591 -0.05557055 0
-0.36908442 -1.534166 -0.056334425 0
-0.34646046 -1.5242711 -0.055806465 0
-0.32832038 -1.5335562 -0.055990607 0
-0.30792499 -1.5322938 -0.055798523 0
-0.28905955 -1.5384573 -0.055885993 0
-0.26954785 -1.5413016 -0.055861589 0
-0.25058216 -1.5474297 -0.055964891 0
-0.23219827 -1.5579768 -0.056236137 0
-0.2114934 -1.552923 -0.055953149 0
-0.19139819 -1.5512058 -0.055800017 0
-0.17180716 -1.5530922 -0.05578563 0
-0.15256128 -1.5584323 -0.055904005 0
-0.13329875 -1.5645976 -0.056060512 0
-0.11361847 -1.566572 -0.056075543 0
-0.093852833 -1.5673507 -0.056056671 0
-0.074184932 -1.5699823 -0.056112934 0
-0.054162506 -1.563616 -0.055856589 0
-0.034669902 -1.5732273 -0.056179877 0
-0.014819355 -1.5694128 -0.056032557 0
0.0049402192 -1.5687106 -0.056005266 0
0.024565965 -1.560531 -0.055719871 0
0.044314481 -1.5636792 -0.055847775 0
0.064780504 -1.5820688 -0.056529228 0
0.083787769 -1.5641814 -0.055923354 0
0.10358857 -1.5647018 -0.055984154 0
0.12298454 -1.5595034 -0.055849146 0
0.14243817 -1.5559454 -0.055781532 0
0.16191269 -1.5530174 -0.055745237 0
0.18291101 -1.5633063 -0.056192778 0
0.20203774 -1.556698 -0.056042243 0
0.22242489 -1.5596576 -0.056245163 0
0.24024259 -1.5451394 -0.055826273 0
0.26122272 -1.5511603 -0.056158204 0
0.27855214 -1.5357248 -0.055721946 0
0.30153364 -1.5509567 -0.056407917 0
0.31773129 -1.5311019 -0.055826891 0
0.33667105 -1.5255594 -0.055774953 0
0.35687143 -1.5255529 -0.055934578 0
0.37481794 -1.5159487 -0.05575107 0
0.39578089 -1.5184178 -0.056020718 0
0.41444775 -1.5117803 -0.055963937 0
0.43218294 -1.5020382 -0.055800337 0
0.44991088 -1.4926612 -0.055658039 0
0.47003484 -1.4912091 -0.055820167 0
0.49149802 -1.4934506 -0.056131296 0
0.51059932 -1.4881227 -0.056168251 0
0.52814823 -1.4783627 -0.056046441 0
0.54296076 -1.4614748 -0.055660989 0
0.56465393 -1.4631629 -0.055991638 0
0.49758169 -1.2893615 0.45979738 0
0.5832718 -1.4565357 -0.056014653 0
0.5058561 -1.2632146 0.45270881 0
0.59841502 -1.441488 -0.055721331 0
0.52918488 -1.2747234 0.45918503 0
0.62048727 -1.4430711 -0.05608011 0
0.53911901 -1.2538323 0.45406902 0
0.63927639 -1.4366459 -0.056138795 0
0.56227243 -1.2635947 0.46013203 0
0.6553604 -1.4242353 -0.055971876 0
0.57083887 -1.2405524 0.45432279 0
0.67476147 -1.4190677 -0.05609826 0
0.59212875 -1.2452856 0.45875049 0
0.68786323 -1.4008619 -0.055716544 0
0.61336505 -1.2491432 0.46298018 0
0.70685178 -1.3948613 -0.055827476 0
0.62977225 -1.242757 0.4635157 0
0.72184253 -1.3810366 -0.055633549 0
0.64807069 -1.2398956 0.46545529 0
0.7495535 -1.3911014 -0.056414742 0
0.67384219 -1.2505881 0.47261709 0
0.76264966 -1.3736998 -0.056094047 0
0.69659883 -1.2547277 0.051235911 0
0.69143856 -1.2454329 0.15308964 0
0.69678468 -1.2550625 0.25889245 0
0.70268339 -1.2656873 0.36934519 0
0.70190877 -1.264292 0.48109812 0
0.77440172 -1.3543969 -0.055699609 0
0.71089572 -1.2433275 0.051131874 0
0.71115088 -1.2437737 0.15397425 0
0.7081551 -1.2385342 0.25730208 0
0.70803791 -1.2383293 0.36393464 0
0.71708065 -1.2541447 0.48063469 0
0.79092211 -1.3437374 -0.055666406 0
0.73635525 -1.251031 0.0518259 0
0.72702777 -1.2351841 0.15403201 0
0.73842424 -1.2545462 0.26253942 0
0.72883862 -1.2382606 0.36658263 0
0.72994262 -1.2401363 0.47875074 0
0.80903959 -1.335754 -0.055753298 0
0.82251102 -1.3201916 -0.055531636 0
0.84908932 -1.3253721 -0.056194827 0
0.85946947 -1.3050997 -0.055789743 0
0.87520188 -1.2932402 -0.055749465 0
0.89257711 -1.283788 -0.055822086 0
0.9128719 -1.2783304 -0.05608017 0
0.92625189 -1.2631302 -0.055920582 0
0.93996042 -1.2485484 -0.0557946 0
0.96100169 -1.2435957 -0.0561096 0
0.97513729 -1.2295729 -0.056026489 0
0.7752676 -0.97755259 0.044542976 0
0.77728063 -0.98009086 0.13443303 0
0.99594921 -1.2238419 -0.056332335 0
0.7781949 -0.95626122 0.044015836 0
0.77289349 -0.94974667 0.1315954 0
1.0007461 -1.1985885 -0.055745561 0
0.77099025 -0.92341107 0.04294724 0
0.77566731 -0.92901272 0.13006558 0
1.0206789 -1.1916374 -0.056015596 0
0.77790278 -0.90819758 0.042691872 0
0.77522367 -0.90506971 0.12807 0
1.0259249 -1.167677 -0.055492159 0
0.77244943 -0.87917882 0.041781697 0
0.76659423 -0.87251461 0.1248194 0
1.0546787 -1.1703495 -0.056245849 0
0.77180046 -0.85644686 0.041159999 0
0.76717639 -0.85131568 0.12315897 0
1.061763 -1.1487886 -0.055847771 0
1.0819176 -1.1414202 -0.056147423 0
1.0995775 -1.1311779 -0.056320235 0
1.1035299 -1.1070077 -0.055804264 0
1.121496 -1.0970504 -0.056009769 0
1.1309755 -1.0787935 -0.055800341 0
1.1444145 -1.064417 -0.055797681 0
1.1662281 -1.0576333 -0.056207437 0
1.1725625 -1.0367731 -0.05587909 0
1.1838138 -1.0204529 -0.055798493 0
1.2004455 -1.008724 -0.055979278 0
1.2258544 -1.004015 -0.056570098 0
1.2185146 -0.97262859 -0.055661783 0
1.2385743 -0.96336108 -0.05601953 0
1.2518024 -0.94859618 -0.056073122 0
1.2630187 -0.93229544 -0.056045242 0
1.2794486 -0.91976291 -0.056255903 0
1.2809415 -0.89659011 -0.055820711 0
1.2945617 -0.88204789 -0.055925801 0
1.2992446 -0.86148691 -0.055655051 0
1.3117943 -0.84622425 -0.055731755 0
1.3311226 -0.83514708 -0.056101691 0
1.3237094 -0.80744839 -0.055356335 0
1.3435183 -0.7964958 -0.055760875 0
1.359326 -0.78290576 -0.056003347 0
1.3652928 -0.76361227 -0.055848598 0
1.3775028 -0.74782872 -0.05595842 0
1.3860981 -0.73005021 -0.055929706 0
1.3885795 -0.70916849 -0.055665091 0
1.4123778 -0.69904214 -0.056261782 0
1.4170021 -0.67925423 -0.056100816 0
1.429485 -0.66323429 -0.056259923 0
1.4287704 -0.64116544 -0.055909608 0
1.4382373 -0.62377834 -0.055968259 0
1.4475176 -0.60626483 -0.056027878 0
1.4478855 -0.58510095 -0.055752516 0
1.4648597 -0.57061094 -0.056125004 0
1.4653023 -0.54963601 -0.055872355 0
1.4701099 -0.53042197 -0.055796564 0
1.4763395 -0.51175421 -0.055784002 0
1.4846475 -0.49378377 -0.055858552 0
1.4922301 -0.47552368 -0.055914119 0
1.4916214 -0.45472223 -0.055672344 0
1.5027853 -0.43752265 -0.055878963 0
1.5097438 -0.41900143 -0.055937078 0
1.5197575 -0.40124118 -0.056116447 0
1.5259227 -0.38238293 -0.056161847 0
1.5274255 -0.36238238 -0.056044769 0
1.5299863 -0.34270015 -0.055975948 0
1.5380687 -0.32422838 -0.056117833 0
1.5412464 -0.30468181 -0.056089345 0
1.5350126 -0.28341475 -0.055728186 0
1.5548286 -0.26687428 -0.056321137 0
1.5398576 -0.24438618 -0.055662949 0
1.553061 -0.2264726 -0.056032699 0
1.5564935 -0.20699334 -0.056058053 0
1.5579031 -0.18724979 -0.056019459 0
1.5616571 -0.16778235 -0.056074027 0
1.5551881 -0.14730479 -0.055770721 0
1.5574915 -0.12775834 -0.055791218 0
1.5651541 -0.10856599 -0.056012284 0
1.5662385 -0.088841222 -0.056006622 0
1.5610691 -0.068841517 -0.055786345 0
1.5687965 -0.04940024 -0.05603582 0
1.5574524 -0.029419592 -0.055612978 0
1.5749213 -0.0099154757 -0.056227833 0
1.5707194 0.0098890215 -0.056077819 0
1.5637275 0.029538127 -0.05583705 0
1.5642633 0.049257495 -0.055873897 0
1.5685724 0.069172405 -0.056054484 0
1.5663178 0.088845715 -0.056009453 0
1.5644715 0.10851865 -0.055987857 0
1.5619295 0.12812237 -0.055950183 0
1.562789 0.14802474 -0.056043301 0
1.5551004 0.16707793 -0.055838604 0
1.5555601 0.18696819 -0.055935211 0
1.5559402 0.20691976 -0.056038123 0
1.5634824 0.22799228 -0.056408688 0
1.5479251 0.24566655 -0.055954572 0
1.5493677 0.26593694 -0.05612332 0
1.5312085 0.2827124 -0.055590082 0
1.5275956 0.30198324 -0.055592563 0
1.5243737 0.32134145 -0.055618156 0
1.5334147 0.3434681 -0.056101382 0
1.5197875 0.36057025 -0.055764515 0
1.5242124 0.38195434 -0.056098897 0
1.5098425 0.3986235 -0.05575034 0
1.5138733 0.42014748 -0.056090079 0
1.506346 0.43855932 -0.05601136 0
1.4841616 0.4524481 -0.055393919 0
1.4864347 0.47367686 -0.055696961 0
1.4869385 0.49454573 -0.055944748 0
1.484852 0.51470494 -0.056105647 0
1.4644573 0.52838254 -0.055582028 0
1.4670972 0.55030918 -0.055940792 0
1.4586433 0.5681895 -0.055886827 0
1.4545457 0.58779246 -0.05600898 0
1.4567471 0.61013037 -0.056385111 0
1.4420558 0.62543446 -0.056116857 0
1.4268031 0.64028257 -0.055832624 0
1.4168602 0.65737683 -0.055763051 0
1.4187527 0.68009341 -0.056170125 0
1.3957447 0.69080973 -0.055599201 0
1.3967451 0.71333879 -0.055992428 0
1.3958966 0.73521101 -0.056325078 0
1.3755429 0.74676466 -0.055878796 0
1.3654581 0.76370472 -0.055855356 0
1.3594483 0.78297627 -0.056008391 0
1.3548657 0.80322301 -0.056231834 0
1.3364276 0.81520635 -0.055888198 0
1.3347766 0.8374396 -0.056255694 0
1.3229187 0.85340047 -0.056204375 0
1.3033105 0.86418289 -0.05582922 0
1.3062512 0.8900125 -0.056430794 0
1.287859 0.90143192 -0.056122158 0
1.2734367 0.9154411 -0.055991568 0
1.261904 0.9314726 -0.055995777 0
1.2464557 0.94454455 -0.055833623 0
1.2361588 0.96148235 -0.055910282 0
1.2293274 0.98125952 -0.056155715 0
1.2137135 0.9940713 -0.056009833 0
1.2006576 1.0089023 -0.055989169 0
1.1833663 1.0200672 -0.055777401 0
1.1711156 1.0354937 -0.055810139 0
1.1582714 1.0504175 -0.055823959 0
1.1512535 1.0707778 -0.056131121 0
1.1355155 1.083124 -0.056024335 0
1.1220431 1.0975857 -0.056037094 0
1.1051264 1.1086092 -0.055884991 0
1.0866216 1.1178496 -0.055656631 0
1.0868583 1.1466326 -0.056403823 0
1.0714691 1.1592901 -0.0563583 0
0.6178996 0.66854459 0.30287081 0
1.0507187 1.1659552 -0.056034662 0
1.0062032 1.1165575 0.053660657 0
0.99741095 1.1068009 0.16011977 0
1.0047816 1.11498 0.27068928 0
0.61923409 0.68714797 0.30774179 0
1.0366665 1.1799028 -0.05607317 0
0.97892052 1.1141781 0.052949697 0
0.98192441 1.117597 0.15988018 0
0.98388404 1.1198274 0.268837 0
0.62103146 0.70683938 0.31303358 0
1.0228465 1.194168 -0.056134555 0
0.95324993 1.1129144 0.052315049 0
0.94980747 1.1088954 0.15691192 0
0.95654052 1.1167562 0.26518705 0
0.62230831 0.72654182 0.31826344 0
1.0076933 1.2069091 -0.056132548 0
0.94232404 1.1286167 0.052491218 0
0.93694198 1.1221706 0.15710847 0
0.93479544 1.1195997 0.26304621 0
0.62174928 0.74466586 0.32274756 0
0.99061525 1.2172875 -0.056030642 0
0.91474444 1.124056 0.051739275 0
0.90980268 1.1179835 0.15490602 0
0.91340286 1.1224074 0.2609829 0
0.62171745 0.7639786 0.32769883 0
0.9770667 1.2320057 -0.056137338 0
0.89058399 1.1229577 0.051168479 0
0.88698816 1.1184236 0.15340728 0
0.88804847 1.1197606 0.25774688 0
0.63364309 0.79897505 0.33926076 0
0.96130157 1.2439837 -0.056127109 0
0.86791211 1.123132 0.050674416 0
0.86347777 1.1173936 0.15176257 0
0.86189973 1.1153516 0.25421363 0
0.61717463 0.79866213 0.33580127 0
0.94834918 1.2596911 -0.056292545 0
0.84094101 1.117021 0.04991696 0
0.83270359 1.1060792 0.14878994 0
0.84184331 1.1182195 0.25243115 0
0.60653371 0.80565804 0.33550489 0
0.92389721 1.2599192 -0.055778421 0
0.82430899 1.1241107 0.049765985 0
0.82537621 1.125566 0.1500013 0
0.8202852 1.1186234 0.25017077 0
0.59700638 0.81413794 0.33587897 0
0.91158903 1.2765341 -0.056001358 0
0.81354934 1.1392452 0.049978517 0
0.81354493 1.1392391 0.15044631 0
0.8125633 1.1378645 0.25216556 0
0.58722359 0.82231236 0.3361741 0
0.89995188 1.2943951 -0.056283306 0
0.81475937 1.1718632 0.050955337 0
0.80840772 1.1627277 0.1521918 0
0.81277508 1.1690092 0.25677916 0
0.57853562 0.83210409 0.33717215 0
0.87570333 1.2939812 -0.055781409 0
0.81400084 1.2028067 0.051851023 0
0.81750119 1.207979 0.156755 0
0.81432098 1.2032797 0.26203373 0
0.56898564 0.84076047 0.33774978 0
0.85947365 1.305106 -0.055790011 0
0.80888981 1.2282947 0.052506521 0
0.8145591 1.2369035 0.15916479 0
0.80587995 1.2237244 0.26425508 0
0.73978657 1.1233619 0.34317163 0
0.55991888 0.85023373 0.33869615 0
0.84337771 1.3164567 -0.055816818 0
0.81058437 1.2652684 0.053646475 0
0.80643409 1.2587901 0.1606617 0
0.78871351 1.2311295 0.26368859 0
0.7169627 1.1191312 0.33909437 0
0.55021685 0.85885203 0.33934242 0
0.8363964 1.3424786 -0.056469101 0
0.81412911 1.3067379 0.054965731 0
0.81369209 1.3060366 0.165371 0
0.77051568 1.2367352 0.26279029 0
0.69349724 1.1131148 0.33459893 0
0.54287809 0.87135988 0.34155634 0
0.81380379 1.3436199 -0.056081612 0
0.7604748 1.2555718 0.26473704 0
0.67912269 1.1212564 0.33444911 0
0.53282982 0.87972158 0.34217682 0
0.40565071 0.66974413 0.46436438 0
0.79390419 1.3488038 -0.055876289 0
0.7373544 1.2527286 0.26215905 0
0.65932405 1.1201588 0.33161902 0
0.52191764 0.88671213 0.34231246 0
0.40734258 0.69205481 0.47623923 0
0.78103679 1.3660014 -0.056176841 0
0.72347051 1.2653203 0.2628668 0
0.6427173 1.1240861 0.33035955 0
0.51233244 0.89604837 0.34339893 0
0.41413796 0.72431028 0.34544984 0
0.41074795 0.71838129 0.41404039 0
0.40912053 0.71553499 0.48881325 0
0.76602465 1.3797789 -0.056342281 0
0.71287924 1.2840523 0.26487243 0
0.62228727 1.1208763 0.32708731 0
0.50418121 0.9081412 0.34557286 0
0.41858265 0.75395942 0.35704839 0
0.40868598 0.73613334 0.42127237 0
0.40782386 0.73458046 0.49827629 0
0.74015713 1.3736625 -0.055707529 0
0.69529384 1.2904004 0.26435494 0
0.59970498 1.1129963 0.32255861 0
0.48908854 0.90770262 0.34303522 0
0.41395304 0.76825815 0.36132264 0
0.40591496 0.75334024 0.4281604 0
0.40628323 0.75402373 0.50795442 0
0.72613567 1.3892503 -0.055964425 0
0.68068355 1.3022909 0.2650139 0
0.58374763 1.116832 0.32151443 0
0.48703489 0.93180025 0.34979665 0
0.41650626 0.79686415 0.37228024 0
0.4027245 0.77049673 0.43499458 0
0.40509763 0.77503699 0.51863271 0
0.70393753 1.3891106 -0.055597309 0
0.6608066 1.3039984 0.26364717 0
0.56305653 1.1111039 0.31779912 0
0.46567854 0.9189437 0.34274188 0
0.41457987 0.8181085 0.37973619 0
0.40348321 0.796211 0.44660813 0
0.40592501 0.8010295 0.53256345 0
0.69210315 1.4094967 -0.056059979 0
0.64841837 1.3205308 0.26531786 0
0.55186749 1.1239009 0.31944636 0
0.45558801 0.92782378 0.34388694 0
0.41731003 0.84986907 0.39200813 0
0.40829185 0.83150321 0.46348354 0
0.40618896 0.82722056 0.54653263 0
0.6759038 1.42147 -0.056193229 0
0.53102475 1.1167799 0.31549677 0
0.44241706 0.93043214 0.3427617 0
0.40643689 0.85476351 0.39187393 0
0.40964779 0.86151618 0.47729975 0
0.40455288 0.85080123 0.55870205 0
0.6508522 1.4144381 -0.055586848 0
0.51609349 1.1215792 0.31499168 0
0.43743825 0.95064491 0.34815106 0
0.40618113 0.8827166 0.40231252 0
0.4072552 0.88505077 0.48745868 0
0.40777236 0.88617468 0.57851326 0
0.63478124 1.426544 -0.055744048 0
0.49888062 1.1211344 0.31307769 0
0.42114228 0.94643307 0.34463912 0
0.40320945 0.90613258 0.41063809 0
0.41035923 0.92220032 0.50503343 0
0.40834635 0.91767675 0.59567446 0
0.62134653 1.4450694 -0.056157768 0
0.48261276 1.1224154 0.31171364 0
0.41875684 0.97390532 0.3526949 0
0.41058546 0.9549011 0.43036175 0
0.40798372 0.94885027 0.51677358 0
0.40735149 0.94737989 0.61157703 0
0.60100585 1.4477289 -0.055962574 0
0.46869799 1.12902 0.31188405 0
0.41431582 0.9980219 0.35951069 0
0.40649036 0.97917157 0.43895844 0
0.40646073 0.97910017 0.53041905 0
0.40795258 0.98269379 0.63100755 0
0.58119994 1.4513618 -0.055815678 0
0.4493987 1.1222302 0.30842072 0
0.41615874 1.0392239 0.37243539 0
0.40620691 1.0143725 0.45240992 0
0.40912634 1.0216628 0.55064231 0
0.40439108 1.009838 0.64511645 0
0.56395733 1.4613578 -0.055922564 0
0.42928031 1.1123751 0.30420256 0
0.41613424 1.0783103 0.38453472 0
0.41100019 1.0650067 0.47264707 0
0.40761998 1.0562477 0.5664711 0
0.40748203 1.0558902 0.67120498 0
0.54812765 1.4753823 -0.056190666 0
0.41439754 1.1154242 0.30358526 0
0.41274378 1.1109728 0.39429775 0
0.40731788 1.096368 0.48425049 0
0.40633067 1.0937108 0.58377242 0
0.40520167 1.0906718 0.69001663 0
0.52272201 1.4631737 -0.055470612 0
0.39907208 1.1170599 0.30263877 0
0.40992147 1.147429 0.40537238 0
0.40464646 1.1326634 0.49799165 0
0.40601373 1.1364906 0.60382956 0
0.50827289 1.4813424 -0.055912334 0
0.38676739 1.1272191 0.30404758 0
0.40651679 1.1847781 0.41672584 0
0.40495011 1.180212 0.5166142 0
0.40924922 1.1927416 0.63092834 0
0.48853308 1.4844414 -0.055792686 0
0.59845537 1.8184478 0.34525833 0
0.36955768 1.1229265 0.30161059 0
0.40528595 1.2314893 0.43132651 0
0.40682137 1.2361548 0.53881687 0
0.40663755 1.2355962 0.65083706 0
0.46820897 1.4854164 -0.055603329 0
0.57143456 1.8129048 0.34281254 0
0.35081077 1.1129647 0.29772484 0
0.41205379 1.3072613 0.45601201 0
0.41126403 1.3047558 0.56641662 0
0.40880615 1.296958 0.68039322 0
0.45442554 1.5076394 -0.056216545 0
0.54849386 1.8197283 0.34276959 0
0.3396163 1.1267389 0.30024168 0
0.40927288 1.3578372 0.47181925 0
0.40822059 1.354346 0.5856666 0
0.43390474 1.5080223 -0.056022644 0
0.52720171 1.8322729 0.34385481 0
0.31980839 1.1114841 0.29508024 0
0.40827504 1.4189471 0.49122822 0
0.4084838 1.4196726 0.61164325 0
0.41378704 1.5093701 -0.05587472 0
0.30647114 1.1179141 0.041383579 0
0.30728617 1.1208872 0.12490562 0
0.307807 1.1227869 0.20996457 0
0.30706933 1.1200962 0.29631659 0
0.4039889 1.4736295 0.50835747 0
0.40258247 1.4684992 0.63044536 0
0.3978537 1.52637 -0.056314111 0
0.29050156 1.1145124 0.041118979 0
0.29188618 1.1198245 0.12436778 0
0.29278865 1.1232868 0.20935203 0
0.29090971 1.1160783 0.29426128 0
0.39895484 1.5305946 0.52623391 0
0.39875966 1.5298458 0.65457469 0
0.37779692 1.527997 -0.056194164 0
0.2770223 1.1204149 0.041204777 0
0.27738652 1.1218879 0.12419917 0
0.27819961 1.1251764 0.20903471 0
0.27905744 1.128646 0.29662481 0
0.39276707 1.5885438 0.54441386 0
0.39318445 1.5902319 0.67823982 0
0.35663164 1.5245279 -0.055896997 0
0.26368639 1.1272057 0.041329134 0
0.26089847 1.1152881 0.12309507 0
0.26219848 1.1208453 0.20760025 0
0.26322165 1.1252191 0.2948297 0
0.38396394 1.641368 0.56081593 0
0.33818233 1.5324075 -0.056025323 0
0.24677272 1.1182026 0.040881857 0
0.2486393 1.1266607 0.12399488 0
0.24690913 1.1188207 0.206633 0
0.24482511 1.1093774 0.28984809 0
0.3723501 1.687232 0.574839 0
0.32001987 1.5421301 -0.056228999 0
0.23137875 1.1149813 0.040654339 0
0.23225734 1.119215 0.12284385 0
0.23012856 1.1089567 0.20425986 0
0.23088871 1.1126198 0.28991267 0
0.36020356 1.7357696 0.58978361 0
0.30130002 1.5497551 -0.056364216 0
0.21576954 1.1098239 0.040364023 0
0.21764582 1.1194746 0.12256181 0
0.21722998 1.1173357 0.20528308 0
0.21581642 1.1100651 0.28851599 0
0.34512743 1.7751842 0.60165161 0
0.28053716 1.5466685 -0.056119028 0
0.20200393 1.113696 0.040409137 0
0.20160343 1.111488 0.12139986 0
0.20287198 1.1184819 0.20500806 0
0.20399806 1.1246902 0.29162639 0
0.33206055 1.8307294 0.61901093 0
0.25974622 1.5423928 -0.055840787 0
0.18785083 1.1154726 0.040384565 0
0.18913682 1.1231087 0.12239928 0
0.18938072 1.1245571 0.2056682 0
0.18805633 1.1166928 0.28891581 0
0.31436774 1.8667395 0.62979841 0
0.23996916 1.5433809 -0.055762738 0
0.17519723 1.1267949 0.040711384 0
0.17755528 1.141961 0.12420033 0
0.17311458 1.1134002 0.20321295 0
0.17440358 1.1216905 0.28961769 0
0.29619896 1.9050273 0.64140666 0
0.22045483 1.5458434 -0.055746987 0
0.15976091 1.1202537 0.040399157 0
0.16085348 1.1279148 0.12244266 0
0.15950072 1.1184292 0.20374808 0
0.15853041 1.1116253 0.28648075 0
0.27747735 1.945689 0.65386879 0
0.20103185 1.5489476 -0.055763226 0
0.14491935 1.1166015 0.040198456 0
0.14351122 1.105752 0.11983106 0
0.14499038 1.1171489 0.20316614 0
0.14576858 1.1231449 0.28895354 0
0.25630331 1.9748133 0.66251922 0
0.18210739 1.556438 -0.055945896 0
0.13042098 1.1146839 0.040067121 0
0.12991826 1.1103872 0.12014657 0
0.13104528 1.1200196 0.20337197 0
0.13077322 1.1176944 0.28710485 0
0.23503512 2.0088015 0.67287552 0
0.16213857 1.5551838 -0.055822998 0
0.119913 1.150169 0.12427782 0
0.11907229 1.1421051 0.20709358 0
0.11959341 1.1471035 0.29424909 0
0.21299087 2.0429435 0.68335927 0
0.14254071 1.5570654 -0.055821683 0
0.11980901 1.3087522 0.14123881 0
0.11868389 1.2964617 0.23479286 0
0.11928234 1.3029989 0.33382681 0
0.18848504 2.0589452 0.68786335 0
0.12329537 1.563445 -0.055990297 0
0.1699436 2.1549671 0.23231183 0
0.16672766 2.1141875 0.38247475 0
0.16488822 2.0908623 0.53510213 0
0.10353635 1.5639129 -0.055955932 0
0.14173754 2.1409404 0.38696104 0
0.1409305 2.1287503 0.54430127 0
0.083173059 1.5527058 -0.055513069 0
0.11612686 2.1678996 0.39153838 0
0.11578548 2.1615264 0.55226523 0
0.064202107 1.5679432 -0.056024503 0
0.089603908 2.1883059 0.39498881 0
0.089124098 2.1765878 0.55578256 0
0.044417102 1.5673001 -0.055977102 0
0.024064364 0.84913421 0.35171324 0
0.024009174 0.8471868 0.42405179 0
0.024664484 1.5667892 -0.055943325 0
0.013447687 0.85425228 0.35373497 0
0.013259823 0.84231836 0.42149797 0
0.0049605989 1.5751818 -0.056236301 0
0.0026075079 0.82798457 0.414276 0
0.0025796725 0.81914574 0.48579508 0
-0.014796037 1.5669434 -0.055944394 0
-0.0078794742 0.83445925 0.41753212 0
-0.0076631866 0.81155378 0.48131174 0
-0.034558024 1.5681505 -0.05599859 0
-0.018363735 0.83329707 0.3450987 0
-0.018596428 0.84385604 0.42231759 0
-0.017928323 0.81353927 0.48258489 0
-0.054512005 1.5737057 -0.056217022 0
-0.08039543 2.3209338 0.4188284 0
-0.080486365 2.3235588 0.59316981 0
-0.02743596 0.79204804 0.47000417 0
-0.073454686 1.5545281 -0.055560581 0
-0.10978117 2.3233087 0.4194732 0
-0.10979334 2.3235662 0.59347761 0
-0.036941413 0.78179443 0.46415886 0
-0.093724214 1.5652027 -0.055979848 0
-0.14042147 2.3450511 0.42368442 0
-0.14080872 2.3515182 0.60102218 0
-0.046704814 0.77997464 0.46339086 0
-0.11370995 1.5678333 -0.05612069 0
-0.17135184 2.3625996 0.42721096 0
-0.17129184 2.3617725 0.60414648 0
-0.13281403 1.5589081 -0.055856653 0
-0.076545954 0.89846009 0.032192387 0
-0.20271662 2.3793917 0.43067473 0
-0.20248662 2.3766921 0.60856688 0
-0.15238793 1.5566616 -0.055840489 0
-0.23439032 2.3943262 0.43387777 0
-0.2347935 2.3984447 0.61484516 0
-0.17332217 1.5667876 -0.056277554 0
-0.26588121 2.4034975 0.43611181 0
-0.26710761 2.4145837 0.6197955 0
-0.085514963 0.77303314 0.46124226 0
-0.19157608 1.5526475 -0.055851877 0
-0.29826874 2.4173486 0.43927178 0
-0.2995511 2.4277418 0.6240918 0
-0.21241376 1.5596808 -0.056196641 0
-0.33005542 2.4234829 0.44110671 0
-0.33118451 2.4317734 0.62615061 0
-0.23210309 1.5573382 -0.056213088 0
-0.3631402 2.4365556 0.44428322 0
-0.36403105 2.442533 0.63005137 0
-0.25256851 1.5596961 -0.056408521 0
-0.3962234 2.4468136 0.44702795 0
-0.39776 2.4563026 0.63484496 0
-0.27083611 1.548668 -0.056128569 0
-0.43028408 2.4604075 0.45046574 0
-0.42914081 2.4538701 0.63556248 0
-0.29155862 1.5517581 -0.056369156 0
-0.46140698 2.4557395 0.4506391 0
-0.46362492 2.4675438 0.6405654 0
-0.30848461 1.5350785 -0.055899929 0
-0.52512592 2.6131272 0.095157109 0
-0.52163941 2.5957775 0.28454348 0
-0.49417239 2.4590967 0.4523612 0
-0.49347019 2.4556022 0.63902777 0
-0.32826945 1.5333185 -0.055981927 0
-0.54509854 2.5461085 0.092959195 0
-0.54507607 2.5460033 0.27981755 0
-0.52938294 2.4727023 0.45605415 0
-0.52912778 2.4715104 0.64485043 0
-0.3479223 1.5307025 -0.05604193 0
-0.57582718 2.5333819 0.092751935 0
-0.5765776 2.5366838 0.27956906 0
-0.56069094 2.4667892 0.45622957 0
-0.56192243 2.4722075 0.64682716 0
-0.36840576 1.5313449 -0.056230836 0
-0.60671246 2.5219097 0.092604272 0
-0.60901415 2.5314772 0.27981827 0
-0.59545529 2.4751172 0.45912015 0
-0.59408122 2.4694057 0.648 0
-0.38482285 1.51542 -0.055819582 0
-0.64421278 2.5368891 0.093444787 0
-0.64281178 2.5313721 0.28067911 0
-0.62835598 2.4744456 0.46042681 0
-0.62962675 2.4794497 0.65266448 0
-0.40276542 1.5063111 -0.055666462 0
-0.68777376 2.5722198 0.095057644 0
-0.68353796 2.5563784 0.28438362 0
-0.66114855 2.4726436 0.461604 0
-0.65769738 2.4597363 0.64960384 0
-0.42296901 1.5056385 -0.055834007 0
-0.69253194 2.4651988 0.46180552 0
-0.6934489 2.4684627 0.65416265 0
-0.44019201 1.4944177 -0.05561905 0
-0.72532225 2.4624126 0.46295789 0
-0.72731519 2.4691784 0.65672731 0
-0.46345225 1.5032837 -0.056161772 0
-0.75802392 2.4587755 0.46403188 0
-0.76055241 2.4669769 0.65863681 0
-0.48026231 1.490868 -0.055919427 0
-0.79256356 2.4603381 0.46617329 0
-0.79316801 2.4622145 0.65997946 0
-0.4985145 1.4832699 -0.055865459 0
-0.82629275 2.4585347 0.46776599 0
-0.82587481 2.4572911 0.66139489 0
-0.51626319 1.4743395 -0.055769537 0
-0.86126411 2.45959 0.46999294 0
-0.85793918 2.4500947 0.66231322 0
-0.53814125 1.4769309 -0.056119438 0
-0.88621134 2.4322107 0.46685651 0
-0.89045995 2.443871 0.66360933 0
-0.55739629 1.47189 -0.056190141 0
-0.92043805 2.4305573 0.46872672 0
-0.91695523 2.4213603 0.66057974 0
-0.574889 1.4622217 -0.056092963 0
-0.95079505 2.4183333 0.4686411 0
-0.95127648 2.4195578 0.66330338 0
-0.59012574 1.4471942 -0.055797126 0
-0.97856027 2.3997712 0.46739486 0
-0.98599571 2.4180057 0.66622871 0
-0.60898471 1.4412675 -0.055859849 0
-1.0121026 2.3953159 0.46897212 0
-1.0161691 2.4049397 0.66610146 0
-0.62382925 1.4260458 -0.055569943 0
-1.0402001 2.3778512 0.46808016 0
-1.0451093 2.3890731 0.66529918 0
-0.64371526 1.4224529 -0.055741385 0
-1.072047 2.3689611 0.46895033 0
-1.0779276 2.3819559 0.66704416 0
-0.66449118 1.4204696 -0.05598712 0
-1.1036584 2.3592687 0.46974555 0
-1.1002878 2.3520634 0.66250056 0
-0.68155861 1.4104066 -0.055924322 0
-1.1316775 2.3418756 0.46908256 0
-1.1312355 2.3409605 0.66333294 0
-0.70260584 1.4084134 -0.056191642 0
-1.1666399 2.3385961 0.47133088 0
-1.1609631 2.3272164 0.66352826 0
-0.7164672 1.3920399 -0.055893902 0
-1.1937654 2.3193929 0.47045296 0
-1.18979 2.3116691 0.66331452 0
-0.73320132 1.3815205 -0.05583781 0
-1.2151392 2.2896025 0.46747699 0
-1.2181903 2.2953517 0.66298139 0
-0.75562441 1.3814778 -0.056216206 0
-1.2425215 2.2716525 0.46696955 0
-1.2421247 2.270927 0.66039199 0
-0.76859272 1.3641049 -0.055898651 0
-1.0519458 1.8670024 0.076506518 0
-1.2611128 2.2382338 0.46332753 0
-1.2638611 2.2431114 0.65687913 0
-0.7897622 1.3613082 -0.056187123 0
-1.0504358 1.8106296 0.074732572 0
-1.293336 2.2293153 0.46481583 0
-1.297132 2.2358584 0.65948611 0
-0.80382824 1.3462121 -0.055977382 0
-1.0504864 1.7593033 0.073154286 0
-1.3220918 2.2141747 0.46509323 0
-1.3196626 2.2101061 0.65673971 0
-0.82021987 1.3351784 -0.055943612 0
-1.0502113 1.7095652 0.071630321 0
-1.3421565 2.1848023 0.46243688 0
-1.3386354 2.1790707 0.65247458 0
-0.83699417 1.3247889 -0.055945471 0
-1.0534369 1.6673731 0.070412703 0
-1.3653151 2.1610119 0.46100375 0
-1.3659244 2.1619763 0.6524545 0
-0.85652941 1.3186419 -0.056136902 0
-1.0468016 1.6115693 0.068607338 0
-1.3862634 2.1341767 0.45896655 0
-1.3902541 2.1403203 0.65115058 0
-0.87256801 1.3070085 -0.056104962 0
-1.0498873 1.5726129 0.067506358 0
-1.4128646 2.1163118 0.45891431 0
-1.4146819 2.1190341 0.65004265 0
-0.89406401 1.3033651 -0.056427367 0
-1.0489107 1.5291004 0.066200256 0
-1.4301627 2.0848889 0.45596939 0
-1.4347731 2.0916102 0.64712095 0
-0.89938849 1.2763717 -0.055744614 0
-1.0438834 1.4814323 0.064700492 0
-1.4524441 2.0612433 0.45476192 0
-1.4550968 2.0650079 0.6445083 0
-0.92303836 1.2755176 -0.056210488 0
-1.0480139 1.4482173 0.063821144 0
-1.0529937 1.4550986 0.19302958 0
-1.4740566 2.0369523 0.45346195 0
-1.476323 2.0400841 0.64248061 0
-0.51196891 0.70747364 0.43694085 0
-0.93542355 1.2589465 -0.055994868 0
-1.0535425 1.4179177 0.063065521 0
-1.0508138 1.4142454 0.18935041 0
-1.4953327 2.0125043 0.45217535 0
-1.4974362 2.0153353 0.64057404 0
-0.52607059 0.70801592 0.44133207 0
-0.94584894 1.2400517 -0.055679806 0
-1.0544209 1.3823947 0.062071174 0
-1.0432121 1.3676993 0.1848626 0
-1.5069923 1.9757367 0.44814241 0
-1.5141166 1.985077 0.63696611 0
-0.53227133 0.69783235 0.43912736 0
-0.96591687 1.2338295 -0.055942118 0
-1.0554429 1.3481871 0.061127115 0
-1.0508504 1.3423207 0.18320636 0
-1.5279708 1.9517781 0.4470368 0
-1.5265567 1.9499719 0.63181967 0
-0.54259354 0.69309062 0.44040808 0
-0.98148912 1.2217107 -0.055948578 0
-1.0515486 1.3089174 0.059942234 0
-1.05836 1.3173959 0.18160906 0
-1.5448802 1.9229929 0.44486421 0
-1.5420343 1.9194505 0.6281721 0
-0.56039786 0.6975565 0.44769427 0
-0.99620992 1.208547 -0.055915792 0
-1.044072 1.2666107 0.058602218 0
-1.0520828 1.2763289 0.17775999 0
-1.5631707 1.8963526 0.44321975 0
-1.5635449 1.8968065 0.62715513 0
-0.57583714 0.69857395 0.45296514 0
-1.0172244 1.2028565 -0.056240685 0
-1.04888 1.2402889 0.057990868 0
-1.0512589 1.243102 0.17496212 0
-1.575598 1.8631271 0.44005641 0
-1.5748931 1.8622936 0.62225157 0
-0.58145249 0.68756109 0.45053607 0
-1.0238305 1.1802026 -0.055779848 0
-1.0523043 1.213025 0.057331134 0
-1.0520334 1.2127129 0.17253582 0
-1.5931964 1.836529 0.43847784 0
-1.5963807 1.8401995 0.62153667 0
-1.0428672 1.1720026 -0.056008507 0
-1.0718505 1.2045748 0.057565097 0
-1.0648594 1.196718 0.17215426 0
-1.6102223 1.8096118 0.43685764 0
-1.6010472 1.7993003 0.61448342 0
-1.0482087 1.1485525 -0.055514235 0
-1.0955395 1.2004142 0.05802092 0
-1.0952584 1.2001061 0.17461185 0
-1.6137687 1.7682528 0.43174466 0
-1.6181929 1.7731006 0.61244619 0
-1.0714624 1.1447455 -0.055977914 0
-0.94268328 1.0071584 0.049249925 0
-1.1219243 1.1986586 0.17644274 0
-1.6225789 1.7335556 0.4282276 0
-1.6220787 1.7330213 0.60560954 0
-1.0851165 1.1304607 -0.055943128 0
-0.9414348 0.98077494 0.048535623 0
-1.1500753 1.1981341 0.17848313 0
-1.6290468 1.6971205 0.42426091 0
-1.6284287 1.6964766 0.59995705 0
-1.0929128 1.1102558 -0.055619888 0
-0.9465344 0.96155459 0.048170481 0
-1.1713246 1.189912 0.17944129 0
-1.6405963 1.6666303 0.42176971 0
-1.642604 1.6686699 0.59739083 0
-1.1121184 1.1016695 -0.055886865 0
-0.96235502 0.95331335 0.048360866 0
-1.2074825 1.1961377 0.1826586 0
-1.6420543 1.6266265 0.41684571 0
-1.654886 1.6393377 0.59430295 0
-1.1270633 1.0887015 -0.055944532 0
-0.97193992 0.93885809 0.048244607 0
-1.2318488 1.1899204 0.18406332 0
-1.657625 1.6012045 0.41564706 0
-1.6564407 1.6000606 0.58757907 0
-1.1492807 1.0825232 -0.05636625 0
-1.0051614 0.94677544 0.049297951 0
-1.2676659 1.194032 0.18715368 0
-1.656747 1.5605128 0.41046706 0
-1.659786 1.5633752 0.58173633 0
-1.1494815 1.0557164 -0.055719692 0
-1.3055387 1.1990436 0.063284367 0
-1.2990805 1.1931123 0.18955852 0
-1.6534656 1.5185896 0.40488434 0
-1.6724293 1.5360063 0.57934272 0
-0.6721136 0.61728811 0.37783617 0
-1.1676184 1.0455787 -0.055956207 0
-1.3318224 1.19262 0.063825414 0
-1.3412391 1.2010525 0.193488 0
-1.6665614 1.4923722 0.40345746 0
-1.6634881 1.4896201 0.56970245 0
-0.66840553 0.59854364 0.3714852 0
-1.1771082 1.0276662 -0.055786408 0
-1.370187 1.1962324 0.064936951 0
-1.6773691 1.4644157 0.40157789 0
-1.6665934 1.4550079 0.56444645 0
-0.66915214 0.58419871 0.3677825 0
-1.1963488 1.0182056 -0.056086183 0
-1.402324 1.1935101 0.06574253 0
-1.6689438 1.4204286 0.39524728 0
-1.6735268 1.4243292 0.5606758 0
-0.66531217 0.56624347 0.36172432 0
-0.68836832 0.58586639 0.45227277 0
-1.2070688 1.0013976 -0.055993151 0
-1.4415934 1.195962 0.066872209 0
-1.6767653 1.3910632 0.39292011 0
-1.6739184 1.3887012 0.55490446 0
-0.69070381 0.57301551 0.37157702 0
-1.2182109 0.98501128 -0.055930205 0
-1.4717195 1.1899912 0.067569226 0
-1.6875709 1.3645227 0.39139479 0
-1.6838723 1.3615321 0.55247694 0
-0.68410844 0.55315095 0.3642529 0
-1.2364615 0.97427857 -0.056200407 0
-1.5228016 1.1999023 0.069215313 0
-1.6868901 1.329197 0.3873243 0
-1.6753731 1.3201221 0.54419112 0
-0.70318907 0.55408281 0.37066799 0
-1.2527647 0.96180654 -0.056386467 0
-1.563395 1.2002921 0.070367821 0
-1.6862948 1.2946481 0.383414 0
-1.6790786 1.2891079 0.54007924 0
-0.68767023 0.5279569 0.35895482 0
-0.68489057 0.52582282 0.43202421 0
-1.2589214 0.94157797 -0.056125473 0
-1.6040473 1.199706 0.071511939 0
-1.6812153 1.2574217 0.37862894 0
-1.6673725 1.2470684 0.53122079 0
-0.69787562 0.52195817 0.36082247 0
-0.70842069 0.52984506 0.44262314 0
-1.2611126 0.91868436 -0.055703003 0
-1.6384287 1.1935483 0.072368957 0
-1.683074 1.2260712 0.37554076 0
-1.6720259 1.2180229 0.52777499 0
-1.6773916 1.2219317 0.69043136 0
-0.69651657 0.50739235 0.3567881 0
-0.71888798 0.52368933 0.44500765 0
-1.2788911 0.90720958 -0.055979256 0
-1.6813263 1.1926858 0.073594533 0
-1.6847656 1.1951256 0.37253073 0
-1.6696465 1.1844006 0.52227485 0
-1.6658615 1.1817155 0.67950666 0
-0.71228528 0.50527525 0.36157772 0
-0.71889263 0.50996232 0.44100049 0
-1.2932384 0.89312458 -0.056110539 0
-1.7351606 1.1983207 0.075284488 0
-1.687683 1.1655322 0.36990124 0
-1.6755611 1.1571608 0.51952583 0
-1.6654906 1.150206 0.67339408 0
-0.71354598 0.49278262 0.43387964 0
-1.2972963 0.87200785 -0.055805754 0
-1.707911 1.1480122 0.073469162 0
-1.7161379 1.153542 0.2222248 0
-1.6807259 1.129739 0.36522949 0
-1.671436 1.1234946 0.51381958 0
-1.6726295 1.1242968 0.6705032 0
-0.72527891 0.4875131 0.43724653 0
-1.3097657 0.85664588 -0.055873699 0
-1.7096108 1.1181626 0.072930813 0
-1.703128 1.1139226 0.21870646 0
-1.693048 1.1073297 0.36484814 0
-1.6669898 1.0902865 0.50819194 0
-1.6741483 1.0949686 0.66553211 0
-0.72572893 0.47465947 0.43388012 0
-1.3189708 0.83914661 -0.055811189 0
-1.707258 1.08618 0.072241247 0
-1.7106217 1.08832 0.21789165 0
-1.6855913 1.0723953 0.36030266 0
-1.6663889 1.0601785 0.50389898 0
-1.6728778 1.0643069 0.65964699 0
-0.73327512 0.46651927 0.43484503 0
-1.3202956 0.81682014 -0.055427622 0
-1.7235802 1.066318 0.072358005 0
-1.7204682 1.0643928 0.21742138 0
-1.6816511 1.040378 0.35663182 0
-1.6779068 1.0380615 0.5033893 0
-1.6768698 1.03742 0.65601796 0
-1.3436934 0.8080802 -0.055978272 0
-1.7398176 1.0463043 0.072480813 0
-1.7491943 1.0519433 0.21936022 0
-1.6866099 1.0143059 0.35494664 0
-1.6665876 1.0022647 0.49616775 0
-1.6639552 1.0006816 0.64598471 0
-1.3509912 0.78947854 -0.055863723 0
-1.762347 1.0298625 0.072873354 0
-1.7752249 1.037388 0.22096893 0
-1.6855524 0.98498601 0.35208592 0
-1.6735764 0.97798759 0.49454284 0
-1.677981 0.98056149 0.64658505 0
-1.3695424 0.77735358 -0.056221597 0
-1.8183403 1.0320916 0.074645363 0
-1.8126982 1.0288893 0.22400294 0
-1.6706698 0.94827378 0.34645545 0
-1.6723895 0.94924986 0.49062106 0
-1.6752875 0.95089477 0.64088237 0
-1.3643162 0.75183386 -0.055614002 0
-1.6741307 0.92256331 0.34473673 0
-1.667774 0.91906023 0.48583338 0
-1.6809604 0.92632693 0.63853967 0
-1.3818579 0.73897201 -0.055945307 0
-1.686061 0.90164977 0.3448281 0
-1.6800036 0.8984105 0.4860619 0
-1.6851733 0.90117502 0.63577896 0
-1.4001081 0.72621089 -0.056309488 0
-1.6922479 0.8777386 0.34380573 0
-1.668453 0.86539656 0.4795292 0
-1.6765267 0.86958426 0.62833577 0
-1.4012918 0.70457774 -0.055995841 0
-1.700195 0.85486794 0.34320608 0
-1.6604158 0.8348667 0.47416016 0
-1.6723433 0.84086394 0.62275022 0
-1.4078732 0.68581635 -0.055909302 0
-1.7174526 0.83662164 0.34453583 0
-1.6749951 0.81593931 0.47535178 0
-1.67151 0.81424159 0.61857277 0
-1.4097888 0.66491854 -0.055648465 0
-1.7200216 0.81123805 0.34297472 0
-1.6669534 0.78620875 0.47022277 0
-1.6738596 0.78946596 0.61571461 0
-1.4218258 0.64883828 -0.055796668 0
-1.7302083 0.7895661 0.34299624 0
-1.6731737 0.76353884 0.46922806 0
-1.6754366 0.76457155 0.61270469 0
-1.4346598 0.63299209 -0.055983081 0
-1.7511324 0.77262425 0.3451882 0
-1.677753 0.74024826 0.46786112 0
-1.6647524 0.73451221 0.60536706 0
-1.4463382 0.61650693 -0.056131408 0
-1.7496401 0.74579048 0.34301561 0
-1.6633741 0.7090193 0.46132511 0
-1.6633728 0.70901871 0.60157108 0
-1.4393148 0.59221041 -0.055565022 0
-1.7637854 0.72571474 0.34396994 0
-1.6600261 0.68302268 0.45797485 0
-1.6678092 0.68622512 0.60000288 0
-1.4585751 0.5787698 -0.056022774 0
-1.7681885 0.70162582 0.34307846 0
-1.6767185 0.66533005 0.4602322 0
-1.6730214 0.66386312 0.59882319 0
-1.4552284 0.55633742 -0.055620745 0
-1.7759527 0.67895108 0.34289891 0
-1.6646235 0.63638967 0.45467669 0
-1.6801828 0.64233804 0.59844393 0
-1.4740603 0.54236424 -0.05607504 0
-1.7906854 0.65886295 0.3441143 0
-1.6666178 0.6132136 0.45307636 0
-1.6633456 0.61200964 0.58965516 0
-1.4796516 0.5233646 -0.056032594 0
-1.8065308 0.63898438 0.34558567 0
-1.6744077 0.59225136 0.45313075 0
-1.6701864 0.59075826 0.58939642 0
-1.4852254 0.50438732 -0.055998713 0
-1.8136042 0.61590576 0.34542778 0
-1.6751022 0.56887007 0.4513444 0
-1.6667702 0.56604052 0.58562917 0
-1.4845304 0.4833906 -0.055738587 0
-1.8199669 0.59261495 0.34519097 0
-1.6587543 0.54012114 0.4450717 0
-1.6710483 0.54412431 0.58467853 0
-1.5029824 0.46855187 -0.056205407 0
-1.8206826 0.56759429 0.34394383 0
-1.6672772 0.51977044 0.44556707 0
-1.6646556 0.51895314 0.58010936 0
-1.4993963 0.44679925 -0.055856477 0
-1.821318 0.54272741 0.34274566 0
-1.6795781 0.5004909 0.44713467 0
-1.670923 0.49791181 0.58006257 0
-1.5040164 0.42763245 -0.055823561 0
-1.8291025 0.52006322 0.34295103 0
-1.6686898 0.47445357 0.44261044 0
-1.6727645 0.4756121 0.57857686 0
-1.5117841 0.40933877 -0.055916123 0
-1.8460593 0.49984893 0.3449229 0
-1.6740196 0.45326653 0.44247514 0
-1.6750071 0.45353392 0.57733148 0
-1.5173738 0.39041403 -0.055936597 0
-1.8436904 0.474374 0.34333697 0
-1.6739768 0.43070734 0.44099531 0
-1.6711463 0.42997909 0.57408905 0
-1.5209539 0.37098107 -0.055891935 0
-1.8557726 0.45264786 0.34449822 0
-1.676459 0.40891084 0.44025782 0
-1.6781436 0.40932176 0.57467657 0
-1.5303283 0.35291347 -0.056068674 0
-1.8580045 0.42847982 0.34388366 0
-1.665678 0.38412687 0.43612179 0
-1.6666577 0.38435277 0.56904078 0
-1.5275745 0.33207855 -0.05581015 0
-1.8600047 0.40434533 0.34328428 0
-1.6685193 0.36271843 0.4356353 0
-1.674435 0.36400446 0.570086 0
-1.5241936 0.31129846 -0.055539008 0
-1.8736143 0.38266349 0.34487942 0
-1.6668918 0.34044287 0.4340567 0
-1.6714451 0.34137282 0.56755954 0
-1.5385789 0.29410598 -0.055923805 0
-1.8732594 0.35808161 0.34395686 0
-1.6762205 0.32041678 0.43540072 0
