# .PCD v0.7 - Point Cloud Data file format
VERSION 0.7
FIELDS x y z intensity
SIZE 4 4 4 4
TYPE F F F F
COUNT 1 1 1 1
WIDTH 1349
HEIGHT 1
VIEWPOINT 0 0 0 1 0 0 0
POINTS 1349
DATA ascii
-1.5496056 -0.25594932 -0.056072481 0
-0.95438957 -0.15763712 0.034534588 0
-0.9512772 -0.15712304 0.10361823 0
-0.94687206 -0.15639545 0.17308083 0
-1.6733991 -0.27639636 0.43272221 0
-1.6734838 -0.27641037 0.56430179 0
-1.5373958 -0.27386141 -0.055751037 0
-0.94909704 -0.1690658 0.034417383 0
-0.95151556 -0.16949663 0.10386845 0
-0.94108498 -0.1676386 0.17239521 0
-1.666905 -0.29693133 0.43197554 0
-1.666899 -0.29693025 0.56329745 0
-1.53609 -0.29363021 -0.05583334 0
-0.94685727 -0.18099584 0.034416083 0
-0.94085628 -0.17984873 0.10294393 0
-0.9412939 -0.17993239 0.17283483 0
-1.6737261 -0.31993994 0.43475276 0
-1.6731342 -0.31982681 0.5667206 0
-1.5398512 -0.31449631 -0.056109544 0
-0.94186944 -0.19236566 0.034320112 0
-0.94052279 -0.19209062 0.10316392 0
-0.93433511 -0.19082686 0.17198467 0
-1.6787705 -0.34286895 0.43714988 0
-1.6735556 -0.34180388 0.56827617 0
-1.534983 -0.33368906 -0.056080822 0
-0.9381423 -0.20394221 0.034275159 0
-0.9513799 -0.20681992 0.10463218 0
-0.94438428 -0.20529915 0.17429648 0
-1.6713966 -0.36334395 0.43638656 0
-1.6799306 -0.36519912 0.57195705 0
-1.5332267 -0.35358188 -0.056174867 0
-0.95406431 -0.22001955 0.034955323 0
-0.94036853 -0.21686113 0.10371326 0
-0.94304693 -0.2174788 0.17454125 0
-1.6701223 -0.38515174 0.43728542 0
-1.6758189 -0.38646549 0.57216865 0
-1.5316399 -0.37358755 -0.056284625 0
-0.94133162 -0.22960342 0.034592006 0
-0.94659984 -0.23088841 0.10471287 0
-0.94088078 -0.22949345 0.17466134 0
-1.6854653 -0.41110763 0.44262299 0
-1.6602517 -0.40495768 0.56854957 0
-1.5210117 -0.39135006 -0.056070708 0
-0.98827279 -0.25427854 0.036431774 0
-0.99599701 -0.25626594 0.11052538 0
-1.0000597 -0.25731125 0.1862338 0
-1.6695732 -0.42957431 0.43983519 0
-1.6556313 -0.42598712 0.56875914 0
-1.5136033 -0.40983135 -0.055983409 0
-1.0556436 -0.28583172 0.039044924 0
-1.0457078 -0.28314146 0.1164282 0
-1.6723816 -0.45282304 0.31247249 0
-1.6662848 -0.4511722 0.44043067 0
-1.6694942 -0.45204121 0.57543129 0
-1.5110993 -0.42964634 -0.056086458 0
-1.1250722 -0.31988841 0.041758548 0
-1.1290284 -0.32101327 0.12614509 0
-1.6660264 -0.47369626 0.31237474 0
-1.6735634 -0.47583926 0.44390312 0
-1.6714441 -0.47523665 0.57812017 0
-1.5034635 -0.44801119 -0.056007989 0
-1.2097516 -0.36048916 0.045066446 0
-1.2052062 -0.35913467 0.13515091 0
-1.6729946 -0.49852914 0.31483337 0
-1.678285 -0.50010562 0.44679046 0
-1.6742303 -0.49889734 0.58121067 0
-1.4924077 -0.4652552 -0.055809956 0
-1.3098119 -0.40833136 0.048981622 0
-1.3155503 -0.41012028 0.1480922 0
-1.6763968 -0.52261347 0.31668693 0
-1.6689141 -0.52028072 0.44600451 0
-1.6668518 -0.51963782 0.58087468 0
-1.4915308 -0.48567006 -0.056001425 0
-1.4098562 -0.4590753 0.052934848 0
-1.4234698 -0.46350813 0.16088502 0
-1.6637948 -0.54176241 0.31557 0
-1.6721115 -0.54447049 0.44865566 0
-1.6797316 -0.54695177 0.5877167 0
-1.4833038 -0.50373471 -0.05592626 0
-1.5599787 -0.52977377 0.0588172 0
-1.5564961 -0.52859104 0.17665836 0
-1.666839 -0.56606382 0.31747419 0
-1.6736033 -0.56836104 0.45094049 0
-1.4825894 -0.52440369 -0.056143846 0
-1.7397571 -0.61536598 0.19832177 0
-1.673393 -0.59189248 0.3201167 0
-1.6660541 -0.58929664 0.4508701 0
-1.4795434 -0.54438168 -0.056283627 0
-1.6787397 -0.61767375 0.19223756 0
-1.6789461 -0.61774975 0.32264149 0
-1.6687655 -0.6140039 0.45366025 0
-1.4703417 -0.56211525 -0.056198392 0
-1.6906973 -0.64635777 0.19452347 0
-1.6709774 -0.63881874 0.32263038 0
-1.6740959 -0.64001095 0.45726398 0
-1.4514986 -0.57596177 -0.055750974 0
-1.6904086 -0.67076236 0.19544655 0
-1.680836 -0.66696393 0.32612962 0
-1.6666018 -0.66131574 0.45745534 0
-1.4483092 -0.59591115 -0.055912249 0
-1.6834346 -0.69265419 0.19563316 0
-1.6768241 -0.68993431 0.32701093 0
-1.668323 -0.68643653 0.46026388 0
-1.4524655 -0.61911875 -0.056369208 0
-1.6775682 -0.71506959 0.19598228 0
-1.6723509 -0.71284568 0.32786313 0
-1.664867 -0.70965564 0.46173915 0
-1.43199 -0.63181418 -0.0558789 0
-1.6842594 -0.74311894 0.19784148 0
-1.6708323 -0.73719472 0.3293592 0
-1.6766424 -0.73975819 0.46755138 0
-1.4274241 -0.65139306 -0.056016363 0
-1.6727459 -0.76334369 0.19760248 0
-1.6727934 -0.76336533 0.33161435 0
-1.6740299 -0.76392961 0.46946821 0
-1.4200667 -0.66976613 -0.056054167 0
-1.6675957 -0.78651172 0.19814834 0
-1.6763055 -0.79061961 0.33425769 0
-1.6631237 -0.78440249 0.46914247 0
-1.4159825 -0.68976671 -0.056231342 0
-1.9366416 -0.94339502 0.076907694 0
-1.6699992 -0.81350571 0.1996353 0
-1.6694542 -0.81324017 0.33490694 0
-1.6707774 -0.81388479 0.47415486 0
-1.3948604 -0.70134395 -0.055738837 0
-1.8856483 -0.94811493 0.075350791 0
-1.6671309 -0.83824313 0.20053832 0
-1.6692693 -0.83931834 0.33696336 0
-1.6733024 -0.8413462 0.47784016 0
-1.3929656 -0.72250617 -0.056022231 0
-1.8307717 -0.94958842 0.073629901 0
-1.6718607 -0.86716413 0.20240472 0
-1.6702312 -0.86631894 0.33933273 0
-1.3880664 -0.74229211 -0.056196667 0
-1.7827474 -0.95335448 0.072175547 0
-1.672672 -0.89448977 0.20385042 0
-1.6749173 -0.8956905 0.34254906 0
-1.3708465 -0.75543249 -0.0558802 0
-1.7422564 -0.9601053 0.071020082 0
-1.6750711 -0.92308152 0.20554309 0
-1.6676664 -0.91900104 0.3434056 0
-1.3754357 -0.7806986 -0.056463525 0
-1.6943443 -0.96171141 0.069555156 0
-1.6761838 -0.9514035 0.20713326 0
-1.6722405 -0.94916528 0.34678119 0
-1.3521123 -0.79013366 -0.055910077 0
-1.6879125 -0.98636514 0.069795474 0
-1.6723735 -0.97728467 0.20816664 0
-1.6651734 -0.97307712 0.34782907 0
-1.3434505 -0.80793422 -0.055968158 0
-1.678587 -1.009481 0.069929942 0
-1.6743239 -1.0069172 0.209971 0
-1.6687515 -1.003566 0.35118833 0
-1.3358029 -0.82641399 -0.056078643 0
-0.7918914 -0.48991519 0.033244573 0
-0.84350502 -0.52184671 0.10659658 0
-1.6803738 -1.0395877 0.35636094 0
-1.3345023 -0.84902793 -0.05646839 0
-0.77730042 -0.49452874 0.032890841 0
-0.80310363 -0.51094508 0.10229589 0
-0.85809928 -0.54593402 0.18342255 0
-1.3113005 -0.85764968 -0.055939171 0
-0.77554512 -0.50724149 0.033084217 0
-0.79130042 -0.51754618 0.10161451 0
-0.8445909 -0.55240059 0.18200751 0
-1.3037428 -0.87634104 -0.056083068 0
-1.6806833 -1.1297104 0.072297908 0
-0.76530534 -0.51441777 0.099100329 0
-0.82904267 -0.55726033 0.18015479 0
-1.2895294 -0.89056313 -0.055949617 0
-0.75399345 -0.52071607 0.032713983 0
-0.76697582 -0.52968186 0.10017239 0
-0.81565559 -0.56330061 0.17877293 0
-1.2826369 -0.90986675 -0.056143213 0
-0.75118524 -0.53286982 0.032880664 0
-0.75655699 -0.5366804 0.099686354 0
-0.80587631 -0.57166612 0.17819315 0
-1.2711524 -0.92599809 -0.056146458 0
-0.72837448 -0.53059995 0.032172106 0
-0.74514586 -0.54281741 0.099075571 0
-0.80740678 -0.58817273 0.18015498 0
-1.2501385 -0.93500906 -0.055733915 0
-0.73175728 -0.54729909 0.09820395 0
-0.77017921 -0.57603574 0.17345318 0
-1.2374421 -0.95004267 -0.055696804 0
-0.71789169 -0.55115932 0.097266845 0
-0.74403286 -0.5712291 0.16917126 0
-1.2355537 -0.97356331 -0.056159142 0
-0.72927582 -0.57463807 0.16744792 0
-1.2200991 -0.98653799 -0.056016896 0
-0.72700584 -0.58783656 0.16861294 0
-1.2159351 -1.0087533 -0.056404438 0
-0.71289927 -0.59142917 0.16705525 0
-1.1932305 -1.0155518 -0.055939998 0
-0.71113694 -0.6052447 0.16841486 0
-1.4545784 -1.2379835 0.48732227 0
-1.1805328 -1.0306561 -0.055948716 0
-1.7131134 -1.4956219 0.41013539 0
-1.4317969 -1.2500205 0.48492494 0
-1.165315 -1.0435162 -0.055845823 0
-1.6228164 -1.4531994 0.39286724 0
-1.4069959 -1.2599365 0.48186037 0
-1.162832 -1.0679778 -0.056366839 0
-0.74362355 -0.68296492 0.036046233 0
-1.3562219 -1.2455926 0.46980599 0
-1.1362244 -1.0702254 -0.055725906 0
-0.73427391 -0.69162267 0.036012322 0
-1.3213669 -1.2446136 0.46312425 0
-1.1211524 -1.0829918 -0.055651128 0
-0.69994849 -0.67612439 0.034743648 0
-1.2918159 -1.2478464 0.45823789 0
-1.1112639 -1.1008232 -0.055843927 0
-0.6865133 -0.68006325 0.034499098 0
-1.2700174 -1.2580851 0.4560889 0
-1.103665 -1.1211786 -0.056167081 0
-0.6840992 -0.69495493 0.034814782 0
-1.2529355 -1.2728179 0.45567411 0
-1.0871488 -1.1325779 -0.056047898 0
-0.65964854 -0.68721354 0.034008149 0
-0.64029598 -0.66705233 0.099369168 0
-1.0710477 -1.1443022 -0.055956241 0
-0.64585716 -0.69003069 0.03374242 0
-0.64384192 -0.68787766 0.10125571 0
-1.0490814 -1.1495088 -0.055560455 0
-0.63446611 -0.69520283 0.033601996 0
-1.0449769 -1.1743735 -0.056121811 0
-0.63427758 -0.71281838 0.034064684 0
-1.0267713 -1.1835924 -0.055940062 0
-1.011708 -1.1963334 -0.055935692 0
-1.0055357 -1.2198606 -0.056439236 0
-0.97878748 -1.2183479 -0.055794578 0
-0.96780688 -1.2362437 -0.056051578 0
-0.95407325 -1.2508342 -0.056163952 0
-0.94250989 -1.2684836 -0.05641906 0
-0.91630906 -1.2662185 -0.055800688 0
-0.90394861 -1.2828431 -0.056027252 0
-0.88891017 -1.2958519 -0.05610209 0
-0.87418371 -1.3094287 -0.056208853 0
-0.85604799 -1.3179008 -0.056105353 0
-0.80986696 -1.2468042 0.49463081 0
-0.8364737 -1.3239652 -0.05591068 0
-0.78117323 -1.2364359 0.48657653 0
-0.82124323 -1.3368441 -0.056013409 0
-0.76363689 -1.2430708 0.48536491 0
-0.80703348 -1.3515801 -0.056200586 0
-0.74333924 -1.2449082 0.4823893 0
-0.78657818 -1.3558199 -0.055960596 0
-0.72190249 -1.2443389 0.47860837 0
-0.76605374 -1.3595988 -0.055714 0
-0.70738631 -1.2554753 0.47942761 0
-0.75395226 -1.3784207 -0.0560918 0
-0.68743342 -1.256807 0.47659281 0
-0.7364704 -1.3876802 -0.056086771 0
-0.65662926 -1.237241 0.4660008 0
-0.71306711 -1.3854338 -0.055628654 0
-0.64134818 -1.2460895 0.46625474 0
-0.70038688 -1.4039654 -0.05601418 0
-0.6229912 -1.2488214 0.46430483 0
-0.67468685 -1.3961862 -0.05536047 0
-0.59706426 -1.2355553 0.45654109 0
-0.66080451 -1.4125887 -0.055676498 0
-0.58221197 -1.244583 0.45713168 0
-0.64658022 -1.4287839 -0.055989474 0
-0.56557935 -1.2497919 0.45639282 0
-0.62752301 -1.4344896 -0.055898983 0
-0.54700059 -1.2504189 0.45407051 0
-0.61204332 -1.4485062 -0.056140404 0
-0.53386843 -1.2634919 0.45634037 0
-0.59120053 -1.4498302 -0.055898752 0
-0.51134998 -1.2540087 0.34551474 0
-0.51728761 -1.2685697 0.45578563 0
-0.57420939 -1.4604931 -0.056026649 0
-0.48259386 -1.2274704 0.33650166 0
-0.50120831 -1.2748159 0.45572609 0
-0.55588698 -1.4679043 -0.056037989 0
-0.46402058 -1.2253171 0.1408101 0
-0.46256298 -1.2214681 0.23555699 0
-0.44200981 -1.1671944 0.31842634 0
-0.48255691 -1.2742652 0.45332104 0
-0.53502649 -1.4683825 -0.055794623 0
-0.44070083 -1.2095052 0.13834435 0
-0.4414123 -1.2114578 0.2325362 0
-0.4275088 -1.1732997 0.31859806 0
-0.51962435 -1.4839383 -0.05613263 0
-0.42347154 -1.2093461 0.1377053 0
-0.42202416 -1.2052126 0.23029913 0
-0.41330925 -1.1803247 0.31906715 0
-0.43473628 -1.2415158 0.43763602 0
-0.49777603 -1.4810727 -0.055782706 0
-0.40783682 -1.2134694 0.13757913 0
-0.40779203 -1.2133361 0.23085187 0
-0.40739 -1.2121398 0.32625487 0
-0.41890919 -1.2464138 0.43746847 0
-0.47901925 -1.4870092 -0.055774692 0
-0.39780542 -1.2348989 0.13942975 0
-0.39603466 -1.2294019 0.2329413 0
-0.41242766 -1.2802904 0.34317297 0
-0.41221425 -1.2796278 0.44726866 0
-0.4623929 -1.4998475 -0.056033399 0
-0.40782052 -1.3228331 0.35317174 0
-0.44384554 -1.5068212 -0.056080677 0
-0.3630183 -1.2324189 0.32778645 0
-0.42727467 -1.5209652 -0.056402378 0
-0.34803644 -1.2389016 0.32831898 0
-0.40645996 -1.5201284 -0.056177087 0
-0.33182436 -1.2409971 0.327741 0
-0.38707808 -1.5243009 -0.056146711 0
-0.31620574 -1.245208 0.32777554 0
-0.36960182 -1.5363165 -0.056413393 0
-0.34630388 -1.5235823 -0.055781245 0
-0.32613441 -1.5233459 -0.055617824 0
-0.30903405 -1.5378126 -0.055999491 0
-0.2886166 -1.5360997 -0.055800349 0
-0.49660096 -2.6430516 0.096011482 0
-0.26909664 -1.5387216 -0.055768076 0
-0.42924634 -2.4544735 0.088957794 0
-0.25029597 -1.5456623 -0.055900969 0
-0.39899394 -2.4639227 0.089111097 0
-0.2315492 -1.5536219 -0.056078944 0
-0.36669803 -2.4604278 0.08881066 0
-0.21097539 -1.5491195 -0.055816106 0
-0.33505046 -2.4601598 0.088641673 0
-0.19243512 -1.5596097 -0.056102321 0
-0.30489063 -2.4710166 0.088887475 0
-0.17350844 -1.5684713 -0.056338031 0
-0.27223107 -2.4608984 0.088393189 0
-0.15294805 -1.5623834 -0.056045737 0
-0.24253511 -2.4775264 0.088873699 0
-0.13281851 -1.5589607 -0.055858534 0
-0.21035145 -2.4690056 0.088466011 0
-0.11311661 -1.5596523 -0.055827852 0
-0.17855397 -2.4619029 0.08812397 0
-0.093409605 -1.5599488 -0.055791941 0
-0.14793816 -2.4705806 0.088360898 0
-0.073959239 -1.5652061 -0.055942222 0
-0.11666438 -2.4689786 0.088244073 0
-0.054574076 -1.5754977 -0.056281034 0
-0.085346662 -2.4638708 0.088016123 0
-0.034451395 -1.5633121 -0.055825807 0
-0.054450277 -2.4708078 0.088232435 0
-0.01478253 -1.565513 -0.055893324 0
0.0049170665 -1.5613587 -0.055742797 0
0.024631592 -1.5646998 -0.055868719 0
0.044253118 -1.5615138 -0.055770438 0
0.064453445 -1.5740814 -0.056243826 0
0.083650887 -1.561626 -0.055831991 0
0.10377588 -1.5675311 -0.056085389 0
0.12437432 -1.5771265 -0.056480262 0
0.14274664 -1.5593148 -0.055902332 0
0.16148432 -1.5489084 -0.055597745 0
0.18060158 -1.5435681 -0.055483289 0
0.20093483 -1.5482001 -0.055736315 0
0.22102073 -1.5498114 -0.055890087 0
0.24025345 -1.5452093 -0.055828799 0
0.26156944 -1.5532192 -0.056232743 0
0.28018209 -1.5447111 -0.056048006 0
0.29973763 -1.541719 -0.056071941 0
0.31787586 -1.5317985 -0.055852287 0
0.3388536 -1.5354493 -0.05613653 0
0.3582035 -1.5312473 -0.056143362 0
0.37625167 -1.5217474 -0.055964325 0
0.39330754 -1.5089288 -0.055670626 0
0.41329658 -1.5075811 -0.055808492 0
0.43298253 -1.5048172 -0.055903576 0
0.45122185 -1.4970106 -0.055820219 0
0.47165176 -1.496339 -0.056012191 0
0.4862065 -1.4773721 -0.055526983 0
0.50579035 -1.4741071 -0.055639241 0
0.53222901 -1.4897852 -0.05647948 0
0.5421176 -1.4592052 -0.055574547 0
0.56522942 -1.464654 -0.056048702 0
0.49086905 -1.2719673 0.45359445 0
0.58218437 -1.4538201 -0.055910219 0
0.508672 -1.2702464 0.45522884 0
0.59790671 -1.4402636 -0.055674002 0
0.52606583 -1.2672101 0.45647857 0
0.62081909 -1.4438428 -0.056110099 0
0.53970844 -1.2552032 0.4545655 0
0.63880736 -1.4355918 -0.056097608 0
0.55696058 -1.2516576 0.45578516 0
0.65330267 -1.4197634 -0.055796131 0
0.57280672 -1.2448289 0.45588893 0
0.67375392 -1.4169488 -0.056014497 0
0.59534419 -1.2520479 0.46124166 0
0.68874836 -1.4026644 -0.055788241 0
0.61421883 -1.2508819 0.46362463 0
0.71402985 -1.4090261 -0.056394402 0
0.63147378 -1.2461147 0.46476805 0
0.72896844 -1.39467 -0.056182757 0
0.64954662 -1.2427193 0.4665153 0
0.7433508 -1.3795897 -0.055947896 0
0.66902077 -1.2416401 0.46923551 0
0.75994819 -1.3688338 -0.055895351 0
0.6985597 -1.2582597 0.051380135 0
0.69715965 -1.2557379 0.15435635 0
0.69466072 -1.2512368 0.25810331 0
0.69731575 -1.2560191 0.36652386 0
0.69733292 -1.2560499 0.47796178 0
0.77610719 -1.3573797 -0.055822272 0
0.71130699 -1.2440467 0.051161453 0
0.71339184 -1.2476931 0.15445945 0
0.71264941 -1.2463945 0.25893503 0
0.7142446 -1.2491845 0.36712489 0
0.71546173 -1.2513132 0.47954959 0
0.79978901 -1.3588018 -0.056290474 0
0.7332449 -1.2457467 0.051606987 0
0.73272693 -1.2448667 0.15523946 0
0.7286548 -1.2379483 0.25906599 0
0.73162967 -1.2430024 0.36798644 0
0.7317996 -1.2432913 0.4799687 0
0.8130278 -1.3423387 -0.056028135 0
0.8269425 -1.3273045 -0.055830825 0
0.84889877 -1.3250747 -0.056182217 0
0.86379999 -1.3116755 -0.056070842 0
0.88374418 -1.3058628 -0.056293603 0
0.89596593 -1.2886621 -0.056034021 0
0.91135961 -1.2762128 -0.055987265 0
0.92868334 -1.2664461 -0.056067377 0
0.94457382 -1.2546763 -0.056068443 0
0.95847505 -1.240326 -0.055962075 0
0.97302431 -1.2269086 -0.055905085 0
0.77654654 -0.97916526 0.044616461 0
0.77410293 -0.97608399 0.13388343 0
0.98458028 -1.2098716 -0.055689294 0
0.77902889 -0.957286 0.044063009 0
0.77263254 -0.94942605 0.13155098 0
1.0000603 -1.197767 -0.055707358 0
0.78114825 -0.93557721 0.043513082 0
0.76963663 -0.92178982 0.12905434 0
1.0225199 -1.1937869 -0.056116637 0
0.77613211 -0.90613031 0.042594694 0
0.77225971 -0.9016093 0.12758033 0
1.0352989 -1.1783463 -0.055999197 0
0.7774359 -0.88485426 0.042051416 0
0.77468985 -0.88172883 0.12613757 0
1.0539027 -1.1694884 -0.056204472 0
0.76660943 -0.85068649 0.040883161 0
0.77637035 -0.86151797 0.12463493 0
1.0722636 -1.1601498 -0.056400094 0
1.0807474 -1.1401856 -0.056086693 0
1.0859509 -1.1171596 -0.055622272 0
1.1049032 -1.1083853 -0.055873703 0
1.1212659 -1.0968254 -0.055998281 0
1.1303037 -1.0781529 -0.055767201 0
1.1499716 -1.0695854 -0.056068622 0
1.1659124 -1.0573469 -0.056192223 0
1.1753143 -1.0392063 -0.056010231 0
1.1944202 -1.0295957 -0.05629842 0
1.1998096 -1.0081897 -0.055949621 0
1.2120711 -0.99272603 -0.055934034 0
1.2305449 -0.98223132 -0.056211326 0
1.2326152 -0.95872611 -0.055750009 0
1.2529421 -0.94945985 -0.056124177 0
1.2575679 -0.92827189 -0.055803362 0
1.2686825 -0.91202343 -0.055782534 0
1.2806829 -0.89640909 -0.055809438 0
1.2927045 -0.88078243 -0.055845562 0
1.306991 -0.86662328 -0.055986878 0
1.3123053 -0.84655392 -0.055753469 0
1.3350427 -0.83760649 -0.056266904 0
1.3320982 -0.81256551 -0.055707149 0
1.3462031 -0.79808748 -0.055872306 0
1.3633084 -0.78519952 -0.056167424 0
1.3621081 -0.76183099 -0.055718321 0
1.3820591 -0.7503022 -0.056143507 0
1.3914999 -0.73289526 -0.056147669 0
1.3966805 -0.71330571 -0.055989835 0
1.4037694 -0.69478142 -0.055918861 0
1.4010841 -0.67162383 -0.055470604 0
1.4233454 -0.66038573 -0.056018289 0
1.427338 -0.64052266 -0.055853557 0
1.4332625 -0.62162066 -0.055774666 0
1.4438899 -0.60474539 -0.055887457 0
1.4523951 -0.5869233 -0.055926163 0
1.4520811 -0.56563324 -0.0556354 0
1.459631 -0.5475086 -0.055656102 0
1.4856136 -0.53601581 -0.056384992 0
1.4821229 -0.51375896 -0.056002527 0
1.4877605 -0.49481916 -0.055975679 0
1.4890176 -0.47449994 -0.055793744 0
1.4981241 -0.45670459 -0.055915046 0
1.5034481 -0.43771559 -0.055903602 0
1.5045555 -0.4175615 -0.055744849 0
1.5109721 -0.3989217 -0.055792049 0
1.5186301 -0.38055548 -0.055893447 0
1.5225278 -0.36122039 -0.055865061 0
1.5272264 -0.34208199 -0.055874977 0
1.5263085 -0.32174933 -0.055688754 0
1.5206603 -0.30061221 -0.055340171 0
1.542562 -0.28480864 -0.05600227 0
1.545931 -0.26534706 -0.055998836 0
1.5515059 -0.24623485 -0.056084011 0
1.554601 -0.22669715 -0.056088254 0
1.5565451 -0.20700023 -0.056059916 0
1.548279 -0.18609305 -0.055673394 0
1.5544381 -0.16700676 -0.055814821 0
1.5496813 -0.1467832 -0.055573244 0
1.558985 -0.12788084 -0.055844709 0
1.5623095 -0.10836868 -0.055910487 0
1.5691674 -0.089007348 -0.056111351 0
1.5699342 -0.069232456 -0.056103151 0
1.5607908 -0.049148146 -0.055749863 0
1.5586098 -0.029441455 -0.055654306 0
1.5641252 -0.009847505 -0.055842392 0
1.5682276 0.0098733334 -0.055988859 0
1.574276 0.029737381 -0.05621371 0
1.562506 0.049202155 -0.055811126 0
1.5665957 0.069085233 -0.055983841 0
1.5780751 0.089512616 -0.056429874 0
1.5705856 0.10894275 -0.056206662 0
1.5656967 0.12843139 -0.056085136 0
1.5549262 0.14727998 -0.05576133 0
1.5581076 0.167401 -0.055946581 0
1.5684338 0.18851551 -0.056398124 0
1.5564429 0.20698662 -0.056056231 0
1.5492072 0.22591062 -0.055893656 0
1.54202 0.24472937 -0.055741113 0
1.5332245 0.26316607 -0.055538557 0
1.541496 0.28461179 -0.055963565 0
1.5414722 0.30472642 -0.056097563 0
1.5358125 0.32375279 -0.056035515 0
1.5277536 0.3422001 -0.055894267 0
1.5314566 0.36333874 -0.056192677 0
1.5191256 0.38067961 -0.055911679 0
1.5174383 0.40062889 -0.05603081 0
1.5091175 0.41882762 -0.055913877 0
1.5041933 0.43793255 -0.055931315 0
1.5031216 0.45822805 -0.056101568 0
1.4950432 0.4764201 -0.056019522 0
1.4888328 0.49517578 -0.05601602 0
1.4823307 0.51383102 -0.05601038 0
1.4793814 0.53376716 -0.056148455 0
1.4663966 0.55004644 -0.055914078 0
1.4564698 0.56734276 -0.055803549 0
1.4541669 0.58763933 -0.055994388 0
1.4387431 0.60258979 -0.055688247 0
1.4452404 0.62681562 -0.056240778 0
1.4435242 0.64778626 -0.056486946 0
1.4375149 0.66695994 -0.056575954 0
1.4193065 0.68035895 -0.056192052 0
1.3940994 0.68999535 -0.055533659 0
1.4035399 0.71680892 -0.056264814 0
1.3916826 0.73299152 -0.056155045 0
1.37503 0.74648625 -0.055857964 0
1.368472 0.7653904 -0.055978645 0
1.3595853 0.78305513 -0.056014031 0
1.3514067 0.80117238 -0.056088276 0
1.3403524 0.81760049 -0.056052335 0
1.3271886 0.83267879 -0.055935886 0
1.323915 0.85404325 -0.056246709 0
1.3009001 0.86258459 -0.055725962 0
1.300984 0.88642365 -0.056203246 0
1.2826058 0.89775497 -0.055893231 0
1.2697521 0.91279238 -0.055829562 0
1.2556803 0.92687863 -0.055719607 0
1.2504644 0.9475823 -0.056013189 0
1.2378285 0.96278101 -0.055985801 0
1.2169397 0.97137147 -0.05558984 0
1.2146651 0.99485058 -0.056053739 0
1.1971663 1.0059685 -0.055826358 0
1.188609 1.0245863 -0.05602451 0
1.1758809 1.0397072 -0.056037232 0
1.1625218 1.0542721 -0.056028809 0
1.1465476 1.0664008 -0.055901676 0
1.1377068 1.0852143 -0.056132447 0
1.1285437 1.1039447 -0.05636175 0
1.1005991 1.1040676 -0.055656049 0
1.0939137 1.1253513 -0.056030128 0
1.0770956 1.1363331 -0.055897184 0
0.5977689 0.63064462 0.28908813 0
1.0703137 1.1580399 -0.056297526 0
0.61334306 0.66361463 0.30063739 0
1.047354 1.1622214 -0.055855226 0
1.0022541 1.1121752 0.053450055 0
1.0121191 1.1231222 0.16248095 0
1.019621 1.1314468 0.27468705 0
0.61489719 0.68233538 0.30558646 0
1.0314213 1.1739329 -0.055789459 0
0.98101681 1.116564 0.053063083 0
0.98459446 1.120636 0.16031492 0
0.98985678 1.1266254 0.27046901 0
0.6145885 0.69950622 0.30978596 0
1.0244889 1.1960857 -0.0562247 0
0.95794284 1.1183934 0.052572601 0
0.95763052 1.1180288 0.15820432 0
0.95713621 1.1174517 0.26535219 0
0.61992824 0.72376311 0.31704623 0
1.0065253 1.20551 -0.056067482 0
0.93321455 1.1177062 0.051983781 0
0.93315184 1.1176311 0.15647292 0
0.93092787 1.1149675 0.26195791 0
0.62415314 0.747545 0.32399538 0
0.99022341 1.2168061 -0.056008477 0
0.90475315 1.1117784 0.051174153 0
0.91563898 1.1251552 0.15589973 0
0.90783328 1.1155634 0.25939152 0
0.62908781 0.77303547 0.33158368 0
0.97309422 1.2269968 -0.055909101 0
0.88705075 1.1185025 0.050965473 0
0.8854956 1.1165416 0.15314913 0
0.8876847 1.1193019 0.25764129 0
0.61886853 0.78034544 0.33135024 0
0.95819902 1.2399688 -0.055945959 0
0.86261255 1.116274 0.050364994 0
0.86205906 1.1155578 0.15151323 0
0.86777085 1.1229491 0.2559453 0
0.61686528 0.79826182 0.33563298 0
0.94507349 1.25534 -0.056098104 0
0.84511894 1.1225705 0.050164957 0
0.84622037 1.1240336 0.15120517 0
0.84646332 1.1243563 0.25381652 0
0.60666203 0.80582851 0.33557585 0
0.92716134 1.2643704 -0.055975486 0
0.82085818 1.1194048 0.049557649 0
0.82176739 1.1206447 0.14934546 0
0.81509632 1.1115474 0.24858825 0
0.59769374 0.81507534 0.33626571 0
0.90236795 1.2636214 -0.055434886 0
0.81377661 1.1395634 0.049992479 0
0.81207246 1.1371771 0.15017401 0
0.80577326 1.1283561 0.25005838 0
0.59237152 0.82952118 0.33912119 0
0.89027452 1.2804762 -0.055678081 0
0.81325674 1.1697019 0.050861362 0
0.8091594 1.1638088 0.15233332 0
0.8084026 1.1627203 0.25539777 0
0.5786621 0.83228594 0.33724585 0
0.87760282 1.296788 -0.055902403 0
0.8146553 1.2037737 0.051892713 0
0.81651431 1.2065207 0.15656577 0
0.8107022 1.1979324 0.26086926 0
0.56906205 0.84087342 0.33779514 0
0.8580634 1.3029647 -0.055698469 0
0.80571514 1.223474 0.052300449 0
0.81684566 1.2403756 0.15961158 0
0.79944134 1.2139473 0.26214379 0
0.73995668 1.1236202 0.34325054 0
0.56538439 0.85853314 0.34200227 0
0.84173632 1.3138946 -0.055708189 0
0.82002181 1.2799996 0.054271068 0
0.81315964 1.2692883 0.16200159 0
0.78678185 1.2281142 0.26304278 0
0.71346819 1.1136765 0.33744159 0
0.55942225 0.87322104 0.34501979 0
0.82573569 1.3253673 -0.055749346 0
0.817002 1.3113492 0.055159692 0
0.81222415 1.3036804 0.16507266 0
0.77412713 1.2425318 0.26402199 0
0.69923103 1.122318 0.33736536 0
0.54365736 0.87261063 0.34204659 0
0.81381083 1.3436315 -0.056082096 0
0.75480938 1.246218 0.26276478 0
0.6790244 1.1210941 0.33440071 0
0.5320217 0.87838727 0.34165785 0
0.40477777 0.66830289 0.46336511 0
0.79081178 1.34355 -0.055658642 0
0.7456243 1.2667787 0.26509932 0
0.65931016 1.1201352 0.33161202 0
0.52667558 0.89479566 0.34543309 0
0.4142215 0.70374173 0.4842816 0
0.77959138 1.3634733 -0.056072876 0
0.72000211 1.2592542 0.2616066 0
0.63994211 1.1192325 0.32893309 0
0.51248509 0.8963154 0.34350127 0
0.41486192 0.72557646 0.34605372 0
0.40168783 0.70253551 0.40490764 0
0.40453035 0.70750701 0.48332894 0
0.7609657 1.3706666 -0.055970192 0
0.71195996 1.2823964 0.2645309 0
0.62171632 1.1198478 0.3267872 0
0.50308067 0.90615886 0.34481853 0
0.42133641 0.75891954 0.35939735 0
0.40843487 0.73568106 0.4210135 0
0.40780476 0.73454607 0.49825296 0
0.74793822 1.3881035 -0.056293167 0
0.69099665 1.2824253 0.26272112 0
0.60219294 1.1176139 0.32389683 0
0.49171835 0.91258335 0.34487972 0
0.42095453 0.78125226 0.36743394 0
0.40637317 0.75419062 0.4286437 0
0.40449277 0.75070077 0.50571585 0
0.72453326 1.3861847 -0.055840932 0
0.68630058 1.3130374 0.2672008 0
0.58433223 1.1179504 0.32183641 0
0.47434711 0.9075259 0.34068409 0
0.41956449 0.80271518 0.37501374 0
0.40582395 0.77642661 0.43834236 0
0.40842736 0.78140748 0.52289563 0
0.7118389 1.4047028 -0.056221366 0
0.66025627 1.3029125 0.26342762 0
0.56081837 1.1066873 0.31653586 0
0.46518937 0.91797847 0.34238183 0
0.41576371 0.82044458 0.38082054 0
0.40867105 0.8064484 0.45235044 0
0.41072553 0.81050259 0.53886157 0
0.68844211 1.4020407 -0.055763435 0
0.6441986 1.3119371 0.26359126 0
0.54796541 1.1159542 0.31718767 0
0.45586792 0.92839384 0.34409821 0
0.41995263 0.8552509 0.39449051 0
0.40866125 0.83225548 0.46390286 0
0.40919012 0.83333254 0.55057073 0
0.67104828 1.4112586 -0.055789553 0
0.53698587 1.1293166 0.31903845 0
0.44203931 0.92963767 0.34246901 0
0.40642703 0.85474271 0.39186442 0
0.4085359 0.85917783 0.47600424 0
0.40398452 0.84960598 0.55791718 0
0.65236986 1.4177362 -0.055716462 0
0.51360869 1.1161792 0.31347513 0
0.43439528 0.94403189 0.3457292 0
0.40541679 0.88105553 0.40155548 0
0.40563327 0.88152599 0.48551729 0
0.40387732 0.87770993 0.57298732 0
0.63882095 1.4356223 -0.0560988 0
0.49414474 1.1104914 0.31010562 0
0.42451093 0.95400339 0.34739581 0
0.40620282 0.91285962 0.41368663 0
0.40691143 0.91445208 0.50079018 0
0.40774059 0.91631544 0.59479082 0
0.61926293 1.4402237 -0.055969454 0
0.48208243 1.1211821 0.31137112 0
0.42093921 0.9789809 0.35453299 0
0.40596667 0.94415921 0.42552051 0
0.40906441 0.95136362 0.51814246 0
0.40911722 0.95148647 0.61422801 0
0.59701127 1.4381065 -0.055590622 0
0.46537322 1.1210111 0.30967164 0
0.41330382 0.99558413 0.35863256 0
0.41127577 0.99069887 0.44412607 0
0.40554428 0.97689259 0.52922308 0
0.40820444 0.98330051 0.63139713 0
0.58517015 1.4612761 -0.056196958 0
0.45059305 1.1252127 0.3092404 0
0.41872531 1.0456332 0.37473235 0
0.41032115 1.0246464 0.45699212 0
0.40879223 1.0208284 0.55019265 0
0.40667403 1.0155389 0.64875835 0
0.56026715 1.4517956 -0.05555664 0
0.42847642 1.1102921 0.30363289 0
0.4158501 1.077574 0.38427216 0
0.40829939 1.0580082 0.46954116 0
0.40683335 1.0542094 0.56537795 0
0.40828297 1.0579656 0.67252421 0
0.54658842 1.4712392 -0.056032874 0
0.41207892 1.1091832 0.30188665 0
0.41005567 1.1037372 0.39172977 0
0.40621004 1.0933861 0.4829334 0
0.40675592 1.0948554 0.58438337 0
0.40606895 1.0930063 0.69149351 0
0.52898067 1.4806926 -0.056134775 0
0.40203038 1.1253406 0.30488223 0
0.40527025 1.1344095 0.40077275 0
0.40699559 1.139239 0.50088269 0
0.40739679 1.140362 0.60588652 0
0.50819808 1.4811244 -0.055904105 0
0.38193139 1.1131248 0.30024588 0
0.40799725 1.1890928 0.41824347 0
0.40789494 1.1887946 0.52037102 0
0.40723372 1.1868675 0.62782103 0
0.48961908 1.4877414 -0.055916712 0
0.59667319 1.8130326 0.34423015 0
0.36573526 1.1113118 0.29849097 0
0.40782791 1.2392132 0.43403178 0
0.40510187 1.23093 0.53653949 0
0.40786892 1.2393379 0.65280795 0
0.47181344 1.4968518 -0.056031391 0
0.57415241 1.8215274 0.34444302 0
0.34970132 1.109445 0.29678327 0
0.4102613 1.3015746 0.45402831 0
0.41056034 1.3025233 0.56544739 0
0.40676498 1.2904824 0.67699605 0
0.45269021 1.5018822 -0.056001868 0
0.54917103 1.8219748 0.34319276 0
0.33938262 1.1259636 0.30003509 0
0.4062413 1.3477794 0.46832436 0
0.40539414 1.3449688 0.58161151 0
0.4318372 1.5008366 -0.055755697 0
0.52660632 1.8302038 0.34346649 0
0.3237364 1.1251357 0.29870453 0
0.40756261 1.4164711 0.49037108 0
0.40809149 1.4183091 0.61105585 0
0.41278419 1.505712 -0.055739302 0
0.30644235 1.1178092 0.04137969 0
0.30700415 1.1198585 0.124791 0
0.30753902 1.1218095 0.2097818 0
0.30595821 1.1160432 0.2952444 0
0.40208125 1.466671 0.50595701 0
0.40486181 1.4768137 0.63401484 0
0.39728108 1.5241733 -0.05623306 0
0.29104033 1.1165794 0.041195236 0
0.29045132 1.1143197 0.12375641 0
0.29501778 1.1318389 0.2109459 0
0.29218265 1.120962 0.29554889 0
0.3977882 1.5261188 0.5246951 0
0.39802387 1.527023 0.65336686 0
0.37291715 1.5082608 -0.055468339 0
0.27540401 1.1138697 0.040964067 0
0.27757627 1.1226554 0.12428413 0
0.27868596 1.1271435 0.20940015 0
0.27865899 1.1270344 0.29620129 0
0.39528391 1.5987232 0.54790246 0
0.39136466 1.5828718 0.67510074 0
0.35555986 1.5199462 -0.055729005 0
0.2612856 1.116943 0.040952846 0
0.2604503 1.1133722 0.12288361 0
0.26379868 1.1276858 0.20886722 0
0.26127616 1.1169025 0.29265061 0
0.38415155 1.64217 0.56108993 0
0.33627394 1.52376 -0.055709168 0
0.25083965 1.1366311 0.041555606 0
0.24873005 1.1270719 0.12404013 0
0.24743535 1.1212052 0.20707339 0
0.24636117 1.1163378 0.29166666 0
0.3757382 1.7025846 0.5800696 0
0.31954077 1.5398215 -0.056144826 0
0.23185942 1.1172975 0.040738795 0
0.23472269 1.1310953 0.1241478 0
0.23015176 1.1090685 0.20428045 0
0.23213819 1.1186409 0.29148155 0
0.36092761 1.7392589 0.5909692 0
0.29705885 1.5279405 -0.055570822 0
0.21786433 1.1205987 0.040755898 0
0.21822779 1.122468 0.12288953 0
0.21844533 1.123587 0.20643161 0
0.21692432 1.1157637 0.28999707 0
0.34744358 1.7870975 0.60568929 0
0.28004539 1.5439574 -0.056020655 0
0.20232366 1.1154588 0.040473096 0
0.2033996 1.1213907 0.12248146 0
0.20395057 1.1244284 0.20609799 0
0.20248032 1.1163225 0.2894567 0
0.33142763 1.82724 0.61783111 0
0.26140761 1.5522583 -0.056197952 0
0.18848997 1.1192677 0.040521968 0
0.18797193 1.1161916 0.12164543 0
0.18929657 1.1240574 0.20557681 0
0.18679957 1.10923 0.28698501 0
0.31365946 1.8625338 0.62837946 0
0.24023701 1.5451035 -0.055824976 0
0.17389868 1.1184433 0.040409636 0
0.17477782 1.1240975 0.12225749 0
0.17544764 1.1284056 0.20595165 0
0.17422032 1.1205119 0.28931338 0
0.29377797 1.8894564 0.63616407 0
0.22149689 1.5531504 -0.0560105 0
0.15942197 1.1178769 0.040313449 0
0.15868036 1.1126767 0.12078847 0
0.15995957 1.1216466 0.20433421 0
0.16054212 1.1257316 0.2901161 0
0.27524069 1.9300053 0.64859819 0
0.20175634 1.5545298 -0.055964191 0
0.14510587 1.1180387 0.040250193 0
0.14507698 1.1178161 0.12113845 0
0.14449252 1.1133128 0.2024685 0
0.14499226 1.1171634 0.28741467 0
0.25578004 1.9707816 0.66116667 0
0.1826358 1.5609542 -0.056108229 0
0.13079891 1.117914 0.040183224 0
0.12956223 1.1073443 0.11981732 0
0.13210788 1.1291015 0.20502105 0
0.13058029 1.1160455 0.28668129 0
0.23505145 2.0089409 0.67292225 0
0.16229245 1.5566597 -0.055875979 0
0.1188791 1.1402522 0.12320629 0
0.11975332 1.1486374 0.20827806 0
0.11975262 1.1486306 0.29464081 0
0.21266617 2.0398293 0.68231755 0
0.14272018 1.5590258 -0.055891968 0
0.11918512 1.301937 0.14050332 0
0.11916966 1.3017681 0.23575386 0
0.1193402 1.3036311 0.33398876 0
0.18907572 2.0653977 0.69001907 0
0.12338325 1.5645593 -0.056030206 0
0.17043348 2.1611788 0.23298149 0
0.16587918 2.1034281 0.38052827 0
0.16525301 2.0954881 0.536286 0
0.10315943 1.5582197 -0.055752229 0
0.14109212 2.1311917 0.38519901 0
0.14089715 2.1282465 0.54417247 0
0.083941273 1.567047 -0.056025807 0
0.11619096 2.1690962 0.39175454 0
0.11551622 2.1565001 0.55098099 0
0.063518032 1.5512367 -0.055427559 0
0.08888825 2.1708281 0.39183405 0
0.089462638 2.1848557 0.55789375 0
0.044438034 1.5680388 -0.056003485 0
0.023762411 0.83847952 0.34730005 0
0.023936037 0.8446061 0.42276004 0
0.02480856 1.5759416 -0.056270115 0
0.013313826 0.84574884 0.35021383 0
0.013321012 0.84620535 0.42344302 0
0.0049591339 1.5747167 -0.056219697 0
0.0026288813 0.83477139 0.41767177 0
0.002588389 0.82191354 0.48743653 0
-0.014738081 1.5608057 -0.055725262 0
-0.0077749398 0.82338876 0.41199285 0
-0.0075894198 0.80374163 0.47667858 0
-0.034583986 1.5693285 -0.05604066 0
-0.01857568 0.84291458 0.42184645 0
-0.017900702 0.81228584 0.48184142 0
-0.054393329 1.5702797 -0.056094632 0
-0.079906009 2.3068047 0.41627875 0
-0.079817273 2.3042431 0.58823878 0
-0.027588179 0.79644251 0.47261187 0
-0.074382886 1.5741717 -0.056262664 0
-0.11014531 2.3310151 0.42086458 0
-0.11073232 2.3434381 0.59855318 0
-0.036876347 0.78041744 0.46334136 0
-0.093999743 1.5698042 -0.05614442 0
-0.1403251 2.3434417 0.4233937 0
-0.14086194 2.352407 0.6012494 0
-0.046426278 0.77532297 0.46062729 0
-0.1141287 1.5736071 -0.056327365 0
-0.17196256 2.3710206 0.42873362 0
-0.171037 2.358259 0.6032477 0
-0.1333665 1.5653926 -0.056088995 0
-0.076719195 0.9004935 0.032265246 0
-0.20302317 2.3829896 0.431326 0
-0.20226958 2.3741446 0.60791463 0
-0.15272646 1.5601197 -0.055964537 0
-0.23494995 2.400043 0.43491369 0
-0.23464346 2.3969121 0.61445224 0
-0.1720711 1.5554782 -0.05587133 0
-0.2650896 2.3963416 0.43481335 0
-0.26697713 2.4134042 0.61949271 0
-0.086128622 0.77858043 0.46455213 0
-0.1932845 1.5664935 -0.056349944 0
-0.29808781 2.4158826 0.43900535 0
-0.29814461 2.4163427 0.62116146 0
-0.21295974 1.5636898 -0.056341089 0
-0.33046091 2.4264603 0.44164863 0
-0.32982913 2.4218214 0.62358803 0
-0.23189875 1.5559672 -0.056163602 0
-0.36408347 2.4428849 0.44543728 0
-0.36254945 2.4325922 0.62748712 0
-0.25024003 1.5453169 -0.055888481 0
-0.39498851 2.4391878 0.44563475 0
-0.39779133 2.4564962 0.63489497 0
-0.26970372 1.5421929 -0.055893891 0
-0.42984802 2.4579141 0.45000923 0
-0.42806578 2.4477232 0.63397038 0
-0.28793484 1.5324713 -0.05566854 0
-0.46333998 2.4660273 0.45252699 0
-0.46148223 2.4561398 0.63760489 0
-0.30964756 1.5408655 -0.056110665 0
-0.52258611 2.6004887 0.094696872 0
-0.52274042 2.6012564 0.28514409 0
-0.49456906 2.4610703 0.45272428 0
-0.49693418 2.4728398 0.64351356 0
-0.32820421 1.5330137 -0.055970799 0
-0.54684383 2.5542607 0.093256839 0
-0.54420143 2.5419183 0.27936858 0
-0.52817178 2.4670451 0.45501074 0
-0.52762949 2.4645121 0.64302444 0
-0.34688273 1.5261289 -0.055874478 0
-0.57642585 2.536016 0.092848368 0
-0.57467014 2.5282917 0.27864417 0
-0.56074148 2.4670117 0.45627069 0
-0.56200349 2.472564 0.64692044 0
-0.36804071 1.5298275 -0.056175116 0
-0.60792357 2.5269439 0.092789128 0
-0.6054377 2.5166111 0.27817503 0
-0.5948841 2.4727428 0.45867974 0
-0.59583712 2.4767044 0.64991528 0
-0.38639009 1.5215918 -0.056046918 0
-0.64159 2.5265608 0.093064353 0
-0.64462602 2.5385163 0.28147128 0
-0.62844121 2.4747813 0.46048924 0
-0.62726748 2.4701591 0.6502189 0
-0.40473929 1.5136932 -0.055939272 0
-0.68432575 2.5593245 0.09458109 0
-0.68551803 2.5637836 0.28520745 0
-0.66300744 2.4795957 0.46290186 0
-0.661174 2.4727387 0.65303767 0
-0.42389414 1.5089315 -0.055956129 0
-0.69249076 2.4650521 0.46177807 0
-0.69460571 2.4725807 0.65525395 0
-0.44205907 1.5007561 -0.05585495 0
-0.72520399 2.4620113 0.46288243 0
-0.72555017 2.4631865 0.65513366 0
-0.45955476 1.4906416 -0.055689469 0
-0.75913531 2.4623804 0.4647122 0
-0.76154405 2.4701936 0.65949559 0
-0.47796455 1.4837351 -0.055651888 0
-0.79255211 2.4603026 0.46616659 0
-0.79038239 2.453567 0.65766162 0
-0.4998453 1.4872295 -0.056014594 0
-0.82515579 2.4551518 0.46712235 0
-0.82429916 2.4526029 0.66013312 0
-0.51659554 1.4752887 -0.055805445 0
-0.85885137 2.4526997 0.4686763 0
-0.85876954 2.452466 0.66295427 0
-0.53223574 1.4607232 -0.055503588 0
-0.88843352 2.4383094 0.46802717 0
-0.88845408 2.4383659 0.6621145 0
-0.55219376 1.4581519 -0.055665687 0
-0.91934776 2.4276781 0.46817148 0
-0.92175436 2.4340329 0.66403705 0
-0.5718807 1.4545702 -0.055799436 0
-0.95314109 2.4243004 0.46979743 0
-0.95384479 2.4260902 0.66509414 0
-0.5921973 1.4522744 -0.055992994 0
-0.98447078 2.4142659 0.47021794 0
-0.98249835 2.4094288 0.66386563 0
-0.60847628 1.4400642 -0.055813212 0
-1.016264 2.4051642 0.47090033 0
-1.0124817 2.3962131 0.66368443 0
-0.62323117 1.4246786 -0.055516668 0
-1.0417202 2.381326 0.46876419 0
-1.0454363 2.3898208 0.66550738 0
-0.64578611 1.427029 -0.055920709 0
-1.0727515 2.370518 0.46925852 0
-1.074627 2.3746624 0.66500175 0
-0.66355038 1.4184585 -0.055907849 0
-1.0987686 2.3488159 0.4676643 0
-1.1012163 2.3540483 0.66305965 0
-0.68402231 1.4155049 -0.056126479 0
-1.1310662 2.3406105 0.46882918 0
-1.1323487 2.3432643 0.66398573 0
-0.69871664 1.4006172 -0.055880602 0
-1.1566066 2.3184838 0.46727735 0
-1.1621175 2.3295307 0.66418809 0
-0.71674466 1.3925788 -0.055915546 0
-1.1889945 2.3101234 0.46857277 0
-1.1902468 2.3125565 0.66356915 0
-0.73537642 1.3856188 -0.056003455 0
-1.2184666 2.2958722 0.46875709 0
-1.2162728 2.2917387 0.66193783 0
-0.75220108 1.3752192 -0.055961523 0
-1.2450235 2.2762268 0.46790987 0
-1.2468709 2.2796042 0.66291541 0
-0.77153963 1.3693352 -0.056112979 0
-1.0505209 1.8644733 0.076402888 0
-1.272994 2.2593205 0.46769264 0
-1.2717936 2.2571902 0.66100204 0
-0.78755641 1.3575062 -0.056030191 0
-1.0503923 1.8105547 0.07472948 0
-1.2939454 2.2303658 0.46503484 0
-1.3017404 2.2438018 0.66182911 0
-0.80370742 1.3460099 -0.055968966 0
-1.0493138 1.7573394 0.07307262 0
-1.3183883 2.207972 0.46379039 0
-1.3175433 2.2065568 0.65568501 0
-0.81996393 1.3347617 -0.055926155 0
-1.0462365 1.7030951 0.071359225 0
-1.3429952 2.1861677 0.46272585 0
-1.3426394 2.1855886 0.65442622 0
-0.83527356 1.3220656 -0.055830464 0
-1.0505656 1.6628286 0.070220791 0
-1.3695762 2.1677563 0.46244255 0
-1.3709487 2.1699286 0.65485436 0
-0.8504889 1.3093425 -0.055741012 0
-1.0528952 1.6209505 0.069006711 0
-1.3856392 2.1332157 0.45875987 0
-1.3941972 2.1463909 0.65299743 0
-0.87173539 1.3057613 -0.056051426 0
-1.0485398 1.5705944 0.067419715 0
-1.4097139 2.1115925 0.45789093 0
-1.4125288 2.115809 0.64905328 0
-0.89400429 1.3032781 -0.056423597 0
-1.0520968 1.5337452 0.066401348 0
-1.4307253 2.0857093 0.4561488 0
-1.4383397 2.0968094 0.64872956 0
-0.89874184 1.275454 -0.055704538 0
-1.0522791 1.493347 0.065220863 0
-1.4502709 2.0581594 0.45408154 0
-1.4625692 2.0756123 0.64781809 0
-0.91860497 1.2693912 -0.055940505 0
-1.0561237 1.459424 0.064315021 0
-1.0503085 1.4513881 0.19253734 0
-1.4747165 2.0378642 0.45366493 0
-1.480113 2.0453212 0.64412999 0
-0.51607066 0.7131418 0.44044155 0
-0.93985921 1.2649163 -0.056260392 0
-1.0447042 1.4060227 0.062536456 0
-1.0510515 1.4145652 0.18939322 0
-1.4916875 2.0075984 0.45107305 0
-1.4968966 2.0146091 0.64034325 0
-0.52715725 0.70947838 0.44224367 0
-0.95104039 1.246858 -0.055985413 0
-1.0505242 1.3772858 0.061841778 0
-1.0508806 1.377753 0.18622148 0
-1.5137367 1.9845788 0.45014802 0
-1.5088984 1.9782356 0.63477087 0
-0.52860266 0.69302255 0.43610069 0
-0.96646988 1.2345359 -0.055974144 0
-1.0489655 1.3399129 0.060751967 0
-1.056568 1.3496242 0.18420318 0
-1.525147 1.948171 0.44621065 0
-1.5276992 1.9514312 0.63229251 0
-0.54667884 0.698309 0.44372398 0
-0.97872567 1.2182709 -0.055791054 0
-1.0485873 1.3052313 0.059773427 0
-1.0573087 1.3160874 0.18142866 0
-1.5398756 1.9167635 0.44342309 0
-1.5518779 1.9317033 0.63218206 0
-0.56518215 0.70351171 0.45151639 0
-0.99968487 1.2127626 -0.056110833 0
-1.0534917 1.2780381 0.059130933 0
-1.0493015 1.2729549 0.17729008 0
-1.5517501 1.8824978 0.43998155 0
-1.5620515 1.8949949 0.62655616 0
-0.5709542 0.6926502 0.4491241 0
-1.0126848 1.1974885 -0.055989701 0
-1.0496895 1.2412462 0.058035631 0
-1.0524315 1.2444885 0.17515728 0
-1.5730343 1.8600954 0.43934035 0
-1.5827937 1.8716358 0.62537313 0
-0.58193278 0.68812907 0.45090824 0
-1.0285336 1.1856238 -0.05603607 0
-1.0563533 1.2176926 0.057551738 0
-1.0390185 1.1977102 0.17040133 0
-1.5917368 1.8348464 0.43807614 0
-1.5970677 1.8409915 0.62180412 0
-1.043744 1.1729879 -0.056055598 0
-1.064043 1.1958005 0.057145782 0
-1.0588136 1.1899235 0.17117685 0
-1.6044421 1.8031157 0.43528944 0
-1.600744 1.7989596 0.61436707 0
-1.0519574 1.15266 -0.055712767 0
-1.094404 1.19917 0.057960786 0
-1.0875442 1.1916536 0.17338201 0
-1.6100399 1.7641672 0.43074709 0
-1.6098907 1.7640036 0.60930401 0
-1.0624191 1.1350836 -0.055505447 0
-0.94455147 1.0091543 0.049347527 0
-1.1170729 1.1934755 0.17567979 0
-1.6264788 1.7377223 0.42925686 0
-1.6242268 1.7353163 0.60641158 0
-1.0875975 1.1330454 -0.056071032 0
-0.93749988 0.97667557 0.048332758 0
-1.1522478 1.2003973 0.17882028 0
-1.6347865 1.7031001 0.42575574 0
-1.6247083 1.6926006 0.59858638 0
-1.09506 1.112437 -0.055729158 0
-0.94552159 0.96052575 0.048118938 0
-1.1783057 1.197004 0.18051077 0
-1.6373044 1.6632863 0.42092347 0
-1.6442311 1.6703229 0.59798253 0
-1.1154499 1.1049699 -0.056054287 0
-0.95768994 0.94869208 0.048126433 0
-1.2089053 1.1975472 0.18287383 0
-1.6493467 1.6338505 0.41869694 0
-1.6534615 1.6379266 0.59379137 0
-1.1261923 1.0878602 -0.0559013 0
-0.97526556 0.94207054 0.048409682 0
-1.2347401 1.1927134 0.18449534 0
-1.6590961 1.6026255 0.41601595 0
-1.6581185 1.6016812 0.58817416 0
-1.1470834 1.0804536 -0.056258485 0
-0.99264669 0.9349876 0.048684169 0
-1.2748661 1.2008139 0.18821669 0
-1.6599098 1.5634919 0.41125071 0
-1.6556569 1.5594862 0.58028919 0
-1.1538173 1.0596985 -0.055929866 0
-1.3099314 1.203078 0.063497305 0
-1.3038003 1.1974471 0.19024721 0
-1.6633841 1.527699 0.40731308 0
-1.6671677 1.5311741 0.57752007 0
-0.67416292 0.61917031 0.37898824 0
-1.1704149 1.0480829 -0.056090225 0
-1.3375858 1.1977811 0.064101614 0
-1.3293866 1.1904389 0.19177815 0
-1.6649512 1.4909302 0.40306765 0
-1.673003 1.4981405 0.57296103 0
-0.66400397 0.59460217 0.36903888 0
-1.1824691 1.0323465 -0.056040477 0
-1.3750165 1.2004488 0.065165833 0
-1.6714908 1.4592836 0.40017053 0
-1.6648 1.4534422 0.56383908 0
-0.66592038 0.58137721 0.36600626 0
-1.1983671 1.0199236 -0.056180805 0
-1.4043909 1.1952692 0.06583944 0
-1.6656485 1.417624 0.39446685 0
-1.6715214 1.4226224 0.56000394 0
-0.66585791 0.56670791 0.36202103 0
-0.68915689 0.5865376 0.45279089 0
-1.200438 0.99589676 -0.055685565 0
-1.4439584 1.197924 0.066981919 0
-1.6895357 1.4016576 0.39591262 0
-1.6715893 1.3867691 0.55413234 0
-0.68003869 0.56416768 0.36583954 0
-1.2214297 0.98761392 -0.056077983 0
-1.4834013 1.1994368 0.068105564 0
-1.6884704 1.3652499 0.39160341 0
-1.6663604 1.3473724 0.54673129 0
-0.68785751 0.55618232 0.36624908 0
-1.2246057 0.96493667 -0.055661526 0
-1.5119731 1.1913699 0.068723127 0
-1.6909909 1.3324283 0.38826588 0
-1.6699055 1.3158139 0.54241514 0
-0.7082774 0.55809218 0.3733502 0
-1.2421761 0.95367712 -0.055909876 0
-1.5517366 1.1913414 0.069843084 0
-1.6783708 1.2885644 0.38161233 0
-1.6794568 1.2893982 0.54020089 0
-0.69136816 0.53079599 0.36088508 0
-0.68684155 0.52732062 0.43325484 0
-1.2564042 0.93969518 -0.056013245 0
-1.6024863 1.1985384 0.071442343 0
-1.6865213 1.2613903 0.37982392 0
-1.6747187 1.2525629 0.53356129 0
-0.69814777 0.52216172 0.36096317 0
-0.71073222 0.53157389 0.44406739 0
-1.2690458 0.92446351 -0.056053411 0
-1.651006 1.2027105 0.072924487 0
-1.6779829 1.2223625 0.37440479 0
-1.6734076 1.2190294 0.52821112 0
-1.6746362 1.2199246 0.68929726 0
-0.6970855 0.50780684 0.35707954 0
-0.71570945 0.52137381 0.44304007 0
-1.2760241 0.90517575 -0.055853758 0
-1.6873007 1.196924 0.073856041 0
-1.6761091 1.1889849 0.37061664 0
-1.68385 1.1944761 0.52671784 0
-1.6692275 1.1841033 0.68087965 0
-0.7060864 0.50087792 0.35843095 0
-0.71549815 0.50755441 0.43891817 0
-1.2824937 0.8857041 -0.055644348 0
-1.7267058 1.1924819 0.074917652 0
-1.6759335 1.1574179 0.36732602 0
-1.6713364 1.1542431 0.51821595 0
-1.6739321 1.1560357 0.67680717 0
-0.71457571 0.49349377 0.43450579 0
-1.2944375 0.87008631 -0.055682782 0
-1.7117015 1.15056 0.07363221 0
-1.7108938 1.150017 0.22154573 0
-1.6845038 1.1322784 0.36605042 0
-1.6688021 1.1217241 0.51300985 0
-1.6682992 1.1213861 0.66876733 0
-0.72492564 0.4872756 0.43703353 0
-1.3186361 0.8624475 -0.056252103 0
-1.7096285 1.1181742 0.072931565 0
-1.7046713 1.1149319 0.21890463 0
-1.6845523 1.1017731 0.36301735 0
-1.6801463 1.0988915 0.5122028 0
-1.6679429 1.09091 0.66306525 0
-0.72519559 0.47431064 0.43356124 0
-1.3185915 0.83890522 -0.055795133 0
-1.7110368 1.0885842 0.072401144 0
-1.7076389 1.0864223 0.21751171 0
-1.6806731 1.0692663 0.35925135 0
-1.6769248 1.0668815 0.50708497 0
-1.6745902 1.0653963 0.66032225 0
-0.73027205 0.46460867 0.43306416 0
-1.3258601 0.82026279 -0.055661235 0
-1.7150968 1.0610697 0.07200186 0
-1.7288171 1.0695579 0.21847646 0
-1.6824023 1.0408428 0.35679111 0
-1.675868 1.0368003 0.50277764 0
-1.6785815 1.038479 0.65668762 0
-1.3448231 0.80875963 -0.056025341 0
-1.7344331 1.0430661 0.072256491 0
-1.7432808 1.0483871 0.21861863 0
-1.6732447 1.0062683 0.35213393 0
-1.6708443 1.0048246 0.49743503 0
-1.6763976 1.0081643 0.65081513 0
-1.3544074 0.79147488 -0.056004979 0
-1.7682083 1.0332875 0.073115714 0
-1.7744318 1.0369245 0.22087021 0
-1.6753794 0.97904122 0.34996095 0
-1.6713643 0.97669488 0.49388915 0
-1.6720577 0.97710013 0.64430261 0
-1.360351 0.77213651 -0.055844277 0
-1.8109409 1.0278918 0.07434161 0
-1.8065273 1.0253866 0.22324036 0
-1.6773678 0.9520756 0.34784445 0
-1.6778246 0.95233488 0.49221554 0
-1.6728487 0.94951051 0.63994944 0
-1.3802058 0.76059002 -0.056261711 0
-1.684213 0.92811936 0.34681287 0
-1.6758511 0.92351139 0.4881863 0
-1.6668874 0.91857177 0.63319385 0
-1.3805901 0.73829401 -0.05589398 0
-1.6730199 0.89467585 0.342161 0
-1.6641669 0.88994151 0.48147997 0
-1.6697783 0.89294237 0.62997079 0
-1.3918965 0.72195166 -0.055979237 0
-1.6983173 0.88088667 0.34503883 0
-1.6747963 0.86868674 0.48135233 0
-1.6656213 0.86392784 0.62424862 0
-1.4017589 0.70481253 -0.056014501 0
-1.7054068 0.85748845 0.34425816 0
-1.6768067 0.84310818 0.47884086 0
-1.6728009 0.84109402 0.62292057 0
-1.3984458 0.68122405 -0.055534925 0
-1.713478 0.83468544 0.3437385 0
-1.6750956 0.8159883 0.4753803 0
-1.6747335 0.81581193 0.61976576 0
-1.4247562 0.67197782 -0.05623927 0
-1.7203039 0.81137121 0.34303102 0
-1.6689838 0.78716636 0.47079551 0
-1.6639681 0.78480071 0.61207604 0
-1.4174361 0.64683515 -0.055624407 0
-1.7364858 0.79243082 0.34424073 0
-1.6732273 0.76356333 0.46924311 0
-1.673081 0.76349658 0.61184323 0
-1.4343321 0.63284749 -0.055970293 0
-1.745281 0.77004254 0.34403476 0
-1.6686053 0.73621219 0.46531019 0
-1.6801825 0.74132013 0.61097801 0
-1.4439744 0.61549938 -0.056039672 0
-1.7501595 0.74601191 0.34311745 0
-1.6713675 0.71242654 0.46354201 0
-1.6684612 0.71118772 0.60341138 0
-1.4532611 0.59794861 -0.05610342 0
-1.7645143 0.72601473 0.34411213 0
-1.6702396 0.68722504 0.4607926 0
-1.6669403 0.68586761 0.59969032 0
-1.4584452 0.57871819 -0.056017783 0
-1.7720994 0.70317769 0.34383726 0
-1.6685472 0.66208768 0.45798931 0
-1.6771892 0.66551691 0.60031492 0
-1.4692442 0.56169569 -0.056156445 0
-1.7886119 0.68379074 0.34534314 0
-1.6669884 0.63729376 0.45532262 0
-1.6728539 0.6395362 0.59583354 0
-1.4706744 0.54111844 -0.055946238 0
-1.787528 0.65770119 0.34350756 0
-1.6671489 0.6134091 0.45322078 0
-1.6813873 0.61864793 0.59605098 0
-1.4799434 0.52346778 -0.056043644 0
-1.7968385 0.6355561 0.34373155 0
-1.6786741 0.59376043 0.45428532 0
-1.6734461 0.59191126 0.59054673 0
-1.4847142 0.50421363 -0.055979434 0
-1.8045502 0.612831 0.3437033 0
-1.6801572 0.57058674 0.4527064 0
-1.6730384 0.56816918 0.5878315 0
-1.4909831 0.48549172 -0.055980861 0
-1.815928 0.59129977 0.34442493 0
-1.6720562 0.54445249 0.44864079 0
-1.6653516 0.54226935 0.58268529 0
-1.4975682 0.46686402 -0.056002941 0
-1.8183651 0.56687176 0.34350604 0
-1.6752348 0.52225119 0.44769365 0
-1.6660649 0.51939249 0.5806005 0
-1.5156083 0.4516302 -0.056460418 0
-1.8253971 0.54394293 0.34351328 0
-1.6731547 0.49857685 0.44542468 0
-1.6699206 0.4976131 0.57971454 0
-1.5089884 0.42904615 -0.056008104 0
-1.8367062 0.52222514 0.34437668 0
-1.6679361 0.47423926 0.44241053 0
-1.676497 0.47667336 0.5798679 0
-1.5008891 0.40638879 -0.055513151 0
-1.8439472 0.49927703 0.34452826 0
-1.6650212 0.45083007 0.44009671 0
