# .PCD v0.7 - Point Cloud Data file format
VERSION 0.7
FIELDS x y z intensity
SIZE 4 4 4 4
TYPE F F F F
COUNT 1 1 1 1
WIDTH 1351
HEIGHT 1
VIEWPOINT 0 0 0 1 0 0 0
POINTS 1351
DATA ascii
-0.94151253 -0.16771476 0.034142345 0
-0.94998521 -0.16922402 0.1037014 0
-0.94160014 -0.16773036 0.17248958 0
-1.6741428 -0.29822063 0.43385121 0
-1.6709058 -0.29764402 0.56465155 0
-1.5401782 -0.29441172 -0.055981938 0
-0.95000231 -0.18159704 0.034530398 0
-0.94149178 -0.1799702 0.10301346 0
-0.94361734 -0.18037653 0.17326145 0
-1.6707206 -0.31936544 0.43397209 0
-1.671651 -0.3195433 0.5662182 0
-1.5403402 -0.31459621 -0.056127366 0
-0.94626272 -0.19326292 0.034480195 0
-0.93793315 -0.19156171 0.10287987 0
-0.94882381 -0.193786 0.17465164 0
-1.6698848 -0.34105414 0.43483606 0
-1.6679778 -0.34066465 0.56638211 0
-1.5266234 -0.33187178 -0.0557754 0
-0.94395345 -0.20520549 0.034487471 0
-0.94467264 -0.20536184 0.10389452 0
-0.9468745 -0.2058405 0.17475608 0
-1.6771055 -0.36458501 0.43787712 0
-1.6727319 -0.36363423 0.56950617 0
-1.5287274 -0.35254428 -0.056010023 0
-0.9438172 -0.21765643 0.034579888 0
-0.94390017 -0.21767557 0.10410277 0
-0.93474501 -0.21556427 0.17300472 0
-1.67182 -0.38554332 0.43772998 0
-1.678411 -0.38706324 0.57305366 0
-1.5344107 -0.37426338 -0.056386448 0
-0.95469433 -0.23286277 0.035083059 0
-0.9494651 -0.23158728 0.10502982 0
-0.95108765 -0.23198305 0.17655611 0
-1.6662707 -0.4064258 0.43758228 0
-1.6716404 -0.40773556 0.57244962 0
-1.5283442 -0.3932367 -0.056341015 0
-0.99085784 -0.25494364 0.036527067 0
-0.98541886 -0.25354421 0.10935153 0
-0.99036574 -0.25481704 0.18442856 0
-1.6707429 -0.42987528 0.44014338 0
-1.6767312 -0.43141606 0.5760076 0
-1.501182 -0.40646809 -0.055523984 0
-1.0590658 -0.28675836 0.039171506 0
-1.0637167 -0.28801763 0.11843328 0
-1.6724696 -0.45284685 0.31248891 0
-1.6778091 -0.4542926 0.4434768 0
-1.6655984 -0.45098636 0.57408851 0
-1.5047339 -0.42783648 -0.055850193 0
-1.1202509 -0.3185176 0.0415796 0
-1.1329118 -0.32211742 0.12657899 0
-1.6701654 -0.47487313 0.31315082 0
-1.6715692 -0.47527224 0.44337419 0
-1.6777723 -0.47703594 0.58030897 0
-1.5017853 -0.44751114 -0.055945475 0
-1.2114866 -0.36100614 0.04513108 0
-1.2140828 -0.36177978 0.13614632 0
-1.6761622 -0.49947301 0.31542945 0
-1.6726872 -0.49843749 0.44530019 0
-1.6835803 -0.50168347 0.58445656 0
-1.5066593 -0.4696981 -0.056342907 0
-1.3006152 -0.40546429 0.048637699 0
-1.2972692 -0.40442118 0.14603429 0
-1.6722265 -0.52131343 0.31589913 0
-1.6606672 -0.51770979 0.44380057 0
-1.672249 -0.5213204 0.58275557 0
-1.4903978 -0.48530111 -0.055958886 0
-1.4213916 -0.46283144 0.053367957 0
-1.4167117 -0.46130756 0.1601212 0
-1.6821703 -0.54774576 0.31905523 0
-1.6747549 -0.54533124 0.44936493 0
-1.6749541 -0.54539603 0.58604509 0
-1.4764979 -0.50142342 -0.05566965 0
-1.5676925 -0.5323934 0.059108038 0
-1.5620651 -0.53048229 0.17729044 0
-1.6763147 -0.56928182 0.31927896 0
-1.6816952 -0.57110906 0.4531208 0
-1.478475 -0.52294838 -0.05598804 0
-1.7214978 -0.60890752 0.19624032 0
-1.6683205 -0.59009826 0.31914634 0
-1.6701655 -0.59075087 0.45198274 0
-1.4719032 -0.54157054 -0.055992983 0
-1.6844996 -0.61979306 0.19289714 0
-1.6759818 -0.61665899 0.32207182 0
-1.6705365 -0.61465549 0.45414168 0
-1.4541901 -0.55594045 -0.055581056 0
-1.687381 -0.64508992 0.19414191 0
-1.6756413 -0.64060181 0.32353091 0
-1.6679126 -0.63764709 0.45557508 0
-1.4525218 -0.57636774 -0.055790268 0
-1.6776024 -0.66568083 0.19396588 0
-1.6672596 -0.66157675 0.32349539 0
-1.6813598 -0.66717178 0.46150616 0
-1.4462755 -0.59507436 -0.055833738 0
-1.6799779 -0.69123191 0.19523144 0
-1.6727334 -0.68825114 0.32621318 0
-1.6680042 -0.68630528 0.4601759 0
-1.445712 -0.61624002 -0.056107108 0
-1.685931 -0.71863425 0.19695926 0
-1.6721869 -0.71277577 0.32783097 0
-1.6750246 -0.71398538 0.46455628 0
-1.4339527 -0.63268012 -0.055955488 0
-1.6791049 -0.74084473 0.19723602 0
-1.6810296 -0.74169391 0.33136931 0
-1.6732064 -0.73824227 0.46659327 0
-1.4271123 -0.65125078 -0.056004129 0
-1.6828796 -0.76796806 0.19879958 0
-1.6692814 -0.76176262 0.3309181 0
-1.6603268 -0.7576763 0.46562526 0
-1.4163939 -0.66803378 -0.055909183 0
-1.6736534 -0.78936875 0.19886813 0
-1.6680659 -0.78673345 0.33261469 0
-1.6772991 -0.79108828 0.47314116 0
-1.4147375 -0.68916017 -0.056181896 0
-1.9226981 -0.93660271 0.076353975 0
-1.6716423 -0.81430608 0.19983171 0
-1.6677735 -0.8124215 0.33456978 0
-1.6749903 -0.81593698 0.47535044 0
-1.4039686 -0.70592362 -0.056102801 0
-1.8752562 -0.94288975 0.074935526 0
-1.6746886 -0.84204316 0.20144743 0
-1.6765589 -0.84298354 0.33843482 0
-1.6610836 -0.83520246 0.47435084 0
-1.3963611 -0.72426742 -0.056158792 0
-1.8191717 -0.94357169 0.073163375 0
-1.6771759 -0.86992103 0.20304821 0
-1.6739315 -0.86823821 0.34008446 0
-1.3764818 -0.73609704 -0.055727657 0
-1.787196 -0.95573348 0.072355658 0
-1.6680217 -0.89200294 0.20328368 0
-1.675523 -0.89601439 0.34267291 0
-1.3758286 -0.75817794 -0.056083284 0
-1.7383134 -0.95793253 0.070859358 0
-1.6703463 -0.92047781 0.20496331 0
-1.6735239 -0.92222893 0.34461179 0
-1.363834 -0.77411348 -0.055987261 0
-1.6845828 -0.9561708 0.069154441 0
-1.666752 -0.94605005 0.20596774 0
-1.6728578 -0.94951564 0.34690917 0
-1.359867 -0.79466522 -0.056230731 0
-1.6909139 -0.98811913 0.069919586 0
-1.6706184 -0.97625899 0.20794816 0
-1.6670529 -0.97417545 0.34822166 0
-1.3431383 -0.80774647 -0.055955153 0
-1.6767807 -1.0083947 0.069854692 0
-1.6626259 -0.99988222 0.20850399 0
-1.6711977 -1.0050372 0.35170314 0
-1.3257766 -0.82021105 -0.055657726 0
-1.6848903 -1.042382 0.070733756 0
-1.6751715 -1.0363693 0.21169709 0
-1.6603435 -1.0271958 0.35211307 0
-1.3172973 -0.8380819 -0.055740375 0
-1.6699038 -1.0624148 0.070660636 0
-1.6765909 -1.0666692 0.21355695 0
-1.6733069 -1.0645798 0.35767683 0
-1.297278 -0.84847844 -0.055340983 0
-1.6891257 -1.1047643 0.072056927 0
-1.6701761 -1.0923705 0.21447495 0
-1.6746899 -1.0953227 0.36089203 0
-1.2934852 -0.86944616 -0.055641815 0
-1.6670921 -1.1205747 0.071713254 0
-1.6724117 -1.1241504 0.21656264 0
-1.673386 -1.1248053 0.36363447 0
-1.2899837 -0.89087683 -0.055969324 0
-1.6602776 -1.1466058 0.072035491 0
-1.6812357 -1.1610798 0.2195811 0
-1.6725543 -1.1550841 0.36658537 0
-1.2854486 -0.9118613 -0.056266289 0
-1.6752183 -1.1883531 0.073327176 0
-1.67299 -1.1867722 0.22043847 0
-2.0429888 -1.4492391 0.45174006 0
-1.2646911 -0.92129123 -0.055861063 0
-1.6738358 -1.2193414 0.073932879 0
-1.6751364 -1.2202889 0.22272834 0
-1.9993683 -1.4564825 0.44611484 0
-1.252961 -0.93712008 -0.055859748 0
-1.6720896 -1.2505964 0.074545413 0
-1.6715639 -1.2502033 0.22432873 0
-1.2425963 -0.95399982 -0.055928793 0
-1.6733862 -1.2847376 0.075318485 0
-1.6750578 -1.2860209 0.22695288 0
-1.2317801 -0.97058976 -0.055987619 0
-1.5846282 -1.248619 0.072025493 0
-1.593715 -1.2557789 0.21805699 0
-1.590676 -1.2533844 0.36523268 0
-1.2210295 -0.98729038 -0.056059614 0
-1.572395 -1.2713946 0.072191417 0
-1.56994 -1.2694095 0.21697389 0
-1.5777709 -1.2757415 0.36592913 0
-1.2056919 -1.0002555 -0.055929285 0
-1.6674188 -1.3833092 0.077347733 0
-1.6687188 -1.3843876 0.23301643 0
-1.7643471 -1.4637219 0.41344333 0
-1.2006985 -1.0219078 -0.056290105 0
-1.6745372 -1.4251893 0.078504197 0
-1.6602997 -1.4130718 0.2343069 0
-1.7579066 -1.4961444 0.41631585 0
-1.4563349 -1.2394785 0.48791078 0
-1.1872022 -1.0364788 -0.056264795 0
-1.7181578 -1.5000259 0.41134307 0
-1.4219069 -1.2413861 0.48157537 0
-1.1663945 -1.0444827 -0.055897553 0
-1.6244293 -1.4546437 0.077848129 0
-1.6275407 -1.4574299 0.23479007 0
-1.6322603 -1.4616562 0.39515349 0
-1.4069909 -1.2599319 0.48185864 0
-1.1545039 -1.0603291 -0.055963151 0
-1.3563253 -1.2456876 0.46984178 0
-1.1382749 -1.0721568 -0.055826474 0
-1.3200413 -1.2433652 0.46265966 0
-1.1307071 -1.0922214 -0.056125406 0
-1.2913095 -1.2473572 0.45805827 0
-1.1153328 -1.1048539 -0.056048404 0
-1.2643254 -1.2524465 0.45404473 0
-1.0992426 -1.116686 -0.055942018 0
-1.2496005 -1.26943 0.45446125 0
-1.0857844 -1.1311567 -0.055977564 0
-1.0751121 -1.1486447 -0.056168586 0
-1.0552086 -1.1562225 -0.055884957 0
-1.0401561 -1.1689558 -0.055862907 0
-1.0241896 -1.1806165 -0.05579941 0
-1.0191208 -1.205099 -0.056345537 0
-0.99665469 -1.2090865 -0.055940751 0
-0.9798075 -1.2196175 -0.055852722 0
-0.96647578 -1.2345434 -0.055974487 0
-0.9533217 -1.2498488 -0.056119706 0
-0.93223679 -1.2546576 -0.055804107 0
-0.91505235 -1.2644819 -0.055724159 0
-0.90553242 -1.2850909 -0.056125421 0
-0.87834126 -1.2804445 -0.05543505 0
-0.86622983 -1.2975147 -0.055697426 0
-0.85612971 -1.3180265 -0.056110706 0
-0.80715811 -1.2426339 0.49297637 0
-0.82922441 -1.3124911 -0.055426132 0
-0.78749937 -1.2464489 0.49051693 0
-0.82163423 -1.3374807 -0.056040078 0
-0.76627284 -1.2473618 0.48704037 0
-0.80036873 -1.3404183 -0.055736464 0
-0.74499577 -1.2476825 0.4834643 0
-0.79289854 -1.3667144 -0.056410253 0
-0.72447139 -1.2487669 0.48031151 0
-0.7633816 -1.3548561 -0.055519655 0
-0.70849806 -1.2574483 0.48018107 0
-0.75843555 -1.3866173 -0.056425344 0
-0.69171262 -1.2646306 0.47955957 0
-0.73465127 -1.3842524 -0.055948231 0
-0.65721184 -1.2383387 0.46641424 0
-0.71891594 -1.3967975 -0.056084935 0
-0.63924718 -1.2420074 0.46472734 0
-0.69963193 -1.402452 -0.055953801 0
-0.61788583 -1.2385873 0.46049985 0
-0.68172199 -1.4107447 -0.05593773 0
-0.60315788 -1.2481654 0.46120054 0
-0.66456467 -1.4206269 -0.055993315 0
-0.58565956 -1.2519529 0.4598386 0
-0.6499263 -1.4361778 -0.05627922 0
-0.56233698 -1.2426269 0.45377636 0
-0.62503213 -1.4287955 -0.055677094 0
-0.54560596 -1.2472309 0.45291281 0
-0.60769242 -1.4382092 -0.055741314 0
-0.53705388 -1.2710308 0.45906323 0
-0.59331393 -1.4550128 -0.056098573 0
-0.50422293 -1.2365307 0.34069905 0
-0.51471061 -1.2622499 0.45351499 0
-0.57517451 -1.4629478 -0.056120817 0
-0.48301992 -1.228554 0.33679873 0
-0.50300968 -1.2793978 0.45736405 0
-0.55692255 -1.470639 -0.056142386 0
-0.46426418 -1.2259604 0.14088403 0
-0.46481583 -1.2274171 0.23670425 0
-0.44412485 -1.1727794 0.31995004 0
-0.48777375 -1.288041 0.45822182 0
-0.53527862 -1.4690744 -0.055820912 0
-0.44174179 -1.2123622 0.13867113 0
-0.44221646 -1.2136649 0.23295982 0
-0.4270153 -1.1719452 0.3182303 0
-0.51736081 -1.4774741 -0.055888105 0
-0.42571777 -1.2157608 0.13843574 0
-0.42455569 -1.2124422 0.23168059 0
-0.41206148 -1.1767614 0.31810388 0
-0.43455979 -1.2410119 0.43745837 0
-0.49950436 -1.4862151 -0.055976387 0
-0.41113457 -1.2232814 0.13869159 0
-0.40758273 -1.2127134 0.23073339 0
-0.40605193 -1.2081587 0.3251833 0
-0.41726634 -1.2415258 0.43575284 0
-0.48185673 -1.4958175 -0.056105074 0
-0.39430887 -1.2240446 0.1382042 0
-0.3978841 -1.2351431 0.23402911 0
-0.41057658 -1.2745441 0.34163269 0
-0.41081306 -1.2752782 0.44574833 0
-0.46134746 -1.4964565 -0.055906709 0
-0.40502205 -1.3137558 0.35074827 0
-0.44292617 -1.5036999 -0.055964515 0
-0.3670688 -1.24617 0.33144382 0
-0.42644307 -1.518005 -0.056292601 0
-0.3481597 -1.2393405 0.3284353 0
-0.40528673 -1.5157405 -0.056014933 0
-0.32966131 -1.2329074 0.32560456 0
-0.38659394 -1.5223944 -0.056076482 0
-0.31621808 -1.2452565 0.32778832 0
-0.36819783 -1.5304806 -0.056199096 0
-0.34835824 -1.5326205 -0.056112152 0
-0.32735649 -1.529054 -0.055826228 0
-0.30870655 -1.5361829 -0.055940147 0
-0.28923762 -1.539405 -0.055920415 0
-0.4977091 -2.6489496 0.096225724 0
-0.26971546 -1.5422601 -0.055896323 0
-0.43107253 -2.464916 0.089336254 0
-0.24975543 -1.5423243 -0.055780247 0
-0.39864153 -2.4617465 0.089032389 0
-0.23047662 -1.5464251 -0.055819172 0
-0.3676171 -2.4665945 0.089033253 0
-0.21214689 -1.5577214 -0.056126039 0
-0.33532429 -2.4621704 0.088714123 0
-0.19290689 -1.5634332 -0.056239858 0
-0.30319592 -2.4572816 0.088393398 0
-0.17219973 -1.556641 -0.055913098 0
-0.27270651 -2.4651961 0.088547558 0
-0.15232325 -1.5560009 -0.055816785 0
-0.24062574 -2.4580219 0.08817403 0
-0.13210401 -1.5505742 -0.055558041 0
-0.2099032 -2.4637442 0.088277489 0
-0.11319876 -1.5607851 -0.055868398 0
-0.080893122 -1.1153547 0.039924189 0
-0.094471 -1.5776742 -0.056425892 0
-0.066701308 -1.1139178 0.039839536 0
-0.0742459 -1.5712726 -0.056159049 0
-0.053302146 -1.128038 0.040317349 0
-0.054238863 -1.5658205 -0.055935338 0
-0.039575927 -1.1425165 0.040813774 0
-0.037087567 -1.0706801 0.11513425 0
-0.034617789 -1.5708625 -0.056095432 0
-0.025511211 -1.1576304 0.041338932 0
-0.026175451 -1.1877718 0.12768 0
-0.023900241 -1.0845289 0.19564086 0
-0.014772753 -1.5644776 -0.055856355 0
-0.01209137 -1.2805113 0.045717943 0
-0.011388737 -1.2061003 0.12962455 0
-0.010097993 -1.0694069 0.19287471 0
0.0049246666 -1.563772 -0.055828955 0
0.0041485433 -1.3173229 0.04703036 0
0.0039507197 -1.2545062 0.13482156 0
0.0033591094 -1.0666471 0.19236936 0
0.02453408 -1.5585054 -0.055647548 0
0.021369573 -1.3574829 0.048469897 0
0.020057252 -1.274119 0.13694564 0
0.016772652 -1.0654677 0.19217952 0
0.044671483 -1.5762762 -0.056297686 0
0.038322955 -1.3522623 0.048296891 0
0.035952076 -1.2686036 0.13639067 0
0.030006018 -1.0587912 0.19102828 0
0.064160928 -1.5669377 -0.055988573 0
0.052489642 -1.2819015 0.1378805 0
0.04325147 -1.0562871 0.19065961 0
0.083703816 -1.5626141 -0.055867318 0
0.055823501 -1.0421339 0.11215797 0
0.10352439 -1.5637323 -0.055949468 0
0.071965568 -1.0870374 0.038893592 0
0.070446342 -1.0640895 0.11460729 0
0.12410588 -1.5737225 -0.05635836 0
0.084666997 -1.0736185 0.038448568 0
0.085766517 -1.0875609 0.11724228 0
0.14245999 -1.5561836 -0.05579007 0
0.098858967 -1.0799011 0.038715072 0
0.16205089 -1.5543427 -0.055792812 0
0.11647831 -1.1172245 0.040102541 0
0.18271612 -1.5616406 -0.056132901 0
0.13131142 -1.1222942 0.040340673 0
0.20217724 -1.5577729 -0.056080941 0
0.22046885 -1.5459416 -0.05575053 0
0.23964505 -1.5412964 -0.05568742 0
0.26018718 -1.5450113 -0.055935584 0
0.27937976 -1.5402875 -0.055887502 0
0.30042163 -1.5452371 -0.056199897 0
0.31897709 -1.5371051 -0.056045778 0
0.34002045 -1.5407366 -0.056329839 0
0.35663348 -1.5245358 -0.055897284 0
0.37432125 -1.5139397 -0.05567719 0
0.3953664 -1.5168276 -0.055962045 0
0.4141266 -1.5106088 -0.055920571 0
0.43488505 -1.5114293 -0.056149215 0
0.45490885 -1.5092429 -0.056276333 0
0.46865222 -1.4868227 -0.055655971 0
0.49515513 -1.504563 -0.056548953 0
0.50668222 -1.4767065 -0.05573735 0
0.52728075 -1.4759344 -0.055954382 0
0.54197252 -1.4588146 -0.055559676 0
0.56956083 -1.4758778 -0.056478206 0
0.49307808 -1.2776915 0.45563576 0
0.58646905 -1.4645197 -0.056321703 0
0.50568235 -1.2627807 0.4525533 0
0.60200304 -1.4501309 -0.056055427 0
0.52505052 -1.2647643 0.45559755 0
0.62031639 -1.4426736 -0.056064662 0
0.54356015 -1.2641612 0.45780957 0
0.63291973 -1.4223605 -0.055580579 0
0.55134732 -1.2390429 0.45119157 0
0.655357 -1.4242278 -0.055971581 0
0.57265234 -1.2444935 0.45576608 0
0.66971558 -1.4084558 -0.055678755 0
0.59642702 -1.2543252 0.46208057 0
0.69254404 -1.4103945 -0.056095693 0
0.61056626 -1.2434434 0.46086761 0
0.70648837 -1.3941443 -0.055798776 0
0.62768281 -1.2386338 0.46197787 0
0.72488379 -1.3868552 -0.055867944 0
0.64838034 -1.2404879 0.46567768 0
0.74301225 -1.3789613 -0.055922415 0
0.66677505 -1.2374723 0.4676604 0
0.76256669 -1.3735503 -0.056087948 0
0.69544888 -1.2526565 0.051151332 0
0.69604892 -1.2537372 0.15411042 0
0.69895726 -1.2589757 0.25969967 0
0.6999495 -1.2607629 0.36790821 0
0.69837219 -1.2579218 0.47867408 0
0.77767402 -1.3601199 -0.055934966 0
0.70578539 -1.2343897 0.050764307 0
0.70994008 -1.2416561 0.15371209 0
0.71231127 -1.2458032 0.25881219 0
0.71155852 -1.2444867 0.36574423 0
0.71743977 -1.2547727 0.48087537 0
0.79526937 -1.3511232 -0.055972371 0
0.73242545 -1.2443545 0.051549312 0
0.73314536 -1.2455776 0.15532811 0
0.72951883 -1.2394162 0.25937319 0
0.73839051 -1.2544888 0.37138692 0
0.73173034 -1.2431736 0.47992328 0
0.81500918 -1.34561 -0.056164682 0
0.82753265 -1.3282517 -0.055870667 0
0.84409773 -1.3175806 -0.055864472 0
0.86236912 -1.3095028 -0.055977963 0
0.87739784 -1.2964852 -0.055889349 0
0.89655697 -1.2895122 -0.056070991 0
0.90952575 -1.2736448 -0.055874608 0
0.93249547 -1.2716446 -0.056297526 0
0.94308406 -1.2526975 -0.055980016 0
0.96011609 -1.2424496 -0.056057893 0
0.97757274 -1.2326437 -0.056166414 0
0.77740473 -0.98024738 0.044665765 0
0.78176659 -0.98574734 0.13520889 0
0.99155724 -1.2184451 -0.056083921 0
0.77406061 -0.95118093 0.043781996 0
0.77259141 -0.94937545 0.13154396 0
1.0048357 -1.2034866 -0.055973366 0
0.78643012 -0.94190329 0.043807302 0
0.76900059 -0.92102802 0.12894769 0
1.0138491 -1.1836637 -0.055640779 0
0.77957666 -0.91015184 0.042783733 0
0.77004772 -0.89902681 0.12721491 0
1.0361018 -1.1792601 -0.056042627 0
0.77196163 -0.87862366 0.041755315 0
0.77835321 -0.88589835 0.12673405 0
1.0450287 -1.159641 -0.055731215 0
0.78122681 -0.86690706 0.041662704 0
0.77236342 -0.85707158 0.12399168 0
1.0644376 -1.1516824 -0.055988453 0
1.0834734 -1.1430616 -0.056228165 0
1.0919453 -1.1233263 -0.055929311 0
1.1110708 -1.1145723 -0.056185592 0
1.1149106 -1.0906087 -0.055680886 0
1.1222137 -1.0704361 -0.055368051 0
1.1504277 -1.0700097 -0.056090858 0
1.1589825 -1.0510623 -0.055858228 0
1.1693071 -1.0338947 -0.055723954 0
1.1975597 -1.032302 -0.0564464 0
1.199525 -1.0079505 -0.055936348 0
1.2128013 -0.99332422 -0.055967737 0
1.2284285 -0.98054188 -0.056114648 0
1.2442089 -0.96774369 -0.056274381 0
1.2506939 -0.94775623 -0.056023471 0
1.2655576 -0.93416953 -0.056157902 0
1.2725728 -0.91482002 -0.055953581 0
1.2761645 -0.89324647 -0.055612542 0
1.3000749 -0.88580436 -0.056163978 0
1.3045305 -0.86499184 -0.055881482 0
1.3113359 -0.84592855 -0.055712283 0
1.3261257 -0.832012 -0.055891089 0
1.3347954 -0.81421071 -0.055819944 0
1.3580209 -0.80509359 -0.056362789 0
1.3581501 -0.78222853 -0.055954903 0
1.3828015 -0.7734049 -0.056564804 0
1.3716904 -0.74467319 -0.0557223 0
1.3875221 -0.73080015 -0.055987161 0
1.3988682 -0.71442306 -0.05607754 0
1.4096471 -0.69769061 -0.056153003 0
1.4159036 -0.67872769 -0.056057326 0
1.4121577 -0.65519494 -0.055577971 0
1.4287937 -0.64117587 -0.05591052 0
1.438987 -0.62410349 -0.055997435 0
1.4366179 -0.60169965 -0.055605985 0
1.4426525 -0.58298624 -0.055551011 0
1.4618005 -0.56941926 -0.056007791 0
1.4638432 -0.54908866 -0.055816721 0
1.4675448 -0.52949649 -0.055699211 0
1.480983 -0.51336384 -0.055959459 0
1.4857192 -0.49414021 -0.055898875 0
1.4950329 -0.47641686 -0.056019142 0
1.5010351 -0.45759198 -0.056023691 0
1.510096 -0.43965107 -0.056150798 0
1.5137057 -0.42010099 -0.056083873 0
1.5140393 -0.39973149 -0.055905305 0
1.5287719 -0.3830969 -0.05626671 0
1.5243359 -0.36164933 -0.055931401 0
1.5237463 -0.34130248 -0.055747654 0
1.5280937 -0.32212564 -0.055753887 0
1.5149759 -0.29948848 -0.055133302 0
1.5528883 -0.28671521 -0.056377161 0
1.5398967 -0.26431131 -0.055780251 0
1.5477304 -0.24563567 -0.055947538 0
1.5506935 -0.22612736 -0.055947278 0
1.5536697 -0.20661782 -0.055956353 0
1.5555198 -0.18696333 -0.055933759 0
1.5565214 -0.16723059 -0.055889625 0
1.5638571 -0.1481259 -0.056081604 0
1.5704839 -0.12882407 -0.056256615 0
1.5481024 -0.10738321 -0.055402052 0
1.5732373 -0.089238204 -0.056256887 0
1.5718868 -0.069318563 -0.056172926 0
1.5706375 -0.049458213 -0.056101579 0
1.56556 -0.02957274 -0.055902481 0
1.5619788 -0.0098339925 -0.055765767 0
1.568397 0.0098743998 -0.055994906 0
1.5676979 0.029613126 -0.055978823 0
1.5769304 0.049656373 -0.056326356 0
1.5678813 0.069141932 -0.056029789 0
1.5736227 0.089260072 -0.056270666 0
1.5608706 0.10826888 -0.055858996 0
1.5654099 0.12840787 -0.056074861 0
1.5663872 0.14836556 -0.056172337 0
1.5645094 0.16808879 -0.056176446 0
1.5552676 0.18693303 -0.055924691 0
1.5579772 0.20719066 -0.056111488 0
1.5544256 0.22667159 -0.056081932 0
1.5371968 0.2439639 -0.055566765 0
1.537578 0.2639133 -0.055696256 0
1.5438571 0.28504777 -0.056049287 0
1.537246 0.30389094 -0.055943761 0
1.5299512 0.32251719 -0.055821657 0
1.5304872 0.34281236 -0.055994276 0
1.5303512 0.36307648 -0.056152117 0
1.5245924 0.38204959 -0.056112889 0
1.515478 0.40011135 -0.055958427 0
1.5106115 0.41924226 -0.055969231 0
1.5182394 0.44202194 -0.056453597 0
1.4971409 0.45640486 -0.055878349 0
1.5045054 0.47943541 -0.056374077 0
1.480469 0.492394 -0.055701338 0
1.4880229 0.51580411 -0.056225464 0
1.471764 0.53101879 -0.055859346 0
1.4720907 0.55218232 -0.056131195 0
1.459936 0.56869304 -0.055936355 0
1.4565572 0.58860528 -0.056086432 0
1.4383419 0.6024217 -0.055672716 0
1.4372796 0.62336296 -0.055930987 0
1.4226983 0.63844055 -0.055672001 0
1.4310275 0.66394997 -0.05632063 0
1.4173629 0.67942721 -0.056115102 0
1.4107276 0.69822538 -0.056196041 0
1.3903594 0.71007746 -0.055736437 0
1.3851522 0.72955203 -0.05589154 0
1.3881178 0.75359142 -0.05638963 0
1.3641082 0.76294971 -0.055800136 0
1.3645431 0.78591055 -0.056218289 0
1.3495095 0.80004764 -0.056009535 0
1.3361787 0.81505448 -0.05587779 0
1.3235085 0.83036995 -0.055780783 0
1.31977 0.85136932 -0.056070607 0
1.3094424 0.86824876 -0.05609189 0
1.299222 0.88522315 -0.056127127 0
1.2797797 0.89577687 -0.055770081 0
1.2718124 0.91427344 -0.05592015 0
1.2655038 0.93412977 -0.05615551 0
1.2520499 0.94878376 -0.056084212 0
1.2371651 0.96226507 -0.055955797 0
1.227998 0.98019838 -0.056094985 0
1.210665 0.99157447 -0.055869147 0
1.1976236 1.0063528 -0.055847686 0
1.187346 1.0234976 -0.055964977 0
1.170475 1.0349274 -0.05577961 0
1.1660945 1.0575122 -0.056201 0
1.1465682 1.06642 -0.055902679 0
1.134504 1.0821593 -0.055974428 0
1.1192998 1.0949022 -0.055900086 0
1.1081814 1.1116738 -0.056039479 0
1.0909733 1.1223264 -0.055879522 0
1.0740235 1.1330919 -0.055737752 0
0.59601086 0.6287899 0.28823793 0
1.0688022 1.1564047 -0.056218028 0
0.60512447 0.65472239 0.29660892 0
1.04317 1.1575786 -0.055632092 0
1.0118803 1.1228572 0.053963415 0
1.0181643 1.1298304 0.16345142 0
1.0110818 1.1219711 0.27238658 0
0.61684799 0.68450016 0.30655596 0
1.0359925 1.1791357 -0.056036714 0
0.9766643 1.1116101 0.052827656 0
0.97803313 1.113168 0.15924658 0
0.98955441 1.1262813 0.27038637 0
0.62518537 0.71156728 0.31512737 0
1.021283 1.1923428 -0.056048751 0
0.95465946 1.11456 0.052392405 0
0.95637476 1.1165627 0.15799686 0
0.96191478 1.1230305 0.26667699 0
0.6232838 0.72768068 0.31876233 0
1.0087591 1.2081857 -0.056191921 0
0.93472099 1.1195105 0.052067697 0
0.93052006 1.1144791 0.15603164 0
0.93548709 1.1204281 0.26324084 0
0.62942749 0.75386202 0.32673326 0
0.99608421 1.2240078 -0.056339972 0
0.90861732 1.1165268 0.051392719 0
0.90821779 1.1160358 0.15463617 0
0.90462822 1.111625 0.25847575 0
0.62619603 0.76948202 0.33005947 0
0.9746024 1.2288984 -0.055995755 0
0.8828364 1.1131885 0.05072334 0
0.89013547 1.1223922 0.15395162 0
0.88870811 1.1205924 0.25793833 0
0.62436312 0.78727371 0.33429211 0
0.95759362 1.2391855 -0.055910613 0
0.86482185 1.119133 0.050493985 0
0.86402774 1.1181054 0.15185924 0
0.86841232 1.1237793 0.25613451 0
0.61896276 0.8009761 0.3367742 0
0.94358492 1.2533628 -0.056009747 0
0.84437096 1.121577 0.050120559 0
0.84133786 1.1175481 0.15033273 0
0.84265804 1.1193017 0.25267544 0
0.6067853 0.80599219 0.33564404 0
0.92788106 1.2653519 -0.056018937 0
0.82131135 1.1200228 0.049585011 0
0.81388009 1.1098888 0.14791204 0
0.82020795 1.1185181 0.25014719 0
0.59787536 0.815323 0.33636788 0
0.91095757 1.2756498 -0.05596257 0
0.80878103 1.132568 0.049685586 0
0.81128508 1.1360745 0.15002841 0
0.80788058 1.131307 0.25071236 0
0.59416723 0.83203578 0.34014922 0
0.89021617 1.2803922 -0.05567443 0
0.81322408 1.1696551 0.050859321 0
0.81619596 1.1739295 0.15365803 0
0.81506246 1.1722991 0.25750181 0
0.57574886 0.82809597 0.33554804 0
0.87706578 1.2959944 -0.055868194 0
0.80862105 1.1948572 0.051508337 0
0.80958039 1.1962748 0.15523618 0
0.81257033 1.2006929 0.26147041 0
0.56902361 0.84081656 0.33777231 0
0.86150479 1.3081903 -0.055921856 0
0.81686205 1.2404006 0.053024016 0
0.81506282 1.2376685 0.15926322 0
0.80369997 1.220414 0.26354024 0
0.73952317 1.1229619 0.34304944 0
0.56519389 0.85824382 0.34188703 0
0.84261203 1.3152615 -0.055766143 0
0.81824785 1.2772306 0.054153666 0
0.81061339 1.2653137 0.16149431 0
0.78802431 1.2300537 0.26345816 0
0.71240777 1.1120212 0.33694005 0
0.55090559 0.85992712 0.33976719 0
0.82906634 1.3307134 -0.055974215 0
0.8101213 1.3003051 0.054695144 0
0.81233799 1.303863 0.16509579 0
0.77957612 1.2512778 0.26588041 0
0.69654053 1.1179994 0.33606723 0
0.54166603 0.86941439 0.34079373 0
0.80900848 1.3357027 -0.055751152 0
0.75855941 1.2524093 0.26407024 0
0.67505795 1.1145455 0.33244738 0
0.53817445 0.88854569 0.34560907 0
0.40112492 0.66227198 0.45918354 0
0.7944957 1.3498087 -0.055917919 0
0.74472839 1.2652565 0.26478079 0
0.65884393 1.1193432 0.33137754 0
0.52583408 0.89336604 0.34488118 0
0.40981957 0.69626307 0.47913516 0
0.77847797 1.361526 -0.055992793 0
0.72977817 1.276352 0.26515862 0
0.63746828 1.114906 0.32766154 0
0.51165086 0.89485633 0.34294209 0
0.42307895 0.73994774 0.3529079 0
0.40610179 0.71025538 0.40935698 0
0.40806556 0.71368992 0.48755279 0
0.76251 1.3734481 -0.056083776 0
0.71434236 1.2866877 0.26541606 0
0.61964458 1.1161162 0.32569826 0
0.50269002 0.90545529 0.34455082 0
0.41568401 0.74873835 0.35457587 0
0.40718794 0.73343503 0.41972819 0
0.40757543 0.73413301 0.49797279 0
0.74378502 1.3803955 -0.055980578 0
0.69569051 1.2911366 0.26450574 0
0.60534376 1.1234615 0.32559153 0
0.49242714 0.91389877 0.34537685 0
0.4159897 0.77203798 0.36310032 0
0.40811619 0.75742549 0.43048227 0
0.40623933 0.75394219 0.50789952 0
0.72978961 1.3962411 -0.056246042 0
0.67965972 1.3003321 0.2646153 0
0.5832383 1.1158576 0.32123393 0
0.47745469 0.91347128 0.34291598 0
0.41692328 0.79766202 0.37265298 0
0.40720671 0.77907217 0.43983594 0
0.41142204 0.78713691 0.52672958 0
0.71130049 1.4036403 -0.056178842 0
0.66053498 1.3034625 0.26353881 0
0.56163096 1.1082909 0.31699452 0
0.46321359 0.91407955 0.34092766 0
0.41991654 0.82863957 0.38462433 0
0.40574571 0.80067569 0.44911245 0
0.40968442 0.80844808 0.53749567 0
0.69510365 1.4156073 -0.056303017 0
0.64169073 1.3068297 0.26256508 0
0.54312778 1.1061021 0.31438744 0
0.45728487 0.93127948 0.34516776 0
0.41478065 0.84471792 0.38963211 0
0.40957785 0.83412218 0.46494335 0
0.4093591 0.8336767 0.55079806 0
0.67394924 1.4173596 -0.056030735 0
0.53522515 1.1256136 0.31799233 0
0.44606563 0.93810529 0.34558842 0
0.40872189 0.85956895 0.39407706 0
0.40698591 0.85591805 0.47419828 0
0.41000998 0.86227787 0.56623852 0
0.65730315 1.4284574 -0.0561378 0
0.51406968 1.1171811 0.3137565 0
0.43205887 0.93895435 0.34386966 0
0.40518081 0.88054276 0.40132174 0
0.40329784 0.8764506 0.48272192 0
0.40836003 0.88745183 0.57934701 0
0.63936585 1.4368469 -0.056146652 0
0.49905619 1.121529 0.31318787 0
0.41867158 0.94088066 0.34261721 0
0.40204054 0.90350574 0.40944767 0
0.40874332 0.91856885 0.50304466 0
0.40970168 0.9207226 0.59765154 0
0.62320727 1.449397 -0.056325946 0
0.48028946 1.1170121 0.31021306 0
0.41795027 0.97202957 0.35201558 0
0.40583068 0.94384289 0.42537796 0
0.40850267 0.95005721 0.5174309 0
0.40842524 0.94987708 0.6131891 0
0.60180438 1.4496524 -0.056036931 0
0.46689537 1.1246778 0.31068453 0
0.41598871 1.0020516 0.36096227 0
0.4086833 0.98445398 0.44132653 0
0.4062103 0.97849691 0.53009218 0
0.40835673 0.98366731 0.63163269 0
0.58655083 1.4647239 -0.056329552 0
0.44522071 1.111797 0.30555335 0
0.42176345 1.0532199 0.37745127 0
0.40657809 1.0152993 0.45282331 0
0.40739051 1.017328 0.54830605 0
0.4076989 1.0180981 0.65039331 0
0.5640583 1.4616194 -0.05593257 0
0.42905846 1.1118002 0.30404532 0
0.41804165 1.0832529 0.38629729 0
0.40744495 1.0557941 0.46855861 0
0.40783417 1.0568027 0.56676877 0
0.40862232 1.058845 0.67308325 0
0.54390168 1.4640074 -0.055757444 0
0.41610977 1.1200329 0.30483964 0
0.41218892 1.1094792 0.39376765 0
0.40638432 1.0938551 0.48314059 0
0.40784758 1.0977937 0.58595175 0
0.40769359 1.0973793 0.69426018 0
0.52600718 1.4723696 -0.055819232 0
0.40018904 1.1201864 0.30348584 0
0.40933895 1.1457983 0.4047963 0
0.41177508 1.1526175 0.50676471 0
0.4065007 1.1378537 0.60455382 0
0.50856489 1.4821935 -0.055944454 0
0.38290128 1.1159515 0.30100834 0
0.40767777 1.1881616 0.41791597 0
0.40830567 1.1899917 0.520895 0
0.40840217 1.1902729 0.6296224 0
0.48853999 1.4844625 -0.055793475 0
0.59673166 1.8132102 0.34426388 0
0.36845765 1.119584 0.30071282 0
0.40951914 1.2443522 0.4358317 0
0.40754268 1.2383466 0.53977221 0
0.40821204 1.2403804 0.65335709 0
0.47166917 1.4963942 -0.056014258 0
0.57544905 1.8256412 0.34522089 0
0.3516531 1.1156372 0.29843971 0
0.40510803 1.2852255 0.44832528 0
0.40720776 1.291887 0.56083006 0
0.40614513 1.2885158 0.67596442 0
0.4551504 1.5100442 -0.056306213 0
0.54734385 1.8159127 0.34205088 0
0.33753923 1.1198478 0.29840544 0
0.40739313 1.3516009 0.46965224 0
0.40656871 1.3488656 0.58329666 0
0.43205804 1.5016041 -0.055784211 0
0.52942604 1.8400036 0.34530559 0
0.31982028 1.1115254 0.29509121 0
0.40993714 1.4247236 0.49322805 0
0.40765077 1.4167775 0.61039591 0
0.41542917 1.5153602 -0.056096464 0
0.30634278 1.1174459 0.041366249 0
0.30864093 1.1258289 0.1254563 0
0.30585554 1.1156687 0.20863344 0
0.30619407 1.1169034 0.29547197 0
0.403377 1.4713975 0.50758749 0
0.40399206 1.473641 0.63265282 0
0.3932254 1.5086136 -0.055659 0
0.29330495 1.1252676 0.041515782 0
0.29204124 1.1204195 0.12443385 0
0.29284596 1.1235068 0.20939301 0
0.29280606 1.1233537 0.29617947 0
0.39555469 1.5175499 0.52174902 0
0.39820009 1.5276991 0.65365613 0
0.37664554 1.5233403 -0.056022905 0
0.27292451 1.1038413 0.040595263 0
0.278669 1.1270748 0.1247734 0
0.27514896 1.112838 0.2067425 0
0.27586451 1.1157322 0.29323089 0
0.39212626 1.585952 0.54352564 0
0.39075923 1.5804231 0.67405635 0
0.35707498 1.5264231 -0.055966482 0
0.25984603 1.1107891 0.040727213 0
0.26350728 1.1264402 0.12432594 0
0.26066539 1.1142917 0.2063864 0
0.26177263 1.119025 0.29320672 0
0.38632888 1.6514776 0.56427014 0
0.33677173 1.5260156 -0.055791635 0
0.24824248 1.1248626 0.041125346 0
0.24685435 1.1185725 0.12310474 0
0.2489917 1.1282575 0.20837587 0
0.24614479 1.1153573 0.29141048 0
0.3732143 1.691148 0.57617319 0
0.31774482 1.5311671 -0.055829268 0
0.23357175 1.1255491 0.041039661 0
0.23169921 1.1165255 0.12254865 0
0.23104377 1.1133671 0.20507219 0
0.23360486 1.1257086 0.29332316 0
0.36004382 1.735 0.58952212 0
0.2988236 1.5370176 -0.055900954 0
0.21658719 1.1140295 0.04051698 0
0.21830259 1.1228528 0.12293166 0
0.21795028 1.1210407 0.20596378 0
0.21792728 1.1209223 0.29133788 0
0.34378269 1.7682674 0.59930736 0
0.27860454 1.5360136 -0.055732429 0
0.20312005 1.1198496 0.040632408 0
0.20247962 1.1163187 0.12192748 0
0.20439826 1.1268966 0.2065504 0
0.2023463 1.1155837 0.28926513 0
0.33081126 1.8238418 0.61668211 0
0.25913954 1.5387903 -0.055710364 0
0.18891096 1.1217676 0.040612474 0
0.18872488 1.1206627 0.1221327 0
0.1875533 1.1137058 0.20368361 0
0.18967597 1.1263103 0.2914041 0
0.31476274 1.8690852 0.63058972 0
0.24135159 1.552272 -0.056083977 0
0.17418937 1.1203129 0.040477186 0
0.17372592 1.1173321 0.12152168 0
0.17283967 1.1116322 0.20289025 0
0.17423283 1.1205924 0.28933415 0
0.29480606 1.8960688 0.63839042 0
0.22211018 1.5574508 -0.05616558 0
0.15916003 1.1160402 0.040247213 0
0.15869968 1.1128123 0.12080318 0
0.1603193 1.1241691 0.20479374 0
0.15796749 1.1076781 0.28546348 0
0.2754775 1.9316658 0.64915621 0
0.2005084 1.5449145 -0.055618029 0
0.14410613 1.1103357 0.039972883 0
0.14447039 1.1131424 0.12063196 0
0.14504333 1.1175568 0.20324032 0
0.14646272 1.1284932 0.29032949 0
0.25583333 1.9711922 0.66130441 0
0.18265334 1.5611041 -0.056113619 0
0.13031764 1.1138006 0.040035371 0
0.13085759 1.1184154 0.12101524 0
0.13221046 1.1299783 0.20518026 0
0.13133779 1.1225196 0.28834432 0
0.23443991 2.0037143 0.67117149 0
0.16343328 1.5676024 -0.056268763 0
0.11887937 1.1402547 0.12320656 0
0.11864926 1.1380476 0.20635784 0
0.11889538 1.1404083 0.29253167 0
0.21096174 2.0234809 0.67684907 0
0.14235847 1.5550746 -0.055750314 0
0.11967967 1.3073392 0.14108633 0
0.11990319 1.309781 0.23720501 0
0.11956221 1.3060561 0.33461007 0
0.18843387 2.0583863 0.68767667 0
0.12365101 1.5679547 -0.0561518 0
0.17012666 2.1572883 0.23256208 0
0.16708659 2.1187387 0.3832981 0
0.16483854 2.0902324 0.5349409 0
0.10354281 1.5640106 -0.055959426 0
0.14194643 2.1440959 0.38753137 0
0.14050488 2.1223214 0.54265743 0
0.084063724 1.5693331 -0.056107536 0
0.116355 2.1721587 0.39230761 0
0.11553155 2.156786 0.55105406 0
0.064498708 1.5751867 -0.056283321 0
0.089391634 2.1831217 0.39405304 0
0.089363627 2.1824377 0.55727631 0
0.044614464 1.5742643 -0.056225833 0
0.023932556 0.84448326 0.34978682 0
0.023914436 0.84384382 0.42237851 0
0.024690382 1.5684344 -0.056002069 0
0.013502967 0.85776389 0.35518909 0
0.013215842 0.83952451 0.42009991 0
0.0049629686 1.5759343 -0.056263167 0
0.0025746957 0.81756544 0.40906289 0
0.0026186905 0.83153546 0.49314281 0
-0.014914779 1.5795186 -0.056393363 0
-0.0078518679 0.8315357 0.41606927 0
-0.0077079106 0.81629014 0.48412076 0
-0.034701098 1.5746428 -0.05623043 0
-0.018483616 0.83873707 0.34735161 0
-0.018657763 0.84663928 0.42371053 0
-0.017926907 0.81347501 0.48254678 0
-0.054163177 1.5636355 -0.055857282 0
-0.080177769 2.3146501 0.41769448 0
-0.080271408 2.3173532 0.59158564 0
-0.02728794 0.78777486 0.46746847 0
-0.073789455 1.5616128 -0.055813797 0
-0.10924867 2.3120394 0.41743854 0
-0.10998552 2.3276334 0.5945164 0
-0.03711199 0.78540438 0.46630213 0
-0.094175257 1.5727352 -0.05624925 0
-0.14028737 2.3428118 0.42327985 0
-0.13990448 2.3364174 0.5971626 0
-0.11302511 1.5583906 -0.055782691 0
-0.17165005 2.3667116 0.42795449 0
-0.17139365 2.3631763 0.6045056 0
-0.13299517 1.5610343 -0.055932835 0
-0.07674326 0.90077603 0.032275368 0
-0.20329958 2.386234 0.43191326 0
-0.20346439 2.3881686 0.61150557 0
-0.15196596 1.5523511 -0.055685859 0
-0.23412666 2.3916328 0.43338969 0
-0.23347862 2.3850131 0.61140192 0
-0.17282762 1.562317 -0.056116976 0
-0.26681554 2.4119434 0.43764433 0
-0.26628229 2.4071231 0.6178804 0
-0.086427607 0.7812832 0.4661648 0
-0.192324 1.558709 -0.056069922 0
-0.29733285 2.4097641 0.43789351 0
-0.29768899 2.4126501 0.6202122 0
-0.21263008 1.5612693 -0.056253873 0
-0.33108103 2.4310136 0.44247741 0
-0.32976878 2.4213781 0.62347394 0
-0.23143543 1.5528585 -0.056051388 0
-0.36165935 2.4266198 0.44247147 0
-0.36292228 2.4350936 0.6281324 0
-0.25046426 1.5467017 -0.055938557 0
-0.39778757 2.4564729 0.4487927 0
-0.39656734 2.4489377 0.63294142 0
-0.27026308 1.5453914 -0.056009814 0
-0.43078661 2.4632809 0.45099184 0
-0.4290635 2.453428 0.63544798 0
-0.28997251 1.5433162 -0.056062497 0
-0.46144617 2.4559479 0.45067737 0
-0.46092919 2.4531963 0.63684082 0
-0.30973122 1.5412818 -0.056125823 0
-0.52106249 2.5929067 0.094420776 0
-0.52054584 2.5903361 0.28394699 0
-0.49499521 2.463191 0.45311439 0
-0.49614415 2.4689083 0.64249051 0
-0.32838288 1.5338483 -0.056001272 0
-0.5456807 2.5488276 0.093058474 0
-0.54686302 2.5543501 0.2807349 0
-0.52693814 2.4612827 0.45394796 0
-0.52740335 2.4634557 0.64274883 0
-0.34827065 1.5322351 -0.05609804 0
-0.57617927 2.5349312 0.092808649 0
-0.57415098 2.5260077 0.27839246 0
-0.56085092 2.4674933 0.45635974 0
-0.56020254 2.4646406 0.64484739 0
-0.36582255 1.5206075 -0.055836555 0
-0.60717541 2.523834 0.092674941 0
-0.6062566 2.5200148 0.27855125 0
-0.59413368 2.4696238 0.45810115 0
-0.59380734 2.4682672 0.64770126 0
-0.38421443 1.513024 -0.05573133 0
-0.6428144 2.5313823 0.093241945 0
-0.64235026 2.5295546 0.28047758 0
-0.63040358 2.4825089 0.46192718 0
-0.62919956 2.4777677 0.65222168 0
-0.40559304 1.5168861 -0.056057271 0
-0.68588936 2.5651722 0.094797194 0
-0.68510324 2.5622323 0.28503487 0
-0.6632514 2.4805081 0.46307218 0
-0.66189867 2.4754491 0.65375346 0
-0.42233762 1.5033908 -0.055750661 0
-0.69510651 2.4743636 0.46352237 0
-0.69245434 2.4649227 0.65322447 0
-0.44141123 1.4985569 -0.055773098 0
-0.72673726 2.4672165 0.46386105 0
-0.72635931 2.4659333 0.65586424 0
-0.46065265 1.4942027 -0.05582251 0
-0.75973606 2.4643292 0.46507999 0
-0.75923467 2.4627028 0.65749562 0
-0.47889802 1.4866329 -0.055760577 0
-0.79378182 2.4641199 0.46688989 0
-0.79260176 2.4604568 0.65950835 0
-0.49947008 1.4861131 -0.055972546 0
-0.82333165 2.4497242 0.46608967 0
-0.82680684 2.4600642 0.66214138 0
-0.51730752 1.477322 -0.055882353 0
-0.85569799 2.4436941 0.46695548 0
-0.85854942 2.4518373 0.66278434 0
-0.53713626 1.4741726 -0.056014635 0
-0.8902241 2.4432237 0.46897045 0
-0.88986588 2.4422407 0.66316664 0
-0.5556553 1.4672925 -0.056014635 0
-0.92088073 2.4317262 0.46895215 0
-0.92017096 2.4298518 0.66289634 0
-0.5738973 1.4596994 -0.055996198 0
-0.94997501 2.4162476 0.46823689 0
-0.94859952 2.4127491 0.6614368 0
-0.59019321 1.4473598 -0.055803508 0
-0.98472023 2.4148777 0.47033709 0
-0.98331672 2.4114358 0.66441858 0
-0.60889894 1.4410645 -0.055851981 0
-1.0150779 2.4023576 0.4703508 0
-1.0119116 2.3948636 0.66331071 0
-0.62895447 1.4377619 -0.056026496 0
-1.0450274 2.388886 0.47025236 0
-1.0414209 2.3806419 0.66295129 0
-0.64395219 1.4229765 -0.055761904 0
-1.0769973 2.3799 0.47111577 0
-1.0756198 2.3768563 0.6656161 0
-0.66372228 1.418826 -0.055922337 0
-1.1073302 2.3671179 0.47130838 0
-1.0987158 2.3487029 0.66155404 0
-0.68555379 1.4186741 -0.056252141 0
-1.1312672 2.3410263 0.46891248 0
-1.1367092 2.352288 0.66654271 0
-0.69752955 1.3982377 -0.05578566 0
-1.1624111 2.3301191 0.4696224 0
-1.1607925 2.3268745 0.66343075 0
-0.71959436 1.3981155 -0.05613786 0
-1.1913583 2.3147161 0.46950433 0
-1.1905005 2.3130496 0.66371059 0
-0.73277956 1.3807257 -0.055805691 0
-1.2203689 2.2994564 0.46948892 0
-1.2181343 2.2952461 0.66295087 0
-0.74668914 1.365142 -0.055551451 0
-1.2432234 2.2729356 0.46723336 0
-1.2445881 2.2754309 0.66170174 0
-0.77128124 1.3688766 -0.056094188 0
-1.0507008 1.8647927 0.076415971 0
-1.2682225 2.2508519 0.46593958 0
-1.27127 2.2562609 0.66072989 0
-0.78510427 1.3532795 -0.055855736 0
-1.051613 1.8126588 0.074816324 0
-1.2886134 2.221175 0.46311855 0
-1.2949835 2.2321551 0.6583938 0
-0.80607975 1.3499829 -0.056134172 0
-1.051779 1.7614679 0.073244296 0
-1.3211938 2.2126706 0.46477729 0
-1.317305 2.2061579 0.65556645 0
-0.81737608 1.3305491 -0.055749651 0
-1.0465587 1.7036195 0.071381196 0
-1.3449779 2.189395 0.46340898 0
-1.3421063 2.1847205 0.65416634 0
-0.83700413 1.3248047 -0.055946134 0
-1.0546329 1.6692661 0.070492648 0
-1.3776131 2.1804771 0.46515623 0
-1.368255 2.1656651 0.65356773 0
-0.8582021 1.3212171 -0.056246534 0
-1.0484618 1.6141253 0.068716154 0
-1.3880478 2.1369238 0.45955732 0
-1.3964548 2.1498666 0.65405482 0
-0.87487638 1.3104662 -0.056253389 0
-1.0483561 1.5703192 0.067407899 0
-1.4074111 2.1081431 0.45714298 0
-1.4109029 2.1133733 0.64830613 0
-0.88550115 1.2908822 -0.055886935 0
-1.0446026 1.5228202 0.06592837 0
-1.4313651 2.0866418 0.45635277 0
-1.4413396 2.1011827 0.65008265 0
-0.90257025 1.280887 -0.05594182 0
-1.044212 1.4818987 0.064720862 0
-1.4544679 2.0641153 0.45539561 0
-1.448544 2.0557084 0.64160585 0
-0.9165023 1.2664855 -0.055812456 0
-1.0528661 1.4549223 0.064116634 0
-1.0564103 1.45982 0.19365591 0
-1.4749683 2.0382121 0.45374238 0
-1.4789348 2.0436931 0.64361721 0
-0.50637275 0.69974047 0.43216482 0
-0.93251204 1.255028 -0.055820584 0
-1.0443758 1.4055808 0.062516801 0
-1.0554547 1.4204915 0.19018668 0
-1.4906759 2.006237 0.45076719 0
-1.4963384 2.0138578 0.64010441 0
-0.52550685 0.70725715 0.44085908 0
-0.94678241 1.2412755 -0.055734757 0
-1.0499516 1.3765352 0.061808072 0
-1.0503513 1.3770591 0.18612769 0
-1.5186892 1.9910718 0.45162079 0
-1.5177963 1.9899011 0.63851404 0
-0.51944774 0.68102008 0.42854783 0
-0.97584563 1.2465121 -0.05651715 0
-1.0547245 1.3472693 0.061085504 0
-1.044646 1.3343954 0.18212469 0
-1.5316925 1.9565321 0.44812566 0
-1.5203204 1.9420058 0.62923855 0
-0.54301405 0.69362777 0.44074938 0
-0.98046261 1.220433 -0.055890065 0
-1.0472339 1.3035468 0.059696287 0
-1.0521663 1.3096863 0.18054625 0
-1.5423106 1.9197946 0.44412428 0
-1.5434176 1.9211725 0.62873566 0
-0.56120437 0.69856036 0.44833857 0
-0.99245453 1.2039912 -0.055705007 0
-1.0457945 1.2687002 0.058698896 0
-1.0475291 1.2708048 0.17699061 0
-1.5610845 1.8938217 0.4426282 0
-1.5642459 1.897657 0.6274364 0
-0.56599522 0.68663424 0.44522327 0
-1.0164067 1.2018895 -0.056195471 0
-1.0459315 1.2368022 0.057827849 0
-1.0516381 1.2435503 0.17502522 0
-1.5757271 1.8632797 0.44009247 0
-1.5734073 1.8605366 0.62166446 0
-0.58274323 0.68908739 0.45153621 0
-1.022187 1.178308 -0.055690303 0
-1.0523686 1.2130994 0.057334647 0
-1.0528362 1.2136382 0.17266747 0
-1.5993067 1.8435725 0.4401595 0
-1.5876846 1.8301753 0.61815089 0
-1.0394678 1.1681823 -0.055825941 0
-1.0634619 1.1951474 0.057114571 0
-1.0652301 1.1971346 0.1722142 0
-1.5984557 1.7963879 0.43366531 0
-1.6069432 1.8059266 0.61674637 0
-1.0602577 1.1617548 -0.056152359 0
-1.0954765 1.2003453 0.058017589 0
-1.0890276 1.1932789 0.1736185 0
-1.6175714 1.7724195 0.432762 0
-1.6137997 1.7682868 0.61078352 0
-1.0732255 1.1466291 -0.056070022 0
-0.93842387 1.0026076 0.049027391 0
-1.113807 1.1899861 0.17516616 0
-1.626112 1.7373303 0.42916006 0
-1.6254222 1.7365935 0.6068579 0
-1.0886929 1.1341866 -0.056127511 0
-0.93647701 0.97560996 0.048280023 0
-1.1414154 1.1891122 0.17713916 0
-1.6316673 1.6998504 0.42494339 0
-1.634445 1.7027441 0.60217357 0
-1.0968523 1.1142579 -0.055820376 0
-0.94486558 0.95985937 0.048085555 0
-1.1734005 1.1920208 0.17975931 0
-1.6454551 1.6715662 0.42301884 0
-1.6403887 1.6664195 0.59658515 0
-1.1190181 1.1085044 -0.056233596 0
-0.96061879 0.9515934 0.048273616 0
-1.2113793 1.1999978 0.18324806 0
-1.6571364 1.641567 0.42067441 0
-1.6618537 1.6462399 0.59680521 0
-1.1254296 1.0871235 -0.055863444 0
-0.97381037 0.94066489 0.048337452 0
-1.2393074 1.1971252 0.18517779 0
-1.6536207 1.5973365 0.41464299 0
-1.6562047 1.5998325 0.58749533 0
-1.1372527 1.0711939 -0.055776339 0
-0.99411774 0.93637323 0.048756316 0
-1.2683516 1.1946778 0.18725491 0
-1.6617028 1.5651807 0.41169488 0
-1.6559979 1.5598072 0.58040863 0
-1.1556622 1.0613929 -0.056019295 0
-1.301922 1.195722 0.063109055 0
-1.3055362 1.1990414 0.19050051 0
-1.6642488 1.5284933 0.40752482 0
-1.6667445 1.5307853 0.57737345 0
-0.67184871 0.61704487 0.37768728 0
-1.1672927 1.0452871 -0.055940598 0
-1.3389781 1.1990278 0.064168334 0
-1.341318 1.2011232 0.19349939 0
-1.663492 1.4896234 0.40271437 0
-1.6646279 1.4906408 0.57009286 0
-0.66840094 0.59853959 0.37148264 0
-1.1824164 1.0323006 -0.056037985 0
-1.3718252 1.1976626 0.065014593 0
-1.6709812 1.4588387 0.40004855 0
-1.666207 1.4546705 0.56431556 0
-0.66811299 0.58329147 0.36721134 0
-1.1919597 1.0144702 -0.05588042 0
-1.4104617 1.200436 0.066124037 0
-1.6741492 1.4248589 0.39648002 0
-1.672606 1.4235456 0.56036729 0
-0.66801047 0.56853992 0.36319134 0
-0.6910007 0.58810681 0.45400232 0
-1.2112114 1.0048345 -0.05618532 0
-1.448059 1.2013258 0.067172132 0
-1.6791029 1.3930024 0.39346787 0
-1.6724194 1.3874577 0.55440754 0
-0.67930228 0.56355673 0.36544338 0
-1.2249299 0.99044406 -0.056238685 0
-1.4865131 1.2019529 0.068248436 0
-1.6757388 1.3549556 0.3886506 0
-1.6704912 1.3507125 0.54808658 0
-0.69114774 0.55884272 0.36800095 0
-1.2309608 0.96994436 -0.055950388 0
-1.5206288 1.1981902 0.069116555 0
-1.6867237 1.3290658 0.38728607 0
-1.6647773 1.3117731 0.54074937 0
-0.69892401 0.55072212 0.3684198 0
-1.2424139 0.95385975 -0.055920582 0
-1.5545062 1.1934677 0.069967739 0
-1.6914123 1.2985771 0.3845776 0
-1.6661299 1.2791666 0.5359143 0
-0.69424421 0.53300405 0.36238632 0
-0.67202383 0.51594436 0.42390794 0
-1.2556287 0.93911523 -0.055978674 0
-1.6002066 1.1968335 0.071340717 0
-1.6864256 1.2613187 0.37980235 0
-1.6773087 1.2545 0.53438646 0
-0.68946326 0.51566637 0.35647303 0
-0.71624798 0.53569931 0.44751367 0
-1.2706861 0.92565846 -0.056125868 0
-1.6400901 1.1947587 0.072442338 0
-1.6746409 1.2199279 0.3736591 0
-1.6738805 1.2193739 0.52836043 0
-1.6741714 1.219586 0.68910593 0
-0.70073527 0.51046556 0.35894912 0
-0.70804185 0.5157882 0.43829364 0
-1.284247 0.91100889 -0.056213692 0
-1.6804867 1.1920903 0.073557779 0
-1.6794899 1.1913831 0.37136418 0
-1.6755568 1.1885931 0.52412367 0
-1.6677217 1.1830353 0.68026549 0
-0.71479356 0.50705457 0.36285099 0
-0.71820861 0.50947708 0.44058087 0
-1.2940216 0.89366537 -0.056144517 0
-1.7344415 1.1978242 0.075253293 0
-1.6827215 1.1621058 0.36881381 0
-1.6768628 1.1580597 0.51992947 0
-1.6777943 1.1587031 0.67836875 0
-0.71910697 0.4966231 0.43726107 0
-1.3039707 0.87649423 -0.056092869 0
-1.7075704 1.1477832 0.073454507 0
-1.7047726 1.1459025 0.22075309 0
-1.6869519 1.1339239 0.36658239 0
-1.6727542 1.1243806 0.51422477 0
-1.6725533 1.1242456 0.67047268 0
-0.72508478 0.48738259 0.4371295 0
-1.3056527 0.85395581 -0.055698238 0
-1.7036246 1.1142473 0.072675444 0
-1.7061812 1.1159195 0.21909854 0
-1.6781092 1.0975591 0.36162889 0
-1.670678 1.0926988 0.50931638 0
-1.6657395 1.0894688 0.66218936 0
-0.72369927 0.47333199 0.43266666 0
-1.3228586 0.84161997 -0.055975694 0
-1.7120602 1.0892352 0.072444446 0
-1.703317 1.0836726 0.21696121 0
-1.6862442 1.0728108 0.36044222 0
-1.6832724 1.07092 0.50900441 0
-1.6803004 1.0690291 0.66257381 0
-0.73263478 0.4661119 0.43446532 0
-1.3304724 0.82311618 -0.055854857 0
-1.725669 1.0676104 0.072445698 0
-1.7274961 1.0687407 0.21830954 0
-1.6836727 1.0416287 0.35706052 0
-1.6686417 1.0323296 0.5006097 0
-1.666571 1.0310485 0.65198892 0
-1.3411876 0.80657333 -0.055873886 0
-1.7356045 1.0437707 0.072305292 0
-1.7322617 1.0417603 0.21723677 0
-1.682115 1.0116028 0.35400069 0
-1.6758101 1.0078111 0.49891341 0
-1.6660643 1.00195 0.6468035 0
-1.3444748 0.78567058 -0.055594265 0
-1.7647593 1.0312722 0.072973102 0
-1.7619905 1.0296541 0.21932161 0
-1.6826615 0.98329663 0.35148206 0
-1.6720061 0.97706997 0.49407881 0
-1.6766186 0.97976536 0.64606005 0
-1.3690937 0.77709883 -0.056203172 0
-1.812288 1.0286564 0.074396916 0
-1.8110123 1.0279323 0.22379459 0
-1.681442 0.95438808 0.34868935 0
-1.6752455 0.95087099 0.49145892 0
-1.6773186 0.95204765 0.64165938 0
-1.374853 0.75764036 -0.056043517 0
-1.6788083 0.92514104 0.34569997 0
-1.6821063 0.92695838 0.49000847 0
-1.6735255 0.92222977 0.63571543 0
-1.378854 0.73736566 -0.055823699 0
-1.6866791 0.90198028 0.34495452 0
-1.6683604 0.89218402 0.48269323 0
-1.6665082 0.89119357 0.62873703 0
-1.3857609 0.71876931 -0.055732477 0
-1.6924492 0.87784296 0.34384662 0
-1.6743262 0.86844289 0.48121721 0
-1.6731025 0.86780822 0.62705249 0
-1.4045337 0.70620775 -0.056125384 0
-1.7140509 0.86183476 0.34600306 0
-1.6724901 0.84093779 0.4776082 0
-1.6705909 0.83998281 0.62209761 0
-1.4084555 0.68610007 -0.055932429 0
-1.7169377 0.83637083 0.34443253 0
-1.6725922 0.81476879 0.47466984 0
-1.6777592 0.81728578 0.62088537 0
-1.4184273 0.66899288 -0.055989452 0
-1.7299688 0.81592959 0.34495822 0
-1.679944 0.79233569 0.47388723 0
-1.6681299 0.78676361 0.61360699 0
-1.4253265 0.65043586 -0.055934049 0
-1.740064 0.79406375 0.34495005 0
-1.6846266 0.76876527 0.47243994 0
-1.6759362 0.76479954 0.61288738 0
-1.4343586 0.63285923 -0.055971328 0
-1.7381382 0.76689106 0.34262675 0
-1.678854 0.74073398 0.46816811 0
-1.6627784 0.73364121 0.60464925 0
-1.447405 0.61696166 -0.05617281 0
-1.7508321 0.74629855 0.34324929 0
-1.6734447 0.71331197 0.46411812 0
-1.6766706 0.71468699 0.60638034 0
-1.4438008 0.59405619 -0.055738203 0
-1.7642004 0.72588557 0.34405091 0
-1.67668 0.68987501 0.46256942 0
-1.6826514 0.69233197 0.60534245 0
-1.4592957 0.57905573 -0.056050453 0
-1.7701706 0.70241237 0.34346303 0
-1.6635098 0.66008884 0.45660666 0
-1.6773095 0.66556466 0.60035801 0
-1.4587077 0.55766755 -0.055753727 0
-1.7812063 0.68095952 0.34391326 0
-1.6759391 0.64071566 0.45776746 0
-1.6704745 0.63862652 0.59498602 0
-1.4702826 0.54097426 -0.055931333 0
-1.7872211 0.6575883 0.34344858 0
-1.6770301 0.61704475 0.45590699 0
-1.6785976 0.61762148 0.59506202 0
-1.4802949 0.52359217 -0.056056961 0
-1.798582 0.63617277 0.34406507 0
-1.679402 0.59401786 0.45448232 0
-1.6690137 0.59034348 0.58898264 0
-1.4912032 0.50641733 -0.056224097 0
-1.7992464 0.6110298 0.34269312 0
-1.6712731 0.56756973 0.45031267 0
-1.6779062 0.56982225 0.58954179 0
-1.4943669 0.48659354 -0.056107908 0
-1.8191304 0.59234256 0.34503233 0
-1.6761222 0.54577643 0.4497318 0
-1.6803916 0.54716659 0.58794761 0
