# .PCD v0.7 - Point Cloud Data file format
VERSION 0.7
FIELDS x y z intensity
SIZE 4 4 4 4
TYPE F F F F
COUNT 1 1 1 1
WIDTH 1348
HEIGHT 1
VIEWPOINT 0 0 0 1 0 0 0
POINTS 1348
DATA ascii
-1.5611434 -0.039326865 -0.055752516 0
-0.83305591 -0.020985568 0.34502453 0
-0.84134364 -0.021194344 0.42109162 0
-1.5626823 -0.059061989 -0.055829603 0
-0.93585318 -0.035370816 0.10064729 0
-0.94863838 -0.035854038 0.17120785 0
-1.6739222 -0.063266329 0.42737606 0
-1.6666824 -0.062992699 0.55489141 0
-1.6737677 -0.063260496 0.6934948 0
-1.5819703 -0.079749443 -0.0565501 0
-0.94479054 -0.047628276 0.10166492 0
-0.94930005 -0.047855604 0.17142242 0
-1.6718175 -0.08427877 0.4270758 0
-1.6734152 -0.084359311 0.55744243 0
-1.6737241 -0.084374882 0.6938619 0
-1.5657579 -0.098711155 -0.056010552 0
-0.94800293 -0.059765603 0.10208347 0
-0.94003224 -0.059263106 0.16987015 0
-1.6649081 -0.10496195 0.42561466 0
-1.6700735 -0.1052876 0.55672675 0
-1.5523732 -0.11750843 -0.055580281 0
-0.95328534 -0.072159879 0.102742 0
-0.94014335 -0.071165085 0.17003869 0
-1.6672655 -0.12620533 0.42658976 0
-1.6706725 -0.12646322 0.55741316 0
-1.5624053 -0.13807356 -0.055997275 0
-0.94281101 -0.083318509 0.10171812 0
-0.94523573 -0.083532788 0.17113639 0
-1.6760436 -0.14811605 0.42927888 0
-1.6670691 -0.14732295 0.5567857 0
-1.5456263 -0.15622745 -0.055462014 0
-0.94031829 -0.095044672 0.10157026 0
-0.93893003 -0.094904348 0.17019761 0
-1.6840786 -0.17022182 0.43185163 0
-1.6743703 -0.16924053 0.55989164 0
-1.5642378 -0.17803246 -0.056205843 0
-0.94766957 -0.10785825 0.034051452 0
-0.95684016 -0.10890199 0.10349482 0
-0.94326448 -0.10735689 0.17121479 0
-1.6732976 -0.19044502 0.42966795 0
-1.678408 -0.19102666 0.56200159 0
-1.5557601 -0.1969403 -0.055985898 0
-0.94778103 -0.11997754 0.034107037 0
-0.95371622 -0.12072886 0.10331316 0
-0.94295061 -0.11936606 0.17141706 0
-1.6738198 -0.2118852 0.430453 0
-1.6682991 -0.21118635 0.55946279 0
-1.5590768 -0.2173388 -0.056199279 0
-0.94028652 -0.13107805 0.033894047 0
-0.94421297 -0.1316254 0.10245513 0
-0.93722701 -0.13065155 0.17066212 0
-1.6753834 -0.23355222 0.43157724 0
-1.6801889 -0.23422211 0.56439435 0
-1.5501056 -0.23602174 -0.055978592 0
-0.93870783 -0.14292927 0.03389933 0
-0.94574964 -0.14400147 0.10281048 0
-0.9495309 -0.14457722 0.17322034 0
-1.6645082 -0.25344089 0.42956382 0
-1.6704633 -0.25434765 0.5621587 0
-1.5422057 -0.25472707 -0.055804715 0
-0.9508872 -0.15705863 0.034407854 0
-0.94187844 -0.15557064 0.10259447 0
-0.94583058 -0.15622342 0.17289047 0
-1.6700344 -0.27584061 0.43185213 0
-1.6789515 -0.27731347 0.56614548 0
-1.5425246 -0.27477503 -0.055937022 0
-0.94819742 -0.16890556 0.034384761 0
-0.948098 -0.16888785 0.10349539 0
-0.94051021 -0.16753621 0.17228991 0
-1.6675333 -0.29704326 0.43213835 0
-1.6615692 -0.29598087 0.56149644 0
-1.5394015 -0.29426324 -0.055953708 0
-0.94464523 -0.180573 0.03433568 0
-0.93541884 -0.17880933 0.10234899 0
-0.94121575 -0.17991744 0.17282048 0
-1.6771184 -0.32058841 0.43563396 0
-1.6702404 -0.31927365 0.56574041 0
-1.5320458 -0.31290218 -0.055825133 0
-0.940126 -0.19200957 0.034256585 0
-0.93904191 -0.19178817 0.10300148 0
-0.94278783 -0.19255322 0.17354059 0
-1.6640719 -0.33986694 0.4333224 0
-1.6751515 -0.3421298 0.56881803 0
-1.5280039 -0.33217189 -0.055825837 0
-0.94998115 -0.20651585 0.034707695 0
-0.93976343 -0.20429464 0.10335461 0
-0.94605571 -0.2056625 0.17460497 0
-1.6822306 -0.36569914 0.43921521 0
-1.6715481 -0.36337689 0.56910312 0
-1.5346683 -0.35391435 -0.056227688 0
-0.93579358 -0.21580608 0.034285914 0
-0.95275337 -0.21971722 0.10507918 0
-0.94627249 -0.21822265 0.17513824 0
-1.680516 -0.38754869 0.44000679 0
-1.6788132 -0.38715601 0.57319099 0
-1.5195742 -0.37064454 -0.055841234 0
-0.93959838 -0.22918066 0.034528315 0
-0.94535506 -0.23058479 0.10457517 0
-0.95195651 -0.23219498 0.1767174 0
-1.6743219 -0.4083896 0.43969661 0
-1.6719879 -0.40782028 0.5725686 0
-1.5142183 -0.38960215 -0.055820279 0
-0.98354143 -0.25306118 0.036257356 0
-0.98174471 -0.25259888 0.10894381 0
-0.98894542 -0.2544516 0.18416408 0
-1.678445 -0.43185702 0.44217241 0
-1.6837957 -0.43323374 0.57843447 0
-1.5141059 -0.40996745 -0.056001998 0
-1.0531863 -0.28516638 0.038954038 0
-1.0538335 -0.28534162 0.11733291 0
-1.6796535 -0.45479202 0.31383118 0
-1.6771029 -0.45410138 0.44329011 0
-1.6711868 -0.45249951 0.5760147 0
-1.5181913 -0.43166277 -0.056349684 0
-1.1192813 -0.31824189 0.04154361 0
-1.1262485 -0.32022285 0.12583449 0
-1.6734709 -0.47581294 0.31377056 0
-1.6671619 -0.47401917 0.44220519 0
-1.6744492 -0.47609112 0.57915956 0
-1.5001435 -0.4470219 -0.055884313 0
-1.2018819 -0.3581441 0.044773281 0
-1.2020066 -0.35818124 0.1347921 0
-1.6640855 -0.49587432 0.31315678 0
-1.6811774 -0.50096744 0.44756043 0
-1.6768497 -0.4996779 0.58212006 0
-1.5060912 -0.46952102 -0.056321666 0
-1.3109589 -0.4086889 0.049024511 0
-1.3070834 -0.40748072 0.14713907 0
-1.6832645 -0.52475446 0.31798428 0
-1.6707766 -0.52086139 0.44650227 0
-1.6756264 -0.52237326 0.58393252 0
-1.485484 -0.48370111 -0.055774391 0
-1.4307191 -0.46586868 0.053718176 0
-1.4199643 -0.4623667 0.16048883 0
-1.6727769 -0.54468715 0.31727365 0
-1.6647874 -0.54208559 0.44669047 0
-1.6777014 -0.54629064 0.58700633 0
-1.4826967 -0.50352854 -0.055903368 0
-1.5609763 -0.5301125 0.058854811 0
-1.5648229 -0.53141886 0.17760344 0
-1.6769292 -0.56949055 0.31939602 0
-1.6617124 -0.56432283 0.44773656 0
-1.4815036 -0.52401966 -0.056102727 0
-1.7290044 -0.61156267 0.19709603 0
-1.6750944 -0.59249425 0.32044214 0
-1.6658194 -0.58921367 0.45080659 0
-1.4723159 -0.54172242 -0.056008682 0
-1.6903197 -0.62193453 0.19356361 0
-1.6727091 -0.61545485 0.3214429 0
-1.6763179 -0.61678272 0.45571339 0
-1.4709586 -0.56235111 -0.056221973 0
-1.682246 -0.64312679 0.19355109 0
-1.6721956 -0.63928449 0.32286561 0
-1.6767783 -0.64103651 0.45799667 0
-1.4607919 -0.57964939 -0.05610792 0
-1.6798631 -0.66657788 0.19422726 0
-1.6733539 -0.66399503 0.32467785 0
-1.6679121 -0.66183567 0.45781499 0
-1.4499427 -0.59658325 -0.055975314 0
-1.690925 -0.69573617 0.19650362 0
-1.6700125 -0.68713164 0.32568255 0
-1.6669346 -0.68586522 0.45988083 0
-1.4510251 -0.61850476 -0.056313302 0
-1.6890407 -0.71995974 0.19732253 0
-1.675006 -0.71397746 0.32838365 0
-1.6581175 -0.70677871 0.45986724 0
-1.4277599 -0.62994772 -0.055713832 0
-1.6922706 -0.74665362 0.19878252 0
-1.6677098 -0.73581702 0.3287437 0
-1.6817299 -0.7420029 0.46897012 0
-1.4223356 -0.64907098 -0.05581668 0
-1.6756406 -0.76466459 0.19794443 0
-1.6763499 -0.76498824 0.33231935 0
-1.6662726 -0.76038957 0.4672927 0
-1.4138325 -0.66682577 -0.055808082 0
-1.6662104 -0.78585827 0.19798373 0
-1.672456 -0.78880399 0.33349007 0
-1.6725892 -0.78886682 0.47181252 0
-1.4104284 -0.68706113 -0.056010775 0
-1.931357 -0.94082075 0.076697834 0
-1.6777742 -0.81729311 0.20056473 0
-1.6652117 -0.81117356 0.33405584 0
-1.6688632 -0.81295228 0.47361159 0
-1.4043546 -0.70611763 -0.056118224 0
-1.8763257 -0.9434275 0.07497827 0
-1.6748024 -0.84210038 0.20146112 0
-1.6716882 -0.84053457 0.33745164 0
-1.6717441 -0.8405627 0.47739518 0
-1.3954953 -0.7238183 -0.056123972 0
-1.8298335 -0.94910175 0.073592171 0
-1.6663303 -0.8642956 0.20173518 0
-1.6809632 -0.87188536 0.34151304 0
-1.3919328 -0.74435979 -0.0563532 0
-1.7858979 -0.95503926 0.072303101 0
-1.6687522 -0.89239359 0.2033727 0
-1.6691314 -0.89259636 0.34136572 0
-1.3788556 -0.75984603 -0.056206677 0
-1.7367563 -0.9570744 0.070795879 0
-1.672694 -0.92177153 0.2052514 0
-1.6781577 -0.92478245 0.34556597 0
-1.3592162 -0.77149242 -0.055797692 0
-1.6771541 -0.95195425 0.068849474 0
-1.6810288 -0.95415354 0.20773198 0
-1.6728315 -0.9495008 0.34690374 0
-1.3491513 -0.78840333 -0.055787638 0
-1.6761225 -0.9794755 0.069307961 0
-1.6664118 -0.97380078 0.20742455 0
-1.6703483 -0.97610116 0.34891003 0
-1.3399119 -0.8058061 -0.055820737 0
-1.68963 -1.0161221 0.070389993 0
-1.6785986 -1.009488 0.21050708 0
-1.6688256 -1.0036106 0.35120395 0
-1.3230457 -0.81852156 -0.05554308 0
-1.6783507 -1.0383362 0.070459217 0
-1.6764532 -1.0371623 0.21185906 0
-1.6674955 -1.0316205 0.3536298 0
-1.3188459 -0.83906704 -0.055805899 0
-1.6796505 -1.0686157 0.071073063 0
-1.6648926 -1.0592265 0.21206686 0
-1.6684459 -1.0614872 0.35663775 0
-1.3149519 -0.86003786 -0.056094937 0
-1.6807798 -1.0993059 0.071700901 0
-1.6663516 -1.0898691 0.21398382 0
-1.6750491 -1.0955577 0.36096942 0
-1.3035984 -0.87624401 -0.056076854 0
-1.6828517 -1.1311679 0.072391182 0
-1.6667999 -1.1203783 0.21583596 0
-1.670966 -1.1231786 0.36310861 0
-1.3011866 -0.89861363 -0.056455392 0
-1.6734146 -1.1556784 0.072605476 0
-1.6741406 -1.1561798 0.21865444 0
-1.6671473 -1.15135 0.36540028 0
-1.285728 -0.91205949 -0.056278516 0
-1.6713336 -1.1855973 0.073157132 0
-1.6717092 -1.1858637 0.22026972 0
-2.0362587 -1.4444649 0.45025191 0
-1.2740823 -0.92813247 -0.056275874 0
-1.6624547 -1.2110506 0.073430181 0
-1.674556 -1.2198662 0.22265115 0
-2.0017264 -1.4582003 0.44664097 0
-1.2564118 -0.93970096 -0.056013588 0
-1.6803124 -1.2567465 0.074912004 0
-1.6766284 -1.2539911 0.22500838 0
-1.2370534 -0.94974428 -0.05567931 0
-1.6749089 -1.2859067 0.075387023 0
-1.6761214 -1.2868375 0.22709699 0
-1.2196424 -0.96102589 -0.055435933 0
-1.5838153 -1.2479784 0.071988545 0
-1.5953317 -1.2570529 0.21827818 0
-1.6012042 -1.2616801 0.36765006 0
-1.2258294 -0.99117136 -0.056279983 0
-1.5681531 -1.2679648 0.071996666 0
-1.5725024 -1.2714814 0.21732803 0
-1.572684 -1.2716283 0.36474931 0
-1.2039169 -0.99878281 -0.055846941 0
-1.6672641 -1.3831807 0.077340551 0
-1.6682327 -1.3839843 0.23294856 0
-1.7722254 -1.4702579 0.41528946 0
-1.1968808 -1.0186585 -0.056111127 0
-1.6683472 -1.419921 0.078214005 0
-1.6713217 -1.4224526 0.23586237 0
-1.7566186 -1.4950483 0.41601086 0
-1.4548936 -1.2382518 0.48742789 0
-1.1739119 -1.0248758 -0.055634934 0
-1.7130175 -1.4955381 0.41011241 0
-1.428103 -1.2467955 0.48367387 0
-1.1741475 -1.0514253 -0.056269102 0
-1.6308597 -1.460402 0.078156292 0
-1.6262981 -1.4563171 0.2346108 0
-1.6213082 -1.4518489 0.39250213 0
-1.4023561 -1.2557817 0.4802714 0
-1.1528963 -1.0588526 -0.055885218 0
-1.3525614 -1.2422307 0.46853793 0
-1.1449748 -1.0784676 -0.056155071 0
-1.3142273 -1.2378889 0.46062195 0
-1.1355362 -1.096886 -0.056365103 0
-1.2833183 -1.2396381 0.45522362 0
-1.1119851 -1.1015376 -0.05588017 0
-1.2691242 -1.2572001 0.45576808 0
-1.1001306 -1.117588 -0.055987205 0
-1.2474366 -1.2672317 0.45367426 0
-1.0829242 -1.1281769 -0.055830106 0
-1.0671571 -1.1401457 -0.055752985 0
-1.0563087 -1.1574279 -0.055943221 0
-1.0438341 -1.1730891 -0.056060437 0
-1.0254074 -1.1820202 -0.055865757 0
-1.0108657 -1.1953374 -0.055889126 0
-0.99708438 -1.2096078 -0.055964872 0
-0.98191535 -1.2222413 -0.055972878 0
-0.9744004 -1.244666 -0.056433447 0
-0.95064282 -1.2463367 -0.055962007 0
-0.93578988 -1.2594396 -0.056016799 0
-0.91988397 -1.2711586 -0.05601839 0
-0.90000647 -1.2772486 -0.055782918 0
-0.88544285 -1.2907972 -0.055883255 0
-0.86965877 -1.3026508 -0.0559179 0
-0.85432172 -1.3152431 -0.055992212 0
-0.80919981 -1.2457771 0.49422333 0
-0.8409639 -1.3310722 -0.056210808 0
-0.78779405 -1.2469153 0.49070048 0
-0.81598425 -1.3282835 -0.055654719 0
-0.76716316 -1.248811 0.48760623 0
-0.80234671 -1.3437309 -0.055874206 0
-0.74116319 -1.2412637 0.48097712 0
-0.78657454 -1.3558137 -0.055960339 0
-0.72131068 -1.2433188 0.47821596 0
-0.76692408 -1.3611434 -0.055777296 0
-0.70797151 -1.2565138 0.47982419 0
-0.74863863 -1.3687061 -0.055696487 0
-0.68678021 -1.2556129 0.47613996 0
-0.73475927 -1.3844559 -0.055956457 0
-0.66167152 -1.2467418 0.46957922 0
-0.71198881 -1.3833387 -0.055544529 0
-0.63976127 -1.2430061 0.46510106 0
-0.7012952 -1.405786 -0.056086823 0
-0.61570048 -1.2342067 0.45887116 0
-0.67917973 -1.4054837 -0.055729125 0
-0.60436881 -1.2506711 0.46212646 0
-0.65997022 -1.4108053 -0.055606205 0
-0.58391297 -1.2482193 0.45846725 0
-0.64526331 -1.4258738 -0.055875439 0
-0.56251079 -1.243011 0.45391664 0
-0.6279856 -1.4355471 -0.055940188 0
-0.54677868 -1.2499117 0.4538863 0
-0.61029083 -1.4443587 -0.055979654 0
-0.5372712 -1.2715451 0.45924899 0
-0.59318185 -1.4546889 -0.056086086 0
-0.50432783 -1.2367879 0.34076995 0
-0.51833832 -1.2711465 0.45671144 0
-0.57426947 -1.4606459 -0.056032512 0
-0.48888117 -1.2434621 0.34088567 0
-0.50183833 -1.2764183 0.45629895 0
-0.55707705 -1.4710469 -0.056157958 0
-0.46507996 -1.2281146 0.14113158 0
-0.46309921 -1.2228842 0.23583007 0
-0.44432634 -1.1733115 0.32009521 0
-0.4796994 -1.2667195 0.45063666 0
-0.53835952 -1.4775299 -0.0561422 0
-0.44122213 -1.210936 0.13850799 0
-0.44308916 -1.2160599 0.23341955 0
-0.43031541 -1.1810024 0.32068968 0
-0.51906389 -1.4823378 -0.056072086 0
-0.42079389 -1.2016993 0.13683456 0
-0.42526841 -1.2144775 0.23206952 0
-0.41126794 -1.1744951 0.31749126 0
-0.43999583 -1.2565359 0.44293064 0
-0.49869651 -1.4838114 -0.055885855 0
-0.40840659 -1.2151647 0.13777132 0
-0.41009697 -1.2201942 0.23215671 0
-0.40924454 -1.2176578 0.32774007 0
-0.4191013 -1.2469854 0.4376691 0
-0.47865215 -1.4858696 -0.055731948 0
-0.39640674 -1.230557 0.13893951 0
-0.39429489 -1.2240012 0.23191801 0
-0.41337335 -1.2832261 0.34395984 0
-0.41281718 -1.2814995 0.44792289 0
-0.46250504 -1.5002114 -0.056046989 0
-0.40972 -1.3289943 0.35481668 0
-0.44424927 -1.5081917 -0.056131691 0
-0.36886355 -1.2522631 0.33306438 0
-0.42486367 -1.5123827 -0.056084111 0
-0.34782013 -1.2381316 0.32811496 0
-0.40566459 -1.5171537 -0.056067158 0
-0.33050317 -1.2360559 0.32643604 0
-0.38460225 -1.5145513 -0.055787586 0
-0.31602582 -1.2444994 0.32758904 0
-0.36791694 -1.5293131 -0.056156226 0
-0.34751368 -1.5289048 -0.055976111 0
-0.32803637 -1.5322298 -0.055942178 0
-0.30878311 -1.5365639 -0.05595402 0
-0.29076347 -1.547526 -0.05621542 0
-0.49802497 -2.6506307 0.096286796 0
-0.27047643 -1.5466114 -0.05605403 0
-0.43067324 -2.4626329 0.089253508 0
-0.25054559 -1.5472038 -0.055956718 0
-0.3991226 -2.4647171 0.089139834 0
-0.22981308 -1.541973 -0.055658471 0
-0.36769179 -2.4670954 0.089051336 0
-0.21281593 -1.5626339 -0.056303043 0
-0.3368389 -2.4732916 0.089114822 0
-0.19194785 -1.5556605 -0.05596026 0
-0.30489135 -2.4710224 0.088887684 0
-0.17261004 -1.5603502 -0.056046326 0
-0.27292803 -2.4671988 0.088619485 0
-0.15323481 -1.5653126 -0.056150816 0
-0.24109121 -2.4627767 0.088344596 0
-0.13244805 -1.5546124 -0.055702731 0
-0.20934114 -2.4571471 0.088041112 0
-0.11332179 -1.5624813 -0.055929117 0
-0.17943546 -2.474057 0.088559024 0
-0.093769297 -1.5659556 -0.056006778 0
-0.14743495 -2.4621768 0.088060342 0
-0.074277505 -1.5719415 -0.056182954 0
-0.11610835 -2.4572115 0.087823495 0
-0.053966299 -1.5579518 -0.055654246 0
-0.08529 -2.462235 0.087957688 0
-0.034476701 -1.5644603 -0.055866811 0
-0.054382455 -2.46773 0.088122539 0
-0.014798047 -1.5671563 -0.055951994 0
0.0049264571 -1.5643405 -0.05584925 0
0.024623372 -1.5641776 -0.055850077 0
0.04444648 -1.5683368 -0.056014128 0
0.064089954 -1.5652043 -0.05592664 0
0.083514191 -1.559074 -0.055740755 0
0.10269926 -1.5512687 -0.055503529 0
0.12391544 -1.5713077 -0.056271881 0
0.14248724 -1.5564812 -0.055800743 0
0.16268156 -1.560392 -0.056009948 0
0.18175951 -1.5534647 -0.055839021 0
0.20285235 -1.5629745 -0.056268204 0
0.22293177 -1.5632118 -0.056373339 0
0.24005178 -1.5439123 -0.055781934 0
0.25946152 -1.5407022 -0.05577958 0
0.28064752 -1.5472771 -0.056141108 0
0.29906616 -1.5382652 -0.055946328 0
0.31869802 -1.5357604 -0.055996746 0
0.33673787 -1.5258622 -0.055786025 0
0.35475582 -1.5165092 -0.05560299 0
0.37581104 -1.5199652 -0.055898782 0
0.39631993 -1.5204858 -0.056097012 0
0.41470605 -1.5127225 -0.055998817 0
0.43273976 -1.5039735 -0.055872232 0
0.45332012 -1.5039719 -0.05607979 0
0.46838874 -1.4859868 -0.055624679 0
0.48878789 -1.4852158 -0.055821788 0
0.51025349 -1.4871148 -0.056130204 0
0.52865231 -1.4797736 -0.056099929 0
0.54735488 -1.4733022 -0.056111444 0
0.56547856 -1.4652996 -0.056073409 0
0.48943931 -1.2682625 0.45227328 0
0.58744228 -1.4669499 -0.056415163 0
0.50816673 -1.2689846 0.45477667 0
0.6006487 -1.4468685 -0.055929322 0
0.52172595 -1.2567559 0.45271274 0
0.62255919 -1.4478897 -0.05626737 0
0.54308033 -1.2630453 0.45740545 0
0.64044487 -1.4392717 -0.056241404 0
0.55645406 -1.2505193 0.45537063 0
0.65491569 -1.4232689 -0.055933893 0
0.57645988 -1.252768 0.45879644 0
0.67572957 -1.4211037 -0.056178745 0
0.59215915 -1.2453495 0.45877406 0
0.69157523 -1.4084215 -0.056017216 0
0.60826969 -1.2387663 0.4591341 0
0.70518297 -1.3915683 -0.055695675 0
0.63218021 -1.2475088 0.46528798 0
0.72798896 -1.392796 -0.056107264 0
0.65110713 -1.245705 0.46763611 0
0.74695617 -1.3862809 -0.056219254 0
0.66786945 -1.2395033 0.46842796 0
0.76143062 -1.3715039 -0.056004386 0
0.70015806 -1.2611386 0.051497694 0
0.69850147 -1.2581547 0.15465343 0
0.6970672 -1.2555714 0.25899744 0
0.69938558 -1.2597473 0.3676118 0
0.69721401 -1.2558358 0.47788027 0
0.77809703 -1.3608599 -0.055965398 0
0.71533543 -1.2510923 0.051451206 0
0.7135542 -1.247977 0.1544946 0
0.70832551 -1.2388322 0.25736398 0
0.70991844 -1.2416182 0.36490121 0
0.71918899 -1.2578321 0.48204783 0
0.79409409 -1.3491265 -0.055889655 0
0.73379666 -1.2466841 0.051645823 0
0.73171723 -1.2431513 0.15502554 0
0.72968346 -1.239696 0.25943172 0
0.72722512 -1.2355193 0.36577109 0
0.73549408 -1.2495679 0.4823918 0
0.81482989 -1.345314 -0.056152325 0
0.82484436 -1.3239368 -0.055689171 0
0.84622014 -1.3208935 -0.056004938 0
0.86459368 -1.3128808 -0.056122363 0
0.88539231 -1.3082981 -0.056398585 0
0.8929686 -1.284351 -0.055846568 0
0.90312487 -1.2646815 -0.055481385 0
0.92004609 -1.2546674 -0.055545919 0
0.94955933 -1.2612987 -0.05636438 0
0.95401281 -1.2345517 -0.055701543 0
0.9765662 -1.2313746 -0.056108583 0
0.77319348 -0.97493726 0.044423807 0
0.77254653 -0.97412151 0.13361424 0
0.98776579 -1.213786 -0.055869468 0
0.77247834 -0.94923657 0.043692499 0
0.7739802 -0.95108211 0.13178043 0
1.0090806 -1.2085707 -0.056209832 0
0.77139264 -0.92389303 0.042969655 0
0.77083725 -0.92322779 0.12925567 0
1.01835 -1.1889185 -0.055887789 0
0.77270448 -0.90212858 0.042406585 0
0.76772934 -0.8963201 0.1268319 0
1.0328875 -1.1756016 -0.05586876 0
0.7737928 -0.8807078 0.041854363 0
0.77419984 -0.88117105 0.12605777 0
1.0521976 -1.1675962 -0.056113534 0
0.77906024 -0.86450285 0.041547161 0
0.77778083 -0.86308312 0.12486137 0
1.0711079 -1.1588993 -0.056339301 0
1.0840051 -1.1436226 -0.056255762 0
1.0957854 -1.1272768 -0.056125998 0
1.1061089 -1.1095948 -0.055934679 0
1.1241065 -1.0996041 -0.056140147 0
1.1292593 -1.0771565 -0.055715665 0
1.1481476 -1.067889 -0.055979688 0
1.1709619 -1.0619262 -0.056435585 0
1.170632 -1.0350661 -0.05578709 0
1.1859064 -1.0222567 -0.055897124 0
1.1988883 -1.0074155 -0.055906661 0
1.2178735 -0.99747837 -0.056201801 0
1.2251592 -0.97793233 -0.055965304 0
1.2415413 -0.9656688 -0.056153726 0
1.2514237 -0.94830924 -0.05605616 0
1.2645178 -0.93340194 -0.056111757 0
1.2761948 -0.91742384 -0.056112837 0
1.2873549 -0.90107918 -0.056100193 0
1.2981117 -0.88446665 -0.05607916 0
1.3046782 -0.86508977 -0.055887807 0
1.3196018 -0.85126078 -0.056063458 0
1.3158822 -0.82558519 -0.055459365 0
1.3412684 -0.81815922 -0.056090638 0
1.3540183 -0.80272067 -0.056196667 0
1.3588487 -0.78263086 -0.055983685 0
1.373683 -0.76830488 -0.056191802 0
1.3905004 -0.75488496 -0.05648642 0
1.3862984 -0.73015565 -0.055937786 0
1.394477 -0.71218044 -0.055901509 0
1.4004972 -0.69316196 -0.055788517 0
1.4098064 -0.67580491 -0.055815931 0
1.4216443 -0.6595965 -0.055951338 0
1.4347106 -0.64383113 -0.056142058 0
1.4342082 -0.62203079 -0.055811465 0
1.4520805 -0.60817587 -0.056204483 0
1.4552119 -0.58806163 -0.056034628 0
1.4704906 -0.57280439 -0.056340747 0
1.4744903 -0.55308235 -0.056222692 0
1.4794432 -0.53378952 -0.056150805 0
1.4798679 -0.5129773 -0.055917323 0
1.4819316 -0.49288046 -0.055756368 0
1.4895642 -0.47467414 -0.055814225 0
1.4935573 -0.4553124 -0.0557446 0
1.5041252 -0.43791273 -0.055928782 0
1.515829 -0.42069027 -0.05616254 0
1.5133917 -0.39956054 -0.055881392 0
1.5316379 -0.38381511 -0.056372195 0
1.5241555 -0.36160657 -0.055924784 0
1.5288632 -0.34244862 -0.055934861 0
1.5339589 -0.32336202 -0.055967882 0
1.545498 -0.30552226 -0.056244068 0
1.5386491 -0.28408617 -0.05586021 0
1.5461588 -0.26538616 -0.056007084 0
1.553129 -0.24649245 -0.056142684 0
1.5504502 -0.22609189 -0.055938505 0
1.5584085 -0.20724802 -0.056127023 0
1.5664858 -0.18828139 -0.056328081 0
1.5598326 -0.16758633 -0.056008518 0
1.5676076 -0.14848116 -0.056216106 0
1.561286 -0.12806958 -0.055927135 0
1.564278 -0.10850523 -0.055980936 0
1.5738385 -0.089272305 -0.056278381 0
1.565191 -0.069023289 -0.055933647 0
1.5727059 -0.049523342 -0.056175459 0
1.5630102 -0.029524576 -0.055811435 0
1.577296 -0.0099304263 -0.056312617 0
1.5623268 0.0098361829 -0.055778187 0
1.5623629 0.029512348 -0.05578832 0
1.5595045 0.049107641 -0.055703919 0
1.5736127 0.069394678 -0.056234606 0
1.5768341 0.089442231 -0.056385502 0
1.5543278 0.10781504 -0.055624846 0
1.575263 0.1292161 -0.05642781 0
1.5535578 0.14715038 -0.05571226 0
1.5594203 0.16754204 -0.055993717 0
1.5586349 0.18733776 -0.056045774 0
1.5545008 0.20672835 -0.055986285 0
1.5518757 0.22629975 -0.055989936 0
1.5347984 0.24358326 -0.055480067 0
1.5421515 0.26469833 -0.055861924 0
1.5549291 0.287092 -0.056451254 0
1.5352641 0.30349919 -0.055871639 0
1.5313289 0.32280761 -0.055871923 0
1.5412838 0.34523073 -0.056389283 0
1.5238631 0.36153719 -0.055914056 0
1.5230964 0.38167468 -0.056057826 0
1.5205342 0.40144628 -0.056145128 0
1.5108966 0.41932136 -0.055979792 0
1.4912027 0.43415046 -0.055448279 0
1.5079052 0.45968637 -0.056280114 0
1.4937227 0.47599933 -0.055970047 0
1.489368 0.49535379 -0.056036156 0
1.4750723 0.51131493 -0.055736117 0
1.4690485 0.53003907 -0.055756282 0
1.468295 0.55075848 -0.055986464 0
1.4707546 0.57290721 -0.056350864 0
1.4560784 0.58841181 -0.056067996 0
1.447226 0.6061427 -0.056016587 0
1.4475117 0.6278007 -0.056329168 0
1.4345307 0.64375037 -0.056135017 0
1.4200896 0.65887517 -0.05589015 0
1.4145328 0.6780706 -0.056003056 0
1.4050682 0.69542426 -0.055970598 0
1.3970009 0.71346939 -0.056002684 0
1.3858726 0.72993141 -0.055920608 0
1.3761821 0.74711168 -0.055904765 0
1.3568636 0.75889778 -0.055503789 0
1.3527652 0.77912706 -0.055733047 0
1.3628459 0.80795401 -0.056563046 0
1.3506879 0.82390493 -0.05648455 0
1.3306452 0.83484751 -0.056081567 0
1.3076576 0.84355575 -0.05555601 0
1.3074734 0.86694318 -0.056007545 0
1.3024982 0.88745534 -0.056268658 0
1.2885982 0.90194935 -0.05615437 0
1.2697121 0.9127636 -0.055827804 0
1.2655303 0.93414932 -0.056156687 0
1.24512 0.94353241 -0.055773795 0
1.2291682 0.95604497 -0.055594102 0
1.2338041 0.98483276 -0.056360207 0
1.2159305 0.99588698 -0.056112137 0
1.2042212 1.0118967 -0.05615535 0
1.1914606 1.0270444 -0.056158919 0
1.169421 1.0339954 -0.055729378 0
1.1532166 1.0458333 -0.055580337 0
1.144254 1.0642675 -0.055789851 0
1.1324884 1.0802366 -0.055874981 0
1.1208684 1.0964366 -0.055978432 0
1.1111928 1.1146948 -0.056191768 0
1.093613 1.125042 -0.056014728 0
1.0849769 1.1446478 -0.056306195 0
0.59208083 0.62464368 0.28633729 0
1.0673385 1.1548209 -0.056141034 0
0.61948824 0.67026347 0.30364951 0
1.0466349 1.1614236 -0.055816878 0
1.0074948 1.1179907 0.053729542 0
1.0051775 1.1154193 0.16136658 0
1.0101743 1.1209641 0.27214208 0
0.62093282 0.68903297 0.308586 0
1.0411941 1.185056 -0.056318063 0
0.98461938 1.1206644 0.05325795 0
0.98835778 1.1249192 0.16092767 0
0.98379463 1.1197256 0.26881257 0
0.62433082 0.71059471 0.31469664 0
1.01604 1.1862216 -0.055761013 0
0.95126945 1.1106023 0.052206356 0
0.95523709 1.1152344 0.15780891 0
0.95798308 1.1184404 0.26558697 0
0.62230825 0.72654176 0.31826341 0
1.0062242 1.2051495 -0.05605071 0
0.93543392 1.1203643 0.052107409 0
0.93761659 1.1229786 0.15722159 0
0.93610376 1.1211667 0.26341438 0
0.62386596 0.74720103 0.32384631 0
0.99187779 1.2188389 -0.056102049 0
0.91419637 1.1233824 0.051708277 0
0.9117437 1.1203686 0.15523651 0
0.90504855 1.1121415 0.25859585 0
0.63002354 0.7741853 0.33207688 0
0.96845627 1.2211486 -0.055642627 0
0.88393748 1.1145769 0.050786603 0
0.88854253 1.1203835 0.15367611 0
0.89599168 1.1297764 0.26005229 0
0.62251806 0.78494722 0.33330426 0
0.95481062 1.235584 -0.055748124 0
0.86560702 1.120149 0.050539829 0
0.8609615 1.1141375 0.15132032 0
0.85824704 1.1106248 0.25313628 0
0.62029415 0.80269897 0.33749861 0
0.94627756 1.2569394 -0.056169577 0
0.84005576 1.1158452 0.049864415 0
0.84696841 1.1250272 0.15133882 0
0.84159297 1.117887 0.25235611 0
0.60984403 0.81005514 0.337336 0
0.92665052 1.2636739 -0.055944648 0
0.81630087 1.1131899 0.04928251 0
0.81834519 1.1159779 0.14872351 0
0.82301599 1.1223474 0.25100359 0
0.59928125 0.81724018 0.33715883 0
0.91214365 1.2773107 -0.056035433 0
0.81246883 1.1377321 0.04991214 0
0.81271046 1.1380705 0.15029199 0
0.81691277 1.1439552 0.25351536 0
0.59062535 0.82707596 0.33812153 0
0.89279073 1.2840952 -0.055835444 0
0.81210661 1.1680478 0.050789431 0
0.81790382 1.1763859 0.15397955 0
0.81019133 1.165293 0.25596288 0
0.58429545 0.84038842 0.34052899 0
0.87559009 1.2938138 -0.055774193 0
0.81455159 1.2036206 0.051886108 0
0.81220692 1.2001559 0.15573983 0
0.81195271 1.1997803 0.26127166 0
0.57015353 0.8424862 0.33844304 0
0.86133552 1.3079332 -0.055910867 0
0.81040835 1.2306007 0.052605093 0
0.81207025 1.2331243 0.15867847 0
0.80487245 1.2221944 0.26392469 0
0.73461485 1.1155087 0.3407726 0
0.55875361 0.84846431 0.3379913 0
0.84544307 1.3196806 -0.05595351 0
0.81462365 1.2715735 0.053913806 0
0.81291479 1.2689061 0.16195281 0
0.7923311 1.2367764 0.26489803 0
0.72033238 1.1243911 0.34068811 0
0.55305636 0.86328435 0.34109366 0
0.83425307 1.3390385 -0.056324396 0
0.81426263 1.3069524 0.054974746 0
0.81016743 1.3003792 0.16465466 0
0.77640116 1.2461817 0.26479757 0
0.70362777 1.1293751 0.33948669 0
0.54097229 0.86830091 0.34035727 0
0.81366742 1.3433948 -0.056072216 0
0.75645453 1.2489341 0.26333749 0
0.67770976 1.1189237 0.33375329 0
0.53698349 0.88657945 0.34484428 0
0.41207281 0.68034726 0.47171602 0
0.79656488 1.3533242 -0.056063555 0
0.7373035 1.252642 0.26214093 0
0.65789139 1.1177248 0.33089843 0
0.52109545 0.88531536 0.34177324 0
0.404818 0.68776572 0.47328764 0
0.77531087 1.355987 -0.055764996 0
0.72836256 1.2738763 0.26464429 0
0.63903272 1.117642 0.32846567 0
0.51946878 0.90852964 0.3481822 0
0.41876617 0.73240489 0.34931043 0
0.41012591 0.71729338 0.41341335 0
0.41001377 0.71709722 0.48988047 0
0.76378113 1.3757378 -0.05617727 0
0.71162617 1.2817953 0.26440686 0
0.62166888 1.1197624 0.32676226 0
0.50070101 0.90187263 0.34318751 0
0.41998023 0.75647676 0.35824051 0
0.40280432 0.72553915 0.41520953 0
0.40864167 0.73605353 0.49927548 0
0.73893052 1.3713861 -0.055615205 0
0.69134557 1.2830728 0.26285377 0
0.59979993 1.1131727 0.32260969 0
0.49335411 0.91561919 0.34602702 0
0.41662014 0.77320802 0.36365062 0
0.40114421 0.74448615 0.42312819 0
0.40509555 0.75181949 0.50646949 0
0.72292447 1.3831066 -0.055716936 0
0.68151981 1.3038908 0.26533949 0
0.58821058 1.1253706 0.32397252 0
0.47919998 0.91681039 0.3441695 0
0.41642022 0.79669952 0.37220332 0
0.40624025 0.77722305 0.43879202 0
0.40968332 0.78381038 0.52450359 0
0.71792608 1.4167148 -0.056702133 0
0.662718 1.3077703 0.26440978 0
0.56612122 1.1171517 0.31952891 0
0.46548453 0.91856092 0.34259909 0
0.41673368 0.82235873 0.38170898 0
0.40440241 0.79802489 0.44762555 0
0.40664455 0.80244941 0.53350747 0
0.69072974 1.4066997 -0.055948734 0
0.64069086 1.3047934 0.26215595 0
0.54837656 1.1167915 0.31742567 0
0.45362458 0.92382514 0.3424049 0
0.41326612 0.8416335 0.3882094 0
0.40668872 0.82823837 0.46166369 0
0.4069027 0.82867414 0.54749298 0
0.67200392 1.4132683 -0.055869002 0
0.53178746 1.1183839 0.31594992 0
0.4434624 0.93263054 0.34357154 0
0.40857539 0.85926086 0.3939358 0
0.4057107 0.85323626 0.47271249 0
0.40864044 0.85939765 0.56434715 0
0.65645796 1.4266205 -0.056065612 0
0.51620108 1.1218129 0.31505734 0
0.43003595 0.93455815 0.34225968 0
0.40373951 0.87741047 0.39989415 0
0.40908992 0.88903803 0.48965472 0
0.4007068 0.87081975 0.56848925 0
0.63507748 1.4272096 -0.055770062 0
0.49856243 1.1204194 0.31287798 0
0.42063549 0.94529414 0.34422436 0
0.40544179 0.91114932 0.41291156 0
0.40977713 0.92089218 0.50431705 0
0.41071901 0.92300886 0.59913558 0
0.62066609 1.4434869 -0.056096267 0
0.48905241 1.1373923 0.31587294 0
0.4160732 0.967664 0.3504346 0
0.40701312 0.94659293 0.42661735 0
0.40859157 0.95026398 0.51754349 0
0.40746501 0.94764394 0.61174744 0
0.60332066 1.4533048 -0.056178115 0
0.46073046 1.1098274 0.30658224 0
0.41750795 1.0057112 0.36228058 0
0.40710616 0.9806549 0.43962342 0
0.40765813 0.98198456 0.53198159 0
0.40638697 0.97892255 0.62858593 0
0.58072782 1.4501828 -0.055770338 0
0.45198682 1.1286932 0.31019694 0
0.41532698 1.0371469 0.37169105 0
0.40819156 1.0193285 0.4546203 0
0.40920484 1.0218588 0.55074799 0
0.4067384 1.0156996 0.64886105 0
0.56730765 1.4700392 -0.056254782 0
0.43171567 1.1186857 0.30592832 0
0.41762105 1.082163 0.38590863 0
0.40634912 1.0529546 0.46729839 0
0.40734929 1.0555462 0.56609493 0
0.40719736 1.0551525 0.67073607 0
0.5462386 1.4702976 -0.05599701 0
0.4157418 1.1190424 0.30457005 0
0.41337922 1.1126832 0.39490479 0
0.40989077 1.1032933 0.48730934 0
0.40567616 1.091949 0.5828321 0
0.40916744 1.1013464 0.69676995 0
0.52840453 1.4790801 -0.056073636 0
0.39615804 1.1089032 0.3004289 0
0.40826374 1.1427888 0.40373304 0
0.40617669 1.1369468 0.49987489 0
0.40861031 1.1437588 0.60769123 0
0.51390737 1.4977639 -0.056532148 0
0.38343447 1.1175054 0.30142748 0
0.40549755 1.1818075 0.415681 0
0.4089404 1.1918416 0.52170479 0
0.40721092 1.1868011 0.62778586 0
0.4900575 1.4890735 -0.05596678 0
0.59132034 1.7967677 0.34114203 0
0.3675763 1.1169059 0.29999352 0
0.40551427 1.2321831 0.43156949 0
0.40658638 1.2354409 0.53850567 0
0.40772685 1.2389061 0.6525805 0
0.47268036 1.4996022 -0.056134347 0
0.57109398 1.8118243 0.34260818 0
0.35219413 1.1173536 0.29889885 0
0.40870905 1.2966501 0.45231047 0
0.40754735 1.2929645 0.56129777 0
0.40408418 1.2819773 0.67253429 0
0.44997898 1.4928871 -0.055666462 0
0.54748046 1.816366 0.34213626 0
0.33561715 1.113471 0.2967062 0
0.40654072 1.3487729 0.46866956 0
0.40931433 1.3579748 0.58723575 0
0.43797848 1.5221804 -0.056548618 0
0.52492791 1.8243705 0.34237179 0
0.32345718 1.1241652 0.29844689 0
0.40718925 1.4151734 0.48992187 0
0.40712705 1.4149573 0.60961175 0
0.41575152 1.516536 -0.056139987 0
0.30987749 1.1303395 0.041843548 0
0.30764306 1.1221889 0.12505069 0
0.30923104 1.1279814 0.21093597 0
0.30708236 1.1201437 0.29632917 0
0.404906 1.4769748 0.50951147 0
0.40406978 1.4739245 0.63277453 0
0.39492324 1.5151274 -0.055899322 0
0.29084951 1.1158473 0.041168228 0
0.29087254 1.1159358 0.12393589 0
0.29384401 1.1273359 0.21010664 0
0.29035246 1.1139405 0.2936976 0
0.40003148 1.5347252 0.52765405 0
0.39701551 1.5231544 0.65171158 0
0.3757652 1.5197799 -0.055891968 0
0.27462679 1.1107262 0.040848464 0
0.27510858 1.1126748 0.12317923 0
0.27827549 1.1254833 0.20909172 0
0.27455434 1.1104332 0.29183826 0
0.39424974 1.5945404 0.54646897 0
0.39282021 1.5887587 0.67761153 0
0.35628194 1.523033 -0.055842187 0
0.2619212 1.11966 0.041052468 0
0.26230949 1.1213199 0.1237608 0
0.26068887 1.114392 0.206405 0
0.26084653 1.1150659 0.29216936 0
0.38535303 1.647306 0.56284481 0
0.34106764 1.5454817 -0.056503322 0
0.24609368 1.1151257 0.040769361 0
0.24773863 1.1225795 0.12354572 0
0.2475988 1.1219459 0.20721017 0
0.24643597 1.1166767 0.2917552 0
0.37428841 1.6960151 0.57783139 0
0.31728846 1.528968 -0.055749081 0
0.23093359 1.1128361 0.040576123 0
0.23112378 1.1137526 0.12224429 0
0.23236854 1.119751 0.20624804 0
0.23279329 1.1217977 0.29230413 0
0.35810199 1.7256426 0.58634263 0
0.30014247 1.5438012 -0.056147672 0
0.21933429 1.1281594 0.041030884 0
0.21752913 1.1188744 0.1224961 0
0.21739952 1.1182078 0.20544331 0
0.21705173 1.116419 0.29016742 0
0.34437448 1.7713113 0.600339 0
0.28061375 1.5470909 -0.056134351 0
0.201812 1.112638 0.040370744 0
0.20164438 1.1117138 0.12142453 0
0.20250714 1.1164703 0.20463936 0
0.20477051 1.1289489 0.29273066 0
0.33011892 1.8200248 0.61539149 0
0.25911078 1.5386195 -0.055704176 0
0.18859863 1.119913 0.040545326 0
0.18764915 1.1142749 0.12143654 0
0.18841365 1.1188146 0.20461796 0
0.18981947 1.1271625 0.29162455 0
0.31490993 1.869959 0.63088459 0
0.24138799 1.5525062 -0.056092437 0
0.17322055 1.1140817 0.040252052 0
0.17453587 1.1225414 0.12208825 0
0.17353663 1.1161147 0.20370838 0
0.17628588 1.1337967 0.29274347 0
0.2946876 1.8953069 0.63813388 0
0.22103806 1.549933 -0.055894472 0
0.16127217 1.1308507 0.040781312 0
0.15931539 1.1171297 0.12127186 0
0.15914297 1.1159207 0.20329109 0
0.15906326 1.1153617 0.28744364 0
0.27538931 1.9310473 0.64894837 0
0.20154572 1.552907 -0.055905763 0
0.14557752 1.1216727 0.040381026 0
0.14569958 1.1226132 0.12165832 0
0.14411625 1.1104137 0.20194125 0
0.14707331 1.1331979 0.29153988 0
0.25577036 1.9707071 0.66114169 0
0.18225151 1.5576698 -0.055990171 0
0.13156521 1.1244634 0.040418644 0
0.13061349 1.1163292 0.12078951 0
0.12981695 1.1095213 0.20146571 0
0.1308015 1.1179361 0.28716692 0
0.23573461 2.0147798 0.67487806 0
0.16327624 1.5660959 -0.05621469 0
0.11906847 1.1420685 0.12340254 0
0.11884731 1.1399473 0.20670229 0
0.11914484 1.142801 0.29314545 0
0.21230519 2.0363667 0.68115938 0
0.14331381 1.5655104 -0.056124445 0
0.11922649 1.3023889 0.14055209 0
0.11999666 1.310802 0.23738992 0
0.11982524 1.3089293 0.33534619 0
0.18899347 2.0644991 0.68971884 0
0.12310895 1.5610809 -0.055905636 0
0.17025471 2.1589119 0.23273711 0
0.1660672 2.1058123 0.38095963 0
0.16449666 2.0858972 0.53383148 0
0.10362366 1.5652317 -0.056003116 0
0.14104725 2.1305139 0.38507652 0
0.14063597 2.1243014 0.54316378 0
0.083796956 1.5643529 -0.055929486 0
0.11579964 2.1617908 0.3904351 0
0.11571472 2.1602056 0.55192775 0
0.064187989 1.5675983 -0.05601218 0
0.089492194 2.1855774 0.39449635 0
0.089402735 2.1833928 0.55752021 0
0.044110384 1.5564773 -0.055590559 0
0.024151256 0.85220033 0.35298324 0
0.024165194 0.85269213 0.42680743 0
0.024573697 1.561022 -0.055737406 0
0.013340415 0.84743792 0.35091326 0
0.01346109 0.85510361 0.42789572 0
0.004953498 1.5729271 -0.056155805 0
0.0025897666 0.82235098 0.4114573 0
0.0025865519 0.82133025 0.48709062 0
-0.01480322 1.5677041 -0.055971552 0
-0.0077078738 0.81628627 0.40843904 0
-0.0076723523 0.81252444 0.4818874 0
-0.034453731 1.563418 -0.055829592 0
-0.018462609 0.83778375 0.34695682 0
-0.0185894 0.84353715 0.42215803 0
-0.017937893 0.81397355 0.48284253 0
-0.054352697 1.5691067 -0.056052733 0
-0.080025204 2.3102458 0.41689968 0
-0.080151767 2.3138995 0.5907039 0
-0.027514085 0.79430348 0.47134256 0
-0.074270986 1.5718035 -0.056178022 0
-0.11010078 2.3300726 0.42069441 0
-0.11028165 2.3339002 0.59611708 0
-0.036739931 0.77753043 0.4616273 0
-0.094058476 1.5707849 -0.056179497 0
-0.14026251 2.3423967 0.42320487 0
-0.14017697 2.3409679 0.59832567 0
-0.046797957 0.78153008 0.464315 0
-0.11325964 1.5616244 -0.055898443 0
-0.1716314 2.3664544 0.42790797 0
-0.17207095 2.372515 0.60689443 0
-0.13299881 1.5610769 -0.055934362 0
-0.20228365 2.3743095 0.42975485 0
-0.20247777 2.3765881 0.6085403 0
-0.15351723 1.5681976 -0.056254305 0
-0.23430528 2.3934577 0.43372035 0
-0.23375748 2.3878617 0.61213219 0
-0.17323151 1.5659682 -0.056248121 0
-0.26510885 2.3965154 0.43484494 0
-0.26625395 2.4068668 0.61781466 0
-0.19112073 1.548957 -0.055719122 0
-0.29768622 2.4126277 0.43841389 0
-0.2985256 2.4194305 0.62195522 0
-0.21258917 1.5609689 -0.056243051 0
-0.33062738 2.4276826 0.44187114 0
-0.33005023 2.4234447 0.62400603 0
-0.23246495 1.5597663 -0.056300726 0
-0.36411798 2.4431164 0.44547951 0
-0.36296776 2.4353988 0.62821114 0
-0.25075105 1.5484725 -0.056002606 0
-0.39537692 2.4415865 0.44607297 0
-0.39656204 2.4489048 0.6329329 0
-0.26864576 1.5361434 -0.055674635 0
-0.42995375 2.4585187 0.45011994 0
-0.43116876 2.4654663 0.63856596 0
-0.28900671 1.5381759 -0.055875771 0
-0.46269765 2.4626086 0.45189965 0
-0.46114132 2.4543254 0.6371339 0
-0.31016698 1.5434504 -0.056204792 0
-0.52335399 2.6043098 0.094836019 0
-0.52228057 2.5989683 0.28489324 0
-0.49492165 2.4628251 0.45304707 0
-0.49701297 2.4732318 0.6436156 0
-0.32599857 1.5227114 -0.05559466 0
-0.54657447 2.5530024 0.093210898 0
-0.54753155 2.5574727 0.2810781 0
-0.52637154 2.4586363 0.45345986 0
-0.52521449 2.4532318 0.64008129 0
-0.34788936 1.5305576 -0.056036625 0
-0.57562232 2.532481 0.092718937 0
-0.57498902 2.5296946 0.27879879 0
-0.56042016 2.4655981 0.45600927 0
-0.56193048 2.4722431 0.64683646 0
-0.36589545 1.5209104 -0.055847678 0
-0.60714298 2.5236993 0.092669986 0
-0.60794204 2.5270207 0.27932566 0
-0.59332472 2.4662611 0.45747742 0
-0.59342796 2.4666903 0.64728749 0
-0.38622612 1.520946 -0.056023132 0
-0.64237022 2.5296333 0.09317752 0
-0.6441862 2.5367846 0.28127924 0
-0.62959212 2.4793134 0.46133256 0
-0.6294418 2.4787216 0.65247273 0
-0.40307602 1.5074726 -0.055709392 0
-0.688541 2.5750892 0.095163681 0
-0.68554842 2.5638971 0.28522006 0
-0.65918756 2.4653096 0.46023488 0
-0.66170532 2.474726 0.65356249 0
-0.42525595 1.5137793 -0.056135897 0
-0.69351465 2.4686968 0.46246085 0
-0.69649583 2.4793091 0.65703702 0
-0.44166505 1.4994185 -0.055805169 0
-0.72544086 2.4628153 0.46303359 0
-0.72620106 2.4653962 0.65572137 0
-0.46133327 1.4964105 -0.055904992 0
-0.75921017 2.4626231 0.46475801 0
-0.76131982 2.4694662 0.65930134 0
-0.48407891 1.5027158 -0.056363814 0
-0.78904104 2.4494033 0.46410143 0
-0.79306805 2.461904 0.65989631 0
-0.49801162 1.4817736 -0.055809107 0
-0.81693101 2.4306798 0.091548443 0
-0.82515341 2.4551446 0.46712101 0
-0.82507503 2.4549115 0.66075444 0
-0.52061957 1.4867805 -0.056240138 0
-0.83833438 2.3941076 0.090561412 0
-0.85797328 2.450192 0.46819714 0
-0.8566969 2.446547 0.66135424 0
-0.53815699 1.4769741 -0.056121081 0
-0.86855006 2.3837392 0.09057574 0
-0.89135838 2.4463367 0.46956798 0
-0.88953918 2.441344 0.66292316 0
-0.55618107 1.4686811 -0.056067638 0
-0.90278065 2.38393 0.091007732 0
-0.91883373 2.4263206 0.46790972 0
-0.92343086 2.4384601 0.66524482 0
-0.56979686 1.4492699 -0.055596113 0
-0.91109413 2.3173544 0.088897102 0
-0.95022434 2.4168818 0.4683598 0
-0.95075512 2.4182317 0.66293979 0
-0.59395659 1.4565889 -0.05615934 0
-0.98916888 2.4257872 0.093527153 0
-0.9845854 2.4145472 0.47027269 0
-0.98407918 2.4133055 0.66493374 0
-0.61153209 1.4472964 -0.056093514 0
-0.95504701 2.2602837 0.087602831 0
-1.0130966 2.3976684 0.46943271 0
-1.0127275 2.3967946 0.66384554 0
-0.62655187 1.4322696 -0.055812471 0
-0.99067783 2.2646453 0.088248365 0
-1.0513446 2.4033267 0.47309506 0
-1.0461432 2.3914366 0.66595733 0
-0.64598155 1.4274609 -0.055937629 0
-1.0254484 2.2659898 0.088796899 0
-1.0746797 2.3747787 0.47010198 0
-1.074084 2.3734624 0.6646657 0
-0.6638006 1.4189935 -0.055928934 0
-1.1067594 2.3658977 0.47106543 0
-1.1044503 2.3609617 0.66500694 0
-0.68319184 1.4137864 -0.056058336 0
-1.1304853 2.3394084 0.46858841 0
-1.1282278 2.3347368 0.66156936 0
-0.69952816 1.4022441 -0.055945504 0
-1.1619732 2.3292415 0.46944553 0
-1.1666248 2.3385658 0.6667642 0
-0.72337854 1.405468 -0.056433078 0
-1.1900837 2.3122399 0.46900204 0
-1.1850126 2.302387 0.66065109 0
-0.73588693 1.3865807 -0.056042332 0
-1.2195301 2.2978761 0.46916622 0
-1.2176741 2.294379 0.66270047 0
-0.75477928 1.3799328 -0.056153331 0
-1.2445647 2.275388 0.46773744 0
-1.2431016 2.2727129 0.66091138 0
-0.77072853 1.3678955 -0.056053989 0
-1.0509133 1.8651699 0.076431431 0
-1.2730062 2.2593422 0.46769714 0
-1.2724588 2.2583706 0.66134775 0
-0.78418887 1.3517015 -0.055790611 0
-1.0486957 1.8076304 0.07460878 0
-1.2912269 2.2256799 0.46405783 0
-1.2928102 2.2284091 0.65728885 0
-0.80728954 1.3520089 -0.056218419 0
-1.0529193 1.7633775 0.073323697 0
-1.3133069 2.1994619 0.46200281 0
-1.3212695 2.2127974 0.65753937 0
-0.81836283 1.3321553 -0.055816948 0
-1.0501935 1.7095362 0.071629107 0
-1.3488861 2.1957572 0.46475559 0
-1.3424782 2.1853259 0.65434754 0
-0.83899814 1.3279608 -0.056079421 0
-1.056083 1.6715612 0.070589572 0
-1.3684779 2.166018 0.46207175 0
-1.3656391 2.1615248 0.65231824 0
-0.85246676 1.3123875 -0.055870641 0
-1.0517929 1.6192533 0.068934463 0
-1.3919133 2.1428747 0.46083713 0
-1.3908447 2.1412296 0.65142721 0
-0.86836684 1.3007156 -0.05583483 0
-1.0516883 1.5753105 0.067622162 0
-1.4138801 2.1178331 0.45924419 0
-1.4112847 2.1139452 0.64848161 0
-0.8884505 1.2951818 -0.056073081 0
-1.0567044 1.5404621 0.066692144 0
-1.4315903 2.0869703 0.45642459 0
-1.4299213 2.084537 0.64493263 0
-0.89807737 1.274511 -0.055663351 0
-1.0534673 1.4950333 0.065294504 0
-1.4564582 2.0669398 0.45601875 0
-1.4540287 2.0634921 0.64403522 0
-0.9154228 1.2649938 -0.055746716 0
-1.0498629 1.4507723 0.063933745 0
-1.0462673 1.4458036 0.19179653 0
-1.4786181 2.0432556 0.45486519 0
-1.4767457 2.0406682 0.64266455 0
-0.51099336 0.70612556 0.43610826 0
-0.93246281 1.2549617 -0.055817638 0
-1.051122 1.4146601 0.06292063 0
-1.0476825 1.4100312 0.18878618 0
-1.4966201 2.0142369 0.45256463 0
-1.4975318 2.0154638 0.64061487 0
-0.52268964 0.70346558 0.43849567 0
-0.94832408 1.2432967 -0.055825509 0
-1.0473648 1.3731438 0.061655793 0
-1.0555453 1.3838688 0.18704812 0
-1.5161302 1.9877169 0.45085979 0
-1.512821 1.9833783 0.63642102 0
-0.53174984 0.69714868 0.43869713 0
-0.96898574 1.2377495 -0.056119852 0
-1.0510985 1.3426375 0.060875498 0
-1.0513383 1.3429438 0.18329142 0
-1.5328156 1.9579667 0.44845426 0
-1.5332708 1.9585481 0.63459849 0
-0.5434429 0.69417554 0.44109744 0
-0.97939074 1.2190988 -0.055828966 0
-1.0502682 1.3073236 0.059869245 0
-1.0531795 1.3109475 0.18072011 0
-1.5377208 1.9140813 0.44280261 0
-1.5414026 1.9186643 0.62791479 0
-0.56568706 0.70414019 0.45191973 0
-0.99308205 1.2047524 -0.055740226 0
-1.0536815 1.2782685 0.059141587 0
-1.0537947 1.2784057 0.17804924 0
-1.5594678 1.8918605 0.44216985 0
-1.5618145 1.8947074 0.62646115 0
-0.57295984 0.69508332 0.45070177 0
-1.0163271 1.2017955 -0.056191076 0
-1.0525037 1.244574 0.058191225 0
-1.0430287 1.2333698 0.17359237 0
-1.574805 1.8621893 0.43983492 0
-1.5732577 1.8603597 0.6216054 0
-0.58881193 0.69626349 0.45623848 0
-1.0224693 1.1786333 -0.055705681 0
-1.0544782 1.215531 0.057449576 0
-1.0490795 1.2093079 0.17205139 0
-1.5903101 1.8332018 0.43768346 0
-1.5866127 1.8289397 0.6177336 0
-1.0463922 1.1759641 -0.056197826 0
-1.0609114 1.1922811 0.056977596 0
-1.0604787 1.1917949 0.17144604 0
-1.6061429 1.805027 0.43575084 0
-1.6081661 1.8073008 0.61721569 0
-1.0572023 1.1584071 -0.055990551 0
-1.0968323 1.2018307 0.05808939 0
-1.0930371 1.1976724 0.17425773 0
-1.6175022 1.7723438 0.43274352 0
-1.6177889 1.772658 0.6122933 0
-1.0798782 1.1537368 -0.056417592 0
-0.93705815 1.0011485 0.04895604 0
-1.1182884 1.194774 0.17587094 0
-1.6197487 1.7305318 0.42748067 0
-1.6165286 1.7270916 0.60353744 0
-1.0882453 1.1337202 -0.056104429 0
-0.94236463 0.98174363 0.04858356 0
-1.155171 1.2034427 0.17927395 0
-1.6290503 1.6971241 0.42426181 0
-1.6342393 1.70253 0.60209787 0
-1.0967325 1.1141362 -0.055814277 0
-0.94097579 0.95590782 0.047887597 0
-1.1826125 1.2013791 0.18117055 0
-1.645647 1.6717613 0.4230682 0
-1.6424801 1.6685441 0.59734571 0
-1.115078 1.1046014 -0.056035597 0
-0.95138592 0.94244725 0.047809638 0
-1.2115576 1.2001745 0.18327504 0
-1.6607906 1.6451868 0.42160204 0
-1.6508026 1.6352926 0.59283656 0
-1.1331033 1.0945359 -0.05624434 0
-0.98209763 0.94867003 0.04874881 0
-1.2364075 1.194324 0.18474449 0
-1.6568029 1.6004105 0.41544092 0
-1.6544821 1.5981686 0.58688426 0
-1.1311687 1.0654634 -0.055477954 0
-1.0027078 0.94446427 0.049177613 0
-1.2714627 1.1976082 0.18771423 0
-1.6607167 1.5642519 0.41145056 0
-1.6628553 1.5662663 0.58281213 0
-1.1547127 1.0605208 -0.055973265 0
-1.3029567 1.1966723 0.063159212 0
-1.2968897 1.1911002 0.18923885 0
-1.6614169 1.5258923 0.40683138 0
-1.6591184 1.5237813 0.57473171 0
-0.67072445 0.61601228 0.37705523 0
-1.1721557 1.0496418 -0.056173652 0
-1.3361236 1.1964717 0.064031541 0
-1.3421737 1.2018895 0.19362283 0
-1.6640928 1.4901615 0.40285984 0
-1.6630548 1.4892321 0.56955409 0
-0.6688264 0.59892052 0.37171909 0
-1.1823398 1.0322337 -0.056034353 0
-1.3678221 1.1941676 0.064824864 0
-1.6636103 1.4524035 0.39828387 0
-1.6715201 1.4593092 0.56611502 0
-0.66048497 0.57663184 0.36301881 0
-1.189227 1.0121444 -0.055752307 0
-1.3997248 1.191298 0.065620683 0
-1.670974 1.4221567 0.39572811 0
-1.6711144 1.422276 0.55986756 0
-0.66408038 0.56519508 0.3610546 0
-0.68502635 0.58302206 0.45007703 0
-1.2081754 1.0023158 -0.056044485 0
-1.4400678 1.1946962 0.066801436 0
-1.6836133 1.3967443 0.39452481 0
-1.6741509 1.3888942 0.55498153 0
-0.67557847 0.56046742 0.3634401 0
-1.2253079 0.99074978 -0.056256045 0
-1.474372 1.1921359 0.067691006 0
-1.6785858 1.3572575 0.38931087 0
-1.6685563 1.349148 0.54745179 0
-0.69432402 0.56141096 0.36969215 0
-1.2339869 0.97232872 -0.056087926 0
-1.5257609 1.2022341 0.069349818 0
-1.682586 1.3258055 0.38633603 0
-1.6679012 1.3142345 0.54176408 0
-0.70439804 0.55503541 0.37130526 0
-1.2353621 0.94844574 -0.05560318 0
-1.558978 1.196901 0.070169017 0
-1.6853954 1.2939576 0.3832095 0
-1.6722722 1.2838824 0.53788996 0
-0.69644684 0.53469509 0.36353606 0
-0.67525178 0.51842266 0.42594412 0
-1.2504938 0.93527472 -0.055749752 0
-1.5910836 1.1900102 0.07093399 0
-1.6815149 1.2576458 0.37869641 0
-1.6809541 1.2572265 0.53554791 0
-0.70105553 0.52433652 0.36246657 0
-0.71565008 0.53525209 0.4471401 0
-1.272187 0.92675179 -0.05619216 0
-1.6436956 1.1973851 0.072601594 0
-1.6845304 1.2271322 0.37586573 0
-1.6744748 1.2198069 0.528548 0
-1.6720848 1.2180659 0.68824703 0
-0.69817245 0.50859863 0.35763633 0
-0.70843261 0.51607287 0.43853554 0
-1.2819819 0.90940207 -0.056114543 0
-1.6904161 1.1991339 0.073992409 0
-1.6851357 1.1953882 0.3726126 0
-1.6670271 1.1825424 0.52145553 0
-1.6681561 1.1833433 0.68044269 0
-0.70822805 0.50239718 0.35951814 0
-0.71292102 0.50572622 0.43733722 0
-1.2910467 0.89161092 -0.056015447 0
-1.731994 1.196134 0.0751471 0
-1.6827078 1.1620964 0.3688108 0
-1.6683974 1.1522135 0.51730466 0
-1.670157 1.1534287 0.67528081 0
-0.7207045 0.49772638 0.43823248 0
-1.3088104 0.87974733 -0.056301057 0
-1.7171237 1.1542046 0.073865466 0
-1.711103 1.1501577 0.22157283 0
-1.6794212 1.128862 0.36494595 0
-1.6724354 1.1241664 0.51412678 0
-1.6703967 1.1227959 0.66960812 0
-0.71967357 0.48374537 0.43386728 0
-1.3170961 0.8614403 -0.056186408 0
-1.7050959 1.1152096 0.072738208 0
-1.7004694 1.1121837 0.21836504 0
-1.6804272 1.0990752 0.36212841 0
-1.6750473 1.0955565 0.51064831 0
-1.6708463 1.0928088 0.66421944 0
-0.72939026 0.47705412 0.43606901 0
-1.3339627 0.84868461 -0.056445558 0
-1.7125645 1.0895561 0.072465785 0
-1.7051585 1.0848442 0.21719576 0
-1.6828725 1.0706656 0.35972148 0
-1.6741978 1.0651467 0.50626034 0
-1.6655906 1.0596706 0.65677351 0
-0.72932416 0.46400562 0.43250206 0
-1.3367727 0.82701397 -0.056119353 0
-1.714455 1.0606726 0.071974918 0
-1.721305 1.0649105 0.21752714 0
-1.6810826 1.0400263 0.35651124 0
-1.6698544 1.0330799 0.50097352 0
-1.6827246 1.0410421 0.65830845 0
-1.342961 0.80763978 -0.055947762 0
-1.7364992 1.0443087 0.072342567 0
-1.7432592 1.0483741 0.21861593 0
-1.6803198 1.0105232 0.35362288 0
-1.6708416 1.0048231 0.49743423 0
-1.6782106 1.0092547 0.651519 0
-1.3604078 0.79498136 -0.056253098 0
-1.7664192 1.0322421 0.073041737 0
-1.7669775 1.0325685 0.21994236 0
-1.6849779 0.98465031 0.35196593 0
-1.6723257 0.97725672 0.49417326 0
-1.6689236 0.9752686 0.6430949 0
-1.373721 0.77972537 -0.056393135 0
-1.8144643 1.0298916 0.074486248 0
-1.8069626 1.0256337 0.22329417 0
-1.6820281 0.95472074 0.34881088 0
-1.6685101 0.94704795 0.48948297 0
-1.6712794 0.94861978 0.6393491 0
-1.3787653 0.75979632 -0.056202997 0
-1.6817884 0.92678326 0.34631363 0
-1.6740073 0.92249531 0.4876492 0
-1.6791859 0.92534906 0.6378656 0
-1.3861098 0.74124581 -0.056117453 0
-1.6858106 0.90151584 0.3447769 0
-1.6768152 0.89670539 0.4851394 0
-1.6691455 0.89260387 0.62973201 0
-1.3953409 0.72373825 -0.056117762 0
-1.6941544 0.87872744 0.34419304 0
-1.6714678 0.86696029 0.48039567 0
-1.6688712 0.86561352 0.62546659 0
