# .PCD v0.7 - Point Cloud Data file format
VERSION 0.7
FIELDS x y z intensity
SIZE 4 4 4 4
TYPE F F F F
COUNT 1 1 1 1
WIDTH 1350
HEIGHT 1
VIEWPOINT 0 0 0 1 0 0 0
POINTS 1350
DATA ascii
-1.663046 -0.1680959 0.42645821 0
-1.672132 -0.1690143 0.55914319 0
-1.5575137 -0.17726716 -0.055964235 0
-0.93435675 -0.10634306 0.033573098 0
-0.95734477 -0.10895942 0.1035494 0
-0.947227 -0.10780787 0.17193404 0
-1.666258 -0.1896438 0.42786029 0
-1.6645768 -0.18945245 0.55737031 0
-1.5551782 -0.19686662 -0.05596495 0
-0.94005889 -0.11900001 0.033829145 0
-0.94409388 -0.11951079 0.10227081 0
-0.95212889 -0.12052792 0.17308556 0
-1.6762685 -0.21219517 0.43108273 0
-1.6582911 -0.20991945 0.55610657 0
-1.5560799 -0.21692102 -0.056091253 0
-0.94298965 -0.13145487 0.033991486 0
-0.93891311 -0.1308866 0.10188005 0
-0.94398028 -0.13159297 0.17189184 0
-1.6742524 -0.23339453 0.43128586 0
-1.6814744 -0.2344013 0.56482613 0
-1.5408926 -0.23461898 -0.055645887 0
-0.94621831 -0.14407283 0.034170557 0
-0.95756835 -0.14580101 0.10409527 0
-0.94105405 -0.14328651 0.17167394 0
-1.676218 -0.25522384 0.43258581 0
-1.6598772 -0.25273576 0.55859619 0
-1.5386235 -0.2541354 -0.055675093 0
-0.9496389 -0.15685245 0.034362689 0
-0.94008541 -0.1552745 0.10239917 0
-0.95195061 -0.15723428 0.17400916 0
-1.6694558 -0.27574506 0.43170252 0
-1.6679366 -0.27549413 0.56243122 0
-1.5429943 -0.27485868 -0.055954054 0
-0.94270837 -0.16792777 0.034185711 0
-0.94510794 -0.16835521 0.10316899 0
-0.94807941 -0.16888453 0.17367649 0
-1.6714772 -0.29774579 0.43316042 0
-1.6731868 -0.29805034 0.56542236 0
-1.5381566 -0.29402527 -0.055908456 0
-0.94885379 -0.18137749 0.034488652 0
-0.93490303 -0.17871074 0.10229255 0
-0.93967557 -0.17962304 0.17253768 0
-1.6720587 -0.31962124 0.43431967 0
-1.6651027 -0.31829154 0.56400019 0
-1.5365621 -0.31382456 -0.055989694 0
-0.94546187 -0.19309936 0.034451015 0
-0.95153809 -0.19434036 0.10437217 0
-0.95263547 -0.19456448 0.17535326 0
-1.6699007 -0.34105739 0.43484017 0
-1.6717087 -0.34142664 0.56764901 0
-1.5272858 -0.33201578 -0.055799603 0
-0.94229668 -0.20484532 0.034426942 0
-0.94573361 -0.20559248 0.10401121 0
-0.95502084 -0.20761143 0.17625958 0
-1.6654296 -0.36204678 0.43482861 0
-1.6683723 -0.36268649 0.56802183 0
-1.5341096 -0.35378549 -0.056207217 0
-0.94633633 -0.21823739 0.034672186 0
-0.95310014 -0.21979721 0.10511743 0
-0.94889832 -0.21882822 0.17562424 0
-1.6753819 -0.3863647 0.43866256 0
-1.6751972 -0.38632211 0.5719564 0
-1.5309685 -0.37342378 -0.056259952 0
-0.95566958 -0.23310065 0.035118897 0
-0.95051169 -0.23184258 0.1051456 0
-0.94766605 -0.23114848 0.17592093 0
-1.6650926 -0.40613845 0.43727291 0
-1.678985 -0.40952697 0.57496476 0
-1.5126449 -0.38919732 -0.055762272 0
-0.97840917 -0.25174066 0.03606816 0
-0.98959363 -0.25461838 0.10981481 0
-0.98627532 -0.2537646 0.18366683 0
-1.6609097 -0.42734525 0.43755287 0
-1.6720139 -0.43020231 0.57438707 0
-1.5124407 -0.40951654 -0.055940408 0
-1.0450844 -0.28297266 0.038654372 0
-1.0542492 -0.28545415 0.11737918 0
-1.6664549 -0.45121828 0.3113651 0
-1.6702293 -0.45224023 0.44147328 0
-1.6775955 -0.45423475 0.57822359 0
-1.5101447 -0.4293749 -0.056051023 0
-1.1437072 -0.32518682 0.042450208 0
-1.1210032 -0.31873146 0.12524843 0
-1.6821781 -0.47828868 0.31540319 0
-1.6791257 -0.47742075 0.44537848 0
-1.6685356 -0.47440973 0.57711416 0
-1.4989227 -0.4466581 -0.055838831 0
-1.2052943 -0.35916093 0.044900399 0
-1.2049948 -0.35907167 0.1351272 0
-1.6690004 -0.49733889 0.3140817 0
-1.674273 -0.49891007 0.44572237 0
-1.6738491 -0.49878374 0.58107835 0
-1.4892931 -0.46428424 -0.055693481 0
-1.3060267 -0.40715128 0.048840065 0
-1.3143228 -0.40973762 0.14795402 0
-1.6758885 -0.52245498 0.31659091 0
-1.6677061 -0.51990414 0.44568169 0
-1.6753225 -0.52227855 0.58382666 0
-1.501694 -0.48897934 -0.056383014 0
-1.4221356 -0.4630737 0.053395897 0
-1.417992 -0.46172449 0.16026591 0
-1.6668993 -0.54277331 0.31615883 0
-1.6595243 -0.54037184 0.44527829 0
-1.6825082 -0.54785585 0.58868819 0
-1.4853591 -0.50443268 -0.056003749 0
-1.561505 -0.53029203 0.058874741 0
-1.5551695 -0.52814049 0.1765078 0
-1.6704222 -0.56728071 0.31815666 0
-1.6688739 -0.56675488 0.4496662 0
-1.4882376 -0.52640152 -0.056357738 0
-1.7307614 -0.61218411 0.19729632 0
-1.6746252 -0.59232825 0.32035238 0
-1.6721107 -0.59143889 0.45250911 0
-1.4702209 -0.54095161 -0.055928987 0
-1.6920239 -0.62256151 0.19375877 0
-1.6730267 -0.61557174 0.32150394 0
-1.6685737 -0.61393332 0.45360813 0
-1.468262 -0.56132019 -0.056118902 0
-1.6812769 -0.64275628 0.1934396 0
-1.6766903 -0.64100283 0.32373345 0
-1.6810924 -0.64268577 0.45917502 0
-1.4566531 -0.5780071 -0.05594895 0
-1.6780194 -0.66584635 0.1940141 0
-1.6750865 -0.66468251 0.32501402 0
-1.6819597 -0.66740984 0.46167085 0
-1.4520613 -0.59745497 -0.056057103 0
-1.686083 -0.69374388 0.19594091 0
-1.6698681 -0.68707222 0.32565442 0
-1.6687496 -0.68661201 0.46038154 0
-1.442152 -0.61472255 -0.055968944 0
-1.6866571 -0.71894377 0.19704409 0
-1.6663181 -0.71027422 0.32668042 0
-1.664992 -0.70970893 0.46177381 0
-1.431042 -0.63139588 -0.055841908 0
-1.6846709 -0.74330056 0.19788982 0
-1.6791564 -0.7408675 0.33100009 0
-1.6741732 -0.7386688 0.46686283 0
-1.4240158 -0.64983767 -0.05588261 0
-1.6760987 -0.76487368 0.19799854 0
-1.6747661 -0.76426554 0.33200541 0
-1.6633645 -0.75906253 0.46647719 0
-1.4225194 -0.67092294 -0.056150984 0
-1.673072 -0.78909451 0.19879903 0
-1.6654112 -0.78548139 0.33208534 0
-1.6731763 -0.78914368 0.47197813 0
-1.4072776 -0.68552625 -0.05588565 0
-1.94261 -0.94630241 0.077144712 0
-1.6685174 -0.81278384 0.19945815 0
-1.677667 -0.81724089 0.3365545 0
-1.6690588 -0.81304759 0.47366711 0
-1.4043262 -0.70610338 -0.056117091 0
-1.8808559 -0.94570535 0.075159296 0
-1.6732761 -0.84133297 0.20127752 0
-1.6637106 -0.83652335 0.33584124 0
-1.6616842 -0.83550447 0.47452238 0
-1.3952087 -0.72366965 -0.056112446 0
-1.8408558 -0.95481884 0.074035466 0
-1.6749694 -0.86877656 0.20278108 0
-1.6705936 -0.86650687 0.33940634 0
-1.3926445 -0.74474031 -0.056382012 0
-1.7889711 -0.95668268 0.072427519 0
-1.6671519 -0.89153779 0.20317768 0
-1.6801152 -0.89847016 0.3436121 0
-1.3641703 -0.75175345 -0.055608056 0
-1.7444588 -0.96131897 0.071109861 0
-1.6828219 -0.92735273 0.20649415 0
-1.6705775 -0.92060524 0.34400508 0
-1.3668888 -0.77584738 -0.056112662 0
-1.6927711 -0.96081847 0.069490582 0
-1.6700194 -0.94790459 0.2063715 0
-1.6792257 -0.95313013 0.34822974 0
-1.3512471 -0.78962809 -0.055874299 0
-1.6845326 -0.98439008 0.069655716 0
-1.6781019 -0.98063213 0.20887966 0
-1.6655126 -0.97327536 0.34789991 0
-1.3414677 -0.80674177 -0.055885553 0
-1.6761434 -1.0080115 0.069828145 0
-1.6654893 -1.0016043 0.20886309 0
-1.6691407 -1.0038002 0.35127023 0
-1.3374099 -0.82740813 -0.0561461 0
-1.6894847 -1.0452244 0.070926636 0
-1.675218 -1.0363981 0.21170296 0
-1.6696872 -1.0329764 0.35409459 0
-1.3190027 -0.83916688 -0.055812538 0
-1.6721708 -1.0638571 0.070756562 0
-1.6716208 -1.0635072 0.21292388 0
-1.6759776 -1.0662791 0.3582477 0
-1.3113363 -0.85767311 -0.055940699 0
-1.6859739 -1.102703 0.071922481 0
-1.6786125 -1.0978884 0.21555831 0
-1.6679478 -1.0909131 0.3594391 0
-1.3040614 -0.8765552 -0.05609677 0
-1.6816714 -1.1303746 0.072340414 0
-1.6790271 -1.1285971 0.21741928 0
-1.6694767 -1.1221776 0.36278498 0
-1.2881736 -0.88962668 -0.055890787 0
-1.66725 -1.1514211 0.072338015 0
-1.6747863 -1.1566257 0.21873876 0
-1.6739768 -1.1560667 0.36689717 0
-1.2840573 -0.91087431 -0.056205384 0
-1.6665767 -1.182223 0.072948925 0
-1.6708432 -1.1852494 0.22015561 0
-2.0409708 -1.4478076 0.45129386 0
-1.2808638 -0.93307257 -0.056575406 0
-1.6642499 -1.2123584 0.073509477 0
-1.6718508 -1.2178955 0.22229147 0
-1.9929057 -1.4517747 0.44467285 0
-1.2549348 -0.93859631 -0.055947743 0
-1.6744478 -1.2523602 0.074650548 0
-1.6813987 -1.2575589 0.22564858 0
-1.2508107 -0.96030647 -0.056298524 0
-1.6685375 -1.2810149 0.075100243 0
-1.6651618 -1.2784233 0.22561209 0
-1.2355642 -0.9735716 -0.056159623 0
-1.5961783 -1.25772 0.072550468 0
-1.5891447 -1.2521778 0.21743168 0
-1.5902934 -1.2530829 0.36514485 0
-1.2188822 -0.98555404 -0.055961024 0
-1.569044 -1.2686851 0.07203757 0
-1.5696698 -1.2691911 0.21693657 0
-1.570789 -1.2700961 0.36430979 0
-1.2125803 -1.00597 -0.056248814 0
-1.6764371 -1.3907908 0.077766068 0
-1.6790029 -1.3929194 0.23445249 0
-1.7659535 -1.4650546 0.41381979 0
-1.1948135 -1.016899 -0.05601421 0
-1.6651673 -1.4172145 0.078064926 0
-1.6660378 -1.4179554 0.23511669 0
-1.7628143 -1.5003214 0.41747814 0
-1.4595652 -1.2422277 0.48899299 0
-1.172568 -1.0237024 -0.055571239 0
-1.7131305 -1.4956368 0.41013947 0
-1.4250394 -1.2441208 0.48263627 0
-1.1708299 -1.0484545 -0.056110114 0
-1.6304669 -1.4600502 0.078137472 0
-1.6249398 -1.4551009 0.23441486 0
-1.6291611 -1.4588809 0.39440322 0
-1.4089932 -1.2617251 0.48254442 0
-1.1537341 -1.059622 -0.055925827 0
-1.3530755 -1.2427028 0.46871603 0
-1.143104 -1.0767053 -0.056063313 0
-1.3259776 -1.2489566 0.46474025 0
-1.1281736 -1.089774 -0.055999644 0
-1.2844181 -1.2407005 0.45561376 0
-1.116201 -1.105714 -0.056092035 0
-1.270072 -1.2581391 0.45610848 0
-1.0973597 -1.1147733 -0.055846196 0
-1.2474905 -1.2672865 0.45369387 0
-1.0882999 -1.1337771 -0.056107245 0
-1.0680785 -1.14113 -0.05580112 0
-1.0502268 -1.1507639 -0.055621117 0
-1.044701 -1.1740633 -0.056106992 0
-1.0319612 -1.189575 -0.056222819 0
-1.011578 -1.1961796 -0.055928502 0
-1.0014324 -1.2148827 -0.056208923 0
-0.98091197 -1.2209923 -0.055915684 0
-0.96391845 -1.2312768 -0.055826373 0
-0.95456088 -1.2514735 -0.056192655 0
-0.93864101 -1.2632768 -0.05618747 0
-0.92304975 -1.2755332 -0.056211177 0
-0.90315026 -1.2817101 -0.055977773 0
-0.88668877 -1.2926135 -0.055961892 0
-0.86947435 -1.3023746 -0.055906046 0
-0.85457152 -1.3156277 -0.056008585 0
-0.80666441 -1.2418739 0.49267483 0
-0.83555675 -1.3225138 -0.055849392 0
-0.7946313 -1.2577373 0.49495926 0
-0.81768489 -1.3310518 -0.055770714 0
-0.76354849 -1.242927 0.48530874 0
-0.80383849 -1.3462293 -0.055978093 0
-0.74572247 -1.2488995 0.48393586 0
-0.78735352 -1.3571564 -0.056015756 0
-0.72552818 -1.2505885 0.48101211 0
-0.77139103 -1.3690714 -0.056102175 0
-0.70886028 -1.2580913 0.48042658 0
-0.7534973 -1.377589 -0.056057956 0
-0.68969405 -1.2609401 0.47816008 0
-0.73804647 -1.3906498 -0.056206796 0
-0.65667474 -1.2373266 0.46603304 0
-0.71919578 -1.3973413 -0.056106769 0
-0.64604646 -1.2552178 0.46967036 0
-0.70200014 -1.4071993 -0.056143202 0
-0.62018877 -1.2432038 0.46221623 0
-0.68483579 -1.4171883 -0.056193229 0
-0.59988409 -1.2413906 0.45869726 0
-0.66295177 -1.417179 -0.055857416 0
-0.58319759 -1.24669 0.45790556 0
-0.6465255 -1.4286628 -0.055984732 0
-0.56779832 -1.2546952 0.45818341 0
-0.63316178 -1.4473796 -0.056401279 0
-0.54926878 -1.2556039 0.45595339 0
-0.61114806 -1.4463875 -0.056058288 0
-0.53437364 -1.2646875 0.45677224 0
-0.59369594 -1.4559498 -0.056134697 0
-0.50653309 -1.242196 0.34226 0
-0.52037579 -1.2761431 0.45850664 0
-0.57981467 -1.47475 -0.056573566 0
-0.49375769 -1.2558655 0.34428596 0
-0.49764526 -1.2657534 0.4524864 0
-0.55610681 -1.4684849 -0.05606015 0
-0.46233401 -1.2208635 0.14029829 0
-0.46669498 -1.2323793 0.2376612 0
-0.44744849 -1.181556 0.32234442 0
-0.48361358 -1.2770555 0.4543137 0
-0.53711349 -1.4741101 -0.056012258 0
-0.44141373 -1.2114618 0.13856815 0
-0.4420194 -1.213124 0.23285601 0
-0.4294714 -1.178686 0.32006067 0
-0.52110004 -1.4881526 -0.056292042 0
-0.42859024 -1.223964 0.1393698 0
-0.42394829 -1.2107075 0.23134913 0
-0.41205731 -1.1767493 0.31810066 0
-0.43878567 -1.25308 0.44171244 0
-0.49857813 -1.4834591 -0.055872589 0
-0.40951079 -1.2184501 0.13814382 0
-0.40954578 -1.2185541 0.23184468 0
-0.41104043 -1.2230014 0.3291783 0
-0.41695854 -1.24061 0.43543142 0
-0.48121786 -1.4938343 -0.056030687 0
-0.39696494 -1.2322898 0.13913515 0
-0.39814585 -1.2359556 0.23418307 0
-0.41247571 -1.2804395 0.34321293 0
-0.4115122 -1.2774485 0.44650692 0
-0.46532243 -1.5093501 -0.056388404 0
-0.40950119 -1.3282846 0.35462719 0
-0.44660258 -1.5161811 -0.056429036 0
-0.3669875 -1.2458941 0.33137041 0
-0.42383775 -1.5087309 -0.055948686 0
-0.34821975 -1.2395543 0.32849193 0
-0.40246648 -1.505193 -0.055625144 0
-0.33072281 -1.2368773 0.32665297 0
-0.38482243 -1.5154184 -0.055819523 0
-0.31623486 -1.2453227 0.32780573 0
-0.36477205 -1.5162407 -0.055676211 0
-0.34720927 -1.5275656 -0.055927083 0
-0.32989708 -1.5409209 -0.056259494 0
-0.3094714 -1.539989 -0.056078747 0
-0.28995073 -1.5432004 -0.056058288 0
-0.49881059 -2.6548121 0.096438684 0
-0.27004755 -1.5441591 -0.055965148 0
-0.43251869 -2.4731853 0.089635961 0
-0.25102156 -1.5501431 -0.056063026 0
-0.3997952 -2.4688706 0.089290053 0
-0.23214276 -1.5576044 -0.056222692 0
-0.36706659 -2.4629006 0.088899925 0
-0.21089984 -1.5485647 -0.055796117 0
-0.3368715 -2.4735312 0.089123458 0
-0.19337966 -1.5672648 -0.05637769 0
-0.30256644 -2.4521799 0.088209882 0
-0.17318781 -1.5655731 -0.056233928 0
-0.27344975 -2.471915 0.088788889 0
-0.15305513 -1.5634772 -0.056084972 0
-0.24171571 -2.469156 0.088573441 0
-0.13339838 -1.5657669 -0.056102406 0
-0.20903632 -2.4535692 0.087912917 0
-0.11259761 -1.5524964 -0.055571709 0
-0.17829457 -2.4583263 0.087995946 0
-0.093288191 -1.5579212 -0.05571942 0
-0.14751737 -2.4635532 0.088109568 0
-0.073813863 -1.5621294 -0.055832259 0
-0.11620273 -2.459209 0.087894894 0
-0.053960599 -1.5577873 -0.055648372 0
-0.085447736 -2.4667885 0.088120356 0
-0.034415476 -1.5616821 -0.055767603 0
-0.054428857 -2.4698358 0.08819773 0
-0.014792234 -1.5665406 -0.055930015 0
0.0049369344 -1.5676676 -0.055968031 0
0.024616901 -1.5637666 -0.0558354 0
0.044297513 -1.5630804 -0.055826392 0
0.06391719 -1.560985 -0.055775877 0
0.083767869 -1.5638099 -0.055910069 0
0.10340013 -1.5618554 -0.055882316 0
0.12409148 -1.57354 -0.056351826 0
0.14250854 -1.5567138 -0.055809084 0
0.16261373 -1.5597414 -0.055986594 0
0.18264806 -1.561059 -0.056111995 0
0.20085649 -1.5475965 -0.055714585 0
0.22088519 -1.548861 -0.055855814 0
0.24020925 -1.544925 -0.055818528 0
0.26058128 -1.5473515 -0.056020308 0
0.27915207 -1.5390322 -0.055841953 0
0.2990571 -1.5382185 -0.055944633 0
0.3174991 -1.5299829 -0.055786088 0
0.33829007 -1.5328957 -0.05604317 0
0.35659245 -1.5243604 -0.055890854 0
0.37650314 -1.5227644 -0.056001727 0
0.39801425 -1.5269861 -0.056336835 0
0.41716272 -1.5216836 -0.056330543 0
0.43341514 -1.5063207 -0.055959433 0
0.45343852 -1.5043648 -0.056094442 0
0.47664747 -1.5121881 -0.056605466 0
0.49245453 -1.4963571 -0.056240536 0
0.51060516 -1.4881396 -0.056168888 0
0.52960896 -1.4824513 -0.056201447 0
0.54378599 -1.463696 -0.055745587 0
0.56872422 -1.4737101 -0.056395255 0
0.4934817 -1.2787373 0.4560087 0
0.57949084 -1.4470938 -0.055651546 0
0.50879759 -1.2705599 0.45534122 0
0.59814286 -1.4408324 -0.055695988 0
0.52487022 -1.26433 0.45544109 0
0.61702448 -1.4350176 -0.055767138 0
0.53887618 -1.2532676 0.45386454 0
0.63938063 -1.4368801 -0.056147948 0
0.55389804 -1.2447751 0.45327896 0
0.65361923 -1.4204514 -0.05582317 0
0.57042778 -1.2396591 0.45399559 0
0.67508143 -1.4197406 -0.056124859 0
0.58997929 -1.2407652 0.45708522 0
0.69175148 -1.4087805 -0.056031495 0
0.61190861 -1.2461771 0.46188083 0
0.70827502 -1.39767 -0.055939887 0
0.62519854 -1.2337315 0.46014947 0
0.72369009 -1.3845714 -0.055775944 0
0.64767551 -1.2391396 0.46517149 0
0.74332255 -1.3795371 -0.055945769 0
0.66869396 -1.2410334 0.46900624 0
0.76239467 -1.3732405 -0.056075294 0
0.69692475 -1.2553147 0.051259883 0
0.69273096 -1.2477608 0.15337579 0
0.69955575 -1.2600538 0.25992206 0
0.69530523 -1.2523977 0.36546707 0
0.69856155 -1.258263 0.4788039 0
0.77614456 -1.357445 -0.055824962 0
0.70590043 -1.2345909 0.050772581 0
0.71362662 -1.2481036 0.15451027 0
0.71012628 -1.2419817 0.25801829 0
0.7097128 -1.2412586 0.36479554 0
0.72366345 -1.2656578 0.48504692 0
0.79550928 -1.3515308 -0.055989258 0
0.7299633 -1.2401713 0.051376022 0
0.73373175 -1.2465738 0.15545236 0
0.73445445 -1.2478017 0.26112801 0
0.73036581 -1.2408552 0.36735076 0
0.73256063 -1.2445841 0.48046783 0
0.81182879 -1.3403591 -0.055945512 0
0.82936716 -1.3311962 -0.055994526 0
0.8453716 -1.319569 -0.055948779 0
0.86542308 -1.3141402 -0.056176201 0
0.88442928 -1.3068751 -0.056337245 0
0.89362717 -1.2852982 -0.055887755 0
0.91167825 -1.276659 -0.056006841 0
0.92965245 -1.2677677 -0.056125887 0
0.93972319 -1.2482333 -0.055780519 0
0.96041739 -1.2428396 -0.056075484 0
0.96850151 -1.2212056 -0.055645224 0
0.7731564 -0.97489053 0.044421677 0
0.77961254 -0.98303121 0.13483633 0
0.99656957 -1.2246042 -0.056367427 0
0.77506417 -0.95241404 0.043838754 0
0.77647316 -0.95414549 0.13220491 0
1.0055805 -1.2043786 -0.056014858 0
0.7751987 -0.92845154 0.043181669 0
0.76999265 -0.92221618 0.12911403 0
1.0184995 -1.189093 -0.055895992 0
0.77136207 -0.90056133 0.04233291 0
0.76815552 -0.89681768 0.12690231 0
1.0330158 -1.1757478 -0.055875704 0
0.7802161 -0.88801861 0.042201798 0
0.77784848 -0.88532388 0.12665185 0
1.047899 -1.1628262 -0.055884287 0
0.77654821 -0.86171532 0.041413195 0
0.77606106 -0.8611747 0.12458527 0
1.0730392 -1.1609889 -0.056440886 0
1.0771768 -1.1364187 -0.055901393 0
1.0905554 -1.1218966 -0.055858124 0
1.108933 -1.1124277 -0.056077484 0
1.1177496 -1.0933857 -0.055822667 0
1.1425002 -1.0897865 -0.056368947 0
1.1498237 -1.0694479 -0.056061409 0
1.1576416 -1.0498464 -0.055793609 0
1.177169 -1.0408461 -0.056098614 0
1.1859492 -1.0222937 -0.055899143 0
1.2038636 -1.0115962 -0.056138672 0
1.2114891 -0.99224937 -0.055907179 0
1.2183867 -0.97252643 -0.055655934 0
1.2461364 -0.96924287 -0.05636156 0
1.2529329 -0.94945288 -0.056123763 0
1.260712 -0.93059272 -0.055942878 0
1.2711736 -0.91381425 -0.055892065 0
1.2736211 -0.8914662 -0.055501699 0
1.2878555 -0.87747866 -0.055636089 0
1.3044466 -0.86493617 -0.055877883 0
1.3180259 -0.85024428 -0.055996511 0
1.3295557 -0.83416396 -0.056035653 0
1.3430994 -0.81927603 -0.056167208 0
1.3578448 -0.80498922 -0.05635548 0
1.3619097 -0.78439391 -0.056109797 0
1.3658969 -0.76395017 -0.055873308 0
1.3824332 -0.75050533 -0.056158703 0
1.3726386 -0.72296113 -0.055386607 0
1.3989651 -0.71447253 -0.056081422 0
1.4023893 -0.69409835 -0.055863887 0
1.4191238 -0.68027133 -0.056184817 0
1.4300678 -0.66350466 -0.056282856 0
1.4333565 -0.64322346 -0.05608907 0
1.4454422 -0.62690318 -0.056248635 0
1.4514307 -0.60790372 -0.056179337 0
1.4495118 -0.58575815 -0.055815138 0
1.4607027 -0.56899166 -0.055965729 0
1.4591447 -0.54732621 -0.055637561 0
1.466803 -0.52922887 -0.055671055 0
1.4861441 -0.51515281 -0.056154467 0
1.4949002 -0.49719375 -0.056244299 0
1.4897388 -0.47472978 -0.055820767 0
1.4892907 -0.45401171 -0.055585355 0
1.5128995 -0.4404673 -0.056255043 0
1.505708 -0.41788134 -0.055787548 0
1.5119302 -0.39917469 -0.055827428 0
1.5225129 -0.38152847 -0.056036353 0
1.5193577 -0.36046827 -0.055748742 0
1.5362877 -0.34411162 -0.056206491 0
1.5392165 -0.32447034 -0.056159709 0
1.53661 -0.30376524 -0.055920616 0
1.5415953 -0.28463015 -0.055967171 0
1.5431708 -0.2648733 -0.055898849 0
1.5580416 -0.2472721 -0.056320265 0
1.5467421 -0.22555114 -0.055804715 0
1.5438184 -0.20530772 -0.055601552 0
1.5519919 -0.18653932 -0.055806905 0
1.5655762 -0.16820341 -0.056214754 0
1.5509984 -0.14690797 -0.05562048 0
1.5614032 -0.12807919 -0.055931333 0
1.5664175 -0.10865363 -0.056057498 0
1.5595769 -0.088463351 -0.055768404 0
1.5775989 -0.069570459 -0.056377053 0
1.5583584 -0.049071554 -0.055662982 0
1.568974 -0.029637229 -0.056024387 0
1.5648917 -0.0098523311 -0.055869758 0
1.5657588 0.0098577905 -0.055900719 0
1.5708547 0.029672753 -0.05609154 0
1.5642854 0.049258187 -0.055874687 0
1.5622438 0.068893321 -0.055828325 0
1.570783 0.08909899 -0.056169122 0
1.5752441 0.10926588 -0.056373376 0
1.5567564 0.12769803 -0.05576488 0
1.5586085 0.14762877 -0.055893388 0
1.5562346 0.16719978 -0.055879325 0
1.5506876 0.18638253 -0.05576 0
1.5482777 0.20590076 -0.055762157 0
1.5453637 0.22535014 -0.055754986 0
1.5417255 0.24468264 -0.05573047 0
1.5438114 0.26498324 -0.055922054 0
1.5363493 0.28366154 -0.055776719 0
1.5367962 0.30380204 -0.055927392 0
1.5225214 0.32095098 -0.055550575 0
1.5205419 0.34058475 -0.055630419 0
1.5375396 0.36478195 -0.056415878 0
1.5046946 0.37706336 -0.055380546 0
1.5174083 0.40062097 -0.056029703 0
1.5081825 0.4185681 -0.055879232 0
1.4992129 0.43648255 -0.055746123 0
1.498444 0.4568021 -0.055926982 0
1.5056067 0.47978634 -0.056415338 0
1.4868292 0.49450937 -0.055940636 0
1.4817243 0.51362079 -0.055987466 0
1.4836596 0.5353108 -0.056310833 0
1.4659648 0.5498845 -0.055897616 0
1.4694666 0.57240546 -0.056301512 0
1.4535656 0.58739632 -0.055971235 0
1.4455884 0.60545677 -0.055953201 0
1.4358363 0.62273699 -0.055874825 0
1.4321173 0.64266741 -0.056040581 0
1.4225386 0.66001141 -0.055986535 0
1.4065064 0.67422307 -0.055685282 0
1.4075408 0.69664806 -0.056069095 0
1.3984349 0.71420175 -0.056060169 0
1.3846132 0.72926807 -0.055869784 0
1.3715732 0.74460959 -0.055717539 0
1.3694955 0.76596284 -0.056020513 0
1.3627646 0.7848863 -0.05614502 0
1.3459904 0.79796141 -0.055863481 0
1.3438525 0.81973553 -0.056198705 0
1.3232474 0.83020616 -0.055769783 0
1.3139755 0.84763134 -0.055824425 0
1.3029188 0.86392313 -0.055812437 0
1.2844918 0.87518674 -0.055490773 0
1.2838267 0.89860958 -0.05594644 0
1.2785777 0.91913682 -0.056217615 0
1.2558407 0.92699689 -0.055726718 0
1.2543724 0.95054364 -0.056188241 0
1.2322874 0.95847118 -0.055735182 0
1.2226554 0.97593385 -0.055850934 0
1.2217683 1.0006684 -0.056381539 0
1.2001454 1.0084718 -0.055965278 0
1.1940308 1.0292599 -0.056280062 0
1.1745855 1.0385618 -0.055975497 0
1.1653177 1.0568076 -0.056163561 0
1.1495397 1.0691838 -0.056047563 0
1.1383992 1.0858748 -0.056166615 0
1.1140924 1.0898082 -0.055640016 0
1.1071928 1.1106821 -0.055989485 0
1.091518 1.1228869 -0.055907428 0
1.0832127 1.1427866 -0.056214638 0
0.59652919 0.62933671 0.2884886 0
1.0688244 1.1564287 -0.056219194 0
0.6124258 0.66262221 0.3001878 0
1.0492278 1.1643008 -0.055955157 0
1.002743 1.1127179 0.053476129 0
1.0085953 1.119212 0.16191527 0
1.0129968 1.1240962 0.27290246 0
0.62611002 0.69477797 0.31115893 0
1.03315 1.1759003 -0.055882961 0
0.98504221 1.1211456 0.053280819 0
0.98816705 1.1247022 0.16089663 0
0.9804219 1.1158868 0.26789099 0
0.61987865 0.70552731 0.3124525 0
1.0212088 1.192256 -0.056044679 0
0.95824474 1.1187458 0.052589167 0
0.95148021 1.1108483 0.15718827 0
0.9572354 1.1175674 0.2653797 0
0.62617165 0.73105222 0.32023925 0
1.0072286 1.2063525 -0.056106664 0
0.93476844 1.1195673 0.052070338 0
0.93316501 1.1176469 0.15647514 0
0.92523348 1.1081474 0.26035553 0
0.62549871 0.74915659 0.32469389 0
0.98993587 1.2164526 -0.055992212 0
0.91128469 1.1198045 0.051543586 0
0.91415304 1.1233292 0.15564673 0
0.90825272 1.1160789 0.25951135 0
0.63032776 0.77455914 0.33223721 0
0.97500646 1.2294079 -0.056018967 0
0.88394183 1.1145824 0.050786853 0
0.88306087 1.1134716 0.15272804 0
0.88565749 1.1167457 0.2570529 0
0.62071389 0.78267235 0.33233827 0
0.95749712 1.2390605 -0.055904977 0
0.86459243 1.1188362 0.050480593 0
0.86488533 1.1192151 0.15200996 0
0.86015505 1.1130939 0.25369906 0
0.61250597 0.7926206 0.3332611 0
0.94225287 1.2515934 -0.055930674 0
0.83933687 1.1148902 0.049821742 0
0.84033757 1.1162194 0.15015399 0
0.84378779 1.1208023 0.25301421 0
0.60514522 0.8038137 0.33473682 0
0.92656487 1.2635571 -0.055939481 0
0.81890965 1.1167476 0.049440011 0
0.81704581 1.114206 0.14848737 0
0.81891841 1.1167595 0.24975392 0
0.60585529 0.82620525 0.34085745 0
0.91674811 1.2837585 -0.056318294 0
0.81207311 1.1371781 0.049887832 0
0.81386518 1.1396875 0.15050554 0
0.81427455 1.1402608 0.25269663 0
0.58862692 0.82427752 0.33697751 0
0.89244491 1.2835978 -0.055813819 0
0.80930412 1.164017 0.050614163 0
0.81487256 1.172026 0.1534089 0
0.81709361 1.1752206 0.25814351 0
0.57663751 0.82937407 0.33606595 0
0.87672853 1.2954961 -0.055846713 0
0.8053757 1.1900618 0.05130161 0
0.81035548 1.1974201 0.15538481 0
0.81215787 1.2000834 0.26133767 0
0.5791685 0.85580719 0.34379435 0
0.86159909 1.3083335 -0.055927977 0
0.81143337 1.2321572 0.05267163 0
0.80707133 1.2255334 0.15770169 0
0.80199701 1.2178282 0.26298183 0
0.73600823 1.1176245 0.34141895 0
0.55897719 0.84880382 0.33812654 0
0.84318161 1.3161505 -0.055803843 0
0.81211859 1.2676632 0.053748015 0
0.81158668 1.2668331 0.16168822 0
0.7850498 1.2254107 0.26246369 0
0.71911651 1.1224931 0.34011304 0
0.55269015 0.86271262 0.34086779 0
0.82893562 1.3305035 -0.055965386 0
0.80911338 1.2986873 0.054627094 0
0.8114993 1.3025169 0.16492534 0
0.77469969 1.2434508 0.26421726 0
0.69591856 1.1170012 0.33576715 0
0.54111218 0.86852545 0.34044531 0
0.81166834 1.3400941 -0.055934452 0
0.75957483 1.2540859 0.26442373 0
0.67670977 1.1172726 0.33326083 0
0.53051287 0.87589616 0.34068891 0
0.4084664 0.674393 0.46758762 0
0.79351622 1.3481447 -0.055848982 0
0.74629492 1.267918 0.26533777 0
0.65952015 1.120492 0.33171764 0
0.52446568 0.8910411 0.34398365 0
0.40703282 0.69152856 0.47587708 0
0.78108346 1.3660829 -0.056180194 0
0.72896999 1.2749387 0.26486501 0
0.64421207 1.1267004 0.33112785 0
0.51627302 0.90294027 0.34604016 0
0.4216972 0.73753113 0.35175532 0
0.40724736 0.71225893 0.41051173 0
0.40433574 0.70716661 0.48309642 0
0.76826829 1.3838202 -0.056507308 0
0.71108055 1.2808124 0.26420411 0
0.62193131 1.1202351 0.32690021 0
0.50622416 0.91182107 0.34697318 0
0.41538975 0.74820828 0.35432485 0
0.40822735 0.73530728 0.42079958 0
0.40796241 0.73483002 0.49844557 0
0.74271953 1.3784181 -0.055900384 0
0.68849522 1.2777828 0.26177007 0
0.6021952 1.117618 0.32389802 0
0.49112827 0.91148818 0.34446585 0
0.41946805 0.77849352 0.36613646 0
0.40971777 0.76039791 0.43217161 0
0.40795815 0.75713223 0.51004845 0
0.72522634 1.3875107 -0.055894345 0
0.67703933 1.2953187 0.26359507 0
0.58197981 1.1134498 0.32054076 0
0.47650132 0.91164726 0.34223127 0
0.41826811 0.80023491 0.37385502 0
0.40513647 0.77511132 0.43759984 0
0.40468466 0.77424693 0.51810396 0
0.70940101 1.3998919 -0.056028817 0
0.6582917 1.2990357 0.26264378 0
0.56502974 1.1149979 0.31891286 0
0.46865723 0.92482167 0.3449342 0
0.418881 0.82659608 0.38367581 0
0.41271791 0.81443423 0.45682982 0
0.40659067 0.80234307 0.53343678 0
0.69044948 1.4061289 -0.055926032 0
0.64599764 1.3156008 0.26432735 0
0.54875773 1.1175678 0.31764629 0
0.45567784 0.92800671 0.34395474 0
0.41881528 0.8529346 0.3934221 0
0.40647411 0.82780129 0.46142009 0
0.4058952 0.82662231 0.54613739 0
0.67307866 1.4155287 -0.055958353 0
0.53476661 1.1246493 0.31771991 0
0.44213063 0.92982972 0.34253976 0
0.40914446 0.86045766 0.39448449 0
0.40589058 0.85361451 0.47292206 0
0.41008624 0.86243832 0.56634384 0
0.65279752 1.4186656 -0.055752985 0
0.51630729 1.1220438 0.31512219 0
0.42851204 0.9312464 0.34104681 0
0.40852118 0.88780206 0.40463027 0
0.40740031 0.88536614 0.48763236 0
0.40662855 0.88368899 0.57689053 0
0.63717544 1.4319243 -0.055954296 0
0.50008571 1.1238426 0.31383392 0
0.42395332 0.95275033 0.3469395 0
0.40464354 0.90935546 0.41209865 0
0.40587899 0.91213185 0.49951956 0
0.40812734 0.91718459 0.59535497 0
0.61771786 1.4366302 -0.055829808 0
0.48027837 1.1169864 0.31020588 0
0.41584182 0.96712589 0.35023975 0
0.40436745 0.94043982 0.42384425 0
0.40872097 0.95056492 0.51770741 0
0.40717441 0.94696802 0.61131114 0
0.59987712 1.4450099 -0.055857472 0
0.46243966 1.1139446 0.30771959 0
0.42191425 1.0163252 0.36610401 0
0.40824956 0.98340917 0.44085813 0
0.40846053 0.98391736 0.53302866 0
0.40773791 0.98217666 0.63067549 0
0.58186424 1.4530206 -0.055879474 0
0.44466898 1.1104192 0.30517471 0
0.41541532 1.0373675 0.37177008 0
0.40645757 1.0149984 0.45268908 0
0.4067246 1.0156652 0.54740983 0
0.40739176 1.0173312 0.64990336 0
0.56600565 1.4666654 -0.056125674 0
0.43152586 1.1181939 0.30579382 0
0.41497126 1.0752968 0.38346007 0
0.41454998 1.074205 0.4767293 0
0.40625218 1.0527033 0.56457025 0
0.40884405 1.0594195 0.6734485 0
0.54385334 1.4638772 -0.055752486 0
0.41686428 1.1220638 0.30539238 0
0.41421777 1.1149402 0.39570585 0
0.41082415 1.1058058 0.48841903 0
0.40597549 1.0927547 0.58326215 0
0.4091866 1.101398 0.69680262 0
0.52766412 1.4770075 -0.055995066 0
0.40248069 1.1266011 0.30522373 0
0.41181573 1.1527312 0.40724561 0
0.40523681 1.134316 0.4987182 0
0.41114512 1.1508541 0.6114611 0
0.50841576 1.4817587 -0.055928044 0
0.38641351 1.1261878 0.30376941 0
0.40988153 1.1945845 0.42017508 0
0.40949398 1.193455 0.52241099 0
0.4078823 1.1887578 0.62882096 0
0.49235019 1.49604 -0.056228619 0
0.59838104 1.8182222 0.34521547 0
0.36764011 1.1170999 0.30004558 0
0.40751091 1.23825 0.43369442 0
0.4061906 1.2342381 0.53798145 0
0.40385616 1.2271447 0.64638531 0
0.47076735 1.4935331 -0.05590716 0
0.57300192 1.8178774 0.34375283 0
0.35001636 1.1104444 0.29705063 0
0.40725166 1.2920264 0.4506976 0
0.40848911 1.2959522 0.56259477 0
0.40807137 1.294627 0.67917031 0
0.4536972 1.505223 -0.056126442 0
0.55031121 1.8257575 0.34390527 0
0.33749875 1.1197135 0.29836965 0
0.40562692 1.3457412 0.46761611 0
0.40715688 1.3508171 0.58414054 0
0.43317822 1.5054972 -0.055928841 0
0.52393556 1.8209215 0.34172454 0
0.32224894 1.119966 0.29733208 0
0.40801588 1.4180464 0.49091643 0
0.4086259 1.4201665 0.61185604 0
0.41541696 1.5153155 -0.05609481 0
0.30466115 1.1113119 0.041139174 0
0.30539986 1.1140065 0.12413888 0
0.30752468 1.1217571 0.20977201 0
0.30413523 1.1093935 0.29348522 0
0.40496528 1.4771911 0.5095861 0
0.40219465 1.4670846 0.62983805 0
0.39372823 1.5105426 -0.055730172 0
0.29001465 1.1126444 0.041050058 0
0.2918129 1.1195434 0.12433656 0
0.29143664 1.1180999 0.2083853 0
0.29119155 1.1171596 0.29454637 0
0.39906794 1.5310285 0.5263831 0
0.39762408 1.5254891 0.65271056 0
0.37580317 1.5199333 -0.055897612 0
0.27698985 1.1202836 0.041199949 0
0.27615035 1.1168882 0.12364567 0
0.27726176 1.1213833 0.20833004 0
0.27530733 1.1134787 0.29263863 0
0.39305592 1.589712 0.54481423 0
0.3920311 1.5855672 0.67625034 0
0.35653582 1.5241183 -0.055881977 0
0.26503903 1.1329881 0.041541144 0
0.26059771 1.1140023 0.12295316 0
0.26039988 1.1131566 0.20617616 0
0.26267043 1.1228627 0.29421228 0
0.3845025 1.6436701 0.56160253 0
0.33591235 1.5221214 -0.055649262 0
0.2456084 1.1129267 0.040688969 0
0.24499631 1.1101532 0.12217814 0
0.24901359 1.1283566 0.20839418 0
0.24619539 1.1155865 0.29147038 0
0.37239435 1.6874326 0.5749073 0
0.31996951 1.5418875 -0.056220151 0
0.23223318 1.1190987 0.040804468 0
0.23188707 1.1174308 0.12264801 0
0.23138039 1.1149892 0.20537098 0
0.23202744 1.1181072 0.2913425 0
0.35931185 1.7314727 0.58832359 0
0.29939562 1.5399598 -0.056007963 0
0.21928531 1.1279075 0.04102172 0
0.21963534 1.1297079 0.12368216 0
0.21633446 1.1127297 0.20443682 0
0.21869001 1.1248455 0.29235756 0
0.34379503 1.7683308 0.59932888 0
0.27959672 1.5414836 -0.055930901 0
0.20376702 1.1234164 0.040761828 0
0.20330821 1.1208869 0.12242644 0
0.20148274 1.1108227 0.20360418 0
0.20551486 1.1330527 0.29379478 0
0.33146054 1.8274214 0.61789244 0
0.25987449 1.5431545 -0.055868361 0
0.18889545 1.1216755 0.040609136 0
0.19028008 1.1298976 0.12313914 0
0.18790254 1.1157795 0.20406288 0
0.18874481 1.1207811 0.28997356 0
0.31196392 1.8524654 0.6249826 0
0.2411986 1.551288 -0.056048423 0
0.17408861 1.1196648 0.040453769 0
0.17431752 1.121137 0.12193551 0
0.17345951 1.1156187 0.20361786 0
0.17249081 1.1093885 0.28644133 0
0.29517832 1.8984629 0.63919646 0
0.22167058 1.5543683 -0.056054417 0
0.15878533 1.1134127 0.04015246 0
0.15942088 1.1178693 0.12135215 0
0.15897018 1.114709 0.20307036 0
0.15997204 1.1217341 0.28908589 0
0.27568895 1.9331484 0.64965445 0
0.20207351 1.5569737 -0.056052171 0
0.14542684 1.1205118 0.040339228 0
0.14491121 1.1165389 0.12100004 0
0.14460069 1.1141462 0.20262006 0
0.14416564 1.1107942 0.28577605 0
0.25605333 1.9728873 0.6618731 0
0.18155941 1.5517545 -0.055777546 0
0.13142197 1.123239 0.040374637 0
0.13242891 1.1318454 0.12246838 0
0.12977166 1.1091343 0.20139544 0
0.13074307 1.1174366 0.28703865 0
0.23463702 2.005399 0.67173576 0
0.16249487 1.5586014 -0.055945672 0
0.11898065 1.1412263 0.12331153 0
0.11993 1.150332 0.20858532 0
0.11901209 1.1415278 0.29281881 0
0.21214919 2.0348704 0.68065888 0
0.14282583 1.5601799 -0.055933345 0
0.11944675 1.304795 0.14081176 0
0.12022251 1.313269 0.23783672 0
0.11972428 1.3078266 0.33506367 0
0.18816827 2.055485 0.68670738 0
0.12310657 1.5610509 -0.05590456 0
0.17020395 2.1582685 0.23266774 0
0.16600466 2.1050193 0.38081616 0
0.16455197 2.0865986 0.53401095 0
0.10270558 1.5513642 -0.055506945 0
0.14203103 2.1453738 0.38776234 0
0.14001 2.1148462 0.54074615 0
0.083612114 1.5609022 -0.055806115 0
0.11616196 2.1685548 0.39165673 0
0.115384 2.1540315 0.55035031 0
0.063939005 1.5615177 -0.055794913 0
0.088880911 2.1706488 0.39180171 0
0.089222908 2.1790009 0.55639875 0
0.044273295 1.5622258 -0.055795871 0
0.024021735 0.84763008 0.35109022 0
0.024277365 0.85665017 0.4287886 0
0.02459058 1.5620946 -0.055775702 0
0.013345646 0.84777021 0.35105082 0
0.013386262 0.85035026 0.42551714 0
0.0049479017 1.5711501 -0.056092363 0
0.0026085549 0.82831699 0.41444233 0
0.0025906458 0.82263017 0.48786154 0
-0.014790044 1.5663087 -0.055921737 0
-0.0079021696 0.8368628 0.41873476 0
-0.0076892325 0.8143121 0.48294765 0
-0.034377277 1.5599488 -0.055705704 0
-0.018367555 0.83347046 0.3451705 0
-0.018425653 0.83610678 0.41843939 0
-0.018005431 0.81703824 0.48466048 0
-0.054300662 1.5676045 -0.055999067 0
-0.080327585 2.3189752 0.41847497 0
-0.080316149 2.318645 0.59191537 0
-0.027751885 0.8011685 0.4754163 0
-0.074263886 1.5716532 -0.056172654 0
-0.11043509 2.3371477 0.4219718 0
-0.10986922 2.3251722 0.59388775 0
-0.03749419 0.79349291 0.47110438 0
-0.093600735 1.5631407 -0.055906098 0
-0.14036261 2.3440681 0.42350683 0
-0.14026333 2.3424103 0.59869432 0
-0.046500053 0.77655506 0.46135929 0
-0.11277767 1.554979 -0.055660568 0
-0.17110424 2.3591859 0.42659369 0
-0.17117737 2.3601942 0.60374278 0
-0.13215508 1.5511736 -0.055579521 0
-0.076614112 0.8992601 0.032221049 0
-0.20283805 2.3808169 0.43093273 0
-0.20277168 2.3800378 0.60942364 0
-0.15245104 1.5573063 -0.055863611 0
-0.23473464 2.3978436 0.43451515 0
-0.23521447 2.402745 0.61594754 0
-0.17200939 1.5549203 -0.055851296 0
-0.26638883 2.4080863 0.43694445 0
-0.26563025 2.4012287 0.6163674 0
-0.086287513 0.78001684 0.46540919 0
-0.19074395 1.5459034 -0.055609282 0
-0.29699111 2.4069941 0.43739018 0
-0.29809332 2.4159269 0.62105459 0
-0.21097675 1.5491294 -0.055816464 0
-0.33179861 2.4362826 0.44343644 0
-0.32919398 2.4171576 0.62238723 0
-0.23048 1.5464479 -0.055819992 0
-0.36243337 2.431813 0.44341847 0
-0.36342499 2.4384665 0.62900245 0
-0.24924864 1.5391947 -0.055667061 0
-0.39390293 2.4324839 0.44440997 0
-0.39491352 2.4387248 0.63030183 0
-0.27017522 1.544889 -0.055991605 0
-0.42867392 2.4512005 0.44878006 0
-0.42935103 2.4550724 0.63587385 0
-0.29009858 1.5439873 -0.056086872 0
-0.46276116 2.4629469 0.4519617 0
-0.46118179 2.4545407 0.63718981 0
-0.30858436 1.5355749 -0.055918004 0
-0.5224905 2.6000128 0.094679542 0
-0.52122426 2.5937119 0.28431705 0
-0.49604666 2.4684234 0.45407689 0
-0.49508581 2.4636419 0.64111996 0
-0.32785687 1.5313914 -0.055911567 0
-0.54374635 2.5397925 0.0927286 0
-0.38224566 1.7854366 0.19622776 0
-0.52983505 2.4748142 0.45644361 0
-0.52684182 2.4608331 0.64206451 0
-0.34671062 1.5253717 -0.055846758 0
-0.40020999 1.760745 0.064464226 0
-0.40023041 1.7608348 0.19406241 0
-0.55983168 2.4630091 0.45553043 0
-0.56098378 2.4680779 0.64574671 0
-0.36636406 1.5228583 -0.055919208 0
-0.41920346 1.7424948 0.063984238 0
-0.42878982 1.7823422 0.1970122 0
-0.59398764 2.4690168 0.45798856 0
-0.59340703 2.4666033 0.64726466 0
-0.38564548 1.5186595 -0.055938911 0
-0.48136076 1.8955832 0.069822669 0
-0.64202541 2.5282753 0.28033575 0
-0.62727267 2.4701796 0.45963299 0
-0.62732869 2.4704001 0.65028232 0
-0.4048517 1.5141135 -0.055954807 0
-0.46404231 1.7354817 0.064135581 0
-0.68505496 2.5620518 0.28501478 0
-0.6604979 2.4702103 0.46114975 0
-0.65965188 2.4670463 0.65153432 0
-0.42165288 1.5009534 -0.055660274 0
-0.48383498 1.7223024 0.06386862 0
-0.69371456 2.4694085 0.46259415 0
-0.69494057 2.4737728 0.65556985 0
-0.44298366 1.5038952 -0.055971779 0
-0.51422983 1.7457702 0.064973854 0
-0.72832948 2.4726219 0.46487731 0
-0.72895199 2.4747353 0.65820533 0
-0.46053433 1.493819 -0.055808172 0
-0.54742891 1.7756758 0.066338174 0
-0.75923336 2.4626985 0.46477222 0
-0.75875533 2.461148 0.65708053 0
-0.47981748 1.4894872 -0.055867635 0
-0.57170051 1.7747176 0.06656605 0
-0.79192525 2.4583566 0.46579784 0
-0.79221952 2.4592702 0.6591903 0
-0.49989405 1.4873745 -0.056020059 0
-0.59477031 1.7696674 0.066652253 0
-0.82518041 2.455225 0.46713626 0
-0.82725185 2.4613883 0.6624977 0
-0.52200836 1.4907465 -0.056390163 0
-0.66307938 1.893616 0.07162942 0
-0.85403407 2.4389424 0.4660475 0
-0.8547827 2.4410803 0.65987653 0
-0.53697348 1.4737259 -0.055997659 0
-0.66770393 1.8325162 0.069630735 0
-0.89203954 2.4482062 0.46992683 0
-0.88786298 2.4367435 0.66167396 0
-0.55296361 1.4601847 -0.055743288 0
-0.92085665 2.4316626 0.46893987 0
-0.91866791 2.4258828 0.6618135 0
-0.57609534 1.46529 -0.056210663 0
-0.95370513 2.425735 0.47007546 0
-0.94982946 2.4158773 0.66229439 0
-0.59378493 1.4561679 -0.056143109 0
-0.98165828 2.4073687 0.4688746 0
-0.98493934 2.415415 0.66551495 0
-0.60904968 1.4414214 -0.055865813 0
-1.0147424 2.4015632 0.47019529 0
-1.0150416 2.4022713 0.66536242 0
-0.6366021 1.4552441 -0.056707736 0
-1.0476333 2.3948429 0.471425 0
-1.0458398 2.390743 0.66576421 0
-0.64765739 1.4311641 -0.056082748 0
-1.0724282 2.3698034 0.46911711 0
-1.0704825 2.365504 0.66243702 0
-0.66288614 1.4170386 -0.055851884 0
-1.1053308 2.3628438 0.47045738 0
-1.1047009 2.3614974 0.66515779 0
-0.68429077 1.4160604 -0.056148503 0
-1.1339775 2.3466351 0.47003594 0
-1.1294497 2.3372653 0.66228586 0
-0.69705528 1.397287 -0.055747736 0
-1.1621644 2.3296247 0.46952277 0
-1.1620994 2.3294945 0.66417772 0
-0.71668541 1.3924638 -0.055910926 0
-1.1912796 2.3145633 0.46947333 0
-1.1894889 2.311084 0.66314662 0
-0.73387533 1.3827904 -0.055889141 0
-1.2161223 2.2914548 0.46785519 0
-1.2212551 2.3011262 0.66464931 0
-0.7457698 1.3634611 -0.055483054 0
-1.2415649 2.2699034 0.46661001 0
-1.2402724 2.2675405 0.6594072 0
-0.77300662 1.3719387 -0.056219671 0
-1.0490941 1.8619411 0.076299123 0
-1.2712287 2.2561874 0.46704406 0
-1.2612778 2.2385266 0.65553653 0
-0.78918511 1.3603135 -0.056146063 0
-1.0523475 1.813925 0.07486859 0
-1.2921146 2.22721 0.46437687 0
-1.2926407 2.228117 0.65720272 0
-0.8005771 1.3407674 -0.055750977 0
-1.0465192 1.752659 0.072878003 0
-1.3235354 2.2165923 0.46560106 0
-1.3191301 2.2092144 0.65647471 0
-0.82549179 1.3437601 -0.056303184 0
-1.0521365 1.7126991 0.07176163 0
-1.3426548 2.1856136 0.46260861 0
-1.3480394 2.1943789 0.65705824 0
-0.83511132 1.3218088 -0.055819619 0
-1.0477602 1.658388 0.070033267 0
-1.3677098 2.1648021 0.46181232 0
-1.3770659 2.179611 0.65777636 0
-0.85097134 1.3100852 -0.055772632 0
-1.0507836 1.6176997 0.068868324 0
-1.3983752 2.152823 0.46297655 0
-1.3898257 2.1396608 0.65094995 0
-0.87304884 1.3077288 -0.056135878 0
-1.0513858 1.5748572 0.067602701 0
-1.4177656 2.1236532 0.46050623 0
-1.4059907 2.1060154 0.64604902 0
-0.88853925 1.2953112 -0.05607868 0
-1.0485234 1.5285358 0.066175818 0
-1.4348785 2.0917637 0.45747292 0
-1.433532 2.0898008 0.64656121 0
-0.90673745 1.286801 -0.056200109 0
-1.0560926 1.4987592 0.065457225 0
-1.4539912 2.0634389 0.45524633 0
-1.4592915 2.0709608 0.64636624 0
-0.9178617 1.2683641 -0.055895239 0
-1.0556654 1.4587905 0.064287104 0
-1.052207 1.4540116 0.19288537 0
-1.4793165 2.0442207 0.45508003 0
-1.4717224 2.0337265 0.64047843 0
-0.50802529 0.70202404 0.43357515 0
-0.93845463 1.2630259 -0.056176312 0
-1.0438818 1.4049159 0.062487233 0
-1.0500528 1.4132211 0.18921328 0
-1.495779 2.0131049 0.45231029 0
-1.4978383 2.0158765 0.64074606 0
-0.51681119 0.69555408 0.43356413 0
-0.94858146 1.2436342 -0.05584066 0
-1.0499387 1.3765181 0.061807312 0
-1.0482728 1.3743342 0.18575938 0
-1.5111177 1.9811451 0.44936919 0
-1.5133135 1.984024 0.63662821 0
-0.52392441 0.68688917 0.43224111 0
-0.97079146 1.240056 -0.056224432 0
-1.0510609 1.3425895 0.060873322 0
-1.049788 1.3409636 0.18302114 0
-1.5312777 1.9560021 0.44800431 0
-1.524648 1.9475336 0.63102967 0
-0.54311091 0.69375139 0.44082797 0
-0.97472078 1.2132858 -0.055562761 0
-1.0548172 1.3129861 0.060128558 0
-1.0465915 1.3027471 0.17958966 0
-1.5412298 1.9184493 0.44381306 0
-1.5463104 1.9247733 0.6299141 0
-0.55657136 0.69279343 0.44463733 0
-0.99904799 1.2119901 -0.056075089 0
-1.0489491 1.2725273 0.058875963 0
-1.048135 1.2715397 0.17709298 0
-1.5625219 1.8955655 0.44303578 0
-1.5574845 1.8894545 0.62472433 0
-0.57303846 0.69517869 0.45076361 0
-1.0155857 1.2009187 -0.056150082 0
-1.0560789 1.2488016 0.058388893 0
-1.0544038 1.2468208 0.17548554 0
-1.5701424 1.8566759 0.43853268 0
-1.5704867 1.857083 0.62051052 0
-0.58445054 0.6911062 0.45285907 0
-1.0265507 1.183338 -0.05592804 0
-1.0508103 1.211303 0.057249747 0
-1.0493442 1.2096128 0.17209478 0
-1.5971353 1.8410693 0.43956187 0
-1.5941812 1.8376641 0.62068033 0
-1.0393527 1.1680528 -0.055819757 0
-1.067009 1.1991338 0.057305072 0
-1.0642489 1.1960319 0.17205556 0
-1.6055807 1.8043953 0.43559834 0
-1.6029856 1.801479 0.6152274 0
-1.0593485 1.1607587 -0.056104209 0
-1.0969099 1.2019159 0.058093503 0
-1.0927573 1.1973656 0.17421311 0
-1.6161628 1.7708762 0.43238518 0
-1.6142936 1.7688279 0.61097038 0
-1.0702355 1.1434345 -0.05591381 0
-0.94006711 1.0043633 0.04911324 0
-1.1222308 1.1989861 0.17649095 0
-1.6224041 1.7333689 0.42818147 0
-1.625674 1.7368624 0.60695189 0
-1.0903554 1.1359186 -0.056213219 0
-0.9440071 0.9834547 0.048668239 0
-1.1425476 1.1902918 0.17731488 0
-1.6329079 1.7011429 0.42526647 0
-1.6284639 1.6965132 0.59997004 0
-1.1004446 1.117907 -0.056003187 0
-0.95008844 0.96516502 0.048351351 0
-1.1741161 1.1927477 0.17986894 0
-1.6419892 1.6680454 0.42212784 0
-1.6480827 1.6742356 0.59938329 0
-1.1102756 1.0998441 -0.055794265 0
-0.96138549 0.95235288 0.048312142 0
-1.2115688 1.2001857 0.18327674 0
-1.6500431 1.6345403 0.41887373 0
-1.6495613 1.6340629 0.59239072 0
-1.1315085 1.0929954 -0.056165181 0
-0.97023404 0.93721026 0.048159931 0
-1.2378252 1.1956934 0.18495631 0
-1.6460921 1.590064 0.41275519 0
-1.6548885 1.5985612 0.58702844 0
-1.1414177 1.0751171 -0.055980615 0
-0.99245346 0.93480557 0.048674691 0
-1.2646226 1.1911653 0.18670437 0
-1.659254 1.5628742 0.4110882 0
-1.6628066 1.5662205 0.58279502 0
-1.1549934 1.0607786 -0.055986874 0
-1.2987673 1.1928247 0.062956139 0
-1.3042126 1.1978258 0.19030738 0
-1.6594719 1.5241059 0.40635508 0
-1.6655599 1.5296974 0.57696307 0
-0.66723251 0.61280519 0.37509221 0
-1.1729249 1.0503306 -0.056210514 0
-1.3369589 1.1972197 0.064071573 0
-1.3403978 1.2002991 0.19336665 0
-1.6695069 1.4950098 0.40417054 0
-1.6641836 1.4902428 0.56994063 0
-0.66015679 0.59115708 0.36690071 0
-1.1700742 1.0215253 -0.055453051 0
-1.3710334 1.1969713 0.064977065 0
-1.6652527 1.4538374 0.39867708 0
-1.6718549 1.4596014 0.56622845 0
-0.65916955 0.57548344 0.36229581 0
-1.1959214 1.0178421 -0.056066152 0
-1.4093134 1.1994587 0.066070206 0
-1.6644502 1.4166042 0.39418307 0
-1.6848321 1.4339511 0.56446338 0
-0.66753501 0.56813532 0.36293283 0
-0.68472719 0.58276749 0.44988048 0
-1.2071619 1.0014749 -0.055997469 0
-1.4434837 1.1975302 0.066959895 0
-1.6845112 1.3974892 0.39473522 0
-1.6729788 1.3879218 0.55459297 0
-0.68861347 0.57128137 0.37045249 0
-1.2126635 0.98052585 -0.055675514 0
-1.4762193 1.1936296 0.067775823 0
-1.6816064 1.3596998 0.39001146 0
-1.6774858 1.3563681 0.55038148 0
-0.69168627 0.55927819 0.36828771 0
-1.2328132 0.9714039 -0.05603458 0
-1.5217961 1.19911 0.069169611 0
-1.6845204 1.3273298 0.38678017 0
-1.6801136 1.3238573 0.54573089 0
-0.7064721 0.55666971 0.37239856 0
-1.240651 0.9525063 -0.055841234 0
-1.5569948 1.1953783 0.070079751 0
-1.6793798 1.2893392 0.38184175 0
-1.6680626 1.2806504 0.53653592 0
-0.69478041 0.53341568 0.36266619 0
-0.68034601 0.52233374 0.42915753 0
-1.2537313 0.93769604 -0.055894081 0
-1.5941294 1.1922882 0.071069777 0
-1.6815859 1.257699 0.37871242 0
-1.6776209 1.2547334 0.53448594 0
-0.69744605 0.52163684 0.36060035 0
-0.71015489 0.53114212 0.44370669 0
-1.2657264 0.92204547 -0.055906799 0
-1.6332595 1.1897827 0.072140634 0
-1.6862338 1.2283731 0.3762458 0
-1.6727011 1.2185148 0.52798814 0
-1.6684445 1.215414 0.68674868 0
-0.6924777 0.50445014 0.35471919 0
-0.71786708 0.52294558 0.44437569 0
-1.2645854 0.89706147 -0.055353068 0
-1.6856596 1.1957599 0.07378421 0
-1.6765662 1.1893092 0.37071773 0
-1.6714346 1.1856691 0.52283424 0
-1.6744825 1.187831 0.68302321 0
-0.71376461 0.50632465 0.36232868 0
-0.71161139 0.50479722 0.43653387 0
-1.2939172 0.89359331 -0.056139987 0
-1.7349102 1.1981479 0.075273626 0
-1.6903393 1.1673667 0.37048346 0
-1.6656059 1.1502856 0.51643914 0
-1.6813622 1.161167 0.6798113 0
-0.71574599 0.494302 0.43521741 0
-1.2948029 0.87033188 -0.055698499 0
-1.6984798 1.1416727 0.073063456 0
-1.7121952 1.1508918 0.22171424 0
-1.6715846 1.1235945 0.36324301 0
-1.6736364 1.1249737 0.51449603 0
-1.6712172 1.1233475 0.66993707 0
-0.71893775 0.48325074 0.43342364 0
-1.3057877 0.85404402 -0.055703998 0
-1.7018782 1.1131052 0.072600946 0
-1.6997175 1.111692 0.2182685 0
-1.6864979 1.1030457 0.36343664 0
-1.6656691 1.0894227 0.50778931 0
-1.6689475 1.0915669 0.66346455 0
-0.72946572 0.4771035 0.43611416 0
-1.3228979 0.84164506 -0.055977359 0
-1.7099388 1.0878855 0.072354682 0
-1.7028896 1.0834007 0.21690676 0
-1.6891372 1.0746512 0.36106059 0
-1.6700462 1.0625054 0.50500494 0
-1.6673086 1.0607637 0.65745097 0
-0.72917271 0.46390927 0.43241224 0
-1.3436172 0.8312484 -0.056406695 0
-1.7103041 1.0581046 0.071800664 0
-1.725799 1.0676907 0.21809505 0
-1.6808711 1.0398955 0.35646641 0
-1.6794308 1.0390044 0.50384653 0
-1.6683198 1.0321304 0.65267307 0
-1.3454386 0.80912983 -0.056050982 0
-1.7366679 1.0444101 0.072349593 0
-1.7399746 1.0463988 0.21820402 0
-1.673251 1.0062721 0.35213524 0
-1.6707464 1.0047659 0.49740589 0
-1.6727482 1.0059696 0.64939839 0
-1.3558642 0.79232609 -0.056065217 0
-1.7699342 1.0342962 0.073187083 0
-1.7706712 1.0347269 0.22040212 0
-1.6812137 0.98245066 0.35117966 0
-1.6662889 0.97372895 0.49238935 0
-1.6752208 0.97894853 0.64552146 0
-1.3582467 0.77094209 -0.055757891 0
-1.8063869 1.0253069 0.074154668 0
-1.8162551 1.0309081 0.22444248 0
-1.6829139 0.95522356 0.34899458 0
-1.6709728 0.94844574 0.49020544 0
-1.6743437 0.95035911 0.64052135 0
-1.3744557 0.75742131 -0.056027319 0
-1.6846552 0.92836303 0.34690395 0
-1.6726466 0.92174548 0.48725283 0
-1.6682438 0.91931921 0.63370907 0
-1.3799907 0.73797345 -0.055869713 0
-1.6837697 0.90042448 0.34435952 0
-1.6745092 0.89547229 0.48447224 0
-1.6817017 0.89931852 0.63446915 0
-1.396086 0.72412473 -0.056147732 0
-1.6926042 0.87792337 0.34387812 0
-1.6662494 0.86425358 0.47889584 0
-1.675509 0.8690564 0.62795436 0
-1.4067687 0.70733154 -0.056214694 0
-1.7028499 0.85620284 0.34374201 0
-1.6763009 0.84285384 0.47869644 0
-1.6706187 0.83999676 0.62210792 0
-1.4076283 0.68569708 -0.055899579 0
-1.715578 0.83570844 0.34415975 0
-1.664782 0.81096429 0.47245342 0
-1.6740826 0.81549484 0.61952484 0
-1.4077238 0.66394466 -0.055566955 0
-1.729892 0.81589335 0.3449429 0
-1.6714838 0.78834546 0.47150072 0
-1.6637673 0.78470606 0.61200225 0
-1.4309722 0.65301222 -0.056155603 0
-1.7453995 0.79649848 0.34600776 0
-1.6731173 0.76351315 0.46921226 0
-1.6776706 0.76559097 0.61352164 0
-1.4297007 0.63080412 -0.055789571 0
-1.7472942 0.77093077 0.34443158 0
-1.6732968 0.73828214 0.46661845 0
-1.6700174 0.73683512 0.60728163 0
-1.4486234 0.61748105 -0.056220099 0
-1.7536573 0.74750286 0.3438032 0
-1.6762305 0.71449941 0.46489072 0
-1.6671268 0.71061885 0.60292876 0
-1.450935 0.59699154 -0.056013618 0
-1.7606423 0.7244215 0.343357 0
-1.671664 0.68781114 0.4611856 0
-1.663949 0.68463683 0.59861416 0
-1.4537895 0.5768708 -0.055838961 0
-1.7681957 0.70162874 0.34307986 0
-1.6735356 0.66406709 0.45935854 0
-1.6760285 0.66505629 0.59989947 0
-1.4584275 0.55756044 -0.05574302 0
-1.7826352 0.68150586 0.34418917 0
-1.673329 0.63971782 0.45705453 0
