# .PCD v0.7 - Point Cloud Data file format
VERSION 0.7
FIELDS x y z intensity
SIZE 4 4 4 4
TYPE F F F F
COUNT 1 1 1 1
WIDTH 1350
HEIGHT 1
VIEWPOINT 0 0 0 1 0 0 0
POINTS 1350
DATA ascii
-1.5642159 -0.098613948 -0.055955395 0
-0.9464851 -0.059669916 0.10192003 0
-0.94631851 -0.05965941 0.17100613 0
-1.6658039 -0.10501843 0.42584366 0
-1.6764066 -0.10568687 0.55883795 0
-1.5702796 -0.11886387 -0.056221388 0
-0.95141089 -0.07201799 0.10253998 0
-0.94312799 -0.071391009 0.17057851 0
-1.6677958 -0.12624545 0.42672542 0
-1.6825444 -0.12736186 0.56137413 0
-1.5678951 -0.1385587 -0.056194026 0
-0.94312406 -0.083346173 0.1017519 0
-0.9477641 -0.083756223 0.17159416 0
-1.6775532 -0.14824946 0.42966554 0
-1.6798105 -0.14844896 0.56104124 0
-1.5638098 -0.15806539 -0.056114499 0
-0.93977296 -0.094989553 0.10151135 0
-0.94304585 -0.095320366 0.17094369 0
-1.677644 -0.16957143 0.43020159 0
-1.6717004 -0.16897067 0.55899882 0
-1.5582525 -0.17735125 -0.055990782 0
-0.94035125 -0.10702532 0.033788491 0
-0.95156533 -0.10830164 0.10292427 0
-0.94871408 -0.10797712 0.17220396 0
-1.677438 -0.19091626 0.43073112 0
-1.6750903 -0.19064906 0.56089067 0
-1.552318 -0.19650455 -0.055862024 0
-0.9392181 -0.11889358 0.033798892 0
-0.93936741 -0.11891247 0.1017588 0
-0.93812156 -0.11875477 0.17053919 0
-1.6743689 -0.21195471 0.43059421 0
-1.68042 -0.21272072 0.56352752 0
-1.5598241 -0.21744297 -0.056226216 0
-0.95420027 -0.13301766 0.03439559 0
-0.95953923 -0.13376193 0.10411817 0
-0.94925714 -0.13232857 0.17285271 0
-1.6691644 -0.23268527 0.42997521 0
-1.664746 -0.23206933 0.5592069 0
-1.5610874 -0.23769386 -0.056375176 0
-0.93554735 -0.14244807 0.033785198 0
-0.94453639 -0.14381674 0.1026786 0
-0.93998933 -0.1431244 0.1714797 0
-1.6745346 -0.25496751 0.43215135 0
-1.6755236 -0.25511813 0.56386167 0
-1.5480181 -0.25568712 -0.056015037 0
-0.94894254 -0.15673743 0.034337491 0
-0.95037168 -0.15697348 0.1035196 0
-0.94564337 -0.1561925 0.17285624 0
-1.6731679 -0.27635819 0.43266246 0
-1.6740096 -0.27649722 0.56447905 0
-1.537026 -0.27379555 -0.055737626 0
-0.9424746 -0.16788612 0.034177233 0
-0.94385618 -0.16813225 0.10303235 0
-0.94631135 -0.16856958 0.17335261 0
-1.6743506 -0.29825765 0.43390507 0
-1.6774793 -0.29881495 0.56687289 0
-1.5454735 -0.2954239 -0.056174405 0
-0.9446274 -0.1805696 0.034335032 0
-0.95146078 -0.18187582 0.10410422 0
-0.94735897 -0.18109174 0.17394847 0
-1.6754051 -0.32026091 0.43518892 0
-1.6729969 -0.31980056 0.56667411 0
-1.5411987 -0.31477153 -0.056158647 0
-0.95008498 -0.19404358 0.034619473 0
-0.94929445 -0.19388212 0.10412607 0
-0.94716823 -0.19344787 0.17434689 0
-1.6753217 -0.34216458 0.43625185 0
-1.6737552 -0.34184462 0.56834388 0
-1.5243438 -0.33137622 -0.055692118 0
-0.94235009 -0.20485695 0.034428895 0
-0.94006866 -0.20436098 0.10338818 0
-0.94547004 -0.20553519 0.17449687 0
-1.6688591 -0.36279231 0.43572402 0
-1.6794826 -0.36510175 0.57180452 0
-1.5351785 -0.35403201 -0.056246381 0
-0.94794506 -0.21860836 0.034731124 0
-0.93520439 -0.21567021 0.10314371 0
-0.94517034 -0.21796849 0.17493425 0
-1.6668031 -0.3843863 0.43641636 0
-1.6649513 -0.38395926 0.56845814 0
-1.5177569 -0.37020129 -0.055774458 0
-0.93945622 -0.22914599 0.034523088 0
-0.94119096 -0.22956911 0.10411454 0
-0.95397824 -0.23268811 0.1770927 0
-1.6743307 -0.40839174 0.4396989 0
-1.668767 -0.4070347 0.57146561 0
-1.5174427 -0.39043179 -0.055939142 0
-0.98802704 -0.2542153 0.036422715 0
-0.98927552 -0.25453654 0.10977951 0
-0.99834132 -0.25686914 0.1859138 0
-1.679446 -0.43211454 0.44243613 0
-1.6730822 -0.4304772 0.57475406 0
-1.517489 -0.41088346 -0.056127127 0
-1.0534655 -0.28524196 0.038964365 0
-1.0571587 -0.28624198 0.11770312 0
-1.6767318 -0.45400089 0.31328526 0
-1.6657314 -0.45102239 0.44028443 0
-1.6788923 -0.45458588 0.57867056 0
-1.5082843 -0.42884597 -0.055981975 0
-1.1245755 -0.31974718 0.041740112 0
-1.1230124 -0.31930274 0.12547293 0
-1.6646183 -0.4732959 0.31211075 0
-1.6747346 -0.47617227 0.44421381 0
-1.6711729 -0.47515956 0.57802635 0
-1.4999496 -0.44696409 -0.055877086 0
-1.2020706 -0.35820031 0.044780307 0
-1.2023772 -0.35829169 0.13483366 0
-1.673169 -0.49858108 0.31486619 0
-1.6734889 -0.49867639 0.44551361 0
-1.6783016 -0.50011051 0.58262408 0
-1.5013279 -0.46803606 -0.056143533 0
-1.3043292 -0.40662208 0.048776586 0
-1.299764 -0.40519893 0.14631514 0
-1.6676083 -0.51987368 0.31502667 0
-1.6644591 -0.51889193 0.44481394 0
-1.6728691 -0.5215137 0.58297169 0
-1.4907286 -0.48540884 -0.055971306 0
-1.4243425 -0.46379229 0.053478755 0
-1.4171132 -0.46143833 0.16016659 0
-1.671805 -0.54437065 0.31708929 0
-1.6732062 -0.54482692 0.44894937 0
-1.6646538 -0.54204208 0.58244115 0
-1.4920484 -0.50670439 -0.056255963 0
-1.5618564 -0.53041142 0.058887992 0
-1.5648303 -0.53142136 0.17760429 0
-1.6698791 -0.56709629 0.31805322 0
-1.6719571 -0.56780201 0.45049697 0
-1.4819725 -0.52418548 -0.056120485 0
-1.7284377 -0.61136222 0.19703142 0
-1.6642294 -0.58865118 0.3183637 0
-1.6706514 -0.59092277 0.45211422 0
-1.4685171 -0.54032469 -0.055864174 0
-1.684818 -0.61991024 0.1929336 0
-1.6775984 -0.61725384 0.32238248 0
-1.6911199 -0.62222892 0.45973736 0
-1.4699799 -0.56197691 -0.056184564 0
-1.6964804 -0.64856863 0.19518884 0
-1.6664737 -0.637097 0.32176083 0
-1.6726599 -0.63946199 0.45687175 0
-1.4551655 -0.57741678 -0.055891812 0
-1.6919807 -0.67138624 0.19562833 0
-1.6678989 -0.66183048 0.32361946 0
-1.6686684 -0.66213578 0.45802256 0
-1.4565582 -0.59930527 -0.056230709 0
-1.6847625 -0.69320053 0.19578746 0
-1.669781 -0.68703634 0.3256374 0
-1.6827781 -0.69238406 0.46425179 0
-1.4421196 -0.61470878 -0.055967689 0
-1.6750009 -0.71397525 0.19568235 0
-1.6688222 -0.71134156 0.32717133 0
-1.6723207 -0.71283281 0.46380636 0
-1.4283973 -0.630229 -0.055738706 0
-1.6855514 -0.743689 0.19799325 0
-1.678327 -0.74050146 0.33083659 0
-1.6722661 -0.73782736 0.46633103 0
-1.4311712 -0.65310305 -0.056163412 0
-1.678189 -0.7658276 0.19824548 0
-1.6770269 -0.76529717 0.33245358 0
-1.6740638 -0.76394504 0.46947768 0
-1.4170632 -0.6683495 -0.05593561 0
-1.6585153 -0.78222895 0.19706938 0
-1.6753958 -0.79019058 0.33407629 0
-1.666829 -0.78615004 0.47018766 0
-1.4120024 -0.68782789 -0.056073282 0
-1.919875 -0.93522757 0.076241866 0
-1.6679637 -0.81251413 0.19939198 0
-1.6695777 -0.81330037 0.3349317 0
-1.6800449 -0.81839925 0.47678488 0
-1.3998923 -0.70387399 -0.055939913 0
-1.8751963 -0.94285965 0.074933134 0
-1.6676812 -0.83851981 0.20060451 0
-1.6755713 -0.84248704 0.33823547 0
-1.6751206 -0.84226036 0.47835937 0
-1.3907785 -0.72137183 -0.055934273 0
-1.8360752 -0.95233923 0.073843196 0
-1.6685977 -0.86547166 0.20200968 0
-1.6766051 -0.86962491 0.34062764 0
-1.3867891 -0.74160904 -0.056144949 0
-1.7792072 -0.95146132 0.072032228 0
-1.6737062 -0.89504284 0.20397645 0
-1.6751969 -0.89583999 0.34260622 0
-1.3682317 -0.75399154 -0.055773612 0
-1.7361195 -0.95672351 0.070769928 0
-1.6779046 -0.92464298 0.20589077 0
-1.6724007 -0.92160994 0.3443805 0
-1.3568351 -0.77014089 -0.055699944 0
-1.6974118 -0.96345252 0.069681086 0
-1.6797249 -0.95341349 0.20757087 0
-1.6726874 -0.94941896 0.34687388 0
-1.3500432 -0.78892452 -0.055824518 0
-1.6899093 -0.98753208 0.069878042 0
-1.6684043 -0.97496516 0.20767257 0
-1.6728659 -0.97757238 0.3494359 0
-1.3432412 -0.80780828 -0.055959437 0
-1.686689 -1.0143535 0.070267476 0
-1.6669146 -1.0024614 0.20904183 0
-1.6833857 -1.0123669 0.3542681 0
-1.3332134 -0.824812 -0.055969935 0
-1.6803006 -1.0395426 0.070541076 0
-1.6719412 -1.0343708 0.21128887 0
-1.6747159 -1.0360874 0.35516104 0
-1.3149108 -0.83656353 -0.05563939 0
-1.6738256 -1.0649099 0.070826583 0
-1.6784217 -1.067834 0.21379015 0
-1.6730998 -1.0644481 0.35763255 0
-1.3193672 -0.86292565 -0.056283288 0
-1.6869075 -1.1033137 0.071962304 0
-1.6696106 -1.0920007 0.21440233 0
-1.6720843 -1.0936186 0.36033052 0
-1.307737 -0.87902588 -0.056254886 0
-1.6755072 -1.1262311 0.07207524 0
-1.6778537 -1.1278085 0.21726733 0
-1.67133 -1.1234233 0.36318767 0
-1.2881571 -0.88961536 -0.055890076 0
-1.6646147 -1.149601 0.072223671 0
-1.6664096 -1.1508406 0.21764471 0
-1.6701227 -1.153405 0.36605245 0
-1.2778118 -0.90644395 -0.055932011 0
-1.6661118 -1.1818932 0.07292857 0
-1.6749063 -1.1881316 0.22069097 0
-2.0414765 -1.4481664 0.45140567 0
-1.2777253 -0.93078631 -0.056436788 0
-1.6634173 -1.2117519 0.073472701 0
-1.6685696 -1.2155051 0.22185519 0
-2.0066762 -1.4618061 0.44774541 0
-1.2612611 -0.94332784 -0.056229781 0
-1.6816722 -1.2577636 0.07497263 0
-1.6896102 -1.2637006 0.2267506 0
-1.2411543 -0.95289272 -0.055863887 0
-1.6735103 -1.2848328 0.075324073 0
-1.6806206 -1.2902918 0.22770658 0
-1.235334 -0.97339022 -0.056149162 0
-1.586803 -1.2503326 0.07212434 0
-1.5953093 -1.2570353 0.21827513 0
-1.5848579 -1.2488 0.36389682 0
-1.21118 -0.97932625 -0.055607405 0
-1.5723374 -1.271348 0.072188772 0
-1.5677179 -1.2676128 0.21666679 0
-1.5740951 -1.2727692 0.36507657 0
-1.2171738 -1.0097809 -0.056461897 0
-1.6651498 -1.3814268 0.077242479 0
-1.6668545 -1.382841 0.23275611 0
-1.7734243 -1.4712526 0.41557041 0
-1.1998819 -1.0212127 -0.05625182 0
-1.6756654 -1.4261494 0.078557089 0
-1.6758405 -1.4262984 0.23650007 0
-1.7589948 -1.4970706 0.41657358 0
-1.4633933 -1.2454858 0.49027553 0
-1.1785946 -1.0289639 -0.055856854 0
-1.7121654 -1.4947942 0.40990841 0
-1.4284205 -1.2470727 0.48378143 0
-1.1683259 -1.0462123 -0.055990111 0
-1.6199932 -1.4506713 0.077635534 0
-1.6304402 -1.4600264 0.23520835 0
-1.6280835 -1.4579159 0.39414233 0
-1.4105757 -1.2631421 0.48308641 0
-1.1589018 -1.0643682 -0.056176331 0
-1.3520411 -1.2417529 0.46835771 0
-1.135614 -1.0696505 -0.055695973 0
-1.3244228 -1.2474922 0.46419534 0
-1.1257119 -1.0873961 -0.055877455 0
-1.2886862 -1.2448232 0.45712772 0
-1.1123159 -1.1018652 -0.055896793 0
-1.2703118 -1.2583767 0.45619461 0
-1.0894256 -1.1067132 -0.055442415 0
-1.2496191 -1.2694489 0.45446801 0
-1.0813398 -1.1265262 -0.055748418 0
-1.0727227 -1.1460918 -0.056043752 0
-1.055784 -1.156853 -0.05591543 0
-1.0403434 -1.1691662 -0.055872962 0
-1.0325947 -1.1903052 -0.05625733 0
-1.0089439 -1.1930649 -0.055782869 0
-0.99399364 -1.2058583 -0.055791393 0
-0.97984201 -1.2196605 -0.055854689 0
-0.97211981 -1.2417529 -0.056301367 0
-0.95605576 -1.2534333 -0.056280658 0
-0.93440497 -1.2575756 -0.0559339 0
-0.91834199 -1.2690278 -0.05592449 0
-0.90260947 -1.2809428 -0.055944253 0
-0.89027852 -1.2978467 -0.056188453 0
-0.87164819 -1.3056307 -0.056045819 0
-0.85154539 -1.310969 -0.055810254 0
-0.80623668 -1.2412155 0.49241361 0
-0.83301651 -1.3184931 -0.055679601 0
-0.79004431 -1.2504771 0.49210212 0
-0.8162542 -1.3287228 -0.05567313 0
-0.75806957 -1.2340082 0.48182636 0
-0.80405796 -1.3465968 -0.055993374 0
-0.74065238 -1.2404083 0.48064563 0
-0.78335315 -1.350261 -0.055731155 0
-0.72328722 -1.2467258 0.47952643 0
-0.76653379 -1.3604506 -0.05574891 0
-0.70776606 -1.2561492 0.47968498 0
-0.75719386 -1.3843473 -0.056332972 0
-0.68882507 -1.2593514 0.47755766 0
-0.72808683 -1.3718836 -0.055448309 0
-0.66004157 -1.2436706 0.46842247 0
-0.7117787 -1.3829304 -0.055528138 0
-0.63870013 -1.2409444 0.46432963 0
-0.69746864 -1.3981155 -0.055780791 0
-0.61885834 -1.2405368 0.46122468 0
-0.6801154 -1.40742 -0.055805903 0
-0.60073996 -1.2431617 0.45935169 0
-0.66517395 -1.4219292 -0.056044646 0
-0.58763266 -1.2561706 0.46138778 0
-0.64594823 -1.4273872 -0.055934742 0
-0.56397223 -1.2462404 0.45509592 0
-0.6295628 -1.4391525 -0.05608068 0
-1.3956945 -3.1904955 0.12432676 0
-0.5485422 -1.2539431 0.45535025 0
-0.61073899 -1.4454193 -0.056020763 0
-1.388139 -3.2852709 0.12732871 0
-0.53537405 -1.2670552 0.45762736 0
-0.59434575 -1.4575433 -0.056196135 0
-1.3615823 -3.3390751 0.12873931 0
-0.50207114 -1.2312536 0.33924508 0
-0.52118272 -1.2781219 0.45921767 0
-0.57378393 -1.459411 -0.055985138 0
-1.258388 -3.2006915 0.12278321 0
-0.48793665 -1.2410597 0.34022707 0
-0.5020141 -1.2768656 0.45645881 0
-0.5512796 -1.4557379 -0.055573527 0
-0.4675003 -1.2345059 0.14186604 0
-0.46545872 -1.2291148 0.23703164 0
-0.44045416 -1.1630864 0.31730565 0
-0.48473832 -1.2800255 0.45537031 0
-0.53568935 -1.4702016 -0.055863746 0
-0.44171733 -1.2122951 0.13866346 0
-0.43950596 -1.2062259 0.23153193 0
-0.42425433 -1.1643678 0.31617269 0
-0.5158686 -1.4732128 -0.055726916 0
-0.42347166 -1.2093464 0.13770534 0
-0.42640036 -1.2177101 0.23268723 0
-0.41208085 -1.1768166 0.31811884 0
-0.43645561 -1.2464259 0.43936682 0
-0.49948177 -1.4861479 -0.055973858 0
-0.41020232 -1.2205076 0.1383771 0
-0.40984952 -1.2194579 0.23201662 0
-0.40307859 -1.1993117 0.3228021 0
-0.4186514 -1.2456468 0.43719926 0
-0.48178691 -1.4956008 -0.056096945 0
-0.39768663 -1.2345301 0.1393881 0
-0.39787871 -1.2351264 0.23402594 0
-0.41436967 -1.2863189 0.34478885 0
-0.41041467 -1.2740414 0.44531605 0
-0.46406147 -1.5052599 -0.056235597 0
-0.406948 -1.3200028 0.35241613 0
-0.44296756 -1.5038404 -0.055969745 0
-0.36664248 -1.2447227 0.33105886 0
-0.42516011 -1.5134381 -0.056123246 0
-0.34779507 -1.2380425 0.32809129 0
-0.40579003 -1.5176228 -0.056084495 0
-0.33308738 -1.2457206 0.32898849 0
-0.38528752 -1.5172499 -0.055886988 0
-0.31590515 -1.2440244 0.32746398 0
-0.3672052 -1.5263546 -0.056047592 0
-0.34699935 -1.5266421 -0.055893268 0
-0.32747942 -1.5296282 -0.055847194 0
-0.30862159 -1.5357602 -0.055924751 0
-0.28837731 -1.5348263 -0.055754092 0
-0.49805838 -2.6508086 0.096293256 0
-0.27105701 -1.5499312 -0.056174353 0
-0.43304706 -2.4762065 0.089745462 0
-0.24906939 -1.5380878 -0.055627029 0
-0.39759123 -2.4552603 0.088797815 0
-0.2321213 -1.5574605 -0.056217499 0
-0.36572883 -2.4539247 0.088575929 0
-0.21137306 -1.5520394 -0.055921312 0
-0.33616328 -2.4683309 0.088936083 0
-0.19252476 -1.5603362 -0.056128457 0
-0.30398044 -2.46364 0.088622123 0
-0.17078517 -1.5438538 -0.055453792 0
-0.27184293 -2.4573898 0.088267155 0
-0.1531661 -1.5646108 -0.056125637 0
-0.24238926 -2.4760363 0.088820249 0
-0.1334227 -1.5660524 -0.05611264 0
-0.21022466 -2.4675174 0.088412687 0
-0.11452036 -1.5790073 -0.056520663 0
-0.17880549 -2.4653707 0.088248096 0
-0.094102211 -1.5715153 -0.056205619 0
-0.14737298 -2.4611418 0.088023327 0
-0.074220434 -1.5707337 -0.056139786 0
-0.11680433 -2.4719405 0.088349931 0
-0.05406389 -1.5607691 -0.055754889 0
-0.084830098 -2.4489582 0.087483406 0
-0.034463368 -1.5638553 -0.055845205 0
-0.054349441 -2.4662321 0.088069044 0
-0.014746092 -1.5616541 -0.055755552 0
0.004947417 -1.5709962 -0.056086864 0
0.024675235 -1.5674722 -0.055967715 0
0.044428881 -1.5677159 -0.055991948 0
0.064150199 -1.5666755 -0.055979207 0
0.084447525 -1.576498 -0.056363702 0
0.1038481 -1.5686219 -0.056124415 0
0.12419294 -1.5748265 -0.056397896 0
0.143584 -1.5684619 -0.056230254 0
0.16208658 -1.5546851 -0.055805098 0
0.18203974 -1.5558598 -0.055925112 0
0.20237362 -1.559286 -0.056135416 0
0.22098464 -1.5495584 -0.055880964 0
0.24064566 -1.5477318 -0.055919938 0
0.26170832 -1.5540439 -0.056262597 0
0.27867439 -1.5363988 -0.055746403 0
0.29993087 -1.5427128 -0.056108087 0
0.31732562 -1.529147 -0.055755612 0
0.33808815 -1.5319806 -0.056009717 0
0.35748273 -1.5281661 -0.056030393 0
0.37653151 -1.5228791 -0.056005947 0
0.39485401 -1.5148618 -0.055889525 0
0.41494942 -1.5136101 -0.056031678 0
0.43446106 -1.5099558 -0.056094471 0
0.45129171 -1.4972423 -0.055828858 0
0.4702355 -1.4918457 -0.055843998 0
0.4883 -1.4837332 -0.055766068 0
0.50954199 -1.4850413 -0.05605194 0
0.5307318 -1.4855944 -0.056320604 0
0.54389858 -1.463999 -0.055757128 0
0.56917363 -1.4748746 -0.056439817 0
0.49213853 -1.2752569 0.45476755 0
0.58272851 -1.455179 -0.055962477 0
0.51248628 -1.2797713 0.45864239 0
0.60052884 -1.4465798 -0.055918157 0
0.52522421 -1.2651827 0.45574826 0
0.61706227 -1.4351056 -0.055770554 0
0.5360409 -1.2466737 0.45147654 0
0.63876307 -1.4354923 -0.056093719 0
0.55799156 -1.2539744 0.45662883 0
0.65707695 -1.4279658 -0.056118477 0
0.57153732 -1.2420702 0.45487863 0
0.67626643 -1.4222327 -0.056223381 0
0.58908832 -1.2388914 0.45639491 0
0.69635242 -1.4181504 -0.056404166 0
0.6132161 -1.2488399 0.46286777 0
0.71432167 -1.409602 -0.05641745 0
0.62979072 -1.2427934 0.46352929 0
0.73127353 -1.3990802 -0.056360412 0
0.6487906 -1.2412729 0.46597236 0
0.74378371 -1.3803931 -0.055980481 0
0.67257565 -1.2482376 0.4717288 0
0.76162481 -1.3718538 -0.056018669 0
0.69840932 -1.2579888 0.051369075 0
0.70359266 -1.2673252 0.15578066 0
0.69848382 -1.2581229 0.25952378 0
0.70047206 -1.2617042 0.36818287 0
0.69906348 -1.2591671 0.47914791 0
0.77974588 -1.3637435 -0.056083988 0
0.7141428 -1.2490065 0.051365424 0
0.70615077 -1.2350287 0.15289165 0
0.70853597 -1.2392004 0.25744045 0
0.71500176 -1.2505088 0.36751407 0
0.71585858 -1.2520074 0.47981557 0
0.7963016 -1.3528769 -0.056045022 0
0.72927129 -1.2389958 0.051327322 0
0.72762239 -1.2361944 0.154158 0
0.73337281 -1.2459641 0.26074341 0
0.72953308 -1.2394404 0.36693195 0
0.72982949 -1.2399441 0.47867656 0
0.81177288 -1.3402668 -0.055941656 0
0.83037138 -1.332808 -0.056062322 0
0.84241265 -1.3149503 -0.055752952 0
0.86118567 -1.3077058 -0.05590114 0
0.88030249 -1.3007772 -0.05607437 0
0.89813989 -1.2917889 -0.056169987 0
0.90989017 -1.274155 -0.055896994 0
0.93423897 -1.2740222 -0.056402788 0
0.94399941 -1.2539133 -0.056034349 0
0.95846498 -1.2403131 -0.05596149 0
0.97676778 -1.2316288 -0.056120165 0
0.77542764 -0.97775441 0.044552173 0
0.774207 -0.97621524 0.13390143 0
0.9968707 -1.2249744 -0.056384459 0
0.76728666 -0.94285691 0.04339885 0
0.77393633 -0.95102817 0.13177297 0
0.99934173 -1.1969064 -0.05566733 0
0.77536142 -0.92864633 0.043190733 0
0.76686925 -0.91847539 0.1285903 0
1.0174931 -1.1879181 -0.055840764 0
0.77097517 -0.90010959 0.042311676 0
0.77541804 -0.90529668 0.12810211 0
1.0335557 -1.1763623 -0.05590491 0
0.78093672 -0.88883883 0.042240776 0
0.77680707 -0.88413858 0.12648229 0
1.0502977 -1.165488 -0.056012213 0
0.77491242 -0.85990012 0.04132596 0
0.77809894 -0.86343616 0.12491243 0
1.0631757 -1.150317 -0.055922072 0
1.084217 -1.143846 -0.056266751 0
1.0962715 -1.1277769 -0.056150898 0
1.1066717 -1.1101594 -0.055963136 0
1.1149892 -1.0906854 -0.055684805 0
1.1263138 -1.0743469 -0.055570338 0
1.1483331 -1.0680616 -0.055988736 0
1.1524595 -1.0451467 -0.055543847 0
1.1721541 -1.0364119 -0.055859625 0
1.1858505 -1.0222085 -0.055894487 0
1.2064862 -1.0138 -0.056260966 0
1.213954 -0.99426824 -0.056020927 0
1.2230926 -0.97628278 -0.055870906 0
1.2230105 -0.95125562 -0.055315599 0
1.2487786 -0.9463048 -0.055937678 0
1.2624316 -0.93186206 -0.056019187 0
1.2743839 -0.91612202 -0.056033216 0
1.2854583 -0.8997516 -0.05601754 0
1.2973794 -0.8839677 -0.056047525 0
1.3174896 -0.87358463 -0.056436602 0
1.3206223 -0.85191917 -0.056106817 0
1.3286525 -0.83359724 -0.05599758 0
1.3320943 -0.81256312 -0.055706989 0
1.3526047 -0.80188262 -0.056137998 0
1.349542 -0.77727073 -0.055600256 0
1.3615608 -0.76152492 -0.055695936 0
1.3775102 -0.74783266 -0.055958718 0
1.3944585 -0.73445362 -0.056267053 0
1.3966932 -0.71331227 -0.055990353 0
1.4074416 -0.69659901 -0.056065146 0
1.4119903 -0.67685181 -0.055902395 0
1.4216373 -0.65959322 -0.055951063 0
1.4388955 -0.6457091 -0.056305818 0
1.4357975 -0.62272012 -0.055873312 0
1.4465433 -0.60585672 -0.055990163 0
1.4588418 -0.5895285 -0.056174405 0
1.4679359 -0.57180923 -0.056242865 0
1.4744244 -0.55305761 -0.056220178 0
1.481003 -0.53435224 -0.056210004 0
1.4810722 -0.51339471 -0.055962827 0
1.4847909 -0.49383146 -0.055863947 0
1.495064 -0.47642675 -0.056020305 0
1.4875894 -0.45349303 -0.055521853 0
1.5029418 -0.43756822 -0.055884778 0
1.505803 -0.41790771 -0.055791069 0
1.516976 -0.40050685 -0.056013741 0
1.5175976 -0.38029671 -0.055855438 0
1.5312579 -0.36329159 -0.056185383 0
1.5285697 -0.34238291 -0.055924125 0
1.5385396 -0.32432768 -0.056135017 0
1.5377114 -0.30398297 -0.055960696 0
1.5323052 -0.28291488 -0.055629898 0
1.5405257 -0.26441926 -0.055803031 0
1.5572443 -0.24714559 -0.056291446 0
1.5553458 -0.22680576 -0.056115128 0
1.5540918 -0.20667396 -0.055971555 0
1.559818 -0.18747996 -0.056088317 0
1.5525066 -0.16679925 -0.055745468 0
1.5536844 -0.14716236 -0.055716798 0
1.5640217 -0.12829401 -0.056025136 0
1.5616499 -0.10832293 -0.05588688 0
1.5624744 -0.088627703 -0.055872016 0
1.563575 -0.068952024 -0.055875897 0
1.5620818 -0.0491888 -0.055795979 0
1.5664828 -0.029590173 -0.055935435 0
1.563475 -0.0098434119 -0.05581918 0
1.5692604 0.0098798349 -0.056025729 0
1.5713025 0.029681213 -0.056107532 0
1.5786619 0.049710896 -0.056388203 0
1.5631284 0.068932325 -0.055859935 0
1.5550129 0.088204473 -0.055605207 0
1.5620215 0.10834871 -0.055900179 0
1.56122 0.12806417 -0.055924773 0
1.5519152 0.14699478 -0.055653356 0
1.5596144 0.16756289 -0.056000683 0
1.5639992 0.1879825 -0.056238662 0
1.5514545 0.20632324 -0.055876575 0
1.5561843 0.22692804 -0.056145385 0
1.5437534 0.24500448 -0.055803776 0
1.5457242 0.26531154 -0.05599134 0
1.5435274 0.28498685 -0.056037314 0
1.5427271 0.3049745 -0.056143232 0
1.5587783 0.32859403 -0.056873441 0
1.5374602 0.34437427 -0.056249391 0
1.5270691 0.3622978 -0.056031689 0
1.5231905 0.38169828 -0.05606129 0
1.5194801 0.40116796 -0.056106202 0
1.5111363 0.41938788 -0.055988673 0
1.5083337 0.439138 -0.05608527 0
1.4951775 0.45580629 -0.055805068 0
1.4963043 0.47682199 -0.056066778 0
1.4885299 0.49507502 -0.056004621 0
1.4765284 0.51181972 -0.05579114 0
1.4749973 0.53218538 -0.055982061 0
1.4662499 0.54999143 -0.055908486 0
1.4583087 0.56805915 -0.055874005 0
1.4522461 0.58686316 -0.055920426 0
1.4512355 0.607822 -0.056171779 0
1.4342574 0.62205219 -0.055813383 0
1.4172531 0.635997 -0.055458926 0
1.4190581 0.65839654 -0.055849552 0
1.4177899 0.67963195 -0.056132011 0
1.4010252 0.69342321 -0.055809546 0
1.3995183 0.71475506 -0.056103602 0
1.3892174 0.73169309 -0.056055572 0
1.3785677 0.74840677 -0.056001674 0
1.3673129 0.76474208 -0.055931229 0
1.3540261 0.77985334 -0.055785 0
1.3456619 0.79776663 -0.055849846 0
1.3291135 0.81074482 -0.055582333 0
1.323056 0.83008599 -0.05576171 0
1.3185415 0.85057682 -0.056018412 0
1.3068783 0.8665486 -0.055982053 0
1.3037366 0.88829917 -0.056322157 0
1.2861615 0.90024388 -0.056048192 0
1.2670259 0.91083258 -0.055709694 0
1.2627676 0.93210995 -0.056034092 0
1.248674 0.94622558 -0.055932995 0
1.2360955 0.96143311 -0.055907421 0
1.2205203 0.97422957 -0.055753402 0
1.2184906 0.99798393 -0.056230284 0
1.1979823 1.0066543 -0.055864412 0
1.1851763 1.0216273 -0.05586271 0
1.1769451 1.0406481 -0.056087945 0
1.1628433 1.0545638 -0.05604431 0
1.1481458 1.0678873 -0.055979602 0
1.1339338 1.0816153 -0.055946298 0
1.1243362 1.0998288 -0.056151617 0
1.102183 1.1056565 -0.055736147 0
1.0904937 1.121833 -0.055854954 0
1.07973 1.1391124 -0.056033898 0
0.5899303 0.62237489 0.28529727 0
1.0610006 1.1479636 -0.055807665 0
0.61327493 0.6635409 0.30060399 0
1.0527868 1.1682501 -0.056144956 0
1.0096054 1.1203328 0.053842098 0
1.0047945 1.1149943 0.16130508 0
1.0042243 1.1143615 0.27053913 0
0.6201492 0.6881634 0.30819654 0
1.0386575 1.1821688 -0.056180861 0
0.9882198 1.1247622 0.053452693 0
0.98850566 1.1250876 0.16095176 0
0.97893173 1.1141908 0.26748383 0
0.62390459 0.71010953 0.31448179 0
1.0125788 1.1821806 -0.055571061 0
0.96248806 1.1236999 0.052822042 0
0.96119714 1.1221927 0.15879354 0
0.96327019 1.124613 0.26705274 0
0.62778944 0.73294097 0.32106659 0
1.0100688 1.2097542 -0.056264874 0
0.93996167 1.1257873 0.052359626 0
0.93448514 1.119228 0.1566965 0
0.93523324 1.120124 0.26316941 0
0.62569743 0.7493946 0.32479703 0
0.98938948 1.2157812 -0.055961307 0
0.90740961 1.1150427 0.051324405 0
0.91480374 1.1241288 0.15575752 0
0.9083119 1.1161515 0.25952825 0
0.6281051 0.77182788 0.33106568 0
0.97269315 1.226491 -0.055886056 0
0.88783354 1.1194896 0.051010452 0
0.88444072 1.1152115 0.15296668 0
0.8888635 1.1207882 0.25798342 0
0.62406218 0.7868942 0.33413097 0
0.95850033 1.2403587 -0.055963553 0
0.86802828 1.1232823 0.0506812 0
0.86265862 1.1163336 0.1516186 0
0.86087382 1.114024 0.25391105 0
0.62022948 0.80261534 0.33746341 0
0.93950474 1.247943 -0.055767555 0
0.84597051 1.1237017 0.050215505 0
0.83858359 1.1138896 0.14984059 0
0.83328164 1.106847 0.24986391 0
0.60268736 0.80054891 0.33337727 0
0.92911059 1.2670287 -0.056093171 0
0.81532723 1.1118622 0.049223732 0
0.82107013 1.1196939 0.14921874 0
0.8179273 1.1154079 0.24945165 0
0.59922546 0.81716412 0.33712745 0
0.90965033 1.2738192 -0.05588226 0
0.81323284 1.1388021 0.049959078 0
0.81298006 1.1384481 0.15034185 0
0.81392419 1.1397702 0.25258791 0
0.59299994 0.83040124 0.33948097 0
0.89722443 1.2904721 -0.056112733 0
0.81014568 1.1652274 0.050666794 0
0.81346244 1.1699978 0.15314341 0
0.81812531 1.1767044 0.25846946 0
0.57734674 0.83039415 0.33647928 0
0.87963414 1.2997895 -0.056031797 0
0.81207538 1.1999615 0.051728375 0
0.81503654 1.204337 0.1562824 0
0.80945259 1.1960859 0.26046717 0
0.57284212 0.84645897 0.34003899 0
0.85979182 1.3055892 -0.055810668 0
0.8108148 1.2312179 0.052631475 0
0.80995214 1.229908 0.15826459 0
0.80566174 1.223393 0.26418352 0
0.73701394 1.1191516 0.34188545 0
0.56671053 0.86054683 0.34280446 0
0.84815323 1.323911 -0.056132875 0
0.80927461 1.263224 0.053559791 0
0.81674582 1.2748861 0.16271606 0
0.78591073 1.2267545 0.26275155 0
0.72095519 1.1253632 0.34098268 0
0.5543626 0.86532319 0.34189925 0
0.82777184 1.3286356 -0.055886816 0
0.81249881 1.3041211 0.05485566 0
0.81026167 1.3005304 0.16467382 0
0.77165973 1.2385714 0.26318046 0
0.69684345 1.1184857 0.33621338 0
0.54209757 0.87010705 0.34106526 0
0.81176895 1.3402603 -0.055941388 0
0.7578705 1.251272 0.26383042 0
0.68367422 1.1287712 0.33669063 0
0.53208315 0.87848878 0.34169734 0
0.40455425 0.66793388 0.46310923 0
0.79605508 1.3524581 -0.056027673 0
0.73999017 1.2572066 0.26309615 0
0.6565066 1.1153722 0.33020195 0
0.52091604 0.88501048 0.34165555 0
0.40482029 0.68776959 0.47329032 0
0.77643496 1.3579528 -0.055845849 0
0.72388965 1.2660533 0.26301908 0
0.6402092 1.1196997 0.32907039 0
0.51469111 0.9001736 0.34497988 0
0.41858101 0.732081 0.34915596 0
0.40674171 0.71137458 0.41000202 0
0.41085514 0.7185688 0.49088576 0
0.76105595 1.3708291 -0.05597683 0
0.71052676 1.279815 0.26399839 0
0.61955595 1.1159565 0.32565168 0
0.50779736 0.91465467 0.34805143 0
0.41688654 0.75090432 0.35560161 0
0.40577611 0.73089206 0.41827285 0
0.40674832 0.73264319 0.49696222 0
0.74294376 1.3788342 -0.055917263 0
0.69263709 1.2854697 0.26334482 0
0.60118943 1.1157514 0.32335705 0
0.48842129 0.90646428 0.34256724 0
0.42064643 0.78068048 0.367165 0
0.40853721 0.7582069 0.43092635 0
0.40912983 0.75930673 0.51151335 0
0.72984135 1.3963401 -0.056250032 0
0.68196863 1.3047495 0.26551422 0
0.57809514 1.1060176 0.31840116 0
0.4798443 0.91804314 0.34463227 0
0.41881862 0.80128819 0.37434706 0
0.4060733 0.77690369 0.43861172 0
0.40350565 0.77199125 0.51659453 0
0.709638 1.4003595 -0.056047533 0
0.66143125 1.3052311 0.26389638 0
0.56431323 1.1135838 0.31850842 0
0.46981508 0.92710656 0.34578639 0
0.41712567 0.82313228 0.38206804 0
0.40608972 0.80135453 0.44949323 0
0.40423653 0.79769748 0.53034818 0
0.69385505 1.4130644 -0.056201879 0
0.64318514 1.309873 0.26317653 0
0.54934043 1.1187545 0.3179836 0
0.45875844 0.93428046 0.34628004 0
0.41217867 0.83941883 0.38718787 0
0.408685 0.83230388 0.46392983 0
0.40682393 0.82851368 0.547387 0
0.67043787 1.4099748 -0.055738803 0
0.52813661 1.110706 0.31378084 0
0.44560006 0.93712616 0.34522769 0
0.41162062 0.8656652 0.39687192 0
0.40571538 0.85324609 0.47271794 0
0.40692136 0.85578233 0.56197304 0
0.65654409 1.4268076 -0.056072969 0
0.51471096 1.1185747 0.31414789 0
0.42968693 0.93379968 0.34198189 0
0.41039559 0.89187557 0.40648684 0
0.40646076 0.88332433 0.48650777 0
0.40700972 0.88451731 0.57743132 0
0.6406886 1.4398196 -0.056262814 0
0.49773252 1.1185544 0.31235719 0
0.4256146 0.95648372 0.348299 0
0.40705478 0.91477424 0.4145543 0
0.40775803 0.9163546 0.50183207 0
0.4121798 0.92629164 0.6012665 0
0.6207366 1.4436508 -0.056102641 0
0.48454618 1.1269121 0.31296244 0
0.41591266 0.96729064 0.35029939 0
0.40612876 0.94453615 0.42569038 0
0.41020304 0.95401174 0.51958466 0
0.40887108 0.95091397 0.61385846 0
0.60266179 1.4517177 -0.056116771 0
0.4637022 1.1169859 0.30855972 0
0.41871244 1.0086126 0.36332572 0
0.40945679 0.98631722 0.4421618 0
0.40778682 0.9822945 0.53214949 0
0.40995696 0.98752207 0.63410789 0
0.58522987 1.4614252 -0.056202695 0
0.44565129 1.1128722 0.30584887 0
0.41457662 1.0352731 0.37101951 0
0.40749672 1.0175933 0.4538464 0
0.4084228 1.0199059 0.54969543 0
0.40710679 1.0166196 0.64944875 0
0.56291831 1.4586654 -0.05581953 0
0.43098524 1.116793 0.30541071 0
0.41599214 1.0779421 0.38440341 0
0.40876311 1.0592098 0.47007447 0
0.40647292 1.0532753 0.56487703 0
0.40687817 1.0543255 0.6702103 0
0.54851496 1.4764248 -0.05623037 0
0.41454983 1.1158341 0.30369684 0
0.40958685 1.1024753 0.39128187 0
0.40601444 1.0928595 0.48270088 0
0.40602422 1.0928859 0.58333212 0
0.40824571 1.0988654 0.69520032 0
0.52358711 1.4655954 -0.055562414 0
0.39988977 1.1193488 0.30325887 0
0.40503335 1.1337464 0.4005385 0
0.4045299 1.1323371 0.49784818 0
0.40989098 1.1473436 0.60959589 0
0.5115391 1.4908618 -0.056271631 0
0.38560173 1.1238219 0.30313122 0
0.40761542 1.1879799 0.41785204 0
0.40545577 1.1816857 0.51725924 0
0.40941089 1.1932129 0.63117754 0
0.48997387 1.4888195 -0.055957232 0
0.59427136 1.8057346 0.34284452 0
0.36468506 1.1081207 0.29763386 0
0.40721762 1.2373588 0.43338227 0
0.4094629 1.2441813 0.54231548 0
0.40803352 1.239838 0.65307134 0
0.47016641 1.4916266 -0.055835795 0
0.57366651 1.8199859 0.34415153 0
0.35350639 1.1215167 0.30001253 0
0.40909499 1.2978745 0.45273757 0
0.40737322 1.292412 0.56105793 0
0.40381858 1.2811347 0.67209226 0
0.45381191 1.5056036 -0.056140631 0
0.55148542 1.8296533 0.34463909 0
0.33779538 1.1206976 0.29863188 0
0.41078046 1.362839 0.47355723 0
0.40697184 1.3502032 0.58387506 0
0.43490547 1.5115002 -0.056151852 0
0.52670193 1.8305361 0.34352887 0
0.32304156 1.1227207 0.2980634 0
0.40579957 1.4103436 0.48824978 0
0.40862343 1.4201578 0.61185229 0
0.4154667 1.515497 -0.056101527 0
0.30546734 1.1142527 0.041248035 0
0.309421 1.1286744 0.1257734 0
0.3078396 1.122906 0.20998684 0
0.3067058 1.1187701 0.29596579 0
0.40219876 1.4670997 0.50610483 0
0.40421712 1.474462 0.63300526 0
0.39405441 1.5117941 -0.055776339 0
0.29089439 1.1160195 0.041174579 0
0.29095671 1.1162586 0.12397175 0
0.29460716 1.1302637 0.21065231 0
0.29364547 1.126574 0.29702854 0
0.39922899 1.5316465 0.52659553 0
0.3988035 1.530014 0.65464664 0
0.37761313 1.5272537 -0.056166831 0
0.27657881 1.1186212 0.041138813 0
0.27413726 1.1087463 0.12274432 0
0.27613804 1.1168385 0.20748569 0
0.27520686 1.1130724 0.29253185 0
0.39146185 1.5832648 0.54260474 0
0.39431676 1.5948114 0.68019307 0
0.3575792 1.5285785 -0.056045514 0
0.26007208 1.1117554 0.040762641 0
0.2603386 1.1128948 0.12283092 0
0.26512793 1.133368 0.20991968 0
0.26227605 1.121177 0.29377058 0
0.3873308 1.6557606 0.56573355 0
0.33624294 1.5236195 -0.055704035 0
0.24866377 1.1267715 0.041195136 0
0.24736878 1.1209035 0.12336128 0
0.24454579 1.1081117 0.20465517 0
0.24472374 1.1089181 0.28972808 0
0.37283471 1.689428 0.57558715 0
0.31759086 1.5304251 -0.055802211 0
0.23287044 1.1221695 0.040916435 0
0.23243666 1.1200792 0.12293869 0
0.23029396 1.1097538 0.20440666 0
0.23225044 1.1191819 0.29162249 0
0.35900643 1.730001 0.58782351 0
0.30025449 1.5443774 -0.056168631 0
0.21646479 1.1134 0.040494084 0
0.21555842 1.1087381 0.12138635 0
0.21714394 1.1168932 0.20520177 0
0.21835947 1.1231455 0.29191568 0
0.34656385 1.7825725 0.60415566 0
0.27885246 1.5373805 -0.05578202 0
0.20255807 1.1167512 0.040519986 0
0.20277064 1.117923 0.12210272 0
0.20255186 1.116717 0.20468457 0
0.20335753 1.1211588 0.29071075 0
0.33069468 1.8231989 0.61646473 0
0.26065427 1.5477849 -0.056036003 0
0.18981639 1.1271441 0.040807124 0
0.18837927 1.1186104 0.12190904 0
0.1887136 1.1205957 0.2049437 0
0.18997526 1.1280876 0.29186392 0
0.31201085 1.8527441 0.62507659 0
0.24079329 1.5486813 -0.055954244 0
0.17428111 1.1209029 0.040498503 0
0.17477098 1.1240536 0.12225271 0
0.17418179 1.1202641 0.2044657 0
0.17468902 1.1235265 0.29009172 0
0.29453552 1.8943288 0.63780457 0
0.22023386 1.5442939 -0.055691108 0
0.15984063 1.1208127 0.040419318 0
0.15996368 1.1216755 0.12176535 0
0.1592643 1.1167713 0.20344608 0
0.16040163 1.1247464 0.28986222 0
0.2755357 1.932074 0.64929336 0
0.20275298 1.5622088 -0.056240641 0
0.14434057 1.1121421 0.040037915 0
0.14526679 1.1192786 0.12129695 0
0.1444201 1.1127548 0.20236702 0
0.14523955 1.1190686 0.28790483 0
0.25478902 1.9631457 0.65860498 0
0.18229505 1.5580419 -0.056003548 0
0.13038681 1.1143919 0.040056624 0
0.13027997 1.1134787 0.12048108 0
0.13018416 1.1126597 0.20203559 0
0.12976275 1.109058 0.28488642 0
0.23523492 2.010509 0.67344749 0
0.16257934 1.5594115 -0.055974755 0
0.11929534 1.1442446 0.12363767 0
0.11967278 1.1478649 0.20813797 0
0.1193755 1.1450135 0.29371294 0
0.21361776 2.0489566 0.68537062 0
0.14342397 1.5667138 -0.056167588 0
0.12016555 1.3126469 0.14165911 0
0.11947529 1.3051068 0.23635849 0
0.1193023 1.3032169 0.33388269 0
0.18921533 2.0669229 0.69052857 0
0.12275052 1.556536 -0.055742875 0
0.17067513 2.1642432 0.23331183 0
0.16547544 2.0983086 0.37960213 0
0.16477293 2.0894003 0.53472799 0
0.10347054 1.562919 -0.05592037 0
0.14086074 2.1276965 0.38456729 0
0.1410038 2.1298575 0.54458439 0
0.084372319 1.5750939 -0.056313504 0
0.11599293 2.1653993 0.39108682 0
0.11589623 2.1635942 0.5527935 0
0.063806437 1.5582801 -0.055679228 0
0.088970467 2.1728361 0.39219651 0
0.089579895 2.1877193 0.55862498 0
0.044300515 1.5631864 -0.055830177 0
0.02373004 0.83733726 0.34682691 0
0.02419557 0.85376394 0.42734393 0
0.024454573 1.5534549 -0.055467214 0
0.013339518 0.84738088 0.35088962 0
0.013227779 0.8402828 0.42047936 0
0.0049541732 1.5731415 -0.056163456 0
0.0026055619 0.82736659 0.41396683 0
0.0025975907 0.82483542 0.48916936 0
-0.014805291 1.5679234 -0.055979382 0
-0.0078025907 0.82631707 0.41345808 0
-0.0076745697 0.81275928 0.4820267 0
-0.034562033 1.5683324 -0.056005083 0
-0.018585613 0.84336531 0.34926835 0
-0.018555529 0.84200019 0.42138883 0
-0.017634543 0.80020833 0.47467712 0
-0.054039184 1.560056 -0.055729415 0
-0.080143221 2.3136528 0.41751453 0
-0.080390237 2.3207839 0.59246135 0
-0.027338536 0.78923553 0.46833521 0
-0.073914312 1.5642552 -0.05590824 0
-0.11031756 2.3346603 0.42152274 0
-0.10981665 2.3240595 0.59360355 0
-0.037008595 0.78321624 0.46500301 0
-0.093190618 1.5562917 -0.055661142 0
-0.14089866 2.3530202 0.42512426 0
-0.13992974 2.3368394 0.59727043 0
-0.046863586 0.78262603 0.46496612 0
-0.11357594 1.5659856 -0.056054555 0
-0.17115793 2.3599262 0.4267275 0
-0.17145611 2.3640375 0.6047259 0
-0.13281915 1.5589682 -0.055858802 0
-0.076865345 0.90220898 0.032326709 0
-0.20317014 2.3847146 0.43163821 0
-0.20248191 2.3766367 0.60855275 0
-0.1533931 1.5669296 -0.056208819 0
-0.23481667 2.3986814 0.43466699 0
-0.23586115 2.4093509 0.61764097 0
-0.17348558 1.5682647 -0.05633061 0
-0.26588821 2.4035606 0.43612328 0
-0.26629442 2.4072325 0.61790854 0
-0.086280793 0.77995604 0.46537292 0
-0.19139867 1.5512096 -0.055800151 0
-0.29761818 2.4120762 0.43831369 0
-0.29749089 2.4110448 0.61979949 0
-0.21133497 1.5517597 -0.055911236 0
-0.33015844 2.4242394 0.44124439 0
-0.33070058 2.42822 0.62523562 0
-0.23203461 1.5568788 -0.056196503 0
-0.3622961 2.4308922 0.44325057 0
-0.36372712 2.4404938 0.62952542 0
-0.25121385 1.5513307 -0.056105971 0
-0.39556399 2.4427416 0.44628403 0
-0.39738396 2.4539804 0.63424474 0
-0.27048096 1.5466372 -0.056054965 0
-0.43058065 2.4621034 0.45077625 0
-0.4269259 2.441205 0.6322822 0
-0.28948051 1.5406977 -0.055967376 0
-0.46188816 2.4583004 0.45110905 0
-0.46000347 2.4482694 0.63556176 0
-0.31046674 1.544942 -0.056259111 0
-0.52246392 2.5998807 0.094674729 0
-0.52098155 2.5925043 0.28418466 0
-0.49452671 2.4608598 0.45268553 0
-0.49356157 2.4560568 0.63914615 0
-0.3291727 1.5375375 -0.056135964 0
-0.54524297 2.546783 0.092983827 0
-0.54831499 2.5611322 0.28148028 0
-0.52780318 2.4653234 0.4546932 0
-0.52740473 2.4634624 0.6427505 0
-0.3493875 1.5371488 -0.056277938 0
-0.5760408 2.534322 0.092786349 0
-0.57464582 2.5281847 0.27863237 0
-0.56122404 2.4691348 0.45666337 0
-0.56278718 2.476012 0.64782256 0
-0.36764112 1.5281667 -0.05611413 0
-0.61067289 2.538372 0.093208775 0
-0.60713613 2.5236707 0.27895537 0
-0.59338611 2.4665165 0.45752478 0
-0.59554648 2.4754963 0.64959824 0
-0.3870286 1.5241061 -0.056139536 0
-0.63997334 2.5201945 0.092829846 0
-0.64037091 2.52176 0.27961332 0
-0.62996054 2.4807642 0.46160251 0
-0.62737006 2.4705632 0.65032524 0
-0.40421543 1.5117339 -0.055866867 0
-0.68315303 2.5549388 0.09441901 0
-0.68463701 2.5604885 0.28484088 0
-0.65835375 2.4621913 0.45965275 0
-0.65659678 2.4556203 0.64851677 0
-0.42395267 1.5091399 -0.055963855 0
-0.69219142 2.4639866 0.46157846 0
-0.69609189 2.4778712 0.65665597 0
-0.44499558 1.5107254 -0.056225985 0
-0.72481191 2.46068 0.46263212 0
-0.72411692 2.4583206 0.65383947 0
-0.46036682 1.4932756 -0.055787873 0
-0.75578409 2.4515102 0.46266073 0
-0.75788093 2.4583116 0.65632331 0
-0.48024535 1.4908154 -0.055917453 0
-0.79279447 2.4610548 0.4663091 0
-0.79183608 2.4580798 0.65887123 0
-0.49876258 1.484008 -0.055893261 0
-0.82466805 2.4537005 0.46684623 0
-0.82444143 2.4530263 0.66024703 0
-0.52127022 1.4886385 -0.056310423 0
-0.85684198 2.4469612 0.46757975 0
-0.85781127 2.4497294 0.66221452 0
-0.53890318 1.479022 -0.056198899 0
-0.89195126 2.447964 0.46988031 0
-0.88827729 2.4378805 0.66198272 0
-0.55438656 1.4639424 -0.055886738 0
-0.92024279 2.4300416 0.46862727 0
-0.91848618 2.4254029 0.66168261 0
-0.57014406 1.4501531 -0.055629991 0
-0.9530459 2.4240582 0.46975052 0
-0.9499507 2.4161856 0.66237891 0
-0.59113353 1.4496658 -0.055892415 0
-0.98307049 2.4108319 0.46954912 0
-0.98242861 2.4092579 0.66381848 0
-0.61086625 1.4457206 -0.056032438 0
-1.0166714 2.4061286 0.47108915 0
-1.016955 2.4067998 0.66661674 0
-0.63279676 1.4465452 -0.056368761 0
-1.0449588 2.3887293 0.47022152 0
-1.0434622 2.3853078 0.66425067 0
-0.64872992 1.4335341 -0.056175619 0
-1.0742726 2.3738792 0.46992394 0
-1.0760782 2.3778689 0.66589969 0
-0.66698277 1.4257959 -0.056197051 0
-1.1053915 2.3629737 0.47048321 0
-1.1004263 2.3523595 0.66258395 0
-0.68023586 1.4076693 -0.055815786 0
-1.132749 2.3440928 0.46952671 0
-1.1307564 2.3399692 0.66305202 0
-0.70134574 1.4058874 -0.056090865 0
-1.1607074 2.3267038 0.46893409 0
-1.160709 2.3267071 0.66338307 0
-0.71783012 1.3946878 -0.056000225 0
-1.1865423 2.3053589 0.46760637 0
-1.1826429 2.2977829 0.65932995 0
-0.7338354 1.3827152 -0.055886097 0
-1.2204055 2.2995255 0.46950299 0
-1.2193624 2.29756 0.66361922 0
-0.75278395 1.3762848 -0.056004886 0
-1.2356523 2.2590938 0.46438795 0
-1.2476342 2.2809997 0.6633212 0
-0.77025992 1.3670639 -0.05601991 0
-1.0484936 1.8608752 0.076255448 0
-1.2665339 2.2478549 0.46531922 0
-1.2758058 2.2643111 0.66308731 0
-0.78611165 1.3550158 -0.055927403 0
-1.0531883 1.8153744 0.07492841 0
-1.294026 2.2305048 0.46506381 0
-1.2937813 2.2300828 0.65778255 0
-0.8113203 1.3587595 -0.056499116 0
-1.0524243 1.7625487 0.07328923 0
-1.3189745 2.2089539 0.46399659 0
-1.3208904 2.2121625 0.65735072 0
-0.82023251 1.3351989 -0.055944473 0
-1.0468462 1.7040873 0.071400799 0
-1.3405845 2.1822433 0.46189526 0
-1.348262 2.194741 0.65716672 0
-0.83874899 1.3275664 -0.056062762 0
-1.0544056 1.6689062 0.070477448 0
-1.3681172 2.165447 0.46194991 0
-1.3704457 2.1691327 0.65461415 0
-0.85092956 1.3100208 -0.055769891 0
-1.0494398 1.6156307 0.068780243 0
-1.3979924 2.1522336 0.46284983 0
-1.3945343 2.14691 0.65315533 0
-0.86988431 1.3029886 -0.055932403 0
-1.0500509 1.5728577 0.067516871 0
-1.4131831 2.1167889 0.45901778 0
-1.4149172 2.1193864 0.65015078 0
-0.89040989 1.2980382 -0.056196745 0
-1.0510771 1.5322587 0.066336989 0
-1.4376453 2.0957971 0.45835504 0
-1.4355175 2.0926952 0.64745671 0
-0.89867938 1.2753654 -0.055700663 0
-1.0523885 1.4935024 0.065227643 0
-1.4555157 2.0656025 0.4557237 0
-1.4537556 2.0631044 0.64391428 0
-0.91505903 1.2644912 -0.055724565 0
-1.0473353 1.4472796 0.063779823 0
-1.0522482 1.4540687 0.19289294 0
-1.4725246 2.0348351 0.45299065 0
-1.4728686 2.0353105 0.64097726 0
-0.5094465 0.70398802 0.43478811 0
-0.93014055 1.2518364 -0.055678628 0
-1.052792 1.4169075 0.063020594 0
-1.0542598 1.4188831 0.18997134 0
-1.5002328 2.0190992 0.45365709 0
-1.4905488 2.0060658 0.63762772 0
-0.5227735 0.70357853 0.43856606 0
-0.95155787 1.2475364 -0.056015875 0
-1.052132 1.3793938 0.061936431 0
-1.0493537 1.3757513 0.18595092 0
-1.5172149 1.989139 0.45118237 0
-1.5092369 1.9786795 0.63491327 0
-0.52696627 0.69087714 0.43475062 0
-0.96577352 1.2336464 -0.055933814 0
-1.0448663 1.3346769 0.060514558 0
-1.0509218 1.3424119 0.18321882 0
-1.5301489 1.9545602 0.44767404 0
-1.527272 1.9508855 0.63211572 0
-0.5358246 0.68444419 0.4349139 0
-0.97826332 1.2176954 -0.055764697 0
-1.0486135 1.305264 0.059774928 0
-1.0524575 1.3100487 0.18059622 0
-1.5496625 1.9289459 0.44624135 0
-1.5363154 1.9123321 0.62584251 0
-0.55895454 0.69575989 0.44654122 0
-0.99579984 1.2080495 -0.055892773 0
-1.0494195 1.273098 0.058902364 0
-1.0460154 1.2689683 0.17673485 0
-1.5628208 1.8959281 0.44312051 0
-1.5599934 1.892498 0.62573063 0
-0.56942958 0.69080061 0.44792479 0
-1.0091588 1.1933191 -0.055794753 0
-1.0492542 1.2407314 0.058011558 0
-1.0587813 1.251997 0.17621408 0
-1.5739448 1.8611721 0.43959466 0
-1.5811472 1.869689 0.6247226 0
-0.57850689 0.68407792 0.44825366 0
-1.0241339 1.1805522 -0.055796377 0
-1.0487645 1.2089447 0.057138283 0
-1.0527176 1.2135015 0.17264801 0
-1.6018949 1.8465559 0.4408718 0
-1.5944349 1.8379564 0.62077904 0
-1.0465167 1.1761039 -0.056204509 0
-1.0603062 1.1916009 0.056945089 0
-1.0631785 1.194829 0.17188253 0
-1.604611 1.8033055 0.43533528 0
-1.5911764 1.7882073 0.610695 0
-1.0600668 1.1615458 -0.056142252 0
-1.0911044 1.1955545 0.057786036 0
-1.0907338 1.1951485 0.17389052 0
-1.6131231 1.7675455 0.43157193 0
-1.6107212 1.7649138 0.60961837 0
-1.074433 1.1479192 -0.056133106 0
-0.94324666 1.0077603 0.049279355 0
-1.1158984 1.1922206 0.17549507 0
-1.6200159 1.7308173 0.42755118 0
-1.6236027 1.7346494 0.60617858 0
-1.0855886 1.1309525 -0.055967465 0
-0.93744099 0.97661424 0.048329722 0
-1.1507336 1.1988199 0.17858529 0
-1.6334983 1.701758 0.42542022 0
-1.6403857 1.7089334 0.60436237 0
-1.0974735 1.1148889 -0.055851988 0
-0.94733912 0.96237212 0.048211437 0
-1.1723037 1.1909065 0.17959127 0
-1.6411458 1.6671886 0.42191103 0
-1.641174 1.6672171 0.59687072 0
-1.1119505 1.1015033 -0.055878431 0
-0.95517182 0.94619757 0.047999889 0
-1.211212 1.1998322 0.18322277 0
-1.6520325 1.636511 0.41937876 0
-1.6599351 1.6443394 0.59611619 0
-1.1238104 1.0855594 -0.055783071 0
-0.97120613 0.93814927 0.048208185 0
-1.2396107 1.1974182 0.18522312 0
-1.6602339 1.6037246 0.41630125 0
-1.6540041 1.5977068 0.58671468 0
-1.1433488 1.076936 -0.056075327 0
-0.98959279 0.93211108 0.04853439 0
-1.2643094 1.1908704 0.18665814 0
-1.6610494 1.5645653 0.411533 0
-1.6730766 1.5758939 0.58639455 0
-1.1567905 1.0624291 -0.056073982 0
-1.2986705 1.1927357 0.062951446 0
-1.3043309 1.1979345 0.19032465 0
-1.6644115 1.5286427 0.40756467 0
-1.6620498 1.5264735 0.57574713 0
-0.66501719 0.61077064 0.37384686 0
-1.169643 1.0473918 -0.056053232 0
-1.3391988 1.1992255 0.064178914 0
-1.3405448 1.2004309 0.19338785 0
-1.670055 1.4955006 0.40430322 0
-1.6633521 1.4894983 0.5696559 0
-0.67444038 0.60394782 0.37483925 0
-1.1716256 1.0228797 -0.055526577 0
-1.3709247 1.1968764 0.064971909 0
-1.6669471 1.4553167 0.39908272 0
-1.6627511 1.4516535 0.56314516 0
-0.66755241 0.58280206 0.36690325 0
-1.1946108 1.0167266 -0.056004707 0
-1.405794 1.1964633 0.065905213 0
-1.6761349 1.4265491 0.39695033 0
-1.6703501 1.4216255 0.5596115 0
-0.66770548 0.5682804 0.36302552 0
-0.69189358 0.58886677 0.45458898 0
-1.2031053 0.99810952 -0.055809293 0
-1.4356467 1.1910285 0.066596352 0
-1.6859095 1.3986492 0.39506289 0
-1.6723722 1.3874185 0.55439192 0
-0.68559957 0.56878102 0.3688311 0
-1.2176481 0.98455626 -0.055904366 0
-1.4858311 1.2014015 0.068217114 0
-1.6788787 1.3574944 0.38937882 0
-1.6781725 1.3569233 0.55060679 0
-0.68019694 0.54998821 0.36217022 0
-1.2314895 0.97036093 -0.05597442 0
-1.5147622 1.1935676 0.068849899 0
-1.6735412 1.3186786 0.38425925 0
-1.6703306 1.3161488 0.54255319 0
-0.69749546 0.54959649 0.36766675 0
-1.2481081 0.95823151 -0.056176879 0
-1.5596378 1.1974076 0.070198715 0
-1.6759313 1.2866915 0.38105765 0
-1.6708242 1.2827706 0.53742421 0
-0.68653023 0.52708167 0.35835972 0
-0.67743522 0.52009898 0.4273214 0
-1.255649 0.93913043 -0.05597958 0
-1.5951078 1.1930199 0.071113393 0
-1.6846029 1.2599554 0.37939188 0
-1.669014 1.2482961 0.53174376 0
-0.69154328 0.51722205 0.35754845 0
-0.71261549 0.53298247 0.44524407 0
-1.2807081 0.93295914 -0.056568529 0
-1.6482136 1.2006764 0.072801158 0
-1.680299 1.2240498 0.37492159 0
-1.6801077 1.2239103 0.53032601 0
-1.6744812 1.2198116 0.68923342 0
-0.69748771 0.50809979 0.35728556 0
-0.70864934 0.51623076 0.43866971 0
-1.2857838 0.912099 -0.056280956 0
-1.6867591 1.1965398 0.073832341 0
-1.6844224 1.1948822 0.37245485 0
-1.6723871 1.1863447 0.52313215 0
-1.6736118 1.1872134 0.68266803 0
-0.70832556 0.50246638 0.35956764 0
-0.71297884 0.50576723 0.43737268 0
-1.2902418 0.89105505 -0.055980522 0
-1.7374647 1.1999121 0.075384453 0
-1.6904227 1.1674243 0.37050173 0
-1.6721345 1.1547943 0.51846337 0
-1.6738652 1.1559895 0.67678016 0
-0.71441174 0.49338052 0.43440607 0
-1.2963392 0.87136453 -0.055764586 0
-1.7152944 1.152975 0.073786765 0
-1.7038705 1.1452962 0.22063629 0
-1.6706775 1.1229848 0.36304593 0
-1.666791 1.1203723 0.51239163 0
-1.6751728 1.1260064 0.67152274 0
-0.7149362 0.48056099 0.43101126 0
-1.3108995 0.85738742 -0.055922065 0
-1.7124227 1.1200017 0.073050767 0
-1.7090356 1.1177864 0.21946508 0
-1.6887636 1.1045276 0.36392486 0
-1.6646949 1.0887855 0.50749236 0
-1.6807935 1.0993148 0.66817379 0
-0.73356581 0.47978514 0.43856543 0
-1.3303112 0.84636146 -0.056291044 0
-1.704125 1.0841867 0.072108679 0
-1.7051293 1.0848256 0.21719204 0
-1.6864831 1.0729628 0.3604933 0
-1.6724765 1.0640515 0.50573981 0
-1.6678667 1.0611187 0.65767103 0
-0.72927845 0.4639765 0.43247491 0
-1.3303208 0.82302243 -0.055848498 0
-1.7223203 1.0655386 0.072305121 0
-1.7345345 1.0730951 0.21919899 0
-1.6747077 1.0360824 0.35515931 0
-1.6667322 1.0311482 0.50003678 0
-1.6714706 1.0340798 0.65390575 0
-1.3399919 0.8058542 -0.055824071 0
-1.732704 1.0420264 0.072184466 0
-1.7362242 1.0441433 0.2177337 0
-1.6826653 1.0119337 0.3541165 0
-1.6700748 1.0043619 0.49720594 0
-1.6800691 1.0103723 0.65224046 0
-1.345407 0.78621531 -0.055632811 0
-1.7679927 1.0331616 0.073106803 0
-1.7778475 1.0389205 0.22129539 0
-1.6728992 0.97759187 0.34944287 0
-1.679101 0.98121601 0.49617535 0
-1.671205 0.97660184 0.64397401 0
-1.3739665 0.77986467 -0.056403212 0
-1.8117265 1.0283377 0.074373864 0
-1.8097119 1.0271943 0.22363392 0
-1.6867411 0.95739585 0.34978825 0
-1.685415 0.95664322 0.49444231 0
-1.666622 0.94597626 0.6375674 0
-1.3783638 0.75957501 -0.056186628 0
-1.6881763 0.93030339 0.34762898 0
-1.6668127 0.91853058 0.48555335 0
-1.6710018 0.92083901 0.63475668 0
-1.3774589 0.73661953 -0.055767212 0
-1.6866421 0.90196049 0.34494695 0
-1.6688347 0.8924377 0.48283046 0
-1.6760079 0.89627367 0.63232106 0
-1.3888612 0.72037733 -0.055857163 0
-1.6989347 0.88120693 0.34516424 0
-1.6798265 0.87129587 0.48279807 0
-1.6828957 0.87288773 0.63072276 0
-1.3970941 0.70246702 -0.055828094 0
-1.7030406 0.85629869 0.34378049 0
-1.6702969 0.83983505 0.47698188 0
-1.673655 0.84152353 0.62323868 0
-1.4120569 0.68785441 -0.056075446 0
-1.7130378 0.83447111 0.34365019 0
-1.6758852 0.81637293 0.47560441 0
-1.6781968 0.81749898 0.62104738 0
-1.4200937 0.66977876 -0.056055225 0
-1.7248321 0.8135069 0.34393394 0
-1.6703379 0.78780502 0.47117749 0
-1.6784513 0.79163164 0.61740357 0
-1.4198773 0.64794916 -0.055720203 0
-1.7185229 0.78423357 0.34067973 0
-1.6783296 0.76589173 0.47067401 0
-1.6673137 0.76086468 0.60973412 0
-1.4333388 0.63240921 -0.055931531 0
-1.7435648 0.76928538 0.34369648 0
-1.6746792 0.73889202 0.46700394 0
-1.6779613 0.74034017 0.61017036 0
