# .PCD v0.7 - Point Cloud Data file format
VERSION 0.7
FIELDS x y z intensity
SIZE 4 4 4 4
TYPE F F F F
COUNT 1 1 1 1
WIDTH 1347
HEIGHT 1
VIEWPOINT 0 0 0 1 0 0 0
POINTS 1347
DATA ascii
-1.5593846 -0.03928256 -0.0556897 0
-0.83431017 -0.021017162 0.34554398 0
-0.84434706 -0.021270001 0.42259479 0
-1.5698504 -0.059332911 -0.056085702 0
-0.94662267 -0.035777856 0.10180552 0
-0.95277846 -0.036010511 0.17195503 0
-1.6764014 -0.063360028 0.42800903 0
-1.6824491 -0.063588612 0.56014067 0
-1.6621745 -0.06282232 0.68869132 0
-1.5560441 -0.078442462 -0.055623326 0
-0.95386112 -0.048085537 0.10264096 0
-0.93293875 -0.04703081 0.16846794 0
-1.67672 -0.084525913 0.42832819 0
-1.6643366 -0.083901644 0.55441821 0
-1.6662729 -0.083999261 0.69077295 0
-1.5615555 -0.098446228 -0.055860225 0
-0.93296838 -0.058817774 0.10046452 0
-0.94307137 -0.059454702 0.17041935 0
-1.6698151 -0.10527131 0.42686906 0
-1.6660464 -0.10503372 0.55538434 0
-1.5644248 -0.11842068 -0.056011766 0
-0.93634284 -0.070877396 0.10091599 0
-0.94204539 -0.07130906 0.17038269 0
-1.6788105 -0.12707923 0.42954367 0
-1.6639414 -0.12595369 0.55516732 0
-1.5598474 -0.13784751 -0.055905595 0
-0.93775219 -0.082871445 0.10117234 0
-0.94447064 -0.083465174 0.17099787 0
-1.6774184 -0.14823754 0.42963099 0
-1.6772158 -0.14821965 0.56017458 0
-1.5640832 -0.15809304 -0.056124311 0
-0.94766188 -0.095786937 0.10236349 0
-0.94164586 -0.095178857 0.17068991 0
-1.6675514 -0.1685513 0.42761353 0
-1.6645569 -0.16824862 0.55661011 0
-1.5607349 -0.17763378 -0.05607998 0
-0.94922864 -0.10803569 0.034107473 0
-0.9449147 -0.10754471 0.10220492 0
-0.94615918 -0.10768634 0.1717402 0
-1.6804688 -0.1912612 0.43150935 0
-1.6711681 -0.19020265 0.55957735 0
-1.5529655 -0.19658653 -0.05588533 0
-0.9537456 -0.12073258 0.034321681 0
-0.94890797 -0.12012019 0.1027923 0
-0.94521135 -0.11965225 0.17182803 0
-1.6721057 -0.21166822 0.4300122 0
-1.6644123 -0.21069433 0.55815935 0
-1.5591656 -0.21735118 -0.056202479 0
-0.94118416 -0.13120317 0.033926405 0
-0.93488222 -0.13032468 0.10144266 0
-0.95373207 -0.13295239 0.17366756 0
-1.6681032 -0.23253733 0.42970183 0
-1.6690159 -0.23266456 0.56064117 0
-1.5537798 -0.23658121 -0.05611128 0
-0.95029396 -0.1446934 0.034317739 0
-0.94389218 -0.14371866 0.10260856 0
-0.94805342 -0.14435226 0.1729508 0
-1.678617 -0.25558913 0.43320489 0
-1.6864594 -0.25678322 0.56754184 0
-1.5496817 -0.25596189 -0.056075234 0
-0.94459164 -0.15601879 0.034180053 0
-0.94261044 -0.15569155 0.10267421 0
-0.93778253 -0.15489413 0.17141935 0
-1.6676968 -0.27545452 0.43124765 0
-1.6844801 -0.27822661 0.56800973 0
-1.5429051 -0.27484283 -0.05595082 0
-0.94299585 -0.16797899 0.034196135 0
-0.94570023 -0.16846073 0.10323364 0
-0.94399226 -0.16815647 0.17292778 0
-1.662542 -0.29615414 0.43084487 0
-1.6757166 -0.29850098 0.56627727 0
-1.5360693 -0.29362625 -0.055832583 0
-0.94439769 -0.18052568 0.034326684 0
-0.94976062 -0.18155083 0.10391819 0
-0.93572491 -0.17886785 0.17181228 0
-1.6638051 -0.31804353 0.43217582 0
-1.6768744 -0.32054177 0.5679875 0
-1.5283077 -0.31213871 -0.055688918 0
-0.95467705 -0.19498146 0.034786798 0
-0.94413537 -0.19282845 0.10356017 0
-0.94640148 -0.19329126 0.17420575 0
-1.6768658 -0.34247994 0.43665394 0
-1.6664443 -0.34035146 0.56586146 0
-1.5175843 -0.32990679 -0.055445157 0
-0.95144486 -0.20683405 0.034761172 0
-0.9471336 -0.20589682 0.10416517 0
-0.93004495 -0.20218194 0.17165001 0
-1.6773324 -0.36463431 0.43793634 0
-1.6704975 -0.36314848 0.56874537 0
-1.5425373 -0.35572901 -0.056515992 0
-0.94676059 -0.21833523 0.034687728 0
-0.94649059 -0.21827295 0.10438846 0
-0.946468 -0.21826775 0.17517443 0
-1.6756244 -0.38642061 0.43872604 0
-1.6724422 -0.38568676 0.57101578 0
-1.5300524 -0.37320033 -0.056226291 0
-0.94942063 -0.23157644 0.034889262 0
-0.94505209 -0.23051089 0.10454165 0
-0.94716889 -0.2310272 0.17582864 0
-1.6734239 -0.40817055 0.43946078 0
-1.6706239 -0.4074876 0.57210147 0
-1.5219023 -0.39157921 -0.056103539 0
-0.97581708 -0.25107375 0.035972606 0
-0.99129522 -0.2550562 0.11000363 0
-0.99321377 -0.25554985 0.18495893 0
-1.6723869 -0.43029827 0.44057646 0
-1.6621301 -0.42765927 0.57099169 0
-1.5156765 -0.4103927 -0.056060091 0
-1.0494857 -0.28416437 0.038817164 0
-1.0434624 -0.28253347 0.11617818 0
-1.6666049 -0.45125887 0.31139311 0
-1.6798626 -0.45484862 0.44401956 0
-1.6754205 -0.45364586 0.57747394 0
-1.5143334 -0.43056583 -0.056206491 0
-1.126169 -0.32020023 0.041799251 0
-1.1273694 -0.32054156 0.12595974 0
-1.6735756 -0.47584271 0.31379023 0
-1.6701819 -0.4748778 0.44300622 0
-1.6802682 -0.47774559 0.58117223 0
-1.5063717 -0.44887781 -0.056116328 0
-1.2251329 -0.36507258 0.04563944 0
-1.2093852 -0.36037993 0.13561954 0
-1.6763656 -0.49953365 0.31546775 0
-1.6817979 -0.50115234 0.44772562 0
-1.6663926 -0.49656183 0.57848984 0
-1.5028435 -0.46850854 -0.056200214 0
-1.3123035 -0.4091081 0.049074799 0
-1.3048564 -0.40678647 0.14688839 0
-1.6725472 -0.52141339 0.31595969 0
-1.6759312 -0.52246833 0.44787976 0
-1.6722062 -0.52130705 0.58274066 0
-1.4899185 -0.48514506 -0.055940889 0
-1.4234473 -0.46350077 0.053445138 0
-1.4259135 -0.46430382 0.16116121 0
-1.6686974 -0.54335874 0.31649986 0
-1.6747453 -0.54532814 0.44936237 0
-1.6786475 -0.54659873 0.58733737 0
-1.4868168 -0.50492769 -0.056058709 0
-1.5603701 -0.52990663 0.058831953 0
-1.5529252 -0.52737838 0.1762531 0
-1.6673982 -0.56625378 0.3175807 0
-1.6712271 -0.56755406 0.45030025 0
-1.4814317 -0.52399421 -0.056100007 0
-1.7224532 -0.60924542 0.19634923 0
-1.6726739 -0.59163815 0.31997913 0
-1.6670107 -0.58963495 0.45112896 0
-1.471687 -0.54149097 -0.055984758 0
-1.6786602 -0.61764455 0.19222845 0
-1.6600095 -0.61078221 0.31900245 0
-1.6768301 -0.61697114 0.45585263 0
-1.4632003 -0.55938506 -0.05592544 0
-1.6775949 -0.64134866 0.19301596 0
-1.66477 -0.6364457 0.32143188 0
-1.6768841 -0.64107686 0.45802554 0
-1.4532853 -0.57667077 -0.055819597 0
-1.6770597 -0.66546547 0.19390313 0
-1.6663673 -0.6612227 0.32332227 0
-1.664673 -0.66055036 0.4569259 0
-1.4473743 -0.59552652 -0.055876158 0
-1.6810439 -0.69167054 0.19535533 0
-1.6759684 -0.68958223 0.32684407 0
-1.6729207 -0.68832827 0.46153232 0
-1.4432548 -0.61519265 -0.056011744 0
-1.6758829 -0.71435124 0.19578539 0
-1.6696558 -0.71169692 0.32733476 0
-1.6666908 -0.71043307 0.46224499 0
-1.4441879 -0.63719606 -0.056354884 0
-1.6759149 -0.73943728 0.1968613 0
-1.6653582 -0.73477948 0.32828012 0
-1.6766235 -0.73974985 0.46754611 0
-1.4393255 -0.65682417 -0.05648341 0
-1.6781316 -0.76580131 0.19823869 0
-1.6697425 -0.76197302 0.33100951 0
-1.6657645 -0.7601577 0.46715021 0
-1.4230695 -0.67118233 -0.056172691 0
-1.676185 -0.79056281 0.19916894 0
-1.6714647 -0.78833646 0.33329242 0
-1.6689632 -0.78715664 0.4707897 0
-1.4110247 -0.68735158 -0.056034457 0
-1.9308521 -0.94057477 0.076677784 0
-1.6746488 -0.81577057 0.20019111 0
-1.6705697 -0.81378359 0.33513069 0
-1.6610925 -0.80916697 0.47140634 0
-1.3895479 -0.69867277 -0.055526551 0
-1.8778977 -0.94421792 0.075041078 0
-1.6781336 -0.84377533 0.20186183 0
-1.6779739 -0.84369504 0.33872047 0
-1.6850485 -0.84725219 0.48119444 0
-1.3881359 -0.72000116 -0.055827994 0
-1.8359544 -0.95227653 0.073838338 0
-1.6692222 -0.86579555 0.20208529 0
-1.6736432 -0.86808866 0.3400259 0
-1.3809793 -0.73850214 -0.055909738 0
-1.789279 -0.95684737 0.072439983 0
-1.6702483 -0.89319366 0.20355503 0
-1.6685603 -0.89229101 0.34124893 0
-1.3787408 -0.75978273 -0.056201994 0
-1.7279645 -0.9522295 0.070437498 0
-1.6726278 -0.92173511 0.20524327 0
-1.6715493 -0.92114079 0.34420517 0
-1.3600334 -0.77195621 -0.055831239 0
-1.6936209 -0.96130085 0.069525465 0
-1.6691078 -0.94738716 0.20625885 0
-1.6669055 -0.94613719 0.34567484 0
-1.3561178 -0.79247439 -0.056075703 0
-1.6751077 -0.97888243 0.069265991 0
-1.6704949 -0.97618687 0.20793279 0
-1.6687373 -0.97515976 0.34857351 0
-1.3434385 -0.80792695 -0.055967655 0
-1.6847419 -1.0131825 0.070186354 0
-1.6794101 -1.009976 0.21060884 0
-1.667351 -1.0027239 0.35089362 0
-1.3245327 -0.81944156 -0.055605508 0
-1.6780071 -1.0381236 0.070444793 0
-1.6747944 -1.036136 0.21164943 0
-1.6603256 -1.0271847 0.35210925 0
-1.3195105 -0.83948988 -0.055834021 0
-1.6813592 -1.0697029 0.071145363 0
-1.6760623 -1.0663329 0.21348962 0
-1.6688974 -1.0617745 0.35673425 0
-1.3143046 -0.85961449 -0.056067321 0
-1.6886996 -1.1044858 0.072038755 0
-1.6666757 -1.0900811 0.21402545 0
-1.6703248 -1.0924678 0.35995135 0
-1.3092353 -0.88003302 -0.056319341 0
-1.6733409 -1.1247751 0.071982056 0
-1.6619486 -1.1171174 0.21520776 0
-1.672645 -1.1243072 0.36347345 0
-1.2924575 -0.89258522 -0.056076653 0
-1.6711293 -1.1541002 0.072506331 0
-1.6809341 -1.1608714 0.21954171 0
-1.6800359 -1.1602511 0.36822519 0
-1.2842119 -0.91098398 -0.056212153 0
-1.678912 -1.1909733 0.073488854 0
-1.6737531 -1.1873137 0.22053902 0
-2.0387702 -1.4462465 0.45080724 0
-1.2678446 -0.92358845 -0.056000356 0
-1.6782715 -1.2225727 0.074128799 0
-1.6634274 -1.2117592 0.22117148 0
-1.9992877 -1.4564239 0.44609684 0
-1.2506508 -0.93539214 -0.055756751 0
-1.6674489 -1.2471255 0.074338518 0
-1.6600546 -1.2415953 0.22278415 0
-1.2471302 -0.95748067 -0.05613286 0
-1.667886 -1.2805148 0.075070925 0
-1.6703984 -1.2824436 0.22632158 0
-1.2294873 -0.96878326 -0.055883411 0
-1.5948089 -1.2566409 0.072488233 0
-1.5909655 -1.2536125 0.2176808 0
-1.579017 -1.2441976 0.36255571 0
-1.2198416 -0.98632979 -0.056005072 0
-1.565583 -1.2658865 0.071878664 0
-1.5685372 -1.2682754 0.21678004 0
-1.5711873 -1.270418 0.36440217 0
-1.2076678 -1.0018946 -0.056020934 0
-1.6660868 -1.3822041 0.077285938 0
-1.6694623 -1.3850045 0.23312026 0
-1.7694539 -1.4679586 0.41464001 0
-1.1926289 -1.0150398 -0.055911791 0
-1.6692693 -1.4207057 0.078257233 0
-1.6736215 -1.4244099 0.23618692 0
-1.7437341 -1.4840823 0.41295949 0
-1.4603615 -1.2429055 0.48925978 0
-1.1763543 -1.0270081 -0.055750683 0
-1.7095993 -1.4925539 0.40929407 0
-1.42544 -1.2444706 0.48277193 0
-1.1651611 -1.0433784 -0.055838447 0
-1.6307611 -1.4603137 0.078151569 0
-1.6260502 -1.4560951 0.23457505 0
-1.6235155 -1.4538254 0.39303648 0
-1.3986552 -1.2524675 0.47900391 0
-1.1547549 -1.0605595 -0.055975311 0
-1.3506433 -1.240469 0.46787348 0
-1.1500322 -1.0832312 -0.056403112 0
-1.32086 -1.2441363 0.46294662 0
-1.1297591 -1.0913056 -0.056078345 0
-1.2879467 -1.2441089 0.45686543 0
-1.1163117 -1.1058234 -0.056097589 0
-1.2626582 -1.250795 0.45344603 0
-1.098613 -1.1160465 -0.05590998 0
-1.2502418 -1.2700815 0.45469448 0
-1.0845686 -1.12989 -0.055914883 0
-1.0689433 -1.142054 -0.0558463 0
-1.0517139 -1.1523933 -0.055699877 0
-1.0445077 -1.1738462 -0.056096617 0
-1.0276849 -1.1846455 -0.055989839 0
-1.0166919 -1.2022269 -0.056211244 0
-0.99366093 -1.2054547 -0.055772718 0
-0.97838467 -1.2178465 -0.055771615 0
-0.96625632 -1.2342631 -0.055961773 0
-0.95208573 -1.2482284 -0.056046952 0
-0.93553096 -1.2590911 -0.056001298 0
-0.91897887 -1.2699078 -0.05596327 0
-0.90914226 -1.2902138 -0.056349158 0
-0.87950712 -1.2821442 -0.055508636 0
-0.87274873 -1.3072792 -0.056116585 0
-0.85261708 -1.3126189 -0.055880491 0
-0.80496442 -1.2392567 0.49163654 0
-0.83690172 -1.3246427 -0.055939294 0
-0.78497767 -1.2424575 0.4889462 0
-0.82429457 -1.3418112 -0.05622153 0
-0.76591277 -1.2467756 0.48681149 0
-0.80468994 -1.3476552 -0.056037385 0
-0.98741043 -1.6536666 0.068761766 0
-0.74234933 -1.2432503 0.48174688 0
-0.79026824 -1.3621805 -0.056223121 0
-0.90073955 -1.5525992 0.064082533 0
-0.72022396 -1.2414457 0.47749552 0
-0.77042091 -1.3673495 -0.056031615 0
-0.71090615 -1.2617222 0.48181313 0
-0.75315094 -1.3769557 -0.056032188 0
-0.85513532 -1.5634098 0.063619524 0
-0.68609107 -1.2543528 0.47566214 0
-0.73573041 -1.3862858 -0.056030415 0
-0.84161937 -1.5858051 0.064094514 0
-0.65724885 -1.2384084 0.4664405 0
-0.71801305 -1.3950433 -0.056014501 0
-0.82290071 -1.5988318 0.064197123 0
-0.64260167 -1.2485249 0.46716604 0
-0.70452362 -1.4122577 -0.056345019 0
-0.78654629 -1.5766768 0.062904872 0
-0.61929852 -1.2414192 0.46155274 0
-0.68477833 -1.4170694 -0.056188513 0
-0.83879769 -1.7357947 0.068826348 0
-0.59855425 -1.2386386 0.4576804 0
-0.66527164 -1.422138 -0.056052875 0
-0.74050641 -1.5829659 0.062391829 0
-0.58047318 -1.2408661 0.45576647 0
-0.64416236 -1.4234409 -0.055780098 0
-0.72069842 -1.5925668 0.062407605 0
-0.56111413 -1.2399248 0.4527896 0
-0.62761056 -1.4346898 -0.05590678 0
-0.72480792 -1.6568786 0.19435588 0
-0.55251676 -1.2630286 0.45864955 0
-0.60616481 -1.4345938 -0.055601191 0
-0.69634557 -1.6480221 0.063873127 0
-0.70020372 -1.6571531 0.1933385 0
-0.53525734 -1.2667789 0.45752761 0
-0.59169048 -1.4510316 -0.055945076 0
-0.71022785 -1.7417265 0.067152932 0
-0.50933343 -1.2490634 0.34415218 0
-0.51508832 -1.2631763 0.45384783 0
-0.57842392 -1.4712127 -0.056437869 0
-0.48650679 -1.2374229 0.33923006 0
-0.50331247 -1.2801679 0.45763934 0
-0.55633914 -1.4690983 -0.056083571 0
-0.46692777 -1.2329941 0.14169231 0
-0.46679643 -1.2326472 0.23771286 0
-0.44412142 -1.1727704 0.31994757 0
-0.48578563 -1.2827911 0.45635414 0
-0.53756791 -1.4753573 -0.056059647 0
-0.43889764 -1.2045565 0.1377783 0
-0.44478783 -1.2207221 0.23431443 0
-0.42859951 -1.1762931 0.31941092 0
-0.51745832 -1.4777526 -0.05589864 0
-0.42584586 -1.2161266 0.13847739 0
-0.42404374 -1.2109802 0.23140122 0
-0.41035947 -1.1719007 0.31678995 0
-0.43340546 -1.2377152 0.43629634 0
-0.49907595 -1.4849404 -0.055928379 0
-0.41169363 -1.2249448 0.13888018 0
-0.41058779 -1.2216545 0.23243456 0
-0.40209469 -1.1963843 0.32201415 0
-0.41808552 -1.2439631 0.43660831 0
-0.48136249 -1.4942833 -0.056047529 0
-0.39353496 -1.2216421 0.13793296 0
-0.39539048 -1.2274022 0.23256241 0
-0.41104242 -1.2759902 0.34202033 0
-0.41109967 -1.276168 0.44605935 0
-0.46134493 -1.4964483 -0.055906404 0
-0.40886137 -1.3262092 0.35407311 0
-0.44253537 -1.5023732 -0.055915136 0
-0.36824086 -1.2501491 0.33250213 0
-0.42384136 -1.5087438 -0.055949163 0
-0.34666422 -1.234017 0.32702452 0
-0.40546185 -1.5163954 -0.056039136 0
-0.33162531 -1.2402526 0.32754439 0
-0.38532841 -1.5174109 -0.055892918 0
-0.31440488 -1.2381163 0.32590878 0
-0.36593807 -1.5210875 -0.055854186 0
-0.3479147 -1.5306691 -0.056040704 0
-0.32950857 -1.5391062 -0.05619324 0
-0.30949995 -1.5401311 -0.056083921 0
-0.28936544 -1.5400853 -0.055945132 0
-0.49767438 -2.6487648 0.096219011 0
-0.26939264 -1.5404141 -0.055829421 0
-0.43200812 -2.4702656 0.089530148 0
-0.25041333 -1.5463871 -0.055927183 0
-0.39760739 -2.4553602 0.088801429 0
-0.23086703 -1.5490447 -0.055913728 0
-0.36703551 -2.462692 0.088892393 0
-0.21220265 -1.5581307 -0.056140792 0
-0.33576134 -2.4653795 0.088829748 0
-0.1917233 -1.5538406 -0.0558948 0
-0.30378205 -2.4620321 0.088564284 0
-0.17186694 -1.5536326 -0.055805039 0
-0.27260199 -2.4642515 0.08851362 0
-0.15250956 -1.5579041 -0.055885058 0
-0.24025944 -2.4542801 0.088039808 0
-0.13343221 -1.566164 -0.056116637 0
-0.20911612 -2.4545059 0.087946475 0
-0.11331401 -1.5623741 -0.05592528 0
-0.17838502 -2.4595733 0.088040583 0
-0.093975112 -1.5693928 -0.056129705 0
-0.1480342 -2.4721844 0.088418268 0
-0.074091181 -1.5679983 -0.056042019 0
-0.11657169 -2.4670169 0.088173956 0
-0.054572843 -1.5754621 -0.056279764 0
-0.085020833 -2.4544644 0.087680094 0
-0.034684986 -1.5739117 -0.056204319 0
-0.054316193 -2.4647233 0.088015169 0
-0.014750223 -1.5620915 -0.055771168 0
0.0048895897 -1.5526336 -0.055431299 0
0.02468662 -1.5681953 -0.055993535 0
0.044485196 -1.569703 -0.056062918 0
0.064661585 -1.5791646 -0.056425456 0
0.083547883 -1.5597031 -0.055763245 0
0.10358699 -1.5646778 -0.055983301 0
0.12341425 -1.5649524 -0.056044284 0
0.14402464 -1.5732752 -0.056402817 0
0.16168907 -1.5508724 -0.055668242 0
0.18253872 -1.5601244 -0.056078404 0
0.20211318 -1.5572792 -0.056063168 0
0.22006299 -1.5430957 -0.055647902 0
0.24043281 -1.5463629 -0.055870477 0
0.26044503 -1.5465424 -0.055991016 0
0.28023189 -1.5449857 -0.056057964 0
0.29750535 -1.5302371 -0.055654347 0
0.31923488 -1.5383475 -0.056091078 0
0.33704269 -1.5272435 -0.055836525 0
0.35622835 -1.5228039 -0.055833787 0
0.37648261 -1.5226815 -0.055998676 0
0.39281538 -1.5070406 -0.055600967 0
0.41865516 -1.5271276 -0.056532077 0
0.43482164 -1.5112089 -0.056141026 0
0.45268911 -1.5018785 -0.05600173 0
0.4726274 -1.4994342 -0.056128055 0
0.49220464 -1.4955977 -0.056211993 0
0.50840932 -1.48174 -0.05592734 0
0.52860636 -1.4796449 -0.056095049 0
0.54541045 -1.4680686 -0.055912118 0
0.56428009 -1.4621942 -0.055954568 0
0.49391183 -1.2798519 0.45640618 0
0.58276463 -1.455269 -0.055965941 0
0.50583744 -1.263168 0.45269212 0
0.60012662 -1.4456109 -0.055880707 0
0.52237535 -1.2583202 0.45327622 0
0.61935878 -1.4404465 -0.055978112 0
0.54102725 -1.2582704 0.45567623 0
0.63939196 -1.4369056 -0.056148946 0
0.55431199 -1.2457054 0.45361769 0
0.65685362 -1.4274803 -0.056099404 0
0.57597625 -1.251717 0.45841151 0
0.67384237 -1.4171348 -0.056021847 0
0.59388477 -1.2489786 0.46011096 0
0.69147509 -1.4082175 -0.056009106 0
0.61060733 -1.2435271 0.46089861 0
0.70970368 -1.4004891 -0.056052722 0
0.63053191 -1.244256 0.46407479 0
0.73063672 -1.3978617 -0.056311328 0
0.65253508 -1.2484369 0.46866167 0
0.74234933 -1.377731 -0.055872522 0
0.67095965 -1.2452384 0.47059536 0
0.76075608 -1.370289 -0.055954773 0
0.69843102 -1.2580278 0.051370669 0
0.6973843 -1.2561425 0.15440609 0
0.69631714 -1.2542202 0.25871873 0
0.70314246 -1.2665142 0.36958647 0
0.69569796 -1.253105 0.47684115 0
0.77812642 -1.3609113 -0.05596751 0
0.70830756 -1.2388009 0.050945718 0
0.71024543 -1.2421901 0.15377821 0
0.70747697 -1.2373482 0.25705567 0
0.71005744 -1.2418613 0.36497268 0
0.71776569 -1.2553427 0.48109385 0
0.79537213 -1.3512977 -0.055979602 0
0.73744959 -1.2528902 0.05190292 0
0.73201197 -1.243652 0.15508799 0
0.7331838 -1.2456429 0.26067623 0
0.73262662 -1.2446963 0.36848786 0
0.73829085 -1.2543195 0.48422617 0
0.80905342 -1.3357768 -0.055754248 0
0.82728791 -1.3278588 -0.055854145 0
0.84642321 -1.3212105 -0.056018379 0
0.85931247 -1.3048613 -0.055779546 0
0.88053679 -1.3011234 -0.056089297 0
0.88865489 -1.2781467 -0.05557679 0
0.90577412 -1.2683913 -0.055644136 0
0.92577499 -1.2624799 -0.055891793 0
0.94114572 -1.2501228 -0.055864956 0
0.95848262 -1.2403358 -0.055962518 0
0.97632682 -1.2310728 -0.056094829 0
0.77311391 -0.97483695 0.044419236 0
0.77738047 -0.9802168 0.1344503 0
0.9930138 -1.2202349 -0.056166306 0
0.77275562 -0.94957727 0.043708183 0
0.78047717 -0.95906568 0.13288663 0
0.99950463 -1.1971016 -0.055676408 0
0.78066605 -0.93499976 0.043486223 0
0.77787709 -0.9316594 0.13043612 0
1.0202928 -1.1911865 -0.055994406 0
0.77235514 -0.90172064 0.042387411 0
0.77959722 -0.9101758 0.12879252 0
1.0398297 -1.1835032 -0.056244269 0
0.77910876 -0.88675827 0.042141899 0
0.77742463 -0.8848415 0.12658285 0
1.0439281 -1.1584198 -0.055672523 0
0.77287763 -0.85764217 0.041217443 0
0.76786578 -0.85208064 0.12326965 0
1.0649273 -1.1522121 -0.05601421 0
1.0752168 -1.1343509 -0.055799678 0
1.0937003 -1.1251317 -0.056019198 0
1.107919 -1.1114106 -0.056026209 0
1.1141868 -1.0899005 -0.055644732 0
1.1318572 -1.0796345 -0.055843841 0
1.1456281 -1.0655457 -0.055856846 0
1.1679829 -1.0592247 -0.056292016 0
1.1742162 -1.0382352 -0.055957895 0
1.1877707 -1.0238638 -0.055985 0
1.1980404 -1.0067029 -0.055867117 0
1.2133167 -0.99374628 -0.055991519 0
1.2218602 -0.97529906 -0.055814609 0
1.236519 -0.96176249 -0.055926573 0
1.25693 -0.95248181 -0.056302808 0
1.2636454 -0.93275797 -0.056073043 0
1.269562 -0.91265565 -0.055821203 0
1.2887254 -0.9020384 -0.056159914 0
1.2948936 -0.88227397 -0.055940136 0
1.3050665 -0.86534721 -0.055904437 0
1.3165945 -0.84932083 -0.055935692 0
1.3250989 -0.83136767 -0.055847809 0
1.3378969 -0.81610262 -0.055949647 0
1.3521777 -0.80162942 -0.056120273 0
1.3601396 -0.78337437 -0.056036871 0
1.3671925 -0.76467478 -0.055926308 0
1.3688139 -0.74311161 -0.055605449 0
1.3813881 -0.72756946 -0.055739652 0
1.3965638 -0.71324617 -0.05598516 0
1.4018691 -0.69384092 -0.055843163 0
1.4104429 -0.67611009 -0.055841133 0
1.4282107 -0.66264307 -0.056209773 0
1.4327908 -0.64296961 -0.056066934 0
1.4273394 -0.61905181 -0.055544175 0
1.452626 -0.60840434 -0.056225598 0
1.4578055 -0.58910972 -0.0561345 0
1.4627962 -0.56980717 -0.056045942 0
1.4680742 -0.55067575 -0.055978049 0
1.4719323 -0.53107953 -0.055865735 0
1.4836822 -0.51429945 -0.056061447 0
1.4988853 -0.49851915 -0.056394234 0
1.4939071 -0.47605807 -0.055976953 0
1.5052751 -0.4588846 -0.056181949 0
1.5086422 -0.43922779 -0.056096736 0
1.5016309 -0.41674986 -0.055636495 0
1.5097668 -0.3986035 -0.055747543 0
1.5233703 -0.38174334 -0.056067906 0
1.5166663 -0.35982972 -0.055649985 0
1.5270575 -0.34204417 -0.055868801 0
1.5448945 -0.32566726 -0.056366876 0
1.5374199 -0.30392534 -0.05595009 0
1.544802 -0.2852222 -0.056083586 0
1.5391065 -0.26417568 -0.055751625 0
1.5527405 -0.24643078 -0.05612864 0
1.547322 -0.22563572 -0.055825643 0
1.5633858 -0.20790994 -0.056306284 0
1.5509543 -0.18641461 -0.055769596 0
1.5605776 -0.16766638 -0.056035269 0
1.5663992 -0.1483667 -0.05617277 0
1.5584587 -0.12783767 -0.055825856 0
1.5568451 -0.10798965 -0.055714931 0
1.5611736 -0.08855392 -0.055825502 0
1.5596199 -0.068777606 -0.055734556 0
1.573248 -0.049540415 -0.056194823 0
1.5656141 -0.029573763 -0.055904415 0
1.5696719 -0.0098824259 -0.056040421 0
1.5706159 0.0098883696 -0.056074124 0
1.583588 0.02991328 -0.056546219 0
1.5684837 0.049390391 -0.056024648 0
1.5684271 0.069165997 -0.056049291 0
1.5746809 0.089320093 -0.056308508 0
1.5670063 0.10869447 -0.056078572 0
1.5693891 0.12873428 -0.056217402 0
1.5729244 0.14898475 -0.056406766 0
1.5595896 0.16756022 -0.055999793 0
1.5554163 0.18695091 -0.055930041 0
1.5566976 0.20702049 -0.056065403 0
1.5745566 0.22960715 -0.056808233 0
1.5517529 0.24627405 -0.05609294 0
1.5488567 0.26584923 -0.056104813 0
1.5423825 0.28477547 -0.055995747 0
1.5402148 0.30447787 -0.056051802 0
1.5403656 0.32471257 -0.056201637 0
1.5368508 0.34423777 -0.056227095 0
1.5297483 0.36293346 -0.056129999 0
1.5245566 0.38204062 -0.05611157 0
1.5135075 0.39959109 -0.055885665 0
1.5103887 0.41918042 -0.055960976 0
1.5103806 0.43973395 -0.056161381 0
1.4960036 0.45605817 -0.055835906 0
1.4853079 0.47331783 -0.055654746 0
1.4911337 0.49594104 -0.056102589 0
1.4878459 0.51574278 -0.056218777 0
1.4739892 0.53182167 -0.055943806 0
1.4722394 0.55223805 -0.056136869 0
1.4551607 0.5668329 -0.055753395 0
1.4504377 0.58613235 -0.055850789 0
1.4495244 0.60710531 -0.05610555 0
1.4426935 0.62571102 -0.056141671 0
1.4317039 0.64248186 -0.056024402 0
1.4236985 0.66054958 -0.056032188 0
1.4260581 0.6835953 -0.056459352 0
1.4114872 0.69860131 -0.056226302 0
1.3969285 0.71343249 -0.055999786 0
1.3739805 0.72366792 -0.055440754 0
1.3767902 0.74744177 -0.055929467 0
1.3681573 0.76521438 -0.05596577 0
1.3583425 0.78233939 -0.055962831 0
1.3474333 0.7988168 -0.055923365 0
1.3361381 0.8150298 -0.055876099 0
1.3334987 0.83663779 -0.056201831 0
1.3126504 0.8467766 -0.055768132 0
1.3117491 0.86977828 -0.056190699 0
1.2978507 0.88428885 -0.056067888 0
1.2855357 0.89980578 -0.056020912 0
1.271989 0.9144004 -0.055927914 0
1.2662346 0.9346692 -0.056187939 0
1.2522666 0.94894803 -0.05609392 0
1.2360923 0.96143061 -0.055907272 0
1.2319393 0.98334438 -0.056275025 0
1.2137411 0.99409389 -0.056011103 0
1.2073665 1.0145397 -0.056302015 0
1.1859804 1.0223205 -0.055900615 0
1.1679367 1.0326829 -0.055658642 0
1.1637677 1.055402 -0.056088861 0
1.1597077 1.0786411 -0.05654332 0
1.1348493 1.0824887 -0.055991471 0
1.1189315 1.0945419 -0.055881698 0
1.0998269 1.1032931 -0.055617005 0
1.0968872 1.1284102 -0.056182433 0
1.0739685 1.133034 -0.055734895 0
0.59423071 0.62691182 0.287377 0
1.0644947 1.1517441 -0.055991456 0
0.61264402 0.66285831 0.30029476 0
1.0478311 1.1627507 -0.055880666 0
1.0051545 1.1153938 0.053604733 0
1.0039697 1.114079 0.16117267 0
1.0046692 1.1148553 0.27065903 0
0.62366235 0.69206184 0.30994248 0
1.0374179 1.1807581 -0.056113817 0
0.98506427 1.1211706 0.053282011 0
0.98392123 1.1198697 0.1602053 0
0.97637075 1.111276 0.26678407 0
0.62130493 0.7071507 0.31317145 0
1.0304627 1.20306 -0.056552541 0
0.95910394 1.1197491 0.052636322 0
0.95690197 1.1171782 0.15808396 0
0.95670062 1.1169431 0.26523143 0
0.62479448 0.72944438 0.31953493 0
1.0046456 1.2032588 -0.055962775 0
0.93755859 1.1229091 0.052225765 0
0.93915945 1.1248264 0.1574803 0
0.93783498 1.1232401 0.26390153 0
0.62259871 0.74568331 0.32318851 0
0.9905948 1.2172624 -0.056029484 0
0.90697497 1.1145086 0.051299822 0
0.90338516 1.1100974 0.15381335 0
0.91129291 1.1198146 0.26038003 0
0.63280618 0.77760464 0.33354357 0
0.97584242 1.230462 -0.056066997 0
0.88304687 1.113454 0.050735433 0
0.8825978 1.1128877 0.15264794 0
0.88219929 1.1123853 0.25604919 0
0.6210466 0.78309184 0.33251643 0
0.96179962 1.2446282 -0.056156188 0
0.87223625 1.1287277 0.05092689 0
0.86036795 1.1133693 0.151216 0
0.86620545 1.1209234 0.2554836 0
0.61811846 0.79988354 0.33631483 0
0.94599128 1.2565591 -0.056152582 0
0.84416074 1.1212977 0.050108083 0
0.83908874 1.1145606 0.14993085 0
0.84413254 1.1212603 0.25311759 0
0.61031085 0.8106752 0.33759421 0
0.9290576 1.2669564 -0.056089971 0
0.82412463 1.1238593 0.049754854 0
0.81894153 1.1167911 0.14883189 0
0.81990469 1.1181046 0.25005472 0
0.60162473 0.820436 0.33847731 0
0.90836352 1.2720172 -0.055803206 0
0.81168139 1.1366295 0.049863767 0
0.81328106 1.1388695 0.15039751 0
0.81083238 1.1354406 0.2516284 0
0.58568287 0.82015485 0.33529207 0
0.89289397 1.2842437 -0.0558419 0
0.81505644 1.1722906 0.050973918 0
0.81354874 1.170122 0.15315966 0
0.80876452 1.1632409 0.25551212 0
0.585859 0.8426373 0.34144026 0
0.87622708 1.2947551 -0.055814773 0
0.81145263 1.1990412 0.051688705 0
0.81443387 1.2034466 0.15616685 0
0.8148734 1.204096 0.26221147 0
0.56878024 0.84045696 0.33762786 0
0.86324793 1.3108373 -0.056035005 0
0.81340563 1.235152 0.05279965 0
0.81006682 1.230082 0.158287 0
0.80245304 1.2185206 0.26313135 0
0.73681241 1.1188456 0.34179196 0
0.56751639 0.86177051 0.34329191 0
0.84457999 1.3183334 -0.05589639 0
0.81247222 1.2682152 0.053771418 0
0.81092328 1.2657975 0.16155605 0
0.79409778 1.239534 0.26548868 0
0.72045416 1.1245812 0.34074569 0
0.55071664 0.85963213 0.33965063 0
0.83182913 1.3351479 -0.056160744 0
0.81432199 1.3070475 0.054978751 0
0.81196237 1.3032602 0.16501945 0
0.77844393 1.2494606 0.26549426 0
0.69618607 1.1174306 0.33589619 0
0.54379511 0.8728317 0.34213325 0
0.8144176 1.3446333 -0.056123912 0
0.75653261 1.249063 0.26336467 0
0.67634732 1.1166742 0.33308232 0
0.53285956 0.87977064 0.34219593 0
0.40282777 0.66508341 0.46113285 0
0.80285162 1.3640051 -0.056506023 0
0.74135214 1.2595205 0.26358038 0
0.65854532 1.1188358 0.33122733 0
0.52422619 0.8906343 0.34382659 0
0.40846217 0.69395697 0.47754818 0
0.77820289 1.361045 -0.055973008 0
0.72702867 1.2715433 0.26415962 0
0.64244479 1.1236095 0.33021948 0
0.51150429 0.89460003 0.34284386 0
0.41765404 0.73045981 0.34838274 0
0.40956038 0.7163043 0.41284329 0
0.41097006 0.71876979 0.49102303 0
0.76109326 1.3708963 -0.055979572 0
0.71306878 1.2843937 0.26494285 0
0.62724251 1.1298018 0.32969189 0
0.50492674 0.90948415 0.34608391 0
0.41605794 0.74941188 0.35489485 0
0.40551373 0.7304194 0.4180024 0
0.40657815 0.7323367 0.49675432 0
0.74256796 1.3781368 -0.055888977 0
0.69709909 1.2937508 0.26504129 0
0.59846532 1.1106957 0.32189187 0
0.48921198 0.90793175 0.3431218 0
0.41528842 0.77073652 0.36248824 0
0.40852675 0.75818747 0.43091533 0
0.4091053 0.75926119 0.51148272 0
0.7301324 1.396897 -0.056272462 0
0.67916071 1.2993774 0.26442102 0
0.58304477 1.1154873 0.32112733 0
0.4795253 0.91743279 0.34440315 0
0.41415659 0.79236871 0.37018004 0
0.40791079 0.78041923 0.44059646 0
0.40737072 0.77938592 0.52154285 0
0.70745206 1.3960459 -0.055874888 0
0.66158986 1.305544 0.26395968 0
0.56025207 1.1055698 0.31621623 0
0.46669197 0.92094356 0.34348777 0
0.42289421 0.83451557 0.38735175 0
0.40771431 0.80456036 0.45129141 0
0.40831965 0.80575496 0.53570515 0
0.69194078 1.409166 -0.056046829 0
0.64365751 1.3108351 0.26336983 0
0.55392236 1.1280857 0.32063583 0
0.4604668 0.93775964 0.34756956 0
0.41695216 0.84914029 0.39167193 0
0.40858051 0.83209109 0.46381122 0
0.40652588 0.82790673 0.54698592 0
0.66936404 1.4077165 -0.05564953 0
0.5327149 1.1203344 0.31650093 0
0.44515345 0.93618691 0.34488168 0
0.40893269 0.86001229 0.39428031 0
0.40509203 0.85193515 0.47199166 0
0.40346399 0.84851128 0.55719829 0
0.65633547 1.4263544 -0.056055151 0
0.51491827 1.1190252 0.3142744 0
0.43224403 0.9393568 0.34401706 0
0.40848866 0.88773137 0.40459809 0
0.40978009 0.89053786 0.49048078 0
0.40644309 0.88328594 0.57662743 0
0.63198107 1.4202511 -0.055498149 0
0.49900028 1.1214033 0.31315279 0
0.41871247 0.94097251 0.34265068 0
0.40511504 0.91041505 0.41257882 0
0.40573022 0.91179758 0.49933645 0
0.40516397 0.91052496 0.59103215 0
0.6215536 1.445551 -0.056176484 0
0.48333532 1.1240959 0.31218034 0
0.41576934 0.96695727 0.35017869 0
0.40967479 0.95278323 0.42940724 0
0.40718549 0.94699377 0.51576245 0
0.40592393 0.94405979 0.60943377 0
0.600954 1.4476039 -0.055957749 0
0.46183565 1.1124897 0.30731764 0
0.41525409 1.0002819 0.36032483 0
0.4049857 0.97554702 0.43733358 0
0.41169363 0.99170542 0.53724778 0
0.40520218 0.97606856 0.62675333 0
0.58561587 1.4623892 -0.056239765 0
0.45178494 1.128189 0.31005839 0
0.41537741 1.0372728 0.37173617 0
0.40913603 1.0216869 0.45567217 0
0.40852407 1.0201588 0.54983169 0
0.40769887 1.0180981 0.65039331 0
0.56366587 1.4606024 -0.055893656 0
0.43329576 1.1227802 0.30704802 0
0.41703302 1.0806392 0.38536522 0
0.40919313 1.0603242 0.47056898 0
0.41020358 1.0629424 0.5700615 0
0.40824884 1.0578772 0.67246807 0
0.54756224 1.4738604 -0.0561327 0
0.41526717 1.1177648 0.30422235 0
0.4132193 1.1122527 0.39475203 0
0.40603161 1.0929058 0.48272127 0
0.40600342 1.0928299 0.58330226 0
0.40630245 1.0936347 0.69189119 0
0.52841592 1.4791119 -0.056074843 0
0.39808679 1.114302 0.3018916 0
0.40558538 1.1352916 0.40108439 0
0.40892312 1.1446344 0.50325489 0
0.40729859 1.1400871 0.60574049 0
0.51140881 1.4904819 -0.056257296 0
0.38549295 1.1235049 0.30304572 0
0.40705279 1.1863402 0.41727528 0
0.4076564 1.1880994 0.52006674 0
0.40591401 1.1830212 0.62578648 0
0.49192783 1.4947567 -0.056180384 0
0.59413314 1.8053144 0.34276477 0
0.36774144 1.1174078 0.30012828 0
0.40812126 1.2401047 0.43434399 0
0.40681908 1.2361479 0.53881383 0
0.40695566 1.2365628 0.65134621 0
0.46998852 1.4910623 -0.055814669 0
0.57509184 1.8245078 0.34500659 0
0.35461092 1.125021 0.30094993 0
0.4081535 1.2948875 0.45169565 0
0.40802714 1.2944866 0.56195855 0
0.41052279 1.3024042 0.68325037 0
0.45052207 1.4946889 -0.055733647 0
0.55164814 1.830193 0.34474078 0
0.33571836 1.1138068 0.29679567 0
0.40829971 1.3546085 0.47069734 0
0.4097831 1.35953 0.58790833 0
0.43317741 1.5054945 -0.055928737 0
0.52608842 1.8284038 0.34312871 0
0.319713 1.1111525 0.29499224 0
0.40860814 1.4201047 0.49162903 0
0.4066231 1.4132057 0.6088571 0
0.41431546 1.5112977 -0.055946074 0
0.30424008 1.109776 0.041082315 0
0.3100214 1.1308645 0.12601744 0
0.30557051 1.114629 0.20843902 0
0.30430883 1.1100267 0.29365277 0
0.40328592 1.4710652 0.50747287 0
0.40313324 1.4705083 0.6313079 0
0.39763349 1.5255252 -0.056282941 0
0.29261461 1.1226192 0.041418068 0
0.29209155 1.1206125 0.12445528 0
0.29133487 1.1177095 0.20831254 0
0.28967178 1.1113291 0.2930091 0
0.39811248 1.5273628 0.52512282 0
0.39774001 1.525934 0.65290087 0
0.37765503 1.5274231 -0.05617306 0
0.27754304 1.122521 0.041282233 0
0.27847785 1.1263018 0.12468781 0
0.27518192 1.1129714 0.20676726 0
0.27691299 1.1199727 0.29434538 0
0.39368936 1.592274 0.54569227 0
0.39255229 1.5876751 0.67714936 0
0.35644042 1.5237105 -0.055867024 0
0.26318496 1.1250623 0.041250546 0
0.26353365 1.1265529 0.12433838 0
0.2615065 1.1178873 0.20705236 0
0.2624577 1.1219534 0.29397401 0
0.38402739 1.6416391 0.56090856 0
0.33658329 1.5251617 -0.055760417 0
0.24750406 1.1215165 0.041003011 0
0.24758814 1.1218976 0.12347067 0
0.24561688 1.1129651 0.20555155 0
0.24391727 1.1052637 0.28877333 0
0.37117445 1.6819049 0.57302403 0
0.31822351 1.5334738 -0.055913374 0
0.23387507 1.1270107 0.041092955 0
0.23248902 1.1203315 0.12296639 0
0.23240344 1.1199192 0.20627904 0
0.23447338 1.1298938 0.29441369 0
0.3566553 1.7186711 0.58397382 0
0.29936713 1.5398133 -0.056002632 0
0.21790038 1.120784 0.040762641 0
0.21659115 1.1140499 0.1219679 0
0.21839668 1.1233368 0.20638563 0
0.21816169 1.1221281 0.29165128 0
0.3448875 1.7739501 0.60123336 0
0.27715048 1.527997 -0.055441555 0
0.20432511 1.1264933 0.040873468 0
0.20316498 1.1200973 0.12234019 0
0.20380776 1.123641 0.20595369 0
0.20418783 1.1257364 0.29189768 0
0.33134073 1.8267609 0.61766911 0
0.25989676 1.5432867 -0.055873148 0
0.18946892 1.1250808 0.040732425 0
0.1875767 1.1138448 0.12138966 0
0.18728338 1.112103 0.20339048 0
0.18857467 1.1197708 0.28971213 0
0.31417927 1.8656204 0.62942082 0
0.24018997 1.544801 -0.055814046 0
0.1714991 1.1030102 0.039852034 0
0.17410573 1.1197749 0.12178736 0
0.17241347 1.108891 0.20238994 0
0.17324352 1.1142296 0.2876913 0
0.29418528 1.8920761 0.6370461 0
0.22196896 1.5564605 -0.056129873 0
0.16039424 1.1246946 0.04055931 0
0.15809798 1.1085931 0.12034516 0
0.1606819 1.1267118 0.20525695 0
0.15787371 1.1070205 0.28529403 0
0.27504781 1.9286526 0.64814359 0
0.20224485 1.5582937 -0.056099694 0
0.14637432 1.127812 0.040602043 0
0.14621109 1.1265544 0.12208543 0
0.14667955 1.1301639 0.20553306 0
0.14582242 1.1235597 0.28906026 0
0.25627542 1.9745985 0.66244715 0
0.18268718 1.5613933 -0.056124013 0
0.13178277 1.1263227 0.040485479 0
0.13181734 1.1266183 0.12190281 0
0.13141614 1.1231893 0.20394753 0
0.13150729 1.1239684 0.28871647 0
0.23486985 2.0073891 0.67240238 0
0.16306818 1.5641003 -0.056143057 0
0.1183767 1.1354333 0.1226856 0
0.12005734 1.1515535 0.20880681 0
0.12055409 1.1563182 0.29661277 0
0.21232718 2.0365777 0.68122995 0
0.14239398 1.5554625 -0.055764221 0
0.11957906 1.3062403 0.14096773 0
0.11936863 1.3039415 0.23614748 0
0.12020154 1.31304 0.33639932 0
0.18908545 2.0655038 0.69005454 0
0.12357912 1.5670429 -0.056119151 0
0.17045893 2.1615016 0.2330163 0
0.16547768 2.0983369 0.37960726 0
0.16493696 2.0914803 0.53526032 0
0.10397305 1.5705093 -0.056191947 0
0.14169075 2.1402338 0.38683331 0
0.14061357 2.1239631 0.54307723 0
0.084143445 1.5708213 -0.056160748 0
0.11626824 2.1705389 0.39201507 0
0.1147136 2.1415164 0.5471527 0
0.064381771 1.572331 -0.056181282 0
0.089287348 2.1805747 0.39359334 0
0.089324668 2.1814861 0.55703336 0
0.044432364 1.5678387 -0.055996336 0
0.024188815 0.85352564 0.35353217 0
0.024099952 0.85038996 0.42565513 0
0.024680657 1.5678166 -0.055980008 0
0.013393905 0.85083586 0.35232025 0
0.013295283 0.84457093 0.42262515 0
0.0049388018 1.5682604 -0.055989195 0
0.0026168912 0.83096403 0.41576678 0
0.0026117626 0.82933557 0.49183816 0
-0.014835458 1.5711181 -0.056093447 0
-0.0077588786 0.82168782 0.41114178 0
-0.0077525415 0.82101673 0.48692396 0
-0.034511477 1.5660384 -0.055923164 0
-0.018479103 0.83853221 0.34726676 0
-0.018472089 0.83821392 0.41949394 0
-0.017799821 0.80770814 0.47912595 0
-0.054298755 1.5675495 -0.055997103 0
-0.08040572 2.3212309 0.41888201 0
-0.07988552 2.3062131 0.58874172 0
-0.02714937 0.7837745 0.46509463 0
-0.074167691 1.5696175 -0.056099895 0
-0.1102184 2.3325617 0.42114383 0
-0.11045802 2.3376329 0.59707046 0
-0.09432672 1.5752646 -0.056339715 0
-0.14040115 2.3447118 0.42362314 0
-0.14025432 2.3422596 0.59865582 0
-0.046587195 0.77801037 0.46222389 0
-0.11314975 1.5601091 -0.055844206 0
-0.17155878 2.3654532 0.42772692 0
-0.17183977 2.3693275 0.6060791 0
-0.13330846 1.5647115 -0.056064591 0
-0.20232487 2.3747933 0.42984244 0
-0.20336376 2.3869874 0.61120313 0
-0.15275666 1.5604283 -0.055975605 0
-0.23488095 2.3993382 0.43478596 0
-0.23464441 2.3969219 0.61445475 0
-0.17252234 1.5595573 -0.05601785 0
-0.26650116 2.4091017 0.43712866 0
-0.26641533 2.4083257 0.61818916 0
-0.086375669 0.78081369 0.46588466 0
-0.19273788 1.5620635 -0.056190588 0
-0.29713911 2.4081938 0.43760815 0
-0.29840782 2.4184761 0.62170982 0
-0.21242806 1.5597858 -0.056200426 0
-0.33215958 2.4389331 0.44391885 0
-0.33043519 2.4262714 0.62473387 0
-0.23043339 1.5461351 -0.055808701 0
-0.36307603 2.4361253 0.44420472 0
-0.36205137 2.42925 0.62662506 0
-0.25189927 1.5555633 -0.056259055 0
-0.39605251 2.4457583 0.44683516 0
-0.39534667 2.4413996 0.63099313 0
-0.27210766 1.5559388 -0.056392085 0
-0.43034935 2.4607809 0.45053408 0
-0.42970395 2.4570901 0.63639653 0
-0.2875689 1.5305235 -0.05559779 0
-0.45961893 2.4462228 0.44889277 0
-0.46089137 2.4529953 0.63678855 0
-0.30856571 1.5354822 -0.055914626 0
-0.52128541 2.5940161 0.094461173 0
-0.52079093 2.5915554 0.28408068 0
-0.49445245 2.4604902 0.45261756 0
-0.49428272 2.4596455 0.64007998 0
-0.32878017 1.535704 -0.05606902 0
-0.54404634 2.5411937 0.092779763 0
-0.5447619 2.5445361 0.27965632 0
-0.52855784 2.4688485 0.45534334 0
-0.53035295 2.4772332 0.64634353 0
-0.34812701 1.5316032 -0.056074902 0
-0.57823694 2.5439839 0.093140095 0
-0.5753395 2.5312364 0.27896872 0
-0.56291151 2.4765589 0.45803645 0
-0.55993509 2.463464 0.64453954 0
-0.36698061 1.5254211 -0.056013312 0
-0.60569137 2.5176654 0.092448421 0
-0.60725504 2.5241649 0.27901 0
-0.59504652 2.4734182 0.45880502 0
-0.59344959 2.4667802 0.64731103 0
-0.38568202 1.5188034 -0.055944208 0
-0.6414566 2.5260355 0.093044996 0
-0.6427049 2.530951 0.28063244 0
-0.62760389 2.4714839 0.4598757 0
-0.62755781 2.4713025 0.65051985 0
-0.40601814 1.5184759 -0.056116018 0
-0.68388039 2.5576589 0.094519533 0
-0.68821913 2.5738854 0.28633121 0
-0.66058755 2.4705455 0.46121234 0
-0.66092741 2.4718165 0.65279418 0
-0.42369139 1.5082099 -0.055929366 0
-0.69490838 2.4736581 0.46339026 0
-0.69363379 2.469121 0.65433711 0
-0.44313249 1.5044004 -0.055990584 0
-0.72844279 2.4730067 0.46494967 0
-0.72786528 2.4710462 0.65722406 0
-0.46093318 1.4951128 -0.055856507 0
-0.76114446 2.4688976 0.46594214 0
-0.7575596 2.4572694 0.65604508 0
-0.47974747 1.4892699 -0.055859484 0
-0.79159707 2.4573379 0.46560484 0
-0.79395264 2.4646502 0.66063237 0
-0.49945322 1.4860629 -0.055970658 0
-0.82592857 2.4574511 0.46755981 0
-0.82898748 2.4665525 0.66388768 0
-0.52001613 1.4850571 -0.056174949 0
-0.85572308 2.4437659 0.46696919 0
-0.85370904 2.4380143 0.65904766 0
-0.54007465 1.4822371 -0.056321062 0
-0.88667637 2.4334869 0.46710151 0
-0.88884515 2.4394393 0.66240591 0
-0.55742818 1.4719741 -0.056193355 0
-0.92389035 2.4396734 0.47048476 0
-0.91663325 2.4205101 0.66034776 0
-0.57648182 1.466273 -0.056248374 0
-0.94757038 2.4101315 0.46705168 0
-0.95130998 2.4196429 0.66332668 0
-0.59196693 1.4517095 -0.055971209 0
-0.98159659 2.4072175 0.46884513 0
-0.98236793 2.4091091 0.66377747 0
-0.60691166 1.4363613 -0.055669699 0
-1.01626 2.4051549 0.47089851 0
-1.0146885 2.4014356 0.66513097 0
-0.63088161 1.4421673 -0.056198161 0
-1.046008 2.3911276 0.47069365 0
-1.0430909 2.3844593 0.66401434 0
-0.64738595 1.4305643 -0.056059245 0
-1.0725132 2.3699913 0.46915427 0
-1.0770433 2.3800015 0.66649693 0
-0.66003084 1.4109349 -0.055611312 0
-1.1034528 2.3588293 0.46965802 0
-1.1023645 2.356503 0.66375107 0
-0.68193209 1.4111794 -0.055954967 0
-1.1279796 2.3342233 0.4675498 0
-1.1341699 2.347033 0.66505367 0
-0.70690936 1.4170401 -0.056535825 0
-1.1605455 2.3263795 0.46886873 0
-1.1594381 2.3241599 0.66265678 0
-0.71551943 1.3901983 -0.055819966 0
-1.1910568 2.3141303 0.4693855 0
-1.1873395 2.3069079 0.66194832 0
-0.73573893 1.3863019 -0.056031063 0
-1.2166415 2.2924333 0.46805495 0
-1.2150789 2.289489 0.66128802 0
-0.74749869 1.366622 -0.055611674 0
-1.2484511 2.2824931 0.46919802 0
-1.2446204 2.2754898 0.6617189 0
-0.76799589 1.3630456 -0.055855248 0
-1.0475315 1.8591677 0.076185472 0
-1.2736169 2.260426 0.46792147 0
-1.2715794 2.2568099 0.6608907 0
-0.79234678 1.3657633 -0.056371 0
-1.0527111 1.8145517 0.074894451 0
-1.2929814 2.2287042 0.46468839 0
-1.2954272 2.2329199 0.6586194 0
-0.80060273 1.3408103 -0.055752762 0
-1.0524116 1.7625272 0.073288344 0
-1.3238341 2.2170925 0.46570614 0
-1.3200132 2.2106934 0.65691417 0
-0.81913483 1.3334121 -0.055869605 0
-1.0545853 1.7166854 0.07192865 0
-1.3477144 2.1938498 0.46435186 0
-1.3517966 2.2004948 0.65888959 0
-0.83523631 1.3220066 -0.055827975 0
-1.0517184 1.6646531 0.070297837 0
-1.3708446 2.169764 0.46287084 0
-1.3700194 2.168458 0.65441054 0
-0.8531248 1.3134005 -0.055913769 0
-1.0530658 1.6212132 0.069017895 0
-1.3986999 2.1533229 0.46308404 0
-1.3852535 2.1326218 0.64880848 0
-0.86920035 1.3019642 -0.055888426 0
-1.0534708 1.5779805 0.067736775 0
-1.4136715 2.1175203 0.45917639 0
-1.4103305 2.1125162 0.64804322 0
-0.88923758 1.2963293 -0.056122757 0
-1.0459111 1.5247276 0.066010945 0
-1.428763 2.0828485 0.45552316 0
-1.4359397 2.0933108 0.64764714 0
-0.90381467 1.2826531 -0.056018952 0
-1.0477468 1.486915 0.064939946 0
-1.4505434 2.0585458 0.45416683 0
-1.4538783 2.0632787 0.64396858 0
-0.92541015 1.278795 -0.056354921 0
-1.0502498 1.4513071 0.063957311 0
-1.0505456 1.4517158 0.19258082 0
-1.4754224 2.0388396 0.45388207 0
-1.4714792 2.0333905 0.64037263 0
-0.51152939 0.70686626 0.43656576 0
-0.93337625 1.2561911 -0.055872317 0
-1.04756 1.4098662 0.062707409 0
-1.0552702 1.420243 0.19015342 0
-1.4879938 2.0026274 0.44995615 0
-1.4926765 2.0089295 0.63853794 0
-0.52499783 0.70657212 0.44043207 0
-0.95343465 1.249997 -0.05612636 0
-1.0511044 1.3780465 0.061875936 0
-1.0547462 1.3828211 0.1869065 0
-1.5131074 1.9837539 0.44996092 0
-1.5060625 1.9745177 0.63357782 0
-0.53151 0.69683421 0.43849924 0
-0.97010463 1.2391788 -0.056184653 0
-1.0506091 1.3420124 0.060847156 0
-1.0462112 1.3363948 0.18239757 0
-1.5305657 1.9550928 0.44779602 0
-1.5280541 1.9518845 0.63243943 0
-0.53935087 0.68894851 0.43777609 0
-0.98210502 1.2224773 -0.055983689 0
-1.0506936 1.3078532 0.0598935 0
-1.0519691 1.3094409 0.18051241 0
-1.5457884 1.9241236 0.44512576 0
-1.5439517 1.9218374 0.62895328 0
-0.55938274 0.69629288 0.44688329 0
-0.99571395 1.2079453 -0.055887952 0
-1.0538416 1.2784626 0.059150573 0
-1.0495969 1.2733132 0.17733999 0
-1.5604918 1.8931028 0.44246018 0
-1.5659533 1.8997282 0.6281212 0
-0.57002968 0.69152862 0.44839683 0
-1.0158291 1.2012066 -0.056163542 0
-1.0490674 1.2405105 0.058001231 0
-1.0457842 1.2366283 0.17405097 0
-1.5770161 1.8648039 0.44045249 0
-1.5731885 1.8602779 0.62157804 0
-0.58252484 0.68882912 0.45136699 0
-1.0256705 1.1823236 -0.055880092 0
-1.0528679 1.2136748 0.057361841 0
-1.0496398 1.2099537 0.17214327 0
-1.5948102 1.8383893 0.43892199 0
-1.5919909 1.8351394 0.61982757 0
-1.0403529 1.1691769 -0.055873476 0
-1.0663905 1.1984388 0.057271861 0
-1.0665258 1.1985908 0.17242368 0
-1.6046258 1.8033222 0.4353393 0
-1.6030474 1.8015482 0.61525112 0
-1.0569314 1.1581103 -0.055976201 0
-1.0955491 1.2004247 0.05802143 0
-1.0861862 1.1901655 0.17316552 0
-1.6114608 1.7657241 0.43112719 0
-1.6103231 1.7644775 0.60946769 0
-1.0779332 1.1516588 -0.056315973 0
-0.9423548 1.0068074 0.049232762 0
-1.1299061 1.2071863 0.17769803 0
-1.6256145 1.7367989 0.42902875 0
-1.6253638 1.736531 0.60683608 0
-1.081376 1.1265638 -0.055750281 0
-0.94176018 0.98111391 0.048552398 0
-1.1439294 1.1917312 0.17752932 0
-1.6332953 1.7015465 0.42536739 0
-1.6361768 1.7045485 0.60281169 0
-1.1046419 1.122171 -0.056216795 0
-0.94807547 0.96312016 0.048248909 0
-1.1839987 1.2027872 0.18138289 0
-1.6466087 1.6727382 0.42331544 0
-1.6435629 1.669644 0.59773952 0
-1.1156672 1.1051852 -0.056065205 0
-0.96170294 0.95266736 0.048328098 0
-1.2080261 1.1966763 0.18274082 0
-1.6515784 1.6360612 0.41926348 0
-1.6535113 1.6379759 0.59380925 0
-1.1245838 1.0863065 -0.05582146 0
-0.97845322 0.94514966 0.04856791 0
-1.2437266 1.201394 0.18583812 0
-1.6523201 1.5960802 0.41431686 0
-1.6636386 1.6070135 0.5901323 0
-1.140975 1.0747001 -0.055958901 0
-1.0034847 0.94519609 0.049215715 0
-1.271376 1.1975266 0.18770142 0
-1.6571388 1.560882 0.41056415 0
-1.6618516 1.565321 0.58246034 0
-1.1522058 1.0582184 -0.05585175 0
-1.3031838 1.1968809 0.063170217 0
-1.3090651 1.2022824 0.19101544 0
-1.6637282 1.5280151 0.40739733 0
-1.6585236 1.523235 0.57452565 0
-0.66568249 0.61138165 0.37422085 0
-1.1566504 1.0357571 -0.055430584 0
-1.3336685 1.1942732 0.063913882 0
-1.3308161 1.1917191 0.19198439 0
-1.6663125 1.4921492 0.40339717 0
-1.6660511 1.4919152 0.57058024 0
-0.66178352 0.59261376 0.36780483 0
-1.1791587 1.0294565 -0.05588359 0
-1.3735359 1.199156 0.065095663 0
-1.6699263 1.4579177 0.39979598 0
-1.6705613 1.458472 0.5657903 0
-0.67677259 0.59085166 0.37197086 0
-1.1897553 1.012594 -0.055777073 0
-1.4149305 1.2042394 0.06633354 0
-1.6711799 1.4223318 0.39577684 0
-1.6687747 1.4202847 0.5590837 0
-0.656551 0.55878687 0.35696095 0
-0.69281882 0.58965421 0.45519686 0
-1.1964487 0.99258715 -0.055500507 0
-1.4494092 1.202446 0.067234762 0
-1.6793312 1.3931918 0.39352137 0
-1.6660945 1.3822105 0.55231082 0
-0.6760062 0.56082225 0.3636702 0
-1.2210468 0.98730433 -0.056060407 0
-1.4753737 1.192946 0.067737006 0
-1.6784985 1.3571869 0.38929063 0
-1.6705937 1.3507954 0.5481202 0
-0.68732196 0.5557493 0.36596394 0
-1.2304308 0.96952671 -0.055926297 0
-1.5123316 1.1916524 0.068739422 0
-1.6847886 1.3275411 0.38684177 0
-1.6752896 1.3200563 0.544164 0
-0.70137769 0.55265552 0.36971319 0
-1.239576 0.95168096 -0.05579285 0
-1.5623118 1.1994605 0.070319064 0
-1.684952 1.2936172 0.38310874 0
-1.6753557 1.2862496 0.53888172 0
-0.69529104 0.53380775 0.36293277 0
-0.68893498 0.52892786 0.43457538 0
-1.2531825 0.93728572 -0.055869624 0
-1.6013712 1.1977044 0.071392633 0
-1.6709001 1.2497069 0.37630585 0
-1.6693496 1.2485471 0.5318507 0
-0.69920927 0.5229556 0.36151198 0
-0.71111482 0.53186005 0.44430643 0
-1.2686371 0.92416579 -0.056035358 0
-1.6415025 1.1957875 0.072504722 0
-1.6788124 1.2229667 0.37458986 0
-1.6732357 1.2189043 0.52815688 0
-1.6703084 1.2167718 0.68751585 0
-0.68792218 0.50113159 0.35238567 0
-0.71355236 0.51980245 0.44170481 0
-1.2716867 0.90209895 -0.055663902 0
-1.6834579 1.1941979 0.073687837 0
-1.680328 1.1919776 0.37154952 0
-1.6730368 1.1868056 0.5233354 0
-1.6715069 1.1857203 0.68180943 0
-0.71207356 0.50512505 0.36147025 0
-0.71037543 0.5039205 0.43577567 0
-1.2929806 0.89294648 -0.056099351 0
-1.7299124 1.1946963 0.075056784 0
-1.6780033 1.1588473 0.36777967 0
-1.6746107 1.1565044 0.51923114 0
-1.6713729 1.1542684 0.67577243 0
-0.7197957 0.49709874 0.43767986 0
-1.3004982 0.87416017 -0.055943497 0
-1.7091683 1.1488572 0.073523246 0
-1.7013912 1.1436297 0.22031525 0
-1.6859132 1.1332258 0.3663567 0
-1.6660872 1.1198993 0.51217526 0
-1.6674979 1.1208475 0.66844612 0
-0.72380972 0.48652554 0.43636081 0
-1.3089825 0.85613358 -0.055840284 0
-1.6948198 1.1084886 0.072299838 0
-1.7046342 1.1149076 0.21889988 0
-1.6743506 1.0951009 0.36081892 0
-1.6736904 1.0946691 0.51023471 0
-1.6652412 1.0891429 0.66199124 0
-0.73074275 0.47793874 0.43687764 0
-1.3230697 0.84175432 -0.055984631 0
-1.7108529 1.0884671 0.072393358 0
-1.7108054 1.0884368 0.21791504 0
-1.6905721 1.0755643 0.36136732 0
-1.6761611 1.0663958 0.506854 0
-1.6783123 1.0677643 0.66178989 0
-0.72784722 0.46306595 0.4316262 0
-1.3408464 0.82953423 -0.056290373 0
-1.7274411 1.0687066 0.072520092 0
-1.7156475 1.0614103 0.21681218 0
-1.6847179 1.0422753 0.35728219 0
-1.6676434 1.0317119 0.50031018 0
-1.6747617 1.0361158 0.65519321 0
-1.3492467 0.8114199 -0.056209624 0
-1.739761 1.0462704 0.072478451 0
-1.7382054 1.0453348 0.21798216 0
-1.6872474 1.0146893 0.35508081 0
-1.6712884 1.0050917 0.49756721 0
-1.6615977 0.99926388 0.64506948 0
-1.3559663 0.79238588 -0.056069441 0
-1.7595986 1.0282564 0.072759703 0
-1.7650561 1.0314456 0.2197032 0
-1.6841484 0.98416555 0.35179266 0
-1.6766919 0.97980821 0.49546346 0
-1.6756731 0.97921288 0.64569575 0
-1.3701468 0.77769661 -0.056246407 0
-1.8226588 1.0345429 0.074822649 0
-1.8151814 1.0302987 0.22430979 0
-1.69017 0.95934212 0.35049933 0
-1.6723806 0.9492448 0.49061844 0
-1.6682334 0.94689089 0.63818383 0
-1.3684428 0.75410783 -0.055782214 0
-1.6773939 0.92436153 0.34540868 0
-1.6714858 0.9211058 0.48691466 0
-1.6676961 0.91901737 0.63350099 0
-1.3764076 0.7360574 -0.055724651 0
-1.6857733 0.90149593 0.34476927 0
-1.6665436 0.89121252 0.4821676 0
