# .PCD v0.7 - Point Cloud Data file format
VERSION 0.7
FIELDS x y z intensity
SIZE 4 4 4 4
TYPE F F F F
COUNT 1 1 1 1
WIDTH 1352
HEIGHT 1
VIEWPOINT 0 0 0 1 0 0 0
POINTS 1352
DATA ascii
-0.95053095 -0.19413467 0.1042617 0
-0.94464052 -0.19293161 0.17388161 0
-1.6777875 -0.34266821 0.43689394 0
-1.6740136 -0.3418974 0.56843168 0
-1.5291038 -0.33241099 -0.055866022 0
-0.94445467 -0.20531446 0.034505785 0
-0.93992925 -0.20433067 0.10337284 0
-0.94774783 -0.20603035 0.17491727 0
-1.6707768 -0.36320922 0.43622473 0
-1.671994 -0.3634738 0.56925493 0
-1.5304796 -0.35294834 -0.056074213 0
-0.93694878 -0.2160725 0.034328241 0
-0.93850702 -0.21643184 0.10350796 0
-0.93561119 -0.21576403 0.17316502 0
-1.6781108 -0.38699403 0.43937707 0
-1.6754847 -0.38638839 0.57205456 0
-1.5229963 -0.37147924 -0.055966992 0
-0.95081699 -0.23191702 0.034940574 0
-0.93973577 -0.22921416 0.10395356 0
-0.95727545 -0.23349234 0.17770478 0
-1.6762021 -0.4088482 0.44019037 0
-1.6723015 -0.40789679 0.572676 0
-1.5147355 -0.38973522 -0.055839337 0
-0.99214554 -0.25527498 0.036574539 0
-0.9907977 -0.25492817 0.10994842 0
-1.0018095 -0.25776148 0.18655966 0
-1.6669743 -0.42890564 0.43915054 0
-1.673385 -0.43055511 0.57485807 0
-1.5144837 -0.41006973 -0.056015972 0
-1.0499859 -0.28429982 0.038835663 0
-1.0515312 -0.28471822 0.11707655 0
-1.6749569 -0.45352033 0.31295365 0
-1.675108 -0.45356122 0.44276279 0
-1.6732752 -0.45306498 0.57673448 0
-1.5148693 -0.43071824 -0.056226384 0
-1.1149591 -0.31701297 0.041383184 0
-1.1306714 -0.32148039 0.12632866 0
-1.6811582 -0.47799867 0.31521192 0
-1.6787446 -0.47731239 0.44527739 0
-1.6696754 -0.47473377 0.57750839 0
-1.5057271 -0.44868571 -0.056092314 0
-1.2028438 -0.35843071 0.04480911 0
-1.2084332 -0.36009628 0.13551278 0
-1.6686083 -0.49722207 0.31400794 0
-1.6613482 -0.49505866 0.44228157 0
-1.6730129 -0.49853456 0.58078808 0
-1.4972435 -0.46676278 -0.055990797 0
-1.3020461 -0.40591037 0.048691209 0
-1.3058213 -0.40708727 0.146997 0
-1.668026 -0.52000386 0.31510559 0
-1.6746409 -0.52206606 0.44753492 0
-1.6872283 -0.52599019 0.58797568 0
-1.4883932 -0.48464841 -0.05588362 0
-1.4217997 -0.4629643 0.05338328 0
-1.4221014 -0.46306255 0.16073036 0
-1.6703304 -0.54389054 0.31680959 0
-1.6723239 -0.54453969 0.44871268 0
-1.6746863 -0.54530889 0.58595139 0
-1.4782267 -0.50201052 -0.055734832 0
-1.554974 -0.52807415 0.0586285 0
-1.5579019 -0.52906847 0.17681792 0
-1.6746423 -0.56871384 0.31896043 0
-1.6642468 -0.56518352 0.44841948 0
-1.4794773 -0.52330291 -0.056025997 0
-1.7361635 -0.61409491 0.19791213 0
-1.6773788 -0.59330225 0.32087913 0
-1.6716949 -0.59129184 0.45239663 0
-1.4527307 -0.53451622 -0.055263635 0
-1.7011586 -0.62592256 0.19480482 0
-1.6667179 -0.61325049 0.32029161 0
-1.673705 -0.6158213 0.45500308 0
-1.4611275 -0.55859268 -0.055846214 0
-1.6770037 -0.64112264 0.19294794 0
-1.6776131 -0.64135563 0.32391164 0
-1.6763403 -0.64086902 0.45787704 0
-1.4625993 -0.58036655 -0.056177337 0
-1.6830052 -0.66782475 0.19459057 0
-1.6750463 -0.66466659 0.32500625 0
-1.673568 -0.66407996 0.45936745 0
-1.4585534 -0.60012621 -0.056307733 0
-1.6916496 -0.69603425 0.19658782 0
-1.6734397 -0.68854177 0.32635093 0
-1.6773103 -0.69013435 0.46274334 0
-1.4414091 -0.61440593 -0.055940118 0
-1.682783 -0.71729243 0.19659148 0
-1.6704738 -0.71204561 0.32749513 0
-1.6794329 -0.71586442 0.46577889 0
-1.4422673 -0.63634866 -0.056279939 0
-1.685635 -0.7437259 0.19800307 0
-1.6719118 -0.73767108 0.32957202 0
-1.6597799 -0.73231822 0.46284908 0
-1.4276762 -0.65150809 -0.056026258 0
-1.6704835 -0.76231116 0.19733521 0
-1.6701517 -0.76215982 0.33109066 0
-1.6741298 -0.7639752 0.46949622 0
-1.4236022 -0.67143357 -0.056193717 0
-1.6672307 -0.78633952 0.19810496 0
-1.6742743 -0.78966159 0.33385265 0
-1.6788017 -0.79179686 0.47356498 0
-1.4092623 -0.68649304 -0.055964466 0
-1.9283985 -0.93937957 0.076580346 0
-1.671456 -0.8142153 0.19980943 0
-1.6742635 -0.81558293 0.3358717 0
-1.6687651 -0.81290448 0.47358373 0
-1.3967781 -0.70230818 -0.055815466 0
-1.8911251 -0.95086873 0.075569652 0
-1.6748939 -0.8421464 0.20147212 0
-1.6699486 -0.83965987 0.33710048 0
-1.6718345 -0.84060812 0.47742096 0
-1.3893415 -0.72062647 -0.055876479 0
-1.8313648 -0.94989598 0.073653758 0
-1.6782943 -0.8705011 0.20318361 0
-1.6740298 -0.86828917 0.34010443 0
-1.3847409 -0.74051374 -0.056062032 0
-1.7825432 -0.95324522 0.072167277 0
-1.6760532 -0.89629787 0.20426248 0
-1.6738291 -0.89510858 0.34232649 0
-1.3703896 -0.75518066 -0.055861574 0
-1.7390397 -0.95833266 0.070888959 0
-1.6691206 -0.91980231 0.2048129 0
-1.6820575 -0.9269315 0.346369 0
-1.367955 -0.77645254 -0.05615643 0
-1.6927541 -0.96080887 0.069489881 0
-1.6646017 -0.94482952 0.20570201 0
-1.6732177 -0.94971991 0.34698382 0
-1.3553417 -0.79202086 -0.056043614 0
-1.6754819 -0.97910112 0.069281466 0
-1.6746794 -0.97863215 0.20845366 0
-1.6654224 -0.97322273 0.34788111 0
-1.3475077 -0.81037414 -0.056137182 0
-1.6834118 -1.0123826 0.070130952 0
-1.6743193 -1.0069145 0.20997041 0
-1.6749853 -1.007315 0.35250026 0
-1.3376213 -0.82753897 -0.056154981 0
-1.6797297 -1.0391893 0.070517108 0
-1.6787539 -1.0385855 0.2121498 0
-1.6737181 -1.0354701 0.35494944 0
-1.3199004 -0.83973795 -0.055850521 0
-1.6937969 -1.0776159 0.07167165 0
-1.6849892 -1.0720123 0.21462668 0
-1.6804008 -1.0690931 0.35919318 0
-1.3099093 -0.85673982 -0.055879824 0
-1.3225615 -0.86501491 0.056419555 0
-1.6677419 -1.0907785 0.21416236 0
-1.6769843 -1.0968235 0.36138648 0
-1.3047655 -0.87702847 -0.05612706 0
-1.3074081 -0.87880474 0.056240737 0
-1.6731095 -1.1246195 0.21665302 0
-1.6650726 -1.1192173 0.36182794 0
-1.291149 -0.89168161 -0.056019884 0
-1.3963907 -0.96436262 0.060586069 0
-1.6657403 -1.1503783 0.2175573 0
-1.679336 -1.1597677 0.36807176 0
-1.2817596 -0.90924442 -0.056104813 0
-1.4528418 -1.0306053 0.063593373 0
-1.675192 -1.1883343 0.22072862 0
-2.0441606 -1.4500703 0.45199916 0
-1.264421 -0.92109448 -0.055849139 0
-1.4864752 -1.0828546 0.065657213 0
-1.3806816 -1.005787 0.18357722 0
-1.9995368 -1.4566052 0.44615242 0
-1.2514566 -0.9359948 -0.055792674 0
-1.2395755 -0.92710865 0.05526299 0
-1.3462583 -1.0068994 0.18067177 0
-1.2471901 -0.95752674 -0.056135561 0
-1.221848 -0.93807036 0.054994918 0
-1.329525 -1.0207391 0.18013678 0
-1.2272727 -0.96703827 -0.055782754 0
-1.2061455 -0.95039088 0.054822464 0
-1.3424093 -1.0577608 0.18367258 0
-1.593547 -1.2556467 0.36589193 0
-1.2242798 -0.98991841 -0.056208838 0
-1.2102261 -0.9785549 0.055563603 0
-1.4023702 -1.1339173 0.19381489 0
-1.57183 -1.2709378 0.36455125 0
-1.2083449 -1.0024564 -0.056052346 0
-1.3080639 -1.0851843 0.06067808 0
-1.6663138 -1.3823924 0.23268059 0
-1.7621328 -1.4618849 0.41292444 0
-1.1980994 -1.0196956 -0.056168251 0
-1.3265923 -1.1290553 0.062192149 0
-1.6768895 -1.4271913 0.23664813 0
-1.7546993 -1.4934148 0.41555631 0
-1.4651335 -1.246967 0.49085855 0
-1.17542 -1.0261924 -0.055706408 0
-1.716382 -1.4984756 0.41091791 0
-1.4283109 -1.2469771 0.48374429 0
-1.1656806 -1.0438435 -0.055863343 0
-1.625 -1.4551548 0.077875473 0
-1.6285059 -1.4582942 0.23492931 0
-1.621405 -1.4519355 0.39252555 0
-1.4051954 -1.2583241 0.48124376 0
-1.1587228 -1.0642039 -0.056167651 0
-1.360674 -1.2496816 0.47134823 0
-1.1467954 -1.0801823 -0.056244358 0
-1.3215972 -1.2448306 0.46320498 0
-1.1190495 -1.0809606 -0.055546753 0
-1.2832464 -1.2395687 0.45519811 0
-1.1133411 -1.1028808 -0.055948313 0
-1.2701998 -1.2582657 0.45615438 0
-1.1069775 -1.1245437 -0.056335658 0
-1.2552686 -1.275188 0.45652261 0
-1.085521 -1.1308821 -0.055963982 0
-1.0741814 -1.1476504 -0.056119964 0
-1.0574343 -1.1586612 -0.056002833 0
-1.0413055 -1.1702476 -0.055924639 0
-1.0266839 -1.1834917 -0.055935301 0
-1.0096401 -1.1938882 -0.055821363 0
-0.99558473 -1.2077886 -0.055880699 0
-0.98340845 -1.2240999 -0.05605799 0
-0.96577597 -1.2336494 -0.055933952 0
-0.94895476 -1.2441237 -0.055862639 0
-0.93489456 -1.2582346 -0.055963203 0
-0.9161101 -1.2659435 -0.055788573 0
-0.91461724 -1.2979836 -0.056688502 0
-0.88669276 -1.2926193 -0.055962145 0
-0.86348188 -1.2933985 -0.055520736 0
-0.86067516 -1.3250244 -0.056408618 0
-0.80735165 -1.242932 0.49309456 0
-0.83399653 -1.3200443 -0.055745102 0
-0.78791296 -1.2471035 0.49077454 0
-0.81497645 -1.326643 -0.05558598 0
-0.76195353 -1.2403306 0.48429498 0
-0.8015486 -1.3423944 -0.055818629 0
-0.74832034 -1.2532502 0.48562178 0
-0.78625679 -1.355266 -0.05593773 0
-0.72634697 -1.2519999 0.48155496 0
-0.77018809 -1.3669363 -0.056014683 0
-0.70841175 -1.2572953 0.4801226 0
-0.75304002 -1.376753 -0.056023933 0
-0.68823862 -1.2582792 0.47715107 0
-0.7365852 -1.3878964 -0.056095511 0
-0.65612584 -1.2362924 0.4656435 0
-0.71949512 -1.3979229 -0.056130119 0
-0.64271021 -1.2487357 0.46724492 0
-0.7025426 -1.4082867 -0.056186587 0
-0.62014329 -1.2431126 0.46218234 0
-0.68006414 -1.4073139 -0.055801697 0
-0.60433728 -1.2506059 0.46210235 0
-0.66490144 -1.4213467 -0.056021687 0
-0.58491391 -1.2503588 0.45925313 0
-0.6457293 -1.4269035 -0.055915788 0
-0.56325877 -1.2446638 0.45452023 0
-0.63001543 -1.4401871 -0.056121003 0
-0.54442859 -1.2445394 0.45193547 0
-0.6138317 -1.4527388 -0.056304447 0
-0.53483206 -1.2657725 0.45716411 0
-0.59036851 -1.4477895 -0.055820078 0
-0.50184661 -1.230703 0.33909339 0
-0.5143494 -1.2613643 0.45319676 0
-0.57646126 -1.4662207 -0.05624637 0
-0.48739272 -1.2396762 0.3398478 0
-0.500983 -1.274243 0.45552129 0
-0.55629933 -1.4689933 -0.056079559 0
-0.4651193 -1.2282186 0.14114352 0
-0.46657977 -1.2320751 0.23760252 0
-0.4457809 -1.1771525 0.32114309 0
-0.48382914 -1.2776247 0.4545162 0
-0.53438783 -1.4666296 -0.055728018 0
-0.44042024 -1.2087351 0.13825627 0
-0.44243589 -1.2142671 0.23307543 0
-0.42907107 -1.1775873 0.31976235 0
-0.51783872 -1.4788389 -0.055939738 0
-0.42577651 -1.2159287 0.13845484 0
-0.42469051 -1.2128272 0.23175417 0
-0.41319481 -1.1799979 0.31897879 0
-0.43786711 -1.2504568 0.44078773 0
-0.50183046 -1.4931362 -0.056237061 0
-0.40897733 -1.2168628 0.13796386 0
-0.40643185 -1.2092891 0.23008189 0
-0.40793708 -1.2137678 0.326693 0
-0.41831514 -1.2446464 0.43684813 0
-0.47821823 -1.4845227 -0.055681426 0
-0.39658222 -1.2311016 0.13900101 0
-0.39329416 -1.2208947 0.23132938 0
-0.41383252 -1.2846515 0.3443419 0
-0.41337734 -1.2832385 0.4485307 0
-0.46200812 -1.4985994 -0.055986769 0
-0.41013506 -1.3303406 0.35517609 0
-0.44592312 -1.5138743 -0.056343183 0
-0.36284989 -1.2318472 0.32763436 0
-0.42162201 -1.5008435 -0.055656198 0
-0.34657833 -1.2337112 0.32694352 0
-0.40537304 -1.5160633 -0.056026861 0
-0.33054888 -1.2362268 0.32648119 0
-0.38639942 -1.5216285 -0.05604827 0
-0.31453317 -1.2386215 0.32604179 0
-0.36841998 -1.531404 -0.056233004 0
-0.34746671 -1.5286981 -0.055968545 0
-0.32808754 -1.5324688 -0.055950902 0
-0.30849522 -1.5351313 -0.055901852 0
-0.28791055 -1.532342 -0.055663846 0
-0.49616164 -2.6407137 0.095926546 0
-0.26951849 -1.5411336 -0.055855501 0
-0.4320842 -2.4707007 0.08954592 0
-0.24986264 -1.5429864 -0.055804193 0
-0.39981744 -2.469008 0.089295022 0
-0.2313648 -1.5523846 -0.056034282 0
-0.36620608 -2.4571269 0.08869151 0
-0.21130721 -1.5515559 -0.055903893 0
-0.33570975 -2.4650006 0.088816091 0
-0.19190446 -1.5553089 -0.055947613 0
-0.30414343 -2.4649608 0.088669635 0
-0.17276563 -1.5617565 -0.056096844 0
-0.27276012 -2.4656808 0.088564962 0
-0.15345964 -1.5676093 -0.056233201 0
-0.24086916 -2.4605083 0.088263236 0
-0.13239318 -1.5539683 -0.055679657 0
-0.21073745 -2.4735363 0.088628352 0
-0.11288708 -1.5564874 -0.055714566 0
-0.17875737 -2.4647074 0.088224359 0
-0.09309309 -1.5546629 -0.05560289 0
-0.14772293 -2.4669862 0.088232346 0
-0.074207447 -1.5704588 -0.056129962 0
-0.11662009 -2.4680414 0.088210575 0
-0.054065846 -1.5608256 -0.055756908 0
-0.085722871 -2.4747314 0.088404097 0
-0.034661483 -1.5728453 -0.056166239 0
-0.054372061 -2.4672585 0.088105701 0
-0.01479269 -1.5665889 -0.05593174 0
0.0049355119 -1.5672157 -0.055951901 0
0.02477056 -1.5735277 -0.056183927 0
0.044965144 -1.5866383 -0.056667775 0
0.064211145 -1.5681639 -0.056032389 0
0.083633825 -1.5613074 -0.055820603 0
0.1037994 -1.5678862 -0.056098096 0
0.12377641 -1.5695447 -0.056208741 0
0.14312282 -1.5634242 -0.056049652 0
0.16335471 -1.5668486 -0.05624171 0
0.18281268 -1.5624659 -0.05616257 0
0.20181425 -1.554976 -0.05598025 0
0.22243899 -1.5597564 -0.056248728 0
0.24114031 -1.5509132 -0.056034882 0
0.26049787 -1.5468562 -0.056002375 0
0.27987444 -1.5430149 -0.05598646 0
0.29969737 -1.5415118 -0.056064408 0
0.3159844 -1.5226839 -0.05551995 0
0.33822674 -1.5326086 -0.056032676 0
0.35533071 -1.5189667 -0.055693094 0
0.3744359 -1.5144036 -0.055694245 0
0.39704725 -1.5232762 -0.056199964 0
0.4147163 -1.5127598 -0.056000199 0
0.43645939 -1.5169009 -0.056352481 0
0.45208877 -1.4998868 -0.055927463 0
0.47020164 -1.4917383 -0.055839978 0
0.49286446 -1.4976027 -0.056287352 0
0.50833958 -1.4815367 -0.055919666 0
0.52470857 -1.4687345 -0.055681422 0
0.54807407 -1.4752381 -0.056185171 0
0.5634042 -1.4599245 -0.055867717 0
0.49229273 -1.2756565 0.45491004 0
0.58288074 -1.455559 -0.055977099 0
0.50645876 -1.2647195 0.45324814 0
0.59991986 -1.4451128 -0.055861451 0
0.52717519 -1.2698823 0.45744115 0
0.61968935 -1.4412154 -0.056007992 0
0.53705692 -1.2490366 0.45233226 0
0.63626087 -1.4298691 -0.055873983 0
0.55770594 -1.2533325 0.45639509 0
0.65428787 -1.4219046 -0.055880275 0
0.57535756 -1.2503723 0.45791909 0
0.67441612 -1.4183414 -0.056069549 0
0.59062099 -1.2421147 0.45758235 0
0.68972522 -1.4046539 -0.055867366 0
0.6098901 -1.2420664 0.46035722 0
0.70925617 -1.3996061 -0.05601738 0
0.62974274 -1.2426988 0.463494 0
0.72570342 -1.3884233 -0.055931114 0
0.65019947 -1.2439684 0.46698421 0
0.73885143 -1.3712393 -0.055609256 0
0.6708166 -1.2449729 0.47049502 0
0.76317823 -1.3746519 -0.056132928 0
0.6955871 -1.2529054 0.051161494 0
0.70139867 -1.2633733 0.1552949 0
0.69408745 -1.2502041 0.25789028 0
0.69503307 -1.2519075 0.36532402 0
0.6998471 -1.2605786 0.47968504 0
0.775635 -1.3565538 -0.055788308 0
0.70806026 -1.2383683 0.05092793 0
0.71163881 -1.2446271 0.15407988 0
0.7149781 -1.2504673 0.25978115 0
0.70806992 -1.2383852 0.36395106 0
0.71885061 -1.2572403 0.48182103 0
0.79565752 -1.3517826 -0.055999689 0
0.73146921 -1.2427298 0.051482011 0
0.73516023 -1.2490008 0.155755 0
0.733257 -1.2457672 0.26070225 0
0.73184478 -1.2433679 0.36809465 0
0.72797734 -1.2367973 0.47746176 0
0.80857718 -1.3349905 -0.055721428 0
0.82840616 -1.3296537 -0.055929642 0
0.84350067 -1.3166486 -0.055824958 0
0.86160767 -1.3083465 -0.055928532 0
0.87677032 -1.2955579 -0.055849377 0
0.89615053 -1.2889276 -0.056045569 0
0.90828997 -1.2719142 -0.055798691 0
0.92491651 -1.2613091 -0.05583996 0
0.94309545 -1.2527126 -0.05598069 0
0.95862222 -1.2405164 -0.055970669 0
0.98357016 -1.2402061 -0.056510996 0
0.77403909 -0.97600353 0.044472393 0
0.77142167 -0.97270316 0.13341969 0
0.98947108 -1.2158815 -0.055965923 0
0.7719593 -0.9485988 0.043663144 0
0.77957833 -0.9579612 0.1327336 0
1.0046254 -1.2032347 -0.055961657 0
0.77663857 -0.93017602 0.043261874 0
0.76512897 -0.91639102 0.12829849 0
1.0188611 -1.1895151 -0.055915836 0
0.77636296 -0.90639985 0.042607363 0
0.77495492 -0.90475589 0.12802559 0
1.0310969 -1.1735637 -0.055771913 0
0.77365327 -0.88054901 0.041846815 0
0.77500874 -0.88209176 0.12618949 0
1.0533925 -1.1689223 -0.056177258 0
0.77278352 -0.85753775 0.041212425 0
0.76638418 -0.85043657 0.1230318 0
1.0645326 -1.1517851 -0.055993449 0
1.0719749 -1.1309307 -0.055631433 0
1.0892687 -1.1205728 -0.055792212 0
1.1034862 -1.1069639 -0.055802047 0
1.1201729 -1.0957562 -0.055943694 0
1.1386154 -1.086081 -0.056177281 0
1.1458856 -1.0657851 -0.055869401 0
1.1569877 -1.0492533 -0.05576209 0
1.1789671 -1.042436 -0.056184307 0
1.1859714 -1.0223128 -0.055900186 0
1.2008966 -1.0091031 -0.056000315 0
1.2115835 -0.99232674 -0.055911534 0
1.2208602 -0.97450095 -0.055768933 0
1.2335389 -0.95944458 -0.055791784 0
1.2465868 -0.94464386 -0.055839494 0
1.2591558 -0.92944396 -0.055873819 0
1.276266 -0.91747499 -0.056115966 0
1.2796825 -0.89570892 -0.055765849 0
1.2932165 -0.88113129 -0.055867687 0
1.3055757 -0.86568487 -0.055926256 0
1.3167882 -0.84944582 -0.055943925 0
1.3299123 -0.83438766 -0.056050677 0
1.354527 -0.8262468 -0.056645103 0
1.3450147 -0.79738289 -0.055822983 0
1.3582218 -0.78226984 -0.055957858 0
1.3682052 -0.76524121 -0.055967733 0
1.3890706 -0.75410873 -0.056428339 0
1.3847213 -0.729325 -0.05587415 0
1.4038452 -0.7169649 -0.056277055 0
1.4057318 -0.69575274 -0.055997036 0
1.4178398 -0.67965585 -0.056133982 0
1.4236437 -0.66052413 -0.056030024 0
1.4312662 -0.64228541 -0.056007273 0
1.4351087 -0.62242144 -0.055846512 0
1.4396904 -0.60298651 -0.055724911 0
1.4456784 -0.58420908 -0.055667531 0
1.4723135 -0.57351446 -0.056410592 0
1.4770366 -0.55403751 -0.056319784 0
1.4736146 -0.53168654 -0.055929583 0
1.4778018 -0.51226109 -0.055839252 0
1.4866385 -0.49444598 -0.055933464 0
1.4952579 -0.47648853 -0.056027569 0
1.4970698 -0.4563832 -0.055875696 0
1.5031794 -0.43763736 -0.055893615 0
1.5078281 -0.41846976 -0.055866104 0
1.5167737 -0.40045345 -0.056006271 0
1.5150237 -0.37965176 -0.055760711 0
1.5186508 -0.36030054 -0.055722803 0
1.5378979 -0.34447232 -0.056265406 0
1.5426664 -0.32519758 -0.056285582 0
1.5329038 -0.30303258 -0.055785738 0
1.5330439 -0.28305128 -0.055656716 0
1.5364789 -0.26372465 -0.055656444 0
1.5531063 -0.24648885 -0.056141865 0
1.5616444 -0.22772427 -0.056342378 0
1.5564257 -0.20698434 -0.056055613 0
1.5587007 -0.18734567 -0.05604814 0
1.5518348 -0.16672707 -0.055721343 0
1.5634652 -0.14808878 -0.056067552 0
1.56558 -0.12842183 -0.056080952 0
1.5685334 -0.1088004 -0.056133222 0
1.5722286 -0.089180984 -0.056220811 0
1.5694789 -0.069212377 -0.056086879 0
1.5726372 -0.049521182 -0.056173008 0
1.5637813 -0.02953914 -0.055838965 0
1.5689363 -0.0098777954 -0.056014158 0
1.5660949 0.0098599056 -0.055912714 0
1.5712276 0.029679798 -0.056104857 0
1.5673087 0.049353391 -0.055982675 0
1.5758536 0.069493495 -0.056314684 0
1.5758826 0.089388251 -0.056351475 0
1.5547379 0.10784348 -0.05563952 0
1.5600264 0.12796627 -0.055882018 0
1.5573432 0.14750893 -0.05584801 0
1.5485651 0.16637577 -0.05560394 0
1.5522635 0.18657196 -0.055816669 0
1.5595597 0.20740111 -0.056168482 0
1.5463632 0.2254959 -0.05579105 0
1.5519795 0.24631001 -0.056101132 0
1.5405532 0.264424 -0.055804033 0
1.5341839 0.28326175 -0.0556981 0
1.5401223 0.30445954 -0.056048434 0
1.5316612 0.32287765 -0.055884045 0
1.5287861 0.34243134 -0.055932038 0
1.5222213 0.36114767 -0.055853814 0
1.5251848 0.38219801 -0.056134686 0
1.5223236 0.40191871 -0.0562112 0
1.5060723 0.41798246 -0.055801045 0
1.5058093 0.43840304 -0.055991404 0
1.4967839 0.45629603 -0.055865023 0
1.4958359 0.47667274 -0.056049228 0
1.4959974 0.49755865 -0.056285582 0
1.4845145 0.51458794 -0.056092896 0
1.4834099 0.53522068 -0.056301352 0
1.4716027 0.55199921 -0.056112587 0
1.4673178 0.57156849 -0.056219187 0
1.4481964 0.5852266 -0.055764489 0
1.4436383 0.60464007 -0.055877723 0
1.437194 0.62332582 -0.05592766 0
1.4329284 0.64303136 -0.056072317 0
1.4296728 0.66332144 -0.056267314 0
1.4109468 0.67635167 -0.055861086 0
1.4035338 0.69466484 -0.055909477 0
1.3966205 0.71327513 -0.055987433 0
1.3837594 0.72881842 -0.05583534 0
1.3766725 0.74737787 -0.055924688 0
1.3701384 0.76632243 -0.05604681 0
1.3665 0.78703773 -0.056298919 0
1.3473569 0.7987715 -0.055920195 0
1.3285279 0.81038761 -0.055557843 0
1.3229158 0.82999808 -0.055755801 0
1.3211044 0.85223013 -0.056127302 0
1.3075178 0.86697257 -0.056009442 0
1.3048857 0.88908207 -0.056371801 0
1.2879438 0.90149134 -0.056125853 0
1.272052 0.9144457 -0.055930685 0
1.2612647 0.93100065 -0.055967402 0
1.2511295 0.94808632 -0.056042984 0
1.2396506 0.96419823 -0.056068212 0
1.2358469 0.98646337 -0.056453522 0
1.2182846 0.99781519 -0.056220777 0
1.1939889 1.0032986 -0.055678193 0
1.1803571 1.0174732 -0.055635564 0
1.179546 1.0429478 -0.056211893 0
1.1545808 1.0470705 -0.055646088 0
1.145506 1.0654322 -0.055850897 0
1.132246 1.0800054 -0.055863023 0
1.1241268 1.0996239 -0.05614116 0
1.1021798 1.1056534 -0.055735987 0
1.0848287 1.1160052 -0.055564798 0
1.0798078 1.1391944 -0.056037936 0
0.59382051 0.62647909 0.28717864 0
1.0601131 1.1470033 -0.055760983 0
0.61408246 0.66441464 0.30099982 0
1.0498645 1.1650072 -0.055989109 0
1.0156227 1.1270101 0.054163001 0
1.0050172 1.1152414 0.16134083 0
1.0107929 1.1216505 0.27230871 0
0.62791842 0.69678473 0.31205764 0
1.0350386 1.1780499 -0.055985115 0
0.97967172 1.115033 0.052990329 0
0.98388177 1.1198248 0.16019888 0
0.98156434 1.1171871 0.26820317 0
0.62293792 0.70900929 0.31399453 0
1.0302998 1.2028698 -0.0565436 0
0.96116728 1.1221579 0.052749559 0
0.95912892 1.1197782 0.15845186 0
0.95945865 1.1201631 0.26599607 0
0.62253165 0.72680259 0.31837767 0
1.0038029 1.2022495 -0.055915836 0
0.92548227 1.1084453 0.051553063 0
0.93599141 1.1210321 0.15694907 0
0.94204324 1.1282804 0.26508573 0
0.62786728 0.75199342 0.32592338 0
0.98873401 1.2149758 -0.055924233 0
0.90610886 1.1134443 0.051250834 0
0.91114807 1.1196367 0.1551351 0
0.91525692 1.1246858 0.26151264 0
0.6230576 0.76562548 0.32840523 0
0.97425961 1.2284663 -0.055976059 0
0.88320893 1.1136583 0.050744746 0
0.88419747 1.1149048 0.15292461 0
0.88958281 1.1216953 0.25819218 0
0.62133503 0.78345549 0.33267084 0
0.96306741 1.2462687 -0.05623021 0
0.86157179 1.1149272 0.050304227 0
0.86900651 1.1245482 0.15273429 0
0.85951197 1.1122618 0.2535094 0
0.61771226 0.79935783 0.33609381 0
0.94557536 1.2560066 -0.056127895 0
0.84541088 1.1229583 0.050182287 0
0.84044397 1.1163607 0.15017301 0
0.8475371 1.1257826 0.25413847 0
0.60739887 0.80680716 0.33598343 0
0.92485863 1.2612303 -0.055836469 0
0.82142878 1.120183 0.0495921 0
0.82379681 1.1234123 0.14971428 0
0.81864798 1.1163907 0.24967143 0
0.59865862 0.81639111 0.33680853 0
0.90481794 1.2670523 -0.055585392 0
0.81381291 1.1396143 0.049994711 0
0.81302404 1.1385096 0.15034999 0
0.8114959 1.1363697 0.25183433 0
0.59020859 0.82649237 0.33788297 0
0.8995052 1.2937527 -0.05625537 0
0.81528908 1.1726251 0.050988466 0
0.81283021 1.1690885 0.15302439 0
0.81484997 1.1719935 0.2574347 0
0.58086312 0.83545172 0.33852863 0
0.87915981 1.2990887 -0.056001581 0
0.81264818 1.2008079 0.051764861 0
0.82148355 1.2138635 0.15751861 0
0.81632721 1.2062442 0.26267928 0
0.57418197 0.84843886 0.34083432 0
0.86371666 1.3115491 -0.056065433 0
0.80836165 1.2274928 0.052472237 0
0.80982953 1.2297217 0.15824063 0
0.80199677 1.2178277 0.26298174 0
0.73811042 1.1208167 0.34239411 0
0.5660848 0.85959673 0.34242597 0
0.8504684 1.3275248 -0.0562861 0
0.81328338 1.2694814 0.053825103 0
0.81174004 1.2670723 0.16171877 0
0.79335803 1.2383794 0.26524138 0
0.71685761 1.1189672 0.33904466 0
0.55505115 0.86639804 0.34232393 0
0.83146781 1.3345678 -0.056136347 0
0.81066996 1.3011857 0.054732185 0
0.80861175 1.2978822 0.16433848 0
0.77501786 1.2439616 0.2643258 0
0.70083129 1.1248865 0.33813745 0
0.5447163 0.87431026 0.34271282 0
0.81056249 1.3382684 -0.055858243 0
0.75923777 1.2535293 0.2643064 0
0.68121046 1.1247034 0.33547729 0
0.53260076 0.87934339 0.34202975 0
0.40676647 0.67158633 0.46564165 0
0.79601163 1.3523842 -0.056024615 0
0.74210799 1.2608047 0.26384914 0
0.65933073 1.1201702 0.33162239 0
0.52553046 0.89285022 0.34468204 0
0.4099969 0.69656438 0.47934246 0
0.77082324 1.3481382 -0.055442218 0
0.72460049 1.2672966 0.26327735 0
0.64562982 1.1291801 0.33185661 0
0.5102787 0.89245659 0.34202242 0
0.41572431 0.72708476 0.34677309 0
0.40504348 0.70840448 0.40829021 0
0.40610045 0.710253 0.48520488 0
0.76321638 1.3747205 -0.056135729 0
0.71491563 1.2877202 0.26562905 0
0.62174863 1.1199061 0.32680419 0
0.5027951 0.90564454 0.34462282 0
0.41564527 0.74866855 0.35454282 0
0.40766102 0.73428714 0.42021582 0
0.40494862 0.72940153 0.49476334 0
0.74332815 1.3795477 -0.055946194 0
0.69311649 1.2863594 0.2635271 0
0.60289603 1.1189188 0.32427499 0
0.49122503 0.91166776 0.34453371 0
0.41409361 0.76851904 0.36144534 0
0.40588775 0.75328976 0.4281317 0
0.40637955 0.75420249 0.50807482 0
0.72527707 1.3876076 -0.055898253 0
0.67655975 1.2944012 0.26340836 0
0.58713406 1.123311 0.32337961 0
0.47663438 0.91190189 0.34232685 0
0.4215931 0.80659634 0.37682694 0
0.40639716 0.77752328 0.43896154 0
0.40551952 0.77584416 0.51917279 0
0.70451725 1.3902545 -0.055643093 0
0.65776062 1.2979877 0.26243189 0
0.56536376 1.1156569 0.31910136 0
0.46732396 0.92219073 0.34395292 0
0.41702616 0.82293588 0.38197687 0
0.40682432 0.80280411 0.45030633 0
0.40749311 0.80412394 0.53462076 0
0.69213849 1.4095685 -0.05606284 0
0.64329147 1.3100896 0.26322004 0
0.54591161 1.1117716 0.31599885 0
0.45977142 0.93634349 0.34704465 0
0.41581783 0.84683019 0.3906064 0
0.4077594 0.83041888 0.46287912 0
0.40617102 0.82718408 0.54650849 0
0.67909825 1.4281882 -0.056458812 0
0.53280222 1.120518 0.31655282 0
0.44684085 0.93973565 0.34618902 0
0.40575075 0.85332048 0.39121237 0
0.40923786 0.86065412 0.47682214 0
0.40608174 0.85401654 0.56081349 0
0.65548348 1.4245027 -0.055982385 0
0.51388192 1.116773 0.31364188 0
0.42964691 0.93371266 0.34195003 0
0.40967837 0.89031684 0.40577647 0
0.40312716 0.87607968 0.48251766 0
0.40606728 0.88246918 0.57609427 0
0.64038295 1.4391326 -0.056235969 0
0.49897915 1.1213559 0.31313953 0
0.42171958 0.94773042 0.34511152 0
0.41000158 0.92139655 0.41755539 0
0.40597719 0.91235256 0.49964041 0
0.40738577 0.91551805 0.59427321 0
0.62007558 1.4421135 -0.056042898 0
0.48511201 1.1282279 0.31332788 0
0.41769111 0.97142678 0.35179728 0
0.40629268 0.94491732 0.42586219 0
0.40540773 0.94285923 0.51351064 0
0.40577272 0.94370812 0.60920674 0
0.60223979 1.4507012 -0.056077477 0
0.46629053 1.1232208 0.31028205 0
0.41680443 1.0040165 0.36167011 0
0.40868542 0.9844591 0.44132882 0
0.40481222 0.97512913 0.52826774 0
0.40790936 0.98258966 0.63094068 0
0.58545655 1.4619913 -0.056224465 0
0.44474119 1.1105995 0.30522427 0
0.42000407 1.0488265 0.37587672 0
0.40321991 1.0069133 0.44908315 0
0.40812045 1.0191509 0.54928851 0
0.40754867 1.017723 0.65015364 0
0.56496137 1.4639596 -0.056022126 0
0.43632793 1.1306374 0.30919674 0
0.41797239 1.0830734 0.38623327 0
0.40982237 1.0619546 0.47129259 0
0.40807793 1.0574343 0.56710756 0
0.41278434 1.0696299 0.67993897 0
0.54419374 1.4647934 -0.055787385 0
0.4162626 1.1204443 0.30495161 0
0.41193351 1.1087917 0.39352366 0
0.40290695 1.0844952 0.47900644 0
0.40855908 1.0997089 0.58697397 0
0.40739653 1.0965797 0.69375426 0
0.52735215 1.4761343 -0.055961959 0
0.40128234 1.1232468 0.30431494 0
0.40550834 1.135076 0.40100822 0
0.40716463 1.1397122 0.50109076 0
0.4098503 1.1472297 0.6095354 0
0.50590611 1.4744445 -0.055651974 0
0.38395652 1.119027 0.30183789 0
0.40559405 1.1820887 0.41577992 0
0.40691254 1.1859314 0.51911771 0
0.40548223 1.1817628 0.62512082 0
0.48996902 1.4888047 -0.05595668 0
0.59855384 1.818747 0.34531513 0
0.36754954 1.1168246 0.29997167 0
0.40739691 1.2379036 0.4335731 0
0.40555796 1.2323159 0.53714359 0
0.40903154 1.2428706 0.65466875 0
0.47145936 1.4957285 -0.05598934 0
0.5735625 1.8196558 0.34408912 0
0.3533155 1.1209111 0.29985052 0
0.40702787 1.2913164 0.45044994 0
0.40772495 1.2935278 0.56154233 0
0.40681493 1.2906408 0.6770792 0
0.45177215 1.4988363 -0.055888295 0
0.54651147 1.8131512 0.34153074 0
0.33626789 1.1156299 0.29728147 0
0.40753171 1.3520606 0.46981198 0
0.40760091 1.3522902 0.58477753 0
0.43269363 1.5038131 -0.055866275 0
0.52906591 1.8387519 0.34507069 0
0.32260388 1.1211996 0.29765958 0
0.40865129 1.4202547 0.49168095 0
0.40667161 1.4133744 0.60892981 0
0.4159826 1.5173789 -0.05617119 0
0.30813619 1.1239878 0.041608416 0
0.30716056 1.1204289 0.12485456 0
0.30458832 1.1110462 0.20776902 0
0.30681673 1.1191747 0.29607284 0
0.40134048 1.4639689 0.50502485 0
0.40338051 1.4714103 0.63169515 0
0.39462495 1.5139829 -0.0558571 0
0.2925905 1.1225266 0.041414652 0
0.28958049 1.1109787 0.12338536 0
0.29121718 1.117258 0.20822838 0
0.29241475 1.1218525 0.29578367 0
0.39875942 1.5298449 0.52597618 0
0.39771578 1.525841 0.65286112 0
0.3761639 1.5213923 -0.055951267 0
0.27676862 1.1193889 0.041167043 0
0.2750726 1.1125294 0.12316313 0
0.27651125 1.1183479 0.20776612 0
0.27550572 1.1142811 0.29284951 0
0.3922911 1.5866187 0.5437541 0
0.39363366 1.5920488 0.67901474 0
0.35902199 1.5347462 -0.05627165 0
0.26067728 1.1143426 0.040857501 0
0.26278046 1.1233331 0.12398301 0
0.25982329 1.1106919 0.20571965 0
0.26100594 1.1157475 0.29234794 0
0.38709888 1.6547692 0.56539476 0
0.33971623 1.539358 -0.056279436 0
0.24645698 1.1167719 0.04082955 0
0.24595001 1.1144747 0.12265375 0
0.24673834 1.1180469 0.20649008 0
0.24569535 1.1133207 0.29087839 0
0.37275302 1.6890578 0.57546103 0
0.3179473 1.5321428 -0.055864841 0
0.2312824 1.114517 0.040637407 0
0.2343438 1.1292695 0.1239474 0
0.23123063 1.1142675 0.20523806 0
0.23443849 1.1297257 0.29436991 0
0.35852438 1.7276779 0.58703423 0
0.30042624 1.5452609 -0.056200761 0
0.21779864 1.1202607 0.040743608 0
0.2179704 1.1211442 0.12274459 0
0.21868704 1.1248302 0.20666002 0
0.21584575 1.1102159 0.28855518 0
0.34414503 1.7701312 0.59993905 0
0.27907753 1.5386213 -0.055827048 0
0.20275137 1.1178168 0.040558655 0
0.20054919 1.1056757 0.12076502 0
0.20459038 1.1279558 0.20674454 0
0.200753 1.1067994 0.28698742 0
0.330892 1.8242869 0.61683261 0
0.2602832 1.5455816 -0.05595623 0
0.1876184 1.1140924 0.040334597 0
0.18697286 1.1102591 0.12099888 0
0.18599999 1.1044821 0.2019967 0
0.18924975 1.1237794 0.29074928 0
0.3125602 1.8560063 0.62617719 0
0.24048361 1.5466896 -0.055882283 0
0.17368855 1.1170918 0.040360808 0
0.17582993 1.1308643 0.12299344 0
0.17418303 1.120272 0.20446716 0
0.17326966 1.1143976 0.28773469 0
0.293156 1.8854561 0.63481718 0
0.22193801 1.5562434 -0.056122042 0
0.15940313 1.1177449 0.040308688 0
0.16036923 1.1245192 0.12207405 0
0.16044581 1.1250563 0.20495535 0
0.15947099 1.1182208 0.28818047 0
0.27488688 1.9275242 0.64776438 0
0.20142989 1.5520145 -0.055873636 0
0.14377682 1.1077983 0.039881535 0
0.14524113 1.1190808 0.12127552 0
0.14519805 1.1187489 0.20345712 0
0.14427513 1.1116378 0.2859931 0
0.25391456 1.9564081 0.65634459 0
0.1828108 1.5624499 -0.056161992 0
0.13172396 1.12582 0.040467408 0
0.13010073 1.1119467 0.12031531 0
0.13078749 1.1178163 0.20297191 0
0.13137177 1.12281 0.28841892 0
0.2349406 2.0079937 0.67260492 0
0.16129446 1.5470874 -0.055532381 0
0.11892329 1.140676 0.12325209 0
0.1198335 1.1494064 0.20841751 0
0.1192973 1.1442634 0.29352054 0
0.21290122 2.0420837 0.68307167 0
0.14403182 1.5733536 -0.05640563 0
0.11971389 1.307713 0.14112666 0
0.11929356 1.3031214 0.23599896 0
0.12002402 1.3111008 0.33590251 0
0.18935059 2.0684001 0.69102216 0
0.12323481 1.5626769 -0.055962794 0
0.17002527 2.1560028 0.23242348 0
0.16634078 2.1092815 0.38158724 0
0.16402824 2.0799572 0.53231126 0
0.10382216 1.5682302 -0.056110397 0
0.14172652 2.1407743 0.38693097 0
0.14100002 2.1298006 0.54456979 0
0.083647288 1.5615588 -0.055829588 0
0.11591159 2.1638808 0.39081255 0
0.11533749 2.1531634 0.55012846 0
0.06448321 1.5748082 -0.056269798 0
0.089362279 2.1824048 0.39392364 0
0.089232899 2.179245 0.5564611 0
0.044346835 1.5648208 -0.055888548 0
0.023724852 0.83715421 0.34675109 0
0.023947028 0.84499395 0.42295417 0
0.024627659 1.56445 -0.055859804 0
0.01325322 0.84189892 0.34861961 0
0.013202333 0.83866638 0.41967049 0
0.0049823401 1.5820855 -0.056482773 0
0.0025973364 0.82475466 0.41265997 0
0.0026207133 0.83217782 0.49352378 0
-0.01479693 1.5670379 -0.055947773 0
-0.0078776246 0.83426332 0.4174341 0
-0.0076391781 0.80901116 0.47980377 0
-0.034711242 1.5751032 -0.056246869 0
-0.018582141 0.84320778 0.34920311 0
-0.018555015 0.84197694 0.42137718 0
-0.018038478 0.81853777 0.48554999 0
-0.054449577 1.5719035 -0.056152642 0
-0.080352128 2.3196838 0.41860282 0
-0.080254547 2.3168664 0.59146136 0
-0.027708139 0.7999056 0.47466686 0
-0.073831894 1.562511 -0.055845901 0
-0.11021522 2.3324947 0.4211317 0
-0.11034601 2.3352625 0.59646499 0
-0.036864936 0.78017598 0.46319798 0
-0.093095489 1.5547031 -0.055604324 0
-0.14045061 2.3455379 0.42377239 0
-0.14010401 2.3397496 0.5980143 0
-0.047166571 0.78768599 0.46797225 0
-0.11323328 1.5612608 -0.05588543 0
-0.17165782 2.3668187 0.42797384 0
-0.17152515 2.3649893 0.60496938 0
-0.13358162 1.5679177 -0.056179471 0
-0.076611206 0.89922601 0.032219827 0
-0.20263989 2.3784912 0.43051174 0
-0.20273431 2.3795993 0.60931134 0
-0.15381624 1.5712521 -0.056363873 0
-0.23446496 2.3950887 0.43401593 0
-0.23430127 2.3934166 0.61355615 0
-0.17199779 1.5548155 -0.055847529 0
-0.26758331 2.418884 0.43890369 0
-0.26636872 2.4079044 0.61808097 0
-0.085433632 0.77229792 0.4608036 0
-0.19150393 1.5520626 -0.05583084 0
-0.29853353 2.4194949 0.43966174 0
-0.29781371 2.413661 0.62047207 0
-0.21149734 1.5529519 -0.055954192 0
-0.32957131 2.4199283 0.44045973 0
-0.33052859 2.4269574 0.62491047 0
-0.23055834 1.5469735 -0.055838961 0
-0.36389926 2.441649 0.44521192 0
-0.36298034 2.435483 0.6282329 0
-0.25046754 1.5467219 -0.055939294 0
-0.39628768 2.4472106 0.44710052 0
-0.39616412 2.4464474 0.63229781 0
-0.27179879 1.5541728 -0.056328077 0
-0.43048415 2.4615517 0.45067522 0
-0.42939329 2.4553139 0.63593644 0
-0.28861916 1.5361135 -0.055800848 0
-0.46341589 2.4664314 0.45260113 0
-0.46191856 2.4584622 0.63820779 0
-0.30896387 1.5374634 -0.055986777 0
-0.52123094 2.593745 0.094451301 0
-0.52209699 2.5980546 0.28479311 0
-0.4952589 2.464503 0.45335576 0
-0.49386242 2.4575541 0.63953573 0
-0.32745564 1.5295172 -0.055843141 0
-0.54845232 2.5617738 0.093531147 0
-0.54528397 2.5469744 0.2799243 0
-0.52718586 2.46244 0.45416141 0
-0.5286088 2.4690862 0.64421791 0
-0.34896493 1.5352898 -0.056209877 0
-0.57270318 2.5196378 0.092248738 0
-0.57514811 2.5303946 0.27887592 0
-0.56388873 2.4808583 0.45883164 0
-0.5618605 2.471935 0.64675587 0
-0.36905628 1.5340489 -0.056330126 0
-0.60839987 2.5289235 0.092861831 0
-0.60818511 2.5280311 0.27943733 0
-0.59251148 2.4628806 0.45685038 0
-0.59577006 2.4764256 0.64984214 0
-0.386127 1.5205556 -0.056008752 0
-0.64396089 2.5358973 0.093408249 0
-0.64388776 2.5356092 0.28114894 0
-0.62962037 2.4794247 0.46135327 0
-0.62689906 2.4687083 0.64983702 0
-0.40544361 1.5163273 -0.056036614 0
-0.6854828 2.5636518 0.094741009 0
-0.68564677 2.564265 0.28526098 0
-0.66074669 2.4711406 0.46132344 0
-0.65852046 2.4628148 0.65041679 0
-0.42291391 1.5054423 -0.055826735 0
-0.6949479 2.4737988 0.46341658 0
-0.69230211 2.4643805 0.65308082 0
-0.43962246 1.4924841 -0.055547085 0
-0.72660267 2.4667597 0.46377516 0
-0.72879362 2.4741976 0.65806228 0
-0.4598296 1.491533 -0.055722773 0
-0.75561017 2.4509461 0.46255425 0
-0.76084256 2.4679182 0.65888804 0
-0.48105133 1.4933174 -0.056011297 0
-0.78997797 2.4523118 0.46465251 0
-0.79331344 2.4626658 0.66010052 0
-0.49900743 1.4847366 -0.055920701 0
-0.82038671 2.4409618 0.46442255 0
-0.8260864 2.4579206 0.66156441 0
-0.51470774 1.4698976 -0.055601515 0
-0.85790455 2.4499958 0.46815962 0
-0.85850793 2.4517188 0.66275233 0
-0.53455907 1.4670995 -0.055745874 0
-0.89147693 2.4466619 0.46963042 0
-0.88823664 2.4377692 0.66195244 0
-0.55595857 1.4680934 -0.056045208 0
-0.92385638 2.4395838 0.47046748 0
-0.91920686 2.4273059 0.66220182 0
-0.57384002 1.4595537 -0.05599061 0
-0.94918042 2.4142265 0.46784526 0
-0.95299798 2.4239364 0.66450369 0
-0.58959335 1.4458888 -0.05574679 0
-0.98349816 2.4118807 0.46975338 0
-0.98361635 2.4121706 0.66462106 0
-0.61360645 1.4522058 -0.056283787 0
-1.0161725 2.404948 0.47085798 0
-1.0156188 2.4036374 0.66574079 0
-0.63058972 1.4415001 -0.056172162 0
-1.0466301 2.3925498 0.47097358 0
-1.0413111 2.3803909 0.66288137 0
-0.64869565 1.4334584 -0.056172654 0
-1.0740066 2.373291 0.46980751 0
-1.0712664 2.3672361 0.66292208 0
-0.66853875 1.4291221 -0.056328151 0
-1.1029931 2.3578467 0.46946239 0
-1.1009281 2.3534322 0.66288608 0
-0.68011713 1.4074236 -0.055806041 0
-1.1260151 2.3301578 0.46673548 0
-1.1328316 2.3442638 0.66426891 0
-0.69965768 1.4025036 -0.055955861 0
-1.1613557 2.3280036 0.46919602 0
-1.1620135 2.3293221 0.66412866 0
-0.71992362 1.3987553 -0.056163546 0
-1.1917256 2.3154297 0.46964908 0
-1.1899556 2.3119907 0.66340679 0
-0.73264039 1.3804635 -0.055795088 0
-1.2160282 2.2912776 0.46781904 0
-1.2220355 2.3025968 0.66507405 0
-0.74844247 1.3683474 -0.055681892 0
-1.2485059 2.2825935 0.46921864 0
-1.2409881 2.2688489 0.65978771 0
-0.77040541 1.367322 -0.056030486 0
-1.0499852 1.8635226 0.076363929 0
-1.2721714 2.2578604 0.46739039 0
-1.2674934 2.249558 0.65876698 0
-0.78390282 1.3512084 -0.055770259 0
-1.0488197 1.807844 0.074617594 0
-1.2985051 2.2382252 0.46667352 0
-1.2971085 2.2358181 0.65947419 0
-0.80410045 1.3466681 -0.055996336 0
-1.0499556 1.7584141 0.073117316 0
-1.3199279 2.2105505 0.46433198 0
-1.3255343 2.2199399 0.65966177 0
-0.81987482 1.3346167 -0.055920079 0
-1.0536518 1.7151657 0.071864985 0
-1.348958 2.195874 0.46478033 0
-1.3478808 2.1941206 0.65698093 0
-0.83699918 1.3247969 -0.055945806 0
-1.0527152 1.6662307 0.07036446 0
-1.3681831 2.1655514 0.46197218 0
-1.369621 2.1678274 0.65422022 0
-0.84835821 1.3060622 -0.055601366 0
-1.0489687 1.6149056 0.068749368 0
-1.3920016 2.1430109 0.46086639 0
-1.3895469 2.1392317 0.65081936 0
-0.8668294 1.2984127 -0.055735976 0
-1.0509436 1.5741951 0.067574278 0
-1.4164301 2.1216526 0.46007246 0
-1.4179109 2.1238706 0.65152633 0
-0.88586986 1.2914197 -0.055910207 0
-1.0518529 1.5333896 0.066385955 0
-1.4326136 2.0884619 0.45675081 0
-1.4336616 2.0899897 0.64661962 0
-0.90815198 1.2888085 -0.05628778 0
-1.0533185 1.4948221 0.06528528 0
-1.4546981 2.0644419 0.45546764 0
-1.4494674 2.057019 0.64201492 0
-0.92263162 1.2749554 -0.056185715 0
-1.0525147 1.4544368 0.064095236 0
-1.0447965 1.4437711 0.19152689 0
-1.4742666 2.0372424 0.45352653 0
-1.4691017 2.0301051 0.63933796 0
-0.50945032 0.70399326 0.43479136 0
-0.93668693 1.2606468 -0.056070495 0
-1.0559452 1.4211514 0.063209347 0
-1.0507717 1.4141887 0.18934281 0
-1.4955177 2.0127535 0.45223129 0
-1.4981318 2.0162714 0.64087158 0
-0.52079439 0.70091486 0.43690571 0
-0.95369595 1.2503395 -0.056141742 0
-1.0550433 1.3832107 0.062107813 0
-1.0472351 1.3729738 0.1855755 0
-1.5150197 1.9862609 0.45052955 0
-1.5124233 1.9828569 0.63625371 0
-0.52884173 0.69333595 0.43629789 0
-0.96651143 1.234589 -0.055976551 0
-1.0524672 1.3443859 0.060954772 0
-1.0474906 1.3380289 0.1826206 0
-1.5328995 1.9580739 0.44847879 0
-1.526248 1.9495775 0.63169187 0
-0.53548253 0.68400723 0.43463624 0
-0.98510391 1.2262102 -0.056154635 0
-1.0471882 1.3034898 0.059693675 0
-1.0483987 1.3049966 0.17989977 0
-1.5448681 1.922978 0.44486076 0
-1.5405483 1.9176009 0.62756681 0
-0.55619967 0.69233078 0.44434044 0
-1.0012188 1.2146236 -0.056196932 0
-1.0532179 1.277706 0.059115563 0
-1.0510088 1.2750261 0.17757855 0
-1.5637894 1.8971031 0.44339514 0
-1.560882 1.893576 0.62608701 0
-0.57140994 0.69320303 0.44948259 0
-1.0144591 1.1995866 -0.056087799 0
-1.0454974 1.2362889 0.057803851 0
-1.0452445 1.2359899 0.17396113 0
-1.5854371 1.8747616 0.4428044 0
-1.5755329 1.8630501 0.62250435 0
-0.58471906 0.69142377 0.45306715 0
-1.0256152 1.1822597 -0.055877075 0
-1.0508161 1.2113096 0.057250056 0
-1.0518827 1.2125391 0.1725111 0
-1.594265 1.8377607 0.4387719 0
-1.5925826 1.8358213 0.62005788 0
-1.0439179 1.1731833 -0.056064937 0
-1.0612583 1.1926709 0.056996223 0
-1.0654389 1.1973692 0.17224795 0
-1.6025912 1.8010356 0.4347873 0
-1.5979925 1.7958674 0.61331105 0
-1.0529263 1.1537217 -0.055764083 0
-1.0993421 1.2045809 0.058222316 0
-1.0930997 1.1977408 0.17426769 0
-1.6125846 1.7669554 0.43142787 0
-1.6090661 1.7631001 0.60899198 0
-1.071991 1.1453102 -0.056005526 0
-0.93930393 1.0035479 0.049073368 0
-1.1202737 1.1968951 0.17618316 0
-1.6213795 1.7322742 0.42791107 0
-1.6214432 1.7323422 0.60537231 0
-1.087024 1.132448 -0.056041468 0
-0.94431645 0.98377699 0.048684187 0
-1.1431707 1.1909409 0.17741159 0
-1.6331631 1.7014087 0.42533293 0
-1.6390436 1.707535 0.60386789 0
-1.1005198 1.1179835 -0.056007016 0
-0.95111334 0.96620625 0.048403513 0
-1.1743931 1.1930292 0.17991136 0
-1.6378381 1.6638285 0.42106065 0
-1.6417452 1.6677976 0.5970785 0
-1.1047547 1.094375 -0.05551682 0
-0.96038055 0.95135742 0.048261646 0
-1.2080092 1.1966594 0.18273827 0
-1.6498951 1.6343936 0.41883615 0
-1.6483724 1.6328853 0.59196383 0
-1.130306 1.0918339 -0.056105494 0
-0.97107333 0.938021 0.048201591 0
-1.2342359 1.1922262 0.18441999 0
-1.6588489 1.6023867 0.41595396 0
-1.6576399 1.6012189 0.58800441 0
-1.1473482 1.080703 -0.056271471 0
-0.99641556 0.93853754 0.04886901 0
-1.2682009 1.1945359 0.18723266 0
-1.6668351 1.5700148 0.41296643 0
-1.66232 1.5657622 0.5826245 0
-1.157402 1.0629908 -0.056103632 0
-1.3027129 1.1964483 0.063147396 0
-1.2987516 1.1928102 0.18951052 0
-1.6611228 1.5256222 0.40675938 0
-1.6718646 1.5354878 0.5791471 0
-0.67259306 0.61772847 0.3781057 0
-1.1614139 1.0400227 -0.055658866 0
-1.3342571 1.1948004 0.063942097 0
-1.3462914 1.2055768 0.19421686 0
-1.6731948 1.4983122 0.40506333 0
-1.656105 1.4830086 0.5671739 0
-0.668836 0.59892917 0.37172446 0
-1.1822953 1.0321949 -0.056032244 0
-1.3642299 1.1910316 0.064654626 0
-1.6669255 1.4552979 0.39907759 0
-1.6703641 1.4583 0.56572354 0
-0.66382885 0.57955122 0.36485666 0
-1.1928909 1.0152627 -0.055924073 0
-1.4144648 1.203843 0.06631171 0
-1.6734201 1.4242384 0.39630738 0
-1.6638389 1.4160839 0.55743009 0
-0.66282529 0.56412691 0.36037222 0
-0.68739831 0.58504087 0.45163548 0
-1.211398 1.0049893 -0.05619397 0
-1.4499282 1.2028764 0.067258835 0
-1.6776594 1.3918048 0.39312962 0
-1.6779706 1.3920631 0.55624777 0
-0.68103719 0.564996 0.3663767 0
-1.2159624 0.98319322 -0.055826973 0
-1.4717479 1.1900141 0.06757053 0
-1.6952198 1.3707073 0.39316878 0
-1.6706907 1.3508737 0.54815203 0
-0.6859228 0.554618 0.36521894 0
-1.2257534 0.96584111 -0.055713695 0
-1.5186059 1.1965963 0.069024608 0
-1.6797844 1.323598 0.38569278 0
-1.6778049 1.3220383 0.544981 0
-0.70168948 0.55290121 0.36987755 0
-1.2370552 0.94974566 -0.055679392 0
-1.5522891 1.1917657 0.069867954 0
-1.6794071 1.28936 0.38184795 0
-1.6741611 1.2853324 0.53849751 0
-0.69659603 0.53480965 0.36361393 0
-0.68738282 0.52773625 0.43359628 0
-1.2547293 0.93844259 -0.055938579 0
-1.5954274 1.193259 0.071127646 0
-1.6823953 1.2583044 0.37889472 0
-1.6830493 1.2587935 0.53621542 0
-0.69446838 0.51940978 0.35906082 0
-0.71162564 0.53224212 0.44462559 0
-1.2613287 0.91884184 -0.055712551 0
-1.6343466 1.1905746 0.072188646 0
-1.6901541 1.2312288 0.37712052 0
-1.6693585 1.2160798 0.52693301 0
-1.6789798 1.2230886 0.6910851 0
-0.69412464 0.50564992 0.35556284 0
-0.70372403 0.5126428 0.43562084 0
-1.2741262 0.90382946 -0.055770684 0
-1.6935343 1.2013458 0.074128896 0
-1.6842265 1.1947432 0.37241155 0
-1.6749038 1.1881299 0.5239194 0
-1.6666623 1.1822836 0.67983335 0
-0.711595 0.5047856 0.3612273 0
-0.71792591 0.50927657 0.44040745 0
-1.2943163 0.89386892 -0.056157302 0
-1.7367929 1.1994481 0.075355314 0
-1.6876128 1.1654838 0.36988586 0
-1.6676823 1.1517196 0.51708293 0
-1.6749232 1.1567202 0.67720789 0
-0.72229362 0.49882385 0.43919876 0
-1.3063716 0.87810808 -0.056196149 0
-1.7076448 1.1478332 0.07345771 0
-1.703267 1.1448904 0.22055812 0
-1.6821653 1.1307065 0.36554226 0
-1.6661108 1.1199151 0.51218253 0
-1.6752928 1.1260871 0.67157084 0
-0.72159362 0.48503593 0.4350248 0
-1.3179858 0.86202222 -0.056224361 0
-1.7157274 1.1221632 0.073191747 0
-1.7045112 1.1148273 0.21888408 0
-1.6809702 1.0994304 0.36224544 0
-1.6715623 1.0932772 0.50958592 0
-1.6770533 1.0968685 0.66668695 0
-0.72835052 0.47637409 0.43544739 0
-1.3311352 0.84688568 -0.056325912 0
-1.7100291 1.0879431 0.072358504 0
-1.7067791 1.0858753 0.21740219 0
-1.6877391 1.0737618 0.36076176 0
-1.6690584 1.0618769 0.50470626 0
-1.6745305 1.0653583 0.66029865 0
-0.732934 0.46630222 0.43464273 0
-1.3267343 0.82080358 -0.055697929 0
-1.7290529 1.0697038 0.072587758 0
-1.7255484 1.0675358 0.21806338 0
-1.6792096 1.0388676 0.35611406 0
-1.6722105 1.0345374 0.50168031 0
-1.6645442 1.0297946 0.651196 0
-1.3317382 0.80089056 -0.055480223 0
-1.7432821 1.0483879 0.072625145 0
-1.7414128 1.0472637 0.21838439 0
-1.6801211 1.0104036 0.35358107 0
-1.6634728 1.0003916 0.49524042 0
-1.6710781 1.0049653 0.64875001 0
-1.3489856 0.78830647 -0.055780783 0
-1.7578146 1.0272139 0.072685935 0
-1.7707822 1.0347918 0.22041593 0
-1.6867115 0.98566341 0.35232806 0
-1.6729727 0.97763479 0.49436444 0
-1.6730539 0.97768223 0.64468646 0
-1.3619387 0.77303773 -0.055909459 0
-1.8125257 1.0287913 0.074406669 0
-1.816906 1.0312775 0.22452292 0
-1.6776769 0.95225102 0.34790856 0
-1.6781925 0.95254368 0.49232346 0
-1.667686 0.94658017 0.63797444 0
-1.3742044 0.75728291 -0.056017078 0
-1.6853104 0.92872405 0.34703884 0
-1.668208 0.91929948 0.48595983 0
-1.6713099 0.92100883 0.63487375 0
-1.3966193 0.74686587 -0.056542933 0
-1.6803286 0.89858425 0.34365574 0
-1.6716043 0.89391881 0.48363179 0
-1.6686544 0.89234132 0.62954676 0
-1.3826857 0.71717417 -0.055608794 0
-1.6964235 0.87990439 0.34465405 0
-1.6617383 0.8619138 0.47759932 0
-1.6696153 0.8659994 0.62574548 0
-1.4044648 0.70617312 -0.056122631 0
-1.7067508 0.85816425 0.34452945 0
-1.680194 0.84481132 0.47980818 0
-1.6734223 0.84140646 0.62315202 0
-1.4194716 0.69146633 -0.056369901 0
-1.721001 0.83835018 0.34524769 0
-1.6757171 0.81629103 0.47555667 0
-1.6635513 0.81036472 0.61562753 0
-1.4288009 0.67388552 -0.056398932 0
-1.7343242 0.81798381 0.34582669 0
-1.6754714 0.79022622 0.47262555 0
-1.6678956 0.7866531 0.61352074 0
-1.4178424 0.64702052 -0.055640347 0
-1.7323617 0.7905488 0.34342313 0
-1.6650629 0.75983757 0.46695346 0
-1.668703 0.76149869 0.61024219 0
-1.4288346 0.63042194 -0.055755768 0
-1.7462626 0.77047563 0.34422824 0
-1.6680338 0.73596001 0.4651508 0
-1.6803449 0.74139184 0.61103714 0
-1.4388795 0.61332762 -0.055841941 0
-1.7586843 0.74964559 0.34478873 0
-1.6781255 0.71530712 0.46541628 0
-1.6684537 0.7111845 0.60340863 0
-1.4506589 0.59687793 -0.05600296 0
-1.7661054 0.72666937 0.3444224 0
-1.669413 0.68688494 0.46056458 0
-1.6750168 0.68919063 0.60259587 0
-1.4582906 0.57865685 -0.056011844 0
-1.7809495 0.70668948 0.34555447 0
-1.6777076 0.66572255 0.46050367 0
-1.6786973 0.66611528 0.60085475 0
-1.4637213 0.55958426 -0.055945352 0
-1.7841452 0.68208313 0.34448072 0
-1.6783969 0.64165527 0.45843878 0
-1.6740077 0.63997728 0.59624445 0
-1.4662422 0.53948766 -0.055777632 0
-1.7903184 0.65872794 0.34404379 0
-1.6670022 0.6133551 0.45318088 0
-1.6655902 0.61283553 0.59045088 0
-1.486836 0.52590573 -0.05630466 0
-1.8021382 0.63743067 0.34474537 0
-1.6703514 0.59081662 0.45203304 0
-1.6730431 0.59176874 0.59040457 0
-1.4899018 0.50597543 -0.056175031 0
-1.8157296 0.61662757 0.34583262 0
-1.6690497 0.5668146 0.44971356 0
-1.6699357 0.56711549 0.58674133 0
-1.500579 0.48861632 -0.056341153 0
-1.8061266 0.58810824 0.34256589 0
-1.6717037 0.54433769 0.44854623 0
-1.6762801 0.54582787 0.58650905 0
-1.4964336 0.46651027 -0.055960506 0
-1.8189977 0.56706899 0.34362555 0
-1.6715454 0.52110106 0.4467077 0
-1.6728759 0.52151585 0.58297402 0
-1.4966992 0.44599554 -0.055756003 0
-1.8286186 0.54490292 0.34411955 0
-1.6724735 0.49837384 0.44524333 0
-1.6717706 0.49816439 0.58035678 0
-1.5127256 0.43010873 -0.056146815 0
-1.8286328 0.51992971 0.34286296 0
-1.6712408 0.4751789 0.44328707 0
-1.6743027 0.47604945 0.57910889 0
-1.516574 0.41063571 -0.056093287 0
-1.8385527 0.49781638 0.34352034 0
-1.6717312 0.45264694 0.4418703 0
-1.670004 0.45217925 0.575607 0
-1.5223545 0.39169559 -0.056120209 0
-1.8486688 0.4756549 0.34426406 0
-1.684351 0.43337661 0.44372833 0
-1.6609423 0.42735365 0.57058364 0
-1.5279992 0.3726995 -0.056150835 0
-1.8430873 0.44955376 0.34214336 0
-1.6735016 0.40818954 0.4394812 0
-1.6701926 0.4073824 0.57195377 0
-1.5198666 0.35050085 -0.055685375 0
-1.8602608 0.42900017 0.34430125 0
-1.6686784 0.38481879 0.43690738 0
-1.6763966 0.38659871 0.57236588 0
-1.5357568 0.33385727 -0.056109089 0
-1.8631262 0.4050239 0.34386039 0
-1.6687713 0.36277321 0.4357011 0
-1.6757896 0.36429891 0.57054716 0
-1.5311844 0.31272626 -0.055793744 0
-1.8662108 0.38115141 0.34351665 0
-1.6768461 0.34247592 0.43664879 0
-1.6738546 0.34186494 0.56837767 0
-1.5574794 0.29771891 -0.056610793 0
-1.8773339 0.35886046 0.34470499 0
