# .PCD v0.7 - Point Cloud Data file format
VERSION 0.7
FIELDS x y z intensity
SIZE 4 4 4 4
TYPE F F F F
COUNT 1 1 1 1
WIDTH 1355
HEIGHT 1
VIEWPOINT 0 0 0 1 0 0 0
POINTS 1355
DATA ascii
-1.5135471 -0.40981612 -0.055981331 0
-1.5047336 -0.42783636 -0.055850182 0
-1.4971271 -0.44612303 -0.055771943 0
-1.4868484 -0.46352208 -0.055602059 0
-1.4906404 -0.48538011 -0.05596799 0
-1.4878864 -0.50529099 -0.056099042 0
-1.4805086 -0.52366769 -0.056065045 0
-1.472185 -0.54167426 -0.056003705 0
-1.2853503 -0.47293049 0.45565605 0
-1.4563261 -0.55675709 -0.055662699 0
-1.2743747 -0.48719659 0.45390406 0
-1.4546283 -0.57720363 -0.055871177 0
-1.2654749 -0.5021466 0.45295036 0
-1.4465847 -0.59520161 -0.055845678 0
-1.2761364 -0.52507013 0.45909658 0
-1.4419338 -0.61462957 -0.055960476 0
-1.2578169 -0.53614908 0.4548988 0
-1.4283632 -0.63021392 -0.055737372 0
-1.2525374 -0.5526371 0.45547009 0
-1.4249407 -0.65025979 -0.055918906 0
-1.1789645 -0.5380106 0.13927178 0
-1.1882856 -0.54226422 0.23556557 0
-1.4086136 -0.66436428 -0.055602074 0
-1.1670399 -0.55042744 0.13867089 0
-1.1677258 -0.55075097 0.23284617 0
-1.1955471 -0.56387275 0.43977153 0
-1.4165844 -0.6900599 -0.05625524 0
-1.1518936 -0.56112123 0.13769984 0
-1.1488401 -0.55963373 0.23046723 0
-1.1933706 -0.58132589 0.44162858 0
-1.4070159 -0.70745581 -0.056224573 0
-1.1470356 -0.57673615 0.13797632 0
-1.1457895 -0.57610965 0.23129225 0
-1.1753521 -0.59097391 0.43767974 0
-1.388592 -0.72023767 -0.055846334 0
-1.1460286 -0.59442449 0.13874458 0
-1.1554791 -0.59932625 0.23475304 0
-1.3903414 -0.7435087 -0.056288771 0
-1.3774713 -0.75908321 -0.056150246 0
-1.3523045 -0.7675693 -0.055513956 0
-1.352435 -0.79032224 -0.055923417 0
-1.110095 -0.64870608 0.32803375 0
-1.3399739 -0.80584341 -0.055823322 0
-1.1099612 -0.66751659 0.33045182 0
-1.3193802 -0.81625384 -0.055389196 0
-1.3157659 -0.83710754 -0.055675574 0
-1.3112031 -0.85758597 -0.055935014 0
-1.2977488 -0.87231201 -0.055825222 0
-1.2837915 -0.88660043 -0.05570066 0
-2.1479743 -1.4834144 0.093195491 0
-1.2816781 -0.9091866 -0.056101244 0
-2.0330224 -1.4421693 0.088988878 0
-1.2666903 -0.92274755 -0.055949371 0
-2.0113225 -1.4651909 0.088839576 0
-1.2547466 -0.93845546 -0.055939347 0
-1.9944142 -1.4916708 0.088915348 0
-1.2420663 -0.9535929 -0.055904936 0
-1.9694626 -1.5120494 0.088644773 0
-1.2255799 -0.96570432 -0.055705808 0
-1.9432967 -1.5312344 0.088327907 0
-1.210459 -0.97874331 -0.055574302 0
-1.9283527 -1.5592121 0.088534057 0
-1.1998216 -0.99538535 -0.05565697 0
-1.8987738 -1.5752438 0.088079758 0
-1.1955732 -1.0175457 -0.056049824 0
-1.8825099 -1.6021936 0.088254191 0
-1.178254 -1.0286666 -0.055840716 0
-1.8647923 -1.6280441 0.088377662 0
-1.1733568 -1.0507174 -0.056231212 0
-1.8366482 -1.6446815 0.088018365 0
-1.1515316 -1.0575992 -0.055819064 0
-1.8183711 -1.6700435 0.088143282 0
-1.1475304 -1.0808748 -0.056280412 0
-1.7926378 -1.6885103 0.087919585 0
-1.1240007 -1.0857432 -0.055792514 0
-1.7741745 -1.7137871 0.088065475 0
-1.1221215 -1.1115787 -0.056389552 0
-1.0990226 -1.1164626 -0.055930827 0
-1.0905095 -1.1360791 -0.056221161 0
-1.0685921 -1.1416787 -0.055827949 0
-1.0590038 -1.1603811 -0.056085959 0
-1.0498061 -1.1798007 -0.056381173 0
-1.0246967 -1.181201 -0.055827036 0
-1.0157529 -1.2011164 -0.056159329 0
-0.99744868 -1.2100497 -0.05598532 0
-0.98645866 -1.2278966 -0.056231864 0
-0.96464711 -1.2322075 -0.055868577 0
-0.95011365 -1.245643 -0.055930857 0
-0.93684232 -1.260856 -0.056079801 0
-0.9158597 -1.2655976 -0.055773325 0
-0.90057784 -1.2780596 -0.05581833 0
-0.88830543 -1.2949703 -0.056063924 0
-0.87082398 -1.3043962 -0.055992823 0
-0.85788983 -1.3207363 -0.056226067 0
-0.8382777 -1.3268205 -0.056031261 0
-0.81624252 -1.3287039 -0.055672333 0
-0.80226344 -1.3435916 -0.05586841 0
-0.78411537 -1.3515748 -0.05578538 0
-0.76938158 -1.365505 -0.055956025 0
-0.75093418 -1.372903 -0.05586727 0
-0.73432654 -1.3836405 -0.055923499 0
-0.71808398 -1.3951811 -0.056020029 0
-0.70013082 -1.4034522 -0.055993702 0
-0.68187499 -1.4110613 -0.055950284 0
-0.66615772 -1.4240322 -0.056127537 0
-0.65089875 -1.4383267 -0.056363426 0
-0.56382209 -1.2459086 0.45497477 0
-0.62770784 -1.4349121 -0.055915445 0
-0.55461854 -1.2678332 0.46039426 0
-0.60926729 -1.4419364 -0.055885773 0
-0.53264749 -1.2606024 0.45529678 0
-0.58874398 -1.4438058 -0.055666484 0
-0.52056873 -1.2766162 0.45867667 0
-0.57667094 -1.4667542 -0.056266833 0
-0.50268137 -1.2785627 0.45706549 0
-0.55708379 -1.4710648 -0.056158639 0
-0.48782989 -1.2881893 0.45827454 0
-0.53765678 -1.4756012 -0.056068916 0
-0.47309557 -1.2984127 0.45975578 0
-0.51751369 -1.4779108 -0.055904627 0
-0.45693478 -1.3049101 0.45998257 0
-0.50012606 -1.4880649 -0.056046057 0
-0.43959686 -1.3079675 0.45907271 0
-0.48060632 -1.491936 -0.055959482 0
-0.42782274 -1.3280809 0.46420452 0
-0.46210212 -1.4989043 -0.055998158 0
-0.41503504 -1.3462346 0.46868587 0
-0.44339964 -1.5053073 -0.056024335 0
-0.40811083 -1.3855045 0.48053032 0
-0.42176372 -1.5013479 -0.055674903 0
-0.38695523 -1.3774405 0.051080007 0
-0.38839099 -1.3825513 0.1543334 0
-0.38735807 -1.3788745 0.25830448 0
-0.38893643 -1.384493 0.36690187 0
-0.39112207 -1.3922732 0.48113155 0
-0.40671307 -1.5210749 -0.056212068 0
-0.37466705 -1.4012253 0.051782966 0
-0.37182388 -1.3905921 0.15469605 0
-0.37544617 -1.4041392 0.26213089 0
-0.37435833 -1.4000707 0.36975154 0
-0.37400731 -1.3987579 0.48170686 0
-0.38453272 -1.5142775 -0.055777498 0
-0.36677638 -1.5245721 -0.055982139 0
-0.34889433 -1.534979 -0.0561985 0
-0.33045414 -1.543523 -0.056354497 0
-0.31030145 -1.5441195 -0.056229159 0
-0.28994533 -1.5431718 -0.056057248 0
-0.26886874 -1.5374185 -0.055720851 0
-0.25023979 -1.5453155 -0.055888426 0
-0.23195165 -1.5563222 -0.056176413 0
-0.21180025 -1.5551761 -0.056034334 0
-0.19204608 -1.5564567 -0.0559889 0
-0.15442558 -1.2515575 0.045021061 0
-0.15424249 -1.2500737 0.13536333 0
-0.17350951 -1.5684811 -0.056338381 0
-0.13554774 -1.2253165 0.04401223 0
-0.13670374 -1.2357665 0.1336171 0
-0.15168089 -1.5494392 -0.055581402 0
-0.11805466 -1.205943 0.043259528 0
-0.11827603 -1.2082044 0.13046557 0
-0.13356936 -1.5677738 -0.056174316 0
-0.10146502 -1.1909484 0.042672422 0
-0.10181571 -1.1950644 0.12889801 0
-0.11363518 -1.5668024 -0.056083791 0
-0.08512371 -1.173686 0.042012166 0
-0.085313454 -1.1763023 0.12674843 0
-0.093676217 -1.5644013 -0.055951182 0
-0.069409862 -1.159151 0.04145731 0
-0.069559544 -1.1616507 0.1250654 0
-0.074223265 -1.5707936 -0.056141932 0
-0.054495402 -1.5732265 -0.056199897 0
-0.034560457 -1.568261 -0.056002535 0
-0.014804587 -1.5678488 -0.055976719 0
0.004937496 -1.5678458 -0.055974394 0
0.024549579 -1.55949 -0.055682704 0
0.044558231 -1.5722799 -0.056154959 0
0.064251386 -1.5691466 -0.056067504 0
0.083412863 -1.5571826 -0.055673126 0
0.10341598 -1.5620948 -0.055890881 0
0.1237034 -1.5686189 -0.056175586 0
0.14424703 -1.5757046 -0.056489911 0
0.16337235 -1.5670179 -0.056247782 0
0.18239158 -1.5588669 -0.056033202 0
0.20087868 -1.5477674 -0.055720739 0
0.22232118 -1.5589304 -0.056218941 0
0.24154137 -1.5534925 -0.056128077 0
0.26014256 -1.5447464 -0.055925995 0
0.28197476 -1.5545944 -0.05640661 0
0.30126649 -1.5495828 -0.056357946 0
0.31688774 -1.5270369 -0.055678673 0
0.33936968 -1.5377877 -0.056222025 0
0.35836792 -1.5319501 -0.056169134 0
0.37809399 -1.5291985 -0.056238353 0
0.39692691 -1.5228145 -0.056182928 0
0.4171491 -1.5216339 -0.056328706 0
0.43337637 -1.5061859 -0.055954427 0
0.45251226 -1.5012918 -0.055979855 0
0.47035763 -1.4922333 -0.055858504 0
0.48592052 -1.476503 -0.055494323 0
0.50622231 -1.4753661 -0.055686761 0
0.5301109 -1.4838564 -0.056254715 0
0.54358244 -1.4631481 -0.055724718 0
0.56201172 -1.4563161 -0.055729631 0
0.58202714 -1.4534274 -0.055895116 0
0.59984869 -1.4449414 -0.055854827 0
0.62316316 -1.4492943 -0.056321956 0
0.63822395 -1.4342806 -0.056046374 0
0.65639693 -1.4264879 -0.0560604 0
0.67364627 -1.4167224 -0.056005545 0
0.69262832 -1.4105661 -0.056102514 0
0.70677483 -1.3947095 -0.055821396 0
0.7242741 -1.3856888 -0.055820957 0
0.74234313 -1.3777194 -0.055872053 0
0.76417989 -1.376456 -0.056206603 0
0.77791274 -1.3605375 -0.055952139 0
0.7916863 -1.3450357 -0.055720188 0
0.81068206 -1.3384657 -0.055866484 0
0.83001292 -1.3322327 -0.056038123 0
0.84802413 -1.3237094 -0.05612433 0
0.86117971 -1.3076967 -0.055900756 0
0.87973714 -1.2999418 -0.056038357 0
0.89181519 -1.2826921 -0.055774435 0
0.91129267 -1.2761191 -0.055983156 0
0.92310965 -1.2588452 -0.055730876 0
0.94713533 -1.2580788 -0.056220494 0
0.95906889 -1.2410945 -0.05599675 0
0.97252905 -1.2262841 -0.055876631 0
0.98840994 -1.2145776 -0.055905905 0
1.0021225 -1.200237 -0.055822235 0
1.0258756 -1.1977046 -0.056300797 0
1.0342828 -1.1771897 -0.055944234 0
1.0472825 -1.162142 -0.055851411 0
1.0650359 -1.1523297 -0.056019921 0
1.0770963 -1.1363338 -0.055897221 0
1.092483 -1.1238796 -0.055956855 0
1.106415 -1.109902 -0.055950161 0
1.1191726 -1.0947777 -0.055893738 0
1.1367264 -1.0842792 -0.056084082 0
1.1539444 -1.0732806 -0.056262318 0
1.1656466 -1.0571059 -0.056179412 0
1.1848613 -1.0476476 -0.056465197 0
1.182905 -1.0196695 -0.055755656 0
1.2041624 -1.0118473 -0.056152601 0
1.2136059 -0.99398315 -0.056004863 0
1.2204506 -0.97417396 -0.055750221 0
1.2359148 -0.96129256 -0.055899244 0
1.2497044 -0.94700634 -0.055979148 0
1.2612945 -0.9310227 -0.055968728 0
1.2773348 -0.91824341 -0.056162965 0
1.2882307 -0.90169209 -0.056138355 0
1.2919531 -0.88027048 -0.055813104 0
1.2977215 -0.86047703 -0.055589806 0
1.3261493 -0.85548455 -0.056341633 0
1.3224319 -0.82969451 -0.055735409 0
1.3503984 -0.82372838 -0.056472447 0
1.3537475 -0.80256009 -0.056185424 0
1.3571258 -0.78163856 -0.0559127 0
1.3652015 -0.76356113 -0.055844858 0
1.3804144 -0.74940932 -0.056076694 0
1.3945057 -0.73447847 -0.05626896 0
1.4017259 -0.71588254 -0.0561921 0
1.4064264 -0.69609654 -0.056024704 0
1.4075925 -0.67474371 -0.055728283 0
1.4259143 -0.66157764 -0.05611939 0
1.4375459 -0.64510345 -0.056253005 0
1.4418595 -0.62534934 -0.056109216 0
1.4501666 -0.60737431 -0.056130409 0
1.460156 -0.59005958 -0.056225006 0
1.4623426 -0.56963044 -0.056028564 0
1.4734274 -0.55268371 -0.056182168 0
1.4791052 -0.53366756 -0.056137975 0
1.4722205 -0.51032645 -0.055628367 0
1.4883767 -0.49502409 -0.055998858 0
1.4899799 -0.47480661 -0.055829801 0
1.4953344 -0.45585415 -0.055810925 0
1.5095382 -0.43948868 -0.056130055 0
1.5109644 -0.41934019 -0.055982307 0
1.5245184 -0.40249816 -0.05629224 0
1.5100169 -0.37839708 -0.055576432 0
1.5245385 -0.36169744 -0.055938836 0
1.5288615 -0.34244826 -0.055934802 0
1.5294747 -0.32241675 -0.055804275 0
1.5386865 -0.30417573 -0.055996183 0
1.5323001 -0.28291392 -0.055629712 0
1.5465046 -0.2654455 -0.056019612 0
1.5439117 -0.2450296 -0.055809494 0
1.5475737 -0.22567242 -0.055834722 0
1.5387164 -0.20462924 -0.055417802 0
1.5552442 -0.18693022 -0.055923849 0
1.5609136 -0.16770247 -0.056047332 0
1.5631599 -0.14805987 -0.056056604 0
1.5591505 -0.12789442 -0.05585064 0
1.5634246 -0.10844603 -0.055950388 0
1.5693583 -0.089018181 -0.056118179 0
1.5675362 -0.06912671 -0.056017455 0
1.5725992 -0.049519982 -0.056171644 0
1.5703155 -0.02966257 -0.056072291 0
1.5748302 -0.009914902 -0.056224585 0
1.5615091 0.0098310346 -0.055748995 0
1.5696082 0.029649209 -0.056047034 0
1.5750115 0.049595945 -0.05625781 0
0.88101649 0.027742557 0.29325435 0
1.5598922 0.068789609 -0.055744287 0
0.91594028 0.040392008 0.30502415 0
1.5656587 0.08880832 -0.055985883 0
1.4954289 0.084824711 0.05347456 0
1.498091 0.084975705 0.16125758 0
1.4997317 0.08506877 0.2709094 0
0.93214095 0.052873515 0.31061634 0
1.566573 0.10866442 -0.056063067 0
1.4788094 0.10257675 0.05292226 0
1.4695177 0.10193224 0.15830751 0
1.4764385 0.10241229 0.26691356 0
0.95127928 0.065984927 0.31724554 0
1.5641613 0.12830545 -0.056030136 0
1.4697088 0.12055767 0.052646734 0
1.4668028 0.12031931 0.15816574 0
1.4658891 0.12024435 0.26525912 0
0.95755893 0.078546904 0.31964427 0
1.5627067 0.14801694 -0.05604035 0
1.4471728 0.13707377 0.051897179 0
1.4454525 0.13691083 0.15603705 0
1.4451954 0.13688648 0.26180568 0
0.97386891 0.092243224 0.32545066 0
1.555071 0.16707475 -0.055837546 0
1.4271815 0.15333447 0.051245447 0
1.4228351 0.15286751 0.15379108 0
1.4329188 0.15395088 0.25991225 0
0.99291027 0.10667695 0.33223653 0
1.5593033 0.1874181 -0.05606981 0
1.41 0.16947281 0.050701123 0
1.4105589 0.16953999 0.15268284 0
1.4237288 0.17112294 0.25861567 0
0.99157846 0.11918127 0.33226672 0
1.5588721 0.20730968 -0.05614372 0
1.3928995 0.1852375 0.050166119 0
1.3873794 0.18450338 0.15041338 0
1.3932762 0.18528758 0.2534878 0
0.99865657 0.13280831 0.33517233 0
1.551405 0.2262311 -0.055972949 0
1.3802121 0.20126718 0.049796503 0
1.3765088 0.20072716 0.14949703 0
1.3812208 0.20141427 0.25173593 0
1.0082512 0.14702658 0.33898699 0
1.547286 0.24556515 -0.055931475 0
1.3670288 0.21695706 0.049415518 0
1.3599844 0.21583904 0.14798582 0
1.3631916 0.21634807 0.2489268 0
1.0051769 0.15952861 0.33860195 0
1.5397825 0.2642917 -0.055776112 0
1.3895166 0.23849975 0.050332978 0
1.3888563 0.23838639 0.15144213 0
1.3898829 0.23856261 0.25432917 0
0.99659812 0.17105833 0.33641103 0
1.5364612 0.28368223 -0.05578078 0
1.4137225 0.26102054 0.051324785 0
1.4120241 0.26070696 0.1543141 0
1.40394 0.25921434 0.2574783 0
1.0006911 0.18476111 0.33855116 0
1.5394135 0.30431944 -0.056022637 0
1.4364364 0.28396237 0.052275077 0
1.4265963 0.28201714 0.15628234 0
1.4362539 0.28392631 0.26403934 0
1.3138947 0.2597377 0.34170386 0
0.99893814 0.1974754 0.33877254 0
1.534884 0.32355705 -0.056001633 0
1.4524457 0.30617887 0.0529938 0
1.4589789 0.30755609 0.16024138 0
1.4297857 0.30140209 0.26352707 0
1.3001018 0.27406442 0.33898741 0
1.0056994 0.21200372 0.34194371 0
1.5287366 0.34242028 -0.055930231 0
1.4855716 0.33275178 0.054350998 0
1.478283 0.33111921 0.16280662 0
1.4262061 0.31945455 0.2635878 0
1.301469 0.29151481 0.34027404 0
1.0023712 0.22452018 0.3417463 0
1.5192289 0.36043772 -0.055744018 0
1.5068265 0.35749525 0.055288944 0
1.5052228 0.35711476 0.16625561 0
1.4146801 0.33563349 0.26221794 0
1.2733386 0.30210012 0.33388734 0
0.99878639 0.2369625 0.34151432 0
0.75434053 0.17896762 0.45977819 0
1.521414 0.38125309 -0.055995908 0
1.4217982 0.35629025 0.26434794 0
1.2697445 0.31818691 0.33396909 0
0.99881208 0.25029361 0.34257364 0
0.76210696 0.19097735 0.46594071 0
1.5202554 0.40137267 -0.056134835 0
1.4125193 0.37292856 0.26347497 0
1.2399136 0.32735777 0.32718122 0
0.99064857 0.26154768 0.34087628 0
0.78508091 0.20727438 0.4062672 0
0.78229731 0.20653948 0.47983685 0
1.5068345 0.418194 -0.055829287 0
1.4145994 0.39259586 0.2647641 0
1.228633 0.34098434 0.32531178 0
0.99452978 0.27601331 0.34338051 0
0.82633811 0.22933483 0.35506549 0
0.7917223 0.21972786 0.41110325 0
0.80252677 0.22272643 0.49392608 0
1.5049132 0.43814215 -0.055958081 0
1.4074255 0.40975946 0.26436618 0
1.2355789 0.35972783 0.3283242 0
1.0054313 0.29272243 0.34838951 0
0.8358537 0.24335141 0.36044234 0
0.8093273 0.23562849 0.42175192 0
0.81015694 0.23587002 0.5004105 0
1.5023525 0.45799363 -0.056072865 0
1.3933851 0.4247748 0.26271275 0
1.2091829 0.36862057 0.32251799 0
0.99515688 0.30337453 0.3461256 0
0.85160816 0.25961357 0.36861658 0
0.83208287 0.25366127 0.43524018 0
0.83686769 0.25511992 0.51885211 0
1.4938977 0.47605509 -0.055976603 0
1.3917618 0.44350779 0.26343876 0
1.2000712 0.38242242 0.32134661 0
0.99185538 0.31607103 0.34633416 0
0.86632866 0.27606988 0.37646317 0
0.84433413 0.26906097 0.44338551 0
0.84047884 0.26783243 0.52314049 0
1.4893558 0.49534971 -0.056035694 0
1.3895352 0.46215007 0.26409793 0
1.1927303 0.39669406 0.32069311 0
0.9855184 0.32777679 0.34553522 0
0.88955718 0.29586074 0.3881453 0
0.85394537 0.28401649 0.45027506 0
0.86458325 0.28755456 0.54035479 0
1.4857969 0.51503253 -0.056141354 0
1.3840418 0.47976041 0.26418111 0
1.1696062 0.40542904 0.31582329 0
0.98138523 0.34018466 0.34556061 0
0.88827586 0.30790949 0.38924712 0
0.88504338 0.30678898 0.46867251 0
0.88141978 0.3055329 0.55323809 0
1.4692632 0.5301165 -0.055764433 0
1.1640685 0.42000094 0.31573102 0
0.9774825 0.35267991 0.34572273 0
0.90307516 0.32583341 0.3974987 0
0.8953318 0.32303959 0.47623706 0
0.89430052 0.32266748 0.56382853 0
1.4655619 0.54973334 -0.055882253 0
1.1595602 0.43495187 0.31596872 0
0.95961595 0.35995263 0.34097967 0
0.93260342 0.34982023 0.41240212 0
0.92387217 0.34654513 0.49369997 0
0.91729939 0.34407967 0.58101416 0
1.4699819 0.57260621 -0.056321256 0
1.1276786 0.43926784 0.30876407 0
0.96972495 0.37773973 0.34623441 0
0.94242585 0.36710581 0.4187566 0
0.94644427 0.36867112 0.50820261 0
0.94819349 0.36935252 0.60348046 0
1.4543688 0.58772093 -0.056002166 0
1.1330129 0.45785868 0.31177852 0
0.98833376 0.39939281 0.35464612 0
0.9692325 0.39167386 0.43282503 0
0.96206629 0.38877794 0.51917857 0
0.96677995 0.39068276 0.61839187 0
1.4568772 0.61018491 -0.056390148 0
1.118106 0.46829709 0.30927464 0
1.0118337 0.42378703 0.36496457 0
0.98693699 0.41335949 0.44302052 0
0.98383671 0.41206101 0.53368473 0
0.99357039 0.41613778 0.63882929 0
1.4374844 0.62345177 -0.055938959 0
1.1077219 0.48043039 0.30805129 0
1.0409049 0.45145115 0.37747097 0
1.0139055 0.43974128 0.45757562 0
1.0155778 0.44046655 0.55386758 0
1.0088985 0.43756968 0.65217572 0
1.427968 0.64080536 -0.055878211 0
1.0853935 0.48707393 0.30352348 0
1.0727358 0.48139375 0.39118132 0
1.0432293 0.46815261 0.47343236 0
1.054337 0.47313723 0.57820916 0
1.0439082 0.46845728 0.67856622 0
1.4161425 0.65704381 -0.055734802 0
1.0764892 0.49945578 0.3027682 0
1.0645285 0.49390638 0.39042541 0
1.0748148 0.49867895 0.49057716 0
1.080544 0.50133705 0.59599614 0
1.4141475 0.67788595 -0.055987801 0
1.0706043 0.51320499 0.3029066 0
1.1073239 0.5308069 0.40854007 0
1.1057496 0.5300523 0.50770289 0
1.0989509 0.52679324 0.60975933 0
1.4030039 0.69440264 -0.055888373 0
1.0609173 0.52509028 0.30201265 0
1.1448257 0.56661987 0.42497483 0
1.1469494 0.567671 0.52985978 0
1.1398374 0.56415099 0.63633668 0
1.3971024 0.71352118 -0.056006748 0
1.7029024 0.86969793 0.34485063 0
1.0448587 0.53362507 0.29933035 0
1.1702216 0.59764981 0.43716115 0
1.1684673 0.59675384 0.54322886 0
1.1821294 0.60373127 0.6641385 0
1.379315 0.72647756 -0.055656005 0
1.6787845 0.88420653 0.34219417 0
1.0422921 0.54896945 0.30055162 0
1.2135321 0.63916063 0.4563112 0
1.2136486 0.63922197 0.56793112 0
1.217739 0.64137638 0.6886273 0
1.3772947 0.74771571 -0.055949964 0
1.6835252 0.91396433 0.34547898 0
1.0296185 0.5589667 0.29890302 0
1.2626433 0.68547291 0.47798568 0
1.2679626 0.68836063 0.59735638 0
1.3712277 0.76693165 -0.056091368 0
1.0217539 0.5714699 0.041795809 0
1.0099179 0.56485003 0.1243578 0
1.0130272 0.56658906 0.2093325 0
1.0194389 0.57017517 0.29800856 0
1.3062482 0.73058844 0.49793592 0
1.3129287 0.73432487 0.62284756 0
1.3626853 0.78484064 -0.056141753 0
1.0096595 0.58151489 0.041597318 0
1.0000871 0.57600164 0.12403057 0
0.99322814 0.57205123 0.20671333 0
1.0042672 0.57840914 0.29567915 0
1.3433765 0.77371967 0.51576209 0
1.3344337 0.76856905 0.63759005 0
1.3459092 0.79791325 -0.055860113 0
0.98775387 0.58558327 0.040995363 0
0.9944284 0.58954018 0.1242396 0
0.98711532 0.58520466 0.20695837 0
1.0007023 0.59325957 0.2968055 0
1.3788697 0.81745362 0.53329867 0
1.3738678 0.81448823 0.6612795 0
1.3383235 0.8163628 -0.055967484 0
0.98251992 0.59932649 0.041088101 0
0.98978448 0.60375786 0.12459937 0
0.99001932 0.60390109 0.20914498 0
0.98066449 0.59819472 0.29307327 0
1.4159484 0.8637132 0.55180216 0
1.415084 0.86318588 0.68629533 0
1.3313674 0.83530062 -0.056112006 0
0.96859199 0.6076951 0.04082242 0
0.97780198 0.61347347 0.12405358 0
0.97103149 0.60922569 0.20673798 0
0.97333544 0.61067116 0.29315782 0
1.4459293 0.90717679 0.56789261 0
1.3080449 0.84380561 -0.055572469 0
0.97377419 0.62817121 0.041370928 0
0.96126717 0.62010306 0.12293673 0
0.95423943 0.61556953 0.20479694 0
0.96063358 0.61969429 0.2916593 0
1.4683871 0.94724065 0.58135158 0
1.3091768 0.86807263 -0.056080513 0
0.94720572 0.62806135 0.040574949 0
0.95348692 0.63222623 0.12295011 0
0.94698435 0.62791461 0.20492058 0
0.95149654 0.63090646 0.29127413 0
1.4855471 0.98501807 0.59300911 0
1.2950845 0.88240403 -0.055948384 0
0.94412374 0.64327747 0.040786684 0
0.93924206 0.63995129 0.12214269 0
0.94747722 0.64556229 0.2067699 0
0.94012344 0.64055187 0.29023874 0
1.5164226 1.0332125 0.61047935 0
1.2835592 0.89842236 -0.055934787 0
0.93625611 0.65532887 0.040800054 0
0.94091636 0.65859085 0.12342911 0
0.93891877 0.65719265 0.20669177 0
0.92097616 0.64463377 0.28681082 0
1.5387706 1.0770565 0.62488657 0
1.2758963 0.91720927 -0.056099717 0
0.91774684 0.6597448 0.040352289 0
0.91029978 0.65439129 0.12048424 0
0.91826993 0.66012079 0.20395987 0
0.91355473 0.65673119 0.28705221 0
1.5427208 1.1090225 0.63211179 0
1.261248 0.93098837 -0.055966664 0
0.9123413 0.67344338 0.040484264 0
0.89917344 0.66372359 0.12010828 0
0.91418588 0.67480499 0.20492385 0
0.91164356 0.67292833 0.28909132 0
1.5549076 1.1477528 0.64297605 0
1.2601303 0.95490694 -0.056446161 0
0.90072763 0.68255728 0.040347114 0
0.90378404 0.68487334 0.12186644 0
0.90763354 0.68779045 0.20538022 0
0.90062755 0.68248141 0.28830042 0
1.5726053 1.1916956 0.65644747 0
1.2437788 0.96740913 -0.056254927 0
0.88800257 0.69068694 0.040163506 0
0.89378703 0.69518608 0.12168918 0
0.88878286 0.6912939 0.20306832 0
0.8896817 0.691993 0.28756306 0
1.5745317 1.2246683 0.66363627 0
1.2273571 0.9796868 -0.056065712 0
0.87822235 0.70100445 0.040117223 0
0.87933159 0.70188987 0.12091482 0
0.88348985 0.70520902 0.20387174 0
0.87743556 0.70037645 0.28643274 0
1.592533 1.2711732 0.67791635 0
1.2097065 0.99078947 -0.055824921 0
0.93395835 0.76494259 0.12974066 0
0.92790157 0.75998193 0.21631123 0
0.93233281 0.76361126 0.30746812 0
1.5939319 1.3054826 0.68545526 0
1.2053918 1.0128803 -0.056209929 0
1.6298929 1.369585 0.22879389 0
1.6047844 1.3484864 0.37803376 0
1.5916106 1.3374166 0.53039896 0
1.593472 1.3389808 0.69245338 0
1.1933283 1.0286545 -0.056246951 0
1.6097004 1.3875692 0.38327742 0
1.599066 1.3784022 0.538625 0
1.1670545 1.0319029 -0.055616606 0
1.6053133 1.4194089 0.38645795 0
1.6059428 1.4199655 0.54692084 0
1.1613979 1.0532529 -0.055974647 0
1.6139269 1.463644 0.3929373 0
1.6051152 1.4556528 0.55283755 0
1.1462011 1.0660787 -0.055884786 0
1.6044254 1.4922718 0.39516765 0
1.6100096 1.4974656 0.56097341 0
1.1343913 1.0820519 -0.055968873 0
0.60955858 0.58143425 0.34878135 0
0.61505282 0.58667493 0.42528254 0
1.1156737 1.0913551 -0.055718996 0
0.58512741 0.57237321 0.40954158 0
0.59611452 0.58312082 0.49454024 0
1.1140333 1.1175443 -0.056335408 0
0.57593238 0.57774746 0.40816545 0
0.58252251 0.58435833 0.48932999 0
1.0902218 1.1215533 -0.055841032 0
0.58883858 0.60576099 0.3497752 0
0.59438872 0.6114707 0.42666858 0
0.55884427 0.57490474 0.4754833 0
1.0790533 1.1383983 -0.055998776 0
0.58249491 0.61453062 0.3505758 0
0.57461399 0.60621625 0.41792017 0
0.56159538 0.59248167 0.48413342 0
1.0681994 1.1557524 -0.056186318 0
1.5774218 1.7067122 0.4191362 0
1.5807967 1.7103639 0.59420365 0
0.53831071 0.58243239 0.47034565 0
1.0497147 1.1648411 -0.055981122 0
1.5610271 1.7322311 0.42054245 0
1.5605109 1.7316583 0.59472769 0
0.5269767 0.58477235 0.46683955 0
1.0349286 1.1779246 -0.055979162 0
1.5524662 1.7669705 0.42419666 0
1.5626791 1.7785946 0.60404164 0
1.0206306 1.191581 -0.056012947 0
1.5490537 1.8085123 0.42945278 0
1.5433415 1.8018434 0.60528922 0
0.99913234 1.1966556 -0.055655666 0
0.58321863 0.69851798 0.032487612 0
1.5363222 1.8400452 0.43231249 0
1.5368963 1.8407328 0.61180359 0
0.98313868 1.2081001 -0.055607755 0
1.5259175 1.8750774 0.43599421 0
1.5228034 1.8712509 0.61552471 0
0.97081381 1.2241213 -0.055778082 0
1.5095448 1.9034196 0.43812972 0
1.5067099 1.8998449 0.61864042 0
0.9549132 1.2357168 -0.055754114 0
1.4872022 1.9245317 0.43864393 0
1.4902461 1.9284706 0.62180191 0
0.936167 1.2435095 -0.055569429 0
1.4822265 1.9688396 0.44445342 0
1.4751707 1.9594675 0.62575734 0
0.92592597 1.2626858 -0.055900905 0
1.4650104 1.9978356 0.44679922 0
1.4626601 1.9946305 0.63105476 0
0.91053766 1.2750618 -0.055936772 0
1.4435904 2.0215166 0.44799438 0
1.4437262 2.0217066 0.63381916 0
0.89094156 1.2814356 -0.0557198 0
1.4243052 2.048569 0.44997922 0
1.4285487 2.0546725 0.63846403 0
0.87842065 1.2979964 -0.055954497 0
1.4042118 2.0749307 0.45184988 0
1.4043732 2.0751691 0.63928723 0
0.86551285 1.3142766 -0.056182027 0
1.4422654 2.1900721 0.093620092 0
1.4406103 2.1875589 0.28149515 0
1.3743888 2.087002 0.45067409 0
1.3839906 2.1015823 0.64200455 0
0.84801364 1.323693 -0.056123637 0
1.4013107 2.1873529 0.092742197 0
1.4045507 2.1924105 0.27982137 0
1.362353 2.1265428 0.45547202 0
1.3601553 2.1231124 0.64329851 0
0.83182186 1.3351361 -0.056160253 0
1.3695513 2.1982319 0.092464924 0
1.3688685 2.1971359 0.27820244 0
1.3394589 2.1499317 0.45683277 0
1.341787 2.1536684 0.64738607 0
0.80868357 1.3351662 -0.055728763 0
1.3488466 2.2269952 0.092952982 0
1.348147 2.2258401 0.27966529 0
1.3235757 2.185272 0.46076414 0
1.3195302 2.1785927 0.64983213 0
0.79264009 1.3466561 -0.055787317 0
1.3275503 2.2554421 0.093435183 0
1.3282194 2.2565789 0.28140372 0
1.2999613 2.2085698 0.46218833 0
1.2967871 2.203177 0.65224266 0
0.77836156 1.3613225 -0.055984423 0
1.2754363 2.2306857 0.46341884 0
1.2698081 2.2208424 0.65268701 0
0.75849539 1.366217 -0.055788495 0
1.2425923 2.2381821 0.46168894 0
1.2480088 2.2479384 0.65597975 0
0.74978417 1.3915293 -0.056432098 0
1.2224945 2.2688355 0.46479979 0
1.2244822 2.2725246 0.65860265 0
0.72816408 1.3931311 -0.056120761 0
1.1927198 2.281924 0.46436751 0
1.1900321 2.2767818 0.65544164 0
0.7101174 1.4013056 -0.056085397 0
1.1691691 2.3071723 0.46647251 0
1.1701357 2.3090796 0.66044539 0
0.6906141 1.4064641 -0.055939365 0
1.140924 2.3235388 0.46683982 0
1.1459603 2.3337955 0.66333473 0
0.67703426 1.4238474 -0.056287214 0
1.1114314 2.3374131 0.46677852 0
1.1156228 2.3462279 0.66282296 0
0.65443808 1.422231 -0.055893105 0
1.0915195 2.3721004 0.47092336 0
1.0867389 2.361711 0.66327852 0
0.6382916 1.4344327 -0.056052312 0
1.0558308 2.3727686 0.46837947 0
1.058524 2.3788211 0.66428769 0
0.62268347 1.4481788 -0.056278601 0
1.0269561 2.3883982 0.46887484 0
1.0254885 2.384985 0.66235042 0
0.59619278 1.4361349 -0.05551441 0
0.99794072 2.4038827 0.46941054 0
0.9983145 2.404783 0.66430485 0
0.58525097 1.461478 -0.056204721 0
0.97200519 2.4272735 0.47155064 0
0.96976441 2.4216778 0.66554582 0
0.56773067 1.4711355 -0.056296729 0
0.9387247 2.432476 0.47022763 0
0.93847919 2.4318397 0.66503805 0
0.54817891 1.4755204 -0.056195922 0
0.90717131 2.4418118 0.46978685 0
0.90424961 2.4339473 0.66244805 0
0.52460122 1.468434 -0.055670034 0
0.87326467 2.4443929 0.46813074 0
0.87676102 2.4541798 0.66489714 0
0.50959164 1.4851859 -0.056057397 0
0.84647119 2.4670088 0.47038335 0
0.84157467 2.452738 0.66158301 0
0.49174142 1.4941902 -0.056159094 0
0.81473863 2.4756393 0.47003552 0
0.81383061 2.4728804 0.66419923 0
0.47460487 1.5057077 -0.056362893 0
0.78193843 2.4807391 0.46909711 0
0.78399885 2.4872756 0.66536134 0
0.4517183 1.4986577 -0.055881634 0
0.7487098 2.4839809 0.46789026 0
0.74986225 2.4878044 0.66292435 0
0.43638271 1.5166343 -0.056342583 0
0.71413732 2.481962 0.46577916 0
0.71525151 2.4858341 0.65994698 0
0.41308391 1.5068053 -0.055779774 0
0.56373101 2.0563204 0.076122038 0
0.68149358 2.4858828 0.46486765 0
0.68521357 2.4994521 0.66121924 0
0.39656267 1.5214171 -0.056131374 0
0.52421576 2.0111594 0.074199997 0
0.65068382 2.4963555 0.46525699 0
0.65118474 2.4982774 0.658687 0
0.37628177 1.5218691 -0.055968799 0
0.48891333 1.9774067 0.072721817 0
0.61636162 2.4928706 0.46312425 0
0.61726832 2.4965377 0.65612698 0
0.35856128 1.5327767 -0.056199439 0
0.45501253 1.9450862 0.071316816 0
0.58569545 2.5037291 0.46373463 0
0.58658987 2.5075526 0.6570285 0
0.33647421 1.5246674 -0.055742346 0
0.42149648 1.9099294 0.069827646 0
0.5519498 2.5010531 0.46191505 0
0.55097252 2.4966249 0.65229559 0
0.31884488 1.536468 -0.056022551 0
0.390163 1.8801399 0.068553478 0
0.51634884 2.4882116 0.45830619 0
0.51726711 2.4926364 0.64950031 0
0.29888391 1.5373278 -0.055912238 0
0.3575145 1.8388978 0.066880263 0
0.48415154 2.4902632 0.4575249 0
0.48444545 2.491775 0.64763492 0
0.28103229 1.5493983 -0.056218076 0
0.3302584 1.8207937 0.066065334 0
0.4523389 2.4938526 0.45710164 0
0.45037162 2.4830067 0.64383096 0
0.26136512 1.5520059 -0.056188818 0
0.29973158 1.7798289 0.06443692 0
0.29880971 1.7743548 0.19337374 0
0.41949436 2.4909894 0.45557249 0
0.4186697 2.4860926 0.64321309 0
0.14459328 0.85860586 0.43564415 0
0.24053347 1.5470103 -0.055893868 0
0.27309898 1.7564578 0.063461259 0
0.27389172 1.7615565 0.1915879 0
0.38594386 2.4822288 0.45304555 0
0.38754722 2.4925408 0.6435678 0
0.13556929 0.8719247 0.44150075 0
0.21959665 1.5398258 -0.055529982 0
0.24934685 1.7484361 0.06305299 0
0.24795692 1.7386898 0.18874635 0
0.35449356 2.4857314 0.45283422 0
0.3534987 2.4787552 0.63880843 0
0.12341034 0.86536121 0.43735576 0
0.20063448 1.5458858 -0.055652998 0
0.22314852 1.7193562 0.06189806 0
0.22215922 1.7117337 0.18550169 0
0.32017696 2.466959 0.44864434 0
0.32114491 2.474417 0.63659775 0
0.11129331 0.85751337 0.43264687 0
0.18207934 1.5561982 -0.055937275 0
0.19632044 1.6779143 0.060312338 0
0.19665438 1.6807684 0.18186317 0
0.2866165 2.4496579 0.44480631 0
0.28769782 2.4588997 0.63162351 0
0.10160169 0.86837071 0.4374446 0
0.16254677 1.5590991 -0.055963539 0
0.17270724 1.6565554 0.059461713 0
0.17286718 1.6580894 0.17915952 0
0.25526184 2.4483941 0.44395795 0
0.25492939 2.4452052 0.62723142 0
0.092525415 0.88747561 0.44644645 0
0.14236832 1.5551822 -0.055754174 0
0.15063314 1.6454643 0.058990836 0
0.14928272 1.6307127 0.17598435 0
0.22275878 2.4333398 0.44068471 0
0.22355041 2.4419873 0.62563431 0
0.081832141 0.89390594 0.44912726 0
0.1243048 1.576245 -0.056448694 0
0.12803386 1.6235312 0.058142114 0
0.12702923 1.6107919 0.17364815 0
0.19123547 2.4249582 0.43869588 0
0.1920962 2.4358728 0.6233986 0
0.10370234 1.5664203 -0.056045644 0
0.10513665 1.5880854 0.05682081 0
0.10559222 1.5949669 0.17178519 0
0.16001908 2.4170828 0.43687195 0
0.1601063 2.4184003 0.61836201 0
0.084153704 1.5710127 -0.056167591 0
0.086190976 1.6090454 0.057527352 0
0.086217746 1.6095451 0.17322467 0
0.12864675 2.4016256 0.43375099 0
0.12833501 2.3958058 0.61212307 0
0.064100839 1.5654702 -0.055936139 0
0.06645973 1.6230788 0.057994567 0
0.06661021 1.6267539 0.17497261 0
0.097746715 2.3871694 0.43088365 0
0.097799413 2.3884563 0.60988235 0
0.044264022 1.5618986 -0.055784184 0
0.038643725 1.3635811 0.048701148 0
0.046553839 1.642697 0.17661037 0
0.067017555 2.364779 0.42665604 0
0.066968188 2.3630369 0.60312843 0
0.024638761 1.5651551 -0.055884983 0
0.021403491 1.3596376 0.048546828 0
0.026301313 1.6707674 0.17957845 0
0.037042245 2.3530755 0.42442665 0
0.036989171 2.349704 0.59955901 0
0.0049302508 1.5655452 -0.055892259 0
0.0042673978 1.3550638 0.048377763 0
0.0053455322 1.697413 0.1824207 0
0.0073519684 2.3345342 0.42103228 0
0.0073337392 2.3287456 0.59414047 0
-0.014749812 1.562048 -0.055769615 0
-0.01279442 1.3549663 0.048376203 0
-0.016026603 1.697264 0.18241189 0
-0.021929825 2.3224323 0.41886631 0
-0.021914342 2.3207924 0.59213489 0
-0.034374345 1.5598156 -0.05570095 0
-0.030105582 1.3661107 0.048783757 0
-0.038237438 1.7351124 0.1865166 0
-0.050479509 2.2906249 0.41321149 0
-0.050819468 2.3060513 0.58849037 0
-0.054286193 1.5671868 -0.055984147 0
-0.048034646 1.386711 0.049537063 0
-0.06070083 1.7523708 0.18843903 0
-0.078742221 2.2732072 0.41021582 0
-0.078682601 2.2714863 0.57987642 0
-0.074533261 1.5773541 -0.056376409 0
-0.084350705 1.7851216 0.06380225 0
-0.083996579 1.7776272 0.1912535 0
-0.10623298 2.2482181 0.40591556 0
-0.10699492 2.264343 0.57835096 0
-0.042223521 0.8935802 0.37038711 0
-0.093378708 1.5594327 -0.055773485 0
-0.10828199 1.808319 0.064674959 0
-0.10745439 1.794498 0.19319887 0
-0.13281812 2.2180746 0.40074337 0
-0.13376772 2.233933 0.57096869 0
-0.052853752 0.88266242 0.36610857 0
-0.11359187 1.5662051 -0.056062415 0
-0.13221444 1.8229733 0.065253444 0
-0.15970704 2.2020414 0.3981784 0
-0.16031086 2.210367 0.56541657 0
-0.063433759 0.87462491 0.36307731 0
-0.065351546 0.90106744 0.45202443 0
-0.13319056 1.5633276 -0.056015003 0
-0.15754436 1.8491811 0.066257313 0
-0.18639335 2.1877968 0.39599568 0
-0.18652759 2.1893725 0.56060255 0
-0.074124604 0.87003946 0.3615326 0
-0.076831624 0.90181315 0.45284799 0
-0.15260957 1.5589259 -0.055921707 0
-0.18439001 1.8835669 0.067567214 0
-0.21147937 2.1602879 0.39146748 0
-0.21065345 2.1518514 0.5516305 0
-0.086466171 0.88326269 0.36745062 0
-0.17234319 1.5579379 -0.055959679 0
-0.20945808 1.8934469 0.068010852 0
-0.23684135 2.1409845 0.38847914 0
-0.23542324 2.1281652 0.5462752 0
-0.09670186 0.87415975 0.3641414 0
-0.19257078 1.5607091 -0.056141872 0
-0.23919441 1.938575 0.069734469 0
-0.26093751 2.114794 0.38429266 0
-0.25973499 2.1050482 0.54113799 0
-0.10795718 0.87494975 0.36500782 0
-0.10622167 0.86088413 0.43400136 0
-0.21095794 1.5489913 -0.055811487 0
-0.26660681 1.9576018 0.070534073 0
-0.28470623 2.0904996 0.38049924 0
-0.28351185 2.0817294 0.53601873 0
-0.1189606 0.87348658 0.36499339 0
-0.11544036 0.84763867 0.42802277 0
-0.2314989 1.5532843 -0.056066755 0
-0.29511458 1.9801254 0.071473852 0
-0.30872175 2.0714252 0.3777051 0
-0.30471659 2.0445518 0.52739215 0
-0.30534863 2.0487926 0.68915004 0
-0.13017692 0.87344587 0.36563236 0
-0.13014048 0.87320149 0.44172344 0
-0.25193861 1.5558062 -0.056267835 0
-0.32596925 2.0129704 0.072801806 0
-0.33082002 2.0429258 0.37323847 0
-0.32893211 2.0312672 0.52499217 0
-0.32805258 2.0258358 0.68276346 0
-0.13889457 0.85772097 0.3597534 0
-0.14057812 0.86811751 0.44001222 0
-0.26844597 1.535001 -0.055633236 0
-0.35776663 2.0457454 0.074144207 0
-0.35369229 2.0224481 0.37028158 0
-0.35184667 2.0118945 0.52108902 0
-0.35249293 2.0155897 0.68075222 0
-0.15138531 0.86563635 0.43968597 0
-0.28986743 1.542757 -0.056042183 0
-0.38620368 2.055486 0.074667573 0
-0.38637951 2.0564218 0.22486933 0
-0.37812734 2.0125015 0.36930296 0
-0.37471724 1.9943519 0.51772642 0
-0.37301716 1.9853036 0.67205644 0
-0.15997905 0.85145408 0.43347117 0
-0.308458 1.5349461 -0.055895109 0
-0.40311307 2.0059679 0.073047377 0
-0.40417084 2.0112317 0.22046684 0
-0.39522141 1.9666976 0.36178231 0
-0.39524364 1.9668081 0.51182765 0
-0.39366284 1.9589417 0.66475785 0
-0.175962 0.87562066 0.44686687 0
-0.32855365 1.5346459 -0.056030393 0
-0.42542484 1.987123 0.072550468 0
-0.42531285 1.9865998 0.21833652 0
-0.41733271 1.9493253 0.35952482 0
-0.41715717 1.9485054 0.50839132 0
-0.41762206 1.9506768 0.66368514 0
-0.18436271 0.8611424 0.44062784 0
-0.34629619 1.5235484 -0.055780005 0
-0.44759732 1.969228 0.072097182 0
-0.44613218 1.9627821 0.21631911 0
-0.44341627 1.9508333 0.36080417 0
-0.43884531 1.9307232 0.50515348 0
-0.43862975 1.9297748 0.65840054 0
-0.36624637 1.522369 -0.055901241 0
-0.47425717 1.9713355 0.072387248 0
-0.47468236 1.9731028 0.21809803 0
-0.46184745 1.9197522 0.35610312 0
-0.4580557 1.9039911 0.49962884 0
-0.45905256 1.9081347 0.65293783 0
-0.38368192 1.5109271 -0.055654094 0
-0.50079352 1.9721087 0.07264144 0
-0.50073498 1.9718783 0.21864231 0
-0.48211995 1.8985728 0.35327259 0
-0.4780477 1.8825364 0.49553922 0
-0.47991729 1.8898988 0.64871424 0
-0.40652525 1.5203725 -0.056186114 0
-0.53030676 1.9833056 0.073294029 0
-0.53064919 1.9845861 0.22077477 0
-0.50213659 1.8779514 0.35058424 0
-0.49863863 1.8648694 0.49250248 0
-0.49823356 1.8633544 0.64170545 0
-0.42467362 1.5117062 -0.056059022 0
-0.52001637 1.8510967 0.34676588 0
-0.51787007 1.8434567 0.48853099 0
-0.52101547 1.8546535 0.64091754 0
-0.44210663 1.5009177 -0.055860963 0
-0.54025793 1.8341337 0.34483525 0
-0.53692973 1.8228347 0.48481932 0
-0.53673023 1.8221574 0.63197333 0
-0.46187165 1.4981568 -0.055970233 0
-0.564219 1.8301373 0.34539226 0
-0.55686122 1.8062712 0.48224068 0
-0.55859709 1.8119017 0.63080591 0
-0.47909656 1.4872493 -0.055783693 0
-0.58401185 1.8129356 0.34350652 0
-0.57577896 1.7873783 0.47909436 0
-0.57344753 1.7801408 0.62221313 0
-0.49906999 1.4849226 -0.055927712 0
-0.60723293 1.8067485 0.34375578 0
-0.59342736 1.7656716 0.47524133 0
-0.59697855 1.7762377 0.62342697 0
-0.51836079 1.48033 -0.055996135 0
-0.62767118 1.7924975 0.34252098 0
-0.61482072 1.7557993 0.4746303 0
-0.61365336 1.7524655 0.61774647 0
-0.53409165 1.4658167 -0.055697132 0
-0.65154976 1.7881809 0.34323668 0
-0.63037825 1.7300757 0.46978518 0
-0.630566 1.7305909 0.61278605 0
-0.55432844 1.4637889 -0.055880874 0
-0.67585903 1.7847089 0.34417653 0
-0.65276557 1.7237272 0.47025603 0
-0.64867014 1.7129124 0.60937023 0
-0.57314461 1.4577849 -0.055922758 0
-0.7018671 1.7851887 0.34594601 0
-0.66641414 1.6950146 0.46467534 0
-0.66657245 1.6954173 0.60608429 0
-0.59203547 1.4518777 -0.055977695 0
-0.72007388 1.7658726 0.34393269 0
-0.68836695 1.688116 0.46512356 0
-0.68387091 1.6770902 0.60256332 0
-0.6113025 1.4467529 -0.056072451 0
-0.74180859 1.7556182 0.34372753 0
-0.70402491 1.6661966 0.46149018 0
-0.70044458 1.6577232 0.59872645 0
-0.62546515 1.4297855 -0.055715669 0
-0.76150578 1.7407683 0.34267035 0
-0.71908402 1.6437941 0.45775694 0
-0.71563464 1.6359088 0.59405529 0
-0.64621657 1.4279803 -0.055957984 0
-0.78550291 1.7357689 0.34360608 0
-0.73593539 1.6262368 0.45541221 0
-0.73855013 1.6320148 0.59597111 0
-0.66568655 1.423025 -0.056087837 0
-0.81121451 1.7341173 0.34527388 0
-0.75735986 1.6189933 0.4560183 0
-0.75362438 1.6110079 0.59171849 0
-0.68712807 1.4219319 -0.056381315 0
-0.82735777 1.712121 0.34294143 0
-0.76938272 1.5921483 0.45115003 0
-0.77305472 1.5997472 0.591111 0
-0.6952005 1.393569 -0.055599395 0
-0.85389304 1.7116772 0.3449789 0
-0.78445256 1.5724798 0.44834024 0
-0.78790724 1.579405 0.58721399 0
-0.71878356 1.3965404 -0.056074612 0
-0.87336701 1.6968839 0.34418663 0
-0.80650175 1.5669699 0.44962916 0
-0.80386096 1.5618391 0.58440018 0
-0.73901725 1.3924789 -0.056280725 0
-0.89003795 1.6770369 0.34240711 0
-0.82865471 1.5613767 0.4509826 0
-0.82423764 1.5530539 0.58495015 0
-0.75334197 1.377305 -0.0560464 0
-0.91403723 1.6710976 0.34351721 0
-0.83818156 1.5324138 0.44563031 0
-0.83816177 1.5323777 0.58109176 0
-0.7676332 1.362402 -0.055828869 0
-0.93560416 1.6605182 0.34373701 0
-0.84473306 1.4992393 0.43904155 0
-0.85367745 1.5151139 0.57857567 0
-0.7878232 1.3579659 -0.056049172 0
-0.95943272 1.6537683 0.34481332 0
-0.86731046 1.4949777 0.44095683 0
-0.87267381 1.5042225 0.57856703 0
-0.80025315 1.3402247 -0.055728417 0
-0.97433209 1.6317637 0.34275627 0
-0.88255167 1.4780543 0.43920827 0
-0.88295841 1.4787356 0.57299501 0
-0.81952375 1.3340452 -0.055896133 0
-0.99779183 1.6242353 0.34378684 0
-0.90024906 1.4654522 0.4387973 0
-0.90173548 1.4678719 0.57313991 0
-0.83106488 1.3154041 -0.055549148 0
-1.0214576 1.6167564 0.344899 0
-0.91503459 1.4483107 0.43708012 0
-0.90879679 1.4384377 0.56607056 0
-0.85523766 1.3166533 -0.056052241 0
-1.0431325 1.6059207 0.34536216 0
-0.92822176 1.4290135 0.43474939 0
-0.92669654 1.4266654 0.56598514 0
-0.86601019 1.2971855 -0.0556833 0
-1.0540856 1.5789015 0.34237888 0
-0.94489038 1.4153392 0.43417466 0
-0.94766766 1.4194993 0.56783134 0
-0.89373332 1.3028831 -0.056406498 0
-1.0767038 1.5696172 0.34327844 0
-0.96010631 1.3996415 0.43303356 0
-0.96314424 1.4040703 0.56646591 0
-0.9036029 1.2823526 -0.056005828 0
-1.0997273 1.5606835 0.3443259 0
-0.98346275 1.395686 0.43560672 0
-0.97509301 1.383808 0.56320035 0
-0.91874921 1.2695905 -0.055949286 0
-1.1210645 1.5491637 0.34487149 0
-0.98840117 1.3658403 0.43014205 0
-0.98913151 1.3668495 0.56132311 0
-0.92824221 1.2492815 -0.055564992 0
-1.1330392 1.524909 0.34262103 0
-1.0125077 1.3626908 0.43313107 0
-1.0064585 1.3545495 0.56143194 0
-0.95075929 1.2464894 -0.055968866 0
-1.1557105 1.5151899 0.34367985 0
-1.0267485 1.3461149 0.43193766 0
-1.0195159 1.3366325 0.55928248 0
-0.96527112 1.2330046 -0.055904716 0
-0.59111065 0.75506467 0.034234811 0
-0.58522338 0.74754453 0.10202846 0
-0.59186846 0.75603265 0.17316233 0
-1.0365543 1.3240592 0.42901477 0
-1.0394558 1.3277656 0.56100464 0
-0.97970021 1.219484 -0.055846605 0
-0.59557867 0.74134785 0.033950228 0
-0.59301561 0.73815745 0.10175839 0
-0.59722662 0.74339914 0.17197758 0
-1.0565667 1.3151637 0.43040919 0
-1.0516179 1.3090037 0.55862814 0
-0.49054807 0.61061078 0.4645057 0
-1.0029513 1.2167253 -0.056294173 0
-0.60599768 0.73516303 0.034013752 0
-0.60718811 0.73660719 0.10259055 0
-0.61037022 0.74046755 0.17306373 0
-1.0597579 1.28564 0.42508066 0
-1.0669491 1.294364 0.55806994 0
-1.0159712 1.2013745 -0.056171395 0
-0.61068147 0.72212404 0.10163636 0
-0.61242026 0.7241801 0.17104582 0
-1.0823777 1.2798995 0.42765513 0
-1.0790229 1.2759324 0.55593723 0
-1.0299941 1.1873075 -0.05611565 0
-0.61633414 0.71046829 0.10108017 0
-0.62812394 0.72405875 0.1728716 0
-1.0919238 1.2586958 0.42513087 0
-1.0928509 1.2597646 0.55484474 0
-1.0374107 1.1658703 -0.055715457 0
-0.63460571 0.71318722 0.10259578 0
-0.62474686 0.70210755 0.16949549 0
-1.112995 1.2508142 0.42716858 0
-1.1130807 1.2509104 0.55707407 0
-1.1132418 1.2510915 0.69337577 0
-0.51840633 0.58259916 0.46248877 0
-1.0569941 1.1581789 -0.05597952 0
-0.63823873 0.69933659 0.10175137 0
-0.62886918 0.68907005 0.16824648 0
-1.1312578 1.2395518 0.42815325 0
-1.1280276 1.2360123 0.55672097 0
-1.1263388 1.234162 0.69179881 0
-0.52425063 0.57443655 0.4612129 0
-1.0654716 1.1383449 -0.055664927 0
-0.63543028 0.67889071 0.09993282 0
-0.64047992 0.6842857 0.16903411 0
-1.1436062 1.2218235 0.42696995 0
-1.1414611 1.2195317 0.55572784 0
-1.1456486 1.2240056 0.69413722 0
-0.54953396 0.58711946 0.47691408 0
-1.092952 1.1386237 -0.056347087 0
-0.58378911 0.60818416 0.34904426 0
-0.57760292 0.60173953 0.41733161 0
-0.55888999 0.58224452 0.47863293 0
-1.1008062 1.1182745 -0.056021594 0
-0.57987565 0.58907747 0.41358137 0
-0.58018917 0.589396 0.49047866 0
-1.1101582 1.0997277 -0.055788361 0
-0.58126956 0.57580829 0.4093717 0
-0.58517599 0.57967806 0.48848489 0
-1.1335177 1.0949363 -0.056264915 0
-0.60825473 0.58755159 0.35014585 0
-0.60987031 0.58911222 0.42425635 0
-1.1392677 1.0730919 -0.055875164 0
-0.61594129 0.5801636 0.35033739 0
-0.61695927 0.58112246 0.42406365 0
-1.1626705 1.0678295 -0.056359008 0
-0.69899702 0.64197862 0.10199586 0
-0.69576657 0.63901174 0.17037246 0
-1.2336341 1.1330044 0.42734057 0
-1.2330861 1.1325011 0.55700797 0
-1.2284397 1.1282338 0.69058114 0
-1.1753036 1.0524607 -0.056324508 0
-0.70461524 0.63096875 0.10164825 0
-0.708992 0.63488799 0.1716397 0
-1.2418665 1.1120664 0.42530775 0
-1.2489244 1.1183866 0.55775666 0
-1.2553775 1.1241653 0.69771141 0
-1.179262 1.0295466 -0.055888485 0
-0.70725775 0.61746651 0.10089979 0
-0.71728009 0.62621647 0.17172357 0
-1.2615441 1.1013825 0.42726326 0
-1.2639179 1.1034548 0.55820304 0
-1.1901404 1.0129218 -0.055795129 0
-0.72203833 0.61452281 0.10189641 0
-0.7190029 0.61193937 0.17027773 0
-1.2817355 1.0908779 0.42941535 0
-1.2770644 1.0869024 0.55792034 0
-1.2072227 1.0015253 -0.056000289 0
-0.72803235 0.6039837 0.10166092 0
-0.73056233 0.60608262 0.17119427 0
-1.2926559 1.0724018 0.42851585 0
-1.3053159 1.0829046 0.56426066 0
-1.2232777 0.98910809 -0.056162827 0
-0.74509567 0.60246354 0.10297611 0
-0.74072552 0.59892994 0.17179492 0
-1.3100758 1.0592906 0.4298346 0
-1.3102834 1.0594585 0.56059659 0
-1.2373395 0.97497046 -0.056240313 0
-0.75243825 0.59288901 0.034200285 0
-0.74770302 0.58915788 0.10230303 0
-0.75047642 0.59134322 0.17231576 0
-1.3265693 1.0452797 0.43089342 0
-1.317983 1.038514 0.55825156 0
-1.2465477 0.95703346 -0.056106646 0
-0.75199091 0.57733887 0.033846829 0
-0.75313085 0.57821411 0.10204139 0
-0.75689059 0.58110064 0.17209475 0
-1.3420471 1.0303528 0.4316723 0
-1.340988 1.0295398 0.56245995 0
-1.2541089 0.93797857 -0.055910919 0
-0.76493526 0.57211369 0.034102488 0
-0.75937814 0.5679574 0.10191075 0
-0.76069993 0.568946 0.17131834 0
-1.3579637 1.0156541 0.43264392 0
-1.3576182 1.0153956 0.56402755 0
-1.2681178 0.92378747 -0.056012426 0
-0.76888776 0.56011271 0.033961568 0
-0.77216315 0.56249875 0.10266782 0
-0.77225709 0.56256717 0.1723121 0
-1.3664787 0.99544054 0.43132901 0
-1.3758998 1.0023036 0.56633431 0
-1.2719773 0.90230513 -0.055676624 0
-0.78425407 0.55632788 0.034328144 0
-0.77715051 0.55128884 0.10239982 0
-0.76925921 0.54569095 0.17009649 0
-1.39108 0.98679328 0.43513769 0
-1.3767542 0.97663093 0.56157953 0
-1.296265 0.89521474 -0.056241855 0
-0.79383242 0.54822934 0.034442499 0
-0.78974789 0.54540849 0.10314658 0
-0.79025453 0.54575843 0.1732056 0
-1.3936619 0.96247804 0.43211994 0
-1.3929617 0.96199453 0.56320477 0
-1.3029789 0.87582761 -0.056050207 0
-0.8087616 0.54362792 0.034790475 0
-0.79696918 0.53570139 0.10320052 0
-0.79962283 0.53748506 0.17376171 0
-1.4162325 0.95195359 0.43536693 0
-1.4085667 0.94680089 0.56464899 0
-1.3111093 0.85752463 -0.055931013 0
-0.80457878 0.52623081 0.034322772 0
-0.81623197 0.53385252 0.10481608 0
-0.79886234 0.52249199 0.1721531 0
-1.4290545 0.93466616 0.43565595 0
-1.4359843 0.93919849 0.57085359 0
-1.3341242 0.84878737 -0.056452394 0
-0.81259561 0.51698399 0.034384329 0
-0.82088828 0.52225989 0.10456122 0
-0.81661004 0.51953804 0.17455404 0
-1.4535394 0.92476088 0.57315779 0
-1.3416147 0.83000958 -0.05632263 0
-0.82173532 0.50837857 0.034497455 0
-0.81845909 0.50635165 0.10343145 0
-0.81645292 0.5051105 0.17314714 0
-1.4607657 0.90372401 0.57147461 0
-1.3405403 0.80618399 -0.055846918 0
-0.84980255 0.51106054 0.035402779 0
-0.83876526 0.50442284 0.10518657 0
-0.83715951 0.50345713 0.17618001 0
-1.474267 0.88660562 0.57234353 0
-1.3591864 0.79426754 -0.05620259 0
-0.90797937 0.53059578 0.037545104 0
-0.90989006 0.53171229 0.11325745 0
-0.89077526 0.5205422 0.18606924 0
-1.4990908 0.87602347 0.57765234 0
-1.3593367 0.77156085 -0.055802643 0
-0.98132384 0.55700034 0.04028469 0
-0.97317982 0.55237776 0.12026003 0
-1.5131477 0.85886407 0.31378928 0
-1.5081297 0.85601586 0.57693607 0
-1.3704267 0.7552011 -0.055863086 0
-1.0545353 0.58112282 0.042986315 0
-1.0458524 0.57633793 0.12833349 0
-1.5237104 0.83967113 0.31376219 0
-1.5154283 0.83510715 0.57565969 0
-1.3760264 0.73585349 -0.055709217 0
-1.1496539 0.614797 0.046544399 0
-1.1480888 0.61395997 0.13991886 0
-1.5413002 0.82423645 0.5814988 0
-1.394974 0.72354794 -0.05610301 0
-1.2563167 0.65162885 0.050526492 0
-1.2572403 0.65210795 0.15220848 0
-1.5520736 0.80503267 0.5816927 0
-1.3982297 0.7030381 -0.055873476 0
-1.3862216 0.69700032 0.055393633 0
-1.381958 0.69485652 0.16623501 0
-1.5780119 0.79343361 0.58762288 0
-1.4111111 0.68739367 -0.056037888 0
-1.5330498 0.74679363 0.060880303 0
-1.5329918 0.74676532 0.18325712 0
-1.4192989 0.66940391 -0.056023855 0
-1.431313 0.65316778 -0.056168981 0
-1.437061 0.6340515 -0.056076776 0
-1.6383113 0.72284603 0.19244419 0
-1.4370581 0.61255127 -0.055771254 0
-1.6641625 0.70935535 0.19441615 0
-1.4438182 0.59406334 -0.055738878 0
-1.4549444 0.57732904 -0.055883318 0
-1.683627 0.66807145 0.32667115 0
-1.4706969 0.56225103 -0.056211967 0
-1.706524 0.6524083 0.3294937 0
-1.4777865 0.54373527 -0.056216795 0
-1.7266586 0.63530499 0.33181036 0
-1.4751281 0.52176458 -0.055861294 0
-1.484224 0.50404716 -0.05596095 0
-1.4792205 0.48166159 -0.055539217 0
-1.5010433 0.46794736 -0.056132894 0
-1.5018431 0.44752833 -0.055947628 0
-1.5103247 0.4294261 -0.056057706 0
-1.5063756 0.40787435 -0.055716079 0
-1.5285728 0.3932955 -0.056349441 0
-1.522006 0.3712377 -0.0559306 0
-1.5211568 0.3507984 -0.055732645 0
-1.9153472 0.4417038 0.35449678 0
-1.5397629 0.33472815 -0.056255452 0
-1.9361185 0.42089167 0.35733193 0
-1.5467018 0.31589547 -0.056359168 0
-1.9575924 0.39981499 0.071331315 0
-1.5404992 0.29447308 -0.055993605 0
-1.9994751 0.38220829 0.072676323 0
-1.9892071 0.38024551 0.21764939 0
-1.5377502 0.27392456 -0.055763889 0
-2.0098155 0.35801512 0.072882533 0
-1.5399561 0.25435552 -0.055723317 0
-2.0289187 0.33511779 0.073416434 0
-1.5553107 0.23681431 -0.056166563 0
-2.0587897 0.31347489 0.074348584 0
-1.5551535 0.2167919 -0.056057859 0
-2.0712409 0.28873563 0.074661009 0
-1.5493957 0.19613463 -0.055756863 0
