# .PCD v0.7 - Point Cloud Data file format
VERSION 0.7
FIELDS x y z intensity
SIZE 4 4 4 4
TYPE F F F F
COUNT 1 1 1 1
WIDTH 1356
HEIGHT 1
VIEWPOINT 0 0 0 1 0 0 0
POINTS 1356
DATA ascii
-1.8759325 -0.21350774 0.067405589 0
-1.5555741 -0.19691674 -0.0559792 0
-1.878583 -0.23780572 0.067603059 0
-1.5530993 -0.21650553 -0.055983812 0
-2.1727436 -0.30288532 0.078319825 0
-1.5387353 -0.2342905 -0.05556798 0
-1.9858913 -0.30237526 0.071716018 0
-1.5397713 -0.254325 -0.05571663 0
-2.1386962 -0.35324976 0.077388726 0
-1.5293983 -0.2724368 -0.055461019 0
-2.0737159 -0.36939794 0.075199775 0
-1.5338724 -0.2932063 -0.055752732 0
-1.5396934 -0.31446409 -0.056103796 0
-1.5389593 -0.33455345 -0.056226093 0
-1.4404242 -0.313133 0.49041358 0
-1.5192294 -0.3503539 -0.055662028 0
-1.436743 -0.33133149 0.49054185 0
-1.5239865 -0.37172076 -0.056003377 0
-1.413676 -0.34481457 0.48411027 0
-1.5268896 -0.39286241 -0.056287389 0
-1.3998278 -0.36016998 0.48088297 0
-1.5229292 -0.4123565 -0.056328349 0
-1.4074603 -0.38109151 0.48511502 0
-1.5155833 -0.43092123 -0.056252882 0
-1.3849196 -0.39377004 0.4790169 0
-1.5070664 -0.44908482 -0.056142207 0
-1.3551093 -0.40380374 0.47042754 0
-1.5092838 -0.47051629 -0.056441054 0
-1.3423241 -0.41846696 0.46778134 0
-1.4992549 -0.4881852 -0.056291439 0
-1.3232296 -0.43086803 0.46298116 0
-1.4909711 -0.50633854 -0.056215346 0
-1.3101232 -0.444922 0.46031919 0
-1.4792194 -0.52321172 -0.056016233 0
-1.3093007 -0.46311012 0.46204254 0
-1.4773476 -0.5435738 -0.056200095 0
-1.2896876 -0.47452635 0.45719364 0
-1.4566036 -0.55686313 -0.055673305 0
-1.2635709 -0.48306626 0.45005596 0
-1.4561853 -0.57782149 -0.055930987 0
-1.2806071 -0.50815117 0.4583666 0
-1.4389044 -0.59204149 -0.055549175 0
-1.2410045 -0.51061499 0.34237346 0
-1.2679385 -0.5216971 0.45614734 0
-1.456696 -0.62092203 -0.056533393 0
-1.2200177 -0.520037 0.33836332 0
-1.2641965 -0.53886837 0.45720604 0
-1.4281721 -0.63012964 -0.055729918 0
-1.1620666 -0.51272011 0.32405591 0
-1.2371941 -0.54586744 0.44989067 0
-1.4321954 -0.65357041 -0.056203604 0
-1.1885321 -0.5423767 0.23561443 0
-1.1382573 -0.51943421 0.31921509 0
-1.4268006 -0.6729421 -0.056319971 0
-1.1725731 -0.55303717 0.23381273 0
-1.1201942 -0.52833301 0.31599012 0
-1.1931415 -0.56273812 0.43888664 0
-1.3869823 -0.67563987 -0.055079687 0
-1.15222 -0.56128019 0.23114528 0
-1.1201769 -0.54567111 0.31789833 0
-1.1943417 -0.58179891 0.4419879 0
-1.4061146 -0.70700258 -0.056188554 0
-1.1388236 -0.57260716 0.2298861 0
-1.1502576 -0.57835621 0.32847574 0
-1.1698271 -0.58819586 0.4356223 0
-1.3935735 -0.72282159 -0.056046683 0
-1.1490138 -0.59597278 0.23343951 0
-1.1499929 -0.59648067 0.33051887 0
-1.3735516 -0.73453009 -0.055609025 0
-1.2469217 -0.6668126 0.36076179 0
-1.3606036 -0.74978793 -0.055462666 0
-1.1376625 -0.62693179 0.3314085 0
-1.3597631 -0.77180284 -0.055820145 0
-1.1102988 -0.63020658 0.32572311 0
-1.3579141 -0.79352403 -0.056149982 0
-1.1149867 -0.6515646 0.32947925 0
-1.3476685 -0.81047082 -0.056143876 0
-1.1167306 -0.67158771 0.3324672 0
-1.3288107 -0.82208812 -0.055785101 0
-1.3227907 -0.84157687 -0.055972826 0
-1.3178866 -0.86195731 -0.056220129 0
-1.3065702 -0.87824154 -0.056204692 0
-1.2974142 -0.89600837 -0.056291714 0
-2.1352956 -1.4746584 0.092645392 0
-1.2689456 -0.90015453 -0.055543922 0
-2.0338619 -1.4427648 0.089025617 0
-1.2684358 -0.92401922 -0.056026474 0
-2.0218539 -1.4728627 0.089304745 0
-1.2583034 -0.94111568 -0.056097921 0
-2.0039091 -1.4987725 0.08933866 0
-1.2347498 -0.94797564 -0.055575624 0
-1.9675249 -1.5105617 0.088557556 0
-1.236079 -0.97397721 -0.056183018 0
-1.9515285 -1.5377208 0.088702075 0
-1.2232606 -0.98909432 -0.056162044 0
-1.9260877 -1.5573807 0.088430077 0
-1.2014153 -0.9967075 -0.055730898 0
-1.9076058 -1.5825709 0.088489451 0
-1.1921756 -1.014654 -0.055890545 0
-1.8824321 -1.6021273 0.088250548 0
-1.1711633 -1.0224761 -0.055504665 0
-1.8621677 -1.6257528 0.088253275 0
-1.1655077 -1.0436887 -0.055855054 0
-1.8260368 -1.6351792 0.087509833 0
-1.149848 -1.0560529 -0.055737454 0
-1.8099159 -1.6622779 0.087733433 0
-1.1391846 -1.0730137 -0.055871092 0
-1.7947831 -1.6905309 0.088024795 0
-1.128666 -1.0902497 -0.056024086 0
-1.767861 -1.7076885 0.087752089 0
-1.1259147 -1.1153362 -0.056580167 0
-1.0993178 -1.1167625 -0.055945847 0
-1.0915352 -1.1371477 -0.056274042 0
-1.073186 -1.1465869 -0.056067962 0
-1.0563974 -1.1575252 -0.055947922 0
-1.0441648 -1.1734608 -0.056078199 0
-1.03098 -1.1884439 -0.056169357 0
-1.025227 -1.2123194 -0.056683131 0
-1.0022703 -1.2158991 -0.056255952 0
-0.98637503 -1.2277925 -0.056227099 0
-0.97082102 -1.2400938 -0.056226145 0
-0.95261651 -1.2489244 -0.056078196 0
-0.93111789 -1.2531518 -0.055737134 0
-0.91585797 -1.2655952 -0.055773221 0
-0.90711451 -1.2873361 -0.056223478 0
-0.88416862 -1.2889396 -0.055802833 0
-0.86907578 -1.3017775 -0.055880416 0
-0.85391027 -1.3146096 -0.055965248 0
-0.8351981 -1.3219461 -0.05582542 0
-0.82684678 -1.3459659 -0.056395605 0
-0.80288017 -1.3446243 -0.055911355 0
-0.78614259 -1.3550692 -0.055929605 0
-0.77397269 -1.3736533 -0.05628993 0
-0.75770229 -1.3852768 -0.056370795 0
-0.74370301 -1.4013081 -0.056637578 0
-0.71613884 -1.3914019 -0.055868287 0
-0.69783956 -1.3988591 -0.055810455 0
-0.6803863 -1.4079807 -0.055828132 0
-0.66481394 -1.4211596 -0.056014314 0
-0.64516562 -1.4256579 -0.055866979 0
-0.55791545 -1.2328563 0.4502084 0
-0.62924695 -1.4384304 -0.056052547 0
-0.54367763 -1.2428228 0.45131209 0
-0.60883093 -1.4409035 -0.055845745 0
-0.53133714 -1.2575011 0.45417669 0
-0.59257871 -1.4532099 -0.056029059 0
-0.51953781 -1.274088 0.45776829 0
-0.56997311 -1.4497184 -0.055613313 0
-0.49812999 -1.2669863 0.45292714 0
-0.55596763 -1.4681175 -0.056046125 0
-0.48155087 -1.2716086 0.45237595 0
-0.53542387 -1.4694731 -0.055836063 0
-0.47115058 -1.2930747 0.45786563 0
-0.51414615 -1.4682938 -0.055540845 0
-0.45274633 -1.2929487 0.4557662 0
-0.49788734 -1.4814038 -0.055795178 0
-0.44312015 -1.3184507 0.4627521 0
-0.48093259 -1.4929488 -0.055997472 0
-0.42751345 -1.3271209 0.46386895 0
-0.46259463 -1.5005019 -0.056057844 0
-0.41532087 -1.3471617 0.46900862 0
-0.44412073 -1.5077554 -0.056115448 0
-0.40488818 -1.3745638 0.4767358 0
-0.4241952 -1.5100032 -0.05599587 0
-0.38342351 -1.3648688 0.050613806 0
-0.3905921 -1.3903867 0.15520804 0
-0.38591447 -1.3737358 0.25734183 0
-0.38688776 -1.3772004 0.36496925 0
-0.3911013 -1.3921993 0.48110604 0
-0.40741539 -1.5237015 -0.056309137 0
-0.3767744 -1.4091066 0.052074224 0
-0.37161312 -1.3898039 0.15460837 0
-0.37517089 -1.4031097 0.26193869 0
-0.37602049 -1.4062871 0.37139326 0
-0.37343559 -1.3966198 0.4809705 0
-0.38547558 -1.5179904 -0.055914264 0
-0.36474311 -1.5161206 -0.055671796 0
-0.34870157 -1.5341311 -0.056167454 0
-0.32662585 -1.5256414 -0.055701632 0
-0.30832919 -1.5343052 -0.05587177 0
-0.28948191 -1.5407052 -0.055967648 0
-0.27155399 -1.5527729 -0.056277342 0
-0.25130913 -1.551919 -0.05612725 0
-0.23164569 -1.5542693 -0.056102309 0
-0.21397382 -1.5711359 -0.056609377 0
-0.18956631 -1.5363592 -0.055265952 0
-0.15257943 -1.2365952 0.044482835 0
-0.15446453 -1.2518731 0.13555819 0
-0.1715388 -1.5506665 -0.055698495 0
-0.13735202 -1.2416267 0.044598076 0
-0.13746136 -1.2426152 0.13435762 0
-0.15289558 -1.5618474 -0.056026511 0
-0.11842714 -1.209748 0.043396018 0
-0.11931951 -1.2188637 0.13161659 0
-0.13335539 -1.5652624 -0.056084331 0
-0.1025802 -1.2040378 0.043141425 0
-0.10202758 -1.1975514 0.12916625 0
-0.11459199 -1.5799948 -0.056556016 0
-0.085923225 -1.1847098 0.04240676 0
-0.084075473 -1.159233 0.12490918 0
-0.093929268 -1.5686272 -0.056102324 0
-0.069925159 -1.1677564 0.041765086 0
-0.069841817 -1.1663646 0.1255729 0
-0.073862411 -1.5631568 -0.05586898 0
-0.054356448 -1.5692149 -0.0560566 0
-0.034539994 -1.5673324 -0.055969372 0
-0.014931506 -1.5812899 -0.056456607 0
0.0049380576 -1.5680242 -0.055980764 0
0.024668181 -1.5670241 -0.055951715 0
0.044328202 -1.5641633 -0.055865068 0
0.063905112 -1.56069 -0.055765338 0
0.083246797 -1.5540824 -0.055562288 0
0.10328472 -1.5601122 -0.055819944 0
0.12417629 -1.5746154 -0.056390334 0
0.14204264 -1.5516247 -0.055626635 0
0.16360913 -1.569289 -0.056329302 0
0.18212835 -1.5566171 -0.055952337 0
0.2028984 -1.5633293 -0.056280978 0
0.22000422 -1.5426836 -0.055633042 0
0.23962766 -1.5411844 -0.055683378 0
0.26142672 -1.5523716 -0.056202061 0
0.27980411 -1.5426272 -0.055972394 0
0.29876798 -1.5367315 -0.055890549 0
0.31695127 -1.527343 -0.055689834 0
0.33807233 -1.531909 -0.056007098 0
0.3572861 -1.5273256 -0.055999573 0
0.37652102 -1.5228368 -0.05600439 0
0.39705002 -1.5232868 -0.056200355 0
0.41663942 -1.5197748 -0.056259885 0
0.43327624 -1.5058379 -0.055941496 0
0.44980553 -1.4923116 -0.055645004 0
0.47210044 -1.4977623 -0.05606547 0
0.49233916 -1.4960065 -0.05622736 0
0.50875628 -1.4827513 -0.055965509 0
0.52805007 -1.4780879 -0.056036022 0
0.5497452 -1.4797362 -0.056356486 0
0.56095672 -1.4535823 -0.055625014 0
0.58022445 -1.4489259 -0.055721998 0
0.60559499 -1.4587834 -0.056389894 0
0.62389165 -1.4509887 -0.056387797 0
0.64234424 -1.4435402 -0.0564082 0
0.65688509 -1.4275488 -0.056102093 0
0.67834276 -1.4265994 -0.056396 0
0.69244289 -1.4101886 -0.056087498 0
0.71461982 -1.4101905 -0.056441002 0
0.72285211 -1.3829682 -0.055711359 0
0.73870313 -1.3709639 -0.055598091 0
0.76652479 -1.3806797 -0.056379072 0
0.78332359 -1.3700008 -0.05634132 0
0.795479 -1.3514793 -0.055987127 0
0.81886464 -1.3519756 -0.05643037 0
0.826424 -1.3264722 -0.055795815 0
0.8452881 -1.3194387 -0.055943254 0
0.85439593 -1.2973956 -0.055460408 0
0.87633401 -1.2949132 -0.055821583 0
0.89340186 -1.2849742 -0.055873666 0
0.91785794 -1.2853127 -0.056386475 0
0.92389035 -1.2599099 -0.055778012 0
0.93693393 -1.2445283 -0.055614956 0
0.96070403 -1.2432104 -0.056092218 0
0.98012745 -1.2358651 -0.056313194 0
0.98613036 -1.2117764 -0.055776969 0
1.0090562 -1.2085414 -0.056208465 0
1.0253928 -1.1971408 -0.056274295 0
1.0295572 -1.1718113 -0.055688635 0
1.0458288 -1.160529 -0.055773892 0
1.0584892 -1.1452464 -0.055675574 0
1.0739788 -1.1330448 -0.055735432 0
1.09277 -1.1241747 -0.055971548 0
1.1163919 -1.1199101 -0.056454673 0
1.124634 -1.1001201 -0.056166492 0
1.1388338 -1.0862893 -0.056188058 0
1.1492783 -1.0689408 -0.056034818 0
1.1672279 -1.05854 -0.056255624 0
1.1801844 -1.0435123 -0.056242313 0
1.1891685 -1.0250686 -0.056050882 0
1.2079481 -1.0150284 -0.056329139 0
1.2147657 -0.99493307 -0.056058388 0
1.2260344 -0.97863096 -0.056005288 0
1.2402798 -0.96468765 -0.056096669 0
1.2391248 -0.93898928 -0.055505242 0
1.2553272 -0.92661798 -0.055703934 0
1.2711246 -0.91377896 -0.055889904 0
1.2736303 -0.89147264 -0.055502102 0
1.2927779 -0.88083249 -0.055848736 0
1.299414 -0.86159927 -0.055662308 0
1.3184974 -0.85054839 -0.056016538 0
1.3309705 -0.8350516 -0.05609528 0
1.3472699 -0.82182002 -0.056341615 0
1.3618419 -0.80735886 -0.056521375 0
1.3563932 -0.78121668 -0.055882521 0
1.3671449 -0.76464814 -0.055924356 0
1.3907003 -0.75499344 -0.056494541 0
1.3975673 -0.73609096 -0.056392491 0
1.3970776 -0.71350855 -0.056005754 0
1.4066463 -0.69620532 -0.056033462 0
1.4219701 -0.68163574 -0.056297507 0
1.4241012 -0.66073644 -0.056048036 0
1.4383075 -0.64544529 -0.056282811 0
1.4325856 -0.62132716 -0.055748329 0
1.4477731 -0.60637182 -0.056037765 0
1.4554156 -0.58814394 -0.056042474 0
1.4585633 -0.56815833 -0.055883765 0
1.4818039 -0.55582571 -0.056501564 0
1.4802308 -0.53407365 -0.056180693 0
1.4794906 -0.51284653 -0.055903066 0
1.4788332 -0.49184999 -0.055639796 0
1.4875951 -0.47404665 -0.055740442 0
1.4961525 -0.45610356 -0.055841461 0
1.5004283 -0.43683642 -0.055791318 0
1.5195775 -0.42173058 -0.056301422 0
1.5179725 -0.40076992 -0.056050535 0
1.5184453 -0.38050914 -0.055886641 0
1.5028658 -0.35655558 -0.055143617 0
1.5278531 -0.34222239 -0.055897906 0
1.5360446 -0.3238017 -0.056043983 0
1.5390258 -0.30424279 -0.056008533 0
1.5413085 -0.28457719 -0.055956762 0
1.5620302 -0.26811036 -0.056582 0
1.5409164 -0.24455424 -0.055701222 0
1.5630589 -0.22793052 -0.056393411 0
1.5504026 -0.20618334 -0.055838689 0
1.5556612 -0.18698034 -0.055938847 0
1.5568599 -0.16726694 -0.055901777 0
1.5635695 -0.14809868 -0.056071296 0
1.558627 -0.12785147 -0.055831887 0
1.557114 -0.1080083 -0.055724554 0
1.5779268 -0.089504205 -0.056424573 0
1.5645003 -0.068992831 -0.055908963 0
1.5772331 -0.049665902 -0.056337167 0
1.5667626 -0.029595457 -0.055945423 0
1.5810175 -0.0099538565 -0.056445483 0
1.5797892 0.0099461228 -0.056401625 0
1.5705652 0.029667288 -0.056081209 0
1.5519294 0.048869107 -0.055433344 0
0.86980277 0.027389446 0.28952175 0
1.5674421 0.06912256 -0.056014091 0
0.91217285 0.040225867 0.30376953 0
1.5627801 0.088645048 -0.055882949 0
1.4892472 0.084474064 0.053253513 0
1.4861919 0.084300756 0.15997674 0
1.4952667 0.084815502 0.27010286 0
0.94101989 0.053377151 0.31357509 0
1.5527354 0.10770459 -0.055567861 0
1.4770547 0.10245503 0.052859463 0
1.4712286 0.10205092 0.15849183 0
1.4589908 0.10120204 0.26375934 0
0.95302993 0.066106364 0.31782937 0
1.555557 0.12759964 -0.055721916 0
1.4648573 0.12015971 0.052472945 0
1.477154 0.12116839 0.15928189 0
1.4603475 0.11978978 0.26425633 0
0.96724683 0.079341583 0.32287821 0
1.5457662 0.14641237 -0.055432845 0
1.4363914 0.13605256 0.051510546 0
1.4476146 0.13711561 0.15627044 0
1.4463974 0.13700032 0.26202342 0
0.98936254 0.09371075 0.33062837 0
1.5451995 0.16601418 -0.055483092 0
1.4198143 0.15254295 0.050980918 0
1.4436904 0.15510817 0.15604529 0
1.43104 0.15374903 0.25957149 0
0.9962092 0.10703139 0.33334038 0
1.5677251 0.18843034 -0.056372643 0
1.4089969 0.16935225 0.050665054 0
1.4150659 0.1700817 0.15317069 0
1.4205852 0.17074509 0.25804466 0
0.99740833 0.11988199 0.33422026 0
1.5423629 0.20511417 -0.055549134 0
1.3915739 0.18506119 0.050118376 0
1.3822609 0.18382269 0.14985844 0
1.4022785 0.18648477 0.25512564 0
0.99006778 0.13166612 0.33228976 0
1.5383142 0.22432217 -0.055500649 0
1.381538 0.20146054 0.049844343 0
1.4050293 0.20488611 0.15259451 0
1.3859268 0.20210053 0.25259364 0
1.007594 0.14693075 0.33876607 0
1.5309607 0.24297419 -0.055341341 0
1.3728188 0.21787597 0.049624812 0
1.3786876 0.21880738 0.15002099 0
1.3642015 0.21650833 0.24911121 0
0.99825352 0.15842982 0.33626974 0
1.5412399 0.26454186 -0.055828907 0
1.3883913 0.23830658 0.050292213 0
1.3881335 0.23826234 0.15136331 0
1.3750165 0.23601091 0.25160882 0
0.99318945 0.17047326 0.33526039 0
1.540777 0.28447905 -0.055937462 0
1.4235231 0.26283005 0.051680595 0
1.4169683 0.26161984 0.15485443 0
1.410134 0.26035798 0.25861424 0
1.0088435 0.18626632 0.34130925 0
1.5484698 0.30610973 -0.05635222 0
1.4277568 0.28224656 0.051959205 0
1.4327129 0.28322631 0.15695241 0
1.4273429 0.28216472 0.26240113 0
1.3129823 0.25955734 0.34146661 0
1.0038996 0.19845621 0.34045511 0
1.5357318 0.32373577 -0.056032572 0
1.4599565 0.30776215 0.053267837 0
1.4602939 0.30783325 0.1603858 0
1.4437958 0.30435544 0.26610929 0
1.3044618 0.27498353 0.34012425 0
1.0035725 0.21155535 0.34122053 0
1.5272503 0.34208736 -0.055875853 0
1.4809719 0.33172148 0.054182712 0
1.4875283 0.33319008 0.16382483 0
1.4314492 0.32062894 0.26455683 0
1.3058165 0.2924886 0.34141073 0
1.0121861 0.2267186 0.34509254 0
1.5224221 0.3611953 -0.055861179 0
1.5018536 0.3563154 0.055106476 0
1.5036238 0.35673541 0.16607901 0
1.4348282 0.3404136 0.26595247 0
1.285472 0.30497882 0.33706895 0
0.99781716 0.23673256 0.34118292 0
0.75754732 0.17972843 0.46173275 0
1.5203514 0.38098681 -0.055956796 0
1.4273828 0.35768971 0.26538625 0
1.2661362 0.31728271 0.33302 0
0.99243319 0.24869511 0.34038579 0
0.75988197 0.19041981 0.46458042 0
1.5074754 0.39799851 -0.055662934 0
1.4023296 0.37023827 0.2615743 0
1.2509156 0.33026251 0.33008438 0
0.99354053 0.26231119 0.34187138 0
0.77935654 0.20576307 0.40330496 0
0.78729135 0.20785798 0.48290002 0
1.5190537 0.42158523 -0.056282021 0
1.4090008 0.39104205 0.26371622 0
1.2508826 0.3471593 0.33120292 0
0.98766232 0.2741074 0.34100938 0
0.80606222 0.22370763 0.34635323 0
0.79913706 0.22178569 0.41495338 0
0.79202408 0.21981162 0.48746204 0
1.5116632 0.44010738 -0.056209072 0
1.3898355 0.40463829 0.26106212 0
1.2167108 0.35423458 0.32331049 0
0.99058461 0.28839993 0.343245 0
0.81996328 0.23872505 0.35358995 0
0.81615883 0.23761742 0.42531192 0
0.81115508 0.23616061 0.50102699 0
1.4928279 0.45509005 -0.055717375 0
1.3943537 0.42507011 0.26289538 0
1.2144024 0.37021178 0.32391018 0
1.0001307 0.30489081 0.34785554 0
0.84546989 0.25774232 0.36595964 0
0.83768189 0.25536814 0.43816888 0
0.8275618 0.25228301 0.5130825 0
1.4891566 0.47454426 -0.055798952 0
1.384631 0.44123545 0.26208901 0
1.2014992 0.3828775 0.32172903 0
0.98847181 0.31499282 0.34515268 0
0.86944991 0.2770645 0.37781951 0
0.85311562 0.27185935 0.44799697 0
0.84048146 0.26783323 0.5231421 0
1.4898973 0.4955298 -0.056056067 0
1.3972291 0.46470901 0.26556024 0
1.1866362 0.39466721 0.31905457 0
0.97658926 0.32480702 0.34240457 0
0.89230543 0.29677477 0.38934445 0
0.85934287 0.28581163 0.4531211 0
0.87161213 0.28989235 0.54474777 0
1.4726441 0.51047325 -0.055644371 0
1.3833967 0.4795368 0.26405796 0
1.172259 0.40634862 0.31653962 0
0.97009784 0.33627203 0.34158617 0
0.88476044 0.3066909 0.38770667 0
0.87614822 0.3037056 0.46396211 0
0.89123422 0.30893496 0.55939835 0
1.4710196 0.53075027 -0.055831097 0
1.15277 0.4159244 0.31266654 0
0.97038603 0.35011947 0.34321281 0
0.89738744 0.32378125 0.39499518 0
0.89146793 0.32164547 0.4741818 0
0.89280027 0.32212618 0.56288266 0
1.4758816 0.55360425 -0.056275744 0
1.1514692 0.43191695 0.31376404 0
0.9660067 0.36234981 0.34325048 0
0.9112075 0.34179461 0.40294072 0
0.92714071 0.34777117 0.49544665 0
0.92412466 0.34663984 0.58533728 0
1.4675591 0.57166249 -0.056228429 0
1.1443411 0.44575846 0.31332633 0
0.97372472 0.37929776 0.34766248 0
0.94453663 0.36792803 0.41969451 0
0.94196755 0.3669273 0.50579882 0
0.93829793 0.36549786 0.59718239 0
1.4563191 0.58850902 -0.056077261 0
1.124034 0.45423025 0.30930772 0
0.98296392 0.39722282 0.35271922 0
0.9763003 0.39453 0.43598127 0
0.96560526 0.39020807 0.52108836 0
0.96529424 0.39008236 0.61744153 0
1.452756 0.60845882 -0.056230634 0
1.1142147 0.46666732 0.3081983 0
1.0216627 0.42790368 0.36850986 0
0.98675346 0.41328263 0.44293815 0
0.99192613 0.41544911 0.53807288 0
0.99110281 0.4151043 0.63724273 0
1.4315493 0.62087768 -0.055708002 0
1.1118143 0.4822053 0.30918938 0
1.0444477 0.45298773 0.37875575 0
1.0130149 0.43935499 0.45717368 0
1.029321 0.44642708 0.56136268 0
1.0136577 0.43963379 0.65525216 0
1.4240397 0.63904256 -0.055724494 0
1.0945183 0.49116871 0.30607519 0
1.0691863 0.47980091 0.38988695 0
1.0323762 0.46328223 0.46850705 0
1.0514249 0.4718304 0.57661211 0
1.0420483 0.46762264 0.6773572 0
1.4183964 0.65808952 -0.055823509 0
1.0682485 0.49563241 0.30045047 0
1.0739312 0.49826893 0.39387393 0
1.0802518 0.50120151 0.49305874 0
1.0837489 0.50282407 0.5977639 0
1.4135232 0.67758662 -0.055963084 0
1.0600069 0.50812501 0.29990828 0
1.1082566 0.53125399 0.4088842 0
1.1061931 0.53026485 0.5079065 0
1.1106628 0.53240746 0.61625779 0
1.4020373 0.69392419 -0.055849865 0
1.0599052 0.5245893 0.30172452 0
1.1454514 0.56692958 0.42520711 0
1.1476939 0.56803948 0.5302037 0
1.1417421 0.5650937 0.63739997 0
1.388333 0.70904255 -0.055655204 0
1.6930889 0.86468601 0.34286329 0
1.0494248 0.53595698 0.30063844 0
1.1679392 0.59648412 0.43630847 0
1.1740967 0.59962887 0.54584605 0
1.1839705 0.60467154 0.66517282 0
1.3714107 0.72231448 -0.055337064 0
1.6929866 0.89168662 0.34508905 0
1.0328571 0.54400009 0.29783097 0
1.2067326 0.63557941 0.45375445 0
1.2226702 0.64397365 0.57215279 0
1.2175727 0.64128876 0.68853331 0
1.3779423 0.74806726 -0.055976272 0
1.6695975 0.90640318 0.34262088 0
1.0288415 0.55854493 0.29867747 0
1.2541161 0.68084359 0.47475761 0
1.2661787 0.68739223 0.59651595 0
1.3567102 0.75881195 -0.055497516 0
1.0062336 0.56278938 0.041160941 0
1.0130543 0.5666042 0.124744 0
1.0001944 0.55941164 0.20668073 0
1.0205146 0.57077682 0.29832301 0
1.3173655 0.73680639 0.50217378 0
1.3070341 0.73102796 0.62005115 0
1.3525556 0.77900642 -0.055724416 0
1.0119301 0.58282262 0.041690867 0
1.0022211 0.57723069 0.12429522 0
0.9899615 0.57016981 0.20603348 0
0.99760842 0.57457405 0.29371867 0
1.3436438 0.77387357 0.51586467 0
1.3325588 0.76748919 0.63669419 0
1.3519876 0.80151677 -0.056112383 0
0.98669738 0.58495688 0.040951516 0
0.99583685 0.59037519 0.12441557 0
0.99759018 0.59141463 0.20915452 0
1.00389 0.59514946 0.29775098 0
1.3687688 0.81146538 0.529392 0
1.36081 0.80674708 0.65499449 0
1.3419691 0.81858665 -0.056119945 0
0.98991925 0.60384005 0.041397534 0
0.97776765 0.59642768 0.12308662 0
1.0017177 0.61103696 0.21161632 0
0.98453075 0.6005531 0.2942287 0
1.421877 0.8673296 0.55411261 0
1.4089317 0.85943305 0.68331158 0
1.3281993 0.83331287 -0.055978481 0
0.97157478 0.60956651 0.040948134 0
0.97073227 0.60903794 0.12315664 0
0.97189742 0.60976899 0.20692235 0
0.95719916 0.60054725 0.28829774 0
1.4458863 0.90714979 0.56787568 0
1.312535 0.84670216 -0.05576323 0
0.95739114 0.61760265 0.040674891 0
0.96059579 0.61966991 0.12285086 0
0.9625268 0.62091559 0.20657556 0
0.9692952 0.62528181 0.29428905 0
1.4616731 0.94290954 0.57869345 0
1.3101473 0.86871618 -0.056122083 0
0.94865304 0.62902105 0.040636946 0
0.95614702 0.63399005 0.12329312 0
0.94448066 0.6262545 0.2043788 0
0.95384157 0.63246137 0.29199201 0
1.4853641 0.98489672 0.59293604 0
1.2858478 0.87611061 -0.05554935 0
0.94622743 0.64471078 0.040877562 0
0.95277941 0.64917499 0.12390314 0
0.93244094 0.63531739 0.2034885 0
0.9514876 0.64829481 0.29374713 0
1.5120661 1.0302442 0.60872549 0
1.2783147 0.89475149 -0.055706237 0
0.93334085 0.65328836 0.04067301 0
0.93124354 0.65182036 0.12216023 0
0.92079824 0.6445092 0.20270275 0
0.93778342 0.65639794 0.29204494 0
1.5340289 1.0737376 0.62296104 0
1.2712108 0.91384101 -0.055893701 0
0.91490054 0.65769863 0.040227138 0
0.90974736 0.65399414 0.12041112 0
0.92013115 0.66145879 0.20437327 0
0.93456817 0.67183715 0.29365492 0
1.5472041 1.1122456 0.6339488 0
1.2621251 0.9316358 -0.056005582 0
0.9119609 0.67316264 0.040467385 0
0.90792757 0.67018539 0.12127762 0
0.90995616 0.67168278 0.20397572 0
0.90927041 0.67117661 0.28833878 0
1.5594971 1.1511406 0.64487392 0
1.2489518 0.94643605 -0.055945434 0
0.90488154 0.68570501 0.040533181 0
0.913306 0.69208896 0.12315039 0
0.9042449 0.68522257 0.20461342 0
0.89930606 0.68147999 0.28787738 0
1.5594332 1.1817141 0.65094912 0
1.2323505 0.95852017 -0.055738032 0
0.88930404 0.69169927 0.040222373 0
0.88912326 0.69155866 0.12105421 0
0.88733208 0.69016546 0.20273685 0
0.87879026 0.68352169 0.28404275 0
1.581881 1.2303846 0.66673386 0
1.2271439 0.97951657 -0.056055967 0
0.87083215 0.69510549 0.039779637 0
0.87844694 0.70118374 0.12079318 0
0.88235116 0.70430011 0.20360897 0
0.87395376 0.69759727 0.28529614 0
1.5883632 1.2678448 0.67614132 0
1.2076504 0.9891054 -0.055730034 0
0.93663436 0.76713431 0.13011239 0
0.93316907 0.76429617 0.21753919 0
0.92558712 0.75808626 0.30524349 0
1.5946481 1.3060693 0.6857633 0
1.1908135 1.0006304 -0.05553012 0
1.6389906 1.3772298 0.23007098 0
1.5944744 1.3398231 0.37560508 0
1.6010975 1.3453884 0.53356045 0
1.5909569 1.3368675 0.69136047 0
1.193702 1.0289766 -0.056264568 0
1.6111754 1.3888406 0.38362861 0
1.5977283 1.377249 0.53817439 0
1.1749727 1.0389042 -0.055993948 0
1.6048684 1.4190154 0.38635081 0
1.6036046 1.4178981 0.54612452 0
1.1646656 1.0562162 -0.056132134 0
1.6174234 1.466815 0.39378858 0
1.614131 1.4638292 0.55594283 0
1.1465306 1.066385 -0.055900853 0
1.6178002 1.5047116 0.39846185 0
1.6007413 1.4888452 0.55774409 0
1.1408494 1.0882118 -0.056287497 0
0.60537487 0.5774436 0.34638751 0
0.60451043 0.57661903 0.41799295 0
1.1262358 1.101687 -0.056246489 0
0.59907156 0.58601344 0.41930136 0
0.59017557 0.57731134 0.48961326 0
1.1036171 1.1070952 -0.055808671 0
0.58802092 0.58987409 0.41673264 0
0.58185607 0.58368981 0.48877019 0
1.0889186 1.1202127 -0.055774283 0
0.58578587 0.60262054 0.42049319 0
0.56125486 0.57738453 0.47753429 0
1.0750422 1.1341668 -0.055790622 0
0.57254833 0.60403699 0.34458944 0
0.57788581 0.60966802 0.42029977 0
0.56568915 0.59680057 0.48766255 0
1.0704393 1.1581759 -0.056304134 0
1.5738436 1.7028408 0.41818544 0
1.5768993 1.7061471 0.59273869 0
0.53625649 0.58020979 0.4685508 0
1.0523565 1.1677727 -0.056122009 0
1.5659971 1.7377462 0.42188141 0
1.5577271 1.7285693 0.59366679 0
0.52753216 0.58538872 0.46733162 0
1.0236602 1.1650994 -0.055369657 0
1.5521446 1.7666047 0.42410883 0
1.5549107 1.7697529 0.60103887 0
1.0203917 1.1913021 -0.055999838 0
1.5426633 1.8010515 0.42768112 0
1.5520784 1.8120435 0.60871571 0
1.0052469 1.203979 -0.055996273 0
0.58119988 0.69610012 0.032375161 0
1.5330857 1.8361689 0.43140176 0
1.5411606 1.8458401 0.61350107 0
0.98472905 1.2100544 -0.055697709 0
1.5245352 1.8733788 0.43559924 0
1.5259792 1.8751532 0.6168083 0
0.97938448 1.2349283 -0.05627051 0
1.5108992 1.9051273 0.43852282 0
1.4970393 1.887651 0.6146698 0
0.95491612 1.2357205 -0.055754282 0
1.4934403 1.9326042 0.44048384 0
1.4923322 1.9311702 0.62267238 0
0.94062364 1.2494293 -0.055833969 0
1.4807837 1.9669232 0.44402081 0
1.4736403 1.9574348 0.62510812 0
0.92460454 1.2608837 -0.055821124 0
1.4569582 1.9868548 0.44434342 0
1.4569435 1.9868346 0.62858838 0
0.91129196 1.276118 -0.055983108 0
1.445419 2.0240772 0.44856182 0
1.4534632 2.035342 0.63809389 0
0.88837326 1.2777416 -0.055559177 0
1.4248461 2.0493469 0.4501501 0
1.4283824 2.0544331 0.63838965 0
0.87211537 1.2886795 -0.055552859 0
1.399269 2.067627 0.45025936 0
1.3993376 2.0677285 0.63699508 0
0.86434585 1.3125045 -0.056106277 0
1.4442683 2.1931136 0.093750112 0
1.4436333 2.1921492 0.28208584 0
1.3817525 2.0981836 0.4530887 0
1.385734 2.1042295 0.64281321 0
0.84128714 1.3131934 -0.055678461 0
1.4090025 2.1993597 0.093251266 0
1.4008833 2.1866858 0.27909073 0
1.3687211 2.136483 0.45760107 0
1.3588057 2.1210055 0.64266014 0
0.82435071 1.3231444 -0.055655841 0
1.3713109 2.2010562 0.092583723 0
1.3671724 2.1944137 0.27785775 0
1.3438518 2.1569824 0.45833093 0
1.3413582 2.1529801 0.64717919 0
0.81357461 1.3432416 -0.05606582 0
1.3439629 2.2189322 0.092616439 0
1.3463378 2.2228529 0.27928996 0
1.3197855 2.1790142 0.45944467 0
1.3159527 2.1726859 0.64807028 0
0.79702294 1.3541024 -0.05609579 0
1.3345546 2.2673419 0.093928151 0
1.3305361 2.260515 0.28189453 0
1.3007864 2.2099714 0.46248168 0
1.3067508 2.2201047 0.65725404 0
0.77246165 1.3510038 -0.055560064 0
1.2674712 2.2167552 0.4605248 0
1.2741611 2.2284555 0.65492445 0
0.75869477 1.3665762 -0.055803161 0
1.2469949 2.2461119 0.4633247 0
1.2416134 2.2364187 0.65261817 0
0.74211419 1.3772945 -0.055854823 0
1.2231779 2.2701039 0.46505967 0
1.2273642 2.277873 0.66015273 0
0.7222783 1.3818704 -0.055667132 0
1.1951585 2.2865896 0.46531695 0
1.1961668 2.2885187 0.65882045 0
0.71186161 1.4047475 -0.056223154 0
1.1708808 2.31055 0.46715546 0
1.1754835 2.3196328 0.66346377 0
0.69040734 1.4060429 -0.055922616 0
1.1389236 2.3194649 0.46602133 0
1.1434146 2.3286111 0.66186112 0
0.67305887 1.4154869 -0.055956706 0
1.1122719 2.3391809 0.46713153 0
1.115208 2.3453557 0.66257656 0
0.65567762 1.4249247 -0.05599897 0
1.0884913 2.3655195 0.46961692 0
1.085417 2.3588383 0.66247171 0
0.63528943 1.427686 -0.055788677 0
1.0540428 2.3687503 0.46758625 0
1.0547361 2.3703086 0.66191053 0
0.62371701 1.4505825 -0.056372013 0
1.0307921 2.3973196 0.47062624 0
1.0273615 2.3893409 0.66356015 0
0.60241473 1.4511226 -0.056093764 0
0.99549812 2.3979988 0.4682616 0
1.0012144 2.4117687 0.66623455 0
0.58573532 1.4626874 -0.056251235 0
0.96873134 2.4190981 0.46996239 0
0.9662891 2.4129992 0.66316068 0
0.56269771 1.4580938 -0.055797655 0
0.94060922 2.4373593 0.47117165 0
0.9355042 2.4241307 0.66292989 0
0.54831856 1.4758962 -0.056210238 0
0.90875727 2.4460807 0.47060817 0
0.91082478 2.4516456 0.667265 0
0.52345324 1.4652206 -0.05554821 0
0.8793689 2.4614797 0.47140303 0
0.87614459 2.4524541 0.66442966 0
0.50760108 1.4793844 -0.055838428 0
0.84643102 2.4668918 0.47036102 0
0.8449015 2.4624338 0.66419834 0
0.48996335 1.4887874 -0.055956032 0
0.81327236 2.4711843 0.46918961 0
0.81199485 2.4673026 0.66270101 0
0.47331801 1.5016252 -0.056210071 0
0.78314644 2.4845715 0.46982178 0
0.78431302 2.4882724 0.66562802 0
0.45489252 1.5091887 -0.056274313 0
0.74888176 2.4845517 0.46799773 0
0.74893397 2.4847248 0.66210365 0
0.43501416 1.511878 -0.056165885 0
0.71761554 2.4940503 0.46804774 0
0.71646571 2.4900541 0.66106731 0
0.4107691 1.4983616 -0.0554672 0
0.55889577 2.0386829 0.075469121 0
0.68496406 2.4985421 0.467235 0
0.68072951 2.4830956 0.65689224 0
0.39783493 1.5262982 -0.056311455 0
0.52777207 2.0248034 0.07470338 0
0.64788145 2.4856043 0.46325326 0
0.65374994 2.5081189 0.66128176 0
0.3735697 1.5109001 -0.055565402 0
0.48853713 1.9758852 0.072665855 0
0.61863595 2.502069 0.46483311 0
0.6187039 2.5023437 0.65765285 0
0.35452157 1.5155078 -0.055566274 0
0.45379186 1.9398682 0.071125492 0
0.58707744 2.5096369 0.46482885 0
0.58404428 2.496671 0.65417725 0
0.33742696 1.5289847 -0.055900183 0
0.42159697 1.9103848 0.069844298 0
0.55359584 2.508512 0.46329263 0
0.55267727 2.5043497 0.65431386 0
0.31621784 1.5238087 -0.055560969 0
0.38824806 1.8709122 0.068217017 0
0.5231812 2.5211358 0.46437055 0
0.51777387 2.4950786 0.65013659 0
0.2971971 1.5286516 -0.055596683 0
0.35963202 1.8497894 0.067276388 0
0.48434824 2.4912751 0.45771077 0
0.4845176 2.492146 0.64773136 0
0.2820614 1.5550722 -0.056423943 0
0.32755235 1.8058746 0.065524012 0
0.45415685 2.5038755 0.45893875 0
0.45260271 2.4953072 0.6470204 0
0.25975984 1.5424737 -0.055843711 0
0.30025724 1.7829503 0.06454993 0
0.30016503 1.7824026 0.19425082 0
0.42041606 2.4964626 0.45657346 0
0.41718355 2.4772677 0.64092988 0
0.14549845 0.86398083 0.43837133 0
0.24145606 1.5529439 -0.056108255 0
0.27365813 1.7600542 0.063591197 0
0.27262005 1.7533778 0.19069837 0
0.38753071 2.4924347 0.45490831 0
0.38418242 2.4708998 0.63798016 0
0.13385984 0.86093026 0.43593368 0
0.22055551 1.5465493 -0.05577245 0
0.24800391 1.7390193 0.0627134 0
0.2461888 1.7262915 0.18740045 0
0.35420352 2.4836977 0.45246372 0
0.35441986 2.4852145 0.64047307 0
0.12363554 0.86694026 0.43815383 0
0.20235457 1.5591391 -0.056130126 0
0.22155689 1.7070928 0.061456565 0
0.22061925 1.6998682 0.18421583 0
0.32142201 2.4765522 0.45038897 0
0.32044181 2.4689996 0.63520402 0
0.11139131 0.85826844 0.43302783 0
0.18281592 1.5624937 -0.056163568 0
0.19593914 1.6746553 0.060195196 0
0.19773088 1.6899691 0.18285872 0
0.28740305 2.4563804 0.44602695 0
0.28721598 2.4547815 0.63056564 0
0.10227794 0.87415051 0.44035619 0
0.16313538 1.5647449 -0.056166194 0
0.17435312 1.6723421 0.06002837 0
0.17331086 1.6623451 0.17961936 0
0.2556462 2.4520805 0.44462642 0
0.25676841 2.4628444 0.63175613 0
0.092171006 0.88407624 0.44473639 0
0.14322689 1.564561 -0.056090407 0
0.14994064 1.6378995 0.058719639 0
0.15038879 1.6427951 0.17728828 0
0.22352536 2.4417136 0.4422012 0
0.22337997 2.4401255 0.6251573 0
0.083017349 0.90685278 0.45563218 0
0.12429498 1.5761205 -0.056444235 0
0.12793019 1.6222167 0.058095042 0
0.12630098 1.6015574 0.17265263 0
0.19254743 2.4415946 0.44170552 0
0.19125709 2.4252324 0.6206755 0
0.10299712 1.555768 -0.05566451 0
0.10628382 1.6054134 0.057440799 0
0.10533874 1.5911381 0.17137282 0
0.16023849 2.420397 0.43747097 0
0.16000266 2.4168346 0.6179617 0
0.08367043 1.5619907 -0.055845033 0
0.086213067 1.6094577 0.057542093 0
0.086179711 1.6088351 0.17314826 0
0.12830035 2.395159 0.43258309 0
0.12858915 2.4005504 0.61333531 0
0.064054452 1.5643373 -0.055895656 0
0.06711936 1.6391884 0.05857018 0
0.066260517 1.6182138 0.17405404 0
0.097538717 2.3820896 0.42996675 0
0.097911708 2.3911989 0.61058259 0
0.044364572 1.5654466 -0.0559109 0
0.038730748 1.3666518 0.048810817 0
0.046584018 1.6437619 0.17672487 0
0.066861525 2.3592732 0.42566267 0
0.066973813 2.3632352 0.6031791 0
0.024710258 1.569697 -0.056047153 0
0.021237696 1.3491056 0.048170775 0
0.026366517 1.6749094 0.18002364 0
0.036933672 2.3461783 0.42318264 0
0.037105098 2.3570681 0.60143805 0
0.0049133454 1.5601771 -0.055700611 0
0.0042618862 1.3533136 0.048315279 0
0.0053068092 1.685117 0.18109924 0
0.0073877047 2.3458817 0.42307881 0
0.0073600356 2.3370957 0.59627092 0
-0.014835945 1.5711697 -0.056095287 0
-0.012762921 1.3516304 0.048257101 0
-0.016020373 1.6966041 0.18234098 0
-0.021886287 2.3178215 0.4180347 0
-0.021738937 2.3022165 0.58739537 0
-0.034865681 1.5821111 -0.056497123 0
-0.029979253 1.3603781 0.048579048 0
-0.03841909 1.7433554 0.18740268 0
-0.050584536 2.2953908 0.41407123 0
-0.050519004 2.292417 0.58501101 0
-0.054440826 1.5716509 -0.056143619 0
-0.047373082 1.3676124 0.048854809 0
-0.060705259 1.7524986 0.18845277 0
-0.078592926 2.2688973 0.4094381 0
-0.078756869 2.2736301 0.58042377 0
-0.073569462 1.5569571 -0.055647396 0
-0.083873667 1.775026 0.063441426 0
-0.084129527 1.7804407 0.1915562 0
-0.10611343 2.245688 0.40545875 0
-0.10639052 2.2515521 0.57508397 0
-0.043371428 0.91787338 0.3804566 0
-0.093621448 1.5634866 -0.05591847 0
-0.10798129 1.8032972 0.064495355 0
-0.10772762 1.7990609 0.19369014 0
-0.13339686 2.2277396 0.40248957 0
-0.13348863 2.2292721 0.56977743 0
-0.052951012 0.88428664 0.36678228 0
-0.11404603 1.5724671 -0.056286562 0
-0.13268779 1.8294998 0.065487064 0
-0.16072354 2.2160568 0.4007127 0
-0.15981942 2.2035909 0.56368333 0
-0.064123474 0.88413477 0.36702508 0
-0.065265454 0.89988035 0.45142895 0
-0.13312836 1.5625976 -0.055988848 0
-0.1586464 1.8621162 0.066720791 0
-0.18593369 2.1824014 0.39501911 0
-0.18546468 2.1768963 0.55740798 0
-0.074596785 0.87558168 0.3638356 0
-0.076367132 0.89636117 0.45011026 0
-0.15268031 1.5596483 -0.055947624 0
-0.18427892 1.8824321 0.067526512 0
-0.21142535 2.1597364 0.39136752 0
-0.21153265 2.1608324 0.55393285 0
-0.087916933 0.89808238 0.37361586 0
-0.17136772 1.5491199 -0.055642948 0
-0.21230675 1.9191982 0.068935812 0
-0.23699635 2.1423857 0.38873339 0
-0.23562442 2.1299837 0.54674202 0
-0.098328732 0.88886631 0.37026757 0
-0.19163044 1.5530881 -0.055867724 0
-0.23831461 1.9314446 0.069477975 0
-0.26061386 2.1121709 0.383816 0
-0.25930601 2.1015716 0.54024422 0
-0.10849412 0.87930149 0.36682323 0
-0.10613791 0.86020529 0.43365914 0
-0.21114621 1.5503736 -0.055861294 0
-0.26592317 1.952582 0.07035321 0
-0.28522789 2.0943298 0.38119641 0
-0.28204557 2.0709634 0.53324658 0
-0.11610999 0.85255557 0.35624719 0
-0.11491488 0.84378028 0.42607445 0
-0.22983788 1.5421394 -0.055664476 0
-0.29430529 1.9746953 0.071277849 0
-0.30865178 2.0709558 0.37761948 0
-0.30612555 2.0540056 0.52983075 0
-0.30804962 2.0669153 0.69524592 0
-0.13048241 0.87549561 0.36649039 0
-0.13090651 0.8783412 0.44432345 0
-0.25261161 1.5599622 -0.056418143 0
-0.32980222 2.0366402 0.073657855 0
-0.33228168 2.0519519 0.37488753 0
-0.32826158 2.0271263 0.52392197 0
-0.32789996 2.0248933 0.68244576 0
-0.13790776 0.85162711 0.35719743 0
-0.14106004 0.87109345 0.4415206 0
-0.27256969 1.5585809 -0.05648784 0
-0.35672289 2.0397773 0.073927902 0
-0.35335332 2.0205097 0.36992669 0
-0.35225004 2.0142009 0.52168638 0
-0.35218528 2.0138307 0.68015814 0
-0.1512502 0.86486375 0.43929356 0
-0.28839207 1.5349047 -0.055756938 0
-0.39015639 2.0765235 0.075431779 0
-0.3853052 2.050704 0.22424409 0
-0.37643048 2.0034702 0.36764571 0
-0.37477922 1.9946818 0.51781207 0
-0.37716103 2.0073583 0.67952228 0
-0.1585923 0.84407336 0.4297137 0
-0.31066832 1.545945 -0.056295637 0
-0.40040612 1.9924977 0.072556861 0
-0.40361524 2.0084667 0.22016376 0
-0.39814749 1.9812582 0.3644608 0
-0.39659679 1.9735416 0.51357991 0
-0.39591485 1.9701482 0.66856074 0
-0.17389955 0.86535746 0.44162911 0
-0.33203065 1.5508866 -0.056623347 0
-0.42484707 1.9844242 0.072451934 0
-0.42397618 1.9803563 0.21765032 0
-0.41801417 1.9525082 0.36011186 0
-0.41733199 1.949322 0.50860441 0
-0.41748768 1.9500492 0.66347158 0
-0.18563923 0.86710489 0.44367874 0
-0.34597343 1.5221283 -0.055728015 0
-0.44810671 1.9714692 0.072179236 0
-0.44617671 1.962978 0.21634071 0
-0.43931302 1.9327809 0.35746539 0
-0.43841705 1.928839 0.50466049 0
-0.43637085 1.9198366 0.65500987 0
-0.36716071 1.5261697 -0.056040797 0
-0.47488785 1.9739569 0.072483502 0
-0.47262949 1.9645697 0.21715482 0
-0.45952746 1.9101087 0.3543143 0
-0.45931935 1.9092437 0.50100714 0
-0.45881629 1.9071527 0.65260178 0
-0.3850202 1.5161971 -0.055848207 0
-0.49908265 1.9653715 0.072393276 0
-0.50168562 1.9756218 0.2190574 0
-0.4849 1.9095206 0.35530967 0
-0.47725078 1.8793982 0.49471316 0
-0.47897267 1.886179 0.64743739 0
-0.40895921 1.5294753 -0.056522511 0
-0.53470814 1.9997663 0.073902346 0
-0.52995092 1.9819747 0.22048426 0
-0.5007025 1.8725879 0.34958297 0
-0.49908951 1.8665556 0.49294782 0
-0.4996933 1.8688138 0.6435855 0
-0.42631686 1.5175557 -0.056275941 0
-0.52101707 1.854659 0.34743318 0
-0.51878393 1.8467098 0.48939309 0
-0.51642561 1.8383149 0.63527137 0
-0.44017601 1.4943633 -0.055617027 0
-0.54059589 1.835281 0.34505096 0
-0.54045856 1.8348147 0.48800561 0
-0.54113263 1.8371031 0.6371569 0
-0.46317807 1.5023943 -0.056128547 0
-0.56212306 1.8233387 0.34410921 0
-0.55876607 1.8124498 0.48389027 0
-0.55899405 1.8131894 0.6312542 0
-0.48313442 1.4997838 -0.056253839 0
-0.58486778 1.8155926 0.34400997 0
-0.57525104 1.7857395 0.47865507 0
-0.57925057 1.7981552 0.6285097 0
-0.50070012 1.4897729 -0.05611039 0
-0.60526985 1.8009075 0.34264445 0
-0.59580064 1.7727331 0.47714195 0
-0.59492254 1.7701205 0.62127995 0
-0.518022 1.4793624 -0.055959534 0
-0.63138402 1.8031006 0.34454706 0
-0.61501449 1.7563525 0.47477984 0
-0.61061817 1.7437977 0.61469108 0
-0.54005122 1.4821728 -0.056318622 0
-0.64851141 1.7798423 0.34163609 0
-0.63214558 1.7349261 0.47110227 0
-0.63460577 1.7416781 0.61671191 0
-0.55609852 1.4684629 -0.056059312 0
-0.67578757 1.7845203 0.34414014 0
-0.65014178 1.7167985 0.46836579 0
-0.65102065 1.7191193 0.61157835 0
-0.57336247 1.4583391 -0.055944014 0
-0.7006321 1.7820474 0.3453373 0
-0.66414171 1.6892347 0.46309084 0
-0.67181945 1.7087629 0.61085516 0
-0.59785652 1.4661528 -0.05652808 0
-0.72468191 1.777173 0.34613362 0
-0.6842106 1.6779232 0.46231517 0
-0.68182611 1.6720756 0.60076165 0
-0.60678786 1.4360683 -0.05565834 0
-0.74354333 1.7597238 0.34453136 0
-0.7082538 1.6762049 0.46426222 0
-0.70340306 1.6647248 0.6012553 0
-0.62773478 1.4349737 -0.055917844 0
-0.7653181 1.749483 0.34438586 0
-0.71311617 1.6301517 0.45395789 0
-0.72760004 1.6632613 0.60398793 0
-0.64427775 1.4236958 -0.055790089 0
-0.78713793 1.7393819 0.34432128 0
-0.73767602 1.6300832 0.45648938 0
-0.74349844 1.6429493 0.59996414 0
-0.66512614 1.421827 -0.056040619 0
-0.80794787 1.7271341 0.34388348 0
-0.75670058 1.617584 0.45562133 0
-0.75223398 1.6080357 0.59062678 0
-0.67860776 1.4043001 -0.055682193 0
-0.8265239 1.7103955 0.34259579 0
-0.76658016 1.5863488 0.44950667 0
-0.76823461 1.5897726 0.58742535 0
-0.69789088 1.398962 -0.055814561 0
-0.85424495 1.7123826 0.34512109 0
-0.78588372 1.5753486 0.44915819 0
-0.78663951 1.5768638 0.58626914 0
-0.72207576 1.4029368 -0.056331445 0
-0.87455034 1.699183 0.34465295 0
-0.81354821 1.5806606 0.45355761 0
-0.80437797 1.5628436 0.58477604 0
-0.73646778 1.3876752 -0.05608657 0
-0.89213789 1.6809936 0.34321493 0
-0.82144517 1.5477922 0.44705892 0
-0.8166362 1.5387311 0.57955551 0
-0.75475866 1.3798951 -0.0561518 0
-0.91635561 1.6753362 0.34438854 0
-0.83118498 1.5196223 0.44191048 0
-0.84082115 1.5372398 0.58293545 0
-0.77035099 1.3672255 -0.05602653 0
-0.93691331 1.6628417 0.34421802 0
-0.85584694 1.5189644 0.44481787 0
-0.84856546 1.5060412 0.57511109 0
-0.78441983 1.3520997 -0.055807043 0
-0.95670384 1.6490645 0.34383258 0
-0.86521101 1.4913589 0.43988943 0
-0.86688787 1.4942492 0.57473105 0
-0.79774648 1.3360267 -0.055553854 0
-0.98521811 1.649995 0.34658581 0
-0.87952429 1.4729842 0.43770164 0
-0.88961959 1.4898913 0.57731777 0
-0.81715065 1.3301822 -0.055734277 0
-0.99764478 1.6239959 0.34373617 0
-0.89958382 1.4643693 0.43847305 0
-0.9026621 1.4693803 0.57372886 0
-0.83574104 1.3228055 -0.055861712 0
-1.0184275 1.6119604 0.34387586 0
-0.91396469 1.4466174 0.43656906 0
-0.91278148 1.4447447 0.56855255 0
-0.85366249 1.3142283 -0.055949006 0
-1.0488417 1.61471 0.34725237 0
-0.94099194 1.4486735 0.44073054 0
-0.9328205 1.4360934 0.56972539 0
-0.86894959 1.3015885 -0.055872303 0
-1.0632383 1.5926111 0.34535179 0
-0.94149297 1.4102503 0.43261355 0
-0.94467944 1.4150233 0.56604081 0
-0.88713908 1.29327 -0.055990312 0
-1.0849426 1.5816277 0.34590515 0
-0.97203577 1.4170322 0.43841407 0
-0.96143395 1.401577 0.56546003 0
-0.89963847 1.2767264 -0.055760108 0
-1.0953882 1.5545256 0.34296733 0
-0.97686058 1.3863165 0.43268239 0
-0.97439867 1.3828228 0.56279933 0
-0.91486621 1.2642246 -0.055712823 0
-1.1212378 1.549403 0.34492475 0
-0.99509829 1.3750948 0.43305653 0
-0.99949121 1.3811653 0.56720215 0
-0.93281209 1.2554319 -0.055838548 0
-1.1394484 1.5335349 0.34455907 0
-1.0062172 1.3542248 0.43044016 0
-1.0107181 1.3602823 0.56380808 0
-0.95595115 1.2532963 -0.056274496 0
-1.1460497 1.5025243 0.34080699 0
-1.0247116 1.3434443 0.43108076 0
-1.0214968 1.3392296 0.56036913 0
-0.97211552 1.2417474 -0.056301117 0
-0.58525908 0.74759007 0.03389591 0
-0.57803965 0.73836827 0.10077604 0
-0.58586913 0.74836934 0.17140712 0
-1.0306422 1.3165073 0.42656779 0
-1.0427389 1.3319594 0.56277657 0
-0.98196071 1.2222978 -0.055975463 0
-0.59309191 0.73825246 0.033808477 0
-0.59671938 0.74276775 0.10239394 0
-0.59076625 0.73535758 0.17011724 0
-1.0493811 1.3062195 0.42748207 0
-1.0583057 1.3173283 0.56218082 0
-0.48646146 0.605524 0.46063605 0
-0.99889892 1.2118092 -0.056066718 0
-0.59780771 0.72522736 0.033554062 0
-0.60654479 0.73582673 0.10248186 0
-0.59999663 0.72788286 0.1701224 0
-1.0621883 1.2885883 0.42605546 0
-1.0723355 1.3008983 0.56088722 0
-1.0107791 1.195235 -0.055884339 0
-0.61038905 0.72177827 0.10158769 0
-0.60327357 0.71336424 0.1684912 0
-1.0913123 1.2904645 0.43118528 0
-1.0765647 1.2730256 0.55467069 0
-1.0279207 1.1849173 -0.056002684 0
-0.61756611 0.71188837 0.10128221 0
-0.6107834 0.70406973 0.16809916 0
-1.0921333 1.2589372 0.42521238 0
-1.1085838 1.2779003 0.56283236 0
-1.0396388 1.1683743 -0.055835117 0
-0.62202096 0.69904411 0.10056122 0
-0.6303252 0.70837659 0.17100891 0
-1.1193516 1.2579579 0.42960826 0
-1.1107669 1.2483101 0.55591607 0
-1.110561 1.2480787 0.691706 0
-0.51677608 0.58076704 0.46103436 0
-1.0618436 1.1634927 -0.056236353 0
-0.63233584 0.69286859 0.1008103 0
-0.63067132 0.69104475 0.16872863 0
-1.1430382 1.2524599 0.43261185 0
-1.1357009 1.2444203 0.56050807 0
-1.1267096 1.2345682 0.6920265 0
-0.53324842 0.58429569 0.46912876 0
-1.0676228 1.1406431 -0.055777315 0
-0.64243621 0.6863758 0.10103463 0
-0.64416653 0.68822449 0.17000708 0
-1.1431978 1.2213871 0.42681748 0
-1.154243 1.2331878 0.5619508 0
-1.1382821 1.2161351 0.6896739 0
-0.54899085 0.58653921 0.47644278 0
-1.0893586 1.1348801 -0.056161825 0
-0.57612056 0.60019517 0.34445927 0
-0.57024056 0.59406942 0.4120121 0
-0.57188123 0.59577864 0.48975864 0
-1.1014184 1.1188964 -0.056052744 0
-0.58962762 0.59898424 0.4205367 0
-0.56875819 0.57778358 0.48081514 0
-1.1142933 1.1038241 -0.055996165 0
-0.58923674 0.58370066 0.41498277 0
-0.5870527 0.58153713 0.49005151 0
-1.1312525 1.0927482 -0.056152478 0
-0.60328871 0.58275461 0.34728712 0
-0.60421032 0.58364487 0.42031896 0
-1.1448333 1.0783342 -0.05614813 0
-0.61658728 0.58077204 0.35070485 0
-0.61577487 0.58000684 0.42324957 0
-1.1643475 1.0693697 -0.056440305 0
-0.70481437 0.64732146 0.10284472 0
-0.69952542 0.64246392 0.17129287 0
-1.229861 1.1295391 0.42603356 0
-1.2307441 1.1303504 0.55595011 0
-1.2365118 1.1356474 0.69511896 0
-1.1699023 1.0476239 -0.05606566 0
-0.7106756 0.63639569 0.10252252 0
-0.71300822 0.63848448 0.172612 0
-1.2564399 1.1251166 0.43029878 0
-1.2483613 1.1178825 0.55750525 0
-1.2419153 1.1121101 0.69022942 0
-1.1862426 1.0356408 -0.056219313 0
-0.71131587 0.62100941 0.10147873 0
-0.70747775 0.61765862 0.16937681 0
-1.2579933 1.0982825 0.42606065 0
-1.2675592 1.1066339 0.55981117 0
-1.197559 1.0192357 -0.056142922 0
-0.71476704 0.60833418 0.10087025 0
-0.71894825 0.61189282 0.17026477 0
-1.2766124 1.0865177 0.42769897 0
-1.275663 1.0857096 0.55730808 0
-1.2064663 1.0008978 -0.0559652 0
-0.7311635 0.60658133 0.10209815 0
-0.73237634 0.60758752 0.17161936 0
-1.2847432 1.0658373 0.42589277 0
-1.2919599 1.0718243 0.55848718 0
-1.2206891 0.98701507 -0.056043983 0
-0.73668611 0.59566379 0.10181387 0
-0.74512219 0.602485 0.17281464 0
-1.2905639 1.0435139 0.4234328 0
-1.2995508 1.0507804 0.5560047 0
-1.2321092 0.9708491 -0.05600258 0
-0.75264323 0.5930506 0.034209602 0
-0.73841012 0.58183545 0.10103155 0
-0.74300945 0.58545953 0.17060128 0
-1.3259236 1.0447708 0.43068367 0
-1.3391324 1.0551789 0.56720972 0
-1.2483147 0.95839018 -0.056186181 0
-0.75329077 0.57833683 0.033905335 0
-0.74288273 0.57034612 0.10065287 0
-0.75803524 0.58197939 0.172355 0
-1.3526039 1.0384579 0.43506795 0
-1.34717 1.0342859 0.56505287 0
-1.2542253 0.93806559 -0.055916108 0
-0.76276779 0.57049257 0.034005858 0
-0.76255465 0.57033318 0.10233705 0
-0.77695829 0.58110601 0.17497991 0
-1.3523479 1.0114539 0.43085471 0
-1.351084 1.0105085 0.56131291 0
-1.2654743 0.92186183 -0.055895664 0
-0.76833946 0.55971324 0.033937346 0
-0.77549577 0.56492645 0.10311093 0
-0.76593429 0.55796123 0.1709013 0
-1.3650709 0.9944151 0.43088469 0
-1.3667752 0.99565655 0.5625785 0
-1.2827108 0.9099192 -0.05614645 0
-0.78679246 0.55812854 0.034439255 0
-0.78245687 0.55505306 0.10309901 0
-0.7802844 0.55351192 0.17253435 0
-1.3903224 0.98625582 0.43490073 0
-1.3862585 0.98337299 0.56545633 0
-1.2936786 0.89342856 -0.056129638 0
-0.790371 0.54583883 0.034292318 0
-0.78900951 0.54489857 0.10305014 0
-0.79194987 0.54692918 0.17357717 0
-1.3975871 0.96518886 0.43333697 0
-1.4051332 0.97040033 0.56812596 0
-1.3124388 0.88218635 -0.056457147 0
-0.80240369 0.53935432 0.034516975 0
-0.79305881 0.53307295 0.10269416 0
-0.79758888 0.53611791 0.17331974 0
-1.4216698 0.95560849 0.43703845 0
-1.418223 0.95329159 0.56851989 0
-1.3131547 0.8588624 -0.056018271 0
-0.8002997 0.52343208 0.034140229 0
-0.80264091 0.52496338 0.10307079 0
-0.81771684 0.53482372 0.1762162 0
-1.4344031 0.93816429 0.43728647 0
-1.4283435 0.93420106 0.56781614 0
-1.3258798 0.8435421 -0.056103535 0
-0.81399792 0.51787621 0.034443665 0
-0.80522454 0.51229441 0.10256604 0
-0.81006098 0.51537144 0.17315413 0
-1.4441068 0.9187597 0.43668315 0
-1.4434532 0.91834384 0.56918055 0
-1.3358076 0.82641685 -0.056078836 0
-0.84080541 0.52017653 0.035298038 0
-0.82588494 0.5109458 0.10436987 0
-0.83394957 0.51593506 0.17685769 0
-1.4578475 0.90191865 0.43736926 0
-1.4551175 0.90022963 0.56926495 0
-1.3321741 0.80115271 -0.05549838 0
-0.85425168 0.51373619 0.03558813 0
-0.83561349 0.50252742 0.10479131 0
-0.84749812 0.50967467 0.17835577 0
-1.4717559 0.88509536 0.43816346 0
-1.4717242 0.88507634 0.5713563 0
-1.345767 0.78642565 -0.055647697 0
-0.90451872 0.52857351 0.037402004 0
-0.90215653 0.52719307 0.11229482 0
-0.88926166 0.51965767 0.18575306 0
-1.5044657 0.8791644 0.44457051 0
-1.4987618 0.87583119 0.57752556 0
-1.3630762 0.77368337 -0.055956151 0
-0.97196394 0.55168766 0.039900456 0
-0.97225088 0.55185056 0.12014524 0
-1.5064756 0.85507697 0.31240565 0
-1.511187 0.85775119 0.44332984 0
-1.5099461 0.8570469 0.57763094 0
-1.3679552 0.75383914 -0.055762339 0
-1.0597203 0.58398008 0.043197673 0
-1.0691632 0.58918381 0.13119389 0
-1.5245141 0.84011406 0.31392771 0
-1.519357 0.83727217 0.44259855 0
-1.5411547 0.84928423 0.58543223 0
-1.3878455 0.74217397 -0.056187719 0
-1.147657 0.61372912 0.046463553 0
-1.1574925 0.61898875 0.14106491 0
-1.5438215 0.82558477 0.31573772 0
-1.5445832 0.82599211 0.4468818 0
-1.5451865 0.82631475 0.58296502 0
-1.378233 0.71486473 -0.055429719 0
-1.258003 0.65250355 0.050594311 0
-1.2489529 0.64780939 0.15120515 0
-1.5522454 0.80512178 0.3153621 0
-1.5528495 0.80543512 0.44630367 0
-1.5642405 0.81134343 0.58625269 0
-1.3927737 0.70029479 -0.055655457 0
-1.3947033 0.70126492 0.055732556 0
-1.3847966 0.69628376 0.16657647 0
-1.5716575 0.79023856 0.31725916 0
-1.5630934 0.78593242 0.44636807 0
