# .PCD v0.7 - Point Cloud Data file format
VERSION 0.7
FIELDS x y z intensity
SIZE 4 4 4 4
TYPE F F F F
COUNT 1 1 1 1
WIDTH 1359
HEIGHT 1
VIEWPOINT 0 0 0 1 0 0 0
POINTS 1359
DATA ascii
-1.1527499 -0.56153834 0.2312516 0
-1.1131656 -0.54225564 0.31590855 0
-1.1882243 -0.57881898 0.43972412 0
-1.405475 -0.70668107 -0.056163002 0
-1.1506315 -0.57854426 0.23226969 0
-1.1561254 -0.58130658 0.33015141 0
-1.1653908 -0.58596534 0.43397036 0
-1.3850003 -0.71837479 -0.055701885 0
-1.1479663 -0.59542948 0.2332267 0
-1.1514546 -0.59723884 0.33093897 0
-1.3860226 -0.74119914 -0.056113921 0
-1.2509978 -0.66899234 0.3619411 0
-1.3639344 -0.75162339 -0.055598438 0
-1.1339188 -0.62486869 0.33031791 0
-1.362919 -0.77359414 -0.055949695 0
-1.1185018 -0.63486272 0.32812962 0
-1.3597889 -0.79461968 -0.056227505 0
-1.1072701 -0.64705527 0.32719898 0
-1.3498267 -0.81176877 -0.05623379 0
-1.1156565 -0.67094171 0.33214742 0
-1.3384695 -0.82806373 -0.056190588 0
-1.319002 -0.83916646 -0.055812512 0
-1.3139862 -0.85940629 -0.056053743 0
-1.3033348 -0.8760668 -0.056065515 0
-1.2939655 -0.89362669 -0.056142084 0
-2.1409883 -1.4785899 0.092892393 0
-1.2764547 -0.90548122 -0.055872608 0
-2.0328991 -1.4420818 0.088983476 0
-1.2571118 -0.91576988 -0.05552629 0
-2.0235581 -1.4741042 0.089380018 0
-1.2584783 -0.94124651 -0.056105718 0
-1.9908153 -1.4889792 0.088754907 0
-1.2514373 -0.96078753 -0.056326725 0
-1.9640875 -1.5079226 0.088402838 0
-1.2365139 -0.97431982 -0.056202784 0
-1.9422168 -1.5303835 0.088278823 0
-1.2193503 -0.98593259 -0.055982519 0
-1.9156065 -1.5489058 0.087948859 0
-1.2007838 -0.99618357 -0.055701602 0
-1.9039443 -1.5795332 0.0883196 0
-1.1937374 -1.0159832 -0.055963758 0
-1.8813821 -1.6012338 0.088201322 0
-1.1802722 -1.0304285 -0.055936363 0
-1.860028 -1.6238847 0.088151872 0
-1.1566371 -1.0357451 -0.055429943 0
-1.8465769 -1.6535724 0.088494189 0
-1.1577859 -1.0633433 -0.056122236 0
-1.8159689 -1.6678373 0.088026844 0
-1.1327455 -1.0669487 -0.055555291 0
-1.7873657 -1.6835444 0.087661013 0
-1.1336706 -1.0950838 -0.056272499 0
-1.7694463 -1.7092197 0.087830774 0
-1.1099389 -1.0995106 -0.055777337 0
-1.0966386 -1.1140407 -0.055809494 0
-1.0817164 -1.1269186 -0.055767838 0
-1.0739423 -1.1473949 -0.056107473 0
-1.0577313 -1.1589867 -0.056018561 0
-1.0441657 -1.1734618 -0.056078244 0
-1.028628 -1.1857327 -0.056041218 0
-1.0014099 -1.1841561 -0.055366326 0
-0.99104983 -1.2022871 -0.055626161 0
-0.98812193 -1.229967 -0.056326676 0
-0.96799558 -1.2364848 -0.056062508 0
-0.95363533 -1.25026 -0.056138169 0
-0.94093955 -1.2663703 -0.056325059 0
-0.91372681 -1.2626503 -0.055643439 0
-0.90239221 -1.2806344 -0.055930786 0
-0.88918793 -1.2962568 -0.056119621 0
-0.86974728 -1.3027834 -0.055923592 0
-0.85020536 -1.308906 -0.055722427 0
-0.83122689 -1.3156605 -0.055559978 0
-0.8234849 -1.3404933 -0.056166306 0
-0.79824722 -1.3368653 -0.055588726 0
-0.78583306 -1.3545357 -0.055907588 0
-0.77709454 -1.379194 -0.056516979 0
-0.74546063 -1.3628958 -0.055460054 0
-0.73251891 -1.3802346 -0.055785839 0
-0.72186917 -1.4025354 -0.056315329 0
-0.70092529 -1.4050446 -0.056057237 0
-0.6818828 -1.4110775 -0.055950925 0
-0.6634962 -1.4183427 -0.055903286 0
-0.6444248 -1.4240208 -0.055802826 0
-0.56508583 -1.2487012 0.45599455 0
-0.62782824 -1.4351873 -0.05592617 0
-0.54992568 -1.2571056 0.45649868 0
-0.61417449 -1.45355 -0.056335889 0
-0.53663725 -1.2700448 0.45870712 0
-0.58911407 -1.4447134 -0.055701472 0
-0.52175838 -1.2795336 0.45972484 0
-0.56936938 -1.4481827 -0.055554401 0
-0.4950141 -1.2590611 0.45009401 0
-0.54850137 -1.4484016 -0.055293456 0
-0.47918862 -1.2653707 0.45015684 0
-0.53429013 -1.4663614 -0.055717826 0
-0.46882361 -1.2866883 0.45560429 0
-0.52183992 -1.4902656 -0.056371968 0
-0.45432392 -1.297454 0.45735431 0
-0.49601474 -1.4758321 -0.055585328 0
-0.44266704 -1.3171024 0.46227887 0
-0.47709182 -1.4810259 -0.05555027 0
-0.4268721 -1.3251299 0.46317303 0
-0.46244308 -1.5000103 -0.056039479 0
-0.41663739 -1.3514321 0.47049534 0
-0.44391781 -1.5070665 -0.056089807 0
-0.40703219 -1.3818426 0.47926027 0
-0.42495725 -1.5127159 -0.056096464 0
-0.38434139 -1.368136 0.050734971 0
-0.38664085 -1.3763214 0.15363795 0
-0.38629377 -1.3750859 0.25759479 0
-0.38578081 -1.37326 0.36392504 0
-0.38898602 -1.3846695 0.47850397 0
-0.40490836 -1.5143255 -0.055962637 0
-0.37601718 -1.4062747 0.051969569 0
-0.37584829 -1.4056431 0.1563704 0
-0.37514836 -1.4030254 0.26192299 0
-0.37400177 -1.3987373 0.36939937 0
-0.37305912 -1.3952118 0.48048562 0
-0.38670304 -1.5228242 -0.056092314 0
-0.36757556 -1.527894 -0.05610412 0
-0.34725255 -1.5277559 -0.055934049 0
-0.32817379 -1.5328716 -0.055965614 0
-0.30732358 -1.529301 -0.055689543 0
-0.28953782 -1.5410028 -0.055978458 0
-0.26983702 -1.5429552 -0.055921517 0
-0.25059718 -1.5475223 -0.05596824 0
-0.2319736 -1.5564694 -0.056181725 0
-0.21176839 -1.5549421 -0.056025904 0
-0.19211942 -1.5570511 -0.056010284 0
-0.154699 -1.2537735 0.045100775 0
-0.15377741 -1.2463044 0.13495518 0
-0.17066818 -1.5427963 -0.055415805 0
-0.13449158 -1.2157691 0.043669295 0
-0.13668413 -1.2355893 0.13359793 0
-0.15349837 -1.5680048 -0.056247391 0
-0.11826523 -1.2080941 0.043336689 0
-0.11851946 -1.210691 0.13073407 0
-0.13348341 -1.5667651 -0.056138169 0
-0.10093737 -1.184755 0.04245051 0
-0.1011849 -1.1876605 0.12809943 0
-0.11275886 -1.5547197 -0.055651288 0
-0.085035145 -1.172465 0.041968457 0
-0.085825451 -1.1833618 0.1275091 0
-0.093775101 -1.5660526 -0.056010243 0
-0.069727525 -1.1644559 0.041647043 0
-0.069114022 -1.1542103 0.12426437 0
-0.07362622 -1.5581584 -0.05569033 0
-0.054208834 -1.5649536 -0.055904366 0
-0.034554958 -1.5680115 -0.055993624 0
-0.014794875 -1.5668203 -0.055939998 0
0.0049283323 -1.564936 -0.055870511 0
0.024763079 -1.5730524 -0.056166958 0
0.044768635 -1.5797044 -0.056420129 0
0.063641146 -1.5542434 -0.055534992 0
0.084165089 -1.5712253 -0.056175187 0
0.10213988 -1.5428194 -0.055201214 0
0.12292418 -1.558738 -0.055821732 0
0.14184365 -1.5494508 -0.055548698 0
0.16390043 -1.5720831 -0.056429598 0
0.18264425 -1.5610265 -0.056110825 0
0.20198357 -1.5562805 -0.056027219 0
0.22185367 -1.555652 -0.056100719 0
0.24086618 -1.5491501 -0.055971183 0
0.26188725 -1.5551065 -0.056301072 0
0.28405857 -1.5660831 -0.056823459 0
0.30002519 -1.5431981 -0.056125738 0
0.31927037 -1.5385184 -0.05609731 0
0.33367947 -1.5120037 -0.055279352 0
0.35855755 -1.5327609 -0.056198858 0
0.37760288 -1.5272123 -0.056165304 0
0.39719877 -1.5238575 -0.056221411 0
0.41678578 -1.5203086 -0.056279648 0
0.4304637 -1.4960631 -0.055578362 0
0.45068881 -1.4952421 -0.055754274 0
0.46891722 -1.4876634 -0.055687442 0
0.49044532 -1.4902519 -0.056011073 0
0.50902075 -1.4835221 -0.0559946 0
0.52482301 -1.4690548 -0.055693567 0
0.55395985 -1.4910806 -0.056788545 0
0.56806922 -1.4720126 -0.056330301 0
0.58308697 -1.4560741 -0.055996902 0
0.60007393 -1.4454839 -0.055875801 0
0.62060231 -1.4433385 -0.056090504 0
0.63566107 -1.428521 -0.055821307 0
0.65530705 -1.4241195 -0.05596732 0
0.67301512 -1.415395 -0.055953074 0
0.69547224 -1.4163579 -0.056332871 0
0.70837748 -1.3978721 -0.055947978 0
0.72985989 -1.3963755 -0.056251463 0
0.74768239 -1.3876287 -0.056273911 0
0.76000321 -1.368933 -0.0558994 0
0.77688408 -1.3587384 -0.055878151 0
0.7905516 -1.3431079 -0.055640325 0
0.81126696 -1.3394314 -0.055906791 0
0.82434016 -1.3231275 -0.055655129 0
0.84128267 -1.3131865 -0.055678166 0
0.85901237 -1.3044056 -0.055760067 0
0.87626982 -1.2948183 -0.055817496 0
0.89049494 -1.2807932 -0.055691868 0
0.91131121 -1.2761451 -0.055984292 0
0.9199971 -1.2546006 -0.055542961 0
0.94319826 -1.2528492 -0.055986796 0
0.9630934 -1.2463025 -0.056231726 0
0.97811329 -1.2333254 -0.056197468 0
0.98991972 -1.2164328 -0.055991299 0
0.99795246 -1.1952425 -0.055589944 0
1.0225486 -1.1938202 -0.056118209 0
1.035846 -1.1789689 -0.056028787 0
1.0545269 -1.1701812 -0.056237761 0
1.070683 -1.1584396 -0.056316953 0
1.0849769 -1.1446478 -0.056306191 0
1.0980111 -1.1295666 -0.056240004 0
1.101777 -1.1052492 -0.055715613 0
1.1127166 -1.0884624 -0.055571306 0
1.1338569 -1.081542 -0.055942506 0
1.1481847 -1.0679234 -0.055981494 0
1.1597484 -1.051757 -0.055895146 0
1.1570861 -1.0230889 -0.055141553 0
1.17788 -1.0153379 -0.055518806 0
1.2018539 -1.0099075 -0.056044951 0
1.2201438 -0.99933785 -0.056306571 0
1.2246501 -0.97752607 -0.055942055 0
1.2411201 -0.96534121 -0.056134675 0
1.248257 -0.94590962 -0.055914316 0
1.2667431 -0.93504459 -0.056210503 0
1.2767694 -0.91783684 -0.056138102 0
1.2837058 -0.898525 -0.055941176 0
1.3011241 -0.88651919 -0.0562093 0
1.3029891 -0.8639698 -0.055815455 0
1.3146489 -0.84806573 -0.055853035 0
1.3236332 -0.83044809 -0.055786036 0
1.3362002 -0.81506771 -0.055878695 0
1.350819 -0.80082393 -0.056063883 0
1.3637431 -0.78544986 -0.056185331 0
1.361567 -0.76152837 -0.055696186 0
1.372573 -0.74515241 -0.055758156 0
1.3889016 -0.73152679 -0.056042828 0
1.3867308 -0.7082243 -0.055590976 0
1.4272909 -0.70642316 -0.056855835 0
1.4135764 -0.67761213 -0.055965189 0
1.4434917 -0.66973293 -0.056811176 0
1.4346797 -0.64381731 -0.056140851 0
1.4459805 -0.62713665 -0.056269582 0
1.4608618 -0.61185378 -0.056544375 0
1.4644675 -0.59180188 -0.056391027 0
1.4677544 -0.57173854 -0.056235913 0
1.460008 -0.5476501 -0.055670481 0
1.4675363 -0.52949345 -0.055698887 0
1.4735 -0.51076996 -0.05567671 0
1.492285 -0.49632394 -0.056145903 0
1.5066304 -0.48011258 -0.056453701 0
1.4961015 -0.45608801 -0.055839557 0
1.5126559 -0.44039637 -0.056245983 0
1.5063969 -0.41807255 -0.055813078 0
1.5118204 -0.39914569 -0.055823375 0
1.5319599 -0.38389578 -0.056384046 0
1.5333648 -0.36379147 -0.056262694 0
1.5339562 -0.3435894 -0.056121189 0
1.5397263 -0.32457781 -0.056178309 0
1.5424044 -0.30491072 -0.05613149 0
1.5377767 -0.28392509 -0.055828538 0
1.5446289 -0.26512355 -0.055951666 0
1.532153 -0.24316342 -0.055384442 0
1.5465602 -0.22552462 -0.055798154 0
1.5395185 -0.20473589 -0.055446688 0
1.5554607 -0.18695624 -0.055931635 0
1.5671947 -0.16837731 -0.056272868 0
1.5618742 -0.14793809 -0.056010492 0
1.5660844 -0.12846319 -0.05609902 0
1.5494604 -0.10747742 -0.055450656 0
1.5706977 -0.089094155 -0.056166071 0
1.5738811 -0.069406509 -0.056244198 0
1.5721291 -0.049505182 -0.056154858 0
1.568372 -0.029625859 -0.056002893 0
1.5798627 -0.0099465856 -0.056404255 0
1.5733292 0.0099054528 -0.056170996 0
1.5697751 0.029652361 -0.05605299 0
1.5556022 0.048984759 -0.05556453 0
0.88615721 0.027904434 0.29496548 0
1.5559307 0.068614915 -0.055602718 0
0.9068585 0.039991509 0.30199975 0
1.573356 0.089244939 -0.05626113 0
1.4880407 0.084405623 0.053210367 0
1.5005244 0.085113741 0.16151953 0
1.5006069 0.08511842 0.27106753 0
0.92663604 0.052561261 0.30878195 0
1.565241 0.10857202 -0.056015395 0
1.488608 0.10325642 0.053272925 0
1.4685562 0.10186554 0.15820393 0
1.4749901 0.10231183 0.26665172 0
0.94061458 0.065245181 0.3136889 0
1.5670147 0.1285395 -0.056132343 0
1.466514 0.12029561 0.052532289 0
1.4596971 0.11973643 0.15739952 0
1.4587051 0.11965506 0.26395914 0
0.94880253 0.077828631 0.31672129 0
1.560696 0.14782649 -0.055968244 0
1.4380403 0.13620876 0.051569678 0
1.4550427 0.1378192 0.15707231 0
1.4539572 0.13771638 0.26339293 0
0.97674006 0.092515171 0.32641014 0
1.5690351 0.16857503 -0.056338947 0
1.4383461 0.154534 0.051646337 0
1.4293813 0.15357082 0.15449865 0
1.4322444 0.15387842 0.25978991 0
0.99825084 0.10725074 0.33402354 0
1.562597 0.18781398 -0.056188244 0
1.4184656 0.17049032 0.051005535 0
1.4195613 0.17062202 0.15365729 0
1.405246 0.16890141 0.25525832 0
0.99546897 0.11964888 0.33357039 0
1.5522639 0.20643085 -0.055905718 0
1.3939999 0.18538383 0.050205752 0
1.3943888 0.18543555 0.15117331 0
1.3943595 0.18543164 0.25368485 0
0.9963569 0.13250248 0.3344005 0
1.5566082 0.22698985 -0.056160673 0
1.3929895 0.20313044 0.0502575 0
1.3805459 0.20131586 0.14993547 0
1.3754288 0.20056967 0.25068033 0
1.0146846 0.14796473 0.34114999 0
1.5383288 0.24414356 -0.055607684 0
1.3683068 0.21715987 0.049461707 0
1.357945 0.21551538 0.14776389 0
1.3832142 0.21952578 0.25258303 0
0.98682612 0.15661623 0.33242035 0
1.5505836 0.26614562 -0.056167364 0
1.3889515 0.23840275 0.050312508 0
1.3829194 0.23736738 0.15079476 0
1.3879522 0.23823123 0.25397587 0
0.99973416 0.17159662 0.33746964 0
1.5262995 0.28180602 -0.05541186 0
1.404074 0.25923911 0.050974499 0
1.4145236 0.26116845 0.15458725 0
1.4098754 0.26031023 0.25856683 0
0.99990684 0.18461631 0.33828583 0
1.5407968 0.30459291 -0.056072984 0
1.4294578 0.28258282 0.052021112 0
1.4304214 0.28277332 0.15670137 0
1.4348568 0.2836501 0.26378247 0
1.326427 0.26221514 0.34496316 0
0.99138403 0.19598207 0.33621067 0
1.5287211 0.32225788 -0.055776775 0
1.4490187 0.30545646 0.052868765 0
1.4269528 0.30080491 0.15672392 0
1.4437269 0.30434093 0.26609659 0
1.2905998 0.27206138 0.33650988 0
1.0052719 0.21191362 0.34179837 0
1.5344956 0.34371021 -0.056140926 0
1.4736881 0.33009002 0.053916231 0
1.4942204 0.33468899 0.16456182 0
1.415588 0.31707624 0.26162541 0
1.2881279 0.28852656 0.33678597 0
0.99828154 0.22360414 0.34035197 0
1.5206871 0.36078367 -0.055797521 0
1.5144401 0.35930154 0.0555683 0
1.511934 0.35870701 0.1669969 0
1.4321828 0.33978596 0.26546213 0
1.2887794 0.30576345 0.33793616 0
0.99998909 0.23724784 0.34192556 0
0.75610942 0.17938729 0.46085635 0
1.5159186 0.37987599 -0.055793647 0
1.4155966 0.35473618 0.26319492 0
1.2730677 0.31901968 0.33484316 0
1.0027159 0.25127187 0.34391257 0
0.771667 0.19337304 0.4717856 0
1.5232552 0.40216467 -0.056245599 0
1.4257559 0.37642321 0.26594394 0
1.2594855 0.33252507 0.33234569 0
0.99253994 0.26204702 0.34152707 0
0.78231746 0.20654479 0.40483716 0
0.77530426 0.20469318 0.47554752 0
1.5229315 0.42266139 -0.056425691 0
1.4012922 0.38890269 0.26227346 0
1.2559098 0.34855449 0.33253399 0
0.9919343 0.27529299 0.34248435 0
0.82313895 0.22844696 0.35369086 0
0.80535865 0.22351237 0.41818395 0
0.79988027 0.22199196 0.49229726 0
1.5054356 0.43829423 -0.055977505 0
1.4040055 0.4087638 0.26372379 0
1.2297022 0.35801694 0.32676265 0
0.98368651 0.28639162 0.34085476 0
0.83020341 0.24170637 0.35800576 0
0.82041341 0.23885609 0.42752904 0
0.80553597 0.23452467 0.49755624 0
1.4969602 0.45634976 -0.055871606 0
1.3972247 0.42594528 0.26343668 0
1.2071719 0.36800754 0.32198161 0
0.98745388 0.30102625 0.34344643 0
0.84362537 0.25718001 0.36516124 0
0.83969384 0.2559815 0.43922129 0
0.82285643 0.25084859 0.51016521 0
1.4944578 0.4762336 -0.055997591 0
1.3969507 0.44516134 0.26442096 0
1.194827 0.38075128 0.31994236 0
0.97719169 0.31139821 0.34121391 0
0.86433774 0.27543545 0.37559801 0
0.8540439 0.27215514 0.44848442 0
0.83851087 0.2672053 0.52191556 0
1.4856633 0.49412158 -0.055896766 0
1.3907801 0.46256408 0.2643345 0
1.1949666 0.39743781 0.32129437 0
0.98850143 0.32876894 0.34658113 0
0.87338197 0.29048097 0.38108748 0
0.85709822 0.28506508 0.45193753 0
0.87202322 0.29002905 0.54500467 0
1.4849716 0.51474649 -0.05611017 0
1.3783034 0.47777128 0.26308578 0
1.1820363 0.40973777 0.31917971 0
0.96380949 0.33409223 0.33937192 0
0.87644655 0.30380899 0.38406348 0
0.8801437 0.30509058 0.46607789 0
0.88273007 0.30598709 0.55406058 0
1.4678459 0.52960515 -0.05571064 0
1.1593275 0.41829038 0.31444514 0
0.97570413 0.35203826 0.34509376 0
0.89432973 0.32267803 0.39364931 0
0.90683281 0.32718921 0.48235458 0
0.90781575 0.32754385 0.57234943 0
1.4711299 0.55182189 -0.056094561 0
1.1537069 0.4327563 0.31437376 0
0.98421967 0.36918151 0.34972209 0
0.91533482 0.34334275 0.40476584 0
0.91710746 0.3440077 0.49008507 0
0.91327566 0.34257036 0.57846558 0
1.448947 0.56441242 -0.055515319 0
1.1352645 0.4422228 0.31084111 0
0.97902739 0.3813633 0.34955576 0
0.94521582 0.36819261 0.41999632 0
0.9371742 0.36506012 0.50322491 0
0.9488675 0.36961505 0.60390937 0
1.4481542 0.58520961 -0.055762865 0
1.1364331 0.45924085 0.31271967 0
0.99614215 0.40254822 0.35744798 0
0.96535397 0.39010653 0.43109304 0
0.95684218 0.38666683 0.51635939 0
0.96798128 0.39116824 0.61916029 0
1.4478602 0.6064083 -0.056041136 0
1.1136535 0.4664323 0.30804309 0
1.0234798 0.42866477 0.3691653 0
0.98591793 0.41293269 0.44256309 0
0.99818313 0.41806972 0.54146701 0
0.9968558 0.41751379 0.64094168 0
1.444959 0.62669361 -0.05622983 0
1.0995086 0.47686821 0.30576724 0
1.0441122 0.45284221 0.3786341 0
1.0118141 0.43883422 0.45663178 0
1.023494 0.44389987 0.55818486 0
1.0204831 0.44259402 0.65966427 0
1.4267294 0.64024955 -0.055829745 0
1.1001737 0.49370661 0.30765668 0
1.0696836 0.48002404 0.39006829 0
1.0414847 0.46736974 0.47264066 0
1.0536522 0.47282991 0.57783359 0
1.059055 0.47525442 0.68841195 0
1.4316499 0.66423875 -0.056345124 0
1.0775353 0.49994117 0.30306241 0
1.0699639 0.49642828 0.39241895 0
1.0754535 0.49897528 0.49086866 0
1.0812501 0.5016647 0.59638566 0
1.4156244 0.67859387 -0.056046274 0
1.0670609 0.5115065 0.30190408 0
1.1035547 0.5290001 0.40714943 0
1.1174904 0.53568035 0.51309365 0
1.1134498 0.53374338 0.61780417 0
1.4132545 0.699476 -0.056296699 0
1.0432783 0.5163601 0.29699138 0
1.137707 0.56309658 0.42233229 0
1.1441801 0.56630033 0.52858043 0
1.1441739 0.56629723 0.63875759 0
1.3675711 0.69843912 -0.054822907 0
1.6968824 0.8666234 0.34363151 0
1.0562409 0.53943819 0.30259115 0
1.1689355 0.59699303 0.43668073 0
1.1770191 0.60112143 0.54720473 0
1.1767075 0.60096222 0.6610924 0
1.3810098 0.7273702 -0.05572439 0
1.6941333 0.89229059 0.34532279 0
1.0388319 0.54714704 0.29955387 0
1.2054181 0.63488704 0.45326018 0
1.2163366 0.64063776 0.56918901 0
1.2254666 0.64544648 0.69299728 0
1.3924363 0.75593585 -0.056565061 0
1.683742 0.91408205 0.34552348 0
1.025399 0.55667603 0.29767808 0
1.2630664 0.68570262 0.47814587 0
1.2545217 0.68106383 0.59102422 0
1.3674711 0.76483059 -0.0559377 0
1.019177 0.57002866 0.041690402 0
1.0157524 0.56811327 0.12507625 0
1.0103741 0.56510514 0.20878425 0
1.0134065 0.56680119 0.29624513 0
1.3147787 0.73535955 0.50118768 0
1.3151324 0.73555738 0.6238929 0
1.3513767 0.77832735 -0.055675842 0
1.0125252 0.58316535 0.04171538 0
1.0054404 0.57908487 0.12469447 0
1.0201935 0.58758193 0.21232544 0
1.0009116 0.57647651 0.29469121 0
1.3423005 0.77309996 0.51534903 0
1.3321649 0.76726234 0.63650602 0
1.3402482 0.79455715 -0.055625156 0
1.0040358 0.59523588 0.041671123 0
0.99804205 0.59168249 0.12469107 0
0.99196839 0.58808178 0.20797586 0
0.98994243 0.58688074 0.29361418 0
1.3779078 0.81688333 0.53292662 0
1.3750163 0.81516922 0.66183239 0
1.3391694 0.8168788 -0.056002859 0
0.98973238 0.60372603 0.041389719 0
0.98944473 0.60355055 0.1245566 0
0.97956294 0.5975228 0.20693605 0
0.98722613 0.60219723 0.29503423 0
1.4112146 0.8608256 0.54995739 0
1.4074413 0.85852391 0.68258876 0
1.3248205 0.83119309 -0.055836082 0
0.98865926 0.62028533 0.041668177 0
0.96098226 0.60292077 0.12191966 0
0.97183156 0.60972762 0.20690832 0
0.98023826 0.61500198 0.29523686 0
1.4439712 0.90594828 0.56712353 0
1.3119236 0.84630769 -0.05573725 0
0.95649409 0.617024 0.040636782 0
0.95848036 0.61830533 0.12258032 0
0.96019757 0.61941302 0.20607565 0
0.9532249 0.61491507 0.28940994 0
1.4668978 0.94627994 0.58076197 0
1.3102934 0.86881304 -0.056128342 0
0.94148165 0.62426591 0.040329747 0
0.94632632 0.62747824 0.12202676 0
0.9474898 0.62824976 0.20502995 0
0.95926219 0.63605565 0.29365137 0
1.4886125 0.98705065 0.5942328 0
1.2860293 0.87623441 -0.055557199 0
0.93955213 0.64016259 0.040589184 0
0.94450277 0.64353567 0.12282681 0
0.94941181 0.64688045 0.20719208 0
0.94643348 0.64485115 0.2921868 0
1.5038619 1.0246543 0.60542268 0
1.2757612 0.89296418 -0.055594966 0
0.92914069 0.65034848 0.040489979 0
0.93239456 0.65262598 0.12231122 0
0.93239987 0.65262973 0.2052567 0
0.94269991 0.65983915 0.293576 0
1.5347376 1.0742338 0.62324888 0
1.2791977 0.91958255 -0.056244873 0
0.92638409 0.66595387 0.04073206 0
0.91943234 0.66095638 0.12169299 0
0.93022132 0.66871232 0.20661443 0
0.93353003 0.6710909 0.29332873 0
1.5380946 1.1056969 0.6302163 0
1.2640145 0.93303043 -0.056089424 0
0.91290361 0.67385846 0.040509216 0
0.91521347 0.67556345 0.12225084 0
0.9007892 0.66491628 0.20192087 0
0.9130221 0.6739459 0.28952846 0
1.5486523 1.1431354 0.64038938 0
1.2584261 0.95361549 -0.056369822 0
0.8952986 0.67844319 0.040103924 0
0.90095514 0.68272966 0.121485 0
0.90498412 0.68578273 0.2047807 0
0.8966307 0.67945266 0.28702098 0
1.5655613 1.1863577 0.65350717 0
1.235011 0.96058953 -0.055858366 0
0.89076436 0.69283509 0.040288422 0
0.88804287 0.69071829 0.12090711 0
0.89239043 0.69409984 0.20389257 0
0.89063948 0.692738 0.28787267 0
1.5832324 1.2314355 0.66730344 0
1.234019 0.98500437 -0.056370027 0
0.88476545 0.70622718 0.04041611 0
0.88381195 0.70546609 0.12153091 0
0.87707341 0.70008737 0.20239109 0
0.87896293 0.7015956 0.28693134 0
1.5929111 1.2714751 0.67807728 0
1.2251428 1.0034323 -0.056537263 0
0.93569171 0.76636225 0.12998144 0
0.92501462 0.75761741 0.21563824 0
0.92831194 0.76031804 0.30614212 0
1.5828474 1.2964041 0.6806885 0
1.2062435 1.0135961 -0.056249648 0
1.6290243 1.368855 0.22867195 0
1.6107479 1.3534976 0.37943858 0
1.5904301 1.3364248 0.53000563 0
1.6052061 1.3488408 0.6975525 0
1.1906838 1.0263749 -0.056122307 0
1.5944988 1.3744652 0.3796578 0
1.6021429 1.3810545 0.53966141 0
1.171389 1.0357355 -0.05582317 0
1.6003993 1.4150639 0.38527495 0
1.605754 1.4197985 0.54685652 0
1.154513 1.047009 -0.055642817 0
1.6167344 1.4661901 0.39362082 0
1.6030041 1.4537383 0.55211049 0
1.1446899 1.0646731 -0.055811107 0
1.6112229 1.498594 0.39684185 0
1.5965017 1.484902 0.5562669 0
1.1453263 1.0924822 -0.056508385 0
0.60708421 0.57907408 0.34736556 0
0.6083625 0.5802933 0.42065647 0
1.1226348 1.0981644 -0.056066647 0
0.59078747 0.57790995 0.41350317 0
0.59780592 0.58477539 0.49594346 0
1.1125782 1.1160845 -0.056261819 0
0.57740617 0.5792259 0.40920994 0
0.57829547 0.58011794 0.4857792 0
1.0957053 1.1271944 -0.056121897 0
0.59382719 0.61089295 0.35273844 0
0.59086704 0.60784775 0.4241406 0
0.56755346 0.58386421 0.48289338 0
1.0834264 1.143012 -0.056225728 0
0.57966512 0.61154515 0.34887266 0
0.5836584 0.61575806 0.42449823 0
0.56144989 0.59232813 0.48400798 0
1.0652511 1.1525625 -0.056031238 0
1.5702629 1.6989667 0.41723403 0
1.5801589 1.7096739 0.59396392 0
0.5409655 0.5853048 0.47266528 0
1.0496457 1.1647645 -0.055977441 0
1.5672987 1.7391905 0.42223203 0
1.5606669 1.7318314 0.59478718 0
0.52587229 0.58354676 0.46586111 0
1.0384055 1.1818821 -0.056167234 0
1.5496972 1.763819 0.42344007 0
1.5536323 1.7682978 0.60054469 0
1.0199884 1.1908313 -0.055977706 0
1.5470172 1.8061348 0.4288882 0
1.5429512 1.8013878 0.60513616 0
1.0039495 1.2024251 -0.055924002 0
0.5844726 0.70001984 0.032557461 0
1.5436132 1.8487775 0.43436411 0
1.5378746 1.8419044 0.61219299 0
0.9844228 1.2096781 -0.055680387 0
1.5191237 1.866729 0.43405303 0
1.5183064 1.8657247 0.61370695 0
0.97559077 1.2301446 -0.056052539 0
1.4991201 1.8902746 0.43510404 0
1.5085962 1.9022232 0.61941493 0
0.96544194 1.2493416 -0.05636885 0
1.4955628 1.9353508 0.44110984 0
1.487723 1.9252056 0.62074918 0
0.9445318 1.2546206 -0.056065951 0
1.4807597 1.9668914 0.44401363 0
1.4761266 1.9607371 0.62616277 0
0.92139983 1.2565136 -0.055627652 0
1.4486401 1.9755114 0.44180658 0
1.4535912 1.9822633 0.62714207 0
0.90586138 1.2685134 -0.055649497 0
1.4521031 2.0334373 0.45063618 0
1.4293557 2.0015833 0.62751031 0
0.89298511 1.2843748 -0.055847604 0
1.430148 2.0569727 0.45182511 0
1.4246118 2.04901 0.63670444 0
0.87917161 1.2991061 -0.056002334 0
1.397696 2.0653026 0.44975325 0
1.4108225 2.0846989 0.64222306 0
0.86281025 1.3101727 -0.056006599 0
1.4454883 2.1949661 0.093829297 0
1.4458541 2.1955216 0.28251979 0
1.3831038 2.1002357 0.45353183 0
1.3783386 2.0929997 0.63938266 0
0.8491028 1.3253932 -0.056195721 0
1.4036164 2.1909523 0.092894807 0
1.4063058 2.1951501 0.28017104 0
1.3541673 2.1137655 0.45273533 0
1.3620183 2.1260204 0.64417964 0
0.83112466 1.334017 -0.05611318 0
1.3718221 2.2018769 0.092618242 0
1.3646508 2.1903663 0.27734527 0
1.3406898 2.151907 0.4572525 0
1.3378168 2.147296 0.64547056 0
0.81650007 1.3480716 -0.056267422 0
1.3481309 2.2258136 0.092903674 0
1.3423994 2.2163503 0.27847296 0
1.3192087 2.178062 0.45924389 0
1.3155947 2.1720951 0.64789397 0
0.79066288 1.343297 -0.055648159 0
1.3287764 2.257525 0.093521476 0
1.3332833 2.2651823 0.28247657 0
1.2921942 2.1953738 0.45942682 0
1.3009027 2.2101691 0.65431267 0
0.77284288 1.3516705 -0.055587485 0
1.2821887 2.2424955 0.46587226 0
1.2705537 2.2221463 0.65307027 0
0.7620331 1.3725892 -0.056048702 0
1.2440507 2.240809 0.4622308 0
1.2423658 2.2377741 0.65301371 0
0.74721831 1.3867674 -0.056238983 0
1.2262769 2.2758553 0.4662379 0
1.2242882 2.2721646 0.65849835 0
0.72901064 1.3947507 -0.056186005 0
1.1982467 2.2924981 0.46651936 0
1.2010231 2.2978098 0.66149521 0
0.70879644 1.3986988 -0.055981066 0
1.1685456 2.3059418 0.46622375 0
1.1643404 2.2976434 0.65717441 0
0.68989718 1.4050041 -0.055881299 0
1.1428261 2.3274124 0.46761811 0
1.1440481 2.3299012 0.66222787 0
0.67448282 1.4184816 -0.056075092 0
1.1130378 2.3407917 0.46745318 0
1.1170803 2.3492935 0.66368896 0
0.65198296 1.4168954 -0.055683419 0
1.0846226 2.3571119 0.46794778 0
1.0886889 2.3659487 0.66446865 0
0.64089143 1.4402753 -0.05628062 0
1.0639318 2.390974 0.47197318 0
1.0561521 2.3734906 0.66279918 0
0.62647027 1.4569858 -0.056620855 0
1.0352693 2.4077322 0.47267038 0
1.0249673 2.3837726 0.66201377 0
0.60446298 1.4560566 -0.056284487 0
0.99222362 2.3901112 0.46672133 0
0.99855173 2.4053545 0.66446269 0
0.58089584 1.4506024 -0.055786476 0
0.96997446 2.4222023 0.47056547 0
0.9659161 2.4120679 0.66290474 0
0.56266582 1.4580112 -0.055794496 0
0.9391014 2.4334521 0.47041634 0
0.93883663 2.432766 0.66529137 0
0.54900181 1.4777353 -0.056280281 0
0.90772039 2.4432895 0.4700712 0
0.91124707 2.4527824 0.66757441 0
0.52637911 1.4734106 -0.055858701 0
0.87444162 2.4476874 0.46876168 0
0.87259728 2.4425249 0.66173959 0
0.50982708 1.485872 -0.056083299 0
0.84738266 2.4696651 0.47088984 0
0.84682643 2.468044 0.66571158 0
0.49019504 1.4894915 -0.055982489 0
0.81143671 2.4656065 0.46813062 0
0.81279767 2.4697418 0.66335624 0
0.46881247 1.4873312 -0.055675004 0
0.78116727 2.4782925 0.46863446 0
0.78105986 2.4779518 0.66286713 0
0.45439628 1.5075424 -0.056212924 0
0.74800575 2.4816451 0.46745026 0
0.75257486 2.496804 0.66532242 0
0.43181041 1.5007435 -0.05575224 0
0.71306086 2.4782207 0.46507704 0
0.71710753 2.4922848 0.66165954 0
0.41554457 1.515781 -0.056112044 0
0.5607298 2.045373 0.075716779 0
0.68352067 2.4932771 0.46625042 0
0.68506265 2.4989016 0.66107363 0
0.39785081 1.5263591 -0.056313705 0
0.5260272 2.0181091 0.074456401 0
0.65108091 2.497879 0.46554095 0
0.65019387 2.4944758 0.65768468 0
0.37679327 1.5239378 -0.05604488 0
0.48608971 1.9659866 0.07230182 0
0.6151002 2.4877687 0.46217641 0
0.61891836 2.503211 0.65788084 0
0.357288 1.5273337 -0.055999871 0
0.45484546 1.9443721 0.071290627 0
0.58795482 2.5133877 0.46552357 0
0.58623582 2.5060391 0.65663195 0
0.33422005 1.5144533 -0.055368911 0
0.42174941 1.9110754 0.069869548 0
0.55216449 2.5020261 0.46209475 0
0.55411661 2.5108716 0.6560179 0
0.31773034 1.5310973 -0.055826724 0
0.38619828 1.8610345 0.067856863 0
0.51733136 2.4929461 0.45917827 0
0.51553398 2.4842849 0.64732409 0
0.29888153 1.5373156 -0.055911791 0
0.36167341 1.8602895 0.067658268 0
0.48481017 2.4936509 0.45814732 0
0.48231077 2.4807951 0.64478117 0
0.28300226 1.5602592 -0.056612149 0
0.32848907 1.8110389 0.065711394 0
0.45233455 2.4938288 0.45709726 0
0.45366979 2.5011902 0.64854586 0
0.26098523 1.5497501 -0.056107149 0
0.30222777 1.7946514 0.064973556 0
0.30098882 1.7872945 0.19478394 0
0.41832227 2.4840295 0.4542996 0
0.41836065 2.4842572 0.64273828 0
0.14388323 0.85438961 0.43350485 0
0.24291493 1.5623268 -0.05644726 0
0.27418533 1.763445 0.063713707 0
0.27497387 1.7685164 0.19234486 0
0.38618705 2.483793 0.45333102 0
0.38701066 2.4890902 0.64267683 0
0.13369484 0.85986912 0.43539637 0
0.22052383 1.5463272 -0.055764437 0
0.24790126 1.7382995 0.062687442 0
0.24780864 1.7376499 0.18863347 0
0.35538584 2.4919882 0.45397404 0
0.35353872 2.4790361 0.63888079 0
0.12045546 0.84464139 0.42688391 0
0.20108519 1.5493586 -0.055778019 0
0.22132644 1.7053171 0.061392643 0
0.22102496 1.7029942 0.18455459 0
0.32098737 2.4732032 0.44977993 0
0.31937271 2.4607623 0.63308477 0
0.11279009 0.86904603 0.43846551 0
0.18277608 1.5621531 -0.056151323 0
0.19804324 1.6926386 0.060841605 0
0.19459203 1.6631418 0.17995594 0
0.28818938 2.4631011 0.4472473 0
0.28770331 2.4589465 0.63163555 0
0.10323819 0.88235754 0.44449052 0
0.16217232 1.5555075 -0.055834617 0
0.17084628 1.6387055 0.058820996 0
0.17380744 1.6671081 0.18013401 0
0.25807318 2.4753592 0.44884747 0
0.25610569 2.4564879 0.63012564 0
0.093344808 0.89533496 0.45040011 0
0.14374934 1.570268 -0.056295011 0
0.15137778 1.6535984 0.059282452 0
0.15028411 1.6416516 0.17716488 0
0.22322164 2.438396 0.44160035 0
0.22289389 2.4348159 0.623797 0
0.082125559 0.89711118 0.45073766 0
0.12336417 1.5643172 -0.056021538 0
0.12708415 1.6114886 0.057710841 0
0.12762702 1.6183723 0.17446533 0
0.19115639 2.4239554 0.43851444 0
0.1916723 2.4304974 0.62202293 0
0.10381193 1.5680755 -0.056104869 0
0.10563099 1.5955526 0.05708798 0
0.10545564 1.5929039 0.171563 0
0.15971863 2.4125445 0.43605167 0
0.16012721 2.418716 0.61844271 0
0.083480835 1.5584513 -0.055718489 0
0.085820869 1.602136 0.057280324 0
0.086575031 1.616215 0.17394251 0
0.12893035 2.40692 0.43470719 0
0.12903884 2.4089453 0.61548018 0
0.064106651 1.5656121 -0.055941205 0
0.066749163 1.6301473 0.058247134 0
0.066539347 1.6250232 0.17478646 0
0.09725035 2.3750472 0.42869556 0
0.097163245 2.3729198 0.60591513 0
0.044697512 1.5771947 -0.056330491 0
0.038715668 1.3661196 0.048791815 0
0.046669401 1.6467748 0.17704879 0
0.067105442 2.3678801 0.42721552 0
0.067377195 2.3774693 0.60681206 0
0.024710372 1.5697043 -0.05604741 0
0.021402158 1.3595529 0.048543803 0
0.026236247 1.6666341 0.17913419 0
0.037184384 2.3621047 0.42605528 0
0.037010223 2.3510411 0.59990019 0
0.0049420907 1.5693048 -0.056026481 0
0.0041757482 1.3259614 0.047338765 0
0.0053350194 1.6940749 0.18206196 0
0.0073427912 2.33162 0.42050669 0
0.0073437495 2.3319244 0.59495151 0
-0.014925471 1.5806508 -0.056433786 0
-0.01284733 1.3605697 0.048576258 0
-0.016042164 1.6989119 0.18258901 0
-0.021879759 2.3171301 0.41791001 0
-0.02194185 2.3237057 0.59287816 0
-0.034681767 1.5737658 -0.056199107 0
-0.030250821 1.3727012 0.049019102 0
-0.037860226 1.7179956 0.18467662 0
-0.050429557 2.2883582 0.41280264 0
-0.050419211 2.2878888 0.58385539 0
-0.054670468 1.5782804 -0.05638044 0
-0.047933117 1.38378 0.04943236 0
-0.060987297 1.7606409 0.18932831 0
-0.078654885 2.2706859 0.40976083 0
-0.078627855 2.2699056 0.57947296 0
-0.074771188 1.5823894 -0.056556374 0
-0.083648741 1.7702658 0.063271292 0
-0.084834576 1.7953618 0.19316155 0
-0.10635335 2.2507656 0.40637553 0
-0.1065027 2.2539263 0.57569039 0
-0.041929245 0.88735235 0.36780569 0
-0.093856357 1.5674096 -0.056058776 0
-0.10733458 1.7924972 0.064109087 0
-0.10788611 1.8017076 0.19397509 0
-0.13353376 2.2300258 0.40290263 0
-0.13350794 2.2295945 0.5698598 0
-0.053010501 0.88528013 0.36719435 0
-0.11325796 1.5616012 -0.055897612 0
-0.13174756 1.8165359 0.06502302 0
-0.16022071 2.2091238 0.39945906 0
-0.15877387 2.1891749 0.55999559 0
-0.064420052 0.88822395 0.36872262 0
-0.065155834 0.8983689 0.45067072 0
-0.13349271 1.566874 -0.056142077 0
-0.15665904 1.8387895 0.065884978 0
-0.18571575 2.1798434 0.39455611 0
-0.18711933 2.1963181 0.56238103 0
-0.07394553 0.86793756 0.36065918 0
-0.077246092 0.90667802 0.45529088 0
-0.15232643 1.5560335 -0.055817954 0
-0.1822339 1.861542 0.06677714 0
-0.21183442 2.1639149 0.39212474 0
-0.21072474 2.1525795 0.55181718 0
-0.086946823 0.88817257 0.36949322 0
-0.17038552 1.5402411 -0.055324029 0
-0.21102315 1.9075948 0.068519033 0
-0.23577224 2.13132 0.38672554 0
-0.23717259 2.1439788 0.55033439 0
-0.097420692 0.88065785 0.36684826 0
-0.19376561 1.5703927 -0.056490213 0
-0.23921764 1.9387634 0.069741249 0
-0.2599394 2.1067047 0.38282269 0
-0.26015985 2.1084914 0.54202312 0
-0.10771062 0.87295151 0.36417419 0
-0.10582432 0.85766381 0.43237787 0
-0.21382049 1.5700101 -0.056568813 0
-0.26488009 1.944923 0.070077248 0
-0.28659368 2.1043584 0.38302174 0
-0.2817764 2.0689867 0.53273761 0
-0.11784057 0.86526263 0.36155695 0
-0.11565802 0.84923685 0.42882979 0
-0.23273233 1.5615603 -0.056365483 0
-0.29492772 1.9788717 0.071428597 0
-0.30757102 2.0637043 0.37629724 0
-0.30762142 2.0640423 0.53241974 0
-0.30763778 2.064152 0.69431645 0
-0.1291351 0.86645561 0.36270618 0
-0.12900527 0.86558455 0.43787026 0
-0.2497876 1.5425229 -0.055787433 0
-0.32449862 2.0038888 0.072473355 0
-0.33342743 2.0590272 0.37618017 0
-0.3301397 2.0387244 0.52691954 0
-0.33069217 2.0421362 0.6882571 0
-0.13902278 0.85851276 0.36008549 0
-0.1392417 0.85986459 0.43582916 0
-0.26982793 1.5429032 -0.055919632 0
-0.35673916 2.0398703 0.073931269 0
-0.35284838 2.0176225 0.36939809 0
-0.35184944 2.0119104 0.52109307 0
-0.35220814 2.0139616 0.68020231 0
-0.14956357 0.85521942 0.43439487 0
-0.28880504 1.5371027 -0.055836782 0
-0.38440803 2.045929 0.074320406 0
-0.38554037 2.0519557 0.22438096 0
-0.37618762 2.0021777 0.36740851 0
-0.37458286 1.9936366 0.51754075 0
-0.37336364 1.9871476 0.67268062 0
-0.16080108 0.85582918 0.43569851 0
-0.30939117 1.5395898 -0.056064207 0
-0.40419179 2.0113358 0.073242858 0
-0.40469423 2.0138359 0.22075233 0
-0.40069506 1.9939355 0.36679283 0
-0.39370903 1.9591717 0.50984037 0
-0.39590123 1.9700804 0.66853768 0
-0.17235874 0.8576901 0.43771613 0
-0.32844982 1.5341609 -0.056012683 0
-0.42127275 1.9677289 0.07184238 0
-0.42543578 1.987174 0.21839963 0
-0.42026857 1.9630384 0.36205399 0
-0.41651824 1.9455209 0.50761265 0
-0.41927901 1.9584163 0.66631836 0
-0.18310252 0.85525614 0.43761596 0
-0.34643838 1.5241739 -0.055802904 0
-0.44860598 1.9736657 0.072259657 0
-0.45005837 1.9800556 0.21822283 0
-0.43910307 1.9318571 0.35729453 0
-0.4370364 1.9227647 0.50307125 0
-0.43856212 1.9294773 0.65829909 0
-0.36711138 1.5259646 -0.056033272 0
-0.47377989 1.9693515 0.072314397 0
-0.47474137 1.9733481 0.21812515 0
-0.46144739 1.9180893 0.35579467 0
-0.46128607 1.9174187 0.50315237 0
-0.45886803 1.9073676 0.65267533 0
-0.38769957 1.5267484 -0.056236859 0
-0.49964586 1.9675894 0.072474971 0
-0.50076389 1.9719921 0.21865493 0
-0.47894609 1.8860743 0.35094693 0
-0.47897279 1.8861794 0.49649817 0
-0.47928959 1.887427 0.64786577 0
-0.40922949 1.5304861 -0.056559861 0
-0.53306335 1.993615 0.073675022 0
-0.5330236 1.9934664 0.22176264 0
-0.49830791 1.8636324 0.34791112 0
-0.4945395 1.8495388 0.48845378 0
-0.49848512 1.8642951 0.6420294 0
-0.42371798 1.5083045 -0.055932872 0
-0.5232619 1.8626499 0.34893009 0
-0.51539946 1.8346622 0.48620036 0
-0.51714307 1.8408688 0.636154 0
-0.44584027 1.513593 -0.056332715 0
-0.54300576 1.8434623 0.34658912 0
-0.54240108 1.8414094 0.48975962 0
-0.53835791 1.8276832 0.63388979 0
-0.46186361 1.4981307 -0.055969257 0
-0.56150079 1.8213203 0.34372827 0
-0.55383527 1.7964559 0.47962019 0
-0.55849421 1.8115679 0.63068968 0
-0.47824472 1.4846048 -0.055684511 0
-0.58129048 1.8044876 0.34190583 0
-0.57321626 1.779423 0.476962 0
-0.57609385 1.7883557 0.62508446 0
-0.49907768 1.4849455 -0.055928573 0
-0.60949898 1.8134909 0.34503859 0
-0.59157562 1.760162 0.47375837 0
-0.59252274 1.76298 0.61877376 0
-0.51948649 1.4835447 -0.05611774 0
-0.62819076 1.7939813 0.34280452 0
-0.61764938 1.7638773 0.47681394 0
-0.61011064 1.7423482 0.61418015 0
-0.53334278 1.4637614 -0.055619039 0
-0.65235537 1.790392 0.3436611 0
-0.63087803 1.7314475 0.47015765 0
-0.62844282 1.7247639 0.61072272 0
-0.55477875 1.464978 -0.055926275 0
-0.67595202 1.7849545 0.34422389 0
-0.65364188 1.7260412 0.4708873 0
-0.65032554 1.7172838 0.61092538 0
-0.57165986 1.4540085 -0.055777889 0
-0.70210761 1.7858005 0.34606457 0
-0.66530669 1.6921977 0.46390313 0
-0.66524196 1.6920332 0.60487449 0
-0.59208733 1.4520049 -0.055982601 0
-0.72408682 1.7757136 0.34584939 0
-0.68425447 1.6780307 0.4623448 0
-0.68757373 1.6861708 0.6058259 0
-0.60432243 1.4302335 -0.0554322 0
-0.74647748 1.766668 0.34589094 0
-0.70238489 1.6623152 0.46041515 0
-0.70647019 1.6719837 0.60387701 0
-0.62809139 1.4357889 -0.055949613 0
-0.75895452 1.7349362 0.34152231 0
-0.7236796 1.6542993 0.46068239 0
-0.72155529 1.6494433 0.59897012 0
-0.64960098 1.4354589 -0.056251045 0
-0.78727967 1.7396951 0.34438327 0
-0.7349146 1.6239811 0.45478055 0
-0.73285574 1.6194315 0.59137601 0
-0.66314352 1.4175887 -0.055873569 0
-0.80996025 1.731436 0.34474003 0
-0.754251 1.6123475 0.45414639 0
-0.75148094 1.606426 0.59003556 0
-0.68323934 1.4138846 -0.056062233 0
-0.83152246 1.7207394 0.3446677 0
-0.77155405 1.5966417 0.45242327 0
-0.77136147 1.5962433 0.58981627 0
-0.70630819 1.415835 -0.056487747 0
-0.84912312 1.7021155 0.34305182 0
-0.78686684 1.5773194 0.44972008 0
-0.7844705 1.5725158 0.5846526 0
-0.71429759 1.3878244 -0.055724643 0
-0.87689066 1.7037301 0.34557527 0
-0.80384499 1.561808 0.44814801 0
-0.80618185 1.5663483 0.58608747 0
-0.73561579 1.3860699 -0.056021687 0
-0.89515567 1.6866798 0.34437594 0
-0.81920576 1.5435725 0.44584015 0
-0.81872576 1.5426682 0.58103848 0
-0.75373083 1.378016 -0.056075331 0
-0.91546738 1.6737124 0.34405473 0
-0.83838385 1.5327837 0.44573787 0
-0.83671963 1.529741 0.58009189 0
-0.76930743 1.3653734 -0.055950634 0
-0.93701166 1.6630163 0.34425414 0
-0.85549152 1.5183337 0.44463316 0
-0.84985399 1.5083281 0.57598436 0
-0.78683418 1.3562613 -0.055978812 0
-0.9544751 1.6452228 0.34303159 0
-0.8651517 1.4912566 0.43985927 0
-0.87197125 1.5030115 0.57810122 0
-0.79986715 1.3395783 -0.055701535 0
-0.98793173 1.6545396 0.34754041 0
-0.87828654 1.4709113 0.43708569 0
-0.88795161 1.4870979 0.57623535 0
-0.8142851 1.3255175 -0.055538826 0
-1.0004236 1.6285193 0.3446936 0
-0.90325433 1.4703443 0.44026211 0
-0.90182954 1.468025 0.57319969 0
-0.84145457 1.3318489 -0.05624361 0
-1.0192399 1.6132464 0.34415019 0
-0.91557968 1.4491736 0.4373405 0
-0.91264546 1.4445293 0.5684678 0
-0.85593504 1.3177269 -0.056097951 0
-1.0364972 1.5957056 0.34316537 0
-0.92846411 1.4293866 0.43486291 0
-0.93175977 1.4344604 0.56907755 0
-0.86963308 1.3026123 -0.05591625 0
-1.062795 1.5919471 0.34520778 0
-0.9437893 1.41369 0.43366873 0
-0.94134158 1.4100236 0.56404078 0
-0.89073372 1.2985102 -0.056217179 0
-1.0732843 1.5646322 0.34218821 0
-0.96219474 1.402686 0.43397549 0
-0.95902038 1.3980585 0.56404054 0
-0.89667195 1.2725165 -0.055576243 0
-1.0993559 1.5601565 0.34420964 0
-0.97901821 1.3893785 0.4336381 0
-0.98024774 1.3911235 0.56617767 0
-0.91019106 1.2577642 -0.055428121 0
-1.1152192 1.5410861 0.34307328 0
-0.99600899 1.3763533 0.43345287 0
-0.99215782 1.3710315 0.56304049 0
-0.93582624 1.2594885 -0.056018975 0
-1.139222 1.5332302 0.34449062 0
-1.0097319 1.358955 0.43194366 0
-1.0145061 1.3653804 0.56592113 0
-0.94776452 1.2425631 -0.05579257 0
-1.1550943 1.514382 0.34349659 0
-1.0230752 1.3412989 0.43039232 0
-1.0232972 1.34159 0.56135678 0
-0.96621561 1.2342111 -0.055959418 0
-0.58341515 0.74523473 0.033789117 0
-0.59548753 0.76065558 0.10381792 0
-0.58984953 0.75345379 0.17257166 0
-1.0438242 1.3333457 0.43202367 0
-1.0385978 1.3266697 0.56054157 0
-0.97762781 1.2169044 -0.055728473 0
-0.59479105 0.74036747 0.033905331 0
-0.59497136 0.74059188 0.10209398 0
-0.59777957 0.74408746 0.17213681 0
-1.055108 1.3133479 0.42981496 0
-1.0544749 1.31256 0.56014585 0
-0.48530412 0.60408336 0.45954013 0
-0.991359 1.2026622 -0.055643514 0
-0.60132217 0.72949094 0.033751324 0
-0.60213524 0.73047733 0.10173682 0
-0.60413843 0.73290753 0.17129678 0
-1.068279 1.2959774 0.42849857 0
-1.0740428 1.3029696 0.56178027 0
-1.0131446 1.1980321 -0.056015119 0
-0.61065388 0.72209138 0.10163177 0
-0.61617833 0.72862405 0.17209543 0
-1.0903773 1.289359 0.43081585 0
-1.0808806 1.2781293 0.55689442 0
-1.0301319 1.1874664 -0.056123156 0
-0.61291999 0.7065326 0.10052024 0
-0.62091625 0.71575022 0.17088792 0
-1.0952135 1.262488 0.42641169 0
-1.0983241 1.2660736 0.55762345 0
-1.0411606 1.1700846 -0.055916853 0
-0.62720788 0.70487326 0.10139978 0
-0.62648106 0.70405644 0.16996598 0
-1.1122694 1.2499986 0.42689005 0
-1.1150482 1.2531215 0.55805874 0
-1.1186388 1.2571567 0.69673723 0
-1.0618542 1.1635042 -0.056236915 0
-0.64831734 0.71038002 0.10335816 0
-0.63013971 0.69046223 0.16858639 0
-1.1296198 1.237757 0.4275333 0
-1.1253617 1.2330912 0.55540532 0
-1.1302081 1.2384015 0.6941753 0
-0.5314883 0.58236706 0.46758029 0
-1.0655526 1.1384313 -0.055669155 0
-0.64460051 0.68868816 0.10137501 0
-0.64740181 0.69168103 0.17086092 0
-1.14402 1.2222656 0.42712444 0
-1.1493809 1.2279931 0.55958366 0
-1.1409781 1.2190156 0.69130737 0
-0.55029732 0.58793509 0.47757661 0
-1.0905271 1.1360974 -0.05622207 0
-0.58479816 0.60923535 0.34964755 0
-0.57999176 0.60422814 0.41905758 0
-0.55924624 0.58261573 0.47893807 0
-1.098268 1.1156961 -0.055892423 0
-0.58363259 0.59289402 0.41626087 0
-0.56838495 0.57740444 0.48049963 0
-1.1131749 1.1027162 -0.055939965 0
-0.58421046 0.57872158 0.41144291 0
-0.58804131 0.58251643 0.49087676 0
-1.1298381 1.0913819 -0.056082267 0
-0.60903072 0.58830118 0.42367226 0
-1.1442331 1.0777689 -0.056118693 0
-0.61299872 0.57739198 0.34866372 0
-0.62154448 0.58544129 0.42721525 0
-1.1550837 1.0608616 -0.055991251 0
-0.70836812 0.65058535 0.10336327 0
-0.70288116 0.64554596 0.1721146 0
-1.2412403 1.1399902 0.42997542 0
-1.2334048 1.1327939 0.55715191 0
-1.2411791 1.1399341 0.69774276 0
-1.1725625 1.050006 -0.056193147 0
-0.70496368 0.63128072 0.10169851 0
-0.69639313 0.62360603 0.16858965 0
-1.2570587 1.1256708 0.43051073 0
-1.2438197 1.1138154 0.55547696 0
-1.2458978 1.1156764 0.69244277 0
-1.1848087 1.0343891 -0.05615136 0
-0.70397198 0.61459792 0.10043103 0
-0.71335709 0.62279147 0.17078435 0
-1.2644598 1.103928 0.42825076 0
-1.263016 1.1026675 0.5578047 0
-1.181639 1.0056863 -0.055396575 0
-0.71984017 0.61265194 0.10158619 0
-0.72550952 0.61747712 0.17181864 0
-1.27156 1.0822175 0.42600626 0
-1.2789875 1.0885391 0.55876052 0
-1.2120637 1.0055414 -0.056224849 0
-0.73739374 0.61175001 0.10296813 0
-0.72784579 0.60382897 0.17055771 0
-1.2923336 1.0721344 0.42840898 0
-1.2797134 1.0616645 0.55319327 0
-1.226441 0.9916659 -0.056308061 0
-0.74495572 0.60235035 0.10295676 0
-0.74075013 0.59894985 0.17180063 0
-1.3093619 1.0587134 0.42960042 0
-1.307165 1.0569371 0.55926239 0
-1.242503 0.97903907 -0.05647501 0
-0.75015718 0.59109163 0.034096602 0
-0.7464205 0.58814734 0.10212755 0
-0.75961506 0.59854406 0.17441407 0
-1.3192139 1.0394839 0.42850426 0
-1.3161283 1.0370525 0.55746597 0
-1.2410234 0.95279223 -0.055857997 0
-0.75428331 0.57909888 0.033950008 0
-0.75306648 0.5781647 0.10203267 0
-0.74780422 0.57412463 0.17002878 0
-1.3331717 1.0235388 0.42881754 0
-1.3474914 1.0345327 0.56518763 0
-1.2537357 0.93769944 -0.055894282 0
-0.76745492 0.57399821 0.034214821 0
-0.76512516 0.57225573 0.10268202 0
-0.77365929 0.57863861 0.17423694 0
-1.3543906 1.0129818 0.43150556 0
-1.3520172 1.0112065 0.56170058 0
-1.2748648 0.92870253 -0.056310438 0
-0.77602822 0.56531435 0.034276959 0
-0.76695627 0.55870569 0.10197552 0
-0.77484614 0.56445318 0.17288977 0
-1.3764127 1.0026773 0.43446472 0
-1.3680375 0.99657607 0.56309807 0
-1.2904196 0.91538751 -0.056483876 0
-0.79154187 0.56149769 0.034647144 0
-0.77314097 0.54844457 0.10187151 0
-0.7829327 0.5553906 0.17311993 0
-1.3879215 0.98455262 0.43414965 0
-1.3852246 0.98263961 0.56503457 0
-1.2895931 0.89060706 -0.055952378 0
-0.77687961 0.53652155 0.033706959 0
-0.79785281 0.55100584 0.10420514 0
-0.79118079 0.5463981 0.17340861 0
-1.3932222 0.96217442 0.43198362 0
-1.3873531 0.95812112 0.56093705 0
-1.2995397 0.87351584 -0.055902265 0
-0.79729784 0.53592229 0.03429734 0
-0.80599922 0.54177111 0.10436983 0
-0.79376805 0.53354967 0.17248945 0
-1.4151685 0.95123839 0.43503985 0
-1.4102528 0.94793427 0.5653249 0
-1.3072017 0.85496891 -0.055764321 0
-0.81141132 0.53069961 0.034614246 0
-0.80178666 0.52440464 0.10296109 0
-0.81011337 0.52985066 0.17457767 0
-1.4363567 0.93944204 0.43788204 0
-1.4361049 0.93927735 0.57090157 0
-1.307546 0.83187795 -0.055327754 0
-0.81718773 0.51990557 0.03457864 0
-0.81941992 0.52132571 0.10437419 0
-0.81788242 0.52034754 0.17482601 0
-1.4464364 0.92024189 0.43738762 0
-1.4592249 0.92837811 0.5753997 0
-1.3433374 0.83107531 -0.05639495 0
-0.82861483 0.51263463 0.034786265 0
-0.81747997 0.50574589 0.10330771 0
-0.83273208 0.51518184 0.1765995 0
-1.4625405 0.90482205 0.43877721 0
-1.4583242 0.90221357 0.57051945 0
-1.3406891 0.80627346 -0.055853114 0
-0.84964377 0.51096505 0.035396166 0
-0.84900725 0.51058227 0.10647098 0
-0.84371948 0.50740224 0.17756055 0
-1.4802986 0.89023292 0.44070676 0
-1.4754819 0.88733613 0.57281512 0
-1.354535 0.79154944 -0.056010257 0
-0.9005481 0.52625316 0.037237819 0
-0.89395571 0.5224008 0.11127403 0
-0.9077726 0.5304749 0.18961971 0
-1.5002854 0.87672156 0.44333524 0
-1.4922075 0.87200105 0.57499999 0
-1.3671889 0.77601779 -0.056124985 0
-0.96819162 0.54954648 0.039745595 0
-0.96777874 0.54931211 0.11959259 0
-1.5131959 0.85889137 0.31379926 0
-1.5119259 0.85817057 0.44354659 0
-1.5125471 0.85852319 0.57862592 0
-1.3728873 0.75655705 -0.055963386 0
-1.0532935 0.58043849 0.042935695 0
-1.0489285 0.57803309 0.12871096 0
-1.5185193 0.83681053 0.31269327 0
-1.5175436 0.83627284 0.44207031 0
-1.5191656 0.83716673 0.57707936 0
-1.3882304 0.74237984 -0.056203306 0
-1.1487689 0.61432368 0.046508566 0
-1.1606617 0.62068361 0.14145115 0
-1.538072 0.82251012 0.31456184 0
-1.5373361 0.82211661 0.44478506 0
-1.5395544 0.82330287 0.58084011 0
-1.394504 0.72330415 -0.056084104 0
-1.2487991 0.64772964 0.050224148 0
-1.2535436 0.65019053 0.15176094 0
-1.561191 0.8097617 0.31717953 0
-1.5581255 0.80817169 0.44782004 0
-1.5556121 0.80686802 0.5830189 0
-1.4057652 0.70682693 -0.056174595 0
-1.3858479 0.69681239 0.055378698 0
-1.374887 0.69130117 0.16538444 0
-1.572696 0.7907607 0.31746879 0
-1.5803484 0.79460835 0.45129555 0
-1.5660448 0.78741646 0.5831666 0
-1.4004149 0.68218327 -0.055613123 0
-1.5447601 0.75249803 0.061345339 0
-1.541164 0.75074625 0.18423405 0
-1.6006893 0.77974278 0.3211121 0
-1.5894674 0.77427632 0.45107964 0
-1.4232786 0.67128092 -0.056180943 0
-1.6440974 0.77542889 0.19535621 0
-1.6249441 0.76639527 0.32401615 0
-1.6140431 0.76125389 0.45529753 0
-1.427058 0.65122598 -0.056001998 0
-1.6211603 0.73980296 0.19150864 0
-1.6180408 0.73837942 0.32076019 0
-1.6243446 0.74125612 0.45553434 0
-1.4320484 0.63183993 -0.05588118 0
-1.6483711 0.72728455 0.19362587 0
-1.6585985 0.73179704 0.32694766 0
-1.64546 0.72600013 0.45885581 0
-1.4392898 0.61350256 -0.055857867 0
-1.6815704 0.71677554 0.19644983 0
-1.6639342 0.70925808 0.32621306 0
-1.6622201 0.70852745 0.46100506 0
-1.4483396 0.59592366 -0.055913426 0
-1.6900005 0.69535577 0.19639619 0
-1.6693347 0.68685275 0.32555038 0
-1.6778497 0.69035625 0.46289212 0
-1.4640385 0.58093762 -0.056232616 0
-1.7113023 0.67905313 0.1978623 0
-1.6870427 0.6694268 0.32733387 0
-1.6891181 0.67025036 0.46363571 0
-1.4625602 0.55914038 -0.055900972 0
-1.7224902 0.65851223 0.19818139 0
-1.7082659 0.65307426 0.32983002 0
-1.7133633 0.65502298 0.46798953 0
-1.4695228 0.54069471 -0.055902429 0
-1.74011 0.64025426 0.19926526 0
-1.739521 0.6400376 0.3342821 0
-1.7323606 0.63740301 0.47094882 0
-1.4856496 0.52548611 -0.056259733 0
-1.7485209 0.61846578 0.19932079 0
-1.7563107 0.62122113 0.33597869 0
-1.7539216 0.62037611 0.47464895 0
-1.500988 0.50974035 -0.056593023 0
-2.0181098 0.6853565 0.0760905 0
-1.7697253 0.60100436 0.20085934 0
-1.7585391 0.59720552 0.33493984 0
-1.7597101 0.59760314 0.47414136 0
-1.500457 0.48857659 -0.056336571 0
-1.9692924 0.64123809 0.073939592 0
-1.7719008 0.57696372 0.20026578 0
-1.7800558 0.57961911 0.33762106 0
-1.7930238 0.58384174 0.48109847 0
-1.4941758 0.46580642 -0.055876076 0
-1.9656267 0.61278033 0.073506415 0
-1.7993895 0.56095618 0.20255823 0
-1.8072405 0.56340373 0.3414045 0
-1.4926976 0.44480312 -0.055606935 0
-1.9127576 0.5699752 0.071255282 0
-1.8136274 0.54043573 0.2033788 0
-1.8328698 0.5461697 0.34491953 0
-1.4966458 0.42553678 -0.05554999 0
-1.8873322 0.53661948 0.070050836 0
