# .PCD v0.7 - Point Cloud Data file format
VERSION 0.7
FIELDS x y z intensity
SIZE 4 4 4 4
TYPE F F F F
COUNT 1 1 1 1
WIDTH 1362
HEIGHT 1
VIEWPOINT 0 0 0 1 0 0 0
POINTS 1362
DATA ascii
-0.55953473 -1.2364346 0.45151511 0
-0.62710154 -1.4335262 -0.055861436 0
-0.54778296 -1.2522075 0.45472002 0
-0.61224008 -1.4489719 -0.056158453 0
-0.53276527 -1.2608811 0.45539746 0
-0.59668803 -1.4632872 -0.056417599 0
-0.51739514 -1.2688335 0.4558804 0
-0.57414633 -1.4603328 -0.056020495 0
-0.50254571 -1.2782177 0.45694217 0
-0.55502909 -1.4656391 -0.05595151 0
-0.4824523 -1.273989 0.45322278 0
-0.53537697 -1.4693444 -0.055831172 0
-0.47040507 -1.2910286 0.45714116 0
-0.51470298 -1.4698839 -0.055600997 0
-0.45293012 -1.2934736 0.45595121 0
-0.49917451 -1.4852337 -0.055939425 0
-0.44288948 -1.3177644 0.46251118 0
-0.48109829 -1.4934632 -0.056016766 0
-0.42700794 -1.3255516 0.46332043 0
-0.45992985 -1.4918582 -0.055734921 0
-0.41526282 -1.3469734 0.46894309 0
-0.44140837 -1.4985471 -0.055772737 0
-0.40242225 -1.3661922 0.47383228 0
-0.4254142 -1.5143425 -0.056156784 0
-0.38468054 -1.3693433 0.050779738 0
-0.38852564 -1.3830308 0.15438691 0
-0.3888233 -1.3840902 0.25928155 0
-0.3847155 -1.3694679 0.36292008 0
-0.38920864 -1.3854619 0.4787778 0
-0.4077872 -1.5250921 -0.056360524 0
-0.37573195 -1.4052079 0.051930148 0
-0.37517613 -1.4031292 0.15609075 0
-0.37389714 -1.3983459 0.26104939 0
-0.37120366 -1.3882725 0.36663571 0
-0.37258202 -1.3934275 0.47987112 0
-0.38458708 -1.5144916 -0.055785388 0
-0.36728919 -1.5267036 -0.056060407 0
-0.34776941 -1.53003 -0.056017306 0
-0.32826826 -1.5333129 -0.055981722 0
-0.30950549 -1.5401586 -0.056084923 0
-0.28972337 -1.5419903 -0.056014329 0
-0.26976657 -1.5425524 -0.055906918 0
-0.24945487 -1.5404683 -0.055713121 0
-0.23118024 -1.5511461 -0.055989578 0
-0.2132528 -1.5658417 -0.05641862 0
-0.19154449 -1.5523915 -0.055842668 0
-0.15391634 -1.2474304 0.044872601 0
-0.15384807 -1.2468771 0.13501719 0
-0.17102396 -1.5460124 -0.05553133 0
-0.13684748 -1.2370658 0.044434257 0
-0.13576911 -1.2273177 0.13270356 0
-0.15342666 -1.5672725 -0.05622112 0
-0.118126 -1.2066717 0.043285668 0
-0.11832575 -1.2087122 0.1305204 0
-0.13251141 -1.5553561 -0.055729382 0
-0.10152791 -1.1916864 0.042698868 0
-0.10186383 -1.1956294 0.12895894 0
-0.11406574 -1.5727389 -0.056296289 0
-0.085932523 -1.1848379 0.04241135 0
-0.085776575 -1.1826878 0.12743649 0
-0.093718402 -1.5651057 -0.05597638 0
-0.070266612 -1.1734587 0.041969031 0
-0.069396026 -1.1589199 0.1247714 0
-0.07376311 -1.5610553 -0.05579387 0
-0.054380763 -1.569917 -0.056081679 0
-0.034762803 -1.5774429 -0.05633042 0
-0.014827015 -1.570224 -0.056061521 0
0.0049346774 -1.5669508 -0.055942442 0
0.024631456 -1.5646912 -0.055868413 0
0.044466022 -1.5690265 -0.056038756 0
0.06411723 -1.5658704 -0.055950437 0
0.084215559 -1.5721675 -0.056208879 0
0.1031578 -1.558195 -0.055751346 0
0.12321942 -1.5624818 -0.055955805 0
0.14254123 -1.5570711 -0.055821888 0
0.16133919 -1.5475165 -0.055547785 0
0.18264464 -1.5610297 -0.056110945 0
0.20189151 -1.5555713 -0.056001682 0
0.22179385 -1.5552326 -0.05608559 0
0.24251904 -1.5597806 -0.05635526 0
0.25960508 -1.5415548 -0.055810444 0
0.28154755 -1.5522391 -0.056321148 0
0.3012628 -1.5495638 -0.056357253 0
0.31732133 -1.5291263 -0.055754855 0
0.33896324 -1.535946 -0.056154691 0
0.35877475 -1.5336893 -0.056232899 0
0.37839922 -1.5304331 -0.056283753 0
0.39842016 -1.5285432 -0.056394286 0
0.41411224 -1.5105563 -0.05591863 0
0.43548998 -1.5135318 -0.056227319 0
0.45270643 -1.501936 -0.056003872 0
0.47035122 -1.4922129 -0.05585774 0
0.48779964 -1.4822129 -0.055708926 0
0.51029682 -1.4872411 -0.056134973 0
0.52773601 -1.4772087 -0.056002691 0
0.54854494 -1.4765055 -0.056233443 0
0.56386173 -1.46111 -0.055913083 0
0.58325523 -1.4564941 -0.056013059 0
0.6023652 -1.4510033 -0.056089152 0
0.62206984 -1.4467516 -0.056223139 0
0.64150405 -1.4416521 -0.056334417 0
0.65482682 -1.4230757 -0.055926304 0
0.67417461 -1.4178334 -0.05604947 0
0.68877834 -1.4027256 -0.05579067 0
0.70561957 -1.3924298 -0.05573016 0
0.72748703 -1.3918358 -0.056068581 0
0.74207753 -1.3772265 -0.055852063 0
0.76197284 -1.3724806 -0.056044269 0
0.77227855 -1.3506835 -0.055546895 0
0.7914024 -1.3445535 -0.055700209 0
0.81153405 -1.3398725 -0.055925198 0
0.82613945 -1.3260155 -0.055776604 0
0.84548682 -1.3197489 -0.055956405 0
0.86114562 -1.307645 -0.05589854 0
0.88091952 -1.3016889 -0.056113675 0
0.90008801 -1.2945908 -0.056291819 0
0.9113692 -1.2762263 -0.055987857 0
0.92991543 -1.2681262 -0.056141764 0
0.94747776 -1.2585336 -0.056240819 0
0.95302248 -1.23327 -0.055643719 0
0.97158784 -1.2250973 -0.055822551 0
0.98703855 -1.2128924 -0.055828337 0
1.0059884 -1.204867 -0.056037575 0
1.0227228 -1.1940236 -0.056127768 0
1.0359201 -1.1790533 -0.056032803 0
1.0474182 -1.1622927 -0.055858653 0
1.0653971 -1.1527205 -0.05603892 0
1.083426 -1.1430116 -0.056225702 0
1.0898802 -1.1212019 -0.055823538 0
1.0995212 -1.1029862 -0.055601541 0
1.1156881 -1.0913692 -0.055719715 0
1.1309704 -1.0787888 -0.055800091 0
1.1470218 -1.066842 -0.055924799 0
1.167627 -1.0589019 -0.056274857 0
1.1700566 -1.0345573 -0.055759672 0
1.1903924 -1.0261238 -0.056108572 0
1.2066492 -1.013937 -0.056268569 0
1.215982 -0.99592924 -0.056114513 0
1.219274 -0.97323477 -0.055696473 0
1.2400438 -0.96450406 -0.056085996 0
1.2491406 -0.94657916 -0.055953894 0
1.2595689 -0.92974895 -0.055892155 0
1.2756438 -0.91702771 -0.056088611 0
1.2819002 -0.89726108 -0.055862486 0
1.2916886 -0.8800903 -0.055801678 0
1.314597 -0.87166661 -0.056312691 0
1.3286673 -0.85710889 -0.056448612 0
1.3277245 -0.83301502 -0.055958472 0
1.3418804 -0.81853253 -0.056116235 0
1.3461735 -0.79806995 -0.055871081 0
1.365093 -0.78622735 -0.05624095 0
1.3655025 -0.76372951 -0.055857174 0
1.3701714 -0.74384856 -0.055660594 0
1.3835146 -0.72868949 -0.055825464 0
1.3987367 -0.71435589 -0.056072269 0
1.4071308 -0.69644517 -0.056052767 0
1.4117846 -0.67675322 -0.055894252 0
1.417069 -0.65747368 -0.055771265 0
1.4336444 -0.64335269 -0.056100339 0
1.4349816 -0.62236625 -0.055841565 0
1.4434463 -0.6045596 -0.055870287 0
1.4461406 -0.58439589 -0.05568533 0
1.4668719 -0.57139474 -0.056202099 0
1.4591684 -0.54733515 -0.055638466 0
1.478906 -0.53359568 -0.056130417 0
1.4933759 -0.51765966 -0.056427728 0
1.4896326 -0.49544179 -0.056046113 0
1.49677 -0.4769704 -0.056084231 0
1.5032052 -0.45825356 -0.05610469 0
1.5026399 -0.43748027 -0.05587355 0
1.5098526 -0.41903162 -0.055941112 0
1.50916 -0.39844331 -0.055725142 0
1.5264455 -0.38251394 -0.056181088 0
1.5293576 -0.36284074 -0.056115657 0
1.5344664 -0.34370366 -0.056139857 0
1.5395126 -0.32453278 -0.056170516 0
1.5340527 -0.3032597 -0.055827551 0
1.5369118 -0.28376541 -0.055797141 0
1.5502435 -0.26608726 -0.056155045 0
1.5500718 -0.24600725 -0.056032173 0
1.5564922 -0.22697294 -0.05615649 0
1.551545 -0.20633526 -0.055879831 0
1.5577687 -0.18723364 -0.056014627 0
1.5567446 -0.16725455 -0.055897634 0
1.5606868 -0.14782563 -0.055967916 0
1.5775306 -0.1294021 -0.056509037 0
1.5555241 -0.10789801 -0.055667654 0
1.5587113 -0.088414252 -0.055737451 0
1.5686269 -0.069174804 -0.056056429 0
1.5735753 -0.04955072 -0.056206509 0
1.5787787 -0.029822439 -0.056374494 0
1.5613335 -0.0098299291 -0.055742726 0
1.5706314 0.0098884674 -0.056074679 0
1.5708342 0.029672367 -0.056090809 0
1.5668101 0.049337689 -0.055964869 0
0.86801821 0.02733325 0.28892773 0
1.5621951 0.068891168 -0.055826582 0
0.90976191 0.040119551 0.30296665 0
1.5747975 0.08932671 -0.056312677 0
1.4933984 0.084709533 0.053401951 0
1.5013707 0.085161738 0.16161062 0
1.5073152 0.085498929 0.27227929 0
0.92620379 0.052536745 0.30863792 0
1.5687549 0.10881576 -0.056141146 0
1.4815258 0.10276517 0.053019471 0
1.4824897 0.10283203 0.15970495 0
1.4923878 0.10351861 0.26979691 0
0.9426071 0.06538339 0.31435344 0
1.5657312 0.12843423 -0.056086369 0
1.4582951 0.11962143 0.052237879 0
1.4650552 0.12017595 0.15797728 0
1.4604766 0.11980037 0.26427969 0
0.96659964 0.079288498 0.32266217 0
1.5713226 0.14883302 -0.056349322 0
1.4405031 0.13644204 0.051657997 0
1.4458132 0.13694499 0.15607598 0
1.4375346 0.13616085 0.26041785 0
0.98154575 0.092970356 0.32801613 0
1.5562874 0.16720544 -0.055881221 0
1.4314492 0.15379299 0.051398691 0
1.4263887 0.15324931 0.15417519 0
1.4251738 0.15311876 0.2585074 0
0.9957574 0.10698285 0.33318922 0
1.547979 0.18605699 -0.055662606 0
1.4224157 0.17096509 0.051147569 0
1.4233849 0.17108159 0.15407117 0
1.4239895 0.17115426 0.25866303 0
0.99877548 0.1200463 0.33467835 0
1.5636245 0.20794168 -0.056314882 0
1.3980649 0.18592441 0.050352152 0
1.4069847 0.18711063 0.1525389 0
1.3950418 0.18552238 0.25380901 0
0.99693924 0.13257992 0.33459595 0
1.545699 0.22539905 -0.055767085 0
1.379647 0.20118478 0.049776115 0
1.3738004 0.20033221 0.14920287 0
1.3822291 0.2015613 0.25191969 0
1.0014969 0.14604165 0.33671612 0
1.5532258 0.24650781 -0.056146182 0
1.3594496 0.21575418 0.049141541 0
1.354983 0.2150453 0.1474416 0
1.3643664 0.21653451 0.24914131 0
0.99817079 0.1584167 0.33624187 0
1.5406785 0.26444548 -0.055808567 0
1.3870901 0.23808324 0.05024508 0
1.384805 0.23769102 0.15100037 0
1.3898745 0.23856117 0.25432763 0
1.0126606 0.17381532 0.34183306 0
1.5363884 0.28366876 -0.055778135 0
1.4038864 0.25920448 0.05096769 0
1.4103905 0.26040533 0.15413557 0
1.4112215 0.26055878 0.25881371 0
1.008039 0.18611777 0.34103709 0
1.5372603 0.3038938 -0.055944283 0
1.424745 0.28165117 0.051849604 0
1.4335493 0.28339165 0.15704404 0
1.4351257 0.2837033 0.26383191 0
1.315137 0.25998327 0.34202698 0
0.99339509 0.19637963 0.33689269 0
1.5227009 0.32098883 -0.055557128 0
1.464835 0.30879056 0.053445838 0
1.4587109 0.30749959 0.16021195 0
1.4348056 0.30246028 0.26445228 0
1.2983165 0.27368808 0.3385219 0
1.0052563 0.21191031 0.34179306 0
1.5279509 0.3422443 -0.055901486 0
1.4818442 0.3319169 0.05421463 0
1.4824106 0.33204374 0.16326119 0
1.4239607 0.31895161 0.26317281 0
1.2926521 0.28953993 0.33796883 0
1.0038682 0.2248555 0.34225667 0
1.5251826 0.36185023 -0.055962469 0
1.4926293 0.35412696 0.054768015 0
1.4994953 0.35575593 0.16562301 0
1.4297327 0.3392047 0.26500797 0
1.2762506 0.302791 0.33465093 0
0.99804503 0.23678662 0.34126085 0
0.76171458 0.18071711 0.46427274 0
1.5162625 0.37996218 -0.055806305 0
1.426338 0.35742787 0.26519197 0
1.2604388 0.31585497 0.33152148 0
0.99631476 0.24966781 0.34171709 0
0.77784491 0.19492115 0.47556266 0
1.521377 0.40166879 -0.056176249 0
1.4095412 0.37214229 0.26291946 0
1.2516274 0.33045042 0.33027217 0
0.99390399 0.26240715 0.34199643 0
0.78076077 0.2061338 0.4040316 0
0.79259962 0.20925945 0.48615596 0
1.5122296 0.41969129 -0.056029178 0
1.4102659 0.39139318 0.26395303 0
1.2356458 0.34293059 0.32716858 0
1.0030047 0.27836537 0.34630662 0
0.82389343 0.22865635 0.35401505 0
0.80094159 0.22228649 0.41589037 0
0.80725235 0.22403795 0.49683452 0
1.5000556 0.43672791 -0.05577746 0
1.398538 0.40717193 0.26269677 0
1.2279924 0.35751912 0.32630828 0
0.99701864 0.29027316 0.34547445 0
0.84078884 0.24478823 0.36257049 0
0.81407917 0.23701194 0.42422816 0
0.81107515 0.23613736 0.50097769 0
1.4960123 0.4560608 -0.055836227 0
1.3976725 0.42608184 0.26352113 0
1.2102458 0.36894462 0.3228015 0
0.97786617 0.29810345 0.34011173 0
0.84480816 0.25754058 0.36567318 0
0.83509958 0.25458091 0.43681812 0
0.8332321 0.25401163 0.51659805 0
1.4937513 0.47600842 -0.055971116 0
1.3965094 0.44502071 0.26433742 0
1.2038884 0.38363886 0.32236877 0
0.99096167 0.31578624 0.3460221 0
0.87450194 0.27867445 0.3800149 0
0.84552342 0.26943994 0.44401005 0
0.84333736 0.26874334 0.52491975 0
1.4837412 0.49348229 -0.055824447 0
1.3874444 0.46145466 0.26370052 0
1.1878642 0.39507565 0.31938475 0
0.98276776 0.32686192 0.34457082 0
0.8839972 0.2940115 0.38571927 0
0.86260033 0.28689507 0.45483872 0
0.85575277 0.2846176 0.53483588 0
1.4842247 0.5144875 -0.056081943 0
1.3811656 0.47876343 0.26363209 0
1.1716295 0.4061304 0.31636962 0
0.98110694 0.34008819 0.34546262 0
0.89510953 0.3102783 0.39224169 0
0.87960267 0.30490303 0.4657914 0
0.88428897 0.30652747 0.55503905 0
1.4715195 0.53093058 -0.055850066 0
1.1637061 0.41987014 0.3156327 0
0.97166842 0.35058215 0.34366637 0
0.906106 0.32692695 0.39883277 0
0.90338922 0.32594672 0.48052287 0
0.897156 0.32369778 0.56562883 0
1.4715098 0.5519644 -0.056109048 0
1.1532429 0.43258226 0.31424731 0
0.97473943 0.36562547 0.34635347 0
0.92559874 0.34719276 0.40930462 0
0.92657208 0.34755787 0.49514276 0
0.92491353 0.34693575 0.58583695 0
1.4613152 0.56923026 -0.055989195 0
1.1415501 0.44467121 0.31256214 0
0.95985144 0.37389365 0.34270912 0
0.95965898 0.3738187 0.42641398 0
0.94449085 0.36791021 0.50715369 0
0.94729114 0.369001 0.60290611 0
1.4608723 0.59034902 -0.056252588 0
1.1254287 0.45479384 0.30969149 0
0.98762298 0.39910558 0.35439107 0
0.96350569 0.38935959 0.43026763 0
0.95988828 0.38789779 0.51800317 0
0.96774822 0.39107403 0.61901122 0
1.4524261 0.60832059 -0.05621786 0
1.1193522 0.46881905 0.30961934 0
1.0227803 0.42837176 0.36891297 0
0.99502128 0.41674545 0.44664943 0
0.98621911 0.41305882 0.53497708 0
0.99164867 0.41533291 0.63759369 0
1.4504138 0.62905937 -0.056442101 0
1.1025424 0.47818398 0.30661091 0
1.0386454 0.45047122 0.37665161 0
1.019501 0.44216806 0.46010083 0
1.0188147 0.44187042 0.55563289 0
1.0155911 0.44047233 0.65650195 0
1.4290587 0.64129484 -0.055920891 0
1.0953709 0.49155131 0.3063136 0
1.0740058 0.48196369 0.39164445 0
1.0435359 0.46829018 0.47357151 0
1.0322132 0.46320909 0.56607628 0
1.0507487 0.47152695 0.68301266 0
1.4305228 0.66371584 -0.056300767 0
1.0887336 0.50513679 0.30621198 0
1.0767392 0.49957177 0.39490381 0
1.0714567 0.49712086 0.48904437 0
1.0666749 0.49490228 0.58834642 0
1.4168819 0.67919666 -0.056096058 0
1.0697159 0.51277912 0.30265522 0
1.0976702 0.52617931 0.40497839 0
1.1050618 0.52972251 0.50738704 0
1.1085229 0.53138167 0.61507046 0
1.3914069 0.68866277 -0.055426408 0
1.0627602 0.52600241 0.30253726 0
1.1448728 0.56664318 0.42499229 0
1.134482 0.56150037 0.52410018 0
1.1362718 0.56238627 0.63434619 0
1.4007452 0.71538162 -0.056152783 0
1.7052699 0.87090701 0.34533006 0
1.0496299 0.53606182 0.30069724 0
1.1692402 0.5971486 0.43679452 0
1.1738123 0.59948361 0.54571384 0
1.1672152 0.5961144 0.65575945 0
1.3956292 0.73507017 -0.05631429 0
1.6825948 0.8862133 0.34297082 0
1.0423857 0.54901874 0.30057859 0
1.2207015 0.64293671 0.45900702 0
1.2187066 0.641886 0.57029802 0
1.2135583 0.6391744 0.68626314 0
1.373957 0.74590373 -0.055814378 0
1.6760988 0.90993267 0.34395501 0
1.0258628 0.5569278 0.29781273 0
1.258827 0.68340111 0.47654098 0
1.2654638 0.68700409 0.59617913 0
1.3734506 0.76817495 -0.056182299 0
1.019212 0.57004821 0.041691832 0
1.0106744 0.56527311 0.12445094 0
1.0096771 0.56471533 0.20864023 0
0.99811029 0.55824596 0.29177362 0
1.3030335 0.72879046 0.49671048 0
1.3197861 0.73816019 0.6261006 0
1.3604515 0.78355402 -0.056049716 0
1.0113963 0.58251518 0.04166887 0
1.0106909 0.58210891 0.12534565 0
0.99728388 0.57438713 0.20755742 0
1.0114819 0.58256447 0.29780331 0
1.3401706 0.77187324 0.51453125 0
1.3321635 0.76726151 0.63650531 0
1.347248 0.79870689 -0.055915672 0
0.98868692 0.5861364 0.041034088 0
0.9916622 0.58790028 0.12389401 0
0.99849409 0.59195048 0.20934403 0
0.98620093 0.58466262 0.29250446 0
1.3748025 0.81504238 0.53172565 0
1.3659992 0.80982345 0.65749222 0
1.3405057 0.81769395 -0.056058746 0
0.97910541 0.59724373 0.04094531 0
0.98653996 0.60177869 0.12419093 0
0.9811812 0.59850991 0.20727791 0
0.98575145 0.60129774 0.29459351 0
1.4205396 0.86651379 0.55359137 0
1.4263716 0.87007123 0.69176966 0
1.3271395 0.83264804 -0.055933818 0
0.97003317 0.60859931 0.040883157 0
0.97632617 0.61254758 0.12386635 0
0.97310388 0.61052591 0.2071792 0
0.97238523 0.610075 0.29287159 0
1.4510664 0.91039979 0.56991023 0
1.320712 0.85197699 -0.056110628 0
0.96694463 0.62376553 0.041080777 0
0.95999682 0.61928356 0.12277426 0
0.96313578 0.62130845 0.20670624 0
0.96197456 0.62055939 0.29206645 0
1.4626656 0.94354969 0.57908636 0
1.3069421 0.86659086 -0.05598478 0
0.9554438 0.63352376 0.040927839 0
0.9488557 0.6291554 0.12235292 0
0.95118481 0.63069975 0.20582952 0
0.94845819 0.62889183 0.29034403 0
1.4816476 0.98243243 0.59145248 0
1.2910005 0.87962145 -0.055771954 0
0.94158512 0.6415478 0.040677011 0
0.94526494 0.64405501 0.12292593 0
0.93328995 0.63589585 0.20367378 0
0.93439192 0.63664663 0.28846928 0
1.5066974 1.0265863 0.60656422 0
1.2843822 0.89899844 -0.05597065 0
0.93319327 0.65318507 0.04066658 0
0.92769915 0.6493395 0.12169528 0
0.92425334 0.6469276 0.20346335 0
0.93591583 0.65509069 0.29146332 0
1.5305349 1.071292 0.6215421 0
1.2696888 0.91274685 -0.055826779 0
0.91968554 0.66113847 0.040437531 0
0.92976028 0.66838092 0.12305996 0
0.918006 0.65993106 0.20390125 0
0.91505057 0.65780646 0.28752223 0
1.5437919 1.1097926 0.63255066 0
1.2658404 0.93437827 -0.056170449 0
0.91017175 0.67184198 0.040387996 0
0.91396856 0.67464459 0.12208455 0
0.9066754 0.6692611 0.20324031 0
0.91322416 0.67409503 0.28959253 0
1.5545831 1.1475133 0.64284188 0
1.252298 0.94897169 -0.056095321 0
0.90084064 0.68264288 0.040352173 0
0.90137571 0.68304837 0.12154171 0
0.90041864 0.6823231 0.20374762 0
0.90585423 0.68644208 0.2899735 0
1.5609955 1.1828978 0.65160125 0
1.2331102 0.95911109 -0.055772394 0
0.88174021 0.68581611 0.039880268 0
0.89240909 0.69411439 0.12150158 0
0.88613629 0.68923539 0.20246363 0
0.88579577 0.68897051 0.28630707 0
1.5818344 1.2303483 0.66671425 0
1.2213975 0.97492981 -0.055793475 0
0.8742609 0.69784236 0.039936263 0
0.88263023 0.70452285 0.12136842 0
0.87700528 0.70003301 0.20237538 0
0.87783009 0.70069134 0.28656152 0
1.5881388 1.2676657 0.67604584 0
1.2076197 0.98908025 -0.055728614 0
0.93420255 0.76514262 0.12977459 0
0.92784339 0.75993425 0.21629767 0
0.92734534 0.75952631 0.30582333 0
1.589361 1.3017389 0.68348956 0
1.1943568 1.0036077 -0.055695347 0
1.6346219 1.3735586 0.22945769 0
1.6031176 1.347086 0.37764114 0
1.5904396 1.3364326 0.53000873 0
1.5925735 1.3382258 0.69206297 0
1.1884654 1.0244626 -0.056017742 0
1.6106913 1.3884232 0.38351333 0
1.5999967 1.3792044 0.53893846 0
1.1785707 1.0420855 -0.05616542 0
1.6083703 1.4221119 0.38719386 0
1.6074215 1.421273 0.54742444 0
1.1592956 1.0513463 -0.05587332 0
1.6132818 1.4630591 0.39278024 0
1.6071181 1.4574693 0.55352747 0
1.1481817 1.0679207 -0.055981353 0
1.6061151 1.4938434 0.39558381 0
1.5999025 1.488065 0.55745178 0
1.1305183 1.0783575 -0.055777784 0
0.60437214 0.57648706 0.34581372 0
0.60609412 0.57812959 0.41908798 0
1.1273229 1.1027503 -0.056300778 0
0.59677482 0.58376676 0.41769379 0
0.5901891 0.57732457 0.4896245 0
1.1101491 1.1136478 -0.056138989 0
0.58387536 0.58571547 0.41379467 0
0.58156419 0.58339703 0.488525 0
1.0918444 1.1232226 -0.055924144 0
0.59339494 0.6104483 0.35248166 0
0.5881449 0.60504735 0.42218655 0
0.55722225 0.57323605 0.47410321 0
1.0867307 1.1464981 -0.056397211 0
0.57487518 0.6064918 0.34598985 0
0.58490467 0.61707294 0.42540467 0
0.55165809 0.58199781 0.47556677 0
1.0678436 1.1553674 -0.056167599 0
1.572198 1.7010605 0.41774821 0
1.5734123 1.7023742 0.59142798 0
0.53287697 0.57655323 0.46559796 0
1.0501245 1.1652958 -0.056002978 0
1.5621932 1.733525 0.4208566 0
1.5654175 1.737103 0.59659767 0
0.5187093 0.57559818 0.45951554 0
1.0379511 1.1813649 -0.056142654 0
1.5506719 1.7649285 0.42370644 0
1.5506254 1.7648755 0.59938246 0
1.0108348 1.1801444 -0.055475347 0
1.5419493 1.800218 0.42748317 0
1.5528839 1.8129841 0.60903168 0
1.0084141 1.2077725 -0.056172702 0
0.58574969 0.70154941 0.032628603 0
1.5272257 1.8291504 0.4297528 0
1.5367228 1.8405249 0.61173445 0
0.98473728 1.2100645 -0.055698171 0
1.5268167 1.8761823 0.43625113 0
1.5297194 1.8797492 0.61832011 0
0.97351247 1.2275242 -0.055933133 0
1.5125493 1.9072078 0.43900174 0
1.5127079 1.907408 0.62110323 0
0.95458335 1.2352899 -0.055734854 0
1.4876037 1.9250511 0.43876234 0
1.4852065 1.921949 0.61969912 0
0.94321752 1.2528747 -0.055987939 0
1.4770463 1.9619588 0.44290009 0
1.4748842 1.959087 0.6256358 0
0.93384904 1.2734905 -0.056379247 0
1.4595335 1.9903667 0.44512883 0
1.4635729 1.9958752 0.63144857 0
0.90352213 1.2652377 -0.05550579 0
1.4401904 2.0167556 0.44693926 0
1.440063 2.016577 0.63221103 0
0.89460468 1.2867042 -0.055948891 0
1.4186898 2.0404925 0.44820517 0
1.4213283 2.0442874 0.63523698 0
0.87489086 1.2927808 -0.055729657 0
1.4077016 2.0800874 0.45297286 0
1.4038569 2.0744061 0.63905221 0
0.86349052 1.3112056 -0.056050755 0
1.4462072 2.1960578 0.09387596 0
1.443791 2.1923888 0.28211668 0
1.3869644 2.1060979 0.45479774 0
1.3841944 2.1018918 0.64209908 0
0.84868723 1.3247446 -0.056168217 0
1.4024998 2.1892092 0.092820898 0
1.4047285 2.192688 0.2798568 0
1.3612648 2.1248441 0.45510823 0
1.3647671 2.1303108 0.64547962 0
0.82886314 1.3303872 -0.055960495 0
1.3759325 2.2084744 0.092895754 0
1.370423 2.1996312 0.27851838 0
1.3426229 2.15501 0.45791182 0
1.3418585 2.1537831 0.64742059 0
0.8151595 1.3458582 -0.056175038 0
1.3456447 2.2217088 0.092732333 0
1.3477825 2.2252383 0.27958965 0
1.3144779 2.1702511 0.45759702 0
1.3203406 2.1799307 0.65023124 0
0.79959673 1.3584752 -0.05627694 0
1.3295618 2.2588594 0.093576759 0
1.3261572 2.2530754 0.28096679 0
1.3007364 2.2098866 0.46246392 0
1.2976 2.2045581 0.65265155 0
0.77698785 1.3589199 -0.055885613 0
1.2719357 2.2245634 0.46214694 0
1.2734257 2.2271693 0.65454644 0
0.76179612 1.3721623 -0.056031268 0
1.2382926 2.2304373 0.46009135 0
1.2388831 2.2315009 0.65118307 0
0.74803966 1.3882917 -0.0563008 0
1.2198223 2.2638762 0.46378383 0
1.2223842 2.2686307 0.65747422 0
0.72058648 1.3786336 -0.055536747 0
1.1939105 2.2842019 0.46483105 0
1.1974468 2.2909679 0.65952551 0
0.71069425 1.4024439 -0.056130957 0
1.1715349 2.3118408 0.46741641 0
1.1679908 2.304847 0.65923482 0
0.69081837 1.4068801 -0.055955913 0
1.146331 2.3345504 0.46905226 0
1.1425743 2.3268998 0.66137475 0
0.67539328 1.4203963 -0.056150787 0
1.1131817 2.3410943 0.46751362 0
1.1118182 2.3382266 0.66056252 0
0.65558553 1.4247246 -0.055991106 0
1.0880854 2.3646374 0.46944177 0
1.0870157 2.3623126 0.66344744 0
0.63721585 1.4320153 -0.055957846 0
1.0581454 2.3779702 0.46940622 0
1.0556686 2.3724041 0.66249573 0
0.61935472 1.4404371 -0.055977747 0
1.0240977 2.3817501 0.46756977 0
1.0296954 2.3947687 0.66506755 0
0.5993439 1.4437255 -0.055807821 0
0.99950683 2.4076552 0.47014722 0
0.99938065 2.4073513 0.66501427 0
0.58385444 1.4579905 -0.056070603 0
0.97143203 2.4258423 0.47127259 0
0.97054017 2.423615 0.66607821 0
0.56738979 1.4702522 -0.056262929 0
0.93894631 2.4330502 0.47033864 0
0.94224137 2.4415884 0.66770411 0
0.54266095 1.4606678 -0.055630255 0
0.90765637 2.4431174 0.47003806 0
0.90936774 2.4477239 0.6661976 0
0.5238353 1.4662901 -0.055588756 0
0.87392622 2.4462447 0.46848539 0
0.88065439 2.4650779 0.66784972 0
0.51091826 1.4890522 -0.056203332 0
0.84368521 2.458889 0.46883518 0
0.84351426 2.458391 0.66310781 0
0.49391836 1.500805 -0.056407712 0
0.81334722 2.4714117 0.4692328 0
0.81247699 2.4687674 0.66309452 0
0.47083682 1.4937534 -0.055915412 0
0.78089201 2.4774191 0.46846932 0
0.77848184 2.4697728 0.66067916 0
0.45286676 1.5024679 -0.056023706 0
0.74959987 2.4869339 0.46844649 0
0.74568862 2.4739578 0.65923458 0
0.43593541 1.5150799 -0.05628483 0
0.71499407 2.4849396 0.46633795 0
0.71650839 2.4902022 0.66110665 0
0.4160071 1.5174682 -0.056174498 0
0.56065172 2.0450881 0.075706229 0
0.68417752 2.4956729 0.46669847 0
0.68209559 2.4880786 0.6582104 0
0.3964622 1.5210316 -0.056117151 0
0.52671033 2.02073 0.074553095 0
0.6517331 2.5003812 0.46600726 0
0.65193164 2.5011427 0.65944248 0
0.37566632 1.5193799 -0.055877257 0
0.48643336 1.9673764 0.072352938 0
0.61684912 2.4948421 0.46349052 0
0.6183933 2.5010874 0.6573227 0
0.35672238 1.5249158 -0.055911217 0
0.45363185 1.9391842 0.071100414 0
0.58283758 2.4915123 0.46147186 0
0.5868513 2.5086701 0.65732127 0
0.3377516 1.5304557 -0.055953968 0
0.42087457 1.9071112 0.069724612 0
0.55265945 2.5042689 0.46250898 0
0.54938954 2.4894519 0.6504215 0
0.31830442 1.5338637 -0.05592759 0
0.39032239 1.880908 0.068581484 0
0.52008349 2.5062084 0.46162105 0
0.51883858 2.5002093 0.65147352 0
0.29861033 1.5359206 -0.05586106 0
0.35750777 1.8388631 0.066879004 0
0.48545367 2.4969606 0.4587554 0
0.4832387 2.485568 0.64602166 0
0.27967769 1.5419302 -0.055947103 0
0.33148453 1.8275536 0.066310607 0
0.45120394 2.4875956 0.45595476 0
0.45140591 2.488709 0.64530951 0
0.25960866 1.541576 -0.055811215 0
0.30272084 1.7975794 0.065079562 0
0.30148458 1.7902384 0.19510478 0
0.41980565 2.4928379 0.45591056 0
0.41900387 2.4880769 0.64372653 0
0.14440078 0.85746276 0.43506414 0
0.24177524 1.5549968 -0.056182425 0
0.27397406 1.762086 0.063664608 0
0.2721706 1.750487 0.19038397 0
0.38760129 2.4928887 0.45499116 0
0.38569582 2.4806335 0.64049333 0
0.13330212 0.85734326 0.43411741 0
0.22114491 1.5506822 -0.055921491 0
0.2471737 1.7331977 0.062503457 0
0.24691033 1.731351 0.18794967 0
0.35204583 2.4685678 0.44970748 0
0.35362202 2.4796202 0.63903135 0
0.12243446 0.85851824 0.43389729 0
0.20058098 1.5454736 -0.055638161 0
0.22122827 1.7045608 0.061365411 0
0.22129394 1.7050667 0.18477918 0
0.32134333 2.4759457 0.45027867 0
0.3204864 2.4693432 0.63529241 0
0.11211097 0.86381346 0.43582547 0
0.18273766 1.5618248 -0.056139521 0
0.19704199 1.6840812 0.060534008 0
0.19732144 1.6864697 0.18248008 0
0.28749421 2.4571595 0.44616842 0
0.28832886 2.464293 0.6330089 0
0.10167104 0.86896342 0.43774319 0
0.16196485 1.5535176 -0.055763189 0
0.17192928 1.6490934 0.059193864 0
0.17368247 1.6659093 0.18000448 0
0.2551595 2.4474123 0.44377995 0
0.25593448 2.4548457 0.62970436 0
0.093580686 0.89759743 0.45153826 0
0.14303462 1.5624607 -0.056015108 0
0.15112129 1.6507967 0.059182007 0
0.15053175 1.6443567 0.17745681 0
0.22310688 2.4371421 0.44137329 0
0.22317089 2.4378414 0.62457216 0
0.081878267 0.89440989 0.44938046 0
0.12275397 1.5565797 -0.055744439 0
0.12765224 1.6186922 0.057968818 0
0.12752435 1.6170703 0.17432497 0
0.19196354 2.4341905 0.44036606 0
0.19225769 2.4379206 0.62392271 0
0.10379537 1.5678256 -0.056095921 0
0.10542262 1.592405 0.056975361 0
0.10511239 1.5877191 0.17100458 0
0.16037065 2.4223931 0.43783176 0
0.16010699 2.4184105 0.61836463 0
0.083611675 1.5608939 -0.055805817 0
0.085857518 1.6028202 0.057304788 0
0.086525194 1.6152847 0.17384239 0
0.12861149 2.4009674 0.43363214 0
0.12865122 2.4017088 0.61363131 0
0.064236611 1.5687858 -0.056054611 0
0.066465802 1.6232272 0.057999864 0
0.066623501 1.6270785 0.17500752 0
0.097714126 2.3863735 0.43073997 0
0.097278193 2.3757272 0.60663193 0
0.044553656 1.5721186 -0.056149196 0
0.038533676 1.3596978 0.048562456 0
0.046738394 1.6492091 0.17731051 0
0.067088202 2.3672719 0.42710578 0
0.067014277 2.3646631 0.60354352 0
0.024601789 1.5628066 -0.055801123 0
0.021331659 1.3550744 0.048383899 0
0.026225062 1.6659236 0.17905784 0
0.037010822 2.3510795 0.42406663 0
0.036943402 2.3467968 0.59881717 0
0.0049256235 1.5640758 -0.055839803 0
0.0042187944 1.3396302 0.047826763 0
0.0053039351 1.6842043 0.18100116 0
0.00737296 2.3411996 0.42223439 0
0.0073928488 2.3475151 0.59892923 0
-0.014854052 1.5730873 -0.056163751 0
-0.012752832 1.350562 0.048218954 0
-0.016101699 1.7052169 0.18326662 0
-0.021832647 2.3121409 0.41701019 0
-0.021765392 2.3050182 0.58811021 0
-0.034558456 1.5681703 -0.055999294 0
-0.029951891 1.3591366 0.04853471 0
-0.038218953 1.7342737 0.18642643 0
-0.050456818 2.2895954 0.41302577 0
-0.050456982 2.2896025 0.58429277 0
-0.053939108 1.5571668 -0.055626206 0
-0.047410399 1.3686897 0.048893295 0
-0.06080107 1.7552646 0.18875021 0
-0.078536607 2.2672713 0.40914467 0
-0.078768238 2.2739584 0.58050758 0
-0.073913194 1.5642316 -0.055907395 0
-0.083762802 1.7726797 0.063357569 0
-0.083733357 1.7720566 0.19065416 0
-0.10631745 2.2500055 0.40623832 0
-0.1061547 2.2465613 0.57380927 0
-0.042446312 0.89829504 0.37234142 0
-0.094030991 1.570326 -0.056163084 0
-0.10789473 1.8018517 0.064443655 0
-0.10746985 1.7947561 0.19322667 0
-0.13368317 2.2325211 0.40335342 0
-0.1327861 2.2175398 0.56677878 0
-0.053157255 0.8877309 0.36821085 0
-0.11346211 1.5644161 -0.05599837 0
-0.13253669 1.8274164 0.065412484 0
-0.16014183 2.2080362 0.3992624 0
-0.15960287 2.2006049 0.5629195 0
-0.063299976 0.87278038 0.3623116 0
-0.065300278 0.90036047 0.45166981 0
-0.13330032 1.564616 -0.056061167 0
-0.15706052 1.8435019 0.066053823 0
-0.18507685 2.1723442 0.39319876 0
-0.18498135 2.1712234 0.55595535 0
-0.074975885 0.88003141 0.3656846 0
-0.077478461 0.90940547 0.45666048 0
-0.15304497 1.5633733 -0.05608125 0
-0.18370333 1.8765525 0.067315593 0
-0.21209703 2.1665976 0.39261088 0
-0.21002591 2.1454408 0.54998714 0
-0.086797163 0.88664383 0.36885723 0
-0.17237879 1.5582597 -0.055971242 0
-0.21132438 1.9103177 0.068616837 0
-0.23681763 2.1407702 0.38844025 0
-0.23491299 2.1235528 0.54509121 0
-0.096678153 0.87394553 0.36405215 0
-0.19158448 1.5527157 -0.055854328 0
-0.23828824 1.9312309 0.069470286 0
-0.26126474 2.1174462 0.38477457 0
-0.25928822 2.1014273 0.54020715 0
-0.11105234 0.90003479 0.37547269 0
-0.10573972 0.85697818 0.43203223 0
-0.21120849 1.550831 -0.055877775 0
-0.26679823 1.9590073 0.070584714 0
-0.2846778 2.0902908 0.38046125 0
-0.28365973 2.0828154 0.53629833 0
-0.11768501 0.86412042 0.36107966 0
-0.11585408 0.85067654 0.42955679 0
-0.23168412 1.554527 -0.056111615 0
-0.296556 1.9897968 0.071822941 0
-0.309248 2.0749562 0.37834892 0
-0.30585513 2.052191 0.52936268 0
-0.30581954 2.0519524 0.69021285 0
-0.12860647 0.86290872 0.3612214 0
-0.12993184 0.8718015 0.44101524 0
-0.2509675 1.5498092 -0.056050949 0
-0.32578546 2.0118356 0.072760753 0
-0.3313109 2.0459569 0.37379226 0
-0.32974014 2.036257 0.52628183 0
-0.32961735 2.0354986 0.68602008 0
-0.13854849 0.85558391 0.35885704 0
-0.14057015 0.86806822 0.43998724 0
-0.26711267 1.5273771 -0.05535692 0
-0.35860369 2.0505319 0.074317686 0
-0.35363296 2.0221088 0.37021944 0
-0.35199159 2.0127232 0.52130365 0
-0.35143301 2.0095294 0.67870533 0
-0.15078481 0.86220264 0.43794188 0
-0.28921539 1.5392867 -0.055916119 0
-0.38620347 2.0554848 0.074667528 0
-0.38614348 2.0551655 0.22473197 0
-0.37681982 2.0055425 0.36802596 0
-0.37555471 1.9988091 0.51888353 0
-0.375269 1.9972885 0.67611349 0
-0.16222273 0.86339563 0.43955055 0
-0.3094072 1.5396695 -0.056067113 0
-0.40393409 2.0100534 0.073196158 0
-0.4035686 2.0082347 0.22013831 0
-0.39983115 1.9896364 0.36600202 0
-0.39586017 1.9698761 0.51262599 0
-0.39644063 1.9727646 0.66944855 0
-0.17055331 0.84870595 0.43313116 0
-0.32904878 1.5369586 -0.05611483 0
-0.425567 1.9877869 0.072574712 0
-0.42374283 1.9792664 0.21753055 0
-0.42028388 1.96311 0.36206719 0
-0.41674691 1.9465891 0.50789136 0
-0.41952032 1.9595435 0.66670185 0
-0.18107997 0.84580898 0.43278205 0
-0.34759647 1.5292691 -0.055989448 0
-0.44964448 1.9782346 0.07242693 0
-0.44985083 1.9791425 0.2181222 0
-0.44179699 1.9437093 0.35948658 0
-0.43997478 1.9356923 0.50645363 0
-0.44016755 1.9365404 0.66070884 0
-0.36721104 1.5263789 -0.056048486 0
-0.47404513 1.970454 0.072354876 0
-0.4725658 1.9643049 0.21712555 0
-0.46279937 1.923709 0.35683709 0
-0.45883319 1.9072229 0.50047684 0
-0.4575204 1.9017659 0.65075856 0
-0.38528198 1.517228 -0.055886183 0
-0.50131041 1.9741442 0.072716415 0
-0.50019521 1.9697527 0.21840662 0
-0.48021314 1.8910638 0.35187536 0
-0.48178446 1.8972516 0.49941269 0
-0.47761044 1.8808146 0.64559603 0
-0.40957627 1.5317831 -0.056607794 0
-0.53165609 1.9883521 0.073480524 0
-0.53032601 1.9833775 0.2206403 0
-0.49980986 1.8692496 0.34895977 0
-0.49806836 1.8627365 0.49193922 0
-0.49880692 1.8654988 0.6424439 0
-0.42533973 1.5140774 -0.056146953 0
-0.52219522 1.858853 0.34821883 0
-0.51912642 1.847929 0.48971617 0
-0.51762557 1.8425865 0.63674754 0
-0.44235194 1.5017503 -0.055891957 0
-0.54394764 1.8466599 0.34719029 0
-0.53722054 1.8238219 0.48508188 0
-0.53689361 1.8227121 0.63216567 0
-0.46129295 1.4962797 -0.055900104 0
-0.56230825 1.8239394 0.34422258 0
-0.55854779 1.8117418 0.48370123 0
-0.55680156 1.8060776 0.62877828 0
-0.48090619 1.4928668 -0.055994395 0
-0.58867788 1.8274201 0.34625098 0
-0.57487792 1.7845813 0.47834465 0
-0.57634968 1.78915 0.6253621 0
-0.49674964 1.4780188 -0.055667683 0
-0.6099633 1.8148724 0.34530145 0
-0.59667766 1.7753425 0.4778443 0
-0.59555238 1.7719944 0.62193763 0
-0.51539546 1.4718616 -0.055675801 0
-0.63409871 1.8108531 0.34602848 0
-0.60992563 1.7418199 0.47085136 0
-0.61516112 1.7567714 0.61926436 0
-0.54022807 1.4826581 -0.056337059 0
-0.65307969 1.7923799 0.34404266 0
-0.6307863 1.7311956 0.47008926 0
-0.63116765 1.7322422 0.61337078 0
-0.55490911 1.4653223 -0.055939414 0
-0.6718694 1.7741737 0.34214485 0
-0.65085053 1.7186701 0.46887639 0
-0.65134943 1.7199876 0.61188722 0
-0.57560432 1.4640411 -0.056162756 0
-0.69848633 1.7765898 0.34427968 0
-0.66650593 1.6952481 0.46473935 0
-0.66379517 1.6883533 0.60355908 0
-0.59146231 1.4504721 -0.055923503 0
-0.72304541 1.7731596 0.34535196 0
-0.68654984 1.6836598 0.46389577 0
-0.68591511 1.6821033 0.60436451 0
-0.60980272 1.4432036 -0.055934884 0
-0.74192804 1.7559009 0.34378287 0
-0.70604372 1.6709745 0.46281353 0
-0.70276648 1.6632184 0.60071117 0
-0.62984675 1.4398017 -0.056105979 0
-0.76677543 1.7528145 0.34504166 0
-0.71709913 1.6392567 0.45649341 0
-0.71415401 1.6325241 0.59282619 0
-0.64947474 1.4351801 -0.056240119 0
-0.78464818 1.7338802 0.34323218 0
-0.73348689 1.6208262 0.45389703 0
-0.74085277 1.637103 0.59782922 0
-0.66367245 1.4187195 -0.055918138 0
-0.80674267 1.7245579 0.34337056 0
-0.75610149 1.6163032 0.45526057 0
-0.75193518 1.607397 0.59039217 0
-0.68146467 1.4102122 -0.055916611 0
-0.83248734 1.722736 0.34506765 0
-0.76936144 1.5921043 0.45113757 0
-0.76347572 1.5799246 0.58378649 0
-0.6979574 1.3990953 -0.05581988 0
-0.84865481 1.7011769 0.34286264 0
-0.78659213 1.5767686 0.44956309 0
-0.78647065 1.5765252 0.58614331 0
-0.71614182 1.3914076 -0.055868518 0
-0.87313783 1.6964386 0.3440963 0
-0.80345219 1.5610449 0.44792905 0
-0.80440497 1.562896 0.58479565 0
-0.73625457 1.3872734 -0.056070331 0
-0.89123279 1.6792881 0.34286675 0
-0.82082194 1.5466179 0.44671974 0
-0.81490338 1.535466 0.57832575 0
-0.7491166 1.3695799 -0.055732045 0
-0.80744416 1.4762179 0.060071442 0
-0.91389805 1.6708432 0.34346494 0
-0.83629239 1.5289599 0.44462588 0
-0.83626854 1.5289164 0.57977921 0
-0.77170736 1.3696328 -0.056125179 0
-0.82403362 1.4625019 0.059930794 0
-0.93671674 1.6624928 0.34414577 0
-0.84657329 1.5025054 0.439998 0
-0.85560828 1.5185409 0.57988429 0
-0.7858727 1.354604 -0.055910405 0
-0.97597945 1.6822897 0.069435425 0
-0.95430309 1.6449264 0.34296978 0
-0.87113279 1.5015663 0.44290018 0
-0.86528397 1.4914846 0.57366771 0
-0.80685902 1.351288 -0.056188438 0
-1.005264 1.683567 0.070005067 0
-0.97650957 1.6354103 0.34352225 0
-0.88796866 1.4871264 0.44190407 0
-0.8835296 1.4796921 0.57336569 0
-0.82045996 1.3355691 -0.055959988 0
-1.0053798 1.6365871 0.20641957 0
-0.99868327 1.6256864 0.34409398 0
-0.89786482 1.4615711 0.43763518 0
-0.90079933 1.4663481 0.57254493 0
-0.83936918 1.3285481 -0.05610422 0
-1.0118455 1.6015425 0.20359036 0
-1.0195869 1.6137956 0.34426737 0
-0.91646272 1.4505712 0.43776229 0
-0.91578269 1.4494948 0.57042193 0
-0.85224313 1.3120432 -0.055855982 0
-0.90212065 1.3888304 0.059124954 0
-1.0416864 1.6036943 0.34488338 0
-0.93686604 1.4423217 0.43879813 0
-0.93264079 1.4358168 0.5696156 0
-0.86591256 1.2970394 -0.055677023 0
-0.92468935 1.3850805 0.059456296 0
-1.0564722 1.5824763 0.34315407 0
-0.94984865 1.4227662 0.43645298 0
-0.9469741 1.4184605 0.56741577 0
-0.88222623 1.2861081 -0.055680245 0
-0.95969123 1.3990364 0.06056932 0
-1.0796096 1.5738533 0.34420487 0
-0.96125621 1.4013178 0.43355221 0
-0.96383542 1.4050778 0.56687242 0
-0.90278214 1.2811878 -0.055954956 0
-1.1010784 1.5626009 0.34474894 0
-0.98325515 1.3953915 0.43551475 0
-0.97046351 1.3772382 0.56052643 0
-0.92743629 1.2815949 -0.056478307 0
-1.1159371 1.5420781 0.34329414 0
-0.98847723 1.3659453 0.43017513 0
-0.9964478 1.3769597 0.56547505 0
-0.9330985 1.2558173 -0.055855691 0
-1.1376505 1.5311151 0.34401539 0
-1.0067145 1.3548938 0.43065283 0
-1.0114421 1.3612566 0.56421191 0
-0.95345742 1.2500268 -0.056127697 0
-1.1575191 1.5175611 0.34421769 0
-1.025445 1.3444058 0.43138924 0
-1.0240319 1.3425533 0.56175989 0
-0.96768373 1.2360864 -0.056044444 0
-0.58745235 0.75039172 0.034022935 0
-0.59253484 0.75688392 0.10330314 0
-0.58619344 0.74878365 0.17150199 0
-1.0400399 1.3285117 0.43045744 0
-1.0372339 1.3249274 0.55980551 0
-0.97972548 1.2195154 -0.055848047 0
-0.59272748 0.73779887 0.033787701 0
-0.60150748 0.7487278 0.10321555 0
-0.58861309 0.73267746 0.16949722 0
-1.051414 1.3087499 0.42831019 0
-1.0503964 1.3074832 0.55797929 0
-0.48598027 0.60492504 0.4601804 0
-0.99491799 1.2069798 -0.055843275 0
-0.59982932 0.72767991 0.033667535 0
-0.60528368 0.73429686 0.10226879 0
-0.60638827 0.73563683 0.17193468 0
-1.0724536 1.3010416 0.43017301 0
-1.0616699 1.2879596 0.55530864 0
-1.0207095 1.2069776 -0.056433372 0
-0.61076009 0.72221696 0.10164944 0
-0.6171844 0.72981369 0.17237642 0
-1.0784791 1.2752894 0.42611477 0
-1.0781997 1.2749591 0.55551314 0
-1.0248555 1.181384 -0.055835687 0
-0.62213558 0.71715575 0.10203162 0
-0.61753267 0.71184987 0.16995668 0
-1.0999897 1.2679936 0.4282712 0
-1.0997263 1.2676901 0.55833536 0
-1.0387133 1.1673343 -0.055785421 0
-0.62810642 0.70588303 0.10154504 0
-0.63103831 0.70917803 0.17120239 0
-1.1140949 1.25205 0.42759067 0
-1.1144599 1.2524604 0.55776429 0
-1.118776 1.2573109 0.6968227 0
-0.52304214 0.58780903 0.46662456 0
-1.0550807 1.1560823 -0.055878181 0
-0.63836485 0.69947481 0.10177148 0
-0.63778585 0.69884038 0.17063203 0
-1.1251948 1.2329085 0.42585856 0
-1.1246657 1.2323288 0.55506182 0
-1.1283306 1.2363443 0.69302207 0
-0.53042483 0.58120179 0.4666447 0
-1.0746987 1.148203 -0.056146991 0
-0.65452057 0.6992867 0.10293512 0
-0.64107233 0.6849187 0.16919047 0
-1.1460508 1.2244353 0.42788264 0
-1.1412117 1.2192652 0.55560642 0
-1.143576 1.2217913 0.69288146 0
-0.55817777 0.59635448 0.48441565 0
-1.0835282 1.128806 -0.055861238 0
-0.57885319 0.60304201 0.34609309 0
-0.58056158 0.60482174 0.4194693 0
-0.56053483 0.58395815 0.48004159 0
-1.0991309 1.1165726 -0.055936333 0
-0.57397515 0.58308339 0.40937299 0
-0.57024068 0.57928962 0.48206839 0
-1.1162217 1.1057343 -0.056093067 0
-0.58553541 0.58003408 0.41237602 0
-0.58419728 0.57870853 0.48766789 0
-1.1347649 1.096141 -0.056326818 0
-0.61544508 0.5944972 0.354285 0
-0.61094099 0.59014648 0.42500117 0
-1.1382846 1.0721658 -0.055826947 0
-0.61685067 0.58102018 0.35085467 0
-0.61349672 0.57786101 0.42168367 0
-1.1516155 1.0576763 -0.055823136 0
-0.6929428 0.63641828 0.10111245 0
-0.70336264 0.64598817 0.17223251 0
-1.2345711 1.133865 0.42766517 0
-1.2334616 1.132846 0.55717754 0
-1.231568 1.1311069 0.69233972 0
-1.1624354 1.0409375 -0.05570782 0
-0.71242851 0.63796538 0.10277539 0
-0.70739239 0.63345563 0.17125246 0
-1.251424 1.1206249 0.42858097 0
-1.2494786 1.1188828 0.55800414 0
-1.253266 1.1222744 0.69653785 0
-1.1795219 1.0297735 -0.055900801 0
-0.71753341 0.6264376 0.10236575 0
-0.71470219 0.62396586 0.1711064 0
-1.260046 1.1000745 0.42675588 0
-1.2639875 1.1035156 0.5582338 0
-1.19605 1.0179515 -0.056072183 0
-0.7229079 0.61526281 0.10201912 0
-0.72168052 0.61421824 0.17091185 0
-1.2768368 1.0867085 0.4277741 0
-1.2830157 1.0919675 0.56052035 0
-1.2033345 0.9982996 -0.055819921 0
-0.74134612 0.61502898 0.10352004 0
-0.72958302 0.60527021 0.17096479 0
-1.2808563 1.0626127 0.42460424 0
-1.295408 1.0746849 0.55997771 0
-1.2222074 0.98824269 -0.05611369 0
-0.73980737 0.59818751 0.10224523 0
-0.73807448 0.59678638 0.17118007 0
-1.3075776 1.0572706 0.42901498 0
-1.3019768 1.052742 0.55704266 0
-1.2298843 0.969096 -0.055901453 0
-0.75090986 0.59168476 0.034130815 0
-0.74703991 0.58863539 0.1022123 0
-0.74704152 0.58863664 0.17152707 0
-1.3216287 1.0413866 0.4292886 0
-1.3262902 1.0450598 0.5617702 0
-1.2463995 0.95691973 -0.056099974 0
-0.75556964 0.58008647 0.034007907 0
-0.75593108 0.58036393 0.10242078 0
-0.752653 0.57784724 0.17113124 0
-1.3344679 1.024534 0.42923447 0
-1.3415202 1.0299484 0.56268311 0
-1.2563637 0.93966502 -0.056011446 0
-0.76184291 0.56980079 0.033964623 0
-0.76345927 0.57100976 0.10245845 0
-0.76165682 0.56966162 0.17153384 0
-1.3537639 1.0125129 0.43130589 0
-1.3472636 1.0076512 0.5597257 0
-1.2619272 0.91927791 -0.055738989 0
-0.77063817 0.56138784 0.034038883 0
-0.77395898 0.56380695 0.1029066 0
-0.77797776 0.56673455 0.17358854 0
-1.3635184 0.99328411 0.43039462 0
-1.3716534 0.99921024 0.56458646 0
-1.2813603 0.90896112 -0.056087334 0
-0.78309357 0.55550468 0.034277346 0
-0.78234756 0.55497551 0.1030846 0
-0.78164905 0.55447996 0.1728361 0
-1.3862399 0.98335987 0.4336237 0
-1.3877454 0.98442775 0.56606281 0
-1.2841461 0.88684523 -0.055716041 0
-0.7845701 0.54183263 0.03404063 0
-0.79375309 0.5481745 0.10366968 0
-0.79097432 0.54625547 0.17336336 0
-1.3950658 0.96344763 0.43255523 0
-1.4017317 0.96805125 0.56675065 0
-1.3045627 0.87689221 -0.056118339 0
-0.79046828 0.53133166 0.034003552 0
-0.80423832 0.54058748 0.10414181 0
-0.79449117 0.53403574 0.1726466 0
-1.4146864 0.95091444 0.43489167 0
-1.416429 0.95208573 0.5678007 0
-1.3168585 0.86128485 -0.056176271 0
-0.81635171 0.53393084 0.034824997 0
-0.80370718 0.52566075 0.10320771 0
-0.80421662 0.52599394 0.17330693 0
-1.426064 0.93271023 0.4347443 0
-1.4311007 0.93600446 0.56891227 0
-1.3304138 0.84642678 -0.056295391 0
-0.81348437 0.51754946 0.034421936 0
-0.8179965 0.52042013 0.10419288 0
-0.81960219 0.5214417 0.17519362 0
-1.4580127 0.92760688 0.44088817 0
-1.4412274 0.91692781 0.56830293 0
-1.3341156 0.82537013 -0.056007806 0
-0.82673037 0.51146883 0.034707155 0
-0.818434 0.50633615 0.10342827 0
-0.82712972 0.51171589 0.1754114 0
-1.4668473 0.9074865 0.44006929 0
-1.4580657 0.90205365 0.57041836 0
-1.339475 0.80554342 -0.055802539 0
-0.84415615 0.50766486 0.035167549 0
-0.84490025 0.50811231 0.10595593 0
-0.84590608 0.50871724 0.17802073 0
-1.4737508 0.88629514 0.43875739 0
-1.4744384 0.88670868 0.57241005 0
-1.3502023 0.7890175 -0.055831097 0
-0.90495348 0.52882755 0.037419982 0
-0.91073138 0.53220397 0.11336216 0
-0.89966464 0.52573693 0.18792608 0
-1.4927212 0.87230122 0.4411 0
-1.4905347 0.87102354 0.57435536 0
-1.3641548 0.77429557 -0.05600043 0
-0.97716063 0.55463731 0.040113788 0
-0.96758574 0.54920262 0.11956874 0
-1.5083328 0.8561312 0.31279081 0
-1.50705 0.85540301 0.44211617 0
-1.5121439 0.85829431 0.57847166 0
-1.3741977 0.75727922 -0.056016803 0
-1.0606917 0.58451545 0.043237273 0
-1.052017 0.57973504 0.12908992 0
-1.5191714 0.83716983 0.31282753 0
-1.5347852 0.84577417 0.44709289 0
-1.5171517 0.83605689 0.57631433 0
-1.3712198 0.7332831 -0.055514619 0
-1.1446282 0.61210936 0.046340927 0
-1.1448265 0.61221546 0.1395213 0
-1.5403204 0.82371253 0.31502169 0
-1.5355717 0.82117307 0.44427457 0
-1.5386541 0.82282144 0.58050048 0
-1.3912493 0.72161603 -0.055953208 0
-1.2575649 0.65227628 0.050576694 0
-1.2566456 0.6517995 0.15213647 0
-1.5590858 0.80866981 0.31675184 0
-1.5544935 0.80628788 0.44677618 0
-1.5640907 0.81126577 0.58619654 0
-1.4067309 0.70731246 -0.056213181 0
-1.3761792 0.69195098 0.054992337 0
-1.382163 0.69495964 0.16625968 0
-1.5831704 0.7960273 0.31958318 0
-1.5816586 0.79526711 0.45166969 0
-1.5788192 0.79383945 0.58792347 0
-1.4146619 0.68912333 -0.056178894 0
-1.5390013 0.7496928 0.061116651 0
-1.5347641 0.74762863 0.18346898 0
-1.5852435 0.7722187 0.31801355 0
-1.590703 0.77487814 0.45143029 0
-1.4132529 0.66655242 -0.055785205 0
-1.6477432 0.77714837 0.1957894 0
-1.6092401 0.75898862 0.32088473 0
-1.6086488 0.75870967 0.45377588 0
-1.4262478 0.65085632 -0.055970203 0
-1.6356339 0.74640793 0.19321842 0
-1.6272697 0.74259096 0.32258973 0
-1.6255088 0.74178737 0.45586082 0
-1.4343045 0.63283533 -0.055969216 0
-1.6539252 0.72973508 0.19427827 0
-1.6466959 0.72654539 0.32460138 0
-1.6444466 0.72555298 0.45857322 0
-1.444874 0.61588281 -0.056074586 0
-1.6687526 0.71131188 0.19495238 0
-1.6520804 0.70420533 0.32388914 0
-1.6590192 0.70716304 0.46011731 0
-1.4452354 0.59464645 -0.055793587 0
-1.6960142 0.69783008 0.19709502 0
-1.6819736 0.69205308 0.32801518 0
-1.6719282 0.6879198 0.46125847 0
-1.4620967 0.58016711 -0.056158036 0
-1.7092841 0.67825228 0.19762895 0
-1.6816914 0.66730338 0.32629558 0
-1.6947464 0.67248362 0.46518058 0
-1.4667472 0.56074101 -0.056061003 0
-1.7222319 0.65841347 0.19815168 0
-1.7128021 0.6548084 0.33070585 0
-1.7128909 0.65484238 0.46786049 0
-1.4726382 0.54184103 -0.056020945 0
-1.7137842 0.63056803 0.1962506 0
-1.7347938 0.63829827 0.33337367 0
-1.7274343 0.63559037 0.46960956 0
-1.4740844 0.52139539 -0.055821769 0
-1.74834 0.61840183 0.19930017 0
-1.7469226 0.61790049 0.33418274 0
-1.7492629 0.61872828 0.4733882 0
-1.4871523 0.50504172 -0.056071367 0
-2.0216179 0.68654788 0.07622277 0
-1.7684863 0.60058361 0.20071872 0
-1.7651711 0.59945774 0.33620298 0
-1.7691342 0.60080361 0.47668061 0
-1.4851421 0.48358977 -0.055761553 0
-1.9865719 0.64686459 0.074588373 0
-1.7918111 0.58344692 0.20251612 0
-1.7827353 0.58049166 0.33812931 0
-1.7772686 0.57871157 0.47687107 0
-1.5027392 0.46847603 -0.05619631 0
-1.9614835 0.6114887 0.07335148 0
-1.8083049 0.56373554 0.20356184 0
-1.8115673 0.56475264 0.34222189 0
-1.5061458 0.44881052 -0.056107916 0
-1.9199132 0.57210737 0.071521841 0
-1.8212277 0.54270053 0.2042311 0
-1.8163692 0.54125273 0.34181437 0
-1.5016496 0.42695951 -0.055735715 0
-1.896652 0.53926933 0.070396751 0
-1.8436084 0.52418762 0.20598432 0
-1.8401237 0.52319682 0.34501746 0
-1.5234165 0.41248843 -0.056346372 0
-1.8820357 0.50959009 0.069610558 0
-1.8587307 0.50327986 0.20694944 0
-1.8670834 0.5055415 0.34885108 0
-1.5196931 0.39101079 -0.0560221 0
-1.9070561 0.49067771 0.070301883 0
-1.877737 0.48313403 0.20837171 0
-1.8791779 0.48350477 0.34994555 0
-1.530159 0.37322631 -0.056230206 0
-1.9156505 0.46725285 0.070396222 0
-1.8980941 0.46297064 0.20996715 0
-1.9073354 0.46522474 0.35407013 0
-1.526667 0.35206911 -0.05593453 0
-1.9392625 0.44721898 0.071051344 0
-1.9283412 0.44470036 0.21267678 0
-1.9161152 0.44188091 0.3546389 0
-1.5297701 0.33255583 -0.055890366 0
-1.9494103 0.42378119 0.071221977 0
-1.9479405 0.42346165 0.21423329 0
-1.9495634 0.42381445 0.3598133 0
-1.5340587 0.31331328 -0.055898473 0
-1.9473934 0.39773199 0.070959687 0
-1.9664798 0.40163016 0.21569894 0
-1.966401 0.40161404 0.3619588 0
-1.5387573 0.29414007 -0.055930287 0
-1.9763104 0.37778023 0.071834333 0
-1.9861621 0.37966344 0.21731621 0
-1.9879749 0.38000998 0.36502022 0
-1.5411112 0.27452326 -0.055885766 0
-2.0067813 0.35747463 0.072772503 0
-2.0028768 0.3567791 0.21863617 0
-2.4945505 0.44436258 0.45697102 0
-1.5539101 0.25666031 -0.056228243 0
-2.0214479 0.33388382 0.073146097 0
-2.0303702 0.33535752 0.22115886 0
-2.4524665 0.4050754 0.44829178 0
-1.5420396 0.23479363 -0.055687312 0
-2.0513017 0.31233475 0.074078165 0
-2.0499532 0.31212944 0.22284617 0
-2.4316034 0.37024012 0.44359079 0
-1.5524589 0.21641625 -0.05596073 0
-2.0773518 0.28958753 0.074881293 0
-2.0690477 0.28842989 0.22450927 0
-1.552848 0.19657165 -0.055881098 0
-2.0981824 0.26560435 0.075505607 0
-2.1052251 0.26649588 0.22805262 0
-1.5469632 0.17606637 -0.055585138 0
-1.9835442 0.22575548 0.071272269 0
-1.9918078 0.226696 0.21544015 0
-1.9833406 0.22573231 0.36000216 0
-1.5562489 0.15730116 -0.055843189 0
-2.0142038 0.20358993 0.072276078 0
-2.0059395 0.2027546 0.21667536 0
-1.9972165 0.2018729 0.36203068 0
-1.5634494 0.13816583 -0.056034692 0
-2.1878989 0.19334997 0.07841523 0
-2.1808648 0.19272833 0.23528942 0
-2.3121572 0.20433097 0.41861966 0
-1.5660025 0.11854012 -0.056068256 0
-2.1959293 0.16622305 0.07862179 0
-2.2035689 0.16680135 0.23749352 0
-2.2774091 0.17239073 0.41190276 0
-1.9088964 0.14449582 0.4884139 0
-1.5651182 0.098670833 -0.055987671 0
-2.1807561 0.13748293 0.078010373 0
-2.1764889 0.1372139 0.23437011 0
-2.1705365 0.13683864 0.39223057 0
-1.8798063 0.11850993 0.48055092 0
-1.573651 0.079330049 -0.056252711 0
-2.2674758 0.11430678 0.4094556 0
-1.8699166 0.09426523 0.4776814 0
-1.5633883 0.059088673 -0.055854831 0
