# .PCD v0.7 - Point Cloud Data file format
VERSION 0.7
FIELDS x y z intensity
SIZE 4 4 4 4
TYPE F F F F
COUNT 1 1 1 1
WIDTH 1357
HEIGHT 1
VIEWPOINT 0 0 0 1 0 0 0
POINTS 1357
DATA ascii
-1.3943944 -0.35877195 0.47901642 0
-1.5112361 -0.40919039 -0.055895854 0
-1.3992105 -0.37885773 0.48227152 0
-1.5120746 -0.42992362 -0.056122653 0
-1.3843454 -0.39360675 0.4788183 0
-1.5008557 -0.44723412 -0.055910844 0
-1.3619955 -0.40585569 0.47281805 0
-1.4920782 -0.4651525 -0.055797637 0
-1.3495883 -0.42073151 0.47031277 0
-1.492931 -0.48612598 -0.056053996 0
-1.3184156 -0.42930055 0.46129686 0
-1.4720951 -0.49992821 -0.055503648 0
-1.3233547 -0.4494155 0.46496817 0
-1.4869549 -0.52594781 -0.05630916 0
-1.3076569 -0.46252868 0.46146244 0
-1.4654509 -0.53919649 -0.055747528 0
-1.2885014 -0.47408989 0.4567731 0
-1.4530957 -0.55552202 -0.055539224 0
-1.2851592 -0.49131954 0.45774525 0
-1.464159 -0.58098543 -0.056237243 0
-1.2604977 -0.50017166 0.45116889 0
-1.4595959 -0.60055512 -0.056347977 0
-1.242175 -0.5110966 0.34269637 0
-1.2749565 -0.52458465 0.45867211 0
-1.4329406 -0.61079615 -0.055611458 0
-1.2237608 -0.52163255 0.33940145 0
-1.2611063 -0.53755116 0.45608842 0
-1.4483161 -0.6390174 -0.056515973 0
-1.1516066 -0.50810504 0.32113898 0
-1.2359924 -0.54533726 0.44945371 0
-1.4237386 -0.64971125 -0.055871736 0
-1.1991739 -0.54723305 0.23772408 0
-1.1396079 -0.52005059 0.31959385 0
-1.4234537 -0.67136353 -0.056187857 0
-1.1709247 -0.55225974 0.23348404 0
-1.1291499 -0.53255689 0.31851637 0
-1.1902841 -0.56139046 0.4378356 0
-1.4146463 -0.68911576 -0.056178275 0
-1.1544309 -0.56235725 0.23158881 0
-1.125675 -0.54834932 0.3194586 0
-1.1900988 -0.57973206 0.44041777 0
-1.3935595 -0.70068979 -0.05568685 0
-1.1413591 -0.57388198 0.23039791 0
-1.1437516 -0.57508498 0.32661787 0
-1.1697972 -0.58818084 0.43561116 0
-1.3934966 -0.72278166 -0.056043591 0
-1.1539173 -0.59851617 0.23443574 0
-1.1422106 -0.59244412 0.32828218 0
-1.3780432 -0.73693204 -0.055790868 0
-1.2279087 -0.65664506 0.35526091 0
-1.3747628 -0.75759059 -0.05603984 0
-1.1193438 -0.61683679 0.3260721 0
-1.3705047 -0.7778998 -0.056261104 0
-1.120721 -0.63612229 0.32878065 0
-1.341059 -0.78367442 -0.055453021 0
-1.1120499 -0.64984852 0.32861143 0
-1.3375193 -0.80436718 -0.055721059 0
-1.1038597 -0.66384727 0.32863533 0
-1.3388978 -0.82832873 -0.05620857 0
-1.3237848 -0.84220928 -0.056014888 0
-1.3124897 -0.85842752 -0.055989902 0
-1.2984513 -0.8727842 -0.055855442 0
-1.2834029 -0.88633204 -0.055683799 0
-2.1422145 -1.4794368 0.092945598 0
-1.289705 -0.91488063 -0.056452598 0
-2.0502536 -1.4543926 0.089743115 0
-1.2551396 -0.91433328 -0.055439182 0
-2.0142906 -1.467353 0.088970676 0
-1.2644324 -0.94569975 -0.056371164 0
-1.9912635 -1.4893144 0.08877489 0
-1.2512295 -0.96062797 -0.05631737 0
-1.963746 -1.5076605 0.088387474 0
-1.2284608 -0.96797436 -0.055836748 0
-1.9606129 -1.5448788 0.089114979 0
-1.2233731 -0.98918527 -0.056167211 0
-1.9372253 -1.5663862 0.088941425 0
-1.2043494 -0.99914163 -0.055867001 0
-1.8936052 -1.5709559 0.087839998 0
-1.1955402 -1.0175176 -0.056048278 0
-1.8895657 -1.6081988 0.088584974 0
-1.1778951 -1.0283532 -0.055823702 0
-1.8715074 -1.6339067 0.088695906 0
-1.1657035 -1.043864 -0.055864442 0
-1.8387827 -1.6465929 0.088120662 0
-1.1494353 -1.0556738 -0.05571745 0
-1.819989 -1.6715294 0.088221714 0
-1.1433574 -1.0769441 -0.056075748 0
-1.7921491 -1.6880499 0.087895609 0
-1.1295345 -1.0910885 -0.056067195 0
-1.7694501 -1.7092234 0.087830968 0
-1.1135784 -1.1031159 -0.055960238 0
-1.1085075 -1.126098 -0.056413528 0
-1.0833309 -1.1286005 -0.055851068 0
-1.0729471 -1.1463317 -0.056055479 0
-1.0500755 -1.150598 -0.055613104 0
-1.0442173 -1.1735198 -0.056081019 0
-1.0403357 -1.1992285 -0.05667907 0
-1.022824 -1.209478 -0.056550283 0
-0.99533641 -1.2074873 -0.055866763 0
-0.97762716 -1.2169036 -0.055728432 0
-0.97422206 -1.2444382 -0.05642312 0
-0.95432603 -1.2511656 -0.056178831 0
-0.94417834 -1.2707293 -0.056518938 0
-0.92791903 -1.282262 -0.056507707 0
-0.90110058 -1.2788013 -0.055850729 0
-0.89266175 -1.3013209 -0.056338865 0
-0.86818743 -1.3004469 -0.0558233 0
-0.8531639 -1.3134607 -0.055916332 0
-0.83805501 -1.326468 -0.056016378 0
-0.82440692 -1.3419942 -0.056229193 0
-0.80175024 -1.3427321 -0.055832673 0
-0.79057664 -1.3627121 -0.056245066 0
-0.77082634 -1.3680692 -0.056061104 0
-0.75352412 -1.3776381 -0.056059953 0
-0.73596239 -1.3867229 -0.05604808 0
-0.72074437 -1.40035 -0.05622758 0
-0.70225704 -1.4077142 -0.056163751 0
-0.68307775 -1.4135503 -0.056048971 0
-0.66494083 -1.4214309 -0.05602501 0
-0.64779043 -1.4314581 -0.056094266 0
-0.56628579 -1.2513528 0.45696285 0
-0.62630689 -1.4317095 -0.055790648 0
-0.54529995 -1.2465314 0.4526588 0
-0.60417652 -1.4298881 -0.055418815 0
-0.53121293 -1.2572072 0.45407051 0
-0.58956176 -1.4458112 -0.055743802 0
-0.52095222 -1.2775567 0.45901456 0
-0.56997961 -1.4497347 -0.055613942 0
-0.50058991 -1.2732432 0.45516387 0
-0.55702573 -1.4709115 -0.056152787 0
-0.48460361 -1.2796698 0.45524374 0
-0.53677481 -1.4731807 -0.055976942 0
-0.4749997 -1.3036386 0.4616062 0
-0.52026951 -1.4857808 -0.056202326 0
-0.45020977 -1.2857049 0.45321271 0
-0.49916887 -1.4852169 -0.055938791 0
-0.44234073 -1.3161316 0.46193811 0
-0.48247841 -1.4977474 -0.05617746 0
-0.42975846 -1.33409 0.46630484 0
-0.46368939 -1.504053 -0.056190509 0
-0.41447356 -1.3444133 0.46805179 0
-0.44372028 -1.5063958 -0.056064852 0
-0.4078171 -1.3845074 0.4801845 0
-0.4273994 -1.5214093 -0.05641884 0
-0.38976309 -1.3874357 0.051450662 0
-0.3862578 -1.3749579 0.15348575 0
-0.38914326 -1.3852292 0.25949493 0
-0.38298249 -1.3632989 0.36128524 0
-0.38863689 -1.3834267 0.47807446 0
-0.40694344 -1.5219365 -0.056243911 0
-0.37079048 -1.3867272 0.051247183 0
-0.37375122 -1.3978002 0.15549792 0
-0.3708652 -1.3870068 0.25893253 0
-0.37356833 -1.3971162 0.36897126 0
-0.37065718 -1.3862288 0.47739202 0
-0.38399944 -1.5121775 -0.055700149 0
-0.36665583 -1.5240711 -0.05596374 0
-0.34895429 -1.5352429 -0.05620816 0
-0.32724187 -1.5285187 -0.055806682 0
-0.30863324 -1.5358181 -0.055926863 0
-0.28960419 -1.541356 -0.055991285 0
-0.27040231 -1.5461875 -0.056038667 0
-0.25183007 -1.555136 -0.056243598 0
-0.22909591 -1.537161 -0.055484775 0
-0.21080276 -1.5478519 -0.055770434 0
-0.19146585 -1.5517542 -0.055819742 0
-0.15545811 -1.2599258 0.045322087 0
-0.15466613 -1.2535071 0.13573511 0
-0.17206071 -1.5553844 -0.055867959 0
-0.13652341 -1.2341363 0.044329032 0
-0.13628392 -1.2319714 0.13320674 0
-0.15253986 -1.5582137 -0.055896159 0
-0.11951254 -1.2208354 0.043793749 0
-0.11940208 -1.219707 0.13170765 0
-0.13273773 -1.5580125 -0.055824563 0
-0.1012489 -1.1884116 0.042581528 0
-0.10065395 -1.1814283 0.12742724 0
-0.11364339 -1.5669155 -0.05608784 0
-0.084910974 -1.1707529 0.041907173 0
-0.086467057 -1.1922081 0.12846231 0
-0.092901886 -1.5514698 -0.055488687 0
-0.069883458 -1.16706 0.041740179 0
-0.070089206 -1.170496 0.1260177 0
-0.074266575 -1.5717101 -0.056174688 0
-0.05463383 -1.5772228 -0.056342658 0
-0.034306407 -1.5567329 -0.055590868 0
-0.014801753 -1.5675488 -0.055966005 0
0.0048968242 -1.5549309 -0.055513319 0
0.024613826 -1.5635712 -0.055828422 0
0.044269275 -1.5620838 -0.055790801 0
0.064246856 -1.569036 -0.056063551 0
0.084654205 -1.5803562 -0.056501646 0
0.10312823 -1.5577483 -0.055735365 0
0.12351118 -1.5661814 -0.056088299 0
0.14310901 -1.5632732 -0.05604424 0
0.16380951 -1.5712109 -0.056398291 0
0.18297234 -1.5638305 -0.056211621 0
0.20303607 -1.5643901 -0.056319166 0
0.21971579 -1.5406611 -0.055560105 0
0.24052739 -1.5469711 -0.055892453 0
0.26163903 -1.5536324 -0.056247704 0
0.28017396 -1.5446662 -0.056046378 0
0.30016711 -1.543928 -0.056152284 0
0.31677648 -1.5265007 -0.055659123 0
0.34019497 -1.5415274 -0.056358751 0
0.3553817 -1.5191846 -0.055701084 0
0.37512282 -1.5171816 -0.055796415 0
0.39591685 -1.5189394 -0.056039959 0
0.4140169 -1.5102086 -0.055905756 0
0.43321991 -1.5056422 -0.055934228 0
0.45509651 -1.5098654 -0.056299549 0
0.47252417 -1.4991068 -0.056115795 0
0.4959937 -1.5071111 -0.056644727 0
0.51165754 -1.4912068 -0.056284655 0
0.52832019 -1.4788439 -0.056064684 0
0.5451268 -1.4673049 -0.055883035 0
0.55932456 -1.449353 -0.055463169 0
0.58615601 -1.463738 -0.05629164 0
0.59838277 -1.4414103 -0.055718329 0
0.6217683 -1.4460504 -0.056195889 0
0.63500893 -1.4270556 -0.055764042 0
0.65700048 -1.4277996 -0.056111947 0
0.67218429 -1.4136478 -0.055884 0
0.68862116 -1.4024054 -0.055777937 0
0.70741844 -1.3959796 -0.055872235 0
0.72312456 -1.3834895 -0.055732358 0
0.74699414 -1.3863513 -0.056222111 0
0.75713992 -1.3637755 -0.055688798 0
0.77753121 -1.3598702 -0.055924699 0
0.79779762 -1.3554186 -0.056150313 0
0.81101024 -1.3390076 -0.0558891 0
0.83606142 -1.341941 -0.056446485 0
0.8454777 -1.3197346 -0.055955801 0
0.86091411 -1.3072934 -0.055883516 0
0.87842524 -1.2980033 -0.055954792 0
0.88921136 -1.278947 -0.055611588 0
0.90939164 -1.2734569 -0.055866368 0
0.92925781 -1.2672294 -0.05610206 0
0.95456833 -1.267952 -0.056661703 0
0.9651233 -1.2489293 -0.056350246 0
0.97450888 -1.2287805 -0.055990383 0
0.997253 -1.2254441 -0.056406081 0
1.0059381 -1.2048068 -0.056034774 0
1.0255979 -1.1973804 -0.05628556 0
1.0341347 -1.1770213 -0.055936225 0
1.0477885 -1.1627035 -0.055878393 0
1.0677434 -1.155259 -0.056162331 0
1.0757818 -1.1349471 -0.055829003 0
1.0860342 -1.1172453 -0.055626541 0
1.0959625 -1.0994165 -0.055421583 0
1.1184367 -1.0940579 -0.055856984 0
1.1253313 -1.0734098 -0.055521868 0
1.1447341 -1.0647142 -0.05581326 0
1.1647519 -1.0562944 -0.056136288 0
1.1812238 -1.0444313 -0.056291845 0
1.1886952 -1.0246607 -0.056028575 0
1.2051749 -1.0126981 -0.056199819 0
1.2085063 -0.98980641 -0.055769533 0
1.2248914 -0.97771865 -0.055953078 0
1.2314564 -0.95782477 -0.055697594 0
1.2432252 -0.94209647 -0.055688914 0
1.2614859 -0.93116403 -0.055977222 0
1.2673333 -0.91105348 -0.055723205 0
1.2870561 -0.90087003 -0.056087174 0
1.299294 -0.88527215 -0.056130234 0
1.3017237 -0.86313069 -0.055761244 0
1.3081988 -0.84390491 -0.055579007 0
1.3361838 -0.8383224 -0.056314994 0
1.3388816 -0.81670332 -0.055990826 0
1.3486362 -0.79952985 -0.055973284 0
1.3576322 -0.78193021 -0.055933565 0
1.3655971 -0.76378244 -0.055861041 0
1.3788321 -0.74855036 -0.056012418 0
1.3869146 -0.73048025 -0.055962652 0
1.388777 -0.70926934 -0.055673007 0
1.3973128 -0.69158578 -0.055661663 0
1.4179882 -0.67972702 -0.05613986 0
1.4197047 -0.65869653 -0.055875 0
1.4352623 -0.64407873 -0.056163646 0
1.4310251 -0.62065029 -0.055687599 0
1.4496367 -0.60715234 -0.056109894 0
1.4578793 -0.58913958 -0.056137342 0
1.455837 -0.56709635 -0.055779308 0
1.4654998 -0.54971004 -0.055879883 0
1.4726354 -0.53133321 -0.055892419 0
1.4800164 -0.51302874 -0.055922933 0
1.4870919 -0.49459675 -0.055950519 0
1.4939687 -0.47607774 -0.055979267 0
1.5015426 -0.45774668 -0.056042634 0
1.4977216 -0.43604839 -0.055690672 0
1.5104723 -0.41920361 -0.055964071 0
1.530171 -0.40399054 -0.05650096 0
1.52556 -0.38229203 -0.056148499 0
1.5188483 -0.36034742 -0.055730049 0
1.530422 -0.34279779 -0.055991892 0
1.5327247 -0.32310185 -0.055922851 0
1.5393387 -0.30430466 -0.056019921 0
1.5443631 -0.28514117 -0.056067657 0
1.544078 -0.26502898 -0.05593171 0
1.5518008 -0.24628165 -0.056094673 0
1.5589776 -0.22733538 -0.056246161 0
1.5510329 -0.20626716 -0.055861387 0
1.5650122 -0.18810427 -0.056275092 0
1.5656945 -0.16821612 -0.056218997 0
1.5667242 -0.14839748 -0.056184422 0
1.5668502 -0.12852602 -0.056126453 0
1.558736 -0.10812081 -0.055782598 0
1.5587316 -0.088415399 -0.055738181 0
1.5771416 -0.069550298 -0.056360714 0
1.5674777 -0.049358711 -0.05598871 0
1.5628419 -0.029521396 -0.055805426 0
1.5651203 -0.00985377 -0.05587792 0
1.5757445 0.0099206585 -0.056257229 0
1.559073 0.029450204 -0.055670846 0
1.5819026 0.049812943 -0.056503959 0
0.87252414 0.027475139 0.29042757 0
1.5627165 0.06891416 -0.055845216 0
0.90850711 0.040064212 0.30254877 0
1.5566851 0.088299327 -0.055665001 0
1.4989245 0.085022986 0.053599559 0
1.4875227 0.084376246 0.16012 0
1.5099598 0.085648939 0.27275702 0
0.93129611 0.052825592 0.31033483 0
1.5636195 0.10845955 -0.05595737 0
1.4739521 0.10223982 0.052748431 0
1.4711133 0.10204291 0.15847941 0
1.4626029 0.1014526 0.26441234 0
0.92992616 0.064503781 0.3101244 0
1.5540767 0.12747823 -0.05566889 0
1.4589928 0.11967866 0.052262872 0
1.4552327 0.11937022 0.15691811 0
1.4477873 0.11875949 0.26198351 0
0.9565618 0.078465112 0.31931141 0
1.5600421 0.14776456 -0.055944797 0
1.4495296 0.137297 0.051981702 0
1.4441675 0.13678911 0.15589833 0
1.4550834 0.13782305 0.26359692 0
0.97264677 0.092127465 0.32504225 0
1.5633267 0.16796175 -0.056133982 0
1.4206425 0.15263194 0.051010653 0
1.4357311 0.15425304 0.15518498 0
1.4199646 0.1525591 0.25756255 0
0.99710327 0.10712744 0.33363953 0
1.5651027 0.18811515 -0.056278344 0
1.4178286 0.17041375 0.050982624 0
1.404325 0.16879071 0.15200806 0
1.4060582 0.16899905 0.25540587 0
1.0005056 0.12025425 0.3352581 0
1.5478846 0.20584849 -0.055748001 0
1.3884318 0.18464333 0.050005209 0
1.3874542 0.18451332 0.15042149 0
1.3999146 0.1861704 0.25469553 0
0.99332637 0.13209946 0.33338341 0
1.5519254 0.226307 -0.055991728 0
1.3882837 0.20244421 0.050087716 0
1.3856286 0.20205703 0.15048748 0
1.3820608 0.20153676 0.25188902 0
0.99489164 0.14507845 0.33449534 0
1.5594096 0.24748923 -0.056369718 0
1.371761 0.21770808 0.049586572 0
1.3623453 0.21621375 0.14824271 0
1.3523571 0.21462856 0.24694836 0
1.0241441 0.16253884 0.34499118 0
1.5426203 0.26477879 -0.055878907 0
1.3890113 0.23841299 0.050314669 0
1.3987068 0.24007715 0.15251623 0
1.3912967 0.23880528 0.25458789 0
1.0037181 0.17228043 0.33881447 0
1.5372705 0.28383166 -0.055810161 0
1.4310288 0.26421586 0.051953085 0
1.4119704 0.26069704 0.15430821 0
1.412852 0.26085982 0.25911272 0
1.0072784 0.18597735 0.34077978 0
1.5361513 0.30367455 -0.055903923 0
1.4379901 0.28426951 0.052331619 0
1.425092 0.28171977 0.15611754 0
1.4314746 0.28298151 0.26316071 0
1.3102853 0.25902417 0.34076521 0
0.99961352 0.19760892 0.33900157 0
1.5339432 0.32335871 -0.055967309 0
1.4468604 0.30500147 0.052790016 0
1.4479297 0.30522686 0.15902783 0
1.4302208 0.30149379 0.26360723 0
1.2929207 0.27255064 0.33711502 0
1.0054922 0.21196006 0.34187329 0
1.5376885 0.34442538 -0.056257743 0
1.4789193 0.33126175 0.054107618 0
1.4672616 0.32865053 0.16159278 0
1.4325448 0.32087436 0.2647593 0
1.2888427 0.28868666 0.33697283 0
1.0030521 0.2246727 0.34197846 0
1.5218351 0.36105603 -0.055839643 0
1.5143074 0.3592701 0.055563431 0
1.5030556 0.35660058 0.16601625 0
1.4119956 0.33499658 0.26172033 0
1.2739381 0.30224237 0.33404455 0
1.0078387 0.23911017 0.34460959 0
0.76073265 0.18048415 0.46367425 0
1.5290195 0.38315895 -0.056275826 0
1.4259285 0.35732526 0.26511586 0
1.2660269 0.31725529 0.33299127 0
1.0041673 0.25163558 0.34441039 0
0.77402699 0.19396442 0.47322845 0
1.5196182 0.40120441 -0.056111302 0
1.4175222 0.3742494 0.26440814 0
1.2439595 0.32842597 0.32824883 0
0.99331897 0.26225272 0.34179515 0
0.78674465 0.20771365 0.40712819 0
0.78293401 0.20670757 0.48022735 0
1.5030086 0.4171322 -0.055687539 0
1.4158962 0.39295578 0.26500681 0
1.2410191 0.34442186 0.32859129 0
0.99426186 0.27593896 0.34328797 0
0.83670622 0.23221232 0.35952052 0
0.78952348 0.21911761 0.40996149 0
0.79483515 0.22059178 0.48919219 0
1.501665 0.43719649 -0.055837303 0
1.4140601 0.4116911 0.26561239 0
1.2323074 0.35877538 0.32745489 0
0.98859495 0.28782067 0.34255558 0
0.83289164 0.24248902 0.35916501 0
0.8106814 0.23602271 0.42245755 0
0.82611847 0.24051708 0.51026946 0
1.4917591 0.45476419 -0.055677481 0
1.4116731 0.43034992 0.26616082 0
1.2299466 0.37495044 0.32805619 0
1.0043862 0.30618811 0.34933567 0
0.85055971 0.25929394 0.36816275 0
0.8352105 0.25461474 0.43687615 0
0.83777589 0.25539681 0.5194152 0
1.5025806 0.47882208 -0.056301955 0
1.4014231 0.44658655 0.26526749 0
1.2059888 0.38430816 0.32293117 0
0.98703468 0.31453484 0.34465086 0
0.86633587 0.27607217 0.3764663 0
0.84475809 0.26919609 0.44360819 0
0.83143514 0.26495051 0.51751143 0
1.4930891 0.49659139 -0.05617616 0
1.3849685 0.46063122 0.26322997 0
1.1838564 0.39374265 0.31830713 0
0.9803651 0.32606283 0.34372842 0
0.88863599 0.29555437 0.38774335 0
0.86059558 0.2862283 0.45378166 0
0.86061662 0.2862353 0.53787571 0
1.4866631 0.51533276 -0.056174085 0
1.3881403 0.48118109 0.26496339 0
1.176186 0.40770984 0.31759998 0
0.96159458 0.33332446 0.33859202 0
0.8960852 0.31061649 0.39266923 0
0.88132262 0.30549923 0.46670219 0
0.88028026 0.3051379 0.5525229 0
1.4742171 0.53190386 -0.055952452 0
1.1674935 0.42123669 0.31665999 0
0.97627658 0.35224482 0.34529623 0
0.89808762 0.32403389 0.39530337 0
0.89722019 0.3237209 0.47724149 0
0.88753968 0.32022816 0.55956602 0
1.4724231 0.55230695 -0.056143869 0
1.1507851 0.43166032 0.31357759 0
0.97312725 0.36502072 0.34578061 0
0.92227203 0.34594491 0.40783352 0
0.92398316 0.34658676 0.4937593 0
0.92401528 0.3465988 0.58526802 0
1.4623289 0.56962514 -0.056028035 0
1.1391498 0.44373626 0.31190494 0
0.9622066 0.37481105 0.34355 0
0.93613338 0.36465469 0.41596061 0
0.94420242 0.36779785 0.50699884 0
0.9484967 0.3694706 0.6036734 0
1.446822 0.5846712 -0.055711567 0
1.1303774 0.45679367 0.31105328 0
0.98898995 0.39965799 0.35488155 0
0.9653542 0.39010662 0.43109313 0
0.97417527 0.39367127 0.52571315 0
0.96210301 0.38879278 0.61540031 0
1.4433359 0.60451335 -0.055866014 0
1.104647 0.46266007 0.30555183 0
1.0212892 0.42774728 0.36837515 0
0.99383026 0.41624662 0.44611481 0
0.99922186 0.41850477 0.54203045 0
0.99345601 0.41608989 0.63875574 0
1.4461285 0.62720078 -0.056275338 0
1.1000937 0.47712198 0.30592993 0
1.0507222 0.45570904 0.38103113 0
1.0116284 0.43875366 0.45654795 0
1.0220683 0.44328153 0.55740726 0
1.0205276 0.44261333 0.65969306 0
1.4162487 0.63554627 -0.05541962 0
1.088149 0.48831046 0.30429402 0
1.0809698 0.48508877 0.39418387 0
1.0511094 0.47168881 0.47700846 0
1.0477778 0.47019374 0.57461196 0
1.0422674 0.46772096 0.67749965 0
1.4209578 0.65927798 -0.055924319 0
1.0837734 0.50283545 0.30481693 0
1.0869302 0.5043 0.39864144 0
1.074767 0.49865675 0.49055532 0
1.0749274 0.4987312 0.59289825 0
1.4210505 0.68119496 -0.056261104 0
1.083945 0.51960003 0.30668113 0
1.1034772 0.52896297 0.40712088 0
1.1025029 0.52849597 0.50621217 0
1.1145184 0.53425562 0.61839706 0
1.4059038 0.69583786 -0.056003887 0
1.0534377 0.52138835 0.29988346 0
1.1446081 0.56651217 0.42489406 0
1.1309531 0.55975378 0.52246994 0
1.1449225 0.5666678 0.63917553 0
1.3946213 0.71225405 -0.055907287 0
1.6911188 0.86367989 0.34246436 0
1.0440991 0.53323716 0.29911274 0
1.1839932 0.60468316 0.44230583 0
1.1803408 0.60281777 0.54874897 0
1.1660122 0.59549999 0.6550836 0
1.3886634 0.73140132 -0.056033216 0
1.6949592 0.89272559 0.34549111 0
1.0306195 0.54282159 0.29718572 0
1.2247733 0.64508128 0.46053806 0
1.2081984 0.63635141 0.56538069 0
1.2162334 0.6405834 0.68777591 0
1.3791761 0.7487371 -0.056026395 0
1.6801122 0.91211146 0.3447786 0
1.0160202 0.55158436 0.29495537 0
1.2682348 0.68850845 0.48010242 0
1.2535241 0.6805222 0.59055418 0
1.3761559 0.76968795 -0.056292959 0
1.0172886 0.56897247 0.041613154 0
1.0181413 0.56944942 0.1253704 0
1.0308311 0.57654685 0.2130115 0
1.0090226 0.56434929 0.2949636 0
1.3163767 0.73625332 0.50179684 0
1.3067833 0.73088771 0.61993217 0
1.365943 0.78671688 -0.056275964 0
1.0065606 0.57973003 0.041469641 0
1.004064 0.57829207 0.12452377 0
1.0027655 0.57754427 0.20869829 0
1.0086607 0.58093959 0.29697269 0
1.3459406 0.77519643 0.51674652 0
1.3332773 0.76790309 0.63703758 0
1.3423169 0.79578352 -0.055711012 0
0.98985416 0.58682835 0.041082531 0
0.98944247 0.58658433 0.12361668 0
0.98451191 0.58366126 0.20641254 0
0.98648465 0.58483076 0.29258859 0
1.3829864 0.81989425 0.53489095 0
1.3749481 0.81512874 0.66179955 0
1.3400582 0.81742102 -0.056040034 0
0.97742903 0.59622115 0.040875204 0
0.9809435 0.59836489 0.12348642 0
0.97602057 0.59536201 0.20618771 0
1.0008008 0.61047769 0.29909107 0
1.4118776 0.86123008 0.55021578 0
1.4112868 0.86086965 0.68445379 0
1.3254274 0.83157384 -0.055861656 0
0.96798337 0.60731328 0.040796768 0
0.9687047 0.60776585 0.12289941 0
0.98616159 0.61871827 0.20995925 0
0.96294832 0.60415429 0.29002932 0
1.4485675 0.90883195 0.56892878 0
1.3192521 0.8510353 -0.056048609 0
0.96137828 0.62017471 0.040844288 0
0.96463698 0.62227684 0.12336769 0
0.96093702 0.61989003 0.20623435 0
0.96560431 0.62290084 0.29316846 0
1.4649652 0.94503319 0.57999682 0
1.3021661 0.86342406 -0.055780198 0
0.94098651 0.62393761 0.040308539 0
0.94300413 0.62527543 0.12159837 0
0.94909686 0.62931532 0.2053777 0
0.94521922 0.62674415 0.28935251 0
1.4741317 0.97744888 0.58845228 0
1.2996341 0.88550395 -0.05614493 0
0.93849784 0.63944423 0.040543638 0
0.94317663 0.64263213 0.12265436 0
0.93422312 0.63653165 0.20387742 0
0.93184859 0.6349138 0.28768411 0
1.5131116 1.0309565 0.60914642 0
1.2867478 0.90065426 -0.05607374 0
0.92451584 0.6471113 0.040288437 0
0.93929619 0.65745676 0.12321658 0
0.9367063 0.655644 0.20620473 0
0.93481094 0.65431732 0.29111922 0
1.5360473 1.0751505 0.62378073 0
1.2638793 0.90857059 -0.055571344 0
0.91685367 0.65910268 0.040313017 0
0.91306657 0.65638024 0.12085044 0
0.91632289 0.65872109 0.20352741 0
0.91813326 0.66002256 0.28849086 0
1.5305396 1.1002659 0.62712073 0
1.2605268 0.93045598 -0.05593466 0
0.91138935 0.6727407 0.040442023 0
0.91272396 0.67372584 0.1219183 0
0.92191154 0.68050766 0.20665564 0
0.90342033 0.66685838 0.28648365 0
1.5501738 1.1442585 0.64101857 0
1.2547506 0.95083028 -0.056205187 0
0.89568955 0.67873949 0.040121436 0
0.90060669 0.68246561 0.12143801 0
0.90791297 0.68800217 0.20544343 0
0.90234929 0.68378609 0.28885156 0
1.564809 1.1857877 0.65319312 0
1.2379327 0.96286201 -0.05599051 0
0.88543421 0.68868929 0.040047344 0
0.88625717 0.68932939 0.12066399 0
0.89253682 0.69421369 0.20392603 0
0.89016658 0.69237012 0.28771979 0
1.5698228 1.2210057 0.66165155 0
1.2262872 0.97883278 -0.056016836 0
0.87316912 0.69697094 0.039886393 0
0.87546897 0.6988067 0.12038369 0
0.86607808 0.69131082 0.19985385 0
0.87885219 0.70150721 0.28689519 0
1.5861787 1.2661012 0.67521143 0
1.214287 0.99454105 -0.056036297 0
0.92732102 0.7595064 0.12881863 0
0.93569863 0.76636797 0.21812887 0
0.92637515 0.75873172 0.3055034 0
1.5810753 1.2949526 0.6799264 0
1.2004311 1.0087118 -0.055978604 0
1.6308857 1.3704193 0.22893324 0
1.6102101 1.3530457 0.37931189 0
1.6055647 1.3491422 0.5350492 0
1.5984691 1.3431798 0.6946249 0
1.1749923 1.0128487 -0.055382695 0
1.6130362 1.3904445 0.38407165 0
1.5906026 1.3711067 0.53577423 0
1.1683452 1.0330442 -0.055678114 0
1.6184883 1.4310582 0.38962963 0
1.5984032 1.413299 0.54435313 0
1.1508293 1.0436684 -0.055465285 0
1.6154796 1.4650521 0.39331535 0
1.6090918 1.4592592 0.55420721 0
1.1419666 1.06214 -0.055678323 0
1.605137 1.4929336 0.39534292 0
1.5979648 1.4862628 0.55677664 0
1.134789 1.0824312 -0.055988494 0
0.61382955 0.58550817 0.35122514 0
0.61303967 0.58475477 0.42389056 0
1.1179382 1.0935701 -0.055832084 0
0.59248793 0.57957333 0.41469336 0
0.58351183 0.57079285 0.48408499 0
1.1000439 1.1035106 -0.055627972 0
0.57757467 0.57939494 0.40932935 0
0.58126235 0.58309424 0.48827147 0
1.0926746 1.1240766 -0.055966668 0
0.59434062 0.61142117 0.35304344 0
0.59326291 0.61031252 0.42586043 0
0.55678231 0.57278347 0.4737289 0
1.081181 1.1406431 -0.056109197 0
0.58481967 0.61698323 0.35197496 0
0.57623094 0.60792214 0.4190962 0
0.5683043 0.59955961 0.48991701 0
1.0576863 1.1443776 -0.055633336 0
1.5724686 1.7013532 0.4178201 0
1.5770569 1.7063175 0.59279794 0
0.53919518 0.58338934 0.47111848 0
1.045754 1.1604459 -0.055769898 0
1.5715526 1.7439109 0.42337802 0
1.5648516 1.7364751 0.59638202 0
0.51918107 0.57612169 0.45993349 0
1.0313174 1.1738145 -0.055783831 0
1.5529097 1.7674755 0.4243179 0
1.5549442 1.7697909 0.60105181 0
1.0168375 1.1871526 -0.055804778 0
1.542186 1.8004944 0.42754883 0
1.5385894 1.7962952 0.60342544 0
1.000093 1.1978062 -0.055709179 0
0.58612007 0.70199299 0.03264923 0
1.5339559 1.8372111 0.43164662 0
1.5303121 1.8328469 0.60918254 0
0.98787582 1.2139213 -0.055875696 0
1.521827 1.8700509 0.43482542 0
1.5177928 1.8650936 0.61349934 0
0.96545088 1.2173591 -0.055469953 0
1.5115641 1.9059657 0.43871582 0
1.5081989 1.9017224 0.61925179 0
0.96157455 1.244337 -0.056143049 0
1.4816658 1.9173673 0.437011 0
1.4933298 1.9324611 0.6230886 0
0.94073749 1.2495805 -0.055840727 0
1.4769802 1.9618711 0.4428803 0
1.4756166 1.9600598 0.62594646 0
0.92374563 1.2597126 -0.055769272 0
1.4575709 1.9876903 0.44453028 0
1.4600167 1.9910258 0.62991434 0
0.90359008 1.2653328 -0.055509962 0
1.4421608 2.0195146 0.44755071 0
1.4443307 2.0225532 0.63408458 0
0.90016854 1.2947066 -0.056296855 0
1.4236676 2.047652 0.44977778 0
1.4177964 2.0392075 0.63365847 0
0.88147497 1.3025097 -0.056149058 0
1.4012871 2.0706091 0.45090878 0
1.4099938 2.0834744 0.64184582 0
0.86122924 1.3077719 -0.055903971 0
1.4398161 2.186353 0.093461104 0
1.4399092 2.1864944 0.28135815 0
1.3828993 2.099925 0.45346475 0
1.392344 2.1142669 0.64587951 0
0.84734428 1.3226482 -0.056079336 0
1.4058275 2.1944034 0.093041137 0
1.4078863 2.1976171 0.28048593 0
1.3620249 2.1260307 0.45536235 0
1.3640521 2.1291947 0.64514148 0
0.83727074 1.343882 -0.056528129 0
1.3725438 2.2030351 0.092666961 0
1.3687168 2.1968927 0.27817163 0
1.332731 2.1391325 0.45453811 0
1.3405176 2.1516306 0.64677364 0
0.80770659 1.3335532 -0.055661436 0
1.3495685 2.2281871 0.093002737 0
1.3472072 2.2242885 0.27947032 0
1.3223358 2.1832249 0.46033251 0
1.3143322 2.1700106 0.64727223 0
0.79016298 1.3424478 -0.055612978 0
1.3272451 2.2549236 0.093413703 0
1.3325754 2.2639797 0.28232661 0
1.2915069 2.194206 0.45918244 0
1.2921629 2.1953206 0.64991683 0
0.77453697 1.3546333 -0.055709332 0
1.2678335 2.2173886 0.4606564 0
1.270528 2.2221012 0.65305704 0
0.75995487 1.3688458 -0.055895843 0
1.2491682 2.2500267 0.46413222 0
1.2550447 2.2606113 0.65967792 0
0.74192214 1.3769382 -0.055840369 0
0.47854555 0.88813585 0.036017474 0
1.2189027 2.2621694 0.46343419 0
1.2190529 2.2624483 0.65568244 0
0.7257207 1.3884563 -0.055932444 0
0.45916772 0.87848449 0.035388786 0
1.1957768 2.2877729 0.46555772 0
1.1973161 2.2907176 0.65945351 0
0.71169996 1.4044286 -0.056210391 0
0.43302581 0.8545087 0.034200579 0
0.44250524 0.87321484 0.10520554 0
1.1716626 2.3120928 0.46746737 0
1.1690882 2.3070126 0.65985417 0
0.68933159 1.4038522 -0.055835482 0
0.41591838 0.84703493 0.03368916 0
0.43135044 0.87846297 0.10517509 0
1.139647 2.3209381 0.4663173 0
1.1423848 2.3265138 0.66126502 0
0.67118061 1.4115369 -0.055800553 0
0.40346426 0.84851182 0.033543177 0
0.41350678 0.86963189 0.10348616 0
1.1159744 2.3469675 0.46868649 0
1.1187372 2.352778 0.66467333 0
0.65628606 1.4262469 -0.05605093 0
0.38969594 0.84689087 0.03328247 0
0.39812979 0.86521941 0.10235637 0
1.0883716 2.3652594 0.46956527 0
1.0859745 2.3600497 0.66281193 0
0.63865602 1.4352517 -0.056084316 0
0.36879009 0.82878196 0.032385726 0
0.38305488 0.86083925 0.10125954 0
1.0597526 2.381582 0.47011921 0
1.0562122 2.3736258 0.66283685 0
0.61866838 1.4388409 -0.055915717 0
0.37390909 0.86960268 0.10172847 0
1.0277678 2.390286 0.46924543 0
1.0330585 2.4025905 0.66723979 0
0.59519893 1.4337409 -0.055421866 0
0.99981445 2.4083962 0.47029191 0
1.0003129 2.4095972 0.66563469 0
0.58512753 1.4611697 -0.056192867 0
0.39469269 0.98561931 0.11410122 0
0.96473676 2.4091229 0.46802449 0
0.97105604 2.4249032 0.66643226 0
0.56227827 1.4570068 -0.055756062 0
0.32911065 0.85280991 0.16485868 0
0.93768257 2.4297755 0.66447359 0
0.55031246 1.481263 -0.056414638 0
0.37646815 1.0133305 0.038593192 0
0.90754712 2.4428232 0.66486382 0
0.52617079 1.4728274 -0.055836592 0
0.35726267 1.0000294 0.037912272 0
0.87121856 2.4386656 0.660694 0
0.51012403 1.4867375 -0.056115963 0
0.34168863 0.99583882 0.037587307 0
0.84648961 2.4670622 0.66544676 0
0.4909116 1.4916688 -0.056064326 0
0.32720426 0.99423271 0.037368204 0
0.81085211 2.4638302 0.66176838 0
0.4717305 1.4965888 -0.056021541 0
0.31734523 1.0067937 0.03768713 0
0.78057098 2.4764006 0.66245222 0
0.4514145 1.4976497 -0.05584405 0
0.28709027 0.95247424 0.035515659 0
0.75159383 2.4935493 0.66445512 0
0.43494582 1.5116405 -0.056157064 0
0.27677163 0.96191114 0.035734754 0
0.71500516 2.484978 0.65971971 0
0.4164409 1.5190506 -0.056233075 0
0.26311162 0.95975178 0.035528634 0
0.68795776 2.5094621 0.66386729 0
0.3975026 1.5250231 -0.056264415 0
0.24023895 0.92167944 0.034004569 0
0.65188485 2.5009634 0.65939522 0
0.37754384 1.5269736 -0.056156524 0
0.22279996 0.90111297 0.03313965 0
0.6145938 2.4857204 0.65328401 0
0.35858536 1.5328796 -0.056203213 0
0.20523046 0.87731856 0.032166988 0
0.58243835 2.4898059 0.6523785 0
0.33925357 1.5372616 -0.056202788 0
0.19884153 0.90101177 0.032941286 0
0.5546869 2.5134559 0.65669304 0
0.31924078 1.5383759 -0.05609211 0
0.38725415 1.8661226 0.068042383 0
0.52375239 2.5238883 0.46487755 0
0.51752329 2.493871 0.64982194 0
0.29930085 1.5394723 -0.05599023 0
0.3580105 1.841449 0.066973053 0
0.48363295 2.4875958 0.45703483 0
0.48488095 2.494015 0.64821708 0
0.28174144 1.5533081 -0.056359939 0
0.32781664 1.8073317 0.065576881 0
0.45094076 2.4861445 0.4556888 0
0.45313302 2.4982309 0.64777851 0
0.26055521 1.5471966 -0.056014705 0
0.29904228 1.7757359 0.064288735 0
0.29792109 1.7690781 0.19279867 0
0.41971913 2.4923241 0.4558166 0
0.41688943 2.4755211 0.64047801 0
0.1441239 0.85581863 0.43422994 0
0.24191436 1.5558916 -0.056214754 0
0.27361846 1.7597989 0.063581973 0
0.27368414 1.7602215 0.1914427 0
0.38472342 2.4743795 0.45161295 0
0.38709036 2.4896026 0.64280915 0
0.13574532 0.87305689 0.44207403 0
0.21891697 1.5350597 -0.055358104 0
0.24801998 1.7391319 0.06271746 0
0.24746439 1.735236 0.18837142 0
0.35596272 2.4960332 0.45471093 0
0.35340822 2.478121 0.63864493 0
0.12375878 0.86780447 0.43859059 0
0.20209301 1.5571238 -0.056057572 0
0.22251077 1.7144424 0.061721154 0
0.2221211 1.7114401 0.18546987 0
0.32152438 2.4773407 0.45053238 0
0.32144409 2.4767222 0.63719082 0
0.1127271 0.86856067 0.43822065 0
0.18412419 1.5736753 -0.056565486 0
0.19699709 1.6836976 0.060520217 0
0.19840831 1.6957588 0.1834852 0
0.28767422 2.458698 0.44644779 0
0.28651094 2.4487555 0.62901777 0
0.10126048 0.86545449 0.43597555 0
0.16262135 1.5598146 -0.055989221 0
0.17276964 1.6571538 0.059483193 0
0.172557 1.6551142 0.17883804 0
0.25564024 2.4520233 0.44461605 0
0.25590613 2.4545739 0.62963462 0
0.093298711 0.89489287 0.4501777 0
0.14121974 1.5426354 -0.055304367 0
0.14934146 1.6313543 0.05848499 0
0.14964809 1.6347039 0.17641509 0
0.22261332 2.4317508 0.4403969 0
0.22373211 2.4439721 0.6261428 0
0.080781423 0.88242829 0.44336054 0
0.12461413 1.5801674 -0.056589168 0
0.1267322 1.6070255 0.057551011 0
0.12781841 1.6207992 0.17472696 0
0.1919108 2.4335217 0.44024506 0
0.19193865 2.4338751 0.62288737 0
0.10308035 1.5570252 -0.055709492 0
0.10518637 1.5888366 0.056847684 0
0.10518599 1.5888308 0.17112431 0
0.16087967 2.4300818 0.43922147 0
0.15996499 2.4162657 0.61781627 0
0.084038451 1.5688611 -0.056090664 0
0.086290561 1.6109043 0.057593815 0
0.08662153 1.6170831 0.17403594 0
0.12811272 2.3916562 0.43195045 0
0.12804903 2.3904672 0.61075908 0
0.063971095 1.5623015 -0.05582292 0
0.06620159 1.6167747 0.05776931 0
0.066683471 1.6285431 0.17516504 0
0.097814888 2.3888342 0.43118417 0
0.097528696 2.381845 0.60819411 0
0.044869155 1.5832512 -0.056546807 0
0.03902011 1.3768622 0.04917549 0
0.046791896 1.6510971 0.1775135 0
0.067008063 2.3644438 0.42659557 0
0.06677071 2.3560688 0.60134989 0
0.024680307 1.5677944 -0.055979218 0
0.021125363 1.3419698 0.047915988 0
0.026171578 1.662526 0.17869265 0
0.037099373 2.3567042 0.42508119 0
0.037117396 2.3578494 0.60163742 0
0.0049023395 1.5566823 -0.05557584 0
0.0042499709 1.3495301 0.048180204 0
0.0052655963 1.6720302 0.17969282 0
0.0073422175 2.3314378 0.42047384 0
0.0073270858 2.326633 0.59360152 0
-0.014761242 1.5632585 -0.055812832 0
-0.012686349 1.3435214 0.047967583 0
-0.016172364 1.7127005 0.18407093 0
-0.021813512 2.3101144 0.41664469 0
-0.021907618 2.3200805 0.59195322 0
-0.03458472 1.5693619 -0.056041848 0
-0.029985981 1.3606836 0.048589952 0
-0.038101703 1.7289532 0.18585451 0
-0.050601881 2.2961779 0.41421321 0
-0.050592639 2.2957582 0.58586365 0
-0.053839259 1.5542842 -0.055523232 0
-0.047881074 1.3822775 0.049378689 0
-0.061141074 1.7650802 0.1898057 0
-0.079099968 2.283535 0.41207954 0
-0.078361407 2.2622137 0.57750928 0
-0.074032106 1.5667481 -0.055997338 0
-0.08387465 1.7750468 0.063442163 0
-0.084531702 1.788952 0.19247194 0
-0.10661363 2.2562737 0.40737003 0
-0.10590184 2.2412102 0.57244247 0
-0.042378664 0.8968634 0.371748 0
-0.092947342 1.5522289 -0.055515837 0
-0.10775284 1.799482 0.064358905 0
-0.10794796 1.8027407 0.1940863 0
-0.13342391 2.2281914 0.4025712 0
-0.13337149 2.2273159 0.56927747 0
-0.053569574 0.89461666 0.37106693 0
-0.11242595 1.5501294 -0.055486981 0
-0.13214782 1.8220547 0.065220565 0
-0.15957987 2.2002881 0.39786136 0
-0.16001694 2.2063143 0.56437993 0
-0.063356198 0.87355548 0.36263338 0
-0.065227635 0.89935893 0.45116737 0
-0.13368997 1.5691895 -0.056225043 0
-0.15781561 1.8523647 0.066371381 0
-0.18484505 2.1696236 0.39270627 0
-0.18531346 2.1751215 0.55695355 0
-0.07453011 0.87479913 0.3635104 0
-0.07629177 0.89547664 0.44966608 0
-0.15242928 1.5570842 -0.055855643 0
-0.18443698 1.8840467 0.067584425 0
-0.21297534 2.1755695 0.39423668 0
-0.20952418 2.1403158 0.54867333 0
-0.086939931 0.88810217 0.36946395 0
-0.17255898 1.5598885 -0.056029744 0
-0.21031146 1.9011612 0.068287946 0
-0.23616788 2.1348965 0.38737449 0
-0.23639062 2.1369102 0.54851991 0
-0.098897189 0.894005 0.37240815 0
-0.19173409 1.5539281 -0.055897944 0
-0.23903626 1.9372933 0.069688365 0
-0.26210874 2.1242867 0.38601759 0
-0.26039827 2.1104238 0.54251981 0
-0.10849673 0.87932259 0.36683205 0
-0.10569827 0.85664219 0.43186286 0
-0.2118205 1.5553248 -0.056039687 0
-0.26787764 1.9669329 0.070870288 0
-0.28529024 2.0947876 0.38127974 0
-0.28354549 2.0819767 0.53608239 0
-0.11505439 0.84480464 0.35300842 0
-0.11602765 0.85195094 0.43020028 0
-0.22994356 1.5428485 -0.055690072 0
-0.2954708 1.9825156 0.07156013 0
-0.3068524 2.0588825 0.37541804 0
-0.30863628 2.0708516 0.53417617 0
-0.30474767 2.0447605 0.68779367 0
-0.12985009 0.87125295 0.36471438 0
-0.13219225 0.88696814 0.44868752 0
-0.24906051 1.538033 -0.055625048 0
-0.32867554 2.0296826 0.073406219 0
-0.3299534 2.0375741 0.37226072 0
-0.32830045 2.0273664 0.52398401 0
-0.32962486 2.0355451 0.68603575 0
-0.13796429 0.85197628 0.35734388 0
-0.13737474 0.84833556 0.42998558 0
-0.27116424 1.5505444 -0.056196574 0
-0.35919148 2.0538929 0.074439496 0
-0.3541261 2.0249286 0.3707357 0
-0.34956026 1.9988205 0.51770282 0
-0.34996858 2.0011554 0.67587715 0
-0.15092394 0.86299819 0.43834597 0
-0.28871363 1.5366162 -0.055819109 0
-0.38880733 2.0693433 0.075170949 0
-0.38588482 2.0537889 0.22458142 0
-0.37627843 2.002661 0.36749721 0
-0.37254629 1.9827975 0.51472694 0
-0.37254393 1.9827849 0.67120379 0
-0.16286476 0.86681265 0.44129017 0
-0.30800205 1.5326772 -0.055812486 0
-0.40490311 2.0148757 0.073371753 0
-0.40379444 2.0093586 0.22026151 0
-0.39734784 1.9772791 0.36372882 0
-0.39646006 1.9728613 0.51340282 0
-0.39873302 1.984172 0.67331964 0
-0.17253305 0.85855752 0.43815881 0
-0.33035165 1.5430442 -0.056337018 0
-0.42552373 1.9875847 0.072567329 0
-0.42695993 1.9942932 0.21918206 0
-0.42147171 1.9686582 0.36309052 0
-0.41607755 1.9434625 0.50707555 0
-0.41780829 1.9515467 0.66398108 0
-0.1814986 0.84776443 0.43378261 0
-0.34791347 1.5306637 -0.056040511 0
-0.44624302 1.9632698 0.071879044 0
-0.44861788 1.973718 0.21752436 0
-0.44038463 1.9374955 0.35833734 0
-0.43848562 1.9291407 0.50473946 0
-0.43711674 1.9231184 0.65612954 0
-0.36632317 1.5226883 -0.055912964 0
-0.47411403 1.9707403 0.072365396 0
-0.47498223 1.9743493 0.21823581 0
-0.46264198 1.9230548 0.35671574 0
-0.4577828 1.9028568 0.49933118 0
-0.4551262 1.8918141 0.64735317 0
-0.38393646 1.5119294 -0.055691011 0
-0.49958494 1.9673494 0.072466135 0
-0.49975955 1.968037 0.21821639 0
-0.48044804 1.8919889 0.3520475 0
-0.48096079 1.894008 0.49855891 0
-0.4787176 1.8851745 0.64709258 0
-0.40467751 1.5134621 -0.05593073 0
-0.52558005 1.9656281 0.072640747 0
-0.53220201 1.9903936 0.22142082 0
-0.5015775 1.8758603 0.35019389 0
-0.50140291 1.8752075 0.49523273 0
-0.50123954 1.8745964 0.64557695 0
-0.42302591 1.505841 -0.05584152 0
-0.51740533 1.8418025 0.34502476 0
-0.5204559 1.8526614 0.49097031 0
-0.52369863 1.8642045 0.64421815 0
-0.4423039 1.5015874 -0.055885889 0
-0.53862602 1.8285934 0.3437936 0
-0.53993851 1.8330493 0.48753607 0
-0.53842074 1.8278966 0.63396382 0
-0.46142936 1.4967222 -0.055916637 0
-0.55953926 1.8149579 0.34252751 0
-0.5568254 1.8061548 0.48220962 0
-0.55275387 1.7929484 0.62420738 0
-0.48027006 1.4908921 -0.055920329 0
-0.58721697 1.8228852 0.34539172 0
-0.57470089 1.7840316 0.47819731 0
-0.57501262 1.7849994 0.62391132 0
-0.49953613 1.4863096 -0.055979948 0
-0.60584909 1.8026311 0.3429724 0
-0.59574205 1.7725587 0.47709504 0
-0.59734416 1.7773257 0.6238088 0
-0.52321696 1.4941982 -0.056520727 0
-0.63060641 1.8008798 0.34412274 0
-0.61340153 1.7517463 0.47353467 0
-0.61335421 1.7516111 0.61744535 0
-0.53581429 1.4705446 -0.055876777 0
-0.65666753 1.8022268 0.34593275 0
-0.62840384 1.7246569 0.46831378 0
-0.63320303 1.7378283 0.6153487 0
-0.55254549 1.4590807 -0.05570114 0
-0.67588568 1.7847793 0.34419012 0
-0.65289378 1.7240657 0.47034836 0
-0.65280801 1.7238393 0.61325747 0
-0.57674992 1.4669549 -0.056274533 0
-0.69751447 1.7741179 0.34380066 0
-0.66686296 1.6961561 0.46498829 0
-0.66768318 1.6982423 0.60709423 0
-0.59217113 1.4522103 -0.055990521 0
-0.72342628 1.7740937 0.34553388 0
-0.68169594 1.6717564 0.46061599 0
-0.68320042 1.6754458 0.60197252 0
-0.61837316 1.463487 -0.05672102 0
-0.74587226 1.7652355 0.3456105 0
-0.70094556 1.6589087 0.45947164 0
-0.70374197 1.665527 0.60154498 0
-0.63327414 1.4476365 -0.056411285 0
-0.76346034 1.7452363 0.34354991 0
-0.72740966 1.6628261 0.46305689 0
-0.71666938 1.6382743 0.59491426 0
-0.64672601 1.429106 -0.056002095 0
-0.78092843 1.7256604 0.34160504 0
-0.74022889 1.6357243 0.45806912 0
-0.73602164 1.6264274 0.59393078 0
-0.66872603 1.4295224 -0.056343932 0
-0.80708933 1.7252989 0.34351808 0
-0.74945092 1.6020864 0.45125616 0
-0.74830586 1.5996386 0.58754253 0
-0.67870212 1.4044954 -0.055689935 0
-0.83386433 1.7255856 0.34563842 0
-0.76455081 1.5821493 0.44831669 0
-0.77045727 1.594372 0.58912492 0
-0.70347321 1.4101521 -0.05626101 0
-0.84920055 1.7022709 0.34308311 0
-0.78779531 1.5791805 0.45025072 0
-0.78807396 1.5797391 0.58733821 0
-0.72224271 1.4032612 -0.056344464 0
-0.87714863 1.7042313 0.34567693 0
-0.80364555 1.5614206 0.44803682 0
-0.80689365 1.5677313 0.58660489 0
-0.73190987 1.379087 -0.055739455 0
-0.89720982 1.6905503 0.34516618 0
-0.82063824 1.5462718 0.44661978 0
-0.81539291 1.5363884 0.57867318 0
-0.75740004 1.3847243 -0.056348309 0
-0.91132903 1.6661464 0.34249943 0
-0.83088559 1.5190749 0.4417513 0
-0.83522975 1.5270171 0.579059 0
-0.76442623 1.3567102 -0.055595629 0
-0.93480903 1.659107 0.34344488 0
-0.85503858 1.5175297 0.44439775 0
-0.86008859 1.5264925 0.58292079 0
-0.78444117 1.3521364 -0.055808559 0
-0.95704609 1.6496545 0.34395561 0
-0.86312395 1.4877615 0.43882835 0
-0.8698684 1.4993868 0.57670707 0
-0.79164106 1.3258016 -0.055128682 0
-0.98031926 1.6417906 0.34486246 0
-0.88534606 1.4827341 0.44059891 0
-0.88087898 1.4752529 0.57164556 0
-0.82909322 1.3496226 -0.056548823 0
-0.98862135 1.6093073 0.34062716 0
-0.9020372 1.468363 0.43966889 0
-0.9066807 1.4759219 0.5762831 0
-0.83862001 1.3273623 -0.056054141 0
-1.025588 1.623294 0.34629366 0
-0.91414016 1.4468951 0.4366529 0
-0.91657871 1.4507548 0.57091773 0
-0.85712558 1.3195598 -0.056175981 0
-1.0429064 1.6055726 0.34528729 0
-0.92715245 1.4273673 0.43424857 0
-0.9291113 1.430383 0.56745994 0
-0.86966646 1.3026623 -0.055918396 0
-1.0589896 1.5862471 0.34397176 0
-0.94904083 1.4215562 0.4360818 0
-0.94917572 1.4217582 0.56873494 0
-0.89634335 1.306688 -0.056571227 0
-1.0745001 1.5664047 0.34257585 0
-0.96011096 1.3996483 0.43303564 0
-0.96737498 1.4102378 0.56895417 0
-0.90229231 1.2804925 -0.055924594 0
-1.1003335 1.5615437 0.34451568 0
-0.97858512 1.3887639 0.43344626 0
-0.97764838 1.3874346 0.56467628 0
-0.91696674 1.2671274 -0.055840742 0
-1.1150492 1.5408512 0.34302101 0
-0.98087883 1.3554454 0.42686838 0
-0.993617 1.3730479 0.56386858 0
-0.92692983 1.2475152 -0.055486433 0
-1.1444025 1.5402024 0.34605718 0
-1.0128082 1.3630953 0.43325964 0
-1.0014461 1.3478036 0.55863589 0
-0.95030367 1.2458922 -0.055942044 0
-1.1557351 1.5152222 0.34368718 0
-1.0219644 1.3398427 0.42992505 0
-1.026581 1.3458952 0.56315821 0
-0.96368062 1.230973 -0.055812601 0
-0.5766874 0.73664093 0.033399474 0
-0.59111714 0.75507301 0.10305598 0
-0.57693845 0.73696166 0.16879429 0
-1.0422763 1.3313683 0.43138301 0
-1.0363607 1.323812 0.55933422 0
-0.98656642 1.2280308 -0.056238007 0
-0.59134233 0.73607469 0.033708744 0
-0.59231114 0.73728061 0.10163751 0
-0.59847587 0.74495417 0.17233731 0
-1.0560591 1.3145319 0.43020245 0
-1.053606 1.3114784 0.55968428 0
-0.49125051 0.61148518 0.46517086 0
-0.99460423 1.2065991 -0.055825662 0
-0.60451818 0.73336816 0.033930711 0
-0.60677385 0.73610461 0.10252056 0
-0.60413378 0.73290187 0.17129545 0
-1.0613886 1.2876182 0.42573473 0
-1.0652503 1.292303 0.5571813 0
-1.0121734 1.1968837 -0.055961423 0
-0.61562693 0.72797197 0.10245943 0
-0.61197722 0.72365624 0.17092209 0
-1.0823529 1.2798702 0.42764536 0
-1.0890014 1.287732 0.56107837 0
-1.0277871 1.1847634 -0.055995405 0
-0.62036645 0.71511644 0.10174148 0
-0.61145258 0.70484114 0.16828334 0
-1.0928376 1.2597492 0.42548662 0
-1.1050388 1.2738138 0.56103253 0
-1.0522296 1.1825243 -0.056511331 0
-0.63690048 0.71576607 0.10296676 0
-0.63091117 0.70903516 0.1711679 0
-1.1146913 1.2527204 0.42781955 0
-1.1085278 1.2457937 0.55479544 0
-1.1093984 1.2467721 0.69098186 0
-0.51958507 0.58392388 0.46354038 0
-1.0499049 1.1504111 -0.05560407 0
-0.6408394 0.70218623 0.10216599 0
-0.63860697 0.69974011 0.17085172 0
-1.1351463 1.2438124 0.42962494 0
-1.1294929 1.237618 0.55744416 0
-1.1259472 1.2337329 0.6915583 0
-0.53112906 0.58197337 0.46726424 0
-1.0700407 1.1432265 -0.055903636 0
-0.65737545 0.70233679 0.1033841 0
-0.64409155 0.68814439 0.16998729 0
-1.1449883 1.2233001 0.42748597 0
-1.1374441 1.21524 0.55377215 0
-1.1502013 1.2288697 0.69689566 0
-0.56492871 0.60356718 0.49027446 0
-1.0882986 1.1337758 -0.056107182 0
-0.58660829 0.61112112 0.35072982 0
-0.58273637 0.60708743 0.42104062 0
-0.55948275 0.58286214 0.47914058 0
-1.1013206 1.1187972 -0.056047775 0
-0.57751071 0.58667505 0.41189465 0
-0.56984675 0.57888949 0.48173541 0
-1.1164645 1.1059749 -0.056105275 0
-0.58266479 0.5771904 0.41035432 0
-0.59071207 0.5851621 0.49310622 0
-1.1284307 1.0900224 -0.056012407 0
-0.60697055 0.5863111 0.34940657 0
-0.60767901 0.58699548 0.42273194 0
-1.1405312 1.0742821 -0.055937137 0
-0.62179017 0.58567274 0.35366416 0
-0.62343246 0.5872196 0.42851293 0
-1.151466 1.057539 -0.05581589 0
-0.69854718 0.6415655 0.10193022 0
-0.69328451 0.63673216 0.16976467 0
-1.237267 1.136341 0.42859906 0
-1.2289325 1.1286864 0.55513173 0
-1.2392398 1.1381528 0.69665247 0
-1.1772803 1.0542308 -0.056419238 0
-0.71377605 0.63917208 0.10296979 0
-0.70376629 0.63020849 0.17037462 0
-1.2487972 1.1182727 0.42768136 0
-1.250383 1.1196928 0.55840808 0
-1.2395694 1.1100094 0.68892562 0
-1.184473 1.0340961 -0.056135453 0
-0.71229684 0.62186587 0.10161868 0
-0.72552365 0.63341343 0.17369714 0
-1.267395 1.1064905 0.42924485 0
-1.2693969 1.1082382 0.56062281 0
-1.1930759 1.0154202 -0.055932745 0
-0.71893376 0.61188048 0.10145827 0
-0.71759343 0.61073977 0.16994391 0
-1.2777482 1.0874844 0.42807949 0
-1.2831495 1.0920813 0.56057876 0
-1.2124215 1.0058384 -0.056241453 0
-0.73750263 0.61184037 0.10298333 0
-0.73484421 0.60963494 0.17219765 0
-1.2963144 1.0754368 0.4297286 0
-1.3018938 1.0800655 0.56278139 0
-1.226191 0.99146378 -0.056296587 0
-0.740031 0.59836835 0.10227614 0
-0.74064702 0.59886646 0.17177671 0
-1.2993691 1.0506335 0.42632177 0
-1.3076516 1.0573305 0.55947059 0
-1.2375565 0.97514135 -0.056250174 0
-0.73956287 0.58274382 0.033615064 0
-0.74956942 0.5906285 0.1025584 0
-0.74758112 0.58906186 0.17165098 0
-1.3160225 1.0369693 0.42746764 0
-1.3250234 1.0440615 0.56123364 0
-1.2385441 0.95088875 -0.055746406 0
-0.76138467 0.58455092 0.034269638 0
-0.74831694 0.5745182 0.10138915 0
-0.75545675 0.5799998 0.17176872 0
-1.3319995 1.0226389 0.42844051 0
-1.3346721 1.0246907 0.55981082 0
-1.2584671 0.94123816 -0.056105219 0
-0.76689661 0.57358062 0.034189932 0
-0.76685673 0.57355082 0.1029144 0
-0.76237506 0.57019883 0.17169559 0
-1.3527161 1.0117292 0.43097204 0
-1.3550334 1.0134624 0.56295371 0
-1.2649777 0.92150003 -0.055873726 0
-0.78073078 0.56874001 0.03448467 0
-0.76463598 0.55701542 0.101667 0
-0.77086955 0.5615564 0.17200249 0
-1.3675588 0.99622744 0.43166998 0
-1.3638915 0.9935559 0.56139153 0
-1.2807287 0.90851313 -0.056059688 0
-0.78299749 0.55543649 0.03427314 0
-0.78964394 0.56015134 0.10404599 0
-0.78099251 0.55401427 0.17269093 0
-1.3737789 0.97452039 0.42972583 0
-1.3859831 0.98317766 0.56534398 0
-1.2896007 0.8906123 -0.055952709 0
-0.78580451 0.54268515 0.034094188 0
-0.79473925 0.5488556 0.10379849 0
-0.79762799 0.55085057 0.17482169 0
-1.4033053 0.96913791 0.43510997 0
-1.4002975 0.96706074 0.56617075 0
-1.2964497 0.8714388 -0.055769339 0
-0.79170901 0.53216565 0.034056924 0
-0.79855895 0.53676999 0.10340638 0
-0.79901415 0.53707594 0.17362945 0
-1.4289269 0.96048653 0.43926936 0
-1.4140259 0.95047039 0.56683737 0
-1.3192717 0.86286318 -0.056279216 0
-0.810866 0.53034294 0.034590982 0
-0.81326383 0.53191125 0.10443493 0
-0.80937755 0.52936941 0.17441911 0
-1.4385742 0.9408924 0.43855807 0
-1.4403683 0.94206583 0.57259643 0
-1.3216587 0.84085667 -0.055924926 0
-0.81363785 0.51764709 0.034428429 0
-0.82127416 0.5225054 0.10461038 0
-0.82618868 0.52563208 0.1766015 0
-1.450141 0.92259872 0.43850783 0
-1.4374057 0.91449642 0.56679595 0
-1.3285166 0.82190621 -0.055772755 0
-0.83035654 0.51371217 0.034859382 0
-0.82311296 0.50923085 0.10401957 0
-0.82035631 0.50752538 0.17397495 0
-1.4499992 0.89706314 0.43501467 0
-1.4539324 0.8994965 0.56880128 0
-1.3366308 0.80383289 -0.055684049 0
-0.85112733 0.51185727 0.035457969 0
-0.83693373 0.50332141 0.10495688 0
-0.84030974 0.50535166 0.17684297 0
-1.4785982 0.88921034 0.44020054 0
-1.4784255 0.88910645 0.57395798 0
-1.3564882 0.79269081 -0.056091018 0
-0.90660983 0.52979547 0.037488472 0
-0.90405041 0.52829981 0.11253057 0
-0.9081341 0.5306862 0.18969522 0
-1.4998863 0.87648833 0.44321731 0
-1.5014901 0.87742555 0.57857692 0
-1.3750702 0.78049111 -0.056448519 0
-0.96817017 0.54953432 0.039744716 0
-0.97701126 0.5545525 0.1207335 0
-1.5115535 0.85795921 0.31345868 0
-1.5068995 0.85531759 0.44207203 0
-1.5080057 0.85594553 0.57688862 0
-1.3709562 0.75549287 -0.055884667 0
-1.0601482 0.58421594 0.043215115 0
-1.0622743 0.58538753 0.13034858 0
-1.526149 0.84101498 0.31426436 0
-1.5288695 0.84251422 0.4453696 0
-1.5290872 0.84263414 0.58084816 0
-1.3952844 0.74615204 -0.056488886 0
-1.1370531 0.60805851 0.04603425 0
-1.1424947 0.61096841 0.13923711 0
-1.5482938 0.82797647 0.31665239 0
-1.5438859 0.82561922 0.44668004 0
-1.5496767 0.82871592 0.58465904 0
-1.3913542 0.72167039 -0.055957425 0
-1.2564166 0.65168071 0.050530508 0
-1.2475541 0.64708388 0.1510358 0
-1.5509347 0.80444199 0.31509581 0
-1.5531213 0.80557609 0.44638178 0
-1.5531967 0.80561525 0.58211362 0
-1.395308 0.70156902 -0.055756725 0
-1.3852843 0.69652897 0.055356171 0
-1.3903729 0.69908756 0.16724724 0
-1.55533 0.78202897 0.31396323 0
-1.5711193 0.78996789 0.44866002 0
-1.560495 0.78462601 0.58109993 0
-1.4084896 0.6861167 -0.055933781 0
-1.5335922 0.74705786 0.060901843 0
-1.5477278 0.75394368 0.18501872 0
-1.598547 0.77869922 0.32068232 0
-1.584702 0.77195495 0.44972727 0
-1.4214199 0.67040431 -0.056107577 0
-1.643235 0.77502209 0.19525371 0
-1.6106431 0.75965035 0.32116452 0
-1.6197772 0.76395833 0.45691505 0
-1.4275208 0.65143716 -0.056020156 0
