# .PCD v0.7 - Point Cloud Data file format
VERSION 0.7
FIELDS x y z intensity
SIZE 4 4 4 4
TYPE F F F F
COUNT 1 1 1 1
WIDTH 1361
HEIGHT 1
VIEWPOINT 0 0 0 1 0 0 0
POINTS 1361
DATA ascii
-1.9586571 -1.5037535 0.088158429 0
-1.2311236 -0.97007251 -0.055957783 0
-1.9516644 -1.5378278 0.088708244 0
-1.2148138 -0.98226446 -0.055774238 0
-1.9231077 -1.5549712 0.088293262 0
-1.1917243 -0.98866767 -0.055281352 0
-1.8947033 -1.5718669 0.087890938 0
-1.1972102 -1.0189389 -0.056126568 0
-1.8830562 -1.6026585 0.088279806 0
-1.1839454 -1.0336354 -0.056110445 0
-1.8631136 -1.6265786 0.088298105 0
-1.1693577 -1.0471363 -0.056039561 0
-1.8323406 -1.6408241 0.087811932 0
-1.1641676 -1.0692046 -0.056431588 0
-1.8154756 -1.6673841 0.088002935 0
-1.1371895 -1.0711344 -0.055773243 0
-1.802647 -1.697938 0.088410474 0
-1.1311561 -1.0926551 -0.056147691 0
-1.7727073 -1.7123698 0.087992653 0
-1.1148574 -1.104383 -0.056024514 0
-1.1022376 -1.1197287 -0.056094442 0
-1.0819868 -1.1272002 -0.055781778 0
-1.0692381 -1.1423689 -0.055861704 0
-1.0590677 -1.1604511 -0.056089338 0
-1.0352879 -1.1634847 -0.055601448 0
-1.0170785 -1.1724193 -0.055411987 0
-1.002516 -1.1854639 -0.05542748 0
-0.99613607 -1.2084575 -0.055911645 0
-0.9779256 -1.217275 -0.055745449 0
-0.95999193 -1.2262611 -0.055598967 0
-0.96163648 -1.2607499 -0.05660918 0
-0.93402779 -1.257068 -0.055911321 0
-0.91080081 -1.2586069 -0.055465255 0
-0.90737665 -1.287708 -0.056239724 0
-0.88754499 -1.2938617 -0.056015931 0
-0.86614656 -1.29739 -0.055692073 0
-0.8645041 -1.330919 -0.056659564 0
-0.8380596 -1.3264753 -0.056016684 0
-0.81879777 -1.3328635 -0.055846617 0
-0.79466629 -1.3308681 -0.055339355 0
-0.79698867 -1.3737645 -0.056701243 0
-0.77112979 -1.3686076 -0.056083173 0
-0.75626618 -1.3826512 -0.056263953 0
-0.73122633 -1.377799 -0.055687398 0
-0.71939695 -1.397732 -0.056122459 0
-0.69920415 -1.4015945 -0.055919588 0
-0.68375987 -1.4149618 -0.056104943 0
-0.6677919 -1.4275255 -0.056265224 0
-0.65042108 -1.4372712 -0.056322064 0
-0.56342131 -1.245023 0.45465139 0
-0.62319869 -1.4246044 -0.055513773 0
-0.54729229 -1.2510859 0.45431271 0
-0.60742164 -1.4375683 -0.055716477 0
-0.53601682 -1.2685765 0.45817682 0
-0.58724517 -1.4401301 -0.055524763 0
-0.51758677 -1.2693034 0.45604926 0
-0.57655895 -1.4664692 -0.056255899 0
-0.5036962 -1.2811439 0.45798823 0
-0.55564475 -1.4672647 -0.056013569 0
-0.48507717 -1.2809203 0.4556886 0
-0.53568065 -1.4701778 -0.055862837 0
-0.46743217 -1.2828695 0.45425206 0
-0.5207774 -1.4872313 -0.056257188 0
-0.45850387 -1.309391 0.46156216 0
-0.50100517 -1.4906807 -0.056144577 0
-0.43988082 -1.3088125 0.45936924 0
-0.48434958 -1.503556 -0.05639533 0
-0.42986307 -1.3344147 0.46641836 0
-0.4636412 -1.5038966 -0.056184668 0
-0.41493952 -1.3459247 0.46857798 0
-0.44474399 -1.5098712 -0.056194201 0
-0.40620109 -1.3790212 0.47828171 0
-0.42088813 -1.4982312 -0.055559322 0
-0.3880083 -1.3811891 0.05121902 0
-0.38730574 -1.3786882 0.15390216 0
-0.38655704 -1.3760231 0.25777033 0
-0.38806438 -1.3813888 0.36607921 0
-0.39071658 -1.3908298 0.48063275 0
-0.40427375 -1.511952 -0.055874925 0
-0.37881559 -1.4167405 0.052356344 0
-0.37174928 -1.3903131 0.15466502 0
-0.37182981 -1.3906143 0.259606 0
-0.37712801 -1.410429 0.37248713 0
-0.37355274 -1.3970579 0.48112139 0
-0.38721579 -1.5248433 -0.056166686 0
-0.36781076 -1.5288717 -0.056140017 0
-0.34788996 -1.5305603 -0.056036722 0
-0.32379532 -1.5124202 -0.055218924 0
-0.30935895 -1.5394294 -0.05605837 0
-0.29058707 -1.5465871 -0.056181315 0
-0.2735061 -1.5639353 -0.056681901 0
-0.24807976 -1.5319766 -0.055406004 0
-0.23160185 -1.5539751 -0.056091692 0
-0.21229739 -1.5588264 -0.056165859 0
-0.19133602 -1.550702 -0.055781893 0
-0.15388499 -1.2471763 0.044863459 0
-0.15340745 -1.243306 0.1346305 0
-0.17125514 -1.5481021 -0.055606391 0
-0.13536468 -1.2236618 0.043952793 0
-0.13484693 -1.2189814 0.1318022 0
-0.1531522 -1.5644687 -0.056120541 0
-0.11950607 -1.2207694 0.043791376 0
-0.11811691 -1.206579 0.13029005 0
-0.1337698 -1.5701264 -0.056258611 0
-0.10186615 -1.1956565 0.042841122 0
-0.10187764 -1.1957915 0.12897643 0
-0.11423493 -1.5750717 -0.056379791 0
-0.085595377 -1.1801895 0.042244956 0
-0.085970879 -1.1853667 0.12772515 0
-0.092769615 -1.5492609 -0.055409681 0
-0.070327662 -1.1744783 0.042005494 0
-0.068761602 -1.1483248 0.12363072 0
-0.073624164 -1.5581146 -0.055688769 0
-0.05421029 -1.5649955 -0.055905871 0
-0.034925289 -1.584816 -0.056593712 0
-0.014872019 -1.5749902 -0.056231685 0
0.0049032774 -1.5569801 -0.055586472 0
0.024671001 -1.5672033 -0.055958111 0
0.043992631 -1.5523223 -0.055442158 0
0.064219475 -1.5683674 -0.056039657 0
0.083752237 -1.5635179 -0.055899635 0
0.10390094 -1.5694201 -0.056152977 0
0.12318373 -1.5620292 -0.055939596 0
0.14293616 -1.5613852 -0.055976551 0
0.16164336 -1.5504339 -0.055652503 0
0.18384221 -1.5712652 -0.056478858 0
0.20129572 -1.5509807 -0.055836421 0
0.22187227 -1.5557824 -0.05610542 0
0.2402842 -1.5454071 -0.055835944 0
0.25980899 -1.5427655 -0.05585428 0
0.27925235 -1.5395852 -0.055862017 0
0.29755223 -1.5304781 -0.055663116 0
0.3162834 -1.5241246 -0.055572484 0
0.33501247 -1.5180438 -0.055500183 0
0.36148918 -1.545293 -0.05665835 0
0.37882632 -1.5321605 -0.056347284 0
0.39564779 -1.517907 -0.056001876 0
0.41129667 -1.500286 -0.055538438 0
0.43096554 -1.4978071 -0.055643156 0
0.45737195 -1.5174147 -0.056581043 0
0.47131753 -1.4952786 -0.055972498 0
0.48934475 -1.4869077 -0.055885382 0
0.50689679 -1.4773319 -0.055760957 0
0.52596319 -1.4722463 -0.055814561 0
0.54644454 -1.470852 -0.056018125 0
0.5652166 -1.4646208 -0.056047432 0
0.57936096 -1.4467695 -0.055639073 0
0.60220385 -1.4506146 -0.056074128 0
0.62838554 -1.4614402 -0.056793962 0
0.64213651 -1.4430734 -0.056389958 0
0.65454084 -1.4224542 -0.055901878 0
0.6725986 -1.414519 -0.05591844 0
0.69651908 -1.4184899 -0.056417666 0
0.70913452 -1.399366 -0.056007769 0
0.7304635 -1.3975304 -0.056297984 0
0.74117738 -1.3755559 -0.055784315 0
0.76019007 -1.3692695 -0.055913143 0
0.77881813 -1.362121 -0.056017261 0
0.79250669 -1.3464295 -0.05577793 0
0.81682682 -1.348611 -0.056289937 0
0.82560331 -1.3251549 -0.055740409 0
0.83734393 -1.3070383 -0.055417489 0
0.86428678 -1.3124148 -0.05610244 0
0.88298327 -1.3047384 -0.056245133 0
0.89386225 -1.2856364 -0.055902459 0
0.91204631 -1.2771745 -0.056029454 0
0.93395722 -1.273638 -0.056385774 0
0.93679321 -1.2443414 -0.0556066 0
0.95758188 -1.2391702 -0.055909928 0
0.96808118 -1.2206757 -0.055621076 0
0.9953832 -1.2231464 -0.056300323 0
1.0056789 -1.2044965 -0.056020338 0
1.0226978 -1.1939945 -0.056126397 0
1.0384367 -1.1819174 -0.056168914 0
1.0578982 -1.1739219 -0.056417543 0
1.0637833 -1.1509744 -0.055954035 0
1.0851392 -1.1448189 -0.05631461 0
1.0926689 -1.1240706 -0.05596637 0
1.1078271 -1.1113185 -0.056021564 0
1.1138254 -1.0895472 -0.05562669 0
1.1376039 -1.0851161 -0.056127373 0
1.1548229 -1.0740978 -0.056305159 0
1.1631789 -1.054868 -0.056060478 0
1.1786145 -1.0421242 -0.056167502 0
1.1961919 -1.0311228 -0.056381926 0
1.1953549 -1.0044464 -0.055741888 0
1.2136259 -0.99399954 -0.056005791 0
1.2284018 -0.98052067 -0.056113433 0
1.2392069 -0.96385312 -0.056048144 0
1.2501961 -0.94737893 -0.056001168 0
1.2525827 -0.92459208 -0.055582151 0
1.2726523 -0.91487718 -0.055957079 0
1.2801536 -0.89603865 -0.055786379 0
1.2959462 -0.88299119 -0.055985611 0
1.3130805 -0.87066108 -0.056247734 0
1.3154836 -0.8486042 -0.0558885 0
1.3183186 -0.82711375 -0.055562045 0
1.3461776 -0.8211537 -0.056295935 0
1.3593534 -0.80588359 -0.056418095 0
1.3564138 -0.78122854 -0.05588337 0
1.3693351 -0.76587307 -0.056013945 0
1.3911693 -0.75524807 -0.056513596 0
1.3799871 -0.72683156 -0.055683125 0
1.3924624 -0.71115148 -0.055820744 0
1.4015026 -0.69365948 -0.055828564 0
1.4170146 -0.67926025 -0.056101311 0
1.432058 -0.66442806 -0.056361187 0
1.4278057 -0.64073253 -0.055871859 0
1.4457484 -0.62703598 -0.056260549 0
1.4514445 -0.60790956 -0.05617987 0
1.4538426 -0.58750832 -0.055981904 0
1.4674653 -0.57162595 -0.056224834 0
1.4836791 -0.5565291 -0.056573067 0
1.4678122 -0.52959299 -0.055709358 0
1.4822423 -0.51380032 -0.056007039 0
1.4923837 -0.49635679 -0.056149621 0
1.5053495 -0.47970438 -0.056405704 0
1.4991747 -0.45702487 -0.055954259 0
1.5028387 -0.43753821 -0.055880945 0
1.4947655 -0.41484445 -0.055382121 0
1.5154742 -0.40011033 -0.055958286 0
1.5214406 -0.38125977 -0.055996887 0
1.5228132 -0.3612881 -0.055875532 0
1.5257015 -0.34174046 -0.055819191 0
1.5255685 -0.32159331 -0.055661753 0
1.5288537 -0.30223194 -0.055638347 0
1.5536774 -0.28686091 -0.056405809 0
1.5422314 -0.26471207 -0.055864822 0
1.5510631 -0.24616458 -0.056068007 0
1.5558372 -0.22687742 -0.056132857 0
1.5528879 -0.20651387 -0.055928197 0
1.5548805 -0.1868865 -0.055910774 0
1.5578389 -0.16737214 -0.055936933 0
1.5737079 -0.14905897 -0.056434866 0
1.5708864 -0.12885709 -0.056271031 0
1.5584308 -0.10809963 -0.055771675 0
1.5644803 -0.088741481 -0.055943746 0
1.5670893 -0.069106996 -0.056001481 0
1.5645078 -0.049265191 -0.055882633 0
1.5583973 -0.02943744 -0.055646718 0
1.5573843 -0.0098050656 -0.055601731 0
1.5643736 0.0098490696 -0.055851266 0
1.5596268 0.029460667 -0.055690624 0
1.5627862 0.049210981 -0.055821139 0
0.86581147 0.027263762 0.28819323 0
1.566633 0.069086872 -0.055985175 0
0.9192214 0.040536702 0.30611682 0
1.557965 0.088371925 -0.05571077 0
1.4922687 0.08464545 0.053361554 0
1.5014143 0.085164219 0.16161531 0
1.4978217 0.084960431 0.27056441 0
0.92609149 0.052530374 0.30860052 0
1.5576564 0.10804593 -0.055743966 0
1.4693444 0.10192021 0.052583534 0
1.4657607 0.10167163 0.15790278 0
1.4753929 0.10233977 0.26672453 0
0.93435311 0.064810857 0.31160074 0
1.5601085 0.12797301 -0.055884957 0
1.4435579 0.11841255 0.051709972 0
1.4517211 0.11908218 0.15653946 0
1.4617473 0.11990461 0.26450965 0
0.96531898 0.079183444 0.32223466 0
1.567651 0.14848526 -0.056217659 0
1.457122 0.13801613 0.052253969 0
1.4493822 0.13728304 0.15646125 0
1.4319903 0.1356357 0.25941348 0
0.9928605 0.09404207 0.33179733 0
1.5470929 0.16621761 -0.055551082 0
1.4229462 0.15287945 0.051093373 0
1.4363163 0.1543159 0.15524824 0
1.4307514 0.15371802 0.25951913 0
1.0060351 0.10808707 0.3366282 0
1.5672206 0.18836971 -0.0563545 0
1.4050317 0.16887566 0.050522473 0
1.4091547 0.1693712 0.15253083 0
1.4084412 0.16928546 0.25583872 0
0.99695545 0.11982755 0.33406848 0
1.5528108 0.2065036 -0.055925421 0
1.3886033 0.18466614 0.050011389 0
1.388991 0.1847177 0.1505881 0
1.3866528 0.18440676 0.25228274 0
0.99518675 0.13234687 0.33400777 0
1.5580832 0.22720495 -0.056213893 0
1.3902631 0.20273286 0.050159134 0
1.3840789 0.20183104 0.15031916 0
1.3823991 0.20158611 0.25195068 0
1.0105045 0.14735517 0.3397446 0
1.5325153 0.24322091 -0.055397537 0
1.3668318 0.21692577 0.049408391 0
1.3655543 0.21672304 0.14859191 0
1.3713298 0.21763965 0.25041288 0
0.98624021 0.15652323 0.33222294 0
1.5397696 0.2642895 -0.055775646 0
1.3922597 0.23897056 0.050432339 0
1.391413 0.23882523 0.15172091 0
1.3866979 0.23801593 0.25374636 0
1.0082208 0.17305326 0.34033436 0
1.5460688 0.28545609 -0.056129579 0
1.4112532 0.26056463 0.051235139 0
1.4126766 0.26082742 0.1543854 0
1.4098161 0.2602993 0.25855595 0
1.0071971 0.18596233 0.34075227 0
1.5288138 0.30222404 -0.055636898 0
1.4253554 0.28177184 0.051871821 0
1.4243591 0.28157488 0.15603724 0
1.4243389 0.28157088 0.26184887 0
1.3190958 0.26076588 0.34305653 0
1.005525 0.19877753 0.34100634 0
1.5353988 0.32366559 -0.056020424 0
1.449116 0.30547696 0.052872311 0
1.4606385 0.30790594 0.16042367 0
1.4276954 0.30096143 0.26314178 0
1.2811658 0.2700727 0.33405009 0
1.0095921 0.2128243 0.34326723 0
1.5338483 0.34356523 -0.056117244 0
1.4659977 0.32836744 0.053634871 0
1.4614524 0.32734933 0.16095302 0
1.4220278 0.31851867 0.26281559 0
1.2909595 0.28916079 0.33752629 0
1.0178216 0.22798088 0.34701389 0
1.5320219 0.36347285 -0.05621342 0
1.5009924 0.35611108 0.055074874 0
1.5120937 0.35874486 0.16701452 0
1.4333441 0.34006152 0.26567739 0
1.2859993 0.30510387 0.33720717 0
0.99369746 0.23575516 0.33977428 0
0.75432211 0.17896326 0.45976698 0
1.5254936 0.3822754 -0.056146055 0
1.4177437 0.3552742 0.26359409 0
1.2665179 0.31737834 0.33312041 0
1.0145973 0.25424924 0.34798765 0
0.77170664 0.19338296 0.47180983 0
1.5087421 0.39833295 -0.055709705 0
1.4082847 0.37181053 0.26268509 0
1.2476282 0.32939455 0.32921687 0
0.99918956 0.26380265 0.34381518 0
0.78047031 0.20605712 0.40388131 0
0.77797115 0.20539729 0.47718331 0
1.4987878 0.41596079 -0.055531152 0
1.4149513 0.39269355 0.26482999 0
1.246735 0.34600818 0.33010471 0
0.98523051 0.27343246 0.34016973 0
0.82748634 0.22965351 0.35555887 0
0.80491257 0.22338858 0.41795233 0
0.80181003 0.22252752 0.49348494 0
1.4945091 0.4351131 -0.055571221 0
1.4185277 0.41299179 0.26645157 0
1.2232625 0.35614207 0.32505146 0
0.9928447 0.28905794 0.34402815 0
0.83568281 0.24330164 0.36036864 0
0.8118524 0.23636363 0.42306778 0
0.81251591 0.23655681 0.50186753 0
1.4993107 0.45706633 -0.055959333 0
1.398888 0.42645237 0.26375028 0
1.2080758 0.36828306 0.32222268 0
0.97867131 0.2983489 0.34039176 0
0.84522706 0.25766829 0.36585453 0
0.83068311 0.25323454 0.434508 0
0.83597475 0.25484771 0.51829851 0
1.4938378 0.47603598 -0.055974357 0
1.3940109 0.44422454 0.26386449 0
1.1864575 0.37808421 0.31770125 0
0.99030006 0.31557542 0.34579107 0
0.86717093 0.27633828 0.37682918 0
0.83879453 0.26729569 0.44047651 0
0.84708351 0.2699371 0.52725148 0
1.5079393 0.50153047 -0.056734886 0
1.3950826 0.4639951 0.26515225 0
1.1805074 0.39262885 0.31740671 0
0.99131322 0.32970411 0.34756696 0
0.87170011 0.28992158 0.3803536 0
0.85618871 0.28476259 0.45145795 0
0.86502063 0.28770006 0.54062819 0
1.4890795 0.51617038 -0.056265388 0
1.3761885 0.47703815 0.26268208 0
1.1714534 0.40606931 0.31632206 0
0.98392802 0.34106606 0.34645596 0
0.9020406 0.31268084 0.3952789 0
0.88144171 0.3055405 0.46676525 0
0.8872782 0.30756363 0.55691522 0
1.4706469 0.53061575 -0.055816945 0
1.1599852 0.41852763 0.3146235 0
0.96549261 0.34835389 0.34148207 0
0.90413302 0.32621509 0.39796433 0
0.91358417 0.32962513 0.4859457 0
0.90049422 0.32490221 0.56773347 0
1.4670819 0.55030352 -0.055940211 0
1.1510502 0.43175974 0.31364983 0
0.96449566 0.36178303 0.34271356 0
0.92399848 0.34659252 0.40859696 0
0.92422807 0.34667861 0.49389017 0
0.92049122 0.34527692 0.58303589 0
1.4488934 0.56439155 -0.055513266 0
1.1498977 0.44792289 0.31484774 0
0.97060418 0.37808219 0.34654832 0
0.93429852 0.36393994 0.41514531 0
0.95008773 0.37009037 0.51015896 0
0.94537103 0.36825308 0.60168409 0
1.4488999 0.58551091 -0.055791579 0
1.1245726 0.45444793 0.30945596 0
0.99276191 0.40118223 0.35623506 0
0.9685266 0.3913886 0.43250981 0
0.96997464 0.39197376 0.52344632 0
0.95886898 0.38748586 0.61333168 0
1.4472127 0.6061371 -0.056016069 0
1.1164328 0.46759635 0.30881184 0
1.0152932 0.42523596 0.3662124 0
0.99907362 0.4184427 0.44846848 0
0.99233931 0.41562217 0.53829706 0
1.0004697 0.41902739 0.64326525 0
1.4356995 0.62267762 -0.055869501 0
1.0941998 0.47456568 0.30429086 0
1.0460604 0.45368716 0.37934059 0
1.0128309 0.43927515 0.45709062 0
1.0155834 0.44046897 0.55387062 0
1.0068891 0.43669817 0.65087676 0
1.4395851 0.64601856 -0.056332804 0
1.086921 0.48775938 0.30395064 0
1.0733188 0.48165539 0.3913939 0
1.0586864 0.47508904 0.48044702 0
1.0428504 0.46798259 0.57190979 0
1.0487242 0.47061843 0.68169665 0
1.4226439 0.66006029 -0.055990681 0
1.0738834 0.49824679 0.3020353 0
1.0746787 0.49861574 0.39414808 0
1.0848314 0.5033263 0.49514899 0
1.0683007 0.49565661 0.58924311 0
1.4146525 0.678128 -0.056007795 0
1.0643382 0.51020133 0.30113375 0
1.097285 0.52599466 0.4048363 0
1.0912651 0.52310896 0.50105232 0
1.0937437 0.52429712 0.60687011 0
1.4110495 0.69838464 -0.056208864 0
1.0456359 0.51752692 0.2976625 0
1.1506521 0.56950361 0.42713767 0
1.1502106 0.56928509 0.53136635 0
1.1475073 0.56794709 0.64061856 0
1.3957887 0.71285033 -0.055954091 0
1.7012367 0.86884719 0.3445133 0
1.0487771 0.53562629 0.30045292 0
1.1772507 0.60123968 0.43978703 0
1.1769687 0.60109562 0.54718125 0
1.1728541 0.59899426 0.6589275 0
1.3802953 0.72699386 -0.05569556 0
1.6884555 0.88930011 0.34416544 0
1.0381632 0.54679477 0.29936099 0
1.225888 0.64566845 0.46095726 0
1.2233305 0.64432144 0.57246178 0
1.2161131 0.64051998 0.6877079 0
1.3893431 0.75425667 -0.056439407 0
1.6725445 0.90800303 0.34322563 0
1.0239697 0.55590004 0.29726315 0
1.2601314 0.68410927 0.47703481 0
1.2473718 0.6771822 0.58765572 0
1.3748759 0.7689721 -0.0562406 0
1.0119261 0.56597322 0.041393794 0
1.0244913 0.57300097 0.12615232 0
1.0223534 0.57180524 0.21125968 0
1.0207129 0.57088768 0.29838094 0
1.2984418 0.72622228 0.49496016 0
1.3011984 0.72776401 0.61728269 0
1.3659239 0.78670585 -0.056275178 0
1.0102677 0.58186513 0.041622374 0
1.0023676 0.57731509 0.1243134 0
1.0032574 0.57782757 0.20880064 0
0.9962039 0.5737651 0.29330516 0
1.3370128 0.77005446 0.5133189 0
1.3361105 0.76953483 0.6383912 0
1.3591983 0.80579162 -0.056411657 0
0.99338198 0.58891982 0.041228954 0
0.99391991 0.58923876 0.12417607 0
0.98880023 0.58620358 0.20731163 0
1.0037016 0.5950377 0.29769507 0
1.3761015 0.81581247 0.53222805 0
1.3797058 0.8179493 0.66408956 0
1.328667 0.81047255 -0.055563662 0
0.98711187 0.60212755 0.041280132 0
0.98878962 0.60315096 0.12447414 0
0.98049963 0.59809417 0.20713392 0
0.97676206 0.59581429 0.29190701 0
1.4182155 0.86509615 0.55268574 0
1.4156996 0.86356145 0.68659395 0
1.3367728 0.83869189 -0.056339819 0
0.96273917 0.60402304 0.040575746 0
0.97217566 0.60994351 0.12333977 0
0.97577906 0.61220431 0.20774877 0
0.97509485 0.61177504 0.29368773 0
1.432462 0.89872736 0.56260324 0
1.3129946 0.84699863 -0.055782754 0
0.95165735 0.61390382 0.040431291 0
0.95513129 0.61614484 0.122152 0
0.97279876 0.62754196 0.20878011 0
0.95942652 0.61891568 0.29129282 0
1.4627219 0.94358611 0.57910872 0
1.30585 0.86586672 -0.055938002 0
0.95219332 0.63136846 0.040788598 0
0.96199167 0.63786542 0.12404678 0
0.94961238 0.62965715 0.20548925 0
0.95150876 0.63091457 0.29127789 0
1.4903566 0.98820704 0.59492898 0
1.28825 0.87774736 -0.055653125 0
0.94555211 0.64425063 0.040848386 0
0.9416815 0.64161342 0.12245993 0
0.9492085 0.64674193 0.20714772 0
0.94089711 0.64107901 0.2904776 0
1.5128299 1.0307647 0.60903305 0
1.278878 0.89514577 -0.055730786 0
0.9310087 0.65165597 0.040571384 0
0.92149603 0.6449976 0.12088156 0
0.9228425 0.64594007 0.20315276 0
0.93459904 0.65416902 0.29105324 0
1.5345731 1.0741186 0.62318206 0
1.2747067 0.91635406 -0.05604741 0
0.92523348 0.66512674 0.040681466 0
0.92088425 0.66200018 0.12188516 0
0.91767019 0.65968966 0.20382667 0
0.91168272 0.65538543 0.28646401 0
1.539282 1.1065505 0.63070279 0
1.2639035 0.93294847 -0.056084499 0
0.90643162 0.66908115 0.04022203 0
0.90821773 0.67039961 0.12131637 0
0.91575217 0.67596114 0.20527495 0
0.91145104 0.67278624 0.28903028 0
1.5524007 1.1459023 0.6419394 0
1.2492018 0.94662553 -0.055956632 0
0.89785433 0.68037993 0.040218405 0
0.90064269 0.68249285 0.12144287 0
0.90586489 0.68645018 0.20498 0
0.90265554 0.68401819 0.28894958 0
1.5471221 1.1723849 0.64581013 0
1.2518523 0.97368866 -0.056620084 0
0.87163275 0.67795455 0.039423116 0
0.88520902 0.68851417 0.12052129 0
0.88663465 0.689623 0.2025775 0
0.89684957 0.69756812 0.28987989 0
1.5733523 1.2237508 0.66313916 0
1.2271694 0.97953695 -0.056057137 0
0.88608623 0.70728147 0.040476445 0
0.88117325 0.7033599 0.12116808 0
0.87371731 0.6974085 0.20161666 0
0.87886924 0.7015208 0.28690076 0
1.5827638 1.2633753 0.67375773 0
1.2062832 0.98798561 -0.055666938 0
0.9284575 0.76043719 0.12897651 0
0.93056387 0.76216239 0.21693186 0
0.94299197 0.77234143 0.31098333 0
1.5968058 1.3078364 0.68669116 0
1.209134 1.0160249 -0.056384441 0
1.6278605 1.3678772 0.22850859 0
1.603448 1.3473636 0.37771899 0
1.6052735 1.3488975 0.5349521 0
1.588425 1.3347398 0.69026017 0
1.1897066 1.0255325 -0.056076244 0
1.6053932 1.3838562 0.3822518 0
1.6004816 1.3796225 0.53910184 0
1.1805124 1.0438024 -0.056257952 0
1.6018757 1.4163693 0.38563037 0
1.6048958 1.4190398 0.54656428 0
1.1734242 1.0641594 -0.056554265 0
1.6168917 1.4663328 0.39365914 0
1.612425 1.4622819 0.55535525 0
1.1504697 1.0700488 -0.056092907 0
1.6135112 1.5007224 0.39740545 0
1.5938252 1.4824126 0.55533433 0
1.1334118 1.0811174 -0.055920541 0
0.61116099 0.58296269 0.34969822 0
0.6034345 0.5755927 0.41724896 0
1.113359 1.0890908 -0.055603392 0
0.58939195 0.57654482 0.4125264 0
0.59327906 0.58034724 0.49218798 0
1.1046512 1.1081326 -0.055860963 0
0.57479775 0.57660919 0.4073613 0
0.57523698 0.57704985 0.48321003 0
1.0940634 1.1255053 -0.056037799 0
0.58931273 0.6062488 0.35005683 0
0.58804798 0.60494769 0.42211699 0
0.56010497 0.57620162 0.47655594 0
1.0791216 1.1384705 -0.056002326 0
0.57639909 0.60809952 0.34690702 0
0.58120507 0.61316985 0.42271394 0
0.55284953 0.58325481 0.47659391 0
1.0790972 1.1675434 -0.056759533 0
1.5780084 1.707347 0.41929206 0
1.5734214 1.702384 0.59143132 0
0.53431815 0.57811254 0.46685719 0
1.0448163 1.1594054 -0.055719886 0
1.5635438 1.7350239 0.42122045 0
1.5549754 1.7255157 0.59261805 0
0.52992374 0.58804256 0.46945024 0
1.0438627 1.1880933 -0.056462411 0
1.560544 1.7761645 0.42640388 0
1.5526999 1.7672366 0.60018432 0
1.023856 1.1953467 -0.056189962 0
1.5488679 1.8082955 0.42940128 0
1.5403204 1.7983162 0.60410434 0
1.0059251 1.2047913 -0.056034051 0
0.57886881 0.69330817 0.032245308 0
1.5390205 1.843277 0.43307176 0
1.5385199 1.8426774 0.61244988 0
0.98299491 1.2079234 -0.055599622 0
1.5252985 1.8743168 0.43581733 0
1.5229988 1.871491 0.61560369 0
0.97957695 1.2351708 -0.056281563 0
1.5070835 1.900316 0.43741536 0
1.51811 1.9142196 0.62332124 0
0.95821446 1.2399888 -0.055946864 0
1.4933758 1.9325206 0.44046479 0
1.4799868 1.9151944 0.61752123 0
0.94506413 1.2553276 -0.056097548 0
1.4729104 1.9564652 0.44165996 0
1.4801972 1.9661443 0.62788957 0
0.91794348 1.2518001 -0.055418979 0
1.4628035 1.9948261 0.44612613 0
1.4605472 1.9917492 0.63014317 0
0.91115415 1.2759252 -0.055974644 0
1.4400218 2.0165193 0.4468869 0
1.445182 2.0237453 0.6344583 0
0.89876872 1.2926933 -0.056209311 0
1.423153 2.046912 0.44961521 0
1.4283983 2.054456 0.63839674 0
0.87331039 1.2904452 -0.055628978 0
1.4026678 2.0726492 0.45135307 0
1.4033453 2.0736504 0.6388194 0
0.86016935 1.3061625 -0.055835173 0
1.4426717 2.1906891 0.093646467 0
1.4428799 2.1910052 0.28193864 0
1.3863698 2.105195 0.45460275 0
1.3858906 2.1044672 0.64288586 0
0.84619218 1.3208499 -0.056003086 0
1.4009742 2.1868277 0.092719927 0
1.4046791 2.192611 0.27984697 0
1.3548493 2.11483 0.45296332 0
1.3642154 2.1294496 0.64521867 0
0.83050221 1.3330181 -0.056071158 0
1.3742096 2.205709 0.092779435 0
1.3725938 2.2031155 0.27895957 0
1.3369714 2.1459389 0.45598435 0
1.3474832 2.162811 0.65013438 0
0.81804568 1.3506234 -0.056373931 0
1.3512378 2.230943 0.093117766 0
1.3471818 2.2242465 0.27946505 0
1.3202623 2.1798015 0.45961067 0
1.3236725 2.1854317 0.6518721 0
0.79646122 1.3531481 -0.056056257 0
1.3336562 2.2658157 0.093864933 0
1.3256918 2.2522845 0.28086817 0
1.294428 2.1991689 0.46022099 0
1.2993183 2.2074773 0.65351576 0
0.7786178 1.3617706 -0.056002852 0
1.2742219 2.2285616 0.46297756 0
1.2664595 2.2149856 0.65096575 0
0.76329947 1.3748702 -0.056141846 0
1.2474109 2.2468615 0.46347928 0
1.2516739 2.25454 0.65790617 0
0.74258345 1.3781655 -0.055890143 0
1.2255554 2.2745163 0.4659636 0
1.2187716 2.2619262 0.65553111 0
0.72797394 1.3927674 -0.056106109 0
1.1944876 2.2853062 0.46505576 0
1.1977007 2.2914536 0.65966535 0
0.70890379 1.3989108 -0.055989549 0
1.1725699 2.3138831 0.46782935 0
1.1696759 2.3081725 0.66018593 0
0.68974853 1.4047014 -0.055869255 0
1.1395401 2.3207204 0.46627355 0
1.1453596 2.332572 0.66298699 0
0.66645926 1.4016075 -0.055408031 0
1.1159074 2.3468266 0.46865836 0
1.1179677 2.3511593 0.6642161 0
0.65046579 1.4135983 -0.055553842 0
1.085155 2.358269 0.4681775 0
1.0822111 2.3518713 0.66051507 0
0.63523287 1.4275589 -0.055783711 0
1.053822 2.3682542 0.46748832 0
1.0566243 2.3745518 0.66309547 0
0.62332207 1.449664 -0.056336321 0
1.0298152 2.3950477 0.47018024 0
1.0257796 2.3856618 0.66253841 0
0.59668845 1.4373289 -0.055560563 0
0.99203211 2.3896499 0.46663123 0
0.99952763 2.4077053 0.66511214 0
0.58141541 1.4518999 -0.055836372 0
0.96851331 2.4185536 0.46985662 0
0.9725073 2.4285271 0.66742826 0
0.5604775 1.4523407 -0.055577502 0
0.94286752 2.4432111 0.47230288 0
0.93911374 2.4334838 0.66548771 0
0.54339141 1.4626338 -0.055705134 0
0.91071862 2.45136 0.47162387 0
0.90589142 2.4383667 0.66365087 0
0.52505004 1.4696903 -0.055717662 0
0.87752587 2.4563208 0.47041506 0
0.87693024 2.4546533 0.66502547 0
0.50857627 1.4822267 -0.055945706 0
0.84293652 2.456707 0.4684191 0
0.84576815 2.4649599 0.66487962 0
0.49287239 1.4976268 -0.056288257 0
0.80936372 2.4593077 0.46693468 0
0.81249994 2.4688373 0.66311324 0
0.47234598 1.4985414 -0.056094635 0
0.77912199 2.4718037 0.46740746 0
0.78287607 2.4837136 0.6644085 0
0.45021507 1.4936705 -0.055695672 0
0.74860358 2.4836285 0.46782386 0
0.74624938 2.4758179 0.65973032 0
0.43574369 1.5144135 -0.056260075 0
0.71471572 2.4839718 0.46615636 0
0.71756983 2.4938915 0.66208607 0
0.41619438 1.5181514 -0.056199789 0
0.55888444 2.0386417 0.075467594 0
0.68516374 2.4992704 0.46737117 0
0.68121129 2.484853 0.6573571 0
0.39866576 1.5294856 -0.056429055 0
0.52284473 2.0058997 0.074005939 0
0.64890003 2.489512 0.46398154 0
0.6523748 2.5028431 0.65989077 0
0.37447447 1.5145595 -0.055699982 0
0.48394734 1.9573218 0.071983166 0
0.61655688 2.4936602 0.46327093 0
0.61787087 2.4989746 0.65676737 0
0.35367534 1.5118903 -0.055433638 0
0.45804605 1.9580539 0.071792282 0
0.58476359 2.4997458 0.46299684 0
0.58624011 2.5060575 0.65663677 0
0.33701867 1.5271345 -0.055832542 0
0.42262238 1.9150312 0.070014171 0
0.55369031 2.50894 0.46337163 0
0.55189943 2.5008249 0.65339297 0
0.3181738 1.5332342 -0.055904638 0
0.39098918 1.8841212 0.068698645 0
0.52126735 2.5119133 0.46267182 0
0.51828468 2.4975402 0.650778 0
0.30163094 1.5514573 -0.056426123 0
0.35967478 1.8500094 0.06728439 0
0.48609462 2.5002575 0.45936111 0
0.48574173 2.4984424 0.64936787 0
0.27918476 1.5392125 -0.055848494 0
0.32837042 1.8103849 0.065687664 0
0.45334354 2.4993916 0.45811686 0
0.45239207 2.4941459 0.64671928 0
0.26065132 1.5477674 -0.056035366 0
0.30073473 1.7857857 0.064652577 0
0.30027476 1.7830542 0.19432184 0
0.42062348 2.4976943 0.4567987 0
0.42055601 2.4972935 0.64611107 0
0.14388242 0.85438472 0.43350241 0
0.24144176 1.5528519 -0.056104928 0
0.27416328 1.7633032 0.063708581 0
0.27311689 1.7565732 0.19104591 0
0.38449508 2.4729109 0.45134488 0
0.38514003 2.4770589 0.63957042 0
0.13504991 0.86858428 0.43980932 0
0.2217457 1.554895 -0.056073416 0
0.24772839 1.7370872 0.062643729 0
0.25037545 1.7556485 0.19058734 0
0.35375404 2.480546 0.45188954 0
0.3528451 2.4741724 0.63762736 0
0.12248203 0.85885179 0.43406591 0
0.20074904 1.5467685 -0.055684779 0
0.22079036 1.7011865 0.06124394 0
0.21998543 1.6949847 0.18368658 0
0.3208389 2.4720592 0.44957185 0
0.31935066 2.4605923 0.63304102 0
0.11141703 0.85846668 0.43312782 0
0.18038483 1.5417156 -0.055416703 0
0.19681637 1.682153 0.060464699 0
0.19668639 1.681042 0.18189278 0
0.28743905 2.4566879 0.44608283 0
0.2866962 2.4503388 0.62942445 0
0.10144607 0.86704069 0.43677461 0
0.1631548 1.5649312 -0.056172881 0
0.17258605 1.6553929 0.059419986 0
0.17260797 1.6556032 0.17889088 0
0.25636092 2.458936 0.44586951 0
0.25532734 2.4490221 0.62821054 0
0.093082182 0.89281595 0.44913292 0
0.14393218 1.5722651 -0.056366608 0
0.14897327 1.6273324 0.058340799 0
0.14927785 1.6306595 0.17597862 0
0.2234021 2.4403672 0.44195735 0
0.22477484 2.4553626 0.62906104 0
0.082674429 0.90310681 0.45375007 0
0.12278242 1.5569406 -0.055757362 0
0.12736346 1.6150303 0.05783768 0
0.12748241 1.6165385 0.17426765 0
0.1909084 2.4208107 0.43794554 0
0.19244738 2.440326 0.6245383 0
0.10400327 1.5709658 -0.056208279 0
0.10539524 1.5919913 0.05696056 0
0.10535875 1.5914403 0.17140538 0
0.16075203 2.4281538 0.43887299 0
0.16000535 2.4168751 0.61797202 0
0.083540961 1.5595739 -0.055758625 0
0.086590141 1.616497 0.057793766 0
0.086117677 1.607677 0.17302363 0
0.12897256 2.4077079 0.4348495 0
0.12882343 2.4049237 0.61445272 0
0.064087167 1.5651362 -0.055924203 0
0.06622389 1.6173192 0.057788767 0
0.066077918 1.6137544 0.17357439 0
0.097365014 2.3778474 0.42920104 0
0.09786009 2.3899381 0.61026067 0
0.044182427 1.5590194 -0.055681352 0
0.038688313 1.3651544 0.048757341 0
0.04662405 1.6451745 0.17687674 0
0.066930853 2.3617194 0.42610401 0
0.067269832 2.3736808 0.60584509 0
0.024871547 1.5799428 -0.056412984 0
0.021116173 1.341386 0.047895141 0
0.026223892 1.6658493 0.17904983 0
0.036927309 2.3457742 0.42310974 0
0.037092689 2.3562799 0.60123694 0
0.0049509071 1.5721043 -0.056126431 0
0.0042345561 1.3446352 0.048005451 0
0.0053096786 1.6860282 0.18119717 0
0.0073449234 2.3322971 0.42062879 0
0.0073393802 2.3305368 0.59459752 0
-0.01478998 1.5663019 -0.055921491 0
-0.012748148 1.3500659 0.048201244 0
-0.016125338 1.7077202 0.18353568 0
-0.021871665 2.316273 0.41775542 0
-0.021884194 2.3175998 0.59132028 0
-0.034541696 1.5674096 -0.055972133 0
-0.030066648 1.364344 0.048720665 0
-0.038019799 1.7252365 0.18545498 0
-0.050253738 2.28038 0.41136339 0
-0.050171934 2.2766681 0.58099192 0
-0.054474488 1.5726228 -0.056178331 0
-0.047572486 1.373369 0.049060453 0
-0.060591292 1.7492086 0.18809897 0
-0.078705639 2.2721512 0.41002527 0
-0.078420617 2.2639229 0.57794565 0
-0.074624248 1.5792797 -0.05644523 0
-0.084004112 1.7777865 0.063540086 0
-0.083801202 1.7734923 0.19080864 0
-0.10643982 2.2525954 0.40670592 0
-0.10605946 2.2445459 0.57329446 0
-0.042480424 0.89901698 0.37264067 0
-0.093530864 1.5619738 -0.055864364 0
-0.10722345 1.7906413 0.06404271 0
-0.10760711 1.7970484 0.19347347 0
-0.13326658 2.225564 0.40209651 0
-0.13322961 2.2249463 0.56867182 0
-0.05358059 0.89480066 0.37114322 0
-0.11358342 1.5660888 -0.056058247 0
-0.13127318 1.8099952 0.064788893 0
-0.15983641 2.203825 0.39850092 0
-0.15990207 2.2047305 0.5639748 0
-0.063378952 0.87386924 0.36276361 0
-0.065781772 0.90699935 0.45500022 0
-0.13349938 1.5669525 -0.056144886 0
-0.15725775 1.8458169 0.06613677 0
-0.1865945 2.1901579 0.39642301 0
-0.18668754 2.1912498 0.56108326 0
-0.074565433 0.87521368 0.36368269 0
-0.077061862 0.90451556 0.45420501 0
-0.15182263 1.550887 -0.05563334 0
-0.1823433 1.8626595 0.066817224 0
-0.21233775 2.1690564 0.39305645 0
-0.20986885 2.1438365 0.54957592 0
-0.086087897 0.87939858 0.36584312 0
-0.17211196 1.5558475 -0.0558846 0
-0.21029803 1.9010398 0.068283588 0
-0.23735626 2.1456392 0.38932371 0
-0.23683996 2.1409721 0.54956257 0
-0.097737372 0.88352054 0.36804074 0
-0.19198705 1.5559782 -0.05597169 0
-0.23784676 1.927653 0.069341585 0
-0.26219279 2.1249678 0.38614139 0
-0.2599836 2.1070631 0.5416559 0
-0.10840668 0.87859279 0.36652759 0
-0.10636473 0.86204362 0.4345859 0
-0.21240269 1.5595995 -0.056193713 0
-0.26647446 1.95663 0.070499063 0
-0.2854934 2.0962796 0.38155127 0
-0.283472 2.0814371 0.53594345 0
-0.11741784 0.86215866 0.36025992 0
-0.11685002 0.85798937 0.43324944 0
-0.23120023 1.5512804 -0.055994425 0
-0.29634893 1.9884074 0.071772791 0
-0.30831197 2.0686758 0.37720373 0
-0.30702195 2.06002 0.53138214 0
-0.30674016 2.0581295 0.69229066 0
-0.12750193 0.85549766 0.35811907 0
-0.12976705 0.87069577 0.44045588 0
-0.24998376 1.5437343 -0.055831242 0
-0.3278794 2.0247664 0.073228419 0
-0.33210221 2.0508435 0.37468502 0
-0.32694954 2.0190239 0.52182788 0
-0.32886183 2.030833 0.68444765 0
-0.13793321 0.85178429 0.35726339 0
-0.13827215 0.85387731 0.43279448 0
-0.27099448 1.5495735 -0.056161389 0
-0.35680786 2.0402632 0.073945515 0
-0.35455611 2.0273874 0.3711859 0
-0.35245636 2.0153809 0.52199197 0
-0.35347152 2.0211856 0.68264216 0
-0.1499587 0.85747892 0.43554255 0
-0.28961936 1.5414367 -0.05599422 0
-0.38651684 2.0571527 0.074728116 0
-0.38730174 2.0613303 0.22540607 0
-0.37911519 2.0177591 0.37026775 0
-0.37539566 1.9979626 0.51866376 0
-0.37253234 1.9827232 0.67118287 0
-0.15954655 0.84915221 0.43229932 0
-0.30890599 1.5371754 -0.05597629 0
-0.40399259 2.0103445 0.07320676 0
-0.40401691 2.0104656 0.22038287 0
-0.39685598 1.9748315 0.36327857 0
-0.39581314 1.969642 0.51256508 0
-0.39630631 1.9720961 0.6692217 0
-0.17299087 0.86083573 0.43932149 0
-0.32774493 1.5308684 -0.055892475 0
-0.42454019 1.9829907 0.072399601 0
-0.42744702 1.9965684 0.21943212 0
-0.41913918 1.9577632 0.36108106 0
-0.41617319 1.9439092 0.50719213 0
-0.41573679 1.9418709 0.66068906 0
-0.18280844 0.85388255 0.43691316 0
-0.35107577 1.5445764 -0.056549877 0
-0.45012715 1.9803582 0.072504684 0
-0.4469175 1.9662372 0.2166999 0
-0.43845859 1.9290218 0.35677016 0
-0.43576548 1.9171733 0.50160825 0
-0.43933144 1.9328619 0.65945387 0
-0.36793154 1.5293739 -0.056158457 0
-0.47397682 1.97017 0.072344452 0
-0.47299829 1.9661026 0.21732426 0
-0.46389309 1.9282552 0.35768038 0
-0.45876062 1.9069213 0.50039774 0
-0.45612153 1.8959514 0.64876884 0
-0.38761872 1.52643 -0.056225132 0
-0.5027771 1.97992 0.072929166 0
-0.4980337 1.9612408 0.21746281 0
-0.48151541 1.8961922 0.35282961 0
-0.47711384 1.8788589 0.49457121 0
-0.48065713 1.8928123 0.64971429 0
-0.40603098 1.5185239 -0.056117795 0
-0.53143346 1.9875195 0.073449753 0
-0.53360152 1.9956279 0.2220031 0
-0.50448912 1.8867496 0.35222673 0
-0.50206316 1.8776767 0.49588484 0
-0.4998087 1.8692453 0.64373416 0
-0.4231948 1.5064422 -0.055863813 0
-0.52217627 1.8587854 0.34820616 0
-0.523597 1.8638428 0.49393347 0
-0.51657367 1.8388419 0.63545352 0
-0.44254646 1.5024108 -0.055916537 0
-0.54163736 1.8388166 0.34571567 0
-0.536861 1.8226013 0.48475721 0
-0.53798538 1.8264186 0.63345122 0
-0.45838353 1.4868425 -0.055547539 0
-0.56375468 1.828631 0.345108 0
-0.56114405 1.8201632 0.48594961 0
-0.55454952 1.7987728 0.62623513 0
-0.47860759 1.4857314 -0.055726763 0
-0.58518571 1.8165796 0.34419698 0
-0.5749805 1.7848997 0.47842997 0
-0.57602358 1.7881377 0.62500829 0
-0.50150102 1.4921559 -0.056200143 0
-0.76898748 2.2880297 0.086175703 0
-0.60978425 1.8143395 0.34520006 0
-0.59703082 1.7763933 0.47812712 0
-0.59423339 1.76807 0.62056023 0
-0.52219158 1.4912698 -0.056409959 0
-0.79937792 2.282856 0.086353123 0
-0.63147861 1.8033707 0.34459871 0
-0.61033535 1.7429899 0.47116765 0
-0.61146468 1.7462151 0.61554325 0
-0.53738987 1.4748687 -0.056041081 0
-0.81825757 2.2457113 0.085331045 0
-0.65530109 1.7984765 0.34521291 0
-0.63166636 1.7336109 0.47074512 0
-0.63333821 1.7381994 0.61548012 0
-0.55685163 1.4704517 -0.056135237 0
-0.85935771 2.2692652 0.086630337 0
-0.67452139 1.7811767 0.34349537 0
-0.64538884 1.7042477 0.46494177 0
-0.65215719 1.7221206 0.61264604 0
-0.57424307 1.4605789 -0.056029938 0
-0.88344938 2.2470405 0.08619976 0
-0.69935745 1.7788055 0.34470904 0
-0.66609311 1.694198 0.46445149 0
-0.67030144 1.7049019 0.6094749 0
-0.59246832 1.452939 -0.056018617 0
-0.95644403 2.3455346 0.090432979 0
-0.72358561 1.7744845 0.34560999 0
-0.68863469 1.6887726 0.46530446 0
-0.6856482 1.6814487 0.60412931 0
-0.61598438 1.4578334 -0.056501903 0
-0.99347985 2.3512418 0.091128126 0
-0.74719071 1.768356 0.34622145 0
-0.6995061 1.655502 0.45852807 0
-0.70589775 1.6706289 0.60338771 0
-0.62695915 1.4332006 -0.055848751 0
-0.95139915 2.1748559 0.084749468 0
-0.76286471 1.7438747 0.34328187 0
-0.71928865 1.6442618 0.4578872 0
-0.72028595 1.6465416 0.59791642 0
-0.65086639 1.4382552 -0.056360625 0
-0.98821652 2.1837163 0.085572861 0
-0.78653234 1.7380437 0.3440564 0
-0.73568374 1.6256807 0.45525649 0
-0.735632 1.6255664 0.59361631 0
-0.66360456 1.4185743 -0.055912416 0
-0.81225902 1.7363501 0.34571841 0
-0.75199294 1.6075205 0.45278674 0
-0.75481075 1.613544 0.59265 0
-0.6785233 1.4041253 -0.055675264 0
-0.83236098 1.7224746 0.34501526 0
-0.77324378 1.6001384 0.45341408 0
-0.77356207 1.6007971 0.59149897 0
-0.69902736 1.4012401 -0.055905454 0
-0.85183215 1.707546 0.34414631 0
-0.78376007 1.5710917 0.44794446 0
-0.78637594 1.5763353 0.58607268 0
-0.72279137 1.4043272 -0.056387272 0
-0.87674934 1.7034554 0.34551957 0
-0.8058126 1.5656309 0.44924498 0
-0.79903275 1.5524582 0.58089012 0
-0.73500723 1.3849231 -0.05597534 0
-0.89470011 1.6858214 0.34420067 0
-0.81627047 1.5380419 0.44424269 0
-0.81886053 1.5429221 0.58113408 0
-0.75454515 1.3795048 -0.056135915 0
-0.91065395 1.6649122 0.34224573 0
-0.84291571 1.541069 0.44814727 0
-0.84148914 1.538461 0.58339858 0
-0.76453954 1.3569113 -0.055603873 0
-0.93590724 1.661056 0.34384838 0
-0.84564763 1.5008626 0.4395169 0
-0.84337097 1.496822 0.57159054 0
-0.78251261 1.3488122 -0.055671353 0
-0.96006459 1.6548575 0.34504044 0
-0.87268794 1.5042468 0.44369084 0
-0.8666203 1.4937881 0.57455367 0
-0.80504185 1.3482447 -0.056061894 0
-0.98262173 1.6456467 0.34567243 0
-0.88202244 1.477168 0.43894491 0
-0.88233352 1.477689 0.57258952 0
-0.82551229 1.3437935 -0.056304585 0
-0.99719959 1.6232712 0.34358278 0
-0.90598834 1.4747947 0.44159472 0
-0.89700532 1.4601721 0.57013345 0
-0.83471757 1.3211856 -0.0557933 0
-1.0251402 1.6225852 0.34614241 0
-0.91679043 1.45109 0.43791884 0
-0.91378522 1.4463334 0.56917775 0
-0.85740662 1.3199924 -0.056194399 0
-1.0407653 1.6022763 0.34457844 0
-0.93227136 1.435248 0.4366461 0
-0.92968559 1.4312671 0.56781071 0
-0.86945546 1.3023462 -0.055904828 0
-1.0625026 1.5915092 0.34511283 0
-0.94464582 1.4149729 0.43406227 0
-0.95220006 1.4262882 0.57054704 0
-0.89279592 1.3015165 -0.056347333 0
-1.0758904 1.5684314 0.3430191 0
-0.95472544 1.3917973 0.43060666 0
-0.96389103 1.4051589 0.56690514 0
-0.90572244 1.2853606 -0.056137197 0
-1.098115 1.5583953 0.34382108 0
-0.97817194 1.3881776 0.43326327 0
-0.98891962 1.4034302 0.57118642 0
-0.91206503 1.2603538 -0.055542238 0
-1.1186178 1.5457826 0.3441188 0
-0.99750495 1.3784205 0.43410391 0
-0.99531293 1.3753915 0.56483102 0
-0.92837739 1.2494634 -0.055573083 0
-1.1399356 1.5341905 0.34470639 0
-1.0097111 1.358927 0.43193474 0
-1.0051973 1.3528521 0.56072837 0
-0.95613086 1.2535318 -0.056285076 0
-1.1542053 1.5132166 0.34323224 0
-1.0210973 1.3387058 0.42956024 0
-1.0272931 1.3468287 0.56354886 0
-0.97001415 1.2390631 -0.056179415 0
-0.58876729 0.75207132 0.034099091 0
-0.59289825 0.75734806 0.1033665 0
-0.58535093 0.74770743 0.1712555 0
-1.042406 1.331534 0.43143672 0
-1.0413381 1.3301699 0.56202048 0
-0.97958398 1.2193394 -0.055839982 0
-0.59300154 0.73813999 0.033803325 0
-0.59744269 0.74366814 0.10251805 0
-0.59898746 0.74559098 0.17248464 0
-1.0520688 1.3095649 0.42857692 0
-1.0575985 1.3164481 0.56180513 0
-0.49093872 0.6110971 0.46487561 0
-0.99461406 1.206611 -0.055826217 0
-0.60429108 0.73309267 0.033917967 0
-0.60177642 0.73004204 0.1016762 0
-0.60282874 0.73131865 0.17092542 0
-1.0697109 1.2977144 0.42907286 0
-1.0652753 1.2923332 0.55719435 0
-1.0158362 1.2012149 -0.056163933 0
-0.60993689 0.72124356 0.10151244 0
-0.62484646 0.73887396 0.17451639 0
-1.0906254 1.2896525 0.43091393 0
-1.0792755 1.2762312 0.55606741 0
-1.0310539 1.188529 -0.056173384 0
-0.6191867 0.71375644 0.10154799 0
-0.62311697 0.71828705 0.17149359 0
-1.0996233 1.2675713 0.4281286 0
-1.0938641 1.2609323 0.55535907 0
-1.0399307 1.1687024 -0.055850796 0
-0.6262849 0.70383602 0.10125057 0
-0.62963718 0.70760339 0.17082226 0
-1.1016514 1.2380658 0.42281488 0
-1.1088272 1.2461302 0.55494529 0
-1.1191751 1.2577593 0.69707119 0
-0.52018076 0.5845933 0.46407181 0
-1.0560198 1.1571113 -0.055927917 0
-0.63793534 0.69900411 0.101703 0
-0.6329568 0.69354898 0.16934007 0
-1.1254816 1.2332227 0.42596713 0
-1.1213605 1.2287071 0.55343056 0
-1.130232 1.2384279 0.69419003 0
-0.53302872 0.58405495 0.46893546 0
-1.0758768 1.1494617 -0.05620854 0
-0.65324187 0.69792056 0.10273402 0
-0.63898444 0.68268794 0.16863942 0
-1.1368835 1.214641 0.42446002 0
-1.1411755 1.2192265 0.55558878 0
-1.1564447 1.23554 0.70067847 0
-0.55418098 0.59208435 0.48094705 0
-1.0786414 1.123715 -0.055609304 0
-0.58735752 0.61190164 0.35117778 0
-0.58163702 0.60594213 0.4202463 0
-0.57020766 0.59403515 0.48832539 0
-1.1036631 1.1211767 -0.056166984 0
-0.586537 0.59584457 0.4183324 0
-0.56478184 0.57374418 0.47745365 0
-1.1170585 1.1065633 -0.056135122 0
-0.58270067 0.57722598 0.41037962 0
-0.59125084 0.5856958 0.49355596 0
-1.1243705 1.0861003 -0.055810869 0
-0.60715014 0.58648461 0.34950998 0
-0.61957091 0.59848261 0.43100455 0
-1.152845 1.0858806 -0.056541067 0
-0.62934697 0.59279054 0.35796231 0
-0.62018806 0.58416367 0.42628294 0
-1.1520743 1.0580977 -0.05584538 0
-0.71023756 0.65230227 0.10363605 0
-0.69800735 0.64106965 0.17092115 0
-1.2320763 1.1315738 0.42680097 0
-1.2325519 1.1320106 0.55676669 0
-1.2277777 1.1276258 0.69020897 0
-1.168048 1.0459634 -0.055976793 0
-0.69784766 0.62490851 0.10067195 0
-0.70549196 0.6317538 0.17079237 0
-1.2559783 1.1247033 0.4301407 0
-1.2493742 1.1187893 0.55795753 0
-1.2430587 1.113134 0.69086486 0
-1.1800827 1.0302631 -0.055927381 0
-0.71737599 0.62630016 0.10234329 0
-0.71773195 0.62661093 0.17183174 0
-1.2559164 1.0964692 0.42535722 0
-1.2665459 1.1057492 0.55936366 0
-1.1869081 1.0101708 -0.055643596 0
-0.7179473 0.61104089 0.10131906 0
-0.72297692 0.61532158 0.17121886 0
-1.2748773 1.0850409 0.42711765 0
-1.2753471 1.0854408 0.55717003 0
-1.2082587 1.0023849 -0.056048349 0
-0.71819931 0.59582609 0.10028786 0
-0.72773439 0.60373652 0.1705316 0
-1.2870905 1.0677845 0.42667088 0
-1.2983794 1.07715 0.56126219 0
-1.2205746 0.9869225 -0.056038726 0
-0.73537225 0.59460145 0.10163228 0
-0.72420847 0.58557475 0.16796416 0
-1.3118964 1.0607628 0.43043196 0
-1.3054045 1.0555136 0.55850917 0
-1.2372233 0.97487885 -0.05623503 0
-0.74577481 0.5876385 0.033897411 0
-0.75248992 0.59292972 0.10295799 0
-0.7489813 0.59016508 0.17197245 0
-1.321195 1.041045 0.42914775 0
-1.3215681 1.0413389 0.55977011 0
-1.2515097 0.96084303 -0.05632998 0
-0.74548286 0.57234234 0.033553902 0
-0.75244224 0.57768542 0.10194808 0
-0.75762093 0.58166134 0.17226079 0
-1.3381165 1.0273353 0.43040806 0
-1.3276027 1.0192633 0.55684566 0
-1.2640064 0.9453811 -0.056352172 0
-0.77576828 0.58021599 0.03458545 0
-0.77535397 0.57990605 0.10405475 0
-0.75668532 0.56594336 0.17041421 0
-1.3448995 1.0058831 0.42848173 0
-1.3515482 1.0108558 0.56150579 0
-1.2602326 0.91804338 -0.055664137 0
-0.77216917 0.5625031 0.034106504 0
-0.7717272 0.56218112 0.10260986 0
-0.7714839 0.56200391 0.17213957 0
-1.3714457 0.99905884 0.43289682 0
-1.3676552 0.99629754 0.56294072 0
-1.2753527 0.90469956 -0.055824373 0
-0.77341038 0.54863566 0.033853497 0
-0.78797269 0.55896574 0.10382579 0
-0.77677858 0.55102503 0.17175916 0
-1.3724772 0.97359699 0.42931864 0
-1.3796051 0.97865325 0.56274235 0
-1.2966596 0.89548725 -0.056258973 0
-0.78875601 0.54472351 0.034222245 0
-0.78597909 0.54280573 0.10265435 0
-0.79884893 0.5516938 0.17508928 0
-1.400879 0.9674623 0.4343577 0
-1.4084817 0.97271281 0.56947982 0
-1.3023212 0.87538552 -0.056021914 0
-0.79444486 0.53400457 0.03417461 0
-0.80369633 0.54022318 0.10407162 0
-0.79961926 0.53748268 0.17376094 0
-1.4191408 0.9539085 0.436261 0
-1.4183803 0.95339727 0.56858289 0
-1.3208702 0.86390865 -0.056347404 0
-0.80288166 0.52512085 0.034250375 0
-0.80158639 0.52427369 0.10293537 0
-0.81043422 0.53006059 0.17464681 0
-1.4239837 0.93134958 0.43411008 0
-1.4338268 0.93778741 0.56999594 0
-1.3258247 0.84350717 -0.056101207 0
-0.814349 0.51809949 0.034458522 0
-0.81821138 0.52055681 0.10422025 0
-0.81115019 0.51606441 0.17338696 0
-1.4542407 0.92520702 0.43974754 0
-1.4447948 0.91919738 0.5697096 0
-1.3473399 0.83355147 -0.056562975 0
-0.82681692 0.51152235 0.034710787 0
-0.82226098 0.50870377 0.1039119 0
-0.82459539 0.51014799 0.17487393 0
-1.458567 0.90236378 0.43758512 0
-1.4557188 0.90060169 0.56950021 0
-1.3268131 0.79792869 -0.055275045 0
-0.83664322 0.50314665 0.034854561 0
-0.82956558 0.49889028 0.10403287 0
-0.8393687 0.50478572 0.17664494 0
-1.4706696 0.88444215 0.43784007 0
-1.48076 0.89051038 0.57486421 0
-1.3497264 0.78873944 -0.05581142 0
-0.91076308 0.53222251 0.037660211 0
-0.89440393 0.5226627 0.11132983 0
-0.90058458 0.52627444 0.18811823 0
-1.4938277 0.87294787 0.44142699 0
-1.4836159 0.86698037 0.57168931 0
-1.3644446 0.77446008 -0.056012329 0
-0.97117031 0.55123717 0.039867874 0
-0.96973318 0.55042148 0.11983411 0
-1.5126197 0.85856438 0.31367978 0
-1.5073534 0.85557526 0.44220519 0
-1.5171363 0.86112803 0.58038151 0
-1.3780608 0.75940806 -0.056174278 0
-1.0439289 0.57527792 0.042553961 0
-1.0561625 0.58201951 0.12959862 0
-1.526987 0.84147674 0.31443691 0
-1.5315081 0.84396821 0.44613823 0
-1.5337279 0.84519154 0.58261102 0
-1.3862249 0.74130726 -0.056122106 0
-1.1525406 0.6163407 0.046661269 0
-1.1450996 0.61236149 0.13955458 0
-1.5326493 0.81961024 0.31345281 0
-1.5411874 0.82417619 0.44589934 0
-1.5435601 0.82544506 0.58235145 0
-1.3872005 0.71951598 -0.055790372 0
-1.2514006 0.64907902 0.05032878 0
-1.2542895 0.65057743 0.15185124 0
-1.5581149 0.80816621 0.31655458 0
-1.5690259 0.81382549 0.45095289 0
-1.5516983 0.80483806 0.58155209 0
-1.3970798 0.70245987 -0.055827525 0
-1.3843986 0.69608366 0.055320777 0
-1.3843318 0.69605011 0.16652057 0
-1.5790577 0.79395938 0.31875297 0
-1.579109 0.79398519 0.45094159 0
-1.5722917 0.79055738 0.58549279 0
-1.4075501 0.68565899 -0.055896472 0
-1.5423814 0.75133932 0.061250877 0
-1.5333477 0.74693871 0.18329968 0
-1.5872203 0.77318168 0.3184101 0
-1.57841 0.7688899 0.44794163 0
-1.4298247 0.67436838 -0.05643934 0
-1.6447279 0.7757262 0.19543111 0
-1.6083574 0.75857228 0.32070875 0
-1.6107005 0.75967735 0.45435464 0
-1.4345391 0.65463996 -0.056295577 0
-1.6308657 0.744232 0.19265515 0
-1.6211916 0.73981726 0.32138482 0
-1.6200552 0.73929864 0.4543314 0
-1.4434606 0.63687515 -0.056326505 0
-1.6471273 0.72673577 0.19347976 0
-1.6385676 0.72295904 0.32299909 0
-1.6443889 0.72552752 0.45855713 0
-1.4368423 0.6124593 -0.05576288 0
-1.6668848 0.71051574 0.19473419 0
-1.6634814 0.70906502 0.32612425 0
-1.6588234 0.70707953 0.46006298 0
-1.4385536 0.59189719 -0.055535633 0
-1.694399 0.69716555 0.19690733 0
-1.6703975 0.68729001 0.32575762 0
-1.6670831 0.68592632 0.45992181 0
-1.4659026 0.58167732 -0.056304216 0
-1.6980093 0.67377841 0.19632535 0
-1.6841255 0.66826928 0.32676789 0
-1.6943049 0.6723085 0.4650594 0
-1.4654056 0.56022817 -0.056009725 0
-1.7313523 0.66190022 0.19920103 0
-1.7201375 0.6576128 0.33212218 0
-1.728869 0.66095084 0.47222474 0
-1.4732161 0.54205358 -0.056042925 0
-1.7376199 0.63933808 0.19898009 0
-1.7345797 0.63821948 0.33333251 0
-1.7294109 0.63631767 0.47014692 0
-1.4718252 0.52059633 -0.055736218 0
-1.7432945 0.6166172 0.19872501 0
-1.7506123 0.61920553 0.33488858 0
-1.7576606 0.62169862 0.4756608 0
-1.4830339 0.50364304 -0.055916082 0
-2.0281079 0.68875188 0.076467469 0
-1.764228 0.59913743 0.20023541 0
-1.7623187 0.59848911 0.33565971 0
-1.7784204 0.6039573 0.47918275 0
-1.4803665 0.48203474 -0.055582244 0
-1.9748198 0.64303792 0.074147128 0
-1.7768189 0.57856512 0.20082165 0
-1.7985579 0.58564377 0.34113035 0
-1.7881829 0.58226544 0.47979954 0
-1.4782426 0.46083927 -0.055280242 0
-1.9462466 0.60673863 0.072781682 0
-1.8006985 0.56136429 0.20270559 0
-1.7877088 0.55731475 0.33771479 0
-1.491148 0.44434136 -0.055549208 0
-1.9302613 0.57519096 0.071907334 0
-1.8284608 0.54485589 0.20504221 0
-1.8213112 0.54272544 0.34274441 0
-1.5172943 0.43140775 -0.056316391 0
-1.8825474 0.53525907 0.069873244 0
-1.8409384 0.5234285 0.20568602 0
-1.8446418 0.52448148 0.34586462 0
-1.5074598 0.4081679 -0.055756181 0
-1.8779788 0.50849164 0.069460511 0
-1.8663522 0.50534356 0.20779802 0
-1.85497 0.50226164 0.34658778 0
-1.5162914 0.39013556 -0.055896699 0
-1.8913015 0.48662412 0.069721103 0
-1.8870682 0.48553488 0.20940718 0
-1.8821456 0.48426834 0.3504982 0
-1.5147905 0.36947775 -0.055665445 0
-1.9145488 0.46698415 0.070355743 0
-1.8996338 0.46334618 0.21013747 0
-1.9021785 0.46396688 0.35311282 0
-1.5314379 0.35316935 -0.056109328 0
-1.9195209 0.44266629 0.070328042 0
-1.9363189 0.44654012 0.21355663 0
-1.9278406 0.44458494 0.35680908 0
-1.5323387 0.33311424 -0.05598421 0
-1.9600154 0.42608663 0.071609437 0
-1.932663 0.42014048 0.2125531 0
-1.9522107 0.42438996 0.36030191 0
-1.5310991 0.31270882 -0.055790633 0
-1.9557558 0.3994399 0.071264401 0
