# .PCD v0.7 - Point Cloud Data file format
VERSION 0.7
FIELDS x y z intensity
SIZE 4 4 4 4
TYPE F F F F
COUNT 1 1 1 1
WIDTH 1352
HEIGHT 1
VIEWPOINT 0 0 0 1 0 0 0
POINTS 1352
DATA ascii
-1.671625 -0.31953833 0.43420702 0
-1.671786 -0.31956908 0.56626391 0
-1.5368899 -0.31389153 -0.056001641 0
-0.94478095 -0.19296029 0.034426205 0
-0.94538301 -0.19308326 0.10369703 0
-0.94868249 -0.19375715 0.17462562 0
-1.6660386 -0.34026861 0.43383455 0
-1.6742051 -0.3419365 0.56849664 0
-1.5267681 -0.33190322 -0.055780686 0
-0.94782174 -0.20604642 0.034628801 0
-0.93256897 -0.20273063 0.10256337 0
-0.94683641 -0.20583223 0.17474905 0
-1.6761075 -0.36436802 0.43761653 0
-1.6771253 -0.3645893 0.57100195 0
-1.5336256 -0.35367388 -0.056189485 0
-0.9425047 -0.21735376 0.034531798 0
-0.94099808 -0.21700631 0.1037827 0
-0.95071167 -0.21924639 0.17595986 0
-1.6788127 -0.38715589 0.43956083 0
-1.6733948 -0.38590646 0.57134104 0
-1.5140533 -0.36929795 -0.055638354 0
-0.94689494 -0.23096038 0.034796447 0
-0.9472332 -0.23104289 0.10478292 0
-0.94211364 -0.22979416 0.17489021 0
-1.668336 -0.40692958 0.43812466 0
-1.6736575 -0.40822756 0.57314038 0
-1.5172427 -0.39038032 -0.055931766 0
-0.99102312 -0.25498617 0.036533162 0
-1.0017228 -0.25773916 0.11116077 0
-0.98943096 -0.25457653 0.1842545 0
-1.6743712 -0.43080884 0.44109923 0
-1.6788181 -0.43195298 0.57672453 0
-1.5143018 -0.41002047 -0.056009244 0
-1.060374 -0.28711253 0.039219886 0
-1.053241 -0.28518119 0.11726694 0
-1.6643499 -0.45064831 0.3109718 0
-1.6689417 -0.45189163 0.44113296 0
-1.6732868 -0.45306811 0.57673854 0
-1.507495 -0.42862156 -0.055952679 0
-1.1171445 -0.31763431 0.041464295 0
-1.1261562 -0.32019663 0.1258242 0
-1.6822101 -0.47829774 0.31540915 0
-1.6810794 -0.47797626 0.44589671 0
-1.6734463 -0.47580597 0.57881272 0
-1.504014 -0.44817525 -0.0560285 0
-1.2110728 -0.36088285 0.045115665 0
-1.2123843 -0.36127368 0.13595587 0
-1.6694577 -0.49747515 0.31416777 0
-1.6629392 -0.49553275 0.44270509 0
-1.6659577 -0.49643221 0.57833886 0
-1.4957075 -0.46628392 -0.055933353 0
-1.3050706 -0.40685326 0.048804317 0
-1.2992965 -0.40505317 0.1462625 0
-1.679585 -0.52360737 0.31728917 0
-1.6711671 -0.5209831 0.44660661 0
-1.6666178 -0.51956487 0.58079314 0
-1.4917645 -0.48574618 -0.056010205 0
-1.415063 -0.46077073 0.053130344 0
-1.4189368 -0.46203214 0.1603727 0
-1.6760159 -0.5457418 0.31788793 0
-1.6648206 -0.54209638 0.44669935 0
-1.6760898 -0.54576588 0.58644247 0
-1.4789873 -0.50226879 -0.055763509 0
-1.5533425 -0.52752006 0.058566988 0
-1.5431989 -0.52407527 0.17514917 0
-1.6799626 -0.5705207 0.31997377 0
-1.6806107 -0.57074076 0.45282859 0
-1.4712565 -0.52039516 -0.055714682 0
-1.7295539 -0.61175704 0.19715868 0
-1.6771655 -0.59322679 0.32083833 0
-1.6777591 -0.59343678 0.4540377 0
-1.4768026 -0.54337323 -0.056179363 0
-1.6883677 -0.6212163 0.19334009 0
-1.6730435 -0.61557794 0.32150719 0
-1.6675243 -0.61354721 0.45332286 0
-1.4629241 -0.5592795 -0.055914883 0
-1.6967458 -0.64867008 0.19521937 0
-1.6665142 -0.6371125 0.32176864 0
-1.6663836 -0.63706255 0.45515743 0
-1.4486221 -0.57482034 -0.055640485 0
-1.6757371 -0.66494071 0.19375023 0
-1.6699256 -0.66263461 0.32401267 0
-1.6729255 -0.66382504 0.45919108 0
-1.453375 -0.59799546 -0.056107815 0
-1.6795688 -0.69106358 0.1951839 0
-1.6860563 -0.69373286 0.32881138 0
-1.668774 -0.68662208 0.4603883 0
-1.4395682 -0.61362118 -0.055868667 0
-1.6821612 -0.71702737 0.19651885 0
-1.6620632 -0.70846051 0.32584623 0
-1.6806822 -0.71639693 0.46612537 0
-1.4404563 -0.6355496 -0.05620927 0
-1.6799223 -0.74120533 0.19733202 0
-1.6707977 -0.73717946 0.32935238 0
-1.6837051 -0.74287438 0.46952093 0
-1.4276296 -0.65148687 -0.056024428 0
-1.6794598 -0.76640749 0.19839559 0
-1.6739982 -0.76391512 0.33185318 0
-1.6718785 -0.7629478 0.46886483 0
-1.4143405 -0.66706532 -0.055828135 0
-1.671102 -0.78816539 0.19856496 0
-1.6785711 -0.79168814 0.33470944 0
-1.6669321 -0.78619868 0.47021675 0
-1.4112413 -0.68745714 -0.056043059 0
-1.9253786 -0.93790847 0.076460421 0
-1.6673137 -0.81219751 0.19931427 0
-1.6689281 -0.81298393 0.33480141 0
-1.6748211 -0.81585461 0.47530243 0
-1.3929801 -0.70039856 -0.055663701 0
-1.8772783 -0.94390649 0.075016335 0
-1.6719199 -0.84065109 0.2011144 0
-1.6727132 -0.84104991 0.33765852 0
-1.6799506 -0.84468895 0.47973865 0
-1.3943614 -0.72323018 -0.056078371 0
-1.8313062 -0.94986558 0.073651396 0
-1.6775281 -0.87010372 0.20309085 0
-1.674099 -0.86832505 0.3401185 0
-1.3824869 -0.73930842 -0.055970777 0
-1.7808263 -0.95232713 0.072097771 0
-1.6782196 -0.89745641 0.2045265 0
-1.6751837 -0.89583296 0.3426035 0
-1.3792776 -0.76007855 -0.056223877 0
-1.7381123 -0.95782167 0.070851155 0
-1.6821194 -0.92696565 0.20640796 0
-1.6698842 -0.92022318 0.3438623 0
-1.3712597 -0.7783283 -0.056292094 0
-1.6941565 -0.96160489 0.069547452 0
-1.6719817 -0.94901842 0.20661399 0
-1.6717777 -0.94890267 0.34668523 0
-1.3546335 -0.79160696 -0.056014329 0
-1.6879847 -0.9864074 0.069798455 0
-1.6629019 -0.97174972 0.20698766 0
-1.6782814 -0.98073709 0.35056716 0
-1.3459074 -0.80941176 -0.056070514 0
-0.94286668 -0.56702811 0.039279833 0
-1.6733195 -1.0063132 0.20984505 0
-1.6667418 -1.0023575 0.35076541 0
-1.3321754 -0.82416975 -0.055926353 0
-0.93437916 -0.5780673 0.039226383 0
-1.6738251 -1.0355364 0.21152695 0
-1.6655836 -1.0304376 0.35322434 0
-1.3314916 -0.84711242 -0.056340992 0
-0.92274469 -0.5870623 0.0390452 0
-1.0581024 -0.67317861 0.13477653 0
-1.6700965 -1.0625374 0.35699058 0
-1.3148533 -0.85997343 -0.056090731 0
-1.1467671 -0.75003749 0.048920292 0
-0.9949764 -0.65075946 0.12776947 0
-1.684539 -1.1017646 0.36301449 0
-1.2976215 -0.87222648 -0.05581975 0
-1.6683927 -1.1214489 0.0717692 0
-0.95526463 -0.64210331 0.12369838 0
-1.6807046 -1.1297247 0.36522484 0
-1.2870696 -0.88886428 -0.055842888 0
-1.6647147 -1.1496701 0.072228007 0
-0.9370876 -0.64716291 0.12239017 0
-1.6783572 -1.1590918 0.36785725 0
-1.2742969 -0.90395057 -0.055778157 0
-1.6630584 -1.1797271 0.072794914 0
-0.91791898 -0.65114605 0.12094793 0
-2.0383365 -1.4459389 0.4507114 0
-1.2745287 -0.92845762 -0.056295592 0
-1.6694577 -1.2161521 0.073739499 0
-0.91880214 -0.66932106 0.12216514 0
-1.9976803 -1.4552529 0.44573817 0
-1.2607313 -0.94293165 -0.056206163 0
-1.1037242 -0.82550222 0.049206443 0
-0.91153264 -0.68175745 0.12233032 0
-1.2454996 -0.95622885 -0.056059472 0
-1.082881 -0.83137888 0.048740067 0
-0.91859567 -0.70524925 0.12446015 0
-1.2316272 -0.97046936 -0.055980675 0
-0.84723943 -0.66758829 0.038509246 0
-1.5918144 -1.2542814 0.21779695 0
-1.5896955 -1.2526119 0.36500758 0
-1.221055 -0.98731095 -0.056060784 0
-0.8584187 -0.69409335 0.039411511 0
-1.5807213 -1.278127 0.21846391 0
-1.5767368 -1.2749053 0.36568928 0
-1.2039586 -0.99881744 -0.055848878 0
-0.84466922 -0.70074695 0.039182264 0
-1.6732796 -1.3881714 0.23365331 0
-1.7635792 -1.4630849 0.41326341 0
-1.1967704 -1.0185646 -0.056105949 0
-0.8529253 -0.72591996 0.039986104 0
-1.6663237 -1.4181987 0.23515703 0
-1.7498194 -1.4892615 0.41440064 0
-1.4702048 -1.251283 0.49255756 0
-1.1790471 -1.029359 -0.055878304 0
-1.7193592 -1.5010747 0.41163066 0
-1.4347006 -1.2525555 0.48590836 0
-1.1640635 -1.0423954 -0.055785839 0
-1.6277437 -1.4576117 0.07800696 0
-1.619421 -1.4501588 0.23361871 0
-1.630553 -1.4601274 0.39474019 0
-1.4019104 -1.2553825 0.48011875 0
-1.1515002 -1.0575705 -0.055817548 0
-1.3590721 -1.2482102 0.47079328 0
-1.1399006 -1.073688 -0.055906203 0
-1.3168988 -1.2404051 0.46155825 0
-1.1241398 -1.0858775 -0.055799417 0
-1.2786627 -1.2351409 0.45357215 0
-1.1155131 -1.1050324 -0.056057461 0
-1.2651784 -1.2532916 0.4543511 0
-1.1018344 -1.1193191 -0.056073923 0
-1.2499001 -1.2697344 0.4545702 0
-1.0834446 -1.128719 -0.055856932 0
-1.0639793 -1.1367503 -0.055586956 0
-1.0568161 -1.1579838 -0.055970091 0
-1.0500923 -1.1801223 -0.05639654 0
-1.0362315 -1.1944975 -0.056455471 0
-1.0100099 -1.1943253 -0.055841804 0
-1.0011015 -1.2144812 -0.056190345 0
-0.98141593 -1.2216196 -0.055944409 0
-0.96961892 -1.2385583 -0.056156524 0
-0.95084554 -1.2466025 -0.055973943 0
-0.94050556 -1.2657862 -0.056299079 0
-0.92057353 -1.2721114 -0.056060385 0
-0.89722234 -1.2732975 -0.055610355 0
-0.88825858 -1.294902 -0.056060966 0
-0.86660105 -1.2980707 -0.055721294 0
-0.85777295 -1.3205564 -0.056218408 0
-0.80894983 -1.2453923 0.49407068 0
-0.83836925 -1.3269655 -0.056037385 0
-0.78590065 -1.2439185 0.48952112 0
-0.82312721 -1.339911 -0.056141909 0
-0.7622202 -1.2407647 0.4844645 0
-0.80657411 -1.3508109 -0.056168601 0
-0.74310172 -1.2445104 0.48223516 0
-0.78801644 -1.3582991 -0.056062922 0
-0.71950936 -1.2402139 0.47702175 0
-0.76629674 -1.3600299 -0.055731669 0
-0.70557213 -1.2522553 0.47819802 0
-0.74987602 -1.3709683 -0.055788543 0
-0.68500912 -1.2523748 0.47491205 0
-0.73917884 -1.3927834 -0.056293033 0
-0.66119152 -1.2458373 0.46923855 0
-0.7223419 -1.4034538 -0.056352206 0
-0.63863331 -1.2408147 0.46428108 0
-0.69880015 -1.4007847 -0.055887282 0
-0.61784858 -1.2385126 0.46047208 0
-0.68395561 -1.4153669 -0.056121003 0
-0.60181928 -1.2453953 0.460177 0
-0.6628778 -1.4170208 -0.055851184 0
-0.5798775 -1.2395927 0.45529875 0
-0.64723355 -1.4302275 -0.056046046 0
-0.57038218 -1.2604048 0.46026844 0
-0.62717491 -1.4336939 -0.055867974 0
-0.54597288 -1.2480696 0.45321742 0
-0.61129463 -1.4467344 -0.056071732 0
-0.53598356 -1.2684978 0.45814839 0
-0.59112579 -1.4496467 -0.055891681 0
-0.50696456 -1.2432541 0.34255153 0
-0.51513791 -1.2632979 0.45389152 0
-0.57393444 -1.4597939 -0.055999827 0
-0.48697621 -1.2386168 0.33955738 0
-0.50087988 -1.2739806 0.4554275 0
-0.55319631 -1.4607992 -0.055766746 0
-0.46554098 -1.229332 0.14127147 0
-0.46581292 -1.2300501 0.237212 0
-0.4449977 -1.1750844 0.32057887 0
-0.4812187 -1.2707314 0.45206389 0
-0.54016268 -1.4824787 -0.056330245 0
-0.44090918 -1.210077 0.13840975 0
-0.44141626 -1.2114687 0.23253828 0
-0.4285534 -1.1761665 0.31937656 0
-0.51881307 -1.4816215 -0.056044992 0
-0.42493936 -1.2135379 0.13818261 0
-0.41998547 -1.1993905 0.22918661 0
-0.41327351 -1.1802226 0.31903955 0
-0.43448475 -1.2407974 0.43738282 0
-0.49736461 -1.4798485 -0.055736601 0
-0.40908578 -1.2171855 0.13800044 0
-0.40987256 -1.2195264 0.23202966 0
-0.40533531 -1.2060264 0.3246094 0
-0.41860369 -1.245505 0.43714947 0
-0.4808338 -1.4926422 -0.055985969 0
-0.39821416 -1.2361677 0.13957301 0
-0.39431643 -1.224068 0.23193067 0
-0.41067368 -1.2748456 0.34171352 0
-0.408214 -1.26721 0.44292828 0
-0.46290237 -1.5015 -0.056095134 0
-0.40863985 -1.3254906 0.35388127 0
-0.44008884 -1.4940673 -0.055606011 0
-0.3652879 -1.240124 0.32983574 0
-0.42622113 -1.5172149 -0.056263302 0
-0.34650296 -1.233443 0.32687241 0
-0.40612289 -1.5188677 -0.056130499 0
-0.33155665 -1.2399957 0.32747656 0
-0.38934785 -1.5332392 -0.056475945 0
-0.31593782 -1.2441529 0.32749781 0
-0.36612529 -1.5218657 -0.055882759 0
-0.34601271 -1.5223013 -0.055734344 0
-0.32706565 -1.5276955 -0.05577663 0
-0.30876327 -1.5364652 -0.055950426 0
-0.29054764 -1.5463773 -0.056173693 0
-0.49865639 -2.6539912 0.096408874 0
-0.27071819 -1.5479938 -0.056104131 0
-0.43161583 -2.4680226 0.089448854 0
-0.25146556 -1.5528849 -0.056162186 0
-0.39928046 -2.465692 0.08917509 0
-0.23252901 -1.560196 -0.056316242 0
-0.36667198 -2.4602528 0.088804349 0
-0.21175347 -1.5548327 -0.056021959 0
-0.33562022 -2.4643435 0.088792413 0
-0.19171038 -1.553736 -0.055891033 0
-0.30277002 -2.45383 0.088269234 0
-0.17147197 -1.5500623 -0.055676796 0
-0.27276036 -2.465683 0.088565044 0
-0.15257147 -1.5585365 -0.055907745 0
-0.24247135 -2.4768751 0.088850334 0
-0.13340192 -1.5658084 -0.056103893 0
-0.20957854 -2.4599335 0.088140957 0
-0.11357442 -1.5659646 -0.056053802 0
-0.17859587 -2.4624805 0.088144653 0
-0.093811333 -1.5666577 -0.056031883 0
-0.14784551 -2.469033 0.088305555 0
-0.073354632 -1.5524107 -0.055484902 0
-0.11639404 -2.4632576 0.088039592 0
-0.054314639 -1.5680081 -0.056013484 0
-0.085540913 -2.4694786 0.088216446 0
-0.034562342 -1.5683465 -0.05600559 0
-0.054203015 -2.4595876 0.087831773 0
-0.01477511 -1.5647272 -0.055865269 0
0.004960773 -1.5752372 -0.056238275 0
0.024648918 -1.5658004 -0.055908021 0
0.044207849 -1.5599165 -0.055713393 0
0.064446688 -1.5739163 -0.056237929 0
0.083897211 -1.5662243 -0.055996396 0
0.10371964 -1.5666815 -0.056054991 0
0.1237321 -1.568983 -0.056188624 0
0.14273496 -1.5591873 -0.055897757 0
0.16383781 -1.5714824 -0.056408037 0
0.1837374 -1.5703694 -0.056446657 0
0.20119481 -1.5502031 -0.055808425 0
0.22159226 -1.5538191 -0.056034613 0
0.24190663 -1.5558418 -0.056212954 0
0.25974426 -1.5423812 -0.055840366 0
0.27974257 -1.5422878 -0.055960082 0
0.29925641 -1.5392437 -0.055981919 0
0.31917384 -1.5380533 -0.056080349 0
0.33834273 -1.5331343 -0.056051899 0
0.35732171 -1.5274779 -0.056005158 0
0.37669483 -1.5235397 -0.05603024 0
0.39657003 -1.5214453 -0.056132413 0
0.41590974 -1.5171131 -0.056161352 0
0.43257874 -1.5034138 -0.055851441 0
0.45355424 -1.5047487 -0.056108754 0
0.47077399 -1.4935542 -0.05590795 0
0.49031091 -1.4898435 -0.055995725 0
0.50381881 -1.4683611 -0.055422362 0
0.52752173 -1.476609 -0.055979956 0
0.54766893 -1.4741476 -0.056143638 0
0.56364465 -1.4605476 -0.055891559 0
0.49301478 -1.2775275 0.45557725 0
0.5814752 -1.4520491 -0.055842113 0
0.5066995 -1.2653207 0.45346358 0
0.60347384 -1.4536738 -0.056192383 0
0.52549332 -1.2658311 0.45598179 0
0.61889803 -1.439375 -0.055936471 0
0.53647625 -1.247686 0.45184317 0
0.64101899 -1.440562 -0.056291822 0
0.5616231 -1.2621356 0.45960069 0
0.6538676 -1.4209912 -0.055844381 0
0.57106137 -1.2410358 0.45449984 0
0.67103457 -1.4112298 -0.055788413 0
0.59462339 -1.2505319 0.4606832 0
0.69134229 -1.4079471 -0.055998348 0
0.61090755 -1.2441385 0.46112525 0
0.70960033 -1.4002852 -0.05604456 0
0.63254583 -1.2482302 0.4655571 0
0.72473258 -1.3865659 -0.055856291 0
0.65078264 -1.2450842 0.46740305 0
0.74165267 -1.3764381 -0.055820089 0
0.67495698 -1.2526571 0.47339898 0
0.75990671 -1.3687592 -0.0558923 0
0.70227629 -1.264954 0.051653493 0
0.69537467 -1.2525227 0.15396114 0
0.69999248 -1.2608404 0.26008433 0
0.69719934 -1.2558093 0.36646265 0
0.69798774 -1.2572294 0.4784106 0
0.77791804 -1.3605467 -0.055952519 0
0.71812075 -1.2559638 0.051651541 0
0.71453983 -1.2497009 0.154708 0
0.71084583 -1.2432402 0.25827974 0
0.70918775 -1.2403404 0.36452565 0
0.71941602 -1.2582291 0.4822 0
0.7963199 -1.3529079 -0.056046307 0
0.733064 -1.2454394 0.051594257 0
0.73514116 -1.2489684 0.15575096 0
0.73304552 -1.2454079 0.26062703 0
0.7326358 -1.2447119 0.36849248 0
0.72848707 -1.2376634 0.47779608 0
0.81510758 -1.3457725 -0.056171458 0
0.82665497 -1.3268429 -0.055811413 0
0.84336644 -1.316439 -0.055816073 0
0.85973114 -1.3054971 -0.055806726 0
0.87935227 -1.299373 -0.056013841 0
0.89183712 -1.2827237 -0.055775806 0
0.91021621 -1.2746117 -0.055917025 0
0.9223569 -1.2578187 -0.055685431 0
0.94576013 -1.2562521 -0.056138862 0
0.95602101 -1.2371504 -0.055818796 0
0.9704954 -1.2237197 -0.055759784 0
0.77246964 -0.97402459 0.044382222 0
0.77155328 -0.9728691 0.13344246 0
0.99147666 -1.218346 -0.056079362 0
0.77659035 -0.9542895 0.04392508 0
0.77448851 -0.95170671 0.13186698 0
1.0023818 -1.2005476 -0.055836678 0
0.77576774 -0.929133 0.043213364 0
0.7721886 -0.92484635 0.12948227 0
1.0235182 -1.1949524 -0.056171421 0
0.77813518 -0.9084689 0.042704627 0
0.77815366 -0.90849042 0.12855405 0
1.0377597 -1.181147 -0.056132298 0
0.77382267 -0.88074183 0.04185598 0
0.77452284 -0.88153875 0.12611037 0
1.0524244 -1.167848 -0.05612563 0
0.77299595 -0.85777348 0.041223753 0
0.77131873 -0.85591233 0.12382396 0
1.061276 -1.1482615 -0.055822153 0
1.0765193 -1.135725 -0.055867273 0
1.0874742 -1.1187268 -0.055700306 0
1.1088308 -1.1123253 -0.056072321 0
1.1170106 -1.0926628 -0.05578576 0
1.139469 -1.0868952 -0.056219399 0
1.1518146 -1.0712997 -0.056158479 0
1.1638026 -1.0554336 -0.056090537 0
1.1696304 -1.0341805 -0.055739358 0
1.1858624 -1.0222188 -0.055895057 0
1.1960335 -1.0050167 -0.055773534 0
1.2154601 -0.99550182 -0.056090429 0
1.2236766 -0.97674888 -0.055897579 0
1.2274772 -0.95472974 -0.055517618 0
1.2507129 -0.94777054 -0.056024317 0
1.2622738 -0.93174553 -0.056012183 0
1.2733867 -0.91540515 -0.05598937 0
1.281117 -0.8967129 -0.055828355 0
1.2946074 -0.88207901 -0.055927772 0
1.3060745 -0.86601555 -0.055947617 0
1.3203181 -0.8517229 -0.05609389 0
1.328442 -0.83346516 -0.055988707 0
1.3477689 -0.82212448 -0.056362487 0
1.3459915 -0.79796201 -0.055863526 0
1.3514627 -0.77837694 -0.055679388 0
1.3675327 -0.76486504 -0.055940226 0
1.3801836 -0.74928403 -0.056067321 0
1.3833668 -0.72861165 -0.055819497 0
1.3927268 -0.71128654 -0.055831343 0
1.4021866 -0.69399804 -0.055855811 0
1.4177389 -0.67960751 -0.056129988 0
1.4192766 -0.65849793 -0.055858154 0
1.4252366 -0.63957965 -0.055771329 0
1.4435449 -0.62608021 -0.056174796 0
1.4460715 -0.60565913 -0.055971898 0
1.4566267 -0.58863336 -0.056089107 0
1.4570005 -0.56754953 -0.055823885 0
1.4675114 -0.55046457 -0.055956587 0
1.4686544 -0.52989686 -0.055741321 0
1.4791254 -0.51271993 -0.055889267 0
1.5004493 -0.49903932 -0.056453079 0
1.5018436 -0.47858718 -0.05627434 0
1.5019019 -0.45785624 -0.056056045 0
1.4977679 -0.43606186 -0.055692393 0
1.5162841 -0.42081657 -0.056179404 0
1.5169961 -0.40051216 -0.056014486 0
1.5203211 -0.38097921 -0.055955682 0
1.5197549 -0.3605625 -0.055763315 0
1.5343742 -0.34368303 -0.056136485 0
1.5417206 -0.32499823 -0.056251079 0
1.5285805 -0.30217794 -0.055628408 0
1.5378606 -0.28394061 -0.055831585 0
1.5475203 -0.26561984 -0.056056403 0
1.5475801 -0.2456118 -0.055942103 0
1.5474669 -0.22565684 -0.055830866 0
1.5545126 -0.20672993 -0.055986714 0
1.5557662 -0.18699297 -0.055942621 0
1.5578434 -0.16737263 -0.055937096 0
1.5729541 -0.14898756 -0.056407835 0
1.5595027 -0.12792331 -0.055863257 0
1.5593673 -0.10816459 -0.055805191 0
1.5718297 -0.089158364 -0.05620655 0
1.5670031 -0.069103204 -0.055998404 0
1.5672014 -0.049350012 -0.055978842 0
1.5802269 -0.029849794 -0.056426205 0
1.5655221 -0.0098562995 -0.055892266 0
1.570672 0.0098887226 -0.056076128 0
1.5494754 0.029268909 -0.055328138 0
1.5655425 0.049297772 -0.055919588 0
1.5630698 0.068929747 -0.055857845 0
1.5638194 0.088703997 -0.055920113 0
1.5664088 0.10865302 -0.056057185 0
1.5638436 0.12827939 -0.056018751 0
1.5668958 0.14841373 -0.05619058 0
1.5627974 0.16790488 -0.056114979 0
1.5567527 0.18711153 -0.05597809 0
1.5539123 0.20665009 -0.055965092 0
1.5581027 0.22720779 -0.056214597 0
1.5541874 0.24666044 -0.056180947 0
1.539633 0.26426607 -0.055770699 0
1.5405457 0.28443635 -0.055929065 0
1.5357831 0.30360174 -0.055890519 0
1.5377198 0.32415485 -0.056105107 0
1.5338231 0.34355959 -0.056116324 0
1.5149233 0.35941622 -0.055586033 0
1.5256144 0.38230568 -0.0561505 0
1.5234513 0.40221643 -0.056252841 0
1.5192324 0.42163479 -0.056288637 0
1.5002882 0.43679562 -0.05578611 0
1.4910117 0.45453635 -0.055649586 0
1.4967892 0.47697651 -0.05608495 0
1.4874088 0.49470213 -0.05596244 0
1.4912258 0.51691437 -0.056346487 0
1.4702325 0.5304662 -0.055801217 0
1.4681747 0.55071342 -0.055981878 0
1.4548032 0.5666936 -0.055739697 0
1.4579784 0.58917958 -0.056141153 0
1.4404742 0.60331482 -0.05575525 0
1.4397285 0.62442505 -0.056026287 0
1.432847 0.64299482 -0.056069132 0
1.4135809 0.6558553 -0.055633988 0
1.4108216 0.67629158 -0.05585612 0
1.4105829 0.69815373 -0.056190278 0
1.4003311 0.7151702 -0.056136187 0
1.386447 0.73023397 -0.055943783 0
1.3694745 0.74347019 -0.055632282 0
1.3727976 0.76780969 -0.056155585 0
1.3643248 0.78578484 -0.056209296 0
1.3499607 0.80031514 -0.056028262 0
1.3377912 0.81603813 -0.055945225 0
1.3171281 0.82636684 -0.055511873 0
1.3130871 0.84705824 -0.05578668 0
1.3008108 0.8625254 -0.05572214 0
1.3019317 0.8870694 -0.056244187 0
1.2918094 0.9041971 -0.056294311 0
1.2713069 0.91391009 -0.055897925 0
1.2614316 0.93112391 -0.055974811 0
1.2510223 0.94800508 -0.056038182 0
1.2343148 0.96004802 -0.055826876 0
1.2156525 0.97034401 -0.05553104 0
1.2108736 0.99174529 -0.055878777 0
1.2010739 1.0092521 -0.056008577 0
1.1943299 1.0295179 -0.056294162 0
1.1773856 1.0410377 -0.056108937 0
1.1626426 1.0543816 -0.056034632 0
1.1503936 1.069978 -0.056089193 0
1.1341628 1.0818337 -0.055957593 0
1.1243684 1.0998602 -0.056153223 0
1.110499 1.1139988 -0.05615668 0
1.0992631 1.1308544 -0.056304127 0
1.0865304 1.1462867 -0.056386814 0
0.5880658 0.62040788 0.28439558 0
1.0638971 1.1510975 -0.055960022 0
0.60972321 0.65969807 0.29886305 0
1.0497245 1.1648519 -0.05598164 0
1.008779 1.1194158 0.053798027 0
1.0106511 1.1214932 0.16224529 0
1.007701 1.1182196 0.27147579 0
0.62006181 0.68806642 0.30815312 0
1.0363337 1.1795239 -0.056055166 0
0.98275322 1.1185403 0.053157005 0
0.98542088 1.1215765 0.16044948 0
0.97862208 1.1138383 0.26739922 0
0.62452883 0.71082002 0.31479645 0
1.0194049 1.19015 -0.055945676 0
0.9498716 1.1089703 0.052129641 0
0.95277673 1.1123619 0.15740246 0
0.96051711 1.1213988 0.2662895 0
0.6255424 0.73031759 0.31991741 0
1.0024456 1.2006239 -0.055840228 0
0.93330383 1.1178131 0.051988754 0
0.93090367 1.1149385 0.15609595 0
0.93663967 1.1218085 0.26356515 0
0.62402099 0.74738675 0.32392681 0
0.98561031 1.2111373 -0.055747554 0
0.90337449 1.1100843 0.051096175 0
0.91427416 1.1234781 0.15566735 0
0.91357839 1.1226231 0.26103303 0
0.62375271 0.76647961 0.32877162 0
0.97826856 1.2335211 -0.05620639 0
0.88608658 1.1172868 0.050910082 0
0.88596576 1.1171345 0.15323044 0
0.88540983 1.1164335 0.25698102 0
0.62141299 0.78355384 0.33271259 0
0.95785052 1.2395178 -0.055925615 0
0.87398779 1.1309943 0.051029157 0
0.86447847 1.1186886 0.15193845 0
0.86119723 1.1144425 0.25400645 0
0.61000794 0.78938806 0.33190197 0
0.94307673 1.2526877 -0.05597958 0
0.84361434 1.120572 0.050075646 0
0.83954757 1.1151701 0.15001285 0
0.83886838 1.1142679 0.25153911 0
0.60431051 0.80270499 0.33427513 0
0.92781597 1.2652632 -0.056015011 0
0.82468671 1.1246258 0.049788792 0
0.81951034 1.1175667 0.14893526 0
0.8215664 1.1203706 0.25056151 0
0.59669918 0.81371909 0.33570617 0
0.9092446 1.2732511 -0.055857338 0
0.81314564 1.13868 0.049953721 0
0.81606835 1.1427727 0.15091296 0
0.8141678 1.1401113 0.25266349 0
0.58982462 0.82595468 0.33766314 0
0.89398056 1.2858065 -0.055909857 0
0.81188804 1.1677333 0.050775763 0
0.81269222 1.16889 0.15299842 0
0.80810916 1.1622982 0.25530505 0
0.58331871 0.8389836 0.33995977 0
0.8768186 1.2956291 -0.05585245 0
0.81317991 1.2015936 0.051798731 0
0.81527889 1.2046952 0.15632887 0
0.81155252 1.1991888 0.26114288 0
0.57466847 0.84915769 0.3411231 0
0.86385578 1.3117603 -0.056074463 0
0.81196076 1.232958 0.052705862 0
0.81146252 1.2322015 0.15855971 0
0.80644977 1.2245896 0.26444191 0
0.73516589 1.1163454 0.34102818 0
0.5615837 0.85276181 0.33970323 0
0.85670364 1.3372576 -0.056698762 0
0.80588138 1.2579274 0.05333522 0
0.81239551 1.2680955 0.16184936 0
0.78978229 1.2327979 0.26404592 0
0.71182477 1.1111113 0.33666435 0
0.55713809 0.86965561 0.34361103 0
0.82849318 1.3297935 -0.055935517 0
0.81180263 1.3030038 0.054808658 0
0.80844772 1.2976189 0.16430515 0
0.77320081 1.241045 0.26370606 0
0.69443411 1.1146185 0.33505091 0
0.54274166 0.8711409 0.34147048 0
0.81302547 1.3423347 -0.056027975 0
0.75765616 1.250918 0.2637558 0
0.6764549 1.1168518 0.33313534 0
0.53506446 0.88341099 0.34361187 0
0.4047927 0.66832757 0.46338221 0
0.79004586 1.3422487 -0.055604734 0
0.74405277 1.2641087 0.26454058 0
0.66315246 1.1266631 0.33354458 0
0.52064794 0.88455498 0.34147972 0
0.40661711 0.6908223 0.47539106 0
0.78290057 1.3692609 -0.056310892 0
0.7222172 1.2631283 0.26241142 0
0.64357001 1.1255774 0.33079782 0
0.51780879 0.9056263 0.34706953 0
0.41832933 0.73164082 0.34894603 0
0.40528545 0.70882761 0.40853408 0
0.40452754 0.70750207 0.48332557 0
0.76135087 1.3713604 -0.055998523 0
0.70994115 1.2787602 0.2637808 0
0.61922711 1.1153642 0.32547882 0
0.50028491 0.90112311 0.3429023 0
0.41900191 0.75471461 0.35740602 0
0.41059673 0.73957497 0.42324191 0
0.40794128 0.73479193 0.49841976 0
0.74539113 1.3833762 -0.05610146 0
0.69892359 1.2971369 0.26573497 0
0.60162824 1.1165658 0.32359308 0
0.49032432 0.90999609 0.34390196 0
0.41936621 0.77830446 0.36604756 0
0.4115639 0.76382416 0.43411893 0
0.41358671 0.7675783 0.51708555 0
0.72332168 1.3838665 -0.05574755 0
0.67791903 1.2970018 0.26393759 0
0.58222997 1.1139284 0.32067853 0
0.47818846 0.91487515 0.34344301 0
0.41741481 0.79860234 0.37309229 0
0.40723759 0.77913123 0.43986931 0
0.40747723 0.77958971 0.52167922 0
0.70744932 1.3960406 -0.055874672 0
0.65613782 1.2947854 0.26178443 0
0.56507045 1.1150781 0.31893581 0
0.46505961 0.91772234 0.34228632 0
0.41937092 0.82756293 0.38412458 0
0.40883362 0.80676919 0.45253041 0
0.40855926 0.8062278 0.5360195 0
0.69488168 1.4151552 -0.056285035 0
0.64423823 1.3120178 0.26360744 0
0.54553562 1.1110058 0.31578118 0
0.4568693 0.93043315 0.34485409 0
0.41412479 0.84338224 0.389016 0
0.4085649 0.83205926 0.46379349 0
0.40460086 0.82398635 0.5443958 0
0.67625916 1.4222175 -0.056222778 0
0.53167886 1.1181555 0.31588539 0
0.44621164 0.93841237 0.34570152 0
0.40849364 0.8590889 0.39385697 0
0.40888041 0.85990238 0.47640568 0
0.40984929 0.86193997 0.56601661 0
0.65786493 1.4296782 -0.056185778 0
0.51903063 1.1279622 0.31678432 0
0.4288699 0.93202406 0.3413316 0
0.40829301 0.88730621 0.40440428 0
0.40757218 0.88573968 0.48783809 0
0.4090355 0.88891977 0.58030528 0
0.63391703 1.4246017 -0.055668153 0
0.49787027 1.1188638 0.31244361 0
0.41928941 0.94226909 0.34312281 0
0.40644994 0.91341496 0.41393831 0
0.40806484 0.91704416 0.50220972 0
0.40723798 0.91518593 0.59405762 0
0.61880249 1.4391527 -0.055927835 0
0.47846827 1.1127766 0.30903676 0
0.41837558 0.97301865 0.35237378 0
0.40944901 0.95225811 0.42917058 0
0.4061518 0.94458973 0.51445317 0
0.40781721 0.94846296 0.6122762 0
0.60613364 1.460081 -0.056440052 0
0.46861857 1.1288286 0.31183118 0
0.4142544 0.99787384 0.35945737 0
0.40634814 0.97882897 0.43880484 0
0.40745568 0.98149681 0.53171736 0
0.40986678 0.98730481 0.63396841 0
0.58216751 1.4537779 -0.055908602 0
0.44734195 1.117094 0.30700916 0
0.41813621 1.044162 0.37420511 0
0.41206923 1.0290117 0.45893902 0
0.40527973 1.0120571 0.54546517 0
0.40462339 1.0104181 0.64548701 0
0.56546456 1.4652634 -0.056072023 0
0.43104869 1.1169575 0.30545568 0
0.41715473 1.0809547 0.38547769 0
0.40677717 1.0540638 0.46779066 0
0.40846446 1.0584359 0.56764472 0
0.409042 1.0599325 0.67377454 0
0.54427898 1.4650229 -0.055796124 0
0.41373196 1.1136326 0.30309767 0
0.41210464 1.1092523 0.39368716 0
0.40642014 1.0939516 0.48318321 0
0.40459263 1.0890325 0.58127534 0
0.41025084 1.1042626 0.6986149 0
0.52648056 1.4736946 -0.055869464 0
0.40062946 1.1214193 0.30381984 0
0.40794775 1.1419042 0.40342054 0
0.40626618 1.1371973 0.49998501 0
0.41320983 1.1566335 0.6145317 0
0.50358605 1.4676827 -0.055396754 0
0.38538811 1.1231993 0.30296329 0
0.40335736 1.17557 0.41348705 0
0.40516141 1.1808279 0.51688373 0
0.4071964 1.1867588 0.62776351 0
0.49263504 1.4969056 -0.056261152 0
0.5964272 1.8122852 0.34408826 0
0.36912712 1.1216183 0.30125922 0
0.40921843 1.2434385 0.43551165 0
0.40677366 1.2360098 0.53875369 0
0.41094956 1.2486986 0.65773863 0
0.47154233 1.4959917 -0.055999193 0
0.57368392 1.8200411 0.34416196 0
0.35151628 1.1152031 0.2983236 0
0.4092091 1.2982365 0.45286387 0
0.40901774 1.2976294 0.56332284 0
0.40885013 1.2970976 0.68046647 0
0.4529222 1.5026517 -0.056030564 0
0.55141366 1.8294151 0.34459424 0
0.33887282 1.1242722 0.29958442 0
0.4067111 1.3493381 0.46886596 0
0.40797776 1.3535405 0.58531821 0
0.43540916 1.5132508 -0.056216884 0
0.52598143 1.828032 0.34305891 0
0.32367289 1.124915 0.29864591 0
0.40602925 1.4111419 0.48852617 0
0.40701911 1.4145821 0.6094501 0
0.41450047 1.5119725 -0.055971056 0
0.30349022 1.1070406 0.040981058 0
0.3066788 1.1186717 0.12465874 0
0.30595779 1.1160417 0.20870319 0
0.30552104 1.1144485 0.29482251 0
0.40154043 1.4646982 0.50527644 0
0.40519235 1.4780194 0.63453251 0
0.39416239 1.5122083 -0.055791624 0
0.29115263 1.1170102 0.041211132 0
0.29278561 1.1232753 0.12475102 0
0.29115373 1.1170144 0.20818301 0
0.29362512 1.1264961 0.29700798 0
0.39809698 1.5273035 0.52510244 0
0.39809826 1.5273083 0.65348893 0
0.3763746 1.5222446 -0.055982612 0
0.27658767 1.118657 0.041140128 0
0.27696261 1.1201735 0.12400936 0
0.27566886 1.1149409 0.20713316 0
0.27365026 1.1067767 0.29087725 0
0.39198807 1.5853931 0.54333407 0
0.39252627 1.5875698 0.67710447 0
0.3573916 1.5277765 -0.056016106 0
0.25963819 1.1099006 0.040694639 0
0.26350543 1.1264323 0.12432507 0
0.25940624 1.108909 0.20538944 0
0.2640169 1.1286187 0.29572046 0
0.3842718 1.642684 0.56126559 0
0.3384755 1.5337359 -0.056073889 0
0.24965797 1.1312766 0.041359846 0
0.24957238 1.1308887 0.12446021 0
0.24699558 1.1192125 0.20670536 0
0.24590716 1.1142805 0.29112914 0
0.37382552 1.6939176 0.57711673 0
0.3180989 1.5328733 -0.05589148 0
0.23296854 1.1226423 0.040933672 0
0.2337715 1.1265116 0.1236447 0
0.23482394 1.1315831 0.20842744 0
0.23390661 1.1271627 0.29370207 0
0.35819423 1.726087 0.58649361 0
0.30023801 1.5442927 -0.056165546 0
0.21720043 1.1171838 0.0406317 0
0.21743649 1.118398 0.12244393 0
0.21800055 1.1212993 0.20601128 0
0.21877845 1.1253004 0.29247579 0
0.34534526 1.7763046 0.60203135 0
0.28054938 1.5467359 -0.056121472 0
0.20262368 1.117113 0.040533114 0
0.20501857 1.1303165 0.12345636 0
0.2045258 1.1275997 0.20667928 0
0.2026848 1.1174499 0.28974903 0
0.33048332 1.8220338 0.61607075 0
0.26080483 1.5486789 -0.056068368 0
0.18937984 1.1245519 0.040713277 0
0.18967524 1.1263061 0.12274773 0
0.18828407 1.1180452 0.20447724 0
0.18833822 1.1183667 0.28934887 0
0.31393483 1.864169 0.62893111 0
0.23854615 1.5342287 -0.055432066 0
0.17335914 1.1149732 0.040284257 0
0.17413481 1.1199619 0.12180769 0
0.17235552 1.1085182 0.20232192 0
0.173126 1.1134738 0.28749612 0
0.29462844 1.8949264 0.63800579 0
0.2219809 1.5565442 -0.05613289 0
0.16015227 1.1229979 0.040498123 0
0.15913519 1.1158661 0.12113469 0
0.15945785 1.1181287 0.20369333 0
0.15991156 1.12131 0.28897661 0
0.27507263 1.9288268 0.64820212 0
0.20289771 1.5633241 -0.056280788 0
0.14506449 1.1177199 0.040238719 0
0.1440887 1.1102014 0.12031324 0
0.14420196 1.1110741 0.20206137 0
0.14680198 1.1311072 0.29100201 0
0.25539508 1.9678156 0.66017163 0
0.1826212 1.5608294 -0.056103744 0
0.13055064 1.1157919 0.040106948 0
0.13149428 1.1238571 0.12160405 0
0.13091895 1.1189399 0.20317592 0
0.13048041 1.1151918 0.28646201 0
0.23596324 2.0167339 0.67553258 0
0.16348791 1.5681263 -0.056287572 0
0.11970201 1.1481452 0.12405915 0
0.11874059 1.1389236 0.20651668 0
0.11872617 1.1387854 0.29211533 0
0.21190061 2.0324862 0.67986131 0
0.14281996 1.5601157 -0.055931043 0
0.1196912 1.3074652 0.14109991 0
0.1206551 1.3179946 0.23869252 0
0.11973595 1.3079541 0.3350963 0
0.18867774 2.0610504 0.68856668 0
0.12316898 1.5618422 -0.055932902 0
0.17042498 2.1610711 0.23296988 0
0.16657136 2.1122055 0.3821162 0
0.16592547 2.1040154 0.5384683 0
0.10336866 1.5613801 -0.055865306 0
0.14161474 2.1390855 0.3866258 0
0.14005876 2.1155827 0.54093444 0
0.083623573 1.5611161 -0.055813763 0
0.11607348 2.166903 0.39135841 0
0.11548706 2.1559556 0.55084187 0
0.063973822 1.562368 -0.055825293 0
0.08931943 2.1813583 0.39373478 0
0.089594804 2.1880836 0.55871797 0
0.044180848 1.5589637 -0.055679362 0
0.024340959 0.85889417 0.35575584 0
0.024180965 0.85324866 0.427086 0
0.024751564 1.5723211 -0.056140844 0
0.013308388 0.84540343 0.35007077 0
0.013389975 0.85058618 0.42563519 0
0.0049141385 1.5604289 -0.055709597 0
0.0026168125 0.83093911 0.41575432 0
0.0025649588 0.81447351 0.48302421 0
-0.014856284 1.5733237 -0.056172188 0
-0.0078043835 0.82650691 0.41355309 0
-0.007722097 0.81779253 0.48501182 0
-0.034436438 1.5626333 -0.05580157 0
-0.018366821 0.83343714 0.3451567 0
-0.018500799 0.8395167 0.42014593 0
-0.017904699 0.81246728 0.48194903 0
-0.054128531 1.5626352 -0.055821553 0
-0.079868242 2.3057144 0.41608196 0
-0.080296218 2.3180695 0.59176844 0
-0.027418824 0.79155338 0.46971062 0
-0.073834471 1.5625656 -0.05584785 0
-0.10998279 2.3275757 0.42024359 0
-0.11029065 2.3340909 0.59616578 0
-0.037183341 0.78691435 0.46719861 0
-0.093498632 1.5614356 -0.055845115 0
-0.14033841 2.3436639 0.42343384 0
-0.14073767 2.3503318 0.60071898 0
-0.11326995 1.5617665 -0.055903532 0
-0.17022227 2.3470252 0.42439473 0
-0.17118287 2.3602703 0.60376221 0
-0.13303572 1.5615102 -0.055949885 0
-0.076693669 0.90019393 0.03225451 0
-0.20297723 2.3824503 0.43122837 0
-0.20218354 2.3731346 0.607656 0
-0.15243652 1.5571581 -0.055858295 0
-0.23415387 2.3919108 0.43344006 0
-0.23397292 2.3900623 0.61269635 0
-0.17329879 1.5665762 -0.056269962 0
-0.26638928 2.4080901 0.43694517 0
-0.26644856 2.4086258 0.61826622 0
-0.086598493 0.78282797 0.46708652 0
-0.19071797 1.5456928 -0.055601705 0
-0.29778174 2.4134018 0.43855458 0
-0.29680502 2.4054861 0.61837059 0
-0.21265581 1.5614581 -0.056260679 0
-0.33141065 2.433434 0.44291794 0
-0.32889715 2.4149783 0.62182605 0
-0.23245206 1.5596797 -0.056297604 0
-0.36211303 2.4296639 0.44302657 0
-0.36202717 2.4290876 0.62658316 0
-0.25247175 1.5590986 -0.05638691 0
-0.3954522 2.4420512 0.4461579 0
-0.39675671 2.4501069 0.63324362 0
-0.27001542 1.5439752 -0.055958487 0
-0.42967865 2.4569457 0.44983193 0
-0.42968613 2.4569883 0.63637012 0
-0.28961214 1.5413984 -0.055992827 0
-0.46083325 2.4526858 0.45007876 0
-0.46164072 2.4569833 0.63782388 0
-0.3112725 1.5489516 -0.05640512 0
-0.52095485 2.592371 0.09440127 0
-0.52155352 2.5953503 0.28449664 0
-0.49431166 2.4597895 0.45248866 0
-0.49390641 2.457773 0.63959271 0
-0.32857278 1.5347353 -0.056033656 0
-0.54658282 2.5530415 0.093212329 0
-0.54555291 2.5482309 0.28006238 0
-0.52651095 2.4592874 0.45357993 0
-0.52842915 2.4682472 0.64399898 0
-0.34797215 1.5309218 -0.056049962 0
-0.57500607 2.5297697 0.092619672 0
-0.57529902 2.5310585 0.27894911 0
-0.55930948 2.4607115 0.45510551 0
-0.56217778 2.473331 0.64712113 0
-0.36394653 1.5128094 -0.05555021 0
-0.60620576 2.5198035 0.092526935 0
-0.60698879 2.5230584 0.27888769 0
-0.59435469 2.4705424 0.45827159 0
-0.59512693 2.4737523 0.6491406 0
-0.38365942 1.5108385 -0.055650827 0
-0.64357162 2.5343642 0.093351789 0
-0.64070052 2.5230579 0.27975723 0
-0.62924278 2.4779377 0.46107659 0
-0.62785679 2.4724798 0.65082979 0
-0.40164661 1.5021268 -0.055511829 0
-0.68547803 2.5636339 0.094740354 0
-0.68332344 2.5555761 0.2842944 0
-0.6625762 2.477983 0.4626008 0
-0.66193187 2.4755731 0.65378624 0
-0.42687026 1.5195256 -0.056348991 0
-0.69247144 2.4649835 0.46176523 0
-0.69367987 2.469285 0.65438056 0
-0.44391492 1.5070566 -0.056089442 0
-0.72641355 2.4661174 0.46365443 0
-0.72701472 2.4681585 0.65645605 0
-0.4613415 1.4964371 -0.055905987 0
-0.75686193 2.4550064 0.46332055 0
-0.76023877 2.4659595 0.65836519 0
-0.48116174 1.4936601 -0.056024153 0
-0.7918793 2.458214 0.46577084 0
-0.79081643 2.4549146 0.65802282 0
-0.49875259 1.4839783 -0.055892143 0
-0.82654107 2.4592733 0.46790653 0
-0.82539815 2.4558728 0.66101319 0
-0.51365763 1.4668987 -0.055488076 0
-0.85605729 2.4447205 0.46715158 0
-0.8567068 2.4465754 0.66136187 0
-0.53519672 1.4688497 -0.055812374 0
-0.88872701 2.439115 0.46818179 0
-0.89008725 2.442848 0.66333157 0
-0.55493772 1.4653978 -0.055942301 0
-0.91946119 2.4279776 0.46822923 0
-0.92037588 2.430393 0.66304398 0
-0.57365346 1.4590793 -0.055972409 0
-0.95108896 2.419081 0.46878597 0
-0.94899869 2.4137642 0.66171509 0
-0.592466 1.4529334 -0.056018401 0
-0.98291957 2.4104619 0.46947703 0
-0.98322314 2.4112062 0.66435534 0
-0.61303371 1.4508501 -0.056231249 0
-1.0149891 2.4021473 0.47030964 0
-1.0134897 2.3985984 0.66434515 0
-0.62855858 1.4368569 -0.055991229 0
-1.0436615 2.3857634 0.46963772 0
-1.0455142 2.3899989 0.66555703 0
-0.64997578 1.4362872 -0.0562835 0
-1.0754766 2.3765397 0.47045058 0
-1.0769006 2.3796864 0.66640866 0
-0.66433036 1.4201258 -0.055973571 0
-1.1010571 2.353708 0.46863836 0
-1.1073985 2.367264 0.66678208 0
-0.68642503 1.420477 -0.056323629 0
-1.1333463 2.345329 0.46977431 0
-1.1316833 2.3418875 0.66359556 0
-0.69956934 1.4023266 -0.055948801 0
-1.1627731 2.3308449 0.4697687 0
-1.1621647 2.3296251 0.66421503 0
-0.71859998 1.3961836 -0.056060284 0
-1.1931614 2.3182192 0.4702149 0
-1.1872061 2.306649 0.661874 0
-0.73483324 1.3845954 -0.055962089 0
-1.2160708 2.291358 0.4678354 0
-1.2150028 2.2893455 0.6612466 0
-0.75253892 1.3758368 -0.055986654 0
-1.2448593 2.2759266 0.46784815 0
-1.2417619 2.2702637 0.66019917 0
-0.77479076 1.3751051 -0.056349427 0
-1.0540289 1.8706993 0.076658018 0
-1.2650828 2.2452798 0.46478611 0
-1.2672453 2.2491176 0.65863806 0
-0.78390044 1.3512044 -0.055770092 0
-1.0539857 1.8167487 0.074985132 0
-1.2950618 2.23229 0.46543607 0
-1.2992197 2.2394571 0.66054755 0
-0.80208081 1.3432856 -0.055855691 0
-1.0529821 1.7634827 0.07332807 0
-1.319294 2.2094889 0.464109 0
-1.3215399 2.2132502 0.65767395 0
-0.81618011 1.3286023 -0.055668078 0
-1.046193 1.703024 0.071356252 0
-1.3475872 2.1936426 0.46430802 0
-1.3477017 2.1938288 0.65689361 0
-0.83280128 1.3181524 -0.055665214 0
-1.0510033 1.6635213 0.070250042 0
-1.3694724 2.167592 0.4624075 0
-1.367643 2.1646965 0.65327537 0
-0.86151356 1.3263152 -0.056463569 0
-1.0491539 1.6151907 0.068761513 0
-1.3960518 2.149246 0.46220732 0
-1.3887473 2.1380007 0.65044487 0
-0.87299377 1.3076463 -0.056132339 0
-1.0536413 1.5782359 0.067747734 0
-1.410834 2.1132703 0.45825475 0
-1.4186597 2.1249924 0.65187043 0
-0.88609743 1.2917515 -0.055924568 0
-1.04796 1.5277146 0.066140264 0
-1.4334164 2.0896323 0.45700678 0
-1.429999 2.0846503 0.64496768 0
-0.90528274 1.2847365 -0.056109942 0
-1.04983 1.4898715 0.065069064 0
-1.4524456 2.0612454 0.4547624 0
-1.4550711 2.0649714 0.64449692 0
-0.91648084 1.2664559 -0.055811152 0
-1.0545053 1.4571877 0.064216465 0
-1.0541117 1.4566437 0.19323453 0
-1.4769844 2.040998 0.4543626 0
-1.4818733 2.0477538 0.64489603 0
-0.51494426 0.71158516 0.43948019 0
-0.93243754 1.2549278 -0.055816125 0
-1.0433235 1.4041646 0.062453814 0
-1.0513088 1.4149114 0.18943958 0
-1.5010169 2.0201542 0.45389417 0
-1.493309 2.0097806 0.63880849 0
-0.52546763 0.70720446 0.44082624 0
-0.94749218 1.2422061 -0.055776536 0
-1.0481628 1.37419 0.061702769 0
-1.0574141 1.3863188 0.18737926 0
-1.5071044 1.9758837 0.44817576 0
-1.5104431 1.9802608 0.63542068 0
-0.52616411 0.68982553 0.43408889 0
-0.96955138 1.2384721 -0.056152612 0
-1.0505888 1.3419865 0.060845986 0
-1.051306 1.3429025 0.18328579 0
-1.5265355 1.9499447 0.44661689 0
-1.5334417 1.9587665 0.63466924 0
-0.54952657 0.70194662 0.44603539 0
-0.98533022 1.2264919 -0.056167535 0
-1.057094 1.3158201 0.060258344 0
-1.0525906 1.3102145 0.18061906 0
-1.5460142 1.9244045 0.44519076 0
-1.5478125 1.926643 0.63052595 0
-0.55544734 0.69139433 0.44373938 0
-0.99200821 1.2034497 -0.055679955 0
-1.0597206 1.2855948 0.059480552 0
-1.0491998 1.2728316 0.1772729 0
-1.5559736 1.8876215 0.4411791 0
-1.5642009 1.8976023 0.62741828 0
-0.56483585 0.68522775 0.44431129 0
-1.0154901 1.2008057 -0.0561448 0
-1.0517955 1.2437365 0.058152065 0
-1.0531757 1.2453685 0.17528114 0
-1.5742124 1.8614886 0.43966943 0
-1.5770417 1.8648343 0.62310052 0
-0.58117706 0.68723541 0.45032266 0
-1.0233819 1.1796854 -0.055755403 0
-1.0559309 1.2172056 0.057528719 0
-1.051404 1.2119874 0.1724326 0
-1.5973244 1.8412874 0.43961394 0
-1.5853931 1.8275338 0.61725873 0
-1.0534277 1.1838707 -0.056575675 0
-1.0595021 1.1906973 0.056901909 0
-1.0604002 1.1917065 0.17143334 0
-1.6011069 1.7993674 0.43438458 0
-1.6041785 1.8028196 0.61568528 0
-1.0589471 1.1603189 -0.056082949 0
-1.0893306 1.1936109 0.057692092 0
-1.0893004 1.1935779 0.17366201 0
-1.6129112 1.7673134 0.43151525 0
-1.6083916 1.762361 0.60873663 0
-1.0754375 1.1489924 -0.056185588 0
-0.93895882 1.0031792 0.049055342 0
-1.1181093 1.1945828 0.17584279 0
-1.6234944 1.7345338 0.42846924 0
-1.6194075 1.7301674 0.60461229 0
-1.0829623 1.1282165 -0.055832069 0
-0.94090992 0.98022813 0.048508562 0
-1.1497657 1.1978115 0.17843509 0
-1.6369802 1.7053853 0.42632705 0
-1.6332873 1.7015382 0.60174716 0
-1.0891095 1.1063921 -0.055426333 0
-0.94727671 0.9623087 0.048208259 0
-1.1793177 1.1980319 0.18066579 0
-1.6421603 1.6682191 0.4221718 0
-1.6391133 1.6651238 0.59612125 0
-1.1115779 1.1011342 -0.055859707 0
-0.96487993 0.95581454 0.048487749 0
-1.2133839 1.2019837 0.18355133 0
-1.6497263 1.6342263 0.41879329 0
-1.6539676 1.638428 0.59397316 0
-1.1344937 1.0958791 -0.056313362 0
-0.9741177 0.94096172 0.048352707 0
-1.2388424 1.196676 0.1851083 0
-1.6566538 1.6002663 0.41540352 0
-1.6559105 1.5995485 0.58739096 0
-1.1459708 1.0794058 -0.056203924 0
-0.98972195 0.93223274 0.048540723 0
-1.2739515 1.1999525 0.18808167 0
-1.6644734 1.5677905 0.41238135 0
-1.6627883 1.5662032 0.58278865 0
-1.159922 1.0653051 -0.05622578 0
-1.3009617 1.1948401 0.063062504 0
-1.3047044 1.1982775 0.19037914 0
-1.6604521 1.5250062 0.40659511 0
-1.6665996 1.5306523 0.57732326 0
-0.66806746 0.61357206 0.37556159 0
-1.1611038 1.0397451 -0.055644006 0
-1.3402725 1.200187 0.064230375 0
-1.3307583 1.1916673 0.19197606 0
-1.6680306 1.4936877 0.40381312 0
-1.6708732 1.4962332 0.57223165 0
-0.66485554 0.59536469 0.36951217 0
-1.18426 1.0339102 -0.056125358 0
-1.3745359 1.2000291 0.065143056 0
-1.6719737 1.4597052 0.40028617 0
-1.6721249 1.4598371 0.56631988 0
-0.66003084 0.57623541 0.36276919 0
-1.197342 1.0190511 -0.056132749 0
-1.401587 1.1928828 0.065707982 0
-1.6729957 1.4238772 0.39620689 0
-1.6702192 1.4215142 0.55956769 0
-0.67431951 0.57390958 0.36662152 0
-0.68592167 0.58378404 0.45066527 0
-1.2066085 1.0010159 -0.055971801 0
-1.4421949 1.196461 0.066900112 0
-1.6863887 1.3990468 0.39517519 0
-1.665902 1.3820509 0.55224705 0
-0.67769212 0.56222087 0.36457714 0
-1.2194167 0.98598623 -0.055985563 0
-1.4817256 1.1980819 0.068028629 0
-1.6826155 1.3605158 0.3902455 0
-1.6794201 1.3579321 0.55101615 0
-0.68805188 0.5563395 0.36635259 0
-1.2172718 0.95915794 -0.055328183 0
-1.5143754 1.1932628 0.068832323 0
-1.6836536 1.3266468 0.38658115 0
-1.6719369 1.3174145 0.54307497 0
-0.70690763 0.55701286 0.37262815 0
-1.2516049 0.9609161 -0.056334265 0
-1.5626591 1.1997272 0.070334703 0
-1.6755854 1.2864259 0.38097903 0
-1.6668416 1.2797129 0.53614318 0
-0.68672103 0.52722818 0.35845932 0
-0.68155885 0.52326488 0.42992255 0
-1.2543278 0.93814224 -0.055920675 0
-1.5987298 1.1957289 0.071274877 0
-1.6849982 1.260251 0.3794809 0
-1.667902 1.2474645 0.53138953 0
-0.69512641 0.51990193 0.35940102 0
-0.71183532 0.53239894 0.44475663 0
-1.2652259 0.92168075 -0.055884685 0
-1.6491981 1.2013935 0.072844632 0
-1.6901342 1.2312144 0.37711608 0
-1.668522 1.2154704 0.52666897 0
-1.6730536 1.2187717 0.68864584 0
-0.69303024 0.50485265 0.35500222 0
-0.7161501 0.52169484 0.44331285 0
-1.2748095 0.90431422 -0.055800594 0
-1.6834534 1.1941948 0.073687643 0
-1.6916276 1.1999933 0.37404805 0
-1.6745905 1.1879077 0.52382135 0
-1.6660075 1.1818191 0.6795662 0
-0.70813549 0.50233155 0.35947117 0
-0.71063507 0.50410461 0.43593493 0
-1.2895067 0.89054739 -0.055948626 0
-1.7396114 1.2013946 0.0754776 0
-1.6803805 1.1604891 0.36830071 0
-1.6703043 1.1535304 0.51789594 0
-1.6669186 1.1511922 0.67397153 0
-0.71387994 0.49301326 0.43408275 0
-1.292275 0.86863267 -0.055589754 0
-1.7049253 1.1460053 0.073340721 0
-1.701633 1.1437922 0.22034654 0
-1.6831721 1.1313833 0.36576104 0
-1.6788123 1.1284527 0.51608711 0
-1.674913 1.1258317 0.67141861 0
-0.72497231 0.48730698 0.4370617 0
-1.3082446 0.85565096 -0.055808805 0
-1.704106 1.1145623 0.072695985 0
-1.7054 1.1154085 0.21899821 0
-1.6850139 1.1020751 0.36311683 0
-1.6764863 1.0964977 0.511087 0
-1.6657265 1.0894604 0.66218418 0
-0.72670251 0.47529626 0.43446216 0
-1.324146 0.84243912 -0.056030173 0
-1.7199668 1.0942655 0.072779007 0
-1.7123442 1.0894158 0.21811104 0
-1.6881913 1.0740495 0.36085838 0
-1.6652135 1.0594307 0.50354356 0
-1.6703387 1.0626915 0.65864581 0
-0.73385042 0.46688527 0.43518618 0
-1.3355895 0.82628196 -0.05606968 0
-1.72287 1.0658786 0.072328188 0
-1.722834 1.0658565 0.21772036 0
-1.6919363 1.046741 0.35881302 0
-1.6776375 1.037895 0.50330848 0
-1.6723863 1.0346463 0.65426397 0
-1.3371805 0.80416346 -0.055706948 0
-1.736577 1.0443555 0.072345816 0
-1.7289287 1.0397558 0.21681879 0
-1.6865852 1.014291 0.35494143 0
-1.6746626 1.007121 0.49857178 0
-1.6731583 1.0062163 0.64955753 0
-1.350619 0.78926098 -0.055848323 0
-1.7708914 1.0348556 0.073226668 0
-1.7647426 1.0312624 0.21966416 0
-1.6840814 0.98412645 0.35177866 0
-1.6713078 0.97666192 0.49387249 0
-1.6704588 0.97616577 0.64368647 0
-1.3647329 0.77462363 -0.056024157 0
-1.819869 1.0329593 0.074708126 0
-1.8136425 1.0294251 0.22411962 0
-1.6820043 0.95470721 0.34880593 0
-1.6757742 0.95117104 0.49161401 0
-1.6683637 0.9469648 0.63823366 0
-1.3739878 0.75716352 -0.05600825 0
-1.6785027 0.92497253 0.34563699 0
-1.6685327 0.91947842 0.48605442 0
-1.6675104 0.91891503 0.63343048 0
-1.3825102 0.73932081 -0.055971719 0
-1.6801771 0.89850324 0.34362474 0
-1.6696699 0.89288437 0.4830721 0
-1.6714345 0.89382803 0.63059562 0
-1.4030353 0.7277292 -0.056427214 0
-1.6920147 0.8776176 0.34375834 0
-1.6760526 0.86933839 0.48171341 0
-1.6690574 0.86571008 0.62553638 0
-1.4074931 0.70769572 -0.056243643 0
-1.7090348 0.85931265 0.34499049 0
-1.6695397 0.83945429 0.47676566 0
-1.6781567 0.84378695 0.624915 0
-1.4107683 0.68722665 -0.056024272 0
-1.7207839 0.83824444 0.34520414 0
-1.6752893 0.81608266 0.47543529 0
-1.6754128 0.8161428 0.62001711 0
-1.4271061 0.67308617 -0.056332029 0
-1.7275833 0.81480443 0.34448254 0
-1.6673987 0.78641874 0.47034836 0
-1.6677593 0.78658885 0.61347067 0
-1.4181387 0.64715582 -0.055651981 0
-1.7339932 0.79129332 0.34374657 0
-1.6690499 0.76165694 0.46807155 0
-1.6753627 0.76453775 0.61267763 0
-1.429584 0.63075256 -0.055785012 0
-1.7547991 0.77424204 0.345911 0
-1.6692228 0.73648465 0.46548238 0
-1.6715852 0.73752695 0.60785174 0
-1.4423989 0.61482781 -0.055978529 0
-1.7495929 0.74577039 0.34300637 0
-1.6666878 0.71043181 0.46224415 0
-1.6662596 0.71024925 0.60261518 0
-1.4552816 0.59877998 -0.056181423 0
-1.7721648 0.72916251 0.34560409 0
-1.6743178 0.68890309 0.46191776 0
-1.6678125 0.68622643 0.60000408 0
-1.4540468 0.5769729 -0.055848848 0
-1.7825596 0.70732838 0.34586686 0
-1.6743895 0.66440594 0.45959294 0
-1.6714419 0.66323632 0.59825778 0
-1.4719536 0.5627315 -0.056260001 0
-1.7839196 0.68199682 0.34443715 0
-1.670059 0.63846767 0.45616135 0
-1.6683333 0.63780791 0.59422338 0
-1.4697303 0.54077107 -0.055910323 0
-1.7950671 0.66047513 0.34495634 0
-1.6645715 0.61246073 0.4525201 0
-1.6808422 0.61844736 0.59585774 0
-1.4721755 0.52072018 -0.055749483 0
-1.7995921 0.6365301 0.34425834 0
-1.672088 0.5914309 0.452503 0
-1.6675222 0.58981591 0.58845627 0
-1.4793167 0.50238067 -0.055775929 0
-1.7996531 0.61116791 0.34277058 0
-1.6662523 0.56586462 0.44895983 0
-1.6827254 0.57145894 0.5912351 0
-1.4846733 0.48343712 -0.055743951 0
-1.8247154 0.59416109 0.3460916 0
-1.6706488 0.54399419 0.4482632 0
-1.6655782 0.54234314 0.58276463 0
-1.488681 0.46409342 -0.055670593 0
-1.8163909 0.56625634 0.34313309 0
-1.6709915 0.52092838 0.44655967 0
-1.6675776 0.51986408 0.58112764 0
-1.4915236 0.4444533 -0.0555632 0
-1.8192148 0.54210067 0.34234986 0
-1.6732388 0.49860188 0.44544706 0
-1.6642572 0.49592549 0.57774848 0
-1.5015924 0.42694327 -0.055733595 0
-1.8368241 0.52225864 0.3443988 0
-1.6850587 0.47910768 0.44695219 0
-1.6690024 0.47454247 0.57727563 0
-1.5187949 0.41123703 -0.056175429 0
-1.8357981 0.49707055 0.34300566 0
-1.6787946 0.45455945 0.44373727 0
-1.6739458 0.45324653 0.57696563 0
-1.5214341 0.39145875 -0.056086279 0
-1.8413824 0.47378016 0.34290716 0
-1.6751786 0.43101659 0.44131193 0
-1.6743581 0.43080547 0.57519239 0
-1.5255013 0.37209025 -0.056059044 0
-1.8449122 0.44999886 0.34248212 0
-1.6709061 0.40755644 0.43879959 0
-1.6714045 0.40767798 0.5723688 0
-1.5280467 0.35238731 -0.055985082 0
-1.8657109 0.43025702 0.34530997 0
-1.6770524 0.38674992 0.43909991 0
-1.6718376 0.38554734 0.5708093 0
-1.5314326 0.33291727 -0.055951107 0
-1.8598264 0.40430662 0.34325138 0
-1.666693 0.36232141 0.43515846 0
-1.6746001 0.36404034 0.57014221 0
-1.5371292 0.31394041 -0.056010362 0
-1.859221 0.37972382 0.34223002 0
-1.6742144 0.34193841 0.43596348 0
