# .PCD v0.7 - Point Cloud Data file format
VERSION 0.7
FIELDS x y z intensity
SIZE 4 4 4 4
TYPE F F F F
COUNT 1 1 1 1
WIDTH 1353
HEIGHT 1
VIEWPOINT 0 0 0 1 0 0 0
POINTS 1353
DATA ascii
-1.2078528 -0.35992333 0.04499571 0
-1.2151521 -0.36209843 0.13626625 0
-1.6714933 -0.49808174 0.31455085 0
-1.6716174 -0.49811873 0.4450154 0
-1.6792611 -0.50039643 0.58295715 0
-1.4912201 -0.464885 -0.055765547 0
-1.3089651 -0.40806732 0.048949949 0
-1.3086829 -0.4079794 0.14731914 0
-1.6743621 -0.52197915 0.31630254 0
-1.6736362 -0.52175283 0.44726643 0
-1.6732544 -0.5216338 0.58310592 0
-1.4918627 -0.48577812 -0.056013886 0
-1.4178954 -0.46169302 0.053236693 0
-1.4136831 -0.4603214 0.15977891 0
-1.6752896 -0.54550534 0.31775022 0
-1.6677641 -0.54305488 0.44748917 0
-1.6665262 -0.54265177 0.58309627 0
-1.4910148 -0.50635344 -0.056216996 0
-1.5490043 -0.52604681 0.058403421 0
-1.5506196 -0.52659535 0.1759914 0
-1.6708354 -0.56742102 0.31823534 0
-1.6822194 -0.5712871 0.45326203 0
-1.4815904 -0.52405035 -0.056106016 0
-1.7156624 -0.60684347 0.19557512 0
-1.6750163 -0.59246665 0.32042721 0
-1.6709373 -0.59102386 0.45219159 0
-1.4666213 -0.53962713 -0.055792052 0
-1.685074 -0.62000442 0.19296291 0
-1.6703973 -0.61460423 0.32099864 0
-1.6721544 -0.61525083 0.45458156 0
-1.4661893 -0.5605278 -0.056039684 0
-1.6811464 -0.64270639 0.19342457 0
-1.6759175 -0.64070737 0.32358423 0
-1.6766888 -0.64100224 0.4579722 0
-1.4630578 -0.58054847 -0.05619495 0
-1.6900096 -0.67060405 0.19540042 0
-1.6680142 -0.66187614 0.32364181 0
-1.659716 -0.65858346 0.4555653 0
-1.4533123 -0.59796965 -0.056105394 0
-1.6973331 -0.69837278 0.19724831 0
-1.6718111 -0.68787163 0.32603329 0
-1.6713212 -0.68767011 0.46109101 0
-1.4390872 -0.61341619 -0.055850003 0
-1.6920962 -0.72126222 0.1976795 0
-1.6853381 -0.71838158 0.33040929 0
-1.6731544 -0.71318817 0.4640376 0
-1.443707 -0.63698387 -0.05633612 0
-1.684285 -0.74313027 0.19784449 0
-1.662734 -0.73362166 0.32776284 0
-1.6714671 -0.7374748 0.4661082 0
-1.4278166 -0.65157223 -0.056031771 0
-1.6736618 -0.76376158 0.19771068 0
-1.6709095 -0.76250565 0.33124089 0
-1.6770272 -0.76529741 0.47030875 0
-1.4174942 -0.66855276 -0.055952616 0
-1.6823801 -0.79348463 0.19990505 0
-1.677579 -0.79122025 0.33451164 0
-1.670265 -0.78777057 0.4711569 0
-1.4095976 -0.68665642 -0.055977784 0
-1.9288981 -0.93962294 0.076600187 0
-1.6754295 -0.8161509 0.20028444 0
-1.6753317 -0.81610328 0.336086 0
-1.6769977 -0.81691486 0.47592011 0
-1.4013876 -0.70462584 -0.055999663 0
-1.8835397 -0.94705474 0.07526654 0
-1.6750246 -0.84221214 0.20148785 0
-1.6597246 -0.83451921 0.33503661 0
-1.6696796 -0.83952463 0.4768056 0
-1.3978918 -0.72506136 -0.056220356 0
-1.833944 -0.9512338 0.073757485 0
-1.6748852 -0.86873281 0.20277087 0
-1.6875345 -0.87529379 0.34284809 0
-1.3796993 -0.7378177 -0.055857919 0
-1.7821394 -0.95302933 0.072150938 0
-1.6655784 -0.89069635 0.20298591 0
-1.6739862 -0.89519256 0.34235862 0
-1.3741904 -0.75727522 -0.056016508 0
-1.7314439 -0.95414692 0.070579335 0
-1.6758865 -0.92353088 0.20564315 0
-1.6754664 -0.92329937 0.3450118 0
-1.3636521 -0.77401024 -0.055979792 0
-1.6945319 -0.96181792 0.06956286 0
-1.6793234 -0.95318556 0.20752124 0
-1.6684533 -0.9470157 0.34599581 0
-1.352547 -0.79038775 -0.055928055 0
-1.6772726 -0.98014754 0.06935551 0
-1.6658374 -0.97346514 0.20735306 0
-1.6780807 -0.98061979 0.3505252 0
-1.3455724 -0.80921024 -0.056056552 0
-1.6756185 -1.0076958 0.069806278 0
-1.6755543 -1.0076572 0.21012531 0
-1.6731256 -1.0061966 0.35210887 0
-1.335443 -0.82619137 -0.056063533 0
-1.6799958 -1.039354 0.070528276 0
-1.6713754 -1.0340208 0.21121736 0
-1.6784174 -1.0383774 0.35594603 0
-1.317471 -0.8381924 -0.055747725 0
-1.6814485 -1.0697596 0.071149141 0
-1.6737146 -1.0648392 0.21319059 0
-1.6638845 -1.0585852 0.35566273 0
-1.31543 -0.86035061 -0.056115333 0
-1.6683279 -1.0911617 0.071169712 0
-1.6662208 -1.0897835 0.21396704 0
-1.6686691 -1.0913849 0.35959455 0
-1.2997766 -0.87367505 -0.05591245 0
-1.6650147 -1.1191784 0.071623892 0
-1.6757339 -1.1263835 0.21699284 0
-1.6717688 -1.1237183 0.36328307 0
-1.2882866 -0.8897047 -0.055895686 0
-1.6810255 -1.1609346 0.072935693 0
-1.6704854 -1.1536554 0.21817704 0
-1.6722658 -1.1548849 0.36652213 0
-1.287922 -0.91361588 -0.056374554 0
-1.6695565 -1.1843367 0.073079348 0
-1.6717288 -1.1858777 0.2202723 0
-2.0445757 -1.4503648 0.45209095 0
-1.2699883 -0.92515016 -0.056095045 0
-1.6771977 -1.2217906 0.074081376 0
-1.6764096 -1.2212163 0.2228976 0
-1.995818 -1.4538963 0.44532266 0
-1.2575026 -0.94051671 -0.056062214 0
-1.6706384 -1.2495111 0.07448072 0
-1.6698979 -1.2489573 0.22410515 0
-1.242908 -0.95423913 -0.055942822 0
-1.6637312 -1.2773249 0.074883915 0
-1.6694285 -1.2816991 0.22619016 0
-1.2297465 -0.96898741 -0.055895187 0
-1.5890776 -1.2521249 0.072227731 0
-1.5880666 -1.2513283 0.21728416 0
-1.5892613 -1.2522697 0.36490789 0
-1.2250844 -0.99056906 -0.056245781 0
-1.5743172 -1.2729489 0.072279669 0
-1.571678 -1.2708149 0.21721411 0
-1.5756307 -1.2740109 0.36543271 0
-1.2031405 -0.99813867 -0.055810925 0
-1.6776161 -1.3917689 0.077820763 0
-1.6649165 -1.3812332 0.23248549 0
-1.7743151 -1.4719915 0.41577914 0
-1.193781 -1.0160203 -0.055965804 0
-1.6754345 -1.4259529 0.078546263 0
-1.663456 -1.415758 0.23475233 0
-1.7524725 -1.4915196 0.41502896 0
-1.4560924 -1.239272 0.48782951 0
-1.1859304 -1.0353683 -0.056204516 0
-1.7083012 -1.4914206 0.40898329 0
-1.4207102 -1.2403413 0.48117006 0
-1.1682373 -1.046133 -0.055985872 0
-1.6277395 -1.457608 0.078006759 0
-1.6282485 -1.4580636 0.23489216 0
-1.6273117 -1.4572248 0.3939555 0
-1.4023103 -1.2557405 0.48025566 0
-1.1535168 -1.0594225 -0.055915296 0
-1.356776 -1.2461015 0.46999791 0
-1.1394002 -1.0732168 -0.055881668 0
-1.3183935 -1.2418131 0.46208212 0
-1.129095 -1.090664 -0.056045376 0
-1.287588 -1.2437625 0.4567382 0
-1.1236948 -1.1131372 -0.05646861 0
-1.2654531 -1.2535638 0.45444977 0
-1.1005487 -1.118013 -0.056008492 0
-1.2498621 -1.2696956 0.45455635 0
-1.0838522 -1.1291436 -0.055877943 0
-1.0709921 -1.1442429 -0.055953339 0
-1.063128 -1.1649001 -0.056304377 0
-1.0468338 -1.1764601 -0.056221534 0
-1.0295576 -1.1868043 -0.056091864 0
-1.006421 -1.1900815 -0.05564338 0
-0.99950606 -1.2125458 -0.056100797 0
-0.98003322 -1.2198985 -0.05586559 0
-0.9625178 -1.2294875 -0.055745255 0
-0.94988173 -1.2453389 -0.055917203 0
-0.92956012 -1.2510552 -0.055643886 0
-0.91812402 -1.2687265 -0.055911213 0
-0.89857608 -1.2752187 -0.055694263 0
-0.88791311 -1.2943984 -0.056039162 0
-0.8695522 -1.3024911 -0.055911049 0
-0.85101491 -1.3101523 -0.055775486 0
-0.81426293 -1.253572 0.49731568 0
-0.83766085 -1.3258442 -0.055990029 0
-0.78304714 -1.2394019 0.48774371 0
-0.8254565 -1.3437027 -0.056300782 0
-0.76105559 -1.238869 0.48372427 0
-0.80637407 -1.3504758 -0.056154668 0
-0.73874366 -1.2372117 0.47940698 0
-0.78730857 -1.3570789 -0.05601256 0
-0.72355372 -1.2471851 0.4797031 0
-0.77371353 -1.3731934 -0.056271084 0
-0.70649463 -1.2538927 0.47882327 0
-0.75608075 -1.3823122 -0.056250159 0
-0.68739313 -1.2567333 0.47656485 0
-0.74007964 -1.3944808 -0.056361634 0
-0.65991306 -1.2434285 0.46833128 0
-0.72048044 -1.3998371 -0.056206986 0
-0.63880897 -1.2411559 0.46440876 0
-0.70396662 -1.4111412 -0.056300472 0
-0.61893409 -1.2406886 0.46128112 0
-0.68580824 -1.4192007 -0.056273017 0
-0.60222584 -1.2462366 0.46048787 0
-0.66914994 -1.4304286 -0.056379646 0
-0.57891726 -1.23754 0.45454481 0
-0.64775234 -1.431374 -0.05609097 0
-0.56526691 -1.2491013 0.45614064 0
-0.625696 -1.4303132 -0.055736236 0
-0.54758543 -1.2517558 0.45455599 0
-0.61024344 -1.4442465 -0.055975307 0
-0.53511208 -1.2664353 0.45740345 0
-0.59328789 -1.4549489 -0.05609611 0
-0.50438213 -1.2369211 0.34080663 0
-0.51748919 -1.2690642 0.45596328 0
-0.57531726 -1.4633111 -0.056134749 0
-0.48376635 -1.2304527 0.33731923 0
-0.49792531 -1.2664658 0.45274103 0
-0.55550057 -1.466884 -0.055999037 0
-0.46497938 -1.227849 0.14110105 0
-0.46140727 -1.2184163 0.23496845 0
-0.44801396 -1.1830492 0.32275179 0
-0.48555079 -1.282171 0.45613354 0
-0.53791773 -1.4763175 -0.056096133 0
-0.43982384 -1.2070984 0.13806905 0
-0.44294035 -1.2156516 0.23334117 0
-0.42599896 -1.1691558 0.31747288 0
-0.51981384 -1.4844795 -0.0561531 0
-0.42484149 -1.2132584 0.13815078 0
-0.42165285 -1.2041522 0.2300965 0
-0.41195557 -1.1764588 0.31802213 0
-0.43592373 -1.2449069 0.43883139 0
-0.50188142 -1.4932877 -0.056242768 0
-0.41076729 -1.2221886 0.13856769 0
-0.4127875 -1.2281995 0.23367982 0
-0.40629977 -1.208896 0.32538179 0
-0.41936454 -1.2477686 0.43794399 0
-0.48008224 -1.490309 -0.055898461 0
-0.39589348 -1.2289636 0.13875961 0
-0.39572391 -1.2284373 0.23275852 0
-0.41318259 -1.2826339 0.34380111 0
-0.41198981 -1.2789311 0.44702515 0
-0.46348956 -1.5034047 -0.056166291 0
-0.40866226 -1.3255634 0.35390067 0
-0.44340092 -1.5053116 -0.056024499 0
-0.36607051 -1.2427809 0.33054242 0
-0.42541867 -1.5143584 -0.056157377 0
-0.35156766 -1.2514718 0.33165017 0
-0.40504369 -1.5148315 -0.055981342 0
-0.33530462 -1.2540129 0.33117843 0
-0.38609532 -1.5204309 -0.056004159 0
-0.3138755 -1.2360317 0.32536006 0
-0.36708125 -1.5258394 -0.056028675 0
-0.34841433 -1.5328672 -0.056121185 0
-0.33060494 -1.5442272 -0.056380209 0
-0.30890986 -1.5371947 -0.055976991 0
-0.28901288 -1.538209 -0.05587697 0
-0.49649921 -2.6425102 0.095991813 0
-0.27056023 -1.5470905 -0.056071397 0
-0.43020415 -2.4599504 0.089156292 0
-0.25250721 -1.5593175 -0.056394827 0
-0.39853206 -2.4610703 0.089007936 0
-0.23056896 -1.5470448 -0.055841535 0
-0.36794016 -2.4687619 0.089111492 0
-0.21209194 -1.5573179 -0.056111503 0
-0.33639252 -2.4700141 0.088996731 0
-0.19125094 -1.5500122 -0.055757083 0
-0.17118186 -1.5474397 -0.055582594 0
-0.15304472 -1.5633708 -0.056081157 0
-0.13270879 -1.5576729 -0.055812392 0
-0.20957227 -2.4598601 0.08813832 0
-0.11270645 -1.553997 -0.05562542 0
-0.093638852 -1.5637772 -0.055928864 0
-0.073468924 -1.5548295 -0.055571351 0
-0.054279666 -1.5669984 -0.055977415 0
-0.034597348 -1.569935 -0.056062311 0
-0.014828605 -1.5703924 -0.056067534 0
0.0049580527 -1.5743734 -0.056207437 0
0.024628295 -1.5644903 -0.055861242 0
0.044053655 -1.5544755 -0.055519063 0
0.064612687 -1.5779704 -0.056382783 0
0.0836007 -1.560689 -0.055798493 0
0.10326446 -1.5598061 -0.055808991 0
0.12375034 -1.5692142 -0.056196909 0
0.14268894 -1.5586846 -0.055879738 0
0.16342804 -1.567552 -0.056266952 0
0.18140733 -1.5504546 -0.055730827 0
0.2027141 -1.5619092 -0.056229856 0
0.21931832 -1.537874 -0.055459596 0
0.24170007 -1.5545133 -0.056164958 0
0.26007402 -1.5443393 -0.055911254 0
0.2798813 -1.5430527 -0.055987831 0
0.29891786 -1.5375024 -0.055918586 0
0.31796956 -1.53225 -0.055868752 0
0.33737728 -1.5287595 -0.055891953 0
0.35623854 -1.5228475 -0.055835381 0
0.37542269 -1.5183946 -0.055841021 0
0.39745125 -1.5248262 -0.056257147 0
0.41324648 -1.5073984 -0.055801727 0
0.43447143 -1.5099918 -0.056095812 0
0.45559192 -1.5115091 -0.056360833 0
0.470635 -1.4931132 -0.055891439 0
0.49001935 -1.4889576 -0.055962428 0
0.50725377 -1.4783723 -0.055800226 0
0.52819532 -1.4784945 -0.056051437 0
0.54762781 -1.4740369 -0.056139428 0
0.56871045 -1.4736742 -0.056393884 0
0.48969233 -1.2689182 0.45250711 0
0.58170468 -1.4526222 -0.055864152 0
0.51030225 -1.2743174 0.45668781 0
0.60002714 -1.4453714 -0.055871446 0
0.52423912 -1.2628099 0.4548935 0
0.62126231 -1.4448736 -0.056150157 0
0.53890145 -1.2533265 0.45388582 0
0.64008009 -1.438452 -0.056209374 0
0.55245566 -1.2415335 0.45209855 0
0.66081411 -1.4360874 -0.056437653 0
0.57230639 -1.2437415 0.45549074 0
0.67132872 -1.4118483 -0.055812865 0
0.59303784 -1.2471975 0.4594548 0
0.69606417 -1.4175634 -0.05638082 0
0.60927349 -1.2408106 0.4598918 0
0.70846123 -1.3980374 -0.055954594 0
0.63077706 -1.2447399 0.46425527 0
0.73003781 -1.3967159 -0.056265172 0
0.64482164 -1.2336795 0.46312177 0
0.73923367 -1.3719486 -0.055638023 0
0.67128652 -1.2458451 0.47082463 0
0.76351488 -1.3752582 -0.056157686 0
0.7016831 -1.2638856 0.051609866 0
0.69578677 -1.253265 0.15405238 0
0.69652492 -1.2545946 0.25879595 0
0.69531888 -1.2524222 0.36547425 0
0.69533306 -1.2524477 0.47659105 0
0.77593988 -1.357087 -0.055810239 0
0.71318692 -1.2473347 0.05129667 0
0.7131868 -1.2473345 0.15441506 0
0.70574725 -1.234323 0.2564272 0
0.71418995 -1.2490889 0.36709678 0
0.71987325 -1.2590288 0.48250645 0
0.79548991 -1.3514979 -0.055987895 0
0.73524541 -1.2491454 0.051747788 0
0.7358349 -1.250147 0.15589793 0
0.73217481 -1.2439287 0.26031747 0
0.73598462 -1.2504014 0.37017685 0
0.72927994 -1.2390105 0.47831613 0
0.81595129 -1.3471655 -0.056229603 0
0.82928956 -1.3310716 -0.055989284 0
0.84215713 -1.3145514 -0.055736035 0
0.86552221 -1.3142908 -0.056182634 0
0.88464439 -1.307193 -0.056350946 0
0.89139813 -1.2820922 -0.055748351 0
0.91197646 -1.2770766 -0.056025159 0
0.92482173 -1.2611799 -0.055834237 0
0.94953835 -1.2612708 -0.056363132 0
0.96458393 -1.2482313 -0.056318756 0
0.97126073 -1.2246848 -0.055803757 0
0.78063756 -0.98432368 0.044851508 0
0.77598232 -0.97845387 0.13420849 0
0.99108034 -1.217859 -0.056056947 0
0.76840806 -0.94423491 0.043462276 0
0.77283776 -0.94967824 0.13158593 0
1.0083482 -1.2076936 -0.056169033 0
0.77839357 -0.93227798 0.043359637 0
0.77453417 -0.92765558 0.12987557 0
1.0234106 -1.1948267 -0.056165516 0
0.77663255 -0.90671456 0.04262216 0
0.76959485 -0.89849812 0.12714009 0
1.0335425 -1.1763471 -0.055904195 0
0.77122498 -0.87778521 0.041715469 0
0.77765584 -0.8851046 0.12662049 0
1.0469434 -1.1617659 -0.055833332 0
0.77375543 -0.85861623 0.041264258 0
0.7776742 -0.86296481 0.12484425 0
1.0649701 -1.1522585 -0.056016464 0
1.0791724 -1.1385241 -0.056004956 0
1.0920608 -1.1234452 -0.05593523 0
1.1085224 -1.112016 -0.056056727 0
1.1171945 -1.0928427 -0.055794947 0
1.1431032 -1.0903617 -0.056398701 0
1.153165 -1.0725557 -0.05622432 0
1.1624122 -1.0541726 -0.056023527 0
1.1686521 -1.0333154 -0.055692736 0
1.1813514 -1.0183303 -0.055682432 0
1.2094386 -1.0162808 -0.056398641 0
1.2146174 -0.99481153 -0.056051541 0
1.2162704 -0.9708373 -0.05555927 0
1.2292351 -0.95609707 -0.055597126 0
1.2427703 -0.94175178 -0.05566854 0
1.261893 -0.93146449 -0.055995286 0
1.2716519 -0.91415805 -0.055913094 0
1.2814128 -0.89692003 -0.055841252 0
1.2955698 -0.88273472 -0.05596935 0
1.3024733 -0.86362773 -0.055793356 0
1.3131268 -0.84708393 -0.055788372 0
1.3299547 -0.8344143 -0.056052465 0
1.335513 -0.81464845 -0.055849954 0
1.3536307 -0.80249083 -0.056180578 0
1.3617487 -0.78430116 -0.056103166 0
1.3733803 -0.76813561 -0.056179423 0
1.3766401 -0.74736029 -0.055923373 0
1.3921905 -0.73325902 -0.056175534 0
1.399515 -0.71475339 -0.056103468 0
1.399812 -0.69282275 -0.055761222 0
1.4119227 -0.67681944 -0.055899721 0
1.42659 -0.6618911 -0.056145981 0
1.4313238 -0.64231128 -0.056009527 0
1.4462197 -0.62724036 -0.056278892 0
1.4488591 -0.60682666 -0.056079797 0
1.4605087 -0.59020209 -0.056238588 0
1.4634124 -0.5700472 -0.056069553 0
1.4708633 -0.55172193 -0.056084398 0
1.4644275 -0.52837175 -0.055580895 0
1.4834034 -0.51420289 -0.056050915 0
1.4805249 -0.4924126 -0.055703439 0
1.4920365 -0.47546196 -0.055906862 0
1.485639 -0.4528985 -0.055449061 0
1.5074673 -0.43888575 -0.05605305 0
1.5193367 -0.42166376 -0.056292504 0
1.512898 -0.39943019 -0.055863164 0
1.511405 -0.37874493 -0.055627521 0
1.5270307 -0.36228868 -0.056030281 0
1.5358905 -0.34402266 -0.056191958 0
1.5443268 -0.32554761 -0.056346163 0
1.5344889 -0.30334592 -0.055843424 0
1.5495188 -0.28609309 -0.056254834 0
1.5538672 -0.26670924 -0.056286309 0
1.537587 -0.24402584 -0.055580873 0
1.5570102 -0.22704847 -0.05617518 0
1.5625709 -0.20780157 -0.056276936 0
1.5572838 -0.18717536 -0.055997189 0
1.5521458 -0.16676049 -0.055732515 0
1.5603076 -0.14778972 -0.055954318 0
1.5664603 -0.12849402 -0.056112483 0
1.559137 -0.10814863 -0.055796951 0
1.569815 -0.089044087 -0.056134511 0
1.5567707 -0.068651959 -0.05563274 0
1.5590904 -0.049094599 -0.055689126 0
1.5659065 -0.029579286 -0.055914856 0
1.5708255 -0.0098896883 -0.056081604 0
1.5708549 0.0098898746 -0.056082658 0
1.5768045 0.029785145 -0.056303997 0
1.5662421 0.049319804 -0.055944581 0
1.5601081 0.068799138 -0.055752002 0
1.5714217 0.089135222 -0.056191966 0
1.5707661 0.10895526 -0.056213122 0
1.572934 0.12902506 -0.056344386 0
1.5657409 0.14830434 -0.056149162 0
1.5538167 0.16693999 -0.055792503 0
1.5566429 0.18709832 -0.055974144 0
1.5539021 0.20664874 -0.055964723 0
1.5626317 0.22786824 -0.056377999 0
1.548661 0.24578336 -0.055981174 0
1.5430272 0.26484862 -0.055893645 0
1.5391986 0.28418764 -0.055880163 0
1.5342695 0.30330253 -0.055835437 0
1.5324984 0.32305416 -0.055914596 0
1.5331658 0.34341234 -0.056092273 0
1.5354178 0.36427853 -0.05633802 0
1.5177209 0.38032764 -0.055859983 0
1.5149542 0.39997303 -0.055939086 0
1.5160536 0.42075258 -0.056170862 0
1.5039487 0.43786132 -0.055922218 0
1.5020097 0.45788914 -0.056060072 0
1.495356 0.47651976 -0.056031242 0
1.4848906 0.4938646 -0.055867694 0
1.4788698 0.5126313 -0.055879608 0
1.4706684 0.5306235 -0.055817764 0
1.4663253 0.55001968 -0.055911358 0
1.4626404 0.56974643 -0.05603997 0
1.4549533 0.58795714 -0.056024674 0
1.4505361 0.60752904 -0.056144707 0
1.4405925 0.62479985 -0.056059912 0
1.443092 0.64759231 -0.056470033 0
1.4237773 0.66058612 -0.056035288 0
1.410756 0.67626011 -0.055853527 0
1.4017823 0.69379795 -0.055839706 0
1.3940443 0.71195942 -0.05588416 0
1.3835937 0.72873116 -0.055828653 0
1.3747492 0.74633378 -0.055846557 0
1.3661231 0.76407659 -0.055882558 0
1.3475541 0.77612573 -0.055518355 0
1.3475786 0.79890293 -0.055929396 0
1.3405848 0.81774223 -0.05606205 0
1.3351821 0.83769393 -0.056272779 0
1.3142228 0.8477909 -0.055834938 0
1.3192388 0.87474436 -0.056511529 0
1.3017319 0.88693333 -0.056235559 0
1.28297 0.8980099 -0.055909105 0
1.2731295 0.91522026 -0.05597806 0
1.2600472 0.93010205 -0.055913381 0
1.243264 0.94212592 -0.055690657 0
1.2505516 0.97267699 -0.056561254 0
1.2233037 0.97645128 -0.055880547 0
1.2204245 0.99956781 -0.056319527 0
1.1986675 1.00723 -0.055896364 0
1.1941803 1.0293888 -0.05628711 0
1.1824217 1.0454905 -0.056348935 0
1.164317 1.0559001 -0.056115329 0
1.1422985 1.0624487 -0.055694506 0
1.1339144 1.0815969 -0.055945341 0
1.1278399 1.1032561 -0.056326598 0
1.1090051 1.1125001 -0.056081131 0
1.0818217 1.1129117 -0.05541078 0
1.0843062 1.1439403 -0.056271389 0
0.59318388 0.6258074 0.28687075 0
1.0616164 1.1486299 -0.05584006 0
0.61348492 0.66376811 0.30070692 0
1.0542463 1.1698697 -0.056222789 0
1.009066 1.1197343 0.053813331 0
1.0068482 1.1172732 0.16163479 0
1.0044787 1.1146438 0.27060768 0
0.61663556 0.68426442 0.30645037 0
1.0375651 1.1809256 -0.056121774 0
0.98018932 1.1156222 0.053018324 0
0.97801596 1.1131486 0.15924379 0
0.98271078 1.118492 0.26851642 0
0.61848807 0.70394462 0.31175157 0
1.0159192 1.1860805 -0.055754382 0
0.96038169 1.1212407 0.052706443 0
0.96248615 1.1236976 0.15900649 0
0.95694149 1.1172243 0.26529822 0
0.62763572 0.73276156 0.320988 0
1.0136229 1.2140108 -0.056462847 0
0.92425585 1.1069765 0.051484749 0
0.93631339 1.1214178 0.15700306 0
0.93703127 1.1222775 0.26367536 0
0.62914026 0.75351804 0.32658419 0
0.98756808 1.2135431 -0.055858288 0
0.91242671 1.1212078 0.051608182 0
0.91536611 1.1248199 0.15585327 0
0.91524345 1.1246692 0.26150879 0
0.62685716 0.77029437 0.33040792 0
0.9693715 1.2223027 -0.055695213 0
0.89063615 1.1230234 0.051171474 0
0.89092332 1.1233855 0.15408787 0
0.89418232 1.1274949 0.25952715 0
0.62176746 0.78400081 0.3329024 0
0.95894766 1.2409376 -0.055989671 0
0.86768907 1.1228434 0.050661396 0
0.86175293 1.1151615 0.15145943 0
0.85728681 1.1093822 0.25285307 0
0.61234981 0.79241854 0.33317614 0
0.9465844 1.257347 -0.05618779 0
0.84672594 1.1247051 0.050260346 0
0.84194624 1.1183562 0.15044144 0
0.84743476 1.1256466 0.25410777 0
0.61002225 0.81029183 0.33743456 0
0.92568576 1.2623582 -0.055886403 0
0.82141775 1.1201679 0.049591433 0
0.82362467 1.1231775 0.14968298 0
0.82270235 1.1219196 0.25090793 0
0.59837019 0.81599784 0.33664629 0
0.91564608 1.2822154 -0.056250595 0
0.81454724 1.1406426 0.05003982 0
0.81138974 1.1362211 0.15004776 0
0.81403387 1.1399238 0.25262195 0
0.59191298 0.82887912 0.33885872 0
0.89715928 1.2903785 -0.056108657 0
0.81311268 1.1694947 0.050852351 0
0.81117278 1.1667047 0.15271236 0
0.80697811 1.1606715 0.25494772 0
0.57886565 0.83257878 0.33736449 0
0.87755114 1.2967117 -0.055899113 0
0.81179291 1.1995441 0.051710378 0
0.81093317 1.1982738 0.15549558 0
0.81698602 1.2072177 0.26289129 0
0.56900352 0.84078681 0.33776039 0
0.86652827 1.3158184 -0.056247938 0
0.8118313 1.2327614 0.052697457 0
0.80433416 1.2213771 0.15716684 0
0.80497485 1.2223499 0.26395828 0
0.73648733 1.1183521 0.34164119 0
0.56113726 0.85208392 0.33943319 0
0.84604627 1.3206222 -0.05599343 0
0.81618989 1.2740183 0.054017462 0
0.80887055 1.2625934 0.1611471 0
0.78986251 1.232923 0.26407275 0
0.7088902 1.1065305 0.3352764 0
0.55421644 0.86509514 0.34180912 0
0.82945752 1.3313413 -0.056000624 0
0.81592894 1.3096268 0.055087246 0
0.81482422 1.3078536 0.16560107 0
0.77716178 1.2474025 0.26505697 0
0.69749558 1.1195325 0.33652803 0
0.54419959 0.87348092 0.34238774 0
0.80827874 1.3344978 -0.055700865 0
0.760104 1.2549596 0.26460797 0
0.6784389 1.1201274 0.33411238 0
0.53482479 0.88301528 0.34345797 0
0.4067986 0.67163938 0.46567842 0
0.79137892 1.3445134 -0.055698555 0
0.74943441 1.2732518 0.26645395 0
0.66092503 1.1228788 0.33242425 0
0.51951706 0.88263375 0.34073803 0
0.4163439 0.70734757 0.48676297 0
0.7741015 1.3538717 -0.05567801 0
0.73291659 1.2818412 0.26629895 0
0.63599825 1.1123348 0.32690591 0
0.51347941 0.89805442 0.34416771 0
0.4130908 0.72247887 0.34457636 0
0.40028241 0.70007753 0.40349096 0
0.40213206 0.70331246 0.48046347 0
0.75711268 1.3637264 -0.055686794 0
0.70810723 1.2754569 0.26309937 0
0.61986697 1.1165167 0.32581514 0
0.50232631 0.90480018 0.34430152 0
0.42290816 0.76175058 0.36073801 0
0.40758243 0.73414558 0.42013478 0
0.40629905 0.73183399 0.49641332 0
0.74705607 1.3864663 -0.056226771 0
0.6922881 1.284822 0.26321211 0
0.60046256 1.1144024 0.3229661 0
0.49248365 0.91400361 0.34541646 0
0.41657197 0.77311867 0.3636086 0
0.40832484 0.75781274 0.43070233 0
0.40449235 0.7507 0.50571537 0
0.72733229 1.3915397 -0.056056652 0
0.67973852 1.3004829 0.26464596 0
0.58225423 1.1139749 0.32069191 0
0.47794691 0.91441303 0.34326953 0
0.41284132 0.78985232 0.36900446 0
0.40647092 0.77766442 0.4390412 0
0.40761167 0.77984691 0.5218513 0
0.70680314 1.3947655 -0.055823639 0
0.65917599 1.3007808 0.26299661 0
0.56804252 1.1209431 0.32061329 0
0.46172258 0.91113728 0.33983028 0
0.41752979 0.82392973 0.38243818 0
0.40785763 0.80484325 0.45145008 0
0.40972814 0.80853432 0.53755301 0
0.68843436 1.402025 -0.055762809 0
0.64777273 1.3192159 0.26505369 0
0.55190134 1.1239699 0.31946599 0
0.45586833 0.92839468 0.34409851 0
0.41428789 0.84371442 0.38916922 0
0.40715846 0.82919502 0.46219692 0
0.40952763 0.8340199 0.55102485 0
0.67762333 1.4250864 -0.056336191 0
0.53671288 1.1287425 0.31887627 0
0.44196823 0.92948824 0.34241396 0
0.40572479 0.85326588 0.39118734 0
0.40487373 0.85147601 0.47173727 0
0.40762967 0.85727191 0.56295121 0
0.65316826 1.4194714 -0.055784654 0
0.51465183 1.1184461 0.31411177 0
0.42847136 0.93115795 0.34101442 0
0.40244687 0.87460124 0.39861381 0
0.40618971 0.88273531 0.48618335 0
0.40815908 0.8870151 0.57906193 0
0.63872582 1.4354086 -0.056090448 0
0.49526051 1.112999 0.31080586 0
0.42095247 0.94600648 0.34448376 0
0.40743735 0.91563398 0.4149439 0
0.4059149 0.91221255 0.49956372 0
0.4079124 0.91670156 0.59504145 0
0.61946535 1.4406943 -0.055987742 0
0.47855389 1.1129757 0.30909207 0
0.41678336 0.96931565 0.35103276 0
0.40835157 0.94970578 0.42802027 0
0.40760651 0.94797295 0.51629579 0
0.40851986 0.9500972 0.6133312 0
0.60310471 1.4527847 -0.05615801 0
0.46418411 1.1181468 0.30888039 0
0.41852626 1.0081642 0.36316419 0
0.40239695 0.96931118 0.43453807 0
0.40635324 0.97884119 0.53027874 0
0.40675023 0.97979754 0.62914783 0
0.58336163 1.4567598 -0.056023277 0
0.45129701 1.1269705 0.3097235 0
0.41883606 1.0459096 0.37483144 0
0.40485552 1.0109978 0.45090482 0
0.40777925 1.0182989 0.54882926 0
0.40488973 1.0110831 0.64591193 0
0.56251448 1.4576191 -0.055779491 0
0.43305433 1.1221546 0.30687693 0
0.41552418 1.0767295 0.38397098 0
0.40754175 1.0560449 0.46866992 0
0.40884528 1.0594227 0.56817389 0
0.40929314 1.0605832 0.6741882 0
0.54602307 1.4697174 -0.055974916 0
0.41679069 1.1218657 0.30533847 0
0.41088134 1.1059597 0.39251855 0
0.40476885 1.0895067 0.48122001 0
0.40641692 1.0939429 0.58389634 0
0.40836951 1.0991986 0.69541115 0
0.52796978 1.4778631 -0.056027502 0
0.39959323 1.1185187 0.30303401 0
0.40898919 1.1448194 0.40445045 0
0.40675324 1.1385607 0.50058442 0
0.40878648 1.1442519 0.60795325 0
0.50947487 1.4848456 -0.056044556 0
0.38293207 1.1160413 0.30103254 0
0.41218692 1.2013034 0.42253834 0
0.40537345 1.1814458 0.51715428 0
0.40647545 1.1846576 0.62665206 0
0.49064311 1.490853 -0.056033663 0
0.59665614 1.8129808 0.34422031 0
0.36735186 1.1162241 0.29981035 0
0.40851721 1.2413077 0.43476537 0
0.4063822 1.2348204 0.53823525 0
0.40912238 1.2431467 0.65481412 0
0.47498912 1.5069268 -0.056408525 0
0.57220334 1.8153437 0.34327373 0
0.35320306 1.1205544 0.29975513 0
0.40873691 1.2967384 0.45234129 0
0.40975878 1.2999803 0.56434345 0
0.40763977 1.2932577 0.67845201 0
0.45558184 1.5114757 -0.056359589 0
0.55024445 1.8255361 0.34386358 0
0.33562219 1.1134876 0.29671064 0
0.40497887 1.3435911 0.46686903 0
0.40652922 1.3487346 0.58323997 0
0.43285418 1.5043712 -0.055887006 0
0.52482241 1.8240038 0.34230298 0
0.32012618 1.1125884 0.29537344 0
0.40754646 1.416415 0.49035165 0
0.40874201 1.42057 0.61202991 0
0.41541415 1.5153054 -0.056094434 0
0.30699542 1.1198266 0.041454375 0
0.30988944 1.1303831 0.12596381 0
0.30645725 1.1178635 0.20904388 0
0.30724254 1.120728 0.29648373 0
0.40590107 1.4806045 0.51076365 0
0.40437436 1.4750355 0.63325149 0
0.39503208 1.5155449 -0.055914726 0
0.29326165 1.1251016 0.041509651 0
0.29138717 1.1179101 0.12415516 0
0.29168049 1.1190355 0.20855966 0
0.29209805 1.1206374 0.29546329 0
0.39889231 1.5303547 0.52615148 0
0.39876014 1.5298476 0.65457547 0
0.37672555 1.523664 -0.056034811 0
0.27756333 1.1226031 0.04128525 0
0.27844203 1.1261569 0.12467177 0
0.27602413 1.1163778 0.20740011 0
0.27595264 1.1160886 0.29332456 0
0.392836 1.5888225 0.54450941 0
0.39282057 1.5887601 0.67761213 0
0.35709015 1.5264879 -0.055968862 0
0.2618511 1.1193603 0.041041479 0
0.26245636 1.1219476 0.12383009 0
0.26107866 1.1160582 0.2067136 0
0.26020175 1.1123097 0.29144719 0
0.38584742 1.6494194 0.56356692 0
0.3372007 1.5279593 -0.055862699 0
0.24570923 1.1133835 0.04070567 0
0.24650119 1.1169722 0.12292862 0
0.24767731 1.1223016 0.20727588 0
0.24878344 1.1273137 0.29453436 0
0.37252408 1.6880205 0.57510757 0
0.32020512 1.5430229 -0.056261551 0
0.23338108 1.1246302 0.041006159 0
0.23213911 1.1186453 0.12278131 0
0.23120329 1.1141357 0.20521379 0
0.23113668 1.1138148 0.29022402 0
0.35880652 1.7290375 0.58749616 0
0.29983321 1.5422106 -0.056089822 0
0.2190709 1.1268046 0.040981609 0
0.2169853 1.1160772 0.12218985 0
0.21931161 1.1280427 0.20725024 0
0.21592088 1.1106024 0.28865561 0
0.34536326 1.7763972 0.60206276 0
0.27997285 1.5435574 -0.056006145 0
0.20432235 1.1264781 0.040872917 0
0.20146829 1.1107429 0.12131849 0
0.20253389 1.1166178 0.20466639 0
0.20399243 1.1246591 0.29161835 0
0.33250844 1.8331988 0.61984593 0
0.26076886 1.5484653 -0.056060631 0
0.18947269 1.1251032 0.040733237 0
0.18958479 1.1257689 0.12268919 0
0.18772992 1.1147546 0.20387544 0
0.19061621 1.1318935 0.29284862 0
0.31303281 1.8588127 0.62712401 0
0.24045698 1.5465183 -0.055876095 0
0.17491221 1.124962 0.040645156 0
0.17543116 1.1282996 0.1227145 0
0.17545326 1.1284417 0.20595825 0
0.17296226 1.1124206 0.2872242 0
0.29296446 1.8842244 0.63440251 0
0.22154653 1.5534984 -0.05602305 0
0.15960045 1.1191286 0.040358584 0
0.1614989 1.1324406 0.12293396 0
0.16110098 1.1296504 0.20579228 0
0.15932281 1.1171818 0.2879127 0
0.27593076 1.9348441 0.65022433 0
0.20098139 1.5485587 -0.055749226 0
0.14457314 1.113934 0.040102426 0
0.14534838 1.1199073 0.12136509 0
0.14631449 1.127351 0.20502152 0
0.14534986 1.1199186 0.28812349 0
0.25733596 1.98277 0.66518855 0
0.18218268 1.5570815 -0.055969026 0
0.13110788 1.1205546 0.040278144 0
0.13105939 1.1201403 0.12120187 0
0.13137877 1.1228698 0.20388953 0
0.12936875 1.1056906 0.28402141 0
0.23581396 2.0154581 0.67510521 0
0.1624828 1.5584855 -0.055941515 0
0.11827705 1.1344775 0.12258232 0
0.11967664 1.1479019 0.20814468 0
0.11876354 1.1391437 0.29220727 0
0.21280321 2.0411437 0.68275726 0
0.14456086 1.5791327 -0.056612812 0
0.11942276 1.3045329 0.14078346 0
0.119353 1.3037709 0.23611657 0
0.12042489 1.3154798 0.33702439 0
0.18991654 2.0745826 0.69308758 0
0.12285543 1.5578662 -0.055790514 0
0.17006296 2.1564806 0.232475 0
0.16673155 2.1142366 0.38248366 0
0.16459201 2.0871062 0.53414083 0
0.10330983 1.5604914 -0.055833511 0
0.14171542 2.1406066 0.38690069 0
0.14087889 2.1279709 0.54410195 0
0.083467022 1.5581936 -0.055709273 0
0.11605544 2.1665664 0.39129758 0
0.11507877 2.1483333 0.54889441 0
0.064215571 1.5682721 -0.056036253 0
0.089132108 2.1767833 0.39290902 0
0.089148574 2.1771855 0.5559352 0
0.044324979 1.5640495 -0.055861004 0
0.024103617 0.8505193 0.35228696 0
0.024043234 0.84838861 0.42465335 0
0.024547484 1.5593569 -0.05567795 0
0.013424797 0.85279816 0.35313284 0
0.013271647 0.84306943 0.42187381 0
0.0049519604 1.5724388 -0.056138374 0
0.0025969995 0.82464772 0.41260645 0
0.0025856446 0.82104212 0.48691973 0
-0.014923263 1.580417 -0.056425441 0
-0.0078338552 0.82962805 0.41511479 0
-0.0076884669 0.81423104 0.48289955 0
-0.034763206 1.5774611 -0.056331072 0
-0.018442016 0.83684927 0.34656981 0
-0.018506011 0.83975321 0.4202643 0
-0.018034736 0.81836802 0.48544928 0
-0.054291014 1.5673259 -0.05598912 0
-0.080267392 2.3172374 0.41816139 0
-0.080452643 2.3225853 0.59292126 0
-0.027495071 0.79375458 0.47101682 0
-0.074096128 1.5681031 -0.056045763 0
-0.10985761 2.3249264 0.41976529 0
-0.11003295 2.3286371 0.59477276 0
-0.036766984 0.77810299 0.46196723 0
-0.093524829 1.5618731 -0.055860762 0
-0.14015488 2.3405991 0.42288008 0
-0.140109 2.339833 0.59803557 0
-0.11307614 1.5590942 -0.055807874 0
-0.17135145 2.3625944 0.42721 0
-0.17176074 2.3682377 0.60580033 0
-0.13328841 1.5644761 -0.056056157 0
-0.20239149 2.3755755 0.429984 0
-0.20234627 2.3750446 0.60814506 0
-0.15222846 1.5550327 -0.055782054 0
-0.23499489 2.400502 0.43499687 0
-0.23456599 2.3961208 0.61424935 0
-0.1717197 1.5523016 -0.055757236 0
-0.26652884 2.4093518 0.43717408 0
-0.26509306 2.3963728 0.61512095 0
-0.085787795 0.77549946 0.46271384 0
-0.19409586 1.5730693 -0.056586489 0
-0.2970759 2.4076812 0.43751502 0
-0.29712996 2.4081194 0.61904752 0
-0.21300781 1.5640427 -0.056353804 0
-0.33107319 2.4309561 0.44246694 0
-0.32988825 2.4222555 0.62369984 0
-0.23051462 1.5466801 -0.055828374 0
-0.36611292 2.4565017 0.4479202 0
-0.36272141 2.4337459 0.62778473 0
-0.24966352 1.5417567 -0.055759721 0
-0.39520085 2.4404991 0.4458743 0
-0.39642075 2.4480324 0.63270742 0
-0.26854455 1.5355648 -0.055653665 0
-0.42856866 2.4505985 0.44866985 0
-0.43012464 2.4594958 0.63701957 0
-0.29195493 1.5538672 -0.056445774 0
-0.46136522 2.4555171 0.45059833 0
-0.46214667 2.4596763 0.63852292 0
-0.30914384 1.5383589 -0.056019388 0
-0.51982272 2.5867374 0.094196126 0
-0.52085149 2.5918567 0.28411371 0
-0.49667946 2.4715722 0.45465615 0
-0.49519902 2.4642053 0.64126658 0
-0.32825726 1.5332615 -0.055979848 0
-0.54523313 2.5467372 0.092982151 0
-0.54436088 2.5426631 0.27945045 0
-0.53022474 2.4766343 0.4567793 0
-0.52782112 2.4654071 0.64325798 0
-0.34752014 1.5289333 -0.055977155 0
-0.57479936 2.5288601 0.092586376 0
-0.57408255 2.5257068 0.27835929 0
-0.56054682 2.4661553 0.45611233 0
-0.55881441 2.4585335 0.64324951 0
-0.36828879 1.5308588 -0.056212984 0
-0.60814154 2.5278499 0.092822395 0
-0.60855573 2.5295715 0.27960762 0
-0.59324503 2.46593 0.457416 0
-0.59834343 2.4871223 0.65264904 0
-0.38690561 1.5236218 -0.056121696 0
-0.64115435 2.5248451 0.09300115 0
-0.643345 2.5334718 0.28091192 0
-0.62887245 2.4764795 0.46080527 0
-0.62559921 2.4635897 0.64848959 0
-0.40426439 1.511917 -0.055873632 0
-0.68280953 2.553654 0.094371535 0
-0.68385768 2.557574 0.28451663 0
-0.66165996 2.4745562 0.46196109 0
-0.65943217 2.4662244 0.6513173 0
-0.42315319 1.506294 -0.055858321 0
-0.69462514 2.4726498 0.46320134 0
-0.69480413 2.4732871 0.65544116 0
-0.44303536 1.5040706 -0.055978309 0
-0.72653025 2.4665136 0.46372893 0
-0.72631544 2.4657843 0.6558246 0
-0.4612067 1.4959999 -0.055889651 0
-0.75813472 2.4591348 0.46409971 0
-0.75859749 2.4606361 0.65694386 0
-0.48030671 1.4910058 -0.055924598 0
-0.78896195 2.4491577 0.46405491 0
-0.79226625 2.4594152 0.65922916 0
-0.50210172 1.4939432 -0.056267455 0
-0.82532245 2.4556477 0.46721667 0
-0.82997197 2.4694817 0.66467613 0
-0.51746315 1.4777665 -0.055899169 0
-0.85928422 2.4539359 0.46891251 0
-0.85924512 2.453824 0.66332144 0
-0.53716725 1.4742577 -0.056017864 0
-0.88815576 2.4375472 0.46788085 0
-0.88854748 2.4386222 0.66218412 0
-0.5560894 1.468439 -0.056058396 0
-0.91734344 2.4223855 0.46715081 0
-0.9226473 2.4363911 0.6646803 0
-0.57143426 1.4534346 -0.055755876 0
-0.95263278 2.4230075 0.46954691 0
-0.95616019 2.4319794 0.66670865 0
-0.59369808 1.4559549 -0.056134894 0
-0.98220831 2.4087176 0.46913731 0
-0.98544353 2.4166515 0.66585565 0
-0.61155558 1.4473519 -0.056095663 0
-1.0167748 2.4063733 0.47113705 0
-1.0179769 2.4092181 0.66728652 0
-0.63215327 1.4450742 -0.05631144 0
-1.0485734 2.396992 0.47184804 0
-1.0446211 2.3879571 0.6649884 0
-0.64849859 1.4330229 -0.056155588 0
-1.0790646 2.3844681 0.47202006 0
-1.0717649 2.3683379 0.6632306 0
-0.66311252 1.4175224 -0.055870958 0
-1.0975194 2.3461454 0.4671326 0
-1.1040797 2.3601694 0.66478378 0
-0.68405098 1.4155642 -0.05612883 0
-1.1297024 2.3377883 0.46826392 0
-1.1331949 2.3450155 0.66448194 0
-0.70419955 1.4116081 -0.056319103 0
-1.166469 2.3382535 0.47126186 0
-1.1607389 2.3267674 0.66340023 0
-0.71797019 1.3949599 -0.056011155 0
-1.1889824 2.3100998 0.46856797 0
-1.1914095 2.3148155 0.66421735 0
-0.73770314 1.3900028 -0.056180649 0
-1.2166916 2.2925277 0.46807426 0
-1.2163804 2.2919412 0.66199636 0
-0.74722636 1.366124 -0.055591416 0
-1.2442244 2.274766 0.46760955 0
-1.2408252 2.2685511 0.65970111 0
-0.76499432 1.3577183 -0.055636946 0
-1.0492191 1.8621631 0.076308213 0
-1.267876 2.2502372 0.46581233 0
-1.2707345 2.2553105 0.66045159 0
-0.78381151 1.3510511 -0.055763766 0
-1.0462608 1.8034333 0.074435547 0
-1.2971679 2.2359204 0.46619299 0
-1.2976439 2.2367408 0.65974641 0
-0.80467355 1.3476278 -0.056036245 0
-1.0523217 1.7623768 0.073282085 0
-1.3189988 2.2089946 0.46400517 0
-1.3163131 2.2044969 0.65507287 0
-0.81397122 1.3250066 -0.05551742 0
-1.0569338 1.7205083 0.072088838 0
-1.3456562 2.1904991 0.46364266 0
-1.3455929 2.1903961 0.65586573 0
-0.83560622 1.322592 -0.055852696 0
-1.0485082 1.659572 0.070083268 0
-1.3696165 2.1678202 0.46245617 0
-1.3692796 2.1672869 0.65405715 0
-0.86126161 1.3259273 -0.056447055 0
-1.0498403 1.6162474 0.068806499 0
-1.3915695 2.1423454 0.46072331 0
-1.3906603 2.1409457 0.65134084 0
-0.86093855 1.2895889 -0.055357203 0
-1.0481858 1.5700642 0.067396954 0
-1.4097183 2.1115992 0.45789239 0
-1.4123704 2.1155717 0.64898056 0
-0.88460338 1.2895734 -0.055830274 0
-1.0499332 1.5305911 0.066264793 0
-1.4377005 2.0958776 0.45837265 0
-1.4324163 2.0881743 0.64605796 0
-0.90471172 1.2839261 -0.056074552 0
-1.0503372 1.4905913 0.065100506 0
-1.457142 2.0679104 0.45623288 0
-1.453203 2.0623202 0.64366949 0
-0.91694361 1.2670953 -0.05583933 0
-1.0501189 1.4511261 0.063949339 0
-1.0529121 1.454986 0.19301464 0
-1.4783621 2.0429018 0.45478642 0
-1.477217 2.0413194 0.64286965 0
-0.50638211 0.69975346 0.43217281 0
-0.93422157 1.2573287 -0.055922918 0
-1.0530515 1.4172568 0.063036129 0
-1.0516163 1.4153254 0.18949501 0
-1.4939358 2.0106244 0.45175293 0
-1.4966625 2.0142939 0.64024305 0
-0.52351636 0.70457828 0.43918923 0
-0.9541235 1.2509 -0.056166906 0
-1.0449616 1.369993 0.061514322 0
-1.0536025 1.3813215 0.18670382 0
-1.5065243 1.975123 0.44800323 0
-1.5120976 1.9824299 0.63611668 0
-0.52170682 0.68398178 0.43041155 0
-0.97034496 1.2394857 -0.056198575 0
-1.0454882 1.3354712 0.060550574 0
-1.0490553 1.3400278 0.18289341 0
-1.53011 1.9545106 0.44766265 0
-1.5345528 1.9601856 0.63512909 0
-0.53941953 0.68903619 0.43783179 0
-0.99023354 1.2325954 -0.056447048 0
-1.051066 1.3083168 0.05991473 0
-1.0462917 1.3023739 0.17953821 0
-1.5448188 1.9229165 0.44484654 0
-1.5470039 1.9256364 0.63019657 0
-0.56181759 0.69932365 0.44882846 0
-1.0029346 1.216705 -0.056293234 0
-1.0552936 1.2802241 0.059232067 0
-1.0453883 1.2682076 0.1766289 0
-1.5563002 1.8880177 0.44127169 0
-1.5587726 1.8910171 0.62524092 0
-0.57706863 0.70006788 0.45393384 0
-1.0153531 1.2006437 -0.056137223 0
-1.0467589 1.2377807 0.057873599 0
-1.045085 1.2358012 0.17393458 0
-1.5766572 1.8643794 0.44035223 0
-1.5760052 1.8636086 0.62269092 0
-0.58724326 0.6944086 0.45502302 0
-1.0221584 1.178275 -0.055688746 0
-1.0509427 1.2114555 0.057256952 0
-1.0544089 1.2154511 0.17292541 0
-1.5946499 1.8382044 0.43887785 0
-1.5921963 1.8353761 0.61990756 0
-1.0432068 1.1723843 -0.056026749 0
-1.0649083 1.1967728 0.057192247 0
-1.0620576 1.1935692 0.1717013 0
-1.6017962 1.8001422 0.43457159 0
-1.6053357 1.8041199 0.6161294 0
-1.0593843 1.1607981 -0.056106109 0
-1.0953321 1.2001871 0.058009945 0
-1.0902165 1.1945816 0.17380804 0
-1.6115048 1.7657722 0.43113896 0
-1.6140933 1.7686086 0.61089462 0
-1.069376 1.1425163 -0.055868905 0
-0.93606228 1.0000845 0.048904013 0
-1.1235828 1.2004306 0.17670359 0
-1.6229129 1.7339125 0.42831576 0
-1.6216145 1.7325252 0.60543627 0
-1.0842919 1.1296017 -0.055900618 0
-0.93589848 0.97500724 0.048250198 0
-1.1491576 1.197178 0.17834072 0
-1.6349003 1.7032187 0.42578539 0
-1.6334659 1.7017242 0.6018129 0
-1.0996028 1.117052 -0.05596035 0
-0.94496566 0.959961 0.048090648 0
-1.1745163 1.1931543 0.17993024 0
-1.6496354 1.675813 0.42409354 0
-1.6417183 1.6677701 0.59706867 0
-1.1175032 1.1070038 -0.05615747 0
-0.96418387 0.95512497 0.048452768 0
-1.2102979 1.1989267 0.18308449 0
-1.6525016 1.6369756 0.41949782 0
-1.6464328 1.6309639 0.59126723 0
-1.1212301 1.0830668 -0.055654988 0
-0.97146881 0.93840295 0.048221219 0
-1.2384509 1.1962978 0.18504982 0
-1.6583072 1.6018635 0.41581813 0
-1.6566175 1.6002313 0.58764172 0
-1.144187 1.0777255 -0.056116436 0
-0.99293929 0.93526322 0.048698518 0
-1.2732751 1.1993154 0.18798181 0
-1.664148 1.5674839 0.41230071 0
-1.6682156 1.5713153 0.58469087 0
-1.1583827 1.0638914 -0.056151167 0
-1.3039984 1.1976291 0.063209705 0
-1.3028688 1.1965917 0.19011131 0
-1.6609954 1.5255051 0.40672815 0
-1.6634148 1.5277272 0.57622004 0
-0.67264688 0.61777794 0.37813595 0
-1.163074 1.0415094 -0.055738427 0
-1.3345159 1.1950321 0.063954502 0
-1.3354758 1.1958916 0.19265659 0
-1.6713631 1.496672 0.4046199 0
-1.6684452 1.4940591 0.57140017 0
-0.66977954 0.59977406 0.37224883 0
-1.1798491 1.0300592 -0.055916313 0
-1.3818256 1.2063932 0.065488532 0
-1.6744486 1.4618659 0.40087867 0
-1.669484 1.4575316 0.56542546 0
-0.67436135 0.58874655 0.37064558 0
-1.1971459 1.0188842 -0.056123558 0
-1.4111197 1.200996 0.06615489 0
-1.6767956 1.4271114 0.3971068 0
-1.6727397 1.4236593 0.56041211 0
-0.66887003 0.56927156 0.3636587 0
-0.6932776 0.59004468 0.45549831 0
-1.207832 1.0020308 -0.056028552 0
-1.4464256 1.1999707 0.06709636 0
-1.6875877 1.4000416 0.39545614 0
-1.6794565 1.3932956 0.55674028 0
-0.69445801 0.57613009 0.37359667 0
-1.2262067 0.99147636 -0.056297302 0
-1.4661165 1.1854608 0.067311987 0
-1.6895283 1.3661053 0.39184877 0
-1.6714168 1.3514609 0.54839027 0
-0.68370712 0.55282646 0.36403921 0
-1.2395096 0.97668034 -0.056338947 0
-1.5161071 1.1946273 0.068911023 0
-1.6823585 1.3256263 0.38628379 0
-1.674089 1.3191103 0.54377401 0
-0.70084703 0.55223739 0.36943346 0
-1.2358109 0.94879031 -0.055623382 0
-1.5601584 1.1978072 0.070222147 0
-1.6879436 1.2959139 0.38378888 0
-1.6669021 1.2797594 0.53616261 0
-0.69236803 0.53156364 0.36140698 0
-0.68308592 0.52443731 0.43088585 0
-1.2530777 0.93720728 -0.055864949 0
-1.5963054 1.1939156 0.071166784 0
-1.683746 1.2593145 0.37919888 0
-1.6691617 1.2484066 0.53179085 0
-0.70124578 0.52447879 0.36256492 0
-0.71215397 0.5326373 0.44495571 0
-1.2657163 0.92203808 -0.055906348 0
-1.6428508 1.1967697 0.072564274 0
-1.6840194 1.2267599 0.3757517 0
-1.6719385 1.2179594 0.52774745 0
-1.6660039 1.2136362 0.68574405 0
-0.69510913 0.50636709 0.35606715 0
-0.70962876 0.51694423 0.43927598 0
-1.2729888 0.90302259 -0.055720899 0
-1.6895527 1.1985214 0.073954619 0
-1.686783 1.1965567 0.37297684 0
-1.6706021 1.1850784 0.52257377 0
-1.6669916 1.1825172 0.67996764 0
-0.7200458 0.51078039 0.3655172 0
-0.71097165 0.50434339 0.4361414 0
-1.291792 0.89212567 -0.056047782 0
-1.731609 1.195868 0.075130396 0
-1.6797042 1.160022 0.36815247 0
-1.6832415 1.1624649 0.52190721 0
-1.6669338 1.1512027 0.67397761 0
-0.71624309 0.49464527 0.43551967 0
-1.3008728 0.87441194 -0.055959608 0
-1.7031363 1.1448027 0.073263764 0
-1.7182243 1.1549444 0.22249497 0
-1.684212 1.1320823 0.36598703 0
-1.656027 1.1131371 0.50908267 0
-1.673335 1.124771 0.67078602 0
-0.72118068 0.48475838 0.43477586 0
-1.3203294 0.86355501 -0.056324337 0
-1.7101971 1.1185461 0.072955824 0
-1.7022908 1.1133749 0.21859895 0
-1.67494 1.0954863 0.36094591 0
-1.6698821 1.0921782 0.50907367 0
-1.6683438 1.0911721 0.66322464 0
-0.72498846 0.47417516 0.43343738 0
-1.3212029 0.84056664 -0.055905636 0
-1.7124971 1.0895132 0.072462931 0
-1.710749 1.088401 0.21790786 0
-1.6805648 1.0691974 0.35922822 0
-1.6683794 1.0614449 0.50450093 0
-1.6708441 1.063013 0.65884507 0
-0.72451544 0.46094623 0.42965037 0
-1.3397378 0.8288483 -0.056243829 0
-1.7209606 1.0646974 0.072248034 0
-1.7308534 1.0708177 0.2187338 0
-1.6816109 1.0403532 0.35662329 0
-1.6790547 1.0387717 0.50373369 0
-1.6821395 1.0406802 0.65807956 0
-1.3448324 0.80876523 -0.056025725 0
-1.738845 1.0457194 0.072440289 0
-1.7428762 1.0481437 0.21856789 0
-1.6871142 1.0146092 0.35505277 0
-1.6763306 1.0081241 0.49906838 0
-1.672541 1.0058451 0.64931792 0
-1.351717 0.78990269 -0.05589373 0
-1.758639 1.0276957 0.072720028 0
-1.7618539 1.0295744 0.21930461 0
-1.6830485 0.98352277 0.35156289 0
-1.6656554 0.97335881 0.49220216 0
-1.6677682 0.97459346 0.64264971 0
-1.3622327 0.77320457 -0.055921525 0
-1.8218288 1.0340718 0.074788578 0
-1.812848 1.0289743 0.22402145 0
-1.6931993 0.96106154 0.35112751 0
-1.6758029 0.95118731 0.49162245 0
-1.6729529 0.94956964 0.63998926 0
-1.3754911 0.75799197 -0.056069527 0
-1.6888746 0.93068826 0.34777281 0
-1.6752198 0.92316341 0.48800239 0
-1.6762292 0.9237197 0.63674241 0
-1.3860158 0.7411955 -0.056113642 0
-1.6893238 0.90339464 0.3454954 0
-1.6762638 0.89641058 0.48497987 0
-1.6702666 0.89320344 0.63015497 0
-1.3893899 0.72065157 -0.055878423 0
-1.6785669 0.87064254 0.34102625 0
-1.6759943 0.86930811 0.48169667 0
-1.6786801 0.87070119 0.62914282 0
-1.3947277 0.7012772 -0.055733535 0
-1.7043819 0.85697317 0.34405127 0
-1.6717008 0.84054095 0.47738281 0
-1.6756904 0.84254694 0.62399662 0
-1.4014467 0.68268585 -0.055654094 0
-1.7222848 0.83897555 0.34550521 0
-1.6731242 0.81502795 0.47482085 0
-1.6614674 0.8093496 0.61485636 0
-1.4154783 0.667602 -0.055873048 0
-1.731223 0.81652111 0.34520829 0
-1.6692197 0.78727764 0.47086203 0
-1.6717621 0.78847677 0.61494303 0
-1.4223921 0.64909679 -0.055818897 0
-1.7317203 0.79025608 0.34329599 0
-1.675438 0.7645722 0.46986309 0
-1.6796826 0.76650912 0.6142574 0
-1.4317095 0.63169038 -0.055867955 0
-1.7467897 0.7707082 0.34433213 0
-1.675781 0.73937821 0.4673112 0
-1.6729827 0.7381435 0.60835993 0
-1.4334841 0.61102784 -0.05563255 0
-1.7562653 0.74861455 0.34431449 0
-1.6803075 0.71623725 0.46602145 0
-1.6807554 0.7164281 0.60785764 0
-1.4497458 0.59650224 -0.055967711 0
-1.7651297 0.72626787 0.34423211 0
-1.6619378 0.68380928 0.45850229 0
-1.6759387 0.68957001 0.60292751 0
-1.4578217 0.57847083 -0.055993836 0
-1.7654406 0.70053548 0.3425453 0
-1.670422 0.6628316 0.4585039 0
-1.6695772 0.66249645 0.59759039 0
-1.4633138 0.55942845 -0.055929776 0
-1.7790707 0.68014312 0.34350094 0
-1.6746415 0.64021957 0.45741302 0
-1.6652893 0.63664418 0.59313911 0
-1.4715502 0.54144067 -0.055979554 0
-1.7976086 0.66141027 0.34544474 0
-1.6665258 0.6131798 0.45305139 0
-1.6703906 0.61460179 0.59215266 0
-1.4812422 0.52392715 -0.056092829 0
-1.7896268 0.63300526 0.34235197 0
-1.6659342 0.5892542 0.45083764 0
-1.6755549 0.59265715 0.59129095 0
-1.4740815 0.50060278 -0.055578545 0
-1.8096908 0.61457676 0.34468243 0
-1.659173 0.56346047 0.44705236 0
-1.6770719 0.56953895 0.58924872 0
-1.4880989 0.48455253 -0.055872567 0
-1.8170487 0.59166473 0.34463748 0
-1.6766747 0.54595631 0.44988003 0
-1.6682571 0.54321545 0.58370197 0
-1.5056523 0.46938419 -0.056305248 0
-1.8151628 0.5658735 0.34290108 0
-1.6704358 0.52075517 0.44641119 0
-1.6746148 0.52205795 0.58358002 0
-1.5099809 0.44995332 -0.056250781 0
-1.8241609 0.54357457 0.34328067 0
-1.6769239 0.49969998 0.44642806 0
-1.6692325 0.49740806 0.5794757 0
-1.5025016 0.42720175 -0.055767339 0
-1.8319395 0.52086985 0.34348294 0
-1.6695405 0.47469544 0.44283608 0
-1.6680183 0.47426265 0.57693529 0
-1.5157516 0.41041306 -0.05606287 0
-1.8391815 0.49798664 0.34363782 0
-1.6695372 0.45205283 0.44129035 0
-1.6830002 0.45569816 0.58008647 0
-1.5129628 0.38927913 -0.055773996 0
-1.8434746 0.47431847 0.3432968 0
-1.6709541 0.42992964 0.44019902 0
-1.6792762 0.43207088 0.57688189 0
-1.5300128 0.3731907 -0.056224834 0
-1.8614457 0.45403162 0.34555134 0
-1.6742395 0.40836951 0.43967497 0
-1.6720271 0.40782988 0.57258207 0
-1.5228194 0.35118181 -0.055793561 0
-1.8635819 0.42976606 0.34491593 0
-1.6766362 0.38665396 0.43899098 0
-1.6704259 0.38522178 0.57032734 0
-1.5294198 0.33247969 -0.055877566 0
-1.8626782 0.40492654 0.34377772 0
-1.6605488 0.36098573 0.43355426 0
-1.6706402 0.3631795 0.56879401 0
-1.5362308 0.31375691 -0.055977624 0
-1.8727468 0.38248631 0.34471974 0
-1.6668825 0.34044096 0.43405429 0
-1.6761264 0.34232891 0.56914908 0
-1.5451356 0.29535931 -0.056162123 0
-1.8603407 0.35561216 0.3415848 0
-1.6699148 0.31921139 0.43376279 0
-1.6707596 0.31937289 0.56591624 0
-1.5346272 0.27336824 -0.055650637 0
-1.8810252 0.33507326 0.34458068 0
-1.6778454 0.29888016 0.4348107 0
-1.6755761 0.29847595 0.56622976 0
-1.5490971 0.25586534 -0.056054082 0
-1.8821415 0.31087449 0.34404081 0
-1.6698288 0.27580664 0.43179896 0
-1.6759146 0.27681187 0.56512147 0
-1.5492493 0.23589137 -0.055947669 0
-1.884251 0.28689933 0.34373879 0
-1.6721176 0.25459951 0.43152758 0
-1.6676481 0.25391898 0.56121129 0
-1.5528661 0.21647303 -0.055975407 0
-1.8906666 0.26356316 0.34427643 0
-1.6700104 0.2328032 0.43019316 0
-1.6624608 0.23175077 0.55843925 0
-1.5444156 0.1955042 -0.055577647 0
-1.8861691 0.23876603 0.34288278 0
-1.6745098 0.21197255 0.43063045 0
-1.6668112 0.210998 0.55896384 0
-1.5526782 0.17671682 -0.055790488 0
-0.9513911 0.10828181 0.034185175 0
-0.93620247 0.10655313 0.10126258 0
-0.95364791 0.10853866 0.1730995 0
-1.6864977 0.19194737 0.43305743 0
-1.676962 0.19086209 0.56151742 0
-1.5567244 0.15734923 -0.055860255 0
-0.93690854 0.094700024 0.033619277 0
-0.93691444 0.09470062 0.10120258 0
-0.93743855 0.094753593 0.16992725 0
-1.6628319 0.16807427 0.42640328 0
-1.6821129 0.17002313 0.56248063 0
-1.552691 0.13721509 -0.055649105 0
-0.90759283 0.080206193 0.032528516 0
-0.95366526 0.084277719 0.10288917 0
-0.9503063 0.083980881 0.17205442 0
-1.6674958 0.14736067 0.42708957 0
-1.6702433 0.14760347 0.55784583 0
-1.5669792 0.11861404 -0.056103222 0
-0.94305515 0.071385495 0.10163942 0
-0.94033045 0.071179248 0.17007253 0
-1.6630887 0.12588915 0.42552105 0
-1.6712748 0.1265088 0.55761409 0
-1.578213 0.099496372 -0.056456096 0
-0.92772496 0.058487207 0.099899888 0
-0.94979459 0.059878558 0.17163427 0
-1.6683249 0.10517737 0.42648813 0
-1.6642684 0.10492162 0.55479163 0
-1.6662304 0.10504532 0.69124889 0
-1.5598056 0.078632087 -0.055757787 0
