# .PCD v0.7 - Point Cloud Data file format
VERSION 0.7
FIELDS x y z intensity
SIZE 4 4 4 4
TYPE F F F F
COUNT 1 1 1 1
WIDTH 1350
HEIGHT 1
VIEWPOINT 0 0 0 1 0 0 0
POINTS 1350
DATA ascii
-1.6754252 -0.14806139 0.55957651 0
-1.5574908 -0.1574267 -0.055887755 0
-0.93891865 -0.094903201 0.10141908 0
-0.94515294 -0.095533341 0.17132564 0
-1.6657138 -0.16836555 0.42714232 0
-1.669645 -0.16876291 0.55831152 0
-1.5558829 -0.17708157 -0.05590564 0
-0.94554067 -0.10761595 0.033974957 0
-0.94101727 -0.10710112 0.10178337 0
-0.94748664 -0.10783743 0.17198117 0
-1.6838136 -0.19164188 0.43236819 0
-1.6791553 -0.19111171 0.56225181 0
-1.5565425 -0.19703932 -0.05601405 0
-0.9517898 -0.120485 0.034251299 0
-0.93419874 -0.11825819 0.1011989 0
-0.95047265 -0.12031827 0.17278448 0
-1.6797923 -0.21264125 0.43198895 0
-1.6645205 -0.21070802 0.55819559 0
-1.5565132 -0.21698143 -0.056106869 0
-0.94866216 -0.13224563 0.034195963 0
-0.93963069 -0.13098663 0.10195792 0
-0.93890649 -0.13088566 0.17096794 0
-1.675028 -0.23350266 0.43148568 0
-1.6719774 -0.23307741 0.56163603 0
-1.5567942 -0.23704016 -0.056220133 0
-0.94074988 -0.1432402 0.033973075 0
-0.95570445 -0.14551722 0.10389265 0
-0.94392055 -0.14372298 0.17219687 0
-1.6781892 -0.25552398 0.43309447 0
-1.6740191 -0.25488904 0.56335533 0
-1.5513729 -0.25624123 -0.056136429 0
-0.94623649 -0.15629047 0.034239568 0
-0.94580626 -0.15621941 0.10302231 0
-0.93548846 -0.15451521 0.171 0
-1.6811465 -0.27767602 0.43472561 0
-1.6783744 -0.27721813 0.56595087 0
-1.5456467 -0.27533117 -0.056050241 0
-0.93827266 -0.16713762 0.034024857 0
-0.93757319 -0.16701302 0.10234649 0
-0.94012338 -0.1674673 0.17221905 0
-1.6706662 -0.29760134 0.43295026 0
-1.669329 -0.29736313 0.56411868 0
-1.5455041 -0.29542977 -0.056175519 0
-0.94734639 -0.18108934 0.034433864 0
-0.9463529 -0.18089943 0.10354534 0
-0.94393826 -0.18043786 0.17332037 0
-1.6730911 -0.31981856 0.43458784 0
-1.6610228 -0.31751165 0.5626182 0
-1.5347323 -0.31345084 -0.055923022 0
-0.94055778 -0.19209775 0.034272317 0
-0.9373197 -0.19143642 0.10281258 0
-0.9530158 -0.19464217 0.17542326 0
-1.6758461 -0.34227169 0.4363884 0
-1.6786909 -0.34285268 0.5700199 0
-1.5264976 -0.33184442 -0.055770803 0
-0.93878871 -0.20408273 0.034298778 0
-0.95225877 -0.20701098 0.10472884 0
-0.9468717 -0.20583989 0.17475556 0
-1.6696447 -0.36296311 0.43592915 0
-1.67163 -0.36339468 0.56913102 0
-1.5366967 -0.3543821 -0.056302004 0
-0.96147573 -0.22172873 0.035226867 0
-0.94693762 -0.21837606 0.10443777 0
-0.94426835 -0.21776047 0.17476732 0
-1.6667647 -0.38437745 0.43640631 0
-1.6876011 -0.38918263 0.57619143 0
-1.5169945 -0.37001532 -0.055746436 0
-0.95854604 -0.23380224 0.035224602 0
-0.93463641 -0.22797038 0.10338948 0
-0.94044864 -0.22938804 0.17458111 0
-1.6624126 -0.40548477 0.43656909 0
-1.6588012 -0.40460387 0.56805283 0
-1.5257324 -0.39256468 -0.056244731 0
-0.99106365 -0.2549966 0.036534656 0
-0.98224097 -0.25272658 0.10899889 0
-0.98991805 -0.25470185 0.18434519 0
-1.6789699 -0.43199208 0.44231072 0
-1.6706157 -0.42984256 0.57390672 0
-1.5126035 -0.40956065 -0.055946428 0
-1.0471563 -0.28353366 0.038731009 0
-1.0563374 -0.28601956 0.11761167 0
-1.6770883 -0.45409742 0.31335187 0
-1.6694771 -0.45203659 0.44127449 0
-1.6708734 -0.45241466 0.57590669 0
-1.4997921 -0.42643139 -0.055666775 0
-1.1248598 -0.319828 0.041750662 0
-1.1301758 -0.32133949 0.12627329 0
-1.6688789 -0.47450733 0.3129096 0
-1.68068 -0.47786272 0.44579077 0
-1.6674157 -0.47409132 0.57672685 0
-1.4985725 -0.44655374 -0.055825789 0
-1.2157462 -0.36227545 0.045289759 0
-1.2122389 -0.36123031 0.13593955 0
-1.6709447 -0.49791828 0.31444761 0
-1.661484 -0.4950991 0.44231769 0
-1.679678 -0.50052065 0.58310187 0
-1.5022433 -0.46832144 -0.056177765 0
-1.3081493 -0.40781304 0.048919447 0
-1.3037491 -0.40644127 0.14676374 0
-1.675981 -0.52248383 0.31660837 0
-1.6789083 -0.52339643 0.44867539 0
-1.6674052 -0.51981038 0.58106756 0
-1.5000411 -0.48844117 -0.056320954 0
-1.4220085 -0.46303231 0.053391121 0
-1.4052628 -0.45757961 0.15882722 0
-1.668752 -0.54337656 0.31651023 0
-1.6730146 -0.54476452 0.44889796 0
-1.6689734 -0.54344869 0.58395261 0
-1.4863967 -0.50478506 -0.056042872 0
-1.5633547 -0.53092027 0.058944486 0
-1.5572093 -0.52883321 0.17673931 0
-1.670439 -0.56728643 0.31815985 0
-1.6703045 -0.56724077 0.4500517 0
-1.4706815 -0.52019179 -0.055692911 0
-1.7328204 -0.61291242 0.19753104 0
-1.6680491 -0.59000224 0.31909439 0
-1.6549854 -0.58538157 0.44787467 0
-1.4726384 -0.54184103 -0.056020949 0
-1.6854972 -0.6201601 0.19301137 0
-1.665354 -0.61274868 0.3200295 0
-1.6842105 -0.61968666 0.45785901 0
-1.4796741 -0.56568307 -0.056555092 0
-1.6828189 -0.64334583 0.19361702 0
-1.6674659 -0.63747633 0.3219524 0
-1.6740235 -0.6399833 0.45724422 0
-1.4539535 -0.57693583 -0.055845257 0
-1.6870085 -0.66941321 0.19505343 0
-1.6610731 -0.65912193 0.32229504 0
-1.6690143 -0.66227305 0.45811754 0
-1.4524618 -0.59761977 -0.056072563 0
-1.6820273 -0.69207519 0.19546962 0
-1.6685398 -0.6865257 0.32539535 0
-1.6720817 -0.68798304 0.46130085 0
-1.4444605 -0.61570662 -0.056058541 0
-1.6884297 -0.71969938 0.19725117 0
-1.6670359 -0.71058017 0.32682115 0
-1.6702424 -0.71194696 0.46322998 0
-1.4310068 -0.63138032 -0.05584053 0
-1.6832966 -0.74269414 0.19772838 0
-1.6672394 -0.73560953 0.32865098 0
-1.6638393 -0.73410934 0.46398112 0
-1.4333953 -0.654118 -0.056250691 0
-1.6787055 -0.76606321 0.19830649 0
-1.6717169 -0.76287407 0.33140093 0
-1.6784449 -0.76594436 0.47070634 0
-1.4259608 -0.67254597 -0.056286819 0
-1.6785642 -0.79168487 0.19945163 0
-1.6765839 -0.79075092 0.33431318 0
-1.6743416 -0.7896933 0.47230685 0
-1.4080887 -0.68592137 -0.055917859 0
-1.9427642 -0.94637752 0.077150837 0
-1.6756223 -0.8162449 0.20030749 0
-1.6679014 -0.81248373 0.33459541 0
-1.6770113 -0.81692147 0.47592396 0
-1.3985015 -0.70317471 -0.055884335 0
-1.8832531 -0.94691062 0.075255081 0
-1.6738969 -0.84164512 0.20135221 0
-1.6685352 -0.8389492 0.33681515 0
-1.6763285 -0.84286773 0.4787043 0
-1.391207 -0.72159404 -0.055951506 0
-1.8307147 -0.94955885 0.073627613 0
-1.6726246 -0.86756033 0.2024972 0
-1.6745611 -0.86856478 0.3402124 0
-1.3856379 -0.74099338 -0.056098346 0
-1.7807888 -0.95230705 0.072096251 0
-1.6669233 -0.8914156 0.20314981 0
-1.6717684 -0.89400655 0.34190503 0
-1.3778906 -0.75931424 -0.056167342 0
-1.7406106 -0.95919836 0.070952997 0
-1.6693813 -0.91994601 0.20484489 0
-1.6718842 -0.92132533 0.34427413 0
-1.3574706 -0.77050161 -0.055726033 0
-1.6914883 -0.96009034 0.069437921 0
-1.6730913 -0.9496482 0.20675111 0
-1.6763008 -0.9514699 0.34762317 0
-1.3478463 -0.78764075 -0.055733677 0
-1.6868935 -0.98576969 0.069753334 0
-1.6715411 -0.97679824 0.20806302 0
-1.6790942 -0.98121202 0.35073692 0
-1.3432935 -0.80783981 -0.055961616 0
-1.6800603 -1.010367 0.06999132 0
-1.6639857 -1.0007 0.20867454 0
-1.667899 -1.0030534 0.35100892 0
-1.3315125 -0.82375962 -0.055898521 0
-1.6767441 -1.0373423 0.070391774 0
-1.6770779 -1.0375488 0.21193801 0
-1.6716486 -1.0341898 0.35451055 0
-1.319343 -0.8393833 -0.055826936 0
-1.6862309 -1.0728023 0.071351506 0
-1.6822444 -1.070266 0.21427707 0
-1.6716701 -1.0635386 0.35732692 0
-1.3084798 -0.85580486 -0.055818845 0
-1.6857542 -1.1025593 0.071913108 0
-1.6820496 -1.1001364 0.21599969 0
-1.6816095 -1.0998485 0.36238319 0
-1.3044132 -0.87679172 -0.056111906 0
-1.6795629 -1.1289573 0.072249711 0
-1.6795974 -1.1289804 0.21749312 0
-1.6780446 -1.1279367 0.36464679 0
-1.2915866 -0.89198375 -0.056038868 0
-1.6767846 -1.1580057 0.072751693 0
-1.6693811 -1.1528928 0.21803281 0
-1.6716805 -1.1544808 0.36639386 0
-1.2825887 -0.9098326 -0.056141108 0
-1.6804495 -1.1920638 0.073556155 0
-1.6738633 -1.1873918 0.22055355 0
-2.0330162 -1.4421649 0.44953498 0
-1.2679642 -0.92367566 -0.056005642 0
-1.6663253 -1.2138703 0.073601142 0
-1.666948 -1.2143239 0.22163959 0
-2.0042214 -1.460018 0.44719771 0
-1.2571137 -0.94022596 -0.05604488 0
-1.6810454 -1.2572948 0.074944682 0
-1.6691035 -1.2483631 0.22399853 0
-1.2466404 -0.95710468 -0.056110818 0
-1.6688707 -1.2812709 0.075115249 0
-1.6742364 -1.2853903 0.2268416 0
-1.2278707 -0.96750945 -0.055809934 0
-1.5828418 -1.2472115 0.071944296 0
-1.5861442 -1.2498136 0.21702114 0
-1.5841329 -1.2482288 0.36373037 0
-1.2230266 -0.98890513 -0.056151301 0
-1.5750685 -1.2735564 0.072314166 0
-1.5728124 -1.2717322 0.21737088 0
-1.5667403 -1.2668223 0.36337081 0
-1.2089548 -1.0029624 -0.056080636 0
-1.66875 -1.3844136 0.077409483 0
-1.6712825 -1.3865145 0.23337443 0
-1.7617124 -1.4615362 0.41282594 0
-1.1998308 -1.0211692 -0.056249421 0
-1.6672791 -1.419012 0.078163937 0
-1.6671301 -1.4188851 0.23527084 0
-1.7531098 -1.4920619 0.41517988 0
-1.4614974 -1.2438723 0.48964036 0
-1.1771437 -1.0276972 -0.055788092 0
-1.7224039 -1.5037328 0.4123596 0
-1.4236534 -1.2429107 0.48216683 0
-1.1679138 -1.0458432 -0.055970363 0
-1.6314451 -1.4609262 0.078184344 0
-1.6279263 -1.4577752 0.2348457 0
-1.629275 -1.4589828 0.39443079 0
-1.4042512 -1.2574786 0.4809204 0
-1.1490786 -1.0553464 -0.055700164 0
-1.3507564 -1.2405729 0.4679127 0
-1.1509175 -1.0840651 -0.056446534 0
-1.3169416 -1.2404455 0.46157324 0
-1.1321061 -1.0935727 -0.056194846 0
-1.2991114 -1.2548935 0.46082577 0
-1.1208282 -1.1102976 -0.056324556 0
-1.2697021 -1.2577728 0.45597565 0
-1.104677 -1.1222067 -0.056218579 0
-1.2500522 -1.2698889 0.45462555 0
-1.0885051 -1.1339909 -0.056117825 0
-1.0746926 -1.1481965 -0.05614667 0
-1.0588313 -1.160192 -0.056076821 0
-1.040772 -1.1696479 -0.05589598 0
-1.0285172 -1.185605 -0.056035187 0
-1.0161791 -1.2016203 -0.056182891 0
-1.0001322 -1.2133054 -0.056135941 0
-0.98361212 -1.2243533 -0.056069601 0
-0.96640593 -1.2344542 -0.055970442 0
-0.94630975 -1.2406559 -0.055706933 0
-0.93077689 -1.2526927 -0.055716719 0
-0.91769415 -1.2681326 -0.055885036 0
-0.90504742 -1.2844025 -0.056095358 0
-0.88979077 -1.2971357 -0.056157671 0
-0.86475563 -1.2953064 -0.055602636 0
-0.8527317 -1.3127953 -0.055888005 0
-0.8054691 -1.2400337 0.49194479 0
-0.83705968 -1.3248926 -0.055949848 0
-0.78832507 -1.2477558 0.49103123 0
-0.81753987 -1.3308157 -0.055760819 0
-0.76807141 -1.2502896 0.48818353 0
-0.80685765 -1.3512856 -0.056188341 0
-0.74234658 -1.2432456 0.48174509 0
-0.78857875 -1.3592683 -0.056102928 0
-0.72283912 -1.2459533 0.4792293 0
-0.77370781 -1.3731833 -0.05627067 0
-0.70869374 -1.2577957 0.48031372 0
-0.75419521 -1.378865 -0.056109879 0
-0.68019885 -1.2435803 0.47157714 0
-0.74075818 -1.3957593 -0.056413312 0
-0.65948296 -1.242618 0.46802598 0
-0.71628624 -1.3916882 -0.055879783 0
-0.6396246 -1.2427405 0.4650017 0
-0.69856042 -1.4003041 -0.055868108 0
-0.62025779 -1.243342 0.46226764 0
-0.68370724 -1.414853 -0.056100626 0
-0.59646356 -1.2343122 0.45608178 0
-0.6689353 -1.4299697 -0.05636156 0
-0.58352387 -1.2473874 0.45816171 0
-0.64274079 -1.4202996 -0.055657003 0
-0.55969006 -1.2367779 0.45164046 0
-0.62948775 -1.4389809 -0.056073997 0
-0.55113745 -1.2598757 0.4575046 0
-0.61021829 -1.444187 -0.055973005 0
-0.53836781 -1.2741405 0.46018639 0
-0.58981323 -1.4464278 -0.055767577 0
-0.50660205 -1.242365 0.34230658 0
-0.51830828 -1.2710729 0.45668498 0
-0.57278252 -1.4568639 -0.055887427 0
-0.48652714 -1.2374747 0.33924425 0
-0.50007129 -1.2719239 0.45469227 0
-0.55637795 -1.4692008 -0.056087483 0
-0.46525776 -1.2285842 0.14118554 0
-0.46411207 -1.2255588 0.23634587 0
-0.44676465 -1.1797502 0.32185176 0
-0.48493743 -1.2805513 0.45555735 0
-0.53722978 -1.4744294 -0.056024387 0
-0.44164106 -1.2120857 0.13863951 0
-0.43884686 -1.204417 0.23118472 0
-0.42866343 -1.1764686 0.31945857 0
-0.5164969 -1.4750071 -0.055794787 0
-0.42558745 -1.2153887 0.13839334 0
-0.42587426 -1.2162077 0.23240013 0
-0.41071519 -1.1729167 0.31706458 0
-0.43418241 -1.2399341 0.43707845 0
-0.50301099 -1.4966487 -0.056369357 0
-0.41091082 -1.2226157 0.1386161 0
-0.40864512 -1.2158743 0.23133481 0
-0.40843186 -1.2152398 0.32708925 0
-0.41690716 -1.2404571 0.43537775 0
-0.48048356 -1.4915549 -0.055945188 0
-0.39387059 -1.222684 0.1380506 0
-0.39698213 -1.2323431 0.23349859 0
-0.41216731 -1.2794821 0.34295633 0
-0.41253886 -1.2806356 0.44762093 0
-0.46227869 -1.4994771 -0.056019556 0
-0.40905881 -1.3268497 0.35424408 0
-0.44373924 -1.5064602 -0.056067247 0
-0.36491495 -1.2388579 0.32949901 0
-0.42319614 -1.5064468 -0.055863988 0
-0.34866852 -1.2411517 0.32891527 0
-0.40434459 -1.512217 -0.055884719 0
-0.33121985 -1.2387363 0.32714394 0
-0.38231957 -1.5055622 -0.055456478 0
-0.31699574 -1.2483189 0.32859445 0
-0.36695752 -1.5253251 -0.056009788 0
-0.34693971 -1.5263796 -0.055883661 0
-0.32682028 -1.5265495 -0.055734787 0
-0.30798858 -1.5326102 -0.055810045 0
-0.29000229 -1.5434748 -0.056068256 0
-0.49743155 -2.6474724 0.096172065 0
-0.26972055 -1.5422893 -0.055897381 0
-0.43085694 -2.4636834 0.08929158 0
-0.25099778 -1.5499963 -0.056057714 0
-0.40002075 -2.4702635 0.089340426 0
-0.22946991 -1.5396705 -0.055575356 0
-0.36682451 -2.4612763 0.088841289 0
-0.21044962 -1.5452589 -0.055677008 0
-0.33545798 -2.4631522 0.088749491 0
-0.19359449 -1.5690058 -0.056440324 0
-0.30529821 -2.4743199 0.089006297 0
-0.172438 -1.5587949 -0.055990461 0
-0.27176961 -2.456727 0.08824335 0
-0.15234916 -1.5562655 -0.055826277 0
-0.24212192 -2.4733057 0.088722289 0
-0.13365845 -1.5688195 -0.056211784 0
-0.20956266 -2.4597471 0.088134274 0
-0.11301348 -1.5582304 -0.055776954 0
-0.17959788 -2.4762962 0.088639185 0
-0.093136542 -1.5553886 -0.055628844 0
-0.14717826 -2.45789 0.087907024 0
-0.074515432 -1.5769767 -0.05636292 0
-0.1163277 -2.4618535 0.087989412 0
-0.054109525 -1.5620866 -0.055801954 0
-0.085208662 -2.4598868 0.087873802 0
-0.034632433 -1.571527 -0.056119163 0
-0.054226439 -2.4606507 0.087869726 0
-0.01485925 -1.5736377 -0.056183401 0
0.0049553458 -1.5735137 -0.056176752 0
0.024615973 -1.5637076 -0.055833295 0
0.044426769 -1.5676413 -0.055989284 0
0.063986465 -1.5626769 -0.055836331 0
0.08413595 -1.5706813 -0.056155741 0
0.10355199 -1.5641493 -0.055964388 0
0.12348891 -1.565899 -0.056078184 0
0.14364466 -1.5691246 -0.056254014 0
0.16161245 -1.5501375 -0.055641863 0
0.18261015 -1.560735 -0.05610035 0
0.20154831 -1.5529268 -0.055906482 0
0.22064827 -1.5471997 -0.055795904 0
0.24086635 -1.5491512 -0.05597122 0
0.25915164 -1.5388621 -0.055712961 0
0.28031275 -1.5454313 -0.056074135 0
0.30017254 -1.5439559 -0.056153297 0
0.31803966 -1.5325879 -0.055881068 0
0.33642608 -1.5244493 -0.055734374 0
0.3585116 -1.5325643 -0.056191649 0
0.37644008 -1.5225095 -0.05599235 0
0.39489162 -1.5150061 -0.055894844 0
0.41455591 -1.5121747 -0.055978544 0
0.43322366 -1.5056552 -0.055934709 0
0.45239201 -1.5008928 -0.055964977 0
0.46991479 -1.4908283 -0.055805914 0
0.48894572 -1.4856954 -0.055839814 0
0.50766987 -1.4795849 -0.055845995 0
0.52756512 -1.4767303 -0.055984557 0
0.54520631 -1.467519 -0.05589119 0
0.56275237 -1.4582353 -0.055803075 0
0.49552506 -1.2840322 0.45789692 0
0.58444548 -1.4594665 -0.056127362 0
0.5084672 -1.269735 0.45504558 0
0.6033572 -1.453393 -0.056181524 0
0.52251369 -1.2586535 0.45339626 0
0.62285328 -1.4485737 -0.056293949 0
0.54321259 -1.2633529 0.45751682 0
0.63631392 -1.4299883 -0.055878639 0
0.55292732 -1.2425935 0.45248455 0
0.65782821 -1.4295983 -0.056182638 0
0.57331514 -1.2459338 0.45629358 0
0.67418534 -1.4178561 -0.05605036 0
0.59038538 -1.2416192 0.45739982 0
0.68905342 -1.4032856 -0.055812951 0
0.61653972 -1.2556086 0.4653765 0
0.70627421 -1.3937217 -0.055781864 0
0.63045555 -1.2441053 0.46401861 0
0.72712356 -1.3911403 -0.056040566 0
0.65732855 -1.2576078 0.47210443 0
0.74408841 -1.3809586 -0.05600341 0
0.66858572 -1.2408327 0.46893036 0
0.75717807 -1.3638442 -0.055691604 0
0.69956094 -1.2600631 0.051453777 0
0.70323235 -1.2666761 0.15570088 0
0.69603717 -1.253716 0.25861472 0
0.695939 -1.2535392 0.3658002 0
0.69677305 -1.2550415 0.47757804 0
0.77857268 -1.3616917 -0.055999607 0
0.71488595 -1.2503062 0.051418874 0
0.70866531 -1.2394265 0.15343608 0
0.71060222 -1.2428142 0.25819123 0
0.712309 -1.2457992 0.36612996 0
0.72096884 -1.260945 0.48324078 0
0.7883901 -1.3394356 -0.055488195 0
0.73336917 -1.2459577 0.051615734 0
0.7296465 -1.2396332 0.15458684 0
0.73515713 -1.2489954 0.26137781 0
0.7377336 -1.2533728 0.37105653 0
0.73106802 -1.2420483 0.47948888 0
0.81314814 -1.3425373 -0.056036428 0
0.83147889 -1.3345857 -0.056137096 0
0.84358603 -1.3167819 -0.055830609 0
0.86421442 -1.3123049 -0.056097742 0
0.88114887 -1.3020278 -0.056128282 0
0.89568937 -1.2882643 -0.056016728 0
0.91362643 -1.2793871 -0.056126524 0
0.92727518 -1.2645257 -0.055982359 0
0.94283384 -1.2523651 -0.055965163 0
0.96400303 -1.2474796 -0.056284837 0
0.97184229 -1.2254181 -0.055837169 0
0.7680766 -0.9684853 0.044129819 0
0.77882946 -0.9820438 0.13470089 0
0.9927783 -1.2199454 -0.056152984 0
0.77377528 -0.95083028 0.043765854 0
0.77623713 -0.95385545 0.13216472 0
1.0065032 -1.2054838 -0.056066256 0
0.77336407 -0.92625415 0.043079473 0
0.77032185 -0.92261046 0.12916924 0
1.0223753 -1.1936181 -0.056108698 0
0.77150446 -0.90072751 0.042340722 0
0.77458173 -0.90432024 0.12796395 0
1.0341012 -1.1769831 -0.055934418 0
0.77374023 -0.88064796 0.041851517 0
0.77585071 -0.88305008 0.12632658 0
1.0476502 -1.1625501 -0.055871021 0
0.78044927 -0.86604428 0.041621238 0
0.77375001 -0.85861021 0.12421427 0
1.0631387 -1.1502769 -0.055920132 0
1.0771981 -1.1364412 -0.055902503 0
1.0967779 -1.1282978 -0.056176838 0
1.1064893 -1.1099765 -0.055953916 0
1.1205441 -1.0961193 -0.055962231 0
1.1235918 -1.0717505 -0.055436041 0
1.1467224 -1.0665635 -0.0559102 0
1.15927 -1.0513232 -0.05587209 0
1.1817745 -1.0449183 -0.056318093 0
1.1887503 -1.0247082 -0.056031171 0
1.1968963 -1.0057416 -0.055813771 0
1.2179021 -0.99750185 -0.056203123 0
1.2209244 -0.97455215 -0.055771865 0
1.231912 -0.95817918 -0.055718202 0
1.2493032 -0.9467023 -0.055961173 0
1.2624807 -0.93189836 -0.056021366 0
1.2769679 -0.9179796 -0.05614683 0
1.2835584 -0.89842176 -0.055934746 0
1.2940702 -0.88171303 -0.055904571 0
1.3129019 -0.87054259 -0.056240078 0
1.3149298 -0.84824699 -0.055864971 0
1.3285576 -0.83353776 -0.055993583 0
1.339711 -0.81720912 -0.056025505 0
1.3552976 -0.80347908 -0.05624976 0
1.3579208 -0.78209645 -0.055945456 0
1.3686796 -0.76550651 -0.055987138 0
1.3759927 -0.74700886 -0.055897072 0
1.388626 -0.7313816 -0.056031704 0
1.3973706 -0.71365821 -0.056017503 0
1.4142091 -0.69994849 -0.056334727 0
1.4204084 -0.6808871 -0.056235675 0
1.4305643 -0.66373503 -0.056302395 0
1.4370587 -0.64488488 -0.056233943 0
1.442965 -0.62582874 -0.056152236 0
1.4503243 -0.60744029 -0.056136508 0
1.4519582 -0.58674675 -0.055909339 0
1.4563199 -0.56728441 -0.055797804 0
1.4595819 -0.54749018 -0.055654231 0
1.4699422 -0.53036147 -0.055790201 0
1.4885215 -0.51597697 -0.056244303 0
1.4906574 -0.49578264 -0.05608467 0
1.4889792 -0.47448775 -0.055792306 0
1.4926776 -0.45504421 -0.055711765 0
1.513901 -0.44075885 -0.056292281 0
1.5060346 -0.41797203 -0.055799652 0
1.5226263 -0.40199861 -0.056222379 0
1.5172659 -0.38021362 -0.055843234 0
1.5169451 -0.35989591 -0.055660222 0
1.5369842 -0.34426764 -0.056231972 0
1.5389231 -0.3244085 -0.05614901 0
1.5257268 -0.30161378 -0.05552455 0
1.5378919 -0.28394637 -0.055832718 0
1.545279 -0.26523516 -0.055975214 0
1.5341573 -0.2434815 -0.055456892 0
1.5448868 -0.22528061 -0.055737782 0
1.558751 -0.20729357 -0.056139357 0
1.5638239 -0.18796144 -0.056232363 0
1.5638455 -0.16801748 -0.056152608 0
1.56714 -0.14843686 -0.056199335 0
1.5634854 -0.12825 -0.056005921 0
1.571243 -0.10898835 -0.056230191 0
1.5735637 -0.089256719 -0.056268558 0
1.5599738 -0.068793215 -0.055747204 0
1.5737602 -0.049556542 -0.056213118 0
1.5730586 -0.029714387 -0.05617024 0
1.5596169 -0.0098191211 -0.055681437 0
1.562361 0.0098363981 -0.055779409 0
1.5581541 0.029432846 -0.055638034 0
1.5624765 0.049201228 -0.055810075 0
1.5657928 0.069049828 -0.055955153 0
1.5626869 0.088639759 -0.055879615 0
1.5652795 0.1085747 -0.056016773 0
1.5555373 0.12759803 -0.055721212 0
1.571708 0.14886953 -0.056363143 0
1.5664257 0.1682947 -0.056245256 0
1.5602082 0.18752687 -0.056102347 0
1.5441041 0.20534572 -0.055611841 0
1.5477901 0.22570395 -0.055842526 0
1.5516709 0.24626105 -0.056089975 0
1.5400168 0.26433194 -0.055784598 0
1.5338674 0.2832033 -0.055686608 0
1.5460093 0.30562332 -0.056262676 0
1.523958 0.32125381 -0.05560299 0
1.5222048 0.34095719 -0.055691253 0
1.5242821 0.36163661 -0.05592943 0
1.5130997 0.37916958 -0.055689894 0
1.5207222 0.4014959 -0.056152068 0
1.5136188 0.42007685 -0.056080654 0
1.5135853 0.44066697 -0.056280542 0
1.4979922 0.45666435 -0.055910122 0
1.5039066 0.47924462 -0.056351639 0
1.4890292 0.49524108 -0.056023408 0
1.4822751 0.51381171 -0.056008279 0
1.4722853 0.53120691 -0.055879131 0
1.464655 0.54939318 -0.055847671 0
1.4620266 0.56950736 -0.056016456 0
1.4517275 0.58665353 -0.055900458 0
1.4511821 0.60779959 -0.056169711 0
1.4390943 0.62415004 -0.056001611 0
1.435482 0.64417732 -0.056172244 0
1.4199648 0.65881723 -0.055885233 0
1.4193364 0.68037325 -0.056193236 0
1.4020883 0.6939494 -0.055851895 0
1.4060971 0.71811491 -0.056367327 0
1.3880148 0.73105967 -0.056007043 0
1.3751343 0.74654287 -0.055862203 0
1.3687302 0.76553482 -0.055989206 0
1.3637022 0.78542626 -0.056183644 0
1.3433815 0.79641473 -0.055755202 0
1.3443146 0.82001734 -0.056218028 0
1.3278689 0.83310568 -0.055964559 0
1.3161356 0.84902483 -0.055916201 0
1.3011391 0.86274314 -0.055736206 0
1.2979614 0.88436425 -0.056072667 0
1.2823751 0.8975935 -0.05588318 0
1.2750422 0.91659528 -0.056062162 0
1.2473655 0.92074102 -0.055350643 0
1.2482485 0.94590306 -0.055913929 0
1.2392772 0.9639079 -0.056051329 0
1.2248471 0.97768325 -0.055951051 0
1.2084931 0.98979563 -0.055768926 0
1.1991183 1.0076088 -0.055917382 0
1.1869249 1.0231347 -0.055945132 0
1.1783218 1.0418655 -0.056153558 0
1.1638428 1.0554701 -0.056092475 0
1.1378523 1.0583134 -0.055477727 0
1.1350412 1.0826718 -0.056000941 0
1.1288497 1.104244 -0.056377035 0
1.1150532 1.1185673 -0.056386981 0
1.0857916 1.1169957 -0.055614114 0
1.0780736 1.1373649 -0.055947933 0
0.59283727 0.62544179 0.28670314 0
1.0658714 1.1532336 -0.056063864 0
0.61319548 0.66345495 0.30056506 0
1.0430304 1.1574236 -0.055624649 0
0.9997043 1.1093458 0.053314075 0
1.0082819 1.1188642 0.16186495 0
1.0014446 1.111277 0.26979029 0
0.62624097 0.69492328 0.31122398 0
1.0355437 1.1786249 -0.056012437 0
0.97653878 1.1114672 0.052820869 0
0.98761672 1.1240758 0.16080701 0
0.97826034 1.1134267 0.26730037 0
0.62073165 0.70649821 0.31288248 0
1.0240877 1.1956172 -0.056202676 0
0.95089 1.1101593 0.052185532 0
0.95530009 1.115308 0.15781933 0
0.95823181 1.1187308 0.26565593 0
0.62270987 0.72701061 0.31846878 0
1.0035329 1.2019262 -0.055900797 0
0.9382152 1.1236955 0.05226234 0
0.93906152 1.1247091 0.15746388 0
0.93236947 1.1166941 0.26236355 0
0.62848026 0.75272757 0.32624158 0
0.99110645 1.2178911 -0.056058422 0
0.90844232 1.1163118 0.051382817 0
0.91228127 1.1210291 0.15532804 0
0.90801024 1.1157808 0.25944206 0
0.62875044 0.77262086 0.33140585 0
0.9748503 1.229211 -0.056009997 0
0.89250267 1.1253769 0.051278714 0
0.88521713 1.1161904 0.15310097 0
0.88845199 1.1202694 0.25786397 0
0.62464243 0.78762585 0.33444166 0
0.96039003 1.2428042 -0.056073889 0
0.8670525 1.1220195 0.050624225 0
0.86470109 1.1189767 0.15197758 0
0.8703143 1.1262406 0.25669548 0
0.6198138 0.80207741 0.33723724 0
0.94280624 1.2523284 -0.055963524 0
0.83940476 1.1149803 0.049825773 0
0.84311616 1.1199102 0.15065049 0
0.84309274 1.1198791 0.2528058 0
0.61257106 0.81367743 0.33884445 0
0.93077058 1.2692925 -0.056193389 0
0.81922406 1.1171764 0.049458995 0
0.82188249 1.1208017 0.14936636 0
0.81790155 1.1153728 0.24944378 0
0.59815091 0.81569874 0.33652291 0
0.90627301 1.2690898 -0.055674784 0
0.80755782 1.1308551 0.049610443 0
0.80915225 1.1330879 0.14963399 0
0.8134051 1.1390432 0.2524268 0
0.58646286 0.8212471 0.3357386 0
0.8923502 1.2834616 -0.055807892 0
0.81113023 1.1666435 0.05072837 0
0.81588936 1.1734885 0.15360032 0
0.81324708 1.1696881 0.25692829 0
0.58525205 0.84176427 0.34108651 0
0.87894398 1.2987698 -0.055987835 0
0.81054848 1.1977053 0.051631112 0
0.81536263 1.204819 0.15634494 0
0.81237614 1.200406 0.26140791 0
0.56910563 0.84093773 0.33782101 0
0.85376871 1.2964431 -0.055419691 0
0.81191784 1.2328929 0.052703079 0
0.81197041 1.2329726 0.15865895 0
0.80242312 1.2184751 0.26312155 0
0.74169451 1.1262591 0.3440567 0
0.55935329 0.84937495 0.33835405 0
0.84567118 1.3200366 -0.055968605 0
0.81128168 1.2663569 0.053692624 0
0.81624764 1.2741084 0.1626168 0
0.79113233 1.2349051 0.26449728 0
0.71089196 1.1096551 0.33622316 0
0.55565107 0.86733443 0.34269392 0
0.83633649 1.3423826 -0.05646506 0
0.81787354 1.3127481 0.055218536 0
0.8117547 1.3029268 0.16497724 0
0.77278966 1.2403851 0.26356584 0
0.70088029 1.1249651 0.33816108 0
0.54277658 0.87119693 0.34149244 0
0.81070429 1.3385024 -0.055868015 0
0.75722533 1.2502068 0.26360583 0
0.67943257 1.1217681 0.33460173 0
0.52804655 0.8718242 0.33910507 0
0.40292975 0.66525179 0.46124959 0
0.7925722 1.3465408 -0.055782542 0
0.74008244 1.2573633 0.26312897 0
0.65529698 1.113317 0.32959354 0
0.52410364 0.8904261 0.34374624 0
0.40975109 0.69614679 0.47905511 0
0.77885914 1.3621926 -0.056020208 0
0.72326028 1.2649527 0.26279041 0
0.63729453 1.114602 0.32757223 0
0.51616991 0.90275997 0.34597105 0
0.41538474 0.72649091 0.34648985 0
0.41051218 0.71796894 0.41380274 0
0.40939069 0.71600753 0.48913604 0
0.7644307 1.3769078 -0.05622505 0
0.70649493 1.2725527 0.26250032 0
0.6173563 1.1119945 0.32449546 0
0.50082105 0.90208882 0.34326977 0
0.41192564 0.74196869 0.35137001 0
0.40728605 0.73361176 0.41982931 0
0.41570616 0.74877822 0.50790685 0
0.74256629 1.3781337 -0.05588885 0
0.68652385 1.2741241 0.26102054 0
0.60563153 1.1239955 0.3257463 0
0.49235785 0.9137702 0.34532824 0
0.41532838 0.77081072 0.36252314 0
0.41325 0.76695335 0.43589741 0
0.40198082 0.74603885 0.50257534 0
0.72807586 1.3929623 -0.056113962 0
0.68005967 1.3010973 0.26477098 0
0.58464956 1.1185576 0.3220112 0
0.47998276 0.91830802 0.34473172 0
0.41337815 0.79087943 0.36948428 0
0.40795806 0.78050959 0.44064751 0
0.40619212 0.77713096 0.5200339 0
0.70991558 1.4009074 -0.05606946 0
0.65961993 1.3016567 0.2631737 0
0.56402743 1.1130198 0.3183471 0
0.46800205 0.92352885 0.34445199 0
0.41776216 0.82438827 0.38265103 0
0.41133881 0.8117128 0.45530334 0
0.40695134 0.80305481 0.53390998 0
0.6913805 1.4080249 -0.056001443 0
0.64647454 1.3165721 0.26452249 0
0.54936492 1.1188043 0.31799778 0
0.45606327 0.92879164 0.34424567 0
0.41396329 0.84305334 0.38886431 0
0.41182145 0.83869135 0.46749026 0
0.40669659 0.8282544 0.54721564 0
0.67297101 1.4153022 -0.055949405 0
0.53517586 1.12551 0.31796309 0
0.44410655 0.93398523 0.34407061 0
0.41002795 0.86231565 0.3953363 0
0.40398443 0.8496058 0.47070113 0
0.41103762 0.86443907 0.56765771 0
0.6539467 1.4211631 -0.055851135 0
0.51403522 1.1171062 0.31373546 0
0.43406868 0.94332212 0.34546927 0
0.40513575 0.88044482 0.4012771 0
0.40639868 0.88318938 0.48643348 0
0.40753382 0.8856563 0.57817483 0
0.63452196 1.4259613 -0.055721279 0
0.49794099 1.1190227 0.31248799 0
0.42141241 0.94704014 0.34486017 0
0.40848884 0.917997 0.41601479 0
0.4084506 0.91791105 0.50268447 0
0.40399274 0.90789288 0.58932364 0
0.61915845 1.4399805 -0.055960007 0
0.4828285 1.1229172 0.31185299 0
0.41488636 0.96490371 0.349435 0
0.41152942 0.95709652 0.43135118 0
0.41279176 0.96003234 0.52286369 0
0.40749073 0.94770366 0.61178607 0
0.60209554 1.4503537 -0.056064043 0
0.46301338 1.1153266 0.30810136 0
0.41829124 1.007598 0.36296025 0
0.40483463 0.97518313 0.43717045 0
0.40673864 0.97976959 0.53078169 0
0.40837595 0.98371363 0.63166243 0
0.58198941 1.4533333 -0.055891495 0
0.44775733 1.1181314 0.30729425 0
0.41561568 1.0378678 0.3719494 0
0.4036642 1.0080228 0.44957796 0
0.40592021 1.0136564 0.54632717 0
0.40651116 1.0151322 0.64849859 0
0.56279939 1.4583573 -0.055807743 0
0.42924383 1.1122806 0.30417669 0
0.41639841 1.0789948 0.3847788 0
0.40351203 1.0456029 0.46403575 0
0.40723598 1.0552527 0.56593746 0
0.40869936 1.0590446 0.67321014 0
0.54449517 1.4656048 -0.055818282 0
0.41250437 1.1103283 0.30219835 0
0.41512826 1.117391 0.39657566 0
0.40731141 1.0963506 0.4842428 0
0.40868825 1.1000565 0.58715951 0
0.40811723 1.0985196 0.69498158 0
0.52896291 1.480643 -0.056132894 0
0.39812517 1.1144094 0.30192068 0
0.40695718 1.1391315 0.40244097 0
0.40789002 1.1417427 0.50198346 0
0.40780556 1.1415062 0.60649443 0
0.50740254 1.4788059 -0.055816591 0
0.38317418 1.1167469 0.30122289 0
0.40812024 1.1894512 0.41836956 0
0.40700266 1.1861941 0.51923269 0
0.41196105 1.2006451 0.63510907 0
0.48857373 1.484565 -0.055797331 0
0.59405375 1.8050733 0.34271896 0
0.37054116 1.1259148 0.30241325 0
0.40851605 1.2413043 0.43476415 0
0.40748182 1.2381616 0.53969163 0
0.40743032 1.2380052 0.65210593 0
0.47186503 1.4970155 -0.056037515 0
0.57393724 1.8208448 0.34431395 0
0.34938341 1.1084365 0.29651347 0
0.40752855 1.2929049 0.45100403 0
0.40567121 1.2870123 0.55871379 0
0.40795499 1.2942578 0.67897666 0
0.45518216 1.5101496 -0.056310143 0
0.55130696 1.829061 0.34452754 0
0.33486754 1.110984 0.29604349 0
0.40499923 1.3436587 0.46689251 0
0.40685934 1.3498298 0.58371359 0
0.43437326 1.5096507 -0.056083139 0
0.52677554 1.830792 0.34357688 0
0.32177275 1.118311 0.2968927 0
0.40917873 1.4220879 0.49231556 0
0.40717569 1.4151263 0.60968459 0
0.41438991 1.5115691 -0.055956125 0
0.30897564 1.1270498 0.041721769 0
0.30846974 1.1252044 0.12538673 0
0.30571938 1.115172 0.20854056 0
0.30793461 1.1232525 0.2971516 0
0.40455687 1.4757012 0.50907212 0
0.40374398 1.4727361 0.63226432 0
0.39505684 1.5156399 -0.055918232 0
0.29090399 1.1160564 0.041175939 0
0.290346 1.1139156 0.12371153 0
0.28774071 1.1039203 0.2057426 0
0.29176036 1.1193419 0.29512173 0
0.39590815 1.518906 0.52221525 0
0.39731956 1.5243208 0.65221071 0
0.37518978 1.5174525 -0.055806376 0
0.27653512 1.1184444 0.041132312 0
0.27851981 1.1264715 0.1247066 0
0.27661294 1.1187592 0.20784253 0
0.27857831 1.1267081 0.29611555 0
0.39299923 1.5894828 0.54473567 0
0.39260402 1.5878844 0.67723864 0
0.35761949 1.5287508 -0.056051832 0
0.26421949 1.1294848 0.041412693 0
0.26205024 1.1202117 0.1236385 0
0.26308778 1.1246469 0.20830436 0
0.25952107 1.1093999 0.29068476 0
0.38522065 1.6467401 0.56265146 0
0.33761868 1.5298533 -0.055931944 0
0.24607597 1.1150454 0.040766429 0
0.24797389 1.1236454 0.12366304 0
0.24501538 1.1102396 0.20504817 0
0.24762626 1.1220703 0.2931644 0
0.37384731 1.6940163 0.5771504 0
0.31934863 1.5388956 -0.056111064 0
0.23197131 1.1178367 0.040758457 0
0.23287 1.1221673 0.12316789 0
0.23263447 1.1210325 0.20648409 0
0.23220855 1.1189799 0.29156989 0
0.3597672 1.7336669 0.58906919 0
0.29757071 1.5305732 -0.055666573 0
0.2175144 1.1187986 0.040690433 0
0.21673957 1.1148133 0.12205148 0
0.22142632 1.1389199 0.20924865 0
0.21738298 1.1181227 0.29061025 0
0.3446593 1.7727762 0.6008355 0
0.28067058 1.5474041 -0.056145716 0
0.20256497 1.1167892 0.040521368 0
0.2027429 1.1177702 0.12208603 0
0.2019169 1.1132163 0.20404291 0
0.20128685 1.1097426 0.2877506 0
0.33152464 1.8277748 0.61801195 0
0.26164302 1.5536562 -0.056248564 0
0.18815406 1.1172731 0.04044975 0
0.18875845 1.120862 0.12215442 0
0.18880531 1.1211402 0.20504329 0
0.18660545 1.1080774 0.28668678 0
0.31448004 1.8674064 0.63002336 0
0.24058172 1.5473206 -0.055905081 0
0.17423427 1.1206017 0.040487617 0
0.17341389 1.1153253 0.12130342 0
0.17426111 1.1207743 0.20455882 0
0.1731344 1.1135278 0.28751007 0
0.29367101 1.8887686 0.63593251 0
0.22257812 1.560732 -0.056283914 0
0.15918057 1.1161842 0.040252402 0
0.1586609 1.1125404 0.12077366 0
0.16003117 1.1221488 0.20442569 0
0.15889868 1.1142076 0.28714624 0
0.27560192 1.9325382 0.64944941 0
0.20069827 1.5463774 -0.055670697 0
0.14515477 1.1184155 0.040263761 0
0.1436137 1.1065415 0.11991663 0
0.14647658 1.1286 0.20524865 0
0.14553705 1.1213609 0.28849456 0
0.25383353 1.9557838 0.65613514 0
0.18217333 1.5570015 -0.05596615 0
0.1313553 1.1226693 0.040354159 0
0.13039532 1.1144646 0.12058775 0
0.1302446 1.1131763 0.20212939 0
0.13020959 1.1128772 0.28586745 0
0.23529543 2.0110264 0.6736207 0
0.16208407 1.5546612 -0.055804241 0
0.11907351 1.1421169 0.12340777 0
0.119876 1.1498141 0.20849141 0
0.11998509 1.1508604 0.29521281 0
0.21214643 2.0348442 0.68065006 0
0.14190549 1.5501264 -0.05557292 0
0.11925825 1.3027358 0.14058954 0
0.11882003 1.2979488 0.23506218 0
0.11878048 1.2975168 0.33242229 0
0.18961196 2.0712554 0.69197601 0
0.12256272 1.5541546 -0.055657592 0
0.16976629 2.1527188 0.23206946 0
0.16725858 2.1209195 0.38369265 0
0.16430786 2.0835032 0.53321874 0
0.1038989 1.5693893 -0.056151871 0
0.14106499 2.1307817 0.38512489 0
0.14070652 2.1253672 0.54343623 0
0.084342308 1.5745337 -0.056293473 0
0.11549305 2.1560674 0.38940141 0
0.11529418 2.152355 0.54992193 0
0.06426125 1.5693877 -0.056076117 0
0.089001216 2.1735868 0.39233202 0
0.089032389 2.1743484 0.55521071 0
0.044386018 1.5662034 -0.055937927 0
0.024228234 0.85491651 0.35410827 0
0.023848707 0.84152454 0.42121762 0
0.024770282 1.5735099 -0.056183293 0
0.013312788 0.84568292 0.3501865 0
0.013528722 0.85939997 0.43004563 0
0.0049072909 1.5582546 -0.055631973 0
0.0025898009 0.82236183 0.41146272 0
0.0025997097 0.8255083 0.48956841 0
-0.014821332 1.5696222 -0.056040034 0
-0.0078477152 0.83109587 0.41584924 0
-0.0075951517 0.80434865 0.47703856 0
-0.034657612 1.5726696 -0.056159966 0
-0.018637283 0.84570998 0.35023937 0
-0.018328127 0.83168131 0.41622463 0
-0.017909255 0.81267399 0.48207164 0
-0.054034386 1.5599173 -0.055724464 0
-0.080244847 2.3165865 0.41804394 0
-0.080436185 2.3221104 0.59280002 0
-0.027555643 0.7955032 0.47205448 0
-0.074403234 1.5746022 -0.056278054 0
-0.11002693 2.3285098 0.42041227 0
-0.1101032 2.3301239 0.5951525 0
-0.036894064 0.78079242 0.46356395 0
-0.093670249 1.5643016 -0.055947617 0
-0.1398451 2.3354256 0.42194542 0
-0.14002816 2.3384829 0.59769052 0
-0.046400633 0.77489471 0.46037287 0
-0.11341125 1.5637147 -0.055973269 0
-0.17181273 2.3689547 0.42836004 0
-0.1710327 2.3581996 0.6032325 0
-0.13311045 1.5623873 -0.055981316 0
-0.20266978 2.3788419 0.43057522 0
-0.20203145 2.3713493 0.60719889 0
-0.15299225 1.5628347 -0.056061931 0
-0.23482354 2.3987517 0.43467972 0
-0.23524147 2.4030209 0.61601824 0
-0.17241846 1.5586182 -0.055984117 0
-0.26552552 2.4002821 0.4355284 0
-0.26472282 2.3930256 0.61426181 0
-0.19238685 1.5592184 -0.056088246 0
-0.29788193 2.4142139 0.43870214 0
-0.29713959 2.4081976 0.61906761 0
-0.21316531 1.5651993 -0.056395475 0
-0.33030477 2.4253137 0.44143996 0
-0.33004999 2.4234431 0.62400562 0
-0.23076341 1.5483494 -0.055888627 0
-0.36352131 2.4391129 0.4447495 0
-0.36329392 2.4375873 0.62877566 0
-0.25057384 1.5473783 -0.055963032 0
-0.27648985 1.7074183 0.061751097 0
-0.39765027 2.4556251 0.44863781 0
-0.39391211 2.4325407 0.62870353 0
-0.27105567 1.5499235 -0.056174073 0
-0.29346356 1.678054 0.060817923 0
-0.42883438 2.4521179 0.44894806 0
-0.42983913 2.4578631 0.63659674 0
-0.28953341 1.5409793 -0.055977602 0
-0.2961368 1.5761244 0.057254285 0
-0.33060589 1.7595787 0.19240959 0
-0.46252519 2.4616907 0.4517312 0
-0.4644191 2.4717708 0.6416626 0
-0.30822334 1.5337783 -0.055852585 0
-0.30650675 1.5252364 0.055541527 0
-0.34904766 1.7369281 0.19039829 0
-0.49390328 2.4577575 0.45211485 0
-0.4960739 2.4685588 0.64239949 0
-0.32703304 1.5275433 -0.055771071 0
-0.32355863 1.5113146 0.055178557 0
-0.35436046 1.6551874 0.18191275 0
-0.53065473 2.4786425 0.45714971 0
-0.528512 2.4686341 0.64409995 0
-0.34878829 1.5345125 -0.056181423 0
-0.34130472 1.5015882 0.054976001 0
-0.37278643 1.6400936 0.18075547 0
-0.56212801 2.4731119 0.45739892 0
-0.56092346 2.4678125 0.64567727 0
-0.3648127 1.5164098 -0.055682417 0
-0.36269867 1.5076224 0.055359747 0
-0.39516023 1.6425546 0.18156071 0
-0.59342772 2.4666891 0.45755681 0
-0.59871429 2.4886639 0.65305358 0
-0.38449356 1.5141232 -0.05577182 0
-0.44023538 1.7336327 0.063857317 0
-0.64268583 2.5308762 0.28062412 0
-0.63197243 2.488687 0.46307674 0
-0.63027036 2.4819844 0.65333164 0
-0.40547919 1.5164603 -0.056041535 0
-0.44798079 1.675413 0.061915707 0
-0.68335426 2.5556912 0.28430721 0
-0.66211665 2.4762642 0.46227995 0
-0.66066873 2.470849 0.65253866 0
-0.42654383 1.5183637 -0.0563059 0
-0.46279612 1.6474106 0.061091386 0
-0.69571251 2.4765208 0.46392649 0
-0.69509476 2.4743216 0.65571529 0
-0.442184 1.5011803 -0.055870738 0
-0.45232534 1.5356094 0.057152119 0
-0.72616309 2.4652672 0.46349454 0
-0.72735143 2.4693015 0.65676004 0
-0.46258658 1.5004758 -0.056056868 0
-0.471937 1.5308053 0.057189964 0
-0.76042628 2.466568 0.4655025 0
-0.75744784 2.4569068 0.65594828 0
-0.48516414 1.5060847 -0.056490175 0
-0.79312187 2.4620712 0.46650171 0
-0.79196191 2.4584703 0.6589759 0
-0.49950275 1.4862103 -0.055976208 0
-0.82466018 2.4536769 0.46684176 0
-0.82762498 2.4624984 0.66279656 0
-0.51938534 1.4832557 -0.05610681 0
-0.85779613 2.4496861 0.46810046 0
-0.85834545 2.4512548 0.66262692 0
-0.54079884 1.4842247 -0.056396585 0
-0.88984394 2.4421804 0.46877018 0
-0.88840729 2.4382374 0.66207963 0
-0.5563249 1.4690608 -0.056082137 0
-0.91867244 2.4258947 0.46782759 0
-0.92546767 2.4438386 0.66671211 0
-0.57501954 1.4625537 -0.056105696 0
-0.95135474 2.4197569 0.46891698 0
-0.95199084 2.4213748 0.66380143 0
-0.58862078 1.4435036 -0.055654831 0
-0.98348588 2.4118507 0.46974751 0
-0.9805612 2.4046783 0.66255665 0
-0.61145622 1.4471169 -0.056086555 0
-1.0139369 2.399657 0.46982208 0
-1.0141046 2.400054 0.66474825 0
-0.63009566 1.4403706 -0.056128148 0
-1.0439668 2.3864613 0.46977508 0
-1.0453126 2.389538 0.6654287 0
-0.64661789 1.4288671 -0.055992734 0
-1.0776126 2.3812597 0.47138494 0
-1.0778772 2.3818443 0.66701293 0
-0.66947836 1.4311306 -0.056407318 0
-1.1077572 2.3680308 0.47149011 0
-1.1043454 2.3607376 0.66494375 0
-0.6834656 1.4143529 -0.0560808 0
-1.1340786 2.3468442 0.47007784 0
-1.1330413 2.3446975 0.66439188 0
-0.69788152 1.3989432 -0.055813812 0
-1.1585529 2.3223853 0.46806371 0
-1.1578305 2.3209372 0.66173792 0
-0.72325122 1.4052206 -0.056423143 0
-1.1906979 2.3134332 0.46924409 0
-1.1884859 2.3091352 0.66258746 0
-0.73760438 1.3898168 -0.056173131 0
-1.2169927 2.2930951 0.46819007 0
-1.2146453 2.2886717 0.66105199 0
-0.75192779 1.3747195 -0.055941191 0
-1.2454518 2.2770097 0.46807083 0
-1.2394191 2.2659805 0.65895355 0
-0.76924324 1.3652594 -0.055945966 0
-1.0493556 1.8624053 0.076318137 0
-1.2683367 2.2510545 0.46598154 0
-1.272094 2.2577231 0.66115814 0
-0.78709805 1.3567162 -0.055997584 0
-1.0538199 1.816463 0.074973337 0
-1.293592 2.2297566 0.4649078 0
-1.2932349 2.229141 0.6575048 0
-0.80025679 1.3402308 -0.055728666 0
-1.0535173 1.7643791 0.073365346 0
-1.3186603 2.2084277 0.46388605 0
-1.3195691 2.2099497 0.65669316 0
-0.81844532 1.3322896 -0.055822577 0
-1.0591718 1.7241515 0.072241478 0
-1.3429759 2.186136 0.4627192 0
-1.3423524 2.1851213 0.65428627 0
-0.84077877 1.3307792 -0.056198437 0
-1.0557747 1.6710733 0.070568964 0
-1.3724856 2.1723614 0.46342495 0
-1.3706206 2.1694093 0.65469766 0
-0.84691322 1.3038377 -0.055506662 0
-1.0520769 1.6196907 0.068953082 0
-1.3938469 2.1458516 0.46147731 0
-1.3888457 2.1381521 0.65049094 0
-0.8733269 1.3081453 -0.056153759 0
-1.052287 1.5762073 0.067660652 0
-1.4106308 2.1129658 0.45818877 0
-1.4150994 2.1196594 0.65023446 0
-0.8827799 1.2869152 -0.055715188 0
-1.0520028 1.5336081 0.066395409 0
-1.4331768 2.089283 0.45693037 0
-1.4306674 2.0856247 0.64526916 0
-0.90406102 1.2830026 -0.056034219 0
-1.0489744 1.4886572 0.065016039 0
-1.4516424 2.0601056 0.45451093 0
-1.4537424 2.0630858 0.64390838 0
-0.91257954 1.2610649 -0.055573571 0
-1.052488 1.4543998 0.064093612 0
-1.0519361 1.4536372 0.19283572 0
-1.475794 2.0393531 0.45399639 0
-1.4676555 2.0281067 0.63870859 0
-0.50701088 0.70062232 0.43270943 0
-0.9389348 1.2636722 -0.056205057 0
-1.0462506 1.4081039 0.062629029 0
-1.0494543 1.4124156 0.18910542 0
-1.4952688 2.0124183 0.45215601 0
-1.4983896 2.0166185 0.64098185 0
-0.52697062 0.7092272 0.44208708 0
-0.95300716 1.2494365 -0.056101192 0
-1.0509831 1.3778874 0.061868791 0
-1.0457561 1.3710346 0.1853134 0
-1.5119684 1.9822605 0.44962215 0
-1.5065602 1.9751701 0.63378721 0
-0.52430201 0.68738419 0.43255258 0
-0.96545851 1.2332439 -0.055915568 0
-1.0535482 1.3457668 0.061017383 0
-1.0523245 1.3442037 0.18346336 0
-1.53386 1.9593008 0.44875979 0
-1.5334744 1.9588083 0.63468283 0
-0.5420078 0.6923424 0.43993261 0
-0.9888801 1.2309107 -0.056369897 0
-1.0546761 1.3128103 0.060120512 0
-1.051576 1.3089516 0.18044497 0
-1.5371194 1.9133327 0.4426294 0
-1.547869 1.9267133 0.63054901 0
-0.56296301 0.70074946 0.44974354 0
-0.99356616 1.2053398 -0.055767402 0
-1.0457039 1.2685903 0.058693811 0
-1.057676 1.2831142 0.17870502 0
-1.5698349 1.9044374 0.44510934 0
-1.5576187 1.8896172 0.62477809 0
-0.57115644 0.69289553 0.44928318 0
-1.0153397 1.2006279 -0.056136485 0
-1.0492314 1.2407044 0.058010299 0
-1.0542095 1.2465909 0.17545319 0
-1.5804776 1.8688971 0.44141924 0
-1.574325 1.8616216 0.62202704 0
-0.57717144 0.68249875 0.44721889 0
-1.0306789 1.1880968 -0.056152951 0
-1.0513157 1.2118856 0.057277277 0
-1.0469736 1.2068802 0.17170601 0
-1.5827979 1.8245422 0.43561596 0
-1.5871465 1.829555 0.61794144 0
-1.0411178 1.1700366 -0.055914555 0
-1.0704207 1.202968 0.057488307 0
-1.062601 1.1941798 0.17178914 0
-1.6038059 1.8024007 0.43511683 0
-1.601229 1.7995048 0.61455321 0
-1.0618594 1.16351 -0.056237187 0
-1.0903693 1.1947491 0.057747103 0
-1.0941585 1.1989011 0.17443651 0
-1.6104283 1.7645928 0.43085098 0
-1.6120272 1.7663447 0.61011267 0
-1.0789661 1.1527624 -0.056369942 0
-0.9417932 1.0062075 0.049203422 0
-1.1210846 1.1977615 0.1763107 0
-1.6257858 1.736982 0.42907399 0
-1.627216 1.7385099 0.60752755 0
-1.0856839 1.1310519 -0.055972382 0
-0.94034505 0.97963965 0.048479442 0
-1.1550936 1.203362 0.17926192 0
-1.6293261 1.6974115 0.42433366 0
-1.6312596 1.6994257 0.60100001 0
-1.0980721 1.115497 -0.055882446 0
-0.95184129 0.96694571 0.048440557 0
-1.1768841 1.1955596 0.18029296 0
-1.6424081 1.668471 0.42223555 0
-1.6416423 1.667693 0.59704107 0
-1.1193647 1.1088479 -0.056251016 0
-0.95688701 0.94789666 0.048086081 0
-1.2006445 1.189364 0.1816242 0
-1.6597781 1.6441839 0.42134503 0
-1.6477377 1.6322566 0.59173584 0
-1.1337099 1.095122 -0.056274455 0
-0.97524458 0.94205028 0.048408642 0
-1.2426925 1.2003951 0.18568359 0
-1.6579597 1.6015279 0.41573101 0
-1.6583375 1.6018927 0.58825183 0
-1.1446276 1.0781405 -0.056138042 0
-0.99757129 0.93962616 0.048925694 0
-1.2723805 1.1984727 0.18784973 0
-1.6691722 1.5722163 0.41354549 0
-1.6632001 1.5665911 0.58293295 0
-1.1572282 1.0628312 -0.056095205 0
-1.3124225 1.205366 0.063618056 0
-1.3031706 1.1968688 0.19015533 0
-1.6613116 1.5257956 0.40680557 0
-1.6693066 1.5331384 0.57826096 0
-0.66020638 0.60635221 0.37114242 0
-1.1696496 1.0473976 -0.056053553 0
-1.331498 1.1923296 0.063809872 0
-1.3408875 1.2007378 0.19343731 0
-1.6650193 1.4909911 0.40308413 0
-1.6701739 1.495607 0.57199216 0
-0.66824037 0.59839576 0.37139341 0
-1.1805993 1.0307142 -0.055951867 0
-1.3779463 1.2030065 0.065304682 0
-1.6765087 1.4636644 0.40137187 0
-1.6803833 1.4670471 0.56911683 0
-0.67505723 0.5893541 0.37102807 0
-1.1852928 1.0087961 -0.055567868 0
-1.4011706 1.1925285 0.065688461 0
-1.6672953 1.4190257 0.39485687 0
-1.6688451 1.4203447 0.5591073 0
-0.66296786 0.56424826 0.36044973 0
-0.68278724 0.58111638 0.4486059 0
-1.1998158 0.99538052 -0.055656698 0
-1.4469357 1.2003939 0.067120023 0
-1.6907083 1.4026303 0.39618739 0
-1.6664845 1.382534 0.55244011 0
-0.68767673 0.57050425 0.36994857 0
-1.2075641 0.97640264 -0.055441394 0
-1.4736878 1.1915827 0.067659594 0
-1.6824206 1.3603582 0.39020029 0
-1.66634 1.347356 0.54672456 0
-0.68214506 0.55156344 0.36320752 0
-1.2262369 0.96622211 -0.055735674 0
-1.5176107 1.1958121 0.068979375 0
-1.6788517 1.3228631 0.38547862 0
-1.6715899 1.3171411 0.54296225 0
-0.69568348 0.54816872 0.36671162 0
-1.2416141 0.9532457 -0.055884585 0
-1.5565522 1.1950386 0.070059828 0
-1.6870388 1.2952192 0.38358316 0
-1.6747987 1.285822 0.53870261 0
-0.68889213 0.52889496 0.35959259 0
-0.68202192 0.52362043 0.43021467 0
-1.2600683 0.94243568 -0.056176603 0
-1.588259 1.1878976 0.07080806 0
-1.6785302 1.2554137 0.37802425 0
-1.6731324 1.2513765 0.5330559 0
-0.69868463 0.52256322 0.36124074 0
-0.70809108 0.52959853 0.4424172 0
-1.2655027 0.92188245 -0.055896915 0
-1.6411124 1.1955034 0.072487496 0
-1.6768293 1.2215221 0.37414739 0
-1.6771971 1.2217901 0.52940726 0
-1.6797838 1.2236744 0.69141603 0
-0.7015636 0.511069 0.35937342 0
-0.70634627 0.51455301 0.43724406 0
-1.2766428 0.90561467 -0.055880841 0
-1.6847802 1.195136 0.07374572 0
-1.6754199 1.188496 0.37046427 0
-1.6713352 1.1855985 0.52280313 0
-1.6720212 1.1860851 0.68201917 0
-0.71689147 0.50854278 0.36391598 0
-0.7050181 0.5001201 0.43248925 0
-1.2832899 0.88625395 -0.055678893 0
-1.7420422 1.2030733 0.075583063 0
-1.6734338 1.1556916 0.36677814 0
-1.674463 1.1564025 0.51918536 0
-1.6812323 1.1610774 0.67975885 0
-0.71560383 0.49420381 0.43513095 0
-1.3016623 0.8749426 -0.055993572 0
-1.7156056 1.1531842 0.073800154 0
-1.7102829 1.1496065 0.22146663 0
-1.6813626 1.130167 0.36536783 0
-1.6749488 1.1258558 0.51489943 0
-1.6700906 1.1225902 0.66948545 0
-0.71894032 0.48325247 0.43342519 0
-1.3137339 0.85924131 -0.05604298 0
-1.7077518 1.1169467 0.072851501 0
-1.710547 1.1187749 0.21965916 0
-1.6779805 1.0974749 0.36160114 0
-1.6665943 1.0900279 0.50807142 0
-1.6754148 1.0957968 0.66603559 0
-0.73211747 0.47883785 0.4376995 0
-1.3233466 0.84193051 -0.055996347 0
-1.7130855 1.0898875 0.072487831 0
-1.7016404 1.082606 0.21674764 0
-1.6859058 1.0725954 0.36036986 0
-1.6702418 1.0626298 0.50506407 0
-1.6644022 1.0589145 0.6563049 0
-0.74126756 0.47160417 0.4395847 0
-1.3246039 0.81948555 -0.055608496 0
-1.7256688 1.0676103 0.072445691 0
-1.7148969 1.0609461 0.21671733 0
-1.6751024 1.0363265 0.35524303 0
-1.6683295 1.0321364 0.500516 0
-1.6671864 1.0314292 0.65222967 0
-1.3491595 0.81136745 -0.056205992 0
-1.7440389 1.048843 0.072656676 0
-1.7364796 1.044297 0.21776573 0
-1.6845574 1.0130715 0.35451469 0
-1.6746215 1.0070963 0.49855956 0
-1.6737835 1.0065923 0.6498003 0
-1.3503112 0.78908116 -0.055835601 0
-1.7720233 1.035517 0.073273472 0
-1.7661614 1.0320915 0.21984078 0
-1.6835549 0.98381871 0.35166869 0
-1.6650425 0.97300071 0.49202108 0
-1.6640986 0.97244906 0.64123565 0
-1.3566518 0.77003688 -0.055692423 0
-1.8013278 1.0224354 0.073946983 0
-1.8133267 1.029246 0.22408059 0
-1.6848475 0.95632106 0.34939557 0
-1.6732153 0.94971859 0.49086329 0
-1.6742282 0.95029348 0.64047712 0
-1.3799598 0.76045454 -0.05625169 0
-1.6837643 0.92787206 0.34672049 0
-1.6726356 0.92173934 0.48724958 0
-1.6619403 0.91584551 0.63131458 0
-1.3757282 0.73569405 -0.055697147 0
-1.6796443 0.89821839 0.34351581 0
-1.6648792 0.89032245 0.48168606 0
-1.6665424 0.89121187 0.62874991 0
-1.3895745 0.72074735 -0.055885851 0
-1.6941119 0.87870544 0.34418443 0
-1.6839375 0.87342817 0.48397961 0
-1.6770914 0.86987716 0.62854737 0
-1.4079581 0.70792955 -0.056262225 0
-1.7077935 0.85868847 0.34473991 0
-1.6687829 0.83907378 0.47654954 0
-1.672913 0.8411504 0.62296236 0
-1.4151241 0.68934852 -0.056197248 0
-1.7081192 0.83207506 0.34266347 0
-1.676369 0.81660861 0.47574168 0
-1.6744339 0.81566596 0.61965483 0
-1.4136651 0.66674674 -0.05580147 0
-1.7335254 0.81760705 0.34566742 0
-1.6762154 0.79057711 0.47283545 0
-1.676556 0.79073775 0.61670643 0
-1.4205406 0.64825183 -0.055746235 0
-1.7271265 0.78815973 0.34238532 0
-1.6780996 0.76578677 0.47060952 0
-1.672231 0.76310867 0.61153239 0
-1.4349085 0.63310188 -0.055992786 0
-1.7433363 0.76918453 0.34365141 0
-1.6801341 0.74129879 0.46852511 0
-1.6715062 0.73749208 0.60782301 0
-1.4446036 0.6157676 -0.056064092 0
-1.7416849 0.74239957 0.34145603 0
-1.6744077 0.71372241 0.46438518 0
-1.6674483 0.71075594 0.60304505 0
-1.4491748 0.59626728 -0.055945668 0
-1.758684 0.72361577 0.34297511 0
-1.6773437 0.69014812 0.46275255 0
-1.6775955 0.69025171 0.60352355 0
-1.4626576 0.58038968 -0.056179576 0
-1.7776687 0.70538765 0.34491789 0
-1.6749662 0.66463476 0.45975122 0
-1.671152 0.66312128 0.59815401 0
-1.4654005 0.5602262 -0.056009535 0
