# .PCD v0.7 - Point Cloud Data file format
VERSION 0.7
FIELDS x y z intensity
SIZE 4 4 4 4
TYPE F F F F
COUNT 1 1 1 1
WIDTH 1352
HEIGHT 1
VIEWPOINT 0 0 0 1 0 0 0
POINTS 1352
DATA ascii
-1.5445067 -0.31544715 -0.056279186 0
-0.93301797 -0.19055784 0.03399758 0
-0.9450134 -0.19300777 0.10365649 0
-0.94068575 -0.19212389 0.17315365 0
-1.675983 -0.34229964 0.43642402 0
-1.6635274 -0.33975571 0.56487089 0
-1.5287784 -0.33234027 -0.055854134 0
-0.9480511 -0.20609629 0.034637179 0
-0.9420917 -0.20480077 0.10361067 0
-0.94900525 -0.2063037 0.17514932 0
-1.677685 -0.36471099 0.4380284 0
-1.6675175 -0.3625007 0.56773084 0
-1.5315297 -0.35319054 -0.056112692 0
-0.92236274 -0.21270876 0.033793833 0
-0.9309783 -0.21469562 0.10267761 0
-0.9426806 -0.21739432 0.17447345 0
-1.6699824 -0.38511953 0.43724883 0
-1.6686467 -0.38481146 0.56971985 0
-1.5201062 -0.37077433 -0.055860788 0
-0.94962877 -0.2316272 0.03489691 0
-0.9429884 -0.23000753 0.10431337 0
-0.944529 -0.23038331 0.17533858 0
-1.6692591 -0.40715468 0.43836704 0
-1.6626124 -0.40553349 0.56935799 0
-1.513652 -0.38945645 -0.055799399 0
-0.9963823 -0.25636509 0.036730725 0
-0.99574226 -0.2562004 0.11049712 0
-0.99714071 -0.25656021 0.18569022 0
-1.6698475 -0.42964491 0.43990746 0
-1.6790527 -0.43201339 0.57680511 0
-1.5128525 -0.40962806 -0.055955641 0
-1.0464005 -0.28332904 0.038703054 0
-1.0551423 -0.28569597 0.11747861 0
-1.682303 -0.45550936 0.3143262 0
-1.6675109 -0.45150417 0.44075474 0
-1.6749892 -0.45352906 0.57732528 0
-1.5138037 -0.43041524 -0.056186832 0
-1.1215137 -0.31887662 0.041626468 0
-1.1308264 -0.32152444 0.12634598 0
-1.6768897 -0.476785 0.31441161 0
-1.6726094 -0.475568 0.4436501 0
-1.6753719 -0.47635347 0.57947874 0
-1.4949514 -0.44547468 -0.055690888 0
-1.212378 -0.36127177 0.045164287 0
-1.1955755 -0.35626486 0.13407093 0
-1.6838437 -0.50176203 0.31687501 0
-1.6667626 -0.49667206 0.44372296 0
-1.6750085 -0.49912924 0.58148086 0
-1.4995103 -0.46746942 -0.056075566 0
-1.2988462 -0.4049128 0.048571546 0
-1.2942502 -0.40347999 0.14569443 0
-1.6734476 -0.52169406 0.31612977 0
-1.6663673 -0.51948678 0.44532388 0
-1.6826578 -0.52456534 0.58638293 0
-1.4911104 -0.48553318 -0.055985644 0
-1.4211344 -0.46274769 0.053358302 0
-1.4382164 -0.46830991 0.16255173 0
-1.6696051 -0.54365432 0.31667203 0
-1.6676868 -0.54302973 0.44746843 0
-1.6703699 -0.54390341 0.58444118 0
-1.4773294 -0.50170577 -0.055700999 0
-1.5562521 -0.52850819 0.05867669 0
-1.5585425 -0.52928603 0.17689063 0
-1.6693447 -0.56691474 0.31795141 0
-1.6734923 -0.56832331 0.45091057 0
-1.4779537 -0.52276397 -0.055968296 0
-1.7198509 -0.608325 0.1960526 0
-1.6732116 -0.59182829 0.32008198 0
-1.6749609 -0.59244698 0.45328042 0
-1.4670887 -0.53979909 -0.055809833 0
-1.6851107 -0.62001789 0.19296712 0
-1.6764086 -0.6168161 0.32215387 0
-1.6769992 -0.61703336 0.45589858 0
-1.4570529 -0.55703491 -0.055690479 0
-1.6799302 -0.64224142 0.19328465 0
-1.6643159 -0.63627207 0.32134423 0
-1.6741267 -0.64002281 0.45727244 0
-1.4571476 -0.57820332 -0.055967946 0
-1.6712601 -0.6631642 0.1932326 0
-1.6719058 -0.66342038 0.32439688 0
-1.6656973 -0.66095686 0.45720708 0
-1.4441688 -0.59420758 -0.055752411 0
-1.6820974 -0.69210404 0.19547777 0
-1.6769445 -0.68998384 0.32703441 0
-1.676325 -0.68972892 0.46247149 0
-1.4350932 -0.61171371 -0.055694997 0
-1.68593 -0.71863383 0.19695914 0
-1.6724305 -0.71287966 0.32787874 0
-1.6705886 -0.71209449 0.46332598 0
-1.4321696 -0.6318934 -0.055885907 0
-1.6805941 -0.74150181 0.19741094 0
-1.6717415 -0.73759586 0.32953843 0
-1.6785439 -0.74059725 0.46808168 0
-1.4255555 -0.65054029 -0.055943031 0
-1.6673418 -0.76087755 0.1969641 0
-1.6720048 -0.76300544 0.331458 0
-1.6638749 -0.7592954 0.46662027 0
-1.4202836 -0.66986835 -0.056062721 0
-1.6597999 -0.78283489 0.19722202 0
-1.6760182 -0.79048413 0.33420041 0
-1.6704526 -0.78785908 0.47120982 0
-1.4169924 -0.69025862 -0.056271445 0
-1.9385018 -0.94430119 0.076981567 0
-1.6815826 -0.8191483 0.20101999 0
-1.6764413 -0.81664383 0.3363086 0
-1.6772984 -0.81706136 0.47600546 0
-1.4006816 -0.70427084 -0.055971451 0
-1.8857884 -0.94818544 0.075356402 0
-1.6632007 -0.83626699 0.20006555 0
-1.6700027 -0.83968711 0.33711138 0
-1.6621515 -0.83573943 0.47465581 0
-1.3893448 -0.7206282 -0.055876613 0
-1.8184774 -0.94321156 0.07313545 0
-1.677882 -0.87028724 0.20313369 0
-1.6627015 -0.86241341 0.33780292 0
-1.3801175 -0.73804128 -0.055874851 0
-1.7825899 -0.95327026 0.072169177 0
-1.6785541 -0.89763528 0.20456725 0
-1.6720502 -0.89415729 0.34196267 0
-1.3726983 -0.75645292 -0.055955682 0
-1.7361397 -0.9567346 0.070770748 0
-1.6754436 -0.92328686 0.2055888 0
-1.6783481 -0.92488736 0.34560516 0
-1.3631088 -0.77370185 -0.055957489 0
-1.6982983 -0.96395576 0.069717482 0
-1.6658876 -0.94555938 0.20586091 0
-1.6733235 -0.94978005 0.34700578 0
-1.3510798 -0.78953034 -0.055867385 0
-1.6771135 -0.98005456 0.069348931 0
-1.6671779 -0.97424847 0.20751992 0
-1.6711005 -0.97654074 0.34906715 0
-1.3500322 -0.81189233 -0.05624235 0
-1.6785538 -1.009461 0.069928564 0
-1.6741015 -1.0067835 0.2099431 0
-1.6759946 -1.0079221 0.35271266 0
-1.3385646 -0.82812256 -0.056194581 0
-1.6932905 -1.0475788 0.071086407 0
-1.6644586 -1.0297416 0.21034327 0
-1.671993 -1.0344028 0.35458359 0
-1.3167051 -0.83770508 -0.055715315 0
-1.683189 -1.0708669 0.07122279 0
-1.6723118 -1.0639467 0.21301189 0
-1.67554 -1.0660006 0.35815412 0
-1.3197324 -0.86316454 -0.056298871 0
-1.6852027 -1.1021986 0.071889579 0
-1.6753365 -1.0957457 0.21513762 0
-1.6649263 -1.0889369 0.35878801 0
-1.3161536 -0.88468331 -0.056616943 0
-1.6729113 -1.1244862 0.071963578 0
-1.6717318 -1.1236935 0.21647461 0
-1.6718634 -1.1237819 0.36330363 0
-1.2914647 -0.89189959 -0.056033581 0
-1.6719452 -1.1546636 0.072541729 0
-1.6748523 -1.1566713 0.21874738 0
-1.6729789 -1.1553774 0.36667845 0
-1.2804471 -0.90831339 -0.056047365 0
-1.6679438 -1.1831927 0.073008761 0
-1.6777958 -1.1901814 0.22107171 0
-2.0356205 -1.4440122 0.45011079 0
-1.2668186 -0.92284107 -0.055955037 0
-1.6688557 -1.2157135 0.073712908 0
-1.6731112 -1.2188135 0.22245905 0
-2.0027502 -1.4589461 0.44686943 0
-1.256882 -0.94005257 -0.05603455 0
-1.6686682 -1.2480375 0.074392878 0
-1.6649463 -1.2452538 0.22344063 0
-1.2433386 -0.9545697 -0.055962205 0
-1.6812592 -1.290782 0.075672843 0
-1.6674917 -1.280212 0.22592776 0
-1.2378011 -0.97533417 -0.056261294 0
-1.5952156 -1.2569613 0.072506711 0
-1.5914303 -1.2539787 0.2177444 0
-1.5853122 -1.2491579 0.36400113 0
-1.2211753 -0.98740822 -0.056066304 0
-1.5779787 -1.2759095 0.072447777 0
-1.5702875 -1.2696905 0.21702193 0
-1.5659345 -1.2661709 0.36318392 0
-1.2124501 -1.0058621 -0.056242779 0
-1.6743298 -1.3890426 0.077668317 0
-1.6751961 -1.3897612 0.2339209 0
-1.7714567 -1.4696202 0.41510937 0
-1.1881462 -1.0112246 -0.055701643 0
-1.6643939 -1.4165562 0.078028671 0
-1.6721708 -1.4231751 0.23598218 0
-1.7596818 -1.4976553 0.41673627 0
-1.4599557 -1.24256 0.48912382 0
-1.1813589 -1.0313772 -0.055987861 0
-1.7163481 -1.4984459 0.4109098 0
-1.4321151 -1.2502983 0.48503268 0
-1.1638362 -1.0421919 -0.055774953 0
-1.6259325 -1.4559897 0.077920161 0
-1.6346663 -1.4638108 0.23581801 0
-1.6164895 -1.4475338 0.39133558 0
-1.399727 -1.2534274 0.47937098 0
-1.1587226 -1.0642036 -0.056167644 0
-1.3474525 -1.2375386 0.46676818 0
-1.1402166 -1.0739858 -0.055921707 0
-1.3279014 -1.2507685 0.46541449 0
-1.1223857 -1.0841832 -0.05571235 0
-1.2901157 -1.2462041 0.45763484 0
-1.1131407 -1.1026824 -0.055938244 0
-1.2657096 -1.2538178 0.45454189 0
-1.0959669 -1.1133585 -0.055775318 0
-1.2479684 -1.2677721 0.4538677 0
-1.0829039 -1.1281557 -0.055829056 0
-1.0707536 -1.1439881 -0.055940878 0
-1.0637115 -1.1655394 -0.056335278 0
-1.0411299 -1.1700501 -0.055915207 0
-1.0318489 -1.1894455 -0.056216694 0
-1.0146669 -1.1998322 -0.056099284 0
-0.99854815 -1.2113836 -0.05604703 0
-0.98475599 -1.2257771 -0.056134805 0
-0.96369201 -1.2309874 -0.05581326 0
-0.94043154 -1.2329493 -0.055360895 0
-0.93942261 -1.2643287 -0.056234255 0
-0.92086923 -1.2725201 -0.056078389 0
-0.90633017 -1.2862229 -0.056174863 0
-0.89353323 -1.3025913 -0.056393865 0
-0.86845398 -1.3008461 -0.055840433 0
-0.85268003 -1.3127158 -0.055884618 0
-0.80695957 -1.2423283 0.4928551 0
-0.83646494 -1.3239512 -0.055910096 0
-0.7843945 -1.2415346 0.488583 0
-0.82235044 -1.3386465 -0.056088928 0
-0.76137489 -1.2393887 0.48392719 0
-0.79916441 -1.3384013 -0.055652596 0
-0.74620891 -1.2497141 0.48425156 0
-0.78777689 -1.3578862 -0.056045875 0
-0.71998161 -1.2410278 0.47733483 0
-0.77165478 -1.3695395 -0.056121357 0
-0.71209991 -1.263841 0.48262221 0
-0.75451529 -1.3794502 -0.056133691 0
-0.68724042 -1.2564541 0.476459 0
-0.7351923 -1.3852719 -0.055989433 0
-0.65805155 -1.239921 0.46701017 0
-0.71233273 -1.3840069 -0.055571359 0
-0.64379841 -1.2508501 0.46803606 0
-0.70703149 -1.417285 -0.056545593 0
-0.62130386 -1.2454389 0.46304727 0
-0.6810351 -1.4093232 -0.05588137 0
-0.5971337 -1.2356989 0.45659417 0
-0.66288501 -1.4170362 -0.055851791 0
-0.58320993 -1.2467164 0.45791525 0
-0.64893514 -1.4339876 -0.056193389 0
-0.56279486 -1.2436388 0.45414588 0
-0.63009077 -1.4403595 -0.056127716 0
-0.54710257 -1.2506521 0.45415521 0
-0.60988069 -1.4433881 -0.055942036 0
-0.53449845 -1.2649829 0.45687893 0
-0.58949667 -1.4456517 -0.055737648 0
-0.50246739 -1.2322254 0.33951285 0
-0.5157299 -1.2647496 0.45441312 0
-0.57596701 -1.4649637 -0.056198146 0
-0.48668697 -1.2378812 0.33935571 0
-0.5011698 -1.274718 0.4556911 0
-0.55721968 -1.4714236 -0.056172337 0
-0.46180269 -1.2194605 0.14013706 0
-0.4631063 -1.2229029 0.23583369 0
-0.44704035 -1.1804782 0.32205039 0
-0.48496228 -1.280617 0.45558068 0
-0.53790623 -1.4762858 -0.05609493 0
-0.44254875 -1.2145768 0.13892445 0
-0.44310695 -1.2161088 0.23342894 0
-0.42757332 -1.1734767 0.31864616 0
-0.51675069 -1.4757318 -0.055822205 0
-0.42950812 -1.2265853 0.13966827 0
-0.42495576 -1.2135847 0.2318989 0
-0.40988269 -1.1705391 0.3164219 0
-0.4323191 -1.2346128 0.43520272 0
-0.5006364 -1.4895834 -0.056103248 0
-0.40634176 -1.209021 0.13707478 0
-0.40433958 -1.2030637 0.22889744 0
-0.4067077 -1.2101098 0.32570848 0
-0.41500703 -1.2348034 0.43339342 0
-0.48020232 -1.4906818 -0.055912443 0
-0.39705977 -1.2325841 0.13916838 0
-0.39604753 -1.2294419 0.23294887 0
-0.41001227 -1.2727923 0.34116316 0
-0.41094542 -1.275689 0.44589195 0
-0.46243539 -1.4999855 -0.056038547 0
-0.4090839 -1.3269311 0.35426581 0
-0.44038445 -1.4950709 -0.055643361 0
-0.36507449 -1.2393994 0.32964304 0
-0.42715505 -1.5205394 -0.056386586 0
-0.3514058 -1.2508955 0.33149746 0
-0.40479517 -1.5139021 -0.055946991 0
-0.33338702 -1.2468412 0.3292844 0
-0.38597286 -1.5199487 -0.055986397 0
-0.31567216 -1.2431068 0.32722247 0
-0.36712989 -1.5260415 -0.056036096 0
-0.34722343 -1.5276278 -0.055929359 0
-0.32798454 -1.5319875 -0.055933334 0
-0.3090786 -1.5380344 -0.056007568 0
-0.28802672 -1.5329603 -0.055686306 0
-0.50034684 -2.6629884 0.096735708 0
-0.27014235 -1.5447011 -0.055984795 0
-0.43117431 -2.465498 0.089357346 0
-0.25192332 -1.5557119 -0.056264427 0
-0.39811388 -2.458488 0.088914551 0
-0.23114792 -1.5509293 -0.055981752 0
-0.36822772 -2.4706914 0.089181133 0
-0.21320693 -1.5655049 -0.056406487 0
-0.33590138 -2.4664078 0.088866793 0
-0.19081841 -1.5465069 -0.055630989 0
-0.30504379 -2.4722579 0.088932127 0
-0.17283691 -1.5624011 -0.056119993 0
-0.27334362 -2.4709556 0.088754423 0
-0.15270647 -1.5599155 -0.055957213 0
-0.24145955 -2.4665394 0.088479571 0
-0.13331693 -1.5648111 -0.056068156 0
-0.20990454 -2.4637599 0.088278055 0
-0.11367698 -1.5673786 -0.056104422 0
-0.17914233 -2.470015 0.088414349 0
-0.093843229 -1.5671903 -0.056050934 0
-0.14760397 -2.4649997 0.088161297 0
-0.074112587 -1.5684513 -0.056058213 0
-0.11667936 -2.4692957 0.088255405 0
-0.053973034 -1.5581462 -0.055661194 0
-0.085323021 -2.4631882 0.087991737 0
-0.034431573 -1.5624125 -0.055793684 0
-0.054555796 -2.475596 0.088403426 0
-0.014753362 -1.5624241 -0.055783041 0
0.0049421601 -1.5693269 -0.056027271 0
0.024769323 -1.5734491 -0.056181122 0
0.044143796 -1.5576563 -0.055632666 0
0.064234704 -1.5687393 -0.056052949 0
0.083617046 -1.5609943 -0.055809405 0
0.10374412 -1.5670514 -0.056068223 0
0.12314008 -1.5614759 -0.055919778 0
0.14238392 -1.5553527 -0.055760287 0
0.16339782 -1.5672621 -0.056256548 0
0.18273284 -1.5617834 -0.056138039 0
0.19892983 -1.5327516 -0.055180155 0
0.22187655 -1.5558125 -0.0561065 0
0.24160066 -1.553874 -0.056141857 0
0.26160076 -1.5534053 -0.056239482 0
0.28009698 -1.5442418 -0.056030978 0
0.30093718 -1.5478889 -0.056296337 0
0.32127199 -1.5481639 -0.056449004 0
0.33849487 -1.5338236 -0.0560771 0
0.35864654 -1.5331411 -0.056212801 0
0.37823963 -1.5297877 -0.056260016 0
0.39641303 -1.5208429 -0.056110192 0
0.4137466 -1.5092226 -0.055869259 0
0.43422711 -1.5091426 -0.056064267 0
0.45236158 -1.5007919 -0.055961214 0
0.47202146 -1.4975117 -0.056056093 0
0.49133635 -1.4929594 -0.056112833 0
0.50920808 -1.4840679 -0.056015205 0
0.52683938 -1.4746989 -0.05590754 0
0.5438723 -1.4639282 -0.055754431 0
0.56606871 -1.4668288 -0.056131925 0
0.49104008 -1.2724105 0.45375249 0
0.58153158 -1.4521899 -0.055847529 0
0.5080483 -1.2686888 0.45467067 0
0.601309 -1.448459 -0.055990804 0
0.52708799 -1.2696724 0.45736551 0
0.6239621 -1.4511526 -0.056394167 0
0.54091978 -1.2580204 0.45558572 0
0.63764262 -1.4329742 -0.055995323 0
0.55752969 -1.2529365 0.45625088 0
0.64978099 -1.4121101 -0.055495359 0
0.56909645 -1.2367656 0.45293596 0
0.67626894 -1.422238 -0.05622359 0
0.59047484 -1.2418073 0.45746914 0
0.69439483 -1.4141637 -0.056245603 0
0.61041254 -1.2431303 0.46075156 0
0.71398002 -1.4089278 -0.056390468 0
0.62915927 -1.2415473 0.46306455 0
0.73049951 -1.3975992 -0.056300756 0
0.65009171 -1.2437623 0.46690685 0
0.74661219 -1.3856425 -0.056193363 0
0.66741556 -1.2386608 0.46810961 0
0.75936908 -1.3677907 -0.055852756 0
0.70064187 -1.2620101 0.051533282 0
0.70135707 -1.2632984 0.15528569 0
0.6984185 -1.2580053 0.25949949 0
0.69632888 -1.2542415 0.36600515 0
0.69870496 -1.2585212 0.47890216 0
0.77490956 -1.355285 -0.055736136 0
0.71007085 -1.2418848 0.051072545 0
0.71341968 -1.2477417 0.15446547 0
0.70825726 -1.2387129 0.25733921 0
0.71521616 -1.2508837 0.36762428 0
0.7173906 -1.2546867 0.48084244 0
0.79539174 -1.3513311 -0.055980984 0
0.73016733 -1.240518 0.051390383 0
0.72664917 -1.2345409 0.15395179 0
0.73406333 -1.2471371 0.26098892 0
0.7360701 -1.2505466 0.37021986 0
0.73125648 -1.2423685 0.4796125 0
0.81044567 -1.3380755 -0.055850193 0
0.83276051 -1.3366427 -0.056223627 0
0.84621567 -1.3208865 -0.05600464 0
0.86690158 -1.3163853 -0.056272171 0
0.87721747 -1.2962186 -0.055877861 0
0.89719266 -1.2904265 -0.056110743 0
0.91120517 -1.2759966 -0.055977777 0
0.93153459 -1.2703342 -0.056239516 0
0.95064014 -1.2627342 -0.056428533 0
0.9650895 -1.2488855 -0.056348272 0
0.97544616 -1.2299623 -0.056044232 0
0.76957315 -0.97037238 0.044215806 0
0.77581507 -0.97824293 0.13417955 0
0.99311113 -1.2203546 -0.056171812 0
0.76830304 -0.94410586 0.043456338 0
0.76731688 -0.9428941 0.13064592 0
1.0032912 -1.2016368 -0.055887338 0
0.7703771 -0.92267668 0.042913087 0
0.77476478 -0.92793173 0.12991424 0
1.0165507 -1.1868178 -0.055789039 0
0.76928061 -0.89813119 0.042218678 0
0.77264845 -0.90206313 0.12764455 0
1.0355393 -1.1786199 -0.056012202 0
0.77853453 -0.8861047 0.042110842 0
0.77213478 -0.87882072 0.12572153 0
1.0512848 -1.1665833 -0.056064852 0
0.77331239 -0.85812461 0.041240629 0
0.77008206 -0.85453999 0.12362543 0
1.0666814 -1.1541101 -0.056106474 0
1.075646 -1.1348038 -0.055821955 0
1.0883442 -1.1196218 -0.055744864 0
1.1139973 -1.1175081 -0.056333583 0
1.1303933 -1.1057539 -0.056454122 0
1.1382523 -1.0857346 -0.056159366 0
1.1491405 -1.0688125 -0.056028102 0
1.1647733 -1.056314 -0.056137327 0
1.1768856 -1.0405955 -0.056085113 0
1.182623 -1.0194265 -0.055742368 0
1.1978779 -1.0065665 -0.055859543 0
1.2071798 -0.98871994 -0.055708315 0
1.2286583 -0.98072547 -0.056125149 0
1.2334541 -0.9593786 -0.055787947 0
1.2551153 -0.95110667 -0.056221522 0
1.2723672 -0.93919605 -0.056460071 0
1.2729458 -0.91508818 -0.055969983 0
1.2899349 -0.90288502 -0.056212623 0
1.2978948 -0.88431895 -0.056069795 0
1.2995616 -0.86169708 -0.055668626 0
1.3144183 -0.84791702 -0.055843238 0
1.3238742 -0.83059937 -0.055796199 0
1.3416034 -0.81836355 -0.056104649 0
1.3433239 -0.79638058 -0.05575281 0
1.3626144 -0.78479975 -0.056138828 0
1.3672669 -0.76471639 -0.055929348 0
1.3786483 -0.74845058 -0.056004953 0
1.3859441 -0.72996908 -0.055923492 0
1.3963201 -0.71312171 -0.055975392 0
1.4130441 -0.69937187 -0.056288321 0
1.4101889 -0.67598832 -0.055831075 0
1.4256706 -0.66146451 -0.056109797 0
1.4263473 -0.64007807 -0.055814791 0
1.4389163 -0.62407279 -0.055994682 0
1.4561592 -0.6098842 -0.056362361 0
1.4563563 -0.5885241 -0.056078698 0
1.4568218 -0.56747991 -0.055817038 0
1.4599854 -0.54764158 -0.055669617 0
1.4801799 -0.53405529 -0.05617876 0
1.4830173 -0.51406902 -0.056036327 0
1.4903525 -0.4956812 -0.056073196 0
1.4872016 -0.47392124 -0.055725697 0
1.4991434 -0.45701531 -0.055953085 0
1.4966142 -0.43572599 -0.055649497 0
1.5043207 -0.41749635 -0.055736154 0
1.5143539 -0.39981455 -0.05591692 0
1.5192138 -0.38070175 -0.055914927 0
1.5211995 -0.36090523 -0.055816319 0
1.5267948 -0.34198532 -0.055859186 0
1.5393764 -0.32450405 -0.056165546 0
1.5327518 -0.30300254 -0.055780206 0
1.5415899 -0.28462914 -0.055966973 0
1.5474975 -0.26561594 -0.056055576 0
1.5500106 -0.24599753 -0.056029957 0
1.5510212 -0.22617514 -0.055959102 0
1.5598117 -0.20743464 -0.056177564 0
1.5575505 -0.18720743 -0.056006782 0
1.5563487 -0.16721202 -0.055883422 0
1.5481784 -0.14664085 -0.055519354 0
1.5535036 -0.12743121 -0.05564836 0
1.5669634 -0.1086915 -0.056077037 0
1.5748391 -0.089329064 -0.056314163 0
1.5768838 -0.069538929 -0.056351501 0
1.5718163 -0.049495332 -0.056143686 0
1.5740864 -0.029733801 -0.056206942 0
1.5693569 -0.0098804431 -0.056029178 0
1.5612308 0.0098292818 -0.055739056 0
1.5631373 0.029526977 -0.055815972 0
1.5699029 0.049435079 -0.056075338 0
1.5643897 0.068987951 -0.055905011 0
1.5675586 0.088916101 -0.056053825 0
1.5592108 0.10815375 -0.055799592 0
1.5680889 0.12862761 -0.056170825 0
1.5527544 0.14707428 -0.055683449 0
1.5547434 0.16703956 -0.055825781 0
1.5502907 0.18633483 -0.055745732 0
1.5433514 0.20524563 -0.055584732 0
1.550988 0.22617029 -0.055957902 0
1.5566988 0.24705902 -0.056271728 0
1.5548834 0.26688364 -0.056323119 0
1.5433925 0.28496197 -0.056032419 0
1.52749 0.30196235 -0.055588722 0
1.5268983 0.32187364 -0.055710267 0
1.5320063 0.34315261 -0.05604985 0
1.5243051 0.36164206 -0.055930275 0
1.5179026 0.38037318 -0.05586667 0
1.5055465 0.39748925 -0.05559171 0
1.5107654 0.41928494 -0.055974931 0
1.5134038 0.4406141 -0.056273792 0
1.5058893 0.45907182 -0.05620487 0
1.4863472 0.473649 -0.055693682 0
1.4815979 0.49276951 -0.055743814 0
1.491625 0.51705271 -0.056361567 0
1.4717101 0.53099936 -0.055857301 0
1.4742688 0.55299932 -0.056214251 0
1.4700761 0.57264292 -0.056324866 0
1.4515071 0.58656448 -0.055891968 0
1.4500799 0.60733795 -0.056127049 0
1.4404019 0.62471712 -0.056052491 0
1.4223824 0.63829881 -0.055659637 0
1.4237491 0.66057307 -0.056034178 0
1.4133798 0.67751789 -0.055957407 0
1.4087212 0.69723231 -0.056116119 0
1.4043881 0.71724212 -0.056298818 0
1.3863803 0.7301988 -0.05594109 0
1.3792131 0.74875718 -0.056027897 0
1.3607423 0.76106715 -0.055662453 0
1.3567456 0.78141963 -0.055897042 0
1.3452579 0.79752707 -0.055833075 0
1.3361056 0.81500989 -0.055874731 0
1.3367115 0.83865345 -0.056337237 0
1.3209603 0.85213715 -0.056121178 0
1.3136603 0.87104547 -0.056272566 0
1.3050444 0.8891902 -0.056378655 0
1.277854 0.89442897 -0.055686161 0
1.27051 0.91333711 -0.055862881 0
1.2576486 0.92833149 -0.055806946 0
1.249561 0.94689763 -0.055972718 0
1.2320751 0.95830607 -0.055725582 0
1.2219634 0.97538149 -0.055819325 0
1.2175268 0.99719447 -0.056185801 0
1.1949553 1.0041107 -0.055723261 0
1.1911793 1.0268019 -0.056145661 0
1.1758835 1.0397096 -0.056037359 0
1.1559906 1.048349 -0.05571403 0
1.1464359 1.0662969 -0.055896234 0
1.1291922 1.0770925 -0.055712357 0
1.1206855 1.0962577 -0.055969294 0
1.1033128 1.1067899 -0.055793285 0
1.0936364 1.125066 -0.056015927 0
1.0781319 1.1374264 -0.055950962 0
0.58861715 0.6209895 0.28466222 0
1.0615357 1.1485426 -0.055835817 0
0.61047924 0.66051608 0.29923365 0
1.0547906 1.1704737 -0.056251816 0
1.0061638 1.1165138 0.053658564 0
1.0039405 1.1140467 0.16116799 0
1.0130793 1.1241877 0.27292472 0
0.62440306 0.69288379 0.3103106 0
1.0351937 1.1782265 -0.055993505 0
0.98488659 1.1209685 0.0532724 0
0.98658359 1.1228999 0.16063879 0
0.98685652 1.1232105 0.26964921 0
0.62476122 0.71108454 0.31491357 0
1.0168846 1.1872075 -0.05580736 0
0.95793927 1.1183892 0.052572399 0
0.95839506 1.1189214 0.15833062 0
0.96333092 1.124684 0.26706961 0
0.62439519 0.72897822 0.31933069 0
1.007262 1.2063925 -0.056108523 0
0.92811674 1.1116006 0.051699813 0
0.93065202 1.1146371 0.15605375 0
0.93342239 1.1179552 0.26265985 0
0.62230486 0.74533135 0.32303596 0
0.9868477 1.2126578 -0.055817541 0
0.91624677 1.1259021 0.051824249 0
0.91483766 1.1241704 0.1557633 0
0.90960908 1.1177455 0.2598989 0
0.6259765 0.76921225 0.32994375 0
0.97371477 1.2277792 -0.055944756 0
0.89307082 1.1260934 0.051311359 0
0.88926536 1.121295 0.15380111 0
0.88938391 1.1214445 0.25813445 0
0.62810898 0.79199696 0.33629772 0
0.95875973 1.2406944 -0.055978697 0
0.86292464 1.1166779 0.050383214 0
0.86889309 1.1244015 0.15271436 0
0.86429441 1.1184504 0.25491995 0
0.61669886 0.79804653 0.33554244 0
0.94364905 1.2534479 -0.056013551 0
0.8449381 1.1223303 0.050154224 0
0.84368277 1.1206628 0.15075172 0
0.84237611 1.1189272 0.25259092 0
0.60723639 0.80659139 0.33589357 0
0.92633408 1.2632424 -0.055925544 0
0.82426047 1.1240445 0.049763057 0
0.82280535 1.1220601 0.14953408 0
0.82606566 1.1265063 0.25193369 0
0.59635538 0.81325018 0.33551273 0
0.91117507 1.2759544 -0.055975929 0
0.80783021 1.1312366 0.049627177 0
0.81405491 1.1399531 0.15054062 0
0.81613815 1.1428704 0.25327495 0
0.59817356 0.83764607 0.34244278 0
0.89097476 1.2814833 -0.055721872 0
0.8110922 1.1665887 0.050725989 0
0.80873102 1.1631926 0.15225267 0
0.81172889 1.1675045 0.25644866 0
0.58163369 0.83656001 0.33897769 0
0.87153983 1.287829 -0.055516198 0
0.80834216 1.1944451 0.051490571 0
0.81274909 1.2009571 0.15584378 0
0.81640011 1.206352 0.26270276 0
0.57354945 0.8475042 0.34045887 0
0.8582409 1.3032341 -0.055709992 0
0.81297022 1.2344909 0.052771389 0
0.81393892 1.2359618 0.1590436 0
0.80447501 1.2215909 0.26379436 0
0.73581076 1.1173246 0.34132731 0
0.56742471 0.86163133 0.34323645 0
0.84073454 1.3123308 -0.055641886 0
0.81398982 1.2705841 0.053871855 0
0.81270313 1.2685757 0.16191064 0
0.78709811 1.228608 0.26314852 0
0.7167635 1.1188203 0.33900017 0
0.54820555 0.85571253 0.33810195 0
0.83198589 1.3353995 -0.056171328 0
0.81481355 1.3078365 0.055011939 0
0.81373566 1.3061064 0.16537985 0
0.77090448 1.2373592 0.26292288 0
0.69775289 1.1199455 0.33665219 0
0.54067445 0.86782283 0.34016988 0
0.81343758 1.3430152 -0.056056377 0
0.7609387 1.2563378 0.26489854 0
0.68054312 1.1236016 0.33514866 0
0.53310359 0.8801735 0.34235263 0
0.40852094 0.674483 0.46765006 0
0.7935946 1.3482778 -0.055854499 0
0.7403276 1.2577798 0.26321611 0
0.66666305 1.1326275 0.33531031 0
0.52272505 0.88808393 0.34284204 0
0.4042522 0.68680441 0.47262612 0
0.78024095 1.3646094 -0.056119598 0
0.72713214 1.2717242 0.2641972 0
0.64305323 1.1246737 0.33053219 0
0.51058674 0.8929953 0.34222886 0
0.41825789 0.73151594 0.34888646 0
0.40716794 0.71212006 0.41043168 0
0.40468776 0.70778233 0.48351705 0
0.76499695 1.3779278 -0.056266695 0
0.70672095 1.2729598 0.2625843 0
0.62128139 1.1190645 0.32655859 0
0.49987605 0.90038669 0.34262207 0
0.4166919 0.75055373 0.35543558 0
0.41228512 0.74261618 0.42498234 0
0.41063106 0.73963684 0.50170612 0
0.74360269 1.3800571 -0.055966854 0
0.69426435 1.2884898 0.26396352 0
0.60389042 1.1207643 0.32480982 0
0.49110809 0.91145068 0.3444517 0
0.41590536 0.77188146 0.36302671 0
0.40936357 0.75974053 0.43179801 0
0.4038485 0.7495051 0.50491041 0
0.72998875 1.3966221 -0.05626139 0
0.67149699 1.2847151 0.26143727 0
0.58354008 1.1164349 0.32140011 0
0.47377622 0.90643364 0.34027407 0
0.41601607 0.79592627 0.37184209 0
0.40727928 0.77921093 0.43991432 0
0.40996131 0.78434229 0.52485949 0
0.71073014 1.4025147 -0.056133788 0
0.66253203 1.3074033 0.26433557 0
0.56672865 1.1183503 0.31987172 0
0.46477672 0.91716415 0.34207812 0
0.41343641 0.81585205 0.37868884 0
0.40981486 0.80870551 0.4536165 0
0.40820441 0.80552757 0.53555393 0
0.6901933 1.4056071 -0.055905282 0
0.64659798 1.3168235 0.26457301 0
0.55022383 1.1205536 0.31849495 0
0.4565151 0.92971188 0.34458673 0
0.413782 0.84268409 0.38869399 0
0.40626779 0.82738113 0.46118587 0
0.40724635 0.82937396 0.54795533 0
0.67130834 1.4118055 -0.055811174 0
0.53376889 1.122551 0.31712714 0
0.4414036 0.92830074 0.34197649 0
0.40841174 0.8589167 0.39377803 0
0.40615889 0.85417879 0.47323468 0
0.40953252 0.86127377 0.56557912 0
0.65901095 1.4321687 -0.056283653 0
0.51704621 1.1236496 0.31557316 0
0.43512666 0.94562137 0.3463113 0
0.40910807 0.88907748 0.4052116 0
0.41096431 0.89311147 0.49189824 0
0.4082413 0.8871938 0.57917857 0
0.64109027 1.4407222 -0.056298085 0
0.49984127 1.1232933 0.31368053 0
0.41888702 0.94136482 0.34279352 0
0.40834972 0.91768432 0.41587308 0
0.40466717 0.90940851 0.49802813 0
0.40622118 0.91290087 0.59257436 0
0.61948603 1.4407425 -0.055989616 0
0.48195338 1.1208819 0.31128776 0
0.41705933 0.96995741 0.35126516 0
0.40740201 0.94749737 0.42702496 0
0.41005996 0.95367897 0.5194034 0
0.40769327 0.94817477 0.61209017 0
0.59657925 1.4370658 -0.055550396 0
0.46385723 1.1173594 0.30866286 0
0.4187454 1.008692 0.36335433 0
0.40428311 0.97385466 0.43657488 0
0.40801945 0.9828549 0.53245312 0
0.40521568 0.97610104 0.62677425 0
0.5840947 1.4585906 -0.056093682 0
0.44871989 1.120535 0.30795485 0
0.41913068 1.0466454 0.3750951 0
0.40506604 1.0115235 0.45113927 0
0.40820891 1.0193717 0.54940754 0
0.40707269 1.0165344 0.64939433 0
0.56394011 1.461313 -0.05592085 0
0.43409833 1.1248598 0.30761674 0
0.41524473 1.0760053 0.38371274 0
0.40587521 1.0517265 0.46675336 0
0.40691385 1.054418 0.56548983 0
0.40681374 1.0541586 0.67010415 0
0.54801619 1.4750823 -0.05617924 0
0.41490251 1.1167834 0.3039552 0
0.40554789 1.0916038 0.38742346 0
0.40646985 1.0940853 0.4832423 0
0.40546528 1.0913814 0.58252913 0
0.40938902 1.1019428 0.69714725 0
0.52919286 1.4812866 -0.056157291 0
0.39808807 1.1143056 0.30189255 0
0.41173381 1.1525019 0.4071646 0
0.40436211 1.1318675 0.49764171 0
0.40529764 1.1344862 0.60276461 0
0.50723392 1.4783144 -0.055798039 0
0.38386649 1.1187645 0.30176711 0
0.41055998 1.1965618 0.42087057 0
0.40826237 1.1898655 0.52083975 0
0.40555513 1.1819754 0.62523323 0
0.4926022 1.4968058 -0.056257401 0
0.59758216 1.8157947 0.34475458 0
0.3669413 1.1149765 0.29947525 0
0.40870288 1.241872 0.43496299 0
0.41085437 1.2484094 0.54415846 0
0.4046374 1.2295187 0.64763576 0
0.47216308 1.497961 -0.056072913 0
0.5740667 1.8212556 0.34439161 0
0.35339993 1.1211791 0.2999222 0
0.40826687 1.2952472 0.45182112 0
0.40894064 1.2973847 0.56321669 0
0.4069294 1.2910039 0.6772697 0
0.4548915 1.5091853 -0.056274187 0
0.55156153 1.8299057 0.34468666 0
0.33752406 1.1197975 0.298392 0
0.40903512 1.3570484 0.47154513 0
0.40734479 1.3514404 0.58441013 0
0.43298134 1.5048131 -0.055903424 0
0.52688831 1.8311838 0.3436504 0
0.3232742 1.1235293 0.29827803 0
0.40892112 1.4211925 0.49200562 0
0.40666533 1.4133526 0.6089204 0
0.41340396 1.5079728 -0.055822995 0
0.30558959 1.1146985 0.041264541 0
0.30633289 1.1174098 0.12451813 0
0.30694851 1.1196555 0.20937899 0
0.306182 1.1168594 0.29546031 0
0.404587 1.4758112 0.50911009 0
0.40244785 1.4680082 0.63023454 0
0.39251786 1.5058992 -0.055558853 0
0.29017267 1.1132507 0.041072425 0
0.29229936 1.1214097 0.12454382 0
0.29140571 1.1179812 0.20836318 0
0.29246387 1.1220409 0.29583332 0
0.39778703 1.5261143 0.52469355 0
0.39796847 1.5268105 0.65327591 0
0.37398359 1.5125741 -0.055626966 0
0.27769479 1.1231347 0.041304804 0
0.27695486 1.1201421 0.1240059 0
0.27553636 1.1144049 0.2070336 0
0.27566975 1.1149445 0.29302385 0
0.39163217 1.5839537 0.54284078 0
0.39061838 1.5798534 0.6738134 0
0.35860515 1.5329642 -0.056206316 0
0.26160279 1.1182989 0.04100256 0
0.26195106 1.1197877 0.1235917 0
0.26123035 1.1167067 0.20683372 0
0.26298079 1.1241895 0.29455993 0
0.38700986 1.6543885 0.56526476 0
0.33791217 1.5311834 -0.055980571 0
0.24823536 1.1248302 0.041124165 0
0.24767415 1.1222873 0.12351356 0
0.24853596 1.1261923 0.20799446 0
0.24637532 1.1164019 0.29168341 0
0.3722271 1.6866747 0.5746491 0
0.31810948 1.5329244 -0.055893339 0
0.2305295 1.1108888 0.040505122 0
0.23205565 1.1182432 0.12273717 0
0.23062181 1.1113337 0.20469767 0
0.2329157 1.1223876 0.29245782 0
0.35944986 1.7321378 0.58854961 0
0.30064926 1.5464079 -0.056242477 0
0.21811588 1.1218925 0.040802952 0
0.21548088 1.1083391 0.12134267 0
0.2176179 1.1193311 0.20564967 0
0.21613011 1.1116785 0.28893533 0
0.34555313 1.7773737 0.60239369 0
0.27824193 1.5340145 -0.055659886 0
0.20313929 1.1199557 0.040636256 0
0.20284677 1.1183429 0.12214857 0
0.20328724 1.1207713 0.20542769 0
0.20428568 1.1262759 0.29203761 0
0.33042577 1.8217164 0.61596346 0
0.25963545 1.5417352 -0.055816974 0
0.18919753 1.1234694 0.040674079 0
0.18779381 1.1151339 0.12153016 0
0.188622 1.1200517 0.20484422 0
0.18777877 1.1150446 0.28848937 0
0.31436434 1.8667195 0.62979162 0
0.24123529 1.551524 -0.05605695 0
0.17379035 1.1177466 0.040384464 0
0.17488803 1.1248064 0.12233458 0
0.17481963 1.1243664 0.20521444 0
0.17464548 1.1232464 0.29001942 0
0.29277852 1.8830285 0.63399982 0
0.22190051 1.5559804 -0.056112558 0
0.16058676 1.1260446 0.040607993 0
0.1597302 1.1200384 0.12158762 0
0.15831967 1.1101476 0.20223939 0
0.16048492 1.1253306 0.29001275 0
0.27544808 1.9314595 0.64908689 0
0.20089678 1.5479069 -0.055725761 0
0.14575016 1.123003 0.040428914 0
0.14478217 1.1155446 0.12089229 0
0.14523701 1.1190492 0.20351171 0
0.14603503 1.1251979 0.2894817 0
0.25700241 1.9802001 0.66432643 0
0.18165815 1.5525985 -0.055807881 0
0.13057652 1.1160133 0.040114906 0
0.13150004 1.1239063 0.12160937 0
0.13128555 1.1220732 0.20374486 0
0.13047463 1.1151423 0.28644931 0
0.23465666 2.0055668 0.67179203 0
0.1633101 1.5664207 -0.056226347 0
0.12051912 1.1559827 0.124906 0
0.11958148 1.1469891 0.20797916 0
0.11846253 1.1362566 0.29146668 0
0.21217549 2.0351226 0.68074322 0
0.14306936 1.5628401 -0.056028713 0
0.11857482 1.2952702 0.13978386 0
0.11938661 1.3041379 0.23618305 0
0.11987295 1.3094506 0.33547974 0
0.18859747 2.0601735 0.68827367 0
0.12276559 1.5567271 -0.055749718 0
0.16964984 2.151242 0.23191026 0
0.16585116 2.1030729 0.38046405 0
0.16574752 2.1017587 0.53789079 0
0.10362084 1.5651892 -0.0560016 0
0.14105509 2.1306322 0.38509789 0
0.14084071 2.127394 0.54395443 0
0.084198684 1.5718524 -0.056197613 0
0.11581633 2.1621025 0.3904914 0
0.11579685 2.1617389 0.55231947 0
0.064245991 1.569015 -0.056062799 0
0.088961653 2.1726208 0.39215764 0
0.089432575 2.1841214 0.55770624 0
0.044331439 1.5642775 -0.055869147 0
0.023962941 0.84555542 0.3502309 0
0.023906149 0.84355146 0.42223218 0
0.024846526 1.5783533 -0.056356229 0
0.013239582 0.84103262 0.34826088 0
0.013331311 0.84685957 0.42377037 0
0.0049336222 1.5666157 -0.055930477 0
0.0025976817 0.82486433 0.41271484 0
0.0026040596 0.82688957 0.49038756 0
-0.014835606 1.5711339 -0.056094006 0
-0.0077898167 0.82496423 0.41278118 0
-0.0076650688 0.81175309 0.48142996 0
-0.034635812 1.5716804 -0.056124642 0
-0.018431496 0.8363719 0.34637213 0
-0.018449159 0.8371734 0.41897321 0
-0.018060148 0.81952113 0.48613331 0
-0.054307021 1.5677881 -0.056005627 0
-0.080197223 2.3152118 0.41779584 0
-0.080249384 2.3167176 0.59142333 0
-0.027622346 0.79742885 0.47319716 0
-0.07446193 1.5758444 -0.056322452 0
-0.10987905 2.3253801 0.41984719 0
-0.10979614 2.3236253 0.59349269 0
-0.037330046 0.79001909 0.46904194 0
-0.094005696 1.5699035 -0.056147974 0
-0.14070596 2.349802 0.42454281 0
-0.1409817 2.3544071 0.60176057 0
-0.11264845 1.5531973 -0.055596795 0
-0.17196441 2.3710461 0.42873824 0
-0.17134954 2.3625681 0.60435003 0
-0.13338165 1.5655706 -0.056095373 0
-0.20258272 2.3778198 0.43039024 0
-0.20218658 2.3731704 0.60766512 0
-0.15187712 1.5514437 -0.055653311 0
-0.23505792 2.4011459 0.43511355 0
-0.23608795 2.4116678 0.61823487 0
-0.17185211 1.5534986 -0.055800226 0
-0.26505166 2.3959982 0.43475109 0
-0.26641074 2.4082842 0.61817843 0
-0.086582288 0.78268147 0.46699908 0
-0.19136205 1.5509129 -0.055789478 0
-0.29767892 2.4125683 0.43840313 0
-0.2968792 2.4060872 0.61852509 0
-0.21182373 1.5553485 -0.056040544 0
-0.33143538 2.4336154 0.44295099 0
-0.33147249 2.433888 0.62669504 0
-0.23138796 1.5525399 -0.056039888 0
-0.36234543 2.4312232 0.44331089 0
-0.36289841 2.4349334 0.6280911 0
-0.24878533 1.5363337 -0.055563588 0
-0.39622316 2.4468122 0.44702771 0
-0.39492917 2.4388213 0.63032681 0
-0.26909947 1.5387378 -0.055768669 0
-0.42984456 2.4578943 0.45000562 0
-0.43022037 2.4600432 0.63716131 0
-0.28966475 1.5416782 -0.056002993 0
-0.46105322 2.4538565 0.4502936 0
-0.4624463 2.461271 0.63893694 0
-0.30650184 1.5252118 -0.055540636 0
-0.51844084 2.5798609 0.093945712 0
-0.52095723 2.5923831 0.2841714 0
-0.49499568 2.4631934 0.45311481 0
-0.495648 2.4664395 0.64184797 0
-0.32697144 1.5272554 -0.055760566 0
-0.54501301 2.5457089 0.092944615 0
-0.54560304 2.548465 0.2800881 0
-0.52705181 2.4618137 0.45404586 0
-0.52728271 2.4628925 0.64260185 0
-0.3474476 1.5286142 -0.055965472 0
-0.57468766 2.5283689 0.09256839 0
-0.57416874 2.5260859 0.27840108 0
-0.55988175 2.4632294 0.45557117 0
-0.56333232 2.4784102 0.64845008 0
-0.36868131 1.5324904 -0.056272894 0
-0.60713923 2.5236835 0.09266942 0
-0.60619825 2.5197723 0.27852446 0
-0.59612221 2.4778895 0.45963439 0
-0.59597248 2.477267 0.65006292 0
-0.38634798 1.5214258 -0.056040809 0
-0.64040101 2.5218787 0.092891887 0
-0.64058447 2.5226011 0.27970657 0
-0.62848401 2.4749498 0.46052063 0
-0.62871164 2.4758463 0.65171587 0
-0.40537167 1.5160581 -0.056026671 0
-0.68468285 2.5606599 0.094630443 0
-0.68424177 2.5590105 0.28467643 0
-0.66205674 2.4760404 0.46223813 0
-0.66136605 2.4734571 0.65322739 0
-0.42446744 1.5109724 -0.056031808 0
-0.69389325 2.4700446 0.46271333 0
-0.69143832 2.4613059 0.65226603 0
-0.44305125 1.5041245 -0.055980317 0
-0.72555286 2.4631956 0.46310508 0
-0.72618234 2.4653327 0.65570444 0
-0.45939142 1.4901118 -0.055669677 0
-0.75879264 2.4612689 0.46450245 0
-0.75896037 2.461813 0.65725809 0
-0.48025769 1.4908537 -0.055918891 0
-0.79080141 2.4548678 0.46513683 0
-0.79468817 2.4669335 0.66124439 0
-0.50043458 1.4889828 -0.056080632 0
-0.82341868 2.4499831 0.46613896 0
-0.83013934 2.4699795 0.66481012 0
-0.52081615 1.4873419 -0.056261372 0
-0.85748702 2.4488034 0.46793178 0
-0.8598932 2.4556749 0.66382176 0
-0.5381 1.4768176 -0.056115136 0
-0.88969427 2.4417696 0.46869135 0
-0.88925278 2.440558 0.66270971 0
-0.55319649 1.4607997 -0.055766765 0
-0.92153096 2.4334431 0.46928325 0
-0.92335552 2.4382613 0.66519052 0
-0.57376319 1.4593582 -0.055983111 0
-0.95025998 2.4169724 0.46837735 0
-0.95275301 2.4233134 0.66433287 0
-0.59103233 1.4494176 -0.055882845 0
-0.98292381 2.4104724 0.46947905 0
-0.98622847 2.4185765 0.66638601 0
-0.60971963 1.4430069 -0.055927265 0
-0.96342069 2.2801015 0.088370919 0
-1.0145357 2.4010742 0.47009951 0
-1.0132946 2.3981366 0.66421723 0
-0.62515032 1.4290658 -0.055687629 0
-0.99506474 2.2746735 0.088639148 0
-1.0476505 2.3948822 0.47143275 0
-1.0420679 2.3821208 0.6633631 0
-0.64643252 1.4284574 -0.055976678 0
-1.0244863 2.2638638 0.088713586 0
-1.074403 2.3741672 0.46998096 0
-1.0752554 2.3760509 0.66539055 0
-0.66864038 1.4293393 -0.056336712 0
-1.0593343 2.264518 0.089254878 0
-1.1047988 2.3617065 0.47023091 0
-1.1063732 2.3650723 0.6661647 0
-0.68277889 1.4129318 -0.056024451 0
-1.0781482 2.2311029 0.088465922 0
-1.1308963 2.3402588 0.46875876 0
-1.135273 2.3493156 0.66570044 0
-0.70120925 1.4056139 -0.05607995 0
-1.0978137 2.2006302 0.087798811 0
-1.1639303 2.3331645 0.47023618 0
-1.1593592 2.3240016 0.66261166 0
-0.71831608 1.395632 -0.056038138 0
-1.2025007 2.3363647 0.093810931 0
-1.1937693 2.3194005 0.47045451 0
-1.1892509 2.3106217 0.66301399 0
-0.73348087 1.3820472 -0.055859096 0
-1.1461127 2.1595407 0.087283559 0
-1.2124925 2.2846155 0.46645877 0
-1.2171898 2.2934663 0.66243684 0
-0.75165063 1.3742127 -0.055920567 0
-1.1867931 2.1697664 0.08829388 0
-1.2405508 2.2680492 0.46622887 0
-1.2381694 2.2636957 0.65828913 0
-0.77200854 1.3701674 -0.056147084 0
-1.0481299 1.86023 0.076228999 0
-1.2688363 2.2519414 0.4661651 0
-1.2708567 2.2555273 0.66051507 0
-0.78440654 1.3520768 -0.055806097 0
-1.0492473 1.808581 0.074648015 0
-1.2914482 2.2260613 0.46413738 0
-1.2926034 2.2280524 0.65718371 0
-0.80429119 1.3469875 -0.05600962 0
-1.0514814 1.7609695 0.073223568 0
-1.3183078 2.2078371 0.46376202 0
-1.3175583 2.2065821 0.65569246 0
-0.82176691 1.3376967 -0.056049127 0
-1.04866 1.7070401 0.071524516 0
-1.34823 2.1946888 0.46452948 0
-1.3456419 2.1904759 0.65588963 0
-0.83538944 1.3222489 -0.055838209 0
-1.0521343 1.6653112 0.070325628 0
-1.3711841 2.1703014 0.46298549 0
-1.3708276 2.1697369 0.65479654 0
-0.85093111 1.3100232 -0.055769991 0
-1.053265 1.6215198 0.069030948 0
-1.3858571 2.1335511 0.45883206 0
-1.3952696 2.1480417 0.65349966 0
-0.86877108 1.3013211 -0.055860825 0
-1.0443532 1.5643233 0.067150518 0
-1.4131862 2.1167936 0.4590188 0
-1.4137133 2.117583 0.64959753 0
-0.88650382 1.292344 -0.055950221 0
-1.0479754 1.5277369 0.066141225 0
-1.4310731 2.0862162 0.45625967 0
-1.4297874 2.084342 0.64487225 0
-0.89639813 1.2721279 -0.05555927 0
-1.0551581 1.4974329 0.065399304 0
-1.4573197 2.0681624 0.45628849 0
-1.4552165 2.0651777 0.64456135 0
-0.91964734 1.2708316 -0.05600398 0
-1.0513005 1.4527589 0.064021297 0
-1.0454375 1.444657 0.19164442 0
-1.4778167 2.0421481 0.45461866 0
-1.4774714 2.041671 0.6429804 0
-0.51288468 0.7087391 0.43772241 0
-0.93347305 1.2563214 -0.05587811 0
-1.04978 1.412854 0.062840298 0
-1.0511556 1.4147053 0.18941197 0
-1.4948938 2.0119135 0.45204261 0
-1.4953096 2.0124733 0.63966429 0
-0.52218378 0.70278484 0.43807134 0
-0.95035774 1.245963 -0.055945225 0
-1.04994 1.3765199 0.06180739 0
-1.0469581 1.3726104 0.1855264 0
-1.5134063 1.9841456 0.45004976 0
-1.5164652 1.988156 0.63795406 0
-0.52626634 0.68995953 0.43417317 0
-0.96363842 1.2309191 -0.055810157 0
-1.047689 1.3382823 0.060678035 0
-1.0555948 1.3483809 0.1840335 0
-1.5315076 1.9562958 0.44807157 0
-1.5301808 1.954601 0.63331962 0
-0.53912282 0.68865716 0.43759096 0
-0.98552966 1.2267402 -0.056178909 0
-1.0548109 1.3129783 0.060128201 0
-1.0467824 1.3029847 0.17962241 0
-1.5464702 1.9249722 0.44532207 0
-1.5424043 1.9199111 0.6283229 0
-0.56157559 0.69902247 0.44863516 0
-1.0013127 1.2147375 -0.056202203 0
-1.0477312 1.2710497 0.0588076 0
-1.050826 1.2748042 0.17754765 0
-1.5556533 1.8872329 0.44108826 0
-1.5625393 1.8955866 0.62675184 0
-0.57643765 0.69930243 0.45343751 0
-1.0107727 1.1952274 -0.055883981 0
-1.0477616 1.2389663 0.057929035 0
-1.053247 1.2454528 0.175293 0
-1.5764605 1.8641468 0.44029728 0
-1.5779277 1.8658819 0.62345052 0
-0.58694845 0.69406003 0.45479462 0
-1.0267684 1.1835891 -0.055939905 0
-1.055505 1.2167147 0.057505518 0
-1.0522549 1.2129682 0.17257215 0
-1.5924045 1.835616 0.43825987 0
-1.5902969 1.8331865 0.61916798 0
-1.0488399 1.1787149 -0.05632928 0
-1.0642797 1.1960665 0.057158493 0
-1.062215 1.1937461 0.17172673 0
-1.6023982 1.8008186 0.43473491 0
-1.606052 1.804925 0.61640429 0
-1.0608958 1.1624541 -0.056186162 0
-1.0956295 1.2005128 0.058025692 0
-1.0921024 1.1966481 0.1741087 0
-1.616658 1.7714188 0.43251768 0
-1.6162854 1.7710105 0.61172426 0
-1.0743585 1.1478395 -0.056129217 0
-0.93644696 1.0004956 0.048924111 0
-1.1206495 1.1972966 0.17624226 0
-1.6275271 1.7388422 0.42953354 0
-1.619107 1.7298464 0.60450006 0
-1.086102 1.1314875 -0.055993937 0
-0.93588591 0.97499418 0.04824955 0
-1.1564546 1.2047797 0.17947313 0
-1.6295309 1.6976248 0.42438698 0
-1.6359543 1.7043166 0.60272968 0
-1.1040363 1.1215559 -0.056185979 0
-0.94836009 0.96340925 0.048263393 0
-1.1763858 1.1950533 0.18021663 0
-1.6387033 1.6647074 0.4212831 0
-1.6391014 1.6651117 0.59611696 0
-1.1094722 1.0990483 -0.055753887 0
-0.95255327 0.94360369 0.047868304 0
-1.2092364 1.1978751 0.18292391 0
-1.6476505 1.6321702 0.41826636 0
-1.6619009 1.6462866 0.59682214 0
-1.127164 1.0887989 -0.055949531 0
-0.97090703 0.93786031 0.048193336 0
-1.2430878 1.2007768 0.18574265 0
-1.651805 1.5955826 0.4141877 0
-1.6564445 1.6000643 0.58758038 0
-1.1381497 1.0720389 -0.055820338 0
-0.99447924 0.9367137 0.048774045 0
-1.2664436 1.1928807 0.18697323 0
-1.6500492 1.5542041 0.40880767 0
-1.6541245 1.5580426 0.57975203 0
-1.155944 1.0616516 -0.056032952 0
-1.3009728 1.1948503 0.063063048 0
-1.3083352 1.201612 0.19090892 0
-1.6642516 1.5284958 0.40752551 0
-1.6584959 1.5232096 0.57451606 0
-0.66444826 0.61024809 0.37352702 0
-1.1606158 1.0393081 -0.055620622 0
-1.3341004 1.1946599 0.063934587 0
-1.332709 1.193414 0.19225745 0
-1.6574256 1.4841913 0.4012458 0
-1.6634537 1.4895892 0.56969064 0
-0.67521203 0.60463876 0.3752681 0
-1.1798139 1.0300283 -0.05591464 0
-1.3753123 1.200707 0.065179855 0
-1.6733669 1.4609214 0.40061969 0
-1.6691934 1.4572778 0.56532705 0
-0.66620582 0.58162642 0.3661631 0
-1.1985432 1.0200734 -0.05618906 0
-1.4093182 1.1994628 0.06607043 0
-1.6716329 1.4227173 0.39588413 0
-1.6676071 1.419291 0.55869251 0
-0.66647369 0.56723201 0.3623558 0
-0.6859355 0.58379585 0.45067436 0
-1.2106075 1.0043335 -0.056157306 0
-1.4420646 1.1963528 0.066894062 0
-1.6775581 1.3917208 0.39310586 0
-1.6733341 1.3882166 0.55471075 0
-0.6859718 0.56908983 0.36903134 0
-1.2248216 0.9903565 -0.056233712 0
-1.478914 1.1958085 0.06789954 0
-1.6819437 1.3599726 0.39008966 0
-1.6717379 1.3517206 0.54849565 0
-0.68505883 0.55391943 0.36475894 0
-1.2320721 0.97082001 -0.0560009 0
-1.5223832 1.1995727 0.069196299 0
-1.692762 1.3338238 0.38867253 0
-1.674027 1.3190614 0.54375386 0
-0.69809806 0.5500713 0.36798441 0
-1.2497082 0.95945996 -0.0562489 0
-1.5555687 1.1942835 0.070015565 0
-1.6807582 1.2903974 0.38215518 0
-1.6733773 1.2847307 0.53824538 0
-0.68395728 0.52510625 0.35701668 0
-0.67060935 0.51485848 0.42301571 0
-1.2563535 0.93965733 -0.056010991 0
-1.5984465 1.1955171 0.071262248 0
-1.6832248 1.2589247 0.37908149 0
-1.6761929 1.2536654 0.53403097 0
-0.70163763 0.52477187 0.36276755 0
-0.70882064 0.53014421 0.44287303 0
-1.2726514 0.92709011 -0.056212675 0
-1.644992 1.1983296 0.072658859 0
-1.6842829 1.2269518 0.3758105 0
-1.6793747 1.2233764 0.53009468 0
-1.6787444 1.2229172 0.69098824 0
-0.69032109 0.50287914 0.35361448 0
-0.70527214 0.51377052 0.43657914 0
-1.2782959 0.90678734 -0.055953201 0
-1.6841778 1.1947086 0.073719345 0
-1.6835781 1.1942832 0.37226817 0
-1.6782075 1.1904736 0.52495283 0
-1.6673418 1.1827656 0.68011051 0
-0.71559501 0.50762308 0.36325783 0
-0.71706313 0.50866455 0.4398782 0
-1.2883619 0.8897568 -0.055898961 0
-1.7271696 1.1928022 0.074937783 0
-1.6906874 1.1676072 0.37055975 0
-1.6752928 1.1569755 0.51944268 0
-1.6644815 1.1495091 0.67298609 0
-0.71643925 0.49478075 0.43563893 0
-1.2978094 0.87235272 -0.055827826 0
-1.7056159 1.1464694 0.073370427 0
-1.7084769 1.1483924 0.22123277 0
-1.680301 1.1294534 0.36513713 0
-1.6721153 1.1239512 0.51402837 0
-1.6728425 1.12444 0.67058861 0
-0.72347903 0.48630324 0.43616143 0
-1.3149797 0.86005598 -0.056096122 0
-1.7083589 1.1173438 0.072877407 0
-1.6987524 1.1110607 0.21814457 0
-1.6825722 1.1004782 0.36259064 0
-1.6649071 1.0889243 0.50755703 0
-1.6683106 1.0911504 0.66321141 0
-0.72972369 0.47727221 0.43626836 0
-1.3197446 0.83963883 -0.055843927 0
-1.6973283 1.0798626 0.071821079 0
-1.7071531 1.0861132 0.21744981 0
-1.6776819 1.0673633 0.35861197 0
-1.6737993 1.0648931 0.50613981 0
-1.6733729 1.0646218 0.65984225 0
-0.73106635 0.46511403 0.43353522 0
-1.3265704 0.82070214 -0.055691049 0
-1.7201587 1.0642012 0.072214365 0
-1.7246159 1.0669588 0.21794555 0
-1.6850647 1.0424899 0.35735574 0
-1.6709831 1.0337781 0.50131214 0
-1.6726042 1.034781 0.65434921 0
-1.3410828 0.80651027 -0.05586952 0
-1.7374059 1.0448539 0.072380334 0
-1.7323177 1.0417941 0.21724381 0
-1.6821957 1.0116513 0.35401767 0
-1.6741794 1.0068303 0.49842793 0
-1.6725539 1.0058528 0.64932293 0
-1.3572364 0.79312801 -0.056121957 0
-1.7606571 1.0288749 0.072803475 0
-1.7666914 1.0324012 0.21990675 0
-1.6815419 0.98264241 0.3512482 0
-1.6702969 0.97607118 0.49357376 0
-1.6707051 0.97630972 0.64378136 0
-1.3631797 0.77374208 -0.055960398 0
-1.8159519 1.0307361 0.074547321 0
-1.8074813 1.025928 0.22335826 0
-1.6787609 0.95286632 0.34813336 0
-1.6840391 0.95586216 0.49403864 0
-1.6708385 0.9483695 0.63918042 0
-1.3700031 0.75496769 -0.055845819 0
-1.6775455 0.92444509 0.34543991 0
-1.6670717 0.91867328 0.48562881 0
-1.6753484 0.92323434 0.63640785 0
-1.3892097 0.74290353 -0.056242954 0
-1.6882197 0.9028042 0.34526962 0
-1.6663644 0.89111674 0.48211578 0
-1.6736133 0.89499313 0.63141763 0
-1.3937389 0.7229073 -0.056053333 0
-1.6930006 0.87812895 0.34395862 0
-1.6696987 0.86604273 0.47988725 0
-1.6804016 0.87159413 0.62978804 0
-1.4093333 0.70862103 -0.05631718 0
-1.700017 0.85477847 0.34317014 0
-1.6855489 0.84750378 0.48133734 0
-1.6684434 0.83890307 0.62129796 0
-1.4093693 0.68654525 -0.05596872 0
-1.7176863 0.83673549 0.34458274 0
-1.6690121 0.81302482 0.47365385 0
-1.6783218 0.81755984 0.62109363 0
-1.415562 0.66764146 -0.055876352 0
-1.7340381 0.81784886 0.34576964 0
-1.6835834 0.79405218 0.47491384 0
-1.6817484 0.79318666 0.6186164 0
-1.438769 0.6565702 -0.056461573 0
-1.726279 0.78777301 0.3422173 0
-1.6685854 0.76144505 0.46794131 0
-1.6796595 0.76649863 0.61424899 0
-1.4355223 0.63337266 -0.056016736 0
-1.7379824 0.76682228 0.34259602 0
-1.6749907 0.73902947 0.46709079 0
-1.6709975 0.73726767 0.60763806 0
-1.4415922 0.61448395 -0.055947222 0
-1.7622186 0.75115216 0.34548163 0
-1.6641929 0.70936835 0.4615522 0
-1.68077 0.71643436 0.60786295 0
-1.4414476 0.59308791 -0.055647358 0
-1.764449 0.72598779 0.34409937 0
-1.6805854 0.69148189 0.46364686 0
-1.6650281 0.68508077 0.59900236 0
-1.4487731 0.57488024 -0.055646285 0
-1.7735757 0.70376348 0.34412372 0
-1.6733207 0.66398185 0.45929956 0
-1.6727134 0.66374087 0.59871292 0
-1.4650102 0.56007695 -0.055994611 0
-1.7853736 0.6825527 0.34471786 0
-1.6628393 0.63570756 0.45418936 0
-1.6638683 0.63610095 0.59263301 0
-1.4636599 0.53853756 -0.0556794 0
-1.7845309 0.65659845 0.3429316 0
-1.6690956 0.61412531 0.45374998 0
-1.6730931 0.61559612 0.59311068 0
-1.4705826 0.5201568 -0.055689164 0
-1.7920852 0.63387483 0.34282225 0
-1.6667337 0.58953702 0.45105401 0
-1.6698602 0.59064287 0.58928132 0
-1.483768 0.50389236 -0.055943761 0
-1.8080785 0.61402923 0.34437534 0
-1.6754947 0.56900334 0.45145011 0
-1.6808549 0.57082367 0.5905779 0
-1.4873012 0.48429281 -0.055842619 0
-1.8133578 0.59046286 0.34393743 0
-1.6813934 0.5474928 0.45114613 0
-1.6682717 0.54322016 0.58370697 0
-1.4981687 0.46705121 -0.056025397 0
-1.8123347 0.56499183 0.34236684 0
-1.6710253 0.52093893 0.4465687 0
-1.6756181 0.5223707 0.58392966 0
-1.5022819 0.44765911 -0.055963974 0
-1.8242927 0.54361385 0.34330547 0
-1.6723022 0.49832281 0.44519773 0
-1.6761268 0.49946246 0.58186907 0
-1.5101511 0.42937672 -0.056051262 0
-1.835146 0.5217815 0.34408414 0
-1.6716576 0.47529736 0.44339761 0
-1.6777005 0.47701555 0.58028418 0
-1.5094466 0.40870586 -0.055829667 0
-1.8360161 0.49712956 0.3430464 0
-1.6803401 0.45497787 0.44414574 0
-1.6775279 0.45421645 0.57820034 0
-1.5126549 0.38919988 -0.055762641 0
-1.8540126 0.47702983 0.34525919 0
-1.6721158 0.43022853 0.44050506 0
-1.6841826 0.43333328 0.57856739 0
-1.5176728 0.37018079 -0.055771362 0
-1.8444698 0.44989097 0.34239998 0
-1.6761289 0.40883034 0.44017115 0
-1.6712722 0.40764573 0.5723235 0
-1.5294276 0.35270578 -0.056035679 0
-1.8596616 0.42886198 0.34419036 0
-1.6754305 0.3863759 0.43867528 0
-1.6727186 0.38575053 0.57111013 0
-1.5389984 0.33456197 -0.056227524 0
