# .PCD v0.7 - Point Cloud Data file format
VERSION 0.7
FIELDS x y z intensity
SIZE 4 4 4 4
TYPE F F F F
COUNT 1 1 1 1
WIDTH 1359
HEIGHT 1
VIEWPOINT 0 0 0 1 0 0 0
POINTS 1359
DATA ascii
-1.4644653 -0.53883386 -0.055710033 0
-1.284847 -0.47274533 0.45547765 0
-1.462252 -0.55902255 -0.055889197 0
-1.2953384 -0.49521104 0.46137083 0
-1.4829288 -0.58843338 -0.056958176 0
-1.2611949 -0.50044835 0.45141846 0
-1.4509212 -0.59698588 -0.056013085 0
-1.2347338 -0.50803494 0.3406435 0
-1.2712607 -0.52306402 0.45734254 0
-1.4341863 -0.61132717 -0.055659804 0
-1.2116688 -0.51647824 0.3360478 0
-1.2522281 -0.53376681 0.45287758 0
-1.4315525 -0.63162112 -0.055861827 0
-1.1509186 -0.50780147 0.32094717 0
-1.2565103 -0.55439001 0.45691475 0
-1.428919 -0.65207523 -0.056075029 0
-1.1807635 -0.53883153 0.23407438 0
-1.1389258 -0.51973927 0.31940255 0
-1.4286741 -0.67382568 -0.056393921 0
-1.1603088 -0.54725283 0.23136722 0
-1.1288345 -0.53240812 0.31842741 0
-1.1947953 -0.56351811 0.43949497 0
-1.4117433 -0.68770164 -0.056062989 0
-1.1551437 -0.56270444 0.23173182 0
-1.1302024 -0.55055481 0.32074347 0
-1.1866827 -0.57806802 0.43915358 0
-1.4107302 -0.70932341 -0.056372996 0
-1.1466703 -0.57655257 0.23147006 0
-1.1491349 -0.57779169 0.32815513 0
-1.1622154 -0.58436865 0.43278784 0
-1.3924309 -0.72222888 -0.056000728 0
-1.1459582 -0.59438789 0.23281871 0
-1.1447765 -0.59377497 0.32901958 0
-1.3837266 -0.73997134 -0.056020964 0
-1.2405943 -0.66342884 0.35893112 0
-1.3595378 -0.74920058 -0.055419222 0
-1.1322638 -0.62395668 0.3298358 0
-1.3724939 -0.77902883 -0.056342758 0
-1.1009411 -0.62489522 0.3229779 0
-1.3498496 -0.78881139 -0.055816509 0
-1.115011 -0.65157878 0.3294864 0
-1.3457922 -0.80934238 -0.056065708 0
-1.1118928 -0.66867834 0.33102691 0
-1.3305691 -0.82317603 -0.055858921 0
-1.3204666 -0.84009826 -0.055874486 0
-1.3106698 -0.85723716 -0.055912264 0
-1.2953233 -0.87068164 -0.055720884 0
-1.2951596 -0.89445132 -0.056193892 0
-2.1428702 -1.4798894 0.092974037 0
-1.274224 -0.90389889 -0.055774968 0
-2.0406795 -1.4476008 0.089324035 0
-1.2684633 -0.92403919 -0.056027684 0
-2.0207965 -1.4720923 0.089258038 0
-1.2565219 -0.93978328 -0.056018498 0
-1.9918453 -1.4897496 0.088800825 0
-1.2564242 -0.96461612 -0.056551181 0
-1.978747 -1.5191774 0.089062661 0
-1.2317349 -0.97055423 -0.055985566 0
-1.9475335 -1.5345728 0.088520482 0
-1.2236482 -0.98940772 -0.05617984 0
-1.9267277 -1.557898 0.088459454 0
-1.1955559 -0.99184644 -0.055459093 0
-1.9094986 -1.5841413 0.088577256 0
-1.1898448 -1.0126703 -0.055781271 0
-1.8858315 -1.6050206 0.088409916 0
-1.1700301 -1.0214868 -0.055450961 0
-1.8787508 -1.6402304 0.089039192 0
-1.1684114 -1.0462887 -0.055994205 0
-1.8489728 -1.6557178 0.088609003 0
-1.1538726 -1.0597492 -0.055932544 0
-1.8103927 -1.6627159 0.087756544 0
-1.1373698 -1.0713042 -0.05578208 0
-1.7894417 -1.6854998 0.087762825 0
-1.13261 -1.0940595 -0.056219857 0
-1.7722148 -1.7118939 0.087968193 0
-1.1163732 -1.1058844 -0.056100685 0
-1.1058441 -1.1233925 -0.056277983 0
-1.0844358 -1.1297516 -0.055908032 0
-1.0718892 -1.1452013 -0.05600021 0
-1.0552553 -1.1562736 -0.055887427 0
-1.0442061 -1.1735073 -0.05608042 0
-1.029085 -1.1862595 -0.056066118 0
-1.016432 -1.2019196 -0.05619688 0
-0.99914277 -1.212105 -0.056080405 0
-0.9840107 -1.2248495 -0.056092318 0
-0.96609795 -1.2340608 -0.055952601 0
-0.94987249 -1.2453268 -0.055916663 0
-0.93257976 -1.2551192 -0.055824637 0
-0.91190237 -1.2601291 -0.055532333 0
-0.90646327 -1.2864119 -0.056183111 0
-0.88663518 -1.2925354 -0.055958509 0
-0.86429989 -1.2946239 -0.055573333 0
-0.84899396 -1.3070409 -0.055643033 0
-0.83739442 -1.3254225 -0.055972226 0
-0.81366467 -1.3245076 -0.055496514 0
-0.80624235 -1.3502551 -0.056145493 0
-0.78681111 -1.3562216 -0.055977169 0
-0.76804328 -1.3631297 -0.055858694 0
-0.75265741 -1.3760535 -0.055995472 0
-0.73679507 -1.388292 -0.056111496 0
-0.71794552 -1.394912 -0.056009229 0
-0.70333683 -1.4098787 -0.05625011 0
-0.68577647 -1.419135 -0.056270413 0
-0.66490978 -1.4213644 -0.056022387 0
-0.64461154 -1.4244335 -0.055818997 0
-0.5633319 -1.2448254 0.45457923 0
-0.62975621 -1.4395946 -0.05609791 0
-0.54837942 -1.2535709 0.45521513 0
-0.60838306 -1.4398437 -0.055804662 0
-0.52940553 -1.2529297 0.45252562 0
-0.59192795 -1.451614 -0.055967528 0
-0.51664335 -1.2669898 0.45521799 0
-0.57108879 -1.4525559 -0.055722166 0
-0.50487322 -1.2841377 0.45905846 0
-0.5574401 -1.4720056 -0.056194555 0
-0.48414588 -1.2784611 0.45481375 0
-0.536569 -1.4726158 -0.055955477 0
-0.46619067 -1.2794622 0.45304558 0
-0.51495957 -1.4706167 -0.055628717 0
-0.46055457 -1.3152474 0.4636265 0
-0.50242352 -1.4949007 -0.056303523 0
-0.44487244 -1.3236644 0.464582 0
-0.48577738 -1.5079883 -0.056561574 0
-0.42521363 -1.3199816 0.46137354 0
-0.46401998 -1.5051253 -0.056230571 0
-0.4142054 -1.3435435 0.467749 0
-0.44060799 -1.4958298 -0.055671606 0
-0.40507793 -1.3752081 0.47695926 0
-0.42720193 -1.5207063 -0.056392774 0
-0.38813674 -1.3816464 0.051235978 0
-0.38967595 -1.3871254 0.15484399 0
-0.38848037 -1.3828695 0.25905287 0
-0.38373798 -1.3659881 0.36199793 0
-0.39064032 -1.3905582 0.48053896 0
-0.40696222 -1.5220068 -0.056246504 0
-0.37404382 -1.3988945 0.051696833 0
-0.37466365 -1.4012126 0.15587753 0
-0.37673357 -1.408954 0.26302975 0
-0.3752993 -1.40359 0.37068096 0
-0.3725557 -1.393329 0.47983724 0
-0.38440266 -1.5137652 -0.055758633 0
-0.36693597 -1.5252355 -0.056006499 0
-0.34541303 -1.5196629 -0.055637747 0
-0.32772323 -1.5307671 -0.055888772 0
-0.31043512 -1.5447847 -0.056253381 0
-0.29045388 -1.5458783 -0.056155562 0
-0.26874468 -1.5367091 -0.055695139 0
-0.25036976 -1.546118 -0.055917449 0
-0.22933455 -1.5387622 -0.055542573 0
-0.21094111 -1.5488677 -0.055807035 0
-0.19242352 -1.5595157 -0.056098942 0
-0.1534901 -1.2439758 0.044748332 0
-0.15534075 -1.2589747 0.13632716 0
-0.17153573 -1.5506387 -0.055697501 0
-0.13666449 -1.2354116 0.044374838 0
-0.13455866 -1.2163755 0.13152045 0
-0.15357187 -1.5687557 -0.056274325 0
-0.11947995 -1.2205025 0.043781806 0
-0.11915366 -1.2171694 0.13143364 0
-0.13290715 -1.560001 -0.055895813 0
-0.10272513 -1.2057389 0.043202378 0
-0.1016294 -1.1928778 0.12866215 0
-0.11400568 -1.5719107 -0.056266647 0
-0.085595928 -1.180197 0.042245224 0
-0.085836045 -1.1835078 0.12752484 0
-0.094782926 -1.5828834 -0.056612201 0
-0.069502525 -1.1606984 0.041512653 0
-0.069784917 -1.1654145 0.12547061 0
-0.074171498 -1.5696981 -0.056102775 0
-0.053966284 -1.5579513 -0.055654231 0
-0.034455474 -1.5634972 -0.055832416 0
-0.01464957 -1.5514321 -0.055390596 0
0.0049251621 -1.5639293 -0.055834573 0
0.02471062 -1.56972 -0.056047972 0
0.044378463 -1.5659367 -0.055928409 0
0.063998282 -1.5629654 -0.055846639 0
0.083577983 -1.5602649 -0.055783331 0
0.10370043 -1.5663913 -0.056044608 0
0.12337321 -1.564432 -0.056025647 0
0.14267676 -1.5585514 -0.055874962 0
0.16283788 -1.5618913 -0.056063764 0
0.18162288 -1.552297 -0.055797048 0
0.2022658 -1.5584551 -0.056105502 0
0.21969911 -1.5405442 -0.055555888 0
0.23982854 -1.5424764 -0.05573006 0
0.260079 -1.5443689 -0.055912327 0
0.28348529 -1.5629224 -0.056708779 0
0.29889512 -1.5373853 -0.055914331 0
0.31890565 -1.536761 -0.056033231 0
0.33870122 -1.5347588 -0.056111287 0
0.35683048 -1.5253779 -0.05592816 0
0.37437874 -1.5141723 -0.05568574 0
0.3952423 -1.5163515 -0.05594448 0
0.41403362 -1.5102696 -0.055908017 0
0.43022579 -1.4952362 -0.055547643 0
0.45209241 -1.4998988 -0.055927914 0
0.46823001 -1.4854832 -0.055605829 0
0.492668 -1.4970057 -0.056264915 0
0.50759476 -1.4793661 -0.055837736 0
0.53109843 -1.4866205 -0.056359507 0
0.54225665 -1.4595795 -0.055588808 0
0.56575191 -1.4660079 -0.056100514 0
0.57939202 -1.4468471 -0.055642057 0
0.60201395 -1.4501572 -0.056056444 0
0.61768776 -1.4365602 -0.055827085 0
0.63547581 -1.4281048 -0.055805042 0
0.65432262 -1.4219799 -0.05588324 0
0.68004841 -1.4301864 -0.056537803 0
0.69168329 -1.4086416 -0.056025971 0
0.71115679 -1.4033567 -0.056167487 0
0.72732943 -1.3915342 -0.056056432 0
0.74196333 -1.3770145 -0.055843469 0
0.76729214 -1.3820618 -0.056435511 0
0.77562219 -1.3565314 -0.055787388 0
0.79765737 -1.3551803 -0.056140445 0
0.8145265 -1.3448131 -0.056131419 0
0.83376068 -1.338248 -0.056291152 0
0.85701823 -1.3377486 -0.056719583 0
0.86503714 -1.3135542 -0.056151148 0
0.88077581 -1.3014766 -0.056104518 0
0.88968325 -1.2796258 -0.055641104 0
0.90787321 -1.2713307 -0.055773087 0
0.93044585 -1.2688495 -0.056173783 0
0.93740886 -1.245159 -0.055643141 0
0.96049798 -1.2429438 -0.056080189 0
0.97894281 -1.2343713 -0.05624513 0
0.99119383 -1.2179985 -0.056063365 0
1.0055957 -1.2043968 -0.056015704 0
1.0193812 -1.1901222 -0.055944376 0
1.0330207 -1.1757534 -0.055875972 0
1.0455742 -1.1602465 -0.055760309 0
1.0700607 -1.1577663 -0.056284223 0
1.0714673 -1.1303952 -0.055605091 0
1.104948 -1.1367028 -0.056595307 0
1.1089665 -1.1124614 -0.056079179 0
1.1268079 -1.1022466 -0.056275059 0
1.1385063 -1.085977 -0.056171898 0
1.1570892 -1.0762056 -0.056415655 0
1.1626203 -1.0543613 -0.056033555 0
1.168431 -1.03312 -0.055682201 0
1.1882365 -1.0242653 -0.056006953 0
1.2076731 -1.0147973 -0.056316316 0
1.22218 -1.0010056 -0.056400537 0
1.2299196 -0.98173213 -0.056182761 0
1.2448919 -0.96827489 -0.056305267 0
1.2531567 -0.94962245 -0.056133788 0
1.2568893 -0.92777103 -0.055773251 0
1.274229 -0.91601068 -0.056026407 0
1.2866213 -0.90056568 -0.056068227 0
1.297976 -0.8843742 -0.056073297 0
1.3063815 -0.86621916 -0.055960771 0
1.3214896 -0.85247862 -0.056143664 0
1.3248657 -0.8312214 -0.055837981 0
1.3366028 -0.81531328 -0.05589553 0
1.3490875 -0.79979742 -0.055992018 0
1.3635848 -0.78535867 -0.056178808 0
1.3700887 -0.76629454 -0.056044772 0
1.3918082 -0.75559485 -0.056539543 0
1.393268 -0.73382652 -0.056219012 0
1.3952253 -0.71256256 -0.055931501 0
1.4121926 -0.69895047 -0.056254402 0
1.408906 -0.67537332 -0.055780284 0
1.4296584 -0.66331476 -0.056266747 0
1.4236161 -0.63885242 -0.055707913 0
1.4524348 -0.62993592 -0.056520749 0
1.4542999 -0.60910547 -0.056290396 0
1.4468069 -0.58466512 -0.055710983 0
1.4669428 -0.5714224 -0.056204818 0
1.464074 -0.54917526 -0.05582552 0
1.4842662 -0.53552961 -0.056333851 0
1.4883589 -0.51592058 -0.056238156 0
1.4978267 -0.49816707 -0.056354407 0
1.5044854 -0.47942904 -0.056373324 0
1.4878384 -0.45356897 -0.055531148 0
1.4955703 -0.43542206 -0.055610683 0
1.5018095 -0.4167994 -0.055643108 0
1.5210434 -0.40158069 -0.056163926 0
1.5198976 -0.38087308 -0.055940092 0
1.5272038 -0.36232975 -0.056036633 0
1.5372152 -0.3443194 -0.056240428 0
1.55097 -0.32694799 -0.056588545 0
1.5256265 -0.30159399 -0.055520903 0
1.5391251 -0.28417405 -0.055877488 0
1.540452 -0.26440662 -0.055800363 0
1.54857 -0.24576892 -0.055977885 0
1.5600603 -0.22749324 -0.056285221 0
1.545943 -0.20559028 -0.05567807 0
1.5521367 -0.18655671 -0.055812109 0
1.5523092 -0.16677803 -0.055738378 0
1.5728898 -0.14898147 -0.056405526 0
1.5435793 -0.12661713 -0.05529286 0
1.5707779 -0.10895609 -0.056213547 0
1.5705055 -0.089083254 -0.056159198 0
1.5499629 -0.068351738 -0.055389453 0
1.5670902 -0.04934651 -0.055974871 0
1.5679578 -0.029618034 -0.055988103 0
1.5651137 -0.0098537281 -0.055877682 0
1.5645615 0.0098502515 -0.055857971 0
1.5660387 0.029581783 -0.055919576 0
1.563266 0.04922609 -0.055838276 0
0.8749609 0.027551871 0.2912387 0
1.5632553 0.06893792 -0.055864472 0
0.92319959 0.040712137 0.30744162 0
1.5863651 0.089982852 -0.056726318 0
1.4966558 0.084894307 0.053518433 0
1.4955369 0.084830835 0.16098267 0
1.4973631 0.084934413 0.27048156 0
0.92781484 0.052628126 0.30917478 0
1.5586768 0.10811671 -0.055780485 0
1.4760139 0.10238284 0.052822221 0
1.4702684 0.1019843 0.15838838 0
1.4835254 0.10290387 0.26819474 0
0.94613683 0.065628231 0.31553057 0
1.5683457 0.12864868 -0.056180023 0
1.4647322 0.12014945 0.052468464 0
1.457857 0.11958549 0.1572011 0
1.459525 0.11972231 0.2641075 0
0.96586913 0.079228573 0.3224183 0
1.5553564 0.14732073 -0.05577676 0
1.4414847 0.136535 0.051693197 0
1.4466088 0.13702035 0.15616186 0
1.4437679 0.13675126 0.26154706 0
0.9930582 0.094060801 0.3318634 0
1.5574452 0.16732983 -0.055922795 0
1.4306537 0.15370752 0.051370122 0
1.4129621 0.15180677 0.15272394 0
1.4449223 0.15524054 0.26208955 0
1.0010741 0.10755407 0.33496824 0
1.5622529 0.18777262 -0.056175873 0
1.4136453 0.16991095 0.050832201 0
1.4079057 0.16922109 0.15239564 0
1.4065347 0.16905631 0.25549242 0
1.0007489 0.1202835 0.33533964 0
1.5677447 0.20848961 -0.056463271 0
1.3996446 0.18613449 0.050409045 0
1.4004558 0.18624237 0.15183106 0
1.3956733 0.18560636 0.25392389 0
1.0081291 0.13406804 0.33835155 0
1.5397718 0.22453472 -0.055553239 0
1.3789274 0.20107983 0.049750149 0
1.3725113 0.20014422 0.14906286 0
1.3692403 0.19966723 0.24955241 0
0.99523425 0.14512841 0.33461055 0
1.5411812 0.24459626 -0.055710796 0
1.3598328 0.21581499 0.049155392 0
1.3572607 0.21540678 0.14768943 0
1.3681043 0.21712774 0.24982387 0
1.0018796 0.1590053 0.33749118 0
1.5557653 0.26703504 -0.056355067 0
1.3914239 0.23882711 0.050402064 0
1.3869808 0.23806448 0.15123762 0
1.3886158 0.23834512 0.25409731 0
0.99385059 0.17058674 0.33548358 0
1.552844 0.28670704 -0.056375556 0
1.4087287 0.26009852 0.05114349 0
1.4106524 0.2604537 0.1541642 0
1.4117143 0.26064977 0.2589041 0
1.0089102 0.18627863 0.34133184 0
1.5472244 0.30586356 -0.056306899 0
1.4418038 0.28502345 0.052470412 0
1.4403701 0.28474 0.15779124 0
1.4248486 0.28167164 0.26194257 0
1.3197411 0.26089346 0.34322435 0
1.0036212 0.1984012 0.34036073 0
1.5422034 0.3251 -0.056268692 0
1.4591906 0.30760071 0.053239893 0
1.4555839 0.30684039 0.15986851 0
1.4331658 0.30211461 0.26415005 0
1.3098669 0.27612293 0.34153357 0
0.99723333 0.21021906 0.33906522 0
1.5281337 0.34228525 -0.055908173 0
1.4807343 0.33166829 0.054174025 0
1.4646783 0.32807192 0.1613083 0
1.4154885 0.31705394 0.26160699 0
1.2861915 0.28809282 0.33627969 0
1.0081562 0.22581595 0.34371862 0
1.5283984 0.36261317 -0.056080464 0
1.4970278 0.35517049 0.054929402 0
1.5044191 0.35692409 0.16616686 0
1.424444 0.33794993 0.26402768 0
1.2843888 0.3047218 0.33678487 0
1.0186188 0.24166775 0.3482956 0
0.76549667 0.18161441 0.46657798 0
1.5260422 0.38241288 -0.05616625 0
1.4056555 0.35224503 0.26134661 0
1.271499 0.31862658 0.33443055 0
0.99477023 0.24928075 0.34118736 0
0.77818775 0.19500707 0.47577229 0
1.5142405 0.39978462 -0.055912733 0
1.4058568 0.37116954 0.26223221 0
1.2654215 0.33409229 0.3339121 0
0.99541539 0.26280621 0.34251651 0
0.79412413 0.20966195 0.41094694 0
0.79295689 0.20935377 0.48637509 0
1.5161511 0.42077962 -0.056174472 0
1.3963459 0.38752991 0.26134768 0
1.2453738 0.34563047 0.32974434 0
0.99111545 0.27506575 0.34220165 0
0.81952131 0.22744295 0.3521364 0
0.7905333 0.21939787 0.41048586 0
0.80296606 0.22284836 0.49419644 0
1.4957325 0.43546927 -0.05561671 0
1.4058101 0.40928915 0.26406273 0
1.2162946 0.35411343 0.32319993 0
1.0026144 0.2919023 0.34741342 0
0.81420106 0.23704742 0.35110512 0
0.81151134 0.23626433 0.42289004 0
0.81583291 0.23752251 0.50391638 0
1.4949158 0.45572653 -0.055795304 0
1.3885019 0.42328614 0.26179203 0
1.2103829 0.3689864 0.32283807 0
0.98712724 0.30092672 0.34333283 0
0.84755403 0.25837767 0.36686173 0
0.82632655 0.25190645 0.43222919 0
0.83654946 0.25502291 0.51865482 0
1.4970819 0.47706977 -0.056095913 0
1.3757255 0.43839759 0.26040334 0
1.1947707 0.38073334 0.31992728 0
0.98639399 0.3143307 0.34442717 0
0.85120463 0.27125037 0.36989102 0
0.8568902 0.27306217 0.4499791 0
0.85788298 0.27337852 0.5339734 0
1.4901795 0.49562371 -0.056066692 0
1.3842547 0.46039379 0.26309428 0
1.1794349 0.39227211 0.31711832 0
0.98475754 0.32752374 0.34526846 0
0.87952656 0.29252461 0.38376859 0
0.86565387 0.28791067 0.45644882 0
0.86555916 0.28787914 0.54096472 0
1.4793711 0.51280504 -0.055898551 0
1.3868718 0.48074141 0.26472127 0
1.1815879 0.40958235 0.31905863 0
0.97296005 0.33726418 0.342594 0
0.88706827 0.30749089 0.38871795 0
0.87480468 0.30323985 0.46325064 0
0.87945175 0.30485073 0.55200291 0
1.4719483 0.53108531 -0.055866342 0
1.1611459 0.41894647 0.31493834 0
0.97627604 0.35224459 0.34529603 0
0.90792769 0.32758424 0.3996346 0
0.89816946 0.32406342 0.47774643 0
0.89928383 0.32446548 0.56697035 0
1.470938 0.55174989 -0.056087241 0
1.1498905 0.43132478 0.31333381 0
0.96525002 0.36206597 0.34298161 0
0.9265812 0.3475613 0.40973905 0
0.91681647 0.34389853 0.48992953 0
0.9269197 0.34768826 0.58710766 0
1.4616617 0.5693652 -0.056002475 0
1.1318921 0.44090912 0.30991772 0
0.97220141 0.37870437 0.34711859 0
0.93744051 0.36516386 0.41654143 0
0.95429653 0.37172982 0.51241893 0
0.94323134 0.3674196 0.60032231 0
1.4513104 0.58648503 -0.055884399 0
1.1306423 0.45690069 0.31112614 0
0.98766947 0.39912435 0.35440773 0
0.95592248 0.3862952 0.42688125 0
0.97048479 0.39217991 0.52372164 0
0.96252328 0.38896263 0.61566913 0
1.4414785 0.60373545 -0.05579412 0
1.120131 0.46914524 0.30983478 0
1.0166168 0.42579034 0.36668986 0
0.99583322 0.4170855 0.44701391 0
0.98337787 0.41186884 0.53343588 0
0.99852347 0.41821229 0.64201391 0
1.4330741 0.621539 -0.055767335 0
1.0952982 0.47504207 0.30459633 0
1.0473746 0.45425713 0.37981716 0
1.0278935 0.44580799 0.46388841 0
1.0257294 0.44486937 0.55940396 0
1.0208977 0.44277385 0.65993232 0
1.4338933 0.64346439 -0.056110077 0
1.0835904 0.48626477 0.30301923 0
1.0678891 0.47921878 0.38941392 0
1.036065 0.4649376 0.47018111 0
1.0381221 0.46586072 0.56931674 0
1.0559651 0.47386783 0.68640345 0
1.4260662 0.66164809 -0.056125369 0
1.0811181 0.50160342 0.30407009 0
1.0685711 0.49578205 0.39190811 0
1.0762346 0.49933767 0.49122515 0
1.0736386 0.49813318 0.59218735 0
1.415859 0.67870635 -0.056055564 0
1.0669084 0.5114333 0.3018609 0
1.1093041 0.5317561 0.40927064 0
1.1031781 0.52881956 0.50652218 0
1.0938959 0.52437007 0.60695457 0
1.4011215 0.6934709 -0.055813383 0
1.0608275 0.52504581 0.30198708 0
1.143168 0.56579942 0.4243595 0
1.1308756 0.55971545 0.52243412 0
1.1384764 0.56347734 0.63557684 0
1.3961248 0.71302199 -0.055967566 0
1.6935194 0.86490583 0.34295046 0
1.0480493 0.5352546 0.30024442 0
1.1764569 0.60083425 0.4394905 0
1.1783864 0.60181969 0.54784036 0
1.1942216 0.60990697 0.67093211 0
1.391017 0.73264092 -0.056128182 0
1.6849071 0.8874312 0.34344214 0
1.0235493 0.53909779 0.29514703 0
1.2189695 0.64202446 0.45835575 0
1.2163461 0.64064276 0.56919342 0
1.2202145 0.64268017 0.69002724 0
1.3847163 0.75174475 -0.056251451 0
1.6652929 0.90406621 0.34173748 0
1.0331706 0.56089514 0.29993424 0
1.2752647 0.69232494 0.48276365 0
1.2556349 0.68166816 0.59154862 0
1.3630168 0.76233929 -0.055755496 0
1.0257845 0.57372427 0.041960686 0
1.0159079 0.56820023 0.12509538 0
1.0201023 0.57054615 0.21079448 0
1.0138615 0.5670557 0.29637814 0
1.3026369 0.72856855 0.49655926 0
1.3090365 0.73214787 0.62100106 0
1.3532909 0.77942985 -0.055754706 0
1.0022036 0.57722062 0.041290138 0
1.0014185 0.5767684 0.12419568 0
1.0019016 0.57704669 0.20851848 0
0.99966121 0.57575637 0.29432306 0
1.336476 0.76974529 0.51311278 0
1.3343147 0.76850051 0.63753319 0
1.3562716 0.80405653 -0.056290187 0
0.98890477 0.58626556 0.041043133 0
0.99732465 0.59125721 0.12460145 0
0.99496055 0.58985567 0.2086032 0
0.99488443 0.58981055 0.29507995 0
1.3757012 0.81557518 0.53207326 0
1.369054 0.81163448 0.65896255 0
1.3517032 0.82452428 -0.056527011 0
0.98967761 0.60369259 0.041387428 0
0.97766793 0.59636682 0.12307408 0
0.98492837 0.60079563 0.2080695 0
0.99414897 0.6064201 0.29710314 0
1.4210436 0.86682123 0.55378783 0
1.4201241 0.86626035 0.68873972 0
1.3330184 0.83633643 -0.056181591 0
0.96191549 0.60350627 0.04054103 0
0.97413337 0.61117178 0.12358814 0
0.97276676 0.61031437 0.20710744 0
0.96848804 0.6076299 0.29169783 0
1.4509658 0.91033667 0.56987071 0
1.3136332 0.8474105 -0.055809882 0
0.96513057 0.62259525 0.041003704 0
0.96400666 0.62187028 0.12328708 0
0.96038246 0.61953229 0.20611534 0
0.9575001 0.61767292 0.29070795 0
1.4650754 0.9451043 0.58004045 0
1.3082339 0.86744744 -0.056040119 0
0.95009804 0.62997913 0.040698845 0
0.94548905 0.62692308 0.1219188 0
0.95638293 0.63414651 0.20695436 0
0.95474678 0.63306159 0.29226911 0
1.4839947 0.9839887 0.5923894 0
1.297352 0.88394904 -0.056046341 0
0.95415062 0.65010923 0.041219849 0
0.93528169 0.63725293 0.12162767 0
0.94313055 0.64260072 0.20582132 0
0.94000477 0.64047098 0.29020211 0
1.5122759 1.0303872 0.60881001 0
1.2802602 0.89611322 -0.05579102 0
0.92423844 0.64691716 0.040276349 0
0.93993515 0.65790397 0.12330039 0
0.92797321 0.6495313 0.20428224 0
0.92947829 0.65058476 0.28945854 0
1.5255107 1.0677754 0.61950183 0
1.2657336 0.90990353 -0.055652872 0
0.90967637 0.65394306 0.03999744 0
0.91226614 0.65580481 0.1207445 0
0.91990674 0.66129744 0.20432343 0
0.92557931 0.66537529 0.29083049 0
1.5494299 1.1138456 0.63486081 0
1.2664794 0.93484992 -0.056198802 0
0.89406228 0.65995073 0.03967315 0
0.91191691 0.6731301 0.1218105 0
0.90496421 0.66799802 0.20285673 0
0.90264958 0.66628945 0.28623924 0
1.5486964 1.143168 0.64040762 0
1.2484075 0.94602358 -0.055921052 0
0.90344691 0.68461788 0.04046892 0
0.9010095 0.68277085 0.12149233 0
0.90190029 0.68344587 0.20408289 0
0.89348203 0.67706662 0.28601304 0
1.5699303 1.1896685 0.6553309 0
1.2263517 0.95385438 -0.055466715 0
0.88588101 0.68903685 0.040067554 0
0.8834942 0.68718034 0.12028781 0
0.89259583 0.69425958 0.2039395 0
0.89405799 0.69539684 0.28897759 0
1.5741407 1.224364 0.66347146 0
1.2307765 0.98241615 -0.056221906 0
0.88315731 0.7049436 0.040342651 0
0.87382901 0.69749767 0.12015818 0
0.88434124 0.70588863 0.20406821 0
0.87485713 0.6983183 0.28559104 0
1.5876331 1.2672621 0.67583054 0
1.2121415 0.99278378 -0.055937286 0
0.93651992 0.76704061 0.1300965 0
0.93155682 0.76297569 0.21716334 0
0.93836588 0.76855254 0.30945775 0
1.5887187 1.3012128 0.68321335 0
1.2060549 1.0134376 -0.056240857 0
1.6327232 1.3719633 0.22919118 0
1.5964997 1.341525 0.37608218 0
1.5900067 1.3360689 0.52986449 0
1.5982969 1.3430351 0.69455004 0
1.1819175 1.0188184 -0.055709112 0
1.6102444 1.388038 0.38340691 0
1.5981103 1.3775784 0.53830308 0
1.1619678 1.0274053 -0.055374194 0
1.6218402 1.4340219 0.39043656 0
1.5999979 1.414709 0.54489625 0
1.168431 1.0596311 -0.056313612 0
1.6178964 1.467244 0.39390376 0
1.6077304 1.4580245 0.5537383 0
1.1504334 1.0700151 -0.056091141 0
1.5973886 1.4857268 0.39343449 0
1.6049929 1.4927995 0.55922544 0
1.1396511 1.0870688 -0.056228377 0
0.61187208 0.58364099 0.35010511 0
0.61250007 0.58424002 0.42351744 0
1.1178302 1.0934646 -0.055826694 0
0.58868176 0.57585013 0.41202933 0
0.5905351 0.57766306 0.48991156 0
1.0994484 1.1029134 -0.055597868 0
0.57821906 0.58004135 0.40978605 0
0.58163178 0.5834648 0.48858175 0
1.1000046 1.1316172 -0.056342106 0
0.59870976 0.61591583 0.35563874 0
0.59230798 0.60933012 0.42517492 0
0.56573302 0.58199143 0.48134449 0
1.0804461 1.1398679 -0.056071062 0
0.5868026 0.61907524 0.3531684 0
0.58170301 0.61369514 0.42307606 0
0.5665006 0.59765661 0.48836204 0
1.0669826 1.154436 -0.056122318 0
1.5751607 1.704266 0.41853541 0
1.5719023 1.7007405 0.59086037 0
0.53547436 0.57936352 0.4678674 0
1.050362 1.1655593 -0.05601564 0
1.558037 1.7289131 0.41973692 0
1.5691612 1.7412573 0.59802443 0
0.52656615 0.58431673 0.46647581 0
1.0378882 1.1812932 -0.056139246 0
1.555487 1.7704089 0.42502213 0
1.5542593 1.7690114 0.60078704 0
1.0251763 1.1968881 -0.056262419 0
1.5431134 1.8015771 0.4278059 0
1.5548208 1.8152454 0.60979134 0
1.0013427 1.1993029 -0.055778787 0
0.58219737 0.69729483 0.032430723 0
0.89659512 1.0738474 0.15034303 0
1.5305181 1.8330936 0.43067923 0
1.5288707 1.8311205 0.60860872 0
0.98719192 1.2130809 -0.055837013 0
1.0150627 1.247329 0.057413425 0
0.87563872 1.0760021 0.14908916 0
1.5303864 1.880569 0.43727112 0
1.5306927 1.8809452 0.61871356 0
0.97598475 1.2306414 -0.056075174 0
1.0471058 1.3203197 0.060161434 0
0.86023623 1.0846915 0.14878045 0
1.5096725 1.9035805 0.4381668 0
1.5074116 1.9007298 0.61892855 0
0.94786292 1.2265933 -0.055342473 0
1.0381455 1.3434247 0.060613766 0
0.84214753 1.0897909 0.14801362 0
1.4951135 1.9347694 0.44097733 0
1.4918374 1.9305298 0.62246585 0
0.9493196 1.2609801 -0.056350149 0
0.83748621 1.112432 0.14964451 0
1.4764518 1.9611692 0.44272187 0
1.4713894 1.9544449 0.62415332 0
0.92316991 1.2589273 -0.055734515 0
0.81765074 1.1150309 0.049364008 0
0.81488532 1.1112596 0.14809473 0
1.4546549 1.9837137 0.44364095 0
1.4604219 1.9915782 0.6300891 0
0.91208768 1.2772324 -0.056031995 0
0.80541754 1.1278579 0.049478959 0
0.8085742 1.1322783 0.14952709 0
1.4475198 2.027019 0.44921377 0
1.4431845 2.0209482 0.63358134 0
0.89556479 1.2880851 -0.056008939 0
0.80748785 1.1614046 0.050500572 0
1.4169482 2.0379877 0.44765493 0
1.4190866 2.0410631 0.63423508 0
0.87302202 1.2900192 -0.055610612 0
0.80555367 1.1903247 0.051312946 0
1.4126942 2.0874646 0.45457935 0
1.4044982 2.0753539 0.63934422 0
0.86768824 1.3175799 -0.056323234 0
0.88456756 1.3432111 0.057418905 0
1.437579 2.182956 0.28090283 0
1.3824151 2.0991898 0.45330593 0
1.3833358 2.1005878 0.6417008 0
0.84546876 1.3197206 -0.055955209 0
1.4060014 2.194675 0.093052648 0
1.4044781 2.1922972 0.27980691 0
1.3678839 2.1351759 0.45732117 0
1.3572533 2.1185825 0.64192593 0
0.83151084 1.3346369 -0.056139257 0
1.3746377 2.2063961 0.092808336 0
1.3688295 2.1970735 0.27819452 0
1.3383533 2.1481569 0.45645565 0
1.3348874 2.1425939 0.64405715 0
0.80942929 1.3363974 -0.055780154 0
1.3409156 2.2139008 0.092406437 0
1.3441126 2.2191792 0.27882838 0
1.3249222 2.1874952 0.4612329 0
1.3203933 2.1800177 0.65025723 0
0.80148369 1.361681 -0.056409746 0
1.3285584 2.2571547 0.093506135 0
1.3273691 2.2551343 0.28122357 0
1.2920188 2.1950758 0.45936444 0
1.2993553 2.2075403 0.65353441 0
0.77888274 1.362234 -0.05602191 0
1.2746193 2.2292569 0.46312198 0
1.2721559 2.2249484 0.65389377 0
0.76262069 1.3736476 -0.05609192 0
1.2441459 2.2409804 0.46226615 0
1.2526431 2.2562857 0.65841562 0
0.73883837 1.371215 -0.055608273 0
1.222428 2.268712 0.46477452 0
1.2132201 2.2516232 0.65254515 0
0.73586363 1.4078619 -0.056714177 0
1.1979347 2.2919014 0.46639785 0
1.1932163 2.2828741 0.65719545 0
0.71294188 1.4068793 -0.056308478 0
1.1688629 2.3065681 0.46635041 0
1.1721067 2.3129692 0.66155791 0
0.69080848 1.40686 -0.055955112 0
1.143163 2.3280985 0.46775594 0
1.1484832 2.3389335 0.6647951 0
0.67128056 1.4117471 -0.055808865 0
1.1157855 2.34657 0.46860713 0
1.1194943 2.3543701 0.66512316 0
0.6512897 1.4153888 -0.055624209 0
1.0824038 2.3522899 0.4669905 0
1.0846821 2.3572412 0.66202313 0
0.64488864 1.4492583 -0.056631643 0
1.054328 2.3693912 0.46771276 0
1.0560404 2.3732398 0.66272908 0
0.61513269 1.4306178 -0.055596158 0
1.0291139 2.3934166 0.46986005 0
1.0255775 2.3851922 0.66240793 0
0.59823507 1.4410545 -0.055704575 0
0.99956071 2.4077849 0.47017255 0
0.99835992 2.4048924 0.66433507 0
0.58241838 1.4544045 -0.055932693 0
0.96962523 2.4213302 0.47039604 0
0.96960926 2.4212904 0.66543931 0
0.56529677 1.4648286 -0.056055382 0
0.93781149 2.4301095 0.46977019 0
0.93796432 2.4305055 0.66467321 0
0.54568517 1.4688081 -0.055940278 0
0.9049893 2.4359384 0.46865687 0
0.90650707 2.4400239 0.6641019 0
0.53308904 1.4921926 -0.056570753 0
0.87438279 2.4475226 0.46873012 0
0.88002491 2.463316 0.66737235 0
0.50870842 1.4826117 -0.055960238 0
0.84551001 2.4642074 0.4698492 0
0.84305418 2.4570501 0.66274613 0
0.48958111 1.487626 -0.055912379 0
0.81066012 2.4632466 0.46768257 0
0.81763548 2.4844418 0.66730458 0
0.47160703 1.496197 -0.056006875 0
0.77947015 2.4729083 0.46761635 0
0.78604227 2.4937587 0.6670956 0
0.45601583 1.5129155 -0.056413278 0
0.74992049 2.4879975 0.46864685 0
0.7471872 2.4789295 0.66055942 0
0.43463629 1.5105647 -0.056117095 0
0.71498144 2.4848955 0.46632969 0
0.71435994 2.4827354 0.65912431 0
0.41116673 1.4998121 -0.055520892 0
0.56209028 2.0503356 0.075900488 0
0.68339354 2.4928131 0.46616367 0
0.68471903 2.4976482 0.66074204 0
0.39725229 1.5240629 -0.056228984 0
0.5210759 1.9991134 0.07375557 0
0.65149033 2.49945 0.46583369 0
0.64710629 2.4826305 0.65456158 0
0.37451109 1.5147077 -0.055705428 0
0.48665315 1.9682654 0.072385632 0
0.61988682 2.507128 0.46577302 0
0.61879581 2.5027156 0.65775061 0
0.35811535 1.5308704 -0.056129545 0
0.45414504 1.9413779 0.07118085 0
0.58456218 2.4988849 0.46283737 0
0.58341038 2.4939609 0.65346718 0
0.33655003 1.5250111 -0.055754907 0
0.41908729 1.8990126 0.069428526 0
0.55327433 2.507055 0.46302351 0
0.5527373 2.5046217 0.65438497 0
0.31862864 1.5354261 -0.055984557 0
0.38875091 1.8733354 0.068305373 0
0.51959324 2.5038459 0.46118593 0
0.52030021 2.5072525 0.65330875 0
0.29868832 1.5363218 -0.055875644 0
0.35911393 1.8471246 0.067179471 0
0.48538819 2.496624 0.45869353 0
0.48515603 2.49543 0.64858484 0
0.28385359 1.564953 -0.056782454 0
0.33209339 1.8309104 0.066432409 0
0.44963142 2.4789257 0.45436564 0
0.45332551 2.4992921 0.64805365 0
0.26295868 1.5614686 -0.056531407 0
0.30121332 1.7886276 0.06475547 0
0.300978 1.7872303 0.19477695 0
0.41922733 2.489404 0.45528251 0
0.41819271 2.4832602 0.64248025 0
0.14444079 0.85770035 0.43518469 0
0.24089989 1.549367 -0.055979017 0
0.27533963 1.7708688 0.063981935 0
0.27465656 1.7664757 0.19212291 0
0.38665405 2.4867964 0.45387921 0
0.38683924 2.4879875 0.64239216 0
0.13319024 0.85662371 0.43375307 0
0.22097354 1.5494806 -0.055878159 0
0.24855621 1.7428919 0.062853053 0
0.24772583 1.7370692 0.18857042 0
0.35395345 2.4819443 0.45214429 0
0.35346192 2.4784975 0.63874203 0
0.12326299 0.86432791 0.43683353 0
0.20083018 1.5473937 -0.055707283 0
0.22091682 1.702161 0.061279017 0
0.22092046 1.702189 0.18446733 0
0.32111141 2.474159 0.44995373 0
0.32148582 2.4770439 0.63727355 0
0.10979007 0.84593093 0.42680308 0
0.18296126 1.5637358 -0.056208216 0
0.19638084 1.6784306 0.060330898 0
0.1977845 1.6904272 0.1829083 0
0.28748646 2.4570935 0.44615644 0
0.2866196 2.4496844 0.62925637 0
0.10239328 0.87513638 0.44085282 0
0.16245228 1.5581928 -0.055931009 0
0.17237797 1.6533971 0.059348349 0
0.17383693 1.6673909 0.18016458 0
0.25397065 2.4360094 0.44171229 0
0.256033 2.4557905 0.62994671 0
0.094482094 0.9062435 0.45588768 0
0.14397898 1.5727766 -0.05638494 0
0.14975101 1.6358281 0.058645375 0
0.15132941 1.6530701 0.17839713 0
0.2230694 2.4367328 0.44129917 0
0.22305776 2.4366057 0.62425554 0
0.080005847 0.8739562 0.43910387 0
0.12379903 1.5698316 -0.056219015 0
0.12755604 1.6174722 0.057925131 0
0.12741627 1.6156999 0.17417724 0
0.19176686 2.4316964 0.43991488 0
0.19089584 2.4206514 0.61950314 0
0.10471088 1.5816542 -0.056590706 0
0.10527182 1.5901273 0.056893867 0
0.10587115 1.59918 0.17223898 0
0.15988345 2.4150341 0.43650168 0
0.15885951 2.3995674 0.61354661 0
0.084244624 1.5727102 -0.056228276 0
0.086020403 1.6058611 0.057413504 0
0.085850902 1.6026967 0.17248763 0
0.12937716 2.415261 0.43621364 0
0.12901348 2.4084716 0.61535919 0
0.064571612 1.5769674 -0.056346945 0
0.06639228 1.6214317 0.057935711 0
0.065765209 1.6061174 0.17275296 0
0.09752021 2.3816376 0.42988515 0
0.098182768 2.3978186 0.61227292 0
0.044339914 1.5645765 -0.055879828 0
0.038921971 1.3733991 0.049051806 0
0.046461809 1.6394496 0.17626125 0
0.067224741 2.3720896 0.42797503 0
0.067011453 2.3645635 0.60351807 0
0.02487769 1.580333 -0.056426916 0
0.021463035 1.36342 0.048681885 0
0.026137272 1.6603469 0.17845842 0
0.037066109 2.3545914 0.42470008 0
0.037142333 2.3594334 0.6020416 0
0.004937348 1.5677989 -0.055972718 0
0.0042923139 1.3629755 0.048660226 0
0.0053330478 1.6934488 0.18199466 0
0.0073307911 2.3278093 0.41981947 0
0.0073578758 2.3364098 0.59609592 0
-0.014787386 1.5660273 -0.055911686 0
-0.01258777 1.3330815 0.047594849 0
-0.016090132 1.7039919 0.18313499 0
-0.021864707 2.315536 0.41762254 0
-0.021791726 2.3078072 0.58882171 0
-0.034474716 1.5643702 -0.055863593 0
-0.029759454 1.3504043 0.048222881 0
-0.038209975 1.7338662 0.18638264 0
-0.050451085 2.2893353 0.41297883 0
-0.050578602 2.2951214 0.58570117 0
-0.054469995 1.572493 -0.056173697 0
-0.047926258 1.383582 0.049425289 0
-0.060780548 1.7546722 0.18868649 0
-0.07805717 2.2534306 0.40664703 0
-0.078385592 2.2629118 0.5776875 0
-0.074618489 1.5791578 -0.056440875 0
-0.08385285 1.7745854 0.063425675 0
-0.083714075 1.7716484 0.19061026 0
-0.10623021 2.2481594 0.40590498 0
-0.10543113 2.2312484 0.56989807 0
-0.043045074 0.91096669 0.37759379 0
-0.093415573 1.5600485 -0.055795506 0
-0.10836093 1.8096373 0.064722106 0
-0.10771503 1.7988505 0.19366749 0
-0.13345839 2.2287672 0.40267524 0
-0.13309744 2.222739 0.56810766 0
-0.053223655 0.88883984 0.36867082 0
-0.11314709 1.5600724 -0.055842895 0
-0.13216698 1.8223189 0.065230019 0
-0.15984823 2.2039881 0.39853039 0
-0.15957594 2.2002337 0.56282455 0
-0.063828036 0.88006121 0.36533403 0
-0.065179907 0.89870077 0.45083719 0
-0.1332069 1.5635196 -0.05602188 0
-0.15827823 1.8577948 0.066565946 0
-0.18487999 2.1700337 0.39278051 0
-0.18481913 2.1693194 0.55546784 0
-0.074963242 0.87988305 0.36562297 0
-0.077498682 0.90964276 0.45677966 0
-0.15446486 1.5778776 -0.056601547 0
-0.18302561 1.8696294 0.067067251 0
-0.21098974 2.1552863 0.39056116 0
-0.21047729 2.1500516 0.55116922 0
-0.088130616 0.90026516 0.37452394 0
-0.17194118 1.5543036 -0.055829145 0
-0.2101281 1.8995037 0.068228409 0
-0.23663035 2.1390772 0.38813305 0
-0.23452854 2.1200774 0.54419911 0
-0.094690531 0.85597795 0.35656753 0
-0.19294165 1.563715 -0.056249995 0
-0.23733734 1.9235241 0.069193065 0
-0.26224151 2.1253626 0.38621312 0
-0.25961378 2.1040657 0.54088539 0
-0.10723024 0.86905819 0.36254999 0
-0.10607028 0.85965723 0.43338284 0
-0.21201882 1.5567809 -0.056092154 0
-0.26544625 1.94908 0.070227027 0
-0.28596836 2.099767 0.38218603 0
-0.28439483 2.088213 0.5376882 0
-0.11809853 0.86715674 0.36234844 0
-0.11737426 0.86183858 0.43519315 0
-0.23266859 1.5611326 -0.056350045 0
-0.29650587 1.9894606 0.071810812 0
-0.30829468 2.0685596 0.3771826 0
-0.30850732 2.0699863 0.53395301 0
-0.3070851 2.0604436 0.6930691 0
-0.12839101 0.86146307 0.36061624 0
-0.1295332 0.86912674 0.43966216 0
-0.25022393 1.5452176 -0.055884887 0
-0.32633805 2.0152481 0.072884172 0
-0.33292675 2.0559354 0.3756153 0
-0.32858527 2.0291252 0.52443856 0
-0.32953608 2.034997 0.68585098 0
-0.13888475 0.85766029 0.35972795 0
-0.14076048 0.86924368 0.44058302 0
-0.27011159 1.544525 -0.055978414 0
-0.35956421 2.0560241 0.074516743 0
-0.35186982 2.0120268 0.3683736 0
-0.35231227 2.0145569 0.52177852 0
-0.35434186 2.0261624 0.68432301 0
-0.15169203 0.86739022 0.44057682 0
-0.28989765 1.542918 -0.056048028 0
-0.38503069 2.049243 0.074440785 0
-0.38616636 2.0552874 0.22474529 0
-0.37588975 2.0005922 0.36711758 0
-0.37502211 1.9959745 0.51814771 0
-0.3731733 1.9861346 0.67233771 0
-0.15941925 0.84847462 0.43195438 0
-0.31031176 1.5441707 -0.056231026 0
-0.40303192 2.0055642 0.073032677 0
-0.40411735 2.0109653 0.22043766 0
-0.3978425 1.9797405 0.36418164 0
-0.39606494 1.9708951 0.51289117 0
-0.39449838 1.9630995 0.66616881 0
-0.17278112 0.85979199 0.43878883 0
-0.32766178 1.53048 -0.055878293 0
-0.42304403 1.9760023 0.072144449 0
-0.42564544 1.9881533 0.21850725 0
-0.41583675 1.9423378 0.35823607 0
-0.42017609 1.9626064 0.51207048 0
-0.41751608 1.9501818 0.6635167 0
-0.17918347 0.8369506 0.42824942 0
-0.34553596 1.5202038 -0.055657551 0
-0.44922471 1.9763879 0.072359316 0
-0.44957113 1.9779121 0.21798658 0
-0.43908718 1.9317873 0.35728163 0
-0.43793508 1.9267186 0.50410575 0
-0.44070303 1.9388963 0.66151261 0
-0.36708957 1.5258739 -0.056029942 0
-0.47419649 1.9710832 0.07237798 0
-0.47376245 1.9692791 0.21767537 0
-0.46361426 1.9270961 0.35746539 0
-0.45796281 1.903605 0.49952751 0
-0.45936197 1.9094208 0.65337795 0
-0.38698304 1.5239267 -0.056132924 0
-0.50107145 1.9732032 0.072681755 0
-0.50181991 1.9761506 0.21911603 0
-0.48350993 1.9040465 0.35429108 0
-0.47820288 1.8831476 0.49570009 0
-0.47839209 1.8838927 0.64665258 0
-0.40454379 1.512962 -0.055912253 0
-0.52930486 1.9795586 0.07315556 0
-0.53207248 1.9899092 0.22136693 0
-0.50390434 1.8845626 0.35181847 0
-0.50364757 1.8836024 0.49744979 0
-0.49834377 1.8637666 0.64184737 0
-0.42041492 1.4965467 -0.055496857 0
-0.52384835 1.8647376 0.34932119 0
-0.51810473 1.8442919 0.48875234 0
-0.51744491 1.8419433 0.63652527 0
-0.44014969 1.494274 -0.0556137 0
-0.54353195 1.8452488 0.34692499 0
-0.53826118 1.8273548 0.48602152 0
-0.53958988 1.8318655 0.63534039 0
-0.45867616 1.4877917 -0.055582996 0
-0.55919385 1.8138374 0.34231606 0
-0.5591284 1.8136251 0.48420402 0
-0.55232269 1.7915497 0.62372047 0
-0.47554857 1.4762353 -0.05537058 0
-0.58747232 1.8236777 0.34554189 0
-0.57248354 1.7771484 0.4763523 0
-0.57431823 1.7828438 0.62315792 0
-0.50039989 1.4888796 -0.056076743 0
-0.6052177 1.8007524 0.34261495 0
-0.59794962 1.7791271 0.47886294 0
-0.59374195 1.7666078 0.62004703 0
-0.5164426 1.474852 -0.055788919 0
-0.63035488 1.8001616 0.34398547 0
-0.61626852 1.7599338 0.47574794 0
-0.61038464 1.7431308 0.614456 0
-0.53942585 1.4804565 -0.0562534 0
-0.6427024 1.7638993 0.3385759 0
-0.63744372 1.7494669 0.47505066 0
-0.63242954 1.7357055 0.61459702 0
-0.55142277 1.4561161 -0.055587962 0
-0.67258185 1.776055 0.34250766 0
-0.64952117 1.7151598 0.46791869 0
-0.65341109 1.7254317 0.61382395 0
-0.57234454 1.4557499 -0.055844691 0
-0.69760269 1.7743422 0.34384412 0
-0.66694123 1.6963552 0.46504289 0
-0.66806901 1.6992238 0.60744506 0
-0.59323001 1.454807 -0.056090638 0
-0.71944696 1.764335 0.34363323 0
-0.68557519 1.6812696 0.4632372 0
-0.68171436 1.6718016 0.60066319 0
-0.61151487 1.4472556 -0.056091934 0
-0.7427153 1.7577641 0.34414768 0
-0.70523268 1.669055 0.46228185 0
-0.70134318 1.6598499 0.59949458 0
-0.63322294 1.4475194 -0.056406725 0
-0.7633754 1.7450421 0.34351164 0
-0.71861792 1.6427286 0.45746022 0
-0.71398014 1.6321267 0.59268188 0
-0.64452904 1.4242513 -0.055811856 0
-0.7875725 1.7403421 0.34451139 0
-0.73761326 1.6299444 0.45645052 0
-0.73529196 1.6248151 0.59334195 0
-0.66202319 1.4151938 -0.055779174 0
-0.80389768 1.7184762 0.34215963 0
-0.75027305 1.6038439 0.4517512 0
-0.7551263 1.6142186 0.59289777 0
-0.68170369 1.4107069 -0.055936228 0
-0.8312332 1.7201408 0.34454781 0
-0.77185988 1.5972745 0.4526026 0
-0.77310246 1.5998459 0.59114748 0
-0.70070636 1.4046057 -0.056039732 0
-0.84473675 1.6933229 0.34127972 0
-0.78554702 1.5746738 0.44896576 0
-0.79178667 1.5871814 0.59010524 0
-0.71858799 1.3961602 -0.056059349 0
-0.87142771 1.6931159 0.34342235 0
-0.8032074 1.5605692 0.44779253 0
-0.80391502 1.5619441 0.58443946 0
-0.73380941 1.3826662 -0.055884119 0
-0.89222199 1.6811521 0.34324732 0
-0.81926608 1.5436863 0.44587299 0
-0.81962097 1.5443549 0.58167374 0
-0.74679929 1.3653432 -0.055559643 0
-0.91612017 1.6749059 0.34430006 0
-0.83694595 1.5301548 0.44497338 0
-0.83959502 1.5349981 0.58208537 0
-0.77347767 1.3727747 -0.056253929 0
-0.93821794 1.6651572 0.34469733 0
-0.84640634 1.5022092 0.43991125 0
-0.86256748 1.5308921 0.58460087 0
-0.79150194 1.364307 -0.056310892 0
-0.96111119 1.6566615 0.34541658 0
-0.86816412 1.4964492 0.44139087 0
-0.86954898 1.4988362 0.57649529 0
-0.80749995 1.3523613 -0.056233071 0
-0.97471136 1.6323988 0.3428897 0
-0.88823295 1.4875691 0.44203562 0
-0.88608009 1.4839635 0.57502079 0
-0.82564372 1.3440075 -0.056313552 0
-0.99706346 1.6230495 0.34353587 0
-0.90014887 1.4652891 0.43874845 0
-0.89890629 1.4632664 0.57134169 0
-0.8357681 1.3228483 -0.055863518 0
-1.0213801 1.6166337 0.3448728 0
-0.91384685 1.4464309 0.4365128 0
-0.91018361 1.4406327 0.56693435 0
-0.84930581 1.3075211 -0.05566347 0
-1.0416727 1.6036733 0.34487888 0
-0.93392289 1.4377905 0.43741962 0
-0.92451656 1.4233093 0.56465369 0
-0.86943662 1.302318 -0.055903617 0
-1.0584912 1.5855005 0.34380987 0
-0.94495153 1.4154308 0.43420276 0
-0.94993579 1.4228967 0.56919032 0
-0.89166045 1.2998613 -0.056275673 0
-1.0775827 1.5708984 0.34355864 0
-0.95524472 1.3925543 0.43084085 0
-0.96278757 1.4035503 0.56625617 0
-0.90089667 1.278512 -0.055838093 0
-1.0995008 1.560362 0.34425497 0
-0.97649956 1.3858042 0.43252248 0
-0.96932161 1.3756176 0.55986691 0
-0.91371584 1.2626351 -0.055642769 0
-1.1181477 1.545133 0.34397417 0
-0.98917735 1.3669128 0.43047982 0
-0.98392284 1.3596518 0.55836719 0
-0.94475365 1.2715036 -0.056553375 0
-1.1375164 1.5309346 0.34397483 0
-1.0068938 1.3551352 0.43072954 0
-1.0093149 1.3583938 0.5630253 0
-0.95218128 1.2483537 -0.056052573 0
-1.1547284 1.5139024 0.34338781 0
-1.0173568 1.3338017 0.42798665 0
-1.0235552 1.3419282 0.56149834 0
-0.96811318 1.236635 -0.056069318 0
-0.59418982 0.75899792 0.034413144 0
-0.58936727 0.75283778 0.1027509 0
-0.58000124 0.74087393 0.16969036 0
-1.0375093 1.3252791 0.42941004 0
-1.0308511 1.3167742 0.5563606 0
-0.97883314 1.2184047 -0.055797178 0
-0.59642321 0.7423991 0.03399837 0
-0.60064542 0.74765474 0.10306763 0
-0.59678715 0.74285209 0.17185102 0
-1.0527782 1.3104479 0.42886591 0
-1.050752 1.3079259 0.55816823 0
-0.49210539 0.61254925 0.46598032 0
-1.0004667 1.2137111 -0.056154717 0
-0.60519224 0.73418593 0.033968545 0
-0.59304917 0.71945459 0.10020164 0
-0.61086315 0.74106556 0.17320348 0
-1.0617361 1.2880398 0.42587414 0
-1.0658091 1.2929809 0.5574736 0
-1.0136306 1.198607 -0.056041993 0
-0.61858255 0.73146695 0.10295134 0
-0.60699236 0.7177617 0.16952984 0
-1.076656 1.2731336 0.42539445 0
-1.0842923 1.2821636 0.55865222 0
-1.0223858 1.1785371 -0.055701137 0
-0.61715513 0.71141464 0.10121482 0
-0.61580682 0.70986044 0.16948171 0
-1.0887843 1.2550769 0.42390853 0
-1.0972736 1.2648627 0.5570901 0
-1.0473372 1.177026 -0.056248572 0
-0.6270386 0.70468301 0.10137241 0
-0.63384205 0.71232897 0.17196305 0
-1.1171788 1.2555161 0.4287743 0
-1.1194146 1.2580285 0.56024402 0
-1.1120365 1.2497369 0.69262505 0
-0.52358544 0.58841956 0.4671092 0
-1.0617228 1.1633602 -0.056229953 0
-0.63614678 0.69704437 0.10141786 0
-0.64453858 0.70623952 0.17243865 0
-1.131119 1.2393998 0.42810073 0
-1.1339328 1.2424829 0.55963546 0
-1.1224301 1.229879 0.68939799 0
-0.523417 0.5735231 0.46047953 0
-1.0817412 1.1557271 -0.056514919 0
-0.63812804 0.68177301 0.1003571 0
-0.65760082 0.70257759 0.17355263 0
-1.1373194 1.2151068 0.42462277 0
-1.1563778 1.2354685 0.56299013 0
-1.1383036 1.2161583 0.68968701 0
-0.55806023 0.5962289 0.48431364 0
-1.083348 1.1286184 -0.055851955 0
-0.58649075 0.61099869 0.35065955 0
-0.57381082 0.59778887 0.41459167 0
-0.5572899 0.58057761 0.47726262 0
-1.0963277 1.1137248 -0.055793673 0
-0.5865888 0.59589714 0.41836932 0
-0.57479274 0.58391392 0.48591661 0
-1.1201082 1.1095843 -0.056288376 0
-0.57878774 0.57334983 0.40762383 0
-0.5827378 0.57726276 0.48644957 0
-1.1352221 1.0965825 -0.056349512 0
-0.6049453 0.58435482 0.34824073 0
-0.60669005 0.58604014 0.42204395 0
-1.1482183 1.0815227 -0.056314148 0
-0.60534859 0.57018614 0.34431243 0
-0.62310719 0.58691329 0.42828941 0
-1.1521523 1.0581692 -0.055849157 0
-0.7076866 0.64995944 0.10326383 0
-0.70854801 0.65075052 0.17350224 0
-1.2299017 1.1295766 0.42604765 0
-1.2403231 1.1391478 0.56027704 0
-1.2332139 1.1326185 0.69326496 0
-1.1696603 1.0474072 -0.056054059 0
-0.70272762 0.62927842 0.10137594 0
-0.69895101 0.62589651 0.16920888 0
-1.2493564 1.1187735 0.42787284 0
-1.2403589 1.1107165 0.55393142 0
-1.2552208 1.1240249 0.69762427 0
-1.1760015 1.0267001 -0.055733964 0
-0.71267641 0.62219721 0.10167284 0
-0.71465307 0.62392294 0.17109463 0
-1.2717491 1.1102918 0.43071949 0
-1.2633086 1.1029229 0.55793393 0
-1.191219 1.0138397 -0.055845693 0
-0.73000962 0.62130708 0.10302134 0
-0.7134555 0.60721797 0.16896395 0
-1.2790229 1.0885692 0.42850655 0
-1.287511 1.0957934 0.5624842 0
-1.2176253 1.0101554 -0.05648284 0
-0.72465694 0.60118341 0.10118959 0
-0.7371757 0.61156911 0.17274399 0
-1.2941316 1.073626 0.42900506 0
-1.2920961 1.0719373 0.55854607 0
-1.2169821 0.98401773 -0.055873789 0
-0.7331149 0.59277624 0.1013203 0
-0.73698592 0.5959062 0.1709276 0
-1.3099277 1.0591708 0.42978603 0
-1.3030626 1.05362 0.55750722 0
-1.2389444 0.97623503 -0.056313261 0
-0.73631501 0.58018464 0.033467442 0
-0.74315083 0.58557093 0.10168019 0
-0.74702299 0.58862203 0.17152283 0
-1.3267206 1.0453988 0.43094254 0
-1.3185074 1.0389272 0.55847371 0
-1.2605039 0.96774828 -0.056734808 0
-0.74658895 0.57319158 0.033603687 0
-0.75333297 0.57836926 0.10206877 0
-0.74497753 0.57195443 0.16938606 0
-1.3429171 1.0310209 0.43195218 0
-1.3451239 1.0327151 0.56419462 0
-1.2577168 0.94067699 -0.056071766 0
-0.7589103 0.56760746 0.033833884 0
-0.76629788 0.57313281 0.1028394 0
-0.76338434 0.57095373 0.17192291 0
-1.3623749 1.0189533 0.43404931 0
-1.3616073 1.0183792 0.56568485 0
-1.2686608 0.92418307 -0.056036409 0
-0.77226353 0.56257182 0.034110673 0
-0.76608461 0.55807072 0.10185961 0
-0.76968825 0.56069583 0.17173891 0
-1.3767604 1.0029304 0.43457443 0
-1.3660678 0.99514121 0.56228733 0
-1.2830924 0.91018987 -0.056163151 0
-0.78077954 0.55386317 0.034176059 0
-0.78315449 0.55554789 0.10319093 0
-0.77480042 0.54962176 0.17132175 0
-1.3782148 0.97766703 0.43111339 0
-1.3826736 0.98083001 0.56399405 0
-1.2871196 0.88889885 -0.055845059 0
-0.79814917 0.55121052 0.034629796 0
-0.78776932 0.54404211 0.10288817 0
-0.78685111 0.54340798 0.17245965 0
-1.3962651 0.96427596 0.43292713 0
-1.3986219 0.96590358 0.56549329 0
-1.2986859 0.87294197 -0.055865534 0
-0.798895 0.53699589 0.034366045 0
-0.79235828 0.53260207 0.10260345 0
-0.7929185 0.53297859 0.17230484 0
-1.4059572 0.94504684 0.43220821 0
-1.4146755 0.95090699 0.56709778 0
-1.3151438 0.86016339 -0.056103125 0
-0.81407201 0.53243983 0.034727748 0
-0.80573118 0.52698457 0.10346763 0
-0.80507886 0.52655786 0.17349274 0
-1.431193 0.93606484 0.43630791 0
-1.4215522 0.92975926 0.56511635 0
-1.324663 0.84276807 -0.056052051 0
-0.81973284 0.52152479 0.034686334 0
-0.81426501 0.51804608 0.10371758 0
-0.80501372 0.5121603 0.17207526 0
-1.4415107 0.917108 0.43589813 0
-1.4468648 0.92051446 0.57052588 0
-1.3201295 0.81671745 -0.055420656 0
-0.81352401 0.50329852 0.034152735 0
-0.82643324 0.51128501 0.10443916 0
-0.82183993 0.5084433 0.17428958 0
-1.4577458 0.90185577 0.43733874 0
-1.4629967 0.90510428 0.5723474 0
-1.3380172 0.80466664 -0.055741802 0
-0.83569163 0.50257438 0.034814917 0
-0.84622669 0.50891006 0.10612228 0
-0.82917488 0.49865532 0.17449965 0
-1.477784 0.88872069 0.43995816 0
-1.4739537 0.88641715 0.57222188 0
-1.351817 0.78996116 -0.055897869 0
-0.91425765 0.53426462 0.037804712 0
-0.90899175 0.53118736 0.11314563 0
-0.90662873 0.52980649 0.18938078 0
-1.4984113 0.87562639 0.44278145 0
-1.4892521 0.87027401 0.57386118 0
-1.3618089 0.77296406 -0.055904128 0
-0.96955127 0.55031824 0.039801411 0
-0.97724754 0.55468667 0.1207627 0
-1.5056593 0.85461366 0.3122364 0
-1.500518 0.85169542 0.44019991 0
-1.5278053 0.86718374 0.58446294 0
-1.3816499 0.76138586 -0.056320578 0
-1.0539912 0.580823 0.042964138 0
-1.0552845 0.5815357 0.12949088 0
-1.5273383 0.84167039 0.31450924 0
-1.5233502 0.83947265 0.4437618 0
-1.5351106 0.84595346 0.58313626 0
-1.3907013 0.7437011 -0.056303337 0
-1.1517782 0.615933 0.046630401 0
-1.1689132 0.6250962 0.14245677 0
-1.5458269 0.82665724 0.31614786 0
-1.5493051 0.8285172 0.44824791 0
-1.5397629 0.82341439 0.58091879 0
-1.3680174 0.70956606 -0.055018872 0
-1.2500815 0.64839482 0.050275728 0
-1.2540249 0.65044022 0.1518192 0
-1.5594901 0.80887949 0.31683397 0
-1.5593096 0.80878592 0.44816038 0
-1.561576 0.80996144 0.58525407 0
-1.3960568 0.70194548 -0.055786643 0
-1.3829645 0.69536263 0.055263475 0
-1.3794132 0.69357699 0.16592892 0
-1.5764158 0.79263109 0.31821969 0
-1.5803331 0.79460073 0.4512912 0
-1.5723813 0.79060245 0.58552617 0
-1.4231952 0.69328022 -0.056517772 0
-1.5277641 0.74421877 0.060670398 0
-1.5506915 0.75538737 0.18537299 0
-1.593331 0.77615833 0.31963596 0
-1.5843769 0.77179658 0.449635 0
-1.4106756 0.66533685 -0.055683471 0
-1.6516026 0.77896863 0.19624798 0
-1.6033989 0.75623363 0.31972 0
-1.6118683 0.76022816 0.45468408 0
-1.4203775 0.64817744 -0.055739839 0
-1.6340812 0.74569935 0.19303501 0
-1.6344579 0.74587125 0.32401472 0
-1.6397346 0.74827921 0.45985034 0
-1.4271455 0.62967664 -0.055689856 0
-1.6375631 0.72251594 0.1923563 0
-1.6395975 0.72341347 0.3232021 0
-1.6460326 0.72625273 0.45901549 0
-1.4419234 0.6146251 -0.05596007 0
-1.6663642 0.71029389 0.19467337 0
-1.6592815 0.70727485 0.3253009 0
-1.6513695 0.70390224 0.45799568 0
-1.4497533 0.59650528 -0.055967998 0
