# .PCD v0.7 - Point Cloud Data file format
VERSION 0.7
FIELDS x y z intensity
SIZE 4 4 4 4
TYPE F F F F
COUNT 1 1 1 1
WIDTH 1348
HEIGHT 1
VIEWPOINT 0 0 0 1 0 0 0
POINTS 1348
DATA ascii
-1.5642107 -0.078854151 -0.055915251 0
-0.94774598 -0.047777262 0.10198294 0
-0.94807458 -0.047793828 0.17120114 0
-1.6738015 -0.084378786 0.42758262 0
-1.6728834 -0.084332496 0.55726528 0
-1.6708909 -0.084232055 0.69268739 0
-1.5589572 -0.098282419 -0.055767279 0
-0.94845968 -0.059794404 0.10213266 0
-0.94048607 -0.059291717 0.16995217 0
-1.6715323 -0.10537957 0.42730805 0
-1.6666969 -0.10507473 0.55560118 0
-1.5638613 -0.11837803 -0.05599159 0
-0.94808304 -0.071766086 0.10218131 0
-0.93564212 -0.070824362 0.16922458 0
-1.6639869 -0.12595715 0.42575085 0
-1.678749 -0.12707457 0.56010783 0
-1.56276 -0.1381049 -0.056009986 0
-0.93355012 -0.0825001 0.10071898 0
-0.94884717 -0.083851941 0.17179026 0
-1.6740671 -0.1479414 0.42877269 0
-1.6683906 -0.14743975 0.55722708 0
-1.5655683 -0.15824315 -0.056177601 0
-0.9523024 -0.096255988 0.10286474 0
-0.95564926 -0.096594274 0.17322826 0
-1.6737541 -0.16917825 0.42920411 0
-1.6781434 -0.16962191 0.56115329 0
-1.5655478 -0.17818156 -0.056252915 0
-0.94991475 -0.10811378 0.034132127 0
-0.9445672 -0.10750516 0.10216734 0
-0.93864554 -0.10683119 0.17037639 0
-1.6828493 -0.19153214 0.43212059 0
-1.6788439 -0.19107626 0.5621475 0
-1.5515138 -0.19640276 -0.055833086 0
-0.93958306 -0.11893977 0.033812024 0
-0.94138587 -0.11916798 0.10197745 0
-0.95364743 -0.12072016 0.17336161 0
-1.6714457 -0.21158467 0.42984247 0
-1.6793787 -0.21258891 0.56317836 0
-1.554275 -0.21666944 -0.056026194 0
-0.94414884 -0.13161646 0.034033272 0
-0.94487262 -0.13171737 0.10252671 0
-0.95236808 -0.13276225 0.17341919 0
-1.6704335 -0.23286217 0.43030211 0
-1.6621815 -0.23171183 0.55834544 0
-1.5472839 -0.23559213 -0.055876695 0
-0.9425391 -0.14351264 0.034037691 0
-0.94035351 -0.14317985 0.10222388 0
-0.94803405 -0.14434931 0.17294727 0
-1.6773758 -0.25540015 0.4328846 0
-1.6639274 -0.25335246 0.55995917 0
-1.5409333 -0.2545169 -0.055758674 0
-0.93893242 -0.15508406 0.033975273 0
-0.95156324 -0.1571703 0.10364939 0
-0.94809645 -0.15659769 0.17330466 0
-1.6601286 -0.27420446 0.42929062 0
-1.6836587 -0.27809095 0.56773275 0
-1.544767 -0.27517447 -0.056018338 0
-0.95510572 -0.17013615 0.034635279 0
-0.9438237 -0.16812645 0.1030288 0
-0.93774909 -0.16704436 0.1717841 0
-1.6726156 -0.2979486 0.43345547 0
-1.6635122 -0.29632697 0.56215298 0
-1.5391814 -0.29422113 -0.055945702 0
-0.94148135 -0.17996822 0.034220684 0
-0.94420612 -0.18048906 0.10331045 0
-0.93577474 -0.17887737 0.17182143 0
-1.6809095 -0.32131308 0.43661869 0
-1.6721545 -0.31963953 0.56638879 0
-1.532084 -0.31290996 -0.055826519 0
-0.94759136 -0.19353428 0.034528609 0
-0.94365185 -0.19272968 0.10350714 0
-0.94394761 -0.19279009 0.17375407 0
-1.6794466 -0.34300703 0.43732592 0
-1.6687082 -0.34081385 0.56663018 0
-1.5392376 -0.33461398 -0.056236263 0
-0.94409025 -0.20523524 0.03449247 0
-0.95044297 -0.20661625 0.10452913 0
-0.94708705 -0.20588671 0.17479531 0
-1.6683097 -0.36267287 0.43558058 0
-1.6675406 -0.36250567 0.56773865 0
-1.5382173 -0.35473278 -0.056357715 0
-0.94337183 -0.21755372 0.034563571 0
-0.94550067 -0.21804465 0.10427928 0
-0.9386031 -0.21645398 0.17371877 0
-1.670644 -0.38527209 0.43742207 0
-1.6705014 -0.38523918 0.57035309 0
-1.5240275 -0.37173077 -0.056004886 0
-0.92943895 -0.22670265 0.034154978 0
-0.94407219 -0.23027188 0.10443326 0
-0.94107544 -0.22954093 0.17469747 0
-1.6711253 -0.40760991 0.43885717 0
-1.6732978 -0.4081398 0.57301718 0
-1.514484 -0.38967055 -0.055830073 0
-0.99601746 -0.25627121 0.036717273 0
-1.0016013 -0.25770792 0.1111473 0
-0.9935112 -0.25562635 0.18501432 0
-1.6694717 -0.42954823 0.43980849 0
-1.6668651 -0.42887753 0.57261831 0
-1.5210136 -0.41183782 -0.056257494 0
-1.04818 -0.28381082 0.038768869 0
-1.0491029 -0.28406075 0.1168062 0
-1.6724205 -0.45283356 0.31247973 0
-1.6774206 -0.45418742 0.4433741 0
-1.6801392 -0.45492351 0.57910037 0
-1.5126332 -0.43008244 -0.056143388 0
-1.1188945 -0.31813189 0.041529249 0
-1.1283605 -0.32082334 0.12607047 0
-1.6719284 -0.4753744 0.31348139 0
-1.6765711 -0.47669446 0.44470093 0
-1.673915 -0.47593924 0.57897484 0
-1.5049177 -0.44844455 -0.056062166 0
-1.2073236 -0.35976562 0.044975996 0
-1.2047317 -0.35899326 0.1350977 0
-1.6786479 -0.50021368 0.31589723 0
-1.6662669 -0.49652436 0.44359103 0
-1.6736064 -0.49871141 0.58099407 0
-1.4974418 -0.46682459 -0.05599821 0
-1.3037943 -0.40645537 0.048756585 0
-1.3083365 -0.40787137 0.14728013 0
-1.6658168 -0.51931518 0.31468827 0
-1.6797129 -0.52364725 0.44889039 0
-1.6814126 -0.52417713 0.58594894 0
-1.5089443 -0.49134022 -0.056655236 0
-1.4217447 -0.46294641 0.05338122 0
-1.4193537 -0.46216786 0.16041982 0
-1.6764933 -0.54589725 0.3179785 0
-1.6681174 -0.54316992 0.44758397 0
-1.6669064 -0.54277557 0.5832293 0
-1.4859428 -0.50463092 -0.056025762 0
-1.5569144 -0.52873307 0.05870166 0
-1.5517821 -0.52699018 0.17612335 0
-1.6764444 -0.56932586 0.31930366 0
-1.6625355 -0.56460238 0.44795838 0
-1.4822135 -0.52427077 -0.056129612 0
-1.7272762 -0.61095136 0.19689903 0
-1.6723632 -0.59152818 0.31991968 0
-1.6616334 -0.58773297 0.44967374 0
-1.4756746 -0.5429582 -0.056136452 0
-1.6897944 -0.62174124 0.19350347 0
-1.6698831 -0.61441511 0.32089984 0
-1.6659639 -0.61297303 0.45289859 0
-1.4700496 -0.56200355 -0.056187227 0
-1.6840261 -0.64380735 0.19375591 0
-1.6737198 -0.63986719 0.3231599 0
-1.6751597 -0.64041764 0.45755455 0
-1.4672568 -0.58221471 -0.056356233 0
-1.6775781 -0.66567117 0.19396307 0
-1.6684986 -0.66206843 0.3237358 0
-1.6761801 -0.66511649 0.46008444 0
-1.4462907 -0.59508061 -0.055834327 0
-1.6956967 -0.69769949 0.19705814 0
-1.6772522 -0.69011039 0.32709441 0
-1.6778375 -0.69035125 0.46288878 0
-1.4496535 -0.6179201 -0.056260072 0
-1.6846881 -0.71810448 0.19681406 0
-1.6730253 -0.71313316 0.32799533 0
-1.6767135 -0.71470529 0.46502468 0
-1.4270531 -0.62963587 -0.05568625 0
-1.686651 -0.74417418 0.19812241 0
-1.665272 -0.73474145 0.32826313 0
-1.6653206 -0.73476291 0.46439418 0
-1.4224337 -0.64911574 -0.055820528 0
-1.6717132 -0.7628724 0.19748048 0
-1.6800941 -0.76669693 0.33306164 0
-1.6830217 -0.76803291 0.47198984 0
-1.4206532 -0.67004275 -0.056077316 0
-1.6851989 -0.79481411 0.20024 0
-1.6690708 -0.78720742 0.33281508 0
-1.6574314 -0.78171772 0.46753672 0
-1.4113669 -0.6875183 -0.056048043 0
-1.9290923 -0.93971753 0.076607898 0
-1.668198 -0.81262827 0.19941998 0
-1.6641994 -0.81068039 0.33385277 0
-1.6760179 -0.81643754 0.47564206 0
-1.4075086 -0.70770353 -0.056244262 0
-1.8726926 -0.94160074 0.074833088 0
-1.6698872 -0.83962899 0.20086987 0
-1.6646811 -0.83701134 0.33603716 0
-1.6599665 -0.8346408 0.47403184 0
-1.3952701 -0.72370154 -0.056114916 0
-1.8359694 -0.95228434 0.073838942 0
-1.6670614 -0.86467487 0.2018237 0
-1.6661838 -0.86421961 0.33851042 0
-1.3905849 -0.74363893 -0.056298628 0
-1.790307 -0.9573971 0.072481602 0
-1.6752836 -0.89588636 0.20416868 0
-1.6785648 -0.89764106 0.34329501 0
-1.3694075 -0.75463945 -0.055821538 0
-1.7434969 -0.96078891 0.071070649 0
-1.672981 -0.92192972 0.20528661 0
-1.6824243 -0.92713368 0.34644455 0
-1.3567619 -0.77009934 -0.055696938 0
-1.6884896 -0.95838827 0.069314815 0
-1.6725384 -0.94933438 0.20668279 0
-1.6616738 -0.94316763 0.34458989 0
-1.3521976 -0.79018354 -0.055913605 0
-1.6816779 -0.98272192 0.069537677 0
-1.6636147 -0.9721663 0.2070764 0
-1.6707739 -0.97634989 0.34899893 0
-1.3458729 -0.80939096 -0.056069072 0
-1.6781263 -1.009204 0.069910757 0
-1.6817182 -1.0113641 0.2108983 0
-1.6655458 -1.0016383 0.35051373 0
-1.3325171 -0.82438117 -0.055940699 0
-1.6786367 -1.0385132 0.070471227 0
-1.6698644 -1.0330861 0.21102642 0
-1.6730598 -1.0350629 0.35480985 0
-1.3292385 -0.84567904 -0.056245659 0
-1.6820323 -1.0701311 0.071173839 0
-1.6720446 -1.0637767 0.21297787 0
-1.6735405 -1.0647285 0.35772672 0
-1.3142164 -0.85955679 -0.056063559 0
-1.6922385 -1.1068003 0.072189718 0
-1.6774566 -1.0971323 0.21540987 0
-1.6750239 -1.0955412 0.360964 0
-1.3020135 -0.87517864 -0.056008674 0
-1.6693714 -1.1221068 0.071811296 0
-1.6795136 -1.1289241 0.21748228 0
-1.6757733 -1.12641 0.36415324 0
-1.2880113 -0.88951463 -0.055883743 0
-1.6777725 -1.1586881 0.072794557 0
-1.6752425 -1.1569408 0.21879835 0
-1.6721032 -1.1547728 0.36648652 0
-1.2807304 -0.90851432 -0.056059763 0
-1.6727324 -1.1865896 0.073218361 0
-1.6744828 -1.1878313 0.22063519 0
-2.0355749 -1.4439799 0.45010075 0
-1.2614822 -0.91895366 -0.055719331 0
-1.6788307 -1.2229801 0.074153505 0
-1.6774553 -1.2219782 0.22303666 0
-2.0029511 -1.4590926 0.44691429 0
-1.2522933 -0.93662065 -0.055829976 0
-1.663118 -1.2438864 0.074145436 0
-1.676983 -1.2542564 0.22505599 0
-1.2439709 -0.95505518 -0.055990666 0
-1.6793188 -1.2892922 0.075585507 0
-1.6711984 -1.2830578 0.22642997 0
-1.2321597 -0.97088897 -0.056004878 0
-1.5861597 -1.2498257 0.072095104 0
-1.5959935 -1.2575744 0.21836875 0
-1.5898473 -1.2527314 0.36504245 0
-1.2249438 -0.99045527 -0.056239322 0
-1.5618055 -1.2628322 0.07170523 0
-1.5681953 -1.2679989 0.21673277 0
-1.5765446 -1.2747499 0.36564469 0
-1.2033056 -0.9982757 -0.055818584 0
-1.6706904 -1.3860233 0.077499494 0
-1.679299 -1.3931651 0.23449384 0
-1.7769101 -1.4741443 0.41638726 0
-1.1935108 -1.0157903 -0.055953134 0
-1.6743321 -1.4250146 0.078494586 0
-1.6681951 -1.4197915 0.23542114 0
-1.7488604 -1.4884452 0.41417348 0
-1.4641919 -1.2461655 0.49054307 0
-1.1827275 -1.032572 -0.056052722 0
-1.7141906 -1.4965624 0.41039327 0
-1.4221985 -1.2416406 0.4816741 0
-1.1741099 -1.0513917 -0.056267302 0
-1.6199068 -1.4505938 0.077631384 0
-1.6218545 -1.4523381 0.23396978 0
-1.6243522 -1.4545746 0.39323905 0
-1.3965614 -1.2505926 0.47828683 0
-1.1497079 -1.0559243 -0.055730667 0
-1.3507768 -1.2405916 0.46791974 0
-1.1369063 -1.0708677 -0.055759352 0
-1.3212073 -1.2444633 0.46306834 0
-1.1263206 -1.0879841 -0.055907667 0
-1.2887735 -1.2449076 0.45715871 0
-1.1146724 -1.1041996 -0.056015212 0
-1.2717379 -1.2597895 0.45670673 0
-1.0929687 -1.1103126 -0.05562273 0
-1.2584089 -1.2783781 0.45766473 0
-1.0855492 -1.1309116 -0.055965438 0
-1.0730056 -1.146394 -0.05605853 0
-1.0577533 -1.1590109 -0.056019731 0
-1.0394697 -1.1681844 -0.055826046 0
-1.0295575 -1.1868041 -0.056091856 0
-1.0191218 -1.2051002 -0.056345589 0
-0.99825931 -1.2110332 -0.056030821 0
-0.98603445 -1.2273685 -0.056207679 0
-0.96093202 -1.2274619 -0.055653412 0
-0.95286208 -1.2492464 -0.056092653 0
-0.93832076 -1.2628458 -0.056168299 0
-0.92208004 -1.2741932 -0.056152124 0
-0.89832807 -1.2748668 -0.055678889 0
-0.87884527 -1.2811793 -0.055466861 0
-0.87403852 -1.3092111 -0.056199513 0
-0.85750014 -1.3201364 -0.056200527 0
-0.80539572 -1.2399207 0.49189997 0
-0.83658862 -1.324147 -0.055918362 0
-0.78298175 -1.2392985 0.487703 0
-0.82032531 -1.33535 -0.055950806 0
-0.76546258 -1.2460427 0.48652533 0
-0.80713552 -1.351751 -0.056207694 0
-0.74326473 -1.2447834 0.48234096 0
-0.78535467 -1.353711 -0.05587355 0
-0.72540975 -1.2503843 0.48093358 0
-0.76704025 -1.3613496 -0.055785745 0
-0.70297652 -1.2476487 0.47643888 0
-0.75158572 -1.3740941 -0.055915739 0
-0.69007266 -1.2616322 0.47842255 0
-0.73518085 -1.3852503 -0.055988565 0
-0.65666693 -1.237312 0.4660275 0
-0.71248513 -1.3843029 -0.055583246 0
-0.64152944 -1.2464415 0.4663865 0
-0.69862896 -1.4004415 -0.055873588 0
-0.62212533 -1.2470857 0.4636595 0
-0.68317413 -1.4137497 -0.056056883 0
-0.59527856 -1.23186 0.4551757 0
-0.66508436 -1.4217378 -0.056037102 0
-1.8433954 -3.9405897 0.15531643 0
-0.584777 -1.2500662 0.45914564 0
-0.64575261 -1.4269549 -0.055917803 0
-1.7877915 -3.9505811 0.15481064 0
-0.56231016 -1.2425677 0.45375472 0
-0.62472439 -1.4280921 -0.055649687 0
-1.7358363 -3.9680443 0.15462618 0
-0.54820961 -1.2531826 0.45507416 0
-0.61265612 -1.4499567 -0.056196615 0
-1.6808883 -3.9781125 0.15418148 0
-0.53536105 -1.2670244 0.45761624 0
-0.59044951 -1.4479883 -0.055827741 0
-0.50363147 -1.2350801 0.3402994 0
-0.51494986 -1.2628368 0.45372584 0
-0.56955212 -1.4486475 -0.055572234 0
-0.48500779 -1.2336103 0.33818486 0
-0.50206637 -1.2769984 0.45650628 0
-0.55241746 -1.4587426 -0.055688232 0
-0.46644285 -1.2317135 0.14154515 0
-0.46527216 -1.2286221 0.23693663 0
-0.44471478 -1.1743373 0.32037503 0
-0.48132512 -1.2710124 0.45216388 0
-0.53809506 -1.476804 -0.056114618 0
-0.44177568 -1.2124552 0.13868177 0
-0.44075862 -1.2096639 0.23219183 0
-0.42974311 -1.1794317 0.32026318 0
-0.5204379 -1.4862616 -0.056220513 0
-0.42182669 -1.2046487 0.13717042 0
-0.42544386 -1.2149786 0.23216526 0
-0.41510862 -1.1854633 0.32045621 0
-0.434829 -1.2417805 0.43772936 0
-0.50006455 -1.4878819 -0.056039166 0
-0.40979302 -1.2192898 0.13823903 0
-0.41045445 -1.2212578 0.23235908 0
-0.40844849 -1.2152892 0.32710254 0
-0.41878611 -1.2460476 0.43733993 0
-0.48127601 -1.4940147 -0.056037456 0
-0.39512274 -1.2265711 0.13848947 0
-0.39947936 -1.2400953 0.23496741 0
-0.41226965 -1.2797998 0.34304148 0
-0.40985826 -1.2723142 0.44471234 0
-0.46104679 -1.4954813 -0.055870272 0
-0.40693814 -1.319971 0.3524076 0
-0.44002303 -1.493844 -0.0555977 0
-0.36642262 -1.2439764 0.33086035 0
-0.42660698 -1.5185885 -0.056314237 0
-0.34795961 -1.2386281 0.32824653 0
-0.40298614 -1.5071365 -0.055696968 0
-0.33294749 -1.2451974 0.3288503 0
-0.38624614 -1.5210248 -0.056026034 0
-0.31230646 -1.2298528 0.3237336 0
-0.36902717 -1.5339279 -0.056325685 0
-0.34618136 -1.5230432 -0.055761509 0
-0.32789722 -1.5315797 -0.055918444 0
-0.30776554 -1.5315003 -0.055769634 0
-0.29029611 -1.5450386 -0.056125063 0
-0.49737152 -2.6471529 0.096160457 0
-0.2690942 -1.5387076 -0.05576757 0
-0.430778 -2.4632318 0.089275219 0
-0.25052434 -1.5470725 -0.055951975 0
-0.39933774 -2.4660459 0.089187883 0
-0.23034526 -1.5455438 -0.055787358 0
-0.36685455 -2.461478 0.088848568 0
-0.20997356 -1.5417633 -0.05555106 0
-0.33461866 -2.456989 0.088527434 0
-0.19129287 -1.5503522 -0.055769309 0
-0.30414408 -2.4649663 0.088669829 0
-0.17154846 -1.5507537 -0.055701632 0
-0.27357468 -2.4730442 0.08882945 0
-0.15381882 -1.5712783 -0.056364816 0
-0.24177875 -2.4698 0.088596538 0
-0.13189135 -1.5480783 -0.055468611 0
-0.20962408 -2.4604681 0.088160113 0
-0.1133001 -1.5621823 -0.055918414 0
-0.17903808 -2.4685776 0.088362895 0
-0.093890026 -1.5679718 -0.056078888 0
-0.14880134 -2.4849958 0.088876463 0
-0.074149258 -1.5692275 -0.056085952 0
-0.11662582 -2.4681628 0.088214912 0
-0.054612018 -1.576593 -0.056320164 0
-0.085597105 -2.4711008 0.088274397 0
-0.034505423 -1.5657637 -0.055913355 0
-0.054406162 -2.468806 0.088160954 0
-0.014846326 -1.5722691 -0.056134537 0
0.0049447697 -1.5701555 -0.056056853 0
0.024665827 -1.5668746 -0.055946376 0
0.044518236 -1.5708688 -0.056104559 0
0.064095609 -1.5653423 -0.055931568 0
0.08405298 -1.5691324 -0.056100368 0
0.10387255 -1.5689912 -0.056137629 0
0.12287394 -1.5581009 -0.055798918 0
0.14258964 -1.5575998 -0.055840846 0
0.16333632 -1.5666723 -0.056235377 0
0.18293355 -1.5634991 -0.056199703 0
0.20212139 -1.5573424 -0.056065448 0
0.22205912 -1.5570927 -0.056152672 0
0.24022622 -1.5450342 -0.055822473 0
0.25927594 -1.5396003 -0.055739686 0
0.27977842 -1.5424855 -0.055967249 0
0.29837987 -1.5347352 -0.055817943 0
0.31644681 -1.5249122 -0.055601202 0
0.33871105 -1.5348033 -0.056112915 0
0.35699177 -1.5260674 -0.055953439 0
0.37715 -1.5253807 -0.056097943 0
0.39654011 -1.5213305 -0.056128178 0
0.41390705 -1.5098079 -0.055890925 0
0.43238479 -1.5027398 -0.055826399 0
0.45280358 -1.5022583 -0.056015894 0
0.46897876 -1.4878587 -0.055694751 0
0.49180302 -1.4943775 -0.056166131 0
0.51056886 -1.488034 -0.056164902 0
0.52864462 -1.4797521 -0.056099113 0
0.54747474 -1.4736249 -0.056123734 0
0.56632769 -1.4674999 -0.056157608 0
0.49550238 -1.2839735 0.45787597 0
0.58153057 -1.4521874 -0.055847432 0
0.50825214 -1.2691979 0.45485312 0
0.60413069 -1.4552561 -0.056253545 0
0.52626777 -1.2676965 0.45665374 0
0.61607939 -1.4328197 -0.055681724 0
0.53900295 -1.2535625 0.45397127 0
0.6362471 -1.4298381 -0.055872772 0
0.55681539 -1.2513312 0.45566633 0
0.65640259 -1.4265002 -0.056060884 0
0.57147241 -1.2419291 0.45482695 0
0.67531693 -1.4202358 -0.056144439 0
0.59161258 -1.2442001 0.4583506 0
0.68428671 -1.3935781 -0.055426851 0
0.60937887 -1.2410252 0.45997134 0
0.70928365 -1.3996603 -0.056019548 0
0.63208497 -1.2473208 0.46521786 0
0.72307903 -1.3834023 -0.055728845 0
0.64565766 -1.235279 0.4637222 0
0.74424678 -1.3812525 -0.056015331 0
0.6682325 -1.2401772 0.46868262 0
0.76278716 -1.3739474 -0.056104161 0
0.69647539 -1.2545054 0.051226832 0
0.70165032 -1.2638266 0.15535061 0
0.70112532 -1.2628808 0.26050523 0
0.70363671 -1.2674044 0.36984628 0
0.69528246 -1.2523565 0.47655633 0
0.77649254 -1.3580536 -0.055849988 0
0.71351969 -1.2479167 0.051320605 0
0.72015011 -1.259513 0.1559227 0
0.70775086 -1.2378273 0.25715521 0
0.71085805 -1.2432616 0.36538419 0
0.71952385 -1.2584177 0.48227227 0
0.79559487 -1.3516762 -0.055995282 0
0.73667675 -1.2515771 0.051848527 0
0.73161656 -1.2429801 0.1550042 0
0.73294604 -1.2452389 0.26059169 0
0.73373729 -1.2465832 0.36904651 0
0.73472947 -1.2482688 0.48189032 0
0.81416792 -1.3442211 -0.056106705 0
0.83497411 -1.3401958 -0.056373078 0
0.8538022 -1.3327286 -0.056506738 0
0.86440217 -1.31259 -0.056109931 0
0.88117528 -1.3020668 -0.056129966 0
0.89212126 -1.2831323 -0.055793576 0
0.91228682 -1.2775112 -0.056044225 0
0.91817111 -1.2521105 -0.055432722 0
0.93881464 -1.2470263 -0.055726588 0
0.96382689 -1.2472516 -0.056274552 0
0.97100097 -1.2243574 -0.055788834 0
0.77091402 -0.97206306 0.044292841 0
0.77551651 -0.97786641 0.13412791 0
0.98823357 -1.2143608 -0.055895928 0
0.77145392 -0.94797778 0.043634556 0
0.7717905 -0.94839138 0.13140762 0
1.0083297 -1.2076713 -0.056167997 0
0.77286345 -0.92565453 0.043051586 0
0.77533174 -0.9286108 0.13000931 0
1.0162261 -1.1864388 -0.055771224 0
0.77426296 -0.90394807 0.04249211 0
0.77291149 -0.90237027 0.12768802 0
1.0400537 -1.183758 -0.056256384 0
0.77885646 -0.88647115 0.042128254 0
0.76950091 -0.87582296 0.12529269 0
1.0506169 -1.1658422 -0.056029234 0
0.78195089 -0.86771053 0.041701321 0
0.77200884 -0.85667813 0.12393475 0
1.0640043 -1.1512134 -0.055965658 0
1.0687203 -1.1274972 -0.055462539 0
1.0939381 -1.1253763 -0.05603138 0
1.1048613 -1.1083432 -0.055871584 0
1.1204027 -1.095981 -0.055955172 0
1.1359296 -1.083519 -0.056044765 0
1.1521211 -1.0715848 -0.056173425 0
1.1681376 -1.0593649 -0.056299467 0
1.1816627 -1.0448194 -0.056312766 0
1.1840109 -1.0206227 -0.055807777 0
1.2069247 -1.0141684 -0.05628141 0
1.2077522 -0.98918879 -0.055734735 0
1.2253413 -0.97807771 -0.055973627 0
1.2316935 -0.95800924 -0.055708323 0
1.2428776 -0.94183308 -0.055673346 0
1.2649533 -0.93372339 -0.05613108 0
1.2740066 -0.91585082 -0.056016628 0
1.2844447 -0.89904219 -0.055973373 0
1.295615 -0.88276553 -0.055971302 0
1.2995741 -0.86170536 -0.055669166 0
1.3134168 -0.84727097 -0.055800695 0
1.3312715 -0.83524048 -0.056107968 0
1.3325442 -0.8128376 -0.055725805 0
1.3465275 -0.79827976 -0.055885769 0
1.3547744 -0.78028423 -0.055815823 0
1.3614894 -0.76148498 -0.055693015 0
1.3739412 -0.74589509 -0.055813733 0
1.3913262 -0.73280376 -0.056140661 0
1.3953682 -0.71263558 -0.055937234 0
1.4106201 -0.69817215 -0.056191761 0
1.4207411 -0.68104661 -0.056248847 0
1.424091 -0.66073161 -0.05604763 0
1.4300156 -0.64172423 -0.055958334 0
1.4360992 -0.62285101 -0.055885054 0
1.4476244 -0.60630959 -0.056032009 0
1.4546618 -0.58783937 -0.05601345 0
1.4616346 -0.56935465 -0.056001436 0
1.4677737 -0.55056298 -0.05596659 0
1.4765333 -0.53273958 -0.056040362 0
1.4813262 -0.51348281 -0.055972427 0
1.4914439 -0.49604422 -0.05611426 0
1.4956965 -0.4766283 -0.056044005 0
1.5026022 -0.45806974 -0.056082185 0
1.5072345 -0.43881798 -0.056044396 0
1.5132908 -0.4199858 -0.056068499 0
1.5170499 -0.40052634 -0.056016468 0
1.5098608 -0.37835795 -0.055570684 0
1.533819 -0.36389923 -0.056279361 0
1.5297709 -0.34265193 -0.055968069 0
1.5296562 -0.32245502 -0.055810895 0
1.5316025 -0.30277532 -0.055738382 0
1.5392196 -0.28419152 -0.055880923 0
1.5424899 -0.26475641 -0.055874184 0
1.543031 -0.24488983 -0.055777662 0
1.5427076 -0.22496282 -0.055659156 0
1.5503844 -0.20618092 -0.05583803 0
1.5510428 -0.18642524 -0.055772774 0
1.5529373 -0.16684552 -0.055760931 0
1.5624849 -0.14799593 -0.056032397 0
1.5652883 -0.12839788 -0.056070503 0
1.5723196 -0.10906303 -0.056268718 0
1.5552093 -0.088215604 -0.055612225 0
1.5607952 -0.068829432 -0.055776555 0
1.5667574 -0.049336031 -0.055962987 0
1.5724829 -0.029703513 -0.056149684 0
1.570834 -0.0098897433 -0.056081913 0
1.5725505 0.0099005494 -0.056143194 0
1.5676013 0.029611301 -0.05597537 0
1.5739721 0.049563214 -0.056220684 0
1.5646269 0.068998411 -0.055913489 0
1.5592752 0.088446237 -0.055757616 0
1.5608869 0.10827 -0.055859573 0
1.562686 0.12818442 -0.055977285 0
1.5726736 0.14896099 -0.056397773 0
1.5582446 0.16741572 -0.055951498 0
1.5599512 0.18749596 -0.056093104 0
1.5529473 0.20652176 -0.055930339 0
1.5473081 0.2256337 -0.05582514 0
1.5576406 0.24720848 -0.05630577 0
1.5459672 0.26535326 -0.056000143 0
1.5385343 0.28406498 -0.055856042 0
1.537938 0.30402777 -0.055968944 0
1.5307828 0.32269251 -0.055852 0
1.5330123 0.34337798 -0.056086659 0
1.5267742 0.36222783 -0.056020867 0
1.5237265 0.3818326 -0.056081019 0
1.5197991 0.40125221 -0.056117985 0
1.5098425 0.41902882 -0.055940736 0
1.5047514 0.43809506 -0.055952068 0
1.502321 0.45798403 -0.056071687 0
1.484002 0.47290164 -0.055605806 0
1.4883307 0.49500877 -0.055997126 0
1.4695657 0.50940621 -0.055528056 0
1.4761969 0.53261822 -0.056027595 0
1.4693724 0.55116266 -0.056027547 0
1.462239 0.56959009 -0.056024592 0
1.4602193 0.59008515 -0.056227442 0
1.4537174 0.60886145 -0.056267843 0
1.4475828 0.62783158 -0.056331936 0
1.4274944 0.64059281 -0.055859677 0
1.4320809 0.66443866 -0.056362085 0
1.4172083 0.67935318 -0.056108985 0
1.4096251 0.69767964 -0.056152124 0
1.4019495 0.71599674 -0.056201063 0
1.3884505 0.73128915 -0.056024626 0
1.3803331 0.74936521 -0.05607339 0
1.3721124 0.76742643 -0.056127556 0
1.3524259 0.77893174 -0.055719074 0
1.3569196 0.80444068 -0.05631708 0
1.3370762 0.815602 -0.055915326 0
1.3297783 0.83430356 -0.056045029 0
1.3209262 0.85211515 -0.056119725 0
1.3078004 0.86716002 -0.056021553 0
1.3067429 0.89034748 -0.056452032 0
1.2846695 0.89919949 -0.055983167 0
1.2700846 0.91303134 -0.05584418 0
1.262392 0.93183285 -0.056017432 0
1.2417414 0.94097215 -0.055622455 0
1.2390666 0.96374404 -0.056041799 0
1.2242839 0.97723371 -0.055925325 0
1.2124313 0.99302107 -0.05595066 0
1.1925788 1.0021137 -0.055612437 0
1.1851974 1.0216455 -0.055863705 0
1.1682283 1.0329409 -0.055672545 0
1.168574 1.0597607 -0.0563205 0
1.1552029 1.0744511 -0.056323677 0
1.137455 1.0849742 -0.056120031 0
1.1126546 1.0884018 -0.055568215 0
1.1088474 1.112342 -0.056073159 0
1.0881933 1.1194665 -0.055737134 0
1.0830336 1.1425977 -0.05620534 0
0.59248638 0.62507159 0.28653345 0
1.0701517 1.1578648 -0.056289006 0
0.61269712 0.66291571 0.30032077 0
1.0506728 1.1659042 -0.056032211 0
1.0118585 1.122833 0.053962253 0
1.0084223 1.1190199 0.16188747 0
1.0025383 1.1124907 0.27008495 0
0.61632669 0.68392164 0.30629689 0
1.0402614 1.1839944 -0.056267615 0
0.97991598 1.115311 0.053003542 0
0.98178875 1.1174426 0.15985808 0
0.98777288 1.1242536 0.26989961 0
0.62134188 0.70719272 0.31319004 0
1.0165823 1.1868547 -0.055790775 0
0.95763767 1.1180371 0.052555848 0
0.96305418 1.1243609 0.15910032 0
0.95936406 1.1200527 0.26596984 0
0.62364465 0.72810197 0.31894687 0
1.0077558 1.2069839 -0.056136027 0
0.93075138 1.1147561 0.051846575 0
0.93489152 1.1197147 0.15676464 0
0.93626356 1.121358 0.26345935 0
0.62035 0.74299002 0.32202122 0
0.98609674 1.211735 -0.055775065 0
0.91546601 1.1249427 0.05178009 0
0.91143286 1.1199865 0.15518358 0
0.91105187 1.1195184 0.26031113 0
0.62195879 0.76427519 0.32782605 0
0.97293943 1.2268015 -0.055900209 0
0.89018482 1.1224544 0.051145542 0
0.89031243 1.1226153 0.15398222 0
0.88741136 1.1189572 0.25756192 0
0.62551665 0.78872824 0.33490977 0
0.95470542 1.2354479 -0.055741981 0
0.86625177 1.1209835 0.050577477 0
0.85725313 1.1093386 0.15066856 0
0.8665995 1.1214334 0.25559983 0
0.61825424 0.80005926 0.33638871 0
0.94717836 1.2581359 -0.056223046 0
0.83963048 1.1152802 0.049839169 0
0.83708996 1.1119056 0.14957371 0
0.84140766 1.1176409 0.25230053 0
0.61069065 0.8111797 0.33780432 0
0.91928327 1.2536272 -0.055499867 0
0.8210023 1.1196014 0.049566351 0
0.82176012 1.1206348 0.14934413 0
0.81940198 1.117419 0.2499014 0
0.60177082 0.8206352 0.33855948 0
0.91455102 1.2806818 -0.056183323 0
0.80781192 1.1312109 0.049626052 0
0.80534393 1.1277549 0.14892973 0
0.82029009 1.1486845 0.25456345 0
0.58717585 0.82224554 0.3361468 0
0.89888155 1.2928556 -0.056216367 0
0.81164885 1.1673894 0.050760802 0
0.81658781 1.174493 0.15373179 0
0.81181777 1.1676323 0.25647673 0
0.5806011 0.83507484 0.3383759 0
0.87761903 1.2968119 -0.055903438 0
0.81630826 1.2062162 0.051998001 0
0.81502628 1.2043219 0.15628043 0
0.80992633 1.1967859 0.26061961 0
0.57174665 0.84484029 0.33938873 0
0.86697817 1.3165016 -0.056277145 0
0.81187886 1.2328336 0.052700549 0
0.80939442 1.229061 0.15815561 0
0.8018086 1.2175421 0.26292002 0
0.73583513 1.1173617 0.34133863 0
0.55736136 0.84635019 0.33714911 0
0.84955752 1.326103 -0.056225814 0
0.81830573 1.277321 0.054157495 0
0.81227994 1.2679151 0.16182634 0
0.78594714 1.2268114 0.26276374 0
0.7096042 1.107645 0.33561409 0
0.55129653 0.86053729 0.34000829 0
0.83086228 1.333596 -0.056095466 0
0.81618148 1.3100322 0.055104297 0
0.80848837 1.2976842 0.16431342 0
0.77005792 1.2360004 0.26263416 0
0.69635594 1.1177032 0.33597815 0
0.54227304 0.87038875 0.34117568 0
0.80656552 1.3316692 -0.055582803 0
0.75714928 1.2500812 0.26357934 0
0.67891753 1.1209177 0.33434808 0
0.53586608 0.88473451 0.34412667 0
0.40807188 0.67374164 0.467136 0
0.79608661 1.3525116 -0.056029893 0
0.74545258 1.266487 0.26503825 0
0.65684789 1.1159519 0.33037359 0
0.52469915 0.89143777 0.34413677 0
0.40848055 0.6939882 0.47756967 0
0.77911997 1.362649 -0.056038972 0
0.72759235 1.2725291 0.26436442 0
0.63823533 1.1162474 0.3280558 0
0.51218158 0.89578462 0.34329784 0
0.42097738 0.73627216 0.35115486 0
0.40485087 0.7080676 0.40809605 0
0.40501097 0.70834756 0.4839032 0
0.76595086 1.3796459 -0.056336857 0
0.71237671 1.2831471 0.26468572 0
0.62366003 1.123349 0.32780886 0
0.49769127 0.89645147 0.34112459 0
0.41986904 0.75627649 0.35814565 0
0.41026372 0.73897517 0.42289868 0
0.40824881 0.7353459 0.49879551 0
0.74377698 1.3803805 -0.055979971 0
0.69633424 1.2923312 0.26475048 0
0.59928209 1.1122116 0.32233119 0
0.49382278 0.91648895 0.34635571 0
0.41979456 0.77909952 0.36642146 0
0.40464011 0.75097424 0.42681569 0
0.41055655 0.76195461 0.51329708 0
0.72930229 1.3953087 -0.056208484 0
0.67935741 1.2997538 0.26449758 0
0.58568144 1.1205319 0.32257953 0
0.47621813 0.91110545 0.34202787 0
0.41306993 0.79028976 0.36920878 0
0.40648368 0.7776888 0.43905497 0
0.40506372 0.77497214 0.51858926 0
0.70995104 1.4009773 -0.056072257 0
0.65925252 1.3009317 0.26302713 0
0.57279319 1.1303177 0.32329467 0
0.46642226 0.92041135 0.34328926 0
0.41937792 0.82757676 0.38413101 0
0.40849921 0.80610931 0.45216024 0
0.40382463 0.79688472 0.52980775 0
0.68784195 1.4008186 -0.055714823 0
0.64194858 1.3073547 0.26267058 0
0.55120754 1.1225569 0.31906438 0
0.4575271 0.93177283 0.34535059 0
0.42130691 0.85800886 0.39576265 0
0.40867761 0.8322888 0.46392143 0
0.40758187 0.83005726 0.54840678 0
0.67632163 1.4223487 -0.056227967 0
0.53420901 1.1234766 0.31738865 0
0.44432962 0.93445432 0.34424344 0
0.40882471 0.8597852 0.39417619 0
0.40701377 0.85597664 0.47423074 0
0.40570346 0.853221 0.56029105 0
0.65258497 1.4182037 -0.055734836 0
0.513641 1.1162493 0.31349483 0
0.43284389 0.94066042 0.34449446 0
0.40497041 0.88008547 0.40111333 0
0.40485102 0.87982601 0.48458099 0
0.40819812 0.88709998 0.5791173 0
0.63831449 1.4344841 -0.056054324 0
0.50180066 1.1276966 0.31491017 0
0.4219023 0.94814104 0.34526107 0
0.41092145 0.92346376 0.4184922 0
0.40845469 0.91792023 0.50268948 0
0.40662271 0.91380322 0.59316009 0
0.61551481 1.4315066 -0.055630695 0
0.48101464 1.1186987 0.31068143 0
0.4158515 0.96714842 0.35024789 0
0.40821925 0.94939804 0.4278816 0
0.40279877 0.9367916 0.51020604 0
0.40901074 0.95123881 0.61406815 0
0.6047045 1.4566383 -0.056306977 0
0.46481124 1.1196574 0.30929768 0
0.41491991 0.99947703 0.36003488 0
0.40771538 0.98212242 0.4402813 0
0.40768176 0.98204148 0.53201246 0
0.41050676 0.98884636 0.63495827 0
0.57919484 1.4463547 -0.055623122 0
0.45185468 1.1283631 0.31010622 0
0.42062333 1.0503728 0.37643093 0
0.40587032 1.0135318 0.45203501 0
0.41015321 1.024227 0.55202436 0
0.40935174 1.0222256 0.6530301 0
0.56236911 1.4572424 -0.055765074 0
0.42703369 1.1065536 0.30261052 0
0.41762334 1.0821689 0.38591075 0
0.40736866 1.0555965 0.46847084 0
0.40853181 1.0586104 0.56773829 0
0.40764993 1.0563253 0.67148155 0
0.54904836 1.4778606 -0.05628505 0
0.41780028 1.1245832 0.30607811 0
0.40911829 1.1012142 0.3908343 0
0.40644267 1.0940121 0.48320997 0
0.40722495 1.0961179 0.58505726 0
0.40990824 1.1033404 0.69803143 0
0.52597928 1.4722914 -0.05581627 0
0.39741278 1.1124153 0.30138046 0
0.40907419 1.1450573 0.40453449 0
0.40881053 1.1443193 0.50311631 0
0.40598133 1.1364 0.6037814 0
0.50764889 1.4795238 -0.055843689 0
0.38386634 1.1187642 0.30176699 0
0.40825152 1.1898339 0.41850415 0
0.40999421 1.1949128 0.52304918 0
0.40499106 1.1803313 0.6243636 0
0.49008331 1.489152 -0.05596973 0
0.59746206 1.8154297 0.34468526 0
0.3704699 1.1256983 0.30235508 0
0.40968382 1.2448525 0.43600696 0
0.40483496 1.2301189 0.53618598 0
0.40519801 1.2312222 0.64853305 0
0.46973005 1.4902422 -0.055783972 0
0.57387853 1.8206584 0.34427869 0
0.35132033 1.1145815 0.2981573 0
0.40394071 1.2815223 0.44703344 0
0.4066712 1.2901849 0.56009108 0
0.40709433 1.2915272 0.67754418 0
0.45279863 1.5022418 -0.056015283 0
0.55197954 1.8312925 0.34494787 0
0.33835924 1.1225682 0.29913035 0
0.4060075 1.3470037 0.46805486 0
0.40737277 1.3515333 0.58445024 0
0.43410441 1.5087162 -0.056048427 0
0.52978444 1.8412491 0.34553933 0
0.32169268 1.1180327 0.29681882 0
0.40871423 1.4204735 0.49175668 0
0.40884918 1.4209424 0.61219037 0
0.41342121 1.5080357 -0.055825319 0
0.30607662 1.1164751 0.041330308 0
0.30983502 1.1301845 0.12594168 0
0.30766699 1.1222762 0.20986907 0
0.30658412 1.1183263 0.29584837 0
0.40228286 1.4674064 0.50621068 0
0.40532959 1.4785199 0.63474739 0
0.39568064 1.5180331 -0.056006528 0
0.29143405 1.1180899 0.041250966 0
0.29067284 1.1151696 0.1238508 0
0.2900095 1.1126246 0.20736486 0
0.29081962 1.1157327 0.29417014 0
0.39886698 1.5302576 0.52611804 0
0.39815408 1.5275226 0.65358061 0
0.37479156 1.515842 -0.055747148 0
0.27789298 1.1239363 0.041334283 0
0.2768212 1.1196015 0.12394605 0
0.27634531 1.1176767 0.20764144 0
0.27939633 1.1300166 0.29698503 0
0.39249057 1.5874255 0.54403061 0
0.39314854 1.5900867 0.67817789 0
0.35651395 1.5240247 -0.055878546 0
0.26231954 1.1213628 0.0411149 0
0.26251674 1.1222059 0.12385859 0
0.26041758 1.1132324 0.2061902 0
0.26305088 1.1244892 0.29463845 0
0.38501492 1.6458607 0.56235099 0
0.33662745 1.5253619 -0.055767734 0
0.24637364 1.1163943 0.040815741 0
0.24745785 1.1213071 0.12340569 0
0.24758427 1.1218799 0.20719801 0
0.24663526 1.1175797 0.29199114 0
0.37279457 1.6892462 0.57552516 0
0.31771901 1.5310427 -0.055824731 0
0.23417673 1.1284643 0.041145954 0
0.23399082 1.1275685 0.1237607 0
0.23185322 1.1172676 0.20579065 0
0.23274137 1.1215476 0.29223895 0
0.35993141 1.7344582 0.589338 0
0.30039912 1.5451214 -0.056195688 0
0.21948305 1.1289246 0.041058712 0
0.21801959 1.1213971 0.12277228 0
0.21671055 1.1146641 0.20479223 0
0.21693434 1.1158152 0.29001048 0
0.34535551 1.7763573 0.60204923 0
0.2802422 1.5450424 -0.056060027 0
0.20293184 1.1188118 0.040594757 0
0.20393203 1.1243262 0.12280209 0
0.20289832 1.1186271 0.20503469 0
0.20316486 1.1200966 0.29043531 0
0.3325009 1.8331572 0.61983186 0
0.26104262 1.5500909 -0.056119487 0
0.18742606 1.1129502 0.040293247 0
0.18839054 1.1186774 0.12191633 0
0.18752643 1.1135463 0.20365444 0
0.18708818 1.1109438 0.28742841 0
0.31392989 1.8641394 0.62892115 0
0.2402388 1.545115 -0.055825394 0
0.1739804 1.1189688 0.040428627 0
0.17228064 1.1080368 0.1205107 0
0.17451005 1.1223754 0.20485105 0
0.17377867 1.1176715 0.28857997 0
0.29428339 1.8927071 0.63725859 0
0.22042054 1.5456029 -0.055738319 0
0.16036655 1.1245005 0.040552311 0
0.16004734 1.1222621 0.12182902 0
0.1598096 1.1205952 0.20414266 0
0.15801217 1.1079915 0.28554422 0
0.27622387 1.9368994 0.65091503 0
0.20220818 1.5580111 -0.05608952 0
0.14557125 1.1216244 0.040379282 0
0.14436294 1.1123145 0.12054224 0
0.14590237 1.1241757 0.20444404 0
0.14554122 1.1213931 0.28850284 0
0.25655076 1.97672 0.66315889 0
0.18303438 1.5643607 -0.056230675 0
0.13085629 1.1184043 0.040200848 0
0.12999073 1.1110066 0.12021359 0
0.13074067 1.1174163 0.20289926 0
0.13087133 1.1185328 0.28732023 0
0.23522787 2.0104487 0.67342728 0
0.16200621 1.5539143 -0.055777431 0
0.11934329 1.1447045 0.12368736 0
0.11875927 1.1391027 0.20654917 0
0.12015662 1.1525058 0.29563484 0
0.21281146 2.0412226 0.68278366 0
0.14293262 1.5613465 -0.055975169 0
0.11892384 1.2990829 0.14019531 0
0.11920912 1.3021991 0.23583192 0
0.11930469 1.303243 0.33388937 0
0.18968679 2.0720727 0.69224906 0
0.12346793 1.5656331 -0.056068659 0
0.17009106 2.156837 0.23251341 0
0.16642804 2.110388 0.38178742 0
0.16491748 2.0912333 0.53519708 0
0.10433901 1.5760372 -0.05638973 0
0.14153482 2.1378787 0.38640764 0
0.14053714 2.1228087 0.54278207 0
0.084259428 1.5729864 -0.056238156 0
0.11621901 2.1696198 0.39184907 0
0.11615024 2.1683362 0.55400509 0
0.064028352 1.5636998 -0.05587288 0
0.089364327 2.1824548 0.3939327 0
0.089220665 2.1789463 0.5563848 0
0.044499703 1.5702149 -0.056081202 0
0.023862166 0.84199953 0.34875804 0
0.023969674 0.84579307 0.42335418 0
0.024676966 1.5675821 -0.055971637 0
0.01330574 0.84523523 0.35000113 0
0.013232795 0.84060144 0.4206388 0
0.004968578 1.5777155 -0.056326758 0
0.0025775235 0.81846333 0.40951213 0
0.0025933951 0.82350314 0.48837927 0
-0.01481855 1.5693276 -0.056029517 0
-0.0077757612 0.82347572 0.41203639 0
-0.0076595945 0.81117332 0.48108611 0
-0.034671295 1.5732905 -0.056182139 0
-0.018424045 0.83603388 0.34623212 0
-0.018392274 0.83459216 0.4176814 0
-0.018007625 0.81713778 0.48471951 0
-0.054365575 1.5694785 -0.056066014 0
-0.080144115 2.3136785 0.41751915 0
-0.079953685 2.308181 0.58924407 0
-0.027966177 0.80735493 0.47908732 0
-0.074199378 1.5702882 -0.056123864 0
-0.11045691 2.3376095 0.42205518 0
-0.11013011 2.3306935 0.59529799 0
-0.036742546 0.7775858 0.46166018 0
-0.093723439 1.5651898 -0.055979386 0
-0.14053731 2.3469856 0.42403394 0
-0.14075293 2.3505867 0.60078412 0
-0.046436947 0.77550119 0.46073318 0
-0.11392248 1.5707637 -0.056225587 0
-0.17157875 2.3657286 0.42777669 0
-0.17177205 2.3683937 0.60584021 0
-0.13324873 1.5640104 -0.056039471 0
-0.07659252 0.89900666 0.032211971 0
-0.20284005 2.3808403 0.43093696 0
-0.20331715 2.3864403 0.611063 0
-0.15280253 1.5608968 -0.05599241 0
-0.23534034 2.4040308 0.43563634 0
-0.23450446 2.3954923 0.6140883 0
-0.17236435 1.5581292 -0.055966549 0
-0.2665458 2.4095051 0.43720189 0
-0.26666924 2.4106212 0.61877835 0
-0.085163139 0.76985276 0.45934463 0
-0.19175135 1.554068 -0.055902977 0
-0.29671004 2.4047163 0.43697625 0
-0.2979697 2.4149251 0.62079704 0
-0.21041352 1.5449938 -0.055667453 0
-0.33141652 2.4334772 0.44292578 0
-0.33052757 2.4269497 0.62490857 0
-0.2297845 1.5417813 -0.055651549 0
-0.36134872 2.4245355 0.44209144 0
-0.36381674 2.4410951 0.62968045 0
-0.25039721 1.5462875 -0.055923585 0
-0.39797321 2.4576192 0.44900215 0
-0.39637065 2.4477229 0.63262743 0
-0.26999727 1.5438714 -0.055954725 0
-0.42970675 2.4571064 0.44986135 0
-0.42983174 2.4578209 0.63658577 0
-0.28957158 1.5411824 -0.055984981 0
-0.46132991 2.4553292 0.45056385 0
-0.46155241 2.4565134 0.63770187 0
-0.3099606 1.5424234 -0.056167394 0
-0.52402204 2.6076343 0.094957076 0
-0.52179962 2.5965748 0.28463089 0
-0.49655893 2.4709723 0.4545458 0
-0.4936485 2.4564896 0.63925868 0
-0.32953092 1.5392107 -0.056197055 0
-0.54421711 2.5419915 0.092808887 0
-0.54491508 2.5452516 0.27973494 0
-0.52633917 2.4584851 0.45343199 0
-0.52863044 2.4691875 0.64424431 0
-0.34572202 1.5210223 -0.055687517 0
-0.57691652 2.5381746 0.092927396 0
-0.57453173 2.5276828 0.27857709 0
-0.56037605 2.465404 0.45597339 0
-0.56171274 2.4712851 0.64658582 0
-0.36659697 1.5238264 -0.055954754 0
-0.60936034 2.5329161 0.093008429 0
-0.60838687 2.5288696 0.27953005 0
-0.59495676 2.4730449 0.45873576 0
-0.59486943 2.4726822 0.6488598 0
-0.38623831 1.5209941 -0.056024902 0
-0.63952816 2.5184412 0.092765272 0
-0.64347291 2.5339756 0.2809678 0
-0.62839055 2.4745817 0.46045214 0
-0.62678564 2.4682615 0.64971936 0
-0.40462941 1.5132822 -0.055924084 0
-0.68521714 2.5626583 0.094704293 0
-0.6838423 2.5575166 0.28451025 0
-0.66161752 2.4743977 0.46193144 0
-0.66244936 2.4775085 0.65429735 0
-0.4230791 1.5060302 -0.055848539 0
-0.69168824 2.4621954 0.46124294 0
-0.69489402 2.4736071 0.65552592 0
-0.44191131 1.5002545 -0.055836283 0
-0.72634625 2.465889 0.46361148 0
-0.72735447 2.469312 0.65676284 0
-0.46396872 1.504959 -0.056224357 0
-0.75896788 2.4618373 0.46460971 0
-0.75871849 2.4610286 0.65704864 0
-0.48015368 1.4905307 -0.055906776 0
-0.79240721 2.4598527 0.46608135 0
-0.79224718 2.4593558 0.6592133 0
-0.50005835 1.4878634 -0.056038469 0
-0.82287383 2.4483621 0.4658305 0
-0.82565719 2.4566436 0.66122067 0
-0.51642662 1.4748064 -0.055787198 0
-0.85743475 2.4486542 0.46790326 0
-0.85792029 2.4500408 0.66229868 0
-0.5352475 1.468989 -0.055817671 0
-0.88754773 2.4358783 0.46756053 0
-0.88708311 2.4346032 0.66109276 0
-0.55450946 1.4642668 -0.055899125 0
-0.92145145 2.4332333 0.46924278 0
-0.9185617 2.4256024 0.66173702 0
-0.57536525 1.463433 -0.056139428 0
-0.9520061 2.4214134 0.46923801 0
-0.9555459 2.4304171 0.66628033 0
-0.59242749 1.452839 -0.056014758 0
-0.98486531 2.4152334 0.47040638 0
-0.9818511 2.4078417 0.66342825 0
-0.61210364 1.448649 -0.056145936 0
-1.0196893 2.4132712 0.47248754 0
-1.0162857 2.4052155 0.66617787 0
-0.62642723 1.4319848 -0.055801373 0
-1.0476683 2.394923 0.47144076 0
-1.0436229 2.3856752 0.66435289 0
-0.64669347 1.4290341 -0.055999279 0
-1.0699925 2.3644214 0.46805167 0
-1.0718031 2.368422 0.6632542 0
-0.65998828 1.4108438 -0.055607725 0
-1.1053321 2.3628466 0.47045791 0
-1.1007137 2.3529739 0.66275698 0
-0.6734637 1.3936551 -0.055260103 0
-1.1310365 2.340549 0.46881685 0
-1.1293604 2.3370807 0.66223353 0
-0.70385051 1.4109085 -0.056291189 0
-1.158337 2.3219523 0.46797645 0
-1.1651012 2.3355117 0.66589338 0
-0.7132616 1.3858116 -0.055643823 0
-1.1861719 2.3046391 0.46746039 0
-1.1920902 2.316138 0.66459686 0
-0.73265857 1.3804977 -0.055796474 0
-1.2139578 2.2873766 0.46702251 0
-1.2160786 2.2913728 0.66183209 0
-0.75875109 1.3871943 -0.056448821 0
-1.2423842 2.2714014 0.46691796 0
-1.2373185 2.26214 0.65783674 0
-0.77444214 1.3744864 -0.056324076 0
-1.0517046 1.8665744 0.076488987 0
-1.2678678 2.2502224 0.46580929 0
-1.2724583 2.2583697 0.66134745 0
-0.78412586 1.3515929 -0.055786125 0
-1.0473372 1.8052886 0.074512124 0
-1.293129 2.2289586 0.46474141 0
-1.297518 2.2365239 0.65968239 0
-0.79987603 1.3395932 -0.055702157 0
-1.0495267 1.7576959 0.073087454 0
-1.3200139 2.2106946 0.46436223 0
-1.319922 2.2105408 0.65686882 0
-0.82360077 1.3406818 -0.056174207 0
-1.04899 1.7075771 0.071547024 0
-1.3468889 2.1925058 0.4640674 0
-1.345695 2.1905625 0.65591556 0
-0.83876199 1.327587 -0.05606363 0
-1.0501069 1.6621025 0.070190124 0
-1.3737288 2.1743288 0.46384466 0
-1.3707831 2.1696665 0.65477532 0
-0.85459673 1.3156666 -0.056010239 0
-1.0509753 1.6179948 0.068880886 0
-1.3904624 2.1406412 0.46035677 0
-1.3937517 2.145705 0.65278876 0
-0.87145925 1.3053477 -0.056033671 0
-1.0533242 1.5777608 0.067727342 0
-1.4070696 2.1076317 0.45703205 0
-1.4151459 2.119729 0.65025586 0
-0.88407636 1.2888051 -0.055797011 0
-1.0539083 1.536386 0.066515677 0
-1.4295783 2.0840371 0.4557831 0
-1.4347627 2.0915949 0.6471163 0
-0.90104872 1.2787278 -0.055847518 0
-1.0523918 1.493507 0.065227844 0
-1.4536257 2.0629201 0.45513189 0
-1.4537941 2.0631592 0.64393133 0
-0.91930413 1.2703573 -0.055983081 0
-1.0523486 1.4542073 0.064085126 0
-1.0498499 1.4507543 0.19245327 0
-1.4700661 2.0314379 0.45223433 0
-1.4745841 2.0376811 0.64172387 0
-0.51193321 0.70742428 0.43691039 0
-0.93754023 1.2617953 -0.056121577 0
-1.0508231 1.4142579 0.062902741 0
-1.0512894 1.4148854 0.18943611 0
-1.4975873 2.0155387 0.45285711 0
-1.4964652 2.0140285 0.64015865 0
-0.51447672 0.6924122 0.4316057 0
-0.95520186 1.2523139 -0.056230389 0
-1.0544436 1.3824244 0.062072504 0
-1.0469803 1.3726395 0.18553033 0
-1.5085801 1.9778184 0.4486146 0
-1.5154769 1.9868604 0.63753837 0
-0.52303237 0.68571961 0.43150514 0
-0.96575332 1.2336205 -0.055932641 0
-1.0433259 1.3327091 0.060425341 0
-1.0505879 1.3419853 0.1831606 0
-1.5305716 1.9551002 0.44779772 0
-1.5316728 1.956507 0.63393718 0
-0.54026788 0.69011986 0.43852037 0
-0.98509777 1.2262026 -0.056154288 0
-1.0565634 1.3151596 0.060228094 0
-1.0510442 1.3082896 0.18035372 0
-1.5485258 1.9275309 0.44591403 0
-1.5479075 1.9267613 0.63056469 0
-0.55968243 0.69666594 0.44712275 0
-0.99519658 1.2073177 -0.05585891 0
-1.0438738 1.2663702 0.05859109 0
-1.046361 1.2693875 0.17679323 0
-1.5615848 1.8944287 0.44277009 0
-1.5637522 1.8970581 0.62723833 0
-0.57009649 0.69160968 0.44844943 0
-1.0162342 1.2016855 -0.056185938 0
-1.0502467 1.241905 0.058066435 0
-1.0523624 1.2444068 0.17514579 0
-1.5784612 1.8665128 0.44085607 0
-1.579648 1.8679161 0.62413019 0
-0.58202493 0.68823802 0.45097962 0
-1.0306118 1.1880195 -0.0561493 0
-1.0463781 1.2061939 0.057008274 0
-1.0561056 1.217407 0.17320366 0
-1.5895716 1.8323505 0.43748021 0
-1.5933001 1.8366485 0.62033725 0
-1.0502975 1.1803529 -0.05640756 0
-1.0684701 1.2007759 0.057383545 0
-1.0589091 1.1900308 0.17119229 0
-1.6036234 1.8021955 0.43506733 0
-1.5959163 1.793534 0.6125142 0
-1.0592297 1.1606286 -0.056097917 0
-1.0912815 1.1957487 0.05779542 0
-1.0866141 1.1906345 0.17323373 0
-1.6143764 1.7689189 0.43190727 0
-1.6168395 1.7716177 0.61193395 0
-1.0774887 1.1511837 -0.056292746 0
-0.93920469 1.0034418 0.049068186 0
-1.1253929 1.2023644 0.17698824 0
-1.6221702 1.733119 0.42811975 0
-1.6269084 1.7381814 0.60741276 0
-1.0858458 1.1312205 -0.055980723 0
-0.94412953 0.98358232 0.04867455 0
-1.1477031 1.1956626 0.17811497 0
-1.63332 1.7015722 0.42537379 0
-1.6333114 1.7015634 0.60175598 0
-1.1061019 1.1236542 -0.0562911 0
-0.94776177 0.96280146 0.048232943 0
-1.1821105 1.200869 0.18109363 0
-1.6409503 1.6669899 0.42186075 0
-1.6403548 1.6663849 0.59657276 0
-1.1184522 1.1079438 -0.056205153 0
-0.95466083 0.94569141 0.04797421 0
-1.2017931 1.1905018 0.18179795 0
-1.6547327 1.6391859 0.42006421 0
-1.6536812 1.6381441 0.59387028 0
-1.1265291 1.0881854 -0.055918016 0
-0.97857291 0.94526523 0.048573848 0
-1.2364213 1.1943374 0.18474656 0
-1.6612371 1.6046938 0.41655281 0
-1.647664 1.5915825 0.58446568 0
-1.1401597 1.0739322 -0.055918921 0
-0.99676436 0.93886614 0.04888612 0
-1.275212 1.2011398 0.18826777 0
-1.6578475 1.5615494 0.41073975 0
-1.6541001 1.5580196 0.5797435 0
-1.1566378 1.0622889 -0.056066588 0
-1.3071665 1.2005386 0.063363269 0
-1.2973715 1.1915427 0.18930915 0
-1.6603036 1.5248698 0.40655875 0
-1.6583768 1.5231003 0.57447481 0
-0.66518337 0.61092323 0.37394029 0
-1.1688975 1.0467241 -0.056017503 0
-1.3293736 1.1904272 0.063708059 0
-1.3284432 1.189594 0.19164206 0
-1.6675078 1.4932195 0.40368655 0
-1.6537943 1.4809394 0.56638259 0
-0.66473502 0.59525681 0.3694452 0
-1.1870799 1.0363719 -0.056258995 0
-1.3768594 1.2020577 0.065253176 0
-1.6682751 1.4564762 0.39940068 0
-1.6694084 1.4574655 0.56539983 0
-0.66785634 0.58306736 0.36707029 0
-1.1928896 1.0152615 -0.055924013 0
-1.4108855 1.2007967 0.066143908 0
-1.6757098 1.4261873 0.39684966 0
-1.6698897 1.4212337 0.55945724 0
-0.66150767 0.56300545 0.35965583 0
-0.68140316 0.57993841 0.44769651 0
-1.2028302 0.99788123 -0.05579653 0
-1.4422779 1.1965297 0.066903956 0
-1.6861703 1.3988657 0.39512402 0
-1.6776822 1.3918238 0.55615211 0
-0.67813003 0.56258422 0.36481273 0
-1.2156668 0.9829542 -0.055813402 0
-1.4792826 1.1961066 0.067916468 0
-1.6819525 1.3599797 0.39009172 0
-1.6832559 1.3610337 0.55227464 0
-0.68137366 0.55093968 0.36279678 0
-1.2353266 0.97338438 -0.056148823 0
-1.5179068 1.1960454 0.068992823 0
-1.6834754 1.3265063 0.38654023 0
-1.6755351 1.3202497 0.54424369 0
-0.70084208 0.55223346 0.36943084 0
-1.2521737 0.96135283 -0.056359868 0
-1.5613245 1.1987025 0.070274629 0
-1.6851521 1.2937708 0.38315418 0
-1.6783869 1.2885768 0.53985679 0
-0.68452132 0.52553934 0.3573111 0
-0.67612743 0.51909494 0.42649648 0
-1.2490792 0.93421674 -0.055686686 0
-1.5924095 1.1910018 0.070993103 0
-1.6810881 1.2573267 0.3786003 0
-1.6763582 1.2537891 0.53408366 0
-0.70305562 0.52583241 0.36350065 0
-0.71110791 0.53185487 0.44430211 0
-1.2641404 0.92089009 -0.055836745 0
-1.6444267 1.1979177 0.072633885 0
-1.6808677 1.2244639 0.37504846 0
-1.6632864 1.2116566 0.52501643 0
-1.6681751 1.2152178 0.68663776 0
-0.69907409 0.50925547 0.35809818 0
-0.70986223 0.51711434 0.43942052 0
-1.2822874 0.90961879 -0.056127913 0
-1.6957555 1.2029215 0.074226119 0
-1.6803004 1.1919581 0.37154341 0
-1.6761932 1.1890446 0.52432275 0
-1.6753664 1.1884581 0.68338376 0
-0.71533394 0.50743788 0.36312529 0
-0.71514755 0.50730568 0.43870309 0
-1.2829905 0.88604718 -0.055665903 0
-1.74037 1.2019185 0.075510517 0
-1.668524 1.152301 0.36570206 0
-1.6733768 1.1556523 0.5188486 0
-1.6723357 1.1549333 0.67616177 0
-0.7201373 0.49733466 0.43788758 0
-1.3038371 0.8764044 -0.056087121 0
-1.709008 1.1487495 0.073516347 0
-1.7085634 1.1484506 0.22124396 0
-1.6891912 1.1354291 0.36706901 0
-1.6753944 1.1261554 0.5150364 0
-1.6667467 1.1203426 0.668145 0
-0.72156602 0.48501739 0.43500814 0
-1.3187797 0.86254144 -0.056258228 0
-1.7012759 1.1127113 0.072575256 0
-1.7027093 1.1136487 0.21865268 0
-1.6845437 1.1017677 0.3630155 0
-1.6774641 1.0971372 0.51138508 0
-1.6739945 1.0948679 0.66547102 0
-0.72095948 0.47154003 0.43102866 0
-1.3234584 0.84200162 -0.056001078 0
-1.70643 1.0856532 0.072206207 0
-1.7080554 1.0866872 0.21756475 0
-1.6864257 1.0729262 0.36048102 0
-1.6753311 1.0658677 0.50660306 0
-1.673901 1.0649577 0.66005045 0
-0.73082918 0.46496311 0.43339455 0
-1.3275193 0.82128924 -0.055730887 0
-1.7258286 1.0677091 0.072452396 0
-1.726277 1.0679865 0.21815547 0
-1.6744801 1.0359416 0.35511103 0
-1.6745855 1.0360068 0.50239289 0
-1.6721966 1.0345289 0.65418971 0
-1.3541034 0.81434071 -0.056411959 0
-1.7402308 1.0465528 0.072498024 0
-1.7347444 1.0432534 0.21754813 0
-1.6990794 1.0218049 0.35757083 0
-1.676394 1.0081621 0.49908724 0
-1.6721396 1.0056037 0.64916211 0
-1.3544916 0.79152405 -0.056008458 0
-1.7701862 1.0344434 0.073197506 0
-1.7669241 1.0325372 0.21993572 0
-1.6820587 0.98294437 0.35135615 0
-1.6754094 0.9790588 0.49508452 0
-1.6782761 0.98073399 0.64669877 0
-1.3618008 0.77295941 -0.055903792 0
-1.8068298 1.0255584 0.074172847 0
-1.8136308 1.0294186 0.22411819 0
-1.681385 0.95435572 0.34867752 0
-1.6709192 0.94841528 0.4901897 0
-1.6709361 0.94842494 0.63921773 0
-1.3768828 0.7587589 -0.056126259 0
-1.6756641 0.92340827 0.34505248 0
-1.6749363 0.92300725 0.48791984 0
-1.671913 0.92134124 0.63510287 0
-1.3847185 0.74050182 -0.056061126 0
-1.6766505 0.89661735 0.34290349 0
-1.6711974 0.8937012 0.48351404 0
-1.6756086 0.89606017 0.63217038 0
-1.3979111 0.72507137 -0.056221131 0
-1.6897775 0.87645721 0.34330383 0
-1.6790152 0.870875 0.4825649 0
-1.6843156 0.87362421 0.63125491 0
-1.4038109 0.70584428 -0.056096498 0
-1.7035438 0.85655171 0.34388208 0
-1.6645389 0.83693987 0.47533759 0
-1.6826921 0.84606737 0.6266039 0
-1.4030654 0.68347442 -0.055718377 0
-1.7122247 0.83407497 0.34348708 0
-1.6711973 0.8140893 0.47427401 0
-1.6780406 0.81742293 0.62098956 0
-1.4078279 0.66399372 -0.055571061 0
-1.7235112 0.81288385 0.34367055 0
-1.6644272 0.78501725 0.46951014 0
-1.6740142 0.78953892 0.61577147 0
