# .PCD v0.7 - Point Cloud Data file format
VERSION 0.7
FIELDS x y z intensity
SIZE 4 4 4 4
TYPE F F F F
COUNT 1 1 1 1
WIDTH 1353
HEIGHT 1
VIEWPOINT 0 0 0 1 0 0 0
POINTS 1353
DATA ascii
-0.94387877 -0.21767063 0.10410041 0
-0.9513365 -0.21939048 0.1760755 0
-1.676237 -0.3865619 0.43888643 0
-1.6685612 -0.38479176 0.5696907 0
-1.5281335 -0.37273228 -0.056155775 0
-0.95069617 -0.23188755 0.034936134 0
-0.94775623 -0.23117048 0.10484079 0
-0.9372853 -0.22861648 0.1739939 0
-1.6822712 -0.41032854 0.4417842 0
-1.6694809 -0.4072088 0.57171005 0
-1.5192119 -0.39088696 -0.056004357 0
-0.98139459 -0.25250882 0.036178216 0
-1.0025731 -0.25795794 0.11125513 0
-0.98974991 -0.25465858 0.18431388 0
-1.6680232 -0.42917553 0.4394269 0
-1.6720746 -0.43021792 0.57440788 0
-1.5011607 -0.40646234 -0.055523198 0
-1.0546051 -0.28555056 0.039006516 0
-1.0479341 -0.28374425 0.11667605 0
-1.6824751 -0.45555598 0.31435835 0
-1.6705337 -0.45232263 0.44155371 0
-1.662146 -0.45005155 0.57289857 0
-1.503294 -0.42742708 -0.05579675 0
-1.1269355 -0.32041818 0.041827705 0
-1.1249871 -0.31986418 0.12569356 0
-1.6628234 -0.47278559 0.31177422 0
-1.6631644 -0.47288254 0.44114485 0
-1.6660454 -0.47370169 0.57625288 0
-1.5066515 -0.44896117 -0.056126751 0
-1.2039019 -0.35874602 0.044848528 0
-1.2022576 -0.35825604 0.13482025 0
-1.6638414 -0.4958016 0.31311086 0
-1.6886249 -0.5031867 0.44954312 0
-1.6648027 -0.49608806 0.5779379 0
-1.4894602 -0.46433634 -0.055699732 0
-1.3114102 -0.4088296 0.04904139 0
-1.296189 -0.40408441 0.14591268 0
-1.6800916 -0.52376533 0.3173849 0
-1.6771655 -0.52285314 0.44820964 0
-1.6698759 -0.52058059 0.58192861 0
-1.4977611 -0.48769876 -0.056235351 0
-1.4158587 -0.46102983 0.05316022 0
-1.4197435 -0.46229479 0.16046387 0
-1.6823633 -0.54780865 0.31909186 0
-1.6668065 -0.54274309 0.44723225 0
-1.6782163 -0.5464583 0.58718652 0
-1.4842749 -0.50406444 -0.055962872 0
-1.561295 -0.53022081 0.058866829 0
-1.5601839 -0.52984339 0.17707692 0
-1.6760138 -0.56917965 0.31922165 0
-1.6721758 -0.56787622 0.45055586 0
-1.4653231 -0.51829648 -0.055489991 0
-1.7248894 -0.61010712 0.19662695 0
-1.6767017 -0.59306276 0.32074961 0
-1.6718656 -0.59135222 0.4524428 0
-1.4783807 -0.5439539 -0.056239393 0
-1.6836799 -0.61949146 0.19280326 0
-1.6685852 -0.61393756 0.32065043 0
-1.6717569 -0.6151045 0.45447344 0
-1.4595233 -0.55797935 -0.0557849 0
-1.6903127 -0.64621067 0.19447921 0
-1.6641977 -0.63622689 0.3213214 0
-1.6724664 -0.63938802 0.45681891 0
-1.4539243 -0.57692426 -0.055844139 0
-1.6775866 -0.66567457 0.19396405 0
-1.6772405 -0.66553724 0.32543197 0
-1.6675888 -0.6617074 0.45772627 0
-1.4434216 -0.59390014 -0.055723567 0
-1.6854836 -0.69349724 0.19587126 0
-1.6662037 -0.68556452 0.32493979 0
-1.6758009 -0.68951333 0.46232691 0
-1.4357485 -0.61199307 -0.05572043 0
-1.6888772 -0.71989012 0.19730346 0
-1.6586171 -0.70699161 0.32517064 0
-1.6681104 -0.71103817 0.46263868 0
-1.4379548 -0.63444591 -0.056111656 0
-1.6876702 -0.74462384 0.19824213 0
-1.6790439 -0.74081779 0.33097792 0
-1.6748093 -0.73894942 0.46704021 0
-1.4205345 -0.64824903 -0.055745993 0
-1.6780062 -0.76574415 0.19822387 0
-1.6775578 -0.76553953 0.33255881 0
-1.6721163 -0.76305634 0.46893153 0
-1.4174472 -0.66853058 -0.055950765 0
-1.676688 -0.79079998 0.1992287 0
-1.6764995 -0.7907111 0.33429638 0
-1.6765965 -0.79075688 0.47294295 0
-1.4109334 -0.68730712 -0.056030829 0
-1.9243208 -0.93739319 0.076418415 0
-1.6733961 -0.81516039 0.20004137 0
-1.6693344 -0.81318188 0.33488292 0
-1.6730189 -0.81497663 0.47479096 0
-1.4026073 -0.70523912 -0.056048404 0
-1.8716173 -0.94106007 0.07479012 0
-1.6709782 -0.8401776 0.20100111 0
-1.6729865 -0.84118736 0.33771372 0
-1.6734276 -0.84140915 0.47787592 0
-1.3938497 -0.72296482 -0.056057792 0
-1.8290405 -0.94869047 0.073560275 0
-1.6678665 -0.8650924 0.20192116 0
-1.6790067 -0.87087059 0.34111556 0
-1.3847122 -0.74049836 -0.056060866 0
-1.7927951 -0.9587276 0.072582334 0
-1.6780853 -0.89738464 0.20451014 0
-1.6797495 -0.8982746 0.3435373 0
-1.3758583 -0.75819427 -0.056084495 0
-1.7336264 -0.95534956 0.070668295 0
-1.6721359 -0.92146403 0.20518291 0
-1.6698036 -0.92017877 0.3438457 0
-1.3662714 -0.77549696 -0.056087319 0
-1.6906008 -0.95958662 0.069401488 0
-1.6744726 -0.95043224 0.2069218 0
-1.6737142 -0.95000172 0.34708679 0
-1.3547231 -0.79165936 -0.056018036 0
-1.6801119 -0.98180676 0.069472916 0
-1.6762053 -0.97952384 0.20864359 0
-1.6791648 -0.98125327 0.35075164 0
-1.3382009 -0.80477715 -0.055749457 0
-1.6812506 -1.0110829 0.070040911 0
-1.6748285 -1.0072207 0.21003428 0
-1.6706809 -1.0047264 0.35159439 0
-1.3362615 -0.82669771 -0.056097891 0
-1.6809196 -1.0399255 0.070567064 0
-1.6739432 -1.0356094 0.21154186 0
-1.6737601 -1.0354961 0.35495833 0
-1.3212415 -0.84059119 -0.055907268 0
-1.6834314 -1.0710212 0.071233042 0
-1.677619 -1.0673232 0.2136879 0
-1.6708138 -1.0629936 0.35714388 0
-1.3155738 -0.86044461 -0.056121465 0
-1.6809443 -1.0994134 0.071707919 0
-1.6740577 -1.0949093 0.21497342 0
-1.679267 -1.0983164 0.3618784 0
-1.2959045 -0.87107241 -0.055745889 0
-1.6696514 -1.122295 0.071823344 0
-1.6775023 -1.1275722 0.21722183 0
-1.6729271 -1.1244969 0.36353475 0
-1.2975436 -0.89609778 -0.056297332 0
-1.6709304 -1.1539627 0.072497696 0
-1.6685745 -1.1523356 0.21792744 0
-1.6714023 -1.1542886 0.36633292 0
-1.2808467 -0.90859681 -0.056064855 0
-1.6738952 -1.1874145 0.073269263 0
-1.6747693 -1.1880345 0.22067294 0
-2.030889 -1.4406558 0.44906461 0
-1.272321 -0.92684937 -0.056198075 0
-1.6740732 -1.2195144 0.073943369 0
-1.6749501 -1.2201532 0.22270356 0
-1.9974073 -1.455054 0.44567728 0
-1.2526037 -0.93685275 -0.055843815 0
-1.6731098 -1.2513595 0.074590899 0
-1.6764293 -1.2538422 0.22498168 0
-1.2452775 -0.95605832 -0.056049477 0
-1.6718088 -1.2835265 0.075247489 0
-1.669119 -1.2814615 0.22614825 0
-1.2291846 -0.96854472 -0.055869654 0
-1.5854088 -1.2492341 0.072060972 0
-1.5882061 -1.2514381 0.21730325 0
-1.5902125 -1.2530192 0.36512628 0
-1.2171658 -0.98416626 -0.055882223 0
-1.5753613 -1.273793 0.072327606 0
-1.5680158 -1.2678537 0.21670796 0
-1.5661047 -1.2663084 0.36322337 0
-1.2045681 -0.99932313 -0.055877153 0
-1.6711006 -1.3863636 0.077518523 0
-1.6825781 -1.3958855 0.23495172 0
-1.7679709 -1.4667283 0.41429251 0
-1.1917121 -1.0142595 -0.055868812 0
-1.6726341 -1.4235696 0.078414984 0
-1.6703198 -1.4215997 0.23572098 0
-1.7445449 -1.4847723 0.4131515 0
-1.4607983 -1.2432772 0.48940611 0
-1.1730577 -1.02413 -0.055594444 0
-1.7211101 -1.5026034 0.41204986 0
-1.427246 -1.2460473 0.4833836 0
-1.1626068 -1.041091 -0.055716038 0
-1.6355764 -1.4646257 0.078382328 0
-1.6207434 -1.4513429 0.23380947 0
-1.6311117 -1.4606277 0.39487544 0
-1.399359 -1.2530978 0.47924495 0
-1.1564831 -1.0621468 -0.056059085 0
-1.3578579 -1.2470952 0.47037271 0
-1.1402918 -1.0740566 -0.055925395 0
-1.3215121 -1.2447505 0.46317515 0
-1.1355062 -1.0968571 -0.056363616 0
-1.284989 -1.2412519 0.45581627 0
-1.1107587 -1.1003226 -0.055818535 0
-1.26757 -1.2556608 0.45520997 0
-1.1011662 -1.1186402 -0.056039914 0
-1.2518911 -1.271757 0.45529431 0
-1.0817627 -1.1269668 -0.055770222 0
-1.0659332 -1.1388381 -0.055689041 0
-1.0511749 -1.1518025 -0.055671327 0
-1.0445479 -1.1738914 -0.056098774 0
-1.0235389 -1.1798663 -0.055763956 0
-1.2202601 -1.4066333 0.066481628 0
-1.016325 -1.201793 -0.056190956 0
-1.0003606 -1.2135824 -0.056148764 0
-1.144809 -1.3888193 0.064256437 0
-0.98419118 -1.2250742 -0.056102607 0
-1.1032422 -1.3732631 0.062888965 0
-0.96775234 -1.236174 -0.056048419 0
-1.0977962 -1.4022876 0.063580044 0
-0.94838369 -1.2433748 -0.055829018 0
-1.0735074 -1.4074179 0.063194744 0
-0.93962145 -1.2645963 -0.056246158 0
-0.91846842 -1.2692025 -0.055932187 0
-1.0657578 -1.472737 0.064901702 0
-0.89688742 -1.2728223 -0.055589598 0
-1.0605067 -1.5050234 0.06573081 0
-0.88400662 -1.2887034 -0.055792611 0
-1.0397674 -1.5157713 0.065623194 0
-0.87407511 -1.309266 -0.056201868 0
-1.1201581 -1.6778705 0.072024673 0
-1.0717775 -1.6054018 0.20744698 0
-0.85475308 -1.3159072 -0.056020487 0
-1.0879788 -1.6749623 0.071306087 0
-0.80834591 -1.2444626 0.49370182 0
-0.83283818 -1.3182108 -0.05566768 0
-0.78690845 -1.2455136 0.49014887 0
-0.82442611 -1.3420254 -0.0562305 0
-0.76799703 -1.2501684 0.48813623 0
-0.80208939 -1.3433 -0.055856287 0
-0.74527079 -1.248143 0.48364276 0
-0.7850157 -1.3531266 -0.055849433 0
-0.72574306 -1.2509589 0.48115459 0
-0.77203453 -1.3702135 -0.056148972 0
-0.71097273 -1.2618405 0.48185825 0
-0.75307709 -1.3768207 -0.056026693 0
-0.68894047 -1.2595624 0.47763765 0
-0.73255718 -1.3803067 -0.055788752 0
-0.6541549 -1.2325788 0.46424478 0
-0.72237593 -1.40352 -0.056354862 0
-0.63993299 -1.2433398 0.46522591 0
-0.70157063 -1.4063383 -0.056108855 0
-0.62398583 -1.2508152 0.46504611 0
-0.68426472 -1.4160066 -0.056146368 0
-0.6011278 -1.2439643 0.45964825 0
-0.66287184 -1.417008 -0.055850681 0
-0.58366197 -1.2476826 0.45827016 0
-0.64969456 -1.4356657 -0.056259152 0
-0.56371135 -1.2456639 0.45488542 0
-0.6278078 -1.4351406 -0.055924352 0
-0.5492841 -1.255639 0.45596609 0
-0.60813397 -1.4392542 -0.055781815 0
-0.53408593 -1.2640066 0.45652631 0
-0.59213877 -1.4521309 -0.055987462 0
-0.50783122 -1.2453794 0.34313715 0
-0.51799428 -1.2703028 0.45640832 0
-0.57129967 -1.4530922 -0.055742741 0
-0.48671237 -1.2379458 0.33937341 0
-0.501917 -1.2766185 0.4563705 0
-0.55432689 -1.4637847 -0.055880718 0
-0.46409518 -1.2255141 0.14083274 0
-0.46469921 -1.2271092 0.23664486 0
-0.44456789 -1.1739494 0.3202692 0
-0.48142633 -1.2712797 0.45225894 0
-0.53654766 -1.4725573 -0.055953253 0
-0.44112885 -1.21068 0.13847871 0
-0.44279882 -1.2152631 0.23326661 0
-0.42900705 -1.1774117 0.31971464 0
-0.51954162 -1.4837021 -0.056123693 0
-0.42424664 -1.2115595 0.13795733 0
-0.42186895 -1.2047695 0.23021445 0
-0.41031286 -1.1717676 0.31675398 0
-0.43276873 -1.2358969 0.43565536 0
-0.49804375 -1.4818692 -0.055812705 0
-0.41036922 -1.2210042 0.1384334 0
-0.41250813 -1.2273682 0.23352167 0
-0.40749237 -1.2124445 0.32633686 0
-0.41511151 -1.2351143 0.43350255 0
-0.4793584 -1.488062 -0.055814181 0
-0.39028028 -1.2115387 0.1367922 0
-0.39679101 -1.2317498 0.23338617 0
-0.41525969 -1.2890818 0.34552944 0
-0.41480076 -1.2876571 0.45007515 0
-0.46635914 -1.5127127 -0.056514032 0
-0.40778881 -1.3227302 0.35314426 0
-0.44461319 -1.5094272 -0.056177672 0
-0.36354029 -1.2341909 0.32825774 0
-0.42296934 -1.5056396 -0.055834047 0
-0.34846178 -1.2404157 0.32872024 0
-0.40321076 -1.5079767 -0.055728015 0
-0.32695657 -1.2227919 0.32293311 0
-0.38750204 -1.5259706 -0.056208208 0
-0.31460422 -1.2389014 0.32611543 0
-0.36665204 -1.5240554 -0.055963162 0
-0.34606084 -1.5225129 -0.055742092 0
-0.32812375 -1.5326378 -0.055957079 0
-0.30922166 -1.5387462 -0.056033488 0
-0.2879737 -1.532678 -0.055676054 0
-0.49713373 -2.6458874 0.096114486 0
-0.2691057 -1.5387733 -0.055769954 0
-0.43286371 -2.4751582 0.089707464 0
-0.24977295 -1.5424325 -0.055784158 0
-0.39961764 -2.4677742 0.089250393 0
-0.2298824 -1.5424381 -0.055675261 0
-0.36483234 -2.4479096 0.088358805 0
-0.21214259 -1.5576898 -0.0561249 0
-0.33622345 -2.4687726 0.088952005 0
-0.19199571 -1.5560485 -0.055974215 0
-0.30394942 -2.4633884 0.088613078 0
-0.17240638 -1.558509 -0.055980194 0
-0.27254292 -2.4637177 0.08849445 0
-0.15341614 -1.567165 -0.056217261 0
-0.24174805 -2.4694862 0.088585287 0
-0.13311666 -1.5624603 -0.055983927 0
-0.21076971 -2.4739151 0.088641919 0
-0.11323517 -1.5612869 -0.055886365 0
-0.17753333 -2.4478302 0.087620243 0
-0.093638681 -1.5637743 -0.055928763 0
-0.14771523 -2.4668577 0.088227749 0
-0.073928468 -1.5645548 -0.055918947 0
-0.11629526 -2.4611671 0.087964877 0
-0.054227848 -1.5655024 -0.055923976 0
-0.085284926 -2.4620886 0.087952457 0
-0.034565326 -1.5684819 -0.056010421 0
-0.054267373 -2.462508 0.087936059 0
-0.014701451 -1.5569265 -0.055586763 0
0.0049028331 -1.556839 -0.055581436 0
0.024642322 -1.5653815 -0.055893064 0
0.044442263 -1.5681881 -0.056008812 0
0.064100944 -1.5654726 -0.055936225 0
0.084003441 -1.5682075 -0.056067299 0
0.10380123 -1.567914 -0.056099087 0
0.12402967 -1.5727562 -0.056323756 0
0.14333889 -1.5657843 -0.056134269 0
0.16151755 -1.5492272 -0.055609189 0
0.18283893 -1.5626904 -0.056170635 0
0.20170841 -1.5541605 -0.055950895 0
0.222213 -1.5581717 -0.056191582 0
0.24132408 -1.5520952 -0.056077588 0
0.26074967 -1.5483513 -0.056056507 0
0.2802664 -1.5451759 -0.05606487 0
0.29842669 -1.534976 -0.055826705 0
0.31952354 -1.5397385 -0.056141797 0
0.33784643 -1.5308855 -0.055969678 0
0.3572467 -1.5271572 -0.055993401 0
0.37474597 -1.5156575 -0.055740364 0
0.39149624 -1.5019796 -0.055414245 0
0.41434789 -1.511416 -0.055950452 0
0.43170318 -1.5003709 -0.055738397 0
0.45217901 -1.5001862 -0.055938628 0
0.47137824 -1.4954711 -0.055979706 0
0.49107414 -1.4921627 -0.056082889 0
0.50900239 -1.4834685 -0.055992581 0
0.53051496 -1.4849874 -0.056297593 0
0.5493136 -1.4785746 -0.056312244 0
0.56481725 -1.4635861 -0.056007832 0
0.4926348 -1.2765428 0.45522612 0
0.58510298 -1.4611084 -0.056190513 0
0.50834 -1.2694174 0.45493177 0
0.60144275 -1.4487814 -0.056003261 0
0.52625841 -1.267674 0.45664564 0
0.6226871 -1.4481872 -0.056278929 0
0.5409494 -1.2580893 0.45561066 0
0.63700759 -1.4315472 -0.055939559 0
0.5538007 -1.2445564 0.4531993 0
0.65016651 -1.4129479 -0.055528283 0
0.57052886 -1.2398785 0.45407599 0
0.67345411 -1.4163182 -0.055989567 0
0.59269184 -1.2464699 0.45918676 0
0.69325662 -1.4118457 -0.056153409 0
0.61108965 -1.2445092 0.46126264 0
0.70881629 -1.3987381 -0.055982638 0
0.626041 -1.235394 0.46076947 0
0.72489327 -1.3868734 -0.055868678 0
0.64936864 -1.242379 0.46638751 0
0.74709445 -1.3865376 -0.056229662 0
0.66366613 -1.2317023 0.46547988 0
0.76120353 -1.3710949 -0.055987682 0
0.69662851 -1.2547811 0.051238094 0
0.69078338 -1.2442528 0.15294459 0
0.69948643 -1.2599288 0.25989631 0
0.70153958 -1.2636271 0.36874399 0
0.69935262 -1.2596878 0.4793461 0
0.77456987 -1.354691 -0.055711702 0
0.70979357 -1.2413999 0.0510526 0
0.71272838 -1.2465327 0.1543158 0
0.70992368 -1.2416275 0.25794467 0
0.70834601 -1.2388681 0.36409301 0
0.71172005 -1.2447692 0.47704166 0
0.79543751 -1.3514088 -0.055984206 0
0.73182714 -1.243338 0.051507205 0
0.73247862 -1.2444448 0.15518686 0
0.73056102 -1.2411869 0.25974372 0
0.73185343 -1.2433827 0.368099 0
0.73306245 -1.2454368 0.48079699 0
0.81649399 -1.3480614 -0.056267001 0
0.82937419 -1.3312074 -0.055994999 0
0.84336251 -1.316433 -0.055815812 0
0.85648006 -1.3005604 -0.055595692 0
0.88402379 -1.306276 -0.056311414 0
0.89574414 -1.2883431 -0.056020152 0
0.91017783 -1.2745579 -0.055914667 0
0.92452067 -1.2607694 -0.055816066 0
0.94345659 -1.2531923 -0.056002129 0
0.96625549 -1.2503945 -0.056416351 0
0.97086865 -1.2241905 -0.05578123 0
0.76976991 -0.97062045 0.044227108 0
0.77785951 -0.98082078 0.13453314 0
0.9875598 -1.2135329 -0.055857819 0
0.7745803 -0.95181948 0.043811388 0
0.7775743 -0.95549858 0.13239238 0
1.0016826 -1.1997101 -0.05579773 0
0.77112174 -0.92356855 0.042954568 0
0.77191007 -0.92451268 0.12943555 0
1.0121933 -1.1817305 -0.055549901 0
0.77834672 -0.90871584 0.042716231 0
0.77286381 -0.9023146 0.12768014 0
1.0356189 -1.1787105 -0.056016505 0
0.77199566 -0.87866235 0.041757155 0
0.78405493 -0.89238793 0.12766242 0
1.0554031 -1.1711534 -0.056284487 0
0.76723528 -0.85138094 0.040916536 0
0.7742877 -0.85920686 0.12430059 0
1.0649369 -1.1522225 -0.056014713 0
1.0746911 -1.1337962 -0.055772394 0
1.0973364 -1.1288724 -0.05620544 0
1.1032816 -1.1067586 -0.055791702 0
1.1157264 -1.0914066 -0.055721622 0
1.1302724 -1.0781229 -0.055765647 0
1.1446903 -1.0646734 -0.055811122 0
1.1691462 -1.0602796 -0.056348078 0
1.1726236 -1.0368271 -0.055882003 0
1.1930282 -1.0283958 -0.05623281 0
1.2007878 -1.0090116 -0.055995237 0
1.2176926 -0.99733031 -0.056193456 0
1.2324927 -0.98378605 -0.056300301 0
1.2366288 -0.9618479 -0.055931538 0
1.2468306 -0.94482863 -0.055850416 0
1.2711939 -0.93832988 -0.056407999 0
1.2687325 -0.91205937 -0.055784728 0
1.2782623 -0.89471477 -0.055703953 0
1.290099 -0.87900722 -0.05573301 0
1.2993103 -0.86153054 -0.055657867 0
1.3062935 -0.84267581 -0.055498056 0
1.3292302 -0.8339597 -0.056021929 0
1.3302228 -0.81142157 -0.055628724 0
1.3466315 -0.79834145 -0.055890087 0
1.3616217 -0.78422803 -0.056097932 0
1.3726331 -0.76771766 -0.056148857 0
1.3785422 -0.74839294 -0.056000639 0
1.3850698 -0.72950864 -0.055888217 0
1.4003109 -0.71515983 -0.056135371 0
1.4042974 -0.69504273 -0.055939894 0
1.4222902 -0.68178916 -0.056310181 0
1.4203011 -0.65897328 -0.055898473 0
1.4364825 -0.64462632 -0.056211397 0
1.4380934 -0.62371588 -0.055962659 0
1.4406875 -0.60340416 -0.055763505 0
1.4479225 -0.58511597 -0.055753943 0
1.4469498 -0.56363446 -0.055438798 0
1.4752284 -0.55335927 -0.056250837 0
1.4753222 -0.53230262 -0.055994395 0
1.4860941 -0.51513553 -0.056152586 0
1.4823985 -0.49303576 -0.055773936 0
1.4965394 -0.47689691 -0.056075588 0
1.4992657 -0.45705259 -0.055957653 0
1.506146 -0.43850106 -0.056003921 0
1.5046805 -0.41759622 -0.055749483 0
1.511968 -0.39918467 -0.055828825 0
1.5255759 -0.38229603 -0.056149084 0
1.5322689 -0.36353147 -0.056222484 0
1.5274236 -0.34212619 -0.055882193 0
1.5317357 -0.32289335 -0.055886764 0
1.5447148 -0.30536744 -0.056215569 0
1.5544287 -0.28699961 -0.056433082 0
1.5413297 -0.2645573 -0.055832159 0
1.5396969 -0.24436069 -0.055657141 0
1.555451 -0.22682111 -0.056118928 0
1.5600011 -0.20745982 -0.056184381 0
1.5494246 -0.18623075 -0.055714592 0
1.559624 -0.16756392 -0.056001026 0
1.5489025 -0.14670944 -0.055545319 0
1.5598323 -0.12795036 -0.055875067 0
1.5660092 -0.10862531 -0.056042887 0
1.5571364 -0.088324919 -0.055681139 0
1.5652946 -0.069027856 -0.055937346 0
1.5648668 -0.049276497 -0.055895455 0
1.5580705 -0.029431269 -0.05563505 0
1.5580295 -0.009809128 -0.055624768 0
1.5718025 0.0098958397 -0.056116488 0
1.5621337 0.029508019 -0.055780139 0
1.563866 0.049244981 -0.055859707 0
1.5674419 0.069122545 -0.056014083 0
1.5589635 0.088428557 -0.055746473 0
1.5668557 0.10868403 -0.056073178 0
1.5629462 0.12820578 -0.055986606 0
1.5664787 0.14837421 -0.056175619 0
1.5569623 0.16727795 -0.055905454 0
1.5556214 0.18697555 -0.055937413 0
1.563745 0.2079577 -0.056319222 0
1.557675 0.22714542 -0.056199163 0
1.5534421 0.24654214 -0.056154002 0
1.5492578 0.26591808 -0.056119338 0
1.5482224 0.28585374 -0.056207769 0
1.5454042 0.30550373 -0.056240659 0
1.53488 0.32355621 -0.056001492 0
1.5233045 0.34120351 -0.05573149 0
1.5190436 0.36039376 -0.055737216 0
1.5265752 0.38254642 -0.056185864 0
1.5177402 0.40070862 -0.05604196 0
1.5133319 0.41999725 -0.056070022 0
1.4948491 0.43521208 -0.055583864 0
1.5028014 0.45813048 -0.056089621 0
1.4905695 0.47499448 -0.055851892 0
1.4924163 0.49636757 -0.056150842 0
1.4863781 0.51523399 -0.056163315 0
1.4797279 0.53389221 -0.056161605 0
1.4717802 0.55206579 -0.056119356 0
1.4640253 0.57028592 -0.056093033 0
1.4527963 0.58708549 -0.055941615 0
1.4547056 0.60927534 -0.05630609 0
1.4415754 0.62522608 -0.056098159 0
1.431219 0.64226425 -0.056005426 0
1.4293525 0.66317284 -0.056254707 0
1.4149485 0.67826986 -0.056019515 0
1.3921636 0.68903732 -0.055456549 0
1.4016646 0.71585125 -0.056189641 0
1.3989838 0.73683703 -0.056449652 0
1.3856397 0.75224608 -0.056288961 0
1.366788 0.76444852 -0.05590976 0
1.3601468 0.78337848 -0.056037161 0
1.3496901 0.80015469 -0.05601703 0
1.3317958 0.81238109 -0.055694506 0
1.3295665 0.83417064 -0.0560361 0
1.3167193 0.84940135 -0.055940997 0
1.3103613 0.86885798 -0.056131247 0
1.3042198 0.88862842 -0.056343034 0
1.2837501 0.89855593 -0.055943102 0
1.2771125 0.91808349 -0.056153186 0
1.2587862 0.92917114 -0.055857424 0
1.2550442 0.95105278 -0.056218337 0
1.238909 0.96362144 -0.056034673 0
1.2350804 0.98585159 -0.056418508 0
1.2198762 0.99911869 -0.056294221 0
1.1997968 1.0081789 -0.055949025 0
1.190588 1.0262923 -0.056117788 0
1.1707871 1.0352033 -0.055794485 0
1.1553243 1.0477449 -0.055681925 0
1.1451391 1.0650909 -0.055833004 0
1.1336178 1.081314 -0.055930708 0
1.118129 1.0937568 -0.055841617 0
1.1145694 1.118082 -0.056362517 0
1.0972826 1.128817 -0.056202687 0
1.0793464 1.1387078 -0.056013994 0
0.59037828 0.62284756 0.28551397 0
1.0676968 1.1552087 -0.056159884 0
0.61402535 0.66435283 0.30097184 0
1.0440568 1.1585625 -0.055679385 0
1.0066818 1.1170886 0.053686187 0
1.0114735 1.1224059 0.16237733 0
0.99816811 1.1076411 0.26890761 0
0.61813998 0.68593383 0.30719805 0
1.0380588 1.1814874 -0.056148473 0
0.97490013 1.1096022 0.052732233 0
0.98744166 1.1238766 0.16077852 0
0.98267782 1.1184545 0.26850742 0
0.62625635 0.71278626 0.31566721 0
1.0263484 1.1982565 -0.056326743 0
0.95906234 1.1197004 0.052634038 0
0.96179038 1.1228853 0.15889154 0
0.96204448 1.1231821 0.26671293 0
0.62567532 0.7304728 0.31998542 0
1.0072223 1.206345 -0.05610631 0
0.93104547 1.1151084 0.051862959 0
0.93805695 1.1235059 0.15729542 0
0.93007094 1.1139412 0.26171675 0
0.62138993 0.74423552 0.32256103 0
0.99764329 1.2259237 -0.056428157 0
0.9126367 1.1214659 0.051620059 0
0.91294992 1.1218508 0.15544188 0
0.90322572 1.1099015 0.258075 0
0.62100381 0.7631017 0.32732269 0
0.97079521 1.2240978 -0.05577701 0
0.8835457 1.1140829 0.050764095 0
0.88924307 1.1212668 0.15379727 0
0.89250058 1.1253743 0.25903904 0
0.62508482 0.78818375 0.33467853 0
0.95879436 1.2407392 -0.05598072 0
0.86025804 1.1132271 0.050227523 0
0.87013376 1.126007 0.15293242 0
0.86250448 1.1161342 0.254392 0
0.6138314 0.79433578 0.33398226 0
0.934533 1.2413391 -0.055472437 0
0.83981478 1.115525 0.04985011 0
0.84034395 1.1162279 0.15015514 0
0.84488243 1.1222564 0.25334245 0
0.60566437 0.80450326 0.335024 0
0.92472911 1.2610537 -0.05582865 0
0.82224464 1.1212956 0.049641356 0
0.81973165 1.1178685 0.14897548 0
0.82074374 1.1192487 0.2503106 0
0.59569055 0.8123436 0.33513871 0
0.90924919 1.2732575 -0.055857617 0
0.8137871 1.1395782 0.049993124 0
0.81174427 1.1367176 0.15011333 0
0.81519681 1.1415522 0.25298283 0
0.59049261 0.82689011 0.33804557 0
0.89793491 1.2914941 -0.056157164 0
0.80919534 1.1638604 0.050607361 0
0.81074202 1.166085 0.15263127 0
0.81241566 1.1684922 0.25666562 0
0.57750177 0.83061707 0.33656961 0
0.8738147 1.2911905 -0.055661105 0
0.82227111 1.2150272 0.052377831 0
0.81474453 1.2039056 0.1562264 0
0.8076607 1.1934382 0.25989056 0
0.5683291 0.83979028 0.33736005 0
0.85651672 1.300616 -0.055598073 0
0.81240529 1.233633 0.052734718 0
0.81177562 1.2326769 0.15862091 0
0.80835932 1.2274892 0.26506808 0
0.73491585 1.1159657 0.34091222 0
0.55600893 0.84429651 0.33633104 0
0.84577096 1.3201923 -0.05597521 0
0.82054389 1.2808145 0.05430562 0
0.81753528 1.2761184 0.16287333 0
0.79030269 1.2336102 0.26421991 0
0.72029269 1.1243291 0.34066933 0
0.55084479 0.85983217 0.33972967 0
0.82046455 1.3169068 -0.055393469 0
0.8101114 1.3002893 0.054694474 0
0.81177664 1.3029621 0.16498171 0
0.77982664 1.2516799 0.26596585 0
0.70462805 1.1309806 0.33996931 0
0.54081482 0.86804813 0.34025818 0
0.81479824 1.3452618 -0.056150146 0
0.75410831 1.2450604 0.26252073 0
0.67487127 1.1142372 0.33235541 0
0.53315669 0.88026124 0.34238675 0
0.41137874 0.67920136 0.47092149 0
0.79568541 1.35183 -0.056001652 0
0.74312514 1.2625327 0.26421076 0
0.65476251 1.112409 0.32932469 0
0.52388269 0.89005071 0.34360132 0
0.41231564 0.70050377 0.4820534 0
0.77612805 1.357416 -0.055823773 0
0.72471213 1.2674918 0.26331794 0
0.63869452 1.1170505 0.32829183 0
0.51513374 0.90094781 0.34527656 0
0.41735497 0.72993672 0.34813327 0
0.4076702 0.71299845 0.41093796 0
0.40618452 0.71040004 0.48530534 0
0.76324302 1.3747686 -0.056137692 0
0.71406788 1.2861933 0.26531407 0
0.61825472 1.1136127 0.32496768 0
0.50112092 0.90262902 0.34347531 0
0.41987225 0.75628227 0.35814843 0
0.40971577 0.73798823 0.42233384 0
0.40847179 0.73574752 0.49906793 0
0.73994166 1.3732625 -0.055691309 0
0.69539899 1.2905955 0.26439491 0
0.60144317 1.1162224 0.32349354 0
0.49124151 0.91169834 0.34454527 0
0.41649693 0.77297944 0.36354309 0
0.40591988 0.75334936 0.42816558 0
0.40890643 0.75889212 0.51123405 0
0.72903496 1.3947973 -0.056187883 0
0.67660022 1.2944787 0.26342413 0
0.585747 1.1206573 0.32261565 0
0.48157892 0.9213618 0.34587809 0
0.41733763 0.7984547 0.37302333 0
0.40942684 0.78331971 0.44223398 0
0.40489599 0.77465123 0.51837456 0
0.70829231 1.397704 -0.05594125 0
0.66223514 1.3068174 0.26421711 0
0.56704211 1.1189688 0.32004866 0
0.47016868 0.92780435 0.34604663 0
0.41844586 0.82573742 0.38327727 0
0.40550542 0.80020148 0.44884646 0
0.40376881 0.79677457 0.52973455 0
0.69251227 1.4103298 -0.056093115 0
0.64248186 1.3084408 0.26288879 0
0.54826164 1.1165575 0.31735915 0
0.45608354 0.92883295 0.34426096 0
0.41492096 0.84500366 0.38976389 0
0.40729785 0.82947892 0.46235517 0
0.40546924 0.82575482 0.54556423 0
0.67219055 1.4136609 -0.055884518 0
0.53146499 1.1177057 0.31575832 0
0.44716367 0.94041455 0.34643912 0
0.40757874 0.85716486 0.39297485 0
0.41153741 0.86549014 0.47950143 0
0.40586969 0.85357064 0.56052065 0
0.65544742 1.4244244 -0.055979308 0
0.51958138 1.1291591 0.31712046 0
0.43651298 0.94863403 0.34741461 0
0.40735504 0.88526773 0.40347522 0
0.4085995 0.88797224 0.4890677 0
0.40449598 0.87905443 0.573865 0
0.63524842 1.4275937 -0.055785071 0
0.49562642 1.1138213 0.31103545 0
0.42386732 0.95255703 0.34686911 0
0.41032305 0.92211902 0.4178828 0
0.40840951 0.91781867 0.50263387 0
0.40998185 0.92135221 0.59806025 0
0.61797047 1.4372177 -0.055852637 0
0.47708976 1.1095706 0.30814642 0
0.41647589 0.96860051 0.35077378 0
0.40915686 0.95157862 0.42886433 0
0.40655518 0.94552791 0.5149641 0
0.40865883 0.95042038 0.61353981 0
0.60300839 1.4525527 -0.056149043 0
0.46395019 1.1175833 0.30872473 0
0.41763684 1.0060216 0.3623924 0
0.40317976 0.97119683 0.43538341 0
0.40587536 0.97769004 0.5296551 0
0.40840116 0.98377436 0.63170141 0
0.58178145 1.4528139 -0.055871524 0
0.44618496 1.1142049 0.30621514 0
0.41898328 1.0462773 0.37496319 0
0.40820473 1.0193614 0.45463496 0
0.40573958 1.0132054 0.54608411 0
0.4085288 1.0201706 0.65171725 0
0.56393647 1.4613037 -0.055920493 0
0.43205315 1.1195602 0.30616748 0
0.41771612 1.0824094 0.38599646 0
0.41085646 1.0646342 0.47248176 0
0.40976867 1.0618155 0.56945717 0
0.40585545 1.0516753 0.66852564 0
0.54283166 1.4611273 -0.055647757 0
0.41344619 1.1128634 0.3028883 0
0.41346365 1.1129104 0.39498544 0
0.4095782 1.102452 0.48693773 0
0.4086982 1.1000834 0.58717382 0
0.4095422 1.1023551 0.69740814 0
0.52841014 1.4790957 -0.056074232 0
0.3996211 1.1185967 0.30305514 0
0.40894392 1.1446927 0.40440565 0
0.40630838 1.1373154 0.50003695 0
0.40559751 1.1353256 0.60321057 0
0.50858539 1.4822532 -0.055946708 0
0.38252431 1.1148529 0.30071199 0
0.40911371 1.1923467 0.41938797 0
0.40772691 1.1883049 0.52015668 0
0.40640542 1.1844535 0.62654406 0
0.48809916 1.4831229 -0.055743132 0
0.5941577 1.8053892 0.34277895 0
0.36869967 1.1203194 0.30091035 0
0.40613136 1.2340581 0.43222624 0
0.40786314 1.2393203 0.54019666 0
0.40755007 1.238369 0.65229762 0
0.47057542 1.4929242 -0.055884365 0
0.57371736 1.8201472 0.34418201 0
0.35061857 1.1123551 0.29756173 0
0.40937322 1.2987572 0.45304549 0
0.40759078 1.2931023 0.56135756 0
0.40848306 1.2959331 0.67985553 0
0.44967413 1.4918756 -0.05562875 0
0.55049145 1.8263555 0.34401792 0
0.33484355 1.1109043 0.29602227 0
0.40660748 1.3489943 0.46874651 0
0.40709704 1.3506186 0.58405465 0
0.43615076 1.5158283 -0.056312632 0
0.52826488 1.8359681 0.34454826 0
0.31945768 1.1102651 0.29475665 0
0.4076539 1.4167883 0.4904809 0
0.40645245 1.4126127 0.60860163 0
0.41438884 1.5115653 -0.05595598 0
0.30546489 1.1142436 0.041247703 0
0.30925465 1.1280676 0.12570578 0
0.30609915 1.1165572 0.2087996 0
0.30784422 1.1229228 0.29706433 0
0.40654647 1.4829588 0.51157576 0
0.40474978 1.476405 0.63383943 0
0.39670005 1.521944 -0.056150816 0
0.29275134 1.1231437 0.041437421 0
0.29253942 1.1223307 0.12464611 0
0.29235226 1.1216127 0.20904 0
0.29101115 1.1164675 0.29436386 0
0.39922836 1.531644 0.52659476 0
0.39764145 1.5255558 0.65273911 0
0.37593991 1.5204865 -0.055917952 0
0.27741382 1.1219984 0.041263014 0
0.2750932 1.1126126 0.12317234 0
0.27563637 1.1148095 0.20710875 0
0.2754434 1.114029 0.29278329 0
0.39288285 1.589012 0.54457432 0
0.39399558 1.5935125 0.67963904 0
0.36072758 1.5420372 -0.056538977 0
0.26129913 1.1170008 0.040954966 0
0.26226255 1.1211193 0.12373866 0
0.26080179 1.1148747 0.20649439 0
0.26097089 1.1155976 0.29230869 0
0.38359606 1.6397953 0.56027859 0
0.33831015 1.5329866 -0.056046497 0
0.24736518 1.1208872 0.040980004 0
0.24569657 1.1133262 0.12252735 0
0.24562389 1.1129969 0.20555742 0
0.24722625 1.1202577 0.29269081 0
0.37247336 1.6877906 0.57502925 0
0.31976056 1.5408806 -0.056183439 0
0.23141062 1.1151348 0.040659938 0
0.23423991 1.1287687 0.12389244 0
0.23197941 1.1178758 0.20590268 0
0.23054582 1.1109675 0.28948212 0
0.35942876 1.7320361 0.58851504 0
0.299582 1.5409185 -0.056042828 0
0.21628115 1.1124554 0.04045973 0
0.21800108 1.121302 0.12276187 0
0.21740425 1.1182321 0.20544776 0
0.21731684 1.1177825 0.2905218 0
0.34357262 1.7671869 0.59894115 0
0.27855828 1.5357586 -0.055723175 0
0.20342885 1.121552 0.040694181 0
0.20176618 1.1123853 0.12149787 0
0.20365031 1.1227731 0.20579459 0
0.20291324 1.1187093 0.2900756 0
0.33287445 1.8352165 0.62052816 0
0.25989071 1.5432507 -0.055871844 0
0.18851441 1.1194129 0.040527221 0
0.18861945 1.1200366 0.12206447 0
0.18913049 1.1230712 0.20539644 0
0.1908337 1.133185 0.29318276 0
0.31226867 1.8542752 0.62559319 0
0.24084997 1.5490458 -0.055967413 0
0.1740997 1.1197361 0.040456343 0
0.17410474 1.1197685 0.12178667 0
0.17383601 1.1180402 0.20405981 0
0.17492765 1.1250612 0.29048797 0
0.29626879 1.9054765 0.64155787 0
0.22121234 1.5511551 -0.055938542 0
0.15901703 1.1150376 0.040211052 0
0.16108876 1.1295646 0.12262177 0
0.15991053 1.1213028 0.20427158 0
0.15873855 1.1130849 0.28685689 0
0.27574858 1.9335666 0.649795 0
0.20192505 1.5558296 -0.056010984 0
0.14554727 1.1214396 0.040372632 0
0.14636862 1.1277683 0.12221698 0
0.14561269 1.1219437 0.20403813 0
0.14638034 1.1278585 0.2901662 0
0.25560918 1.9694651 0.660725 0
0.18235947 1.5585926 -0.056023341 0
0.13022743 1.1130297 0.040007658 0
0.13039611 1.1144713 0.12058848 0
0.1317541 1.1260778 0.20447202 0
0.13104919 1.1200531 0.28771073 0
0.23599266 2.0169852 0.6756168 0
0.16249301 1.5585834 -0.055945028 0
0.11912397 1.1426008 0.12346006 0
0.11873452 1.1388655 0.20650613 0
0.12044012 1.155225 0.29633236 0
0.21287157 2.0417993 0.68297654 0
0.14319168 1.5641763 -0.056076616 0
0.11962342 1.3067248 0.14102001 0
0.12001689 1.3110229 0.23742993 0
0.1203203 1.3143373 0.3367317 0
0.18977988 2.0730898 0.69258887 0
0.12400851 1.5724878 -0.056314144 0
0.1697994 2.1531384 0.2321147 0
0.16636299 2.1095631 0.38163817 0
0.16477865 2.089473 0.53474659 0
0.10362015 1.5651788 -0.056001224 0
0.14139834 2.1358171 0.38603503 0
0.14019614 2.1176579 0.54146504 0
0.083552167 1.5597831 -0.055766102 0
0.11586293 2.1629725 0.39064851 0
0.11524965 2.1515236 0.5497095 0
0.063895591 1.5604575 -0.055757027 0
0.089662939 2.1897476 0.39524901 0
0.089189328 2.1781809 0.55618936 0
0.04467199 1.5762941 -0.056298327 0
0.023877073 0.84252554 0.3489759 0
0.023954742 0.8452661 0.4230904 0
0.024619043 1.5639026 -0.055840258 0
0.013302663 0.84503978 0.34992021 0
0.013458588 0.85494477 0.42781624 0
0.0049472749 1.570951 -0.056085255 0
0.0025766054 0.8181718 0.40936628 0
0.0026043584 0.82698441 0.49044383 0
-0.014814813 1.5689318 -0.056015387 0
-0.0078325188 0.82948655 0.41504398 0
-0.007587635 0.80355263 0.47656646 0
-0.034371626 1.5596924 -0.055696547 0
-0.018576907 0.84297025 0.42187431 0
-0.018030552 0.81817812 0.48533666 0
-0.054180931 1.5641481 -0.055875592 0
-0.080143414 2.3136582 0.41751552 0
-0.080298714 2.3181417 0.59178692 0
-0.027754428 0.80124193 0.47545987 0
-0.073911145 1.5641881 -0.055905841 0
-0.10996444 2.3271873 0.42017347 0
-0.10971581 2.3219256 0.59305853 0
-0.037118841 0.78554934 0.4663882 0
-0.094077542 1.5711035 -0.056190889 0
-0.1405903 2.3478703 0.42419383 0
-0.14078878 2.3511853 0.60093713 0
-0.046599232 0.77821136 0.46234331 0
-0.11327696 1.5618632 -0.055906992 0
-0.17174836 2.368067 0.42819956 0
-0.17091765 2.3566132 0.60282671 0
-0.13284644 1.5592886 -0.055870283 0
-0.077034622 0.90419585 0.032397904 0
-0.20182191 2.3688898 0.42877388 0
-0.20273799 2.3796422 0.60932237 0
-0.15283513 1.5612298 -0.056004357 0
-0.23460568 2.3965263 0.43427643 0
-0.23511215 2.4016998 0.61567956 0
-0.17304538 1.5642855 -0.056187678 0
-0.26647225 2.4088404 0.43708128 0
-0.26592427 2.4038866 0.61704969 0
-0.085166723 0.76988512 0.45936394 0
-0.19275375 1.562192 -0.056195211 0
-0.29889077 2.4223902 0.4401879 0
-0.29875177 2.4212637 0.62242645 0
-0.21179253 1.5551194 -0.056032285 0
-0.32941496 2.4187803 0.44025078 0
-0.32977971 2.4214587 0.62349463 0
-0.23081173 1.5486736 -0.055900332 0
-0.36445442 2.4453738 0.44589114 0
-0.36286339 2.4346986 0.62803048 0
-0.24997605 1.5436867 -0.055829521 0
-0.39617452 2.4465117 0.44697282 0
-0.39488554 2.4385519 0.63025719 0
-0.27067468 1.5477449 -0.056095112 0
-0.42953664 2.4561336 0.44968325 0
-0.43029031 2.460443 0.63726491 0
-0.28960028 1.5413352 -0.055990536 0
-0.46214563 2.4596708 0.45136052 0
-0.46046981 2.4507515 0.63620615 0
-0.30964416 1.5408487 -0.056110051 0
-0.52126336 2.5939064 0.094457179 0
-0.52093804 2.5922875 0.28416091 0
-0.49477035 2.4620721 0.45290855 0
-0.49532411 2.4648275 0.64142853 0
-0.33040729 1.5433041 -0.056346502 0
-0.54652101 2.5527527 0.093201779 0
-0.54721045 2.5559731 0.28091326 0
-0.52753621 2.4640765 0.45446321 0
-0.52709967 2.4620373 0.64237875 0
-0.34775615 1.5299716 -0.056015167 0
-0.5735296 2.5232739 0.092381857 0
-0.57576525 2.5331097 0.27917516 0
-0.56111258 2.4686446 0.45657271 0
-0.56210947 2.4730303 0.64704245 0
-0.3660574 1.5215836 -0.055872399 0
-0.60684824 2.5224741 0.092625 0
-0.60630471 2.5202148 0.27857336 0
-0.59704834 2.481739 0.46034846 0
-0.59556627 2.4755785 0.64961982 0
-0.38939369 1.5334198 -0.056482598 0
-0.64220858 2.5289967 0.093154073 0
-0.641783 2.5273209 0.2802299 0
-0.62862831 2.475518 0.46062633 0
-0.62666452 2.4677846 0.64959383 0
-0.40662107 1.5207309 -0.056199353 0
-0.68565589 2.5642991 0.094764926 0
-0.68598336 2.5655239 0.28540102 0
-0.66251737 2.4777629 0.4625597 0
-0.65970868 2.4672585 0.65159041 0
-0.42470437 1.5118158 -0.056063082 0
-0.69461638 2.4726188 0.46319553 0
-0.69316238 2.4674428 0.6538924 0
-0.44171706 1.499595 -0.05581174 0
-0.72646999 2.4663091 0.46369046 0
-0.7253955 2.4626615 0.65499401 0
-0.46081963 1.4947444 -0.055842746 0
-0.75963759 2.4640098 0.4650197 0
-0.75562912 2.4510076 0.65437329 0
-0.48098817 1.4931213 -0.056003943 0
-0.79145098 2.4568841 0.46551889 0
-0.78886735 2.448864 0.65640104 0
-0.49713561 1.4791671 -0.055710934 0
-0.8285901 2.4653702 0.4690665 0
-0.82380319 2.4511273 0.65973592 0
-0.51594073 1.4734186 -0.055734701 0
-0.85945779 2.4544315 0.46900725 0
-0.86039889 2.4571192 0.66421211 0
-0.53711808 1.4741228 -0.056012738 0
-0.88755912 2.4359097 0.46756655 0
-0.88800579 2.4371355 0.66178042 0
-0.55533588 1.4664491 -0.055982433 0
-0.91963238 2.4284296 0.46831644 0
-0.92250192 2.4360073 0.66457558 0
-0.56866157 1.4463824 -0.055485342 0
-0.95451897 2.4278049 0.4704766 0
-0.95125216 2.4194961 0.66328639 0
-0.59266931 1.4534321 -0.056037627 0
-0.98168713 2.4074395 0.46888837 0
-0.98474038 2.414927 0.66538048 0
-0.61028314 1.4443405 -0.05597895 0
-1.0132017 2.397917 0.46948141 0
-1.0162263 2.4050751 0.66613901 0
-0.62508875 1.428925 -0.055682141 0
-1.0467873 2.392909 0.4710443 0
-1.0443119 2.3872504 0.66479158 0
-0.64749843 1.4308127 -0.056068979 0
-1.0744102 2.3741832 0.46998408 0
-1.0705966 2.365756 0.66250759 0
-0.66044372 1.4118176 -0.055646099 0
-1.1024636 2.3567147 0.46923703 0
-1.1060003 2.364275 0.66594017 0
-0.68107724 1.4094105 -0.055884823 0
-1.1267759 2.331732 0.46705082 0
-1.1297312 2.3378477 0.66245091 0
-0.70030719 1.4038056 -0.056007806 0
-1.1610166 2.3273239 0.46905905 0
-1.1581341 2.3215456 0.66191143 0
-0.72247565 1.4037137 -0.05636264 0
-1.1897494 2.3115902 0.46887028 0
-1.1895313 2.3111665 0.66317028 0
-0.73882848 1.3921232 -0.056266353 0
-1.2149992 2.2893388 0.46742314 0
-1.2216554 2.3018806 0.66486716 0
-0.75211972 1.3750705 -0.05595547 0
-1.2461612 2.2783067 0.46833745 0
-1.2417126 2.2701735 0.66017288 0
-0.76777524 1.362654 -0.0558392 0
-1.0546722 1.8718412 0.076704808 0
-1.2679363 2.2503443 0.4658345 0
-1.2647914 2.2447624 0.65736264 0
-0.78922462 1.3603817 -0.056148876 0
-1.0500504 1.8099654 0.074705154 0
-1.2973852 2.236295 0.46627107 0
-1.289526 2.222748 0.65561908 0
-0.80666482 1.3509626 -0.056174915 0
-1.0546039 1.766199 0.073441021 0
-1.3186808 2.2084618 0.46389323 0
-1.3217016 2.2135212 0.65775442 0
-0.81818289 1.3318624 -0.055804677 0
-1.0540901 1.7158793 0.071894877 0
-1.3469409 2.1925905 0.46408534 0
-1.3485276 2.1951733 0.65729612 0
-0.83812308 1.3265758 -0.056020927 0
-1.0498751 1.6617355 0.070174634 0
-1.3728393 2.1729212 0.46354437 0
-1.3757772 2.1775713 0.65716088 0
-0.85999668 1.3239799 -0.056364149 0
-1.051265 1.6184409 0.06889987 0
-1.3902074 2.1402485 0.46027234 0
-1.3871616 2.1355593 0.64970213 0
-0.86758602 1.299546 -0.055784628 0
-1.0487707 1.5709401 0.067434557 0
-1.4120623 2.1151102 0.45865372 0
-1.4131613 2.1167562 0.64934391 0
-0.8876577 1.294026 -0.056023043 0
-1.0538343 1.5362781 0.066511005 0
-1.4354788 2.0926387 0.45766431 0
-1.4427634 2.1032584 0.65072483 0
-0.9042204 1.2832289 -0.056044102 0
-1.0511904 1.491802 0.065153383 0
-1.4590089 2.0705597 0.45681739 0
-1.4524126 2.0611985 0.64331943 0
-0.91746145 1.2678109 -0.055870868 0
-1.0508776 1.4521745 0.06399554 0
-1.0476732 1.4477465 0.19205427 0
-1.4733438 2.0359674 0.45324266 0
-1.4780868 2.0425215 0.64324826 0
-0.51443684 0.71088398 0.43904713 0
-0.94048232 1.2657549 -0.056297693 0
-1.0538208 1.4182925 0.063082188 0
-1.0468527 1.4089143 0.18863665 0
-1.4915242 2.0073786 0.45102367 0
-1.5002491 2.0191212 0.64177734 0
-0.52159935 0.70199823 0.437581 0
-0.95049977 1.2461492 -0.055953588 0
-1.0532159 1.3808147 0.06200023 0
-1.0569655 1.3857307 0.18729977 0
-1.5173767 1.989351 0.45123047 0
-1.5092643 1.9787153 0.63492477 0
-0.52634102 0.69005746 0.43423483 0
-0.96782649 1.2362688 -0.056052715 0
-1.0456662 1.3356986 0.060560886 0
-1.0454793 1.3354598 0.18226995 0
-1.526045 1.9493182 0.44647339 0
-1.5308229 1.9554212 0.63358539 0
-0.54276222 0.69330603 0.44054496 0
-0.98044449 1.2204105 -0.055889033 0
-1.0541121 1.3121084 0.060088363 0
-1.0508269 1.308019 0.18031642 0
-1.5438623 1.9217261 0.44457114 0
-1.542395 1.9198995 0.62831908 0
-0.56205785 0.69962275 0.44902042 0
-1.0002725 1.2134755 -0.056143817 0
-1.051733 1.2759045 0.059032217 0
-1.0520153 1.276247 0.17774859 0
-1.5575126 1.8894886 0.44161546 0
-1.5617508 1.8946301 0.62643552 0
-0.57038051 0.6919542 0.44867283 0
-1.00809 1.1920552 -0.055735659 0
-1.0527267 1.2448376 0.058203552 0
-1.0476184 1.2387971 0.17435622 0
-1.5768688 1.8646297 0.44041133 0
-1.5704186 1.8570024 0.62048364 0
-0.58846158 0.69584924 0.45596701 0
-1.031047 1.188521 -0.056173004 0
-1.0484138 1.2085403 0.057119176 0
-1.0481052 1.2081848 0.1718916 0
-1.5959438 1.8396959 0.43923396 0
-1.593088 1.8364041 0.6202547 0
-1.0440552 1.1733377 -0.056072313 0
-1.0555525 1.1862586 0.056689788 0
-1.0688045 1.2011515 0.17279205 0
-1.5992823 1.7973169 0.43388954 0
-1.6054834 1.804286 0.61618608 0
-1.0632437 1.1650268 -0.056310505 0
-1.0932757 1.1979337 0.057901029 0
-1.0939528 1.1986756 0.1744037 0
-1.6174755 1.7723145 0.43273637 0
-1.6073192 1.761186 0.60833079 0
-1.0749376 1.1484582 -0.056159467 0
-0.93852925 1.0027202 0.0490329 0
-1.1248072 1.2017387 0.17689614 0
-1.6201663 1.730978 0.42759088 0
-1.6251405 1.7362925 0.60675269 0
-1.0834024 1.128675 -0.055854756 0
-0.94245684 0.98183972 0.048588317 0
-1.1497849 1.1978315 0.17843807 0
-1.6328297 1.7010615 0.42524612 0
-1.637131 1.7055424 0.60316324 0
-1.0981239 1.1155497 -0.055885088 0
-0.95431137 0.969455 0.048566263 0
-1.1801748 1.1989026 0.1807971 0
-1.6416727 1.6677238 0.42204645 0
-1.6463683 1.6724939 0.59875983 0
-1.1072594 1.0968562 -0.055642687 0
-0.94905871 0.94014192 0.04769269 0
-1.2053268 1.1940023 0.1823325 0
-1.6493144 1.6338184 0.41868874 0
-1.6530995 1.637568 0.59366143 0
-1.1285844 1.0901709 -0.056020036 0
-0.97568756 0.94247812 0.048430629 0
-1.2373058 1.1951917 0.18487871 0
-1.6535032 1.597223 0.41461354 0
-1.6559949 1.5996299 0.58742088 0
-1.1461458 1.0795705 -0.056212503 0
-0.99362248 0.93590677 0.048732027 0
-1.2619501 1.1886482 0.18630983 0
-1.6635472 1.566918 0.41215187 0
-1.6624877 1.5659201 0.58268332 0
-1.1545833 1.0604019 -0.055966996 0
-1.3074875 1.2008336 0.063378841 0
-1.3026065 1.1963507 0.19007303 0
-1.6599998 1.5245908 0.40648437 0
-1.6602092 1.5247831 0.5751096 0
-0.66994923 0.6153003 0.37661943 0
-1.167197 1.0452013 -0.055936009 0
-1.3364586 1.1967717 0.064047597 0
-1.3364252 1.1967418 0.19279355 0
-1.6743923 1.4993846 0.40535325 0
-1.6638081 1.4899065 0.56981206 0
-0.67742753 0.6066227 0.37649941 0
-1.1866794 1.0360223 -0.056240015 0
-1.3744668 1.1999688 0.065139778 0
-1.6712971 1.4591144 0.40012416 0
-1.6785411 1.4654387 0.56849295 0
-0.66618711 0.58161008 0.36615282 0
-1.1947532 1.0168477 -0.056011379 0
-1.390883 1.1837727 0.06520617 0
-1.6693888 1.4208075 0.39535266 0
-1.6751523 1.4257127 0.56122041 0
-0.67036325 0.5705424 0.36447054 0
-0.68954617 0.58686882 0.45304665 0
-1.2060804 1.0005777 -0.055947304 0
-1.447171 1.2005891 0.067130938 0
-1.6758721 1.3903221 0.39271078 0
-1.6725289 1.3875486 0.55444384 0
-0.68688494 0.5698474 0.3695226 0
-1.2139809 0.98159105 -0.055736002 0
-1.4798447 1.1965611 0.067942269 0
-1.6874462 1.3644218 0.39136589 0
-1.6659023 1.347002 0.54658097 0
-0.68607235 0.55473888 0.36529857 0
-1.2338593 0.97222817 -0.056082129 0
-1.5185479 1.1965506 0.06902197 0
-1.6770903 1.3214751 0.38507417 0
-1.6705388 1.3163128 0.54262084 0
-0.69796646 0.54996759 0.36791503 0
-1.2468328 0.95725238 -0.056119479 0
-1.5578738 1.1960533 0.070119321 0
-1.6865518 1.2948455 0.38347244 0
-1.6740021 1.2852104 0.53844637 0
-0.69716597 0.53524721 0.36391145 0
-0.68286616 0.52426857 0.43074721 0
-1.2585989 0.94133669 -0.056111094 0
-1.5975168 1.1948216 0.071220793 0
-1.6819069 1.2579391 0.37878469 0
-1.6740571 1.252068 0.53335047 0
-0.70413709 0.52664125 0.36405984 0
-0.71203184 0.53254592 0.44487941 0
-1.2734237 0.92765266 -0.05624678 0
-1.639448 1.194291 0.072413981 0
-1.6871922 1.2290711 0.37645963 0
-1.6648542 1.2127986 0.52551121 0
-1.6744754 1.2198074 0.68923104 0
-0.68689448 0.50038296 0.35185924 0
-0.70500398 0.5135752 0.43641314 0
-1.2822751 0.90961009 -0.056127377 0
-1.6925906 1.2006764 0.07408759 0
-1.6850339 1.195316 0.37259007 0
-1.6711327 1.1854547 0.52273977 0
-1.6751914 1.188334 0.68331236 0
-0.71402007 0.50650585 0.36245835 0
-0.70902276 0.50296092 0.43494588 0
-1.2905705 0.89128208 -0.055994783 0
-1.735041 1.1982383 0.075279303 0
-1.6780397 1.1588725 0.36778766 0
-1.6729038 1.1553255 0.51870191 0
-1.6780679 1.158892 0.67847937 0
-0.71886349 0.49645495 0.43711302 0
-1.2936977 0.86958903 -0.055650957 0
-1.7029452 1.1446742 0.073255546 0
-1.706303 1.1469313 0.22095127 0
-1.6795723 1.1289636 0.36497879 0
-1.6773875 1.1274951 0.51564914 0
-1.6634934 1.1181558 0.66684085 0
-0.72042018 0.48424718 0.43431735 0
-1.3067133 0.85464942 -0.055743482 0
-1.7093915 1.1180192 0.072921455 0
-1.6950721 1.1086537 0.21767196 0
-1.6855894 1.1024516 0.36324084 0
-1.6677554 1.0907872 0.50842535 0
-1.6672065 1.0904282 0.66277248 0
-0.72515899 0.47428671 0.43353936 0
-1.3175986 0.83827353 -0.055753123 0
-1.70487 1.0846606 0.072140202 0
-1.7078637 1.0865654 0.21754034 0
-1.6901749 1.0753115 0.36128241 0
-1.6692623 1.0620066 0.50476789 0
-1.6774961 1.0672451 0.66146809 0
-0.73013788 0.46452332 0.43298459 0
-1.3295351 0.82253635 -0.055815514 0
-1.7177016 1.0626812 0.072111212 0
-1.7207712 1.0645802 0.21745968 0
-1.6868987 1.0436245 0.35774469 0
-1.6785969 1.0384885 0.50359637 0
-1.6711588 1.0338868 0.65378374 0
-1.3507891 0.81234753 -0.056273881 0
-1.7368528 1.0445213 0.072357297 0
-1.7360007 1.0440089 0.21770565 0
-1.6873461 1.0147487 0.35510159 0
-1.6631753 1.0002127 0.49515188 0
-1.6722184 1.0056511 0.64919269 0
-1.3595908 0.79450387 -0.056219313 0
-1.7648125 1.0313033 0.0729753 0
-1.7657694 1.0318624 0.21979198 0
-1.6821374 0.98299032 0.35137257 0
-1.6729219 0.9776051 0.49434942 0
-1.6847304 0.98450571 0.64918584 0
-1.3623086 0.77324772 -0.055924643 0
-1.8229363 1.0347004 0.074834041 0
-1.8165417 1.0310708 0.2244779 0
-1.6875767 0.95787013 0.34996152 0
-1.6704772 0.9481644 0.49006003 0
-1.6687565 0.94718778 0.63838392 0
-1.3754048 0.75794441 -0.05606601 0
-1.6864111 0.92933065 0.34726551 0
-1.6668228 0.91853613 0.4855563 0
-1.6669363 0.91859865 0.63321239 0
-1.384652 0.74046618 -0.056058429 0
-1.681317 0.89911282 0.34385788 0
-1.6736333 0.89500386 0.48421881 0
-1.6778204 0.89724296 0.6330049 0
-1.398618 0.725438 -0.056249563 0
-1.6963642 0.87987357 0.34464198 0
-1.6733457 0.86793435 0.48093542 0
-1.6721375 0.86730772 0.6266908 0
-1.3963164 0.70207602 -0.055797018 0
-1.6961364 0.85282725 0.34238681 0
-1.680907 0.84516984 0.48001179 0
-1.6818424 0.84564018 0.62628752 0
-1.4128846 0.68825758 -0.056108315 0
-1.7160004 0.83591425 0.34424451 0
-1.6756352 0.8162511 0.47553343 0
-1.6719738 0.81446755 0.61874443 0
-1.426362 0.67273527 -0.056302659 0
-1.7331592 0.81743431 0.34559438 0
-1.6810786 0.79287076 0.47420725 0
-1.6532873 0.77976316 0.60814726 0
-1.4283581 0.65181929 -0.056053016 0
-1.7406923 0.79435039 0.34507459 0
-1.6672695 0.76084453 0.46757227 0
-1.6738292 0.76383799 0.61211681 0
-1.421842 0.62733668 -0.055482905 0
-1.7481308 0.77129996 0.34459653 0
-1.680334 0.74138701 0.46858084 0
-1.6790026 0.74079961 0.61054897 0
-1.4451534 0.6160019 -0.056085426 0
-1.7470652 0.74469292 0.34251082 0
-1.6806537 0.71638477 0.46611747 0
-1.6682588 0.71110141 0.60333812 0
-1.4480824 0.59581786 -0.055903498 0
-1.7630316 0.72540462 0.34382296 0
-1.6710638 0.68756419 0.46101999 0
-1.676218 0.68968493 0.603028 0
-1.4528217 0.57648683 -0.05580179 0
-1.7749187 0.70429641 0.34438431 0
-1.6731054 0.66389638 0.45924047 0
-1.6814072 0.66719061 0.6018247 0
-1.4695145 0.56179899 -0.056166772 0
-1.7937598 0.68575877 0.34633708 0
-1.6802694 0.64237112 0.45895022 0
-1.6816688 0.64290607 0.59897316 0
-1.4610209 0.53756654 -0.05557901 0
-1.786823 0.65744185 0.34337208 0
-1.677092 0.61706752 0.45592383 0
-1.6714711 0.61499935 0.59253567 0
-1.4749147 0.52168912 -0.055853214 0
-1.7974794 0.63578278 0.34385416 0
-1.6731957 0.59182268 0.45280275 0
-1.6693746 0.59047109 0.58910996 0
-1.4738418 0.50052136 -0.055569503 0
-1.8107002 0.61491954 0.34487465 0
-1.6762795 0.5692699 0.45166159 0
-1.6614105 0.56422025 0.58374596 0
-1.4920595 0.4858422 -0.056021273 0
-1.8209192 0.59292501 0.3453716 0
-1.6666399 0.54268885 0.44718754 0
-1.6707382 0.54402328 0.58457005 0
-1.4919617 0.46511617 -0.055793278 0
-1.8204341 0.5675168 0.3438969 0
-1.6671357 0.51972634 0.44552922 0
-1.67321 0.52161998 0.58309048 0
-1.4934721 0.44503391 -0.055635788 0
-1.8266308 0.54431057 0.34374547 0
-1.6626971 0.4954606 0.44264066 0
-1.6721851 0.49828789 0.58050072 0
-1.5076259 0.42865875 -0.055957537 0
-1.8326123 0.52106112 0.34360909 0
-1.6671258 0.47400889 0.44219559 0
-1.6616435 0.47245011 0.57473034 0
-1.5083294 0.40840337 -0.055788346 0
-1.8461181 0.49986485 0.34493387 0
-1.6625544 0.45016214 0.43944466 0
-1.6690456 0.45191973 0.57527667 0
-1.521124 0.39137897 -0.05607485 0
-1.849833 0.47595444 0.34448087 0
-1.6684942 0.4292967 0.43955097 0
-1.6779398 0.43172702 0.57642281 0
-1.5225651 0.37137407 -0.055951145 0
-1.8630069 0.4544124 0.34584114 0
-1.6741428 0.40834594 0.43964961 0
-1.6706616 0.40749678 0.57211441 0
-1.5269866 0.35214281 -0.055946242 0
-1.8525562 0.42722338 0.34287527 0
-1.6615224 0.38316852 0.43503374 0
-1.6719922 0.38558298 0.57086211 0
-1.5206465 0.33057246 -0.055557031 0
-1.8615166 0.40467402 0.34356332 0
-1.6743876 0.36399415 0.43716747 0
-1.6724285 0.36356828 0.56940287 0
-1.5318356 0.31285924 -0.05581747 0
-1.8698906 0.38190293 0.34419397 0
-1.6627933 0.33960578 0.43298945 0
-1.6766154 0.3424288 0.56931514 0
-1.5449821 0.29532999 -0.056156546 0
-1.8600416 0.35555497 0.34152985 0
-1.6641963 0.3181183 0.43227741 0
-1.6828109 0.32167655 0.56999826 0
-1.533619 0.27318865 -0.055614077 0
