# .PCD v0.7 - Point Cloud Data file format
VERSION 0.7
FIELDS x y z intensity
SIZE 4 4 4 4
TYPE F F F F
COUNT 1 1 1 1
WIDTH 1353
HEIGHT 1
VIEWPOINT 0 0 0 1 0 0 0
POINTS 1353
DATA ascii
-0.94707918 -0.23100534 0.10476589 0
-0.94948423 -0.23159195 0.17625844 0
-1.6749685 -0.40854731 0.43986642 0
-1.6651931 -0.40616295 0.57024175 0
-1.5209229 -0.39132723 -0.056067433 0
-1.0057992 -0.25878799 0.037077866 0
-0.97927105 -0.25196242 0.10866931 0
-0.98141849 -0.25251496 0.18276238 0
-1.6768217 -0.43143937 0.4417448 0
-1.6684889 -0.42929533 0.57317609 0
-1.5149662 -0.41020042 -0.056033824 0
-1.0596848 -0.28692591 0.039194394 0
-1.053387 -0.28522074 0.1172832 0
-1.6750981 -0.45355853 0.31298 0
-1.6635151 -0.45042229 0.43969861 0
-1.665298 -0.45090503 0.57398498 0
-1.5026269 -0.42723739 -0.055771988 0
-1.1163979 -0.31742206 0.041436587 0
-1.121834 -0.3189677 0.12534128 0
-1.6700535 -0.4748413 0.31312984 0
-1.6774997 -0.47695842 0.44494718 0
-1.6717246 -0.47531641 0.57821715 0
-1.5090669 -0.44968095 -0.056216735 0
-1.2178472 -0.36290154 0.045368031 0
-1.2119752 -0.36115175 0.13590997 0
-1.6722962 -0.498321 0.31470191 0
-1.6745003 -0.49897778 0.44578287 0
-1.6743454 -0.49893162 0.58125061 0
-1.5051726 -0.46923465 -0.056287311 0
-1.2900698 -0.4021768 0.048243348 0
-1.3018345 -0.40584436 0.1465482 0
-1.6750171 -0.52218336 0.31642628 0
-1.6745417 -0.52203512 0.44750842 0
-1.6663566 -0.51948345 0.58070213 0
-1.4875246 -0.48436558 -0.055851009 0
-1.4130803 -0.46012515 0.053055905 0
-1.4182599 -0.46181166 0.16029619 0
-1.6722213 -0.54450619 0.31716824 0
-1.6715428 -0.5442853 0.44850305 0
-1.6689351 -0.54343617 0.58393914 0
-1.4879173 -0.50530148 -0.056100208 0
-1.5664035 -0.5319556 0.059059437 0
-1.5657588 -0.53173667 0.17770965 0
-1.6710281 -0.56748646 0.31827205 0
-1.6744531 -0.56864959 0.45116946 0
-1.4653263 -0.51829761 -0.055490114 0
-1.7340198 -0.61333662 0.19766776 0
-1.6753638 -0.59258956 0.3204937 0
-1.6863447 -0.59647357 0.45636117 0
-1.4735029 -0.54215914 -0.056053836 0
-1.6885893 -0.62129784 0.19336547 0
-1.6723355 -0.61531746 0.32137114 0
-1.6731344 -0.61561137 0.45484796 0
-1.4700143 -0.56199008 -0.056185879 0
-1.6852314 -0.64426816 0.19389459 0
-1.6713356 -0.63895571 0.32269955 0
-1.6672677 -0.63740057 0.45539895 0
-1.455533 -0.57756263 -0.055905931 0
-1.6851591 -0.66867942 0.1948396 0
-1.6632454 -0.65998393 0.32271653 0
-1.6731019 -0.66389501 0.45923951 0
-1.4524425 -0.59761178 -0.056071818 0
-1.6759413 -0.68957108 0.19476236 0
-1.6765091 -0.68980467 0.32694951 0
-1.6801757 -0.69131333 0.46353385 0
-1.4427183 -0.61496395 -0.055990923 0
-1.6848781 -0.71818542 0.19683625 0
-1.6723244 -0.71283442 0.32785794 0
-1.6798058 -0.71602333 0.4658823 0
-1.4410278 -0.63580173 -0.056231569 0
-1.6882589 -0.7448836 0.19831127 0
-1.6681069 -0.73599225 0.32882196 0
-1.666133 -0.73512137 0.46462074 0
-1.4358854 -0.65525436 -0.056348413 0
-1.6649022 -0.75976425 0.1966759 0
-1.6783749 -0.76591235 0.33272082 0
-1.6714057 -0.76273203 0.46873221 0
-1.4204277 -0.66993636 -0.056068413 0
-1.6674336 -0.78643519 0.19812907 0
-1.6740835 -0.78957158 0.33381459 0
-1.6784509 -0.79163146 0.47346604 0
-1.4094481 -0.68658358 -0.055971846 0
-1.9261616 -0.93828994 0.07649152 0
-1.6664293 -0.81176668 0.19920854 0
-1.6779801 -0.81739336 0.33661729 0
-1.6659181 -0.81151766 0.47277582 0
-1.4052514 -0.7065686 -0.056154061 0
-1.882902 -0.94673413 0.075241059 0
-1.6676823 -0.83852041 0.20060465 0
-1.6742452 -0.84182024 0.33796778 0
-1.6700913 -0.83973163 0.47692317 0
-1.3892549 -0.72058153 -0.055872995 0
-1.8325742 -0.95052338 0.073702395 0
-1.6641243 -0.86315137 0.20146811 0
-1.6737592 -0.86814886 0.34004948 0
-1.3880272 -0.74227113 -0.056195077 0
-1.7774833 -0.95053941 0.071962431 0
-1.6721605 -0.8942163 0.20378809 0
-1.6753573 -0.89592582 0.34263903 0
-1.3774189 -0.75905424 -0.056148108 0
-1.7399287 -0.95882261 0.070925198 0
-1.6673675 -0.9188363 0.2045978 0
-1.6722763 -0.92154139 0.34435487 0
-1.360087 -0.77198666 -0.05583344 0
-1.6988579 -0.96427333 0.069740452 0
-1.6792951 -0.95316947 0.20751773 0
-1.6721892 -0.9491362 0.34677055 0
-1.3491125 -0.78838068 -0.055786036 0
-1.6789308 -0.98111653 0.069424078 0
-1.6743923 -0.97846442 0.20841792 0
-1.670097 -0.97595435 0.34885755 0
-1.344594 -0.80862188 -0.056015793 0
-1.6810462 -1.01096 0.070032395 0
-1.6648135 -1.0011978 0.20877834 0
-1.6816216 -1.0113059 0.35389683 0
-1.3385453 -0.82811058 -0.056193769 0
-1.6909899 -1.0461556 0.070989825 0
-1.6705468 -1.0335082 0.21111265 0
-1.6756219 -1.0366479 0.35535318 0
-1.3252548 -0.84314454 -0.056077093 0
-1.6818484 -1.0700141 0.071166061 0
-1.6713654 -1.0633446 0.21289134 0
-1.6701624 -1.0625793 0.35700467 0
-1.3155118 -0.86040407 -0.056118824 0
-1.6821493 -1.1002015 0.071759321 0
-1.674943 -1.0954883 0.21508709 0
-1.675331 -1.095742 0.36103016 0
-1.3029826 -0.87583005 -0.056050368 0
-1.6737441 -1.125046 0.071999401 0
-1.6708498 -1.1231005 0.21636039 0
-1.6773461 -1.1274673 0.36449504 0
-1.2819186 -0.88530701 -0.0556194 0
-1.6708213 -1.1538874 0.072492957 0
-1.672793 -1.1552491 0.21847843 0
-1.6693282 -1.1528562 0.36587831 0
-1.2752948 -0.90465844 -0.055821836 0
-1.6712601 -1.1855452 0.07315392 0
-1.6691314 -1.1840351 0.21993005 0
-2.0346832 -1.4433473 0.44990358 0
-1.2738217 -0.92794263 -0.056264363 0
-1.6770111 -1.2216545 0.074073128 0
-1.6732663 -1.2189265 0.22247967 0
-2.0008473 -1.4575601 0.44644487 0
-1.2646182 -0.94583863 -0.056379445 0
-1.67154 -1.2501855 0.074520916 0
-1.6723696 -1.250806 0.22443686 0
-1.2372507 -0.94989574 -0.055688187 0
-1.6723064 -1.2839085 0.075269885 0
-1.6634523 -1.2771108 0.22538047 0
-1.2265617 -0.96647793 -0.055750433 0
-1.5896069 -1.252542 0.072251789 0
-1.5998373 -1.2606031 0.21889466 0
-1.5959334 -1.2575271 0.36643988 0
-1.2174158 -0.98436838 -0.055893701 0
-1.5765876 -1.2747846 0.072383903 0
-1.5645738 -1.2650706 0.21623226 0
-1.5825797 -1.2796297 0.36704439 0
-1.2105303 -1.0042694 -0.056153718 0
-1.6740987 -1.3888509 0.077657595 0
-1.6751457 -1.3897195 0.23391388 0
-1.761647 -1.4614818 0.41281059 0
-1.1866091 -1.0099164 -0.055629581 0
-1.6721162 -1.4231286 0.078390695 0
-1.6738937 -1.4246415 0.23622532 0
-1.7578218 -1.4960723 0.4162958 0
-1.461079 -1.2435161 0.48950014 0
-1.1853473 -1.0348593 -0.056176882 0
-1.7213762 -1.5028356 0.41211358 0
-1.4248171 -1.2439268 0.48256099 0
-1.1675169 -1.0454879 -0.055951346 0
-1.6230947 -1.4534485 0.077784166 0
-1.6257311 -1.4558095 0.234529 0
-1.6227595 -1.4531484 0.39285344 0
-1.3990693 -1.2528384 0.47914574 0
-1.1569016 -1.0625312 -0.056079376 0
-1.3504753 -1.2403147 0.46781531 0
-1.1396555 -1.0734572 -0.055894189 0
-1.3185161 -1.2419285 0.46212509 0
-1.13193 -1.0934026 -0.056186106 0
-1.2894157 -1.245528 0.45738649 0
-1.1131358 -1.1026775 -0.055937998 0
-1.2670132 -1.2551091 0.45501 0
-1.1001222 -1.1175796 -0.055986784 0
-1.2535081 -1.2733996 0.45588234 0
-1.089972 -1.1355191 -0.056193452 0
-1.0746783 -1.1481812 -0.056145925 0
-1.059391 -1.1608052 -0.056106463 0
-1.0417702 -1.1707698 -0.055949595 0
-1.0242665 -1.1807051 -0.055803597 0
-1.0155225 -1.2008439 -0.056146588 0
-1.0029701 -1.216748 -0.056295227 0
-0.97977322 -1.2195749 -0.05585077 0
-0.97246432 -1.242193 -0.056321319 0
-0.95034355 -1.2459444 -0.055944391 0
-0.9312762 -1.2533648 -0.055746607 0
-0.91871017 -1.2695366 -0.055946913 0
-0.90664661 -1.286672 -0.056194477 0
-0.89205056 -1.3004299 -0.056300294 0
-0.87143433 -1.3053104 -0.056032069 0
-0.85391325 -1.3146143 -0.055965442 0
-0.80878949 -1.2451456 0.49397275 0
-0.83377814 -1.3196986 -0.055730507 0
-0.78432184 -1.2414196 0.4885377 0
-0.82234389 -1.3386359 -0.056088485 0
-0.76267284 -1.2415016 0.48475221 0
-0.80528516 -1.3486521 -0.05607884 0
-0.74359119 -1.2453301 0.4825528 0
-0.7883206 -1.3588233 -0.056084558 0
-0.7226159 -1.2455686 0.47908133 0
-0.77483618 -1.3751858 -0.056352735 0
-0.70804131 -1.2566377 0.47987151 0
-0.75173199 -1.3743615 -0.055926621 0
-0.6867255 -1.2555128 0.47610202 0
-0.73235935 -1.379934 -0.05577369 0
-0.65383875 -1.2319831 0.46402043 0
-0.7191636 -1.3972787 -0.056104258 0
-0.63945866 -1.2424183 0.46488109 0
-0.70048761 -1.4041674 -0.056022238 0
-0.61903244 -1.2408857 0.4613544 0
-0.67846513 -1.4040049 -0.055670489 0
-0.60016125 -1.2419641 0.45890918 0
-0.66239989 -1.4159992 -0.055810917 0
-0.57821256 -1.2360336 0.45399147 0
-0.64970446 -1.4356877 -0.056260008 0
-0.56181198 -1.2414668 0.45335272 0
-0.62206221 -1.4220065 -0.055412538 0
-0.54824454 -1.2532625 0.45510313 0
-0.61241394 -1.4493834 -0.056174401 0
-0.53455174 -1.2651091 0.45692447 0
-0.59059906 -1.4483551 -0.055841882 0
-0.50187546 -1.2307738 0.33911288 0
-0.51932704 -1.2735711 0.45758256 0
-0.57481486 -1.462033 -0.056085724 0
-0.48341459 -1.2295579 0.33707395 0
-0.49750346 -1.2653928 0.45235747 0
-0.55530858 -1.466377 -0.05597968 0
-0.46428701 -1.2260207 0.14089096 0
-0.46464911 -1.2269769 0.23661934 0
-0.4445453 -1.1738898 0.32025295 0
-0.48103106 -1.2702359 0.45188764 0
-0.53679627 -1.4732395 -0.055979177 0
-0.44132107 -1.2112075 0.13853906 0
-0.44403267 -1.2186495 0.23391661 0
-0.43062833 -1.1818612 0.32092288 0
-0.51846689 -1.4806329 -0.056007594 0
-0.42561129 -1.2154567 0.13840111 0
-0.42508557 -1.2139554 0.23196976 0
-0.41138491 -1.1748292 0.31758159 0
-0.43914029 -1.2540927 0.44206941 0
-0.4964661 -1.4771751 -0.055635907 0
-0.40939933 -1.2181184 0.13810621 0
-0.40812695 -1.2143326 0.23104148 0
-0.40722647 -1.2116534 0.32612392 0
-0.41878256 -1.2460371 0.43733624 0
-0.48115841 -1.4936497 -0.056023765 0
-0.39753008 -1.2340441 0.13933323 0
-0.39351943 -1.221594 0.23146188 0
-0.41253152 -1.2806128 0.34325939 0
-0.41110113 -1.2761724 0.4460609 0
-0.46196392 -1.4984561 -0.055981413 0
-0.40715638 -1.3206788 0.35259658 0
-0.44344997 -1.5054781 -0.056030694 0
-0.3668474 -1.2454184 0.3312439 0
-0.42375118 -1.5084227 -0.055937257 0
-0.34717804 -1.235846 0.32750922 0
-0.4027645 -1.5063076 -0.055666335 0
-0.33178112 -1.2408353 0.32769829 0
-0.3881799 -1.52864 -0.056306534 0
-0.31552246 -1.2425172 0.32706726 0
-0.36829397 -1.5308802 -0.056213774 0
-0.3473177 -1.5280427 -0.055944547 0
-0.32873559 -1.5354958 -0.056061421 0
-0.31076872 -1.5464448 -0.056313831 0
-0.28966492 -1.5416793 -0.056003034 0
-0.49807519 -2.650898 0.096296512 0
-0.26804164 -1.5326889 -0.055549435 0
-0.43162125 -2.4680536 0.089449972 0
-0.25090668 -1.5494337 -0.05603737 0
-0.39995793 -2.4698756 0.089326397 0
-0.23175216 -1.5549836 -0.056128096 0
-0.36729601 -2.4644399 0.088955484 0
-0.21097769 -1.5491363 -0.05581671 0
-0.3358241 -2.4658403 0.088846348 0
-0.1916848 -1.5535285 -0.055883572 0
-0.30357367 -2.4603431 0.088503525 0
-0.17176208 -1.5526848 -0.055770993 0
-0.27292326 -2.4671557 0.088617943 0
-0.15263052 -1.5591398 -0.055929385 0
-0.24122152 -2.4641078 0.088392347 0
-0.13332681 -1.564927 -0.056072313 0
-0.21017982 -2.4669912 0.08839383 0
-0.11352266 -1.5652509 -0.056028254 0
-0.17855977 -2.461983 0.088126831 0
-0.093352623 -1.5589972 -0.055757903 0
-0.14795621 -2.4708819 0.088371679 0
-0.074231185 -1.5709612 -0.056147918 0
-0.11628022 -2.4608488 0.0879535 0
-0.054172844 -1.5639145 -0.055867255 0
-0.085703105 -2.4741609 0.088383712 0
-0.034726135 -1.575779 -0.056271002 0
-0.054425195 -2.4696696 0.088191792 0
-0.014749091 -1.5619717 -0.055766892 0
0.0049311575 -1.565833 -0.055902533 0
0.02470004 -1.5690479 -0.056023974 0
0.044718277 -1.5779274 -0.056356661 0
0.064142764 -1.5664941 -0.055972721 0
0.083389916 -1.5567541 -0.055657808 0
0.10309163 -1.5571955 -0.055715587 0
0.12415005 -1.5742825 -0.056378417 0
0.14282368 -1.5601563 -0.055932499 0
0.16246729 -1.5583369 -0.055936176 0
0.18212152 -1.5565586 -0.055950232 0
0.20167996 -1.5539412 -0.055943001 0
0.2210816 -1.5502383 -0.05590548 0
0.24069238 -1.5480323 -0.055930793 0
0.25891751 -1.5374719 -0.055662628 0
0.27981991 -1.5427142 -0.055975549 0
0.29715061 -1.5284125 -0.055587985 0
0.31854001 -1.534999 -0.055968985 0
0.33862221 -1.5344007 -0.056098197 0
0.35812366 -1.530906 -0.056130849 0
0.37555906 -1.5189462 -0.055861305 0
0.39810112 -1.5273194 -0.056349132 0
0.41392669 -1.5098796 -0.055893578 0
0.43458349 -1.5103812 -0.056110278 0
0.45273018 -1.5020148 -0.056006812 0
0.46989125 -1.4907537 -0.055803116 0
0.48972067 -1.48805 -0.055928316 0
0.50980073 -1.4857953 -0.056080401 0
0.53376585 -1.4940871 -0.05664257 0
0.54637378 -1.4706614 -0.056010868 0
0.56560415 -1.465625 -0.056085858 0
0.49202293 -1.2749573 0.45466071 0
0.58437598 -1.459293 -0.056120694 0
0.50734973 -1.2669443 0.45404547 0
0.60710531 -1.4624215 -0.056530528 0
0.52494174 -1.2645024 0.45550317 0
0.61989731 -1.4416989 -0.056026783 0
0.53928643 -1.2542217 0.45421004 0
0.63193971 -1.420158 -0.055494513 0
0.55775559 -1.2534441 0.45643571 0
0.65288925 -1.418865 -0.055760823 0
0.57274127 -1.2446866 0.45583683 0
0.67146581 -1.4121367 -0.055824265 0
0.59369755 -1.248585 0.45996594 0
0.692563 -1.4104332 -0.056097228 0
0.61440092 -1.2512529 0.4637621 0
0.70805907 -1.3972437 -0.055922829 0
0.63118488 -1.2455446 0.46455541 0
0.7306881 -1.3979601 -0.056315292 0
0.64953232 -1.242692 0.46650505 0
0.74281186 -1.3785894 -0.055907331 0
0.66969234 -1.2428864 0.46970648 0
0.75677502 -1.3631183 -0.055661961 0
0.69737679 -1.2561289 0.051293127 0
0.7049405 -1.2697529 0.15607908 0
0.69750923 -1.2563676 0.25916165 0
0.69717157 -1.2557594 0.36644807 0
0.69233704 -1.2470512 0.47453752 0
0.77137709 -1.3491069 -0.055482056 0
0.70875931 -1.239591 0.050978214 0
0.71095198 -1.2434258 0.15393117 0
0.71321046 -1.2473758 0.25913888 0
0.71745235 -1.2547947 0.3687737 0
0.71670979 -1.2534961 0.48038611 0
0.79550552 -1.3515244 -0.055988993 0
0.73247468 -1.2444382 0.05155278 0
0.72974503 -1.2398006 0.15460771 0
0.73594874 -1.2503403 0.26165926 0
0.72653741 -1.234351 0.3654252 0
0.7336036 -1.2463561 0.48115191 0
0.80909455 -1.3358448 -0.055757083 0
0.82917356 -1.3308854 -0.055981454 0
0.83933049 -1.3101393 -0.055548966 0
0.86735344 -1.3170714 -0.056301501 0
0.87187314 -1.2883216 -0.055537429 0
0.89866853 -1.2925491 -0.056203045 0
0.91302514 -1.2785451 -0.056089584 0
0.92537218 -1.2619306 -0.055867471 0
0.9403398 -1.2490523 -0.05581712 0
0.95530248 -1.2362206 -0.055776842 0
0.97535032 -1.2298415 -0.056038726 0
0.76989985 -0.97078425 0.044234574 0
0.77234739 -0.97387046 0.13357981 0
0.99537164 -1.2231323 -0.056299668 0
0.76698154 -0.94248199 0.04338159 0
0.76933646 -0.94537574 0.13098978 0
1.003922 -1.2023922 -0.055922471 0
0.77917939 -0.93321913 0.043403409 0
0.76612318 -0.9175818 0.12846521 0
1.021574 -1.1926825 -0.056064729 0
0.76730376 -0.89582324 0.042110186 0
0.77257788 -0.90198076 0.1276329 0
1.0364524 -1.1796592 -0.056061592 0
0.77660739 -0.88391131 0.042006604 0
0.77600402 -0.88322455 0.12635154 0
1.0480465 -1.1629899 -0.055892158 0
0.77970809 -0.8652218 0.041581713 0
0.77595526 -0.86105734 0.12456829 0
1.0681453 -1.1556939 -0.056183469 0
1.0830603 -1.1426257 -0.056206722 0
1.093419 -1.1248423 -0.056004789 0
1.102457 -1.1059314 -0.055750005 0
1.1224625 -1.0979959 -0.056058042 0
1.1400654 -1.0874641 -0.056248821 0
1.1438969 -1.0639354 -0.055772439 0
1.1567167 -1.0490075 -0.055749029 0
1.1715742 -1.0358993 -0.055831999 0
1.1872281 -1.023396 -0.055959422 0
1.2020581 -1.010079 -0.056054469 0
1.2142557 -0.99451536 -0.056034852 0
1.2195032 -0.9734177 -0.055706944 0
1.2370416 -0.96216899 -0.055950213 0
1.2504843 -0.94759738 -0.056014083 0
1.2619218 -0.93148571 -0.055996563 0
1.2813125 -0.92110282 -0.056337859 0
1.2851444 -0.8995319 -0.056003861 0
1.2872984 -0.87709904 -0.05561202 0
1.3152568 -0.87210405 -0.056340955 0
1.3135309 -0.84734458 -0.055805538 0
1.3267068 -0.83237654 -0.055915579 0
1.3388878 -0.81670707 -0.055991083 0
1.3381987 -0.79334205 -0.055540092 0
1.3577828 -0.78201699 -0.055939771 0
1.3752486 -0.76918048 -0.056255843 0
1.3792212 -0.74876159 -0.056028225 0
1.3855249 -0.72974825 -0.055906575 0
1.3975368 -0.71374303 -0.056024164 0
1.3994805 -0.69265866 -0.055748012 0
1.4258765 -0.68350834 -0.05645217 0
1.4220089 -0.6597656 -0.055965684 0
1.4282745 -0.64094293 -0.055890206 0
1.4528236 -0.6301046 -0.056535881 0
1.4497246 -0.60718912 -0.056113295 0
1.4429196 -0.58309424 -0.0555613 0
1.4623691 -0.56964076 -0.056029577 0
1.4748011 -0.55319893 -0.056234542 0
1.4712338 -0.53082752 -0.055839222 0
1.4865226 -0.51528406 -0.056168769 0
1.501403 -0.49935654 -0.056488965 0
1.506023 -0.47991905 -0.056430943 0
1.4914023 -0.45465541 -0.055664163 0
1.5117534 -0.4401336 -0.056212425 0
1.5090761 -0.41881612 -0.055912342 0
1.5201278 -0.40133896 -0.056130119 0
1.5189557 -0.38063705 -0.055905428 0
1.5329406 -0.36369082 -0.05624713 0
1.5215242 -0.34080479 -0.055666357 0
1.5219836 -0.32083762 -0.055530954 0
1.5387751 -0.30419323 -0.055999406 0
1.5409192 -0.28450531 -0.055942625 0
1.546085 -0.2653735 -0.056004412 0
1.5520989 -0.24632896 -0.056105446 0
1.5488008 -0.22585137 -0.055878997 0
1.5520816 -0.20640662 -0.055899158 0
1.5659051 -0.18821159 -0.056307197 0
1.5536222 -0.1669191 -0.055785522 0
1.566936 -0.14841755 -0.056192018 0
1.5535095 -0.12743171 -0.055648573 0
1.5527192 -0.10770345 -0.055567276 0
1.5635017 -0.088685974 -0.055908751 0
1.5721757 -0.069331303 -0.056183249 0
1.5584921 -0.049075764 -0.055667758 0
1.5621173 -0.02950771 -0.055779554 0
1.5670707 -0.0098660495 -0.055947553 0
1.5726415 0.0099011222 -0.056146443 0
1.5706098 0.02966813 -0.0560828 0
1.5568149 0.049022947 -0.055607848 0
1.5666974 0.069089711 -0.055987474 0
1.5670815 0.088889033 -0.056036763 0
1.571375 0.10899751 -0.056234915 0
1.5668966 0.12852982 -0.056128114 0
1.5656581 0.14829649 -0.05614619 0
1.5599722 0.16760133 -0.056013532 0
1.5621586 0.18776129 -0.056172479 0
1.54792 0.20585318 -0.055749275 0
1.5429953 0.22500478 -0.055669539 0
1.5457993 0.24532917 -0.055877727 0
1.5459162 0.2653445 -0.055998296 0
1.5536133 0.28684908 -0.05640348 0
1.5402241 0.30447969 -0.056052141 0
1.5338446 0.32333794 -0.05596371 0
1.5320059 0.34315255 -0.056049839 0
1.5281104 0.36254486 -0.056069899 0
1.5181521 0.38043568 -0.055875849 0
1.5144548 0.39984122 -0.055920646 0
1.5052847 0.41776389 -0.055771869 0
1.5127474 0.44042301 -0.056249384 0
1.5023922 0.4580057 -0.056074344 0
1.4942989 0.47618297 -0.055991638 0
1.4924804 0.49638894 -0.056153256 0
1.4757805 0.51156044 -0.05576288 0
1.4787768 0.53354907 -0.05612551 0
1.4610493 0.54804069 -0.055710189 0
1.4558223 0.56709063 -0.055778746 0
1.4530497 0.58718783 -0.055951368 0
1.4352381 0.60112178 -0.055552579 0
1.4552696 0.63116539 -0.056631062 0
1.430046 0.64173782 -0.055959523 0
1.4194787 0.65859169 -0.055866107 0
1.4049957 0.67349893 -0.055625472 0
1.4069171 0.69633937 -0.056044251 0
1.3971972 0.71356964 -0.056010552 0
1.3852912 0.72962517 -0.055897146 0
1.3818824 0.75020629 -0.056136329 0
1.3645271 0.76318395 -0.055817273 0
1.3482442 0.77652323 -0.055546787 0
1.3408298 0.79490197 -0.055649295 0
1.3375444 0.81588757 -0.055934906 0
1.3278995 0.83312482 -0.055965845 0
1.3204241 0.85179126 -0.056098394 0
1.3071305 0.86671573 -0.055992849 0
1.2886053 0.87798953 -0.055668484 0
1.2877537 0.90135825 -0.056117568 0
1.2690406 0.91228092 -0.055798277 0
1.2559474 0.92707568 -0.055731453 0
1.2447441 0.9432475 -0.055756953 0
1.240768 0.96506733 -0.056118749 0
1.2254237 0.97814351 -0.055977389 0
1.213496 0.99389309 -0.055999789 0
1.1900059 0.99995172 -0.055492457 0
1.1937463 1.0290148 -0.056266658 0
1.173213 1.0373482 -0.055910088 0
1.1600618 1.0520412 -0.055910252 0
1.1523921 1.0718368 -0.056186639 0
1.136148 1.0837274 -0.056055538 0
1.1183248 1.0939484 -0.055851396 0
1.1070173 1.1105061 -0.055980615 0
1.0950365 1.1265063 -0.056087639 0
1.0786359 1.1379582 -0.055977121 0
0.59131598 0.62383682 0.28596744 0
1.0623194 1.1493905 -0.055877037 0
0.62081742 0.67170161 0.30430105 0
1.0471907 1.1620402 -0.055846516 0
1.0021446 1.1120536 0.05344421 0
1.0042738 1.1144165 0.1612215 0
0.99981767 1.1094716 0.26935199 0
0.6236214 0.69201642 0.30992216 0
1.0354751 1.1785469 -0.05600873 0
0.97577596 1.110599 0.052779607 0
0.98365146 1.1195627 0.16016138 0
0.98584425 1.1220584 0.26937261 0
0.62189382 0.70782095 0.31346828 0
1.0216308 1.1927488 -0.056067839 0
0.95427173 1.1141075 0.052371126 0
0.96802294 1.1301619 0.15992118 0
0.95885974 1.1194639 0.26583001 0
0.62411368 0.72864956 0.31918675 0
1.0022622 1.2004044 -0.055830017 0
0.93654013 1.1216893 0.052169032 0
0.94332105 1.1298108 0.15817812 0
0.93863624 1.1241997 0.26412699 0
0.6273253 0.75134432 0.32564205 0
0.98841274 1.214581 -0.055906065 0
0.9174363 1.1273638 0.051891532 0
0.91119856 1.1196986 0.15514368 0
0.91488343 1.1242267 0.26140592 0
0.63055748 0.77484137 0.3323583 0
0.97070897 1.2239891 -0.055772059 0
0.88808399 1.1198053 0.051024839 0
0.88881087 1.1207219 0.15372251 0
0.89397448 1.1272328 0.25946683 0
0.62505257 0.78814304 0.33466128 0
0.95278877 1.2329676 -0.055630077 0
0.87034935 1.1262859 0.050816722 0
0.86396569 1.1180251 0.15184833 0
0.87169558 1.128028 0.25710288 0
0.61800122 0.79973185 0.33625105 0
0.94287986 1.2524263 -0.055967897 0
0.84697896 1.1250411 0.050275363 0
0.83754653 1.1125121 0.1496553 0
0.8403579 1.1162465 0.25198576 0
0.60335708 0.80143857 0.33374774 0
0.92885298 1.2666774 -0.056077614 0
0.82012099 1.1183995 0.049513143 0
0.82375437 1.1233543 0.14970656 0
0.81753224 1.1148692 0.24933116 0
0.59786838 0.81531352 0.33636397 0
0.91329598 1.2789243 -0.056106225 0
0.81066316 1.1352036 0.049801212 0
0.80688453 1.1299123 0.14921463 0
0.81065595 1.1351935 0.25157365 0
0.59359759 0.83123815 0.33982313 0
0.88969958 1.2796491 -0.055642121 0
0.80831558 1.1625952 0.050552342 0
0.81048137 1.1657102 0.1525822 0
0.80758613 1.161546 0.25513983 0
0.57782036 0.83107531 0.33675531 0
0.88142121 1.3024302 -0.056145631 0
0.81504607 1.2043511 0.051917601 0
0.81397843 1.2027736 0.1560795 0
0.81092417 1.1982604 0.2609407 0
0.57269722 0.84624481 0.33995295 0
0.86146945 1.3081367 -0.055919562 0
0.81262213 1.2339623 0.052748792 0
0.81374258 1.2356637 0.15900524 0
0.80822104 1.2272793 0.26502272 0
0.7361477 1.1178362 0.34148362 0
0.56249022 0.85413837 0.34025159 0
0.84644145 1.321239 -0.056019582 0
0.80794555 1.2611494 0.05347183 0
0.81113088 1.2661215 0.16159742 0
0.78792834 1.2299039 0.2634261 0
0.71824342 1.1211303 0.3397001 0
0.55591476 0.86774606 0.34285656 0
0.82496995 1.3241383 -0.055697646 0
0.81340158 1.3055702 0.054916613 0
0.81175011 1.3029195 0.16497631 0
0.77490276 1.2437768 0.26428652 0
0.70351398 1.1291925 0.33943179 0
0.54498899 0.87474799 0.34288442 0
0.81711131 1.3490807 -0.056309544 0
0.75811321 1.2516727 0.26391491 0
0.68000495 1.1227131 0.33488363 0
0.53287661 0.87979877 0.34220687 0
0.41029349 0.67740959 0.46967918 0
0.80016631 1.3594428 -0.056317028 0
0.73949546 1.2563661 0.26292026 0
0.6542508 1.1115396 0.32906735 0
0.52444977 0.8910141 0.34397322 0
0.40889582 0.69469368 0.47805515 0
0.77439475 1.3543847 -0.055699103 0
0.72718912 1.271824 0.26421794 0
0.64093316 1.1209657 0.32944247 0
0.51411688 0.89916933 0.34459499 0
0.41622797 0.72796565 0.34719318 0
0.40813291 0.71380776 0.4114044 0
0.40957883 0.71633655 0.48936081 0
0.76292449 1.3741949 -0.056114264 0
0.71248913 1.2833495 0.26472747 0
0.62232465 1.1209435 0.32710695 0
0.50298965 0.90599495 0.34475616 0
0.41762424 0.75223309 0.35623085 0
0.40696463 0.73303282 0.41949797 0
0.40906566 0.73681724 0.49979353 0
0.74530011 1.3832074 -0.056094609 0
0.69403857 1.2880708 0.26387769 0
0.60440016 1.1217102 0.32508397 0
0.48883265 0.90722775 0.34285575 0
0.41541195 0.77096581 0.36259606 0
0.40252271 0.7470445 0.42458224 0
0.41292223 0.76634514 0.51625484 0
0.72294664 1.383149 -0.055718645 0
0.6785292 1.2981691 0.26417512 0
0.58365899 1.1166625 0.32146561 0
0.47790772 0.91433799 0.34324136 0
0.41606826 0.79602611 0.37188873 0
0.40565553 0.77610439 0.43816048 0
0.40732926 0.77930659 0.5214898 0
0.70750451 1.3961495 -0.055879034 0
0.66428739 1.3108672 0.26503593 0
0.56689483 1.1186782 0.31996554 0
0.46279252 0.91324866 0.34061775 0
0.41268873 0.81437665 0.37800398 0
0.40786779 0.80486327 0.45146134 0
0.41185138 0.81272429 0.5403387 0
0.69495279 1.4153 -0.056290798 0
0.64363444 1.3107882 0.26336041 0
0.54892665 1.1179118 0.31774408 0
0.45177579 0.92006004 0.34100941 0
0.41714114 0.84952515 0.39184946 0
0.41191393 0.8388797 0.46759522 0
0.40872794 0.83239132 0.54994887 0
0.67138004 1.4119563 -0.055817135 0
0.53267545 1.1202514 0.31647751 0
0.44021463 0.92580026 0.34105533 0
0.41031295 0.8629151 0.39561111 0
0.40744814 0.8568902 0.47473684 0
0.40891835 0.85998213 0.564731 0
0.65441823 1.4221878 -0.055891406 0
0.51595402 1.1212761 0.31490657 0
0.43485767 0.94503671 0.3460972 0
0.40834525 0.8874197 0.40445602 0
0.40524572 0.88068378 0.48505345 0
0.4062925 0.88295865 0.57641375 0
0.64069372 1.439831 -0.056263257 0
0.49802178 1.1192044 0.31253871 0
0.41502666 0.93268943 0.33963442 0
0.40287191 0.90537405 0.41029435 0
0.40661415 0.91378397 0.50042433 0
0.4059124 0.91220689 0.59212393 0
0.62011552 1.4422064 -0.056046505 0
0.47887495 1.1137224 0.30929944 0
0.41905138 0.97459036 0.35294297 0
0.40998438 0.95350319 0.42973173 0
0.40960461 0.95261997 0.51882666 0
0.40747017 0.94765586 0.61175519 0
0.60065705 1.4468886 -0.055930097 0
0.46441263 1.1186972 0.30903244 0
0.41434512 0.99809241 0.35953611 0
0.40647492 0.97913432 0.43894175 0
0.4060021 0.9779954 0.5298205 0
0.40764478 0.98195237 0.63053149 0
0.58372629 1.4576705 -0.056058299 0
0.44835714 1.1196291 0.30770588 0
0.42240542 1.054823 0.37802577 0
0.40852907 1.0201713 0.4549962 0
0.40718079 1.0168043 0.54802382 0
0.40990508 1.0236074 0.65391278 0
0.56551564 1.4653957 -0.056077085 0
0.43283767 1.1215931 0.30672342 0
0.4167026 1.0797831 0.38505992 0
0.40788835 1.0569431 0.4690685 0
0.40486002 1.0490959 0.5626356 0
0.40392423 1.046671 0.66534454 0
0.54963958 1.4794519 -0.056345657 0
0.41850272 1.1264739 0.30659267 0
0.41150051 1.1076262 0.39311004 0
0.40593836 1.0926547 0.4826104 0
0.40920344 1.1014433 0.58789968 0
0.40641212 1.09393 0.69207793 0
0.52654219 1.4738671 -0.055876009 0
0.39998311 1.1196101 0.30332968 0
0.40770873 1.1412351 0.40318418 0
0.40695384 1.1391221 0.50083131 0
0.40587908 1.1361138 0.60362935 0
0.50595057 1.4745741 -0.055656865 0
0.38617638 1.1254966 0.30358297 0
0.40452647 1.1789774 0.41468555 0
0.40668574 1.1852704 0.51882839 0
0.40980232 1.1943536 0.63178098 0
0.49215463 1.4954458 -0.056206286 0
0.59655178 1.8126637 0.34416011 0
0.36781204 1.1176223 0.30018592 0
0.4070009 1.2367003 0.43315163 0
0.40785336 1.2392906 0.54018372 0
0.4083631 1.2408395 0.6535989 0
0.47183219 1.4969113 -0.056033615 0
0.57249683 1.816275 0.3434498 0
0.35224307 1.1175088 0.29894039 0
0.40664971 1.2901167 0.45003143 0
0.40815565 1.2948943 0.56213552 0
0.40487123 1.2844743 0.67384416 0
0.45112336 1.4966837 -0.05580803 0
0.5512805 1.8289734 0.34451103 0
0.33866856 1.1235945 0.29940382 0
0.40808281 1.353889 0.4704473 0
0.40487909 1.34326 0.5808726 0
0.43462858 1.510538 -0.0561161 0
0.52789527 1.8346835 0.34430718 0
0.32418352 1.1266897 0.29911706 0
0.40976778 1.4241351 0.49302429 0
0.40971541 1.4239531 0.61348742 0
0.41714737 1.5216277 -0.056328475 0
0.30755505 1.121868 0.041529946 0
0.30527934 1.1135669 0.12408989 0
0.30718288 1.1205105 0.20953886 0
0.30684924 1.1192933 0.29610419 0
0.40607697 1.4812461 0.51098496 0
0.40680629 1.4839065 0.63705987 0
0.39595571 1.5190884 -0.056045461 0
0.29620761 1.1364037 0.041926637 0
0.29260758 1.1225922 0.12467516 0
0.29043037 1.1142393 0.20766579 0
0.288243 1.1058475 0.29156384 0
0.39880157 1.5300065 0.52603179 0
0.39921039 1.5315751 0.65531456 0
0.3785713 1.5311291 -0.05630935 0
0.27642906 1.1180155 0.041116536 0
0.2765061 1.118327 0.12380496 0
0.27559885 1.1146578 0.20708056 0
0.2766377 1.1188593 0.29405275 0
0.39411226 1.5939845 0.54627848 0
0.38988364 1.5768818 0.67254597 0
0.35955048 1.5370053 -0.056354482 0
0.26210821 1.1204594 0.041081779 0
0.26141167 1.1174818 0.1233372 0
0.26015037 1.1120901 0.20597862 0
0.26265773 1.1228086 0.2941981 0
0.38564947 1.6485733 0.56327778 0
0.33679286 1.5261114 -0.055795133 0
0.24681775 1.1184067 0.040889319 0
0.24754107 1.1216842 0.12344719 0
0.24470578 1.1088367 0.20478907 0
0.24719299 1.1201069 0.29265144 0
0.37455091 1.6972046 0.57823664 0
0.31824264 1.533566 -0.055916734 0
0.23154734 1.1157937 0.040683962 0
0.23089777 1.1126635 0.12212475 0
0.23201931 1.118068 0.20593807 0
0.23100775 1.1131935 0.29006216 0
0.35825631 1.7263862 0.5865953 0
0.29948327 1.5404108 -0.056024361 0
0.2208856 1.1361387 0.041321084 0
0.21830115 1.1228454 0.12293084 0
0.21718483 1.1171036 0.20524043 0
0.21775886 1.1200562 0.29111275 0
0.3459467 1.7793981 0.6030798 0
0.27993071 1.5433251 -0.055997714 0
0.20196931 1.1135051 0.040402211 0
0.20358853 1.1224324 0.12259524 0
0.20380022 1.1235994 0.20594606 0
0.20504712 1.1304739 0.29312608 0
0.32971784 1.8178135 0.61464381 0
0.26117632 1.5508848 -0.056148231 0
0.18875001 1.1208119 0.04057787 0
0.18872096 1.1206393 0.12213016 0
0.19014172 1.129076 0.20649464 0
0.18847091 1.1191547 0.28955275 0
0.31274924 1.8571287 0.62655592 0
0.24182072 1.5552893 -0.05619299 0
0.17641556 1.1346308 0.040994491 0
0.17343405 1.1154549 0.12131751 0
0.17269705 1.1107149 0.20272282 0
0.17427215 1.1208453 0.28939945 0
0.29324645 1.8860379 0.6350131 0
0.22154106 1.55346 -0.056021668 0
0.15925814 1.1167283 0.040272024 0
0.15930918 1.1170862 0.12126713 0
0.16113713 1.1299039 0.20583846 0
0.15958413 1.1190141 0.28838494 0
0.27526373 1.9301668 0.64865243 0
0.20198211 1.5562693 -0.056026813 0
0.14580961 1.123461 0.040445402 0
0.14463907 1.114442 0.12077281 0
0.14458711 1.1140417 0.20260105 0
0.14459069 1.1140692 0.28661862 0
0.255909 1.9717753 0.66150004 0
0.18186986 1.5544078 -0.055872921 0
0.13091566 1.1189117 0.040219091 0
0.13170284 1.1256396 0.12179691 0
0.13176604 1.1261798 0.20449054 0
0.13097118 1.1193862 0.28753945 0
0.23453379 2.0045166 0.67144024 0
0.1631363 1.5647538 -0.056166515 0
0.11925942 1.1439002 0.12360045 0
0.11889037 1.1403604 0.20677719 0
0.11922328 1.1435534 0.29333842 0
0.21185212 2.032021 0.67970574 0
0.14352997 1.5678716 -0.056209095 0
0.12032796 1.3144209 0.14185058 0
0.11934683 1.3037035 0.23610437 0
0.1197997 1.3086504 0.3352747 0
0.18934315 2.0683191 0.69099504 0
0.12320639 1.5623165 -0.055949889 0
0.17019486 2.1581533 0.23265532 0
0.16669762 2.1138065 0.38240582 0
0.16462038 2.087466 0.53423291 0
0.10360795 1.5649945 -0.055994626 0
0.14131723 2.1345918 0.38581356 0
0.14007564 2.1158378 0.54099965 0
0.083852492 1.5653896 -0.055966552 0
0.11534788 2.1533573 0.38891193 0
0.11549258 2.1560585 0.55086821 0
0.064156681 1.566834 -0.055984866 0
0.089471482 2.1850717 0.39440504 0
0.089353077 2.1821802 0.55721051 0
0.044345438 1.5647714 -0.05588679 0
0.023990959 0.84654403 0.35064039 0
0.023996064 0.84672421 0.42382026 0
0.02464298 1.5654231 -0.05589455 0
0.013348878 0.84797549 0.35113585 0
0.013447586 0.85424578 0.42746648 0
0.0049471855 1.5709226 -0.056084242 0
0.002584669 0.8207323 0.41064739 0
0.0025925473 0.82323396 0.48821962 0
-0.014885145 1.5763803 -0.056281317 0
-0.0078119133 0.8273043 0.41395208 0
-0.0076444428 0.80956876 0.48013449 0
-0.034335576 1.5580566 -0.055638134 0
-0.018697234 0.8484304 0.35136595 0
-0.018598111 0.84393251 0.42235589 0
-0.017762179 0.80600011 0.47811273 0
-0.054083455 1.561334 -0.055775069 0
-0.080191866 2.315057 0.41776791 0
-0.080213621 2.315685 0.59115976 0
-0.027545277 0.79520392 0.47187689 0
-0.07445208 1.5756359 -0.056315001 0
-0.11010743 2.3302135 0.42071983 0
-0.11009417 2.3299327 0.59510368 0
-0.036766 0.77808219 0.46195486 0
-0.093838856 1.5671172 -0.056048322 0
-0.13999614 2.3379481 0.42240116 0
-0.14071393 2.3499353 0.60061759 0
-0.11410686 1.5733057 -0.056316581 0
-0.17164963 2.3667059 0.42795342 0
-0.1702451 2.3473401 0.60045463 0
-0.13268171 1.557355 -0.055801004 0
-0.20282686 2.3806856 0.43090892 0
-0.20213601 2.3725767 0.60751313 0
-0.15121575 1.5446876 -0.055410955 0
-0.23516817 2.402272 0.43531764 0
-0.23438995 2.3943224 0.61378837 0
-0.17196204 1.5544924 -0.055835921 0
-0.26661202 2.4101038 0.43731052 0
-0.26689363 2.4126494 0.61929899 0
-0.08588618 0.77638882 0.46324447 0
-0.19211121 1.5569845 -0.056007888 0
-0.29899162 2.4232075 0.44033641 0
-0.29732451 2.4096963 0.61945289 0
-0.2116935 1.5543922 -0.056006089 0
-0.33015946 2.4242468 0.44124576 0
-0.32999581 2.4230452 0.62390316 0
-0.230992 1.5498832 -0.055943992 0
-0.36264226 2.4332147 0.44367403 0
-0.36331823 2.4377503 0.62881774 0
-0.24993005 1.5434027 -0.055819247 0
-0.39726341 2.4532361 0.44820133 0
-0.39604649 2.4457211 0.63211006 0
-0.2692692 1.5397083 -0.055803839 0
-0.43022338 2.4600604 0.4504022 0
-0.43067354 2.4626346 0.63783252 0
-0.28919262 1.5391655 -0.05591172 0
-0.46364826 2.4676681 0.45282808 0
-0.46099058 2.4535232 0.63692564 0
-0.30815798 1.5334532 -0.055840746 0
-0.52307153 2.6029041 0.094784833 0
-0.52109253 2.5930562 0.28424519 0
-0.49313346 2.4539266 0.45141017 0
-0.49226159 2.4495881 0.63746268 0
-0.32839087 1.5338856 -0.056002632 0
-0.54517519 2.5464666 0.092972271 0
-0.54686791 2.554373 0.2807374 0
-0.52698362 2.4614952 0.45398715 0
-0.52825743 2.4674451 0.64378971 0
-0.34646559 1.5242937 -0.055807292 0
-0.57604069 2.5343213 0.092786327 0
-0.57648534 2.5362778 0.27952433 0
-0.56162441 2.4708962 0.45698917 0
-0.56363136 2.4797258 0.64879429 0
-0.36826789 1.5307719 -0.056209795 0
-0.60666615 2.5217173 0.092597209 0
-0.60786366 2.5266948 0.27928963 0
-0.59566802 2.4760015 0.45928422 0
-0.59560233 2.4757285 0.64965916 0
-0.38521776 1.5169752 -0.055876866 0
-0.64001876 2.5203733 0.092836432 0
-0.64280671 2.5313523 0.2806769 0
-0.62749457 2.4710536 0.45979562 0
-0.62648755 2.4670877 0.64941037 0
-0.40656978 1.520539 -0.056192264 0
-0.68360686 2.5566361 0.094481736 0
-0.68303007 2.5544786 0.28417233 0
-0.66137469 2.4734893 0.46176189 0
-0.66247654 2.4776101 0.65432423 0
-0.42316252 1.5063273 -0.055859551 0
-0.69495386 2.4738202 0.46342057 0
-0.69171625 2.4622953 0.65252823 0
-0.43924612 1.4912064 -0.055499535 0
-0.72545934 2.462878 0.46304536 0
-0.72479826 2.4606338 0.65445471 0
-0.46246657 1.5000865 -0.056042325 0
-0.76165867 2.4705653 0.46625692 0
-0.75908387 2.4622135 0.65736502 0
-0.48022595 1.4907551 -0.055915192 0
-0.79199874 2.4585848 0.46584108 0
-0.79199243 2.458565 0.65900129 0
-0.49755678 1.4804202 -0.055758134 0
-0.82592571 2.4574425 0.46755818 0
-0.82377297 2.4510374 0.65971172 0
-0.52174163 1.489985 -0.056361351 0
-0.8446005 2.4120021 0.091238305 0
-0.85483944 2.4412425 0.46648699 0
-0.85782552 2.4497702 0.66222554 0
-0.53767884 1.4756618 -0.056071218 0
-0.86840379 2.3833377 0.090560488 0
-0.88895261 2.4397342 0.46830064 0
-0.88725966 2.4350877 0.66122431 0
-0.55473548 1.4648638 -0.055921912 0
-0.90119159 2.379734 0.090847544 0
-0.91799915 2.4241168 0.46748471 0
-0.9220838 2.4349031 0.66427439 0
-0.57502973 1.4625797 -0.056106694 0
-0.93243736 2.3716407 0.090979598 0
-0.95492959 2.4288492 0.47067899 0
-0.95216447 2.4218163 0.66392249 0
-0.59618533 1.4620545 -0.056370068 0
-0.95663089 2.3459928 0.090450644 0
-0.98146313 2.4068902 0.46878138 0
-0.98150212 2.4069858 0.66319245 0
-0.61028898 1.4443543 -0.055979487 0
-0.97522199 2.3080313 0.089453407 0
-1.0212268 2.4169095 0.4731999 0
-1.0132269 2.3979766 0.66417289 0
-0.63114524 1.4427699 -0.056221645 0
-1.0016336 2.2896898 0.089224294 0
-1.0471762 2.3937984 0.47121936 0
-1.0437201 2.3858976 0.66441488 0
-0.64578658 1.4270301 -0.055920746 0
-1.034434 2.2858455 0.089574978 0
-1.0729433 2.3709416 0.46934241 0
-1.0733993 2.3719494 0.66424197 0
-0.66229767 1.4157805 -0.055802301 0
-1.0697874 2.2868633 0.090135604 0
-1.1044886 2.3610435 0.47009888 0
-1.1044524 2.360966 0.66500813 0
-0.68719906 1.4220787 -0.056387138 0
-1.1346577 2.3480427 0.47031787 0
-1.1367021 2.3522732 0.66653848 0
-0.6976943 1.3985679 -0.055798836 0
-1.1643131 2.3339319 0.47039086 0
-1.160941 2.3271723 0.66351569 0
-0.71547103 1.3901043 -0.055816185 0
-1.1944771 2.3207755 0.4707334 0
-1.1880367 2.3082626 0.66233701 0
-0.73993278 1.394204 -0.056350451 0
-1.2151543 2.2896309 0.46748281 0
-1.2217376 2.3020356 0.66491199 0
-0.75144434 1.3738356 -0.055905219 0
-1.2366518 2.260921 0.46476358 0
-1.2417152 2.2701783 0.66017431 0
-0.76856685 1.364059 -0.05589677 0
-1.0549084 1.8722605 0.076721989 0
-1.2671338 2.2489197 0.46553963 0
-1.2624373 2.2405846 0.65613919 0
-0.78913474 1.3602268 -0.056142479 0
-1.0481703 1.8067249 0.074571408 0
-1.2945182 2.231353 0.46524069 0
-1.2956153 2.2332442 0.65871501 0
-0.80160576 1.3424901 -0.055822607 0
-1.0540034 1.7651932 0.073399194 0
-1.3217113 2.2135372 0.46495935 0
-1.3166599 2.2050776 0.65524542 0
-0.8210547 1.3365374 -0.056000553 0
-1.0488851 1.7074065 0.071539871 0
-1.3460944 2.1912127 0.46379367 0
-1.3423907 2.1851835 0.65430492 0
-0.84099871 1.3311273 -0.056213137 0
-1.049596 1.6612937 0.070155971 0
-1.3672857 2.1641309 0.46166915 0
-1.3686751 2.1663301 0.65376842 0
-0.85176879 1.3113129 -0.055824894 0
-1.0508374 1.6177825 0.068871841 0
-1.3963155 2.149652 0.46229461 0
-1.3929338 2.1444459 0.65240568 0
-0.86662567 1.2981075 -0.055722877 0
-1.0511564 1.5745138 0.067587957 0
-1.4105223 2.1128035 0.45815355 0
-1.4155867 2.1203892 0.6504584 0
-0.88528794 1.2905715 -0.05587348 0
-1.0459887 1.5248407 0.06601584 0
-1.4359112 2.0932691 0.45780215 0
-1.4354911 2.0926566 0.64744478 0
-0.90136611 1.2791783 -0.055867191 0
-1.0458803 1.4842663 0.064824261 0
-1.4604937 2.0726669 0.45728227 0
-1.458786 2.0702434 0.64614242 0
-0.92041934 1.2718984 -0.056050994 0
-1.054036 1.456539 0.064187884 0
-1.0437025 1.4422594 0.19132635 0
-1.4749075 2.0381281 0.4537237 0
-1.4773731 2.0415351 0.6429376 0
-0.50524801 0.69818622 0.43120489 0
-0.93432432 1.2574672 -0.055929068 0
-1.0552896 1.4202691 0.063170105 0
-1.046111 1.4079159 0.18850297 0
-1.5010597 2.0202119 0.4539071 0
-1.4981185 2.0162537 0.64086592 0
-0.52436721 0.70572335 0.43990302 0
-0.95189542 1.2479789 -0.056035746 0
-1.04935 1.3757465 0.061772663 0
-1.0497941 1.3763287 0.18602896 0
-1.5173167 1.9892725 0.45121264 0
-1.5145348 1.9856251 0.637142 0
-0.52904296 0.69359982 0.43646392 0
-0.96908545 1.2378769 -0.05612563 0
-1.0469956 1.3373967 0.06063788 0
-1.0524763 1.3443975 0.18348983 0
-1.5304843 1.9549887 0.44777218 0
-1.5289599 1.9530416 0.63281429 0
-0.5519141 0.70499635 0.44797328 0
-0.98101538 1.2211211 -0.055921577 0
-1.0521665 1.3096865 0.059977457 0
-1.0520208 1.3095052 0.18052129 0
-1.5487001 1.9277478 0.44596419 0
-1.5458368 1.9241838 0.62972116 0
-0.55904114 0.69586772 0.44661042 0
-0.99582106 1.2080753 -0.055893961 0
-1.0464194 1.2694584 0.05873397 0
-1.0515213 1.2756478 0.17766513 0
-1.5646666 1.8981674 0.4436439 0
-1.5653945 1.8990505 0.62789708 0
-0.57363921 0.69590753 0.45123619 0
-1.0072957 1.191116 -0.055691745 0
-1.0504187 1.2421083 0.058075946 0
-1.0548103 1.2473013 0.17555319 0
-1.5742215 1.8614993 0.43967193 0
-1.5709639 1.8576473 0.62069911 0
-0.58567119 0.69254965 0.45380491 0
-1.030015 1.1873314 -0.056116782 0
-1.0505615 1.2110162 0.057236191 0
-1.0510634 1.2115947 0.17237674 0
-1.5885885 1.8312173 0.43720964 0
-1.6003177 1.8447379 0.62306952 0
-1.0341228 1.1621754 -0.055538878 0
-1.0649687 1.1968408 0.057195496 0
-1.0642607 1.1960452 0.17205748 0
-1.6040136 1.8026341 0.43517318 0
-1.6098667 1.809212 0.61786836 0
-1.0613375 1.162938 -0.056209546 0
-1.0925877 1.1971798 0.057864591 0
-1.0965743 1.2015481 0.17482163 0
-1.606021 1.7597635 0.42967185 0
-1.6108207 1.7650226 0.60965598 0
-1.0781065 1.1518439 -0.05632503 0
-0.94283354 1.0073189 0.049257774 0
-1.119774 1.1963612 0.17610456 0
-1.6244165 1.7355189 0.42871258 0
-1.6262378 1.7374648 0.60716236 0
-1.0878855 1.1333454 -0.056085881 0
-0.94438756 0.98385108 0.048687853 0
-1.1523131 1.2004653 0.17883042 0
-1.6272931 1.6952935 0.42380419 0
-1.631016 1.699172 0.60091031 0
-1.1045823 1.1221105 -0.056213766 0
-0.9509787 0.9660694 0.048396658 0
-1.1771346 1.1958141 0.18033135 0
-1.6478667 1.6740161 0.42363885 0
-1.6488748 1.6750401 0.59967136 0
-1.1101363 1.0997062 -0.055787262 0
-0.96055442 0.95152962 0.048270382 0
-1.2120632 1.2006754 0.18335152 0
-1.6450282 1.6295725 0.41760066 0
-1.6539414 1.638402 0.59396374 0
-1.1280814 1.089685 -0.055995069 0
-0.97626066 0.94303173 0.048459075 0
-1.2357135 1.1936536 0.18464078 0
-1.6574193 1.6010059 0.4155955 0
-1.6568274 1.6004342 0.58771622 0
-1.1366881 1.0706621 -0.055748653 0
-1.0002179 0.94211906 0.049055498 0
-1.2668213 1.1932364 0.18702897 0
-1.6624416 1.5658767 0.41187796 0
-1.6632193 1.5666093 0.58293968 0
-1.1554497 1.0611978 -0.056008998 0
-1.296122 1.1903951 0.062827908 0
-1.3033611 1.1970438 0.19018313 0
-1.6667196 1.5307624 0.40812981 0
-1.6581748 1.5229146 0.57440484 0
-0.66796803 0.61348075 0.37550572 0
-1.1676021 1.0455641 -0.055955421 0
-1.3384806 1.1985824 0.0641445 0
-1.3371867 1.1974237 0.19290341 0
-1.6609175 1.4873182 0.40209115 0
-1.6623025 1.4885584 0.56929642 0
-0.66766453 0.59788013 0.37107334 0
-1.1776395 1.0281301 -0.055811591 0
-1.3711976 1.1971146 0.064984843 0
-1.6755394 1.4628181 0.4011398 0
-1.6708338 1.45871 0.56588262 0
-0.66714478 0.58244616 0.36667919 0
-1.1910309 1.0136796 -0.055836875 0
-1.3946456 1.186975 0.065382563 0
-1.6706805 1.4219068 0.39565858 0
-1.671646 1.4227285 0.56004572 0
-0.65812528 0.56012672 0.35781687 0
-0.6965695 0.59284639 0.45766112 0
-1.2058581 1.0003933 -0.055936992 0
-1.4422467 1.1965039 0.066902511 0
-1.6834552 1.3966131 0.39448777 0
-1.6674346 1.3833222 0.55275506 0
-0.68649697 0.56952554 0.3693139 0
-1.2255366 0.99093461 -0.056266539 0
-1.4801778 1.1968304 0.067957565 0
-1.689306 1.3659257 0.39179721 0
-1.6728721 1.3526375 0.5488677 0
-0.6879676 0.55627137 0.36630771 0
-1.2249562 0.96521288 -0.055677459 0
-1.5186516 1.1966323 0.069026686 0
-1.6798751 1.3236696 0.38571358 0
-1.6786804 1.322728 0.54526538 0
-0.70355165 0.5543685 0.37085912 0
-1.2396132 0.95170951 -0.055794522 0
-1.5549629 1.1938183 0.069988295 0
-1.6902806 1.2977082 0.38432026 0
-1.6671097 1.2799188 0.53622937 0
-0.69538367 0.53387886 0.36298111 0
-0.68499297 0.52590144 0.43208879 0
-1.2417089 0.9287042 -0.055358097 0
-1.6044852 1.2000334 0.07153146 0
-1.6776145 1.2547286 0.37781799 0
-1.6739997 1.2520251 0.53333223 0
-0.69742858 0.52162385 0.36059135 0
-0.7075547 0.52919739 0.44208208 0
-1.2741652 0.92819279 -0.056279533 0
-1.6539921 1.2048858 0.073056385 0
-1.6834186 1.2263223 0.37561765 0
-1.6675808 1.2147849 0.52637196 0
-1.6681311 1.2151858 0.68661964 0
-0.68312174 0.49763462 0.34992665 0
-0.70401806 0.51285702 0.43580285 0
-1.2861898 0.91238707 -0.056298733 0
-1.6813986 1.1927372 0.073597699 0
-1.678858 1.1909349 0.37122449 0
-1.672683 1.1865546 0.52322471 0
-1.6689836 1.1839303 0.68078017 0
-0.7104159 0.50394917 0.36062875 0
-0.71665168 0.50837266 0.4396258 0
-1.2892816 0.89039195 -0.055938862 0
-1.7337792 1.1973668 0.075224556 0
-1.684363 1.1632395 0.36917359 0
-1.6740357 1.1561073 0.51905286 0
-1.6755198 1.1571323 0.67744917 0
-0.719127 0.49663696 0.43727326 0
-1.2935873 0.86951482 -0.055646211 0
-1.705721 1.14654 0.073374949 0
-1.7142514 1.152274 0.22198053 0
-1.6769001 1.1271675 0.36439812 0
-1.6768777 1.1271523 0.51549244 0
-1.6748542 1.1257921 0.671395 0
-0.71731997 0.48216328 0.43244833 0
-1.3140588 0.85945368 -0.056056835 0
-1.7039169 1.1144385 0.072687909 0
-1.6978456 1.1104676 0.21802811 0
-1.6846321 1.1018254 0.36303455 0
-1.6693972 1.0918611 0.50892591 0
-1.6737704 1.0947214 0.66538191 0
-0.73423755 0.48022449 0.43896699 0
-1.3191875 0.83928442 -0.055820357 0
-1.6946133 1.0781353 0.071706198 0
-1.7094336 1.0875641 0.21774031 0
-1.6825911 1.0704865 0.35966131 0
-1.6677154 1.0610225 0.50430012 0
-1.6741097 1.0650905 0.66013277 0
-0.73016602 0.46454123 0.43300131 0
-1.3351703 0.82602257 -0.056052081 0
-1.7209322 1.0646799 0.072246842 0
-1.7223697 1.0655692 0.21766168 0
-1.6781198 1.0381933 0.35588291 0
-1.6653395 1.0302866 0.49961898 0
-1.6721259 1.0344851 0.65416205 0
-1.346588 0.80982107 -0.056098867 0
-1.7411149 1.0470845 0.072534859 0
-1.741986 1.0476085 0.21845627 0
-1.6844355 1.0129982 0.35448903 0
-1.6768267 1.0084224 0.49921608 0
-1.6698513 1.0042275 0.64827371 0
-1.3596994 0.79456729 -0.056223802 0
-1.7717574 1.0353615 0.073262468 0
-1.7676467 1.0329595 0.22002564 0
-1.6859965 0.98524553 0.35217869 0
-1.6648155 0.97286803 0.491954 0
-1.6651353 0.97305489 0.64163512 0
-1.36756 0.77622837 -0.056140218 0
-1.8006265 1.0220373 0.073918194 0
-1.8165976 1.0311025 0.2244848 0
-1.6734084 0.94982821 0.34702337 0
-1.6736932 0.94998986 0.49100351 0
-1.6719601 0.94900614 0.63960946 0
-1.3749591 0.75769877 -0.056047842 0
-1.6860069 0.9291079 0.34718227 0
-1.6797727 0.92567247 0.48932871 0
-1.6715943 0.92116553 0.63498175 0
-1.3820071 0.73905182 -0.055951353 0
-1.6835626 0.90031374 0.34431717 0
-1.6682926 0.8921479 0.48267365 0
-1.6720842 0.89417541 0.63084072 0
-1.3922981 0.72215998 -0.055995386 0
-1.7031901 0.88341409 0.3460288 0
-1.6742404 0.86839837 0.48119253 0
-1.6773852 0.87002957 0.62865752 0
-1.3991771 0.70351434 -0.055911329 0
-1.708232 0.85890901 0.34482846 0
-1.674268 0.84183174 0.47811592 0
-1.6743456 0.84187073 0.62349582 0
-1.4035007 0.68368644 -0.055735663 0
-1.6977444 0.82702118 0.34058219 0
-1.6666209 0.81185997 0.47297522 0
-1.6735948 0.81525725 0.61934429 0
-1.4245687 0.67188936 -0.056231868 0
-1.7384502 0.81992972 0.34664941 0
-1.678053 0.79144382 0.4733538 0
-1.6698705 0.78758454 0.6142472 0
-1.4298381 0.65249467 -0.056111097 0
-1.7333213 0.79098672 0.34361339 0
-1.6851079 0.76898497 0.47257492 0
-1.6734583 0.76366872 0.61198121 0
-1.430137 0.63099658 -0.055806596 0
-1.7368801 0.76633596 0.34237874 0
-1.6761336 0.73953378 0.46740952 0
-1.6762652 0.73959184 0.60955358 0
-1.4398104 0.61372447 -0.055878069 0
-1.7617562 0.75095505 0.34539098 0
-1.6792231 0.71577501 0.46572071 0
-1.6695784 0.7116639 0.60381544 0
-1.4622804 0.60165966 -0.056451611 0
-1.7570763 0.72295433 0.34266156 0
-1.6735177 0.68857384 0.46169698 0
-1.6717585 0.68785006 0.60142368 0
-1.4580936 0.57857871 -0.056004278 0
-1.7734292 0.70370537 0.34409532 0
-1.6754637 0.66483217 0.45988777 0
-1.6740143 0.66425711 0.59917855 0
-1.454721 0.5561434 -0.055601347 0
-1.7816414 0.68112588 0.34399727 0
-1.6778935 0.6414628 0.45830128 0
-1.6755369 0.64056188 0.59678912 0
-1.4764476 0.54324263 -0.056165855 0
-1.7969282 0.66115993 0.345314 0
-1.6826686 0.61911935 0.45743984 0
-1.6767362 0.61693662 0.59440219 0
-1.4782488 0.52286839 -0.055979472 0
-1.802639 0.63760781 0.34484118 0
-1.6701369 0.59074074 0.45197499 0
-1.6743804 0.5922417 0.59087646 0
-1.4871982 0.50505728 -0.056073096 0
-1.8050362 0.61299604 0.34379587 0
-1.6735905 0.56835669 0.45093706 0
-1.6755778 0.56903154 0.58872372 0
-1.4928643 0.48610425 -0.056051493 0
-1.8157927 0.59125572 0.34439924 0
-1.6689903 0.54345417 0.44781819 0
-1.6621013 0.54121095 0.58154809 0
-1.4947309 0.46597952 -0.055896837 0
-1.82117 0.56774622 0.34403592 0
-1.6678908 0.51996171 0.44573101 0
-1.672127 0.52128237 0.58271307 0
-1.4949543 0.44547558 -0.055691004 0
-1.8267101 0.54433417 0.34376037 0
-1.6710489 0.49794933 0.44486406 0
-1.6590979 0.49438807 0.57595748 0
-1.5092225 0.4291127 -0.056016795 0
-1.8247459 0.51882452 0.34213418 0
-1.6712111 0.47517043 0.44327921 0
-1.6773561 0.47691762 0.58016503 0
-1.5078624 0.40827695 -0.055771075 0
-1.8409245 0.49845859 0.3439635 0
-1.6813129 0.45524132 0.4444029 0
-1.6733414 0.45308292 0.57675737 0
-1.5262742 0.39270407 -0.056264702 0
-1.8475001 0.47535419 0.34404641 0
-1.6676979 0.42909181 0.43934119 0
-1.6853596 0.43363613 0.57897174 0
-1.5236082 0.37162849 -0.055989478 0
-1.8591129 0.4534626 0.34511828 0
-1.668045 0.40685859 0.43804824 0
-1.6785197 0.40941349 0.57480538 0
-1.519009 0.35030311 -0.055653956 0
-1.8612236 0.4292222 0.34447944 0
-1.6705201 0.38524351 0.43738958 0
-1.6737214 0.38598177 0.5714525 0
-1.5334538 0.33335665 -0.05602495 0
-1.8758724 0.4077948 0.34621283 0
-1.6729811 0.36368841 0.43680027 0
-1.6711423 0.36328867 0.56896496 0
-1.5333908 0.31317687 -0.055874139 0
-1.8563045 0.37912816 0.34169316 0
-1.6752282 0.3421455 0.4362275 0
-1.6739227 0.34187883 0.5684008 0
-1.5456135 0.29545069 -0.056179494 0
-1.8776872 0.35892799 0.34476984 0
-1.6816936 0.32146296 0.43682232 0
-1.6578907 0.31691295 0.56155735 0
-1.5396202 0.27425766 -0.055831701 0
-1.8874342 0.33621493 0.34575477 0
-1.6747638 0.29833123 0.43401212 0
-1.6736314 0.29812953 0.56557262 0
-1.5485282 0.25577137 -0.056033496 0
-1.8833306 0.31107089 0.34425816 0
-1.6707388 0.27595696 0.43203428 0
-1.6628089 0.27464718 0.56070215 0
-1.5523236 0.23635946 -0.05605869 0
-1.8879591 0.28746393 0.34441528 0
