# .PCD v0.7 - Point Cloud Data file format
VERSION 0.7
FIELDS x y z intensity
SIZE 4 4 4 4
TYPE F F F F
COUNT 1 1 1 1
WIDTH 1349
HEIGHT 1
VIEWPOINT 0 0 0 1 0 0 0
POINTS 1349
DATA ascii
-1.5627946 -0.13810797 -0.056011226 0
-0.93171602 -0.082338013 0.1005211 0
-0.94615692 -0.083614193 0.17130318 0
-1.6785651 -0.14833888 0.42992473 0
-1.6766683 -0.14817126 0.55999172 0
-1.5633627 -0.15802021 -0.056098457 0
-0.94781244 -0.095802158 0.10237975 0
-0.93806481 -0.094816893 0.17004077 0
-1.673016 -0.16910365 0.42901483 0
-1.6683408 -0.16863109 0.55787539 0
-1.5591402 -0.17745228 -0.056022678 0
-0.94866359 -0.10797139 0.03408717 0
-0.94798905 -0.10789461 0.10253745 0
-0.95080113 -0.10821467 0.17258279 0
-1.6765306 -0.19081298 0.43049809 0
-1.6591424 -0.18883395 0.55555063 0
-1.5661086 -0.19825028 -0.056358296 0
-0.96022201 -0.12155242 0.034554742 0
-0.9424203 -0.11929893 0.10208952 0
-0.94316405 -0.11939309 0.17145586 0
-1.6802797 -0.21270296 0.4321143 0
-1.6707566 -0.21149744 0.56028688 0
-1.5558277 -0.21688588 -0.056082163 0
-0.9497143 -0.1323923 0.034233887 0
-0.93805498 -0.13076697 0.10178694 0
-0.93819463 -0.13078643 0.17083831 0
-1.6699352 -0.23279272 0.43017375 0
-1.6709441 -0.23293336 0.56128889 0
-1.556285 -0.23696265 -0.056201749 0
-0.94554627 -0.1439705 0.034146287 0
-0.93998438 -0.14312364 0.10218375 0
-0.94730198 -0.14423785 0.17281373 0
-1.6706393 -0.25437444 0.43114609 0
-1.6705389 -0.25435913 0.5621841 0
-1.5601834 -0.25769645 -0.05645524 0
-0.93698764 -0.15476283 0.033904899 0
-0.94005209 -0.15526898 0.10239554 0
-0.93645042 -0.1546741 0.17117585 0
-1.6785498 -0.2772471 0.43405414 0
-1.6778954 -0.27713904 0.56578934 0
-1.5471685 -0.27560225 -0.056105424 0
-0.95160753 -0.16951302 0.034508426 0
-0.95171434 -0.16953203 0.10389015 0
-0.94809109 -0.16888662 0.17367864 0
-1.661104 -0.29589796 0.4304722 0
-1.6816736 -0.2995621 0.56829029 0
-1.5422183 -0.29480168 -0.05605609 0
-0.95310724 -0.18219055 0.034643255 0
-0.93778002 -0.17926069 0.10260734 0
-0.93888867 -0.17947261 0.17239319 0
-1.6790445 -0.32095659 0.43613425 0
-1.6709248 -0.31940445 0.56597221 0
-1.5447363 -0.31549406 -0.056287549 0
-0.94593322 -0.19319564 0.034468189 0
-0.93145454 -0.19023854 0.10216924 0
-0.94456393 -0.19291596 0.17386751 0
-1.6735737 -0.34180754 0.43579665 0
-1.6759108 -0.34228489 0.56907588 0
-1.5230213 -0.33108875 -0.055643801 0
-0.94382727 -0.20517807 0.034482863 0
-0.94445562 -0.20531465 0.10387065 0
-0.94908935 -0.20632198 0.17516486 0
-1.6710705 -0.36327305 0.43630141 0
-1.6659052 -0.36215019 0.56718189 0
-1.5261866 -0.35195833 -0.055916931 0
-0.94105506 -0.21701945 0.034478687 0
-0.94550705 -0.21804614 0.10427999 0
-0.95085299 -0.21927898 0.17598602 0
-1.6760247 -0.38651294 0.43883085 0
-1.6844743 -0.38846153 0.57512385 0
-1.5267519 -0.37239528 -0.056104999 0
-0.9478721 -0.23119873 0.034832355 0
-0.93018442 -0.22688447 0.102897 0
-0.94306308 -0.23002575 0.17506646 0
-1.6796238 -0.40968281 0.44108897 0
-1.6781349 -0.40931964 0.57467365 0
-1.52788 -0.39311725 -0.056323901 0
-0.99553794 -0.25614783 0.036699597 0
-0.99000973 -0.25472543 0.10986098 0
-0.9889378 -0.25444964 0.18416265 0
-1.6720331 -0.43020725 0.44048324 0
-1.6742288 -0.43077219 0.57514793 0
-1.5057849 -0.4077144 -0.05569423 0
-1.0554105 -0.28576863 0.039036304 0
-1.0607926 -0.2872259 0.11810771 0
-1.6750692 -0.45355073 0.31297463 0
-1.6689978 -0.4519068 0.44114777 0
-1.6803181 -0.45497194 0.579162 0
-1.5093665 -0.42915365 -0.056022141 0
-1.1356066 -0.32288364 0.042149547 0
-1.1224033 -0.31912953 0.12540486 0
-1.6679083 -0.47423136 0.31272763 0
-1.6705235 -0.47497493 0.44309682 0
-1.6714714 -0.47524443 0.57812959 0
-1.4989355 -0.44666192 -0.055839311 0
-1.193735 -0.35571644 0.044469789 0
-1.2074643 -0.35980758 0.13540414 0
-1.6787885 -0.50025564 0.31592369 0
-1.6714511 -0.49806917 0.44497111 0
-1.6751509 -0.49917164 0.58153027 0
-1.4973695 -0.46680206 -0.055995509 0
-1.3056214 -0.40702495 0.04882491 0
-1.3136202 -0.40951857 0.14787492 0
-1.6711276 -0.52097076 0.3156915 0
-1.6811635 -0.52409947 0.44927806 0
-1.6702772 -0.5207057 0.58206844 0
-1.4866321 -0.48407495 -0.0558175 0
-1.4147183 -0.46065846 0.053117402 0
-1.4206936 -0.46260419 0.16057126 0
-1.6679294 -0.5431087 0.31635422 0
-1.6710297 -0.54411823 0.44836539 0
-1.6655978 -0.54234952 0.58277148 0
-1.4842043 -0.50404048 -0.055960208 0
-1.5526361 -0.52728015 0.058540355 0
-1.5635856 -0.53099865 0.17746301 0
-1.6763107 -0.56928045 0.31927821 0
-1.6717297 -0.56772476 0.45043567 0
-1.4794574 -0.52329588 -0.056025241 0
-1.7294897 -0.61173433 0.19715136 0
-1.6787707 -0.59379458 0.32114542 0
-1.6749452 -0.5924415 0.45327622 0
-1.468083 -0.54016495 -0.055847656 0
-1.691757 -0.62246335 0.19372819 0
-1.6718009 -0.61512071 0.32126838 0
-1.6681161 -0.61376494 0.4534837 0
-1.4686329 -0.56146199 -0.05613308 0
-1.6849196 -0.64414889 0.1938587 0
-1.6678253 -0.63761371 0.32202178 0
-1.6622273 -0.63547355 0.45402217 0
-1.4579651 -0.57852769 -0.055999342 0
-1.6806065 -0.66687286 0.19431321 0
-1.6685055 -0.66207117 0.32373717 0
-1.6689793 -0.66225916 0.45810792 0
-1.4530039 -0.59784275 -0.056093488 0
-1.6883992 -0.6946969 0.19621009 0
-1.6649399 -0.68504447 0.32469329 0
-1.6738641 -0.68871641 0.46179259 0
-1.4417102 -0.61453426 -0.0559518 0
-1.6932195 -0.72174102 0.19781074 0
-1.6686072 -0.71124995 0.32712919 0
-1.6674383 -0.71075165 0.46245226 0
-1.4411509 -0.63585603 -0.056236375 0
-1.6839637 -0.74298847 0.19780675 0
-1.6642306 -0.73428202 0.32805789 0
-1.6705916 -0.73708856 0.46586406 0
-1.432646 -0.65377605 -0.056221288 0
-1.6735433 -0.76370758 0.19769669 0
-1.6662933 -0.76039898 0.33032572 0
-1.675753 -0.76471585 0.46995139 0
-1.4189637 -0.66924584 -0.056010626 0
-1.6729747 -0.78904867 0.19878748 0
-1.6768243 -0.79086429 0.33436114 0
-1.6697583 -0.78753161 0.47101396 0
-1.4160442 -0.68979675 -0.05623379 0
-1.9359528 -0.9430595 0.076880343 0
-1.6758925 -0.81637651 0.20033979 0
-1.6759974 -0.81642759 0.33621955 0
-1.6829726 -0.81982535 0.47761574 0
-1.3964292 -0.7021327 -0.055801522 0
-1.8857698 -0.94817609 0.075355656 0
-1.6750126 -0.84220606 0.20148639 0
-1.6717106 -0.84054583 0.33745617 0
-1.6741878 -0.84179133 0.478093 0
-1.3824356 -0.71704447 -0.055598736 0
-1.8218342 -0.94495267 0.073270455 0
-1.6756946 -0.86915267 0.20286886 0
-1.6660521 -0.8641513 0.33848366 0
-1.3835038 -0.73985219 -0.056011945 0
-1.7860268 -0.95510823 0.072308324 0
-1.6658267 -0.89082915 0.20301616 0
-1.6646774 -0.8902145 0.34045479 0
-1.3766651 -0.75863892 -0.056117382 0
-1.7438973 -0.96100962 0.071086973 0
-1.6730925 -0.92199117 0.20530029 0
-1.6655343 -0.91782606 0.34296656 0
-1.3643515 -0.77440727 -0.056008507 0
-1.6956655 -0.96246135 0.069609396 0
-1.6724672 -0.94929397 0.20667399 0
-1.6739509 -0.95013613 0.34713587 0
-1.3568134 -0.79288089 -0.05610447 0
-1.6800376 -0.9817633 0.069469847 0
-1.6745254 -0.97854215 0.20843449 0
-1.6751876 -0.9789291 0.34992087 0
-1.3461488 -0.8095569 -0.056080569 0
-1.682382 -1.0117633 0.070088044 0
-1.671367 -1.0051391 0.2096002 0
-1.6711894 -1.0050322 0.35170141 0
-1.334669 -0.82571244 -0.056031037 0
-1.681228 -1.0401163 0.070580013 0
-1.6806846 -1.03978 0.21239379 0
-1.6724476 -1.0346841 0.35468 0
-1.3273714 -0.84449112 -0.056166653 0
-1.6940486 -1.077776 0.071682304 0
-1.6789887 -1.0681947 0.21386237 0
-1.6721181 -1.0638235 0.35742268 0
-1.3118882 -0.85803407 -0.055964243 0
-1.6839207 -1.1013601 0.071834892 0
-1.6776414 -1.0972531 0.2154336 0
-1.6718901 -1.0934916 0.36028868 0
-1.2996351 -0.87357998 -0.055906367 0
-1.6797198 -1.1290628 0.072256461 0
-1.6832651 -1.1314458 0.21796806 0
-1.671064 -1.1232445 0.36312988 0
-1.2808131 -0.88454348 -0.055571433 0
-1.6687016 -1.1524236 0.072400995 0
-1.6670535 -1.1512853 0.21772879 0
-1.6692605 -1.1528095 0.36586347 0
-1.2781433 -0.90667915 -0.055946521 0
-1.6773391 -1.1898575 0.073420003 0
-1.6688266 -1.1838189 0.21988989 0
-2.0359769 -1.4442651 0.45018962 0
-1.2672549 -0.92315888 -0.055974308 0
-1.668259 -1.2152789 0.073686555 0
-1.6674713 -1.2147051 0.22170916 0
-1.9959561 -1.4539968 0.44535348 0
-1.2554783 -0.93900269 -0.055971969 0
-1.6748041 -1.2526267 0.074666433 0
-1.6658218 -1.2459086 0.22355811 0
-1.2424347 -0.95387578 -0.055921521 0
-1.6822217 -1.291521 0.075716168 0
-1.6685771 -1.2810453 0.22607481 0
-1.22886 -0.96828896 -0.055854898 0
-1.5967323 -1.2581565 0.072575651 0
-1.5909699 -1.253616 0.21768141 0
-1.5933813 -1.2555161 0.36585388 0
-1.2116269 -0.97968763 -0.055627923 0
-1.5730149 -1.2718958 0.072219878 0
-1.5729795 -1.2718672 0.21739396 0
-1.5749128 -1.2734305 0.36526623 0
-1.2104273 -1.0041839 -0.056148939 0
-1.6714059 -1.3866169 0.077532686 0
-1.6647069 -1.3810593 0.23245622 0
-1.7675902 -1.4664124 0.41420329 0
-1.1929299 -1.0152959 -0.055925902 0
-1.6718539 -1.4229054 0.078378402 0
-1.6717284 -1.4227986 0.23591976 0
-1.7526263 -1.4916503 0.41506535 0
-1.465662 -1.2474166 0.49103558 0
-1.1808878 -1.0309659 -0.055965535 0
-1.7161353 -1.49826 0.41085884 0
-1.4298962 -1.2483611 0.48428121 0
-1.1722797 -1.0497528 -0.056179591 0
-1.6200869 -1.4507551 0.077640019 0
-1.6333971 -1.4626743 0.23563492 0
-1.6292485 -1.4589592 0.39442438 0
-1.401108 -1.2546639 0.47984394 0
-1.1596299 -1.065037 -0.056211628 0
-1.3531622 -1.2427825 0.46874604 0
-1.1467117 -1.0801035 -0.056240257 0
-1.3223944 -1.2455815 0.46348438 0
-1.1335708 -1.0949875 -0.056267545 0
-1.2903926 -1.2464716 0.45773306 0
-1.1133143 -1.1028543 -0.055946961 0
-1.2700477 -1.2581151 0.45609972 0
-1.1054522 -1.1229943 -0.056258038 0
-1.2514534 -1.2713122 0.45513511 0
-1.0847383 -1.1300668 -0.05592363 0
-1.0729768 -1.1463634 -0.056057032 0
-1.0654142 -1.1674051 -0.05642546 0
-1.0347056 -1.1628304 -0.055570181 0
-1.0286329 -1.1857383 -0.056041487 0
-1.0112358 -1.1957752 -0.055909589 0
-0.99892533 -1.2118412 -0.056068204 0
-0.98455715 -1.2255297 -0.056123469 0
-0.96595067 -1.2338727 -0.055944074 0
-0.94986337 -1.2453148 -0.055916123 0
-0.94027239 -1.2654724 -0.056285124 0
-0.92031944 -1.2717603 -0.05604491 0
-0.90377027 -1.28259 -0.056016199 0
-0.89539319 -1.3053029 -0.056511257 0
-0.87349051 -1.3083903 -0.056164276 0
-0.85331368 -1.3136913 -0.055926148 0
-0.80955666 -1.2463266 0.49444127 0
-0.83663493 -1.3242204 -0.055921461 0
-0.78667176 -1.2451389 0.49000141 0
-0.82213819 -1.3383011 -0.056074455 0
-0.76469445 -1.2447925 0.48603714 0
-0.79883498 -1.3378497 -0.055629656 0
-0.74946225 -1.2551626 0.48636281 0
-0.79006779 -1.361835 -0.056208864 0
-0.71903795 -1.2394013 0.47670922 0
-0.77153921 -1.3693343 -0.056112945 0
-1.1007873 -1.9536866 0.080058686 0
-0.71219921 -1.2640172 0.4826895 0
-0.75459027 -1.3795873 -0.056139272 0
-1.1317456 -2.0691252 0.084198505 0
-0.69169462 -1.2645977 0.47954708 0
-0.73305738 -1.3812493 -0.05582685 0
-0.66100836 -1.2454922 0.46910855 0
-0.71771359 -1.3944614 -0.055991136 0
-1.0065864 -1.9557189 0.078527033 0
-0.63743198 -1.2384804 0.4634077 0
-0.70038146 -1.4039545 -0.056013748 0
-0.99039298 -1.9852991 0.079207726 0
-0.6188544 -1.2405289 0.46122172 0
-0.68225628 -1.4118503 -0.055981569 0
-0.96385801 -1.9945924 0.079087995 0
-0.59572113 -1.2327759 0.4555141 0
-0.66749597 -1.426893 -0.05624029 0
-0.92982376 -1.9876659 0.078342885 0
-0.58376127 -1.247895 0.45834816 0
-0.64690685 -1.4295056 -0.056017756 0
-0.97543705 -2.1554768 0.084466249 0
-0.56457675 -1.2475762 0.45558372 0
-0.62774307 -1.4349927 -0.055918582 0
-0.54842824 -1.2536825 0.45525563 0
-0.61102629 -1.4460993 -0.056047115 0
-0.8506301 -2.0131631 0.078025065 0
-0.53493124 -1.2660072 0.45724887 0
-0.5916875 -1.4510243 -0.055944797 0
-0.84369606 -2.0690372 0.079772517 0
-0.5055961 -1.2398981 0.34162688 0
-0.51761329 -1.2693684 0.4560726 0
-0.57380003 -1.4594519 -0.055986706 0
-0.48826426 -1.2418931 0.3404555 0
-0.49866444 -1.2683457 0.4534131 0
-0.55799961 -1.4734831 -0.05625096 0
-0.46656913 -1.232047 0.14158347 0
-0.46176949 -1.2193729 0.23515292 0
-0.44652751 -1.179124 0.32168093 0
-0.48365548 -1.2771661 0.45435306 0
-0.53629678 -1.4718688 -0.05592709 0
-0.44287801 -1.2154804 0.1390278 0
-0.44056424 -1.2091304 0.23208943 0
-0.42900252 -1.1773992 0.31971127 0
-0.51445085 -1.4691639 -0.055573761 0
-0.42547932 -1.2150798 0.13835819 0
-0.4244937 -1.2122651 0.23164676 0
-0.40836671 -1.1662098 0.31525159 0
-0.4358449 -1.2446818 0.43875206 0
-0.49865013 -1.4836735 -0.055880658 0
-0.40760079 -1.2127671 0.13749951 0
-0.41123626 -1.2235839 0.23280166 0
-0.40568492 -1.2070667 0.32488936 0
-0.41735849 -1.2418 0.4358491 0
-0.47892776 -1.4867252 -0.055764038 0
-0.39542657 -1.2275141 0.13859595 0
-0.39927247 -1.239453 0.23484573 0
-0.41060761 -1.2746403 0.3416585 0
-0.41381961 -1.2846113 0.44901058 0
-0.46117404 -1.495894 -0.055885695 0
-0.40715846 -1.3206855 0.3525984 0
-0.44205043 -1.5007268 -0.055853862 0
-0.36316979 -1.2329333 0.32792324 0
-0.42281759 -1.5050993 -0.055814017 0
-0.34781766 -1.2381229 0.3281126 0
-0.40448943 -1.5127587 -0.055904739 0
-0.33206093 -1.2418817 0.32797465 0
-0.38433513 -1.5134993 -0.055748839 0
-0.31570974 -1.2432548 0.32726142 0
-0.36763856 -1.5281559 -0.056113739 0
-0.34644228 -1.5241911 -0.055803537 0
-0.32836077 -1.5337449 -0.055997498 0
-0.30870676 -1.536184 -0.055940185 0
-0.29069528 -1.547163 -0.056202237 0
-0.49702847 -2.6453271 0.096094131 0
-0.27060959 -1.5473728 -0.056081623 0
-0.43186003 -2.469419 0.089499459 0
-0.24876051 -1.5361804 -0.055558041 0
-0.39989093 -2.4694619 0.089311436 0
-0.23339422 -1.5660014 -0.056525789 0
-0.36821592 -2.4706123 0.089178279 0
-0.21251388 -1.5604161 -0.056223132 0
-0.33611467 -2.4679739 0.088923223 0
-0.19135384 -1.5508463 -0.055787086 0
-0.30354965 -2.4601486 0.088496529 0
-0.17248818 -1.5592486 -0.056006759 0
-0.27250639 -2.4633873 0.088482581 0
-0.15295856 -1.5624907 -0.056049585 0
-0.2418472 -2.4704993 0.088621624 0
-0.13344575 -1.5663229 -0.056122329 0
-0.20919366 -2.455416 0.087979086 0
-0.11335663 -1.5629617 -0.055946317 0
-0.17862338 -2.4628599 0.08815822 0
-0.093508795 -1.5616052 -0.055851184 0
-0.14764006 -2.4656022 0.088182852 0
-0.073991567 -1.5658902 -0.055966672 0
-0.11658508 -2.4673004 0.088184088 0
-0.054157957 -1.5634847 -0.055851899 0
-0.085160851 -2.4585066 0.087824494 0
-0.034518704 -1.5663663 -0.055934872 0
-0.054223169 -2.4605021 0.087864429 0
-0.014722245 -1.5591285 -0.055665381 0
0.0049253623 -1.5639929 -0.055836838 0
0.024704326 -1.5693202 -0.056033697 0
0.044349872 -1.5649279 -0.055892378 0
0.064497948 -1.5751684 -0.056282666 0
0.083371475 -1.5564097 -0.055645499 0
0.10310474 -1.5573936 -0.055722672 0
0.12382187 -1.5701212 -0.056229386 0
0.14315683 -1.5637956 -0.05606297 0
0.16217943 -1.5555757 -0.055837069 0
0.1820769 -1.5561774 -0.05593653 0
0.20132503 -1.5512065 -0.055844545 0
0.2220061 -1.556721 -0.056139264 0
0.24044527 -1.546443 -0.055873372 0
0.25898352 -1.5378637 -0.055676818 0
0.27976933 -1.5424353 -0.055965431 0
0.29879418 -1.5368662 -0.055895448 0
0.3184112 -1.5343783 -0.05594635 0
0.33725062 -1.5281856 -0.055870969 0
0.35946479 -1.5366391 -0.056341056 0
0.37736383 -1.5262455 -0.056129746 0
0.39376932 -1.5107003 -0.05573599 0
0.41535005 -1.5150715 -0.056085777 0
0.43138468 -1.4992639 -0.055697273 0
0.45395663 -1.5060837 -0.056158535 0
0.46848586 -1.486295 -0.055636216 0
0.49148023 -1.4933966 -0.056129266 0
0.51014441 -1.4867969 -0.056118205 0
0.5263198 -1.4732447 -0.055852409 0
0.54800433 -1.4750504 -0.056178026 0
0.5610438 -1.453808 -0.055633653 0
0.4934015 -1.2785295 0.45593461 0
0.58120364 -1.451371 -0.055816032 0
0.51067126 -1.2752389 0.45701808 0
0.60132641 -1.448501 -0.055992421 0
0.52760613 -1.2709204 0.45781511 0
0.61634326 -1.4334333 -0.05570557 0
0.54203188 -1.2606069 0.45652241 0
0.64119446 -1.4409564 -0.056307234 0
0.55902827 -1.2563041 0.45747721 0
0.64987582 -1.4123162 -0.055503458 0
0.57100827 -1.2409205 0.45445758 0
0.67427492 -1.4180444 -0.056057807 0
0.59471416 -1.2507229 0.46075353 0
0.69267112 -1.4106534 -0.056105986 0
0.61342156 -1.2492583 0.46302286 0
0.7071293 -1.395409 -0.055849396 0
0.63263899 -1.248414 0.46562564 0
0.72729778 -1.3914738 -0.056053996 0
0.64626908 -1.2364488 0.46416134 0
0.74566835 -1.3838907 -0.056122325 0
0.66871178 -1.2410666 0.46901876 0
0.75878125 -1.3667319 -0.05580952 0
0.70221269 -1.2648395 0.051648818 0
0.69964683 -1.2602178 0.15490702 0
0.69260758 -1.2475386 0.25734043 0
0.69379419 -1.2496759 0.36467284 0
0.6963563 -1.2542908 0.47729236 0
0.77671492 -1.3584425 -0.055865984 0
0.70770484 -1.2377467 0.050902367 0
0.70764333 -1.2376392 0.15321481 0
0.71242052 -1.2459942 0.25885189 0
0.71175927 -1.2448378 0.36584741 0
0.71695691 -1.2539283 0.48055175 0
0.79347837 -1.3480804 -0.055846319 0
0.73405468 -1.2471224 0.051663984 0
0.73377663 -1.2466501 0.15546186 0
0.72949576 -1.239377 0.25936496 0
0.73158973 -1.2429347 0.36796638 0
0.73375565 -1.2466145 0.48125163 0
0.80930638 -1.3361945 -0.055771682 0
0.8297689 -1.331841 -0.056021646 0
0.84557039 -1.3198793 -0.055961937 0
0.85820925 -1.3031862 -0.055707939 0
0.88208127 -1.3034055 -0.056187674 0
0.8878426 -1.2769784 -0.055525985 0
0.90727842 -1.2704978 -0.055736549 0
0.92572743 -1.2624151 -0.055888921 0
0.94829822 -1.2596234 -0.05628952 0
0.9652248 -1.2490606 -0.056356173 0
0.97060388 -1.2238566 -0.05576602 0
0.77529067 -0.97758174 0.044544306 0
0.7741791 -0.97618014 0.1338966 0
0.99206823 -1.2190729 -0.056112822 0
0.77395624 -0.95105267 0.043776091 0
0.76865792 -0.94454193 0.13087425 0
1.0102119 -1.2099257 -0.056272849 0
0.77950805 -0.93361276 0.043421715 0
0.7720207 -0.92464525 0.12945411 0
1.0230837 -1.194445 -0.056147575 0
0.77414936 -0.90381539 0.042485878 0
0.77489161 -0.90468204 0.12801515 0
1.0389005 -1.1824455 -0.056194007 0
0.76601273 -0.87185276 0.041433539 0
0.77693856 -0.88428825 0.12650371 0
1.0460715 -1.1607983 -0.055786829 0
0.77030373 -0.85478598 0.041080177 0
0.77731836 -0.86256993 0.12478711 0
1.0667578 -1.1541927 -0.05611049 0
1.0804443 -1.139866 -0.056070972 0
1.0909274 -1.122279 -0.055877168 0
1.1108007 -1.1143014 -0.056171935 0
1.1184015 -1.0940235 -0.055855226 0
1.1333126 -1.0810229 -0.055915646 0
1.1409105 -1.0611578 -0.055626836 0
1.1569767 -1.0492433 -0.055761561 0
1.1811676 -1.0443816 -0.05628917 0
1.1811683 -1.0181724 -0.055673797 0
1.1911973 -1.0009528 -0.055548012 0
1.2130579 -0.99353427 -0.055979572 0
1.2229713 -0.97618604 -0.055865366 0
1.2380599 -0.96296096 -0.055996262 0
1.2450005 -0.94344175 -0.055768438 0
1.2684063 -0.9362722 -0.056284305 0
1.2683291 -0.91176939 -0.055766996 0
1.2875844 -0.90123975 -0.056110192 0
1.3012629 -0.88661373 -0.056215294 0
1.3098989 -0.86855137 -0.056111436 0
1.3169943 -0.84957874 -0.055952679 0
1.3316498 -0.83547777 -0.056123905 0
1.3414234 -0.8182537 -0.05609712 0
1.3443556 -0.79699218 -0.055795629 0
1.3618116 -0.78433746 -0.056105759 0
1.3678089 -0.76501948 -0.055951521 0
1.3840463 -0.75138104 -0.056224234 0
1.3929673 -0.73366815 -0.056206882 0
1.3953975 -0.71265054 -0.055938408 0
1.4155412 -0.70060778 -0.05638779 0
1.4089998 -0.67541826 -0.055783994 0
1.4351466 -0.66586113 -0.056482743 0
1.4380113 -0.64531231 -0.056271218 0
1.4362042 -0.62289655 -0.055889141 0
1.4409891 -0.60353047 -0.055775184 0
1.4525379 -0.58698106 -0.055931661 0
1.4637258 -0.57016927 -0.056081556 0
1.4672621 -0.55037111 -0.055947084 0
1.4823724 -0.53484637 -0.056261975 0
1.4735595 -0.51079059 -0.05567896 0
1.4847162 -0.4938066 -0.055861134 0
1.4969225 -0.47701898 -0.056089941 0
1.4978566 -0.45662305 -0.055905063 0
1.4956739 -0.43545219 -0.055614531 0
1.5122739 -0.41970363 -0.056030825 0
1.5160496 -0.40026227 -0.055979539 0
1.5171921 -0.38019514 -0.055840522 0
1.5336024 -0.36384782 -0.056271411 0
1.5382785 -0.34455752 -0.056279328 0
1.5327171 -0.32310027 -0.055922575 0
1.5404484 -0.30452403 -0.056060307 0
1.54208 -0.28471965 -0.055984769 0
1.5327018 -0.26307636 -0.055519626 0
1.5467826 -0.24548523 -0.055913273 0
1.5502509 -0.2260628 -0.055931311 0
1.5524796 -0.20645955 -0.055913493 0
1.5567278 -0.18710853 -0.055977196 0
1.5553182 -0.16710132 -0.055846423 0
1.5530968 -0.14710671 -0.055695731 0
1.5601896 -0.12797967 -0.055887863 0
1.5668386 -0.10868284 -0.056072567 0
1.5633608 -0.088677987 -0.055903718 0
1.5723026 -0.069336899 -0.056187782 0
1.5684209 -0.049388412 -0.056022402 0
1.571409 -0.029683227 -0.056111339 0
1.5815023 -0.0099569093 -0.056462791 0
1.5727472 0.0099017881 -0.056150217 0
1.562768 0.029519999 -0.055802785 0
1.571334 0.049480144 -0.056126457 0
1.5628238 0.068918891 -0.055849049 0
1.5730298 0.089226432 -0.056249466 0
1.5662657 0.10864311 -0.056052066 0
1.559445 0.12791859 -0.055861194 0
1.5651354 0.14824699 -0.056127448 0
1.5586873 0.16746329 -0.055967398 0
1.5629408 0.1878553 -0.056200605 0
1.5465593 0.20567223 -0.055700269 0
1.5554065 0.22681463 -0.056117319 0
1.5553091 0.24683845 -0.056221493 0
1.5434554 0.26492214 -0.055909157 0
1.5402858 0.28438839 -0.055919632 0
1.5329344 0.30303863 -0.055786852 0
1.5366782 0.32393527 -0.056067098 0
1.5215659 0.34081411 -0.055667881 0
1.5256023 0.3619498 -0.05597787 0
1.5175285 0.38027942 -0.055852901 0
1.5071431 0.3979108 -0.055650666 0
1.5160633 0.4207553 -0.056171227 0
1.5082687 0.43911907 -0.056082852 0
1.5013078 0.45767516 -0.056033876 0
1.4852258 0.47329167 -0.055651668 0
1.4859818 0.49422756 -0.055908754 0
1.4793807 0.51280844 -0.055898916 0
1.469107 0.53006017 -0.055758502 0
1.4732977 0.55263507 -0.056177221 0
1.4636077 0.57012326 -0.056077033 0
1.4542103 0.58765692 -0.055996064 0
1.4414383 0.60371858 -0.055792566 0
1.4408231 0.6248998 -0.056068882 0
1.4284569 0.64102477 -0.055897344 0
1.4120653 0.65515208 -0.055574335 0
1.412447 0.67707074 -0.055920478 0
1.3930038 0.68945312 -0.055490021 0
1.4023414 0.71619684 -0.056216773 0
1.381747 0.72775853 -0.05575414 0
1.3791068 0.74869949 -0.056023579 0
1.3679699 0.76510954 -0.055958103 0
1.3602409 0.78343278 -0.056041043 0
1.3593179 0.80586249 -0.05641662 0
1.3293999 0.81091958 -0.055594314 0
1.323485 0.83035517 -0.055779792 0
1.3209728 0.85214525 -0.056121711 0
1.2978501 0.86056232 -0.055595316 0
1.2940694 0.88171244 -0.055904534 0
1.2782332 0.89469445 -0.05570269 0
1.2708774 0.91360128 -0.055879038 0
1.2615966 0.93124568 -0.055982132 0
1.2536957 0.95003092 -0.056157932 0
1.2403302 0.96472687 -0.056098953 0
1.2256072 0.9782899 -0.055985771 0
1.2158427 0.99581516 -0.056108087 0
1.1874684 0.99781948 -0.055374127 0
1.1827282 1.0195171 -0.055747319 0
1.1716528 1.0359687 -0.055835735 0
1.1561024 1.0484505 -0.055719424 0
1.1409323 1.0611782 -0.055627901 0
1.1371734 1.0847056 -0.056106139 0
1.1241899 1.0996857 -0.056144308 0
1.1128671 1.1163744 -0.056276437 0
1.0885612 1.119845 -0.05575598 0
1.0823681 1.1418955 -0.056170803 0
0.59161592 0.6241532 0.28611246 0
1.0547668 1.1412188 -0.055479776 0
0.6124782 0.66267884 0.30021346 0
1.0475118 1.1623966 -0.055863637 0
1.0086598 1.1192836 0.053791676 0
1.0152149 1.1265576 0.16297793 0
1.0085078 1.1191149 0.27169314 0
0.62429291 0.69276154 0.31025586 0
1.0390751 1.1826442 -0.056203455 0
0.97955102 1.1148957 0.052983802 0
0.98632634 1.1226071 0.16059691 0
0.98705047 1.1234313 0.2697022 0
0.62258524 0.70860785 0.31381676 0
1.0184807 1.1890709 -0.055894956 0
0.95812416 1.1186051 0.052582551 0
0.95743734 1.1178032 0.1581724 0
0.9541328 1.1139452 0.26451954 0
0.62597603 0.73082387 0.3201392 0
0.9992311 1.1967739 -0.055661168 0
0.9365235 1.1216694 0.052168105 0
0.93053782 1.1145004 0.1560346 0
0.9336161 1.1181872 0.26271436 0
0.61959219 0.74208236 0.32162783 0
0.98560584 1.2111318 -0.0557473 0
0.90602255 1.1133384 0.051245954 0
0.91621202 1.1258594 0.15599731 0
0.91302353 1.1219412 0.26087451 0
0.62555921 0.76869947 0.32972381 0
0.97638601 1.2311474 -0.05609823 0
0.88919961 1.1212121 0.051088937 0
0.88175929 1.1118304 0.15250292 0
0.88639641 1.1176775 0.25726736 0
0.624093 0.78693306 0.33414748 0
0.95653874 1.2378203 -0.055849019 0
0.86703974 1.1220031 0.05062348 0
0.86363149 1.1175926 0.15178959 0
0.86236423 1.1159527 0.25435066 0
0.61244094 0.79253644 0.3332257 0
0.94119304 1.2501856 -0.055867769 0
0.8434934 1.1204114 0.050068468 0
0.83588469 1.1103046 0.14935835 0
0.84351468 1.1204395 0.25293231 0
0.60768843 0.80719191 0.33614364 0
0.92963141 1.2677389 -0.056124613 0
0.81825358 1.1158528 0.0494004 0
0.82235169 1.1214415 0.14945164 0
0.82344437 1.1229316 0.25113425 0
0.59662426 0.81361687 0.335664 0
0.9148075 1.281041 -0.056199078 0
0.81288284 1.138312 0.049937576 0
0.81283939 1.1382511 0.15031584 0
0.80614054 1.1288705 0.25017238 0
0.58898449 0.8247782 0.33718219 0
0.89533693 1.2877574 -0.055994686 0
0.81607985 1.1737624 0.051037923 0
0.8118341 1.1676558 0.15283686 0
0.81265849 1.1688415 0.25674233 0
0.5856607 0.84235203 0.34132466 0
0.87978369 1.3000106 -0.056041323 0
0.81557596 1.2051342 0.05195136 0
0.80825329 1.1943138 0.15498172 0
0.81220359 1.200151 0.26135239 0
0.5672974 0.83826584 0.33674765 0
0.85371637 1.2963637 -0.055416297 0
0.81220454 1.2333282 0.052721687 0
0.8120997 1.233169 0.15868422 0
0.80496526 1.2223353 0.26395512 0
0.74208891 1.126858 0.34423965 0
0.56373012 0.85602111 0.34100157 0
0.84751898 1.3229209 -0.056090899 0
0.81749588 1.2760569 0.054103896 0
0.81373543 1.270187 0.1621163 0
0.79140425 1.2353295 0.26458818 0
0.7156136 1.1170254 0.3384563 0
0.55454451 0.8656072 0.34201145 0
0.82804465 1.3290735 -0.055905238 0
0.80908972 1.2986493 0.054625496 0
0.8131789 1.3052129 0.16526669 0
0.78282511 1.2564927 0.26698852 0
0.69578528 1.1167873 0.33570284 0
0.54175937 0.86956424 0.34085247 0
0.81130946 1.3395016 -0.055909719 0
0.75746775 1.250607 0.26369023 0
0.67924809 1.1214634 0.33451089 0
0.53293842 0.87990081 0.34224656 0
0.41035369 0.67750901 0.46974808 0
0.79547572 1.3514738 -0.055986896 0
0.74109691 1.2590868 0.26348963 0
0.65672404 1.1157416 0.3303113 0
0.52056861 0.88442022 0.34142768 0
0.40463305 0.68745148 0.4730714 0
0.77854717 1.361647 -0.05599777 0
0.73359656 1.2830304 0.26654601 0
0.64648426 1.1306745 0.33229578 0
0.51252347 0.89638257 0.34352699 0
0.4168244 0.72900879 0.3476907 0
0.40882346 0.71501541 0.41210046 0
0.41083091 0.71852642 0.4908568 0
0.76294863 1.3742383 -0.056116037 0
0.7092672 1.2775463 0.26353037 0
0.62293941 1.1220509 0.32743007 0
0.49767661 0.89642507 0.34111455 0
0.41927025 0.75519794 0.3576349 0
0.40301946 0.7259267 0.41543132 0
0.40755942 0.73410416 0.49795321 0
0.74817461 1.3885422 -0.056310959 0
0.69499254 1.2898412 0.26424038 0
0.60663277 1.1258538 0.32628483 0
0.49525526 0.91914749 0.34736043 0
0.41829017 0.77630746 0.36510831 0
0.40618199 0.7538358 0.42844206 0
0.40610847 0.75369936 0.50773591 0
0.72634244 1.3896459 -0.055980366 0
0.67692727 1.2951043 0.26355144 0
0.58045006 1.1105231 0.31969821 0
0.48467875 0.92729247 0.34810445 0
0.41570798 0.79533684 0.37156671 0
0.4097406 0.78391999 0.44257289 0
0.40921962 0.78292322 0.52390993 0
0.70664358 1.3944505 -0.055811036 0
0.66399741 1.310295 0.26492023 0
0.56866521 1.1221718 0.32096475 0
0.46068791 0.90909553 0.33906874 0
0.41847271 0.82579046 0.38330188 0
0.40560719 0.80040234 0.44895911 0
0.40970555 0.8084898 0.53752339 0
0.69416386 1.4136933 -0.056226894 0
0.64623922 1.3160928 0.2644262 0
0.54760462 1.1152194 0.31697881 0
0.45467478 0.92596394 0.34319761 0
0.41597956 0.84715956 0.39075831 0
0.4083828 0.8316884 0.46358678 0
0.40799063 0.83088976 0.54895681 0
0.66896045 1.4068677 -0.055615973 0
0.53558463 1.1263696 0.31820592 0
0.44788051 0.94192207 0.34699446 0
0.40643436 0.85475814 0.39187148 0
0.40716004 0.85628426 0.47440118 0
0.40541419 0.85261267 0.55989158 0
0.65651947 1.4267542 -0.056070868 0
0.51744741 1.1245216 0.31581804 0
0.42641607 0.92669135 0.33937865 0
0.40789583 0.88644302 0.40401089 0
0.40592429 0.88215846 0.48586565 0
0.40304944 0.87591076 0.57181281 0
0.64069349 1.4398305 -0.056263238 0
0.49940556 1.1223141 0.31340709 0
0.42109945 0.94633681 0.34460405 0
0.4049603 0.91006726 0.41242123 0
0.41004279 0.92148918 0.50464398 0
0.40446395 0.90895188 0.59001106 0
0.62139374 1.4451792 -0.056162033 0
0.48282969 1.1229199 0.31185377 0
0.41639736 0.96841788 0.35070765 0
0.40673926 0.94595599 0.4263303 0
0.41036707 0.95439321 0.51979244 0
0.40731725 0.9473002 0.6115256 0
0.6008597 1.4473768 -0.055948969 0
0.46109334 1.1107016 0.3068237 0
0.41978499 1.0111963 0.36425641 0
0.40650937 0.97921735 0.43897897 0
0.40271857 0.97008592 0.52553558 0
0.40976608 0.98706222 0.63381261 0
0.57871062 1.4451455 -0.055576619 0
0.44537786 1.1121894 0.3056612 0
0.41566327 1.0379866 0.37199199 0
0.40793052 1.0186766 0.45432958 0
0.40942833 1.0224168 0.55104876 0
0.41312796 1.0316556 0.65905416 0
0.56686521 1.4688927 -0.056210905 0
0.42885941 1.1112845 0.30390427 0
0.41755006 1.081979 0.38584304 0
0.40607986 1.0522568 0.46698874 0
0.40686923 1.0543023 0.56542778 0
0.4077858 1.0566773 0.67170537 0
0.54670757 1.47156 -0.056045089 0
0.41720384 1.1229779 0.30564114 0
0.41294417 1.1115122 0.39448917 0
0.40685135 1.0951122 0.48369586 0
0.40553743 1.0915756 0.58263278 0
0.40785813 1.0978222 0.69454032 0
0.52713519 1.475527 -0.055938937 0
0.39821947 1.1146734 0.30199221 0
0.40607023 1.1366488 0.40156385 0
0.40781939 1.1415449 0.50189656 0
0.40596199 1.1363457 0.60375267 0
0.50538111 1.4729143 -0.055594221 0
0.38563094 1.123907 0.3031542 0
0.41121969 1.1984844 0.42154685 0
0.40932873 1.1929734 0.52220017 0
0.40636623 1.1843393 0.62648368 0
0.4907009 1.4910285 -0.056040261 0
0.59871936 1.8192501 0.34541062 0
0.3684673 1.1196133 0.30072069 0
0.40863031 1.2416514 0.43488574 0
0.40618098 1.2342089 0.5379687 0
0.40701839 1.2367535 0.65144658 0
0.46745685 1.4830303 -0.055514012 0
0.57277077 1.817144 0.34361413 0
0.35324284 1.1206807 0.29978889 0
0.40690336 1.2909213 0.45031214 0
0.40658495 1.2899112 0.55997229 0
0.40743929 1.2926216 0.67811835 0
0.45266119 1.5017859 -0.055998277 0
0.55369741 1.8369918 0.34602141 0
0.33973339 1.1271274 0.30034521 0
0.40910971 1.3572959 0.47163114 0
0.40607059 1.347213 0.582582 0
0.43639255 1.5166686 -0.056343853 0
0.52737498 1.8328753 0.34396785 0
0.31914175 1.1091671 0.29446515 0
0.41006669 1.425174 0.49338394 0
0.40787643 1.4175618 0.61073381 0
0.41486821 1.5133139 -0.056020711 0
0.30777574 1.1226729 0.041559745 0
0.30996609 1.1306627 0.12599497 0
0.30765301 1.1222253 0.20985955 0
0.30714938 1.1203882 0.29639384 0
0.40584907 1.4804149 0.5106982 0
0.4031128 1.4704338 0.63127589 0
0.39479592 1.514639 -0.055881303 0
0.28936195 1.1101403 0.040957674 0
0.29123825 1.1173388 0.12409171 0
0.2897532 1.1116414 0.20718159 0
0.29291093 1.1237561 0.29628554 0
0.39652306 1.5212651 0.52302635 0
0.39698195 1.5230256 0.65165651 0
0.37465143 1.5152752 -0.055726305 0
0.2768428 1.1196889 0.041178077 0
0.27560297 1.1146743 0.12340058 0
0.27576014 1.1153101 0.20720175 0
0.27698529 1.1202651 0.29442221 0
0.39414445 1.5941145 0.54632306 0
0.39231962 1.5867341 0.67674804 0
0.35556376 1.519963 -0.055729624 0
0.26033071 1.112861 0.040803179 0
0.26173455 1.1188622 0.12348954 0
0.26053452 1.1137322 0.20628278 0
0.26043469 1.1133054 0.29170808 0
0.38492417 1.6454728 0.56221843 0
0.33783895 1.5308515 -0.055968434 0
0.24790303 1.1233244 0.041069113 0
0.24693106 1.1189201 0.12314299 0
0.24676614 1.1181728 0.20651335 0
0.24754184 1.1216878 0.29306445 0
0.37157008 1.6836976 0.5736348 0
0.32098919 1.5468013 -0.056399319 0
0.23186621 1.1173303 0.040739987 0
0.23441328 1.1296042 0.12398415 0
0.23090085 1.1126784 0.20494536 0
0.23309775 1.1232649 0.2926864 0
0.35875994 1.7288132 0.58741993 0
0.29975143 1.54179 -0.056074526 0
0.21804509 1.1215284 0.040789712 0
0.21743773 1.1184043 0.12244463 0
0.2169216 1.1157496 0.20499167 0
0.21760885 1.1192845 0.29091221 0
0.34513119 1.7752035 0.60165817 0
0.27938426 1.5403124 -0.055888403 0
0.20268555 1.1174541 0.04054549 0
0.20069404 1.1064744 0.12085225 0
0.20325732 1.1206063 0.20539744 0
0.20230737 1.115369 0.28920949 0
0.33096415 1.8246846 0.61696708 0
0.26122651 1.5511829 -0.056159019 0
0.18822698 1.1177062 0.040465429 0
0.18997723 1.1280992 0.12294315 0
0.18906705 1.1226945 0.20532756 0
0.18658258 1.1079415 0.28665164 0
0.3134383 1.8612205 0.62793636 0
0.24192369 1.5559515 -0.056216918 0
0.17377497 1.1176476 0.040380888 0
0.17327076 1.1144047 0.1212033 0
0.17495432 1.1252327 0.20537256 0
0.17406631 1.1195214 0.28905761 0
0.29530719 1.8992918 0.63947552 0
0.22221442 1.5581816 -0.05619194 0
0.16058899 1.1260602 0.040608559 0
0.15979914 1.1205218 0.12164009 0
0.15923572 1.1165709 0.20340957 0
0.15997626 1.1217637 0.28909352 0
0.27633455 1.9376755 0.65117586 0
0.20043628 1.5443587 -0.055598024 0
0.14621997 1.1266228 0.040559232 0
0.14676513 1.1308233 0.12254805 0
0.1443159 1.1119521 0.20222102 0
0.1432872 1.1040258 0.28403473 0
0.25611356 1.9733515 0.66202879 0
0.18302067 1.5642436 -0.056226466 0
0.13193214 1.1275995 0.040531371 0
0.13130386 1.1222296 0.12142795 0
0.13002087 1.1112642 0.20178218 0
0.12931019 1.1051902 0.28389287 0
0.23511639 2.009496 0.67310816 0
0.1621332 1.5551324 -0.055821154 0
0.12006288 1.1516066 0.12443315 0
0.11958645 1.1470369 0.20798783 0
0.11835602 1.135235 0.2912046 0
0.21282734 2.0413752 0.68283468 0
0.14290364 1.5610298 -0.055963814 0
0.1201981 1.3130025 0.14169748 0
0.11983407 1.3090259 0.23706827 0
0.11887544 1.2985541 0.33268806 0
0.18846346 2.0587096 0.68778461 0
0.12296312 1.5592319 -0.055839419 0
0.17053929 2.1625206 0.23312613 0
0.16695552 2.1170766 0.38299742 0
0.16484433 2.0903058 0.53495973 0
0.10407099 1.5719887 -0.056244876 0
0.14140648 2.1359401 0.38605723 0
0.1404871 2.1220529 0.54258877 0
0.083827883 1.5649302 -0.055950124 0
0.11658592 2.1764693 0.39308617 0
0.11538097 2.153975 0.55033588 0
0.064520091 1.5757091 -0.056301989 0
0.089202575 2.1785045 0.39321968 0
0.08946342 2.1848748 0.55789864 0
0.044274215 1.5622582 -0.055797026 0
0.023812555 0.84024888 0.34803292 0
0.024164302 0.85266066 0.4267917 0
0.0247159 1.5700555 -0.056059949 0
0.013359562 0.84865427 0.35141689 0
0.01333505 0.8470971 0.42388925 0
0.0049230461 1.5632573 -0.055810582 0
0.0025938088 0.82363456 0.41209951 0
0.0026199024 0.83192027 0.49337104 0
-0.014928446 1.5809659 -0.05644504 0
-0.0078380574 0.83007306 0.41533744 0
-0.0077685602 0.82271314 0.48793006 0
-0.034410894 1.5614742 -0.055760175 0
-0.018842502 0.85502225 0.35409591 0
-0.018552218 0.84184998 0.42131364 0
-0.018005462 0.81703967 0.48466134 0
-0.054380458 1.5699081 -0.056081362 0
-0.08027909 2.3175752 0.41822234 0
-0.080142483 2.3136315 0.59063548 0
-0.027876155 0.8047561 0.47754517 0
-0.074072376 1.5676004 -0.056027796 0
-0.10992914 2.3264403 0.42003861 0
-0.10973184 2.3222647 0.59314513 0
-0.036653861 0.77570891 0.46054587 0
-0.09340544 1.5598792 -0.055789452 0
-0.14012609 2.3401184 0.42279324 0
-0.14027894 2.3426707 0.5987609 0
-0.046708867 0.78004229 0.46343109 0
-0.11229184 1.5482802 -0.05542079 0
-0.17138566 2.3630662 0.42729533 0
-0.1716114 2.3661788 0.6052736 0
-0.13219327 1.5516218 -0.05559558 0
-0.077233791 0.90653366 0.032481667 0
-0.20329931 2.3862309 0.43191266 0
-0.20225075 2.3739233 0.607858 0
-0.15262999 1.5591342 -0.055929184 0
-0.23477143 2.3982193 0.43458322 0
-0.23506103 2.4011776 0.61554575 0
-0.17143857 1.5497603 -0.055665951 0
-0.26712543 2.4147446 0.43815261 0
-0.26637268 2.4079401 0.61809021 0
-0.085194372 0.7701351 0.4595131 0
-0.19265853 1.5614203 -0.056167454 0
-0.29719982 2.4086857 0.43769756 0
-0.29722115 2.4088585 0.61923754 0
-0.21273658 1.5620512 -0.056282047 0
-0.32979268 2.4215539 0.44075558 0
-0.32936865 2.4184403 0.62271744 0
-0.23107255 1.5504236 -0.055963501 0
-0.3631275 2.4364705 0.44426769 0
-0.36140057 2.4248834 0.62549865 0
-0.24945439 1.5404654 -0.055713017 0
-0.39464217 2.4370489 0.44524401 0
-0.39498505 2.4391665 0.63041598 0
-0.27003199 1.54407 -0.055961922 0
-0.42940512 2.4553816 0.44954556 0
-0.43043625 2.4612777 0.63748109 0
-0.29104036 1.5489997 -0.056268953 0
-0.46162865 2.4569192 0.45085558 0
-0.46187225 2.4582157 0.63814378 0
-0.31163093 1.5507354 -0.056470074 0
-0.52047223 2.5899694 0.094313815 0
-0.52072114 2.5912082 0.2840426 0
-0.49286401 2.4525857 0.4511635 0
-0.49432188 2.4598403 0.6401307 0
-0.32650855 1.5250934 -0.055681627 0
-0.54459226 2.5437436 0.092872858 0
-0.54390746 2.5405452 0.27921766 0
-0.52542996 2.4542382 0.4526487 0
-0.53076822 2.4791727 0.64684957 0
-0.34583911 1.5215374 -0.055706378 0
-0.57622248 2.5351214 0.092815615 0
-0.57612872 2.5347087 0.27935141 0
-0.55814409 2.4555845 0.45415723 0
-0.56069028 2.4667866 0.64540887 0
-0.36565536 1.5199125 -0.055811036 0
-0.608208 2.5281262 0.09283255 0
-0.60930938 2.5327041 0.2799539 0
-0.59348267 2.4669178 0.45759922 0
-0.59599483 2.47736 0.6500873 0
-0.38871768 1.5307577 -0.056384541 0
-0.64159369 2.5265753 0.093064882 0
-0.64226377 2.5292139 0.28043982 0
-0.62797076 2.4729285 0.46014452 0
-0.6288259 2.4762962 0.65183437 0
-0.40448594 1.5127456 -0.055904254 0
-0.68411469 2.5585351 0.094551913 0
-0.68583006 2.5649505 0.28533724 0
-0.66003412 2.4684758 0.46082595 0
-0.66012931 2.4688318 0.65200585 0
-0.42603499 1.5165523 -0.05623873 0
-0.69595671 2.4773898 0.4640893 0
-0.68996358 2.4560561 0.65087479 0
-0.44137985 1.4984503 -0.055769134 0
-0.72665715 2.4669445 0.46380991 0
-0.72790551 2.4711826 0.65726036 0
-0.46165466 1.497453 -0.055943936 0
-0.75798345 2.4586442 0.46400708 0
-0.7633819 2.476155 0.66108716 0
-0.47527042 1.4753718 -0.055338196 0
-0.79153544 2.4571464 0.46556857 0
-0.79359192 2.4635303 0.6603322 0
-0.49939868 1.4859006 -0.055964544 0
-0.82938272 2.4677284 0.4695152 0
-0.82323968 2.4494505 0.65928459 0
-0.51883882 1.4816949 -0.056047771 0
-0.85953254 2.4546452 0.46904802 0
-0.85688525 2.4470849 0.66149962 0
-0.53912997 1.4796444 -0.056222547 0
-0.88801461 2.4371598 0.46780649 0
-0.88988543 2.4422941 0.66318119 0
-0.55256379 1.459129 -0.055702984 0
-0.91770679 2.4233449 0.46733585 0
-0.92012155 2.4297214 0.66286075 0
-0.57537246 1.4634514 -0.056140132 0
-0.94969821 2.4155436 0.46810049 0
-0.95195222 2.4212766 0.66377455 0
-0.59036225 1.4477744 -0.055819493 0
-0.9846527 2.4147122 0.47030485 0
-0.98569548 2.4172695 0.66602588 0
-0.61219895 1.4488746 -0.05615468 0
-1.0159771 2.4044855 0.47076741 0
-1.0127032 2.3967371 0.66382962 0
-0.62547803 1.4298149 -0.055716816 0
-1.0451396 2.3891423 0.47030285 0
-1.0438415 2.3861752 0.66449213 0
-0.6479919 1.4319032 -0.056111708 0
-1.0779514 2.3820086 0.47153315 0
-1.074958 2.3753936 0.66520649 0
-0.66041166 1.4117489 -0.055643395 0
-1.1068932 2.3661838 0.47112235 0
-1.1024387 2.3566613 0.66379565 0
-0.68096823 1.4091848 -0.055875875 0
-1.1346455 2.3480172 0.47031277 0
-1.1290237 2.3363838 0.66203606 0
-0.70365566 1.4105178 -0.056275606 0
-1.1625944 2.3304868 0.46969649 0
-1.1608843 2.3270586 0.66348326 0
-0.71705115 1.3931743 -0.055939455 0
-1.1873043 2.3068395 0.46790668 0
-1.1961342 2.3239954 0.6668514 0
-0.7349667 1.3848468 -0.055972252 0
-1.2196238 2.2980525 0.46920228 0
-1.2192422 2.2973337 0.66355383 0
-0.75592208 1.3820221 -0.05623835 0
-1.239056 2.2653165 0.4656671 0
-1.2435693 2.2735679 0.66116005 0
-0.76355207 1.3551587 -0.055532057 0
-1.0514961 1.8662043 0.076473817 0
-1.2664722 2.2477455 0.46529654 0
-1.2690332 2.252291 0.6595673 0
-0.78390926 1.3512195 -0.055770718 0
-1.0534005 1.8157401 0.074943505 0
-1.2958202 2.2335975 0.46570864 0
-1.2915428 2.2262242 0.65664446 0
-0.80122101 1.3418456 -0.055795815 0
-1.0468705 1.7532474 0.072902471 0
-1.314451 2.2013781 0.46240529 0
-1.321277 2.21281 0.65754312 0
-0.82428187 1.3417906 -0.056220662 0
-1.0506196 1.7102299 0.071658164 0
-1.3419747 2.1845064 0.46237427 0
-1.3446277 2.1888251 0.65539533 0
-0.84329712 1.3347652 -0.056366764 0
-1.0497428 1.6615261 0.070165791 0
-1.3651456 2.1607435 0.46094653 0
-1.3667573 2.1632946 0.65285236 0
-0.85576308 1.3174621 -0.056086678 0
-1.0536493 1.6221114 0.069056138 0
-1.396656 2.1501763 0.46240738 0
-1.3935971 2.145467 0.65271634 0
-0.87055868 1.3039988 -0.055975765 0
-1.0462829 1.5672139 0.0672746 0
-1.4175255 2.1232934 0.46042824 0
-1.4132534 2.1168942 0.64938623 0
-0.89034897 1.2979493 -0.056192897 0
-1.0483847 1.5283335 0.066167057 0
-1.4314547 2.0867724 0.45638132 0
-1.4343563 2.0910025 0.64693296 0
-0.90747547 1.2878484 -0.056245849 0
-1.0478753 1.4870974 0.064947911 0
-1.4567724 2.0673859 0.45611715 0
-1.4500016 2.0577769 0.64225149 0
-0.92062646 1.2721846 -0.056063607 0
-1.0536596 1.4560189 0.064164959 0
-1.0506254 1.4518261 0.19259545 0
-1.4753889 2.0387933 0.45387179 0
-1.4741505 2.037082 0.64153516 0
-0.51025432 0.70510429 0.43547752 0
-0.93293256 1.255594 -0.05584576 0
-1.0470122 1.409129 0.062674619 0
-1.0549444 1.4198045 0.19009471 0
-1.4980358 2.0161424 0.45299274 0
-1.4932966 2.009764 0.63880318 0
-0.52442181 0.7057969 0.43994886 0
-0.94729364 1.2419457 -0.05576485 0
-1.0549126 1.3830392 0.062100112 0
-1.0498376 1.3763857 0.18603666 0
-1.5163407 1.9879929 0.4509224 0
-1.5153953 1.9867533 0.63750398 0
-0.52322155 0.68596762 0.43166122 0
-0.9665544 1.2346438 -0.05597904 0
-1.0519311 1.3437011 0.060923722 0
-1.0536299 1.3458711 0.18369094 0
-1.5312411 1.9559554 0.44799361 0
-1.5241202 1.9468595 0.63081121 0
-0.53899264 0.68849087 0.43748528 0
-0.97729534 1.2164905 -0.055709518 0
-1.0526206 1.310252 0.060003348 0
-1.0517081 1.309116 0.18046764 0
-1.5430914 1.9207665 0.44434914 0
-1.5437814 1.9216254 0.62888384 0
-0.55612892 0.69224268 0.44428387 0
-1.0082269 1.2231253 -0.056590285 0
-1.0488448 1.2724009 0.058870111 0
-1.0524046 1.2767193 0.17781436 0
-1.555286 1.8867874 0.44098413 0
-1.5630693 1.8962297 0.62696445 0
-0.56848818 0.68965852 0.44718426 0
-1.0077502 1.1916534 -0.055716872 0
-1.0503592 1.2420381 0.05807266 0
-1.0538408 1.2461549 0.17539182 0
-1.5773497 1.8651984 0.44054565 0
-1.5788991 1.8670306 0.62383431 0
-0.577672 0.68309069 0.44760674 0
-1.0304552 1.1878389 -0.056140766 0
-1.0519534 1.2126207 0.057312027 0
-1.0444837 1.20401 0.17129765 0
-1.5920666 1.8352267 0.43816692 0
-1.5963995 1.8402213 0.621544 0
-1.0415231 1.1704921 -0.055936325 0
-1.0653402 1.1972584 0.057215448 0
-1.0673033 1.1994646 0.17254937 0
-1.6028351 1.8013097 0.43485343 0
-1.6004536 1.7986333 0.61425561 0
-1.0535291 1.1543822 -0.055796009 0
-1.0906341 1.1950392 0.057761125 0
-1.0899736 1.1943154 0.17376931 0
-1.6179349 1.772818 0.4328593 0
-1.6108717 1.7650784 0.60967529 0
-1.0719855 1.1453042 -0.056005239 0
-0.93648684 1.0005381 0.048926193 0
-1.1245517 1.2014657 0.17685595 0
-1.6229609 1.7339638 0.42832845 0
-1.6163573 1.7269086 0.60347348 0
-1.0886022 1.1340921 -0.056122832 0
-0.93936455 0.97861814 0.048428893 0
-1.1413935 1.1890894 0.17713578 0
-1.6312977 1.6994655 0.42484713 0
-1.6311264 1.6992869 0.60095096 0
-1.0941663 1.1115292 -0.05568368 0
-0.94912332 0.96418458 0.048302237 0
-1.1745179 1.1931559 0.17993049 0
-1.6452228 1.6713302 0.42295912 0
-1.6483001 1.6744564 0.59946233 0
-1.1162797 1.1057918 -0.056095984 0
-0.95101297 0.94207782 0.047790896 0
-1.2037263 1.1924168 0.18209039 0
-1.6466527 1.6311817 0.41801304 0
-1.6447791 1.6293257 0.59067333 0
-1.1291827 1.0907488 -0.056049731 0
-0.96935338 0.93635958 0.048116218 0
-1.2365586 1.1944699 0.18476705 0
-1.6473041 1.5912348 0.41305909 0
-1.6592748 1.6027982 0.58858436 0
-1.1385987 1.0724617 -0.055842355 0
-1.0041238 0.9457981 0.049247064 0
-1.275479 1.2013912 0.18830718 0
-1.6551679 1.5590254 0.41007584 0
-1.6717365 1.5746317 0.58592486 0
-1.1579907 1.0635315 -0.056132168 0
-1.3028407 1.1965657 0.063153587 0
-1.2966824 1.1909099 0.1892086 0
-1.6573008 1.522112 0.40582347 0
-1.6637108 1.527999 0.57632256 0
-0.66770279 0.61323714 0.37535658 0
-1.1582497 1.0371894 -0.055507232 0
-1.3343644 1.1948965 0.063947238 0
-1.3292402 1.1903079 0.19175704 0
-1.6598309 1.4863452 0.40182808 0
-1.6692903 1.4948158 0.57168961 0
-0.66493982 0.59544021 0.36955902 0
-1.1816845 1.0316615 -0.056003295 0
-1.3730471 1.1987294 0.065072499 0
-1.6707957 1.4586767 0.40000412 0
-1.6715524 1.4593374 0.56612599 0
-0.667162 0.58246124 0.36668867 0
-1.1894937 1.0123713 -0.055764806 0
-1.4023677 1.1935472 0.065744586 0
-1.6822315 1.4317379 0.39839417 0
-1.674216 1.4249159 0.56090671 0
-0.67014211 0.57035422 0.36435032 0
-0.68944883 0.58678603 0.45298272 0
-1.2065059 1.0009307 -0.05596704 0
-1.4451112 1.1988803 0.067035392 0
-1.6847419 1.3976805 0.39478925 0
-1.6785526 1.3925459 0.55644071 0
-0.68059957 0.56463295 0.36614126 0
-1.215068 0.98246998 -0.055785906 0
-1.488079 1.2032191 0.068320319 0
-1.685701 1.3630106 0.39096111 0
-1.6727036 1.3525014 0.54881251 0
-0.68563664 0.55438662 0.36506659 0
-1.2351109 0.97321439 -0.056139015 0
-1.519152 1.1970266 0.069049433 0
-1.6836207 1.3266208 0.38657358 0
-1.672199 1.3176211 0.54316014 0
-0.70320928 0.55409873 0.37067866 0
-1.2416294 0.95325744 -0.05588527 0
-1.5542623 1.1932805 0.069956765 0
-1.6839638 1.2928585 0.38288403 0
-1.6663964 1.2793711 0.53599995 0
-0.6871618 0.52756655 0.3586894 0
-0.68315256 0.52448845 0.43092787 0
-1.2565293 0.93978882 -0.056018826 0
-1.5914586 1.1902906 0.070950709 0
-1.6846868 1.2600182 0.37941074 0
-1.6684709 1.2478899 0.53157073 0
-0.68986112 0.51596391 0.35667872 0
-0.71858853 0.53744984 0.44897604 0
-1.2706889 0.92566043 -0.056125987 0
-1.6453277 1.1985741 0.072673686 0
-1.6817288 1.2250913 0.37524059 0
-1.6723282 1.2182432 0.52787048 0
-1.6654123 1.2132051 0.68550056 0
-0.68972498 0.50244486 0.35330912 0
-0.70452517 0.51322639 0.43611676 0
-1.2908863 0.91571867 -0.056504305 0
-1.6886809 1.197903 0.073916458 0
-1.6910106 1.1995556 0.37391162 0
-1.6703974 1.1849332 0.52250975 0
-1.6699176 1.1845928 0.68116117 0
-0.7193172 0.5102635 0.36514732 0
-0.71278834 0.5056321 0.43725586 0
-1.2942381 0.89381492 -0.056153912 0
-1.7387557 1.2008036 0.075440474 0
-1.6834121 1.1625828 0.36896518 0
-1.6721952 1.1548362 0.51848221 0
-1.6747169 1.1565778 0.67712456 0
-0.72017527 0.49736089 0.43791065 0
-1.2998747 0.87374103 -0.055916674 0
-1.7124074 1.1510345 0.073662579 0
-1.71075 1.1499203 0.22152711 0
-1.6821549 1.1306995 0.36554 0
-1.6757952 1.1264247 0.51515961 0
-1.6762093 1.1267031 0.6719383 0
-0.723037 0.48600614 0.43589497 0
-1.3083171 0.85569841 -0.055811901 0
-1.7056406 1.1155659 0.072761446 0
-1.7061254 1.115883 0.21909137 0
-1.6852701 1.1022427 0.36317202 0
-1.6817311 1.099928 0.51268595 0
-1.6704381 1.0925418 0.66405714 0
-0.72875124 0.4766362 0.43568698 0
-1.3251717 0.84309167 -0.056073572 0
-1.7162514 1.0919017 0.0726218 0
-1.7107742 1.0884171 0.21791106 0
-1.6833092 1.0709435 0.35981485 0
-1.6741166 1.0650949 0.50623578 0
-1.6663468 1.0601517 0.65707171 0
-0.7293334 0.46401152 0.43250754 0
-1.3287412 0.82204515 -0.055782184 0
-1.7243714 1.0668076 0.072391227 0
-1.7272691 1.0686002 0.21828084 0
-1.6889663 1.0449036 0.35818318 0
-1.6649199 1.030027 0.49949309 0
-1.6675537 1.0316565 0.65237337 0
-1.3402517 0.80601043 -0.055834893 0
-1.7430869 1.0482705 0.072617009 0
-1.741315 1.0472049 0.21837212 0
-1.6787267 1.009565 0.35328761 0
-1.6758828 1.0078548 0.49893507 0
-1.6785022 1.0094301 0.65163219 0
-1.3474975 0.7874369 -0.055719253 0
-1.7668645 1.0325024 0.073060155 0
-1.7685699 1.033499 0.22014056 0
-1.6768594 0.97990608 0.35027009 0
-1.6784046 0.98080909 0.49596959 0
-1.6701653 0.97599423 0.64357334 0
-1.3721664 0.77884293 -0.056329314 0
-1.8106508 1.0277271 0.074329704 0
-1.8181531 1.0319855 0.22467703 0
-1.6864285 0.95721841 0.34972343 0
-1.6701882 0.94800037 0.48997524 0
-1.6620301 0.94336987 0.63581079 0
-1.3695155 0.75469905 -0.055825945 0
-1.6811316 0.92642128 0.34617835 0
-1.6677023 0.91902077 0.48581249 0
-1.6780869 0.92474341 0.63744813 0
-1.3817198 0.73889816 -0.055939719 0
-1.6816512 0.89929157 0.34392625 0
-1.6766496 0.89661682 0.48509148 0
-1.671755 0.89399934 0.6307165 0
-1.4024318 0.72741622 -0.056402948 0
-1.6938233 0.87855572 0.34412581 0
-1.6813498 0.87208593 0.48323587 0
-1.6691934 0.86578065 0.6255874 0
-1.4028751 0.70537376 -0.056059103 0
-1.7045734 0.85706943 0.34408993 0
-1.6676525 0.83850539 0.47622672 0
-1.6789656 0.8441937 0.62521625 0
-1.4086608 0.68620008 -0.05594058 0
-1.7071724 0.83161384 0.34247351 0
-1.6713448 0.81416112 0.47431585 0
-1.6654342 0.81128192 0.61632431 0
-1.4185836 0.66906661 -0.055995621 0
-1.7254736 0.81380945 0.34406188 0
-1.6636682 0.78465927 0.46929604 0
-1.6719705 0.78857499 0.61501968 0
-1.4227014 0.64923787 -0.05583103 0
-1.7333615 0.79100502 0.34362134 0
-1.6770992 0.76533026 0.47032896 0
-1.6651512 0.75987786 0.60894328 0
-1.4407617 0.63568437 -0.056221187 0
-1.7522717 0.7731269 0.34541276 0
-1.6693751 0.73655182 0.46552482 0
-1.6701273 0.7368837 0.60732162 0
-1.4429485 0.61506206 -0.055999856 0
-1.7538218 0.74757302 0.34383547 0
-1.6734772 0.7133258 0.46412712 0
-1.6778551 0.7151919 0.60680872 0
