# .PCD v0.7 - Point Cloud Data file format
VERSION 0.7
FIELDS x y z intensity
SIZE 4 4 4 4
TYPE F F F F
COUNT 1 1 1 1
WIDTH 1350
HEIGHT 1
VIEWPOINT 0 0 0 1 0 0 0
POINTS 1350
DATA ascii
-1.6738963 -0.29817671 0.56566209 0
-1.5459062 -0.29550663 -0.056190137 0
-0.95575017 -0.18269576 0.034739319 0
-0.9298206 -0.17773922 0.10173646 0
-0.93525517 -0.17877805 0.17172603 0
-1.667338 -0.31871885 0.43309349 0
-1.6813735 -0.3214018 0.56951141 0
-1.5315968 -0.31281045 -0.055808768 0
-0.9528631 -0.19461097 0.0347207 0
-0.94429862 -0.1928618 0.10357808 0
-0.94127762 -0.19224478 0.1732626 0
-1.6628231 -0.33961189 0.4329972 0
-1.6746403 -0.3420254 0.56864446 0
-1.532909 -0.33323821 -0.056005046 0
-0.94107985 -0.20458081 0.034382485 0
-0.94761777 -0.20600207 0.10421842 0
-0.94896173 -0.20629424 0.1751413 0
-1.6721669 -0.36351141 0.43658769 0
-1.6757154 -0.36428279 0.57052189 0
-1.5338007 -0.35371426 -0.0561959 0
-0.94276339 -0.21741341 0.034541279 0
-0.94510454 -0.21795331 0.1042356 0
-0.94846773 -0.2187289 0.17554455 0
-1.670952 -0.38534307 0.43750265 0
-1.6762135 -0.38655648 0.57230341 0
-1.5225296 -0.37136543 -0.055949841 0
-0.94640881 -0.23084183 0.034778584 0
-0.93170428 -0.2272552 0.10306513 0
-0.94544792 -0.23060745 0.17550917 0
-1.6646316 -0.40602601 0.43715185 0
-1.6781552 -0.40932459 0.57468057 0
-1.5224732 -0.39172611 -0.056124587 0
-0.98694837 -0.25393775 0.036382951 0
-0.98508096 -0.25345728 0.10931403 0
-0.99259847 -0.25539151 0.18484434 0
-1.675772 -0.43116924 0.44146824 0
-1.6718316 -0.43015543 0.57432449 0
-1.51428 -0.41001457 -0.05600844 0
-1.0553989 -0.28576547 0.039035875 0
-1.0549219 -0.28563631 0.11745407 0
-1.6768692 -0.45403811 0.31331095 0
-1.674372 -0.45336193 0.44256827 0
-1.6673747 -0.45146734 0.57470077 0
-1.5120623 -0.42992014 -0.056122199 0
-1.1310285 -0.32158193 0.041979622 0
-1.1285337 -0.3208726 0.12608983 0
-1.6750201 -0.47625342 0.31406105 0
-1.669078 -0.47456396 0.44271341 0
-1.6736674 -0.47586882 0.57888919 0
-1.5104202 -0.45008421 -0.056267146 0
-1.2241399 -0.36477667 0.045602452 0
-1.2042217 -0.3588413 0.13504051 0
-1.6638818 -0.49581364 0.31311846 0
-1.6688337 -0.49728921 0.44427434 0
-1.6706946 -0.49784374 0.57998323 0
-1.5038785 -0.46883121 -0.056238919 0
-1.3105748 -0.40856913 0.049010146 0
-1.3080577 -0.40778446 0.14724874 0
-1.6752812 -0.52226567 0.31647617 0
-1.6727281 -0.52146971 0.44702375 0
-1.6697489 -0.52054095 0.58188432 0
-1.4892591 -0.48493037 -0.055916134 0
-1.422006 -0.4630315 0.053391028 0
-1.4254608 -0.46415645 0.16111006 0
-1.6581511 -0.53992474 0.31449959 0
-1.6866132 -0.54919249 0.45254672 0
-1.6745149 -0.5452531 0.58589143 0
-1.4849553 -0.50429559 -0.055988528 0
-1.5544033 -0.52788031 0.058606986 0
-1.5494304 -0.52619147 0.17585643 0
-1.660004 -0.56374264 0.31617236 0
-1.6701012 -0.56717169 0.44999689 0
-1.4722356 -0.52074146 -0.05575176 0
-1.72993 -0.61189008 0.19720155 0
-1.6663481 -0.58940065 0.31876901 0
-1.6766998 -0.5930621 0.45375106 0
-1.4698112 -0.54080081 -0.0559134 0
-1.6850829 -0.62000763 0.19296393 0
-1.6738348 -0.61586905 0.32165924 0
-1.6703856 -0.61459994 0.45410067 0
-1.4655565 -0.56028587 -0.056015495 0
-1.6795108 -0.64208114 0.19323641 0
-1.6778888 -0.64146101 0.32396483 0
-1.6773841 -0.64126807 0.45816213 0
-1.4577587 -0.57844573 -0.055991411 0
-1.6786723 -0.66610539 0.19408959 0
-1.6696517 -0.66252601 0.32395956 0
-1.6634135 -0.66005063 0.45658019 0
-1.4370308 -0.59127063 -0.055476848 0
-1.6785614 -0.69064915 0.19506684 0
-1.675107 -0.68922782 0.32667607 0
-1.675482 -0.68938208 0.46223894 0
-1.437215 -0.61261815 -0.055777345 0
-1.6839073 -0.71777165 0.19672284 0
-1.6746486 -0.71382511 0.32831362 0
-1.6633288 -0.70899999 0.4613125 0
-1.4333135 -0.63239807 -0.055930544 0
-1.6783828 -0.74052614 0.19715118 0
-1.674131 -0.7386502 0.33000946 0
-1.6706115 -0.73709732 0.46586961 0
-1.4158524 -0.64611244 -0.055562261 0
-1.6810486 -0.76713252 0.19858329 0
-1.6816486 -0.76740628 0.33336979 0
-1.6714046 -0.76273155 0.46873194 0
-1.4175836 -0.6685949 -0.055956144 0
-1.6677822 -0.78659964 0.1981705 0
-1.6754818 -0.79023105 0.33409342 0
-1.6780041 -0.79142076 0.47334003 0
-1.4077847 -0.68577331 -0.055905789 0
-1.9328506 -0.94154835 0.076757148 0
-1.6751418 -0.81601077 0.20025004 0
-1.6759465 -0.81640273 0.33620933 0
-1.6714212 -0.81419837 0.47433755 0
-1.4080633 -0.70798242 -0.056266427 0
-1.8818725 -0.94621646 0.075199917 0
-1.6763128 -0.8428598 0.2016428 0
-1.6706144 -0.83999461 0.33723485 0
-1.671176 -0.84027696 0.4772329 0
-1.3943284 -0.72321308 -0.056077041 0
-1.8294942 -0.94892579 0.073578529 0
-1.6698971 -0.86614561 0.20216699 0
-1.6687499 -0.86555064 0.33903176 0
-1.3878129 -0.74215651 -0.056186397 0
-1.7848644 -0.95448661 0.072261259 0
-1.6693137 -0.89269388 0.20344113 0
-1.6657852 -0.89080691 0.34068134 0
-1.3770142 -0.75883126 -0.056131613 0
-1.7392621 -0.95845526 0.070898026 0
-1.6778694 -0.92462361 0.20588647 0
-1.6734574 -0.92219222 0.34459808 0
-1.3666434 -0.77570814 -0.056102592 0
-1.7003977 -0.96514738 0.069803663 0
-1.6712716 -0.94861537 0.20652625 0
-1.670748 -0.94831818 0.34647167 0
-1.3474001 -0.78737998 -0.055715222 0
-1.6803435 -0.98194212 0.06948249 0
-1.6716611 -0.97686839 0.20807797 0
-1.6704292 -0.97614843 0.34892693 0
-1.3372973 -0.80423379 -0.055711817 0
-1.6860273 -1.0139556 0.070239909 0
-1.680023 -1.0103446 0.2106857 0
-1.6755837 -1.0076749 0.35262617 0
-1.3343118 -0.82549149 -0.056016043 0
-1.6895945 -1.0452924 0.070931248 0
-1.672973 -1.0350091 0.21141925 0
-1.6657348 -1.0305312 0.3532564 0
-1.321141 -0.8405273 -0.055903018 0
-1.6782855 -1.0677472 0.071015298 0
-1.6831388 -1.070835 0.21439099 0
-1.6706414 -1.062884 0.35710704 0
-1.3072953 -0.85503012 -0.055768311 0
-1.6790828 -1.0981958 0.071628504 0
-1.6710637 -1.0929511 0.21458893 0
-1.6732249 -1.0943646 0.36057633 0
-1.3089176 -0.87981945 -0.056305673 0
-1.6655784 -1.1195573 0.071648136 0
-1.6852593 -1.1327863 0.2182263 0
-1.6803046 -1.1294558 0.3651379 0
-1.2812648 -0.88485545 -0.055591032 0
-1.680703 -1.1607118 0.072921701 0
-1.6674414 -1.1515532 0.21777946 0
-1.6680073 -1.151944 0.36558878 0
-1.2867476 -0.91278273 -0.056323145 0
-1.6709509 -1.1853259 0.073140383 0
-1.6782743 -1.1905208 0.22113475 0
-2.0348461 -1.4434628 0.44993958 0
-1.2632838 -0.92026609 -0.055798907 0
-1.6652522 -1.2130885 0.073553741 0
-1.6653868 -1.2131866 0.22143202 0
-1.9987646 -1.4560428 0.44598013 0
-1.2614701 -0.94348419 -0.056239098 0
-1.6710955 -1.249853 0.074501097 0
-1.68309 -1.2588239 0.22587556 0
-1.2506614 -0.96019179 -0.0562918 0
-1.6663179 -1.2793109 0.075000346 0
-1.6739535 -1.2851731 0.22680327 0
-1.2217294 -0.96267033 -0.055530794 0
-1.5888917 -1.2519785 0.072219282 0
-1.5937004 -1.2557675 0.21805499 0
-1.5856706 -1.2494404 0.36408344 0
-1.2191256 -0.98575085 -0.0559722 0
-1.5685613 -1.2682948 0.072015405 0
-1.5699072 -1.2693831 0.21696936 0
-1.5794833 -1.2771261 0.36632624 0
-1.2097667 -1.003636 -0.056118302 0
-1.6785228 -1.3925211 0.077862822 0
-1.6785527 -1.3925459 0.23438962 0
-1.7695898 -1.4680713 0.41467187 0
-1.1933864 -1.0156845 -0.055947304 0
-1.6674026 -1.419117 0.078169718 0
-1.6741658 -1.4248731 0.23626374 0
-1.7507415 -1.4900463 0.414619 0
-1.4624931 -1.2447196 0.4899739 0
-1.1861396 -1.035551 -0.056214433 0
-1.721922 -1.5033122 0.41224426 0
-1.4299951 -1.2484474 0.48431468 0
-1.1635052 -1.0418954 -0.055759087 0
-1.6268978 -1.4568542 0.077966422 0
-1.6275384 -1.4574279 0.23478973 0
-1.6277051 -1.4575771 0.39405075 0
-1.3919778 -1.2464881 0.47671705 0
-1.1552565 -1.0610203 -0.055999629 0
-1.3539444 -1.2435009 0.46901703 0
-1.1450315 -1.0785209 -0.056157846 0
-1.3202342 -1.2435468 0.46272725 0
-1.1290075 -1.0905795 -0.056041036 0
-1.2896661 -1.2457697 0.45747533 0
-1.108893 -1.0984745 -0.055724785 0
-1.2732306 -1.2612681 0.45724279 0
-1.0974274 -1.1148421 -0.055849642 0
-1.258804 -1.2787795 0.45780841 0
-1.080887 -1.1260544 -0.055725072 0
-1.0753274 -1.1488748 -0.056179836 0
-1.0547701 -1.1557419 -0.05586173 0
-1.051658 -1.1818819 -0.056480628 0
-1.0323234 -1.1899924 -0.056242548 0
-1.0144856 -1.1996179 -0.05608926 0
-0.99828124 -1.2110598 -0.05603205 0
-0.98281676 -1.2233633 -0.056024261 0
-0.95940048 -1.2255056 -0.055564709 0
-0.9471069 -1.241701 -0.055753857 0
-0.93231732 -1.254766 -0.055808928 0
-0.92181337 -1.2738247 -0.056135885 0
-0.90430313 -1.2833463 -0.056049228 0
-0.8800019 -1.2828655 -0.055539861 0
-0.87040049 -1.3037618 -0.055965595 0
-0.85264724 -1.3126653 -0.055882469 0
-0.81100494 -1.2485563 0.49532583 0
-0.83659315 -1.3241543 -0.055918667 0
-0.78731251 -1.2461531 0.49040052 0
-0.82260638 -1.3390632 -0.056106389 0
-0.76368642 -1.2431515 0.48539644 0
-0.80357379 -1.345786 -0.055959661 0
-0.73928696 -1.2381216 0.47975957 0
-0.78064471 -1.3455925 -0.055538461 0
-0.72128808 -1.2432798 0.478201 0
-0.76444739 -1.3567477 -0.055597171 0
-0.70838284 -1.2572439 0.48010299 0
-0.7543925 -1.3792256 -0.056124557 0
-0.68692023 -1.2558688 0.47623703 0
-0.7371996 -1.3890542 -0.056142304 0
-0.66204637 -1.2474481 0.46984521 0
-0.71846247 -1.3959165 -0.056049559 0
-0.63887167 -1.2412778 0.46445435 0
-0.69822931 -1.3996404 -0.055841628 0
-0.62031239 -1.2434516 0.46230838 0
-0.67881423 -1.4047273 -0.055699136 0
-0.60048324 -1.2426305 0.45915541 0
-0.66656309 -1.4248987 -0.056161691 0
-0.58133084 -1.2426994 0.45643982 0
-0.6453194 -1.4259977 -0.055880293 0
-0.56696528 -1.2528543 0.45751119 0
-0.63168919 -1.4440134 -0.0562701 0
-0.54895353 -1.2548833 0.4556917 0
-0.60997933 -1.4436214 -0.055951081 0
-0.534495 -1.2649748 0.45687598 0
-0.59046674 -1.4480305 -0.055829369 0
-0.5014196 -1.2296559 0.33880487 0
-0.51931417 -1.2735397 0.45757127 0
-0.57743371 -1.4686941 -0.056341253 0
-0.4855912 -1.2350941 0.33859164 0
-0.49670801 -1.2633696 0.4516342 0
-0.55566049 -1.4673063 -0.056015156 0
-0.46404606 -1.2253844 0.14081782 0
-0.46320754 -1.2231703 0.23588525 0
-0.44228381 -1.1679178 0.31862375 0
-0.48097742 -1.2700943 0.45183724 0
-0.53468382 -1.467442 -0.055758886 0
-0.44315556 -1.2162423 0.13911493 0
-0.44010791 -1.207878 0.23184904 0
-0.42868602 -1.1765306 0.31947541 0
-0.51366717 -1.4669259 -0.055489104 0
-0.42619351 -1.2171195 0.13859043 0
-0.42436966 -1.211911 0.23157908 0
-0.41348845 -1.1808364 0.31920546 0
-0.43528038 -1.2430696 0.43818375 0
-0.50053531 -1.4892825 -0.05609192 0
-0.41033927 -1.2209151 0.13842329 0
-0.40764174 -1.212889 0.2307668 0
-0.40569362 -1.2070925 0.32489634 0
-0.42225066 -1.256356 0.44095799 0
-0.480885 -1.492801 -0.055991929 0
-0.39450476 -1.2246526 0.13827287 0
-0.3959288 -1.2290733 0.23287904 0
-0.4126468 -1.2809706 0.34335527 0
-0.41182351 -1.278415 0.44684473 0
-0.46361935 -1.5038258 -0.056182023 0
-0.40949494 -1.3282642 0.35462177 0
-0.439441 -1.491868 -0.055524155 0
-0.36592793 -1.2422969 0.33041367 0
-0.42277646 -1.5049529 -0.055808589 0
-0.34642872 -1.2331787 0.32680234 0
-0.40565839 -1.5171305 -0.056066301 0
-0.33224261 -1.2425612 0.32815409 0
-0.3866857 -1.5227559 -0.056089796 0
-0.31529444 -1.2416193 0.32683092 0
-0.36705732 -1.5257399 -0.056025021 0
-0.34715566 -1.5273298 -0.055918448 0
-0.32718772 -1.5282657 -0.05579745 0
-0.30779776 -1.5316607 -0.055775467 0
-0.29077375 -1.5475807 -0.05621741 0
-0.49811372 -2.651103 0.096303955 0
-0.26970881 -1.542222 -0.055894945 0
-0.43311173 -2.4765763 0.089758866 0
-0.25079527 -1.5487456 -0.056012481 0
-0.3985295 -2.4610546 0.08900737 0
-0.23001009 -1.5432949 -0.055706184 0
-0.36816218 -2.4702518 0.089165263 0
-0.21177392 -1.5549828 -0.056027368 0
-0.33349824 -2.4487624 0.088231012 0
-0.19200972 -1.556162 -0.055978302 0
-0.30508313 -2.4725769 0.088943593 0
-0.17202383 -1.555051 -0.055855982 0
-0.27249092 -2.4632475 0.088477559 0
-0.15352096 -1.5682356 -0.056255668 0
-0.24046801 -2.4564106 0.088116236 0
-0.13302664 -1.5614038 -0.055946071 0
-0.2097664 -2.4621387 0.088219963 0
-0.11346569 -1.5644654 -0.05600014 0
-0.17863484 -2.4630179 0.088163882 0
-0.093868531 -1.5676129 -0.056066051 0
-0.14801577 -2.4718764 0.088407248 0
-0.07389345 -1.5638137 -0.05589246 0
-0.1165297 -2.4661283 0.088142201 0
-0.054511264 -1.5736845 -0.056216259 0
-0.085177913 -2.4589992 0.087842092 0
-0.034641076 -1.5719192 -0.05613317 0
-0.054350689 -2.4662886 0.088071063 0
-0.014760794 -1.563211 -0.055811137 0
0.0049381312 -1.5680475 -0.055981599 0
0.024607524 -1.5631709 -0.055814132 0
0.044525813 -1.5711362 -0.056114107 0
0.063937128 -1.5614719 -0.055793274 0
0.083721317 -1.5629407 -0.055878997 0
0.10341643 -1.5621016 -0.055891123 0
0.12393274 -1.571527 -0.056279738 0
0.14185564 -1.5495819 -0.055553399 0
0.16230249 -1.5567561 -0.05587944 0
0.18270251 -1.5615244 -0.056128725 0
0.20136684 -1.5515287 -0.055856146 0
0.22143875 -1.5527426 -0.055995796 0
0.23898302 -1.5370384 -0.055533584 0
0.25879285 -1.5367316 -0.055635825 0
0.27910849 -1.538792 -0.055833239 0
0.29882601 -1.53703 -0.055901404 0
0.31966442 -1.5404173 -0.056166548 0
0.33737773 -1.5287616 -0.055892028 0
0.35691532 -1.5257406 -0.055941459 0
0.37553364 -1.5188434 -0.055857524 0
0.3965115 -1.5212208 -0.056124132 0
0.41498002 -1.5137218 -0.056035813 0
0.43456757 -1.510326 -0.056108225 0
0.45212165 -1.4999958 -0.055931531 0
0.46936452 -1.4890826 -0.055740561 0
0.49203107 -1.4950703 -0.056192175 0
0.50785822 -1.4801339 -0.055866715 0
0.52913392 -1.4811218 -0.05615104 0
0.5444963 -1.465608 -0.055818401 0
0.56338018 -1.4598622 -0.055865332 0
0.49187806 -1.2745819 0.45452684 0
0.58212739 -1.4536778 -0.05590475 0
0.50892383 -1.2708752 0.4554542 0
0.6011281 -1.4480234 -0.055973962 0
0.52446359 -1.2633505 0.45508826 0
0.62257421 -1.4479247 -0.056268726 0
0.54095358 -1.2580991 0.45561418 0
0.63638526 -1.4301486 -0.055884905 0
0.55775869 -1.2534511 0.45643827 0
0.65235126 -1.4176959 -0.055714875 0
0.57304382 -1.2453442 0.45607764 0
0.67253298 -1.414381 -0.055912986 0
0.59778643 -1.2571841 0.46313378 0
0.69128525 -1.4078308 -0.055993728 0
0.60832417 -1.2388773 0.45917526 0
0.70719689 -1.3955425 -0.055854734 0
0.63368756 -1.2504833 0.46639737 0
0.72825778 -1.3933104 -0.056127984 0
0.6490919 -1.2418494 0.46618873 0
0.74472684 -1.3821435 -0.056051463 0
0.67347467 -1.2499061 0.47235933 0
0.76556623 -1.3789531 -0.056308568 0
0.70114464 -1.2629157 0.051570263 0
0.69464332 -1.2512053 0.15379921 0
0.69550216 -1.2527523 0.25841594 0
0.70402318 -1.2681005 0.37004942 0
0.69856465 -1.2582686 0.47880602 0
0.7758382 -1.3569092 -0.055802926 0
0.70920968 -1.2403786 0.051010605 0
0.71001661 -1.2417899 0.15372866 0
0.70803076 -1.2383168 0.2572569 0
0.70872754 -1.2395355 0.3642891 0
0.71594197 -1.2521532 0.47987145 0
0.7941395 -1.3492036 -0.055892847 0
0.73199528 -1.2436236 0.051519036 0
0.73240322 -1.2443167 0.15517087 0
0.73100597 -1.2419429 0.25990191 0
0.72994423 -1.240139 0.36713874 0
0.73062086 -1.2412885 0.47919559 0
0.81469607 -1.345093 -0.056143101 0
0.82854515 -1.3298768 -0.055939026 0
0.84026939 -1.3116047 -0.055611104 0
0.86245513 -1.3096335 -0.055983547 0
0.8871882 -1.3109518 -0.056512982 0
0.89737499 -1.2906888 -0.056122147 0
0.90838575 -1.2720485 -0.055804577 0
0.92724037 -1.2644782 -0.055980261 0
0.94576716 -1.2562615 -0.056139279 0
0.96273834 -1.2458431 -0.056210998 0
0.98045504 -1.2362781 -0.056332015 0
0.77258062 -0.97416455 0.044388596 0
0.77586007 -0.97829968 0.13418734 0
0.98501807 -1.2104095 -0.055714056 0
0.77346992 -0.95045507 0.043748584 0
0.76833344 -0.94414324 0.13081899 0
1.0053681 -1.2041242 -0.056003023 0
0.77266872 -0.92542136 0.043040741 0
0.77637964 -0.9298659 0.13018502 0
1.0229335 -1.1942697 -0.056139335 0
0.77220637 -0.90154701 0.042379245 0
0.78434169 -0.91571492 0.12957633 0
1.0330248 -1.1757579 -0.055876188 0
0.77185708 -0.87850463 0.04174966 0
0.77781218 -0.88528258 0.12664595 0
1.0487659 -1.1637882 -0.055930518 0
0.77457887 -0.85953003 0.041308172 0
0.77512735 -0.8601386 0.12443538 0
1.0645576 -1.1518121 -0.05599476 0
1.0750155 -1.1341386 -0.055789236 0
1.0893939 -1.1207016 -0.055798627 0
1.0987562 -1.102219 -0.055562861 0
1.1225317 -1.0980636 -0.056061495 0
1.1347697 -1.0824127 -0.055987537 0
1.1381809 -1.058619 -0.055493746 0
1.1657629 -1.0572114 -0.056185018 0
1.1585974 -1.0244251 -0.055213574 0
1.1882781 -1.0243012 -0.056008913 0
1.202623 -1.0105537 -0.056080818 0
1.2086471 -0.98992169 -0.055776026 0
1.2257805 -0.97842824 -0.055993687 0
1.2323111 -0.9584896 -0.055736255 0
1.2479035 -0.9456417 -0.055898476 0
1.2591057 -0.929407 -0.055871598 0
1.2676213 -0.91126055 -0.055735871 0
1.2827334 -0.89784443 -0.0558988 0
1.3049024 -0.88909352 -0.056372523 0
1.3147324 -0.87175637 -0.056318492 0
1.3179864 -0.85021877 -0.055994831 0
1.3301992 -0.83456767 -0.056062769 0
1.3345469 -0.81405914 -0.055809554 0
1.3443105 -0.79696548 -0.055793758 0
1.3710182 -0.78963995 -0.056485061 0
1.3707343 -0.76665568 -0.056071188 0
1.3811339 -0.74979997 -0.056105923 0
1.3838311 -0.72885621 -0.055838235 0
1.4035711 -0.71682495 -0.056266069 0
1.4029067 -0.69435447 -0.055884495 0
1.4176396 -0.67955989 -0.056126058 0
1.4185115 -0.65814292 -0.055828039 0
1.4374051 -0.64504027 -0.056247495 0
1.4371531 -0.62330812 -0.05592607 0
1.4597629 -0.61139351 -0.056501843 0
1.4568259 -0.58871382 -0.056096774 0
1.4544935 -0.56657296 -0.055727828 0
1.4773257 -0.55414593 -0.056330808 0
1.4690298 -0.53003228 -0.055755571 0
1.4857306 -0.51500952 -0.056138847 0
1.4891235 -0.49527246 -0.056026958 0
1.4961829 -0.47678331 -0.056062229 0
1.5079887 -0.45971179 -0.056283224 0
1.5013609 -0.43710795 -0.055825997 0
1.5180699 -0.42131218 -0.056245569 0
1.5254494 -0.40274397 -0.05632662 0
1.5182922 -0.38047078 -0.055881005 0
1.5232557 -0.36139306 -0.055891767 0
1.5332913 -0.34344047 -0.05609687 0
1.5324438 -0.32304263 -0.055912599 0
1.534929 -0.30343294 -0.055859443 0
1.5360652 -0.28360909 -0.0557664 0
1.5508873 -0.26619777 -0.056178369 0
1.5439745 -0.24503957 -0.055811767 0
1.5590663 -0.2273483 -0.056249361 0
1.5475504 -0.20580405 -0.055735964 0
1.5577461 -0.18723093 -0.056013811 0
1.5563135 -0.16720825 -0.05588216 0
1.5577883 -0.14755107 -0.055863969 0
1.5736479 -0.1290836 -0.056369953 0
1.5560728 -0.10793608 -0.055687293 0
1.5657957 -0.088816099 -0.055990782 0
1.5660663 -0.069061883 -0.055964924 0
1.566134 -0.049316399 -0.055940717 0
1.5609359 -0.029485393 -0.055737365 0
1.5656971 -0.0098574013 -0.055898514 0
1.5612037 0.0098291123 -0.055738091 0
1.5577897 0.029425962 -0.055625021 0
1.5621219 0.049190063 -0.055797409 0
1.5641394 0.068976909 -0.055896062 0
1.5653856 0.088792838 -0.055976119 0
1.5657595 0.10860799 -0.05603395 0
1.5550231 0.12755585 -0.055702791 0
1.5640435 0.14814356 -0.056088287 0
1.5706923 0.16875309 -0.056398455 0
1.554341 0.18682165 -0.055891369 0
1.560585 0.20753747 -0.056205414 0
1.5497228 0.22598581 -0.05591226 0
1.5534766 0.24654762 -0.056155249 0
1.5420085 0.2646738 -0.055856749 0
1.5389893 0.28414899 -0.055872563 0
1.5367174 0.30378646 -0.055924524 0
1.5293956 0.32240006 -0.055801384 0
1.5375659 0.34439796 -0.056253262 0
1.5354959 0.36429706 -0.056340888 0
1.5314252 0.38376179 -0.056364369 0
1.5239136 0.40233847 -0.05626991 0
1.5129435 0.41988945 -0.056055631 0
1.5096858 0.43953165 -0.056135543 0
1.5117526 0.46085924 -0.056423709 0
1.4955475 0.47658086 -0.056038424 0
1.4816608 0.49279043 -0.055746183 0
1.4831372 0.51411057 -0.056040857 0
1.4788746 0.53358436 -0.056129221 0
1.4635563 0.54898101 -0.05580578 0
1.4654846 0.57085437 -0.056148946 0
1.4584506 0.58937043 -0.056159336 0
1.4432338 0.60447061 -0.055862065 0
1.4406465 0.62482321 -0.056062013 0
1.4331741 0.64314163 -0.056081932 0
1.4187139 0.65823686 -0.055836003 0
1.4175675 0.67952532 -0.056123201 0
1.4112464 0.69848216 -0.056216709 0
1.3909291 0.71036839 -0.055759277 0
1.3875446 0.73081207 -0.055988073 0
1.3854709 0.75215441 -0.056282103 0
1.3688887 0.76562345 -0.055995688 0
1.363042 0.78504598 -0.056156445 0
1.3508204 0.80082476 -0.056063939 0
1.3386172 0.81654203 -0.05597977 0
1.3348193 0.83746636 -0.05625749 0
1.3235871 0.85383171 -0.056232776 0
1.3151686 0.87204558 -0.056337178 0
1.2921622 0.880413 -0.055822138 0
1.2842366 0.89889646 -0.055964302 0
1.268275 0.91173053 -0.055764619 0
1.2638451 0.93290544 -0.05608191 0
1.2486914 0.94623876 -0.05593377 0
1.2292202 0.95608544 -0.055596452 0
1.2335782 0.98465252 -0.056349892 0
1.2110976 0.99192876 -0.055889111 0
1.2123735 1.018747 -0.056535505 0
1.180559 1.0176473 -0.055645082 0
1.1834358 1.0463872 -0.056397263 0
1.1573824 1.0496112 -0.055781111 0
1.1550058 1.0742679 -0.056314074 0
1.1288984 1.0768123 -0.055697858 0
1.1128453 1.0885884 -0.055577736 0
1.1020151 1.1054882 -0.055727661 0
1.1033729 1.1350824 -0.056514632 0
1.072799 1.1318001 -0.055674199 0
1.0640553 1.1512687 -0.055968344 0
0.61711425 0.66769493 0.30248588 0
1.0490313 1.1640826 -0.05594467 0
1.0087541 1.1193882 0.053796705 0
1.0119807 1.1229686 0.16245872 0
1.0080947 1.1186564 0.27158183 0
0.62410045 0.69254804 0.31016022 0
1.0376731 1.1810485 -0.056127619 0
0.98731583 1.1237334 0.053403798 0
0.98477799 1.1208448 0.16034481 0
0.98715353 1.1235486 0.26973036 0
0.62543464 0.711851 0.31525302 0
1.017139 1.1875045 -0.055821326 0
0.95962697 1.1203597 0.052665025 0
0.95834517 1.1188631 0.15832238 0
0.95274073 1.1123199 0.2641336 0
0.62287861 0.7272076 0.31855509 0
1.0071013 1.2062 -0.056099571 0
0.93217224 1.1164579 0.051925723 0
0.92715776 1.1104521 0.15546782 0
0.93792963 1.1233535 0.26392817 0
0.62869853 0.75298899 0.32635489 0
0.99591428 1.223799 -0.05633036 0
0.91056907 1.1189251 0.051503111 0
0.90974629 1.1179142 0.15489642 0
0.90707487 1.1146314 0.25917482 0
0.63006967 0.77424198 0.3321012 0
0.97934562 1.2348793 -0.056268275 0
0.88952124 1.1216176 0.051107418 0
0.88754839 1.11913 0.15350416 0
0.88652229 1.1178362 0.25730389 0
0.62239975 0.78479809 0.33324093 0
0.96033394 1.2427316 -0.056070611 0
0.86194384 1.1154087 0.050325949 0
0.86417413 1.1182948 0.15188497 0
0.8726669 1.129285 0.25738937 0
0.61617506 0.79736865 0.33525741 0
0.9453935 1.2557651 -0.056117103 0
0.83607739 1.1105607 0.049628265 0
0.84344482 1.1203468 0.15070921 0
0.83553237 1.1098367 0.2505388 0
0.60691792 0.80616844 0.33571741 0
0.93165654 1.2705007 -0.056246877 0
0.82182068 1.1207174 0.049615759 0
0.81976557 1.1179148 0.14898165 0
0.81325275 1.1090333 0.248026 0
0.60319197 0.82257324 0.33935902 0
0.9118228 1.2768614 -0.056015722 0
0.811719 1.1366822 0.049866077 0
0.80817205 1.1317152 0.14945273 0
0.80721134 1.1303699 0.25050467 0
0.59251225 0.82971835 0.33920178 0
0.8946709 1.2867994 -0.05595303 0
0.81826228 1.1769013 0.05117441 0
0.81430709 1.1712127 0.15330243 0
0.81942141 1.1785686 0.25887895 0
0.58116949 0.83589232 0.33870718 0
0.88159549 1.3026878 -0.056156736 0
0.8099016 1.1967494 0.051589902 0
0.8137219 1.2023945 0.15603031 0
0.81766123 1.2082155 0.26310855 0
0.57105559 0.84381914 0.3389785 0
0.86041778 1.3065397 -0.055851296 0
0.81247497 1.2337388 0.05273924 0
0.80209875 1.2179825 0.15673004 0
0.80357015 1.2202169 0.26349768 0
0.73687202 1.1189361 0.34181961 0
0.56507826 0.85806829 0.34181711 0
0.84170771 1.3138499 -0.055706296 0
0.81408012 1.270725 0.053877831 0
0.81496352 1.272104 0.16236098 0
0.78960943 1.232528 0.26398814 0
0.71518284 1.116353 0.33825257 0
0.54850435 0.85617888 0.33828622 0
0.83151513 1.3346438 -0.056139544 0
0.80792743 1.2967838 0.054547023 0
0.81411213 1.3067107 0.16545635 0
0.77632201 1.2460548 0.26477057 0
0.69978565 1.1232082 0.33763292 0
0.54342234 0.87223339 0.34189874 0
0.81645089 1.3479903 -0.056264032 0
0.75501311 1.2465543 0.26283571 0
0.68015313 1.1229577 0.33495659 0
0.53312492 0.88020873 0.34236634 0
0.40848148 0.67441791 0.46760491 0
0.79388684 1.3487744 -0.05587507 0
0.73684013 1.2518548 0.26197618 0
0.65987146 1.1210889 0.33189437 0
0.52775568 0.89663064 0.34614149 0
0.40418705 0.68669373 0.47254997 0
0.77305555 1.3520424 -0.055602778 0
0.72667629 1.2709271 0.26403159 0
0.63610137 1.1125152 0.32695892 0
0.50929213 0.89073098 0.34136111 0
0.41956249 0.73379755 0.34997466 0
0.4080613 0.71368247 0.41133219 0
0.40610808 0.71026635 0.48521399 0
0.75683534 1.3632269 -0.055666398 0
0.70855319 1.2762601 0.26326507 0
0.62597859 1.1275251 0.32902753 0
0.50294137 0.90590799 0.34472308 0
0.42129904 0.75885224 0.35936543 0
0.41081914 0.73997563 0.42347118 0
0.40625429 0.73175335 0.49635863 0
0.74530053 1.3832082 -0.056094643 0
0.70292401 1.3045614 0.26725599 0
0.60431689 1.1215557 0.32503918 0
0.4950532 0.91877252 0.34721869 0
0.41474068 0.76971996 0.36201015 0
0.40872839 0.75856167 0.431128 0
0.40334189 0.7485649 0.50427699 0
0.72900856 1.3947468 -0.056185845 0
0.6794039 1.2998427 0.2645157 0
0.58455259 1.1183721 0.3219578 0
0.47890875 0.91625327 0.34396034 0
0.4133004 0.79073066 0.36941478 0
0.40562335 0.77604282 0.4381257 0
0.4104138 0.78520793 0.52543879 0
0.70875776 1.3986226 -0.055978015 0
0.65934139 1.301107 0.26306257 0
0.564704 1.114355 0.31872898 0
0.47073406 0.92891997 0.34646276 0
0.41579309 0.82050264 0.38084745 0
0.4136292 0.8162325 0.45783851 0
0.40473381 0.79867882 0.53100061 0
0.69078737 1.4068171 -0.055953402 0
0.64088154 1.3051817 0.26223397 0
0.55282944 1.12586 0.32000318 0
0.45768386 0.93209207 0.34546891 0
0.41806504 0.85140669 0.39271736 0
0.40543541 0.82568598 0.46024096 0
0.40832022 0.83156097 0.54940027 0
0.6779108 1.4256909 -0.056360088 0
0.53311515 1.1211762 0.31673875 0
0.44687811 0.93981397 0.34621787 0
0.40368861 0.84898365 0.38922411 0
0.40634242 0.85456479 0.47344854 0
0.40990755 0.86206245 0.56609708 0
0.65212083 1.4171951 -0.055695195 0
0.51425779 1.1175898 0.31387129 0
0.43169263 0.93815839 0.34357819 0
0.40579307 0.88187331 0.40192816 0
0.41177583 0.89487505 0.49286956 0
0.40493134 0.88000053 0.57448268 0
0.63805062 1.4338912 -0.056031153 0
0.49553183 1.1136087 0.31097612 0
0.42319465 0.95104539 0.34631866 0
0.40574044 0.91182047 0.41321573 0
0.41088089 0.92337263 0.50567544 0
0.40729058 0.91530412 0.59413439 0
0.61836261 1.4381298 -0.055888079 0
0.48111871 1.1189407 0.31074867 0
0.41557306 0.96650082 0.35001338 0
0.40554702 0.94318324 0.42508066 0
0.40762091 0.94800645 0.51631403 0
0.41108945 0.95607328 0.61718899 0
0.60120225 1.448202 -0.055980865 0
0.46640289 1.1234914 0.31035683 0
0.41922626 1.0098504 0.36377159 0
0.40567675 0.97721171 0.43807983 0
0.40762937 0.98191524 0.53194404 0
0.41038898 0.98856264 0.63477612 0
0.58076954 1.4502871 -0.05577435 0
0.44718012 1.1166899 0.30689809 0
0.41847244 1.0450016 0.37450603 0
0.40797541 1.0187887 0.45437956 0
0.40641558 1.0148935 0.54699391 0
0.40881476 1.0208848 0.65217346 0
0.56436121 1.4624044 -0.055962611 0
0.43100297 1.1168389 0.30542329 0
0.41790432 1.0828971 0.38617039 0
0.40856019 1.058684 0.46984109 0
0.40676457 1.054031 0.56528234 0
0.40557539 1.0509496 0.66806436 0
0.54447883 1.4655608 -0.055816609 0
0.41655654 1.1212355 0.30516693 0
0.41307837 1.1118734 0.39461738 0
0.40845811 1.0994371 0.48560607 0
0.40947935 1.102186 0.58829612 0
0.40944088 1.1020824 0.69723558 0
0.52971774 1.482756 -0.056212995 0
0.40277505 1.1274251 0.30544695 0
0.40621156 1.1370444 0.40170363 0
0.40618598 1.1369728 0.4998863 0
0.40989178 1.1473458 0.60959709 0
0.50885373 1.4830352 -0.055976223 0
0.3838807 1.118806 0.30177829 0
0.40416175 1.1779144 0.41431165 0
0.40869671 1.1911314 0.5213939 0
0.40669024 1.1852835 0.62698323 0
0.48967654 1.4879159 -0.055923276 0
0.36825123 1.1189568 0.30054435 0
0.4071804 1.2372457 0.43334267 0
0.40800089 1.2397388 0.54037911 0
0.40632144 1.2346357 0.65033108 0
0.47172031 1.4965564 -0.056020331 0
0.40807858 1.2946498 0.45161274 0
0.4085871 1.2962631 0.56272972 0
0.4068374 1.2907121 0.67711663 0
0.4532454 1.5037241 -0.056070551 0
0.40527764 1.3445823 0.46721345 0
0.40667006 1.3492019 0.58344209 0
0.43295994 1.5047387 -0.055900659 0
0.40716517 1.4150897 0.48989287 0
0.40689686 1.4141573 0.60926706 0
0.4149057 1.5134507 -0.056025777 0
0.30884352 1.126568 0.041703928 0
0.4036997 1.4725745 0.50799352 0
0.40290844 1.4696883 0.63095587 0
0.39479518 1.514636 -0.055881195 0
0.3983171 1.5281479 0.52539271 0
0.39739773 1.5246208 0.65233904 0
0.37662011 1.5232376 -0.056019127 0
0.39256951 1.5877447 0.54414004 0
0.39139369 1.5829891 0.67515081 0
0.3569096 1.5257161 -0.055940561 0
0.38427812 1.6427109 0.56127477 0
0.33859977 1.534299 -0.056094479 0
0.24609694 1.1151404 0.29135382 0
0.3740207 1.694802 0.57741803 0
0.32062098 1.5450269 -0.056334622 0
0.23153132 1.1157165 0.29071957 0
0.35731563 1.7218531 0.58505505 0
0.30103257 1.5483795 -0.056314185 0
0.34602931 1.7798231 0.60322386 0
0.28061214 1.5470819 -0.056134026 0
0.33106828 1.8252587 0.61716115 0
0.2598826 1.5432026 -0.055870105 0
0.31304333 1.858875 0.62714505 0
0.24141464 1.5526775 -0.056098629 0
0.29412371 1.89168 0.63691276 0
0.22091544 1.5490731 -0.055863462 0
0.27530336 1.9304448 0.64874589 0
0.20280804 1.562633 -0.056255911 0
0.25585097 1.9713281 0.66135001 0
0.18126875 1.5492703 -0.055688255 0
0.23543727 2.0122385 0.67402679 0
0.16349989 1.5682412 -0.056291692 0
0.2117887 2.0314126 0.67950225 0
0.14292821 1.5612983 -0.055973437 0
0.11899723 1.2998846 0.33302891 0
0.1897728 2.0730124 0.692563 0
0.12290426 1.5584854 -0.055812687 0
0.17014614 2.1575353 0.23258871 0
0.16631871 2.1090016 0.3815366 0
0.16492611 2.0913429 0.53522509 0
0.10327251 1.5599276 -0.055813339 0
0.14124838 2.1335518 0.38562557 0
0.14039648 2.1206839 0.54223877 0
0.083570495 1.5601251 -0.055778332 0
0.11572613 2.1604185 0.39018726 0
0.11588536 2.1633914 0.55274171 0
0.064078331 1.5649204 -0.055916492 0
0.089542374 2.1868031 0.39471754 0
0.089165896 2.1776085 0.55604321 0
0.04461373 1.5742384 -0.056224905 0
0.023858182 0.84185892 0.34869981 0
0.023673749 0.83535099 0.41812751 0
0.02487562 1.5802015 -0.056422219 0
0.013506603 0.85799485 0.35528475 0
0.013457692 0.85488784 0.42778775 0
0.0049636387 1.5761471 -0.056270763 0
0.0025866956 0.82137579 0.41096938 0
0.0025888586 0.82206261 0.48752496 0
-0.014863569 1.5740952 -0.056199737 0
-0.0078019914 0.82625359 0.41342631 0
-0.0076349229 0.80856055 0.47953653 0
-0.034436032 1.5626149 -0.055800911 0
-0.018435797 0.8365671 0.34645295 0
-0.018346585 0.83251888 0.4166438 0
-0.018011171 0.81729871 0.484815 0
-0.054379907 1.5698923 -0.056080792 0
-0.080360465 2.3199244 0.41864625 0
-0.079869643 2.3057549 0.58862472 0
-0.027429642 0.79186571 0.46989596 0
-0.073971644 1.5654685 -0.055951603 0
-0.11025473 2.3333309 0.42128271 0
-0.11049346 2.338383 0.59726202 0
-0.036934461 0.78164732 0.46407151 0
-0.093702227 1.5648355 -0.055966716 0
-0.14072581 2.3501334 0.42460269 0
-0.14004585 2.3387783 0.59776598 0
-0.04674384 0.7806263 0.46377805 0
-0.11351302 1.5651181 -0.056023501 0
-0.17081866 2.3552485 0.42588165 0
-0.17128013 2.3616111 0.60410523 0
-0.13281302 1.5588963 -0.055856228 0
-0.20190273 2.3698385 0.4289456 0
-0.20335121 2.3868401 0.6111654 0
-0.15252537 1.5580657 -0.055890851 0
-0.23440179 2.3944435 0.43389902 0
-0.23416041 2.3919775 0.61318731 0
-0.17134851 1.5489463 -0.055636708 0
-0.26671338 2.41102 0.43747678 0
-0.26683477 2.4121172 0.61916238 0
-0.0856262 0.77403873 0.46184224 0
-0.19228737 1.5584122 -0.056059245 0
-0.29747406 2.4109082 0.43810141 0
-0.29901123 2.4233663 0.622967 0
-0.21379311 1.569809 -0.056561567 0
-0.32987383 2.4221497 0.44086403 0
-0.32939425 2.4186282 0.62276584 0
-0.23106509 1.5503737 -0.055961695 0
-0.36337146 2.4381075 0.44456619 0
-0.36295092 2.4352858 0.62818199 0
-0.25117013 1.5510606 -0.056096204 0
-0.39823568 2.45924 0.44929826 0
-0.39601201 2.4455082 0.63205504 0
-0.27043426 1.5463703 -0.05604529 0
-0.42741302 2.4439905 0.44746003 0
-0.43053427 2.4618382 0.63762623 0
-0.29164514 1.5522186 -0.056385882 0
-0.46317223 2.4651346 0.45236316 0
-0.46091381 2.4531145 0.63681954 0
-0.30853042 1.5353066 -0.055908233 0
-0.52216041 2.5983701 0.094619729 0
-0.52222574 2.5986955 0.28486335 0
-0.49569517 2.4666741 0.45375514 0
-0.49360794 2.4562879 0.63920617 0
-0.32829735 1.5334487 -0.055986684 0
-0.54432201 2.5424814 0.092826769 0
-0.54591477 2.549921 0.28024814 0
-0.52697593 2.4614594 0.45398054 0
-0.52906215 2.471204 0.64477044 0
-0.34656361 1.524725 -0.05582308 0
-0.57667452 2.5371101 0.092888422 0
-0.57433397 2.5268126 0.27848119 0
-0.56089818 2.4677012 0.45639825 0
-0.55978948 2.4628234 0.64437193 0
-0.36473843 1.5161011 -0.055671085 0
-0.60562021 2.5173695 0.092437558 0
-0.60813713 2.5278316 0.27941528 0
-0.59517032 2.4739327 0.45890048 0
-0.59495234 2.4730265 0.64895016 0
-0.38733858 1.5253268 -0.056184497 0
-0.64333147 2.5334187 0.093316957 0
-0.64324576 2.5330811 0.28086862 0
-0.62994397 2.4806991 0.46159038 0
-0.62769037 2.4718244 0.65065724 0
-0.40843743 1.5275239 -0.056450393 0
-0.68234468 2.5519154 0.094307289 0
-0.68457586 2.5602598 0.28481543 0
-0.66371721 2.4822502 0.46339744 0
-0.66099113 2.472055 0.65285712 0
-0.42247242 1.5038707 -0.055768456 0
-0.69380707 2.4697378 0.46265584 0
-0.69211882 2.4637282 0.65290791 0
-0.44321945 1.5046957 -0.05600157 0
-0.72722554 2.4688742 0.46417272 0
-0.72640622 2.4660926 0.65590662 0
-0.46142897 1.4967209 -0.055916589 0
-0.75714374 2.4559205 0.46349302 0
-0.7580651 2.458909 0.65648282 0
-0.48181638 1.4956923 -0.056100376 0
-0.79335475 2.4627941 0.46663865 0
-0.7891801 2.4498348 0.65666127 0
-0.50097549 1.4905922 -0.056141246 0
-0.8235544 2.450387 0.46621576 0
-0.82453364 2.4533007 0.66032088 0
-0.51732689 1.4773773 -0.055884447 0
-0.85396838 2.4387548 0.46601164 0
-0.85705101 2.4475584 0.66162765 0
-0.53525692 1.4690148 -0.055818651 0
-0.89387184 2.4532349 0.4708921 0
-0.89224917 2.4487815 0.66494274 0
-0.55723029 1.4714516 -0.056173407 0
-0.92195106 2.4345524 0.4694972 0
-0.91944891 2.4279451 0.66237617 0
-0.57207131 1.455055 -0.055818036 0
-0.95147532 2.4200635 0.46897641 0
-0.94918329 2.4142337 0.66184384 0
-0.5887385 1.4437922 -0.055665959 0
-0.98186994 2.4078877 0.46897569 0
-0.98701727 2.4205108 0.66691899 0
-0.60682017 1.4361447 -0.055661306 0
-1.0125493 2.3963728 0.46917909 0
-1.0150235 2.4022284 0.66535056 0
-0.6301111 1.4404058 -0.056129526 0
-1.045537 2.3900509 0.47048166 0
-1.0409093 2.3794723 0.66262555 0
-0.64522779 1.4257952 -0.055872358 0
-1.0721884 2.3692737 0.4690122 0
-1.0716479 2.3680789 0.66315812 0
-0.66643775 1.4246309 -0.056151129 0
-1.103225 2.3583422 0.46956107 0
-1.1048052 2.3617203 0.66522056 0
-0.68377316 1.4149894 -0.056106035 0
-1.1306782 2.3398075 0.46866834 0
-1.1305504 2.3395431 0.66293126 0
-0.70196348 1.4071258 -0.05614027 0
-1.1598845 2.3250544 0.46860164 0
-1.1626813 2.3306608 0.66451037 0
-0.72126329 1.4013582 -0.056268059 0
-1.1901848 2.3124361 0.46904188 0
-1.1888252 2.3097944 0.66277659 0
-0.73332357 1.3817508 -0.05584712 0
-1.2185264 2.2959847 0.4687801 0
-1.2130094 2.2855895 0.66016173 0
-0.75494987 1.3802447 -0.056166023 0
-1.2423812 2.2713959 0.46691683 0
-1.2480062 2.2816799 0.66351897 0
-0.77481604 1.3751501 -0.056351267 0
-1.0501611 1.8638349 0.076376729 0
-1.2680678 2.2505777 0.46588281 0
-1.2679534 2.2503743 0.65900606 0
-0.7843082 1.3519073 -0.055799101 0
-1.0535052 1.8159204 0.074950941 0
-1.2965548 2.2348635 0.46597263 0
-1.2951365 2.2324188 0.65847158 0
-0.80519432 1.3485 -0.056072511 0
-1.0545834 1.7661648 0.073439591 0
-1.3193053 2.2095079 0.464113 0
-1.31568 2.2034366 0.65475774 0
-0.8205291 1.3356818 -0.055964705 0
-1.0544069 1.7163949 0.071916483 0
-1.3373686 2.1770084 0.46078724 0
-1.3450578 2.1895254 0.65560496 0
-0.83708495 1.3249327 -0.055951539 0
-1.051037 1.6635743 0.070252284 0
-1.3694736 2.167594 0.46240789 0
-1.3664951 2.1628797 0.65272713 0
-0.85510206 1.3164445 -0.056043357 0
-1.0501089 1.616661 0.068824098 0
-1.3828827 2.1289721 0.4578473 0
-1.3910435 2.1415358 0.65152031 0
-0.875296 1.3110948 -0.056280367 0
-1.0507182 1.5738573 0.067559779 0
-1.417403 2.1231098 0.46038842 0
-1.4173015 2.1229579 0.65124631 0
-0.88831502 1.2949843 -0.056064531 0
-1.0512649 1.5325325 0.066348843 0
-1.432952 2.0889552 0.45685872 0
-1.4432875 2.1040223 0.65096116 0
-0.90708226 1.2872903 -0.056221478 0
-1.0443712 1.4821247 0.064730734 0
-1.4522386 2.0609515 0.45469758 0
-1.4508216 2.0589409 0.64261472 0
-0.91667867 1.2667292 -0.055823196 0
-1.0499108 1.4508384 0.063936666 0
-1.051244 1.4526809 0.19270885 0
-1.4772112 2.0413115 0.4544324 0
-1.4757982 2.0393589 0.64225221 0
-0.50969249 0.70432794 0.43499804 0
-0.93425977 1.2573802 -0.055925209 0
-1.0561154 1.4213805 0.06321954 0
-1.0435982 1.4045342 0.1880502 0
-1.4940972 2.0108416 0.45180175 0
-1.4972275 2.0150545 0.64048481 0
-0.5225988 0.70334339 0.43841949 0
-0.94911999 1.2443403 -0.055872362 0
-1.0519954 1.3792146 0.061928384 0
-1.0562905 1.3848457 0.18718015 0
-1.5172358 1.9891664 0.45118856 0
-1.5091405 1.9785531 0.63487267 0
-0.52528065 0.68866724 0.43336001 0
-0.96974272 1.2387165 -0.056163695 0
-1.0501283 1.3413982 0.060819313 0
-1.0462515 1.3364463 0.18240459 0
-1.5278168 1.9515814 0.44699174 0
-1.5310917 1.9557645 0.63369662 0
-0.543558 0.69432259 0.4411909 0
-0.97694027 1.2160486 -0.055689279 0
-1.0547584 1.3129129 0.060125209 0
-1.0554743 1.3138039 0.18111388 0
-1.5500166 1.9293866 0.4463433 0
-1.5451734 1.923358 0.62945092 0
-0.55964154 0.69661504 0.44709006 0
-0.99611741 1.2084348 -0.055910598 0
-1.0488989 1.2724664 0.058873143 0
-1.045743 1.2686378 0.17668882 0
-1.5564389 1.888186 0.44131103 0
-1.5592229 1.8915635 0.62542158 0
-0.57118303 0.69292784 0.4493041 0
-1.0060393 1.1896303 -0.05562228 0
-1.0541525 1.2465236 0.058282383 0
-1.0473782 1.238513 0.17431624 0
-1.5769062 1.864674 0.44042176 0
-1.5748856 1.8622847 0.62224853 0
-0.58571136 0.69259715 0.45383605 0
-1.0263085 1.183059 -0.055914849 0
-1.0533816 1.2142669 0.057389829 0
-1.047773 1.2078017 0.17183711 0
-1.5917237 1.8348312 0.4380725 0
-1.5921677 1.8353431 0.61989635 0
-1.0384306 1.1670165 -0.05577023 0
-1.061698 1.1931649 0.057019833 0
-1.0658473 1.1978282 0.17231397 0
-1.6116432 1.8112085 0.43724313 0
-1.6004469 1.7986258 0.61425304 0
-1.0607107 1.1622512 -0.056176353 0
-1.0972134 1.2022483 0.058109574 0
-1.0878537 1.1919926 0.17343135 0
-1.6160392 1.7707406 0.4323521 0
-1.6110009 1.7652202 0.60972422 0
-1.0772265 1.1509038 -0.056279056 0
-0.9389149 1.0031322 0.049053043 0
-1.1186693 1.195181 0.17593084 0
-1.6205878 1.7314284 0.42770213 0
-1.62842 1.7397962 0.60797709 0
-1.082651 1.1278923 -0.055816021 0
-0.93448764 0.9735375 0.048177466 0
-1.1484015 1.1963903 0.17822337 0
-1.6374071 1.7058301 0.42643824 0
-1.6364162 1.7047979 0.60289991 0
-1.1013063 1.1187826 -0.056047048 0
-0.94578063 0.96078891 0.048132122 0
-1.18147 1.2002184 0.18099552 0
-1.6354886 1.6614416 0.42045662 0
-1.649435 1.6756094 0.59987515 0
-1.1140469 1.10358 -0.055983782 0
-0.95881724 0.94980878 0.048183084 0
-1.2109905 1.1996129 0.18318927 0
-1.6464328 1.6309639 0.41795725 0
-1.647899 1.6324164 0.59179378 0
-1.1343863 1.0957752 -0.056308024 0
-0.9721117 0.93902403 0.048253134 0
-1.2417107 1.1994467 0.18553689 0
-1.6589575 1.6024916 0.41598117 0
-1.6583285 1.6018841 0.58824867 0
-1.1424233 1.0760642 -0.056029931 0
-0.99465191 0.93687636 0.048782513 0
-1.2687137 1.1950189 0.18730837 0
-1.6646025 1.567912 0.41241333 0
-1.6590383 1.5626711 0.5814743 0
-1.1576184 1.0631895 -0.056114122 0
-1.3037403 1.1973919 0.063197188 0
-1.3001665 1.1941097 0.18971698 0
-1.6670467 1.5310628 0.40820995 0
-1.6642379 1.5284832 0.57650512 0
-0.66690934 0.61250842 0.37491053 0
-1.162773 1.0412397 -0.055723999 0
-1.3334963 1.1941191 0.063905634 0
-1.33024 1.1912031 0.19190128 0
-1.6713843 1.496691 0.40462506 0
-1.6634283 1.4895664 0.569682 0
-0.66120881 0.59209913 0.3674854 0
-1.1891155 1.0381491 -0.056355469 0
-1.3628296 1.1898091 0.064588264 0
-1.6781144 1.4650663 0.40175632 0
-1.6776708 1.464679 0.5681982 0
-0.6772269 0.59124833 0.37222058 0
-1.1960067 1.0179145 -0.056070145 0
-1.4021356 1.1933497 0.065733708 0
-1.6707209 1.4219412 0.39566815 0
-1.6702574 1.4215468 0.5595805 0
-0.66561872 0.56650436 0.36189097 0
-0.68593341 0.58379406 0.45067298 0
-1.2129389 1.0062675 -0.056265451 0
-1.438805 1.1936486 0.06674286 0
-1.6836954 1.3968124 0.39454406 0
-1.6792245 1.3931032 0.55666345 0
-0.6861155 0.56920904 0.36910868 0
-1.2169557 0.98399627 -0.055872571 0
-1.4777414 1.1948603 0.067845702 0
-1.6853166 1.3626999 0.39087194 0
-1.6759354 1.3551145 0.54987282 0
-0.68625879 0.55488968 0.36539784 0
-1.2286816 0.96814829 -0.055846784 0
-1.5130264 1.1921998 0.068771005 0
-1.6896232 1.3313506 0.38795185 0
-1.6746113 1.3195219 0.5439437 0
-0.6959278 0.54836124 0.36684042 0
-1.2409438 0.95273113 -0.055854414 0
-1.5647397 1.2013245 0.070428349 0
-1.6824797 1.2917191 0.38254657 0
-1.6665609 1.2794974 0.53605288 0
-0.68741137 0.52775812 0.35881966 0
-0.6792075 0.52145964 0.42843935 0
-1.2564706 0.93974489 -0.056016207 0
-1.6005886 1.1971191 0.071357742 0
-1.6806612 1.2570074 0.37850416 0
-1.6733637 1.2515494 0.53312957 0
-0.69415599 0.51917613 0.3588993 0
-0.711106 0.53185344 0.44430092 0
-1.277215 0.9304145 -0.056414243 0
-1.6469309 1.1997421 0.072744504 0
-1.6871876 1.2290678 0.37645862 0
-1.6766073 1.2213604 0.52922112 0
-1.6750141 1.2201998 0.68945277 0
-0.69643503 0.50733298 0.35674632 0
-0.71931517 0.52400047 0.44527209 0
-1.2717352 0.90213341 -0.055666029 0
-1.6888026 1.1979893 0.073921785 0
-1.6923596 1.2005125 0.37420991 0
-1.6811819 1.1925834 0.5258832 0
-1.6746749 1.1879675 0.68310165 0
-0.71867466 0.50980771 0.36482117 0
-0.71184826 0.50496525 0.43667915 0
-1.2932248 0.8931151 -0.056109946 0
-1.7358367 1.1987878 0.075313829 0
-1.6865976 1.1647826 0.36966336 0
-1.6728373 1.1552796 0.51868129 0
-1.6691707 1.1527475 0.67488205 0
-0.72388762 0.49992469 0.44016802 0
-1.3094031 0.88014573 -0.056326553 0
-1.7031898 1.1448387 0.073266067 0
-1.7011405 1.1434611 0.22028276 0
-1.6832238 1.1314181 0.36577228 0
-1.680805 1.1297921 0.51669967 0
-1.6725376 1.124235 0.67046636 0
-0.73066461 0.49113321 0.44049338 0
-1.3064891 0.8545028 -0.055733919 0
-1.7041709 1.1146047 0.07269875 0
-1.700652 1.1123031 0.2183885 0
-1.6818718 1.1000201 0.36243972 0
-1.6769371 1.0967925 0.51122445 0
-1.6708971 1.0928421 0.66423965 0
-0.7313239 0.47831881 0.43722504 0
-1.3189751 0.8391493 -0.055811372 0
-1.715385 1.0913504 0.072585136 0
-1.7057797 1.0852394 0.21727487 0
-1.67733 1.0671394 0.35853675 0
-1.6762354 1.066443 0.50687647 0
-1.678244 1.0677209 0.66176295 0
-0.73364097 0.46675205 0.43506202 0
-1.3425696 0.83060032 -0.056362715 0
-1.7155755 1.0613658 0.072021961 0
-1.7252139 1.0673288 0.21802111 0
-1.6801541 1.0394518 0.35631433 0
-1.6696906 1.0329784 0.50092435 0
-1.6681777 1.0320425 0.65261751 0
-1.3462491 0.80961722 -0.056084745 0
-1.7428796 1.0481458 0.072608374 0
-1.7341163 1.0428756 0.21746935 0
-1.6791595 1.0098253 0.35337868 0
-1.6784246 1.0093833 0.49969178 0
-1.6597989 0.99818206 0.64437115 0
-1.3548597 0.79173923 -0.056023683 0
-1.77192 1.0354567 0.073269196 0
-1.7620146 1.0296682 0.21932459 0
-1.6898232 0.98748171 0.35297802 0
-1.6699922 0.97589314 0.49348372 0
-1.6771728 0.98008925 0.64627361 0
-1.3702481 0.77775413 -0.056250568 0
-1.8109888 1.0279189 0.074343577 0
-1.816916 1.0312833 0.22452416 0
-1.6871628 0.95763522 0.34987569 0
-1.6673731 0.94640255 0.48914939 0
-1.6716977 0.94885725 0.63950914 0
-1.3731691 0.75671238 -0.055974875 0
-1.6898481 0.93122464 0.34797323 0
-1.6649021 0.91747773 0.4849968 0
-1.6700225 0.92029935 0.63438469 0
-1.3924974 0.74466169 -0.056376059 0
-1.6858568 0.90154058 0.34478638 0
-1.6750823 0.89577872 0.48463804 0
-1.6746937 0.89557087 0.63182521 0
-1.3888704 0.72038209 -0.055857532 0
-1.687238 0.87514007 0.34278789 0
-1.6802531 0.87151712 0.48292068 0
-1.6730894 0.86780143 0.62704754 0
-1.3921716 0.699992 -0.055631392 0
-1.7012202 0.8553834 0.34341303 0
-1.6724646 0.84092498 0.4776009 0
-1.6699945 0.83968294 0.62187552 0
-1.3933206 0.67872739 -0.05533139 0
-1.7171887 0.83649307 0.34448287 0
-1.6723245 0.81463844 0.47459391 0
-1.6756217 0.8162446 0.62009442 0
-1.4103484 0.66518253 -0.055670556 0
-1.7272853 0.81466389 0.34442312 0
-1.6677223 0.78657138 0.47043967 0
-1.6601537 0.78300172 0.61067301 0
-1.4263836 0.6509183 -0.055975534 0
-1.7333852 0.79101586 0.34362605 0
-1.6806817 0.76696503 0.47133362 0
-1.6618719 0.75838137 0.6077441 0
-1.4391569 0.63497633 -0.056158569 0
-1.7425712 0.76884699 0.34350058 0
-1.6775188 0.74014491 0.46779582 0
-1.6675805 0.73575997 0.60639548 0
-1.4495806 0.61788905 -0.056257244 0
-1.7534434 0.74741167 0.34376127 0
-1.6669139 0.71052814 0.46230683 0
-1.6664013 0.71030962 0.60266638 0
-1.4526094 0.59768045 -0.056078259 0
-1.7586699 0.72360998 0.34297234 0
-1.6697947 0.687042 0.46066988 0
-1.6737463 0.68866795 0.60213882 0
-1.460988 0.57972723 -0.056115452 0
-1.7812626 0.70681369 0.34561521 0
-1.6730866 0.66388893 0.45923531 0
-1.6678048 0.66179311 0.59695601 0
-1.4535505 0.55569589 -0.055556607 0
-1.779039 0.68013096 0.3434948 0
-1.6654257 0.63669634 0.45489579 0
-1.6768342 0.64105785 0.59725118 0
-1.4755549 0.54291421 -0.056131899 0
-1.7916973 0.65923524 0.34430876 0
-1.6688226 0.61402488 0.45367578 0
-1.6784708 0.61757487 0.59501708 0
-1.4819338 0.52417183 -0.056119021 0
-1.7905493 0.6333316 0.34252846 0
-1.6760725 0.59284019 0.45358127 0
-1.6724532 0.59156001 0.59019637 0
-1.473398 0.50037068 -0.055552773 0
-1.8124514 0.61551428 0.3452082 0
-1.6771884 0.56957853 0.45190647 0
-1.6718636 0.56777024 0.58741874 0
-1.4966706 0.48734367 -0.056194406 0
-1.8138746 0.59063119 0.34403548 0
-1.674596 0.5452795 0.44932228 0
-1.6744493 0.5452317 0.58586848 0
-1.4972126 0.46675315 -0.055989642 0
-1.8205951 0.56756705 0.34392732 0
-1.6816636 0.52425539 0.44941172 0
-1.6773241 0.52290249 0.58452415 0
-1.5061402 0.44880885 -0.056107707 0
-1.8277434 0.54464209 0.34395483 0
-1.6819915 0.50121003 0.44777718 0
-1.6733981 0.49864936 0.58092177 0
-1.5145991 0.43064141 -0.056216355 0
-1.8429377 0.52399695 0.34554508 0
-1.6759542 0.47651905 0.44453728 0
-1.6741838 0.47601566 0.57906777 0
-1.514558 0.41008985 -0.056018721 0
-1.8416616 0.49865818 0.34410122 0
-1.6718911 0.45269018 0.44191253 0
-1.6867664 0.45671794 0.5813846 0
-1.5113153 0.38885525 -0.055713262 0
-1.8423043 0.47401735 0.34307885 0
-1.6702542 0.42974955 0.44001463 0
-1.6671263 0.42894477 0.57270807 0
-1.5330135 0.37392256 -0.056335099 0
-1.8499379 0.45122468 0.34341508 0
-1.6742228 0.40836543 0.43967059 0
-1.6728275 0.40802509 0.57285613 0
-1.5403309 0.35522017 -0.056435153 0
-1.8651656 0.43013126 0.34520903 0
-1.6744729 0.3861551 0.43842456 0
-1.6788216 0.38715795 0.57319385 0
-1.5421137 0.3352392 -0.056341339 0
-1.8639914 0.40521201 0.34402007 0
-1.6784976 0.3648876 0.43824053 0
-1.6760408 0.36435354 0.5706327 0
-1.5400957 0.31454626 -0.056118451 0
-1.8705076 0.38202897 0.34430754 0
-1.6742527 0.34194624 0.43597347 0
-1.667606 0.34058872 0.56625587 0
-1.5399731 0.2943725 -0.05597448 0
-1.8701591 0.35748896 0.34338757 0
-1.6677039 0.31878877 0.4331885 0
-1.6692427 0.31908295 0.56540251 0
-1.5508648 0.2762607 -0.056239467 0
-1.8800113 0.33489266 0.34439495 0
-1.6636856 0.29635784 0.43114123 0
-1.6596096 0.29563177 0.56083417 0
-1.5542907 0.25672314 -0.056242008 0
-1.8864769 0.31159055 0.34483328 0
-1.6802075 0.27752092 0.43448278 0
-1.674149 0.27652022 0.56452608 0
-1.5547972 0.2367361 -0.056148019 0
-1.89907 0.28915569 0.34644219 0
-1.6703017 0.25432304 0.43105894 0
-1.6648738 0.25349659 0.5602777 0
-1.5551531 0.21679184 -0.056057844 0
-1.8838704 0.26261577 0.34303889 0
-1.6794895 0.2341246 0.43263495 0
-1.6726576 0.23317222 0.5618645 0
-1.5632818 0.19789243 -0.05625657 0
-1.8920451 0.23950988 0.34395102 0
-1.6788187 0.21251801 0.43173856 0
-1.6769493 0.21228136 0.56236362 0
-1.5478042 0.17616208 -0.055615354 0
-0.94460565 0.10750953 0.033941362 0
-0.93625838 0.10655949 0.10126863 0
-0.95918369 0.10916872 0.17410433 0
-1.6774669 0.19091955 0.43073851 0
-1.6701565 0.19008751 0.55923861 0
-1.5602146 0.15770201 -0.055985492 0
-0.93242544 0.094246887 0.033458408 0
-0.94747978 0.095768534 0.10234382 0
-0.94544107 0.095562465 0.17137787 0
-1.6720974 0.1690108 0.4287793 0
-1.671244 0.16892454 0.55884618 0
-1.5595779 0.1378237 -0.055895939 0
-0.9428674 0.083323486 0.1017242 0
-0.94004387 0.083073966 0.17019641 0
-1.6720824 0.14776599 0.42826432 0
-1.6750528 0.14802849 0.55945212 0
-1.5667291 0.11859511 -0.056094266 0
-0.94211745 0.071314521 0.10153836 0
-0.94434011 0.071482763 0.17079774 0
-1.6722234 0.12658063 0.42785829 0
-1.6846131 0.12751846 0.56206435 0
-1.5562282 0.09811037 -0.05566965 0
-0.94313306 0.059458591 0.10155907 0
-0.93814647 0.059144218 0.16952938 0
-1.6888969 0.1064743 0.43174714 0
-1.6767642 0.10570941 0.55895716 0
-1.6733744 0.10549571 0.69421268 0
-1.5736428 0.07932964 -0.056252424 0
-0.94377309 0.047576986 0.10155543 0
