# .PCD v0.7 - Point Cloud Data file format
VERSION 0.7
FIELDS x y z intensity
SIZE 4 4 4 4
TYPE F F F F
COUNT 1 1 1 1
WIDTH 1359
HEIGHT 1
VIEWPOINT 0 0 0 1 0 0 0
POINTS 1359
DATA ascii
-1.1385216 -0.57245523 0.13695216 0
-1.1560802 -0.58128387 0.23336956 0
-1.1610937 -0.58380467 0.33157021 0
-1.1753467 -0.59097117 0.43767771 0
-1.4005047 -0.72641665 -0.056325439 0
-1.1545955 -0.59886795 0.13978173 0
-1.1442871 -0.59352118 0.23247921 0
-1.2036208 -0.62429649 0.34593201 0
-1.3794649 -0.7376923 -0.055848427 0
-1.2275119 -0.65643287 0.35514611 0
-1.3731537 -0.75670385 -0.055974249 0
-1.1320295 -0.62382758 0.32976755 0
-1.3641677 -0.7743029 -0.056000959 0
-1.1220595 -0.63688201 0.32917333 0
-1.3625866 -0.79625458 -0.056343194 0
-1.1053522 -0.64593446 0.32663223 0
-1.3490238 -0.81128591 -0.05620034 0
-1.1175442 -0.672077 0.33270943 0
-1.3235973 -0.8188628 -0.055566236 0
-1.3236496 -0.84212333 -0.05600917 0
-1.3077406 -0.85532135 -0.055787306 0
-1.299839 -0.87371701 -0.055915136 0
-1.2879614 -0.88948017 -0.055881578 0
-2.143142 -1.4800771 0.092985831 0
-1.2920218 -0.91652411 -0.056554005 0
-2.0265074 -1.4375477 0.088703699 0
-1.2648306 -0.92139286 -0.055867225 0
-2.0098987 -1.4641535 0.088776678 0
-1.2558428 -0.93927538 -0.055988219 0
-1.9882846 -1.4870864 0.088642083 0
-1.2466421 -0.95710593 -0.056110892 0
-1.9697767 -1.5122905 0.088658907 0
-1.2331783 -0.97169155 -0.056051176 0
-1.9568632 -1.5419242 0.088944547 0
-1.2222855 -0.98830587 -0.056117278 0
-1.9258983 -1.5572275 0.088421375 0
-1.2019039 -0.99711287 -0.055753566 0
-1.9043307 -1.5798539 0.088337533 0
-1.2008882 -1.0220692 -0.056298997 0
-1.8754004 -1.5961428 0.087920897 0
-1.1977537 -1.0456907 -0.05676486 0
-1.861073 -1.624797 0.088201396 0
-1.1716295 -1.0491706 -0.056148436 0
-1.844402 -1.6516247 0.088389955 0
-1.1560582 -1.0617565 -0.056038488 0
-1.8144022 -1.6663984 0.0879509 0
-1.1387503 -1.0726047 -0.055849794 0
-1.7953455 -1.6910608 0.088052385 0
-1.1286222 -1.0902073 -0.05602191 0
-1.7742132 -1.7138244 0.088067397 0
-1.120819 -1.1102885 -0.056324095 0
-1.0946013 -1.1119711 -0.055705819 0
-1.0829104 -1.1281625 -0.055829395 0
-1.0817161 -1.1557003 -0.056513608 0
-1.0622017 -1.1638851 -0.056255322 0
-1.0379323 -1.1664565 -0.055743467 0
-1.0297545 -1.1870313 -0.056102592 0
-1.0136253 -1.1986005 -0.056041695 0
-0.99149275 -1.2028245 -0.055651024 0
-0.98367816 -1.2244356 -0.056073364 0
-0.96140617 -1.2280676 -0.055680875 0
-0.95188701 -1.247968 -0.05603525 0
-0.93551099 -1.2590642 -0.056000106 0
-0.91812128 -1.2687228 -0.055911049 0
-0.90479875 -1.2840496 -0.056079946 0
-0.88958383 -1.296834 -0.05614461 0
-0.87202889 -1.306201 -0.056070298 0
-0.85175145 -1.3112862 -0.055823758 0
-0.83448905 -1.3208239 -0.055778027 0
-0.82292032 -1.3395742 -0.056127794 0
-0.80634606 -1.3504288 -0.056152716 0
-0.78701067 -1.3565655 -0.055991367 0
-0.76515377 -1.3580014 -0.055648543 0
-0.74952513 -1.3703269 -0.05576244 0
-0.72903591 -1.3736719 -0.055520587 0
-0.71589714 -1.3909322 -0.055849425 0
-0.69844764 -1.4000781 -0.055859089 0
-0.68282968 -1.4130369 -0.056028619 0
-0.6602295 -1.4113595 -0.05562805 0
-0.64595509 -1.4274024 -0.055935338 0
-0.56701714 -1.2529689 0.45755303 0
-0.62974805 -1.4395759 -0.056097183 0
-0.54857057 -1.2540078 0.45537376 0
-0.60883838 -1.4409212 -0.055846427 0
-0.53040504 -1.2552952 0.45337996 0
-0.59305125 -1.4543687 -0.05607374 0
-0.51808554 -1.2705266 0.45648873 0
-0.57416755 -1.4603869 -0.05602257 0
-0.49613833 -1.2619206 0.4511162 0
-0.55713427 -1.471198 -0.056163725 0
-0.48525009 -1.281377 0.45585105 0
-0.53612351 -1.4713931 -0.055909019 0
-0.47188744 -1.295097 0.45858175 0
-0.5194875 -1.4835476 -0.056117848 0
-0.45620939 -1.3028384 0.45925236 0
-0.5024178 -1.4948837 -0.056302879 0
-0.44077584 -1.3114755 0.4603039 0
-0.47783005 -1.4833176 -0.055636227 0
-0.43019384 -1.3354416 0.46677727 0
-0.46571136 -1.5106115 -0.056435533 0
-0.41219252 -1.3370143 0.46547589 0
-0.44609973 -1.5144739 -0.056365497 0
-0.40649262 -1.3800108 0.47862494 0
-0.42414272 -1.5098164 -0.055988941 0
-0.38633373 -1.3752282 0.050997969 0
-0.38412738 -1.3673742 0.15263918 0
-0.38801986 -1.3812302 0.25874579 0
-0.38918194 -1.3853669 0.36713347 0
-0.38930979 -1.3858221 0.47890225 0
-0.40403819 -1.5110711 -0.055842374 0
-0.37615034 -1.4067727 0.051987976 0
-0.37624952 -1.4071436 0.15653732 0
-0.37234274 -1.3925326 0.25996411 0
-0.37490714 -1.4021232 0.37029359 0
-0.37258154 -1.3934257 0.47987053 0
-0.38587666 -1.5195699 -0.055972442 0
-0.36897767 -1.5337222 -0.05631813 0
-0.34675935 -1.5255861 -0.055854607 0
-0.32543916 -1.5200984 -0.055499259 0
-0.30850971 -1.5352035 -0.055904482 0
-0.2903637 -1.5453984 -0.056138132 0
-0.27141774 -1.551994 -0.056249108 0
-0.25038719 -1.5462255 -0.055921342 0
-0.2320407 -1.5569197 -0.056197979 0
-0.21381694 -1.5699838 -0.05656787 0
-0.19112091 -1.5489585 -0.055719178 0
-0.15420856 -1.2497987 0.044957791 0
-0.15441141 -1.2514427 0.13551156 0
-0.17277774 -1.561866 -0.056100778 0
-0.13612868 -1.2305681 0.04420086 0
-0.13616887 -1.2309314 0.1330943 0
-0.15278146 -1.5606815 -0.055984687 0
-0.11919141 -1.217555 0.043676071 0
-0.11899719 -1.2155712 0.13126105 0
-0.13317333 -1.5631254 -0.056007758 0
-0.10158342 -1.192338 0.042722214 0
-0.10149315 -1.1912785 0.12848966 0
-0.11387103 -1.5700542 -0.056200191 0
-0.084327973 -1.1627145 0.041619439 0
-0.085781761 -1.1827593 0.12744418 0
-0.093629487 -1.5636208 -0.055923268 0
-0.069656797 -1.1632748 0.041604802 0
-0.070410058 -1.1758542 0.12659459 0
-0.073786892 -1.5615586 -0.05581186 0
-0.053861115 -1.5549152 -0.055545773 0
-0.03489637 -1.5835038 -0.056546856 0
-0.014731222 -1.5600792 -0.055699322 0
0.0049650664 -1.5766006 -0.05628695 0
0.024794661 -1.5750586 -0.056238588 0
0.044531997 -1.5713543 -0.056121901 0
0.064071573 -1.5647554 -0.055910598 0
0.0835106 -1.559007 -0.05573836 0
0.10369623 -1.566328 -0.056042343 0
0.12380173 -1.5698658 -0.056220245 0
0.14238554 -1.5553703 -0.055760916 0
0.16278906 -1.5614231 -0.056046959 0
0.18180852 -1.5538836 -0.055854075 0
0.20208091 -1.5570306 -0.056054216 0
0.22091745 -1.5490873 -0.055863973 0
0.23945606 -1.5400808 -0.055643503 0
0.2615858 -1.5533164 -0.05623626 0
0.27890116 -1.537649 -0.055791765 0
0.29997462 -1.5429379 -0.056116275 0
0.3203721 -1.5438275 -0.056290891 0
0.33849058 -1.5338043 -0.056076389 0
0.36030138 -1.5402153 -0.056472175 0
0.37446734 -1.5145307 -0.055698916 0
0.39428765 -1.5126889 -0.055809356 0
0.41652289 -1.5193497 -0.056244146 0
0.43550447 -1.5135821 -0.056229193 0
0.45242584 -1.5010051 -0.055969164 0
0.4724187 -1.498772 -0.056103267 0
0.49178228 -1.4943144 -0.056163762 0
0.50999558 -1.4863632 -0.056101836 0
0.52898067 -1.4806926 -0.056134772 0
0.54887712 -1.4773997 -0.056267496 0
0.56647408 -1.4678793 -0.056172125 0
0.58094513 -1.4507254 -0.055791207 0
0.60014015 -1.4456435 -0.055881966 0
0.61729711 -1.4356517 -0.055791777 0
0.63734442 -1.4323041 -0.055969138 0
0.65633142 -1.4263456 -0.056054808 0
0.67712474 -1.4240377 -0.056294736 0
0.68908411 -1.4033483 -0.05581544 0
0.70994174 -1.400959 -0.056071524 0
0.72787571 -1.3925794 -0.056098536 0
0.74053258 -1.3743593 -0.055735786 0
0.76142627 -1.3714962 -0.056004066 0
0.78211379 -1.3678849 -0.056254301 0
0.79632741 -1.3529208 -0.05604684 0
0.82176667 -1.3567669 -0.056630358 0
0.83392859 -1.3385175 -0.056302484 0
0.84413022 -1.3176312 -0.055866621 0
0.86013043 -1.3061033 -0.055832643 0
0.87212002 -1.2886863 -0.055553153 0
0.895899 -1.2885658 -0.056029838 0
0.90513164 -1.2674916 -0.055604663 0
0.92131937 -1.2564038 -0.05562279 0
0.94010681 -1.2487428 -0.055803288 0
0.96341783 -1.2467223 -0.056250669 0
0.97016019 -1.2232971 -0.055740528 0
0.98640788 -1.2121174 -0.055792667 0
1.0031899 -1.2015153 -0.05588169 0
1.0191418 -1.1898428 -0.05593124 0
1.0384185 -1.1818969 -0.056167938 0
1.0466006 -1.1613853 -0.055815041 0
1.0569388 -1.1435689 -0.05559402 0
1.0812742 -1.1407415 -0.056114037 0
1.0811937 -1.1122657 -0.055378616 0
1.1111405 -1.1146423 -0.056189116 0
1.1198606 -1.0954508 -0.0559281 0
1.1350105 -1.0826424 -0.055999421 0
1.1509206 -1.0704682 -0.056114893 0
1.1645513 -1.0561126 -0.056126624 0
1.171275 -1.0356348 -0.055817738 0
1.1882793 -1.0243022 -0.056008972 0
1.1970153 -1.0058417 -0.055819321 0
1.2150594 -0.99517357 -0.056071941 0
1.2243156 -0.9772591 -0.055926777 0
1.2452444 -0.96854907 -0.056321211 0
1.2458612 -0.944094 -0.055806991 0
1.2567009 -0.92763197 -0.055764891 0
1.2708642 -0.9135918 -0.05587846 0
1.2841654 -0.89884663 -0.055961199 0
1.2960011 -0.88302857 -0.05598798 0
1.3090322 -0.86797673 -0.056074314 0
1.3111682 -0.84582037 -0.055705156 0
1.3300952 -0.8345024 -0.056058388 0
1.3325518 -0.81284219 -0.055726122 0
1.3559328 -0.8038556 -0.056276124 0
1.3580335 -0.78216141 -0.055950101 0
1.3758612 -0.7695232 -0.056280907 0
1.3766285 -0.74735403 -0.055922903 0
1.3858056 -0.72989613 -0.0559179 0
1.4018617 -0.71595186 -0.056197539 0
1.4127511 -0.69922686 -0.056276646 0
1.4162586 -0.67889786 -0.056071382 0
1.4302711 -0.66359901 -0.056290861 0
1.4281173 -0.64087236 -0.055884052 0
1.4478872 -0.6279636 -0.056343783 0
1.4410334 -0.603549 -0.05577689 0
1.4502416 -0.58605313 -0.055843242 0
1.4606818 -0.56898355 -0.055964932 0
1.4630688 -0.5487982 -0.055787195 0
1.4640864 -0.52824873 -0.055567954 0
1.4867333 -0.51535708 -0.056176733 0
1.4900801 -0.49559063 -0.056062948 0
1.5058094 -0.47985095 -0.056422938 0
1.5101848 -0.4603813 -0.056365192 0
1.5064306 -0.43858394 -0.056014508 0
1.5078003 -0.41846207 -0.055865075 0
1.518485 -0.40090525 -0.05606946 0
1.5276513 -0.38281611 -0.056225467 0
1.5238695 -0.36153871 -0.05591429 0
1.5348834 -0.34379709 -0.056155115 0
1.5362623 -0.32384759 -0.056051925 0
1.5344161 -0.30333152 -0.055840772 0
1.5385324 -0.28406462 -0.055855971 0
1.5463787 -0.26542392 -0.056015052 0
1.5494611 -0.24591033 -0.056010097 0
1.5477357 -0.22569603 -0.055840563 0
1.5524902 -0.20646097 -0.055913873 0
1.5508031 -0.18639642 -0.055764154 0
1.55713 -0.16729596 -0.055911478 0
1.5651772 -0.14825095 -0.056128945 0
1.5554345 -0.1275896 -0.055717528 0
1.5670204 -0.10869545 -0.056079075 0
1.5584387 -0.088398792 -0.055727705 0
1.5750731 -0.069459073 -0.056286789 0
1.5776228 -0.049678173 -0.056351084 0
1.5641763 -0.029546604 -0.055853076 0
1.5698057 -0.0098832687 -0.056045201 0
1.576571 0.0099258618 -0.05628673 0
1.57386 0.029729526 -0.056198858 0
1.561949 0.049184617 -0.055791233 0
0.88177657 0.027766492 0.29350734 0
1.5642445 0.068981543 -0.055899821 0
0.91455376 0.040330864 0.30456242 0
1.5578222 0.088363819 -0.055705663 0
1.4956555 0.084837563 0.053482667 0
1.4917383 0.084615365 0.16057377 0
1.4965179 0.084886476 0.27032888 0
0.92810029 0.052644316 0.30926988 0
1.5619481 0.10834362 -0.055897553 0
1.4843256 0.10295938 0.053119674 0
1.4741063 0.10225052 0.15880182 0
1.474479 0.10227637 0.2665593 0
0.94092643 0.06526681 0.31379291 0
1.5616831 0.12810215 -0.055941358 0
1.458087 0.11960435 0.052230425 0
1.474978 0.1209899 0.15904726 0
1.4678345 0.12040393 0.26561114 0
0.966389 0.07927122 0.32259184 0
1.5606077 0.14781812 -0.055965077 0
1.450884 0.13742529 0.052030265 0
1.4514459 0.13747852 0.15668403 0
1.4478906 0.13714176 0.26229391 0
0.98667502 0.093456194 0.32973024 0
1.5662689 0.16827784 -0.056239624 0
1.433881 0.15405427 0.051486012 0
1.429764 0.15361194 0.15454003 0
1.4230841 0.15289426 0.25812837 0
0.9962126 0.10703176 0.33334154 0
1.5568115 0.18711859 -0.055980206 0
1.4148223 0.17005242 0.050874524 0
1.4112483 0.16962285 0.15275747 0
1.4126959 0.16979684 0.25661159 0
0.99458814 0.11954301 0.33327523 0
1.555122 0.20681097 -0.056008659 0
1.3892357 0.18475026 0.050034165 0
1.3938761 0.18536735 0.15111771 0
1.3896697 0.18480796 0.25283161 0
0.99754125 0.13265999 0.33479801 0
1.5516105 0.22626108 -0.055980366 0
1.384292 0.20186213 0.0499437 0
1.3710614 0.19993281 0.1489054 0
1.3833917 0.20173085 0.25213158 0
1.0014997 0.14604206 0.33671707 0
1.5534947 0.24655049 -0.056155905 0
1.3591026 0.21569909 0.049128994 0
1.3670675 0.21696319 0.14875656 0
1.367267 0.21699485 0.24967098 0
0.9981584 0.15841474 0.3362377 0
1.5414495 0.26457787 -0.055836499 0
1.3870987 0.23808472 0.050245389 0
1.3820622 0.23722024 0.15070128 0
1.3835799 0.23748074 0.2531758 0
1.005414 0.1725715 0.33938688 0
1.5435395 0.28498909 -0.056037754 0
1.4181373 0.26183566 0.051485065 0
1.4010967 0.2586894 0.15311989 0
1.4069763 0.25977498 0.25803515 0
0.99371552 0.18347318 0.33619121 0
1.5419378 0.30481848 -0.05611451 0
1.4341909 0.28351849 0.052193359 0
1.4256766 0.28183535 0.15618159 0
1.4250462 0.28171071 0.26197889 0
1.3241956 0.26177403 0.34438282 0
0.99393642 0.19648664 0.33707628 0
1.5324898 0.32305235 -0.055914283 0
1.4537559 0.30645505 0.0530416 0
1.4470474 0.30504087 0.15893093 0
1.4349192 0.30248424 0.26447323 0
1.3064542 0.27540353 0.34064373 0
1.0161427 0.21420521 0.34549451 0
1.5270939 0.34205234 -0.055870131 0
1.4776603 0.33097973 0.054061554 0
1.4906058 0.33387941 0.16416375 0
1.4309077 0.32050768 0.26445675 0
1.2911998 0.28921464 0.33758911 0
0.98985004 0.22171557 0.33747736 0
1.5230209 0.36133736 -0.055883151 0
1.5212671 0.36092126 0.055818796 0
1.5047222 0.356996 0.16620034 0
1.4239575 0.33783451 0.26393753 0
1.2798754 0.30365101 0.33560142 0
1.0073253 0.23898837 0.34443405 0
0.7580511 0.17984796 0.46203983 0
1.5191703 0.38069084 -0.055913325 0
1.4234864 0.35671329 0.26466179 0
1.2605755 0.31588924 0.33155745 0
1.0076203 0.25250089 0.3455947 0
0.76680756 0.1921553 0.46881461 0
1.512797 0.39940351 -0.055859432 0
1.4167199 0.37403756 0.26425847 0
1.2513044 0.33036512 0.33018693 0
1.0047199 0.26526272 0.34571812 0
0.78336078 0.20682025 0.40537709 0
0.78452122 0.20712663 0.48120093 0
1.5057732 0.41789943 -0.055789966 0
1.4069828 0.39048201 0.26333854 0
1.2376407 0.34348425 0.3276968 0
0.99646568 0.27655059 0.34404892 0
0.81162739 0.22525215 0.34874451 0
0.79601246 0.22091852 0.41333094 0
0.80651522 0.22383335 0.49638084 0
1.4930065 0.4346756 -0.055515345 0
1.4050142 0.40905744 0.26391324 0
1.2239978 0.35635614 0.32524684 0
1.0016619 0.29162499 0.34708336 0
0.83257788 0.24239768 0.35902971 0
0.80956411 0.23569743 0.42187533 0
0.82034373 0.23883581 0.5067026 0
1.5025772 0.45806211 -0.05608125 0
1.3913922 0.42416728 0.262337 0
1.2176021 0.37118721 0.3247636 0
0.98911422 0.30153245 0.34402391 0
0.84202856 0.25669321 0.36447006 0
0.82364392 0.25108865 0.43082601 0
0.83196682 0.2536259 0.51581359 0
1.5053364 0.47970024 -0.056405213 0
1.4012604 0.44653466 0.26523671 0
1.2072344 0.3847051 0.32326472 0
0.98698813 0.31452 0.34463462 0
0.86916369 0.27697334 0.37769514 0
0.85376042 0.27206481 0.44833556 0
0.83975494 0.26760173 0.52268994 0
1.4844466 0.49371698 -0.055850994 0
1.3872265 0.46138218 0.26365912 0
1.1876744 0.39501253 0.31933373 0
0.98195839 0.32659274 0.34428704 0
0.88811368 0.29538062 0.38751546 0
0.8685087 0.28886014 0.45795414 0
0.86949724 0.28918892 0.54342598 0
1.4834547 0.5142206 -0.056052852 0
1.3745112 0.47645676 0.26236194 0
1.181425 0.40952587 0.31901464 0
0.97342938 0.33742684 0.34275922 0
0.8846491 0.30665231 0.38765788 0
0.8816449 0.30561095 0.46687287 0
0.8824271 0.3058821 0.55387038 0
1.4750286 0.5321967 -0.055983253 0
1.1567082 0.41734532 0.31373468 0
0.97309548 0.35109705 0.34417111 0
0.89573413 0.32318473 0.39426744 0
0.89592129 0.32325226 0.47655061 0
0.89950645 0.32454583 0.56711072 0
1.4734623 0.55269676 -0.056183498 0
1.1575962 0.43421519 0.31543356 0
0.97825527 0.36694428 0.34760275 0
0.9262675 0.34744364 0.40960035 0
0.91968441 0.34497431 0.49146214 0
0.91795522 0.34432569 0.5814296 0
1.4586271 0.56818318 -0.055886209 0
1.1246616 0.43809259 0.30793798 0
0.97464353 0.37965566 0.34799054 0
0.95211422 0.37087977 0.42306155 0
0.9341408 0.36387852 0.50159615 0
0.94809276 0.36931324 0.60341632 0
1.4632226 0.59129882 -0.05634309 0
1.1290189 0.45624468 0.31067944 0
0.99702156 0.40290362 0.35776356 0
0.97754031 0.39503109 0.436535 0
0.95576262 0.38623059 0.51577681 0
0.96787399 0.39112487 0.61909169 0
1.452347 0.60828751 -0.056214802 0
1.1228729 0.47029367 0.31059322 0
1.0127918 0.42418829 0.36531016 0
0.99053526 0.41486657 0.44463575 0
0.9837296 0.41201615 0.53362668 0
0.99135041 0.41520798 0.63740194 0
1.4472947 0.62770665 -0.056320723 0
1.0962299 0.47544619 0.30485544 0
1.0475714 0.45434251 0.37988853 0
1.0205796 0.44263586 0.46058759 0
1.0168364 0.44101241 0.55455399 0
1.0138839 0.43973193 0.65539843 0
1.4301738 0.64179522 -0.055964526 0
1.0907581 0.48948133 0.30502367 0
1.0686568 0.47956327 0.38969386 0
1.0445465 0.46874368 0.47403011 0
1.0455314 0.46918565 0.57338005 0
1.0469258 0.46981138 0.68052769 0
1.4248575 0.66108727 -0.056077797 0
1.0923421 0.50681102 0.30722693 0
1.0793954 0.50080413 0.39587799 0
1.0716041 0.49718931 0.48911172 0
1.0730832 0.49787551 0.59188104 0
1.4026532 0.67237604 -0.055532731 0
1.0633851 0.50974441 0.30086407 0
1.1004461 0.52750999 0.40600258 0
1.1149428 0.53445911 0.51192391 0
1.1075478 0.53091419 0.61452937 0
1.4086701 0.69720697 -0.056114078 0
1.0627943 0.52601933 0.30254701 0
1.1356158 0.56206155 0.42155603 0
1.1436228 0.56602454 0.52832299 0
1.1402913 0.56437564 0.63659012 0
1.3923112 0.71107429 -0.055814683 0
1.6980926 0.8672415 0.3438766 0
1.046559 0.53449345 0.29981744 0
1.1811134 0.60321236 0.44122997 0
1.1711457 0.59812176 0.54447412 0
1.1713333 0.59821755 0.65807307 0
1.3881838 0.73114872 -0.056013867 0
1.6872933 0.88868797 0.34392855 0
1.0434134 0.54956001 0.30087495 0
1.2260246 0.64574039 0.46100861 0
1.2184906 0.64177221 0.57019693 0
1.2112857 0.63797742 0.68497801 0
1.3759047 0.74696112 -0.055893499 0
1.6757423 0.90973908 0.34388185 0
1.0199485 0.55371696 0.29609576 0
1.2639335 0.68617338 0.47847414 0
1.2724699 0.69080764 0.59947985 0
1.3666518 0.76437229 -0.055904184 0
1.0092834 0.56449515 0.041285694 0
1.0211948 0.57115728 0.12574641 0
1.0266696 0.57421929 0.21215157 0
1.0206832 0.57087111 0.2983723 0
1.3025686 0.72853041 0.49653327 0
1.3138006 0.73481244 0.62326109 0
1.3534002 0.77949286 -0.055759214 0
0.99439812 0.57272506 0.04096856 0
1.0016674 0.57691181 0.12422656 0
1.0074606 0.58024842 0.20967543 0
1.002506 0.57739478 0.29516062 0
1.332267 0.76732117 0.51149684 0
1.3453163 0.7748369 0.64278972 0
1.3544352 0.80296779 -0.056213968 0
0.98864329 0.58611053 0.041032277 0
0.99350512 0.58899283 0.12412424 0
0.99473184 0.58972007 0.20855525 0
1.0015048 0.5937354 0.29704353 0
1.3759178 0.81570357 0.532157 0
1.3753639 0.81537527 0.6619997 0
1.3400452 0.81741309 -0.056039486 0
0.98150086 0.59870493 0.041045487 0
0.9831053 0.59968358 0.12375856 0
0.99319708 0.60583949 0.20981631 0
0.99210197 0.60517144 0.29649135 0
1.416424 0.86400336 0.55198753 0
1.4165353 0.86407119 0.6869992 0
1.3223286 0.8296296 -0.055731051 0
0.98791647 0.61981928 0.041636873 0
0.96900219 0.60795248 0.12293715 0
0.97751099 0.61329091 0.2081175 0
0.97006035 0.60861635 0.29217139 0
1.4502037 0.90985847 0.56957138 0
1.3243998 0.85435593 -0.056267306 0
0.95976275 0.61913252 0.040775649 0
0.96588916 0.6230846 0.12352783 0
0.95860595 0.61838633 0.20573407 0
0.96022797 0.61943263 0.29153615 0
1.4715066 0.9492529 0.58258659 0
1.3102242 0.86876708 -0.056125373 0
0.95139718 0.6308406 0.040754497 0
0.95234615 0.63146979 0.12280301 0
0.94773185 0.62841022 0.20508233 0
0.94740045 0.62819046 0.29002023 0
1.4885893 0.98703521 0.5942235 0
1.2983475 0.88462734 -0.056089349 0
0.94933707 0.64682955 0.0410119 0
0.93875986 0.63962275 0.12207999 0
0.94725394 0.64541018 0.20672117 0
0.94747579 0.64556134 0.2925086 0
1.5146732 1.0320206 0.60977513 0
1.291283 0.90382862 -0.056271374 0
0.93522608 0.65460789 0.040755164 0
0.9247914 0.64730418 0.12131384 0
0.93094116 0.65160871 0.2049356 0
0.92685121 0.64874595 0.28864041 0
1.5433477 1.0802603 0.62674534 0
1.2698243 0.91284418 -0.055832732 0
0.91564411 0.65823311 0.040259834 0
0.92034078 0.66160947 0.12181323 0
0.92506742 0.66500735 0.20546968 0
0.92356843 0.66392976 0.29019865 0
1.5472767 1.1122978 0.63397855 0
1.2618798 0.93145478 -0.055994701 0
0.90299988 0.66654801 0.040069748 0
0.91337484 0.67420632 0.12200525 0
0.90604055 0.66879249 0.203098 0
0.91153121 0.67284542 0.28905571 0
1.5471649 1.1420375 0.63977432 0
1.2554423 0.95135438 -0.056236167 0
0.90063035 0.68248355 0.040342756 0
0.90191311 0.68345559 0.12161417 0
0.89905775 0.68129182 0.20343967 0
0.89928639 0.68146509 0.28787109 0
1.5623773 1.1839451 0.65217805 0
1.2376361 0.96263134 -0.055977095 0
0.88551432 0.68875164 0.040050969 0
0.88684845 0.6897893 0.1207445 0
0.88761503 0.69038552 0.2028015 0
0.89133352 0.69327778 0.28809696 0
1.578185 1.2275097 0.66517609 0
1.2222784 0.97563285 -0.055833712 0
0.8786608 0.70135444 0.04013725 0
0.88541043 0.70674205 0.12175071 0
0.88898563 0.7095958 0.20513992 0
0.87937129 0.70192158 0.28706464 0
1.5808791 1.261871 0.67295545 0
1.209825 0.99088651 -0.055830389 0
0.93516248 0.76592886 0.12990794 0
0.92356414 0.75642943 0.2153001 0
0.9366982 0.76718664 0.30890778 0
1.5902239 1.3024458 0.68386072 0
1.2057136 1.0131507 -0.056224938 0
1.6407406 1.3787003 0.23031662 0
1.6148876 1.3569762 0.38041374 0
1.6014556 1.3456893 0.53367978 0
1.5984551 1.343168 0.69461882 0
1.1918166 1.0273514 -0.056175698 0
1.6143037 1.3915372 0.38437346 0
1.5981632 1.377624 0.5383209 0
1.1804682 1.0437633 -0.05625584 0
1.6115708 1.4249418 0.38796437 0
1.597025 1.4120804 0.5438838 0
1.1654372 1.056916 -0.05616932 0
1.6124135 1.4622716 0.39256886 0
1.6037438 1.4544091 0.55236524 0
1.1464852 1.0663428 -0.055898637 0
1.6041094 1.4919778 0.39508981 0
1.6079605 1.4955598 0.56025946 0
1.1300758 1.0779355 -0.055755954 0
0.60563219 0.57768899 0.3465347 0
0.61058432 0.58241266 0.42219278 0
1.1168402 1.0924962 -0.055777252 0
0.5982458 0.58520573 0.4187234 0
0.59660673 0.58360231 0.4949486 0
1.1021142 1.1055875 -0.055732667 0
0.57765877 0.57947928 0.40938896 0
0.58104056 0.58287168 0.48808512 0
1.0921792 1.123567 -0.055941291 0
0.58319157 0.59995174 0.34642079 0
0.58704031 0.6039111 0.42139366 0
0.56472969 0.58095926 0.48049083 0
1.0769535 1.1361831 -0.055889808 0
0.57553351 0.60718632 0.34638608 0
0.57606804 0.6077503 0.41897774 0
0.55886835 0.58960468 0.48178256 0
1.0597187 1.1465766 -0.055740241 0
1.5729319 1.7018545 0.41794321 0
1.5658478 1.6941897 0.58858448 0
0.52957684 0.57298261 0.46271449 0
1.0461082 1.1608391 -0.055788789 0
1.5671839 1.739063 0.4222011 0
1.5618608 1.7331563 0.5952422 0
0.5306527 0.58885145 0.47009602 0
1.0396794 1.183332 -0.056236137 0
1.5598432 1.7753669 0.4262124 0
1.5538465 1.7685416 0.60062748 0
1.0219097 1.1930743 -0.056083143 0
1.552506 1.8125428 0.43040985 0
1.5456105 1.8044925 0.60617912 0
1.0070224 1.2061056 -0.056095179 0
1.5335158 1.836684 0.43152279 0
1.5363884 1.8401245 0.61160141 0
0.99710369 1.2252606 -0.056397635 0
1.5183375 1.8657631 0.43382841 0
1.5217962 1.8700131 0.61511755 0
0.97600031 1.230661 -0.056076072 0
1.5066513 1.899771 0.43728992 0
1.5098517 1.9038066 0.61993045 0
0.95803761 1.2397599 -0.055936538 0
1.4840418 1.9204419 0.43771178 0
1.4938838 1.9331781 0.62331975 0
0.94769883 1.2588273 -0.05625394 0
1.4753906 1.9597596 0.44240364 0
1.472785 1.9562986 0.62474531 0
0.92848825 1.26618 -0.056055598 0
1.4601401 1.991194 0.44531384 0
1.4636227 1.9959432 0.63147002 0
0.90834808 1.2719957 -0.05580226 0
1.4504786 2.0311625 0.45013201 0
1.4435215 2.0214202 0.63372934 0
0.89122748 1.2818468 -0.055737678 0
1.4236755 2.0476635 0.44978032 0
1.4238445 2.0479064 0.63636154 0
0.87519741 1.2932336 -0.055749182 0
1.4018843 2.0714915 0.45110095 0
1.3981599 2.0659881 0.63645887 0
0.86005419 1.3059876 -0.055827692 0
1.4431013 2.1913414 0.093674354 0
1.4460758 2.1958582 0.28256312 0
1.3825519 2.0993977 0.45335084 0
1.3886518 2.1086602 0.64416677 0
0.83874822 1.3092303 -0.055510428 0
1.4029288 2.1898789 0.092849292 0
1.4104491 2.2016175 0.2809965 0
1.3645422 2.1299601 0.45620397 0
1.3640255 2.1291535 0.64512891 0
0.8257159 1.3253356 -0.055748008 0
1.369426 2.1980309 0.092456467 0
1.3710215 2.2005918 0.27864003 0
1.3397422 2.1503861 0.45692936 0
1.3454354 2.1595242 0.64914638 0
0.81220996 1.3409884 -0.055971779 0
1.3441763 2.2192843 0.092631139 0
1.3473068 2.224453 0.27949098 0
1.3172224 2.1747823 0.45855239 0
1.3192918 2.1781991 0.64971471 0
0.79207617 1.3456981 -0.055747632 0
1.325141 2.2513487 0.093265608 0
1.3253212 2.2516549 0.28078964 0
1.3011459 2.2105823 0.4626095 0
1.2994198 2.2076497 0.65356684 0
0.78060651 1.3652488 -0.056145892 0
1.2685214 2.2185919 0.46090636 0
1.267536 2.2168686 0.65151918 0
0.76631004 1.3802929 -0.056363277 0
1.2461342 2.2445617 0.46300489 0
1.2497841 2.2511361 0.65691286 0
0.7462346 1.3849417 -0.056164943 0
1.2166435 2.2579765 0.46257523 0
1.2260339 2.2754045 0.6594373 0
0.72255611 1.3824018 -0.055688545 0
1.1936954 2.2837906 0.46474734 0
1.1999826 2.2958193 0.66092217 0
0.70873237 1.3985724 -0.055976007 0
1.1675382 2.3039539 0.46582183 0
1.1703296 2.3094623 0.66055489 0
0.68807596 1.4012951 -0.055733778 0
1.1459198 2.3337128 0.46888399 0
1.1431627 2.3280981 0.66171533 0
0.67642999 1.4225767 -0.056236975 0
1.1141057 2.3430376 0.46790168 0
1.1181116 2.3514621 0.66430163 0
0.65994114 1.4341903 -0.056363098 0
1.0851539 2.3582666 0.46817705 0
1.0872339 2.362787 0.66358066 0
0.6370604 1.4316659 -0.055944197 0
1.0563251 2.3738794 0.46859875 0
1.0598025 2.3816943 0.66509002 0
0.61774331 1.4366895 -0.055832107 0
1.0276693 2.3900568 0.46920046 0
1.0280573 2.390959 0.66400957 0
0.60284019 1.4521475 -0.056133382 0
1.0011692 2.4116597 0.47092915 0
0.99979985 2.4083612 0.66529328 0
0.58199108 1.4533374 -0.055891659 0
0.96769822 2.4165182 0.4694612 0
0.96889067 2.4194961 0.6649462 0
0.56661469 1.4682437 -0.056186069 0
0.93727577 2.4287214 0.46950185 0
0.93760449 2.4295731 0.66441822 0
0.54760617 1.4739788 -0.056137208 0
0.90139383 2.4262607 0.46679494 0
0.90499592 2.4359562 0.6629948 0
0.5264762 1.4736824 -0.055869006 0
0.87621081 2.4526396 0.46971008 0
0.87373132 2.4456992 0.66259956 0
0.51093268 1.4890943 -0.056204919 0
0.8455469 2.4643149 0.4698697 0
0.8429414 2.4567213 0.66265744 0
0.4944022 1.5022752 -0.056462966 0
0.81083882 2.4637897 0.46778566 0
0.81375235 2.4726427 0.6641354 0
0.47108868 1.4945525 -0.055945318 0
0.78093773 2.4775643 0.46849677 0
0.78133661 2.4788296 0.66310197 0
0.45065993 1.4951464 -0.055750705 0
0.75003332 2.4883721 0.46871737 0
0.75105029 2.4917459 0.66397458 0
0.43283275 1.5042967 -0.055884238 0
0.71670634 2.4908903 0.4674547 0
0.71631527 2.4895313 0.66092855 0
0.4162176 1.518236 -0.056202926 0
0.56430185 2.0584028 0.076199122 0
0.68289405 2.4909911 0.46582294 0
0.68418366 2.4956954 0.66022539 0
0.39826548 1.5279499 -0.056372397 0
0.52472937 2.0131302 0.0742727 0
0.64772594 2.4850078 0.46314207 0
0.64827269 2.4871054 0.65574139 0
0.37930754 1.5341067 -0.056418858 0
0.48988974 1.9813558 0.072867051 0
0.61829752 2.5007002 0.46457884 0
0.61927789 2.5046654 0.65826303 0
0.35700679 1.5261316 -0.055955797 0
0.4539091 1.9403692 0.071143873 0
0.58595681 2.5048463 0.46394157 0
0.58508062 2.501101 0.65533805 0
0.33958608 1.5387683 -0.056257874 0
0.42236814 1.913879 0.069972053 0
0.55336422 2.5074623 0.46309876 0
0.55001497 2.492286 0.65116197 0
0.3181704 1.5332179 -0.055904042 0
0.39068854 1.8826724 0.06864582 0
0.51801252 2.4962287 0.4597829 0
0.51952994 2.5035408 0.65234154 0
0.29792893 1.5324159 -0.055733591 0
0.35998377 1.8515987 0.067342192 0
0.48324737 2.4856126 0.45667043 0
0.48383424 2.4886312 0.6468178 0
0.27782404 1.5317105 -0.055576295 0
0.33057222 1.822524 0.066128112 0
0.45280856 2.4964421 0.45757627 0
0.45278361 2.4963045 0.64727896 0
0.26048324 1.5467693 -0.055999231 0
0.30064544 1.7852554 0.064633384 0
0.30240774 1.7957202 0.19570221 0
0.42071185 2.498219 0.4568947 0
0.41818458 2.4832118 0.6424678 0
0.14332499 0.8510747 0.43182293 0
0.23879729 1.535844 -0.055490427 0
0.27294859 1.7554907 0.063426316 0
0.27378863 1.7608936 0.19151579 0
0.38601455 2.4826834 0.45312852 0
0.38572866 2.4808447 0.64054787 0
0.13337354 0.85780263 0.43435001 0
0.22060727 1.5469122 -0.055785537 0
0.24788806 1.7382069 0.062684104 0
0.24645713 1.7281731 0.1876047 0
0.35391122 2.481648 0.45209032 0
0.3530491 2.4756026 0.63799596 0
0.12356342 0.86643457 0.43789825 0
0.20127206 1.5507983 -0.055829853 0
0.22144659 1.7062428 0.061425965 0
0.22311427 1.7190922 0.18629915 0
0.32118666 2.4747388 0.45005918 0
0.32078376 2.4716344 0.63588184 0
0.11173452 0.86091286 0.43436202 0
0.18200165 1.5555342 -0.055913411 0
0.19667199 1.6809189 0.060420342 0
0.19506313 1.6671681 0.18039161 0
0.28771296 2.4590292 0.44650793 0
0.28644863 2.4482231 0.62888098 0
0.10274547 0.87814641 0.44236913 0
0.16267647 1.5603431 -0.056008194 0
0.17263658 1.6558776 0.059437379 0
0.17381403 1.6671712 0.18014084 0
0.25582525 2.4537981 0.44493786 0
0.25470123 2.4430165 0.62667 0
0.092724949 0.88938946 0.44740921 0
0.1424882 1.5564916 -0.05580112 0
0.14995462 1.6380523 0.058725115 0
0.14912356 1.6289742 0.17579673 0
0.22325473 2.4387572 0.4416658 0
0.22314617 2.4375715 0.62450302 0
0.082413957 0.90026146 0.45232049 0
0.12230848 1.5509306 -0.055542134 0
0.12779374 1.6204864 0.058033075 0
0.12677172 1.6075268 0.17329615 0
0.1917952 2.432056 0.43997991 0
0.19069882 2.4181533 0.61886376 0
0.10321826 1.5591083 -0.055784021 0
0.10557224 1.5946651 0.057056226 0
0.10559519 1.5950117 0.17179003 0
0.16030228 2.4213605 0.43764514 0
0.16011868 2.4185872 0.61840981 0
0.083815694 1.5647026 -0.055941992 0
0.086311854 1.6113019 0.057608031 0
0.08653602 1.6154867 0.17386413 0
0.12870021 2.4026237 0.43393126 0
0.12891231 2.4065833 0.61487669 0
0.063828982 1.5588307 -0.055698901 0
0.066406064 1.6217682 0.057947736 0
0.066556655 1.6254461 0.17483193 0
0.097556047 2.3825128 0.43004313 0
0.097709917 2.3862708 0.60932422 0
0.044303708 1.5632989 -0.055834197 0
0.038825464 1.3699938 0.048930183 0
0.046807591 1.6516508 0.17757303 0
0.067141324 2.3691461 0.42744395 0
0.067261912 2.3734012 0.60577375 0
0.024711452 1.5697728 -0.056049861 0
0.021287344 1.3522595 0.048283391 0
0.026237546 1.6667166 0.17914306 0
0.036987804 2.349617 0.42380285 0
0.036815021 2.3386414 0.59673619 0
0.0049479576 1.5711677 -0.056092992 0
0.0042477548 1.3488263 0.048155081 0
0.0053128526 1.6870359 0.18130547 0
0.0073546697 2.3353918 0.42118695 0
0.0073348451 2.3290968 0.59423012 0
-0.014746911 1.5617408 -0.055758648 0
-0.012724 1.3475087 0.048109941 0
-0.016091701 1.7041579 0.18315282 0
-0.021797461 2.3084147 0.41633812 0
-0.021847453 2.3137088 0.59032756 0
-0.034712747 1.5751715 -0.056249309 0
-0.029966949 1.3598199 0.048559111 0
-0.038259752 1.7361251 0.18662545 0
-0.050437983 2.2887406 0.4128716 0
-0.050394319 2.2867591 0.58356714 0
-0.054370463 1.5696197 -0.056071054 0
-0.047850683 1.3814002 0.049347349 0
-0.060690295 1.7520667 0.18840632 0
-0.078715123 2.2724249 0.41007468 0
-0.078837521 2.2759585 0.58101815 0
-0.07400433 1.5661602 -0.055976324 0
-0.084016412 1.7780468 0.063549392 0
-0.084387884 1.7859083 0.19214447 0
-0.10595706 2.2423787 0.4048613 0
-0.10649627 2.2537899 0.57565558 0
-0.042689834 0.90344876 0.37447762 0
-0.093833111 1.5670214 -0.056044891 0
-0.10746706 1.7947096 0.064188212 0
-0.10786194 1.8013041 0.19393164 0
-0.13322537 2.2248757 0.40197214 0
-0.13327208 2.2256558 0.56885314 0
-0.052795399 0.88168794 0.36570436 0
-0.11376135 1.5685419 -0.056146059 0
-0.13259843 1.8282677 0.065442957 0
-0.15969849 2.2019234 0.39815706 0
-0.15985192 2.2040391 0.56379789 0
-0.063312039 0.87294662 0.36238062 0
-0.065157533 0.89839238 0.45068249 0
-0.13354306 1.5674652 -0.056163259 0
-0.1575595 1.8493587 0.066263676 0
-0.18467768 2.167659 0.3923507 0
-0.18669209 2.1913033 0.56109697 0
-0.074525185 0.87474132 0.36348641 0
-0.076464057 0.89749885 0.45068154 0
-0.15252762 1.5580885 -0.055891674 0
-0.18329066 1.8723369 0.067164376 0
-0.21296753 2.1754899 0.39422226 0
-0.21157284 2.161243 0.55403805 0
-0.08809045 0.8998549 0.37435326 0
-0.17276828 1.5617806 -0.056097709 0
-0.21116804 1.9089044 0.068566069 0
-0.23620306 2.1352146 0.38743219 0
-0.23561001 2.1298535 0.54670858 0
-0.097232103 0.8789531 0.3661381 0
-0.19202395 1.5562773 -0.055982448 0
-0.23889351 1.9361364 0.069646746 0
-0.26038349 2.1103041 0.38347673 0
-0.2597625 2.1052711 0.54119527 0
-0.10884529 0.88214755 0.36801055 0
-0.1067422 0.86510283 0.43612817 0
-0.21262647 1.5612427 -0.056252915 0
-0.26626325 1.9550792 0.070443183 0
-0.28553221 2.0965643 0.38160309 0
-0.28436092 2.0879641 0.53762406 0
-0.117784 0.86484724 0.36138338 0
-0.11591724 0.85114026 0.42979094 0
-0.23232116 1.5588014 -0.056265902 0
-0.29580736 1.9847738 0.071641639 0
-0.30858386 2.0704999 0.37753636 0
-0.30659935 2.0571847 0.53065079 0
-0.3068518 2.0588784 0.69254255 0
-0.12920401 0.86691797 0.36289972 0
-0.12988244 0.87147003 0.44084755 0
-0.25150678 1.5531394 -0.056171391 0
-0.32529381 2.0087993 0.072650947 0
-0.33191586 2.0496929 0.37447479 0
-0.33075258 2.0425093 0.52789778 0
-0.32967013 2.0358248 0.68612999 0
-0.13866687 0.8563149 0.35916364 0
-0.13990092 0.86393553 0.43789256 0
-0.27220801 1.5565127 -0.056412883 0
-0.35890475 2.0522535 0.074380077 0
-0.35255814 2.0159628 0.36909422 0
-0.35277236 2.0171878 0.52245992 0
-0.35061064 2.0048268 0.67711711 0
-0.1509048 0.86288881 0.43829042 0
-0.28909585 1.5386505 -0.055893011 0
-0.38585043 2.0536058 0.074599274 0
-0.38744238 2.0620787 0.22548792 0
-0.3772442 2.0078011 0.36844045 0
-0.37514663 1.9966372 0.51831973 0
-0.37575802 1.9998913 0.67699456 0
-0.16202021 0.86231768 0.4390018 0
-0.31065145 1.5458611 -0.056292579 0
-0.40286168 2.0047169 0.073001824 0
-0.40469524 2.0138412 0.22075288 0
-0.39677492 1.9744281 0.36320439 0
-0.39405179 1.9608773 0.51028425 0
-0.39829186 1.9819766 0.67257464 0
-0.17232303 0.85751247 0.43762547 0
-0.32681659 1.5265322 -0.055734158 0
-0.42629206 1.9911736 0.072698355 0
-0.42497888 1.9850398 0.21816507 0
-0.41916037 1.9578621 0.3610993 0
-0.41616139 1.9438541 0.50717777 0
-0.41630897 1.9445434 0.66159832 0
-0.18258278 0.85282844 0.43637377 0
-0.3459748 1.5221345 -0.055728238 0
-0.44909394 1.9758124 0.072338253 0
-0.44711438 1.9671034 0.21679536 0
-0.44250295 1.9468151 0.36006099 0
-0.43754682 1.9250104 0.50365877 0
-0.43704623 1.9228079 0.65602362 0
-0.3648816 1.5166962 -0.055692937 0
-0.47520107 1.9752589 0.072531313 0
-0.47418272 1.9710259 0.21786846 0
-0.46304059 1.9247116 0.35702306 0
-0.45956996 1.9102854 0.50128049 0
-0.45947713 1.9098995 0.65354168 0
-0.38522384 1.516999 -0.055877745 0
-0.49872062 1.9639457 0.072340764 0
-0.50119042 1.9736717 0.21884117 0
-0.48052803 1.8923039 0.35210612 0
-0.48101312 1.8942142 0.49861315 0
-0.48057789 1.8925003 0.64960718 0
-0.4035624 1.5092916 -0.055776615 0
-0.53139949 1.9873924 0.073445059 0
-0.52765894 1.9734029 0.21953069 0
-0.50065589 1.8724138 0.34955046 0
-0.50194651 1.8772404 0.49576962 0
-0.50106603 1.8739475 0.6453535 0
-0.4248952 1.512495 -0.056088276 0
-0.52255249 1.8601247 0.34845704 0
-0.51893616 1.8472517 0.48953667 0
-0.52051967 1.8528885 0.64030761 0
-0.44073632 1.4962655 -0.055687822 0
-0.54129446 1.8376527 0.34549683 0
-0.53708154 1.82335 0.48495635 0
-0.53806335 1.8266833 0.63354301 0
-0.46222311 1.4992968 -0.056012824 0
-0.5629977 1.8261758 0.34464464 0
-0.55422235 1.7977115 0.4799554 0
-0.55669111 1.8057193 0.62865353 0
-0.47704321 1.480875 -0.055544611 0
-0.5863508 1.8201962 0.34488222 0
-0.5775224 1.7927904 0.48054501 0
-0.57870549 1.796463 0.62791824 0
-0.50056052 1.4893575 -0.056094743 0
-0.60962856 1.8138763 0.34511194 0
-0.5952518 1.7711002 0.47670245 0
-0.59443474 1.768669 0.62077045 0
-0.51998353 1.484964 -0.056171428 0
-0.63233238 1.8058089 0.34506458 0
-0.6141848 1.7539831 0.47413933 0
-0.61267912 1.7496834 0.6167658 0
-0.53639996 1.472152 -0.055937853 0
-0.65472102 1.7968845 0.34490734 0
-0.63095373 1.7316551 0.47021407 0
-0.6338715 1.7396629 0.61599833 0
-0.55841839 1.474589 -0.056293178 0
-0.6761449 1.7854638 0.34432212 0
-0.65370697 1.726213 0.47093418 0
-0.6508255 1.718604 0.611395 0
-0.57805997 1.470287 -0.056402355 0
-0.69930428 1.7786702 0.34468284 0
-0.66295815 1.6862243 0.46226555 0
-0.66835827 1.6999595 0.60770804 0
-0.59418112 1.4571395 -0.05618057 0
-0.72070312 1.7674156 0.34423321 0
-0.68200976 1.6725259 0.46082804 0
-0.68751979 1.6860385 0.6057784 0
-0.61645275 1.4589421 -0.056544866 0
-0.74663299 1.767036 0.345963 0
-0.7004739 1.6577924 0.45916247 0
-0.70362163 1.6652421 0.6014421 0
-0.62916929 1.4382529 -0.056045633 0
-0.76453942 1.7477031 0.34403548 0
-0.720047 1.6459954 0.45836994 0
-0.72086507 1.6478654 0.59839714 0
-0.64460385 1.4244165 -0.05581833 0
-0.78664219 1.7382865 0.34410444 0
-0.73905897 1.6331393 0.45734519 0
-0.7345379 1.6231487 0.59273344 0
-0.6594075 1.4096024 -0.05555879 0
-0.80948102 1.7304115 0.34453604 0
-0.75309128 1.6098684 0.45344809 0
-0.75770283 1.6197264 0.59492075 0
-0.68168849 1.4106753 -0.055934977 0
-0.83647966 1.7309978 0.34672248 0
-0.77173871 1.5970238 0.45253155 0
-0.76939285 1.5921693 0.58831096 0
-0.7003597 1.4039109 -0.056012008 0
-0.84699982 1.6978594 0.34219399 0
-0.78990835 1.5834162 0.45145839 0
-0.78795797 1.5795065 0.58725172 0
-0.71944338 1.3978223 -0.05612608 0
-0.86349618 1.6777056 0.34029663 0
-0.80029148 1.5549039 0.4461669 0
-0.79864413 1.5517031 0.58060759 0
-0.73525316 1.3853866 -0.055994067 0
-0.89684689 1.6898664 0.34502655 0
-0.81883192 1.5428683 0.44563672 0
-0.81581378 1.5371814 0.57897186 0
-0.75268817 1.3761097 -0.055997759 0
-0.91652161 1.6756399 0.34445092 0
-0.83754122 1.5312431 0.44528985 0
-0.83554435 1.5275924 0.5792771 0
-0.76947069 1.3656631 -0.055962507 0
-0.93085718 1.6520932 0.341993 0
-0.84844637 1.5058298 0.44097152 0
-0.85359234 1.5149629 0.57851803 0
-0.7869913 1.356532 -0.055989984 0
-0.96108615 1.6566184 0.34540758 0
-0.86407524 1.4894012 0.43931198 0
-0.86666274 1.4938613 0.5745818 0
-0.80849546 1.3540286 -0.056302398 0
-0.97445887 1.6319759 0.34280086 0
-0.8818329 1.4768505 0.43885055 0
-0.88332331 1.4793465 0.57323182 0
-0.82184702 1.3378271 -0.056054592 0
-1.0000826 1.6279643 0.34457612 0
-0.89831424 1.4623027 0.43785423 0
-0.89756531 1.4610835 0.57048941 0
-0.83565748 1.3226732 -0.055856124 0
-1.0176575 1.6107416 0.34361586 0
-0.91285944 1.444868 0.43604115 0
-0.91619605 1.4501492 0.57067943 0
-0.85181111 1.311378 -0.05582767 0
-1.0389206 1.5994364 0.34396771 0
-0.93640059 1.441605 0.4385801 0
-0.92462176 1.4234712 0.56471795 0
-0.8630169 1.2927021 -0.05549084 0
-1.0587798 1.5859327 0.3439036 0
-0.94242531 1.4116468 0.43304196 0
-0.94773442 1.4195993 0.56787133 0
-0.88819283 1.2948061 -0.056056816 0
-1.0789543 1.572898 0.34399596 0
-0.9646585 1.4062778 0.43508673 0
-0.95995313 1.3994182 0.56458908 0
-0.90150285 1.2793722 -0.055875663 0
-1.1080319 1.5724689 0.34692606 0
-0.97648942 1.3857898 0.43251801 0
-0.97632945 1.3855628 0.56391448 0
-0.9181416 1.2687509 -0.055912286 0
-1.1224349 1.5510572 0.34529305 0
-0.98968679 1.3676169 0.43070152 0
-0.99082959 1.3691961 0.56228673 0
-0.93429959 1.2574338 -0.05592759 0
-1.1422206 1.5372658 0.34539738 0
-1.0088577 1.3577784 0.43156967 0
-1.0103749 1.3598204 0.56361663 0
-0.94946438 1.2447917 -0.055892635 0
-1.1618085 1.5231847 0.34549323 0
-1.0242763 1.3428736 0.43089759 0
-1.0223086 1.3402939 0.5608145 0
-0.96674812 1.2348913 -0.055990256 0
-0.58132571 0.74256575 0.033668105 0
-0.59414989 0.7589469 0.10358471 0
-0.59263694 0.75701427 0.17338715 0
-1.0357443 1.3230246 0.42867953 0
-1.042343 1.3314537 0.56256288 0
-0.97439957 1.212886 -0.055544451 0
-0.59716308 0.74332005 0.034040548 0
-0.59522039 0.74090195 0.10213672 0
-0.59624273 0.74217445 0.17169426 0
-1.053161 1.3109245 0.42902187 0
-1.0520182 1.309502 0.55884081 0
-0.49039602 0.61042154 0.46436173 0
-0.99440551 1.2063581 -0.055814512 0
-0.60104519 0.72915494 0.033735778 0
-0.60527098 0.73428142 0.10226663 0
-0.60917753 0.73902059 0.17272553 0
-1.0695603 1.2975317 0.42901248 0
-1.0743997 1.3034027 0.56196696 0
-1.0138007 1.198808 -0.056051396 0
-0.61223465 0.72396064 0.10189486 0
-0.61085391 0.72232789 0.17060834 0
-1.0842817 1.282151 0.42840743 0
-1.0839287 1.2817335 0.55846483 0
-1.0270091 1.1838666 -0.055953022 0
-0.62317276 0.71835136 0.10220172 0
-0.61477983 0.70867652 0.16919905 0
-1.1014183 1.2696403 0.42882743 0
-1.0996172 1.2675643 0.55827999 0
-1.039006 1.1676632 -0.055801135 0
-0.6262958 0.70384824 0.10125232 0
-0.63025397 0.70829654 0.17098959 0
-1.1140957 1.2520511 0.427591 0
-1.1071844 1.2442839 0.5541231 0
-1.1159176 1.2540985 0.69504237 0
-1.0533948 1.154235 -0.055788897 0
-0.63736278 0.69837677 0.10161172 0
-0.64134002 0.70273477 0.17158292 0
-1.1370821 1.2459337 0.43035761 0
-1.1284132 1.2364348 0.55691129 0
-1.120679 1.2279603 0.68832254 0
-0.52562553 0.57594299 0.46242246 0
-1.0752989 1.1488442 -0.056178343 0
-0.64541209 0.68955523 0.10150265 0
-0.64022619 0.68401468 0.16896716 0
-1.1470991 1.2255553 0.42827404 0
-1.1490942 1.2276869 0.55944407 0
-1.1419932 1.2201 0.69192237 0
-0.55308819 0.59091681 0.47999865 0
-1.0888933 1.1343954 -0.056137841 0
-0.58085525 0.60512769 0.34729013 0
-0.58031124 0.60456097 0.41928843 0
-0.55692649 0.580199 0.47695139 0
-1.1045721 1.1221001 -0.056213241 0
-0.57785177 0.58702147 0.4121379 0
-0.57236946 0.58145219 0.48386803 0
-1.1140021 1.1035357 -0.055981532 0
-0.58294338 0.57746643 0.41055053 0
-0.58099151 0.57553285 0.48499182 0
-1.1267281 1.0883777 -0.055927891 0
-0.60724449 0.58657575 0.34956431 0
-0.61256868 0.59171873 0.42613345 0
-1.1415211 1.0752145 -0.055985685 0
-0.61310112 0.57748836 0.34872195 0
-0.62260586 0.58644104 0.42794478 0
-1.1598569 1.0652454 -0.056222629 0
-0.69892514 0.64191264 0.10198538 0
-0.70249754 0.64519364 0.17202067 0
-1.2297705 1.129456 0.4260022 0
-1.2249174 1.1249988 0.55331802 0
-1.2349284 1.1341932 0.69422883 0
-1.1715595 1.0491079 -0.056145079 0
-0.71106255 0.63674217 0.10257834 0
-0.69980884 0.6266647 0.16941655 0
-1.2431264 1.1131946 0.42573923 0
-1.2475991 1.1171999 0.55716485 0
-1.2482942 1.1178223 0.69377464 0
-1.175162 1.025967 -0.05569417 0
-0.71353716 0.62294871 0.10179563 0
-0.71117377 0.62088537 0.17026167 0
-1.2602763 1.1002755 0.42683387 0
-1.2591662 1.0993065 0.55610448 0
-1.2006392 1.0218573 -0.056287326 0
-0.7265954 0.61840129 0.10253951 0
-0.7161451 0.60950708 0.16960092 0
-1.2763909 1.0863291 0.42762476 0
-1.2813132 1.0905185 0.55977648 0
-1.2153856 1.0082973 -0.056378946 0
-0.72450769 0.60105962 0.10116875 0
-0.72476226 0.60127085 0.16983514 0
-1.2919736 1.0718356 0.42828962 0
-1.2958304 1.0750352 0.56016028 0
-1.2223119 0.98832721 -0.056118488 0
-0.74301994 0.60078514 0.10268923 0
-0.73686272 0.5958066 0.17089902 0
-1.3044358 1.0547303 0.42798415 0
-1.3056867 1.0557418 0.55862993 0
-1.2394787 0.97665602 -0.056337547 0
-0.74024695 0.58328283 0.033646159 0
-0.74904817 0.59021783 0.10248708 0
-0.75202966 0.59256709 0.17267239 0
-1.3188529 1.0391995 0.42838699 0
-1.322906 1.0423931 0.56033677 0
-1.248292 0.95837265 -0.056185156 0
-0.75657213 0.58085614 0.034053028 0
-0.76028389 0.58370584 0.10301055 0
-0.75399852 0.57888025 0.17143717 0
-1.3368113 1.0263332 0.42998824 0
-1.3328617 1.0233008 0.55905139 0
-1.250487 0.93526965 -0.05574945 0
-0.764907 0.57209253 0.034101229 0
-0.75651604 0.5658167 0.10152665 0
-0.76867557 0.57491118 0.17311454 0
-1.3559844 1.0141737 0.43201333 0
-1.3582387 1.0158597 0.56428534 0
-1.2642647 0.92098057 -0.055842232 0
-0.77354115 0.56350255 0.034167103 0
-0.77231812 0.56261164 0.10268843 0
-0.78244174 0.5699864 0.17458458 0
-1.3716439 0.99920326 0.43295941 0
-1.3620993 0.99225032 0.56065387 0
-1.2809058 0.90863872 -0.056067441 0
-0.78416187 0.55626249 0.03432411 0
-0.78231442 0.55495197 0.10308024 0
-0.78621745 0.55772066 0.17384624 0
-1.3835622 0.98146039 0.43278611 0
-1.3796511 0.97868586 0.56276113 0
-1.2887355 0.89001477 -0.055915166 0
-0.78870738 0.54468989 0.034220137 0
-0.78805977 0.54424268 0.1029261 0
-0.79018855 0.54571283 0.17319113 0
-1.3969641 0.96475857 0.43314382 0
-1.4038123 0.96948808 0.56759191 0
-1.3080682 0.87924844 -0.056269132 0
-0.80856264 0.54349416 0.034781914 0
-0.80420786 0.54056704 0.10413787 0
-0.80508012 0.54115331 0.17494762 0
-1.4216764 0.95561284 0.43704045 0
-1.4120049 0.94911194 0.56602722 0
-1.3132076 0.85889703 -0.056020524 0
-0.81408292 0.53244698 0.034728214 0
-0.8014707 0.524198 0.10292052 0
-0.80390584 0.52579069 0.17323996 0
-1.4195973 0.92848068 0.43277285 0
-1.422019 0.93006456 0.56530195 0
-1.3242669 0.84251601 -0.056035288 0
-0.81445068 0.51816422 0.034462824 0
-0.82173824 0.52280068 0.10466949 0
-0.81374705 0.51771653 0.17394204 0
-1.4465039 0.92028475 0.437408 0
-1.449873 0.92242819 0.57171202 0
-1.3433366 0.83107477 -0.056394912 0
-0.82546008 0.51068294 0.034653824 0
-0.83208716 0.51478285 0.10515366 0
-0.82132083 0.50812215 0.17417949 0
-1.4664112 0.90721673 0.43993846 0
-1.4570873 0.90144837 0.57003558 0
-1.3446296 0.80864334 -0.05601728 0
-0.83958691 0.50491697 0.034977198 0
-0.84690034 0.50931519 0.10620676 0
-0.836496 0.50305814 0.17604038 0
-1.4781951 0.88896787 0.44008052 0
-1.4779867 0.88884252 0.57378757 0
-1.3652292 0.79779881 -0.056452464 0
-0.90728569 0.53019041 0.037516419 0
-0.90145642 0.52678394 0.11220767 0
-0.91592777 0.53524059 0.19132321 0
-1.4974402 0.87505889 0.44249448 0
-1.4928648 0.8723852 0.57525325 0
-1.3648405 0.77468479 -0.056028578 0
-0.98027742 0.55640638 0.040241733 0
-0.97700942 0.55455148 0.12073327 0
-1.5096712 0.8568908 0.31306833 0
-1.506332 0.85499549 0.44190553 0
-1.5072895 0.85553896 0.57661462 0
-1.3745972 0.75749934 -0.05603309 0
-1.052044 0.57974994 0.042884763 0
-1.0532579 0.58041888 0.1292422 0
-1.5261946 0.84104013 0.31427374 0
-1.5286875 0.8424139 0.44531658 0
-1.5372738 0.84714556 0.58395803 0
-1.388936 0.74275714 -0.056231871 0
-1.1460477 0.61286849 0.046398398 0
-1.1485491 0.61420614 0.13997497 0
-1.5431892 0.82524663 0.31560838 0
-1.5487258 0.82820743 0.44808033 0
-1.537743 0.82233423 0.58015674 0
-1.3965261 0.72435302 -0.056165431 0
-1.2522366 0.64951265 0.050362401 0
-1.2499076 0.64830464 0.15132074 0
-1.5509906 0.80447096 0.31510717 0
-1.5512179 0.80458885 0.44583473 0
-1.5518564 0.80492002 0.58161134 0
-1.4010247 0.70444334 -0.05598516 0
-1.3892413 0.69851863 0.055514298 0
-1.3708856 0.68928927 0.16490312 0
-1.5726062 0.79071558 0.31745064 0
-1.578612 0.79373527 0.45079967 0
-1.5744858 0.79166061 0.58630985 0
-1.4169693 0.69024736 -0.056270525 0
-1.5388935 0.74964023 0.061112367 0
-1.5396312 0.74999964 0.18405083 0
-1.5853528 0.77227193 0.31803548 0
-1.5873318 0.77323592 0.45047355 0
-1.4276167 0.67332697 -0.056352183 0
-1.6389056 0.77298015 0.1947393 0
-1.6046838 0.75683963 0.31997621 0
-1.6079061 0.75835943 0.4535664 0
-1.4395949 0.65694708 -0.056493979 0
-1.6182835 0.73849016 0.1911688 0
-1.6262634 0.74213171 0.32239023 0
-1.6255549 0.74180847 0.45587379 0
-1.4280856 0.63009143 -0.055726543 0
-1.6490644 0.72759044 0.1937073 0
-1.6465548 0.72648317 0.32457358 0
-1.6448218 0.7257185 0.45867783 0
-1.4404546 0.61399907 -0.055903073 0
-1.6662517 0.71024585 0.19466022 0
-1.6549929 0.70544678 0.32446012 0
-1.6646194 0.70955014 0.46167049 0
-1.4476318 0.59563243 -0.055886097 0
-1.6919284 0.69614899 0.19662023 0
-1.674679 0.68905169 0.32659262 0
-1.6725243 0.68816519 0.46142295 0
-1.4589341 0.5789122 -0.056036562 0
-1.7013853 0.67511803 0.19671568 0
-1.6935588 0.67201239 0.3285982 0
-1.6911765 0.67106712 0.46420071 0
-1.4674389 0.56100547 -0.056087442 0
-1.7203678 0.65770084 0.19793721 0
-1.6976534 0.6490171 0.32778096 0
-1.7141968 0.65534163 0.46821716 0
-1.4752088 0.54278684 -0.05611873 0
-1.7261804 0.63512903 0.19767013 0
-1.7283958 0.63594419 0.33214417 0
-1.7354456 0.63853812 0.47178748 0
-1.4801141 0.52352816 -0.056050111 0
-1.7424382 0.61631429 0.1986274 0
-1.7510223 0.61935055 0.33496702 0
-1.7439213 0.61683887 0.4719426 0
-1.4810613 0.5029732 -0.05584171 0
-2.0030839 0.68025374 0.075523973 0
-1.7578237 0.59696251 0.19950853 0
-1.7629161 0.59869194 0.33577347 0
-1.7681299 0.60046256 0.47641003 0
-1.4909171 0.48547024 -0.055978384 0
-1.977351 0.64386213 0.07424216 0
-1.7862325 0.58163035 0.2018856 0
-1.7850559 0.58124727 0.33856943 0
-1.7895647 0.58271545 0.48017034 0
-1.5107359 0.47096899 -0.056495354 0
-1.9673847 0.61332834 0.073572159 0
-1.8110975 0.56460613 0.20387621 0
-1.8010001 0.56145829 0.34022564 0
-1.5161432 0.45178959 -0.056480344 0
-1.9230492 0.57304192 0.071638666 0
-1.8261551 0.54416883 0.20478365 0
-1.8310133 0.54561651 0.34457019 0
-1.5115288 0.42976847 -0.056102399 0
-1.8406547 0.52334785 0.20565432 0
-1.8410548 0.52346158 0.34519204 0
-1.5050596 0.407518 -0.055667404 0
