# .PCD v0.7 - Point Cloud Data file format
VERSION 0.7
FIELDS x y z intensity
SIZE 4 4 4 4
TYPE F F F F
COUNT 1 1 1 1
WIDTH 1360
HEIGHT 1
VIEWPOINT 0 0 0 1 0 0 0
POINTS 1360
DATA ascii
-1.1264236 -1.0880835 -0.055912778 0
-1.774 -1.7136185 0.088056818 0
-1.1169347 -1.1064407 -0.0561289 0
-1.0995907 -1.1170397 -0.055959735 0
-1.0854663 -1.1308252 -0.055961162 0
-1.0779142 -1.1516385 -0.056314982 0
-1.0526866 -1.153459 -0.055751387 0
-1.0408355 -1.1697192 -0.055899389 0
-1.0326346 -1.1903512 -0.056259505 0
-1.0051942 -1.1886309 -0.055575557 0
-0.99817038 -1.2109253 -0.056025825 0
-0.97935843 -1.2190585 -0.055827122 0
-0.96378666 -1.2311084 -0.055818744 0
-0.9529978 -1.2494242 -0.05610064 0
-0.93104964 -1.2530599 -0.055733044 0
-0.91609836 -1.2659273 -0.055787858 0
-0.90002602 -1.2772764 -0.055784129 0
-0.89153242 -1.2996746 -0.056267589 0
-0.87585485 -1.3119318 -0.056316301 0
-0.85977131 -1.3236328 -0.056349378 0
-0.83504218 -1.3216994 -0.055814996 0
-0.82067579 -1.3359205 -0.055974707 0
-0.80436563 -1.3471122 -0.056014806 0
-0.78598213 -1.3547926 -0.055918191 0
-0.7700482 -1.3666881 -0.056004509 0
-0.75053573 -1.3721745 -0.055837624 0
-0.73214298 -1.3795263 -0.05575721 0
-0.71848679 -1.3959637 -0.056051455 0
-0.69952315 -1.402234 -0.055945102 0
-0.67906636 -1.4052491 -0.055719823 0
-0.66021025 -1.4113184 -0.05562643 0
-0.64455694 -1.4243128 -0.055814266 0
-0.56515342 -1.2488505 0.45604908 0
-0.63078743 -1.441952 -0.056189775 0
-0.54394919 -1.2434436 0.45153755 0
-0.6104455 -1.4447247 -0.055993844 0
-0.53723013 -1.2714479 0.45921391 0
-0.59832674 -1.467306 -0.056572542 0
-0.5187909 -1.2722564 0.45711023 0
-0.57441521 -1.4610168 -0.056046735 0
-0.50302613 -1.2794396 0.45737898 0
-0.55907357 -1.4763191 -0.056359224 0
-0.48568043 -1.2825133 0.45625532 0
-0.53137428 -1.4583588 -0.055413749 0
-0.47071183 -1.2918706 0.45743927 0
-0.51927114 -1.4829296 -0.056094471 0
-0.45447549 -1.2978868 0.4575069 0
-0.49745888 -1.480129 -0.055747163 0
-0.44417423 -1.321587 0.46385285 0
-0.47977701 -1.4893614 -0.055862918 0
-0.42885527 -1.3312862 0.46532485 0
-0.46017441 -1.4926516 -0.05576456 0
-0.41369358 -1.3418833 0.46717098 0
-0.44352162 -1.5057213 -0.056039747 0
-0.40610692 -1.3787013 0.47817081 0
-0.42237195 -1.5035131 -0.055755194 0
-0.38652605 -1.3759128 0.051023357 0
-0.38470253 -1.3694216 0.15286773 0
-0.38578224 -1.373265 0.25725368 0
-0.3865416 -1.3759681 0.36464271 0
-0.38886908 -1.3842531 0.47836009 0
-0.4046084 -1.5132036 -0.055921182 0
-0.37175554 -1.3903365 0.051380567 0
-0.37458313 -1.4009115 0.15584403 0
-0.37235236 -1.3925686 0.25997084 0
-0.37631029 -1.4073709 0.37167948 0
-0.37323174 -1.3958573 0.48070794 0
-0.38691458 -1.5236572 -0.056122996 0
-0.36813068 -1.5302016 -0.056188848 0
-0.34727725 -1.5278646 -0.055938028 0
-0.32807106 -1.5323917 -0.05594809 0
-0.30933169 -1.5392938 -0.056053426 0
-0.28841105 -1.5350057 -0.055760611 0
-0.27038503 -1.5460887 -0.056035087 0
-0.25094166 -1.5496496 -0.056045178 0
-0.22879845 -1.5351652 -0.055412736 0
-0.21202971 -1.5568609 -0.056095038 0
-0.19230835 -1.5585823 -0.056065366 0
-0.15428439 -1.2504133 0.0449799 0
-0.15401754 -1.2482505 0.13516591 0
-0.17277096 -1.5618048 -0.056098577 0
-0.13559552 -1.2257483 0.044027742 0
-0.13604516 -1.229813 0.13297337 0
-0.15261133 -1.5589437 -0.055922348 0
-0.11817638 -1.2071863 0.04330413 0
-0.11835112 -1.2089714 0.13054839 0
-0.13205224 -1.5499667 -0.055536274 0
-0.10124678 -1.1883868 0.042580638 0
-0.10166691 -1.193318 0.12870964 0
-0.11343037 -1.5639784 -0.055982709 0
-0.085347958 -1.176778 0.042122841 0
-0.084965304 -1.171502 0.12623119 0
-0.093717739 -1.5650946 -0.055975981 0
-0.070052721 -1.1698867 0.041841276 0
-0.069883578 -1.167062 0.12564801 0
-0.073921785 -1.5644133 -0.055913892 0
-0.054191247 -1.5644457 -0.055886231 0
-0.034471322 -1.5642163 -0.055858098 0
-0.014745476 -1.5615889 -0.05575322 0
0.0049522133 -1.5725191 -0.056141239 0
0.024526553 -1.5580274 -0.055630479 0
0.04445507 -1.5686399 -0.05602495 0
0.064065605 -1.5646096 -0.055905387 0
0.083866015 -1.565642 -0.055975575 0
0.10353761 -1.5639321 -0.055956617 0
0.12347001 -1.5656594 -0.056069601 0
0.14306445 -1.5627866 -0.056026794 0
0.16167685 -1.5507553 -0.055664036 0
0.18207939 -1.5561986 -0.055937294 0
0.20270404 -1.5618318 -0.056227066 0
0.22161849 -1.554003 -0.056041248 0
0.24005593 -1.5439389 -0.055782899 0
0.26043096 -1.5464587 -0.055987991 0
0.28008765 -1.5441904 -0.056029111 0
0.29850319 -1.5353695 -0.055841014 0
0.31919137 -1.5381378 -0.05608343 0
0.33810756 -1.5320687 -0.056012936 0
0.35907963 -1.5349926 -0.056280684 0
0.37621054 -1.5215811 -0.055958208 0
0.39680007 -1.5223278 -0.056164976 0
0.41482377 -1.5131519 -0.056014713 0
0.43460658 -1.5104616 -0.056113262 0
0.45322618 -1.5036603 -0.056068171 0
0.47412324 -1.5041798 -0.056305695 0
0.48928848 -1.4867368 -0.055878956 0
0.50733846 -1.4786191 -0.055809539 0
0.52549887 -1.4709467 -0.05576529 0
0.54831362 -1.4758829 -0.056209732 0
0.56573302 -1.465959 -0.05609864 0
0.58085555 -1.4505018 -0.055782605 0
0.59883523 -1.4425001 -0.055760458 0
0.6164583 -1.4337008 -0.055715963 0
0.63489991 -1.4268106 -0.055754468 0
0.6536473 -1.4205124 -0.055825569 0
0.67708552 -1.4239553 -0.056291476 0
0.69258946 -1.4104871 -0.05609937 0
0.71774954 -1.4163665 -0.056688186 0
0.73199022 -1.4004513 -0.056415647 0
0.74309045 -1.3791064 -0.055928301 0
0.7606895 -1.3701692 -0.055949878 0
0.78537643 -1.3735912 -0.056488972 0
0.79249793 -1.3464147 -0.055777315 0
0.80951339 -1.3365363 -0.05578595 0
0.82676011 -1.3270116 -0.055818509 0
0.85020483 -1.3271134 -0.056268655 0
0.86274737 -1.3100772 -0.056002516 0
0.87801474 -1.2973967 -0.055928644 0
0.90086901 -1.2957141 -0.056340665 0
0.90886706 -1.2727224 -0.055834141 0
0.93224013 -1.2712965 -0.056282111 0
0.9397493 -1.2482679 -0.055782069 0
0.95312589 -1.2334039 -0.055649757 0
0.97389627 -1.228008 -0.055955183 0
0.98438913 -1.2096367 -0.055678479 0
1.0045539 -1.2031491 -0.055957675 0
1.0190765 -1.1897665 -0.055927653 0
1.029689 -1.1719612 -0.055695757 0
1.0544652 -1.1701125 -0.056234464 0
1.0645448 -1.1517982 -0.055994086 0
1.0763248 -1.1355199 -0.055857182 0
1.0938945 -1.1253315 -0.056029148 0
1.099468 -1.102933 -0.055598855 0
1.1189979 -1.0946069 -0.055885009 0
1.1360326 -1.0836173 -0.05604985 0
1.149595 -1.0692352 -0.05605026 0
1.1632144 -1.0549002 -0.056062192 0
1.1704732 -1.0349257 -0.055779524 0
1.1921036 -1.0275987 -0.056189228 0
1.2047666 -1.012355 -0.056180779 0
1.2106043 -0.9915247 -0.055866346 0
1.2261878 -0.97875345 -0.056012299 0
1.2279093 -0.95506591 -0.055537164 0
1.243729 -0.9424783 -0.055711482 0
1.2589601 -0.92929959 -0.055865142 0
1.2721875 -0.91454303 -0.055936642 0
1.288215 -0.90168118 -0.056137677 0
1.2954751 -0.88267022 -0.05596526 0
1.3051989 -0.865435 -0.05591011 0
1.3319342 -0.85921633 -0.056587406 0
1.3309151 -0.83501685 -0.056092944 0
1.3378184 -0.8160547 -0.055946361 0
1.3517433 -0.80137193 -0.056102246 0
1.353677 -0.7796523 -0.055770617 0
1.3690287 -0.76570177 -0.056001417 0
1.3796645 -0.74900222 -0.056046233 0
1.3970585 -0.73582298 -0.056371961 0
1.399899 -0.71494955 -0.056118865 0
1.4105678 -0.69814622 -0.056189675 0
1.4196023 -0.68050075 -0.056203764 0
1.4255975 -0.66143066 -0.056106925 0
1.4336994 -0.64337736 -0.056102488 0
1.436651 -0.62309033 -0.05590653 0
1.4412777 -0.60365134 -0.055786353 0
1.4512699 -0.58646864 -0.055882838 0
1.4564906 -0.56735092 -0.055804349 0
1.4731287 -0.55257159 -0.056170773 0
1.4629345 -0.5278331 -0.055524234 0
1.4863082 -0.51520973 -0.05616067 0
1.4785661 -0.49176115 -0.055629745 0
1.4944152 -0.47622001 -0.055995993 0
1.507925 -0.45969242 -0.056280851 0
1.5108167 -0.43986091 -0.056177594 0
1.5183009 -0.42137629 -0.05625413 0
1.5160117 -0.40025225 -0.055978134 0
1.5331334 -0.38418987 -0.05642724 0
1.5265514 -0.36217499 -0.056012694 0
1.5280181 -0.34225935 -0.055903945 0
1.5257 -0.32162103 -0.055666551 0
1.5401264 -0.30446038 -0.056048587 0
1.541932 -0.28469229 -0.055979393 0
1.5391246 -0.26417878 -0.055752281 0
1.5418516 -0.24470265 -0.055735029 0
1.5520381 -0.22632343 -0.055995792 0
1.5593134 -0.20736836 -0.056159616 0
1.5519494 -0.1865342 -0.055805374 0
1.5595787 -0.16755904 -0.055999398 0
1.5563444 -0.14741433 -0.055812191 0
1.5649096 -0.12836683 -0.056056939 0
1.5586642 -0.10811583 -0.055780031 0
1.56218 -0.088611007 -0.055861492 0
1.57198 -0.069322675 -0.056176256 0
1.5598866 -0.049119674 -0.055717565 0
1.5673718 -0.029606966 -0.055967178 0
1.5537018 -0.0097818803 -0.055470254 0
1.5708092 0.0098895868 -0.056081027 0
1.5635163 0.029534137 -0.055829506 0
1.5736721 0.049553771 -0.05620997 0
0.87503612 0.02755424 0.29126373 0
1.5662209 0.0690687 -0.055970449 0
0.91925085 0.040537998 0.30612662 0
1.5675468 0.08891543 -0.0560534 0
1.4993651 0.085047975 0.053615313 0
1.4940367 0.084745735 0.16082117 0
1.4979877 0.084969848 0.27059439 0
0.92418259 0.052422095 0.30796441 0
1.5661427 0.10863457 -0.056047663 0
1.4774582 0.10248303 0.052873906 0
1.4879313 0.10320948 0.16029117 0
1.4677351 0.10180858 0.26534012 0
0.95318538 0.066117145 0.3178812 0
1.5698676 0.12877353 -0.056234542 0
1.4710807 0.1206702 0.05269587 0
1.4569895 0.11951433 0.15710756 0
1.4693341 0.12052694 0.26588252 0
0.97311324 0.079822794 0.32483646 0
1.5510579 0.14691359 -0.055622611 0
1.4563894 0.13794675 0.052227698 0
1.4460429 0.13696674 0.15610076 0
1.4448215 0.13685106 0.26173791 0
0.97808421 0.092642486 0.32685935 0
1.562883 0.16791406 -0.056118049 0
1.432326 0.15388718 0.051430169 0
1.4363781 0.15432255 0.15525493 0
1.4344379 0.1541141 0.2601878 0
0.98623854 0.10596015 0.3300041 0
1.5698566 0.18868653 -0.05644929 0
1.4063941 0.16903941 0.050571464 0
1.4120668 0.16972123 0.15284607 0
1.4083027 0.1692688 0.25581357 0
1.0005848 0.12026378 0.33528465 0
1.5552564 0.20682883 -0.056013498 0
1.3863777 0.18437018 0.049931232 0
1.3943824 0.18543468 0.15117261 0
1.3869777 0.18444996 0.25234184 0
1.0004178 0.13304253 0.33576342 0
1.5453091 0.22534218 -0.055753019 0
1.3802844 0.20127773 0.049799114 0
1.3819853 0.20152576 0.1500918 0
1.3795333 0.20116819 0.25142837 0
1.0070378 0.14684963 0.33857903 0
1.5383797 0.24415162 -0.055609524 0
1.3656663 0.21674082 0.049366262 0
1.3674746 0.2170278 0.14880085 0
1.3627019 0.21627033 0.24883737 0
1.0092484 0.16017479 0.33997345 0
1.542318 0.26472691 -0.055867959 0
1.3859637 0.23788992 0.050204277 0
1.379378 0.23675951 0.1504086 0
1.3819072 0.23719364 0.25286973 0
1.000213 0.1716788 0.33763126 0
1.5397177 0.28428346 -0.055899005 0
1.4067415 0.25973162 0.051071346 0
1.4071476 0.2598066 0.15378118 0
1.407632 0.25989601 0.25815538 0
1.0022455 0.1850481 0.33907706 0
1.5305421 0.30256569 -0.055699792 0
1.435307 0.28373912 0.052233975 0
1.4263086 0.28196028 0.15625082 0
1.4163114 0.27998397 0.26037312 0
1.3166097 0.26027441 0.34240997 0
1.0045646 0.19858769 0.34068066 0
1.5193523 0.32028291 -0.055434946 0
1.4601477 0.30780247 0.053274814 0
1.4671626 0.30928123 0.1611402 0
1.4328802 0.30205441 0.26409739 0
1.3167593 0.27757588 0.34333071 0
1.003679 0.21157782 0.3412568 0
1.5336959 0.3435311 -0.056111667 0
1.473652 0.33008191 0.053914908 0
1.4752092 0.33043072 0.16246809 0
1.4249281 0.3191683 0.26335162 0
1.279386 0.28656846 0.33450037 0
1.0026428 0.22458099 0.34183884 0
1.5162506 0.35973111 -0.055634737 0
1.5022688 0.3564139 0.055121709 0
1.5046477 0.35697833 0.16619211 0
1.4314358 0.33960876 0.26532367 0
1.2820849 0.30417523 0.33618081 0
1.0068812 0.238883 0.34428221 0
1.534348 0.38449425 -0.056471944 0
1.42573 0.35727552 0.26507893 0
1.2645657 0.31688917 0.33260697 0
0.99683315 0.2497977 0.34189489 0
0.77173442 0.19338991 0.47182679 0
1.5071045 0.39790061 -0.055649243 0
1.4197307 0.37483245 0.26482007 0
1.262693 0.33337191 0.33319211 0
0.99494475 0.26268193 0.34235457 0
0.7868191 0.2077333 0.40716672 0
0.78016078 0.2059754 0.47852638 0
1.5123247 0.41971773 -0.056032706 0
1.4094743 0.39117345 0.26380485 0
1.2273502 0.34062833 0.32497212 0
1.0070013 0.27947456 0.3476865 0
0.82352138 0.2285531 0.35385519 0
0.79600626 0.22091678 0.41332769 0
0.803087 0.22288191 0.49427086 0
1.5078781 0.43900535 -0.056068327 0
1.4073731 0.4097442 0.26435632 0
1.2178761 0.35457385 0.32362014 0
0.98574883 0.28699204 0.34156939 0
0.82677507 0.24070823 0.35652736 0
0.81603801 0.23758224 0.42524895 0
0.8142193 0.23705274 0.50291973 0
1.4999655 0.45726594 -0.055983774 0
1.3954595 0.42540717 0.26310387 0
1.2140721 0.37011105 0.32382205 0
0.99285489 0.30267277 0.34532496 0
0.85228395 0.2598196 0.36890906 0
0.81628698 0.24884588 0.42697778 0
0.84088933 0.25634593 0.5213455 0
1.4980259 0.47737062 -0.056131288 0
1.3969506 0.44516128 0.26442093 0
1.2093304 0.38537306 0.32382601 0
0.98476416 0.3138113 0.34385803 0
0.86219144 0.27475148 0.37466535 0
0.84791738 0.27020282 0.4452672 0
0.84376973 0.26888111 0.52518886 0
1.4884728 0.49505606 -0.056002479 0
1.3870018 0.46130744 0.26361638 0
1.1873922 0.39491865 0.31925783 0
0.97174764 0.32319671 0.34070703 0
0.89029205 0.29610515 0.38846594 0
0.86825782 0.28877673 0.45782185 0
0.85946363 0.28585181 0.53715509 0
1.481375 0.51349974 -0.055974271 0
1.3818613 0.47900456 0.26376489 0
1.1756483 0.40752345 0.31745481 0
0.97863972 0.33923295 0.34459388 0
0.89342779 0.30969533 0.39150473 0
0.87674308 0.30391181 0.46427712 0
0.88069189 0.30528057 0.55278122 0
1.4814106 0.53449935 -0.056225475 0
1.1640463 0.41999292 0.315725 0
0.97250009 0.35088223 0.34396052 0
0.9005577 0.32492512 0.39639062 0
0.90717578 0.32731295 0.48253697 0
0.90358663 0.32601795 0.56968313 0
1.4685446 0.55085218 -0.055995982 0
1.1480527 0.43063539 0.31283301 0
0.96841341 0.36325258 0.34410566 0
0.92437613 0.34673417 0.40876397 0
0.92158544 0.34568736 0.49247798 0
0.92585665 0.3472895 0.5864343 0
1.4561942 0.56723547 -0.055792991 0
1.1423275 0.44497409 0.31277502 0
0.97296602 0.37900221 0.34739161 0
0.94079065 0.36646885 0.41803002 0
0.94495249 0.36809003 0.50740159 0
0.94414788 0.3677766 0.6009056 0
1.4575657 0.5890128 -0.056125265 0
1.1173573 0.45153213 0.30747044 0
0.99202704 0.40088531 0.35597137 0
0.9676035 0.39101556 0.43209758 0
0.9707576 0.39229017 0.52386886 0
0.97011167 0.39202914 0.62052298 0
1.4486048 0.60672021 -0.056069959 0
1.1037402 0.4622803 0.30530101 0
1.0059944 0.42134136 0.36285838 0
0.98352396 0.41193002 0.44148847 0
1.0026516 0.41994125 0.54389095 0
0.99124926 0.41516563 0.63733691 0
1.435986 0.6228019 -0.055880651 0
1.103196 0.47846746 0.30679268 0
1.0466038 0.45392284 0.37953761 0
1.0118603 0.43885419 0.45665258 0
1.0133431 0.43949732 0.55264878 0
1.0086421 0.43745846 0.65200996 0
1.4253922 0.63964945 -0.055777416 0
1.0839328 0.4864184 0.30311498 0
1.0693748 0.47988546 0.38995567 0
1.0449855 0.46894071 0.47422934 0
1.0433494 0.46820647 0.57218343 0
1.0413871 0.46732587 0.67692739 0
1.4262283 0.66172332 -0.056131747 0
1.0816174 0.50183505 0.30421051 0
1.0721415 0.49743861 0.39321756 0
1.0636353 0.49349204 0.48547453 0
1.0836961 0.50279957 0.59773481 0
1.4096129 0.67571217 -0.055808272 0
1.0704255 0.51311928 0.302856 0
1.0978007 0.5262419 0.40502656 0
1.1014413 0.527987 0.50572473 0
1.1066916 0.53050381 0.61405438 0
1.4070332 0.69639683 -0.056048874 0
1.0626419 0.52594388 0.30250362 0
1.1387628 0.56361914 0.42272425 0
1.1332895 0.56091017 0.52354926 0
1.1405636 0.56451041 0.63674212 0
1.3948981 0.71239543 -0.055918384 0
1.7034355 0.8699702 0.34495857 0
1.0389658 0.53061545 0.29764217 0
1.1773541 0.60129243 0.43982562 0
1.184243 0.60481071 0.5505631 0
1.1722168 0.59866875 0.6585694 0
1.3933988 0.73389542 -0.05622429 0
1.6852865 0.88763106 0.34351951 0
1.03082 0.54292721 0.29724357 0
1.2067562 0.6355918 0.45376334 0
1.2240516 0.64470118 0.57279927 0
1.2143131 0.63957196 0.68669003 0
1.3774637 0.74780744 -0.055956829 0
1.6789815 0.91149765 0.34454659 0
1.017589 0.55243605 0.29541081 0
1.2645056 0.68648392 0.47869068 0
1.2538557 0.68070227 0.59071046 0
1.3606348 0.76100701 -0.055658057 0
1.0136797 0.56695402 0.041465528 0
1.0181713 0.56946617 0.12537409 0
1.0183295 0.56955463 0.21042816 0
1.0229806 0.57215601 0.29904386 0
1.3045621 0.72964537 0.49729317 0
1.3024502 0.72846419 0.61787659 0
1.3601823 0.78339899 -0.056038626 0
1.0092964 0.5813058 0.041582361 0
1.0044582 0.57851917 0.12457266 0
1.0070802 0.58002931 0.20959626 0
0.99781841 0.57469499 0.29378051 0
1.3372829 0.77021003 0.51342255 0
1.3323208 0.76735216 0.63658053 0
1.3480676 0.79919285 -0.055949692 0
0.9919821 0.58808988 0.04117085 0
0.99425173 0.58943546 0.12421753 0
0.99246895 0.58837855 0.20808081 0
0.99498743 0.58987164 0.29511049 0
1.3839513 0.82046616 0.53526407 0
1.3786962 0.8173508 0.6636036 0
1.3324319 0.81276906 -0.055721104 0
0.98345637 0.59989774 0.041127261 0
0.97673976 0.5958007 0.12295723 0
0.97798014 0.59655732 0.20660166 0
0.98951083 0.60359091 0.295717 0
1.4191488 0.86566538 0.55304939 0
1.4191173 0.86564624 0.6882515 0
1.3271744 0.83266997 -0.05593529 0
0.97517568 0.6118257 0.041099899 0
0.9720189 0.60984516 0.12331988 0
0.96806145 0.60736227 0.20610563 0
0.97020489 0.60870707 0.29221493 0
1.4458373 0.90711904 0.56785649 0
1.3237088 0.85391021 -0.056237947 0
0.96113873 0.62002015 0.04083411 0
0.95965213 0.61906117 0.12273017 0
0.96074641 0.61976707 0.20619345 0
0.95735765 0.61758107 0.29066467 0
1.4725394 0.94991922 0.58299553 0
1.3038183 0.8645196 -0.055850971 0
0.95250392 0.63157439 0.040801905 0
0.94478738 0.62645787 0.12182833 0
0.95188767 0.6311658 0.20598161 0
0.95326328 0.63207793 0.29181498 0
1.4865752 0.98569977 0.59341955 0
1.3020552 0.88715363 -0.056249525 0
0.94268101 0.64229447 0.040724356 0
0.94208282 0.64188689 0.12251212 0
0.94085938 0.64105326 0.20532568 0
0.94375294 0.6430248 0.29135928 0
1.5135024 1.0312228 0.60930371 0
1.2774289 0.89413148 -0.055667639 0
0.93014586 0.65105206 0.040533781 0
0.93078965 0.65150267 0.1221007 0
0.93035203 0.65119636 0.2048059 0
0.92599052 0.64814353 0.28837237 0
1.5302279 1.0710771 0.62141746 0
1.2783021 0.9189387 -0.056205492 0
0.91521734 0.65792638 0.04024107 0
0.9241327 0.66433537 0.12231511 0
0.92433459 0.66448051 0.2053069 0
0.91236603 0.65587664 0.2866787 0
1.5435336 1.1096069 0.6324448 0
1.2674505 0.93556672 -0.056241892 0
0.91315937 0.67404723 0.040520567 0
0.91142458 0.67276669 0.12174473 0
0.9192403 0.67853588 0.20605686 0
0.90733612 0.66974884 0.28772539 0
1.5516644 1.1453588 0.64163494 0
1.2440501 0.94272166 -0.055725869 0
0.9005065 0.68238968 0.040337209 0
0.90574694 0.68636084 0.12213112 0
0.89948922 0.68161881 0.2035373 0
0.9040283 0.68505847 0.28938901 0
1.5643692 1.1854545 0.65300953 0
1.2305174 0.95709449 -0.055655129 0
0.89063257 0.69273257 0.040282462 0
0.88930994 0.69170386 0.12107963 0
0.88693601 0.68985742 0.20264636 0
0.88511044 0.68843746 0.28608555 0
1.583082 1.2313186 0.66724002 0
1.219322 0.97327304 -0.055698663 0
0.87118 0.69538319 0.039795529 0
0.88639635 0.70752901 0.12188628 0
0.87959868 0.70210308 0.20297383 0
0.88595021 0.70717293 0.28921229 0
1.583382 1.2638688 0.67402089 0
1.2156626 0.9956677 -0.056099776 0
0.93029839 0.76194501 0.12923224 0
0.93182105 0.76319212 0.21722494 0
0.93595535 0.76657826 0.30866277 0
1.5924613 1.3042781 0.68482286 0
1.2007738 1.0089999 -0.055994589 0
1.6304871 1.3700843 0.22887729 0
1.6089506 1.3519874 0.37901521 0
1.5926263 1.3382702 0.53073746 0
1.5981292 1.3428942 0.6944772 0
1.1961039 1.031047 -0.05637778 0
1.6042651 1.3828838 0.38198322 0
1.5977765 1.3772907 0.53819066 0
1.1741127 1.0381438 -0.055952962 0
1.6090255 1.4226912 0.3873516 0
1.6019888 1.4164693 0.54557425 0
1.1575868 1.0497967 -0.055790965 0
1.6115577 1.4614954 0.39236048 0
1.6074016 1.4577264 0.55362511 0
1.1485699 1.0682819 -0.056000281 0
1.6049483 1.4927582 0.39529642 0
1.6000718 1.4882225 0.55751079 0
1.1270109 1.075012 -0.055604737 0
0.61259812 0.58433354 0.35052052 0
0.61326009 0.58496499 0.42404297 0
1.1204575 1.0960346 -0.055957906 0
0.59229261 0.57938224 0.41455665 0
0.59612954 0.58313555 0.4945527 0
1.1109002 1.1144011 -0.056176964 0
0.58539945 0.58724433 0.41487479 0
0.58170241 0.58353561 0.48864108 0
1.0928351 1.1242416 -0.055974882 0
0.58866131 0.60557866 0.34966987 0
0.5885011 0.60541379 0.42244223 0
0.55885035 0.57491094 0.47548845 0
1.0859838 1.14571 -0.056358438 0
0.57718635 0.60893005 0.34738082 0
0.57931876 0.61117983 0.42134202 0
0.5649389 0.59600908 0.48701575 0
1.0594335 1.146268 -0.055725235 0
1.5851078 1.7150283 0.42117843 0
1.5780698 1.7074136 0.59317869 0
0.53082412 0.57433218 0.4638043 0
1.0560932 1.1719192 -0.056321289 0
1.5624298 1.7337875 0.42092031 0
1.5662922 1.7380736 0.59693104 0
1.0386318 1.1821396 -0.056179471 0
1.5585395 1.773883 0.42585617 0
1.5587169 1.7740849 0.60251009 0
1.0154241 1.1855025 -0.055727217 0
1.5439006 1.8024962 0.42802417 0
1.5382438 1.7958918 0.6032899 0
1.0034187 1.2017894 -0.055894434 0
0.58566511 0.70144808 0.032623891 0
1.5325623 1.8355418 0.43125445 0
1.5342656 1.837582 0.61075634 0
0.9919064 1.2188741 -0.056103669 0
1.5224068 1.8707634 0.43499112 0
1.5262983 1.8755453 0.61693728 0
0.98275357 1.2391764 -0.05646408 0
1.5012207 1.8929235 0.43571374 0
1.5033571 1.8956172 0.61726379 0
0.95976001 1.2419889 -0.056037102 0
1.487216 1.9245495 0.43864799 0
1.4989358 1.9397156 0.62542766 0
0.94395649 1.2538563 -0.056031805 0
1.4784662 1.963845 0.44332591 0
1.4735382 1.9572991 0.62506485 0
0.92957705 1.2676648 -0.056121331 0
1.4582138 1.9885671 0.44472638 0
1.4584383 1.9888731 0.62923324 0
0.91380304 1.2796344 -0.056137372 0
1.4386938 2.0146596 0.44647479 0
1.4396774 2.016037 0.63204169 0
0.89427018 1.2862231 -0.05592797 0
1.4278545 2.053674 0.45110056 0
1.4319237 2.0595267 0.63997239 0
0.8755998 1.2938282 -0.055774815 0
1.4059329 2.0774739 0.45240372 0
1.4037076 2.0741858 0.63898432 0
0.86453128 1.3127861 -0.056118313 0
1.4465463 2.1965728 0.093897976 0
1.4400942 2.1867752 0.2813943 0
1.3795829 2.0948889 0.45237726 0
1.3853526 2.1036503 0.6426363 0
0.84675896 1.3217347 -0.0560406 0
1.3966666 2.180104 0.092434846 0
1.4007515 2.1864803 0.27906448 0
1.3589724 2.1212659 0.45434183 0
1.3623822 2.1265883 0.64435172 0
0.81990606 1.3160104 -0.055355761 0
1.3738767 2.2051747 0.092756957 0
1.3746648 2.2064395 0.27938047 0
1.3428918 2.1554415 0.45800352 0
1.3391966 2.1495104 0.64613622 0
0.80643195 1.3314487 -0.055573598 0
1.3425077 2.2165294 0.092516154 0
1.3462011 2.2226272 0.27926159 0
1.3212653 2.1814575 0.45995983 0
1.317405 2.1750839 0.64878553 0
0.7897563 1.3417567 -0.055584352 0
1.3302723 2.2600665 0.09362676 0
1.3341258 2.2666135 0.28265506 0
1.2979631 2.2051749 0.46147791 0
1.298264 2.2056861 0.65298551 0
0.77756613 1.3599313 -0.05592721 0
1.2678794 2.217469 0.46067306 0
1.2749316 2.2298031 0.65532047 0
0.76458073 1.377178 -0.056236081 0
1.2458813 2.2441063 0.46291095 0
1.2502687 2.2520089 0.65716755 0
0.74224627 1.3775396 -0.055864763 0
1.2170312 2.2586963 0.46272269 0
1.2193333 2.2629688 0.6558333 0
0.72489566 1.386878 -0.05586886 0
1.1950381 2.2863593 0.4652701 0
1.1921769 2.2808852 0.65662295 0
0.70809644 1.3973175 -0.055925779 0
1.1671858 2.3032584 0.4656812 0
1.1706616 2.3101175 0.66074222 0
0.68816209 1.4014705 -0.055740755 0
1.1460704 2.3340197 0.46894562 0
1.1408576 2.3234036 0.66038102 0
0.67210031 1.4134711 -0.055877015 0
1.113881 2.3425648 0.46780726 0
1.1160945 2.3472199 0.66310322 0
0.65366405 1.4205488 -0.055826996 0
1.0877737 2.3639598 0.46930727 0
1.0779731 2.3426611 0.65792841 0
0.63602626 1.4293419 -0.055853382 0
1.0517668 2.3636355 0.46657661 0
1.0544561 2.3696792 0.66173482 0
0.61953551 1.4408575 -0.055994086 0
1.0273118 2.3892252 0.46903723 0
1.0276973 2.3901222 0.66377711 0
0.59880888 1.4424367 -0.055758007 0
0.99798846 2.4039977 0.46943298 0
0.99744821 2.4026964 0.66372842 0
0.58941537 1.4718772 -0.056604654 0
0.96820068 2.417773 0.46970496 0
0.97118777 2.4252322 0.66652268 0
0.56299698 1.4588693 -0.055827335 0
0.93720037 2.4285259 0.46946406 0
0.93645817 2.4266026 0.66360593 0
0.54751331 1.4737288 -0.056127686 0
0.91007572 2.4496295 0.47129095 0
0.90519106 2.4364815 0.66313779 0
0.5257625 1.4716846 -0.055793267 0
0.87652284 2.4535131 0.46987736 0
0.87560129 2.4509335 0.66401768 0
0.50890034 1.483171 -0.055981349 0
0.84826082 2.4722245 0.47137782 0
0.84316498 2.4573729 0.66283321 0
0.4917877 1.4943309 -0.05616438 0
0.81510991 2.4767675 0.47024971 0
0.81395626 2.4732623 0.66430181 0
0.47088209 1.4938971 -0.055920787 0
0.7795155 2.4730523 0.46764356 0
0.78250474 2.4825356 0.66409332 0
0.45034617 1.4941053 -0.055711888 0
0.74575883 2.4741907 0.46604612 0
0.74731427 2.479351 0.66067171 0
0.43718743 1.5194311 -0.056446481 0
0.71630996 2.4895127 0.46719617 0
0.71522582 2.4857447 0.65992326 0
0.41505423 1.5139925 -0.05604583 0
0.56117916 2.0470121 0.075777456 0
0.68103981 2.4842274 0.46455812 0
0.68590677 2.5019808 0.66188818 0
0.39438316 1.5130554 -0.055822875 0
0.52434796 2.0116668 0.074218713 0
0.64991581 2.4934092 0.46470785 0
0.65147048 2.4993737 0.65897608 0
0.37414482 1.5132262 -0.055650946 0
0.48494399 1.9613528 0.07213141 0
0.61995816 2.5074165 0.4658266 0
0.61713833 2.496012 0.65598881 0
0.35776958 1.5293924 -0.056075353 0
0.45263836 1.9349371 0.070944697 0
0.58388001 2.4959686 0.46229723 0
0.58346111 2.4941778 0.65352398 0
0.3368952 1.5265751 -0.055812087 0
0.42296812 1.9165978 0.070071451 0
0.55243844 2.5032675 0.46232402 0
0.55176157 2.5002003 0.65322977 0
0.31727481 1.5289022 -0.055746682 0
0.39047331 1.8816353 0.068608001 0
0.51967627 2.504246 0.46125957 0
0.51773596 2.4948959 0.65008903 0
0.30032939 1.5447627 -0.056182645 0
0.35856256 1.8442886 0.067076325 0
0.48512039 2.4952464 0.45844045 0
0.48431695 2.4911139 0.64746314 0
0.28097171 1.5490644 -0.056205958 0
0.32888725 1.8132342 0.065791048 0
0.45052579 2.4838567 0.45526946 0
0.45248273 2.4946456 0.64684886 0
0.26042873 1.5464456 -0.055987515 0
0.30136999 1.7895579 0.064789146 0
0.30106524 1.7877483 0.19483341 0
0.41768137 2.4802237 0.4536036 0
0.41751805 2.4792538 0.64144373 0
0.14328018 0.85080862 0.43168792 0
0.24151982 1.553354 -0.05612307 0
0.27394181 1.7618787 0.06365712 0
0.27519327 1.7699275 0.19249833 0
0.38663596 2.48668 0.45385799 0
0.38615465 2.4835846 0.64125532 0
0.13340124 0.85798079 0.43444023 0
0.22278354 1.5621723 -0.056335852 0
0.24696209 1.7317139 0.062449947 0
0.24641563 1.7278821 0.18757311 0
0.35306665 2.4757259 0.45101148 0
0.35439688 2.4850535 0.64043158 0
0.12411915 0.87033141 0.43986771 0
0.2018984 1.5556244 -0.056003593 0
0.22274853 1.7162743 0.061787106 0
0.22114643 1.7039301 0.18465602 0
0.31984735 2.4644194 0.44818246 0
0.3203676 2.4684279 0.63505691 0
0.11241125 0.86612707 0.43699279 0
0.18187307 1.5544353 -0.055873908 0
0.19689322 1.6828097 0.060488306 0
0.19659267 1.680241 0.18180612 0
0.28880993 2.4684048 0.44821033 0
0.28829962 2.4640431 0.6329447 0
0.10265045 0.8773343 0.44196004 0
0.16184878 1.5524043 -0.055723231 0
0.17232437 1.6528829 0.05932989 0
0.17302787 1.6596307 0.17932607 0
0.25607532 2.4561965 0.44537276 0
0.25591123 2.4546227 0.62964714 0
0.092973217 0.89177078 0.44860715 0
0.14227083 1.5541173 -0.055715997 0
0.15065119 1.6456615 0.058997907 0
0.14964904 1.6347142 0.1764162 0
0.22347653 2.4411802 0.44210461 0
0.223244 2.4386401 0.62477672 0
0.082180351 0.89770967 0.45103839 0
0.12389148 1.5710039 -0.056260999 0
0.12816413 1.6251831 0.058201276 0
0.12826809 1.6265014 0.17534167 0
0.19098747 2.4218135 0.43812695 0
0.19148181 2.428082 0.62140477 0
0.10380673 1.567997 -0.056102056 0
0.1051975 1.5890045 0.056853697 0
0.10525718 1.589906 0.17124012 0
0.16088988 2.4302361 0.43924931 0
0.1594238 2.4080911 0.61572599 0
0.083669424 1.561972 -0.055844363 0
0.086182959 1.6088957 0.057521999 0
0.085361905 1.593568 0.17150515 0
0.12858365 2.4004476 0.43353823 0
0.12896171 2.4075053 0.6151123 0
0.063843727 1.5591909 -0.055711769 0
0.066488743 1.6237874 0.05801988 0
0.066839889 1.6323631 0.17557593 0
0.097519428 2.3816185 0.42988172 0
0.097971663 2.392663 0.61095649 0
0.044523712 1.571062 -0.056111459 0
0.038767811 1.3679595 0.048857525 0
0.046735082 1.6490923 0.17729795 0
0.06690637 2.3608556 0.42594817 0
0.067009553 2.3644967 0.60350102 0
0.024613896 1.5635757 -0.055828586 0
0.021271933 1.3512805 0.048248433 0
0.026423659 1.6785393 0.1804138 0
0.037204348 2.3633728 0.42628399 0
0.036996383 2.350162 0.59967589 0
0.0049377275 1.5679193 -0.055977017 0
0.0042549917 1.3511243 0.048237119 0
0.0052921427 1.6804597 0.18059874 0
0.0073551326 2.3355389 0.42121345 0
0.0073761344 2.3422077 0.59757513 0
-0.014759771 1.5631027 -0.05580727 0
-0.012667837 1.3415607 0.047897585 0
-0.016186472 1.7141945 0.1842315 0
-0.021829097 2.311765 0.41694236 0
-0.02192972 2.3224211 0.5925504 0
-0.034314297 1.557091 -0.055603653 0
-0.030064361 1.3642402 0.048716959 0
-0.037890527 1.7193706 0.18482442 0
-0.050574679 2.2949433 0.41399053 0
-0.050445873 2.2890987 0.58416414 0
-0.054079209 1.5612113 -0.055770688 0
-0.04756996 1.3732961 0.049057849 0
-0.060525175 1.7472998 0.1878937 0
-0.078624144 2.2697985 0.4096007 0
-0.078726083 2.2727416 0.58019686 0
-0.074040204 1.5669196 -0.056003466 0
-0.084173203 1.7813649 0.063667983 0
-0.083493419 1.7669786 0.19010784 0
-0.10605479 2.244447 0.40523472 0
-0.1065921 2.2558181 0.57617354 0
-0.042477924 0.89896411 0.37261873 0
-0.093879379 1.567794 -0.056072526 0
-0.10786397 1.801338 0.064425282 0
-0.10753179 1.7957906 0.19333805 0
-0.1325551 2.2136819 0.39994976 0
-0.13318807 2.2242527 0.5684945 0
-0.053494807 0.89336807 0.37054902 0
-0.11329689 1.562138 -0.055916827 0
-0.13193867 1.8191708 0.065117337 0
-0.15951209 2.1993535 0.39769235 0
-0.16027394 2.2098577 0.5652864 0
-0.063380674 0.87389302 0.36277348 0
-0.065345384 0.90098244 0.45198181 0
-0.13246439 1.5548043 -0.055709608 0
-0.15736037 1.8470215 0.066179931 0
-0.18606599 2.1839542 0.39530018 0
-0.18534103 2.1754451 0.5570364 0
-0.075353354 0.88446194 0.36752567 0
-0.077526964 0.90997475 0.45694634 0
-0.15303659 1.5632879 -0.056078184 0
-0.18297872 1.8691503 0.067050062 0
-0.21226761 2.16834 0.39292663 0
-0.21051887 2.1504765 0.55127805 0
-0.087246574 0.89123464 0.37076709 0
-0.17243226 1.558743 -0.055988599 0
-0.2101028 1.8992749 0.068220191 0
-0.23774825 2.1491828 0.3899667 0
-0.23507108 2.1249819 0.54545808 0
-0.096941836 0.87632912 0.36504504 0
-0.19224997 1.558109 -0.056048341 0
-0.23810391 1.929737 0.069416545 0
-0.26129121 2.1176608 0.38481358 0
-0.26092595 2.1147003 0.54361922 0
-0.10963388 0.88853872 0.37067682 0
-0.10773357 0.87313753 0.44017872 0
-0.21132442 1.5516822 -0.055908445 0
-0.26716694 1.9617146 0.070682265 0
-0.28452435 2.089164 0.38025618 0
-0.28396142 2.0850306 0.53686869 0
-0.11832678 0.86883265 0.3630487 0
-0.11519346 0.84582579 0.42710733 0
-0.23109587 1.55058 -0.055969145 0
-0.29651836 1.9895444 0.071813837 0
-0.30991381 2.0794237 0.3791635 0
-0.30864483 2.070909 0.53419101 0
-0.30649528 2.0564864 0.69173795 0
-0.12977967 0.87078047 0.36451659 0
-0.13195919 0.88540441 0.44789648 0
-0.24910642 1.5383165 -0.0556353 0
-0.32805237 2.0258346 0.07326705 0
-0.33073041 2.0423722 0.37313735 0
-0.33035886 2.0400779 0.52726936 0
-0.33027193 2.039541 0.68738246 0
-0.13733223 0.84807301 0.35570675 0
-0.14231616 0.87885052 0.44545233 0
-0.26908219 1.5386389 -0.055765085 0
-0.35979658 2.057353 0.074564897 0
-0.35549802 2.0327733 0.372172 0
-0.35212299 2.0134745 0.5214982 0
-0.35480598 2.0288162 0.68521935 0
-0.15192962 0.86874878 0.44126689 0
-0.29057583 1.5465273 -0.056179143 0
-0.38606158 2.0547297 0.074640095 0
-0.38684136 2.0588799 0.22513813 0
-0.37871307 2.0156188 0.36987501 0
-0.37282115 1.9842603 0.51510674 0
-0.37486768 1.9951526 0.67539042 0
-0.15983462 0.85068536 0.43307984 0
-0.30903798 1.5378323 -0.056000207 0
-0.40383786 2.0095747 0.073178723 0
-0.40184855 1.9996755 0.21920007 0
-0.39846441 1.9828353 0.36475092 0
-0.39472091 1.9642068 0.51115066 0
-0.39478567 1.9645292 0.66665393 0
-0.17257901 0.85878617 0.43827552 0
-0.32986388 1.5407658 -0.056253832 0
-0.42597723 1.9897032 0.072644673 0
-0.42765489 1.9975393 0.21953881 0
-0.42037484 1.9635348 0.36214557 0
-0.41878647 1.9561156 0.51037693 0
-0.41678858 1.9467838 0.66236055 0
-0.18076685 0.84434646 0.43203372 0
-0.34856415 1.5335264 -0.056145318 0
-0.44868615 1.9740185 0.072272569 0
-0.45051435 1.9820616 0.21844392 0
-0.44040114 1.9375681 0.35835075 0
-0.43716258 1.9233199 0.50321651 0
-0.43938684 1.9331057 0.65953702 0
-0.36812773 1.5301893 -0.056188401 0
-0.4752399 1.9754202 0.072537236 0
-0.47448263 1.9722725 0.21800625 0
-0.45894268 1.907678 0.35386342 0
-0.46079856 1.9153922 0.50262058 0
-0.45948619 1.9099371 0.65355462 0
-0.38455883 1.5143803 -0.05578129 0
-0.50195551 1.9766847 0.072809994 0
-0.50202703 1.9769663 0.21920647 0
-0.48187298 1.8976003 0.35309163 0
-0.47729683 1.8795795 0.49476087 0
-0.47799006 1.8823094 0.64610916 0
-0.40413848 1.5114462 -0.055856235 0
-0.53282839 1.9927362 0.073642544 0
-0.53541785 2.0024207 0.22275877 0
-0.50256038 1.8795363 0.35088012 0
-0.49708387 1.8590547 0.49096686 0
-0.50125712 1.8746622 0.6455996 0
-0.42350236 1.507537 -0.055904411 0
-0.52076054 1.8537459 0.34726211 0
-0.52065939 1.8533859 0.4911623 0
-0.51692539 1.8400941 0.63588625 0
-0.44356287 1.5058614 -0.056044959 0
-0.54321128 1.84416 0.34672028 0
-0.53935015 1.8310517 0.48700479 0
-0.53760022 1.8251109 0.63299769 0
-0.4625988 1.5005155 -0.056058347 0
-0.56051445 1.818121 0.34312448 0
-0.558254 1.8107889 0.48344681 0
-0.55833268 1.8110441 0.63050735 0
-0.47941855 1.4882488 -0.055821184 0
-0.5860188 1.8191656 0.34468696 0
-0.57416922 1.7823812 0.47775492 0
-0.57638574 1.7892619 0.62540126 0
-0.49950615 1.4862204 -0.055976588 0
-0.60553241 1.8016888 0.34279311 0
-0.59711331 1.7766387 0.47819319 0
-0.59558141 1.7720808 0.62196797 0
-0.51393235 1.4676832 -0.055517752 0
-0.62558901 1.7865512 0.34138474 0
-0.61371297 1.7526357 0.47377512 0
-0.60976398 1.7413583 0.61383116 0
-0.53482831 1.4678385 -0.055773955 0
-0.65322751 1.7927856 0.34412053 0
-0.63272566 1.7365181 0.47153455 0
-0.63227522 1.7352821 0.61444712 0
-0.55431169 1.4637446 -0.055879187 0
-0.6764099 1.7861636 0.34445706 0
-0.64965159 1.7155042 0.46801266 0
-0.65156311 1.7205518 0.61208791 0
-0.57493317 1.4623342 -0.056097273 0
-0.69890314 1.77765 0.34448513 0
-0.66717684 1.6969545 0.46520716 0
-0.67102152 1.7067333 0.61012959 0
-0.59195393 1.4516777 -0.055969983 0
-0.71747124 1.75949 0.34268957 0
-0.68036026 1.6684809 0.45971352 0
-0.68468368 1.6790835 0.60327947 0
-0.61008579 1.4438734 -0.055960845 0
-0.74075824 1.7531325 0.34324086 0
-0.70200223 1.6614095 0.46016431 0
-0.70065469 1.6582204 0.59890604 0
-0.62924564 1.4384276 -0.056052431 0
-0.76417536 1.7468709 0.34387165 0
-0.72079152 1.6476972 0.45884389 0
-0.71874034 1.6430084 0.59663337 0
-0.65081477 1.4381411 -0.056356154 0
-0.78747588 1.7401288 0.34446913 0
-0.73967528 1.6345011 0.45772657 0
-0.73857552 1.6320708 0.59599161 0
-0.66141367 1.413891 -0.055727825 0
-0.80636448 1.7237494 0.34320956 0
-0.75059205 1.6045258 0.45194328 0
-0.75479132 1.6135025 0.59263474 0
-0.67868924 1.4044688 -0.05568888 0
-0.82898831 1.7154952 0.34361729 0
-0.77184224 1.5972381 0.45259225 0
-0.76998371 1.5933921 0.58876276 0
-0.69451576 1.3921964 -0.055544633 0
-0.85456508 1.7130244 0.34525043 0
-0.78976369 1.5831263 0.45137572 0
-0.78829861 1.5801895 0.58750564 0
-0.71244872 1.3842322 -0.055580407 0
-0.87192506 1.6940823 0.34361836 0
-0.80673671 1.5674263 0.44976014 0
-0.80545235 1.564931 0.5855571 0
-0.7340191 1.3830613 -0.055900086 0
-0.89526367 1.6868832 0.34441748 0
-0.81955159 1.5442243 0.44602835 0
-0.8167299 1.5389075 0.57962203 0
-0.75107831 1.3731664 -0.055877991 0
-0.91449887 1.6719418 0.34369072 0
-0.83344305 1.5237507 0.44311103 0
-0.83294016 1.5228312 0.57747161 0
-0.76437742 1.3566235 -0.055592079 0
-0.93488681 1.659245 0.34347349 0
-0.85512811 1.5176886 0.4444443 0
-0.85110569 1.5105495 0.57683271 0
-0.78370064 1.35086 -0.055755876 0
-0.9629072 1.6597573 0.34606203 0
-0.86862826 1.4972492 0.44162685 0
-0.86997008 1.499562 0.57677448 0
-0.80938357 1.355516 -0.056364242 0
-0.97942895 1.6402997 0.34454927 0
-0.88715172 1.4857582 0.4414975 0
-0.88290417 1.4786446 0.57295978 0
-0.82471043 1.3424882 -0.05624989 0
-1.008631 1.6418796 0.34752142 0
-0.89924258 1.4638139 0.43830672 0
-0.89770591 1.4613124 0.57057875 0
-0.83896703 1.3279116 -0.056077339 0
-1.0139266 1.6048365 0.34235612 0
-0.91713154 1.4516299 0.43808177 0
-0.9107188 1.4414798 0.56726778 0
-0.85140145 1.3107473 -0.055800818 0
-1.0369537 1.5964082 0.34331647 0
-0.92851913 1.4294714 0.43488869 0
-0.9325633 1.4356974 0.56956828 0
-0.86761951 1.2995962 -0.055786781 0
-1.0636365 1.5932077 0.34548113 0
-0.94336575 1.4130555 0.43347409 0
-0.95260686 1.4268976 0.57079083 0
-0.88837081 1.2950656 -0.056068052 0
-1.0800056 1.5744306 0.34433115 0
-0.95846021 1.3972418 0.43229112 0
-0.96023923 1.3998353 0.56475741 0
-0.90690988 1.2870457 -0.056210794 0
-1.0981879 1.5584989 0.34384391 0
-0.97953844 1.3901168 0.43386853 0
-0.98311651 1.3951946 0.56783462 0
-0.91927814 1.2703214 -0.055981498 0
-1.1149904 1.5407699 0.34300289 0
-0.98776168 1.3649566 0.42986372 0
-0.99029201 1.3684533 0.56198168 0
-0.93579382 1.2594448 -0.056017034 0
-1.1327353 1.5244999 0.34252909 0
-1.0044094 1.3517917 0.42966679 0
-1.0124112 1.3625609 0.56475252 0
-0.94879293 1.2439114 -0.05585311 0
-1.1563392 1.5160142 0.3438668 0
-1.0235497 1.341921 0.43059194 0
-1.0202993 1.3376597 0.55971229 0
-0.96408373 1.2314879 -0.055835947 0
-0.57975644 0.74056119 0.033577219 0
-0.58330613 0.74509549 0.1016942 0
-0.58935529 0.75282246 0.17242706 0
-1.0439601 1.3335192 0.43207994 0
-1.0384796 1.3265185 0.56047773 0
-0.97879988 1.2183633 -0.055795282 0
-0.5921461 0.73707515 0.033754561 0
-0.59899288 0.74559772 0.10278406 0
-0.594818 0.74040103 0.17128401 0
-1.0509919 1.3082244 0.4281382 0
-1.0509083 1.3081204 0.5582512 0
-0.49016991 0.61014009 0.46414763 0
-0.99794489 1.2106519 -0.056013171 0
-0.6003049 0.72825688 0.033694226 0
-0.60192525 0.73022258 0.10170134 0
-0.60208243 0.73041326 0.17071381 0
-1.0670207 1.2944508 0.42799383 0
-1.0685515 1.2963079 0.55890805 0
-1.0146425 1.1998035 -0.056097936 0
-0.60698253 0.71775001 0.10102074 0
-0.61450583 0.7266463 0.17162833 0
-1.0854212 1.2834985 0.42885768 0
-1.0886458 1.2873116 0.56089526 0
-1.0284061 1.1854769 -0.05602913 0
-0.62255991 0.71764493 0.10210121 0
-0.61699343 0.71122819 0.16980827 0
-1.0938121 1.2608726 0.42586607 0
-1.1016757 1.2699372 0.5593251 0
-1.0475807 1.1772997 -0.056261655 0
-0.62459904 0.70194137 0.10097801 0
-0.62155557 0.69852102 0.16862969 0
-1.1233023 1.2623976 0.43112451 0
-1.1216397 1.2605293 0.56135768 0
-1.117699 1.2561005 0.69615185 0
-1.0507998 1.1513917 -0.055651467 0
-0.64122874 0.70261282 0.10222805 0
-0.63718128 0.69817787 0.17047028 0
-1.1341438 1.242714 0.42924553 0
-1.1293702 1.2374835 0.5573836 0
-1.1272479 1.235158 0.69235712 0
-0.52863723 0.57924306 0.46507204 0
-1.0792719 1.153089 -0.056385912 0
-0.64132804 0.68519181 0.10086035 0
-0.64800346 0.69232386 0.17101972 0
-1.1447192 1.2230126 0.42738548 0
-1.1483953 1.22694 0.55910379 0
-1.130191 1.2074907 0.68477154 0
-0.55427736 0.59218729 0.48103067 0
-1.0904742 1.1360424 -0.056219347 0
-0.58021963 0.60446548 0.34691009 0
-0.57808793 0.60224473 0.41768202 0
-0.55990058 0.58329737 0.47949839 0
-1.1089543 1.126552 -0.056436263 0
-0.58671016 0.59602046 0.4184559 0
-0.57979131 0.58899182 0.49014229 0
-1.1117563 1.1013108 -0.05586867 0
-0.58957869 0.58403933 0.41522357 0
-0.58379078 0.57830584 0.48732856 0
-1.1222081 1.0840116 -0.055703532 0
-0.61024511 0.5894742 0.3512916 0
-0.61327094 0.59239709 0.42662197 0
-1.1349653 1.0690395 -0.055664156 0
-0.61688089 0.58104861 0.35087183 0
-0.61835146 0.58243376 0.42502058 0
-1.1487225 1.0550193 -0.055682901 0
-0.69791657 0.64098632 0.1018382 0
-0.69524103 0.63852906 0.17024377 0
-1.2419387 1.1406317 0.43021739 0
-1.2339824 1.1333245 0.55741292 0
-1.2315737 1.1311121 0.69234294 0
-1.1734369 1.0507891 -0.056235049 0
-0.69929945 0.62620854 0.10088138 0
-0.70763069 0.63366902 0.17131014 0
-1.257544 1.1261053 0.43067691 0
-1.2472547 1.1168914 0.55701101 0
-1.2471294 1.1167792 0.69312733 0
-1.1791654 1.0294622 -0.055883903 0
-0.70447975 0.6150412 0.10050347 0
-0.71498245 0.62421048 0.17117348 0
-1.2661783 1.1054282 0.42883277 0
-1.2570107 1.0974245 0.55515248 0
-1.1928253 1.0152069 -0.055921003 0
-0.7278477 0.61946708 0.10271624 0
-0.72561342 0.61756551 0.17184325 0
-1.2682211 1.0793759 0.42488766 0
-1.2776252 1.0873797 0.55816531 0
-1.2132128 1.0064948 -0.056278158 0
-0.73382181 0.6087867 0.10246935 0
-0.72957218 0.60526121 0.17096226 0
-1.2982336 1.077029 0.43036485 0
-1.2938528 1.0733947 0.55930543 0
-1.2185602 0.98529369 -0.055946238 0
-0.74246532 0.60033673 0.10261258 0
-0.73838526 0.59703767 0.17125215 0
-1.3056759 1.055733 0.42839101 0
-1.3059736 1.0559738 0.55875266 0
-1.2432175 0.97960204 -0.056507483 0
-0.74777037 0.58921099 0.033988118 0
-0.74957162 0.59063023 0.10255869 0
-0.75630748 0.59593785 0.17365462 0
-1.32021 1.0402688 0.42882776 0
-1.3253443 1.0443145 0.5613696 0
-1.2465395 0.9570272 -0.056106277 0
-0.75274378 0.57791692 0.033880714 0
-0.75897825 0.58270341 0.10283364 0
-0.75959599 0.58317769 0.17270987 0
-1.3286736 1.0200855 0.42737073 0
-1.3372276 1.0266527 0.56088269 0
-1.256423 0.93970931 -0.056014087 0
-0.76289761 0.57058966 0.034011643 0
-0.76635331 0.5731743 0.10284684 0
-0.76480281 0.57201463 0.17224236 0
-1.3449116 1.005892 0.42848554 0
-1.3653291 1.0211629 0.56723112 0
-1.2732334 0.92751402 -0.056238376 0
-0.77375489 0.56365824 0.034176543 0
-0.77594173 0.56525135 0.10317023 0
-0.76923704 0.56036717 0.17163824 0
-1.3662196 0.99525189 0.43124726 0
-1.3658314 0.99496907 0.56219006 0
-1.2719959 0.90231836 -0.05567744 0
-0.77581167 0.5503391 0.033958606 0
-0.79014683 0.56050807 0.10411226 0
-0.77625281 0.55065203 0.17164288 0
-1.3892698 0.98550916 0.43457144 0
-1.3896188 0.98575664 0.56682694 0
-1.2977093 0.89621222 -0.056304522 0
-0.78672558 0.54332125 0.034134153 0
-0.78628641 0.54301798 0.10269449 0
-0.7879892 0.54419392 0.17270909 0
-1.4012356 0.96770859 0.43446827 0
-1.3939185 0.96265531 0.5635916 0
-1.3065593 0.87823427 -0.056204226 0
-0.80053288 0.53809679 0.034436498 0
-0.79844725 0.53669488 0.10339192 0
-0.8038739 0.54034257 0.17468549 0
-1.4220556 0.95586777 0.43715703 0
-1.4134545 0.9500863 0.56660831 0
-1.3111141 0.85752779 -0.055931218 0
-0.80904096 0.52914929 0.034513127 0
-0.81032139 0.52998674 0.10405708 0
-0.80918729 0.52924496 0.1743781 0
-1.419185 0.92821109 0.4326472 0
-1.4253591 0.93224913 0.56662977 0
-1.3215542 0.84079015 -0.055920504 0
-0.82704318 0.52617574 0.034995668 0
-0.81427968 0.51805544 0.10371944 0
-0.821329 0.52254033 0.17556274 0
-1.4425052 0.91774082 0.43619886 0
-1.4374653 0.91453433 0.56681949 0
-1.3301861 0.8229391 -0.055842843 0
-0.81898683 0.50667816 0.034382071 0
-0.82669801 0.5114488 0.10447262 0
-0.82370102 0.50959468 0.17468427 0
-1.4568485 0.90130061 0.43706957 0
-1.4622734 0.90465683 0.57206446 0
-1.3420923 0.80711734 -0.055911575 0
-0.84404188 0.50759614 0.035162792 0
-0.84037423 0.50539047 0.10538834 0
-0.8334828 0.50124604 0.17540625 0
-1.4772668 0.88840955 0.43980414 0
-1.4759544 0.88762033 0.57299858 0
-1.3565208 0.79270989 -0.05609237 0
-0.90021676 0.52605951 0.037224118 0
-0.89798403 0.52475476 0.11177545 0
-0.89748645 0.52446401 0.18747109 0
-1.4836855 0.86702108 0.43842998 0
-1.5032859 0.87847495 0.57926887 0
-1.3641757 0.77430743 -0.056001287 0
-0.9729681 0.5522576 0.039941676 0
-0.96793282 0.54939955 0.11961164 0
-1.5103253 0.85726207 0.31320399 0
-1.5123541 0.85841364 0.44367221 0
-1.5076349 0.855735 0.57674676 0
-1.3758925 0.75821316 -0.056085892 0
-1.0518819 0.57966059 0.042878155 0
-1.048421 0.57775342 0.12864868 0
-1.5284431 0.84227926 0.31473678 0
-1.5313493 0.84388071 0.44609198 0
-1.5269586 0.84146112 0.58003962 0
-1.3877515 0.74212366 -0.056183912 0
-1.1398313 0.60954416 0.046146721 0
-1.1381947 0.60866892 0.13871306 0
-1.5372303 0.82205999 0.31438968 0
-1.5459157 0.82670468 0.44726729 0
-1.5394117 0.82322651 0.58078629 0
-1.3899121 0.72092247 -0.05589943 0
-1.2508917 0.64881504 0.050308309 0
-1.2510824 0.64891398 0.15146297 0
-1.5559156 0.80702549 0.31610775 0
-1.557954 0.8080827 0.44777071 0
-1.5615542 0.80995011 0.58524591 0
-1.3976022 0.70272255 -0.055848401 0
-1.3711865 0.68944055 0.054792821 0
-1.3899713 0.69888562 0.16719893 0
-1.5688424 0.78882313 0.31669089 0
-1.5759422 0.79239291 0.45003727 0
-1.5807184 0.79479438 0.58863074 0
-1.4088622 0.68629819 -0.055948578 0
-1.5386829 0.74953765 0.061104007 0
-1.5411655 0.75074703 0.18423423 0
-1.5848339 0.77201915 0.31793138 0
-1.5901583 0.77461284 0.45127571 0
-1.4326905 0.67571998 -0.056552459 0
-1.6468914 0.77674657 0.19568819 0
-1.6024526 0.75578731 0.31953129 0
-1.6113352 0.75997669 0.45453367 0
-1.4290837 0.65215039 -0.056081492 0
-1.6318128 0.74466419 0.19276702 0
-1.6168673 0.73784387 0.32052755 0
-1.620988 0.73972434 0.454593 0
-1.4278277 0.6299777 -0.055716477 0
-1.645087 0.72583556 0.19324009 0
-1.646306 0.72637343 0.32452452 0
-1.6420945 0.7245152 0.45791733 0
-1.4477562 0.61711138 -0.056186438 0
-1.6755009 0.71418834 0.19574074 0
-1.659737 0.70746899 0.32539019 0
-1.6507025 0.70361799 0.4578107 0
-1.4495577 0.59642482 -0.055960447 0
-1.6927406 0.69648319 0.19671461 0
-1.6773872 0.690166 0.32712075 0
-1.6645737 0.68489385 0.45922947 0
-1.4559199 0.57771611 -0.055920787 0
-1.7026485 0.6756193 0.19686174 0
-1.7009487 0.67494482 0.33003205 0
-1.69347 0.67197716 0.46483022 0
-1.4567952 0.55693638 -0.055680625 0
-1.7199008 0.65752232 0.19788347 0
-1.7155671 0.65586549 0.33123973 0
-1.7128656 0.65483272 0.46785358 0
-1.4708959 0.54119992 -0.055954661 0
-1.7288177 0.63609946 0.19797213 0
-1.7238064 0.63425553 0.33126223 0
-1.7300622 0.63655734 0.47032401 0
-1.4807425 0.52375042 -0.056073908 0
-1.744035 0.61687911 0.19880943 0
-1.7554091 0.62090224 0.33580622 0
-1.7459124 0.61754316 0.47248146 0
-1.4841803 0.50403237 -0.05595931 0
-2.0125887 0.68348151 0.075882338 0
-1.7544053 0.59580165 0.19912057 0
-1.7637458 0.59897369 0.33593151 0
-1.763654 0.59894252 0.47520399 0
-1.5017924 0.48901141 -0.056386709 0
-1.9955304 0.64978164 0.07492473 0
-1.7968538 0.58508885 0.20308605 0
-1.7933254 0.58393997 0.34013793 0
-1.7811016 0.57995969 0.47789952 0
-1.5018452 0.46819735 -0.056162883 0
-1.9656053 0.61277366 0.073505618 0
-1.8112599 0.56465673 0.20389448 0
-1.798867 0.56079334 0.33982268 0
-1.5002223 0.44704539 -0.055887248 0
-1.9225657 0.57289785 0.071620658 0
-1.8183534 0.54184401 0.20390877 0
-1.8250191 0.54383034 0.34344217 0
-1.5056686 0.42810223 -0.055884887 0
-1.8923161 0.53803658 0.070235826 0
-1.8430928 0.52404106 0.20592672 0
-1.8448178 0.52453148 0.34589759 0
-1.5233589 0.41247284 -0.056344241 0
-1.8614807 0.50402451 0.068850301 0
-1.8598773 0.50359035 0.20707712 0
-1.8591822 0.50340217 0.34737483 0
-1.5211602 0.3913883 -0.056076184 0
-1.9003694 0.48895726 0.070055388 0
-1.8811209 0.48400471 0.20874724 0
-1.8784155 0.48330858 0.34980357 0
-1.5138077 0.36923802 -0.055629324 0
-1.9139185 0.46683043 0.070332579 0
-1.901284 0.46374869 0.21032001 0
-1.9022276 0.46397889 0.35312194 0
-1.5388218 0.35487217 -0.056379862 0
-1.9401881 0.44743243 0.071085252 0
-1.9153142 0.4416962 0.21124004 0
-1.9208622 0.44297564 0.35551751 0
-1.5416435 0.33513698 -0.056324162 0
-1.9547929 0.42495129 0.071418628 0
-1.9355357 0.42076498 0.21286903 0
-1.9490812 0.42370963 0.35972431 0
-1.5417956 0.31489345 -0.056180399 0
-1.9664084 0.40161556 0.071652561 0
-1.9582658 0.39995253 0.21479796 0
-1.9663918 0.40161219 0.36195713 0
-1.5397576 0.29433131 -0.055966649 0
-1.9877747 0.37997171 0.072251037 0
-1.9825604 0.37897494 0.21692213 0
-1.9816856 0.37880775 0.36386544 0
-1.5469961 0.27557155 -0.056099176 0
-2.01319 0.3586162 0.073004901 0
-2.0009747 0.35644028 0.21842854 0
-2.498028 0.44498205 0.45760807 0
-1.5533812 0.25657293 -0.056209102 0
-2.0456951 0.33788872 0.074023478 0
-2.0244412 0.33437821 0.22051305 0
-2.4474232 0.40424243 0.4473699 0
-1.5563164 0.23696741 -0.056202881 0
-2.055887 0.3130329 0.074243754 0
-2.045949 0.31151974 0.22241087 0
-2.4380348 0.3712194 0.44476405 0
-1.5498191 0.21604826 -0.055865571 0
-2.0767326 0.28950119 0.074858971 0
-2.077884 0.28966168 0.22546805 0
-1.5629444 0.19784974 -0.056244429 0
-2.1018586 0.26606971 0.075637907 0
-2.0824521 0.26361308 0.22558568 0
-1.5559074 0.17708434 -0.055906519 0
-1.9959099 0.22716288 0.071716592 0
-1.9863601 0.22607596 0.2148509 0
-1.9985671 0.2274653 0.36276594 0
