# .PCD v0.7 - Point Cloud Data file format
VERSION 0.7
FIELDS x y z intensity
SIZE 4 4 4 4
TYPE F F F F
COUNT 1 1 1 1
WIDTH 1361
HEIGHT 1
VIEWPOINT 0 0 0 1 0 0 0
POINTS 1361
DATA ascii
-1.1186601 -1.1081499 -0.056215607 0
-1.1041882 -1.1217102 -0.056193713 0
-1.0910952 -1.1366893 -0.056251362 0
-1.0685689 -1.141654 -0.055826742 0
-1.0527329 -1.1535099 -0.055753846 0
-1.0430471 -1.1722047 -0.05601817 0
-1.0303637 -1.1877334 -0.056135777 0
-1.0112016 -1.1957346 -0.055907693 0
-0.99768573 -1.2103374 -0.055998623 0
-0.9804467 -1.2204132 -0.055889159 0
-0.97049952 -1.2396832 -0.056207523 0
-0.94785857 -1.2426865 -0.055798106 0
-0.93853927 -1.2631398 -0.056181379 0
-0.91553307 -1.2651463 -0.055753432 0
-0.90461576 -1.28379 -0.056068603 0
-0.88786143 -1.294323 -0.056035902 0
-0.8688696 -1.3014687 -0.055867158 0
-0.8554011 -1.3169049 -0.056062955 0
-0.83332747 -1.3189853 -0.055700384 0
-0.8211332 -1.336665 -0.056005906 0
-0.7989881 -1.338106 -0.055640317 0
-0.79234201 -1.3657551 -0.056370661 0
-0.77131832 -1.3689423 -0.056096882 0
-0.74864972 -1.3687264 -0.055697311 0
-0.73578036 -1.38638 -0.056034219 0
-0.71650261 -1.3921086 -0.055896662 0
-0.69465381 -1.3924731 -0.055555671 0
-0.68356621 -1.414561 -0.056089051 0
-0.66161889 -1.4143296 -0.055745114 0
-0.65083778 -1.438192 -0.056358147 0
-0.56185883 -1.2415704 0.45339057 0
-0.62912542 -1.4381527 -0.056041721 0
-0.54605263 -1.248252 0.45328364 0
-0.6082834 -1.4396077 -0.055795521 0
-0.53857797 -1.2746378 0.46036604 0
-0.59142703 -1.4503855 -0.055920165 0
-0.5212664 -1.2783272 0.4592914 0
-0.57450545 -1.4612461 -0.056055535 0
-0.50325477 -1.2800211 0.45758688 0
-0.5573467 -1.4717591 -0.056185145 0
-0.48292065 -1.2752256 0.45366272 0
-0.5405823 -1.4836304 -0.056374002 0
-0.47279984 -1.2976011 0.45946839 0
-0.5191564 -1.4826019 -0.056082077 0
-0.45634541 -1.3032269 0.4593893 0
-0.50052869 -1.4892628 -0.056091174 0
-0.44303823 -1.3182069 0.46266651 0
-0.47895685 -1.4868155 -0.055767424 0
-0.42531386 -1.3202927 0.46148229 0
-0.45970386 -1.4911252 -0.055707537 0
-0.4153882 -1.34738 0.46908468 0
-0.44370669 -1.5063497 -0.056063134 0
-0.40893734 -1.3883104 0.48150349 0
-0.42560169 -1.5150099 -0.056181535 0
-0.38713625 -1.3780849 0.051103905 0
-0.38461685 -1.3691167 0.15283369 0
-0.38492787 -1.3702238 0.25668395 0
-0.3873243 -1.3787543 0.36538106 0
-0.3880958 -1.3815005 0.47740886 0
-0.40353793 -1.5092001 -0.055773228 0
-0.37325209 -1.3959335 0.051587407 0
-0.3729088 -1.3946496 0.15514743 0
-0.37195596 -1.391086 0.25969407 0
-0.3745296 -1.4007113 0.3699207 0
-0.37182954 -1.3906132 0.47890195 0
-0.38344982 -1.5100131 -0.055620424 0
-0.36894971 -1.5336059 -0.056313861 0
-0.34574801 -1.5211366 -0.055691704 0
-0.33218431 -1.5516044 -0.056649551 0
-0.30996153 -1.5424279 -0.056167558 0
-0.29227647 -1.5555787 -0.056507941 0
-0.2707366 -1.5480992 -0.056107949 0
-0.25063646 -1.547765 -0.05597702 0
-0.23076558 -1.5483639 -0.055889156 0
-0.21114267 -1.5503477 -0.055860359 0
-0.1912947 -1.5503671 -0.055769846 0
-0.15434918 -1.2509384 0.044998791 0
-0.15381762 -1.2466303 0.13499047 0
-0.17136514 -1.5490966 -0.055642109 0
-0.13492055 -1.2196469 0.043808583 0
-0.13576117 -1.2272459 0.13269581 0
-0.15269513 -1.5597998 -0.055953059 0
-0.11830611 -1.2085116 0.043351665 0
-0.11829603 -1.2084087 0.13048762 0
-0.13208131 -1.5503079 -0.0555485 0
-0.10108091 -1.1864399 0.042510878 0
-0.10274621 -1.2059863 0.13007602 0
-0.11438637 -1.5771598 -0.056454536 0
-0.0864783 -1.1923633 0.042680718 0
-0.086486243 -1.1924727 0.12849082 0
-0.094495252 -1.5780791 -0.056440376 0
-0.069805965 -1.1657659 0.041693896 0
-0.068683907 -1.1470274 0.12349103 0
-0.073630191 -1.5582423 -0.055693332 0
-0.054267034 -1.5666337 -0.055964388 0
-0.034570415 -1.5687129 -0.056018673 0
-0.014714998 -1.5583612 -0.055637982 0
0.0048810621 -1.5499259 -0.055334628 0
0.024687983 -1.568282 -0.055996627 0
0.044398636 -1.5666486 -0.05595383 0
0.063920595 -1.5610682 -0.05577885 0
0.0841005 -1.5700196 -0.056132082 0
0.1044179 -1.5772287 -0.056432363 0
0.12293886 -1.5589241 -0.055828396 0
0.14311461 -1.5633345 -0.056046437 0
0.16308382 -1.5642503 -0.05614844 0
0.18388191 -1.5716044 -0.056491051 0
0.20168625 -1.5539896 -0.055944744 0
0.22271001 -1.5616568 -0.056317262 0
0.24013622 -1.5444553 -0.055801559 0
0.26023021 -1.5452669 -0.055944834 0
0.2789672 -1.5380131 -0.055804975 0
0.29807654 -1.533175 -0.055761199 0
0.31615975 -1.5235289 -0.055550765 0
0.34010974 -1.5411412 -0.056344628 0
0.35624725 -1.5228846 -0.055836745 0
0.37414613 -1.5132315 -0.055651143 0
0.39543322 -1.5170839 -0.055971503 0
0.41261956 -1.5051116 -0.055717073 0
0.43164176 -1.5001574 -0.055730466 0
0.45190239 -1.4992684 -0.055904407 0
0.47116548 -1.4947962 -0.055954441 0
0.49178335 -1.4943177 -0.056163881 0
0.51017445 -1.4868845 -0.05612151 0
0.52813417 -1.4783232 -0.056044944 0
0.54379308 -1.4637151 -0.055746313 0
0.56774068 -1.4711614 -0.056297719 0
0.58795381 -1.4682275 -0.056464292 0
0.59849584 -1.4416826 -0.055728856 0
0.61512357 -1.4305967 -0.055595331 0
0.64142507 -1.4414746 -0.056327485 0
0.6607846 -1.4360232 -0.056435134 0
0.67271525 -1.4147644 -0.055928141 0
0.69380444 -1.4129614 -0.056197781 0
0.71514362 -1.4112241 -0.056482375 0
0.72266018 -1.382601 -0.055696566 0
0.74387258 -1.380558 -0.055987168 0
0.75791162 -1.3651656 -0.055745561 0
0.77562982 -1.3565447 -0.055787936 0
0.79127181 -1.3443315 -0.055691019 0
0.810628 -1.3383765 -0.055862758 0
0.82876748 -1.3302336 -0.055954035 0
0.84707761 -1.322232 -0.056061689 0
0.85939592 -1.304988 -0.055784967 0
0.88358748 -1.3056312 -0.056283619 0
0.9035148 -1.2995197 -0.056506135 0
0.90338469 -1.2650452 -0.055497345 0
0.92620772 -1.2630701 -0.055917919 0
0.93664432 -1.2441436 -0.055597764 0
0.96081603 -1.2433554 -0.056098755 0
0.97200388 -1.2256219 -0.055846456 0
0.99146813 -1.2183355 -0.056078881 0
1.0058532 -1.2047051 -0.056030046 0
1.0254265 -1.1971802 -0.05627615 0
1.0394441 -1.1830642 -0.056223411 0
1.0520053 -1.1673828 -0.056103278 0
1.05928 -1.146102 -0.055717167 0
1.075224 -1.1343586 -0.055800058 0
1.0927941 -1.1241994 -0.055972781 0
1.0980989 -1.1015595 -0.055529617 0
1.1124855 -1.0882365 -0.055559769 0
1.1318196 -1.0795988 -0.05584199 0
1.1445025 -1.0644988 -0.055801969 0
1.1643465 -1.0559268 -0.056116749 0
1.1730015 -1.0371612 -0.055900015 0
1.1788371 -1.016163 -0.055563919 0
1.202454 -1.0104117 -0.056072935 0
1.2101654 -0.99116528 -0.055846095 0
1.2223825 -0.97571605 -0.055838469 0
1.2395797 -0.96414304 -0.056065001 0
1.2580683 -0.95334435 -0.056353796 0
1.2623159 -0.93177658 -0.056014046 0
1.2763197 -0.91751367 -0.056118332 0
1.2764796 -0.89346701 -0.055626269 0
1.2915221 -0.87997687 -0.055794489 0
1.3063228 -0.86618018 -0.055958252 0
1.3033968 -0.84080714 -0.055374991 0
1.3294359 -0.8340888 -0.056030605 0
1.3400973 -0.81744486 -0.056041665 0
1.3541008 -0.8027696 -0.056200091 0
1.3678793 -0.78783208 -0.056355741 0
1.3753144 -0.76921731 -0.056258533 0
1.3741488 -0.74600786 -0.055822168 0
1.3965795 -0.73557067 -0.056352634 0
1.4008623 -0.71544147 -0.056157481 0
1.4102373 -0.69798267 -0.056176513 0
1.4127688 -0.67722505 -0.055933218 0
1.4197907 -0.65873647 -0.055878386 0
1.4297986 -0.64162683 -0.055949844 0
1.4501557 -0.6289475 -0.056432061 0
1.4480833 -0.60650176 -0.056049772 0
1.4618646 -0.59075004 -0.056290798 0
1.4542545 -0.56647992 -0.055718675 0
1.4647517 -0.54942942 -0.055851359 0
1.4688354 -0.52996218 -0.055748194 0
1.4732969 -0.51069951 -0.055669032 0
1.4944456 -0.49704254 -0.056227196 0
1.4923543 -0.47556326 -0.055918772 0
1.5073218 -0.45950851 -0.056258336 0
1.5065036 -0.43860519 -0.05601722 0
1.5165328 -0.42088559 -0.056188617 0
1.5140907 -0.39974508 -0.055907201 0
1.5258721 -0.38237023 -0.056159984 0
1.5308715 -0.36319995 -0.056171212 0
1.5206935 -0.3406187 -0.055635966 0
1.529794 -0.32248405 -0.055815924 0
1.5364954 -0.30374259 -0.055916447 0
1.540105 -0.28435498 -0.055913068 0
1.5444885 -0.26509947 -0.055946581 0
1.5502255 -0.24603166 -0.056037731 0
1.5511333 -0.22619148 -0.055963147 0
1.5480251 -0.20586717 -0.05575306 0
1.5627352 -0.1878306 -0.056193214 0
1.5655566 -0.16820133 -0.056214049 0
1.5792702 -0.14958581 -0.056634337 0
1.5716038 -0.12891594 -0.056296732 0
1.5618593 -0.10833745 -0.055894375 0
1.5652713 -0.088786356 -0.055972032 0
1.5724488 -0.069343351 -0.056193013 0
1.575946 -0.049625371 -0.056291189 0
1.5717975 -0.029690566 -0.056125209 0
1.5748923 -0.0099152923 -0.056226797 0
1.5849018 0.0099783111 -0.056584157 0
1.5785145 0.029817445 -0.056365054 0
1.5725646 0.049518898 -0.056170415 0
0.87995768 0.027709216 0.2929019 0
1.5715276 0.069302723 -0.056160089 0
0.92215574 0.040666103 0.30709401 0
1.5651187 0.088777691 -0.055966571 0
1.5012363 0.085154116 0.053682223 0
1.5080909 0.085542925 0.162334 0
1.4968394 0.084904715 0.27038696 0
0.9236027 0.052389205 0.30777118 0
1.5610126 0.10827873 -0.055864077 0
1.4712462 0.10205213 0.052651599 0
1.4842979 0.10295745 0.15989974 0
1.4893792 0.10330991 0.26925302 0
0.94387382 0.065471254 0.31477585 0
1.5511748 0.12724018 -0.05556494 0
1.460428 0.11979639 0.052314285 0
1.4566991 0.11949051 0.15707624 0
1.471666 0.12071822 0.26630446 0
0.96815604 0.079416163 0.32318169 0
1.5581595 0.14758624 -0.055877283 0
1.4472694 0.13708292 0.051900644 0
1.4491235 0.13725854 0.15643333 0
1.4411688 0.13650507 0.26107621 0
0.96138811 0.091061063 0.32127979 0
1.5569552 0.1672772 -0.055905204 0
1.4264432 0.15325516 0.051218942 0
1.428582 0.15348494 0.15441225 0
1.4197005 0.15253073 0.25751466 0
1.0025098 0.10770832 0.33544865 0
1.5509572 0.18641496 -0.055769697 0
1.4067438 0.16908143 0.050584033 0
1.4200971 0.17068642 0.15371528 0
1.422918 0.17102545 0.25846839 0
0.99919242 0.12009642 0.33481809 0
1.565164 0.20814641 -0.056370325 0
1.3924345 0.18517564 0.05014937 0
1.3972824 0.18582034 0.15148701 0
1.3876114 0.18453422 0.25245714 0
0.98953116 0.13159475 0.33210963 0
1.5534881 0.22653489 -0.05604811 0
1.3790147 0.20109259 0.049753305 0
1.3709457 0.19991593 0.14889283 0
1.3794339 0.2011537 0.25141025 0
0.99754035 0.1454647 0.33538589 0
1.5472977 0.24556698 -0.055931892 0
1.3723031 0.21779414 0.049606171 0
1.3666067 0.21689005 0.14870642 0
1.3660251 0.21679775 0.2494442 0
1.0130085 0.16077155 0.34124005 0
1.5244519 0.26166034 -0.055220786 0
1.3866949 0.23801543 0.050230768 0
1.3742961 0.23588726 0.14985447 0
1.3825349 0.23730138 0.25298458 0
1.0024309 0.17205948 0.33837992 0
1.5534089 0.28681132 -0.05639606 0
1.3986282 0.25823364 0.050776791 0
1.4107021 0.26046288 0.15416962 0
1.4112295 0.26056024 0.25881514 0
1.009158 0.18632437 0.34141564 0
1.5574794 0.30789083 -0.056680102 0
1.4257622 0.28185225 0.051886622 0
1.4223368 0.28117511 0.15581572 0
1.4337291 0.28342718 0.26357514 0
1.3263565 0.26220122 0.34494483 0
0.9928422 0.19627033 0.33670521 0
1.5403836 0.32471636 -0.056202292 0
1.4572164 0.30718455 0.053167865 0
1.4621661 0.30822793 0.16059144 0
1.4339083 0.30227116 0.26428691 0
1.314618 0.27712446 0.34277233 0
0.99712121 0.21019542 0.33902708 0
1.5226626 0.34105977 -0.055708006 0
1.4708455 0.32945329 0.053812232 0
1.4778407 0.33102012 0.16275789 0
1.4207445 0.31823125 0.26257843 0
1.2981044 0.29076117 0.33939436 0
1.0139024 0.22710304 0.3456777 0
1.5363774 0.36450621 -0.056373231 0
1.5215166 0.36098048 0.055827957 0
1.5013688 0.3562004 0.16582994 0
1.4197885 0.33684543 0.26316476 0
1.269199 0.30111802 0.33280191 0
1.0078367 0.23910969 0.3446089 0
0.76467061 0.18141843 0.4660745 0
1.5176899 0.38031986 -0.055858839 0
1.4187534 0.35552725 0.26378185 0
1.2668072 0.31745082 0.33319649 0
0.98920262 0.24788556 0.33927777 0
0.76733112 0.19228649 0.46913472 0
1.522606 0.40199327 -0.05622163 0
1.4275728 0.37690294 0.26628289 0
1.2555048 0.33147413 0.33129534 0
0.99371034 0.26235601 0.34192982 0
0.7923277 0.20918767 0.41001731 0
0.78754371 0.20792462 0.48305485 0
1.5234877 0.42281577 -0.056446299 0
1.406285 0.39028835 0.26320794 0
1.2352563 0.34282249 0.32706544 0
0.99598789 0.276418 0.34388393 0
0.80624276 0.22375774 0.34643081 0
0.80522966 0.22347659 0.41811699 0
0.78804177 0.2187064 0.4850111 0
1.4960055 0.43554875 -0.055626862 0
1.409655 0.41040859 0.26478496 0
1.2371998 0.36019978 0.32875493 0
0.98104626 0.28562292 0.33993989 0
0.83160013 0.24211301 0.35860807 0
0.81064302 0.23601152 0.42243752 0
0.81308949 0.2367238 0.50222182 0
1.5064377 0.45923898 -0.056225337 0
1.3996425 0.42668235 0.26389253 0
1.2133123 0.36987942 0.3236194 0
0.98111916 0.29909512 0.34124315 0
0.86549711 0.26384765 0.37462839 0
0.82117742 0.25033674 0.42953584 0
0.82201844 0.25059313 0.5096457 0
1.4934758 0.47592065 -0.055960797 0
1.3965873 0.4450455 0.26435214 0
1.1959045 0.38109466 0.3202309 0
0.98140782 0.31274176 0.34268609 0
0.87241638 0.27800983 0.37910858 0
0.83033669 0.26460046 0.43603504 0
0.83954227 0.26753396 0.52255756 0
1.4986773 0.49844995 -0.056386407 0
1.3957559 0.46421903 0.26528022 0
1.1811932 0.39285693 0.3175911 0
0.98318678 0.3270013 0.34471774 0
0.89538801 0.29780003 0.39068949 0
0.86808956 0.28872076 0.45773312 0
0.8619197 0.28666869 0.53869015 0
1.4786433 0.5125528 -0.055871051 0
1.3975292 0.48443568 0.26675552 0
1.1923071 0.41329804 0.32195312 0
0.97380072 0.33755559 0.34288999 0
0.88308758 0.30611101 0.38697359 0
0.88069057 0.30528012 0.46636748 0
0.888538 0.30800036 0.557706 0
1.4771225 0.53295219 -0.056062721 0
1.1622485 0.41934428 0.31523737 0
0.97446424 0.3515909 0.34465522 0
0.90931195 0.32808369 0.40024388 0
0.89897007 0.32435226 0.47817227 0
0.89386147 0.32250908 0.56355172 0
1.4758065 0.55357611 -0.056272879 0
1.1440703 0.42914158 0.31174785 0
0.97490585 0.36568791 0.34641263 0
0.92201394 0.34584811 0.4077194 0
0.92212021 0.34588796 0.49276376 0
0.92083585 0.3454062 0.58325416 0
1.4532882 0.56610346 -0.05568165 0
1.1495281 0.44777897 0.31474659 0
0.97119242 0.37831134 0.34675834 0
0.92920572 0.36195612 0.41288239 0
0.94005513 0.36618233 0.50477189 0
0.94349557 0.36752251 0.60049045 0
1.4615123 0.59060764 -0.056277234 0
1.1300514 0.45666191 0.31096357 0
0.99077559 0.40037957 0.3555223 0
0.96344572 0.38933536 0.43024087 0
0.97572327 0.3942968 0.5265485 0
0.96948135 0.39177442 0.62011981 0
1.4436604 0.60464931 -0.055878576 0
1.1195836 0.46891597 0.30968335 0
1.0142802 0.42481169 0.36584705 0
0.9907313 0.41494867 0.44472376 0
0.99543995 0.41692081 0.53997898 0
0.98948663 0.41442737 0.63620359 0
1.4363292 0.62295079 -0.05589401 0
1.100621 0.47735065 0.30607659 0
1.0435137 0.4525826 0.37841702 0
1.0057425 0.43620089 0.45389166 0
1.0210059 0.44282076 0.5568279 0
1.0102183 0.43814209 0.65302885 0
1.434635 0.64379722 -0.056139104 0
1.0882874 0.48837256 0.30433273 0
1.0655053 0.47814903 0.38854465 0
1.036834 0.46528268 0.47053006 0
1.0464064 0.4695783 0.57385987 0
1.0501894 0.47127596 0.68264914 0
1.4357549 0.6661433 -0.056506682 0
1.0838021 0.50284874 0.30482501 0
1.0744818 0.49852443 0.3940759 0
1.0612687 0.492394 0.48439431 0
1.090878 0.50613177 0.60169613 0
1.4326663 0.68676311 -0.056720983 0
1.0697905 0.51281488 0.30267635 0
1.1017336 0.52812713 0.40647754 0
1.1166688 0.53528655 0.51271647 0
1.1007636 0.5276621 0.6107651 0
1.4103242 0.6980257 -0.056179974 0
1.0459424 0.51767862 0.29774976 0
1.1346186 0.56156796 0.42118582 0
1.1283188 0.55844998 0.52125293 0
1.1331862 0.56085908 0.63262355 0
1.3944625 0.71217293 -0.05590092 0
1.7027898 0.86964041 0.3448278 0
1.043607 0.53298587 0.2989718 0
1.1748793 0.60002857 0.43890113 0
1.1808038 0.60305429 0.5489642 0
1.183629 0.60449719 0.66498101 0
1.3856413 0.72980958 -0.055911273 0
1.6752287 0.8823337 0.34146938 0
1.0177498 0.53604323 0.2934747 0
1.2191867 0.64213884 0.45843738 0
1.220699 0.6429354 0.57123035 0
1.2117512 0.63822269 0.68524128 0
1.3833169 0.75098503 -0.0561946 0
1.6759557 0.90985495 0.34392565 0
1.0199046 0.55369318 0.29608303 0
1.2598337 0.68394762 0.47692209 0
1.2549672 0.68130565 0.59123409 0
1.3599849 0.76064354 -0.055631474 0
1.0048591 0.56202066 0.041104715 0
1.0266831 0.57422686 0.12642221 0
1.0095429 0.56464028 0.2086125 0
1.0157644 0.56811994 0.29693437 0
1.321848 0.73931342 0.50388247 0
1.3113327 0.73343217 0.62209034 0
1.3667866 0.78720272 -0.056310721 0
0.99618292 0.573753 0.041042089 0
0.9941529 0.57258385 0.12329461 0
1.0056874 0.57922709 0.20930637 0
1.0091717 0.58123398 0.29712319 0
1.3455403 0.77496594 0.51659286 0
1.3491449 0.77704203 0.64461905 0
1.3467107 0.79838836 -0.055893373 0
0.98990649 0.58685941 0.041084707 0
0.99004114 0.58693922 0.12369148 0
0.99350506 0.58899277 0.20829804 0
0.99186146 0.58801842 0.29418334 0
1.3726761 0.8137818 0.53090322 0
1.371537 0.81310642 0.66015762 0
1.3456779 0.82084894 -0.05627504 0
0.98397857 0.60021627 0.041149098 0
0.99452567 0.60664988 0.12519622 0
0.9737497 0.5939768 0.20570797 0
0.97804475 0.59659672 0.29229036 0
1.4221435 0.86749208 0.55421644 0
1.4215996 0.86716038 0.68945533 0
1.3126539 0.8235597 -0.055323303 0
0.9677487 0.60716605 0.040786877 0
0.96926701 0.60811859 0.12297074 0
0.9705162 0.60890239 0.20662828 0
0.9825508 0.61645287 0.29593337 0
1.4456319 0.90699017 0.56777579 0
1.3281746 0.85679108 -0.05642768 0
0.96001005 0.61929208 0.040786155 0
0.95672601 0.61717355 0.12235595 0
0.95841783 0.61826497 0.20569371 0
0.97174084 0.62685949 0.29503158 0
1.4596524 0.94160593 0.57789344 0
1.3133445 0.87083608 -0.05625904 0
0.971991 0.64449567 0.041636661 0
0.9519875 0.63123196 0.12275676 0
0.9539966 0.63256419 0.20643796 0
0.95268685 0.63169569 0.29163852 0
1.479546 0.98103893 0.59061354 0
1.292609 0.8807174 -0.055841442 0
0.95326167 0.64950353 0.041181445 0
0.93252975 0.63537788 0.1212698 0
0.93977356 0.64031345 0.20508872 0
0.94755524 0.64561552 0.29253313 0
1.5070426 1.0268215 0.60670316 0
1.2837759 0.89857405 -0.055944227 0
0.92907149 0.65030003 0.040486962 0
0.93240035 0.65263009 0.12231198 0
0.93895566 0.6572184 0.20669988 0
0.92555505 0.64783871 0.28823677 0
1.5285217 1.0698829 0.62072462 0
1.2792742 0.91963762 -0.05624824 0
0.91908628 0.66070759 0.040411182 0
0.92408448 0.66430068 0.12230873 0
0.92308062 0.66357911 0.2050284 0
0.92127943 0.66228426 0.28947943 0
1.5500045 1.1142586 0.63509619 0
1.2647458 0.93357027 -0.056121875 0
0.91317564 0.67405927 0.04052129 0
0.91492963 0.67535394 0.12221292 0
0.9073081 0.66972816 0.20338213 0
0.91661429 0.67659748 0.29066759 0
1.5562829 1.1487679 0.64354473 0
1.2490975 0.94654644 -0.05595196 0
0.89543551 0.67854697 0.040110059 0
0.89124817 0.67537385 0.12017611 0
0.8984319 0.6808176 0.20329806 0
0.89570498 0.67875117 0.28672466 0
1.5676988 1.1879776 0.65439939 0
1.23643 0.96169329 -0.055922549 0
0.87962508 0.68417102 0.039784603 0
0.88227409 0.68623137 0.1201217 0
0.8898322 0.69211006 0.20330808 0
0.88834989 0.69095713 0.28713262 0
1.5834924 1.2316378 0.66741306 0
1.2263553 0.97888714 -0.056019951 0
0.8852452 0.7066102 0.040438026 0
0.88530362 0.70665675 0.12173603 0
0.88086194 0.70311141 0.20326534 0
0.87584698 0.69910842 0.28591415 0
1.5953448 1.2734176 0.67911327 0
1.2243776 1.0028055 -0.056501951 0
0.93666971 0.76716328 0.13011731 0
0.92827392 0.76028687 0.21639803 0
0.93043619 0.76205784 0.30684265 0
1.6032038 1.3130766 0.68944257 0
1.1983947 1.0070007 -0.055883642 0
1.6288401 1.3687003 0.2286461 0
1.6099869 1.3528581 0.37925932 0
1.6009914 1.3452992 0.53352511 0
1.6018713 1.3460386 0.69610333 0
1.1884489 1.0244484 -0.056016967 0
1.59918 1.3785005 0.38077244 0
1.6013893 1.3804048 0.53940755 0
1.1656976 1.0307032 -0.055551942 0
1.6042114 1.4184346 0.38619265 0
1.5986949 1.4135569 0.54445249 0
1.1687115 1.0598854 -0.056327131 0
1.6192154 1.4684401 0.39422485 0
1.6146866 1.4643329 0.55613416 0
1.1433064 1.0633862 -0.05574365 0
1.5922899 1.4809846 0.39217868 0
1.5967433 1.4851267 0.55635107 0
1.1319745 1.0797464 -0.055849627 0
0.60463959 0.57674223 0.34596676 0
0.61326605 0.58497065 0.42404708 0
1.1199669 1.0955547 -0.055933405 0
0.59413111 0.58118069 0.41584343 0
0.58919919 0.57635629 0.48880327 0
1.1111287 1.1146303 -0.05618852 0
0.58897769 0.5908339 0.41741073 0
0.57070452 0.57250309 0.47940266 0
1.0934649 1.1248895 -0.056007139 0
0.58516186 0.60197866 0.34759119 0
0.59262711 0.60965836 0.42540401 0
0.55846524 0.57451481 0.47516084 0
1.0731696 1.1321911 -0.055693436 0
0.57989877 0.61179167 0.3490133 0
0.5841741 0.61630213 0.42487329 0
0.56690186 0.59807998 0.48870799 0
1.0697426 1.1574221 -0.056267489 0
1.5780915 1.7074369 0.41931415 0
1.5679319 1.6964446 0.58936793 0
0.53756714 0.58162785 0.46969599 0
1.0390867 1.1530474 -0.05541433 0
1.5665836 1.738397 0.42203939 0
1.5732107 1.7457509 0.59956771 0
0.52039248 0.57746595 0.46100667 0
1.0339525 1.1768138 -0.055926371 0
1.5490575 1.763091 0.42326531 0
1.5476474 1.7614859 0.59823126 0
1.0219165 1.1930823 -0.056083523 0
1.5524714 1.8125025 0.43040028 0
1.5452714 1.8040965 0.60604608 0
1.0058417 1.2046914 -0.056029405 0
0.57652467 0.69050062 0.032114729 0
1.5382584 1.8423642 0.4328573 0
1.5393018 1.8436137 0.61276114 0
0.99027729 1.2168722 -0.056011524 0
1.5254815 1.8745416 0.43586963 0
1.5193714 1.8670334 0.61413741 0
0.98418051 1.2409756 -0.056546062 0
1.511533 1.9059265 0.43870679 0
1.509795 1.9037349 0.61990714 0
0.96059626 1.2430711 -0.056085929 0
1.4887385 1.9265199 0.43909708 0
1.4984096 1.9390348 0.62520814 0
0.93545407 1.2425625 -0.05552711 0
1.4722557 1.9555956 0.44146365 0
1.4791621 1.9647694 0.62745047 0
0.93201733 1.2709925 -0.056268658 0
1.4606853 1.9919373 0.44548011 0
1.4614371 1.9929626 0.63052708 0
0.9130953 1.2786434 -0.056093894 0
1.4441658 2.0223224 0.44817296 0
1.4424807 2.0199625 0.63327241 0
0.89336288 1.2849182 -0.05587123 0
1.4224656 2.045923 0.44939801 0
1.4203513 2.0428822 0.63480031 0
0.87873441 1.2984601 -0.055974483 0
1.3973653 2.0648141 0.44964683 0
1.3980422 2.0658143 0.63640535 0
0.86009943 1.3060563 -0.055830631 0
1.4356358 2.1800051 0.093189754 0
1.4436537 2.1921802 0.28208983 0
1.3794351 2.0946646 0.45232877 0
1.3869878 2.1061335 0.64339489 0
0.84474742 1.3185947 -0.055907469 0
1.4045227 2.1923666 0.09295477 0
1.4063187 2.1951702 0.2801736 0
1.3657897 2.1319072 0.45662099 0
1.3628595 2.1273332 0.64457744 0
0.82715029 1.3276379 -0.055844851 0
1.3674006 2.1947801 0.092319727 0
1.3731179 2.2039566 0.27906609 0
1.342575 2.154933 0.45789549 0
1.3407066 2.1519339 0.64686477 0
0.81465352 1.3450228 -0.05614017 0
1.3496009 2.2282405 0.093004964 0
1.3434258 2.218045 0.27868587 0
1.3174657 2.175184 0.45863712 0
1.3186026 2.1770611 0.64937532 0
0.8005904 1.3601633 -0.056346875 0
1.3288181 2.2575958 0.093524411 0
1.3260403 2.2528765 0.28094199 0
1.2910049 2.1933532 0.45900396 0
1.2936922 2.1979189 0.65068603 0
0.77672964 1.3584683 -0.055867042 0
1.2611693 2.2057335 0.45823506 0
1.2748419 2.2296462 0.65527439 0
0.76173353 1.3720496 -0.056026667 0
1.2492417 2.250159 0.46415955 0
1.2566682 2.2635357 0.66053128 0
0.7390092 1.371532 -0.055621125 0
1.2223463 2.2685606 0.46474349 0
1.214247 2.2535291 0.65309757 0
0.72243184 1.3821641 -0.055678971 0
1.193495 2.2834072 0.46466932 0
1.1942507 2.284853 0.65776515 0
0.7109158 1.4028811 -0.056148458 0
1.1755426 2.3197494 0.46901539 0
1.1658397 2.3006022 0.65802068 0
0.68751448 1.4001516 -0.055688296 0
1.1419011 2.3255289 0.46723968 0
1.1347642 2.3109941 0.65685391 0
0.67044604 1.4099921 -0.055739485 0
1.1125354 2.339735 0.46724218 0
1.1131707 2.3410711 0.66136611 0
0.65834254 1.4307162 -0.05622657 0
1.0846751 2.3572259 0.4679704 0
1.085915 2.3599205 0.66277564 0
0.6378566 1.4334552 -0.056014117 0
1.0592996 2.380564 0.46991825 0
1.0573215 2.3761189 0.66353309 0
0.61927247 1.4402457 -0.055970315 0
1.027506 2.389677 0.46912593 0
1.0274143 2.3894639 0.66359431 0
0.60283917 1.452145 -0.056133281 0
0.99878812 2.4059238 0.46980911 0
0.99970835 2.4081407 0.66523236 0
0.58247256 1.4545398 -0.055937897 0
0.97225291 2.427892 0.47167081 0
0.96967655 2.4214585 0.6654855 0
0.56310636 1.4591526 -0.055838175 0
0.93439919 2.4212675 0.46806091 0
0.93812829 2.4309306 0.66478944 0
0.5443511 1.4652171 -0.055803515 0
0.9094916 2.4480572 0.47098842 0
0.9034124 2.431694 0.66183472 0
0.52824384 1.4786302 -0.056056585 0
0.87664777 2.4538627 0.46994433 0
0.87590438 2.451782 0.66424751 0
0.51440138 1.4992037 -0.056586493 0
0.84451169 2.4612978 0.46929443 0
0.84390223 2.4595218 0.66341281 0
0.49239603 1.4961793 -0.056233853 0
0.81740278 2.4837348 0.47157255 0
0.81814432 2.4859879 0.66771984 0
0.46815366 1.4852409 -0.055596761 0
0.77995175 2.4744363 0.46790525 0
0.78199744 2.4809263 0.66366285 0
0.45147592 1.4978534 -0.055851646 0
0.74645102 2.4764869 0.46647868 0
0.74695903 2.4781725 0.66035771 0
0.43221202 1.5021393 -0.055804092 0
0.71811128 2.4957731 0.46837106 0
0.71886134 2.4983799 0.66327769 0
0.41309151 1.5068331 -0.055780802 0
0.56059164 2.0448689 0.075698122 0
0.68626904 2.5033023 0.46812516 0
0.6855706 2.5007546 0.66156375 0
0.39535102 1.5167686 -0.055959869 0
0.52831352 2.0268807 0.074780017 0
0.64814085 2.4865997 0.46343875 0
0.65133166 2.498841 0.65883565 0
0.37161279 1.5029854 -0.055274326 0
0.49116257 1.9865037 0.07305637 0
0.61415333 2.4839392 0.46146497 0
0.61832279 2.5008023 0.65724778 0
0.35752267 1.5283369 -0.056036651 0
0.45184168 1.9315315 0.070819832 0
0.58482778 2.50002 0.46304765 0
0.58276635 2.4912078 0.65274584 0
0.33827955 1.532848 -0.056041427 0
0.41871059 1.8973056 0.06936612 0
0.54957974 2.4903135 0.45993158 0
0.55169135 2.4998822 0.65314662 0
0.31506416 1.5182494 -0.055358261 0
0.38690102 1.864421 0.067980334 0
0.51941866 2.5030046 0.46103093 0
0.51851869 2.4986677 0.65107179 0
0.29875374 1.5366583 -0.055887885 0
0.35820338 1.8424411 0.067009136 0
0.4875778 2.5078864 0.46076274 0
0.48627627 2.5011919 0.65008247 0
0.28020328 1.5448279 -0.056052245 0
0.33032927 1.8211844 0.066079512 0
0.45274633 2.496099 0.45751339 0
0.45109683 2.487005 0.64486766 0
0.25872794 1.5363462 -0.055621874 0
0.29886445 1.7746799 0.064250506 0
0.29940698 1.7779014 0.19376026 0
0.41901875 2.4881651 0.45505598 0
0.4199205 2.49352 0.64513475 0
0.14335503 0.85125303 0.43191341 0
0.24088079 1.549244 -0.055974577 0
0.27167147 1.7472768 0.063129544 0
0.27388856 1.7615361 0.19158567 0
0.38818845 2.496665 0.4556804 0
0.38593653 2.4821815 0.6408931 0
0.13447465 0.86488444 0.43793592 0
0.221067 1.5501359 -0.055901788 0
0.24813712 1.7399533 0.062747084 0
0.24825232 1.740761 0.18897119 0
0.35306218 2.4756944 0.45100576 0
0.35388932 2.4814944 0.63951433 0
0.12551214 0.88009912 0.44480434 0
0.20074385 1.5467285 -0.055683337 0
0.22330499 1.7205617 0.061941456 0
0.22244766 1.7139561 0.18574254 0
0.31915185 2.4590607 0.44720793 0
0.31997189 2.465379 0.63427252 0
0.11406536 0.87887198 0.44342306 0
0.18262866 1.5608932 -0.056106035 0
0.19534518 1.6695789 0.060012728 0
0.19642022 1.6787671 0.18164663 0
0.286843 2.4515936 0.44515783 0
0.2892935 2.4725378 0.63512677 0
0.10207994 0.87245828 0.43950373 0
0.16363826 1.5695684 -0.056339335 0
0.17287755 1.6581888 0.059520345 0
0.17099318 1.6401145 0.17721732 0
0.25557688 2.4514155 0.44450587 0
0.25713411 2.466352 0.63265592 0
0.092022009 0.8826471 0.44401744 0
0.14252701 1.5569156 -0.055816319 0
0.15109818 1.6505442 0.059172954 0
0.15022539 1.64101 0.17709564 0
0.22460325 2.4534881 0.44433358 0
0.22274885 2.4332311 0.62339103 0
0.082198903 0.89791238 0.45114022 0
0.12313402 1.561399 -0.055917028 0
0.12785323 1.6212407 0.058060091 0
0.12784964 1.6211953 0.17476965 0
0.19119917 2.4244978 0.43861258 0
0.1927653 2.4443572 0.62556994 0
0.10394287 1.5700535 -0.056175634 0
0.10604476 1.6018025 0.057311598 0
0.1047351 1.58202 0.17039077 0
0.15995204 2.41607 0.43668893 0
0.16025475 2.4206424 0.61893529 0
0.084021918 1.5685525 -0.056079634 0
0.085901611 1.6036433 0.057334214 0
0.086399809 1.6129439 0.17359047 0
0.12876132 2.4037642 0.43413725 0
0.12816359 2.3926058 0.61130548 0
0.064217642 1.5683225 -0.056038059 0
0.066107064 1.6144662 0.057686824 0
0.066697992 1.6288978 0.1752032 0
0.097306401 2.376416 0.42894265 0
0.097541988 2.3821695 0.60827696 0
0.044646587 1.5753977 -0.056266315 0
0.038817301 1.3697058 0.048919898 0
0.046642236 1.6458162 0.17694573 0
0.067426726 2.3792169 0.42926094 0
0.066975966 2.3633115 0.60319847 0
0.024716685 1.5701053 -0.05606173 0
0.021181649 1.3455453 0.048043653 0
0.026471028 1.6815484 0.18073721 0
0.036910679 2.3447177 0.42291918 0
0.036957394 2.3476853 0.59904391 0
0.0049757017 1.5799775 -0.056407515 0
0.0042323731 1.343942 0.047980703 0
0.0052799084 1.6765749 0.18018124 0
0.0073894653 2.3464408 0.42317963 0
0.0074037914 2.3509898 0.59981579 0
-0.014738755 1.5608771 -0.05572781 0
-0.012693842 1.3443148 0.04799591 0
-0.016138379 1.7091012 0.1836841 0
-0.021920973 2.3214948 0.41869721 0
-0.021822756 2.3110933 0.58966017 0
-0.034288321 1.5559123 -0.055561561 0
-0.030169992 1.3690335 0.048888125 0
-0.038080417 1.7279873 0.18575068 0
-0.050550569 2.2938495 0.41379318 0
-0.050591305 2.2956979 0.58584821 0
-0.05430422 1.5677072 -0.05600274 0
-0.047737874 1.3781435 0.049231011 0
-0.061327934 1.7704747 0.1903858 0
-0.078510761 2.2665253 0.40901005 0
-0.078656718 2.2707391 0.57968569 0
-0.073370084 1.5527376 -0.055496588 0
-0.084510259 1.7884982 0.063922934 0
-0.083982259 1.777324 0.19122088 0
-0.10612888 2.2460148 0.40551782 0
-0.10591946 2.2415829 0.57253766 0
-0.043248501 0.91527188 0.37937829 0
-0.093555816 1.5623904 -0.055879265 0
-0.10791257 1.8021497 0.06445431 0
-0.10796393 1.8030074 0.19411501 0
-0.13234667 2.2102015 0.39932093 0
-0.13354801 2.2302637 0.57003093 0
-0.053299513 0.89010662 0.36919627 0
-0.11243326 1.5502303 -0.055490591 0
-0.13311082 1.8353325 0.065695845 0
-0.16006555 2.2069845 0.39907223 0
-0.16036962 2.2111769 0.56562382 0
-0.064336143 0.88706702 0.36824232 0
-0.064322159 0.88687426 0.44490436 0
-0.13319334 1.5633603 -0.056016177 0
-0.15658088 1.8378721 0.065852106 0
-0.18458639 2.1665876 0.39215675 0
-0.18620169 2.1855471 0.55962306 0
-0.074561581 0.8751685 0.36366391 0
-0.07677754 0.90117842 0.45252922 0
-0.1542051 1.5752243 -0.056506366 0
-0.18414022 1.8810153 0.067475684 0
-0.21195391 2.1651354 0.39234591 0
-0.21246378 2.1703439 0.55637115 0
-0.086036779 0.87887639 0.36562586 0
-0.17263404 1.5605671 -0.056054119 0
-0.20971632 1.8957813 0.068094701 0
-0.23721837 2.1443927 0.38909754 0
-0.23639911 2.1369867 0.54853958 0
-0.096791983 0.87497455 0.36448079 0
-0.19280402 1.5625994 -0.05620987 0
-0.23873198 1.9348272 0.069599658 0
-0.26106364 2.1158164 0.38447842 0
-0.25780544 2.0894098 0.5371179 0
-0.11068007 0.89701766 0.37421402 0
-0.10638309 0.86219233 0.43466088 0
-0.20936476 1.5372931 -0.055389993 0
-0.26792693 1.9672949 0.070883326 0
-0.28438848 2.0881665 0.38007456 0
-0.284311 2.0875974 0.53752965 0
-0.12003859 0.8814019 0.36830088 0
-0.11367096 0.83464658 0.4214623 0
-0.23232548 1.5588305 -0.056266949 0
-0.29671416 1.990858 0.071861252 0
-0.30815175 2.0676007 0.37700772 0
-0.305868 2.0522776 0.52938497 0
-0.3057448 2.0514507 0.69004416 0
-0.13018335 0.87348908 0.36565045 0
-0.12973128 0.87045586 0.44033453 0
-0.25006035 1.5442072 -0.055848345 0
-0.32665488 2.0172045 0.07295493 0
-0.33212534 2.0509865 0.37471113 0
-0.32901829 2.0317993 0.52512968 0
-0.32942212 2.0342929 0.68561375 0
-0.13918024 0.85948515 0.36049333 0
-0.13954005 0.86170703 0.43676302 0
-0.26950514 1.5410575 -0.055852741 0
-0.35850546 2.0499701 0.074297324 0
-0.35370472 2.0225191 0.37029457 0
-0.35094821 2.006757 0.51975834 0
-0.35195273 2.012501 0.67970902 0
-0.15021132 0.85892344 0.43627626 0
-0.2887156 1.5366267 -0.055819493 0
-0.38619563 2.0554433 0.074666016 0
-0.38564274 2.0525005 0.22444054 0
-0.37747556 2.0090325 0.36866641 0
-0.37551752 1.9986111 0.51883215 0
-0.37443802 1.9928658 0.67461634 0
-0.15903132 0.84640998 0.43090326 0
-0.31056675 1.5454396 -0.05627723 0
-0.40586761 2.019675 0.073546529 0
-0.40416312 2.0111933 0.22046264 0
-0.39729601 1.9770211 0.36368138 0
-0.39670879 1.9740989 0.51372492 0
-0.39278576 1.9545773 0.66327679 0
-0.17332806 0.86251366 0.4401778 0
-0.32774562 1.5308716 -0.055892594 0
-0.42495528 1.9849297 0.072470389 0
-0.42494702 1.9848911 0.21814872 0
-0.41836432 1.9541439 0.36041352 0
-0.41397068 1.9336214 0.5045079 0
-0.41857702 1.9551373 0.66520274 0
-0.18244195 0.85217071 0.43603721 0
-0.34734267 1.5281525 -0.055948567 0
-0.44923455 1.9764311 0.072360903 0
-0.45023376 1.9808272 0.21830787 0
-0.44185045 1.9439445 0.35953006 0
-0.43628088 1.9194409 0.50220156 0
-0.44052538 1.9381148 0.661246 0
-0.36535516 1.5186646 -0.055765215 0
-0.47593969 1.9783292 0.072644055 0
-0.47564343 1.9770976 0.21853961 0
-0.46012962 1.9126116 0.35477859 0
-0.46088311 1.9157437 0.50271285 0
-0.46169379 1.9191134 0.65669459 0
-0.38555554 1.5183053 -0.055925865 0
-0.50176692 1.975942 0.072782636 0
-0.4993096 1.9662652 0.21801993 0
-0.48109961 1.8945549 0.35252494 0
-0.48077813 1.8932887 0.49836954 0
-0.48111498 1.8946153 0.65033317 0
-0.40379485 1.510161 -0.055808742 0
-0.52558547 1.9656484 0.072641499 0
-0.52967387 1.9809387 0.220369 0
-0.50345647 1.8828877 0.35150579 0
-0.4995954 1.8684475 0.49344748 0
-0.49804252 1.8626399 0.64145935 0
-0.42550874 1.5146791 -0.056169264 0
-0.52269173 1.8606203 0.3485499 0
-0.52305746 1.8619223 0.49342448 0
-0.51978135 1.8502604 0.63939941 0
-0.44071525 1.496194 -0.055685159 0
-0.54127115 1.8375735 0.34548196 0
-0.53554416 1.8181309 0.48356822 0
-0.53693283 1.8228451 0.6322118 0
-0.4643122 1.5060731 -0.05626598 0
-0.56156707 1.8215353 0.34376886 0
-0.55739218 1.8079934 0.4827005 0
-0.56046087 1.8179473 0.63291067 0
-0.47753316 1.482396 -0.05560166 0
-0.58825606 1.8261106 0.34600288 0
-0.57564956 1.7869766 0.47898668 0
-0.57589263 1.7877312 0.62486619 0
-0.50321132 1.4972448 -0.056391809 0
-0.6047132 1.7992512 0.34232932 0
-0.59434706 1.7684081 0.47597787 0
-0.59493256 1.7701501 0.62129033 0
-0.51975214 1.4843034 -0.056146435 0
-0.62956214 1.7978977 0.34355289 0
-0.61187375 1.7473832 0.47235525 0
-0.6169976 1.7620159 0.621113 0
-0.54072416 1.4840198 -0.056388795 0
-0.65134126 1.7876089 0.34312686 0
-0.63407576 1.7402234 0.47254071 0
-0.63233238 1.7354388 0.61450261 0
-0.55322373 1.4608717 -0.055769514 0
-0.67774123 1.7896792 0.34513503 0
-0.64992911 1.7162371 0.4682126 0
-0.65353715 1.7257646 0.61394238 0
-0.57426286 1.4606291 -0.056031864 0
-0.69561315 1.7692817 0.34286347 0
-0.66501892 1.6914657 0.46370247 0
-0.66653633 1.6953254 0.60605145 0
-0.59320921 1.454756 -0.056088671 0
-0.7148456 1.7530509 0.34143546 0
-0.68275928 1.6743641 0.46133453 0
-0.68201113 1.6725293 0.60092467 0
-0.60709649 1.4367988 -0.055686653 0
-0.74326181 1.7590576 0.34440091 0
-0.70109922 1.6592726 0.4595724 0
-0.7051425 1.6688416 0.60274214 0
-0.62770826 1.4349132 -0.055915482 0
-0.75907379 1.7352089 0.34157598 0
-0.71264821 1.6290821 0.45366001 0
-0.72023028 1.6464143 0.59787017 0
-0.64907217 1.4342904 -0.056205254 0
-0.78367686 1.7317338 0.34280729 0
-0.73548347 1.6252382 0.45513257 0
-0.73513937 1.6244779 0.5932188 0
-0.65968257 1.4101903 -0.055581965 0
-0.80655122 1.7241486 0.34328905 0
-0.75360048 1.6109568 0.45375469 0
-0.75574952 1.6155508 0.59338707 0
-0.6826154 1.4125935 -0.056011036 0
-0.83189207 1.7215042 0.34482092 0
-0.76291072 1.5787554 0.447355 0
-0.77250528 1.5986102 0.59069085 0
-0.70146203 1.4061205 -0.056100164 0
-0.85648203 1.716867 0.34602487 0
-0.78445041 1.5724756 0.44833902 0
-0.78957343 1.582745 0.58845574 0
-0.72206181 1.4029098 -0.056330357 0
-0.87597322 1.7019476 0.34521371 0
-0.80468005 1.5634305 0.44861358 0
-0.79759693 1.5496686 0.57984626 0
-0.74151009 1.397176 -0.056470573 0
-0.89537978 1.6871021 0.34446216 0
-0.81875485 1.5427229 0.44559476 0
-0.82092309 1.5468085 0.58259785 0
-0.75018883 1.3715403 -0.055811819 0
-0.91295433 1.6691179 0.34311023 0
-0.83944798 1.5347291 0.44630361 0
-0.84170914 1.5388632 0.58355111 0
-0.76884866 1.3645592 -0.05591727 0
-0.93489879 1.6592664 0.34347787 0
-0.84516531 1.5000066 0.4392662 0
-0.84800243 1.505042 0.5747295 0
-0.79079825 1.3630941 -0.056260828 0
-0.96235776 1.6588101 0.34586456 0
-0.8663587 1.4933372 0.44047293 0
-0.87237704 1.503711 0.57837027 0
-0.79965329 1.3392202 -0.055686641 0
-0.97744042 1.6369693 0.34384972 0
-0.87952834 1.472991 0.43770367 0
-0.88165826 1.476558 0.57215124 0
-0.81746697 1.3306971 -0.05575585 0
-0.99096102 1.6131159 0.34143332 0
-0.89251053 1.4528552 0.43502539 0
-0.90320486 1.4702638 0.57407385 0
-0.82854748 1.3114196 -0.055380885 0
-1.0205758 1.6153607 0.34460124 0
-0.91603273 1.4498906 0.43755689 0
-0.91322273 1.445443 0.56882739 0
-0.86008364 1.3241137 -0.056369852 0
-1.0431371 1.6059277 0.34536371 0
-0.93282193 1.4360956 0.43690395 0
-0.93132132 1.4337853 0.56880975 0
-0.87118924 1.3049432 -0.056016307 0
-1.059302 1.586715 0.34407321 0
-0.94118762 1.4097929 0.43247324 0
-0.94562811 1.4164443 0.56660926 0
-0.88543898 1.2907915 -0.055883013 0
-1.0868393 1.5843927 0.34650987 0
-0.96042442 1.4001052 0.43317702 0
-0.96450639 1.4060559 0.56726706 0
-0.91010952 1.2915864 -0.056409109 0
-1.1036444 1.5662425 0.34555236 0
-0.98688668 1.4005451 0.43712327 0
-0.97681153 1.3862469 0.56419295 0
-0.91404992 1.2630967 -0.055663113 0
-1.1242155 1.5535178 0.34584078 0
-0.99363732 1.373076 0.43242076 0
-0.99732357 1.3781699 0.56597203 0
-0.93550098 1.2590507 -0.055999506 0
-1.1365066 1.5295756 0.3436695 0
-1.004884 1.3524303 0.4298698 0
-0.99895245 1.3444474 0.55724484 0
-0.94578254 1.2399647 -0.055675898 0
-1.1584785 1.518819 0.34450299 0
-1.0190129 1.3359731 0.4286834 0
-1.0267847 1.3461622 0.56326991 0
-0.96760178 1.2359817 -0.056039698 0
-0.58182591 0.74320465 0.033697072 0
-0.58922386 0.75265455 0.1027259 0
-0.58793151 0.75100374 0.1720105 0
-1.0392754 1.3275352 0.430141 0
-1.0400335 1.3285035 0.56131643 0
-0.98746204 1.2291455 -0.056289058 0
-0.58298129 0.72566724 0.03323213 0
-0.60333872 0.7510072 0.10352978 0
-0.59694153 0.74304426 0.17189549 0
-1.0601302 1.3195995 0.43186089 0
-1.0476937 1.3041191 0.55654365 0
-0.4960548 0.61746532 0.46972007 0
-0.99503857 1.207126 -0.055850044 0
-0.60784602 0.7374053 0.034117498 0
-0.60476875 0.7336722 0.10218178 0
-0.60367376 0.73234379 0.171165 0
-1.0675828 1.2951328 0.42821932 0
-1.0701579 1.2982566 0.55974829 0
-1.0160401 1.2014561 -0.056175206 0
-0.6026122 0.71258217 0.10029338 0
-0.61135679 0.72292256 0.1707488 0
-1.0877675 1.286273 0.42978474 0
-1.0846852 1.2826282 0.55885464 0
-1.0349073 1.1929711 -0.056383327 0
-0.61721307 0.71148139 0.10122432 0
-0.62030625 0.715047 0.17072003 0
-1.1000477 1.2680606 0.42829382 0
-1.0908213 1.257425 0.55381423 0
-1.046041 1.1755693 -0.056178961 0
-0.63372523 0.71219766 0.10245343 0
-0.6164028 0.69273025 0.16723172 0
-1.1172385 1.255583 0.42879722 0
-1.1037561 1.2404312 0.55240726 0
-1.1157559 1.2539169 0.69494164 0
-0.51705468 0.58108008 0.46128288 0
-1.0518212 1.1525109 -0.055705559 0
-0.64140946 0.70281082 0.10225686 0
-0.63625294 0.69716066 0.17022192 0
-1.1260254 1.2338185 0.42617294 0
-1.1382798 1.2472459 0.56178081 0
-1.1375302 1.2464247 0.69867253 0
-0.53577459 0.58706367 0.47135121 0
-1.0626121 1.1352897 -0.055515528 0
-0.64141464 0.68528438 0.10087397 0
-0.64169919 0.68558836 0.1693559 0
-1.1421863 1.2203065 0.42643982 0
-1.1426998 1.2208551 0.55633092 0
-1.1516191 1.2303843 0.69775462 0
-0.55736786 0.5954892 0.48371276 0
-1.0827582 1.128004 -0.055821545 0
-0.58110315 0.60538596 0.34743834 0
-0.59759748 0.6225695 0.4317781 0
-0.55573934 0.57896227 0.47593474 0
-1.0915189 1.1088399 -0.055548951 0
-0.57344759 0.58254743 0.4089967 0
-0.5650633 0.5740301 0.47769156 0
-1.1087173 1.0983005 -0.055715952 0
-0.58090472 0.57544684 0.40911475 0
-0.57713568 0.57171327 0.48177314 0
-1.1279233 1.0895323 -0.05598722 0
-0.60620832 0.58557487 0.34896782 0
-0.60399204 0.58343399 0.42016709 0
-1.1415039 1.0751983 -0.05598484 0
-0.61371928 0.5780707 0.34907359 0
-0.61837977 0.58246046 0.42504004 0
-1.1439384 1.0506254 -0.055450998 0
-0.70255113 0.64524287 0.10251447 0
-0.69710946 0.64024508 0.17070128 0
-1.2330863 1.1325014 0.42715082 0
-1.239426 1.138324 0.55987185 0
-1.2302194 1.1298683 0.69158155 0
-1.1638286 1.0421851 -0.055774584 0
-0.69971776 0.62658316 0.10094173 0
-0.69704843 0.62419277 0.16874829 0
-1.2502687 1.1195904 0.42818528 0
-1.2440954 1.1140623 0.55560011 0
-1.2503104 1.1196277 0.69489521 0
-1.1804374 1.0305728 -0.055944193 0
-0.7136634 0.62305892 0.10181364 0
-0.70591879 0.61629754 0.16900356 0
-1.2545753 1.0952983 0.42490301 0
-1.2628154 1.1024922 0.55771607 0
-1.1886345 1.0116402 -0.055724531 0
-0.71646541 0.60977966 0.10110993 0
-0.72394669 0.61614698 0.17144853 0
-1.2724537 1.0829782 0.42630568 0
-1.2809342 1.0901959 0.55961096 0
-1.2074808 1.0017395 -0.056012262 0
-0.73616529 0.61073089 0.10279659 0
-0.73274863 0.60789639 0.1717066 0
-1.2942243 1.0737028 0.42903575 0
-1.2987808 1.0774829 0.5614357 0
-1.2172737 0.98425353 -0.055887178 0
-0.7395761 0.59800053 0.10221327 0
-0.74142402 0.59949476 0.17195693 0
-1.3162259 1.0642635 0.43185249 0
-1.3044662 1.054755 0.55810779 0
-1.2301842 0.9693324 -0.055915087 0
-0.74718875 0.58875263 0.03396168 0
-0.75238812 0.59284955 0.10294406 0
-0.75464928 0.59463125 0.17327388 0
-1.3146607 1.0358962 0.42702526 0
-1.3168521 1.0376229 0.55777252 0
-1.2499192 0.95962191 -0.056258392 0
-0.74738365 0.5738017 0.033639457 0
-0.7499609 0.57578039 0.10161189 0
-0.74939859 0.57534868 0.17039128 0
-1.3395616 1.0284446 0.43087286 0
-1.3230171 1.0157427 0.55492228 0
-1.2553345 0.93889517 -0.055965558 0
-0.76010042 0.5684976 0.033886939 0
-0.76108545 0.56923431 0.10213988 0
-0.76132929 0.5694167 0.17146008 0
-1.3473173 1.0076914 0.42925203 0
-1.3512393 1.0106248 0.56137741 0
-1.2616206 0.91905457 -0.055725448 0
-0.77963436 0.56794131 0.034436241 0
-0.77827811 0.56695336 0.10348088 0
-0.76296407 0.55579746 0.17023857 0
-1.3683404 0.99679679 0.43191668 0
-1.3685001 0.99691314 0.56328851 0
-1.2779269 0.90652567 -0.055937052 0
-0.78573257 0.55737674 0.03439286 0
-0.77371627 0.54885268 0.10194731 0
-0.77529359 0.54997158 0.1714308 0
-1.3805519 0.97932494 0.43184447 0
-1.382809 0.98092604 0.56404924 0
-1.2841635 0.88685727 -0.055716798 0
-0.7910195 0.5462867 0.034320455 0
-0.77916741 0.53810149 0.10176469 0
-0.78439248 0.54170996 0.17192076 0
-1.410179 0.97388494 0.43724126 0
-1.3955075 0.96375263 0.56423402 0
-1.3036424 0.87627357 -0.056078747 0
-0.79413038 0.53379321 0.034161083 0
-0.7997731 0.53758609 0.1035636 0
-0.80898285 0.54377663 0.17579569 0
-1.4073257 0.94596672 0.4326289 0
-1.4030768 0.9431107 0.56244826 0
-1.3189571 0.86265743 -0.056265794 0
-0.80760181 0.52820802 0.034451734 0
-0.81238842 0.53133869 0.10432252 0
-0.8069576 0.52778667 0.17389759 0
-1.4391303 0.94125617 0.43872762 0
-1.428515 0.93431324 0.56788433 0
-1.3161576 0.83735675 -0.055692147 0
-0.82201713 0.52297807 0.034782991 0
-0.80965549 0.51511347 0.10313044 0
-0.80841768 0.51432598 0.17280288 0
-1.4535573 0.9247722 0.43954086 0
-1.4490091 0.92187864 0.57137138 0
-1.3370844 0.82720679 -0.05613244 0
-0.82729584 0.51181865 0.034730893 0
-0.82553506 0.51072931 0.10432566 0
-0.83452034 0.51628816 0.17697874 0
-1.4585586 0.90235853 0.43758258 0
-1.4671906 0.90769887 0.57398814 0
-1.3578093 0.81656939 -0.056566343 0
-0.84044284 0.50543171 0.035012852 0
-0.85562569 0.51456249 0.10730097 0
-0.84094608 0.50573432 0.17697689 0
-1.4856212 0.89343387 0.44229138 0
-1.4836879 0.89227116 0.57600087 0
-1.346974 0.78713101 -0.055697605 0
-0.91550577 0.53499395 0.037856322 0
-0.91029882 0.53195119 0.11330833 0
-0.9043293 0.52846277 0.18890046 0
-1.5039356 0.87885463 0.44441387 0
-1.5107868 0.88285822 0.58215922 0
-1.3598778 0.77186793 -0.055824853 0
-0.97332525 0.55246031 0.039956339 0
-0.97809786 0.55516928 0.12086777 0
-1.5049088 0.85418767 0.31208074 0
-1.4998738 0.8513298 0.44001094 0
-1.5102276 0.85720658 0.57773858 0
-1.3850052 0.76323485 -0.056457352 0
-1.0503192 0.57879943 0.042814452 0
-1.0524688 0.57998407 0.12914537 0
-1.5172912 0.83613372 0.31244037 0
-1.5253779 0.84059006 0.44435248 0
-1.5187657 0.83694625 0.57692742 0
-1.3798255 0.73788512 -0.055863027 0
-1.1500002 0.61498219 0.046558421 0
-1.1389744 0.60908592 0.13880809 0
-1.5360034 0.82140392 0.3141388 0
-1.5420735 0.82465005 0.44615567 0
-1.5403048 0.82370418 0.58112323 0
-1.3816262 0.71662474 -0.055566192 0
-1.2408525 0.64360791 0.049904555 0
-1.2522619 0.6495257 0.15160576 0
-1.5613375 0.8098377 0.3172093 0
-1.5499271 0.80391932 0.44546375 0
-1.5576873 0.80794442 0.58379668 0
-1.4006883 0.70427424 -0.055971719 0
-1.3832546 0.69550854 0.055275071 0
-1.3945105 0.701168 0.16774495 0
-1.5857518 0.79732519 0.32010424 0
-1.5744698 0.79165256 0.44961679 0
-1.5909008 0.79991418 0.59242249 0
-1.4106758 0.68718159 -0.056020595 0
-1.5361733 0.74831522 0.061004348 0
-1.5337744 0.74714655 0.18335068 0
-1.5907437 0.77489799 0.31911692 0
-1.6044743 0.78158659 0.45533848 0
-1.4296013 0.67426306 -0.056430526 0
-1.6550418 0.78059071 0.19665664 0
-1.5973196 0.75336635 0.31850776 0
-1.6105856 0.75962317 0.45432225 0
-1.4235536 0.64962679 -0.055864472 0
-1.621109 0.73977953 0.19150259 0
-1.6306012 0.74411124 0.32325014 0
-1.6185832 0.73862696 0.45391861 0
-1.4315306 0.63161141 -0.05586097 0
-1.6608201 0.73277724 0.19508819 0
-1.6344639 0.72114849 0.32219017 0
-1.6503861 0.72817361 0.46022955 0
-1.4426253 0.61492431 -0.055987313 0
-1.6716412 0.71254325 0.19528987 0
-1.6557226 0.7057578 0.32460317 0
-1.6598786 0.70752937 0.46035564 0
-1.4528965 0.59779859 -0.056089342 0
-1.6865896 0.69395232 0.19599979 0
-1.6714529 0.68772429 0.32596347 0
-1.6736549 0.68863028 0.46173483 0
-1.455752 0.57764953 -0.055914339 0
-1.6919218 0.67136288 0.19562152 0
-1.6971723 0.6734463 0.32929933 0
-1.7141504 0.68018329 0.47050667 0
-1.4633565 0.55944479 -0.055931408 0
-1.7023032 0.65079468 0.19585878 0
-1.709373 0.65349752 0.33004376 0
-1.7183195 0.65691781 0.46934327 0
-1.4866654 0.54700214 -0.056554552 0
-1.7249134 0.63466287 0.19752504 0
-1.7240051 0.63432872 0.33130044 0
-1.7206571 0.63309681 0.46776718 0
-1.4764802 0.52224284 -0.055912498 0
-1.7352837 0.61378372 0.19781184 0
-1.7493403 0.61875558 0.33464524 0
-1.759136 0.62222046 0.47606003 0
-1.4773134 0.50170034 -0.055700399 0
-2.0104115 0.68274218 0.075800247 0
-1.75792 0.59699523 0.19951947 0
-1.773831 0.60239869 0.33785239 0
-1.7618433 0.59832764 0.47471616 0
-1.4881692 0.48457545 -0.055875208 0
-1.9909427 0.64828783 0.07475248 0
-1.7886982 0.58243322 0.20216428 0
-1.7835568 0.58075911 0.33828512 0
-1.782674 0.58047163 0.47832143 0
-1.5000919 0.46765077 -0.056097317 0
-1.9448916 0.60631615 0.072731003 0
-1.7947184 0.55949998 0.2020324 0
-1.8151335 0.56586432 0.34289557 0
-1.4889508 0.44368663 -0.055467356 0
-1.923945 0.57330883 0.071672037 0
-1.8054032 0.53798503 0.20245655 0
-1.8129774 0.54024202 0.34117609 0
-1.4920118 0.42421922 -0.055377994 0
-1.8998361 0.54017466 0.070514932 0
-1.8444986 0.52444077 0.20608379 0
-1.8377185 0.52251297 0.34456649 0
-1.515427 0.41032517 -0.056050863 0
-1.8785045 0.50863397 0.069479957 0
-1.8704835 0.50646216 0.20825799 0
-1.8554595 0.50239414 0.34667924 0
-1.5183997 0.39067802 -0.05597442 0
-1.9079244 0.49090114 0.070333891 0
-1.8817017 0.48415411 0.20881167 0
-1.8777758 0.48314402 0.34968445 0
-1.5232965 0.37155247 -0.055978019 0
-1.9160377 0.46734732 0.070410453 0
-1.9020433 0.46393391 0.21040402 0
-1.9102323 0.4659313 0.35460788 0
-1.532907 0.35350814 -0.056163155 0
-1.9323188 0.44561768 0.070796937 0
-1.9201742 0.44281697 0.21177605 0
-1.9247421 0.4438704 0.35623562 0
-1.5396577 0.33470529 -0.056251612 0
-1.9616995 0.42645273 0.071670964 0
-1.9429817 0.42238367 0.21368794 0
-1.9455971 0.42295223 0.3590813 0
-1.535338 0.31357458 -0.055945095 0
-1.9671915 0.40177551 0.071681097 0
-1.9702574 0.40240169 0.2161133 0
-1.9559282 0.3994751 0.36003107 0
-1.530079 0.29248118 -0.055614851 0
-1.9930496 0.38098001 0.07244277 0
-1.9792662 0.37834525 0.21656169 0
-1.9697958 0.37653497 0.3616823 0
-1.5494318 0.27600545 -0.056187499 0
-1.9955171 0.35546809 0.072364025 0
-1.9937481 0.35515296 0.21763967 0
-2.4913731 0.44379655 0.45638892 0
-1.5529028 0.25649393 -0.056191795 0
-2.0271516 0.33482587 0.073352478 0
-2.0453212 0.337827 0.22278742 0
-2.4611998 0.40651792 0.44988817 0
-1.5596867 0.2374806 -0.056324594 0
-2.0619729 0.31395957 0.074463539 0
-2.0365846 0.31009391 0.2213929 0
-2.4311359 0.37016898 0.44350553 0
-1.5523908 0.21640676 -0.055958275 0
-2.0701802 0.28858775 0.074622773 0
-2.0712285 0.2887339 0.2247459 0
-1.5579609 0.19721887 -0.05606509 0
-2.1020489 0.26609382 0.075644754 0
-2.098217 0.26560873 0.22729346 0
-1.5543321 0.17690505 -0.055849914 0
-1.9908632 0.22658849 0.071535252 0
-1.9958607 0.22715728 0.21587852 0
-1.9833369 0.22573189 0.36000147 0
