# .PCD v0.7 - Point Cloud Data file format
VERSION 0.7
FIELDS x y z intensity
SIZE 4 4 4 4
TYPE F F F F
COUNT 1 1 1 1
WIDTH 1358
HEIGHT 1
VIEWPOINT 0 0 0 1 0 0 0
POINTS 1358
DATA ascii
-1.4948468 -0.48674983 -0.056125931 0
-1.3314347 -0.43353981 0.46585205 0
-1.4965739 -0.5082413 -0.056426592 0
-1.2980489 -0.44082156 0.45607683 0
-1.4635665 -0.51767516 -0.055423472 0
-1.3045902 -0.46144396 0.46038023 0
-1.4782295 -0.54389828 -0.056233644 0
-1.2880393 -0.47391987 0.45660931 0
-1.4662262 -0.56054187 -0.056041092 0
-1.2580065 -0.48093894 0.44807401 0
-1.458637 -0.5787943 -0.056025151 0
-1.2791845 -0.50758666 0.45785746 0
-1.4433639 -0.59387642 -0.055721335 0
-1.2351561 -0.50820869 0.34075999 0
-1.268181 -0.52179688 0.4562346 0
-1.4301598 -0.60961086 -0.055503536 0
-1.2313495 -0.52486724 0.34150612 0
-1.2602149 -0.53717124 0.45576608 0
-1.4327061 -0.63213015 -0.055906847 0
-1.1574805 -0.51069665 0.322777 0
-1.2489759 -0.55106574 0.454175 0
-1.4241168 -0.64988381 -0.055886578 0
-1.1837091 -0.5401758 0.23465835 0
-1.1347412 -0.51782966 0.31822902 0
-1.4101737 -0.6651001 -0.055663656 0
-1.1636257 -0.54881716 0.2320286 0
-1.1340293 -0.53485823 0.31989279 0
-1.1959962 -0.56408453 0.43993673 0
-1.4157777 -0.68966693 -0.056223206 0
-1.1560993 -0.56316996 0.23192351 0
-1.1271279 -0.54905713 0.31987095 0
-1.1959082 -0.58256203 0.44256765 0
-1.3913711 -0.69958949 -0.055599403 0
-1.1501576 -0.5783059 0.23217399 0
-1.1483574 -0.5774008 0.3279331 0
-1.1847237 -0.59568596 0.44116956 0
-1.3982022 -0.72522235 -0.05623284 0
-1.1451946 -0.59399188 0.23266359 0
-1.1540687 -0.59859467 0.33169028 0
-1.3640565 -0.72945237 -0.055224609 0
-1.247874 -0.66732186 0.36103734 0
-1.3799883 -0.76047021 -0.056252848 0
-1.1346139 -0.62525171 0.33052039 0
-1.3541447 -0.76861376 -0.055589497 0
-1.1187439 -0.63500011 0.32820064 0
-1.3546259 -0.79160255 -0.056014016 0
-1.1006024 -0.64315885 0.32522866 0
-1.3416957 -0.80687886 -0.055895049 0
-1.1029805 -0.66331857 0.32837358 0
-1.3224518 -0.81815416 -0.055518147 0
-1.3163626 -0.83748722 -0.055700824 0
-1.3053575 -0.85376269 -0.055685647 0
-1.3086609 -0.87964684 -0.056294627 0
-1.2782334 -0.88276196 -0.055459507 0
-2.1459332 -1.4820048 0.093106933 0
-1.2793992 -0.90756994 -0.056001492 0
-2.0499287 -1.4541621 0.089728892 0
-1.27315 -0.92745328 -0.056234691 0
-2.0168262 -1.4692 0.089082666 0
-1.257779 -0.94072354 -0.056074545 0
-1.994457 -1.4917029 0.088917263 0
-1.2424124 -0.95385861 -0.055920515 0
-1.9763392 -1.5173289 0.088954285 0
-1.2380739 -0.9755491 -0.056273695 0
-1.9524828 -1.5384727 0.088745445 0
-1.2257667 -0.99112064 -0.0562771 0
-1.9380873 -1.5670832 0.088980995 0
-1.2047423 -0.99946761 -0.055885229 0
-1.9037815 -1.5793983 0.088312052 0
-1.1983886 -1.0199418 -0.056181811 0
-1.8872703 -1.6062452 0.088477373 0
-1.1909633 -1.0397624 -0.056443043 0
-1.850574 -1.6156309 0.087703817 0
-1.1691031 -1.0469083 -0.05602736 0
-1.8308008 -1.6394452 0.087738141 0
-1.1564077 -1.0620776 -0.056055434 0
-1.8115779 -1.6638044 0.087813996 0
-1.142954 -1.0765641 -0.056055959 0
-1.8011802 -1.6965564 0.088338539 0
-1.1343613 -1.095751 -0.056306787 0
-1.7708393 -1.7105654 0.087899923 0
-1.1268444 -1.1162573 -0.05662689 0
-1.095232 -1.1126118 -0.055737913 0
-1.0836601 -1.1289434 -0.055868044 0
-1.0844615 -1.1586335 -0.056657035 0
-1.0581234 -1.1594163 -0.05603933 0
-1.041284 -1.1702234 -0.055923481 0
-1.0313693 -1.1888927 -0.056190573 0
-1.0108631 -1.1953342 -0.055888977 0
-1.0059351 -1.2203451 -0.056461651 0
-0.99069649 -1.2331716 -0.056473434 0
-0.97045779 -1.2396299 -0.056205109 0
-0.95060641 -1.246289 -0.055959865 0
-0.94566351 -1.272728 -0.056607839 0
-0.91974944 -1.2709726 -0.056010198 0
-0.89759946 -1.2738328 -0.055633731 0
-0.8889643 -1.2959309 -0.056105509 0
-0.86735594 -1.2992015 -0.055769835 0
-0.84970212 -1.3081311 -0.055689443 0
-0.83147144 -1.3160475 -0.055576324 0
-0.81734234 -1.3304943 -0.055747349 0
-0.79907894 -1.3382583 -0.055646643 0
-0.79526407 -1.3707918 -0.056578547 0
-0.77419925 -1.3740554 -0.056306411 0
-0.7511766 -1.3733462 -0.055885304 0
-0.74013174 -1.3945789 -0.056365605 0
-0.71547222 -1.3901067 -0.055816282 0
-0.70269096 -1.408584 -0.056198452 0
-0.68145436 -1.4101908 -0.055915769 0
-0.67231619 -1.437197 -0.056646418 0
-0.64735788 -1.4305022 -0.056056809 0
-0.56567436 -1.2500017 0.45646948 0
-0.62728685 -1.4339497 -0.055877943 0
-0.5483923 -1.2536004 0.45522583 0
-0.60839254 -1.4398661 -0.055805534 0
-0.53310245 -1.2616791 0.45568565 0
-0.59208828 -1.4520071 -0.055982687 0
-0.51849186 -1.271523 0.45684668 0
-0.57462609 -1.461553 -0.05606731 0
-0.49744397 -1.2652414 0.45230338 0
-0.55415136 -1.4633213 -0.055863027 0
-0.48020145 -1.2680452 0.45110828 0
-0.5384804 -1.4778616 -0.056154806 0
-0.47199786 -1.2954 0.45868903 0
-0.51703 -1.4765295 -0.055852376 0
-0.45480457 -1.2988267 0.45783818 0
-0.49859524 -1.4835101 -0.055874508 0
-0.44524586 -1.3247755 0.46497196 0
-0.48165143 -1.4951802 -0.056081168 0
-0.42679122 -1.3248788 0.46308526 0
-0.4651666 -1.5088445 -0.056369517 0
-0.41246462 -1.3378969 0.46578318 0
-0.44253868 -1.5023844 -0.055915553 0
-0.40296826 -1.3680459 0.47447518 0
-0.42558357 -1.5149454 -0.05617914 0
-0.38575935 -1.3731836 0.050922148 0
-0.38755512 -1.379576 0.15400125 0
-0.38591847 -1.37375 0.25734451 0
-0.38253284 -1.3616982 0.36086106 0
-0.38879502 -1.3839896 0.47826901 0
-0.4083105 -1.5270492 -0.056432851 0
-0.37754145 -1.4119753 0.052180238 0
-0.374571 -1.4008662 0.15583898 0
-0.37512761 -1.4029479 0.2619085 0
-0.37302381 -1.3950797 0.36843345 0
-0.37417606 -1.399389 0.48192418 0
-0.38745821 -1.525798 -0.056201853 0
-0.36445138 -1.5149078 -0.055627268 0
-0.34701771 -1.5267228 -0.055896226 0
-0.33134195 -1.5476698 -0.056505896 0
-0.31098312 -1.5475117 -0.056352682 0
-0.29194158 -1.5537963 -0.056443196 0
-0.27054518 -1.5470045 -0.056068275 0
-0.25081193 -1.5488486 -0.056016207 0
-0.23065509 -1.5476227 -0.055862397 0
-0.21189323 -1.5558587 -0.056058928 0
-0.19191295 -1.5553776 -0.055950087 0
-0.15603864 -1.2646308 0.04549133 0
-0.15649614 -1.2683387 0.13734114 0
-0.17060168 -1.5421951 -0.055394214 0
-0.13541692 -1.224134 0.043969754 0
-0.13537274 -1.2237346 0.13231614 0
-0.15361851 -1.5692321 -0.056291416 0
-0.119119 -1.2168154 0.043649539 0
-0.12005845 -1.2264119 0.13243167 0
-0.13295607 -1.5605754 -0.055916391 0
-0.10207783 -1.1981411 0.042930145 0
-0.10232405 -1.2010312 0.12954158 0
-0.1142345 -1.5750657 -0.056379579 0
-0.086034864 -1.186249 0.042461857 0
-0.085365608 -1.1770214 0.12682591 0
-0.093263708 -1.5575123 -0.055704799 0
-0.069390878 -1.1588339 0.041445971 0
-0.069281884 -1.1570137 0.12456617 0
-0.073553555 -1.5566204 -0.055635363 0
-0.054645043 -1.5775465 -0.056354221 0
-0.034540523 -1.5673565 -0.055970233 0
-0.014723098 -1.559219 -0.055668607 0
0.004920735 -1.5625235 -0.055784382 0
0.024841765 -1.578051 -0.056345433 0
0.04450608 -1.5704399 -0.056089241 0
0.063988946 -1.5627375 -0.055838495 0
0.083637699 -1.5613798 -0.055823192 0
0.10318869 -1.5586616 -0.055768039 0
0.12379433 -1.569772 -0.056216884 0
0.14340959 -1.5665568 -0.056161959 0
0.16404408 -1.5734609 -0.056479052 0
0.18243083 -1.5592024 -0.05604526 0
0.20231774 -1.5588554 -0.056119911 0
0.2223357 -1.5590321 -0.05622261 0
0.2395198 -1.5404907 -0.055658314 0
0.26057723 -1.5473274 -0.056019437 0
0.27783984 -1.5317976 -0.055579457 0
0.30071825 -1.5467628 -0.056255389 0
0.31944954 -1.5393819 -0.056128792 0
0.33794045 -1.5313114 -0.055985253 0
0.35447964 -1.5153285 -0.055559698 0
0.37440842 -1.5142924 -0.055690158 0
0.39636657 -1.5206647 -0.056103617 0
0.41392103 -1.5098588 -0.05589281 0
0.4345544 -1.5102801 -0.056106526 0
0.45551237 -1.5112451 -0.056350991 0
0.47123018 -1.4950014 -0.055962123 0
0.4888697 -1.4854643 -0.055831131 0
0.50868809 -1.4825524 -0.055958003 0
0.52904099 -1.4808615 -0.056141175 0
0.54581523 -1.4691581 -0.055953611 0
0.56456542 -1.4629335 -0.055982862 0
0.58105701 -1.4510049 -0.055801954 0
0.59822029 -1.4410189 -0.0557032 0
0.61895746 -1.4395132 -0.055941842 0
0.63783848 -1.4334143 -0.056012522 0
0.65370303 -1.4206334 -0.055830322 0
0.67398214 -1.4174287 -0.05603347 0
0.68729979 -1.3997144 -0.055670906 0
0.7004438 -1.3822163 -0.055321373 0
0.72282583 -1.3829179 -0.055709332 0
0.73969686 -1.3728082 -0.055672884 0
0.75538993 -1.3606235 -0.055560086 0
0.77756763 -1.3599339 -0.055927318 0
0.79622203 -1.3527417 -0.056039423 0
0.80750793 -1.3332251 -0.055647746 0
0.82432914 -1.3231097 -0.055654384 0
0.84562486 -1.3199644 -0.055965543 0
0.87197918 -1.3240956 -0.056601766 0
0.87743652 -1.2965423 -0.055891812 0
0.89691406 -1.2900258 -0.05609332 0
0.91258425 -1.2779278 -0.056062501 0
0.9255693 -1.2621994 -0.055879373 0
0.94336379 -1.253069 -0.055996619 0
0.96772468 -1.2522956 -0.056502134 0
0.96762264 -1.2200975 -0.055594731 0
0.99029887 -1.2168987 -0.056012746 0
0.99274212 -1.1890022 -0.055299707 0
1.0298666 -1.202364 -0.056519821 0
1.0369443 -1.1802189 -0.056088191 0
1.0469077 -1.1617261 -0.055831421 0
1.0602877 -1.1471922 -0.05577017 0
1.0869986 -1.1467806 -0.056411106 0
1.0931208 -1.1245357 -0.055989522 0
1.1120052 -1.1155097 -0.056232847 0
1.1172915 -1.0929376 -0.05579979 0
1.1343471 -1.0820096 -0.055966686 0
1.1517216 -1.0712131 -0.056153946 0
1.1612948 -1.0531594 -0.055969674 0
1.1776681 -1.0412874 -0.0561224 0
1.1918238 -1.0273576 -0.05617604 0
1.2026837 -1.0106047 -0.056083649 0
1.2146318 -0.9948234 -0.056052208 0
1.2284902 -0.98059124 -0.056117471 0
1.2417774 -0.96585244 -0.056164403 0
1.2550846 -0.95108336 -0.056220144 0
1.2674493 -0.93556583 -0.05624184 0
1.2748569 -0.916462 -0.056054011 0
1.2689754 -0.88821447 -0.055299252 0
1.2975692 -0.88409698 -0.056055721 0
1.312314 -0.87015283 -0.056214899 0
1.3224401 -0.85309178 -0.056184046 0
1.3138299 -0.82429755 -0.055372868 0
1.3414322 -0.81825912 -0.056097489 0
1.3390894 -0.79387015 -0.055577062 0
1.3706595 -0.78943336 -0.056470282 0
1.3760854 -0.76964861 -0.056290079 0
1.3785541 -0.74839938 -0.056001123 0
1.3908601 -0.73255831 -0.056121856 0
1.3810209 -0.70530814 -0.055362079 0
1.4044673 -0.69512695 -0.055946667 0
1.4058609 -0.67391366 -0.055659726 0
1.4283299 -0.66269839 -0.056214463 0
1.4291676 -0.64134371 -0.055925153 0
1.439801 -0.62445647 -0.056029107 0
1.4478313 -0.6063962 -0.056040015 0
1.4523168 -0.58689171 -0.055923149 0
1.4621868 -0.56956977 -0.056022596 0
1.4735982 -0.55274779 -0.05618868 0
1.4622977 -0.52760333 -0.055500064 0
1.4715235 -0.51008481 -0.055602029 0
1.4962677 -0.49764854 -0.056295749 0
1.4893767 -0.47461438 -0.055807199 0
1.502221 -0.45795351 -0.056067955 0
1.5033484 -0.43768656 -0.055899896 0
1.5073922 -0.41834876 -0.055849951 0
1.5223289 -0.40192011 -0.056211393 0
1.518838 -0.38060758 -0.055901095 0
1.5382922 -0.36496049 -0.05644349 0
1.5347377 -0.34376445 -0.056149784 0
1.5229256 -0.32103619 -0.055565324 0
1.5372038 -0.30388263 -0.055942226 0
1.5368688 -0.28375748 -0.055795576 0
1.5376682 -0.2639288 -0.055699527 0
1.5456967 -0.24531288 -0.05587402 0
1.5550824 -0.22676738 -0.056105629 0
1.5430943 -0.20521143 -0.055575471 0
1.5539185 -0.18677089 -0.055876181 0
1.5747174 -0.16918553 -0.056542981 0
1.5571885 -0.14749427 -0.055842463 0
1.5532897 -0.12741366 -0.055640694 0
1.5621177 -0.10835538 -0.055903621 0
1.5643523 -0.088734224 -0.055939168 0
1.5830287 -0.069809906 -0.056571092 0
1.5603445 -0.049134091 -0.055733919 0
1.5708988 -0.029673589 -0.056093119 0
1.565661 -0.0098571731 -0.055897221 0
1.5818561 0.0099591361 -0.056475423 0
1.5595455 0.02945913 -0.055687722 0
1.5740473 0.049565587 -0.056223374 0
0.87117767 0.02743274 0.2899794 0
1.5610917 0.068842508 -0.05578715 0
0.91454792 0.040330607 0.30456045 0
1.566154 0.088836424 -0.056003597 0
1.5024894 0.085225202 0.053727034 0
1.5019972 0.085197277 0.16167806 0
1.4935651 0.084718987 0.26979548 0
0.92609346 0.052530482 0.30860114 0
1.5536408 0.10776738 -0.055600259 0
1.4795066 0.10262511 0.052947212 0
1.4759387 0.10237762 0.15899923 0
1.4856018 0.1030479 0.26857013 0
0.94785053 0.065747097 0.31610206 0
1.5594791 0.12792137 -0.055862412 0
1.4534307 0.1192224 0.052063629 0
1.467006 0.12033597 0.15818763 0
1.4658983 0.12024511 0.26526079 0
0.95194238 0.07808619 0.31776941 0
1.5542271 0.14721377 -0.055736262 0
1.4339479 0.13582112 0.05142292 0
1.4431567 0.13669337 0.15578921 0
1.4524213 0.1375709 0.26311466 0
0.97994328 0.092818573 0.32748061 0
1.5689179 0.16856244 -0.056334741 0
1.4285523 0.15348175 0.05129467 0
1.4330171 0.15396145 0.15489164 0
1.4083627 0.15131262 0.25545812 0
1.0068865 0.10817854 0.33691308 0
1.553151 0.18667863 -0.05584858 0
1.4163342 0.17023413 0.050928887 0
1.4090195 0.16935496 0.1525162 0
1.4128952 0.1698208 0.2566478 0
1.007724 0.12112187 0.33767694 0
1.5652643 0.20815976 -0.056373939 0
1.3930457 0.18525691 0.050171379 0
1.3963521 0.18569662 0.15138614 0
1.4021689 0.1864702 0.25510567 0
0.99391609 0.13217789 0.33358133 0
1.5616679 0.22772768 -0.056343224 0
1.3796333 0.20118278 0.049775623 0
1.3769758 0.20079526 0.14954774 0
1.3865577 0.20219253 0.25270861 0
0.99664968 0.14533482 0.33508644 0
1.5499645 0.24599023 -0.056028295 0
1.3708719 0.21756697 0.049554434 0
1.3655578 0.21672358 0.14859228 0
1.3577479 0.2154841 0.24793273 0
1.0051378 0.15952241 0.33858877 0
1.5465205 0.26544824 -0.056020189 0
1.3895683 0.23850861 0.050334848 0
1.3812838 0.23708662 0.15061641 0
1.3934673 0.23917785 0.25498506 0
0.9983083 0.17135188 0.33698833 0
1.5505097 0.28627604 -0.056290805 0
1.4183681 0.26187828 0.051493444 0
1.4168042 0.26158953 0.15483649 0
1.3969156 0.2579174 0.25619003 0
1.0019696 0.18499714 0.33898368 0
1.5483143 0.30607903 -0.056346562 0
1.4351521 0.28370851 0.052228339 0
1.4294839 0.28258798 0.15659867 0
1.4287592 0.28244472 0.26266149 0
1.3227674 0.26149169 0.34401137 0
0.98713678 0.19514245 0.33477029 0
1.5411612 0.3248803 -0.056230664 0
1.4644765 0.30871499 0.053432755 0
1.4646 0.308741 0.16085875 0
1.4434692 0.3042866 0.26604909 0
1.2965927 0.2733247 0.33807245 0
0.99597663 0.20995414 0.33863792 0
1.5396249 0.34485915 -0.056328591 0
1.4749782 0.33037898 0.05396343 0
1.4788638 0.33124933 0.16287059 0
1.4235574 0.31886128 0.26309827 0
1.300247 0.29124108 0.33995453 0
0.99138761 0.22205998 0.33800158 0
1.5193309 0.36046189 -0.055747755 0
1.5014687 0.35622409 0.05509235 0
1.5094717 0.35812283 0.16672492 0
1.4265052 0.33843899 0.26440975 0
1.2825427 0.30428383 0.33630082 0
1.0093445 0.23946741 0.34512445 0
1.5214757 0.38126856 -0.055998176 0
1.4171541 0.35512644 0.26348448 0
1.2706658 0.31841776 0.33421138 0
0.99173623 0.24852046 0.34014675 0
0.77594626 0.19444537 0.47440186 0
1.5128317 0.39941269 -0.055860717 0
1.4142804 0.37339351 0.26380345 0
1.241794 0.32785422 0.3276774 0
1.0025057 0.26467812 0.34495622 0
0.78622067 0.20757531 0.40685701 0
0.78167886 0.20637619 0.4794575 0
1.5184162 0.4214083 -0.056258399 0
1.4082552 0.39083514 0.26357669 0
1.2419521 0.34468082 0.32883835 0
1.002068 0.27810541 0.34598321 0
0.81005591 0.22481601 0.34806928 0
0.79762453 0.22136591 0.414168 0
0.80883163 0.22447623 0.49780646 0
1.4991868 0.43647495 -0.055745155 0
1.4082692 0.41000509 0.26452464 0
1.2275689 0.35739583 0.32619575 0
1.0087519 0.29368916 0.34954011 0
0.82523865 0.24026093 0.35586485 0
0.80834895 0.23534365 0.42124209 0
0.81504792 0.23729399 0.5034315 0
1.4910241 0.45454016 -0.055650052 0
1.4088053 0.42947567 0.26562011 0
1.2038569 0.36699697 0.32109743 0
0.97994089 0.29873592 0.34083334 0
0.85464537 0.26053947 0.36993122 0
0.83152819 0.25349218 0.43495002 0
0.83861285 0.25565192 0.51993406 0
1.4847779 0.47314891 -0.055634882 0
1.3876657 0.44220251 0.26266345 0
1.1973886 0.3815676 0.32062832 0
0.98478901 0.31381923 0.34386674 0
0.85921222 0.2738021 0.37337074 0
0.85054004 0.27103859 0.44664446 0
0.8374148 0.26685601 0.52123338 0
1.4870162 0.4945716 -0.055947673 0
1.3995728 0.46548849 0.26600567 0
1.1826116 0.39332867 0.31797245 0
0.99197906 0.32992557 0.34780043 0
0.86948079 0.28918347 0.37938526 0
0.86082435 0.28630438 0.45390224 0
0.85898721 0.28569338 0.53685737 0
1.4826908 0.51395583 -0.056023985 0
1.3808007 0.47863692 0.26356244 0
1.1624473 0.40294755 0.31389022 0
0.97593957 0.33829698 0.3436431 0
0.87800354 0.30434871 0.38474575 0
0.88294548 0.30606177 0.46756157 0
0.89307302 0.30957237 0.56055248 0
1.4793814 0.53376722 -0.056148458 0
1.1486744 0.41444668 0.31155565 0
0.9719305 0.35067672 0.34375906 0
0.9077698 0.32752725 0.3995651 0
0.90302455 0.32581514 0.48032889 0
0.91481143 0.3300679 0.57675999 0
1.4663366 0.55002391 -0.055911794 0
1.1561278 0.43366438 0.31503344 0
0.9520849 0.35712773 0.33830366 0
0.91657639 0.34380847 0.40531486 0
0.92665058 0.34758732 0.49518472 0
0.92168224 0.34572369 0.58379024 0
1.465328 0.57079333 -0.056142945 0
1.1309624 0.44054699 0.30966318 0
0.9684186 0.37723085 0.34576797 0
0.94537812 0.36825582 0.42006841 0
0.93819809 0.36545897 0.5037747 0
0.93413794 0.36387739 0.59453475 0
1.4606553 0.59026134 -0.056244235 0
1.1176189 0.45163786 0.30754244 0
0.98559421 0.39828575 0.35366306 0
0.97133482 0.39252341 0.43376386 0
0.97850126 0.39541942 0.52804768 0
0.96301985 0.38916329 0.61598676 0
1.4464819 0.60583103 -0.055987787 0
1.1158791 0.4673644 0.30865866 0
1.0136789 0.42455986 0.36563015 0
0.99374944 0.41621277 0.44607854 0
0.99429393 0.41644081 0.5393573 0
0.9963119 0.41728601 0.64059198 0
1.4261841 0.61855072 -0.055499215 0
1.0973697 0.4759405 0.30517238 0
1.0461046 0.45370629 0.37935656 0
1.0150043 0.44021779 0.45807147 0
1.0163676 0.44080904 0.55429828 0
1.0144786 0.43998981 0.65578282 0
1.4306581 0.6420126 -0.05598348 0
1.0972366 0.49238861 0.30683535 0
1.0764562 0.48306325 0.39253795 0
1.0429165 0.46801221 0.47329041 0
1.051778 0.47198883 0.57680571 0
1.0449876 0.46894163 0.67926776 0
1.4262868 0.66175044 -0.056134053 0
1.0719339 0.49734223 0.30148697 0
1.0734553 0.49804819 0.39369944 0
1.0767506 0.49957711 0.49146071 0
1.0759163 0.49918997 0.59344363 0
1.4149971 0.67829317 -0.056021437 0
1.0669175 0.51143771 0.30186349 0
1.1076299 0.53095359 0.40865299 0
1.1112316 0.53268009 0.51021993 0
1.0990297 0.52683097 0.60980308 0
1.414009 0.69984943 -0.056326754 0
1.0514948 0.52042675 0.29933035 0
1.1429414 0.56568724 0.42427534 0
1.1291455 0.55885917 0.52163488 0
1.1420012 0.56522191 0.63754463 0
1.3949072 0.71240014 -0.055918753 0
1.7182156 0.87751853 0.34795165 0
1.0576074 0.54013598 0.3029826 0
1.1789787 0.60212219 0.44043255 0
1.1665338 0.59576637 0.54232997 0
1.1798238 0.60255373 0.66284317 0
1.3878258 0.73096019 -0.055999421 0
1.6776525 0.88361025 0.34196344 0
1.041206 0.54839742 0.30023843 0
1.2231072 0.64420384 0.45991164 0
1.2167546 0.64085788 0.56938457 0
1.2169486 0.6409601 0.68818039 0
1.3891373 0.75414485 -0.056431044 0
1.6672119 0.90510809 0.34213132 0
1.0261869 0.55710381 0.29790685 0
1.2596805 0.68386447 0.4768641 0
1.2585157 0.68323207 0.59290582 0
1.3668538 0.7644853 -0.05591245 0
1.0194594 0.57018656 0.04170195 0
1.0158995 0.56819558 0.12509435 0
1.021224 0.57117355 0.2110263 0
1.0137508 0.56699377 0.29634574 0
1.3120552 0.73383635 0.50014955 0
1.3123105 0.73397905 0.62255424 0
1.353681 0.77965456 -0.055770781 0
1.0122672 0.58301681 0.041704755 0
1.0128549 0.58335531 0.12561403 0
0.99559325 0.57341337 0.20720556 0
1.0020669 0.57714188 0.29503134 0
1.3253344 0.76332831 0.5088352 0
1.3350208 0.76890713 0.63787055 0
1.3442466 0.79692757 -0.055791106 0
1.0069739 0.59697771 0.041793067 0
0.99208039 0.58814818 0.12394625 0
0.99686873 0.59098691 0.20900327 0
0.99305207 0.5887242 0.29453647 0
1.3800855 0.81817436 0.53376889 0
1.3750291 0.81517673 0.66183847 0
1.3384687 0.81645137 -0.055973556 0
0.98850888 0.60297972 0.041338556 0
0.98070872 0.59822172 0.12345687 0
0.98147583 0.59868962 0.20734014 0
0.98784733 0.6025762 0.29521987 0
1.4135337 0.86224025 0.55086118 0
1.4220482 0.86743402 0.68967295 0
1.3326023 0.83607537 -0.056164052 0
0.97138876 0.6094498 0.040940292 0
0.97134441 0.60942203 0.12323431 0
0.97118223 0.60932022 0.20677008 0
0.96437556 0.60504973 0.29045919 0
1.4476519 0.90825754 0.56856918 0
1.3133308 0.84721541 -0.055797033 0
0.96289462 0.62115288 0.040908705 0
0.96394736 0.62183201 0.1232795 0
0.94210017 0.60773861 0.20219164 0
0.96222669 0.620722 0.29214299 0
1.4747943 0.95137382 0.58388829 0
1.3128901 0.87053478 -0.056239571 0
0.95161676 0.63098615 0.0407639 0
0.94321793 0.62541717 0.12162594 0
0.939246 0.62278354 0.20324604 0
0.95169622 0.63103884 0.29133525 0
1.4765831 0.9790743 0.58943081 0
1.3033378 0.88802743 -0.056304932 0
0.94887614 0.64651549 0.040991988 0
0.94777375 0.64576435 0.12325219 0
0.93763041 0.63885319 0.204621 0
0.93599379 0.63773811 0.28896382 0
1.50343 1.0243599 0.60524881 0
1.2869263 0.90077907 -0.056081511 0
0.92752182 0.64921534 0.04041943 0
0.94410229 0.66082078 0.12384704 0
0.92732441 0.64907718 0.20413941 0
0.92782998 0.64943105 0.28894523 0
1.5262569 1.0682976 0.61980486 0
1.2724373 0.91472268 -0.055947628 0
0.91965562 0.66111696 0.040436216 0
0.92717749 0.66652417 0.12271811 0
0.92961425 0.66827589 0.20647959 0
0.90611267 0.65138125 0.2847138 0
1.5387279 1.1061522 0.63047576 0
1.2538693 0.92554182 -0.055639245 0
0.91170084 0.67297065 0.040455848 0
0.91753554 0.67727751 0.12256102 0
0.91061848 0.67217171 0.2041242 0
0.91751444 0.67726195 0.29095304 0
1.5453514 1.1406988 0.63902444 0
1.2513134 0.94822568 -0.056051224 0
0.9046815 0.68555343 0.040524222 0
0.90016556 0.68213135 0.12137853 0
0.90183157 0.68339378 0.20406733 0
0.89971894 0.68179286 0.28800955 0
1.5640403 1.1852052 0.65287226 0
1.240167 0.96459991 -0.056091566 0
0.88108718 0.68530822 0.03985073 0
0.89366812 0.69509363 0.12167299 0
0.89183104 0.69366473 0.20376477 0
0.89556545 0.69656938 0.28946483 0
1.585409 1.2331287 0.66822088 0
1.2171506 0.9715398 -0.055599473 0
0.87381208 0.69748414 0.039915759 0
0.88651228 0.70762157 0.12190223 0
0.87773824 0.70061809 0.20254453 0
0.87633425 0.6994974 0.28607324 0
1.5933477 1.2718235 0.67826313 0
1.2153888 0.9954434 -0.056087144 0
0.93836409 0.76855105 0.13035268 0
0.94128591 0.77094412 0.21943137 0
0.93326002 0.76437062 0.30777389 0
1.582785 1.296353 0.68066168 0
1.2115141 1.0180249 -0.056495428 0
1.6359082 1.3746396 0.22963828 0
1.6070141 1.35036 0.37855902 0
1.5880723 1.3344436 0.52921993 0
1.5908908 1.3368118 0.69133168 0
1.1865183 1.0227842 -0.055925969 0
1.6107785 1.3884984 0.38353407 0
1.5967479 1.376404 0.53784418 0
1.1727393 1.0369294 -0.055887513 0
1.6024051 1.4168375 0.3857578 0
1.6077971 1.421605 0.54755235 0
1.1566509 1.0489479 -0.055745859 0
1.6143953 1.4640688 0.39305133 0
1.6102331 1.4602941 0.5546003 0
1.1474937 1.0672808 -0.055947807 0
1.6090565 1.4965792 0.39630827 0
1.603884 1.4917681 0.55883908 0
1.1465721 1.0936706 -0.056569848 0
0.60631514 0.57834041 0.3469255 0
0.60426146 0.57638156 0.41782081 0
1.1246752 1.1001604 -0.056168545 0
0.58735371 0.57455105 0.41109982 0
0.60070515 0.58761138 0.49834865 0
1.1138672 1.1173775 -0.056327004 0
0.57616025 0.57797605 0.40832695 0
0.57465023 0.57646126 0.48271713 0
1.0912687 1.1226302 -0.055894654 0
0.58994293 0.60689706 0.35043114 0
0.58290476 0.59965664 0.41842505 0
0.56829375 0.58462572 0.48352322 0
1.070964 1.1298642 -0.055578977 0
0.58217835 0.6141966 0.35038528 0
0.58437777 0.61651707 0.42502144 0
0.56013864 0.59094477 0.48287761 0
1.0597695 1.1466316 -0.055742916 0
1.5782152 1.7075709 0.41934705 0
1.5753366 1.7044562 0.59215122 0
0.53781193 0.58189273 0.46990988 0
1.0434936 1.1579378 -0.055649355 0
1.5647459 1.7363577 0.42154431 0
1.5630507 1.7344767 0.59569567 0
0.52253383 0.57984221 0.46290368 0
1.0352833 1.1783285 -0.055998351 0
1.5573797 1.7725631 0.42553928 0
1.5513026 1.7656461 0.59964412 0
1.0257068 1.1975074 -0.056291532 0
1.5481104 1.807411 0.42919123 0
1.5423349 1.8006681 0.6048944 0
1.0047867 1.2034279 -0.055970643 0
0.57736647 0.69150883 0.03216162 0
1.5277977 1.8298354 0.42991373 0
1.5281025 1.8302004 0.60830295 0
0.98799723 1.2140704 -0.055882562 0
1.5262101 1.8754369 0.4360778 0
1.5194184 1.8670912 0.61415642 0
0.97387022 1.2279751 -0.055953685 0
1.5092798 1.9030855 0.43805283 0
1.5075775 1.900939 0.61899674 0
0.95918995 1.2412511 -0.056003816 0
1.5022852 1.9440502 0.44309261 0
1.4941555 1.9335297 0.62343317 0
0.94594324 1.2564952 -0.056149729 0
1.468248 1.9502721 0.4402619 0
1.4724315 1.9558291 0.6245954 0
0.92179292 1.2570496 -0.055651382 0
1.4568417 1.986696 0.44430789 0
1.4710927 2.00613 0.63469297 0
0.91252047 1.2778383 -0.056058578 0
1.4426376 2.0201824 0.44769868 0
1.4425279 2.0200288 0.63329309 0
0.89848626 1.2922871 -0.056191646 0
1.4196012 2.0418034 0.44849309 0
1.4229134 2.0465674 0.63594544 0
0.88359231 1.3056384 -0.056283932 0
1.4009943 2.0701764 0.45081455 0
1.3918753 2.0567017 0.63359809 0
0.86262065 1.3098848 -0.055994291 0
1.4461595 2.1959853 0.093872868 0
1.4475396 2.198081 0.28284913 0
1.3766981 2.0905085 0.45143133 0
1.3873357 2.1066616 0.64355624 0
0.84511012 1.3191608 -0.055931471 0
1.4137627 2.2067897 0.093566306 0
1.4032208 2.1903346 0.27955642 0
1.3548028 2.1147575 0.45294783 0
1.3617985 2.1256771 0.64407563 0
0.83435464 1.3392015 -0.056331251 0
1.3679719 2.1956971 0.092358299 0
1.3662616 2.1929519 0.27767265 0
1.3384196 2.1482632 0.45647827 0
1.338366 2.1481774 0.6457355 0
0.80739266 1.3330349 -0.055639803 0
1.3442732 2.2194443 0.092637822 0
1.3384246 2.2097881 0.27764842 0
1.3186685 2.17717 0.45905581 0
1.3118033 2.1658354 0.64602685 0
0.79974771 1.3587316 -0.056287564 0
1.3282932 2.2567041 0.093487471 0
1.3188136 2.2405987 0.27941093 0
1.2974004 2.2042189 0.46127781 0
1.287425 2.1872714 0.64753383 0
0.77742028 1.3596761 -0.055916715 0
1.2731338 2.2266586 0.4625822 0
1.2735398 2.2273688 0.65460515 0
0.76033491 1.3695304 -0.055923797 0
1.2423925 2.2378223 0.4616147 0
1.2458007 2.2439611 0.65481913 0
0.74540633 1.3834045 -0.056102607 0
1.2254267 2.2742774 0.46591467 0
1.2188841 2.262135 0.65559167 0
0.72359401 1.3843876 -0.055768538 0
1.1927863 2.2820513 0.46439341 0
1.1958349 2.2878838 0.6586377 0
0.71011025 1.4012915 -0.056084834 0
1.1720093 2.312777 0.46760574 0
1.1646805 2.2983146 0.65736639 0
0.69545728 1.4163275 -0.056331661 0
1.1438107 2.3294177 0.46802101 0
1.1410469 2.3237891 0.66049063 0
0.67608988 1.4218614 -0.0562087 0
1.1142435 2.343327 0.46795952 0
1.1136104 2.3419957 0.66162729 0
0.64658439 1.4051632 -0.055222347 0
1.0829295 2.3534324 0.4672173 0
1.0863736 2.3609171 0.66305554 0
0.63824731 1.4343332 -0.056048427 0
1.0552067 2.371366 0.4681026 0
1.0552598 2.3714855 0.66223919 0
0.62039179 1.4428489 -0.056071475 0
1.0256844 2.3854403 0.4682942 0
1.0238061 2.3810723 0.66126382 0
0.59470719 1.4325564 -0.055376075 0
1.0001415 2.409184 0.47044572 0
1.0042508 2.4190829 0.66825503 0
0.58483899 1.4604491 -0.056165155 0
0.96211094 2.4025657 0.46675062 0
0.9646402 2.4088817 0.66202909 0
0.56702721 1.4693127 -0.056226976 0
0.94523668 2.4493501 0.47348961 0
0.93562782 2.4244511 0.66301751 0
0.54170722 1.4581006 -0.055532482 0
0.91111237 2.4524198 0.47182778 0
0.90654749 2.4401326 0.66413146 0
0.52701688 1.4751958 -0.055926383 0
0.87529528 2.4500771 0.4692193 0
0.8764528 2.4533172 0.66466343 0
0.5095945 1.4851942 -0.056057714 0
0.84289706 2.4565921 0.46839717 0
0.8424775 2.4553692 0.66229278 0
0.48910362 1.4861751 -0.055857845 0
0.8134647 2.4717686 0.46930057 0
0.81139326 2.4654744 0.66220999 0
0.47452542 1.5054557 -0.056353457 0
0.77979362 2.4739344 0.46781036 0
0.7815069 2.4793699 0.66324645 0
0.45343369 1.5043488 -0.056093842 0
0.74992913 2.4880264 0.46865228 0
0.74454284 2.4701564 0.65822166 0
0.43410432 1.5087159 -0.056048412 0
0.71593022 2.488193 0.46694854 0
0.71613002 2.4888873 0.6607576 0
0.41616544 1.5180459 -0.056195885 0
0.56311971 2.0540907 0.076039493 0
0.68136668 2.4854198 0.46478108 0
0.68035185 2.4817181 0.65652776 0
0.39556074 1.5175731 -0.055989556 0
0.52215785 2.0032644 0.073908716 0
0.6478802 2.4855995 0.46325234 0
0.65104926 2.4977574 0.65854996 0
0.37384433 1.5120108 -0.05560625 0
0.49130416 1.9870764 0.073077433 0
0.61710125 2.4958618 0.46367997 0
0.62107587 2.5119371 0.66017413 0
0.35968119 1.5375642 -0.056374971 0
0.45503485 1.9451816 0.071320318 0
0.58584893 2.5043852 0.46385616 0
0.58427209 2.4976447 0.65443242 0
0.33707333 1.5273823 -0.055841599 0
0.41946512 1.9007246 0.069491118 0
0.55424911 2.5114722 0.46383932 0
0.55376548 2.5092807 0.65560222 0
0.31709999 1.5280597 -0.055715967 0
0.39006096 1.8796483 0.068535559 0
0.51908773 2.5014098 0.4607372 0
0.51954973 2.5036364 0.65236646 0
0.29919928 1.5389498 -0.055971231 0
0.35844296 1.8436735 0.067053951 0
0.4868193 2.5039849 0.46004593 0
0.48451349 2.4921248 0.64772588 0
0.27962291 1.5416281 -0.055936147 0
0.32850096 1.8111044 0.065713771 0
0.45019475 2.4820316 0.45493492 0
0.45213324 2.4927189 0.64634925 0
0.25889823 1.5373573 -0.055658482 0
0.30115035 1.7882537 0.064741932 0
0.30216381 1.7942717 0.19554433 0
0.41976887 2.4926195 0.45587063 0
0.41705084 2.4764795 0.64072597 0
0.14391665 0.85458803 0.43360555 0
0.24063171 1.5476421 -0.055916697 0
0.27295086 1.7555053 0.063426845 0
0.27204031 1.7496489 0.19029282 0
0.38456953 2.4733896 0.45143226 0
0.38786498 2.4945846 0.64409554 0
0.1339016 0.86119878 0.43606967 0
0.2232945 1.5657552 -0.05646506 0
0.24679138 1.7305169 0.062406782 0
0.24767287 1.736698 0.18853013 0
0.35443085 2.4852917 0.45275414 0
0.35530865 2.491447 0.64207929 0
0.1211773 0.84970295 0.42944205 0
0.20204768 1.5567745 -0.056045 0
0.2226011 1.7151383 0.061746214 0
0.22183415 1.709229 0.18523026 0
0.31921431 2.4595418 0.44729543 0
0.3219761 2.4808214 0.6382454 0
0.11344633 0.87410235 0.44101661 0
0.18063498 1.5438534 -0.055493545 0
0.19606163 1.6757022 0.060232829 0
0.19744886 1.6875588 0.18259792 0
0.28753281 2.4574893 0.44622833 0
0.28741136 2.4564514 0.63099462 0
0.10042012 0.85827208 0.43235737 0
0.1616063 1.5500784 -0.05563974 0
0.17235234 1.6531513 0.059339523 0
0.17218697 1.6515651 0.17845456 0
0.25332761 2.4298413 0.44059384 0
0.25562426 2.4518702 0.62894112 0
0.092837103 0.89046526 0.44795039 0
0.14302999 1.5624101 -0.056013297 0
0.15022343 1.6409888 0.058830392 0
0.14992604 1.6377401 0.17674275 0
0.22386694 2.4454448 0.44287694 0
0.22360583 2.4425926 0.6257894 0
0.082477875 0.90095973 0.45267132 0
0.12266962 1.5555102 -0.055706136 0
0.126738 1.6070992 0.057553649 0
0.12748325 1.6165493 0.1742688 0
0.19153966 2.4288154 0.43939367 0
0.19133496 2.4262199 0.62092823 0
0.10370146 1.566407 -0.056045167 0
0.10505269 1.5868174 0.05677544 0
0.10525671 1.5898989 0.17123936 0
0.16039103 2.4227011 0.43788743 0
0.15955454 2.4100659 0.61623102 0
0.083786443 1.5641565 -0.055922464 0
0.086419865 1.6133183 0.057680119 0
0.086269617 1.6105133 0.17332888 0
0.12920529 2.4120526 0.43563417 0
0.1288286 2.4050205 0.6144774 0
0.064138606 1.5663924 -0.055969089 0
0.066207089 1.6169089 0.057774108 0
0.066330068 1.6199124 0.17423673 0
0.097446166 2.3798294 0.42955875 0
0.097279221 2.3757522 0.60663837 0
0.04436506 1.5654638 -0.055911515 0
0.038581174 1.3613738 0.048622314 0
0.046599023 1.6442914 0.17678179 0
0.067047864 2.3658483 0.42684898 0
0.066853017 2.358973 0.60209119 0
0.02442489 1.5515692 -0.055399887 0
0.021279054 1.3517329 0.048264585 0
0.026326474 1.6723657 0.17975023 0
0.036890753 2.343452 0.42269087 0
0.037261229 2.3669863 0.6039688 0
0.004969765 1.5780925 -0.056340218 0
0.0042283563 1.3426665 0.047935162 0
0.0053365254 1.694553 0.18211333 0
0.0073921476 2.3472927 0.42333326 0
0.0073409998 2.3310511 0.59472871 0
-0.014803174 1.5676992 -0.05597138 0
-0.012922139 1.3684921 0.048859112 0
-0.016230917 1.7189013 0.18473735 0
-0.021824574 2.311286 0.41685596 0
-0.02195821 2.3254383 0.59332025 0
-0.034477286 1.5644869 -0.055867761 0
-0.029880455 1.355895 0.048418954 0
-0.038283106 1.7371849 0.18673937 0
-0.05059937 2.2960639 0.41419265 0
-0.050760414 2.3033717 0.58780652 0
-0.054220296 1.5652845 -0.05591619 0
-0.04771176 1.3773897 0.049204081 0
-0.060562361 1.7483734 0.18800916 0
-0.078318082 2.260963 0.40800625 0
-0.078704126 2.2721076 0.58003503 0
-0.073986366 1.5657802 -0.055962741 0
-0.084005132 1.7778081 0.063540861 0
-0.083650917 1.7703118 0.19046645 0
-0.10622832 2.2481196 0.4058978 0
-0.10598236 2.2429142 0.57287771 0
-0.042353809 0.89633739 0.37153 0
-0.093982868 1.5695224 -0.056134339 0
-0.10714997 1.7894142 0.063998826 0
-0.1077586 1.7995783 0.19374584 0
-0.13395524 2.2370646 0.40417433 0
-0.13306053 2.2221227 0.56795013 0
-0.053867165 0.8995865 0.37312829 0
-0.11356287 1.5658054 -0.056048103 0
-0.13309851 1.8351628 0.065689765 0
-0.1589483 2.1915798 0.39628673 0
-0.1600367 2.2065866 0.56444961 0
-0.063453831 0.87490165 0.3631922 0
-0.066149585 0.91207075 0.4575443 0
-0.13329569 1.5645615 -0.056059215 0
-0.15629004 1.8344585 0.065729789 0
-0.18517564 2.1735039 0.39340863 0
-0.18640533 2.1879375 0.56023514 0
-0.073800713 0.86623782 0.35995287 0
-0.077469252 0.90929735 0.45660618 0
-0.15248314 1.5576341 -0.055875372 0
-0.18413761 1.8809886 0.067474723 0
-0.21198258 2.1654284 0.39239898 0
-0.21077266 2.1530688 0.55194265 0
-0.08700937 0.88881153 0.36975905 0
-0.17167439 1.551892 -0.055742517 0
-0.21120057 1.9091984 0.068576634 0
-0.23776168 2.1493042 0.38998872 0
-0.23634553 2.1365025 0.5484153 0
-0.09762764 0.8825286 0.36762753 0
-0.19445655 1.5759926 -0.056691647 0
-0.23819476 1.9304732 0.069443032 0
-0.26174957 2.1213753 0.3854886 0
-0.25927776 2.1013424 0.54018533 0
-0.10890116 0.88260037 0.36819947 0
-0.1060494 0.85948795 0.43329749 0
-0.21079431 1.5477898 -0.055768199 0
-0.26507974 1.9463888 0.070130065 0
-0.28524762 2.0944746 0.38122275 0
-0.28534275 2.0951734 0.53948033 0
-0.11773085 0.86445695 0.3612203 0
-0.11591636 0.85113376 0.42978767 0
-0.23190875 1.5560343 -0.056166019 0
-0.29792389 1.9989749 0.072154239 0
-0.30932572 2.0754778 0.37844402 0
-0.30824897 2.068253 0.53350586 0
-0.30686265 2.0589514 0.69256705 0
-0.12829494 0.86081845 0.36034638 0
-0.13055596 0.87598914 0.44313362 0
-0.25363994 1.5663124 -0.056647811 0
-0.32501921 2.0071037 0.072589621 0
-0.33121055 2.0453372 0.37367904 0
-0.32934767 2.0338333 0.52565539 0
-0.32907733 2.0321639 0.68489617 0
-0.1378787 0.85144764 0.35712218 0
-0.14083128 0.86968082 0.4408046 0
-0.27282295 1.5600289 -0.056540325 0
-0.36001453 2.0585992 0.074610062 0
-0.35386133 2.0234146 0.37045851 0
-0.35228246 2.0143864 0.52173442 0
-0.35230234 2.0145001 0.68038416 0
-0.14998983 0.8576569 0.43563294 0
-0.28938791 1.5402049 -0.055949472 0
-0.38418892 2.0447628 0.074278042 0
-0.38833731 2.0668418 0.22600874 0
-0.37532076 1.997564 0.36656186 0
-0.37483907 1.9950002 0.51789474 0
-0.37320986 1.9863292 0.67240357 0
-0.15882526 0.84531325 0.43034494 0
-0.31061286 1.5456691 -0.056285586 0
-0.4043217 2.0119822 0.073266394 0
-0.40583509 2.0195131 0.22137465 0
-0.39844015 1.9827145 0.36472872 0
-0.3962197 1.9716651 0.51309156 0
-0.39727533 1.9769181 0.67085809 0
-0.17389575 0.86533856 0.44161949 0
-0.32854053 1.5345846 -0.056028154 0
-0.42601112 1.9898614 0.072650447 0
-0.42601919 1.9898992 0.21869913 0
-0.42078367 1.9654444 0.36249778 0
-0.41662982 1.9460422 0.50774866 0
-0.41591415 1.9426993 0.66097093 0
-0.1843293 0.86098635 0.44054797 0
-0.34507671 1.5181832 -0.055583574 0
-0.44784471 1.9703164 0.072137028 0
-0.4475562 1.9690472 0.21700959 0
-0.44221532 1.9455497 0.35982698 0
-0.43601373 1.9182656 0.50189406 0
-0.438021 1.9270966 0.6574868 0
-0.36553401 1.519408 -0.055792514 0
-0.47719878 1.9835627 0.072836228 0
-0.47327179 1.9672395 0.21744993 0
-0.46176007 1.919389 0.35603577 0
-0.45879421 1.9070607 0.50043434 0
-0.46061844 1.9146435 0.65516508 0
-0.3874312 1.5256916 -0.056197934 0
-0.50001466 1.9690417 0.072528467 0
-0.50105989 1.9731578 0.21878418 0
-0.48432493 1.9072559 0.35488829 0
-0.47866476 1.8849664 0.49617887 0
-0.4809556 1.8939877 0.65011775 0
-0.40552944 1.5166483 -0.056048479 0
-0.52615464 1.967777 0.072720163 0
-0.53207469 1.9899176 0.22136787 0
-0.50203186 1.8775598 0.35051113 0
-0.5017817 1.8766241 0.49560684 0
-0.49850407 1.8643661 0.64205384 0
-0.42023408 1.4959029 -0.055472985 0
-0.52134597 1.85583 0.34765252 0
-0.52198714 1.8581122 0.4924148 0
-0.52016824 1.8516375 0.63987529 0
-0.44270247 1.5029405 -0.055936251 0
-0.5382697 1.8273836 0.34356618 0
-0.53393066 1.8126532 0.4821113 0
-0.53551948 1.8180469 0.6305477 0
-0.46558127 1.5101895 -0.056419767 0
-0.55961967 1.8152187 0.34257674 0
-0.55378258 1.7962852 0.47957459 0
-0.55832016 1.8110034 0.63049322 0
-0.47920063 1.4875723 -0.055795811 0
-0.58511388 1.8163565 0.34415472 0
-0.57403338 1.7819595 0.47764191 0
-0.57644188 1.7894361 0.62546211 0
-0.49458393 1.4715749 -0.055424985 0
-0.60456532 1.7988114 0.34224564 0
-0.59692532 1.7760794 0.47804266 0
-0.59242409 1.7626865 0.61867076 0
-0.51867592 1.4812298 -0.056030177 0
-0.62974548 1.7984213 0.34365293 0
-0.61055189 1.7436084 0.47133482 0
-0.60927123 1.7399511 0.61333519 0
-0.53306812 1.4630077 -0.055590391 0
-0.64802551 1.7785087 0.34138012 0
-0.63716424 1.7486999 0.4748424 0
-0.62974429 1.7283359 0.61198753 0
-0.55788022 1.4731679 -0.056238923 0
-0.67700976 1.7877476 0.34476253 0
-0.65141827 1.7201694 0.4692854 0
-0.64911813 1.7140955 0.6097911 0
-0.57195365 1.4547557 -0.055806555 0
-0.69679058 1.7722766 0.34344384 0
-0.66395885 1.6887696 0.46296331 0
-0.67263544 1.7108383 0.61159706 0
-0.59613991 1.4619431 -0.056365777 0
-0.71769702 1.7600436 0.3427974 0
-0.68179947 1.6720102 0.46068597 0
-0.6882714 1.6878818 0.60644066 0
-0.6080969 1.4391664 -0.055778414 0
-0.74374497 1.760201 0.34462479 0
-0.70585942 1.6705383 0.46269271 0
-0.70403397 1.666218 0.6017946 0
-0.63257152 1.4460303 -0.056348696 0
-0.75861621 1.7341628 0.34137008 0
-0.72021699 1.646384 0.45847818 0
-0.71906924 1.6437602 0.59690642 0
-0.64516199 1.4256499 -0.055866662 0
-0.78649348 1.7379577 0.34403938 0
-0.73844999 1.6317935 0.45696834 0
-0.73926657 1.633598 0.59654927 0
-0.66502678 1.4216146 -0.056032248 0
-0.80721819 1.7255744 0.34357291 0
-0.75591451 1.6159035 0.45514798 0
-0.75637895 1.6168964 0.59388125 0
-0.68797439 1.4236833 -0.056450762 0
-0.82210302 1.7012469 0.34076333 0
-0.7747919 1.6033421 0.45432186 0
-0.77057892 1.5946238 0.5892179 0
-0.69020039 1.383546 -0.055199504 0
-0.85349339 1.710876 0.34481743 0
-0.79092878 1.5854617 0.4520416 0
-0.78841311 1.5804189 0.58759099 0
-0.716667 1.392428 -0.055909488 0
-0.87479591 1.6996601 0.34474972 0
-0.80275261 1.5596856 0.447539 0
-0.79937834 1.5531297 0.58114135 0
-0.73873866 1.3919541 -0.056259513 0
-0.89236903 1.6814291 0.34330386 0
-0.82148594 1.5478691 0.44708112 0
-0.82579571 1.5559896 0.58605587 0
-0.75234038 1.3754739 -0.055971887 0
-0.9189567 1.6800919 0.34536609 0
-0.84357697 1.5422781 0.44849885 0
-0.84000897 1.5357549 0.58237243 0
-0.77215117 1.3704205 -0.056157455 0
-0.94067156 1.6695119 0.34559879 0
-0.8469919 1.5032483 0.44021556 0
-0.85015899 1.5088694 0.57619107 0
-0.78791958 1.3581321 -0.056056026 0
-0.95929128 1.6535245 0.3447625 0
-0.87295943 1.5047148 0.44382888 0
-0.87153083 1.5022523 0.57780921 0
-0.80496091 1.3481091 -0.056056257 0
-0.98017472 1.6415486 0.34481162 0
-0.8824563 1.4778945 0.43916079 0
-0.8848455 1.4818958 0.57421964 0
-0.81748849 1.3307321 -0.055757318 0
-0.9997915 1.6274904 0.34447584 0
-0.90219784 1.4686245 0.43974715 0
-0.90031487 1.4655594 0.57223696 0
-0.8417635 1.3323377 -0.056264255 0
-1.016001 1.6081198 0.34305656 0
-0.91508877 1.4483966 0.43710601 0
-0.91623294 1.4502076 0.57070237 0
-0.85887176 1.322248 -0.056290425 0
-1.0450745 1.6089104 0.34600514 0
-0.93961018 1.4465462 0.44008338 0
-0.93262857 1.4357979 0.56960815 0
-0.87098265 1.3046339 -0.056003027 0
-1.0612417 1.5896205 0.34470326 0
-0.94752854 1.4192909 0.4353869 0
-0.94401705 1.4140311 0.56564391 0
-0.88205373 1.2858566 -0.055669356 0
-1.0752504 1.5674984 0.34281504 0
-0.96156824 1.4017727 0.43369293 0
-0.96447206 1.4060059 0.56724685 0
-0.90795463 1.2885283 -0.05627555 0
-1.1016231 1.5633738 0.34491944 0
-0.98336792 1.3955514 0.4355647 0
-0.98229414 1.3940276 0.56735963 0
-0.91036618 1.2580062 -0.055438783 0
-1.1180485 1.5449959 0.34394369 0
-0.99296671 1.3721493 0.43212894 0
-0.9905104 1.368755 0.5621056 0
-0.9352302 1.2586863 -0.055983298 0
-1.1366807 1.52981 0.34372216 0
-0.99375057 1.3374463 0.42510715 0
-1.008468 1.357254 0.56255293 0
-0.94 1.2323835 -0.055335492 0
-1.1585928 1.5189688 0.34453699 0
-1.0213734 1.3390678 0.42967641 0
-1.0262383 1.3454459 0.56297022 0
-0.97143084 1.2408729 -0.056261465 0
-0.59138119 0.75541025 0.034250479 0
-0.58545136 0.7478357 0.1020682 0
-0.58949929 0.7530064 0.17246918 0
-1.036777 1.3243438 0.42910695 0
-1.0321903 1.3184849 0.55708343 0
-0.98010868 1.2199924 -0.055869889 0
-0.59598404 0.74185246 0.03397334 0
-0.59615678 0.74206746 0.1022974 0
-0.59644252 0.74242312 0.17175178 0
-1.0591928 1.3184326 0.43147898 0
-1.0467758 1.3029765 0.55605602 0
-0.49334374 0.61409068 0.46715295 0
-0.99148828 1.202819 -0.055650771 0
-0.59840131 0.7259475 0.033587381 0
-0.60790521 0.73747712 0.10271171 0
-0.60398602 0.73272264 0.17125356 0
-1.0685467 1.296302 0.42860588 0
-1.0596863 1.2855531 0.55427104 0
-1.0189955 1.2049508 -0.056338608 0
-0.6118173 0.72346711 0.10182539 0
-0.61389935 0.72592914 0.17145893 0
-1.0863731 1.2846241 0.42923379 0
-1.0784583 1.275265 0.55564642 0
-1.0247074 1.1812133 -0.055827618 0
-0.6278401 0.72373152 0.10296717 0
-0.61413109 0.70792872 0.1690205 0
-1.1047802 1.2735157 0.43013635 0
-1.0978354 1.2655103 0.55737537 0
-1.048082 1.177863 -0.056288574 0
-0.6394062 0.71858209 0.10337187 0
-0.61348897 0.68945563 0.1664412 0
-1.1139703 1.2519101 0.42754287 0
-1.1180898 1.2565397 0.55958098 0
-1.122146 1.2610983 0.69892168 0
-0.52291626 0.58766752 0.46651223 0
-1.0542834 1.1552087 -0.055835955 0
-0.63746798 0.69849205 0.1016285 0
-0.63745517 0.69847798 0.17054357 0
-1.1316911 1.2400266 0.42831722 0
-1.1392925 1.2483556 0.5622806 0
-1.1205243 1.2277908 0.68822747 0
-0.52472305 0.57495415 0.46162853 0
-1.0742942 1.1477709 -0.056125857 0
-0.6519202 0.69650847 0.10252616 0
-0.63787192 0.68149936 0.16834582 0
-1.1442789 1.2225422 0.42722109 0
-1.1468374 1.2252756 0.55834532 0
-1.1249342 1.2018744 0.68158656 0
-0.55474484 0.59268677 0.48143637 0
-1.0918003 1.1374239 -0.056287713 0
-0.57887036 0.60305989 0.34610337 0
-0.57941562 0.60362792 0.41864127 0
-0.56479561 0.58839697 0.4836905 0
-1.1030211 1.1205245 -0.056134313 0
-0.571661 0.58073246 0.40772247 0
-0.56750643 0.57651198 0.47975692 0
-1.110239 1.0998079 -0.055792421 0
-0.58673161 0.58121908 0.4132185 0
-0.586519 0.58100843 0.48960599 0
-1.1293548 1.0909151 -0.05605828 0
-0.61369127 0.59280306 0.35327542 0
-0.60293055 0.58240861 0.41942865 0
-1.1354256 1.0694729 -0.055686727 0
-0.61854285 0.58261406 0.35181713 0
-0.61144334 0.57592696 0.42027232 0
-1.1567693 1.0624096 -0.056072958 0
-0.6908682 0.6345129 0.10080972 0
-0.69758826 0.64068484 0.17081854 0
-1.2382871 1.137278 0.42895243 0
-1.2282594 1.1280682 0.55482769 0
-1.2285095 1.1282979 0.69062036 0
-1.1692739 1.0470612 -0.056035541 0
-0.71032304 0.63607997 0.10247165 0
-0.70865196 0.63458353 0.17155738 0
-1.2393725 1.109833 0.42445362 0
-1.2412429 1.1115079 0.55432618 0
-1.2437954 1.1137936 0.69127429 0
-1.1884452 1.0375639 -0.056323703 0
-0.71639878 0.62544703 0.10220388 0
-0.71055204 0.62034255 0.1701128 0
-1.2629582 1.1026169 0.42774215 0
-1.2720275 1.1105349 0.56178457 0
-1.2025208 1.0234587 -0.056375533 0
-0.72084022 0.61350304 0.10172732 0
-0.70591128 0.60079712 0.16717729 0
-1.2754045 1.0854896 0.42729428 0
-1.2712473 1.0819515 0.55537897 0
-1.2019832 0.99717867 -0.055757243 0
-0.72835147 0.60424846 0.10170548 0
-0.7304554 0.60599387 0.17116921 0
-1.2913418 1.0713115 0.42808017 0
-1.2915767 1.0715064 0.55832154 0
-1.2304968 0.99494529 -0.05649427 0
-0.74527329 0.60260713 0.10300066 0
-0.73663151 0.59561968 0.17084542 0
-1.3107208 1.0598122 0.43004626 0
-1.297335 1.0489888 0.55505669 0
-1.2258486 0.96591604 -0.05571802 0
-0.74067479 0.58361995 0.033665605 0
-0.73276883 0.57739037 0.10025969 0
-0.74646777 0.58818454 0.17139533 0
-1.329883 1.0478907 0.43196973 0
-1.3237635 1.0430688 0.56069994 0
-1.2509935 0.96044672 -0.05630675 0
-0.77054542 0.59158409 0.034681961 0
-0.76586068 0.58798736 0.10376614 0
-0.75959778 0.58317906 0.17271027 0
-1.3389983 1.0280123 0.43069169 0
-1.3444234 1.0321773 0.56390089 0
-1.2601411 0.94249016 -0.056179848 0
-0.77069837 0.57642406 0.034359422 0
-0.75384676 0.56382036 0.10116842 0
-0.76124233 0.56935167 0.1714405 0
-1.354275 1.0128951 0.4314687 0
-1.3579317 1.0156302 0.56415784 0
-1.266867 0.92287636 -0.05595718 0
-0.7787239 0.56727803 0.034396026 0
-0.77152145 0.56203127 0.10258251 0
-0.76824659 0.55964559 0.17141724 0
-1.3677454 0.99636334 0.43172887 0
-1.3604141 0.99102271 0.55996025 0
-1.2842084 0.91098154 -0.056212004 0
-0.7770282 0.55120206 0.034011856 0
-0.78084207 0.55390751 0.10288623 0
-0.77436668 0.54931408 0.17122583 0
-1.3888638 0.98522115 0.43444446 0
-1.3855182 0.98284787 0.56515437 0
-1.2897706 0.89072967 -0.055960078 0
-0.78011358 0.53875494 0.033847272 0
-0.79533297 0.54926562 0.10387603 0
-0.79450321 0.54869258 0.17413682 0
-1.4036072 0.96934646 0.43520361 0
-1.3802168 0.95319283 0.55805171 0
-1.2981912 0.87260944 -0.055844255 0
-0.79822844 0.53654778 0.034337368 0
-0.79913336 0.53715611 0.10348076 0
-0.80479723 0.54096317 0.17488614 0
-1.4249927 0.95784199 0.43805993 0
-1.4213907 0.95542085 0.56978971 0
-1.3171345 0.86146533 -0.056188043 0
-0.80234563 0.52477026 0.034227509 0
-0.81309295 0.5317995 0.10441298 0
-0.81333661 0.53195888 0.17527227 0
-1.4276842 0.93376988 0.43523818 0
-1.435514 0.93889093 0.57066667 0
-1.333813 0.84858936 -0.056439221 0
-0.81614268 0.51924068 0.034534421 0
-0.82776326 0.52663386 0.10543692 0
-0.80919021 0.51481748 0.17296802 0
-1.4505816 0.92287904 0.43864104 0
-1.4524562 0.92407173 0.57273066 0
-1.3287259 0.82203573 -0.055781543 0
-0.81498891 0.50420481 0.034214232 0
-0.82619673 0.51113868 0.10440928 0
-0.82108802 0.50797808 0.17413011 0
-1.4624223 0.90474892 0.43874174 0
-1.4664283 0.90722734 0.57368994 0
-1.3514231 0.81272882 -0.056300297 0
-0.84492373 0.50812644 0.035199527 0
-0.83974564 0.50501239 0.10530951 0
-0.83991998 0.5051173 0.17676096 0
-1.4724741 0.88552731 0.43837726 0
-1.46641 0.88188052 0.56929326 0
-1.3508854 0.78941667 -0.055859342 0
-0.89825249 0.52491164 0.037142895 0
-0.89843202 0.52501661 0.11183122 0
-0.90330523 0.52786434 0.18868655 0
-1.4900398 0.87073439 0.44030768 0
-1.5025985 0.87807328 0.57900399 0
-1.3712429 0.77831876 -0.056291405 0
-0.96734017 0.54906321 0.039710645 0
-0.98720235 0.56033701 0.12199285 0
-1.4991345 0.85091025 0.31088331 0
-1.5095508 0.85682249 0.44284984 0
-1.5160357 0.86050326 0.57996047 0
-1.3815128 0.76131034 -0.05631499 0
-1.0597826 0.58401442 0.043200213 0
-1.0474403 0.57721299 0.12852834 0
-1.5213376 0.83836359 0.31327361 0
-1.5252309 0.84050912 0.44430968 0
-1.5225991 0.83905876 0.57838356 0
-1.390013 0.7433331 -0.056275476 0
-1.1417419 0.61056584 0.046224073 0
-1.1424661 0.61095309 0.13923362 0
-1.5392066 0.8231169 0.31479391 0
-1.5519321 0.82992202 0.44900796 0
-1.5358484 0.82132101 0.57944196 0
-1.4122916 0.7325303 -0.05679949 0
-1.2563486 0.65164542 0.050527778 0
-1.2548215 0.6508534 0.15191565 0
-1.5550152 0.80655849 0.31592485 0
-1.5461985 0.80198538 0.44439211 0
-1.562849 0.81062174 0.58573121 0
-1.4112103 0.70956475 -0.056392182 0
-1.3948036 0.7013154 0.055736568 0
-1.3852404 0.69650698 0.16662987 0
-1.57105 0.78993309 0.31713653 0
-1.5534126 0.78106487 0.44360355 0
-1.5820193 0.79544854 0.5891152 0
-1.4075862 0.68567663 -0.055897906 0
-1.553795 0.75689918 0.061704133 0
-1.5398049 0.75008422 0.1840716 0
-1.5870025 0.77307552 0.31836641 0
-1.5875137 0.77332455 0.45052519 0
-1.425153 0.67216498 -0.056254935 0
-1.6430078 0.77491492 0.19522671 0
-1.6097974 0.75925142 0.32099587 0
-1.6006337 0.75492942 0.45151496 0
-1.4226362 0.64920813 -0.055828471 0
-1.6423031 0.74945134 0.19400625 0
-1.6177405 0.73824239 0.32070068 0
-1.6236311 0.7409305 0.45533425 0
-1.4382223 0.63456392 -0.056122094 0
-1.6438713 0.72529912 0.19309729 0
-1.6452842 0.72592252 0.32432309 0
-1.6427333 0.72479707 0.45809543 0
-1.446133 0.61641949 -0.056123447 0
-1.664878 0.70966035 0.19449975 0
-1.6558845 0.70582682 0.32463491 0
-1.6547188 0.70532995 0.45892459 0
-1.4491556 0.59625942 -0.055944927 0
-1.7029437 0.70068127 0.19790033 0
-1.6708099 0.68745971 0.32583806 0
-1.6795069 0.69103813 0.46334931 0
-1.461897 0.5800879 -0.056150362 0
-1.7085987 0.67798036 0.19754972 0
-1.6832502 0.6679219 0.32659802 0
-1.6971203 0.67342567 0.46583217 0
-1.4725537 0.56296092 -0.056282938 0
