# .PCD v0.7 - Point Cloud Data file format
VERSION 0.7
FIELDS x y z intensity
SIZE 4 4 4 4
TYPE F F F F
COUNT 1 1 1 1
WIDTH 1358
HEIGHT 1
VIEWPOINT 0 0 0 1 0 0 0
POINTS 1358
DATA ascii
-1.4724308 -0.5000422 -0.055516306 0
-1.3210145 -0.44862077 0.46414593 0
-1.4740696 -0.5213902 -0.05582121 0
-1.2959752 -0.45839679 0.45734006 0
-1.4658281 -0.53933525 -0.055761877 0
-1.2906048 -0.47486383 0.45751879 0
-1.4682146 -0.56130207 -0.056117091 0
-1.290659 -0.49342206 0.4597041 0
-1.4579774 -0.57853258 -0.055999815 0
-1.2734481 -0.50531042 0.4558042 0
-1.4608136 -0.60105616 -0.056394987 0
-1.2432499 -0.51153892 0.34299293 0
-1.2572851 -0.51731372 0.45231473 0
-1.4476851 -0.61708111 -0.056183685 0
-1.2190005 -0.51960343 0.33808118 0
-1.2457185 -0.53099203 0.45052332 0
-1.4349486 -0.63311946 -0.055994347 0
-1.1572213 -0.51058233 0.32270476 0
-1.2559923 -0.55416149 0.4567264 0
-1.4404496 -0.65733713 -0.056527521 0
-1.1874573 -0.54188627 0.23540139 0
-1.1432151 -0.52169663 0.32060543 0
-1.4265814 -0.67283869 -0.056311317 0
-1.1764987 -0.55488867 0.23459549 0
-1.1394068 -0.53739446 0.3214097 0
-1.1941396 -0.56320888 0.43925381 0
-1.4088621 -0.68629813 -0.055948574 0
-1.1562413 -0.56323916 0.23195201 0
-1.111643 -0.54151398 0.31547645 0
-1.1932925 -0.58128786 0.44159967 0
-1.4185981 -0.71327937 -0.056687396 0
-1.1612688 -0.5838927 0.23441695 0
-1.1439927 -0.57520616 0.32668671 0
-1.1766497 -0.59162629 0.43816292 0
-1.3969206 -0.72455758 -0.056181293 0
-1.150435 -0.59670997 0.23372824 0
-1.1689938 -0.60633612 0.33597991 0
-1.3815792 -0.73882294 -0.055934023 0
-1.2292017 -0.65733647 0.35563499 0
-1.3611984 -0.75011569 -0.05548691 0
-1.1365657 -0.62632728 0.33108896 0
-1.3522083 -0.76751471 -0.055510007 0
-1.1244954 -0.63826466 0.32988793 0
-1.3579239 -0.79352975 -0.056150384 0
-1.1029086 -0.64450657 0.32591018 0
-1.3363039 -0.80363631 -0.055670429 0
-1.1116359 -0.66852379 0.33095041 0
-1.3407046 -0.82944649 -0.05628442 0
-1.3161931 -0.83737934 -0.055693649 0
-1.3129433 -0.85872418 -0.056009252 0
-1.3102814 -0.88073611 -0.056364339 0
-1.2862066 -0.88826829 -0.055805445 0
-2.1425295 -1.4796542 0.092959255 0
-1.2842767 -0.91102999 -0.056214996 0
-2.0394466 -1.4467263 0.08927007 0
-1.2594209 -0.91745198 -0.055628281 0
-2.0116494 -1.4654289 0.088854015 0
-1.2459844 -0.93190205 -0.055548713 0
-1.9991963 -1.4952475 0.089128546 0
-1.2531552 -0.96210641 -0.056404047 0
-1.9724494 -1.5143424 0.088779204 0
-1.2302324 -0.96937031 -0.055917274 0
-1.9519267 -1.5380344 0.088720165 0
-1.2264677 -0.99168754 -0.056309294 0
-1.9258838 -1.5572158 0.088420711 0
-1.2203281 -1.0123978 -0.056608219 0
-1.9057676 -1.581046 0.088404186 0
-1.20178 -1.0228282 -0.056340806 0
-1.8960929 -1.613754 0.088890977 0
-1.1969345 -1.0449754 -0.056726031 0
-1.8576819 -1.6218364 0.08804068 0
-1.1626949 -1.0411699 -0.055720259 0
-1.8400581 -1.647735 0.088181786 0
-1.1534345 -1.0593469 -0.05591131 0
-1.8173922 -1.6691444 0.088095836 0
-1.1412393 -1.074949 -0.055971865 0
-1.7950089 -1.6907436 0.088035867 0
-1.1214033 -1.0832342 -0.055663586 0
-1.7777263 -1.7172179 0.088241771 0
-1.1181091 -1.107604 -0.05618792 0
-1.0896657 -1.1069572 -0.055454638 0
-1.0837004 -1.1289855 -0.055870119 0
-1.0802846 -1.154171 -0.056438819 0
-1.0560766 -1.1571736 -0.055930931 0
-1.0298458 -1.1573688 -0.05530918 0
-1.0312337 -1.1887364 -0.056183182 0
-1.0155429 -1.2008681 -0.056147721 0
-0.9947964 -1.2068323 -0.05583645 0
-0.98042953 -1.2203919 -0.05588818 0
-0.95547903 -1.2204965 -0.055337597 0
-0.94570202 -1.2398591 -0.055671155 0
-0.93158716 -1.2537832 -0.055765223 0
-0.91859871 -1.2693825 -0.055940121 0
-0.9105649 -1.2922328 -0.056437336 0
-0.87893403 -1.2813087 -0.055472463 0
-0.87115425 -1.3048909 -0.056014057 0
-0.85159308 -1.3110423 -0.055813376 0
-0.84202242 -1.3327477 -0.056281563 0
-0.82539362 -1.3436004 -0.05629649 0
-0.79847127 -1.3372406 -0.055604327 0
-0.78303778 -1.3497174 -0.055708718 0
-0.76860619 -1.3641287 -0.055899631 0
-0.75357038 -1.3777226 -0.056063391 0
-0.73458964 -1.3841363 -0.055943538 0
-0.72472149 -1.4080772 -0.056537844 0
-0.69890946 -1.4010038 -0.055896021 0
-0.67881483 -1.4047287 -0.055699185 0
-0.6673485 -1.4265777 -0.056227863 0
-0.64635831 -1.4282935 -0.055970255 0
-0.57193643 -1.2638392 0.46152261 0
-0.6278978 -1.4353464 -0.055932369 0
-0.54235148 -1.2397913 0.45021126 0
-0.60974979 -1.4430783 -0.05593003 0
-0.53226888 -1.2597064 0.45497313 0
-0.59308064 -1.4544407 -0.056076515 0
-0.52099305 -1.2776568 0.45905054 0
-0.57332695 -1.4582486 -0.05594055 0
-0.50378156 -1.281361 0.45806584 0
-0.55228364 -1.4583893 -0.055674743 0
-0.48210505 -1.273072 0.45289657 0
-0.53818768 -1.4770583 -0.056124281 0
-0.47361585 -1.2998407 0.4602614 0
-0.51621521 -1.4742025 -0.055764355 0
-0.45231825 -1.2917262 0.45533526 0
-0.49938682 -1.4858654 -0.055963214 0
-0.43967777 -1.3082083 0.4591572 0
-0.48059964 -1.4919151 -0.055958703 0
-0.42880931 -1.3311435 0.46527499 0
-0.45882899 -1.4882873 -0.055601515 0
-0.4151091 -1.3464748 0.46876949 0
-0.44408461 -1.5076327 -0.056110885 0
-0.40420607 -1.3722482 0.47593266 0
-0.42435795 -1.5105826 -0.056017354 0
-0.38478816 -1.3697264 0.050793946 0
-0.38909236 -1.385048 0.15461209 0
-0.38645592 -1.3756632 0.25770289 0
-0.38341457 -1.3648369 0.36169285 0
-0.39079136 -1.3910959 0.48072475 0
-0.40556312 -1.5167742 -0.056053136 0
-0.37455395 -1.4008024 0.051767338 0
-0.37682375 -1.4092913 0.15677623 0
-0.37305841 -1.3952092 0.2604638 0
-0.37488088 -1.4020251 0.37026769 0
-0.3750999 -1.4028441 0.48311403 0
-0.38480595 -1.5153533 -0.055817131 0
-0.36947316 -1.5357819 -0.056393757 0
-0.34676677 -1.5256188 -0.055855803 0
-0.32704997 -1.5276223 -0.055773959 0
-0.30707261 -1.5280522 -0.055644069 0
-0.2895335 -1.5409797 -0.055977624 0
-0.27130285 -1.5513369 -0.056225296 0
-0.25200793 -1.5562342 -0.056283318 0
-0.2305304 -1.546786 -0.055832196 0
-0.21128161 -1.5513679 -0.05589712 0
-0.19074377 -1.545902 -0.05560923 0
-0.15373339 -1.2459476 0.044819258 0
-0.15323913 -1.2419419 0.13448279 0
-0.17023836 -1.5389107 -0.055276245 0
-0.13532829 -1.2233328 0.043940976 0
-0.13572142 -1.2268865 0.13265695 0
-0.15316655 -1.5646152 -0.056125801 0
-0.11772293 -1.2025543 0.043137968 0
-0.11927815 -1.2184411 0.13157097 0
-0.13322014 -1.5636748 -0.056027446 0
-0.10248971 -1.2029756 0.043103367 0
-0.10187912 -1.1958088 0.1289783 0
-0.11335277 -1.5629084 -0.055944409 0
-0.084585153 -1.1662605 0.041746367 0
-0.085828945 -1.1834099 0.12751429 0
-0.093849562 -1.567296 -0.056054715 0
-0.069926761 -1.1677831 0.041766044 0
-0.069515616 -1.160917 0.12498641 0
-0.074261457 -1.5716019 -0.056170817 0
-0.054286096 -1.567184 -0.055984046 0
-0.034306385 -1.5567319 -0.055590831 0
-0.014802585 -1.5676368 -0.055969153 0
0.0049673053 -1.5773114 -0.05631233 0
0.024749495 -1.5721896 -0.056136146 0
0.04412866 -1.5571221 -0.055613589 0
0.064037621 -1.5639262 -0.055880971 0
0.083987653 -1.5679129 -0.056056764 0
0.10356119 -1.5642881 -0.055969357 0
0.12342931 -1.5651432 -0.05605112 0
0.14196672 -1.5507952 -0.055596896 0
0.16375613 -1.570699 -0.056379914 0
0.1831869 -1.5656644 -0.056277536 0
0.20133308 -1.5512685 -0.055846777 0
0.22143686 -1.5527294 -0.055995315 0
0.24024142 -1.5451319 -0.055826005 0
0.25604966 -1.5204424 -0.055046089 0
0.2789751 -1.5380566 -0.055806555 0
0.29941425 -1.5400556 -0.056011446 0
0.31679416 -1.5265859 -0.05566223 0
0.33590549 -1.5220904 -0.055648126 0
0.35543185 -1.519399 -0.055708945 0
0.37590414 -1.5203418 -0.055912632 0
0.39515617 -1.516021 -0.055932291 0
0.41124642 -1.5001028 -0.055531655 0
0.43238518 -1.5027411 -0.055826452 0
0.45364448 -1.5050482 -0.056119919 0
0.47051555 -1.4927342 -0.055877257 0
0.4898732 -1.4885136 -0.055945735 0
0.50628066 -1.4755362 -0.055693179 0
0.52707261 -1.4753517 -0.055932291 0
0.54640818 -1.470754 -0.056014396 0
0.55994081 -1.4509499 -0.055524278 0
0.58473814 -1.4601973 -0.056155469 0
0.59989464 -1.4450521 -0.055859108 0
0.62201238 -1.4466181 -0.05621795 0
0.63716656 -1.4319044 -0.055953518 0
0.65548289 -1.4245014 -0.055982333 0
0.67102361 -1.4112067 -0.0557875 0
0.69016933 -1.4055583 -0.055903342 0
0.71503872 -1.4110171 -0.056474086 0
0.7358796 -1.4078925 -0.056715406 0
0.74328917 -1.3794752 -0.055943258 0
0.76721603 -1.3819247 -0.056429911 0
0.77990371 -1.3640196 -0.056095343 0
0.80052841 -1.3600581 -0.056342512 0
0.81407583 -1.344069 -0.056100357 0
0.83337641 -1.3376313 -0.056265205 0
0.84893376 -1.3251293 -0.05618453 0
0.86060542 -1.3068246 -0.055863474 0
0.87339425 -1.2905693 -0.055634324 0
0.89165819 -1.2824663 -0.055764616 0
0.9055348 -1.268056 -0.055629432 0
0.92332447 -1.2591381 -0.055743847 0
0.94779325 -1.2589526 -0.056259546 0
0.96231651 -1.2452971 -0.056186367 0
0.97101241 -1.2243717 -0.055789489 0
0.99032873 -1.2169354 -0.056014434 0
1.0008301 -1.1986891 -0.05575024 0
1.0108833 -1.1802012 -0.055478014 0
1.0294709 -1.171713 -0.055683959 0
1.0542965 -1.1699253 -0.056225467 0
1.0658143 -1.1531718 -0.056060862 0
1.0744982 -1.1335928 -0.055762388 0
1.091192 -1.1225513 -0.055890724 0
1.1061239 -1.1096098 -0.055935435 0
1.1094105 -1.0852284 -0.055406202 0
1.1343677 -1.0820292 -0.055967707 0
1.1468228 -1.0666568 -0.055915095 0
1.1650931 -1.056604 -0.056152739 0
1.179723 -1.0431044 -0.05622033 0
1.1934918 -1.0287955 -0.056254663 0
1.198541 -1.0071237 -0.055890467 0
1.2243248 -1.0027623 -0.056499518 0
1.2249655 -0.97777772 -0.055956457 0
1.2440609 -0.96762854 -0.056267682 0
1.2515886 -0.94843411 -0.056063544 0
1.2612356 -0.93097919 -0.055966113 0
1.2724606 -0.91473943 -0.055948649 0
1.2925185 -0.90469337 -0.056325208 0
1.2969635 -0.88368428 -0.056029554 0
1.2972445 -0.86016077 -0.055569377 0
1.3220967 -0.85287023 -0.056169454 0
1.3276162 -0.83294713 -0.055953909 0
1.328432 -0.81032908 -0.055553827 0
1.3531353 -0.80219716 -0.056160018 0
1.3613832 -0.78409064 -0.056088105 0
1.374429 -0.76872212 -0.05622232 0
1.3795465 -0.74893814 -0.056041438 0
1.3944205 -0.73443353 -0.056265518 0
1.3980815 -0.71402133 -0.056046005 0
1.4091195 -0.69742942 -0.056131985 0
1.4148421 -0.67821884 -0.056015301 0
1.4274486 -0.6622895 -0.056179777 0
1.4385436 -0.64555115 -0.056292046 0
1.438814 -0.62402844 -0.0559907 0
1.4609648 -0.61189687 -0.056548361 0
1.4672898 -0.59294242 -0.056499705 0
1.4627033 -0.56977099 -0.056042384 0
1.4688947 -0.55098349 -0.056009334 0
1.4686238 -0.52988577 -0.055740163 0
1.4964808 -0.51873595 -0.056545045 0
1.4929154 -0.4965336 -0.056169622 0
1.4942192 -0.47615755 -0.055988647 0
1.50546 -0.45894092 -0.056188848 0
1.4922824 -0.43446478 -0.055488423 0
1.5145972 -0.42034838 -0.056116898 0
1.5196151 -0.40120357 -0.056111187 0
1.5231268 -0.38168231 -0.056058947 0
1.5287529 -0.3626973 -0.056093473 0
1.5147977 -0.3392981 -0.055420261 0
1.5346478 -0.32350728 -0.055993021 0
1.5471481 -0.30584845 -0.05630412 0
1.5340042 -0.28322858 -0.055691581 0
1.5477731 -0.26566324 -0.056065563 0
1.5492651 -0.24587923 -0.056003012 0
1.5470085 -0.22558999 -0.05581433 0
1.5449548 -0.20545885 -0.055642482 0
1.5621018 -0.18775447 -0.056170441 0
1.5665517 -0.16830821 -0.056249779 0
1.5582312 -0.14759304 -0.055879854 0
1.5654134 -0.12840815 -0.056074981 0
1.5665596 -0.10866348 -0.056062583 0
1.5460554 -0.087696373 -0.055284895 0
1.5636568 -0.06895563 -0.055878822 0
1.5593058 -0.049101382 -0.055696819 0
1.5525491 -0.029326972 -0.055437896 0
1.562991 -0.0098403646 -0.055801902 0
1.5759025 0.0099216532 -0.056262866 0
1.5648444 0.029559223 -0.055876929 0
1.5623808 0.049198214 -0.055806655 0
0.88074827 0.027734112 0.29316506 0
1.580547 0.069700472 -0.056482408 0
0.91229504 0.040231258 0.30381021 0
1.5825368 0.089765698 -0.056589421 0
1.4921809 0.084640473 0.053358417 0
1.4915073 0.084602259 0.1605489 0
1.4916849 0.084612332 0.26945585 0
0.92558151 0.052501447 0.30843058 0
1.5701472 0.10891234 -0.056190971 0
1.4718261 0.10209235 0.052672345 0
1.470962 0.10203242 0.15846312 0
1.4781632 0.10253192 0.26722535 0
0.92710268 0.064307936 0.30918279 0
1.5758862 0.12926722 -0.056450132 0
1.4841126 0.12173919 0.053162694 0
1.464256 0.12011039 0.15789111 0
1.4530525 0.11919139 0.26293629 0
0.95562088 0.078387924 0.31899732 0
1.5678993 0.14850879 -0.056226566 0
1.4527987 0.13760665 0.05209893 0
1.4510223 0.13743839 0.15663829 0
1.4511483 0.13745032 0.26288405 0
0.98134166 0.09295103 0.32794791 0
1.5547531 0.1670406 -0.055826131 0
1.4336387 0.15402824 0.051477309 0
1.428051 0.1534279 0.15435487 0
1.4172292 0.15226521 0.25706637 0
0.98457122 0.10578102 0.3294462 0
1.5516877 0.18650275 -0.055795964 0
1.4241247 0.17117052 0.051209025 0
1.4118592 0.16969627 0.15282358 0
1.4082112 0.16925782 0.25579697 0
0.98986566 0.11897541 0.33169279 0
1.5549328 0.20678581 -0.056001846 0
1.3894163 0.18477428 0.05004067 0
1.3948168 0.18549246 0.15121971 0
1.3893981 0.18477184 0.2527822 0
1.0063415 0.13383031 0.33775157 0
1.560253 0.22752136 -0.056292176 0
1.3809108 0.20136906 0.049821708 0
1.3841498 0.20184138 0.15032686 0
1.3877679 0.20236899 0.25292918 0
0.99408257 0.14496048 0.33422333 0
1.5484602 0.24575149 -0.055973917 0
1.3645803 0.21656846 0.049327005 0
1.3679014 0.21709554 0.1488473 0
1.3601285 0.21586192 0.24836744 0
1.0055987 0.15959555 0.33874401 0
1.5325153 0.26304436 -0.055512872 0
1.3829762 0.23737714 0.050096061 0
1.3834522 0.23745884 0.15085286 0
1.376497 0.23626503 0.25187975 0
1.0041877 0.17236103 0.33897299 0
1.533945 0.28321764 -0.055689428 0
1.4121513 0.26073045 0.051267747 0
1.4110992 0.26053619 0.15421301 0
1.4035367 0.2591399 0.25740433 0
1.0023859 0.185074 0.3391245 0
1.5326821 0.30298874 -0.055777669 0
1.4406391 0.28479323 0.052428026 0
1.4219854 0.28110564 0.15577722 0
1.4189299 0.2805016 0.26085451 0
1.3218253 0.26130545 0.34376636 0
1.003758 0.1984282 0.34040707 0
1.5452383 0.32573974 -0.056379423 0
1.4552926 0.306779 0.053097673 0
1.4576457 0.30727503 0.16009495 0
1.4287229 0.30117804 0.26333115 0
1.3054963 0.27520159 0.34039396 0
1.0059772 0.21206227 0.34203815 0
1.5436705 0.34576529 -0.0564766 0
1.4782583 0.33111367 0.054083433 0
1.4790089 0.33128181 0.16288656 0
1.4428679 0.32318661 0.26666719 0
1.2803879 0.28679287 0.33476231 0
1.0023382 0.22451279 0.34173504 0
1.5264716 0.36215603 -0.056009766 0
1.514726 0.3593694 0.055578794 0
1.5207065 0.36078829 0.16796584 0
1.4111779 0.33480257 0.26156875 0
1.2827585 0.304335 0.33635738 0
0.99813145 0.23680712 0.34129038 0
1.5156462 0.37980774 -0.055783622 0
1.4136217 0.35424125 0.26282769 0
1.2738287 0.31921041 0.33504334 0
0.99850816 0.25021744 0.34246939 0
0.77341938 0.19381216 0.472857 0
1.5151144 0.40001535 -0.055945005 0
1.4312099 0.37786317 0.26696128 0
1.26869 0.33495522 0.33477455 0
1.0154177 0.26808712 0.34939918 0
0.78188688 0.20643112 0.47958511 0
1.5166732 0.42092454 -0.056193821 0
1.4072843 0.39056569 0.26339498 0
1.2251823 0.34002665 0.3243981 0
0.98967934 0.27466717 0.34170577 0
0.81611961 0.22649889 0.35067475 0
0.79531878 0.22072598 0.41297072 0
0.79538608 0.22074467 0.48953125 0
1.5057572 0.4383879 -0.055989467 0
1.4092249 0.41028333 0.26470414 0
1.216626 0.3542099 0.32328796 0
0.98044771 0.28544867 0.3397325 0
0.83339709 0.24263619 0.35938296 0
0.8086372 0.23542756 0.42139229 0
0.82312274 0.2396449 0.5084191 0
1.5033606 0.45830095 -0.05611049 0
1.4005717 0.42696565 0.26406774 0
1.2216768 0.37242937 0.32585043 0
0.97500241 0.29723042 0.33911568 0
0.85047877 0.25926927 0.3681277 0
0.81244743 0.24767539 0.4249694 0
0.84188032 0.25664803 0.5219599 0
1.5044391 0.47941428 -0.056371592 0
1.393613 0.4440977 0.26378915 0
1.2087914 0.38520128 0.32368168 0
0.97795033 0.31163996 0.34147882 0
0.86813319 0.27664492 0.37724733 0
0.86007977 0.27407858 0.45165405 0
0.8453874 0.2693966 0.52619576 0
1.4877943 0.49483037 -0.055976946 0
1.3936267 0.46351087 0.26487556 0
1.1962078 0.39785066 0.32162809 0
0.98435557 0.32739004 0.34512752 0
0.88376117 0.29393303 0.3856163 0
0.85800922 0.28536811 0.45241791 0
0.85643548 0.2848447 0.53526253 0
1.471409 0.51004511 -0.0555977 0
1.3767767 0.47724205 0.26279435 0
1.1688663 0.40517259 0.31562349 0
0.96495599 0.33448967 0.33977562 0
0.88408738 0.30645761 0.38741171 0
0.89214271 0.30924988 0.47243193 0
0.88026649 0.30513313 0.55251426 0
1.471821 0.53103936 -0.055861507 0
1.143334 0.41251984 0.3101072 0
0.97115403 0.35039657 0.34348443 0
0.90561068 0.32674825 0.39861473 0
0.90730393 0.32735917 0.48260516 0
0.90093565 0.32506147 0.56801176 0
1.4640107 0.54915148 -0.055823106 0
1.1488801 0.43094575 0.3130585 0
0.96439636 0.36174577 0.34267828 0
0.92295098 0.34619957 0.40813375 0
0.92033684 0.34521902 0.49181077 0
0.9258973 0.34730476 0.58646005 0
1.4610534 0.56912827 -0.055979166 0
1.1418264 0.44477886 0.31263778 0
0.97652781 0.38038963 0.3486633 0
0.95075065 0.3703486 0.42245564 0
0.93682009 0.3649222 0.50303483 0
0.94314063 0.36738423 0.60026449 0
1.4676663 0.59309453 -0.0565142 0
1.1332724 0.45796359 0.31184992 0
0.97215039 0.39285299 0.34883898 0
0.96835232 0.39131817 0.432432 0
0.97068399 0.39226043 0.5238291 0
0.96185881 0.38869408 0.61524409 0
1.4537468 0.60887378 -0.056268983 0
1.1119986 0.46573913 0.3075853 0
1.0154098 0.42528483 0.36625451 0
0.98823833 0.41390455 0.44360468 0
0.99278301 0.41580799 0.53853768 0
0.9899736 0.41463134 0.63651669 0
1.4487623 0.62834311 -0.056377832 0
1.111755 0.48217961 0.3091729 0
1.0517453 0.4561528 0.38140216 0
1.0076141 0.43701264 0.45473632 0
1.0043281 0.43558744 0.54773229 0
1.0249783 0.44454363 0.66257006 0
1.4439362 0.64797115 -0.056503069 0
1.0962286 0.49193624 0.30655345 0
1.081394 0.48527911 0.39433858 0
1.0441589 0.46856979 0.47385424 0
1.0414859 0.46737024 0.57116151 0
1.0507377 0.47152203 0.68300557 0
1.4273009 0.66222095 -0.056173962 0
1.075948 0.49920473 0.302616 0
1.0915534 0.50644511 0.4003371 0
1.0697721 0.49633929 0.4882755 0
1.077737 0.50003475 0.59444791 0
1.4090233 0.67542958 -0.05578493 0
1.0506831 0.50365555 0.2972703 0
1.1092159 0.53171384 0.4092381 0
1.094828 0.52481687 0.50268823 0
1.1113733 0.53274804 0.61665207 0
1.4123136 0.69901031 -0.056259219 0
1.0493881 0.51938397 0.29873061 0
1.141627 0.56503671 0.42378742 0
1.1336925 0.56110966 0.52373546 0
1.1335751 0.56105149 0.63284057 0
1.3925935 0.71121848 -0.055826001 0
1.6981004 0.8672455 0.34387818 0
1.0449238 0.53365833 0.29934901 0
1.1673101 0.59616286 0.43607348 0
1.1796575 0.60246885 0.54843128 0
1.1801412 0.60271585 0.6630215 0
1.3812121 0.72747678 -0.055732552 0
1.6823769 0.88609856 0.34292641 0
1.0379386 0.54667652 0.29929626 0
1.2170531 0.64101511 0.45763516 0
1.2169292 0.64094985 0.56946629 0
1.2216461 0.64343423 0.69083679 0
1.3772631 0.74769855 -0.055948678 0
1.6746116 0.90912521 0.3436498 0
1.0294771 0.55888999 0.29886198 0
1.2612242 0.68470246 0.47744846 0
1.2574214 0.68263799 0.59239024 0
1.3690876 0.76573467 -0.056003824 0
1.0135647 0.5668897 0.041460827 0
1.0145425 0.56743652 0.12492725 0
1.0220261 0.57162219 0.21119204 0
1.0168381 0.56872046 0.29724824 0
1.3004416 0.72734082 0.49572247 0
1.310245 0.73282385 0.6215744 0
1.3637164 0.78543442 -0.056184229 0
1.001615 0.57688171 0.041265894 0
0.99632233 0.57383329 0.12356365 0
0.99617785 0.57375008 0.20732723 0
1.0022597 0.57725292 0.29508811 0
1.3438786 0.77400887 0.51595491 0
1.3415952 0.77269369 0.64101177 0
1.3446362 0.79715854 -0.055807274 0
1.0008349 0.59333831 0.04153828 0
1.0050262 0.59582299 0.12556364 0
0.98022771 0.58112144 0.20551431 0
0.98956478 0.58665681 0.29350215 0
1.3751762 0.81526399 0.53187019 0
1.3831532 0.81999308 0.66574889 0
1.3453579 0.82065374 -0.056261655 0
0.9827469 0.59946501 0.041097593 0
0.9999491 0.60995811 0.12587894 0
0.96995264 0.59166062 0.20490582 0
0.97937536 0.59740835 0.29268801 0
1.3993707 0.85360098 0.54534173 0
1.4246514 0.86902189 0.69093537 0
1.3276976 0.83299822 -0.05595734 0
0.96916485 0.60805452 0.040846564 0
0.9793238 0.61442828 0.12424665 0
0.96307379 0.60423303 0.20504375 0
0.97066367 0.6089949 0.29235309 0
1.4429177 0.90528727 0.56670976 0
1.3165416 0.84928668 -0.055933446 0
0.95332927 0.61498237 0.040502321 0
0.96266621 0.62100554 0.12311565 0
0.95238757 0.61437488 0.2043995 0
0.95776081 0.61784112 0.29078707 0
1.460706 0.9422856 0.57831055 0
1.3100647 0.86866134 -0.05611854 0
0.96004778 0.63657653 0.041125055 0
0.94592422 0.62721163 0.12197492 0
0.95310962 0.63197607 0.20624603 0
0.93913209 0.62270802 0.28748912 0
1.4831496 0.98342836 0.5920521 0
1.2932078 0.88112533 -0.055867307 0
0.94267821 0.6422925 0.040724233 0
0.9287852 0.63282657 0.12078284 0
0.94411242 0.64326972 0.20603558 0
0.94042903 0.64076006 0.29033309 0
1.5086373 1.027908 0.60734516 0
1.282395 0.89760751 -0.055884052 0
0.92598504 0.64813972 0.04035246 0
0.93612874 0.65523976 0.12280107 0
0.94088894 0.6585716 0.20712547 0
0.92147875 0.64498556 0.28696734 0
1.5338118 1.0735857 0.62287289 0
1.2729012 0.91505617 -0.055968024 0
0.92955965 0.66823667 0.040871684 0
0.91087419 0.65480417 0.12056027 0
0.91347861 0.65667641 0.20289566 0
0.92448592 0.66458935 0.29048696 0
1.5382257 1.1057911 0.63026994 0
1.2576112 0.92830378 -0.055805281 0
0.9113006 0.67267519 0.040438086 0
0.90994626 0.6716755 0.12154727 0
0.92268902 0.68108153 0.20682992 0
0.90969694 0.67149144 0.28847402 0
1.546288 1.1413902 0.63941175 0
1.2494848 0.94683993 -0.055969305 0
0.90215367 0.68363792 0.040410992 0
0.89533466 0.67847055 0.12072714 0
0.89864701 0.68098062 0.20334673 0
0.90023988 0.68218762 0.2881763 0
1.5723861 1.1915295 0.65635604 0
1.2404503 0.96482021 -0.056104381 0
0.89304525 0.69460917 0.040391583 0
0.89945948 0.69959813 0.12246148 0
0.89406627 0.69540328 0.20427547 0
0.89372426 0.69513726 0.28886971 0
1.5724036 1.2230129 0.66273928 0
1.2221889 0.9755615 -0.055829626 0
0.88810062 0.70888942 0.040568464 0
0.88377869 0.70543957 0.12152634 0
0.87709302 0.70010304 0.20239563 0
0.88620532 0.70737654 0.28929555 0
1.591586 1.2704173 0.67751318 0
1.2085953 0.98987925 -0.055773634 0
0.92454898 0.757236 0.12843356 0
0.93055564 0.76215571 0.21692996 0
0.93303305 0.76418477 0.30769905 0
1.6006191 1.3109597 0.68833107 0
1.198631 1.0071994 -0.055894665 0
1.6221941 1.3631157 0.22771317 0
1.6097361 1.3526474 0.37920025 0
1.6024503 1.3465252 0.5340113 0
1.6046382 1.3483636 0.69730574 0
1.1827474 1.0195336 -0.055748224 0
1.6101372 1.3879457 0.38338143 0
1.5930938 1.3732542 0.53661335 0
1.1848757 1.0476605 -0.056465887 0
1.6125159 1.4257773 0.38819185 0
1.6073738 1.4212308 0.54740816 0
1.1674899 1.0587776 -0.056268252 0
1.6102662 1.4603242 0.39204603 0
1.6121405 1.4620241 0.55525726 0
1.1472294 1.0670351 -0.055934925 0
1.6083117 1.4958863 0.39612481 0
1.6156934 1.5027522 0.56295383 0
1.1286076 1.0765349 -0.055683512 0
0.60835773 0.58028883 0.34809425 0
0.61618358 0.58775359 0.42606443 0
1.1234444 1.0989565 -0.056107081 0
0.59097672 0.57809508 0.41363564 0
0.59700114 0.58398819 0.49527583 0
1.1164145 1.1199329 -0.056455821 0
0.59243333 0.59430039 0.41985971 0
0.57955915 0.58138567 0.48684072 0
1.0937866 1.1252205 -0.056023624 0
0.58888274 0.60580647 0.34980142 0
0.59575689 0.61287808 0.42765063 0
0.55634046 0.57232893 0.473353 0
1.0825601 1.1420979 -0.056180764 0
0.58529097 0.6174804 0.35225859 0
0.58132869 0.6133002 0.42280382 0
0.55819827 0.58889771 0.48120487 0
1.0623147 1.1493855 -0.055876791 0
1.5716715 1.7004907 0.41760829 0
1.5731641 1.7021056 0.59133464 0
0.53697586 0.58098817 0.46917936 0
1.0437034 1.1581705 -0.055660542 0
1.5591674 1.7301674 0.42004144 0
1.5738319 1.7464402 0.59980446 0
0.52301759 0.58037901 0.46333221 0
1.0421554 1.1861501 -0.056370061 0
1.5554678 1.7703871 0.42501688 0
1.5556912 1.7706412 0.60134053 0
1.0212054 1.192252 -0.056044493 0
1.5485699 1.8079475 0.42931867 0
1.5442601 1.8029159 0.60564953 0
1.0069466 1.2060146 -0.056090951 0
1.5381169 1.8421947 0.43281752 0
1.5359434 1.8395915 0.61142421 0
0.99143374 1.2182933 -0.056076936 0
1.5246509 1.873521 0.43563232 0
1.5215753 1.8697417 0.61502832 0
0.98215514 1.2384218 -0.056429695 0
1.5042772 1.8967775 0.43660086 0
1.515502 1.910931 0.62225038 0
0.9573139 1.2388234 -0.055894282 0
1.491449 1.9300272 0.43989649 0
1.4974325 1.9377702 0.62480038 0
0.94834107 1.2596804 -0.056292064 0
1.4757186 1.9601954 0.44250202 0
1.4752587 1.9595845 0.62579465 0
0.92662412 1.2636379 -0.055943057 0
1.4544719 1.9834642 0.44358516 0
1.453735 1.9824593 0.62720406 0
0.91217011 1.2773478 -0.056037057 0
1.4407711 2.0175686 0.44711944 0
1.4434209 2.0212793 0.63368517 0
0.89862651 1.2924888 -0.056200419 0
1.4253409 2.0500586 0.45030642 0
1.4215474 2.0446026 0.63533491 0
0.87483215 1.292694 -0.055725917 0
1.3975556 2.0650952 0.44970807 0
1.4006224 2.0696268 0.63757986 0
0.86207938 1.3090628 -0.055959154 0
1.4460621 2.1958375 0.093866542 0
1.4400538 2.1867139 0.28138644 0
1.3821163 2.0987363 0.45320803 0
1.3825015 2.0993209 0.64131373 0
0.84580684 1.3202484 -0.055977583 0
1.4052967 2.1935749 0.093006007 0
1.3968303 2.1803594 0.27828327 0
1.3576726 2.1192369 0.45390722 0
1.3626676 2.1270337 0.64448667 0
0.82859218 1.3299522 -0.0559422 0
1.3711525 2.2008021 0.092573032 0
1.3667969 2.1938109 0.27778143 0
1.3478887 2.1634619 0.45970777 0
1.3459607 2.1603673 0.64939982 0
0.80945104 1.3364334 -0.055781655 0
1.3458002 2.2219653 0.092743047 0
1.3501529 2.2291517 0.28008136 0
1.3167112 2.1739383 0.45837444 0
1.316064 2.1728699 0.64812511 0
0.79262072 1.3466233 -0.055785954 0
1.3261994 2.2531469 0.093340106 0
1.3332494 2.2651246 0.28246939 0
1.2945725 2.1994143 0.46027237 0
1.2926956 2.1962259 0.65018481 0
0.78142995 1.366689 -0.056205116 0
1.2690881 2.219583 0.46111229 0
1.2718368 2.2243903 0.65372974 0
0.7608422 1.3704442 -0.05596111 0
1.2418708 2.2368824 0.46142086 0
1.2497873 2.2511418 0.65691453 0
0.74539965 1.3833922 -0.056102104 0
1.2181261 2.2607281 0.46313894 0
1.2270364 2.2772648 0.65997642 0
0.72516459 1.3873925 -0.055889588 0
1.1924781 2.2814615 0.46427336 0
1.1877859 2.2724843 0.65420449 0
0.70211893 1.3855219 -0.055453677 0
1.1742291 2.3171575 0.46849135 0
1.1708788 2.3105462 0.66086483 0
0.68736082 1.3998387 -0.055675853 0
1.142198 2.3261333 0.46736112 0
1.138489 2.3185799 0.65900999 0
0.67220521 1.4136916 -0.055885736 0
1.1170137 2.349153 0.46912295 0
1.120442 2.3563631 0.66568619 0
0.65790623 1.429768 -0.056189302 0
1.0830113 2.3536103 0.46725261 0
1.0853423 2.3586757 0.66242605 0
0.64188552 1.4425093 -0.056367915 0
1.0578357 2.3772743 0.46926886 0
1.0599595 2.3820469 0.66518855 0
0.61709982 1.4351928 -0.055773947 0
1.0301704 2.3958735 0.4703424 0
1.0256406 2.3853385 0.66244864 0
0.60307962 1.4527242 -0.056155674 0
0.9985947 2.405458 0.46971816 0
0.99802661 2.4040897 0.66411328 0
0.57816887 1.4437927 -0.055524591 0
0.96890455 2.4195306 0.47004643 0
0.97229874 2.4280064 0.66728514 0
0.56419885 1.4619836 -0.05594651 0
0.93663585 2.4270632 0.4691813 0
0.94514424 2.4491105 0.66976118 0
0.54478699 1.4663903 -0.0558482 0
0.90655088 2.4401417 0.46946555 0
0.90331185 2.4314232 0.66176111 0
0.52788234 1.4776182 -0.056018218 0
0.87583065 2.4515755 0.46950626 0
0.87487054 2.4488881 0.66346353 0
0.50640905 1.4759103 -0.055707298 0
0.84257972 2.4556673 0.46822086 0
0.84033149 2.4491148 0.66060573 0
0.48893285 1.4856563 -0.055838343 0
0.8135348 2.4719818 0.46934104 0
0.80681348 2.4515584 0.6584723 0
0.47002691 1.491184 -0.055819225 0
0.78001475 2.4746358 0.46794304 0
0.78019184 2.4751978 0.66213042 0
0.45336249 1.5041126 -0.056085035 0
0.74674684 2.4774685 0.46666357 0
0.75131106 2.4926112 0.66420513 0
0.43329406 1.5058999 -0.055943798 0
0.7175082 2.4936774 0.46797773 0
0.71398872 2.4814453 0.65878183 0
0.41548237 1.5155542 -0.056103647 0
0.56002814 2.0428135 0.07562203 0
0.68449414 2.4968278 0.46691445 0
0.68224823 2.4886355 0.65835774 0
0.39532515 1.5166693 -0.055956207 0
0.52153099 2.0008593 0.07381998 0
0.64816946 2.4867091 0.46345916 0
0.64475805 2.4736214 0.65218633 0
0.38062751 1.5394455 -0.056615196 0
0.48759502 1.9720749 0.072525725 0
0.61671466 2.4942982 0.46338949 0
0.61461818 2.4858193 0.65331 0
0.35868353 1.5332993 -0.056218602 0
0.45496503 1.9448831 0.071309373 0
0.585132 2.5013204 0.46328849 0
0.5865885 2.5075467 0.65702695 0
0.33668384 1.5256174 -0.055777073 0
0.42234853 1.9137902 0.069968805 0
0.55195218 2.5010641 0.46191707 0
0.55202669 2.5014017 0.65354365 0
0.31851637 1.5348852 -0.055964831 0
0.38927853 1.8758777 0.068398073 0
0.51800799 2.4962068 0.45977882 0
0.5176875 2.4946623 0.65002811 0
0.29701525 1.5277162 -0.055562664 0
0.35880965 1.8455595 0.067122549 0
0.48446652 2.4918833 0.45782256 0
0.48433366 2.4912 0.64748549 0
0.27897346 1.5380476 -0.055806223 0
0.33044806 1.8218393 0.066103272 0
0.45310292 2.498065 0.4578737 0
0.45287359 2.4968007 0.64740765 0
0.26193294 1.5553778 -0.056310892 0
0.29881313 1.7743752 0.064239472 0
0.30267701 1.7973191 0.19587645 0
0.4177925 2.4808836 0.45372427 0
0.41725338 2.4776824 0.64103717 0
0.14495847 0.8607744 0.43674439 0
0.24054505 1.5470847 -0.055896558 0
0.27366507 1.7600988 0.063592806 0
0.27399108 1.7621955 0.19165738 0
0.38692564 2.4885433 0.45419803 0
0.3873103 2.4910171 0.64317441 0
0.13578062 0.87328392 0.44218898 0
0.2201802 1.5439175 -0.055677541 0
0.24744503 1.7351003 0.062572069 0
0.24681832 1.7307057 0.18787962 0
0.35398364 2.4821558 0.45218283 0
0.35341558 2.4781725 0.63865829 0
0.12328976 0.86451566 0.43692842 0
0.201637 1.5536102 -0.055931084 0
0.22066703 1.7002363 0.061209731 0
0.2225735 1.7149256 0.18584761 0
0.32042941 2.4689043 0.44899809 0
0.32040545 2.4687195 0.63513196 0
0.11159515 0.85983908 0.43382028 0
0.18312554 1.56514 -0.056258686 0
0.19865547 1.6978713 0.061029691 0
0.19612493 1.6762433 0.18137355 0
0.2863631 2.4474921 0.44441304 0
0.28810999 2.4624224 0.63252836 0
0.10184143 0.8704198 0.43847686 0
0.16302356 1.5636724 -0.056127697 0
0.17162754 1.6461991 0.059089977 0
0.17153418 1.6453036 0.17777801 0
0.25493953 2.4453025 0.44339737 0
0.2549459 2.4453635 0.62727207 0
0.092695534 0.88910741 0.44726732 0
0.14383329 1.5711851 -0.056327887 0
0.15004413 1.6390301 0.05876017 0
0.14933129 1.6312433 0.17604162 0
0.22253075 2.4308488 0.44023359 0
0.2223696 2.4290886 0.62232965 0
0.081044473 0.88530171 0.44480422 0
0.12282421 1.5574704 -0.055776335 0
0.12669864 1.6066 0.057535775 0
0.12779839 1.6205454 0.17469959 0
0.19149819 2.4282897 0.43929854 0
0.19153358 2.4287384 0.62157273 0
0.10384717 1.5686079 -0.056123916 0
0.10511849 1.5878112 0.056810997 0
0.10581658 1.5983558 0.17215021 0
0.16029376 2.4212317 0.43762183 0
0.15990157 2.4153078 0.61757123 0
0.083745502 1.5633923 -0.055895139 0
0.086560264 1.6159394 0.057773829 0
0.085258149 1.5916309 0.1712967 0
0.12793459 2.3883307 0.43134981 0
0.12781578 2.3861129 0.60964656 0
0.064438082 1.5737062 -0.056230418 0
0.066929907 1.6345615 0.058404855 0
0.066258326 1.6181602 0.17404827 0
0.096960843 2.3679769 0.42741939 0
0.097727321 2.3866956 0.60943276 0
0.0443753 1.5658251 -0.055924419 0
0.038664218 1.3643042 0.048726972 0
0.0469721 1.6574558 0.17819713 0
0.067156762 2.3696909 0.42754224 0
0.066937387 2.3619499 0.60285103 0
0.024687985 1.5682821 -0.05599663 0
0.021364862 1.3571837 0.04845921 0
0.025984237 1.6506253 0.17741352 0
0.036905818 2.344409 0.42286351 0
0.036805667 2.338047 0.59658456 0
0.0050214147 1.5944933 -0.056925748 0
0.0042852317 1.3607266 0.048579935 0
0.0052974229 1.6821365 0.18077894 0
0.00734775 2.3331947 0.4207907 0
0.0073200725 2.3244059 0.59303331 0
-0.014910336 1.5790479 -0.056376562 0
-0.012856447 1.3615351 0.048610728 0
-0.016089614 1.7039371 0.18312909 0
-0.021875234 2.3166509 0.41782358 0
-0.021925364 2.32196 0.59243274 0
-0.034472518 1.5642705 -0.055860031 0
-0.029982563 1.3605283 0.048584409 0
-0.037779499 1.7143323 0.18428284 0
-0.050294306 2.2822211 0.41169551 0
-0.050465308 2.2899804 0.58438921 0
-0.054347295 1.5689508 -0.05604716 0
-0.048105434 1.3887546 0.049610067 0
-0.060744241 1.7536241 0.18857379 0
-0.078508161 2.2664502 0.40899649 0
-0.079221986 2.2870576 0.58385164 0
-0.073952042 1.5650537 -0.055936776 0
-0.083278075 1.7624213 0.062990919 0
-0.084621757 1.7908578 0.19267698 0
-0.10626935 2.2489879 0.40605456 0
-0.10619602 2.2474358 0.5740326 0
-0.043164022 0.91348404 0.37863722 0
-0.092680015 1.5477645 -0.055356167 0
-0.10799396 1.8035088 0.064502917 0
-0.10845179 1.8111546 0.19499215 0
-0.13365445 2.2320411 0.40326676 0
-0.13278563 2.2175319 0.56677681 0
-0.053707451 0.89691925 0.37202197 0
-0.11308997 1.5592849 -0.055814706 0
-0.13213947 1.8219396 0.065216444 0
-0.16069657 2.2156849 0.40064546 0
-0.15912403 2.1940029 0.5612306 0
-0.062895983 0.86721003 0.35999924 0
-0.065244459 0.89959091 0.45128375 0
-0.13356428 1.5677142 -0.056172181 0
-0.15803614 1.8549534 0.066464141 0
-0.18585598 2.1814895 0.39485404 0
-0.1848018 2.169116 0.55541575 0
-0.075554743 0.88682574 0.36850789 0
-0.076368406 0.89637619 0.4501178 0
-0.15168335 1.5494642 -0.0555823 0
-0.18341763 1.8736339 0.067210898 0
-0.2125106 2.1708221 0.39337641 0
-0.21038628 2.149122 0.55093086 0
-0.086604707 0.88467789 0.36803937 0
-0.17294569 1.5633843 -0.056155309 0
-0.21084544 1.9059882 0.068461329 0
-0.23696588 2.1421103 0.38868341 0
-0.23526153 2.1267033 0.54589993 0
-0.097504757 0.88141781 0.36716482 0
-0.19091971 1.5473279 -0.05566052 0
-0.23837368 1.9319234 0.069495201 0
-0.26021999 2.108979 0.38323596 0
-0.26036647 2.1101661 0.54245359 0
-0.10839366 0.87848723 0.36648357 0
-0.10590518 0.85831904 0.43270823 0
-0.21061793 1.5464946 -0.055721533 0
-0.2657766 1.9515058 0.07031443 0
-0.28533751 2.0951347 0.38134292 0
-0.28298584 2.0778673 0.53502429 0
-0.11724365 0.8608796 0.35972548 0
-0.11477699 0.84276783 0.42556319 0
-0.23165625 1.5543401 -0.056104869 0
-0.29434553 1.9749653 0.071287595 0
-0.30858344 2.0704973 0.37753588 0
-0.30612642 2.0540113 0.52983224 0
-0.30702186 2.0600195 0.69292641 0
-0.1281016 0.85952121 0.35980338 0
-0.12963437 0.86980551 0.44000554 0
-0.24954137 1.5410024 -0.05573244 0
-0.32607123 2.0136001 0.072824575 0
-0.33207521 2.0506768 0.37465459 0
-0.32651702 2.0163531 0.52113754 0
-0.32951361 2.0348582 0.68580419 0
-0.13736691 0.84828717 0.35579658 0
-0.13889344 0.857714 0.43473911 0
-0.26798221 1.5323492 -0.055537123 0
-0.35905305 2.0531013 0.074410804 0
-0.35541806 2.032316 0.37208825 0
-0.35216978 2.0137422 0.52156752 0
-0.35077 2.005738 0.67742485 0
-0.15056665 0.86095524 0.43730828 0
-0.28839767 1.5349345 -0.055758025 0
-0.38646385 2.0568707 0.074717872 0
-0.38693878 2.0593984 0.22519483 0
-0.37557206 1.9989015 0.36680731 0
-0.37298694 1.9851427 0.5153358 0
-0.37420982 1.9916512 0.67420518 0
-0.15811928 0.84155583 0.42843205 0
-0.30927345 1.539004 -0.056042872 0
-0.40384325 2.0096016 0.073179699 0
-0.40501341 2.0154243 0.22092643 0
-0.39696559 1.975377 0.36337891 0
-0.39560956 1.968629 0.5123015 0
-0.39507672 1.9659774 0.66714537 0
-0.17660372 0.87881392 0.44849655 0
-0.32949129 1.5390254 -0.05619029 0
-0.42280552 1.9748883 0.072103776 0
-0.4257977 1.9888645 0.21858542 0
-0.41882673 1.9563037 0.36081189 0
-0.41536763 1.9401466 0.50621039 0
-0.41715097 1.9484764 0.66293645 0
-0.18455799 0.86205453 0.44109455 0
-0.34725949 1.5277865 -0.055935167 0
-0.45055041 1.9822203 0.072572857 0
-0.44604889 1.9624157 0.21627872 0
-0.44221696 1.9455569 0.35982829 0
-0.43869337 1.9300547 0.5049786 0
-0.43770298 1.9256974 0.65700948 0
-0.36963078 1.5364369 -0.056417815 0
-0.47580186 1.9777563 0.072623014 0
-0.4725109 1.9640768 0.21710032 0
-0.46433011 1.9300717 0.35801733 0
-0.4615519 1.9185237 0.50344235 0
-0.45978865 1.9111943 0.65398479 0
-0.38400379 1.5121945 -0.055700779 0
-0.49844402 1.9628565 0.072300643 0
-0.49857867 1.9633867 0.21770076 0
-0.48340291 1.9036251 0.35421267 0
-0.48171037 1.8969599 0.49933591 0
-0.47640723 1.8760763 0.6439696 0
-0.40625569 1.5193644 -0.056148857 0
-0.5295015 1.980294 0.073182739 0
-0.53020149 1.9829119 0.22058852 0
-0.50724614 1.8970606 0.35415164 0
-0.49621582 1.8558083 0.49010947 0
-0.5020048 1.8774585 0.64656264 0
-0.423215 1.5065141 -0.055866476 0
-0.52582669 1.8717798 0.35064042 0
-0.52197194 1.8580582 0.4924005 0
-0.51804954 1.8440956 0.63726908 0
-0.44099766 1.4971528 -0.055720843 0
-0.53766447 1.8253291 0.34317988 0
-0.53954756 1.831722 0.48718306 0
-0.54048735 1.8349125 0.63639712 0
-0.46118495 1.4959294 -0.055887017 0
-0.55957341 1.8150686 0.3425484 0
-0.55562705 1.8022679 0.48117188 0
-0.55688667 1.8063536 0.62887436 0
-0.48872653 1.5171434 -0.05690496 0
-0.58391547 1.8126364 0.34344983 0
-0.57669657 1.7902268 0.47985789 0
-0.57565528 1.7869942 0.62460864 0
-0.49515995 1.4732889 -0.055489536 0
-0.60397148 1.7970445 0.34190947 0
-0.59720027 1.7768975 0.47826284 0
-0.59771019 1.7784147 0.62419105 0
-0.51879001 1.4815557 -0.0560425 0
-0.62619251 1.7882746 0.34171405 0
-0.61613554 1.7595541 0.4756453 0
-0.61613935 1.759565 0.62024909 0
-0.53985327 1.4816296 -0.056297977 0
-0.65536743 1.7986586 0.34524786 0
-0.62839925 1.7246443 0.46831033 0
-0.62980819 1.7285111 0.61204958 0
-0.55197769 1.4575813 -0.055643901 0
-0.67645329 1.7862781 0.34447914 0
-0.65043312 1.7175679 0.46857572 0
-0.64625686 1.7065399 0.60710317 0
-0.5726468 1.4565188 -0.055874187 0
-0.69705307 1.7729443 0.34357324 0
-0.6688149 1.7011209 0.46634933 0
-0.67205846 1.7093707 0.61107242 0
-0.58561891 1.436142 -0.055371001 0
-0.72435224 1.7763646 0.34597614 0
-0.68896359 1.6895792 0.4655267 0
-0.68444985 1.67851 0.60307342 0
-0.60805345 1.4390635 -0.055774432 0
-0.7426427 1.7575923 0.34411404 0
-0.70224386 1.6619813 0.46032268 0
-0.70032358 1.6574368 0.59862304 0
-0.62660426 1.4323894 -0.055817142 0
-0.76940769 1.7588316 0.34622613 0
-0.71803796 1.6414027 0.457091 0
-0.71575201 1.6361772 0.59415275 0
-0.64766461 1.43118 -0.05608337 0
-0.78751266 1.7402099 0.34448522 0
-0.73749489 1.6296829 0.45637727 0
-0.74427205 1.6446588 0.60058838 0
-0.6599673 1.410799 -0.055605955 0
-0.80013055 1.7104234 0.34055626 0
-0.75889361 1.6222719 0.45694178 0
-0.75955713 1.6236902 0.59637666 0
-0.68312168 1.4136411 -0.056052577 0
-0.82477772 1.7067819 0.34187201 0
-0.77648193 1.6068394 0.45531288 0
-0.77164763 1.5968354 0.59003508 0
-0.70127916 1.405754 -0.056085542 0
-0.853836 1.7115629 0.34495586 0
-0.78363299 1.5708369 0.44787183 0
-0.78675604 1.5770973 0.58635598 0
-0.71449143 1.388201 -0.055739764 0
-0.87111378 1.692506 0.34329864 0
-0.79950333 1.5533725 0.4457275 0
-0.80547786 1.5649805 0.58557564 0
-0.73490989 1.3847398 -0.055967927 0
-0.89466166 1.6857491 0.34418589 0
-0.81731224 1.5400048 0.44480965 0
-0.81949866 1.5441245 0.58158696 0
-0.74868029 1.3687822 -0.055699583 0
-0.91270703 1.6686658 0.34301731 0
-0.83580011 1.52806 0.44436416 0
-0.83845091 1.5329063 0.58129215 0
-0.76933289 1.3654186 -0.055952486 0
-0.93072581 1.65186 0.34194472 0
-0.85845625 1.5235955 0.44617406 0
-0.85501009 1.5174792 0.57947886 0
-0.78799975 1.3582703 -0.056061734 0
-0.96056622 1.6557221 0.34522071 0
-0.86671054 1.4939436 0.4406518 0
-0.86735451 1.4950536 0.5750404 0
-0.79996079 1.3397352 -0.055708058 0
-0.9788087 1.6392609 0.34433109 0
-0.8852784 1.4826208 0.44056523 0
-0.88985538 1.4902861 0.57747078 0
-0.82249337 1.3388792 -0.056098677 0
-0.99466527 1.6191458 0.3427096 0
-0.90002686 1.4650905 0.43868899 0
-0.89637673 1.4591488 0.56973392 0
-0.83850366 1.3271781 -0.056046367 0
-1.0213492 1.6165849 0.3448624 0
-0.91776472 1.4526321 0.43838421 0
-0.91016847 1.4406087 0.56692493 0
-0.85436457 1.3153092 -0.055995021 0
-1.0375423 1.5973145 0.34351137 0
-0.92490524 1.4239078 0.43319604 0
-0.93249673 1.4355949 0.56952763 0
-0.87134176 1.3051717 -0.056026116 0
-1.0596521 1.5872394 0.34418693 0
-0.95108044 1.4246113 0.43701899 0
-0.947671 1.4195043 0.5678333 0
-0.87279129 1.2723538 -0.055084772 0
-1.0757928 1.568289 0.34298795 0
-0.96127552 1.401346 0.43356091 0
-0.96399891 1.4053161 0.56696856 0
-0.90790373 1.2884561 -0.056272391 0
-1.0984926 1.5589312 0.3439393 0
-0.97870952 1.3889405 0.43350136 0
-0.97875303 1.3890023 0.56531435 0
-0.91855115 1.2693168 -0.055937227 0
-1.1217409 1.5500983 0.34507957 0
-0.99905127 1.3805574 0.43477687 0
-0.99593955 1.3762574 0.56518662 0
-0.92696583 1.2475636 -0.055488586 0
-1.1360178 1.5289178 0.34352168 0
-1.0109198 1.3605537 0.43245181 0
-1.0039554 1.3511807 0.56003565 0
-0.9488315 1.2439619 -0.055855379 0
-1.1599698 1.5207741 0.34494644 0
-1.0236479 1.3420497 0.43063325 0
-1.0243486 1.3429685 0.56193358 0
-0.97330666 1.2432688 -0.056370102 0
-0.58425081 0.74630213 0.033837512 0
-0.58842045 0.75162834 0.10258584 0
-0.59305835 0.75755262 0.17351046 0
-1.0389625 1.3271354 0.43001151 0
-1.0446185 1.3343602 0.56379104 0
-0.97798055 1.2173434 -0.055748578 0
-0.59444278 0.73993397 0.033885479 0
-0.59506667 0.74071056 0.10211034 0
-0.5858047 0.72918171 0.16868852 0
-1.0575515 1.3163896 0.43081036 0
-1.0534271 1.3112557 0.55958921 0
-0.49638268 0.61787343 0.47003055 0
-0.99635112 1.2087184 -0.055923715 0
-0.59815341 0.72564673 0.033573464 0
-0.60315198 0.73171079 0.10190862 0
-0.60726327 0.73669839 0.17218277 0
-1.0675541 1.2950978 0.42820776 0
-1.070488 1.2986572 0.55992091 0
-1.0153674 1.2006607 -0.056138016 0
-0.61233771 0.72408253 0.10191201 0
-0.60578734 0.71633673 0.16919328 0
-1.0805523 1.2777411 0.42693394 0
-1.0788435 1.2757204 0.55584478 0
-1.0228438 1.1790651 -0.055726089 0
-0.61426836 0.70808691 0.10074137 0
-0.62629354 0.7219488 0.17236784 0
-1.088084 1.2542695 0.42363584 0
-1.0989619 1.2668089 0.55794728 0
-1.0339255 1.1619537 -0.055528287 0
-0.6326493 0.71098846 0.10227948 0
-0.63651049 0.7153278 0.17268701 0
-1.1112099 1.2488079 0.42648342 0
-1.1157804 1.2539443 0.55842519 0
-1.1088542 1.2461605 0.69064289 0
-1.0607133 1.1622541 -0.056176491 0
-0.63482368 0.69559461 0.10120693 0
-0.63131303 0.69174784 0.1689003 0
-1.130059 1.2382382 0.42769951 0
-1.1376235 1.246527 0.56145692 0
-1.1239833 1.2315809 0.69035202 0
-0.52214307 0.57212722 0.45935875 0
-1.0675489 1.1405642 -0.055773448 0
-0.64353013 0.68754452 0.10120668 0
-0.64565468 0.68981445 0.17039983 0
-1.1469369 1.225382 0.42821348 0
-1.1462042 1.2245992 0.5580371 0
-1.1385751 1.2164482 0.6898514 0
-0.5570848 0.59518677 0.48346713 0
-1.0848242 1.1301563 -0.055928063 0
-0.5773443 0.60147005 0.34519094 0
-0.58687246 0.61139637 0.42402905 0
-0.5579614 0.58127719 0.47783771 0
-1.1024345 1.1199286 -0.056104459 0
-0.58118534 0.59040797 0.41451547 0
-0.57399619 0.58310473 0.48524323 0
-1.1206021 1.1100737 -0.056313198 0
-0.58063352 0.57517827 0.40892377 0
-0.59410828 0.58852637 0.49594125 0
-1.1313217 1.0928149 -0.056155905 0
-0.61267543 0.59182179 0.35269064 0
-0.60151231 0.58103865 0.41844207 0
-1.1437935 1.0773549 -0.056097135 0
-0.61364794 0.57800347 0.349033 0
-0.61683422 0.58100462 0.42397767 0
-1.153832 1.0597119 -0.055930573 0
-0.69379508 0.63720101 0.10123681 0
-0.69093746 0.63457656 0.16918994 0
-1.2339797 1.1333219 0.42746028 0
-1.225105 1.1251712 0.55340278 0
-1.234504 1.1338034 0.69399023 0
-1.164014 1.0423511 -0.055783473 0
-0.70599204 0.63220161 0.10184686 0
-0.70614618 0.63233966 0.17095077 0
-1.2328273 1.103972 0.42221203 0
-1.2490391 1.1184893 0.55780792 0
-1.2414902 1.1117295 0.6899932 0
-1.1836424 1.0333709 -0.056096084 0
-0.71748996 0.62639964 0.10235955 0
-0.70903474 0.6190179 0.16974954 0
-1.2505727 1.0918039 0.42354739 0
-1.2497182 1.0910579 0.5519318 0
-1.1924711 1.0149055 -0.055904396 0
-0.72191036 0.61441386 0.10187835 0
-0.72208178 0.61455971 0.17100687 0
-1.279969 1.0893744 0.4288235 0
-1.2713724 1.082058 0.55543363 0
-1.2072145 1.0015185 -0.055999905 0
-0.73485821 0.6096465 0.10261407 0
-0.72586268 0.60218376 0.170093 0
-1.2903787 1.0705125 0.42776093 0
-1.2998335 1.0783564 0.56189078 0
-1.2151319 0.98252159 -0.055788837 0
-0.73188215 0.59177941 0.10114993 0
-0.7396332 0.59804672 0.17154157 0
-1.3194273 1.066852 0.43290284 0
-1.3147261 1.0630507 0.56249738 0
-1.2295402 0.96882492 -0.055885814 0
-0.74259585 0.58513367 0.033752922 0
-0.73509055 0.57921982 0.10057735 0
-0.74371731 0.58601731 0.17076381 0
-1.3304853 1.0483654 0.43216541 0
-1.3214144 1.0412178 0.55970496 0
-1.2346749 0.94791824 -0.055572256 0
-0.74794501 0.5742327 0.033664726 0
-0.76272476 0.58557981 0.10334127 0
-0.75344092 0.57845217 0.17131038 0
-1.3343029 1.0244073 0.42918137 0
-1.3460755 1.0334457 0.56459379 0
-1.2563765 0.93967456 -0.056012016 0
-0.76447743 0.57177126 0.034082077 0
-0.76940829 0.57545918 0.10325682 0
-0.75517172 0.56481129 0.17007333 0
-1.3603077 1.0174072 0.43339074 0
-1.352303 1.0114202 0.56181937 0
-1.2629635 0.92003274 -0.055784762 0
-0.77509207 0.56463236 0.034235608 0
-0.778126 0.5668425 0.10346065 0
-0.77010804 0.56100166 0.17183258 0
-1.3729949 1.0001875 0.43338588 0
-1.3709035 0.9986639 0.56427777 0
-1.2742441 0.90391308 -0.055775844 0
-0.77414191 0.54915464 0.033885516 0
-0.79300153 0.56253308 0.1044884 0
-0.77914017 0.55270022 0.17228134 0
-1.3785911 0.97793394 0.43123108 0
-1.3826174 0.98079008 0.56397104 0
-1.2945566 0.89403486 -0.056167729 0
-0.7936731 0.54811925 0.034435585 0
-0.79119205 0.54640585 0.1033352 0
-0.78300661 0.54075289 0.17161702 0
-1.3910687 0.96068716 0.4313159 0
-1.4062213 0.97115171 0.56856585 0
-1.3105851 0.88094032 -0.056377403 0
-0.80283499 0.53964418 0.034535527 0
-0.80242229 0.53936678 0.10390665 0
-0.79340941 0.53330857 0.17241152 0
-1.4174225 0.95275354 0.43573278 0
-1.4063978 0.94534302 0.56377953 0
-1.3054342 0.85381287 -0.055688918 0
-0.80735344 0.52804559 0.03444114 0
-0.80642974 0.52744144 0.10355733 0
-0.79982102 0.52311903 0.17235969 0
-1.4234996 0.93103296 0.43396249 0
-1.4320728 0.93664014 0.56929862 0
-1.3351972 0.84947002 -0.056497797 0
-0.81270748 0.51705515 0.034389064 0
-0.81552202 0.5188458 0.10387769 0
-0.82079977 0.52220362 0.17544961 0
-1.4413545 0.9170087 0.43585089 0
-1.4497099 0.92232448 0.5716477 0
-1.323526 0.81881869 -0.055563241 0
-0.82775098 0.51210022 0.03475 0
-0.82675588 0.51148462 0.10447994 0
-0.82326651 0.50932586 0.17459212 0
-1.454805 0.90003639 0.43645647 0
-1.4596189 0.90301454 0.57102597 0
-1.339976 0.8058446 -0.055823404 0
-0.84455067 0.50790209 0.035183985 0
-0.84009492 0.5052225 0.10535332 0
-0.8525908 0.51273733 0.17942752 0
-1.4835809 0.89220685 0.44168395 0
-1.4823577 0.89147127 0.57548451 0
-1.3507838 0.78935736 -0.055855144 0
-0.90101659 0.52652693 0.037257191 0
-0.89832377 0.52495331 0.11181775 0
-0.9089216 0.53114635 0.18985972 0
-1.4811085 0.86551523 0.4376685 0
-1.4895773 0.87046409 0.57398647 0
-1.3688927 0.77698481 -0.056194928 0
-0.96611923 0.54837018 0.039660521 0
-0.97034264 0.55076742 0.11990943 0
-1.4943105 0.84817207 0.30988291 0
-1.5132213 0.85890579 0.4439266 0
-1.5053746 0.85445201 0.57588208 0
-1.3822923 0.76173985 -0.056346763 0
-1.0568886 0.58241963 0.043082241 0
-1.0420332 0.57423329 0.12786485 0
-1.5205009 0.83790249 0.31310129 0
-1.520537 0.83792239 0.44294229 0
-1.5210837 0.8382237 0.57780796 0
-1.3851422 0.74072832 -0.056078274 0
-1.1479168 0.613868 0.046474069 0
-1.1573647 0.61892045 0.14104934 0
-1.5402343 0.82366651 0.31500408 0
-1.5443604 0.82587296 0.44681731 0
-1.5400374 0.82356119 0.58102238 0
-1.3998055 0.72605401 -0.056297325 0
-1.2452897 0.64590937 0.050083011 0
-1.2506639 0.6486969 0.15141229 0
-1.5378696 0.7976653 0.31244144 0
-1.556036 0.80708796 0.44721952 0
-1.5604448 0.80937469 0.58483011 0
-1.4138772 0.71090567 -0.056498751 0
-1.3836031 0.69568372 0.055288997 0
-1.3795717 0.69365668 0.16594796 0
-1.5884279 0.79867077 0.32064447 0
-1.5741558 0.79149473 0.44952714 0
-1.573438 0.79113382 0.58591968 0
-1.4232959 0.69332922 -0.056521766 0
-1.5381532 0.74927962 0.061082967 0
-1.5269326 0.74381369 0.1825328 0
-1.5903833 0.77472246 0.31904462 0
-1.5982722 0.77856535 0.45357838 0
-1.4037038 0.66204864 -0.055408273 0
-1.648882 0.77768546 0.19592471 0
-1.6034731 0.75626862 0.31973478 0
-1.6097393 0.75922406 0.45408353 0
-1.4349555 0.65482998 -0.05631192 0
-1.6234639 0.7408542 0.19178076 0
-1.63069 0.74415177 0.32326776 0
-1.6233945 0.74082255 0.45526791 0
-1.4381232 0.63452023 -0.056118231 0
-1.6532134 0.72942102 0.19419466 0
-1.6494211 0.7277478 0.32513857 0
-1.6538858 0.72971773 0.46120545 0
-1.445375 0.61609638 -0.056094024 0
-1.6616948 0.70830351 0.19412786 0
-1.6579379 0.70670211 0.32503748 0
-1.6674844 0.71077132 0.46246505 0
-1.4497558 0.59650636 -0.055968095 0
-1.7008367 0.69981432 0.19765545 0
-1.6803938 0.69140303 0.32770708 0
-1.6864357 0.69388896 0.46526086 0
-1.4532144 0.57664257 -0.055816874 0
-1.6972049 0.67345923 0.19623235 0
-1.6855919 0.66885114 0.32705238 0
-1.6897392 0.67049682 0.46380618 0
-1.4694793 0.56178552 -0.056165431 0
-1.7318012 0.66207182 0.19925267 0
-1.706407 0.6523636 0.32947108 0
-1.7078739 0.65292442 0.46649015 0
-1.4796258 0.54441202 -0.056286763 0
-1.7280515 0.63581753 0.1978844 0
