# .PCD v0.7 - Point Cloud Data file format
VERSION 0.7
FIELDS x y z intensity
SIZE 4 4 4 4
TYPE F F F F
COUNT 1 1 1 1
WIDTH 1358
HEIGHT 1
VIEWPOINT 0 0 0 1 0 0 0
POINTS 1358
DATA ascii
-1.450928 -0.59698862 -0.056013349 0
-1.2374315 -0.5091449 0.34138775 0
-1.2733076 -0.52390617 0.45807889 0
-1.4477454 -0.6171068 -0.056186024 0
-1.2342236 -0.52609235 0.34230322 0
-1.2544688 -0.53472197 0.45368797 0
-1.4364067 -0.6337629 -0.056051251 0
-1.1432072 -0.50439912 0.31879672 0
-1.2486423 -0.55091858 0.45405367 0
-1.4277997 -0.65156448 -0.056031108 0
-1.1872191 -0.54177755 0.1402469 0
-1.1837951 -0.54021502 0.23467538 0
-1.1466926 -0.5232836 0.32158068 0
-1.4105741 -0.66528898 -0.055679463 0
-1.1578773 -0.54610604 0.13758218 0
-1.1542503 -0.54439533 0.23015913 0
-1.128859 -0.53241968 0.31843433 0
-1.1941447 -0.56321132 0.43925568 0
-1.4106539 -0.68717098 -0.056019735 0
-1.1565635 -0.5633961 0.1382581 0
-1.1492294 -0.55982345 0.23054536 0
-1.1237608 -0.54741687 0.31891537 0
-1.1952174 -0.5822255 0.44231203 0
-1.3996592 -0.70375675 -0.055930592 0
-1.1412597 -0.57383198 0.13728154 0
-1.1505033 -0.57847977 0.23224379 0
-1.1548277 -0.58065408 0.32978082 0
-1.1770414 -0.59182328 0.43830878 0
-1.3942279 -0.72316092 -0.056072999 0
-1.1442744 -0.59351456 0.13853219 0
-1.1471564 -0.59500939 0.23306213 0
-1.2022249 -0.62357247 0.34553084 0
-1.3804065 -0.73819584 -0.055886548 0
-1.2316084 -0.65862352 0.35633132 0
-1.3733318 -0.75680202 -0.055981506 0
-1.1304331 -0.62294781 0.32930249 0
-1.3563918 -0.7698893 -0.055681746 0
-1.135536 -0.64453125 0.33312684 0
-1.3550962 -0.79187739 -0.056033462 0
-0.777264 -0.45420966 0.032140002 0
-1.1113626 -0.64944679 0.3284083 0
-1.3334317 -0.80190903 -0.055550776 0
-1.1099069 -0.66748399 0.33043566 0
-1.3277526 -0.82143348 -0.055740677 0
-1.3247876 -0.84284729 -0.056057319 0
-0.78717089 -0.50080848 0.033308502 0
-1.3196629 -0.86311913 -0.056295909 0
-0.76860297 -0.50270098 0.032788068 0
-1.3078799 -0.8791219 -0.056261029 0
-0.76034391 -0.51108289 0.032707695 0
-1.2879642 -0.8894822 -0.055881705 0
-0.77191603 -0.53309363 0.0334916 0
-1.2804316 -0.90830237 -0.056046687 0
-0.78510118 -0.55692881 0.034365226 0
-1.2675803 -0.92339593 -0.055988681 0
-0.780101 -0.56828123 0.034456853 0
-1.2523811 -0.93668628 -0.055833887 0
-1.2473838 -0.95767546 -0.056144282 0
-1.2346709 -0.97286767 -0.056119017 0
-1.2189696 -0.98562473 -0.055965036 0
-0.78230935 -0.63255346 0.10811923 0
-1.2041115 -0.99894422 -0.055855963 0
-0.78331828 -0.64984953 0.10938094 0
-1.1981491 -1.019738 -0.056170586 0
-1.1843504 -1.033989 -0.056129638 0
-1.1709766 -1.048586 -0.056117147 0
-0.66714692 -0.59741658 0.16150944 0
-1.1634028 -1.0685021 -0.056394506 0
-0.66674083 -0.61235368 0.16326492 0
-1.1407692 -1.0745063 -0.055948813 0
-0.65808284 -0.61985731 0.16304322 0
-1.1335502 -1.0949675 -0.05626652 0
-0.66569108 -0.64303303 0.16692108 0
-1.1068991 -1.0964993 -0.055624586 0
-0.66410446 -0.65786493 0.16858706 0
-1.1004128 -1.117875 -0.056001578 0
-0.66356725 -0.67409718 0.170592 0
-1.0827122 -1.1279559 -0.055819172 0
-0.62541974 -0.65155441 0.097060487 0
-0.65629166 -0.68371642 0.17092136 0
-1.0665188 -1.1394637 -0.055719636 0
-0.6191805 -0.66152954 0.097377256 0
-0.65991867 -0.70505399 0.17416435 0
-1.0528592 -1.1536481 -0.055760529 0
-0.62446171 -0.6842407 0.099554963 0
-1.0377766 -1.1662815 -0.055735108 0
-1.0275459 -1.1844853 -0.055982266 0
-1.019304 -1.2053157 -0.056355666 0
-0.99707687 -1.2095988 -0.055964448 0
-0.98167807 -1.221946 -0.055959351 0
-0.97336209 -1.2433398 -0.056373313 0
-0.94767016 -1.2424395 -0.055787016 0
-0.93673205 -1.2607076 -0.0560732 0
-0.91436148 -1.2635272 -0.055682085 0
-0.90923715 -1.2903484 -0.056355037 0
-0.88471472 -1.2897358 -0.055837303 0
-0.87265718 -1.3071421 -0.056110695 0
-0.85596925 -1.3177795 -0.056100193 0
-0.8398245 -1.3292688 -0.056134652 0
-0.82154739 -1.3373393 -0.056034155 0
-0.80033809 -1.340367 -0.055734329 0
-0.78811824 -1.3584746 -0.056070164 0
-0.76636028 -1.3601427 -0.055736292 0
-0.7513079 -1.3735863 -0.055895071 0
-0.7354995 -1.3858508 -0.056012832 0
-0.72042757 -1.3997345 -0.056202862 0
-0.69544709 -1.3940632 -0.055619113 0
-0.68005365 -1.4072922 -0.055800837 0
-0.66204947 -1.4152501 -0.055781391 0
-0.64481282 -1.4248782 -0.055836424 0
-0.56158054 -1.2409554 0.45316598 0
-0.62746912 -1.4343665 -0.055894181 0
-0.54669952 -1.2497308 0.45382065 0
-0.61084086 -1.4456605 -0.05603011 0
-0.53051722 -1.2555606 0.45347583 0
-0.59217429 -1.4522181 -0.055990823 0
-0.5146001 -1.261979 0.45341766 0
-0.57488579 -1.4622135 -0.056092646 0
-0.49892992 -1.2690209 0.45365447 0
-0.55653769 -1.4696226 -0.056103583 0
-0.48545039 -1.2819059 0.45603922 0
-0.53947932 -1.4806032 -0.056258976 0
-0.46998629 -1.2898793 0.45673418 0
-0.51948416 -1.4835379 -0.056117482 0
-0.45620778 -1.3028339 0.45925075 0
-0.5024997 -1.4951273 -0.056312058 0
-0.44318935 -1.3186566 0.46282434 0
-0.48108414 -1.4934193 -0.056015119 0
-0.42794392 -1.3284571 0.46433601 0
-0.46034259 -1.4931971 -0.055784937 0
-0.41145194 -1.3346121 0.46463957 0
-0.442761 -1.5031391 -0.055943642 0
-0.40422955 -1.3723279 0.47596031 0
-0.42512724 -1.513321 -0.056118902 0
-0.38700104 -1.3776037 0.051086057 0
-0.3867504 -1.3767114 0.15368147 0
-0.38353714 -1.3652732 0.25575656 0
-0.38590673 -1.3737082 0.36404383 0
-0.38803285 -1.3812765 0.47733143 0
-0.40472576 -1.5136425 -0.055937398 0
-0.37474036 -1.4014995 0.051793098 0
-0.3737992 -1.3979797 0.15551788 0
-0.37492299 -1.4021826 0.26176563 0
-0.37463683 -1.4011122 0.37002659 0
-0.37558439 -1.4046562 0.48373806 0
-0.38816521 -1.5285821 -0.056304403 0
-0.36524412 -1.518203 -0.055748269 0
-0.34508646 -1.518226 -0.055585142 0
-0.32742411 -1.52937 -0.055837765 0
-0.3083508 -1.5344126 -0.055875685 0
-0.2906023 -1.5466682 -0.056184258 0
-0.27023268 -1.5452175 -0.056003511 0
-0.25028303 -1.5455824 -0.055898078 0
-0.23206688 -1.5570953 -0.056204319 0
-0.21220326 -1.5581353 -0.056140956 0
-0.19185726 -1.5549264 -0.055933855 0
-0.15393318 -1.2475668 0.044877511 0
-0.15358239 -1.2447239 0.13478403 0
-0.17284413 -1.5624661 -0.056122333 0
-0.13702676 -1.2386864 0.044492465 0
-0.13507184 -1.2210145 0.13202204 0
-0.15271895 -1.560043 -0.055961784 0
-0.11982255 -1.2240024 0.043907348 0
-0.11955009 -1.2212189 0.13187093 0
-0.13336024 -1.5653192 -0.056086365 0
-0.1018224 -1.1951431 0.042822722 0
-0.10227238 -1.2004247 0.12947616 0
-0.11275914 -1.5547235 -0.055651426 0
-0.084924728 -1.1709425 0.04191396 0
-0.086286835 -1.1897233 0.12819457 0
-0.094044849 -1.5705575 -0.056171361 0
-0.070304848 -1.1740972 0.041991867 0
-0.070164569 -1.1717546 0.1261532 0
-0.073770605 -1.5612139 -0.055799536 0
-0.054765172 -1.5810145 -0.056478109 0
-0.034553982 -1.5679671 -0.055992037 0
-0.014758746 -1.5629941 -0.055803392 0
0.0049383705 -1.5681235 -0.055984307 0
0.024758482 -1.5727605 -0.056156535 0
0.044517905 -1.5708572 -0.056104142 0
0.064197704 -1.5678357 -0.056020662 0
0.083911449 -1.5664903 -0.056005903 0
0.10276693 -1.552291 -0.055540103 0
0.1225561 -1.5540706 -0.055654582 0
0.1428304 -1.5602298 -0.05593513 0
0.16233099 -1.5570294 -0.055889249 0
0.18115419 -1.5482912 -0.055653062 0
0.20112541 -1.5496686 -0.05578918 0
0.22248574 -1.5600842 -0.056260552 0
0.24036396 -1.54592 -0.055854477 0
0.25939551 -1.5403103 -0.05576539 0
0.27970374 -1.5420738 -0.055952314 0
0.29883429 -1.5370725 -0.055902954 0
0.31848687 -1.534743 -0.055959649 0
0.33867857 -1.534656 -0.056107532 0
0.35725293 -1.5271838 -0.055994373 0
0.37790132 -1.5284194 -0.056209695 0
0.39448753 -1.5134557 -0.05583765 0
0.41307461 -1.5067714 -0.055778518 0
0.43336844 -1.5061584 -0.055953402 0
0.45796058 -1.5193675 -0.056653857 0
0.47175136 -1.496655 -0.056024019 0
0.49173552 -1.4941723 -0.05615842 0
0.51070088 -1.4884187 -0.056179423 0
0.52694446 -1.4749931 -0.055918694 0
0.54835761 -1.4760014 -0.056214239 0
0.56438065 -1.4624547 -0.055964537 0
0.58123612 -1.4514521 -0.055819154 0
0.60142803 -1.4487458 -0.056001887 0
0.6191569 -1.439977 -0.055959869 0
0.63939124 -1.436904 -0.056148879 0
0.65255159 -1.4181312 -0.055731986 0
0.68040782 -1.4309423 -0.056567688 0
0.69031113 -1.4058471 -0.055914827 0
0.70701176 -1.395177 -0.055840112 0
0.72470093 -1.3865054 -0.055853851 0
0.7442537 -1.3812653 -0.056015853 0
0.76022172 -1.3693265 -0.055915471 0
0.7728318 -1.3516511 -0.055586688 0
0.79893243 -1.3573465 -0.056230184 0
0.81413525 -1.3441671 -0.056104455 0
0.82309043 -1.3211216 -0.055570751 0
0.84886897 -1.3250282 -0.056180242 0
0.86591643 -1.3148894 -0.056208223 0
0.88158637 -1.3026743 -0.056156155 0
0.89417857 -1.2860913 -0.055922244 0
0.9106102 -1.2751633 -0.055941228 0
0.92892599 -1.2667769 -0.056082025 0
0.94412464 -1.2540797 -0.056041781 0
0.96395463 -1.247417 -0.05628201 0
0.97929794 -1.2348192 -0.056265537 0
0.99234778 -1.2194165 -0.056128636 0
0.99837923 -1.1957537 -0.055613715 0
1.0168966 -1.1872216 -0.055808026 0
1.0356461 -1.1787415 -0.056017976 0
1.0517004 -1.1670444 -0.056087013 0
1.0620482 -1.1490971 -0.055862769 0
1.0832596 -1.142836 -0.056217067 0
1.08716 -1.1184036 -0.055684209 0
1.1004279 -1.1038959 -0.055647396 0
1.1235573 -1.0990669 -0.056112722 0
1.1350377 -1.0826684 -0.056000765 0
1.1461265 -1.0660093 -0.05588115 0
1.1689605 -1.0601112 -0.056339126 0
1.1697069 -1.0342482 -0.055743009 0
1.1881438 -1.0241854 -0.056002583 0
1.1977081 -1.0064238 -0.055851623 0
1.2132713 -0.99370903 -0.055989422 0
1.2174771 -0.97180051 -0.055614389 0
1.2427673 -0.96662247 -0.056209181 0
1.2436261 -0.94240028 -0.055706874 0
1.2620442 -0.93157607 -0.056001995 0
1.2669388 -0.91076994 -0.055705864 0
1.2766268 -0.89357007 -0.055632684 0
1.2926295 -0.8807314 -0.055842329 0
1.308426 -0.86757481 -0.056048349 0
1.3169382 -0.84954256 -0.055950299 0
1.3255795 -0.83166927 -0.055868067 0
1.3316514 -0.81229299 -0.055688467 0
1.3544282 -0.80296367 -0.056213677 0
1.3589041 -0.78266281 -0.055985969 0
1.366053 -0.76403743 -0.05587969 0
1.3775505 -0.74785453 -0.055960353 0
1.3929842 -0.73367703 -0.056207564 0
1.3883182 -0.70903498 -0.055654611 0
1.3962041 -0.69103712 -0.0556175 0
1.416244 -0.67889088 -0.056070805 0
1.4199169 -0.658795 -0.055883352 0
1.4356719 -0.64426249 -0.056179672 0
1.4361165 -0.62285852 -0.055885728 0
1.4470513 -0.60606951 -0.056009822 0
1.4554656 -0.58816415 -0.056044396 0
1.4590601 -0.56835181 -0.055902794 0
1.4732798 -0.55262834 -0.05617654 0
1.4761406 -0.5325979 -0.056025457 0
1.4807345 -0.51327771 -0.055950068 0
1.4716394 -0.48945737 -0.055369135 0
1.495788 -0.47665745 -0.056047432 0
1.4928228 -0.4550885 -0.055717185 0
1.4906352 -0.43398523 -0.055427175 0
1.510747 -0.41927981 -0.055974249 0
1.5171458 -0.40055168 -0.05602001 0
1.5136714 -0.37931287 -0.055710938 0
1.5321925 -0.36351332 -0.056219678 0
1.5259972 -0.34180668 -0.055830006 0
1.5414622 -0.32494375 -0.05624165 0
1.5434501 -0.30511743 -0.056169543 0
1.5327654 -0.28299984 -0.055646606 0
1.541544 -0.26459405 -0.055839922 0
1.5474597 -0.2455927 -0.055937752 0
1.5499712 -0.22602203 -0.055921223 0
1.5346593 -0.20408969 -0.055271681 0
1.5602646 -0.18753363 -0.056104373 0
1.5671402 -0.16837145 -0.056270912 0
1.5543622 -0.14722656 -0.055741105 0
1.560872 -0.12803563 -0.055912308 0
1.5620974 -0.10835397 -0.055902895 0
1.5717937 -0.089156315 -0.056205261 0
1.5698009 -0.06922657 -0.056098383 0
1.5635699 -0.049235657 -0.055849131 0
1.5583388 -0.029436335 -0.055644628 0
1.5586427 -0.0098129883 -0.055646658 0
1.5612952 0.0098296879 -0.055741355 0
1.5766679 0.029782563 -0.05629912 0
1.5519334 0.048869234 -0.055433489 0
0.86949843 0.027379861 0.28942046 0
1.5629234 0.068923287 -0.055852611 0
0.91407412 0.040309712 0.30440271 0
1.5640616 0.088717736 -0.055928774 0
1.4993531 0.085047297 0.053614881 0
1.5023148 0.085215293 0.16171224 0
1.4955498 0.084831566 0.270154 0
0.92349327 0.052382994 0.3077347 0
1.5664974 0.10865918 -0.056060363 0
1.4730955 0.10218041 0.052717779 0
1.4834043 0.10289547 0.15980348 0
1.4792819 0.10260952 0.26742759 0
0.94461781 0.065522864 0.31502399 0
1.5588437 0.12786925 -0.05583965 0
1.4701347 0.12059261 0.052661989 0
1.4611555 0.11985606 0.15755677 0
1.4589761 0.1196773 0.26400819 0
0.95237762 0.078121886 0.31791469 0
1.5630046 0.14804517 -0.056051034 0
1.448734 0.13722165 0.05195317 0
1.4396958 0.13636556 0.15541561 0
1.4448014 0.13684916 0.26173431 0
0.97424972 0.092279293 0.32557791 0
1.5679874 0.16846247 -0.056301333 0
1.4300328 0.15364082 0.051347833 0
1.4352807 0.15420464 0.1551363 0
1.4231105 0.15289709 0.25813317 0
0.99552816 0.10695822 0.33311251 0
1.5597488 0.18747164 -0.056085825 0
1.4197644 0.17064643 0.051052235 0
1.4300301 0.1718803 0.15479045 0
1.4076563 0.16919112 0.25569615 0
1.0015949 0.12038518 0.33562312 0
1.5656776 0.20821473 -0.056388829 0
1.4012648 0.18634996 0.050467398 0
1.3967907 0.18575495 0.15143371 0
1.4007392 0.18628006 0.25484556 0
1.0017357 0.13321778 0.33620575 0
1.5561094 0.22691713 -0.056142684 0
1.3787202 0.20104963 0.049742676 0
1.3797165 0.20119491 0.14984539 0
1.377174 0.20082416 0.25099838 0
0.98866546 0.14417054 0.33240205 0
1.5523468 0.24636832 -0.056114413 0
1.3617758 0.21612336 0.049225625 0
1.3615413 0.21608615 0.14815523 0
1.3648342 0.21660873 0.24922672 0
0.9906773 0.15722743 0.33371761 0
1.5519552 0.26638106 -0.056217052 0
1.3879439 0.2382298 0.050276008 0
1.3925723 0.23902421 0.15184732 0
1.3868616 0.23804402 0.25377631 0
1.0154843 0.17430001 0.34278625 0
1.5440837 0.28508958 -0.056057513 0
1.3988441 0.25827351 0.050784633 0
1.4114264 0.2605966 0.15424877 0
1.405172 0.25944182 0.25770423 0
0.99913532 0.18447384 0.3380248 0
1.5448855 0.30540118 -0.056221779 0
1.4244112 0.28158519 0.051837455 0
1.4350568 0.28368965 0.15720917 0
1.41777 0.28027231 0.26064125 0
1.3306743 0.26305479 0.34606776 0
1.0007385 0.19783132 0.3393831 0
1.5379882 0.32421142 -0.056114897 0
1.4520687 0.30609939 0.052980047 0
1.4636576 0.30854234 0.16075525 0
1.4286728 0.30116746 0.26332191 0
1.3071532 0.27555087 0.34082597 0
1.0062551 0.21212089 0.34213269 0
1.5257025 0.34174064 -0.055819221 0
1.4920161 0.33419529 0.054586776 0
1.4843696 0.33248258 0.16347694 0
1.4213723 0.31837183 0.26269445 0
1.2906237 0.28908557 0.33743846 0
0.99964315 0.22390912 0.3408162 0
1.5324332 0.36357042 -0.056228511 0
1.4969429 0.35515034 0.054926291 0
1.5160618 0.35968632 0.16745281 0
1.4218386 0.33733183 0.2635448 0
1.2863488 0.30518681 0.33729884 0
0.99715602 0.23657571 0.34095687 0
0.75439513 0.17898057 0.45981145 0
1.5350422 0.38466817 -0.056497492 0
1.4154373 0.35469627 0.2631653 0
1.2561079 0.31476972 0.33038238 0
1.0041171 0.251623 0.34439316 0
0.76637018 0.19204569 0.4685472 0
1.5154934 0.40011543 -0.055958997 0
1.4195263 0.37477851 0.26478198 0
1.2515032 0.33041763 0.33023942 0
0.99423414 0.26249433 0.34211004 0
0.78539139 0.20735635 0.40642786 0
0.79252529 0.20923984 0.48611039 0
1.5119697 0.41961917 -0.056019548 0
1.4107914 0.39153901 0.26405138 0
1.2408777 0.34438261 0.32855386 0
0.99808061 0.27699879 0.34460649 0
0.82321495 0.22846806 0.3537235 0
0.80094135 0.22228643 0.41589025 0
0.80055386 0.22217889 0.49271181 0
1.500567 0.43687677 -0.055796474 0
1.4020119 0.40818334 0.26334929 0
1.2269385 0.35721228 0.32602823 0
0.98949671 0.2880832 0.34286803 0
0.83141768 0.2420599 0.35852939 0
0.80738449 0.23506285 0.4207395 0
0.81296736 0.23668824 0.50214642 0
1.4948792 0.45571539 -0.055793937 0
1.3908213 0.42399323 0.26222935 0
1.2059129 0.36762372 0.32164583 0
0.98824596 0.30126774 0.34372193 0
0.84496772 0.25758922 0.36574227 0
0.8383866 0.25558296 0.43853748 0
0.83444232 0.25438055 0.51734841 0
1.5068449 0.48018092 -0.056461733 0
1.3914635 0.44341275 0.26338232 0
1.2016745 0.38293335 0.32177594 0
0.97923017 0.31204781 0.34192571 0
0.86329967 0.27510464 0.37514693 0
0.8460995 0.26962355 0.4443126 0
0.84641999 0.26972565 0.52683848 0
1.4818145 0.49284154 -0.055751964 0
1.3981591 0.46501833 0.265737 0
1.1876163 0.39499319 0.31931809 0
0.98739219 0.32840002 0.34619221 0
0.8878147 0.2952812 0.38738498 0
0.85665488 0.28491765 0.45170376 0
0.85849094 0.28552833 0.53654718 0
1.4865366 0.51528889 -0.056169301 0
1.3771257 0.47736305 0.26286098 0
1.1728092 0.40653932 0.31668818 0
0.9773643 0.33879083 0.34414476 0
0.89742827 0.31108207 0.39325777 0
0.88714522 0.30751756 0.46978554 0
0.88427252 0.30652177 0.55502868 0
1.4765513 0.53274608 -0.056041043 0
1.1681246 0.42146435 0.31683114 0
0.96491921 0.348147 0.34127927 0
0.90398198 0.32616061 0.39789784 0
0.90289932 0.32576999 0.48026231 0
0.89592296 0.32325286 0.5648514 0
1.4581541 0.54695463 -0.05559979 0
1.1516002 0.4319661 0.31379971 0
0.96727586 0.36282587 0.34370145 0
0.91941088 0.3448717 0.40656829 0
0.93083918 0.34915844 0.49742302 0
0.92309684 0.34625429 0.58468622 0
1.4624397 0.56966829 -0.056032281 0
1.1341391 0.44178441 0.31053296 0
0.97104353 0.37825334 0.3467052 0
0.93532974 0.36434165 0.41560352 0
0.94451004 0.36791769 0.507164 0
0.94984818 0.36999705 0.60453355 0
1.4498695 0.58590275 -0.055828914 0
1.1271068 0.45547199 0.31015328 0
0.99665672 0.40275618 0.35763264 0
0.96591902 0.39033484 0.43134537 0
0.97369444 0.39347696 0.52545369 0
0.9631803 0.38922811 0.6160894 0
1.4444997 0.60500085 -0.055911064 0
1.1179599 0.46823591 0.30923423 0
1.008221 0.4222739 0.3636615 0
0.99778295 0.41790214 0.44788912 0
0.98526657 0.41265988 0.53446043 0
0.99510056 0.41677865 0.63981313 0
1.4348232 0.62229759 -0.0558354 0
1.1054219 0.47943285 0.30741167 0
1.0490503 0.45498392 0.38042483 0
1.0224346 0.44344044 0.46142483 0
1.0238948 0.44407374 0.55840343 0
1.02421 0.44421041 0.66207337 0
1.4449894 0.64844376 -0.056544282 0
1.0870075 0.48779821 0.30397484 0
1.0868391 0.48772261 0.39632416 0
1.0439718 0.4684858 0.47376931 0
1.0383359 0.46595669 0.56943399 0
1.0409458 0.46712786 0.67664057 0
1.4192156 0.65846962 -0.055855751 0
1.0764966 0.49945924 0.30277029 0
1.077517 0.49993268 0.39518911 0
1.0706882 0.49676433 0.48869365 0
1.0752622 0.4988865 0.59308285 0
1.411633 0.67668056 -0.055888247 0
1.0770216 0.51628119 0.30472225 0
1.0993736 0.52699584 0.40560687 0
1.1068393 0.53057462 0.50820321 0
1.1127341 0.5334003 0.61740702 0
1.4145771 0.70013058 -0.056349386 0
1.0599698 0.52462131 0.30174294 0
1.1414872 0.56496757 0.42373556 0
1.1414583 0.56495327 0.52732307 0
1.1374837 0.56298608 0.6350227 0
1.3993568 0.71467257 -0.056097127 0
1.6893288 0.86276567 0.34210187 0
1.0435177 0.53294021 0.2989462 0
1.1811292 0.60322052 0.44123593 0
1.1757566 0.60047656 0.54661769 0
1.173388 0.59926695 0.65922749 0
1.3852571 0.72960722 -0.055895768 0
1.6923817 0.89136809 0.34496576 0
1.0277185 0.54129368 0.29634926 0
1.2136788 0.63923794 0.45636636 0
1.2123666 0.63854676 0.56733119 0
1.2218214 0.64352655 0.69093597 0
1.3745501 0.74622571 -0.055838469 0
1.6703861 0.90683126 0.34278271 0
1.0286367 0.55843377 0.29861802 0
1.2524209 0.6799233 0.47411591 0
1.2592329 0.68362147 0.59324372 0
1.3638115 0.76278377 -0.055788003 0
1.0160295 0.56826824 0.041561648 0
1.0087214 0.56418079 0.12421046 0
1.0144525 0.56738627 0.20962702 0
1.0115286 0.56575096 0.29569617 0
1.3082161 0.7316891 0.49868608 0
1.2997361 0.72694618 0.61658901 0
1.3571163 0.78163314 -0.055912312 0
1.0122267 0.58299345 0.041703083 0
1.009446 0.58139193 0.12519126 0
1.0059549 0.57938117 0.20936206 0
1.0085286 0.58086354 0.29693383 0
1.3389437 0.77116656 0.5140602 0
1.3411399 0.77243149 0.64079428 0
1.3510545 0.80096358 -0.056073658 0
1.0039998 0.59521455 0.04166963 0
0.99573046 0.59031212 0.12440227 0
0.99197388 0.58808506 0.20797701 0
0.99700373 0.59106696 0.29570854 0
1.3714143 0.8130337 0.53041518 0
1.3769231 0.81629956 0.66275012 0
1.3429374 0.81917721 -0.056160431 0
0.9833923 0.59985864 0.041124582 0
0.97748768 0.59625691 0.12305138 0
0.98496521 0.6008181 0.2080773 0
0.97748673 0.59625632 0.29212359 0
1.4165156 0.86405921 0.55202323 0
1.411352 0.86090946 0.68448538 0
1.3323594 0.83592296 -0.056153815 0
0.98102957 0.61549842 0.041346613 0
0.97049385 0.60888839 0.1231264 0
0.97317344 0.61056954 0.20719402 0
0.97229028 0.61001539 0.29284301 0
1.4403805 0.9036954 0.56571329 0
1.3181912 0.85035086 -0.05600353 0
0.95426053 0.61558312 0.040541887 0
0.9603526 0.61951303 0.12281976 0
0.96084213 0.61982882 0.206214 0
0.96564233 0.6229254 0.29318002 0
1.4682183 0.94713169 0.58128476 0
1.3091532 0.86805701 -0.056079499 0
0.94635731 0.62749881 0.040538605 0
0.95097858 0.63056302 0.12262666 0
0.95255673 0.63160944 0.20612639 0
0.95579654 0.63375765 0.29259047 0
1.4958407 0.9918434 0.5971182 0
1.3003495 0.88599139 -0.056175835 0
0.92979199 0.6335125 0.04016754 0
0.94112891 0.6412369 0.12238806 0
0.94153792 0.64151561 0.20547375 0
0.94082016 0.6410265 0.29045382 0
1.5171946 1.0337385 0.61079013 0
1.2818943 0.89725703 -0.055862233 0
0.93785596 0.65644866 0.040869769 0
0.938788 0.65710104 0.12314991 0
0.93893033 0.65720069 0.2066943 0
0.92796135 0.64952296 0.28898612 0
1.5361991 1.0752567 0.62384236 0
1.2663422 0.91034102 -0.05567963 0
0.92292708 0.66346866 0.040580057 0
0.91800451 0.65992999 0.12150401 0
0.9298262 0.6684283 0.20652668 0
0.92410624 0.66431636 0.29036763 0
1.5416765 1.1082718 0.63168389 0
1.2617724 0.93137538 -0.055989932 0
0.91814172 0.67772496 0.040741656 0
0.91622138 0.6763075 0.12238547 0
0.91258109 0.6736204 0.20456412 0
0.9148587 0.67530161 0.29011089 0
1.5538801 1.1469944 0.64255118 0
1.2516459 0.94847763 -0.056066114 0
0.9043473 0.68530017 0.04050925 0
0.90321219 0.68444002 0.12178934 0
0.90493029 0.68574196 0.20476851 0
0.8989594 0.68121731 0.28776643 0
1.5761335 1.1943692 0.65792024 0
1.2396027 0.96416092 -0.056066044 0
0.89177024 0.69361746 0.040333916 0
0.88363397 0.68728906 0.12030684 0
0.89071536 0.69279695 0.20350985 0
0.88755763 0.69034094 0.28687653 0
1.5696146 1.2208438 0.66156381 0
1.2283641 0.98049057 -0.056111708 0
0.88727361 0.70822924 0.040530685 0
0.87985665 0.70230901 0.12098703 0
0.8780269 0.70084846 0.20261113 0
0.87316829 0.69697022 0.28503972 0
1.5921693 1.270883 0.6777615 0
1.2113506 0.992136 -0.05590079 0
0.9351989 0.76595867 0.12991299 0
0.93434238 0.76525712 0.2178127 0
0.93131977 0.76278156 0.30713406 0
1.5936508 1.3052524 0.68533438 0
1.1957901 1.0048121 -0.055762183 0
1.6392921 1.3774831 0.2301133 0
1.6066432 1.3500484 0.37847167 0
1.5971987 1.3421124 0.53226125 0
1.5918049 1.3375798 0.69172889 0
1.1838398 1.0204754 -0.055799719 0
1.6067355 1.3850133 0.38257143 0
1.5955495 1.3753709 0.53744048 0
1.1857873 1.0484663 -0.056509323 0
1.6109998 1.4244368 0.38782689 0
1.5935168 1.4089785 0.54268903 0
1.1675111 1.0587968 -0.056269273 0
1.6100479 1.4601263 0.3919929 0
1.6072329 1.4575734 0.55356699 0
1.1492319 1.0688975 -0.056032553 0
1.5946263 1.4831576 0.39275414 0
1.6011895 1.4892621 0.55790025 0
1.135111 1.0827383 -0.056004379 0
0.6025458 0.574745 0.3447687 0
0.61047018 0.58230376 0.42211387 0
1.1159862 1.0916607 -0.055734601 0
0.59668022 0.58367425 0.4176276 0
0.59226876 0.57935894 0.49134979 0
1.111479 1.1149819 -0.056206238 0
0.5742358 0.57604551 0.40696305 0
0.57706773 0.57888639 0.48474789 0
1.0936235 1.1250527 -0.056015268 0
0.58604342 0.60288548 0.34811482 0
0.59027725 0.60724103 0.42371726 0
0.56178582 0.57793081 0.47798607 0
1.0769665 1.1361969 -0.055890482 0
0.58106112 0.61301798 0.34971288 0
0.57450569 0.60610199 0.4178414 0
0.56207097 0.59298342 0.48454341 0
1.0728607 1.1607958 -0.056431498 0
1.5734061 1.7023675 0.41806918 0
1.578805 1.7082088 0.59345496 0
0.53614545 0.58008969 0.46845379 0
1.0530406 1.1685318 -0.056158494 0
1.5633909 1.7348541 0.42117926 0
1.5601023 1.7312049 0.59457201 0
0.52220756 0.57948011 0.46261463 0
1.0367688 1.1800193 -0.056078706 0
1.5591309 1.7745562 0.42601776 0
1.5530399 1.7676237 0.60031575 0
1.0205649 1.1915044 -0.056009341 0
1.5394192 1.797264 0.42678171 0
1.5475354 1.8067397 0.60693401 0
1.0051856 1.2039056 -0.05599286 0
0.58061534 0.6954 0.032342598 0
1.535614 1.839197 0.43211323 0
1.5297235 1.832142 0.60894823 0
0.98743773 1.2133828 -0.055850916 0
1.5264711 1.8757577 0.4361524 0
1.5251665 1.8741546 0.61647987 0
0.97129309 1.2247256 -0.05580562 0
1.504207 1.8966889 0.43658048 0
1.506631 1.8997453 0.61860806 0
0.95563936 1.2366564 -0.055796511 0
1.4953502 1.9350758 0.44104716 0
1.4918376 1.9305302 0.62246597 0
0.94457924 1.2546835 -0.056068767 0
1.4689699 1.9512311 0.44047838 0
1.4812196 1.9675024 0.62832326 0
0.92175734 1.257001 -0.055649236 0
1.4600636 1.9910896 0.44529051 0
1.458622 1.9891236 0.62931252 0
0.9127906 1.2782167 -0.056075178 0
1.4435477 2.0214567 0.44798112 0
1.4378716 2.0135083 0.63124889 0
0.8981232 1.2917649 -0.05616894 0
1.4330786 2.061188 0.45275101 0
1.4282373 2.0542245 0.6383248 0
0.8823126 1.3037474 -0.056202412 0
1.4050821 2.0762167 0.45212996 0
1.4009186 2.0700645 0.63771474 0
0.86508733 1.3136303 -0.056154404 0
1.4441398 2.1929185 0.093741767 0
1.4421802 2.1899426 0.28180188 0
1.3863161 2.1051135 0.45458513 0
1.3830346 2.1001306 0.64156103 0
0.84869325 1.3247539 -0.056168616 0
1.4033878 2.1905954 0.092879675 0
1.4064867 2.1954327 0.2802071 0
1.3571661 2.1184461 0.45373788 0
1.36097 2.1243839 0.64368379 0
0.82463056 1.3235935 -0.055674732 0
1.37137 2.2011511 0.092587709 0
1.3714761 2.2013214 0.27873242 0
1.342245 2.1544034 0.45778295 0
1.3484776 2.164407 0.65061414 0
0.80807287 1.3341579 -0.055686679 0
1.340116 2.2125807 0.09235134 0
1.3469185 2.2238116 0.27941042 0
1.3201696 2.1796484 0.45957839 0
1.3208538 2.180778 0.65048397 0
0.79987174 1.3589424 -0.056296296 0
1.3297229 2.2591331 0.093588099 0
1.3283546 2.2568085 0.28143233 0
1.2972943 2.2040386 0.46124011 0
1.2989099 2.2067835 0.65331036 0
0.77923495 1.36285 -0.056047238 0
1.271505 2.2238102 0.46199042 0
1.2733755 2.2270815 0.65452063 0
0.75352728 1.3572683 -0.055423085 0
1.2479073 2.2477555 0.46366373 0
1.2487258 2.2492297 0.65635657 0
0.74386543 1.3805447 -0.055986628 0
1.2236224 2.2709289 0.46522868 0
1.217757 2.2600434 0.65498543 0
0.72604793 1.3890826 -0.055957668 0
1.1967711 2.289675 0.46594483 0
1.1906921 2.2780447 0.65580517 0
0.71063179 1.4023206 -0.056126021 0
1.1697452 2.3083091 0.46670234 0
1.1660601 2.3010371 0.65814507 0
0.69011217 1.4054419 -0.055898711 0
1.1442109 2.3302326 0.46818474 0
1.1419454 2.3256187 0.66101068 0
0.67784244 1.4255471 -0.056354403 0
1.1156275 2.3462379 0.46854082 0
1.109382 2.3331032 0.65911514 0
0.65608108 1.4258015 -0.056033429 0
1.0824895 2.3524761 0.46702749 0
1.0865406 2.3612802 0.66315752 0
0.63607031 1.4294407 -0.055857249 0
1.0519044 2.3639448 0.46663764 0
1.0562441 2.3736973 0.66285688 0
0.61916745 1.4400015 -0.055960823 0
1.026776 2.3879793 0.46879262 0
1.0311865 2.3982365 0.66603065 0
0.60156113 1.4490665 -0.056014281 0
0.99586052 2.3988719 0.46843204 0
0.99874181 2.4058125 0.66458923 0
0.58349591 1.4570953 -0.056036174 0
0.97097504 2.424701 0.47105089 0
0.96535438 2.4106653 0.66251922 0
0.56705016 1.469372 -0.056229249 0
0.93614429 2.4257894 0.46893504 0
0.94006658 2.4359531 0.66616297 0
0.54719198 1.4728637 -0.056094743 0
0.90538448 2.4370022 0.46886152 0
0.90416306 2.4337146 0.66238469 0
0.52685744 1.4747494 -0.055909459 0
0.87456 2.4480188 0.46882513 0
0.87883979 2.4599986 0.66647357 0
0.50986201 1.4859738 -0.05608714 0
0.84256327 2.4556191 0.46821168 0
0.84326375 2.4576607 0.66291082 0
0.49007866 1.4891378 -0.055969197 0
0.81421429 2.4740465 0.46973306 0
0.81340933 2.4716003 0.66385537 0
0.47349223 1.5021778 -0.056230757 0
0.78066969 2.4767137 0.46833593 0
0.77985251 2.4741213 0.66184247 0
0.45431045 1.5072576 -0.056202304 0
0.75022012 2.4889917 0.46883413 0
0.74931657 2.4859941 0.66244191 0
0.43221617 1.5021536 -0.055804629 0
0.71270478 2.4769831 0.46484479 0
0.71591097 2.488126 0.66055542 0
0.41506705 1.5140393 -0.056047563 0
0.56337607 2.0550258 0.076074108 0
0.68293977 2.491158 0.46585417 0
0.68262142 2.4899967 0.65871787 0
0.39535448 1.5167818 -0.055960357 0
0.52160704 2.0011511 0.073830746 0
0.64812255 2.4865294 0.46342564 0
0.6517942 2.5006158 0.65930355 0
0.37878132 1.5319785 -0.056340586 0
0.48760724 1.9721242 0.072527543 0
0.62025076 2.5086002 0.46604648 0
0.61767995 2.4982023 0.65656447 0
0.35633171 1.5232457 -0.055849984 0
0.45576727 1.9483126 0.071435109 0
0.58331233 2.493542 0.46184778 0
0.58319598 2.4930446 0.65322709 0
0.33700883 1.52709 -0.055830911 0
0.42178851 1.9112527 0.06987603 0
0.55244863 2.5033135 0.46233252 0
0.55318952 2.5066707 0.65492028 0
0.317911 1.5319679 -0.055858463 0
0.38789311 1.8692017 0.068154655 0
0.52002162 2.5059102 0.46156612 0
0.51719368 2.4922826 0.6494081 0
0.2980338 1.5329553 -0.055753209 0
0.36023593 1.8528957 0.067389362 0
0.48654982 2.502599 0.45979127 0
0.48506361 2.4949546 0.64846134 0
0.27971369 1.5421286 -0.0559543 0
0.32749483 1.8055576 0.065512508 0
0.45077169 2.4852123 0.45551792 0
0.4520959 2.4925129 0.64629585 0
0.2589961 1.5379385 -0.055679522 0
0.30256823 1.7966731 0.06504675 0
0.30065182 1.7852933 0.19456585 0
0.41919532 2.4892137 0.45524776 0
0.4180789 2.4825842 0.64230537 0
0.1440424 0.85533476 0.4339844 0
0.24206698 1.5568731 -0.056250215 0
0.27297685 1.7556723 0.06343288 0
0.27276802 1.7543294 0.19080187 0
0.38619769 2.4838612 0.45334348 0
0.38568014 2.4805326 0.64046729 0
0.13422982 0.86330986 0.43713862 0
0.22179355 1.5552305 -0.056085516 0
0.24767934 1.7367433 0.062631324 0
0.2465847 1.7290677 0.18770181 0
0.35329098 2.4772987 0.451298 0
0.352943 2.4748588 0.63780427 0
0.1230558 0.8628751 0.43609929 0
0.20092906 1.5481555 -0.055734713 0
0.22048201 1.6988107 0.061158407 0
0.22158265 1.7072911 0.18502025 0
0.32006228 2.4660754 0.44848365 0
0.3196604 2.4629791 0.63365507 0
0.1128457 0.86947453 0.43868169 0
0.18243459 1.5592345 -0.056046415 0
0.19669771 1.6811388 0.060428243 0
0.19611233 1.6761355 0.1813619 0
0.28891537 2.469306 0.44837397 0
0.28740603 2.4564059 0.63098288 0
0.10156578 0.86806381 0.43728998 0
0.16103117 1.544562 -0.055441733 0
0.17318477 1.6611356 0.059626117 0
0.17375335 1.6665893 0.18007796 0
0.25530344 2.4487927 0.44403028 0
0.25606504 2.4560978 0.63002557 0
0.092804916 0.89015651 0.44779509 0
0.14258449 1.5575436 -0.055838831 0
0.15011956 1.6398541 0.058789711 0
0.14958759 1.634043 0.17634375 0
0.22346807 2.4410877 0.44208786 0
0.22262841 2.4319158 0.62305397 0
0.082261674 0.89859802 0.45148471 0
0.12267139 1.5555325 -0.055706937 0
0.12736014 1.6149881 0.057836168 0
0.12730639 1.6143064 0.17402703 0
0.19248052 2.4407461 0.44155204 0
0.19156569 2.4291456 0.62167698 0
0.10336826 1.5613741 -0.05586509 0
0.10524293 1.5896908 0.05687825 0
0.10500748 1.5861343 0.17083389 0
0.15980978 2.4139214 0.43630055 0
0.16018315 2.4195609 0.61865878 0
0.083826214 1.5648991 -0.05594901 0
0.08608263 1.6070226 0.057455033 0
0.086261101 1.6103544 0.17331177 0
0.12832959 2.3957047 0.43268165 0
0.12870456 2.4027047 0.61388576 0
0.063958295 1.5619889 -0.055811748 0
0.067051068 1.6375204 0.058510583 0
0.066969678 1.6355329 0.17591685 0
0.09762907 2.3842962 0.43036503 0
0.097323366 2.3768303 0.60691363 0
0.044560444 1.5723581 -0.056157753 0
0.038635943 1.3633065 0.04869134 0
0.046512477 1.6412375 0.17645346 0
0.06700898 2.3644764 0.42660144 0
0.067457207 2.3802924 0.60753262 0
0.024800712 1.575443 -0.056252319 0
0.021270612 1.3511966 0.048245437 0
0.026289554 1.6700203 0.17949817 0
0.036875237 2.3424664 0.42251307 0
0.036928624 2.3458579 0.59857762 0
0.0049231783 1.5632994 -0.055812083 0
0.0042430242 1.3473241 0.048101448 0
0.0053228452 1.690209 0.18164648 0
0.0073551154 2.3355334 0.42121249 0
0.0073240362 2.3256645 0.59335446 0
-0.014811806 1.5686134 -0.056004018 0
-0.012786254 1.3541015 0.048345327 0
-0.016204547 1.7161087 0.18443722 0
-0.021803323 2.3090353 0.41645005 0
-0.021886211 2.3178134 0.59137475 0
-0.034521714 1.5665029 -0.055939756 0
-0.029709447 1.3481351 0.048141848 0
-0.038429294 1.7438184 0.18745244 0
-0.050607484 2.296432 0.41425908 0
-0.050695844 2.3004415 0.58705878 0
-0.054062814 1.5607381 -0.055753782 0
-0.047732975 1.378002 0.049225956 0
-0.060671896 1.7515355 0.18834919 0
-0.07876271 2.2737989 0.41032261 0
-0.078329526 2.2612932 0.57727432 0
-0.07413698 1.5689675 -0.056076661 0
-0.084347278 1.785049 0.063799657 0
-0.083891146 1.7753959 0.19101344 0
-0.10632699 2.2502077 0.4062748 0
-0.10569298 2.2367899 0.57131344 0
-0.042831771 0.9064526 0.37572271 0
-0.093325712 1.5585477 -0.055741832 0
-0.10765315 1.7978172 0.06429936 0
-0.10815076 1.8061273 0.19445093 0
-0.13365437 2.2320399 0.40326652 0
-0.13346775 2.2289233 0.56968826 0
-0.053023212 0.88549244 0.36728239 0
-0.11339192 1.5634483 -0.055963732 0
-0.13205281 1.8207446 0.065173671 0
-0.15998308 2.2058473 0.39886662 0
-0.15992029 2.2049816 0.56403905 0
-0.063973166 0.88206232 0.36616477 0
-0.065975726 0.90967357 0.45634174 0
-0.13260885 1.5564997 -0.055770356 0
-0.15773641 1.8514352 0.066338077 0
-0.1856432 2.178992 0.39440197 0
-0.18573615 2.1800828 0.5582239 0
-0.075340115 0.88430655 0.36746112 0
-0.077010348 0.90391099 0.45390141 0
-0.15419045 1.5750746 -0.056500994 0
-0.18399151 1.8794962 0.06742119 0
-0.21269229 2.1726782 0.39371276 0
-0.2100209 2.1453896 0.54997408 0
-0.087717153 0.89604163 0.37276685 0
-0.17349198 1.5683227 -0.056332693 0
-0.21091156 1.9065859 0.068482794 0
-0.23703891 2.1427705 0.38880321 0
-0.23480836 2.1226068 0.54484844 0
-0.097205073 0.87870872 0.36603633 0
-0.19218172 1.557556 -0.056028448 0
-0.23852213 1.9331264 0.069538474 0
-0.26182035 2.1219492 0.38559288 0
-0.25887078 2.0980442 0.53933746 0
-0.10682621 0.86578369 0.36118397 0
-0.10575915 0.85713565 0.43211162 0
-0.21172345 1.5546122 -0.056014013 0
-0.26662365 1.9577252 0.070538521 0
-0.28414282 2.0863626 0.37974626 0
-0.28415748 2.0864701 0.53723943 0
-0.1171028 0.8598454 0.35929331 0
-0.11545707 0.84776133 0.42808473 0
-0.23135608 1.5523261 -0.05603217 0
-0.29442227 1.9754802 0.071306176 0
-0.30867139 2.0710874 0.37764347 0
-0.30814058 2.0675259 0.53331828 0
-0.30701438 2.0599692 0.69290948 0
-0.12975635 0.87062407 0.36445111 0
-0.13044405 0.8752383 0.44275379 0
-0.25077957 1.5486487 -0.056008976 0
-0.3278845 2.0247977 0.073229551 0
-0.3326841 2.0544369 0.37534153 0
-0.32934156 2.0337956 0.52564567 0
-0.32964823 2.0356894 0.68608439 0
-0.13986042 0.86368549 0.36225507 0
-0.14052837 0.86781019 0.43985647 0
-0.26959255 1.5415573 -0.055870853 0
-0.35770893 2.0454154 0.074132249 0
-0.35600334 2.0356627 0.37270099 0
-0.35243279 2.0152459 0.52195704 0
-0.35154873 2.0101907 0.67892879 0
-0.14918056 0.85302937 0.43328246 0
-0.29119924 1.5498453 -0.056299672 0
-0.38724995 2.0610545 0.074869856 0
-0.38765487 2.0632095 0.22561158 0
-0.3772437 2.0077984 0.36843994 0
-0.37596548 2.0009954 0.51945108 0
-0.37224436 1.9811904 0.67066407 0
-0.16122279 0.85807359 0.43684116 0
-0.31008795 1.5430571 -0.056190468 0
-0.40406045 2.0106823 0.073219053 0
-0.40412059 2.0109816 0.22043943 0
-0.396391 1.9725176 0.36285293 0
-0.39569908 1.9690745 0.51241738 0
-0.3966558 1.9738353 0.6698119 0
-0.17172997 0.85456127 0.43611935 0
-0.32752112 1.5298231 -0.055854306 0
-0.42531484 1.9866091 0.072531708 0
-0.42424113 1.9815938 0.21778634 0
-0.41718352 1.9486284 0.35939631 0
-0.41572025 1.9417936 0.50664014 0
-0.41649574 1.9454159 0.66189516 0
-0.1810926 0.84586799 0.43281227 0
-0.3495245 1.5377516 -0.056300011 0
-0.44733819 1.9680882 0.072055444 0
-0.4483242 1.9724261 0.21738197 0
-0.43901718 1.9314793 0.35722467 0
-0.43719941 1.9234819 0.50325888 0
-0.43543148 1.9157038 0.65359986 0
-0.36686686 1.5249482 -0.055995949 0
-0.47234899 1.9634037 0.07209599 0
-0.47555891 1.9767463 0.21850076 0
-0.46009928 1.9124856 0.35475519 0
-0.45836136 1.9052615 0.49996221 0
-0.45939282 1.909549 0.65342176 0
-0.38735318 1.5253844 -0.056186616 0
-0.49850515 1.9630972 0.072309509 0
-0.5005095 1.9709903 0.21854386 0
-0.48396376 1.9058336 0.35462362 0
-0.47877157 1.8853871 0.49628958 0
-0.4786225 1.8848 0.64696401 0
-0.40742686 1.5237445 -0.056310724 0
-0.53014749 1.98271 0.07327202 0
-0.53054351 1.9841911 0.22073081 0
-0.50047839 1.8717498 0.34942651 0
-0.49774691 1.8615344 0.49162173 0
-0.49595419 1.8548297 0.63876969 0
-0.42480049 1.5121579 -0.05607577 0
-0.52089804 1.8542354 0.34735382 0
-0.51777959 1.8431346 0.48844564 0
-0.51985782 1.8505325 0.63949347 0
-0.44317067 1.50453 -0.055995405 0
-0.5390994 1.8302004 0.34409574 0
-0.53624994 1.8205268 0.48420548 0
-0.53840601 1.8278465 0.63394648 0
-0.46104354 1.4954706 -0.055869881 0
-0.56141931 1.8210561 0.34367841 0
-0.55892682 1.8129712 0.48402947 0
-0.55939204 1.8144802 0.63170362 0
-0.48071742 1.4922808 -0.05597242 0
-0.58368659 1.8119258 0.34331518 0
-0.57679653 1.790537 0.47994104 0
-0.57608938 1.7883419 0.62507963 0
-0.49774829 1.4809901 -0.055779595 0
-0.6093545 1.813061 0.34495679 0
-0.5953058 1.7712607 0.47674569 0
-0.59559429 1.772119 0.62198138 0
-0.52015251 1.4854466 -0.056189682 0
-0.63322759 1.8083653 0.3455531 0
-0.61528909 1.7571368 0.47499183 0
-0.61586791 1.7587899 0.61997586 0
-0.53868139 1.4784133 -0.056175768 0
-0.65149772 1.7880381 0.3432093 0
-0.62973946 1.7283226 0.46930915 0
-0.63141412 1.7329187 0.61361027 0
-0.55405837 1.4630756 -0.05585365 0
-0.67203563 1.7746127 0.34222952 0
-0.65070647 1.7182897 0.46877262 0
-0.64661497 1.7074856 0.60743958 0
-0.57254183 1.4562519 -0.055863947 0
-0.70066535 1.782132 0.34535369 0
-0.66991842 1.7039278 0.4671188 0
-0.66805375 1.6991849 0.60743117 0
-0.59371531 1.4559972 -0.056136526 0
-0.72075945 1.7675538 0.34426013 0
-0.68926746 1.6903243 0.46573201 0
-0.68355531 1.6763163 0.60228527 0
-0.61437994 1.4540364 -0.056354739 0
-0.73742956 1.7452545 0.34169847 0
-0.70565134 1.6700459 0.46255633 0
-0.70620352 1.6713526 0.60364908 0
-0.62618846 1.4314388 -0.055780098 0
-0.76644939 1.7520691 0.34489495 0
-0.71916234 1.6439731 0.4578068 0
-0.71794176 1.6411829 0.59597051 0
-0.64943331 1.4350885 -0.056236532 0
-0.78353268 1.7314152 0.34274423 0
-0.73467213 1.6234453 0.45463049 0
-0.73373884 1.621383 0.59208864 0
-0.66580784 1.4232843 -0.056098059 0
-0.80635381 1.7237266 0.34320503 0
-0.75807714 1.6205266 0.45645016 0
-0.74964142 1.6024936 0.58859122 0
-0.68256086 1.4124806 -0.056006558 0
-0.82990789 1.7173982 0.34399846 0
-0.77542186 1.6046457 0.45469129 0
-0.76927668 1.5919288 0.58822215 0
-0.69793332 1.399047 -0.055817951 0
-0.8528325 1.7095513 0.34455046 0
-0.78355515 1.570681 0.44782737 0
-0.78483319 1.5732429 0.58492291 0
-0.71991903 1.3987465 -0.056163192 0
-0.87746364 1.7048433 0.34580109 0
-0.80025804 1.5548388 0.44614828 0
-0.80709428 1.5681211 0.58675075 0
-0.7327714 1.3807104 -0.055805068 0
-0.89542979 1.6871964 0.34448138 0
-0.81904393 1.5432677 0.44575208 0
-0.81550783 1.5366049 0.57875472 0
-0.75356448 1.3777119 -0.056062955 0
-0.91754293 1.677507 0.34483477 0
-0.84064335 1.5369146 0.44693914 0
-0.8349455 1.5264975 0.57886189 0
-0.76649696 1.3603853 -0.055746231 0
-0.93811363 1.6649719 0.344659 0
-0.85119337 1.5107052 0.44239923 0
-0.85177386 1.5117354 0.57728553 0
-0.78293765 1.3495449 -0.055701595 0
-0.95667017 1.6490065 0.34382051 0
-0.87560475 1.5092745 0.4451738 0
-0.86697543 1.4944003 0.57478911 0
-0.80397218 1.3464532 -0.055987403 0
-0.98058122 1.6422293 0.34495461 0
-0.88403839 1.4805441 0.43994814 0
-0.88552731 1.4830377 0.57466209 0
-0.81979156 1.3344811 -0.055914398 0
-1.0002975 1.6283141 0.34465018 0
-0.89489901 1.4567434 0.43618959 0
-0.90048862 1.4658421 0.5723474 0
-0.83306569 1.318571 -0.05568289 0
-1.0207916 1.6157025 0.34467414 0
-0.91763389 1.452425 0.43832174 0
-0.91752374 1.4522506 0.57150638 0
-0.85157669 1.3110172 -0.055812307 0
-1.0393242 1.6000577 0.34410131 0
-0.92947096 1.4309367 0.43533447 0
-0.93539876 1.4400626 0.57130003 0
-0.87358958 1.3085387 -0.056170646 0
-1.0518205 1.5755086 0.34164315 0
-0.94566363 1.4164975 0.43452996 0
-0.9426232 1.4119433 0.56480873 0
-0.89383191 1.3030268 -0.056412719 0
-1.079463 1.5736395 0.34415811 0
-0.9653514 1.4072878 0.43539923 0
-0.96012378 1.399667 0.56468946 0
-0.90074933 1.2783029 -0.055828962 0
-1.100647 1.5619887 0.34461385 0
-0.97687167 1.3863323 0.43268731 0
-0.97673649 1.3861405 0.56414962 0
-0.91448599 1.2636993 -0.05568967 0
-1.1133062 1.5384426 0.34248477 0
-0.99301219 1.3722121 0.43214869 0
-0.98937887 1.3671914 0.56146348 0
-0.93278909 1.2554009 -0.055837173 0
-1.1359837 1.5288718 0.34351137 0
-1.0051631 1.352806 0.42998916 0
-1.0071801 1.3555206 0.56183445 0
-0.95431179 1.2511469 -0.056177992 0
-1.1590739 1.5195997 0.34468007 0
-1.0166235 1.3328406 0.42767823 0
-1.0216546 1.3394364 0.56045574 0
-0.96487677 1.2325009 -0.055881876 0
-0.5907191 0.75456452 0.034212131 0
-0.58175737 0.74311715 0.10142419 0
-0.58261591 0.74421382 0.17045532 0
-1.0451502 1.3350393 0.43257245 0
-1.0461766 1.3363504 0.56463194 0
-0.97954708 1.2192935 -0.055837877 0
-0.59385329 0.73920017 0.033851877 0
-0.58941305 0.73367321 0.10114021 0
-0.59122127 0.73592401 0.17024828 0
-1.0535126 1.311362 0.42916507 0
-1.0521307 1.3096421 0.55890059 0
-0.48573926 0.60462499 0.45995218 0
-0.99325031 1.2049567 -0.055749673 0
-0.60251087 0.73093301 0.033818044 0
-0.6034959 0.73212796 0.10196672 0
-0.59602571 0.72306556 0.16899648 0
-1.0624771 1.2889386 0.42617133 0
-1.0692058 1.2971016 0.55925024 0
-1.0213082 1.2076856 -0.056466471 0
-0.613554 0.72552073 0.10211443 0
-0.61169791 0.72332591 0.17084406 0
-1.0813271 1.2786572 0.42724007 0
-1.0872614 1.2856746 0.56018198 0
-1.0310239 1.1884944 -0.056171749 0
-0.62398142 0.71928352 0.10233434 0
-0.61542302 0.70941794 0.16937608 0
-1.1010281 1.2691905 0.4286755 0
-1.100337 1.268394 0.55864543 0
-1.0466219 1.1762222 -0.05621016 0
-0.62635517 0.703915 0.10126192 0
-0.62184006 0.6988408 0.16870688 0
-1.1131228 1.2509577 0.42721757 0
-1.1124065 1.2501527 0.55673665 0
-1.1153934 1.2535094 0.6947158 0
-0.51646453 0.58041692 0.46075639 0
-1.0550126 1.1560076 -0.055874575 0
-0.64113665 0.70251191 0.10221337 0
-0.63515466 0.6959573 0.1699281 0
-1.1243194 1.2319492 0.42552724 0
-1.1296296 1.2377678 0.55751169 0
-1.1262604 1.234076 0.69175065 0
-0.53312725 0.58416295 0.46902218 0
-1.0723538 1.1456977 -0.056024481 0
-0.64385802 0.68789488 0.10125824 0
-0.63932878 0.68305588 0.1687303 0
-1.1445791 1.2228628 0.42733315 0
-1.1433327 1.2215314 0.55663908 0
-1.1464376 1.2248486 0.6946153 0
-0.54954237 0.58712852 0.47692144 0
-1.0913754 1.1369811 -0.056265801 0
-0.58022177 0.60446775 0.34691137 0
-0.57806677 0.60222268 0.4176667 0
-0.56090623 0.5843451 0.48035967 0
-1.1054456 1.1229876 -0.056257702 0
-0.5854764 0.59476709 0.41757596 0
-0.57097608 0.5800367 0.48269013 0
-1.112048 1.1015998 -0.055883329 0
-0.58189821 0.57643104 0.40981442 0
-0.58157474 0.5761106 0.48547867 0
-1.1272094 1.0888426 -0.055951785 0
-0.61003155 0.58926797 0.35116869 0
-0.61168766 0.5908677 0.42552054 0
-1.1398487 1.0736393 -0.055903662 0
-0.61876494 0.58282322 0.35194346 0
-0.61381906 0.57816464 0.42190525 0
-1.1560129 1.061715 -0.056036294 0
-0.68957621 0.63332629 0.1006212 0
-0.69977611 0.64269418 0.17135426 0
-1.2316306 1.1311643 0.42664653 0
-1.2395153 1.1384059 0.55991215 0
-1.2337487 1.1331097 0.69356567 0
-1.1718823 1.049397 -0.056160547 0
-0.70198554 0.62861389 0.10126888 0
-0.70944536 0.63529402 0.17174947 0
-1.2457079 1.1155063 0.42662334 0
-1.2493353 1.1187546 0.55794019 0
-1.2414032 1.1116515 0.6899448 0
-1.18082 1.0309068 -0.055962324 0
-0.71414608 0.62348032 0.1018825 0
-0.71002001 0.61987811 0.16998544 0
-1.2572298 1.0976158 0.42580208 0
-1.2603979 1.1003817 0.55664843 0
-1.1936704 1.0159262 -0.055960622 0
-0.7169323 0.61017704 0.10117582 0
-0.72207516 0.61455411 0.17100529 0
-1.2795055 1.0889798 0.4286682 0
-1.2780091 1.0877063 0.55833298 0
-1.203936 0.99879861 -0.055847824 0
-0.72736019 0.6034261 0.10156707 0
-0.72522956 0.60165852 0.16994464 0
-1.2934803 1.0730855 0.42878911 0
-1.2985475 1.0772895 0.56133485 0
-1.2230451 0.98892009 -0.056152154 0
-0.73564327 0.59482056 0.10166974 0
-0.73617572 0.59525108 0.1707397 0
-1.3157499 1.0638785 0.4316963 0
-1.3110784 1.0601013 0.56093669 0
-1.2319728 0.97074169 -0.055996384 0
-0.75316751 0.59346366 0.034233429 0
-0.74003363 0.58311474 0.10125368 0
-0.74908084 0.59024352 0.17199531 0
-1.322818 1.0423238 0.42967495 0
-1.3291091 1.0472809 0.5629642 0
-1.2381608 0.95059448 -0.055729154 0
-0.75579178 0.580257 0.034017906 0
-0.75238997 0.57764524 0.101941 0
-0.75505632 0.57969236 0.17167768 0
-1.3359107 1.0256417 0.42969853 0
-1.3383892 1.0275445 0.56136984 0
-1.2627795 0.94446343 -0.05629747 0
-0.7602213 0.56858802 0.03389233 0
-0.75693691 0.56613153 0.10158313 0
-0.75953341 0.56807351 0.17105563 0
-1.3559412 1.0141413 0.43199953 0
-1.3489324 1.0088993 0.56041896 0
-1.2610471 0.91863668 -0.055700112 0
-0.76772451 0.55926532 0.033910185 0
-0.76399457 0.55654818 0.10158172 0
-0.76983696 0.56080419 0.17177211 0
-1.3686451 0.99701875 0.43201286 0
-1.3747063 1.0014341 0.56584299 0
-1.2826591 0.90988249 -0.056144185 0
-0.78714502 0.55837864 0.034454685 0
-0.78039557 0.55359077 0.1028274 0
-0.78974068 0.56021994 0.17462529 0
-1.3847533 0.98230535 0.4331587 0
-1.3892964 0.98552805 0.56669545 0
-1.2946836 0.8941226 -0.056173239 0
-0.78734958 0.54375219 0.034161225 0
-0.79097867 0.54625851 0.10330733 0
-0.79270697 0.54745209 0.17374311 0
-1.4011967 0.96768177 0.43445623 0
-1.4002204 0.96700752 0.56613958 0
-1.2987317 0.87297273 -0.055867504 0
-0.79482192 0.53425801 0.03419083 0
-0.79590493 0.53498602 0.1030627 0
-0.8007884 0.53826857 0.174015 0
-1.4151654 0.95123637 0.43503889 0
-1.4118406 0.94900149 0.56596136 0
-1.3122729 0.85828573 -0.055980653 0
-0.80672854 0.52763689 0.034414481 0
-0.80885184 0.52902561 0.10386837 0
-0.80767792 0.52825779 0.17405283 0
-1.4300663 0.93532795 0.43596444 0
-1.4306272 0.93569475 0.56872404 0
-1.31826 0.83869427 -0.055781107 0
-0.82427537 0.52441484 0.034878548 0
-0.81575483 0.51899397 0.10390735 0
-0.81729871 0.5199762 0.17470124 0
-1.4560537 0.92636049 0.44029579 0
-1.4442863 0.91887397 0.56950909 0
-1.3299941 0.82282025 -0.055834778 0
-0.82708955 0.51169103 0.034722231 0
-0.82645321 0.51129735 0.10444169 0
-0.83031034 0.51368362 0.17608592 0
-1.4510356 0.89770436 0.43532559 0
-1.4639248 0.90567845 0.57271051 0
-1.3433931 0.80789965 -0.055965763 0
-0.84742606 0.50963134 0.035303775 0
-0.84920615 0.51070189 0.10649592 0
-0.85450107 0.51388615 0.17982954 0
-1.4769919 0.88824427 0.4397223 0
-1.4870955 0.89432043 0.57732379 0
-1.3544542 0.79150218 -0.056006912 0
-0.91464567 0.53449136 0.037820756 0
-0.90533209 0.52904874 0.11269009 0
-0.9016363 0.52688909 0.18833794 0
-1.4880213 0.86955476 0.43971118 0
-1.4843861 0.86743051 0.57198614 0
-1.3589634 0.77134889 -0.05578731 0
-0.96596658 0.54828358 0.039654255 0
-0.97626078 0.55412656 0.12064076 0
-1.5128098 0.85867226 0.31371921 0
-1.517375 0.86126351 0.44514519 0
-1.5082617 0.85609072 0.57698655 0
-1.3871143 0.76439714 -0.056543328 0
-1.0494878 0.57834136 0.042780567 0
-1.0508996 0.57911932 0.12895283 0
-1.5244536 0.84008074 0.31391525 0
-1.5215069 0.83845687 0.44322485 0
-1.5192101 0.83719122 0.57709622 0
-1.3900354 0.74334502 -0.056276381 0
-1.1463317 0.61302036 0.046409898 0
-1.1470617 0.61341071 0.13979369 0
-1.5478312 0.82772899 0.31655777 0
-1.5425755 0.82491851 0.44630092 0
-1.5363108 0.82156831 0.57961643 0
-1.3942707 0.72318316 -0.05607472 0
-1.2588822 0.65295959 0.050629672 0
-1.2453179 0.64592409 0.15076509 0
-1.5573019 0.8077445 0.31638941 0
-1.5570865 0.8076328 0.44752142 0
-1.5564516 0.80730349 0.58333355 0
-1.402132 0.70500016 -0.056029413 0
-1.3816817 0.69471759 0.055212211 0
-1.3797994 0.69377112 0.16597535 0
-1.5672487 0.78802174 0.31636918 0
-1.5768282 0.79283845 0.45029032 0
-1.5794107 0.79413688 0.58814377 0
-1.4171979 0.69035882 -0.056279611 0
-1.5405041 0.75042486 0.06117633 0
-1.5355067 0.74799049 0.18355778 0
-1.5827398 0.77099907 0.31751129 0
-1.5930266 0.7760101 0.45208973 0
-1.422173 0.6707595 -0.056137305 0
-1.653967 0.78008378 0.19652893 0
-1.6040573 0.75654417 0.31985131 0
-1.606395 0.75764674 0.45314014 0
-1.4269 0.65115392 -0.0559958 0
-1.629951 0.74381453 0.1925471 0
-1.6271936 0.74255621 0.32257462 0
-1.6283296 0.74307466 0.4566519 0
-1.4396889 0.63521099 -0.056179326 0
-1.6570033 0.73109317 0.19463985 0
-1.6315814 0.71987671 0.32162198 0
-1.6519672 0.72887117 0.46067041 0
-1.4475149 0.61700851 -0.056177076 0
-1.673818 0.71347106 0.19554415 0
-1.6646643 0.70956922 0.32635617 0
-1.660339 0.70772558 0.46048331 0
-1.4523104 0.59755749 -0.056066718 0
-1.6890863 0.69497961 0.19628994 0
-1.6794075 0.69099724 0.32751474 0
-1.6788285 0.690759 0.46316215 0
-1.4505544 0.57558709 -0.055714704 0
-1.7055918 0.67678714 0.19720204 0
-1.695164 0.67264938 0.32890967 0
-1.7021313 0.67541403 0.46720761 0
-1.4558684 0.55658203 -0.055645201 0
