# .PCD v0.7 - Point Cloud Data file format
VERSION 0.7
FIELDS x y z intensity
SIZE 4 4 4 4
TYPE F F F F
COUNT 1 1 1 1
WIDTH 1359
HEIGHT 1
VIEWPOINT 0 0 0 1 0 0 0
POINTS 1359
DATA ascii
-1.1235723 -0.5299263 0.31694305 0
-1.186879 -0.55978447 0.43658307 0
-1.4198712 -0.691661 -0.056385767 0
-1.1562428 -0.56323981 0.23195229 0
-1.1311872 -0.55103451 0.32102296 0
-1.1885446 -0.57897502 0.43984267 0
-1.3974718 -0.70265698 -0.055843189 0
-1.1623503 -0.58443654 0.23463526 0
-1.1528647 -0.57966709 0.32922027 0
-1.1730448 -0.58981377 0.43682051 0
-1.3920273 -0.72201949 -0.055984493 0
-1.1360337 -0.58924025 0.2308024 0
-1.1343108 -0.58834666 0.32601169 0
-1.3861728 -0.74127948 -0.056120001 0
-1.241802 -0.66407472 0.35928053 0
-1.3757753 -0.75814861 -0.056081112 0
-1.1294822 -0.62242377 0.32902548 0
-1.3551216 -0.76916832 -0.055629604 0
-1.1169587 -0.63398683 0.32767695 0
-1.3598976 -0.79468316 -0.056231998 0
-1.1139156 -0.65093869 0.32916275 0
-1.3509314 -0.81243306 -0.056279808 0
-1.1026284 -0.6631068 0.32826874 0
-1.3453946 -0.83234805 -0.056481313 0
-1.3306201 -0.84655797 -0.056304116 0
-1.3157877 -0.86058456 -0.056130592 0
-1.3090795 -0.87992823 -0.056312636 0
-1.2852621 -0.88761604 -0.055764463 0
-2.1444397 -1.4809735 0.093042143 0
-1.2864482 -0.91257036 -0.056310043 0
-2.0277736 -1.4384459 0.088759132 0
-1.2681719 -0.92382687 -0.05601481 0
-2.0122743 -1.4658841 0.088881612 0
-1.2609802 -0.9431178 -0.056217257 0
-1.9998229 -1.4957162 0.089156479 0
-1.2473886 -0.95767903 -0.056144491 0
-1.9714048 -1.5135405 0.08873219 0
-1.2319635 -0.97073442 -0.05599596 0
-1.9509957 -1.5373009 0.088677853 0
-1.219339 -0.98592341 -0.055981997 0
-1.9357207 -1.5651697 0.088872343 0
-1.1973771 -0.99335736 -0.055543575 0
-1.9038877 -1.5794864 0.088316977 0
-1.1935554 -1.0158283 -0.055955224 0
-1.8796375 -1.599749 0.088119537 0
-1.1892148 -1.0382358 -0.056360178 0
-1.8600104 -1.6238693 0.088151038 0
-1.156883 -1.0359654 -0.05544173 0
-1.8419756 -1.649452 0.088273674 0
-1.153641 -1.0595365 -0.055921316 0
-1.8172359 -1.669001 0.088088259 0
-1.1447006 -1.0782093 -0.056141622 0
-1.7978452 -1.6934152 0.088174976 0
-1.1277394 -1.0893546 -0.055978097 0
-1.7737139 -1.7133422 0.088042617 0
-1.1094844 -1.0990604 -0.055754505 0
-1.097463 -1.1148783 -0.055851456 0
-1.0833919 -1.1286641 -0.055854216 0
-1.0754952 -1.1490541 -0.056188606 0
-1.0591573 -1.160549 -0.05609408 0
-1.0475802 -1.1772991 -0.056261629 0
-1.0173218 -1.1726997 -0.055425242 0
-1.011361 -1.195923 -0.055916503 0
-0.99905711 -1.2120011 -0.056075599 0
-0.97609931 -1.2150017 -0.055641342 0
-0.97585869 -1.2465289 -0.056517906 0
-0.94791704 -1.2427632 -0.055801548 0
-0.93829268 -1.262808 -0.056166619 0
-0.920865 -1.2725142 -0.056078132 0
-0.90858436 -1.289422 -0.05631458 0
-0.89528108 -1.3051394 -0.056504183 0
-0.8678807 -1.2999874 -0.055803575 0
-0.85348952 -1.313962 -0.05593767 0
-0.84073061 -1.330703 -0.056195218 0
-0.8209303 -1.3363348 -0.055992067 0
-0.79481363 -1.3311149 -0.055349614 0
-0.7890408 -1.3600647 -0.056135796 0
-0.76907158 -1.3649548 -0.055933483 0
-0.75653827 -1.3831487 -0.056284197 0
-0.73095971 -1.3772968 -0.055667099 0
-0.71199119 -1.3833432 -0.055544715 0
-0.7018373 -1.4068727 -0.056130178 0
-0.68095297 -1.4091532 -0.055874627 0
-0.66291213 -1.4170941 -0.055854075 0
-0.64802974 -1.4319869 -0.05611499 0
-0.56408149 -1.2464818 0.4551841 0
-0.63222367 -1.4452351 -0.056317709 0
-0.54611015 -1.2483835 0.45333138 0
-0.61082929 -1.4456331 -0.056029048 0
-0.52965361 -1.2535168 0.45273763 0
-0.58925605 -1.4450616 -0.055714898 0
-0.51910782 -1.2730335 0.45738941 0
-0.5756523 -1.4641633 -0.056167442 0
-0.49922761 -1.2697781 0.45392516 0
-0.55394065 -1.4627649 -0.055841785 0
-0.48533541 -1.2816023 0.45593122 0
-0.53087312 -1.4569834 -0.055361491 0
-0.47074836 -1.2919708 0.45747477 0
-0.51886028 -1.4817563 -0.056050088 0
-0.61723083 -1.7626821 0.066676609 0
-0.45661131 -1.3039863 0.45965695 0
-0.50195801 -1.4935157 -0.056251355 0
-0.65113199 -1.9373649 0.072968371 0
-0.44340611 -1.3193015 0.46305072 0
-0.47951603 -1.4885514 -0.055832535 0
-0.42771795 -1.3277557 0.46409082 0
-0.4611201 -1.4957191 -0.055879157 0
-0.54371077 -1.7636154 0.065887608 0
-0.41213185 -1.3368175 0.46540737 0
-0.43590468 -1.4798625 -0.055077337 0
-0.52761513 -1.7912123 0.066665113 0
-0.40506142 -1.375152 0.4769398 0
-0.42118034 -1.4992714 -0.055597894 0
-0.38462612 -1.3691497 0.050772555 0
-0.38405526 -1.3671175 0.15261053 0
-0.38411623 -1.3673346 0.25614271 0
-0.38835558 -1.3824253 0.36635393 0
-0.39177594 -1.3946007 0.48193592 0
-0.40462857 -1.5132791 -0.055923969 0
-0.37812033 -1.4141403 0.052260246 0
-0.37427348 -1.3997533 0.1557152 0
-0.37298375 -1.3949299 0.26041168 0
-0.37605771 -1.4064263 0.37143001 0
-0.37655631 -1.408291 0.48498985 0
-0.38607764 -1.5203614 -0.056001596 0
-0.49615586 -1.9538457 0.071968734 0
-0.36843464 -1.5314649 -0.056235243 0
-0.42914692 -1.7838265 0.065501936 0
-0.3486799 -1.5340357 -0.056163963 0
-0.40748951 -1.7927716 0.065636776 0
-0.32786414 -1.5314252 -0.055912804 0
-0.39970461 -1.8669859 0.20519039 0
-0.30725074 -1.5289387 -0.055676345 0
-0.36979452 -1.8401685 0.067009792 0
-0.37270495 -1.8546512 0.20330283 0
-0.28694966 -1.5272279 -0.05547807 0
-0.36476427 -1.9413794 0.070522539 0
-0.26861778 -1.5359834 -0.055668842 0
-0.2489204 -1.5371677 -0.055593751 0
-0.23140474 -1.5526526 -0.056043953 0
-0.21051574 -1.5457444 -0.055694498 0
-0.19181576 -1.55459 -0.055921752 0
-0.15274164 -1.2379099 0.044530131 0
-0.15295351 -1.239627 0.13423212 0
-0.17300117 -1.5638859 -0.056173328 0
-0.13492151 -1.2196555 0.043808892 0
-0.13507727 -1.2210635 0.13202734 0
-0.15223961 -1.5551466 -0.05578614 0
-0.12010855 -1.2269238 0.044012148 0
-0.11952228 -1.2209349 0.13184024 0
-0.13302933 -1.5614352 -0.055947199 0
-0.10222961 -1.1999227 0.042993978 0
-0.10186803 -1.1956786 0.12896426 0
-0.11316818 -1.5603634 -0.055853307 0
-0.085353494 -1.1768544 0.042125575 0
-0.085222363 -1.1750463 0.1266131 0
-0.094577037 -1.579445 -0.056489225 0
-0.069055416 -1.1532317 0.041245606 0
-0.069365211 -1.1584052 0.12471599 0
-0.073484533 -1.5551597 -0.055583157 0
-0.054060455 -1.56067 -0.055751346 0
-0.034607977 -1.5704173 -0.056079537 0
-0.014787994 -1.5660917 -0.055913981 0
0.0049608164 -1.5752509 -0.056238767 0
0.024664849 -1.5668125 -0.055944156 0
0.044420734 -1.5674284 -0.055981681 0
0.063443631 -1.5494198 -0.055362638 0
0.08375264 -1.5635256 -0.055899907 0
0.10294631 -1.5550004 -0.055637047 0
0.1224301 -1.5524728 -0.055597365 0
0.14319612 -1.5642247 -0.056078356 0
0.16174617 -1.5514201 -0.055687901 0
0.18163693 -1.552417 -0.055801362 0
0.20127755 -1.5508407 -0.05583138 0
0.22381027 -1.5693718 -0.056595486 0
0.24105847 -1.5503868 -0.056015864 0
0.26013574 -1.5447059 -0.055924524 0
0.27967119 -1.5418942 -0.055945799 0
0.29718569 -1.5285929 -0.055594549 0
0.32118151 -1.5477279 -0.056433108 0
0.33798757 -1.531525 -0.055993058 0
0.35761768 -1.528743 -0.056051541 0
0.37540576 -1.518326 -0.055838499 0
0.39602482 -1.5193535 -0.05605524 0
0.41462141 -1.5124137 -0.055987388 0
0.43531793 -1.5129339 -0.056205109 0
0.45243129 -1.5010232 -0.055969838 0
0.4697054 -1.4901639 -0.055781044 0
0.49021381 -1.4895486 -0.055984635 0
0.50831932 -1.4814777 -0.055917442 0
0.52303386 -1.4640467 -0.055503707 0
0.54139835 -1.4572692 -0.055500817 0
0.5687604 -1.4738038 -0.056398839 0
0.58229595 -1.4540987 -0.055920936 0
0.60350955 -1.4537598 -0.056195706 0
0.61991358 -1.4417368 -0.056028254 0
0.63692129 -1.4313533 -0.055931982 0
0.65493166 -1.4233036 -0.05593526 0
0.67132711 -1.4118451 -0.055812735 0
0.6920501 -1.4093885 -0.05605568 0
0.71327436 -1.4075354 -0.056334738 0
0.72622705 -1.3894252 -0.05597147 0
0.74319649 -1.3793032 -0.055936281 0
0.76860988 -1.3844354 -0.056532431 0
0.78064126 -1.3653096 -0.056148391 0
0.7955811 -1.3516529 -0.055994313 0
0.80683821 -1.3321195 -0.055601597 0
0.82628453 -1.3262483 -0.055786401 0
0.8448478 -1.3187515 -0.055914115 0
0.86575544 -1.3146449 -0.056197774 0
0.88439727 -1.3068278 -0.056335203 0
0.89981222 -1.2941942 -0.056274574 0
0.91840243 -1.2860752 -0.056419928 0
0.93744427 -1.2783934 -0.056596301 0
0.93799305 -1.2459351 -0.05567782 0
0.95841062 -1.2402426 -0.055958316 0
0.9731195 -1.2270286 -0.055910554 0
0.98390555 -1.2090424 -0.055651128 0
0.98858798 -1.1840267 -0.055068303 0
1.0153947 -1.1854682 -0.055725597 0
1.042066 -1.1860484 -0.056365229 0
1.0512412 -1.166535 -0.056062531 0
1.0614754 -1.1484773 -0.055832643 0
1.0839047 -1.1435167 -0.05625055 0
1.0930581 -1.1244711 -0.055986308 0
1.1032069 -1.1066836 -0.055787925 0
1.1214751 -1.09703 -0.056008726 0
1.1445192 -1.0917124 -0.056468565 0
1.1475626 -1.067345 -0.055951171 0
1.1475525 -1.0406967 -0.055307351 0
1.1765842 -1.0403291 -0.056070752 0
1.1754599 -1.0132518 -0.055404734 0
1.1947207 -1.0039136 -0.05571232 0
1.2001381 -0.98295254 -0.055383358 0
1.2243176 -0.97726059 -0.055926863 0
1.224278 -0.95224148 -0.055372924 0
1.2460763 -0.94425708 -0.055816632 0
1.2614747 -0.93115574 -0.055976726 0
1.2733676 -0.9153915 -0.055988535 0
1.2974206 -0.90812463 -0.056538835 0
1.3007654 -0.8862747 -0.056193803 0
1.3054711 -0.86561543 -0.055921767 0
1.3134902 -0.84731823 -0.055803806 0
1.317012 -0.826294 -0.055506982 0
1.3389022 -0.8167159 -0.055991691 0
1.3492548 -0.79989666 -0.055998962 0
1.374541 -0.79166895 -0.056630198 0
1.3607222 -0.76105589 -0.05566163 0
1.3728338 -0.74529397 -0.055768751 0
1.3845913 -0.72925657 -0.055868905 0
1.3961055 -0.7130121 -0.055966787 0
1.4143944 -0.70004016 -0.056342106 0
1.407751 -0.67481965 -0.055734556 0
1.4216276 -0.65958875 -0.055950683 0
1.4291507 -0.64133608 -0.05592449 0
1.4411027 -0.6250211 -0.056079764 0
1.4511728 -0.60779572 -0.056169353 0
1.456966 -0.58877051 -0.056102175 0
1.4588355 -0.56826431 -0.055894189 0
1.4678881 -0.55060589 -0.055970952 0
1.4789732 -0.53361988 -0.056132961 0
1.4774754 -0.51214796 -0.055826921 0
1.4924252 -0.49637055 -0.056151178 0
1.4944829 -0.47624156 -0.055998527 0
1.4867435 -0.45323518 -0.055490281 0
1.5029584 -0.43757305 -0.055885397 0
1.509266 -0.41886881 -0.055919379 0
1.506969 -0.39786485 -0.055644237 0
1.516376 -0.37999061 -0.055810481 0
1.5094913 -0.35812747 -0.055386722 0
1.5362761 -0.34410903 -0.05620607 0
1.5323589 -0.32302475 -0.055909503 0
1.5218946 -0.3008562 -0.055385087 0
1.5499761 -0.28617752 -0.056271438 0
1.5467725 -0.26549149 -0.056029312 0
1.5437415 -0.24500258 -0.05580334 0
1.5533572 -0.2265158 -0.056043386 0
1.5691013 -0.20867002 -0.056512132 0
1.555913 -0.1870106 -0.0559479 0
1.5621282 -0.16783297 -0.056090947 0
1.5583551 -0.14760476 -0.055884298 0
1.5528175 -0.12737493 -0.055623781 0
1.5490819 -0.10745116 -0.055437107 0
1.5650443 -0.088773474 -0.055963915 0
1.5699288 -0.069232218 -0.056102954 0
1.5622104 -0.04919285 -0.055800572 0
1.5711374 -0.029678097 -0.056101639 0
1.5799916 -0.0099473977 -0.056408856 0
1.5668303 0.0098645352 -0.05593897 0
1.5644941 0.029552607 -0.055864424 0
1.5584266 0.0490737 -0.055665415 0
0.86981469 0.027389821 0.28952572 0
1.5689563 0.069189325 -0.056068201 0
0.90872645 0.040073887 0.30262181 0
1.5505668 0.087952279 -0.055446219 0
1.5027879 0.085242137 0.053737711 0
1.5008367 0.085131451 0.16155314 0
1.5021816 0.085207745 0.27135199 0
0.93128264 0.052824829 0.31033033 0
1.5562596 0.10794903 -0.055693977 0
1.4913281 0.10344511 0.053370271 0
1.4942535 0.10364802 0.16097224 0
1.4639509 0.10154609 0.26465601 0
0.94419777 0.065493725 0.31488389 0
1.5630111 0.1282111 -0.05598893 0
1.4426535 0.11833838 0.051677581 0
1.4625233 0.11996827 0.15770426 0
1.4712262 0.12068215 0.26622489 0
0.95617759 0.078433588 0.31918314 0
1.556348 0.14741465 -0.055812322 0
1.4589195 0.1381864 0.052318431 0
1.4509575 0.13743225 0.15663131 0
1.4581624 0.13811469 0.2641547 0
0.98325676 0.093132421 0.32858792 0
1.5636685 0.16799846 -0.056146253 0
1.4227221 0.15285537 0.051085327 0
1.4320941 0.15386228 0.15479188 0
1.4282928 0.15345387 0.25907317 0
0.98397809 0.10571729 0.32924774 0
1.5507643 0.18639177 -0.05576276 0
1.4004549 0.16832556 0.050357901 0
1.4114631 0.16964866 0.15278071 0
1.4277813 0.17161001 0.25935179 0
0.99238408 0.1192781 0.33253667 0
1.5482137 0.20589225 -0.055759855 0
1.3974062 0.18583682 0.05032843 0
1.4028029 0.18655452 0.15208553 0
1.4029642 0.18657595 0.25525036 0
0.99803054 0.13272506 0.33496222 0
1.554558 0.22669089 -0.056086708 0
1.36658 0.19927931 0.049304672 0
1.3851449 0.20198652 0.15043496 0
1.3905703 0.20277765 0.25343993 0
0.99550301 0.1451676 0.33470088 0
1.5604658 0.24765685 -0.056407895 0
1.3648109 0.21660507 0.049335346 0
1.3771151 0.21855782 0.14984988 0
1.3600217 0.21584497 0.24834794 0
1.0018349 0.15899821 0.33747613 0
1.5380306 0.26399103 -0.055712655 0
1.3773819 0.23641692 0.049893416 0
1.3938819 0.23924901 0.15199013 0
1.3966023 0.23971595 0.25555873 0
0.99465811 0.17072535 0.33575615 0
1.5527903 0.28669712 -0.056373604 0
1.3989704 0.25829679 0.050789211 0
1.4171931 0.26166132 0.15487899 0
1.4199187 0.26216456 0.26040873 0
1.0049281 0.1855434 0.33998463 0
1.5416975 0.30477095 -0.056105759 0
1.4285973 0.28241271 0.051989798 0
1.4347467 0.28362837 0.15717521 0
1.4272162 0.28213969 0.26237783 0
1.3141335 0.25978491 0.341766 0
1.0042477 0.19852503 0.34057316 0
1.5312572 0.3227925 -0.055869307 0
1.4473937 0.30511388 0.052809473 0
1.4540216 0.30651104 0.15969691 0
1.4374554 0.30301887 0.26494068 0
1.3075914 0.27564326 0.34094027 0
0.99787706 0.21035476 0.33928409 0
1.5241221 0.34138668 -0.055761404 0
1.4917407 0.3341336 0.054576702 0
1.4822098 0.3319988 0.16323908 0
1.4318683 0.32072282 0.26463428 0
1.2933004 0.28968513 0.33813834 0
1.0090759 0.22602195 0.34403214 0
1.52808 0.36253765 -0.056068782 0
1.4978406 0.35536334 0.05495923 0
1.5006536 0.35603073 0.16575095 0
1.428055 0.33880669 0.26469705 0
1.2728007 0.30197251 0.33374631 0
1.0047108 0.23836808 0.34354007 0
0.76172531 0.18071966 0.46427926 0
1.5124997 0.37901923 -0.05566781 0
1.4316567 0.35876071 0.26618087 0
1.2683766 0.31784412 0.33360928 0
1.0085292 0.25272861 0.34590641 0
0.76732624 0.19228527 0.46913171 0
1.5126826 0.39937329 -0.055855207 0
1.4145091 0.37345389 0.26384613 0
1.2557738 0.33154511 0.3313663 0
0.99356472 0.26231757 0.3418797 0
0.79123467 0.2088991 0.40945169 0
0.79510599 0.20992118 0.48769328 0
1.5060673 0.41798106 -0.055800863 0
1.4166055 0.39315262 0.26513958 0
1.2508931 0.34716222 0.33120573 0
0.98541832 0.27348462 0.34023461 0
0.81345075 0.22575819 0.34952798 0
0.79236543 0.21990635 0.41143721 0
0.78626454 0.21821316 0.48391724 0
1.4954729 0.43539372 -0.055607062 0
1.4102269 0.41057509 0.26489237 0
1.2355219 0.35971126 0.32830906 0
0.99615234 0.29002094 0.34517428 0
0.8307882 0.24187662 0.35825795 0
0.80077779 0.23313937 0.41729665 0
0.81020731 0.23588468 0.50044161 0
1.4995208 0.45713034 -0.055967174 0
1.4002087 0.426855 0.26399928 0
1.2226762 0.37273401 0.32611698 0
0.99045092 0.30193993 0.34448883 0
0.84849918 0.2586658 0.36727086 0
0.82883853 0.25267223 0.43354315 0
0.82589442 0.2517747 0.51204872 0
1.4995611 0.47785982 -0.056188811 0
1.3978217 0.44543886 0.26458579 0
1.1929836 0.38016388 0.31944877 0
0.99529105 0.31716588 0.34753382 0
0.87561047 0.27902767 0.38049659 0
0.85029483 0.27096042 0.44651565 0
0.85236436 0.27161995 0.53053844 0
1.497282 0.4979859 -0.056333911 0
1.4005661 0.46581885 0.26619446 0
1.1833463 0.39357302 0.31817001 0
0.99431044 0.33070096 0.34861782 0
0.87348509 0.29051527 0.38113248 0
0.86150974 0.28653234 0.45426366 0
0.8729769 0.29034624 0.54560071 0
1.4877206 0.51569933 -0.056214042 0
1.3814601 0.47886547 0.2636883 0
1.1766143 0.40785831 0.31771564 0
0.96805197 0.33556286 0.34086576 0
0.88243246 0.30588394 0.3866865 0
0.88996255 0.30849415 0.47127742 0
0.88048863 0.30521014 0.55265367 0
1.4760104 0.53255093 -0.056020513 0
1.1512074 0.4153606 0.31224272 0
0.96100861 0.34673604 0.33989614 0
0.90880328 0.32790014 0.40001997 0
0.89671063 0.32353705 0.47697046 0
0.90508842 0.32655981 0.57062995 0
1.4700704 0.55142444 -0.05605416 0
1.1613702 0.4356308 0.31646192 0
0.97039974 0.36399767 0.34481147 0
0.92492658 0.34694064 0.40900737 0
0.92767602 0.34797195 0.49573269 0
0.91133308 0.3418417 0.5772351 0
1.4666508 0.57130867 -0.056193627 0
1.1532395 0.44922465 0.31576276 0
0.96478772 0.37581649 0.3444716 0
0.94873542 0.36956361 0.4215602 0
0.94044578 0.36633453 0.50498164 0
0.94133872 0.36668235 0.5991177 0
1.4483007 0.5852688 -0.055768508 0
1.1194115 0.45236227 0.3080357 0
0.97471058 0.39388758 0.34975764 0
0.97447342 0.39379174 0.43516544 0
0.97308904 0.39323232 0.52512699 0
0.95813006 0.38718727 0.61285907 0
1.4510005 0.60772353 -0.056162681 0
1.1212881 0.46962988 0.31015486 0
1.0132622 0.42438528 0.36547983 0
0.99916321 0.41848022 0.44850868 0
0.98597389 0.41295612 0.5348441 0
0.98172379 0.41117606 0.63121235 0
1.4456716 0.62700266 -0.056257561 0
1.0988741 0.47659302 0.30559078 0
1.0375903 0.45001361 0.37626901 0
1.0175499 0.44132185 0.45922029 0
1.0205432 0.4426201 0.5565756 0
1.022095 0.44329309 0.66070616 0
1.4284762 0.64103341 -0.055898096 0
1.0936407 0.49077487 0.30582976 0
1.0837795 0.48634961 0.39520845 0
1.0554608 0.47364151 0.47898316 0
1.0432457 0.46815994 0.57212657 0
1.0412619 0.46726972 0.67684603 0
1.4305907 0.66374731 -0.056303438 0
1.0841966 0.50303179 0.30493593 0
1.0716902 0.49722922 0.39305207 0
1.0629585 0.49317795 0.48516554 0
1.0735976 0.49811414 0.5921647 0
1.4041255 0.67308176 -0.055591017 0
1.0658519 0.5109269 0.30156201 0
1.1012627 0.52790141 0.40630382 0
1.1017343 0.52812743 0.50585926 0
1.1135321 0.53378284 0.61784983 0
1.3995754 0.69270569 -0.055751797 0
1.0598693 0.5245716 0.30171433 0
1.1457181 0.56706154 0.42530611 0
1.1392379 0.56385422 0.52629727 0
1.1369702 0.56273186 0.634736 0
1.3992217 0.71460354 -0.056091707 0
1.6926434 0.86445844 0.34277308 0
1.0479333 0.53519529 0.30021116 0
1.1842232 0.60480064 0.44239172 0
1.1819102 0.60361934 0.54947859 0
1.1852691 0.60533482 0.6659025 0
1.3925306 0.73343813 -0.056189258 0
1.6908046 0.89053738 0.34464428 0
1.0361708 0.54574543 0.29878649 0
1.2176043 0.64130545 0.45784241 0
1.216749 0.6408549 0.56938195 0
1.2169108 0.64094019 0.68815905 0
1.3853757 0.75210279 -0.05627824 0
1.683513 0.91395772 0.34547651 0
1.0264654 0.55725497 0.29798767 0
1.2556778 0.68169147 0.47534886 0
1.2668862 0.68777639 0.59684932 0
1.3670157 0.76457584 -0.055919074 0
1.0219401 0.57157409 0.041803427 0
1.0227218 0.57201123 0.12593442 0
1.0261662 0.57393777 0.21204755 0
1.014671 0.5675084 0.29661477 0
1.2949514 0.72427011 0.49362963 0
1.3076726 0.73138511 0.62035406 0
1.3551754 0.78051525 -0.055832349 0
1.0109482 0.58225709 0.041650411 0
1.0061313 0.57948279 0.12478016 0
1.0102496 0.58185476 0.21025589 0
1.004631 0.57861871 0.29578629 0
1.3354207 0.76913756 0.51270765 0
1.3414873 0.77263159 0.64096022 0
1.3448709 0.79729766 -0.055817015 0
0.99108541 0.58755833 0.041133635 0
0.99110156 0.58756787 0.12382396 0
0.9918859 0.5880329 0.20795856 0
0.99825853 0.59181082 0.29608068 0
1.3717167 0.81321305 0.53053218 0
1.3729606 0.81395042 0.6608429 0
1.3392152 0.81690675 -0.056004778 0
0.99060094 0.60425586 0.04142604 0
0.97584438 0.59525454 0.12284452 0
0.99316472 0.60581976 0.20980947 0
0.98186356 0.59892613 0.29343161 0
1.4166965 0.86416954 0.55209374 0
1.4113301 0.86089611 0.68447483 0
1.3263807 0.83217198 -0.055901837 0
0.96912974 0.60803246 0.040845085 0
0.97222954 0.6099773 0.1233466 0
0.98479605 0.61786157 0.20966853 0
0.97492933 0.61167115 0.29363787 0
1.4360915 0.90100461 0.5640288 0
1.303811 0.84107429 -0.055392586 0
0.97079182 0.62624729 0.041244224 0
0.96001714 0.61929667 0.12277686 0
0.96302557 0.62123734 0.20668259 0
0.9665069 0.62348312 0.29344249 0
1.4716139 0.94932216 0.58262908 0
1.3070124 0.86663753 -0.055987798 0
0.95260042 0.63163841 0.040806036 0
0.94983566 0.62980521 0.12247929 0
0.94310129 0.62533987 0.2040803 0
0.94316167 0.62537986 0.28872266 0
1.4872897 0.98617345 0.5937047 0
1.3011795 0.88655692 -0.056211691 0
0.92816055 0.63240093 0.040097062 0
0.92898875 0.63296521 0.12080931 0
0.94525248 0.64404655 0.20628439 0
0.93993354 0.64042246 0.29018012 0
1.5216177 1.0367521 0.61257076 0
1.2852525 0.89960754 -0.05600857 0
0.92407483 0.6468026 0.040269218 0
0.92979592 0.65080708 0.12197033 0
0.9260397 0.64817792 0.20385659 0
0.92473 0.64726126 0.28797984 0
1.525165 1.0675334 0.61936146 0
1.2761809 0.91741377 -0.056112222 0
0.92051876 0.66173744 0.040474169 0
0.92831588 0.6673426 0.12286879 0
0.92039305 0.66164708 0.20443144 0
0.92152631 0.66246176 0.28955701 0
1.5505241 1.1146322 0.6353091 0
1.2574832 0.92820942 -0.055799603 0
0.90028787 0.66454619 0.039949406 0
0.90612668 0.66885608 0.12103706 0
0.90866774 0.67073178 0.20368691 0
0.90052831 0.66472363 0.28556657 0
1.5601809 1.1516452 0.64515662 0
1.2595695 0.95448202 -0.056421045 0
0.90118253 0.68290198 0.040367488 0
0.90635502 0.68682164 0.12221313 0
0.90761071 0.68777311 0.20537505 0
0.90497971 0.68577939 0.28969356 0
1.5678408 1.1880852 0.6544587 0
1.2395965 0.96415615 -0.056065764 0
0.89423406 0.69553381 0.04044535 0
0.89165241 0.69352579 0.12139855 0
0.88863397 0.69117808 0.20303431 0
0.88841224 0.69100559 0.28715277 0
1.5803794 1.2292166 0.66610098 0
1.2222657 0.97562277 -0.055833135 0
0.88377392 0.70543575 0.040370818 0
0.88168579 0.70376903 0.12123854 0
0.87970972 0.70219171 0.20299944 0
0.87894952 0.70158494 0.28692698 0
1.573289 1.2558125 0.66972446 0
1.2193409 0.99868029 -0.056269519 0
0.9372108 0.7676065 0.13019247 0
0.92405105 0.75682819 0.2154136 0
0.9372589 0.76764584 0.30909267 0
1.5864339 1.2993416 0.68223083 0
1.199901 1.0082664 -0.055953883 0
1.6435434 1.3810554 0.23071006 0
1.6035894 1.3474824 0.3777523 0
1.5941188 1.3395243 0.53123486 0
1.6019106 1.3460717 0.69612044 0
1.1958646 1.0308406 -0.056366496 0
1.613691 1.391009 0.38422757 0
1.5900563 1.3706357 0.53559017 0
1.1701698 1.0346575 -0.055765066 0
1.6100553 1.4236017 0.38759953 0
1.6064491 1.4204133 0.54709327 0
1.1550665 1.047511 -0.055669494 0
1.6122143 1.4620908 0.39252034 0
1.5975558 1.4487973 0.55023396 0
1.1445779 1.0645689 -0.055805642 0
1.6049044 1.4927173 0.39528561 0
1.6051794 1.4929731 0.55929047 0
1.133145 1.080863 -0.05590738 0
0.6118114 0.58358312 0.35007036 0
0.61131734 0.58311182 0.4226996 0
1.1175654 1.0932056 -0.055813473 0
0.58676046 0.57397068 0.41068459 0
0.58811802 0.57529867 0.48790631 0
1.1119274 1.1154315 -0.05622891 0
0.58306396 0.58490151 0.41321963 0
0.57825434 0.58007669 0.48574466 0
1.0917076 1.1230818 -0.055917136 0
0.59132707 0.60832101 0.35125333 0
0.58357757 0.60034883 0.41890803 0
0.57016283 0.58654857 0.4851135 0
1.0786624 1.1379859 -0.055978492 0
0.5823558 0.61438382 0.35049206 0
0.57479912 0.60641158 0.41805482 0
0.55927503 0.59003371 0.48213312 0
1.0714058 1.1592216 -0.05635497 0
1.5750637 1.7041609 0.41850963 0
1.5763155 1.7055154 0.59251922 0
0.53847528 0.58261043 0.47048944 0
1.0580704 1.1741132 -0.05642673 0
1.5670642 1.7389303 0.42216885 0
1.5663663 1.7381558 0.59695923 0
0.52413875 0.58162308 0.4643254 0
1.0354205 1.1784847 -0.05600578 0
1.5597154 1.7752213 0.42617747 0
1.5602009 1.775774 0.60308373 0
1.0123402 1.1819021 -0.055557966 0
1.5497427 1.8093168 0.42964378 0
1.5503474 1.8100228 0.60803694 0
1.0092738 1.208802 -0.056220587 0
0.58512777 0.70080453 0.032593958 0
1.5285347 1.8307182 0.43012112 0
1.5290977 1.8313924 0.60869908 0
0.99677855 1.2248611 -0.056379247 0
1.5214974 1.8696458 0.43473125 0
1.5225407 1.870928 0.61541849 0
0.97700524 1.2319282 -0.05613381 0
1.5098763 1.9038373 0.4382259 0
1.5085984 1.9022262 0.61941582 0
0.95061409 1.2301534 -0.055503104 0
1.4916823 1.9303291 0.43996531 0
1.4956295 1.9354372 0.62404817 0
0.94954795 1.2612835 -0.056363702 0
1.4777739 1.9629254 0.44311833 0
1.4752713 1.9596013 0.62580001 0
0.93381745 1.2734474 -0.056377336 0
1.4563221 1.9859873 0.4441494 0
1.4602734 1.9913757 0.63002503 0
0.91233546 1.2775793 -0.056047216 0
1.4373517 2.0127804 0.4460583 0
1.4441768 2.0223377 0.63401699 0
0.89460403 1.2867032 -0.055948846 0
1.4216566 2.0447598 0.44914249 0
1.4289097 2.0551918 0.63862532 0
0.8771469 1.2961143 -0.055873364 0
1.4064438 2.0782287 0.45256811 0
1.4001844 2.0689795 0.63738048 0
0.86339498 1.3110605 -0.056044552 0
1.446659 2.1967437 0.093905285 0
1.4435524 2.1920264 0.28207004 0
1.3927811 2.1149304 0.45670506 0
1.3855622 2.1039686 0.64273351 0
0.84747994 1.32286 -0.056088313 0
1.4048301 2.1928468 0.092975125 0
1.3976194 2.1815913 0.27844051 0
1.3626014 2.1269305 0.45555508 0
1.365342 2.1312084 0.6457516 0
0.83045739 1.3329461 -0.05606813 0
1.3680047 2.1957495 0.092360504 0
1.3569858 2.1780636 0.2757875 0
1.3388413 2.1489401 0.45662206 0
1.3351556 2.1430242 0.64418656 0
0.81150901 1.3398311 -0.055923473 0
1.3404871 2.2131934 0.09237691 0
1.3513408 2.2311132 0.28032783 0
1.3211561 2.181277 0.45992181 0
1.3191493 2.1779637 0.64964449 0
0.79126996 1.3443284 -0.055690885 0
1.3268398 2.254235 0.093385175 0
1.3307481 2.260875 0.28193942 0
1.2910268 2.1933904 0.45901176 0
1.306182 2.2191386 0.65696806 0
0.78367209 1.3706104 -0.056366384 0
1.272805 2.2260838 0.46246278 0
1.2751813 2.2302396 0.65544879 0
0.75972408 1.3684301 -0.05587887 0
1.2499131 2.2513685 0.46440902 0
1.2440474 2.240803 0.65389752 0
0.73842865 1.3704545 -0.055577431 0
1.2177058 2.2599483 0.46297914 0
1.2234691 2.2706444 0.65805781 0
0.72943884 1.39557 -0.056219008 0
1.1957822 2.2877831 0.46555981 0
1.1925427 2.281585 0.65682441 0
0.71060139 1.4022607 -0.056123625 0
1.1686682 2.3061838 0.46627268 0
1.1640918 2.297153 0.65703416 0
0.6896711 1.4045436 -0.055862982 0
1.1407751 2.3232358 0.46677893 0
1.1451389 2.3321226 0.66285926 0
0.67042452 1.4099468 -0.055737693 0
1.1157787 2.3465557 0.46860427 0
1.1190336 2.3534009 0.6648494 0
0.65441906 1.4221896 -0.05589148 0
1.0889359 2.3664856 0.4698087 0
1.0851283 2.358211 0.66229552 0
0.63690805 1.4313235 -0.055930816 0
1.0592573 2.3804688 0.46989951 0
1.0514823 2.3629961 0.65986854 0
0.61844611 1.438324 -0.055895627 0
1.0239222 2.3813422 0.46748969 0
1.0234805 2.3803151 0.66105348 0
0.60215235 1.4504906 -0.056069333 0
0.99269569 2.3912482 0.46694338 0
1.0006285 2.410357 0.66584462 0
0.58323729 1.4564494 -0.056011338 0
0.96515411 2.4101651 0.46822694 0
0.96782655 2.4168386 0.66421586 0
0.56485295 1.4636786 -0.056011371 0
0.94219732 2.4414742 0.47196713 0
0.93755817 2.4294531 0.66438544 0
0.54687721 1.4720166 -0.056062479 0
0.90511501 2.4362769 0.46872199 0
0.90951681 2.4481251 0.66630685 0
0.52741915 1.4763218 -0.055969071 0
0.87508214 2.4494803 0.46910504 0
0.87734878 2.4558251 0.66534287 0
0.50728905 1.478475 -0.055804104 0
0.84455514 2.4614246 0.4693186 0
0.84170026 2.453104 0.66168177 0
0.49077487 1.4912533 -0.05604871 0
0.81382143 2.4728527 0.46950641 0
0.81148213 2.4657445 0.66228259 0
0.47120264 1.4949141 -0.055958856 0
0.78401393 2.4873235 0.47034222 0
0.7819078 2.4806418 0.66358674 0
0.4533644 1.5041189 -0.05608527 0
0.75530839 2.505873 0.47201389 0
0.7476995 2.4806292 0.66101235 0
0.43441129 1.5097828 -0.056088049 0
0.71427882 2.4824536 0.46587142 0
0.71438003 2.4828053 0.65914291 0
0.41700676 1.5211147 -0.056309488 0
0.56134355 2.0476117 0.075799651 0
0.68456072 2.4970708 0.46695983 0
0.68206495 2.487967 0.65818089 0
0.39616901 1.5199068 -0.056075651 0
0.52608848 2.0183442 0.074465074 0
0.65072525 2.4965146 0.46528664 0
0.64950836 2.4918458 0.6569913 0
0.37380165 1.5118382 -0.055599902 0
0.4859983 1.9656169 0.07228823 0
0.61628526 2.4925616 0.46306685 0
0.61621022 2.4922581 0.65500224 0
0.35646275 1.523806 -0.055870526 0
0.45190048 1.9317828 0.070829049 0
0.58430308 2.497777 0.46263218 0
0.58561599 2.5033896 0.65593773 0
0.33827698 1.5328364 -0.056041006 0
0.42112088 1.9082274 0.069765426 0
0.55164546 2.4996741 0.46166036 0
0.55084872 2.4960639 0.65214908 0
0.31927487 1.5385402 -0.056098104 0
0.38928241 1.8758965 0.068398759 0
0.5163092 2.4880207 0.45827103 0
0.51810259 2.4966626 0.65054935 0
0.296727 1.5262336 -0.05550874 0
0.36028916 1.8531694 0.067399316 0
0.48539931 2.4966812 0.45870402 0
0.4850888 2.495084 0.64849502 0
0.28212649 1.5554309 -0.05643696 0
0.33055907 1.8224515 0.066125482 0
0.45208097 2.4924307 0.45684102 0
0.45329565 2.4991276 0.64801097 0
0.26035196 1.5459898 -0.055971012 0
0.30141729 1.7898387 0.064799316 0
0.30139902 1.7897303 0.19504941 0
0.42065027 2.4978533 0.45682782 0
0.42072535 2.4982991 0.64637125 0
0.14434057 0.85710531 0.43488279 0
0.24147548 1.5530689 -0.056112766 0
0.27236149 1.7517147 0.063289888 0
0.2734569 1.7587599 0.19128373 0
0.38496497 2.4759331 0.45189646 0
0.38751689 2.4923458 0.64351749 0
0.13543226 0.87104338 0.44105449 0
0.2211141 1.5504662 -0.055913698 0
0.24459527 1.7151177 0.061851446 0
0.24694332 1.7315824 0.18797478 0
0.35347569 2.4785941 0.45153397 0
0.35383773 2.4811327 0.63942111 0
0.12356331 0.8664338 0.43789786 0
0.20362402 1.5689203 -0.056482255 0
0.22124417 1.7046832 0.061369821 0
0.22260264 1.7151502 0.18587194 0
0.31873301 2.4558334 0.446621 0
0.31974646 2.4636419 0.63382566 0
0.11399328 0.87831664 0.44314286 0
0.18129879 1.549527 -0.055697482 0
0.19820522 1.6940231 0.060891371 0
0.19604604 1.6755691 0.18130061 0
0.28720579 2.4546945 0.44572085 0
0.28908697 2.4707725 0.6346733 0
0.10334253 0.88324928 0.44493976 0
0.16356282 1.5688448 -0.056313358 0
0.17360485 1.6651648 0.059770744 0
0.17318237 1.6611125 0.17948619 0
0.25539839 2.4497035 0.44419542 0
0.25705907 2.4656324 0.63247132 0
0.093700416 0.89874589 0.45211598 0
0.14334755 1.5658789 -0.056137655 0
0.14903195 1.6279734 0.058363784 0
0.14978531 1.6362028 0.17657685 0
0.22385733 2.4453399 0.44285792 0
0.22386636 2.4454386 0.62651855 0
0.082337402 0.89942527 0.45190033 0
0.12294839 1.559045 -0.055832725 0
0.12647408 1.6037525 0.057433799 0
0.12670355 1.6066623 0.17320296 0
0.19151452 2.4284966 0.439336 0
0.19233951 2.4389579 0.62418818 0
0.10335638 1.5611947 -0.055858672 0
0.10606398 1.6020927 0.057321984 0
0.10582316 1.5984551 0.17216089 0
0.1603992 2.4228244 0.43790972 0
0.1607928 2.4287696 0.62101334 0
0.08392556 1.5667536 -0.05601532 0
0.08573743 1.6005783 0.057224635 0
0.086341083 1.6118476 0.17347248 0
0.12923273 2.4125648 0.4357267 0
0.12897412 2.407737 0.61517149 0
0.064316951 1.5707479 -0.056124717 0
0.066460408 1.6230955 0.057995159 0
0.066556744 1.6254482 0.17483217 0
0.097769849 2.3877344 0.4309856 0
0.097609296 2.3838134 0.60869676 0
0.044477686 1.569438 -0.056053456 0
0.038865354 1.3714014 0.048980456 0
0.04657872 1.643575 0.17670476 0
0.066664852 2.3523335 0.42441058 0
0.067082748 2.3670793 0.60416019 0
0.024651812 1.5659844 -0.055914588 0
0.021241516 1.3493483 0.048179444 0
0.026120184 1.6592612 0.17834175 0
0.037078008 2.3553474 0.42483643 0
0.037009653 2.3510048 0.59989095 0
0.0049334816 1.566571 -0.055928886 0
0.0042126486 1.3376787 0.047757093 0
0.0053373417 1.6948123 0.1821412 0
0.0073417877 2.3313012 0.42044923 0
0.0073589883 2.3367631 0.5961861 0
-0.014830512 1.5705943 -0.056074746 0
-0.012734033 1.3485712 0.048147876 0
-0.016120441 1.7072017 0.18347995 0
-0.022084152 2.3387761 0.42181399 0
-0.021833569 2.3122385 0.58995241 0
-0.034809358 1.5795554 -0.056405857 0
-0.029886533 1.3561708 0.0484288 0
-0.038090412 1.7284409 0.18579943 0
-0.050482802 2.2907743 0.41323847 0
-0.050368112 2.2855701 0.5832637 0
-0.054543301 1.5746093 -0.056249294 0
-0.048078023 1.3879633 0.0495818 0
-0.06067723 1.7516896 0.18836576 0
-0.078483991 2.2657526 0.40887058 0
-0.078822091 2.2755132 0.58090448 0
-0.074087545 1.5679214 -0.056039274 0
-0.083871 1.7749695 0.063439399 0
-0.083988369 1.7774534 0.19123481 0
-0.10619725 2.2474618 0.40577906 0
-0.1062277 2.2481062 0.57420385 0
-0.042739477 0.90449941 0.3749131 0
-0.093536697 1.5620712 -0.055867847 0
-0.1073031 1.7919713 0.064090282 0
-0.10789353 1.8018316 0.19398844 0
-0.13454023 2.2468338 0.40593937 0
-0.13300061 2.2211223 0.56769443 0
-0.054143392 0.90419948 0.37504166 0
-0.11295564 1.5574329 -0.055748411 0
-0.13216981 1.8223579 0.065231413 0
-0.15987405 2.204344 0.3985948 0
-0.16019291 2.2087405 0.56500053 0
-0.062371291 0.85997558 0.35699606 0
-0.064890847 0.89471531 0.44883788 0
-0.13224946 1.5522815 -0.055619214 0
-0.15769035 1.8508946 0.066318706 0
-0.18657246 2.1898992 0.39637619 0
-0.18653527 2.1894624 0.56062561 0
-0.074142709 0.87025195 0.3616209 0
-0.076378509 0.89649469 0.45017731 0
-0.15305313 1.5634568 -0.056084242 0
-0.18449183 1.884607 0.067604527 0
-0.21130702 2.1585276 0.39114848 0
-0.21172114 2.1627576 0.55442637 0
-0.085736439 0.87580842 0.36434954 0
-0.17283061 1.5623441 -0.056117944 0
-0.21003947 1.8987025 0.068199627 0
-0.2373392 2.1454849 0.38929573 0
-0.2346542 2.1212134 0.54449075 0
-0.095993005 0.86775196 0.36147213 0
-0.19188146 1.5551225 -0.055940907 0
-0.238336 1.931618 0.069484212 0
-0.26127759 2.1175504 0.38479349 0
-0.25997651 2.1070056 0.54164118 0
-0.10875014 0.88137639 0.36768886 0
-0.10544204 0.85456556 0.43081596 0
-0.21172221 1.5546031 -0.056013685 0
-0.2660768 1.95371 0.070393853 0
-0.28646079 2.1033826 0.38284415 0
-0.28245214 2.0739486 0.53401524 0
-0.11646738 0.85517973 0.35734373 0
-0.11499324 0.84435564 0.42636499 0
-0.23361158 1.5674597 -0.056578428 0
-0.29745454 1.9958258 0.072040565 0
-0.30725014 2.0615511 0.37590465 0
-0.30600297 2.0531831 0.52961862 0
-0.30643898 2.0561085 0.69161087 0
-0.13012078 0.87306923 0.3654747 0
-0.1327143 0.89047092 0.45045945 0
-0.25085992 1.549145 -0.056026924 0
-0.32909992 2.0323036 0.073501006 0
-0.33200762 2.0502594 0.37457833 0
-0.32919309 2.0328789 0.52540869 0
-0.32972682 2.0361748 0.68624794 0
-0.13923204 0.85980493 0.36062747 0
-0.14175133 0.87536246 0.44368437 0
-0.27156395 1.5528299 -0.056279406 0
-0.35690576 2.040823 0.073965803 0
-0.35185993 2.0119703 0.36836326 0
-0.35169494 2.0110271 0.52086431 0
-0.3492201 1.9968755 0.67443162 0
-0.15272264 0.87328339 0.44357017 0
-0.28946275 1.5406032 -0.055963945 0
-0.38719499 2.0607622 0.074859232 0
-0.38710648 2.0602908 0.22529241 0
-0.3792522 2.0184882 0.37040156 0
-0.37489161 1.9952799 0.51796734 0
-0.37385195 1.9897466 0.67356044 0
-0.15943757 0.84857219 0.43200403 0
-0.3092303 1.5387893 -0.056035057 0
-0.40300238 2.0054171 0.07302732 0
-0.40307623 2.0057845 0.21986975 0
-0.39694923 1.9752955 0.36336395 0
-0.39662972 1.9737055 0.51362258 0
-0.39259776 1.9536418 0.66295934 0
-0.17393419 0.86552984 0.44171709 0
-0.32721576 1.5283967 -0.055802234 0
-0.42612374 1.9903874 0.072669655 0
-0.4272323 1.9955654 0.21932188 0
-0.42018512 1.9626486 0.36198211 0
-0.41663069 1.9460462 0.50774968 0
-0.41420838 1.9347317 0.65826011 0
-0.18281192 0.85389876 0.43692142 0
-0.34756541 1.5291324 -0.055984445 0
-0.44829202 1.9722844 0.072209083 0
-0.44630584 1.9635462 0.21640332 0
-0.44032276 1.9372233 0.35828701 0
-0.43776903 1.9259881 0.50391459 0
-0.4342708 1.9105974 0.65185761 0
-0.36824614 1.5306815 -0.056206476 0
-0.47307822 1.9664348 0.072207294 0
-0.47555974 1.9767498 0.21850115 0
-0.46146873 1.918178 0.35581112 0
-0.4580127 1.9038124 0.49958193 0
-0.45545551 1.8931829 0.64782155 0
-0.38743407 1.5257028 -0.056198347 0
-0.50053102 1.9710751 0.07260336 0
-0.50268853 1.9795712 0.2194953 0
-0.48216096 1.8987343 0.35330263 0
-0.47656533 1.8766989 0.49400261 0
-0.47505838 1.8707645 0.64214635 0
-0.40896672 1.5295035 -0.056523547 0
-0.53378958 1.996331 0.073775388 0
-0.53210175 1.9900187 0.22137912 0
-0.499502 1.8680983 0.34874481 0
-0.49572581 1.8539755 0.48962548 0
-0.49776077 1.8615861 0.64109647 0
-0.42380947 1.5086302 -0.055944953 0
-0.52061826 1.8532395 0.34716725 0
-0.51941007 1.8489386 0.48998374 0
-0.51984042 1.8504707 0.63947207 0
-0.44125506 1.4980266 -0.055753365 0
-0.54300427 1.8434573 0.34658819 0
-0.53531069 1.8173382 0.4833574 0
-0.53743762 1.824559 0.63280624 0
-0.46744567 1.516237 -0.056645699 0
-0.5656547 1.8347943 0.34627116 0
-0.56180799 1.8223168 0.48652455 0
-0.56337476 1.8273988 0.63620114 0
-0.4763945 1.4788612 -0.055469077 0
-0.58341944 1.8110964 0.34315804 0
-0.5826326 1.808654 0.48479715 0
-0.57613719 1.7884904 0.62513155 0
-0.49883878 1.4842347 -0.055901799 0
-0.61100549 1.8179733 0.34589142 0
-0.59044582 1.7568005 0.4728536 0
-0.59519857 1.7709417 0.62156814 0
-0.51609313 1.4738539 -0.055751171 0
-0.62965733 1.7981695 0.34360483 0
-0.61462468 1.7552394 0.47447893 0
-0.61375445 1.7527543 0.61784828 0
-0.53766429 1.4756219 -0.056069702 0
-0.65386677 1.79454 0.3444573 0
-0.63284832 1.7368548 0.47162595 0
-0.6326884 1.7364159 0.61484861 0
-0.55454308 1.4643557 -0.055902515 0
-0.67227882 1.7752547 0.34235331 0
-0.65324563 1.7249948 0.47060183 0
-0.6522882 1.7224666 0.61276913 0
-0.56986374 1.4494401 -0.055602636 0
-0.692119 1.7603945 0.34114122 0
-0.67234975 1.7101117 0.4688141 0
-0.67079771 1.7061641 0.6099261 0
-0.59470987 1.4584363 -0.056230564 0
-0.72333652 1.7738736 0.34549102 0
-0.68202126 1.6725543 0.46083584 0
-0.68714607 1.685122 0.60544908 0
-0.60676533 1.436015 -0.055656273 0
-0.74357718 1.7598039 0.34454703 0
-0.70417088 1.6665421 0.46158585 0
-0.70898002 1.6779238 0.60602242 0
-0.62235999 1.4226872 -0.055439062 0
-0.76005787 1.7374585 0.34201881 0
-0.7162534 1.6373233 0.455955 0
-0.72211599 1.650725 0.59943557 0
-0.64915502 1.4344734 -0.056212429 0
-0.78926969 1.7440926 0.3452538 0
-0.73557407 1.6254385 0.45518863 0
-0.74090421 1.6372168 0.59787077 0
-0.66426492 1.419986 -0.055968057 0
-0.80957305 1.7306083 0.34457523 0
-0.74556643 1.5937825 0.44891724 0
-0.75458366 1.6130586 0.59247166 0
-0.67947543 1.4060956 -0.055753388 0
-0.83000088 1.7175906 0.344037 0
-0.76832891 1.5899677 0.45053211 0
-0.76900017 1.5913568 0.58801073 0
-0.70179302 1.4067841 -0.056126639 0
-0.84886432 1.7015969 0.34294727 0
-0.78820473 1.5800014 0.45048475 0
-0.78443611 1.5724468 0.58462697 0
-0.71493608 1.389065 -0.055774454 0
-0.87226003 1.6947331 0.34375039 0
-0.80893666 1.5717007 0.45098665 0
-0.80825108 1.5703688 0.58759177 0
-0.73774815 1.3900877 -0.056184079 0
-0.89444858 1.6853474 0.3441039 0
-0.82013899 1.5453311 0.44634807 0
-0.81461275 1.5349183 0.57811952 0
-0.75136793 1.373696 -0.055899538 0
-0.92011005 1.6822004 0.34579957 0
-0.83848691 1.5329721 0.44579265 0
-0.8328681 1.5226995 0.57742167 0
-0.7687782 1.3644341 -0.055912144 0
-0.93874198 1.6660872 0.34488985 0
-0.85664916 1.5203882 0.44523484 0
-0.85534108 1.5180666 0.57970321 0
-0.78384489 1.3511087 -0.055766139 0
-0.9606117 1.6558005 0.34523705 0
-0.86420512 1.4896251 0.43937802 0
-0.86847168 1.4969794 0.57578111 0
-0.80825478 1.3536255 -0.056285638 0
-0.98621953 1.6516721 0.3469381 0
-0.88686508 1.4852781 0.44135487 0
-0.88601583 1.483856 0.57497913 0
-0.82492149 1.3428317 -0.056264289 0
-1.0069113 1.6390802 0.34692892 0
-0.89799011 1.4617751 0.43769625 0
-0.89534384 1.4574673 0.56907743 0
-0.83893275 1.3278573 -0.056075048 0
-1.0237569 1.6203957 0.34567535 0
-0.92346859 1.46166 0.44110873 0
-0.91597337 1.4497967 0.57054073 0
-0.84857035 1.3063887 -0.055615269 0
-1.0415062 1.6034169 0.34482372 0
-0.9233529 1.4215178 0.43246898 0
-0.92504966 1.4241301 0.56497926 0
-0.87325501 1.3080375 -0.056149136 0
-1.0576624 1.584259 0.34354064 0
-0.94074219 1.4091258 0.43226859 0
-0.94390619 1.4138651 0.56557751 0
-0.88271481 1.2868203 -0.055711079 0
-1.0805031 1.5751559 0.34448975 0
-0.9665969 1.4091035 0.43596101 0
-0.960338 1.3999792 0.56481546 0
-0.90529317 1.2847513 -0.056110587 0
-1.0944538 1.5531996 0.34267479 0
-0.97681725 1.386255 0.4326632 0
-0.97873312 1.388974 0.56530285 0
-0.92679524 1.280709 -0.056439269 0
-1.1206765 1.5486275 0.34475213 0
-0.99562413 1.3758215 0.43328539 0
-0.995251 1.3753059 0.56479585 0
-0.9283765 1.2494622 -0.055573031 0
-1.1321919 1.5237685 0.34236476 0
-1.0092726 1.3583368 0.43174717 0
-1.0006421 1.3467214 0.55818737 0
-0.95643532 1.2539309 -0.056302998 0
-1.155732 1.5152183 0.34368625 0
-1.0183914 1.3351582 0.42842191 0
-1.0180594 1.334723 0.55848348 0
-0.9722985 1.2419811 -0.056311715 0
-0.5859974 0.74853319 0.033938672 0
-0.58632076 0.74894625 0.10221978 0
-0.59119231 0.75516897 0.1729645 0
-1.0311298 1.3171303 0.42676967 0
-1.0339304 1.3207077 0.55802256 0
-0.98574805 1.227012 -0.056191355 0
-0.59791702 0.74425852 0.034083523 0
-0.59779155 0.74410242 0.10257792 0
-0.59069401 0.73526764 0.17009644 0
-1.064577 1.3251346 0.43367234 0
-1.0524263 1.3100101 0.55905765 0
-0.48920846 0.60894328 0.4632372 0
-1.0049604 1.2191627 -0.056406945 0
-0.60241282 0.7308141 0.033812542 0
-0.59670228 0.72388637 0.10081887 0
-0.60202867 0.73034799 0.17069855 0
-1.0648487 1.2918158 0.42712259 0
-1.0691841 1.2970753 0.55923891 0
-1.010818 1.195281 -0.055886488 0
-0.60877538 0.71987009 0.10131913 0
-0.60618508 0.71680713 0.16930437 0
-1.0877045 1.2861984 0.42975983 0
-1.0879085 1.2864397 0.56051528 0
-1.0216446 1.1776828 -0.055660754 0
-0.61659652 0.71077073 0.1011232 0
-0.61354232 0.70725006 0.16885847 0
-1.1005639 1.2686555 0.42849478 0
-1.1027303 1.2711527 0.55986047 0
-1.0349721 1.1631297 -0.055584487 0
-0.62519789 0.70261443 0.10107483 0
-0.61872238 0.69533706 0.16786104 0
-1.1148871 1.2529404 0.42789471 0
-1.1136893 1.2515943 0.55737865 0
-1.1130834 1.2509133 0.693277 0
-0.516967 0.58098155 0.46120465 0
-1.0551431 1.1561507 -0.055881489 0
-0.63702965 0.69801176 0.10155861 0
-0.64030087 0.70159608 0.1713049 0
-1.1301594 1.2383482 0.4277375 0
-1.1265254 1.2343664 0.55597967 0
-1.1350853 1.2437458 0.69717091 0
-0.53896862 0.59056342 0.47416112 0
-1.076339 1.1499555 -0.056232687 0
-0.65978664 0.70491296 0.1037633 0
-0.64429182 0.68835837 0.17004015 0
-1.1370147 1.2147812 0.42450902 0
-1.149189 1.2277881 0.5594902 0
-1.1512706 1.2300121 0.6975435 0
-0.55088437 0.58856225 0.47808605 0
-1.0796994 1.1248174 -0.05566385 0
-0.5893724 0.6140008 0.35238248 0
-0.57873386 0.60291767 0.41814873 0
-0.56259233 0.58610165 0.48180366 0
-1.0969646 1.1143719 -0.055826087 0
-0.57880956 0.58799446 0.41282099 0
-0.57835639 0.58753413 0.48892927 0
-1.1105183 1.1000845 -0.055806458 0
-0.58410084 0.57861298 0.41136572 0
-0.59516823 0.58957636 0.49682605 0
-1.1197968 1.0816823 -0.055583838 0
-0.61054814 0.58976692 0.35146606 0
-0.61944842 0.59836429 0.43091935 0
-1.140242 1.0740097 -0.055922952 0
-0.61432445 0.57864064 0.34941778 0
-0.61789364 0.58200258 0.42470589 0
-1.1591712 1.0646156 -0.056189388 0
-0.68622327 0.63024688 0.10013195 0
-0.69030946 0.63399976 0.16903616 0
-1.2275958 1.1274587 0.42524889 0
-1.2187546 1.1193388 0.55053419 0
-1.233386 1.1327766 0.69336176 0
-1.1721227 1.0496122 -0.056172065 0
-0.70264024 0.62920016 0.10136332 0
-0.69960946 0.62648618 0.16936828 0
-1.247136 1.1167852 0.42711243 0
-1.2379979 1.1086022 0.55287701 0
-1.2473063 1.1169378 0.69322568 0
-1.1738234 1.0247984 -0.055630732 0
-0.7094509 0.61938119 0.10121267 0
-0.71054256 0.62033433 0.17011054 0
-1.2568566 1.09729 0.42567566 0
-1.2616284 1.101456 0.55719191 0
-1.2089756 1.0289522 -0.056678139 0
-0.71462709 0.60821509 0.1008505 0
-0.72245198 0.61487484 0.17109455 0
-1.2791421 1.0886706 0.42854649 0
-1.2833449 1.0922476 0.56066412 0
-1.2158194 1.0086573 -0.05639907 0
-0.72949773 0.60519946 0.10186555 0
-0.72631681 0.60256046 0.17019941 0
-1.2967364 1.0757869 0.42986852 0
-1.2955166 1.074775 0.56002468 0
-1.2121549 0.98011458 -0.05565216 0
-0.73821664 0.5969013 0.10202539 0
-0.73726577 0.59613246 0.17099251 0
-1.3098429 1.0591023 0.42975822 0
-1.3050361 1.0552157 0.55835158 0
-1.233072 0.97160786 -0.056046348 0
-0.75145161 0.59211165 0.03415544 0
-0.74398077 0.58622491 0.10179374 0
-0.74596405 0.58778769 0.17127968 0
-1.3245095 1.0436567 0.43022436 0
-1.3223437 1.04195 0.56009859 0
-1.2446396 0.95556861 -0.056020763 0
-0.7354576 0.56464547 0.033102669 0
-0.74882996 0.57491213 0.10145866 0
-0.74631554 0.57298166 0.16969028 0
-1.330871 1.0217725 0.42807752 0
-1.3411722 1.0296812 0.56253719 0
-1.244047 0.930453 -0.055462338 0
-0.76040655 0.56872654 0.033900589 0
-0.76884347 0.5750367 0.10318102 0
-0.76193345 0.56986856 0.17159614 0
-1.3559763 1.0141677 0.43201074 0
-1.3503348 1.0099483 0.56100166 0
-1.2673317 0.92321491 -0.055977706 0
-0.763708 0.55633944 0.033732779 0
-0.77406585 0.56388479 0.10292081 0
-0.77549297 0.56492442 0.1730341 0
-1.3693753 0.99755073 0.43224338 0
-1.3612398 0.99162418 0.56030011 0
-1.2813753 0.90897179 -0.056087989 0
-0.78877175 0.55953264 0.03452589 0
-0.7868216 0.55814928 0.10367411 0
-0.77671945 0.55098307 0.17174608 0
-1.3911703 0.9868573 0.43516594 0
-1.3882627 0.9847948 0.56627387 0
-1.2882205 0.88965917 -0.055892825 0
-0.79235619 0.54720986 0.03437845 0
-0.78382653 0.54131913 0.10237321 0
-0.7956261 0.54946804 0.17438293 0
-1.3965011 0.96443886 0.43300027 0
-1.4034055 0.96920717 0.5674274 0
-1.2961313 0.87122482 -0.055755645 0
-0.79983205 0.53762567 0.034406353 0
-0.79279947 0.5328986 0.10266057 0
-0.80379134 0.54028708 0.17466757 0
-1.4128129 0.94965512 0.43431574 0
-1.4104584 0.94807243 0.56540734 0
-1.305209 0.85366565 -0.055679314 0
-0.81057829 0.53015476 0.034578707 0
-0.79859638 0.52231807 0.10255142 0
-0.80676717 0.5276621 0.17385656 0
-1.4299893 0.93527758 0.43594095 0
-1.4194144 0.92836106 0.5642665 0
-1.3151082 0.83668905 -0.055647742 0
-0.81640786 0.51940942 0.034545641 0
-0.81316781 0.51734805 0.10357782 0
-0.82723653 0.52629876 0.17682549 0
-1.4524199 0.9240486 0.43919694 0
-1.4362422 0.91375619 0.56633717 0
-1.3364295 0.82680166 -0.056104947 0
-0.82662582 0.51140416 0.034702767 0
-0.82062274 0.50769025 0.10370488 0
-0.83429968 0.51615167 0.17693195 0
-1.4649956 0.9063409 0.43951374 0
-1.4644521 0.90600473 0.57291681 0
-1.3507333 0.81231397 -0.056271557 0
-0.83663654 0.50314265 0.034854285 0
-0.84183788 0.50627071 0.1055719 0
-0.84408474 0.50762188 0.17763741 0
-1.464421 0.88068432 0.43597975 0
-1.4851712 0.89316326 0.57657677 0
-1.3516819 0.78988218 -0.055892285 0
-0.90771669 0.53044224 0.037534241 0
-0.90937257 0.53140992 0.11319304 0
-0.90036899 0.5261485 0.1880732 0
-1.494671 0.87344068 0.4416762 0
-1.4849192 0.867742 0.57219154 0
-1.3592312 0.77150095 -0.055798307 0
-0.96758986 0.54920495 0.039720893 0
-0.96438998 0.54738867 0.11917383 0
-1.5158689 0.8604086 0.31435359 0
-1.5142884 0.85951155 0.44423968 0
-1.5113434 0.85783994 0.57816547 0
-1.3697298 0.75481707 -0.055834677 0
-1.0634854 0.58605498 0.043351151 0
-1.0442845 0.5754739 0.12814111 0
-1.5282398 0.8421672 0.31469491 0
-1.524809 0.8402766 0.44418678 0
-1.5407676 0.84907085 0.58528519 0
-1.3799765 0.73796588 -0.05586914 0
-1.1352357 0.6070866 0.045960668 0
-1.1413149 0.6103375 0.13909332 0
-1.538976 0.82299358 0.31474674 0
-1.5381848 0.82257038 0.44503057 0
-1.5424545 0.82485372 0.58193427 0
-1.389712 0.72081864 -0.05589138 0
-1.250596 0.64866173 0.050296422 0
-1.2559627 0.65144533 0.15205382 0
-1.5537287 0.80589116 0.31566346 0
-1.5590214 0.80863637 0.4480775 0
-1.5467016 0.80224627 0.57967937 0
-1.4068551 0.70737493 -0.056218147 0
-1.3777026 0.6927169 0.055053208 0
-1.3804657 0.69410622 0.16605552 0
-1.5692986 0.78905249 0.31678298 0
-1.5837537 0.79632062 0.452268 0
-1.5814682 0.79517144 0.58890998 0
-1.4178771 0.69068956 -0.056306574 0
-1.54173 0.75102204 0.061225016 0
-1.5380079 0.74920881 0.18385676 0
-1.5879297 0.77352726 0.31855243 0
-1.5856038 0.77239424 0.44998318 0
-1.4246033 0.67190576 -0.056233238 0
-1.6538743 0.78004009 0.19651791 0
-1.6093616 0.75904596 0.32090899 0
-1.6057838 0.75735843 0.45296773 0
-1.4263198 0.65088916 -0.055973031 0
-1.6369592 0.74701267 0.19337498 0
-1.6236783 0.74095207 0.32187778 0
-1.6160388 0.73746586 0.45320505 0
-1.4388919 0.63485938 -0.056148227 0
-1.6420554 0.72449797 0.19288398 0
-1.6420956 0.72451568 0.32369453 0
-1.6346084 0.72121227 0.45582974 0
-1.4583386 0.62162215 -0.056597136 0
-1.6633893 0.7090258 0.19432582 0
-1.6518373 0.70410174 0.32384148 0
-1.6755964 0.71422911 0.46471485 0
-1.4410928 0.59294194 -0.055633664 0
-1.6986173 0.69890118 0.19739754 0
-1.684868 0.69324398 0.32857963 0
-1.6685649 0.68653601 0.46033061 0
-1.445513 0.57358664 -0.055521067 0
-1.7129951 0.67972481 0.19805801 0
-1.7072078 0.67742842 0.3312465 0
-1.685236 0.66870987 0.46257013 0
-1.4700944 0.56202072 -0.056188941 0
-1.7180074 0.65679848 0.19766563 0
-1.7092463 0.65344906 0.33001933 0
-1.7153889 0.65579736 0.46854278 0
-1.4765701 0.54328769 -0.056170516 0
-1.7329746 0.63762891 0.19844817 0
-1.7265738 0.63527381 0.33179405 0
-1.7324834 0.63744813 0.47098216 0
-1.4788996 0.52309859 -0.056004118 0
-1.7540253 0.62041277 0.19994827 0
-1.7490185 0.61864179 0.3345837 0
-1.7467365 0.61783463 0.4727045 0
-1.4920478 0.50670421 -0.05625594 0
-2.0196893 0.68589294 0.07615006 0
-1.7667795 0.60000396 0.200525 0
-1.7617728 0.59830368 0.3355557 0
