# .PCD v0.7 - Point Cloud Data file format
VERSION 0.7
FIELDS x y z intensity
SIZE 4 4 4 4
TYPE F F F F
COUNT 1 1 1 1
WIDTH 1352
HEIGHT 1
VIEWPOINT 0 0 0 1 0 0 0
POINTS 1352
DATA ascii
-0.94006151 -0.15527055 0.034016129 0
-0.94506711 -0.15609732 0.1029418 0
-0.94149667 -0.15550758 0.17209826 0
-1.6604822 -0.27426288 0.42938203 0
-1.6786883 -0.27726999 0.56605673 0
-1.5420245 -0.27468595 -0.055918887 0
-0.94104558 -0.16763158 0.034125414 0
-0.95112157 -0.16942646 0.10382545 0
-0.95164722 -0.16952008 0.17433007 0
-1.6799862 -0.29926154 0.4353655 0
-1.6745498 -0.29829311 0.56588292 0
-1.540614 -0.29449502 -0.055997774 0
-0.94430923 -0.18050878 0.034323469 0
-0.95199466 -0.18197788 0.10416263 0
-0.94387585 -0.18042594 0.17330891 0
-1.6738921 -0.31997168 0.43479592 0
-1.6730322 -0.31980732 0.56668603 0
-1.5298407 -0.31245181 -0.055744778 0
-0.9366982 -0.1913095 0.034131683 0
-0.94491881 -0.19298846 0.10364611 0
-0.94134235 -0.192258 0.17327452 0
-1.673964 -0.34188727 0.4358983 0
-1.6639806 -0.33984828 0.56502485 0
-1.5311433 -0.33285436 -0.055940535 0
-0.93699306 -0.20369238 0.034233175 0
-0.9405095 -0.20445681 0.10343666 0
-0.94214147 -0.20481159 0.17388254 0
-1.6642854 -0.36179805 0.4345299 0
-1.6707413 -0.3632015 0.5688284 0
-1.5347385 -0.35393053 -0.056230258 0
-0.93492258 -0.21560521 0.034254003 0
-0.93903595 -0.21655382 0.10356629 0
-0.93577951 -0.21580285 0.17319618 0
-1.6714001 -0.38544646 0.43762001 0
-1.6816068 -0.38780022 0.57414478 0
-1.518564 -0.37039816 -0.055804111 0
-0.9496246 -0.2316262 0.034896757 0
-0.94702572 -0.2309923 0.10475998 0
-0.95005071 -0.23173013 0.17636362 0
-1.6765068 -0.40892252 0.44027039 0
-1.6688582 -0.40705693 0.57149684 0
-1.5279757 -0.3931419 -0.056327429 0
-0.97560167 -0.25101832 0.035964668 0
-0.99846095 -0.25689992 0.11079881 0
-0.98653102 -0.25383037 0.18371445 0
-1.6717342 -0.43013036 0.44040453 0
-1.6824001 -0.43287465 0.57795507 0
-1.5083079 -0.40839756 -0.055787548 0
-1.0471672 -0.28353658 0.038731407 0
-1.0472468 -0.28355816 0.11659954 0
-1.6734018 -0.45309925 0.31266308 0
-1.6818562 -0.4553884 0.44454649 0
-1.677222 -0.45413363 0.57809484 0
-1.5111142 -0.42965057 -0.05608701 0
-1.1229455 -0.31928375 0.041679613 0
-1.1246308 -0.31976289 0.12565376 0
-1.6726676 -0.47558457 0.31361997 0
-1.6758901 -0.47650081 0.44452026 0
-1.6703025 -0.47491211 0.57772535 0
-1.5018685 -0.4475359 -0.05594857 0
-1.2034117 -0.35859993 0.044830266 0
-1.1915525 -0.35506609 0.1336198 0
-1.6685313 -0.49719909 0.31399342 0
-1.6773276 -0.49982029 0.44653556 0
-1.6792204 -0.50038433 0.58294302 0
-1.494001 -0.46575195 -0.055869542 0
-1.3073856 -0.40757492 0.048890885 0
-1.2999043 -0.40524265 0.14633092 0
-1.6673845 -0.51980388 0.31498441 0
-1.6770254 -0.52280945 0.44817218 0
-1.6708459 -0.52088296 0.58226663 0
-1.4836527 -0.48310483 -0.055705633 0
-1.419389 -0.46217933 0.053292766 0
-1.4146943 -0.46065065 0.15989318 0
-1.6770784 -0.5460878 0.31808949 0
-1.6712354 -0.54418522 0.44842058 0
-1.67071 -0.54401416 0.58456016 0
-1.4768932 -0.50155765 -0.055684555 0
-1.5581377 -0.52914852 0.058747783 0
-1.5637755 -0.53106314 0.17748457 0
-1.6657648 -0.56569904 0.31726956 0
-1.6681499 -0.56650907 0.44947112 0
-1.4834235 -0.52469873 -0.056175429 0
-1.7268342 -0.61079508 0.19684865 0
-1.6701676 -0.59075159 0.31949967 0
-1.6741933 -0.59217548 0.45307273 0
-1.4769168 -0.54341525 -0.056183707 0
-1.6860161 -0.62035102 0.1930708 0
-1.675212 -0.6163758 0.32192391 0
-1.6738768 -0.61588448 0.45504975 0
-1.4646754 -0.55994898 -0.055981819 0
-1.6851106 -0.6442219 0.19388068 0
-1.6749784 -0.64034832 0.32340288 0
-1.6664343 -0.63708192 0.45517129 0
-1.4616139 -0.57997555 -0.056139488 0
-1.6879777 -0.66979784 0.19516549 0
-1.6736484 -0.66411185 0.32473499 0
-1.6735445 -0.66407067 0.45936102 0
-1.4438353 -0.59407032 -0.055739533 0
-1.6820277 -0.69207531 0.19546966 0
-1.6694654 -0.68690658 0.32557586 0
-1.6700127 -0.68713176 0.46073005 0
-1.4403692 -0.61396271 -0.055899762 0
-1.680124 -0.71615905 0.19628087 0
-1.6706647 -0.71212691 0.32753256 0
-1.6760846 -0.71443719 0.46485028 0
-1.4336585 -0.6325503 -0.055944011 0
-1.6709642 -0.73725295 0.19627976 0
-1.6702317 -0.73692971 0.3292408 0
-1.6641445 -0.73424399 0.46406624 0
-1.4246101 -0.65010893 -0.055905934 0
-1.6663823 -0.76043963 0.19685075 0
-1.6723434 -0.76315993 0.33152512 0
-1.6746535 -0.76421422 0.46964309 0
-1.4081535 -0.66414732 -0.055583917 0
-1.6733674 -0.7892338 0.19883414 0
-1.6738572 -0.78946489 0.3337695 0
-1.6760048 -0.79047775 0.47277603 0
-1.4036287 -0.68374878 -0.055740748 0
-1.9337494 -0.9419862 0.076792844 0
-1.6618028 -0.80951297 0.19865547 0
-1.6823007 -0.81949806 0.33748403 0
-1.6705068 -0.81375295 0.47407806 0
-1.4060931 -0.70699179 -0.056187697 0
-1.8778532 -0.94419551 0.075039305 0
-1.668914 -0.83913964 0.20075281 0
-1.6756661 -0.84253466 0.3382546 0
-1.6813006 -0.84536779 0.48012421 0
-1.3893625 -0.72063732 -0.055877324 0
-1.8263208 -0.94727975 0.073450893 0
-1.6754138 -0.86900705 0.20283489 0
-1.669742 -0.86606514 0.33923331 0
-1.3815594 -0.73881239 -0.055933226 0
-1.7792451 -0.95148152 0.072033755 0
-1.6707922 -0.89348453 0.20362131 0
-1.6783364 -0.89751893 0.34324831 0
-1.3732388 -0.75675082 -0.055977717 0
-1.7384961 -0.95803308 0.070866801 0
-1.6564804 -0.91283679 0.20326188 0
-1.6790192 -0.92525721 0.34574336 0
-1.3656616 -0.77515084 -0.056062285 0
-1.6889752 -0.95866394 0.069334753 0
-1.6686085 -0.9471038 0.20619716 0
-1.6766731 -0.9516812 0.34770036 0
-1.356622 -0.79276896 -0.05609655 0
-1.6791533 -0.98124659 0.069433279 0
-1.6630328 -0.97182626 0.20700397 0
-1.6843752 -0.98429805 0.35184002 0
-1.3414391 -0.80672461 -0.055884365 0
-1.688238 -1.015285 0.070332006 0
-1.6804448 -1.0105983 0.21073861 0
-1.6800506 -1.0103613 0.35356626 0
-1.3364605 -0.82682079 -0.056106247 0
-1.6769329 -1.037459 0.070399694 0
-1.6706488 -1.0335712 0.21112554 0
-1.6751879 -1.0363795 0.35526115 0
-1.3284841 -0.84519899 -0.056213729 0
-1.6914036 -1.0760932 0.071570382 0
-1.6709325 -1.0630692 0.21283621 0
-1.6818712 -1.0700285 0.35950744 0
-1.3181925 -0.86215734 -0.056233179 0
-1.6769587 -1.0968066 0.07153789 0
-1.668682 -1.0913934 0.21428308 0
-1.6747849 -1.0953848 0.3609125 0
-1.3047822 -0.87703967 -0.056127775 0
-1.6706586 -1.122972 0.071866676 0
-1.6764526 -1.1268667 0.21708591 0
-1.6703489 -1.1227639 0.36297449 0
-1.2978634 -0.89631861 -0.056311205 0
-1.6740669 -1.1561289 0.072633781 0
-1.6677442 -1.1517622 0.21781901 0
-1.6762612 -1.1576443 0.36739787 0
-1.2837735 -0.91067308 -0.056192968 0
-1.6732239 -1.1869382 0.073239878 0
-1.67223 -1.1862332 0.22033834 0
-2.0428686 -1.4491538 0.4517135 0
-1.268852 -0.92432231 -0.05604485 0
-1.6756779 -1.2206833 0.074014246 0
-1.678704 -1.2228878 0.22320268 0
-1.9993062 -1.4564373 0.44610098 0
-1.253751 -0.93771094 -0.055894967 0
-1.6646919 -1.2450635 0.074215613 0
-1.6708883 -1.249698 0.22423807 0
-1.2448084 -0.95569813 -0.056028359 0
-1.6753196 -1.2862219 0.075405508 0
-1.6738334 -1.2850808 0.22678699 0
-1.2245177 -0.96486735 -0.055657528 0
-1.594401 -1.2563195 0.072469689 0
-1.587429 -1.2508259 0.21719693 0
-1.6009585 -1.2614865 0.36759368 0
-1.2174921 -0.98443002 -0.055897199 0
-1.5762913 -1.2745451 0.072370306 0
-1.5685544 -1.2682892 0.21678239 0
-1.5682647 -1.268055 0.36372435 0
-1.2049006 -0.99959898 -0.055892576 0
-1.6670954 -1.3830408 0.077332728 0
-1.6721472 -1.3872318 0.23349516 0
-1.7616212 -1.4614606 0.41280457 0
-1.1946304 -1.0167432 -0.056005623 0
-1.6672269 -1.4189674 0.078161485 0
-1.6807203 -1.4304516 0.23718873 0
-1.7495698 -1.4890491 0.41434151 0
-1.465628 -1.2473878 0.4910242 0
-1.1901292 -1.039034 -0.05640351 0
-1.7155273 -1.4977293 0.41071329 0
-1.4249831 -1.2440717 0.48261723 0
-1.1724337 -1.0498908 -0.056186974 0
-1.6243814 -1.4546008 0.077845834 0
-1.6241899 -1.4544293 0.23430666 0
-1.6174635 -1.448406 0.39157134 0
-1.4026225 -1.2560202 0.48036262 0
-1.1521329 -1.0581515 -0.055848215 0
-1.3498654 -1.2397547 0.46760404 0
-1.1343874 -1.0684952 -0.055635814 0
-1.3184328 -1.24185 0.46209589 0
-1.1202197 -1.0820909 -0.055604834 0
-1.2901145 -1.2462029 0.45763439 0
-1.1122961 -1.1018456 -0.055895802 0
-1.268815 -1.256894 0.45565706 0
-1.1009656 -1.1184365 -0.056029711 0
-1.2450423 -1.2647995 0.45280349 0
-1.0885226 -1.1340091 -0.056118727 0
-1.0750982 -1.1486298 -0.05616786 0
-1.0555389 -1.1565844 -0.055902448 0
-1.0362154 -1.1645271 -0.055651266 0
-1.0297498 -1.1870258 -0.056102335 0
-1.0153924 -1.2006902 -0.056139398 0
-0.99656951 -1.2089833 -0.055935971 0
-0.98684937 -1.2283829 -0.056254137 0
-0.96897244 -1.2377325 -0.056119081 0
-0.9534992 -1.2500817 -0.056130156 0
-0.93175566 -1.2540101 -0.055775307 0
-0.9168098 -1.2669104 -0.055831183 0
-0.90267974 -1.2810425 -0.055948608 0
-0.88418448 -1.2889627 -0.055803835 0
-0.87168252 -1.3056822 -0.056048028 0
-0.85614073 -1.3180436 -0.056111433 0
-0.8076579 -1.2434033 0.4932816 0
-0.83869994 -1.3274889 -0.056059487 0
-0.78636849 -1.2446589 0.48981252 0
-0.81763953 -1.3309779 -0.055767618 0
-0.76100487 -1.2387863 0.48369202 0
-0.80752397 -1.3524015 -0.056234743 0
-0.74492019 -1.2475559 0.48341522 0
-0.77984846 -1.34422 -0.055481818 0
-0.72263557 -1.2456025 0.47909436 0
-0.76585948 -1.3592539 -0.05569987 0
-0.71044028 -1.2608955 0.48149744 0
-0.75264114 -1.3760237 -0.055994257 0
-0.68617356 -1.2545037 0.47571936 0
-0.73397094 -1.3829706 -0.055896416 0
-0.6571101 -1.238147 0.46634203 0
-0.71836782 -1.3957325 -0.056042176 0
-0.63889092 -1.2413151 0.46446833 0
-0.69589794 -1.3949671 -0.055655174 0
-0.6214878 -1.2458076 0.46318433 0
-0.68305796 -1.4135092 -0.05604735 0
-0.59760082 -1.2366656 0.45695138 0
-0.66817433 -1.4283431 -0.056297448 0
-0.58318818 -1.2466699 0.45789817 0
-0.64643401 -1.4284606 -0.055976808 0
-0.56406927 -1.2464548 0.45517424 0
-0.62848437 -1.4366872 -0.05598462 0
-0.54911137 -1.255244 0.45582271 0
-0.60881323 -1.4408617 -0.055844124 0
-0.53721851 -1.2714205 0.45920399 0
-0.59452528 -1.4579834 -0.056213107 0
-0.50743318 -1.2444032 0.34286821 0
-0.5141567 -1.2608918 0.45302698 0
-0.57207054 -1.455053 -0.055817958 0
-0.48606518 -1.2362996 0.33892214 0
-0.50083852 -1.2738754 0.45538986 0
-0.55461454 -1.4645443 -0.055909716 0
-0.46498933 -1.2278754 0.14110407 0
-0.46229178 -1.220752 0.23541889 0
-0.44555461 -1.176555 0.32098007 0
-0.48573813 -1.2826657 0.45630953 0
-0.53500563 -1.4683251 -0.055792447 0
-0.43792006 -1.2018734 0.13747141 0
-0.4405053 -1.2089686 0.23205839 0
-0.43191209 -1.1853845 0.3218796 0
-0.51691175 -1.4761918 -0.055839602 0
-0.42111778 -1.2026242 0.1369399 0
-0.42220759 -1.2057365 0.23039924 0
-0.41172525 -1.1758012 0.3178443 0
-0.43378735 -1.2388059 0.43668076 0
-0.49808106 -1.4819803 -0.055816889 0
-0.40753818 -1.2125808 0.13747838 0
-0.40700126 -1.2109833 0.23040423 0
-0.40847054 -1.2153549 0.32712021 0
-0.42074803 -1.2518852 0.43938878 0
-0.48178092 -1.4955822 -0.056096245 0
-0.39301693 -1.220034 0.13775139 0
-0.39641833 -1.230593 0.23316696 0
-0.41222903 -1.2796737 0.34300768 0
-0.41230375 -1.2799057 0.44736582 0
-0.46178609 -1.4978793 -0.055959862 0
-0.40924656 -1.3274586 0.35440668 0
-0.44555822 -1.5126356 -0.056297079 0
-0.36675149 -1.2450927 0.3311573 0
-0.42232144 -1.5033332 -0.055748522 0
-0.34944841 -1.2439278 0.32965097 0
-0.40775493 -1.5249714 -0.056356065 0
-0.33034143 -1.235451 0.3262763 0
-0.3849982 -1.5161105 -0.055845022 0
-0.31650528 -1.2463876 0.32808608 0
-0.36755159 -1.5277945 -0.056100462 0
-0.34771723 -1.5298003 -0.056008898 0
-0.32962283 -1.5396399 -0.056212727 0
-0.31134102 -1.5492926 -0.056417536 0
-0.29220867 -1.5552179 -0.056494832 0
-0.49966192 -2.659343 0.096603282 0
-0.27009556 -1.5444335 -0.055975098 0
-0.43089542 -2.4639032 0.089299552 0
-0.25021973 -1.5451916 -0.055883948 0
-0.39919448 -2.4651611 0.089155883 0
-0.23063093 -1.5474606 -0.055856545 0
-0.3665871 -2.4596834 0.088783793 0
-0.21191108 -1.55599 -0.056063656 0
-0.33619237 -2.4685445 0.088943779 0
-0.19251618 -1.5602666 -0.05612595 0
-0.30424321 -2.4657695 0.088698722 0
-0.17210163 -1.5557543 -0.055881247 0
-0.27289823 -2.4669292 0.088609807 0
-0.15311112 -1.5640491 -0.056105491 0
-0.2417483 -2.4694891 0.088585384 0
-0.13305953 -1.5617896 -0.055959899 0
-0.20959325 -2.4601064 0.088147141 0
-0.11375506 -1.5684553 -0.056142956 0
-0.17932916 -2.4725912 0.088506557 0
-0.094099507 -1.5714703 -0.056204006 0
-0.14693175 -2.4537735 0.087759793 0
-0.073526457 -1.556047 -0.055614866 0
-0.11634669 -2.4622555 0.088003777 0
-0.054017216 -1.5594218 -0.055706758 0
-0.085247666 -2.4610128 0.087914027 0
-0.034419809 -1.5618787 -0.055774622 0
-0.054360501 -2.4667339 0.08808697 0
-0.014765115 -1.5636686 -0.055827472 0
0.0049741701 -1.5794913 -0.056390155 0
0.024707116 -1.5694975 -0.056040026 0
0.044341687 -1.5646391 -0.055882059 0
0.06395831 -1.5619893 -0.055811763 0
0.083712369 -1.5627737 -0.055873025 0
0.10401946 -1.5712105 -0.056217033 0
0.1235316 -1.5664405 -0.056097571 0
0.14281721 -1.5600858 -0.055929966 0
0.16303301 -1.563763 -0.056130949 0
0.18210851 -1.5564475 -0.055946238 0
0.20205356 -1.5568199 -0.056046635 0
0.22113998 -1.5506476 -0.055920243 0
0.24045876 -1.5465298 -0.055876505 0
0.25807407 -1.5324634 -0.055481303 0
0.27957937 -1.5413882 -0.055927437 0
0.63705367 -3.5122297 0.12743707 0
0.30038321 -1.5450394 -0.056192707 0
0.67568082 -3.4754059 0.12639967 0
0.31746152 -1.5298018 -0.055779487 0
0.71069461 -3.4247363 0.1248724 0
0.33770105 -1.5302267 -0.055945594 0
0.74791718 -3.3890412 0.12390447 0
0.35737723 -1.5277152 -0.05601386 0
0.81948119 -3.5031157 0.12844215 0
0.37572712 -1.5196259 -0.055886302 0
0.39608148 -1.5195711 -0.056063265 0
0.41475677 -1.5129075 -0.056005668 0
0.43311676 -1.5052837 -0.055920906 0
0.44949439 -1.4912794 -0.055606514 0
0.47109228 -1.4945639 -0.05594575 0
0.4892222 -1.4865354 -0.055871386 0
0.50989085 -1.4860579 -0.05609031 0
0.52717137 -1.4756281 -0.05594277 0
0.5460971 -1.4699167 -0.055982504 0
0.56417519 -1.4619223 -0.055944163 0
0.49156973 -1.273783 0.45424196 0
0.58372325 -1.4576629 -0.056058008 0
0.50769454 -1.2678055 0.45435408 0
0.59826767 -1.441133 -0.055707615 0
0.52823031 -1.272424 0.45835671 0
0.6236791 -1.4504943 -0.056368586 0
0.54074228 -1.2576077 0.45543623 0
0.63600039 -1.4292837 -0.055851109 0
0.55765384 -1.2532156 0.4563525 0
0.66091287 -1.4363021 -0.05644609 0
0.57448673 -1.2484798 0.45722604 0
0.67474854 -1.4190406 -0.056097187 0
0.59565479 -1.2527012 0.46148229 0
0.68764645 -1.4004204 -0.055698987 0
0.61197639 -1.2463152 0.461932 0
0.70931935 -1.3997307 -0.056022365 0
0.62855589 -1.2403568 0.4626205 0
0.72636193 -1.3896831 -0.055981863 0
0.64399117 -1.2320906 0.46252528 0
0.74404001 -1.3808687 -0.055999767 0
0.67371118 -1.250345 0.47252521 0
0.76205051 -1.3726206 -0.05604998 0
0.6992563 -1.2595145 0.051431373 0
0.69764495 -1.2566119 0.15446378 0
0.69932669 -1.2596412 0.25983694 0
0.69988328 -1.2606437 0.3678734 0
0.69508976 -1.2520095 0.47642431 0
0.77830845 -1.3612295 -0.0559806 0
0.70796949 -1.2382096 0.050921403 0
0.70705152 -1.2366041 0.15308666 0
0.71456826 -1.2497506 0.25963223 0
0.71629208 -1.2527654 0.36817729 0
0.71960527 -1.2585601 0.48232684 0
0.79135686 -1.344476 -0.055697005 0
0.73502666 -1.2487738 0.051732391 0
0.73379964 -1.2466892 0.15546674 0
0.73343188 -1.2460643 0.26076442 0
0.73363304 -1.2464062 0.36899409 0
0.73416072 -1.2473027 0.48151731 0
0.81463647 -1.3449947 -0.056138992 0
0.82915753 -1.3308597 -0.055980369 0
0.84670502 -1.3216504 -0.056037027 0
0.86524242 -1.3138659 -0.056164473 0
0.87898099 -1.2988244 -0.055990193 0
0.89561695 -1.2881602 -0.056012198 0
0.9146772 -1.2808585 -0.056191076 0
0.92931098 -1.2673019 -0.056105267 0
0.94269365 -1.2521789 -0.055956841 0
0.95882195 -1.240775 -0.055982333 0
0.96527547 -1.2171378 -0.055459876 0
0.77003622 -0.97095621 0.044242408 0
0.77828163 -0.98135304 0.13460615 0
0.98566383 -1.2112031 -0.055750579 0
0.77214712 -0.94882953 0.043673765 0
0.77088761 -0.94728184 0.13125388 0
1.0072592 -1.2063892 -0.056108367 0
0.77370751 -0.92666548 0.043098602 0
0.77322352 -0.92608583 0.12965581 0
1.0222856 -1.1935133 -0.056103777 0
0.77353996 -0.90310395 0.042452432 0
0.77894366 -0.9094128 0.12868455 0
1.0291399 -1.1713363 -0.055666059 0
0.77425086 -0.88122922 0.04187914 0
0.77932888 -0.88700885 0.12689291 0
1.0509346 -1.1661947 -0.056046173 0
0.77226102 -0.85695797 0.041184559 0
0.77601016 -0.86111826 0.12457711 0
1.061777 -1.1488036 -0.055848502 0
1.0748764 -1.1339918 -0.055782013 0
1.0930098 -1.1244214 -0.055983834 0
1.1066716 -1.1101593 -0.055963133 0
1.1170994 -1.0927497 -0.055790197 0
1.134737 -1.0823815 -0.055985928 0
1.1487783 -1.0684757 -0.056010444 0
1.160839 -1.0527459 -0.055947706 0
1.176952 -1.0406543 -0.056088276 0
1.1867349 -1.0229709 -0.055936176 0
1.1999184 -1.0082811 -0.055954695 0
1.214467 -0.99468845 -0.056044605 0
1.2174134 -0.97174966 -0.05561148 0
1.2320192 -0.95826256 -0.055723052 0
1.2594557 -0.95439571 -0.056415942 0
1.2654573 -0.93409544 -0.056153446 0
1.2795203 -0.91981447 -0.056259058 0
1.279685 -0.89571065 -0.055765957 0
1.2923598 -0.88054764 -0.05583068 0
1.298381 -0.86091429 -0.055618055 0
1.3041105 -0.84126753 -0.055405311 0
1.3333914 -0.8365705 -0.056197312 0
1.3424108 -0.81885606 -0.056138415 0
1.3487914 -0.79962188 -0.055979729 0
1.3494291 -0.77720571 -0.055595607 0
1.3696853 -0.76606899 -0.056028277 0
1.3813795 -0.74993324 -0.056115899 0
1.3896266 -0.73190862 -0.056072082 0
1.4031491 -0.71660942 -0.056249153 0
1.3999497 -0.69289094 -0.055766705 0
1.4202623 -0.68081713 -0.056229897 0
1.4150506 -0.65653723 -0.055691831 0
1.4378855 -0.64525586 -0.056266293 0
1.4401462 -0.62460625 -0.056042545 0
1.4537373 -0.60886979 -0.056268614 0
1.4489396 -0.58552694 -0.055793103 0
1.4557757 -0.56707245 -0.055776961 0
1.4602453 -0.54773903 -0.055679526 0
1.4721284 -0.53115028 -0.055873178 0
1.4796752 -0.51291049 -0.05591004 0
1.4855584 -0.49408674 -0.055892825 0
1.4905368 -0.47498411 -0.05585067 0
1.4941237 -0.45548505 -0.055765737 0
1.5107626 -0.43984514 -0.056175582 0
1.5131887 -0.41995749 -0.056064717 0
1.5158435 -0.40020782 -0.055971924 0
1.5223794 -0.381495 -0.056031436 0
1.5165631 -0.35980523 -0.055646196 0
1.5306166 -0.34284136 -0.055999011 0
1.5418738 -0.32503051 -0.056256663 0
1.5400919 -0.30445355 -0.056047328 0
1.550113 -0.28620279 -0.056276403 0
1.536158 -0.26366961 -0.055644821 0
1.5499303 -0.24598479 -0.056027059 0
1.555117 -0.22677241 -0.056106877 0
1.5516839 -0.20635374 -0.055884834 0
1.5618464 -0.18772376 -0.056161251 0
1.5646536 -0.16810431 -0.056181628 0
1.5658649 -0.14831609 -0.05615361 0
1.5591429 -0.12789381 -0.055850372 0
1.5518361 -0.1076422 -0.055535674 0
1.551232 -0.087990001 -0.055470001 0
1.5624173 -0.068900973 -0.055834524 0
1.5688047 -0.049400501 -0.056036115 0
1.5622408 -0.029510044 -0.055783961 0
1.5696281 -0.0098821502 -0.05603886 0
1.5705626 0.0098880334 -0.05607222 0
1.5636973 0.029537557 -0.05583597 0
1.5706114 0.04945739 -0.056100644 0
1.5575714 0.068687275 -0.055661354 0
1.5603991 0.088509984 -0.055797804 0
1.5614345 0.10830799 -0.055879172 0
1.5594482 0.12791884 -0.055861309 0
1.558024 0.14757341 -0.055872425 0
1.5651549 0.16815816 -0.056199625 0
1.5532537 0.18669097 -0.055852275 0
1.5556425 0.20688018 -0.056027405 0
1.5408015 0.22468486 -0.055590387 0
1.5618489 0.24787636 -0.056457892 0
1.5415275 0.26459125 -0.055839323 0
1.5366113 0.28370991 -0.055786226 0
1.5325161 0.30295593 -0.05577163 0
1.5317857 0.3229039 -0.055888593 0
1.5247339 0.34152371 -0.055783786 0
1.5259144 0.36202386 -0.055989321 0
1.5186119 0.38055089 -0.055892773 0
1.5175318 0.40065357 -0.056034263 0
1.5090706 0.4188146 -0.055912137 0
1.5091763 0.43938333 -0.0561166 0
1.5003201 0.45737404 -0.05599701 0
1.5067372 0.48014659 -0.056457702 0
1.4855497 0.49408382 -0.055892494 0
1.4857737 0.51502448 -0.056140475 0
1.475354 0.53231406 -0.055995598 0
1.4656799 0.54977763 -0.055886753 0
1.4595535 0.56854403 -0.0559217 0
1.4564251 0.58855188 -0.056081343 0
1.4436364 0.60463923 -0.055877648 0
1.4460624 0.62717217 -0.056272771 0
1.4296004 0.6415379 -0.055942085 0
1.4169366 0.65741229 -0.055766061 0
1.422111 0.68170333 -0.056303088 0
1.4021883 0.69399887 -0.055855878 0
1.3932925 0.71157551 -0.055854026 0
1.3923671 0.73335201 -0.05618266 0
1.3763162 0.74718451 -0.055910215 0
1.3670201 0.76457834 -0.055919256 0
1.3461514 0.77531785 -0.055460565 0
1.3543591 0.80292273 -0.056210812 0
1.3309921 0.81189078 -0.055660896 0
1.3252832 0.83148336 -0.05585558 0
1.3139921 0.84764206 -0.055825133 0
1.3025948 0.86370832 -0.05579856 0
1.2967902 0.88356626 -0.05602207 0
1.2828963 0.89795834 -0.055905893 0
1.269469 0.91258889 -0.055817116 0
1.2627006 0.9320606 -0.056031119 0
1.2518423 0.9486264 -0.05607491 0
1.2305888 0.95714992 -0.055658352 0
1.2290639 0.98104912 -0.056143671 0
1.2075604 0.98903173 -0.055725884 0
1.2001441 1.0084708 -0.055965222 0
1.1822925 1.0191416 -0.055726785 0
1.1748823 1.0388242 -0.055989642 0
1.1656032 1.0570666 -0.056177318 0
1.1479956 1.0677477 -0.055972278 0
1.1381946 1.0856795 -0.056156516 0
1.1216459 1.0971971 -0.056017257 0
1.1040814 1.107561 -0.055832151 0
1.103904 1.1356287 -0.056541834 0
1.073074 1.1320903 -0.055688478 0
0.59108448 0.62359262 0.28585547 0
1.0622151 1.1492777 -0.05587155 0
0.61092299 0.66099614 0.29945114 0
1.0477914 1.1627069 -0.055878554 0
1.0086256 1.1192455 0.053789847 0
1.0138061 1.1249942 0.16275176 0
1.0055337 1.1158146 0.2708919 0
0.62011868 0.68812954 0.30818141 0
1.027246 1.1691806 -0.055563614 0
0.98179227 1.1174465 0.053105026 0
0.98608989 1.1223381 0.16055842 0
0.97688574 1.1118621 0.26692477 0
0.61952502 0.70512486 0.31227425 0
1.022864 1.1941886 -0.05613552 0
0.95558816 1.1156443 0.052443374 0
0.95767784 1.1180841 0.15821214 0
0.96614778 1.1279726 0.26785052 0
0.62732524 0.73239905 0.32082921 0
1.0025213 1.2007146 -0.055844449 0
0.9350307 1.1198814 0.052084949 0
0.93296462 1.117407 0.15644154 0
0.93790418 1.123323 0.26392099 0
0.63270295 0.75778502 0.32843354 0
0.99315548 1.2204089 -0.056174316 0
0.90864265 1.116558 0.05139415 0
0.91134971 1.1198844 0.15516943 0
0.90765959 1.11535 0.2593419 0
0.62708068 0.77056909 0.33052573 0
0.97227287 1.2259611 -0.055861909 0
0.88735789 1.1188898 0.05098312 0
0.88720471 1.1186967 0.15344472 0
0.89057642 1.1229481 0.25848055 0
0.62581009 0.7890982 0.33506685 0
0.9513095 1.2310534 -0.055543706 0
0.86128223 1.1145525 0.050287321 0
0.86656094 1.1213834 0.15230447 0
0.86953443 1.1252314 0.25646546 0
0.61585075 0.79694897 0.33508095 0
0.93751395 1.2452987 -0.055649381 0
0.83995485 1.1157111 0.049858425 0
0.85030097 1.1294538 0.15193428 0
0.84167153 1.1179913 0.25237966 0
0.6040594 0.80237144 0.33413622 0
0.93061572 1.2690812 -0.056184039 0
0.81392384 1.1099484 0.049139004 0
0.82021344 1.1185256 0.14906305 0
0.82493103 1.124959 0.25158763 0
0.60304719 0.82237583 0.3392776 0
0.91041124 1.2748848 -0.055929005 0
0.81386119 1.1396819 0.049997676 0
0.81278563 1.1381757 0.1503059 0
0.80475718 1.1269332 0.24974306 0
0.59502083 0.83323109 0.34063786 0
0.8945744 1.2866607 -0.055946995 0
0.80816311 1.1623758 0.050542805 0
0.80436873 1.1569184 0.15143143 0
0.81606603 1.1737425 0.25781888 0
0.58592391 0.84273064 0.34147808 0
0.87807178 1.2974809 -0.055932276 0
0.81182551 1.1995924 0.051712457 0
0.81505007 1.2043571 0.156285 0
0.8109144 1.198246 0.26093754 0
0.57135588 0.84426278 0.33915675 0
0.8654964 1.3142515 -0.056180958 0
0.814367 1.2366118 0.052862056 0
0.81978256 1.2448354 0.16018546 0
0.80859309 1.2278442 0.26514474 0
0.73375916 1.1142093 0.34037563 0
0.55696237 0.84574437 0.33690777 0
0.84554178 1.3198346 -0.055960041 0
0.81977254 1.2796105 0.054254569 0
0.80676037 1.2592994 0.1607267 0
0.789051 1.2316562 0.2638014 0
0.71450549 1.1152956 0.3379322 0
0.54768014 0.85489237 0.33777791 0
0.82649708 1.3265895 -0.055800751 0
0.81563795 1.3091598 0.055067599 0
0.81091237 1.3015749 0.16480605 0
0.77407509 1.2424483 0.26400426 0
0.7020489 1.1268408 0.33872491 0
0.54109508 0.86849791 0.34043452 0
0.8062889 1.3312125 -0.05556374 0
0.75612891 1.2483965 0.26322412 0
0.67398924 1.1127809 0.33192104 0
0.53695387 0.88653052 0.34482524 0
0.40686122 0.6717428 0.46575013 0
0.79042 1.3428843 -0.055631064 0
0.74390459 1.263857 0.26448789 0
0.65651977 1.1153945 0.33020854 0
0.52590603 0.89348829 0.34492838 0
0.40178719 0.68261647 0.46974421 0
0.7730422 1.3520192 -0.055601824 0
0.7301802 1.2770553 0.26530471 0
0.63851804 1.1167418 0.32820109 0
0.51668781 0.90366572 0.34631819 0
0.41483271 0.72552538 0.34602937 0
0.40621206 0.71044821 0.40946814 0
0.41273293 0.72185296 0.49312931 0
0.76207352 1.3726619 -0.056051672 0
0.70759696 1.2745378 0.2629098 0
0.6231811 1.1224862 0.32755712 0
0.50011909 0.90082449 0.34278864 0
0.41478103 0.74711186 0.35380563 0
0.40980244 0.73814434 0.42242318 0
0.4107202 0.73979741 0.50181502 0
0.7441166 1.3810109 -0.056005534 0
0.69635463 1.2923691 0.26475826 0
0.60479218 1.1224378 0.32529485 0
0.48618299 0.90231019 0.34099734 0
0.41795984 0.77569443 0.36482 0
0.40720665 0.75573754 0.4295229 0
0.40758863 0.75644642 0.50958645 0
0.72654068 1.3900253 -0.055995643 0
0.67661273 1.2945025 0.26342899 0
0.58465177 1.1185619 0.32201242 0
0.47823763 0.91496921 0.34347832 0
0.41571206 0.79534465 0.37157038 0
0.40803894 0.78066438 0.44073486 0
0.40373039 0.77242118 0.51688224 0
0.70770842 1.3965517 -0.055895135 0
0.66269034 1.3077157 0.26439872 0
0.56672013 1.1183335 0.31986693 0
0.46660528 0.92077249 0.34342396 0
0.42118686 0.83114636 0.3857879 0
0.41347337 0.815925 0.45766604 0
0.40917864 0.80745 0.53683209 0
0.69449413 1.4143659 -0.056253646 0
0.64747739 1.3186144 0.26493284 0
0.54987109 1.1198351 0.31829077 0
0.45340747 0.923383 0.34224102 0
0.41407523 0.84328127 0.38896945 0
0.40658921 0.82803571 0.46155071 0
0.40756392 0.83002079 0.5483827 0
0.67343235 1.4162725 -0.05598776 0
0.53371692 1.1224418 0.31709629 0
0.44551715 0.93695182 0.34516346 0
0.40731189 0.85660362 0.39271757 0
0.41142207 0.86524761 0.47936705 0
0.40573579 0.85328901 0.56033576 0
0.65561581 1.4247904 -0.055993687 0
0.51781005 1.1253097 0.31603938 0
0.43058595 0.93575335 0.34269738 0
0.40685955 0.88419098 0.40298447 0
0.4062112 0.88278198 0.48620906 0
0.40692335 0.88432962 0.57730877 0
0.63832086 1.4344985 -0.056054886 0
0.49954149 1.1226196 0.31349242 0
0.41742453 0.93807811 0.34159669 0
0.40649259 0.9135108 0.41398177 0
0.40821666 0.91738528 0.50239652 0
0.4059307 0.91224802 0.59215063 0
0.61946046 1.4406831 -0.055987306 0
0.48186839 1.1206843 0.31123286 0
0.41555277 0.96645361 0.34999627 0
0.4052808 0.94256401 0.42480159 0
0.41070625 0.95518202 0.52022207 0
0.40889487 0.95096934 0.61389416 0
0.59921664 1.4434189 -0.055795971 0
0.46187797 1.1125916 0.30734581 0
0.41521919 1.000198 0.36029458 0
0.4071084 0.98066026 0.4396258 0
0.40365264 0.97233593 0.52675456 0
0.40555659 0.97692227 0.62730157 0
0.5817197 1.4526597 -0.055865597 0
0.44849664 1.1199776 0.30780163 0
0.41684297 1.0409325 0.37304774 0
0.40492481 1.0111707 0.45098197 0
0.40732092 1.0171543 0.54821241 0
0.40887892 1.021045 0.6522758 0
0.5653438 1.4649504 -0.056060042 0
0.43306893 1.1221925 0.3068873 0
0.41696921 1.0804739 0.3853063 0
0.40976274 1.0618001 0.47122404 0
0.40621451 1.0526057 0.56451792 0
0.41019145 1.062911 0.67566794 0
0.54747093 1.4736147 -0.056123346 0
0.41888776 1.1275104 0.30687478 0
0.41052181 1.1049919 0.39217508 0
0.40452677 1.0888553 0.48093224 0
0.40739155 1.0965662 0.58529657 0
0.40633816 1.0937308 0.69195199 0
0.52771235 1.4771425 -0.056000181 0
0.3983328 1.1149906 0.30207813 0
0.40475819 1.1329762 0.40026638 0
0.40860319 1.1437389 0.50286114 0
0.40773439 1.141307 0.60638857 0
0.50880396 1.4828902 -0.055970754 0
0.38605934 1.1251556 0.30349097 0
0.40659535 1.1850071 0.41680637 0
0.40706933 1.1863884 0.51931775 0
0.40662783 1.1851016 0.62688696 0
0.48896575 1.4857562 -0.055842102 0
0.5971719 1.8145479 0.34451786 0
0.36395007 1.1058874 0.297034 0
0.40894216 1.242599 0.43521762 0
0.40858528 1.2415146 0.54115313 0
0.4078562 1.2392992 0.65278757 0
0.47263947 1.4994725 -0.056129489 0
0.57515919 1.8247215 0.345047 0
0.35303259 1.1200136 0.29961044 0
0.40853605 1.2961012 0.45211902 0
0.40458775 1.2835749 0.55722165 0
0.40570009 1.2871039 0.67522371 0
0.45426443 1.5071049 -0.056196611 0
0.55137283 1.8292797 0.34456873 0
0.33844268 1.1228452 0.29920414 0
0.40523276 1.3444334 0.46716172 0
0.40614459 1.3474586 0.58268821 0
0.4323827 1.5027325 -0.055826131 0
0.52512133 1.8250427 0.34249794 0
0.32370967 1.1250428 0.29867986 0
0.40788463 1.4175903 0.49075851 0
0.40753976 1.4163916 0.61022967 0
0.41562554 1.5160764 -0.056122977 0
0.30806243 1.1237187 0.041598454 0
0.30685633 1.1193192 0.12473091 0
0.30616316 1.1167908 0.20884328 0
0.30524743 1.1134504 0.2945585 0
0.40614623 1.4814988 0.51107216 0
0.40511891 1.4777515 0.63441747 0
0.39352408 1.5097595 -0.055701278 0
0.28865477 1.1074272 0.040857576 0
0.29097372 1.1163239 0.12397899 0
0.28924748 1.1097012 0.20681998 0
0.28980419 1.111837 0.29314303 0
0.39813942 1.5274663 0.52515841 0
0.39669338 1.5219184 0.65118277 0
0.37817788 1.5295379 -0.056250833 0
0.27649844 1.118296 0.041126855 0
0.27659836 1.1187003 0.12384627 0
0.27628374 1.1174277 0.20759517 0
0.27493647 1.1119787 0.29224443 0
0.39397791 1.593441 0.54609221 0
0.39132294 1.582703 0.67502874 0
0.35730138 1.527391 -0.056001972 0
0.26236519 1.121558 0.041122053 0
0.26280564 1.1234409 0.1239949 0
0.26278004 1.1233313 0.20806071 0
0.26322961 1.1252531 0.29483861 0
0.38395256 1.6413193 0.5607993 0
0.33615619 1.5232265 -0.055689663 0
0.24508464 1.1105534 0.0406022 0
0.24676028 1.1181463 0.12305783 0
0.24593674 1.1144145 0.20581923 0
0.2466445 1.1176217 0.29200208 0
0.37100697 1.6811459 0.57276541 0
0.31913483 1.5378653 -0.056073494 0
0.23236914 1.1197538 0.040828355 0
0.23312254 1.1233844 0.12330146 0
0.23157477 1.1159259 0.20554352 0
0.23232622 1.119547 0.29171768 0
0.3599979 1.7347785 0.5894469 0
0.29647624 1.5249438 -0.055461831 0
0.2144835 1.1032091 0.040123444 0
0.21655813 1.11388 0.12194931 0
0.21738017 1.1181083 0.20542502 0
0.2174765 1.1186038 0.29073527 0
0.34618789 1.7806387 0.60350025 0
0.28030828 1.5454067 -0.056073245 0
0.20347662 1.1218154 0.04070374 0
0.20378658 1.1235243 0.1227145 0
0.20461419 1.128087 0.20676862 0
0.20311619 1.1198283 0.29036576 0
0.33042517 1.8217132 0.61596239 0
0.25981367 1.5427933 -0.055855285 0
0.18985479 1.1273721 0.040815376 0
0.18932422 1.1242216 0.12252056 0
0.18624738 1.1059511 0.20226538 0
0.18918747 1.1234095 0.29065359 0
0.31568974 1.8745898 0.63244689 0
0.24171315 1.5545975 -0.056167994 0
0.17439705 1.1216486 0.040525444 0
0.17441431 1.1217595 0.12200321 0
0.17441088 1.1217376 0.20473464 0
0.17509571 1.126142 0.29076704 0
0.29569641 1.901795 0.64031839 0
0.22127363 1.5515848 -0.055954039 0
0.15982446 1.1206993 0.040415227 0
0.1590222 1.1150737 0.12104867 0
0.15988569 1.1211287 0.20423985 0
0.15946585 1.1181847 0.28817117 0
0.27514571 1.9293393 0.64837438 0
0.20235816 1.5591668 -0.056131124 0
0.14348038 1.1055142 0.039799307 0
0.14723928 1.1344765 0.12294397 0
0.14510217 1.1180102 0.20332277 0
0.14380705 1.1080314 0.28506523 0
0.25518659 1.9662091 0.65963262 0
0.18227199 1.5578446 -0.055996459 0
0.13109696 1.1204612 0.040274788 0
0.13055483 1.1158278 0.12073526 0
0.13032165 1.1138349 0.20224898 0
0.12920767 1.1043139 0.28366777 0
0.23422962 2.0019171 0.67056948 0
0.16341291 1.5674069 -0.056261744 0
0.12023889 1.1532948 0.12461556 0
0.11941157 1.1453594 0.20768365 0
0.11917131 1.143055 0.29321057 0
0.21160217 2.0296235 0.67890382 0
0.1430725 1.5628744 -0.056029946 0
0.11929382 1.3031243 0.14063145 0
0.11946269 1.3049691 0.23633356 0
0.1191061 1.3010738 0.33333358 0
0.18866678 2.0609305 0.68852663 0
0.12304061 1.5602144 -0.055874605 0
0.17132989 2.1725459 0.23420689 0
0.16623764 2.1079736 0.38135064 0
0.16485317 2.0904179 0.5349884 0
0.10433942 1.5760432 -0.05638995 0
0.14143281 2.1363375 0.38612911 0
0.14053367 2.1227562 0.54276866 0
0.083564743 1.5600178 -0.055774495 0
0.11622478 2.1697276 0.39186853 0
0.11557592 2.1576145 0.55126572 0
0.063896768 1.5604863 -0.055758055 0
0.089642771 2.1892548 0.39516011 0
0.08952339 2.1863394 0.5582726 0
0.04437016 1.5656438 -0.055917945 0
0.024080701 0.8497107 0.35195202 0
0.024016002 0.84742773 0.4241724 0
0.024748035 1.5720968 -0.056132838 0
0.013372451 0.849473 0.35175592 0
0.013260256 0.84234589 0.42151171 0
0.0049485229 1.5713472 -0.0560994 0
0.002572234 0.81678367 0.40867174 0
0.0025827857 0.82013428 0.48638135 0
-0.01477357 1.564564 -0.055859443 0
-0.0077792741 0.82384777 0.41222253 0
-0.0076270532 0.80772716 0.47904226 0
-0.034706578 1.5748914 -0.056239307 0
-0.018476855 0.83843023 0.34722453 0
-0.018229084 0.827187 0.41397539 0
-0.018166514 0.82434773 0.48899642 0
-0.054495148 1.5732191 -0.056199636 0
-0.080444641 2.3223546 0.41908479 0
-0.080175914 2.3145967 0.59088188 0
-0.027399167 0.79098594 0.46937391 0
-0.073913112 1.5642298 -0.055907331 0
-0.1098029 2.3237686 0.41955623 0
-0.10963156 2.3201425 0.59260309 0
-0.036959767 0.78218287 0.4643895 0
-0.093560591 1.5624702 -0.055882119 0
-0.14021555 2.3416123 0.42306316 0
-0.14053635 2.3469696 0.59985965 0
-0.046371713 0.7744118 0.46008593 0
-0.11340603 1.5636429 -0.055970695 0
-0.17187212 2.3697736 0.42850813 0
-0.17123947 2.3610504 0.60396177 0
-0.13312308 1.5625356 -0.055986628 0
-0.077004157 0.90383834 0.032385092 0
-0.2025619 2.3775756 0.43034604 0
-0.20299454 2.3826537 0.61009341 0
-0.15268971 1.5597444 -0.05595107 0
-0.2354908 2.4055679 0.43591484 0
-0.2323557 2.3735423 0.60846138 0
-0.17254782 1.5597876 -0.05602612 0
-0.2657679 2.4024732 0.43592596 0
-0.26524365 2.3977342 0.61547041 0
-0.085810907 0.77570844 0.4628385 0
-0.19230162 1.5585277 -0.056063399 0
-0.29736906 2.4100573 0.4379468 0
-0.2988984 2.422452 0.62273192 0
-0.21169482 1.554402 -0.056006439 0
-0.32981211 2.4216964 0.44078153 0
-0.32987121 2.4221303 0.6236676 0
-0.2312606 1.5516853 -0.056009043 0
-0.3621521 2.4299259 0.44307435 0
-0.36130571 2.4242468 0.6253345 0
-0.24874219 1.5360672 -0.05555395 0
-0.39692146 2.4511242 0.44781554 0
-0.39628211 2.447176 0.6324861 0
-0.27011341 1.5445355 -0.055978794 0
-0.42975703 2.4573936 0.44991398 0
-0.42789698 2.4467578 0.63372034 0
-0.29051331 1.5461946 -0.056167055 0
-0.46355489 2.4671712 0.45273688 0
-0.46188414 2.4582791 0.63816023 0
-0.31136268 1.5494003 -0.056421459 0
-0.52273256 2.6012173 0.094723411 0
-0.52073359 2.5912702 0.28404942 0
-0.49490979 2.4627659 0.45303619 0
-0.49468759 2.4616601 0.64060426 0
-0.32945007 1.538833 -0.056183264 0
-0.54608363 2.5507097 0.093127191 0
-0.5458039 2.5494032 0.28019121 0
-0.52739477 2.4634156 0.45434135 0
-0.52759802 2.4643652 0.64298612 0
-0.34625614 1.5233722 -0.055773553 0
-0.57487082 2.5291748 0.092597894 0
-0.57422745 2.5263441 0.27842951 0
-0.56340235 2.4787183 0.45843583 0
-0.56037784 2.4654119 0.64504921 0
-0.36625993 1.5224254 -0.055903312 0
-0.607063 2.5233667 0.092657782 0
-0.60626143 2.5200348 0.27855346 0
-0.59437507 2.4706271 0.45828727 0
-0.5937168 2.467891 0.6476025 0
-0.38621575 1.5209051 -0.056021627 0
-0.64120364 2.5250392 0.093008302 0
-0.64235473 2.5295722 0.28047952 0
-0.62956285 2.4791982 0.46131113 0
-0.62935627 2.4783847 0.6523841 0
-0.40362808 1.5095373 -0.05578569 0
-0.68279225 2.5535893 0.094369143 0
-0.6843068 2.5592535 0.28470349 0
-0.66184592 2.4752519 0.46209094 0
-0.65897715 2.4645226 0.65086788 0
-0.42568779 1.5153164 -0.056192901 0
-0.69196641 2.4631858 0.46142846 0
-0.69204116 2.4634519 0.65283471 0
-0.44432285 1.5084416 -0.056140985 0
-0.72660309 2.4667609 0.46377543 0
-0.72645658 2.4662635 0.6559521 0
-0.46092412 1.4950833 -0.055855408 0
-0.75704217 2.455591 0.46343085 0
-0.75958711 2.463846 0.65780085 0
-0.47982356 1.489506 -0.055868343 0
-0.79271442 2.4608064 0.46626204 0
-0.78876495 2.4485462 0.65631586 0
-0.50159693 1.4924412 -0.056210887 0
-0.82608956 2.4579298 0.46765092 0
-0.82676727 2.4599464 0.66210961 0
-0.51656049 1.4751886 -0.055801652 0
-0.85735232 2.4484189 0.46785828 0
-0.85665923 2.4464395 0.66132516 0
-0.53412718 1.4659142 -0.055700835 0
-0.88795179 2.4369872 0.46777338 0
-0.88914448 2.4402606 0.66262901 0
-0.55657792 1.4697288 -0.05610764 0
-0.9212628 2.432735 0.46914673 0
-0.9217658 2.4340634 0.66404527 0
-0.57598209 1.4650019 -0.056199614 0
-0.94947118 2.4149661 0.46798858 0
-0.95114076 2.4192126 0.66320872 0
-0.59864014 1.4680746 -0.056602173 0
-0.98304355 2.4107659 0.46953624 0
-0.98041338 2.4043157 0.66245681 0
-0.61188364 1.4481283 -0.056125756 0
-1.015465 2.4032736 0.47053015 0
-1.0132451 2.3980196 0.66418481 0
-0.63265985 1.4462322 -0.056356568 0
-1.0433638 2.3850832 0.46950376 0
-1.0455468 2.3900731 0.66557765 0
-0.6471597 1.4300643 -0.05603965 0
-1.0735302 2.3722384 0.46959913 0
-1.0737499 2.3727241 0.66445887 0
-0.661515 1.4141074 -0.055736355 0
-1.1055483 2.3633087 0.47054991 0
-1.0998688 2.3511677 0.66224825 0
-0.68396932 1.4153953 -0.056122128 0
-1.1322052 2.3429675 0.46930131 0
-1.1315218 2.3415534 0.66350091 0
-0.69874322 1.4006706 -0.05588273 0
-1.1582955 2.3218691 0.46795967 0
-1.1600653 2.3254168 0.66301519 0
-0.71737903 1.3938115 -0.055965036 0
-1.1911693 2.3143487 0.46942982 0
-1.1929158 2.3177423 0.66505718 0
-0.73498923 1.3848892 -0.055973969 0
-1.2224805 2.3034353 0.47030127 0
-1.2181566 2.2952878 0.66296297 0
-0.75309652 1.3768562 -0.056028139 0
-1.2442737 2.2748559 0.46762806 0
-1.2475907 2.28092 0.66329807 0
-0.77217263 1.3704585 -0.056159016 0
-1.0581167 1.8779545 0.076955326 0
-1.2743934 2.2618041 0.46820676 0
-1.2685956 2.2515142 0.65933985 0
-0.78622651 1.3552139 -0.055935577 0
-1.0553582 1.8191143 0.075082771 0
-1.293888 2.2302668 0.46501419 0
-1.295894 2.2337246 0.65885669 0
-0.80337667 1.3454559 -0.055945933 0
-1.0499202 1.7583549 0.07311485 0
-1.3214309 2.2130678 0.46486071 0
-1.3160387 2.2040372 0.65493625 0
-0.82534587 1.3435227 -0.056293234 0
-1.0525588 1.7133865 0.071790427 0
-1.3496324 2.1969719 0.4650127 0
-1.3447855 2.1890817 0.65547216 0
-0.83966529 1.3290168 -0.056124013 0
-1.052817 1.666392 0.07037127 0
-1.3633476 2.1578977 0.46033943 0
-1.3673888 2.1642942 0.65315396 0
-0.85508668 1.3164208 -0.056042347 0
-1.051018 1.6180605 0.06888368 0
-1.3842461 2.1310711 0.45829865 0
-1.3855013 2.1330032 0.64892447 0
-0.87264204 1.3071194 -0.056109723 0
-1.0393317 1.5568017 0.06682764 0
-1.4078757 2.108839 0.45729387 0
-1.4118767 2.1148319 0.64875364 0
-0.8843618 1.2892213 -0.055815026 0
-1.0497612 1.5303402 0.066253938 0
-1.4350942 2.0920782 0.45754173 0
-1.4324651 2.0882454 0.64607996 0
-0.90461475 1.2837886 -0.056068543 0
-1.0558408 1.4984019 0.065441623 0
-1.4560249 2.0663249 0.45588312 0
-1.4572631 2.0680821 0.64546782 0
-0.92119056 1.2729641 -0.056097958 0
-1.0481247 1.4483703 0.063827895 0
-1.0480342 1.4482453 0.19212042 0
-1.469615 2.0308144 0.45209557 0
-1.4769869 2.0410016 0.64276952 0
-0.51066905 0.70567745 0.43583152 0
-0.93791872 1.2623047 -0.056144234 0
-1.0543538 1.4190097 0.063114084 0
-1.0509236 1.4143931 0.18937019 0
-1.4990153 2.0174606 0.45328894 0
-1.4995308 2.0181544 0.64147007 0
-0.52820623 0.71089017 0.4431237 0
-0.94586039 1.2400668 -0.05568048 0
-1.0517559 1.3789006 0.061914288 0
-1.0490122 1.3753036 0.18589041 0
-1.5138788 1.9847653 0.45019031 0
-1.5102313 1.9799831 0.63533157 0
-0.52911818 0.69369847 0.436526 0
-0.96687341 1.2350513 -0.055997513 0
-1.0478151 1.3384434 0.060685337 0
-1.050149 1.3414246 0.18308407 0
-1.5252044 1.9482443 0.44622743 0
-1.5330665 1.9582871 0.63451397 0
-0.54385751 0.69470519 0.441434 0
-0.97568303 1.2144836 -0.055617612 0
-1.0519873 1.3094635 0.059967242 0
-1.0476588 1.3040755 0.17977278 0
-1.5522331 1.9321456 0.44698158 0
-1.5460696 1.9244736 0.629816 0
-0.55919302 0.69605672 0.44673175 0
-0.99747998 1.2100878 -0.055987075 0
-1.0515966 1.2757392 0.059024565 0
-1.052701 1.2770789 0.17786445 0
-1.5623826 1.8953965 0.44299626 0
-1.5584135 1.8905815 0.62509692 0
-0.56644833 0.68718392 0.44557968 0
-1.0189673 1.2049174 -0.056337047 0
-1.0532682 1.2454778 0.058233485 0
-1.0509123 1.242692 0.17490444 0
-1.5784386 1.8664861 0.44084978 0
-1.5824414 1.8712194 0.62523395 0
-0.58733743 0.69451994 0.45509598 0
-1.0220414 1.1781402 -0.055682372 0
-1.0497574 1.2100892 0.057192378 0
-1.0470411 1.2069581 0.17171708 0
-1.5932174 1.836553 0.4384836 0
-1.5958138 1.8395461 0.62131596 0
-1.0384156 1.1669996 -0.055769425 0
-1.0611385 1.1925362 0.056989789 0
-1.0666831 1.1987674 0.1724491 0
-1.6104954 1.8099186 0.43693173 0
-1.6002847 1.7984434 0.61419082 0
-1.0580544 1.1593407 -0.056035675 0
-1.0994093 1.2046546 0.058225878 0
-1.096722 1.20171 0.17484519 0
-1.6119888 1.7663026 0.43126845 0
-1.6119409 1.7662501 0.61007994 0
-1.0708451 1.1440859 -0.055945661 0
-0.9314422 0.99514842 0.04866264 0
-1.1160693 1.1924032 0.17552194 0
-1.6234914 1.7345306 0.42846844 0
-1.6207464 1.7315978 0.60511214 0
-1.0916587 1.1372764 -0.056280412 0
-0.9393993 0.97865438 0.048430685 0
-1.1483901 1.1963784 0.1782216 0
-1.631845 1.7000357 0.42498967 0
-1.6288241 1.6968884 0.60010272 0
-1.0988439 1.1162812 -0.05592173 0
-0.95142484 0.96652269 0.048419364 0
-1.1826419 1.2014087 0.18117502 0
-1.6349934 1.6609386 0.42032933 0
-1.6468409 1.672974 0.59893167 0
-1.1182941 1.1077873 -0.056197215 0
-0.9642123 0.95515317 0.048454199 0
-1.2123597 1.2009691 0.18339638 0
-1.6484797 1.6329916 0.41847685 0
-1.6572152 1.641645 0.59513938 0
-1.1273956 1.0890226 -0.055961031 0
-0.97218257 0.93909246 0.048256651 0
-1.2487838 1.206279 0.18659376 0
-1.6580232 1.6015892 0.41574693 0
-1.656727 1.600337 0.58768058 0
-1.1372439 1.0711856 -0.055775907 0
-1.0008761 0.94273895 0.049087778 0
-1.2751697 1.2010999 0.18826151 0
-1.6591823 1.5628066 0.41107044 0
-1.6552116 1.5590665 0.58013302 0
-1.1520684 1.0580922 -0.055845086 0
-1.3059126 1.1993871 0.063302495 0
-1.3028882 1.1966094 0.19011413 0
-1.6694287 1.5332506 0.40879324 0
-1.6629825 1.5273302 0.57607025 0
-0.66315937 0.60906434 0.37280247 0
-1.1672676 1.0452645 -0.055939391 0
-1.3316913 1.1925026 0.063819133 0
-1.3356432 1.1960416 0.19268075 0
-1.6643238 1.4903684 0.40291575 0
-1.6693225 1.4948447 0.57170057 0
-0.66930813 0.59935194 0.37198684 0
-1.1749469 1.0257794 -0.055683982 0
-1.3796388 1.2044842 0.065384895 0
-1.6657151 1.4542412 0.3987878 0
-1.6732049 1.46078 0.56668562 0
-0.67192674 0.58662105 0.36930749 0
-1.1949176 1.0169877 -0.056019086 0
-1.4121059 1.2018354 0.066201128 0
-1.6727477 1.4236662 0.39614815 0
-1.6791372 1.4291042 0.56255543 0
-0.66893476 0.56932664 0.36369386 0
-0.68656921 0.58433521 0.45109072 0
-1.2018003 0.99702692 -0.055748761 0
-1.4465495 1.2000735 0.067102112 0
-1.6837504 1.396858 0.39455691 0
-1.6672556 1.3831738 0.55269575 0
-0.67799503 0.56247222 0.36474013 0
-1.2193725 0.98595053 -0.055983536 0
-1.4858302 1.2014008 0.068217076 0
-1.6892879 1.3659109 0.39179301 0
-1.6719394 1.3518834 0.54856175 0
-0.69520193 0.56212085 0.37015963 0
-1.2237272 0.96424454 -0.055621598 0
-1.5204785 1.1980717 0.069109716 0
-1.6831487 1.326249 0.38646525 0
-1.6624527 1.3099414 0.53999436 0
-0.70089483 0.55227506 0.36945868 0
-1.2421106 0.95362693 -0.055906933 0
-1.5511672 1.1909043 0.069817454 0
-1.6862937 1.2946472 0.38341376 0
-1.6776357 1.2880001 0.53961509 0
-0.69248354 0.53165227 0.36146727 0
-0.67890978 0.52123106 0.42825153 0
-1.2565552 0.93980819 -0.05601998 0
-1.5998933 1.1965991 0.071326748 0
-1.6793712 1.2560426 0.37821364 0
-1.6690992 1.2483598 0.53177094 0
-0.69722009 0.52146786 0.36048353 0
-0.7012859 0.52450877 0.43816531 0
-1.2660089 0.92225122 -0.055919275 0
-1.6452118 1.1984897 0.072668567 0
-1.6832651 1.2262104 0.37558338 0
-1.6768872 1.2215643 0.52930945 0
-1.6742287 1.2196276 0.68912947 0
-0.69913989 0.50930339 0.35813189 0
-0.71332151 0.51963431 0.44156188 0
-1.268968 0.90017039 -0.055544905 0
-1.684147 1.1946868 0.073717996 0
-1.6927942 1.2008209 0.37430602 0
-1.6757511 1.188731 0.52418441 0
-1.6771029 1.1896899 0.68409204 0
-0.71630472 0.50812656 0.36361811 0
-0.71827912 0.50952709 0.44062412 0
-1.2849178 0.88737822 -0.055749524 0
-1.7309028 1.1953803 0.075099751 0
-1.6912947 1.1680264 0.37069285 0
-1.664003 1.1491786 0.51594216 0
-1.6718394 1.1545905 0.67596102 0
-0.71911532 0.49662888 0.43726617 0
-1.3073803 0.87878609 -0.056239542 0
-1.7050712 1.1461033 0.073346995 0
-1.7001601 1.1428022 0.22015584 0
-1.6850955 1.1326762 0.36617902 0
-1.6746048 1.1256245 0.51479369 0
-1.6744078 1.1254922 0.67121613 0
-0.72312146 0.48606291 0.43594587 0
-1.313693 0.85921454 -0.056041237 0
-1.6918223 1.1065282 0.072171971 0
-1.6934116 1.1075677 0.21745872 0
-1.6809541 1.0994198 0.36224195 0
-1.6743816 1.0951211 0.51044542 0
-1.6784046 1.0977523 0.66722411 0
-0.72992688 0.4774051 0.43638986 0
-1.3272504 0.84441411 -0.05616153 0
-1.7116878 1.0889982 0.072428688 0
-1.703303 1.0836637 0.21695942 0
-1.6867106 1.0731075 0.36054191 0
-1.668476 1.0615064 0.50453013 0
-1.684652 1.0717977 0.66428977 0
-0.74050826 0.4711211 0.43913442 0
-1.3347824 0.8257826 -0.056035794 0
-1.7303218 1.0704888 0.072641023 0
-1.7323134 1.071721 0.21891831 0
-1.6884338 1.0445741 0.35807022 0
-1.6723228 1.0346068 0.50171399 0
-1.6673535 1.0315326 0.65229505 0
-1.3509284 0.81243128 -0.056279685 0
-1.7458479 1.0499309 0.072732031 0
-1.7450941 1.0494776 0.21884604 0
-1.6731393 1.0062048 0.35211176 0
-1.6784672 1.009409 0.49970448 0
-1.6772286 1.0086641 0.65113771 0
-1.3500047 0.78890204 -0.055822928 0
-1.7679051 1.0331105 0.073103182 0
-1.7613338 1.0292704 0.21923985 0
-1.6877148 0.98624969 0.35253763 0
-1.6741269 0.97830927 0.4947055 0
-1.673028 0.97766709 0.64467645 0
-1.3585011 0.77108651 -0.055768333 0
-1.8196979 1.0328623 0.074701101 0
-1.8164914 1.0310422 0.22447167 0
-1.6887747 0.95855016 0.35020998 0
-1.6742389 0.95029962 0.49116361 0
-1.6727773 0.94946998 0.63992208 0
-1.3858967 0.76372617 -0.056493692 0
-1.6797949 0.92568469 0.3459031 0
-1.6815234 0.92663723 0.48983872 0
-1.6676927 0.91901547 0.63349968 0
-1.3771498 0.73645431 -0.055754703 0
-1.6783644 0.89753389 0.34325403 0
-1.6714019 0.89381057 0.4835732 0
-1.6760079 0.89627367 0.63232106 0
-1.3932968 0.72267801 -0.056035556 0
-1.6929836 0.87812024 0.34395522 0
-1.6641369 0.86315793 0.47828871 0
-1.6772671 0.8699683 0.62861323 0
-1.3992401 0.70354605 -0.055913851 0
-1.7019403 0.85574549 0.3435584 0
-1.6759611 0.84268302 0.4785994 0
-1.6702824 0.83982772 0.62198275 0
-1.4082025 0.68597686 -0.055922382 0
-1.726876 0.84121203 0.34642625 0
-1.6697017 0.81336075 0.47384956 0
-1.6770006 0.81691629 0.62060469 0
-1.4225353 0.67093039 -0.056151606 0
-1.7188108 0.81066698 0.34273329 0
-1.6726142 0.78887862 0.47181958 0
-1.6665378 0.78601265 0.61302131 0
-1.4191763 0.64762926 -0.055692695 0
-1.7343625 0.79146188 0.3438198 0
-1.6812434 0.76722139 0.47149116 0
-1.6681806 0.76126027 0.61005116 0
-1.4388341 0.63483387 -0.056145966 0
-1.7360582 0.76597333 0.34221673 0
-1.6710953 0.73731077 0.46600452 0
-1.6745558 0.7388376 0.60893196 0
-1.4520376 0.6189363 -0.056352597 0
-1.751152 0.74643499 0.34331205 0
-1.6757313 0.71428663 0.46475229 0
-1.6755412 0.71420556 0.60597193 0
-1.4539261 0.59822226 -0.056129094 0
-1.7643672 0.72595417 0.34408343 0
-1.6837993 0.69280422 0.46453351 0
-1.6777242 0.69030464 0.60356987 0
-1.4601189 0.5793823 -0.05608207 0
-1.779524 0.70612383 0.34527785 0
-1.6641725 0.66035181 0.45678854 0
-1.6777493 0.66573912 0.60051537 0
-1.4630796 0.55933893 -0.055920824 0
-1.7741408 0.67825842 0.34254909 0
-1.6652437 0.63662678 0.45484611 0
-1.6659193 0.63688505 0.59336352 0
-1.4773878 0.54358858 -0.056201622 0
-1.7930835 0.65974534 0.34457517 0
-1.6760015 0.61666632 0.45562741 0
-1.6681217 0.61376697 0.59134835 0
-1.47909 0.52316594 -0.056011327 0
-1.8101174 0.64025301 0.34627178 0
-1.6715376 0.59123623 0.45235407 0
-1.6699927 0.59068972 0.58932805 0
-1.4803722 0.50273913 -0.055815727 0
-1.8079348 0.61398041 0.34434795 0
-1.6720537 0.56783473 0.45052296 0
-1.6730229 0.56816393 0.58782607 0
-1.4920622 0.48584309 -0.056021377 0
-1.8100121 0.58937347 0.34330285 0
-1.6670524 0.54282314 0.4472982 0
-1.6740919 0.54511535 0.58574343 0
-1.4912348 0.46488959 -0.055766094 0
-1.8212487 0.56777078 0.34405079 0
-1.6683587 0.52010763 0.44585606 0
-1.6718191 0.52118635 0.58260578 0
-1.5066024 0.44894657 -0.056124926 0
-1.8257411 0.54404539 0.34357801 0
-1.6779455 0.50000441 0.44670007 0
-1.6779382 0.50000226 0.58249789 0
-1.5066096 0.42836976 -0.055919811 0
-1.8347354 0.5216648 0.34400719 0
-1.6728162 0.4756268 0.44370493 0
-1.6779945 0.47709915 0.58038586 0
-1.513834 0.40989381 -0.05599194 0
-1.831961 0.49603161 0.34228873 0
