# .PCD v0.7 - Point Cloud Data file format
VERSION 0.7
FIELDS x y z
SIZE 4 4 4
TYPE F F F
COUNT 1 1 1
WIDTH 1333
HEIGHT 1
VIEWPOINT 0 0 0 1 0 0 0
POINTS 1333
DATA ascii
-2.4642763 -0.06207775 -0.34642613
-2.9438953 -0.074159861 -0.34417191
-3.6989977 -0.0931817 -0.34537527
-4.943758 -0.12453854 -0.34572494
-14.858891 -0.3743113 -0.34558544
-2.9532962 -0.11162061 -0.34540793
-3.7152667 -0.14041948 -0.34703186
-4.9222102 -0.18603624 -0.3443546
-14.849795 -0.56125194 -0.3455109
-2.9511402 -0.1487713 -0.34534749
-3.6986451 -0.18645412 -0.34567121
-4.9395413 -0.2490095 -0.345759
-14.829153 -0.74755931 -0.34522223
-2.9473865 -0.18581413 -0.34515467
-3.6925886 -0.23279442 -0.34535173
-4.9271536 -0.31062594 -0.34513831
-14.838677 -0.93548506 -0.34569082
-2.9442549 -0.22286829 -0.34508923
-3.6863539 -0.27904221 -0.34506992
-4.9199519 -0.37242064 -0.344935
-14.829684 -1.1225476 -0.34578317
-2.937279 -0.29689172 -0.34503868
-3.679215 -0.37188447 -0.34516901
-4.912405 -0.49653178 -0.3451733
-2.9363921 -0.33420309 -0.34540144
-3.676223 -0.41840637 -0.34535524
-4.9108658 -0.55892622 -0.34553227
-2.4417989 -0.34039223 -0.34647563
-2.9419322 -0.41011193 -0.3471581
-3.66452 -0.51084232 -0.34535506
-4.9068131 -0.68402082 -0.34634957
-2.4391935 -0.37139583 -0.34674206
-2.9301558 -0.44615057 -0.34640393
-3.6571777 -0.55684817 -0.34529656
-4.8819623 -0.74333602 -0.34522876
-2.4313841 -0.40159321 -0.34632331
-2.9121459 -0.48100093 -0.34496349
-3.644969 -0.60204178 -0.3448323
-4.8797584 -0.80599266 -0.34576318
-2.4035318 -0.4281491 -0.34309679
-2.9099245 -0.51835448 -0.34544617
-3.6501956 -0.65022147 -0.3460739
-4.8628054 -0.86622769 -0.34530747
-2.4110103 -0.46087497 -0.3449654
-2.8992958 -0.55421293 -0.34498554
-3.633178 -0.69449764 -0.34526226
-4.8422809 -0.92562288 -0.34465039
-2.4078195 -0.49176854 -0.34536752
-2.8871915 -0.58967459 -0.34440148
-3.6246443 -0.74029052 -0.34530976
-4.844049 -0.98933953 -0.34563553
-2.3966389 -0.52100396 -0.34467751
-2.8842731 -0.62701046 -0.34496781
-3.6089358 -0.78454447 -0.3447271
-4.8465581 -1.0535905 -0.34673372
-2.3963525 -0.55262983 -0.34560972
-2.8886437 -0.66615856 -0.34646636
-3.609508 -0.83239919 -0.34575558
-4.8263702 -1.1130233 -0.34626466
-2.3958161 -0.58437169 -0.34656614
-2.8738806 -0.7009781 -0.34572697
-3.5896549 -0.87556505 -0.34488261
-4.8088026 -1.1729316 -0.34603649
-2.3899918 -0.6149351 -0.34681627
-2.8808715 -0.74123645 -0.34766325
-3.58237 -0.92172915 -0.34527045
-4.7919164 -1.2329404 -0.34591115
-2.3706672 -0.64189452 -0.34515756
-2.860888 -0.77462935 -0.3464013
-3.5634985 -0.96487194 -0.34459528
-4.7719512 -1.2920791 -0.34561703
-2.3784635 -0.67626137 -0.34750497
-2.8313637 -0.80503315 -0.34402663
-3.558907 -1.0118934 -0.34535608
-4.7478366 -1.3499382 -0.34507427
-2.3592801 -0.70303267 -0.34596819
-2.8416114 -0.84676063 -0.34653986
-3.5363321 -1.0537778 -0.34442577
-4.7295456 -1.4093388 -0.34500736
-2.3496523 -0.7324996 -0.34588152
-2.8211014 -0.87947291 -0.3453618
-3.5188985 -1.0970098 -0.34404591
-4.7219291 -1.4720523 -0.34577653
-2.7994754 -0.91156101 -0.34409228
-3.5167749 -1.1451271 -0.34522077
-4.7011704 -1.5307883 -0.34564057
-2.7953887 -0.94932294 -0.34503192
-3.5027244 -1.1895363 -0.34528452
-4.6716394 -1.5865036 -0.34491083
-2.7828898 -0.9843303 -0.34499171
-3.4903653 -1.2345701 -0.34557128
-4.663166 -1.6493989 -0.34579122
-2.7745748 -1.0208741 -0.34552714
-3.4807858 -1.2807168 -0.34619209
-4.6349497 -1.7053787 -0.34526393
-2.7689195 -1.0585647 -0.34645543
-3.4382739 -1.3144605 -0.34358293
-4.6093369 -1.7621608 -0.34498158
-2.7418892 -1.0879951 -0.34476021
-3.4502096 -1.36906 -0.34647089
-4.587986 -1.8205352 -0.345072
-2.7145624 -1.1169149 -0.34306541
-3.4152584 -1.4052184 -0.34471068
-4.5824218 -1.8854511 -0.34641173
-2.7146502 -1.1571295 -0.34489062
-3.4050019 -1.4513946 -0.34549275
-4.5574708 -1.9426385 -0.3463473
-2.6971951 -1.1900405 -0.34454951
-3.3877237 -1.4947114 -0.34562194
-4.5155416 -1.9923205 -0.34504008
-2.7019286 -1.2330025 -0.34711006
-3.3638177 -1.5350502 -0.3451277
-4.4894538 -2.0487249 -0.34499061
-2.6776345 -1.2628905 -0.34600458
-3.3521609 -1.5810269 -0.34594694
-4.4716892 -2.1090457 -0.34563887
-2.661104 -1.296302 -0.34595037
-3.3172889 -1.6159489 -0.34442076
-4.4451957 -2.1653852 -0.34567124
-2.646184 -1.3305167 -0.34616137
-3.301285 -1.6599053 -0.34490195
-4.4340782 -2.2294803 -0.34696236
-6.6477308 -3.3425179 -0.34640151
-2.6299355 -1.3641002 -0.34625539
-3.2931056 -1.7080747 -0.34626704
-4.3953447 -2.2797863 -0.34615037
-6.5929942 -3.4196675 -0.34576571
-2.6076267 -1.3944727 -0.34560269
-3.2572677 -1.7418792 -0.34477773
-4.3524451 -2.327544 -0.34505272
-6.5502534 -3.5028594 -0.34581003
-2.5841706 -1.424059 -0.34484321
-3.2287652 -1.7792758 -0.34410506
-4.3277817 -2.3849108 -0.34545088
-6.4964995 -3.5800264 -0.34532478
-2.5720317 -1.4598877 -0.34564912
-3.2086403 -1.8212273 -0.34437704
-4.2921991 -2.4362564 -0.34503204
-6.4573436 -3.6651943 -0.34566927
-2.5565987 -1.4939992 -0.34607586
-3.1961372 -1.8677262 -0.34553194
-4.2584419 -2.4885051 -0.34481001
-6.401545 -3.74087 -0.34517661
-2.5330937 -1.5233705 -0.34546334
-3.1701903 -1.9065125 -0.34529489
-4.2287111 -2.5430937 -0.34496832
-6.3562951 -3.8225956 -0.34530476
-2.5244503 -1.561788 -0.34693915
-3.1406753 -1.9430248 -0.34471774
-4.1925359 -2.5937736 -0.34465435
-6.3116484 -3.9047935 -0.34552312
-2.4962695 -1.5881594 -0.34578723
-3.1206062 -1.9853708 -0.34523159
-4.1699743 -2.6529925 -0.3455185
-6.262928 -3.9845569 -0.3455753
-2.4732935 -1.6176455 -0.34539884
-3.0993347 -2.0271046 -0.34567481
-4.1330047 -2.7031715 -0.34524828
-6.2005401 -4.0554333 -0.34492329
-2.4539955 -1.6495101 -0.34557712
-3.0717285 -2.0647337 -0.34546825
-4.0945377 -2.7522388 -0.34490266
-6.1749883 -4.1506619 -0.34638187
-2.4307573 -1.6787076 -0.34525412
-3.0502663 -2.1065471 -0.34601033
-4.0519824 -2.7983432 -0.34425893
-6.0983167 -4.2115641 -0.34502852
-2.4135849 -1.7121297 -0.34584981
-3.0175922 -2.1405957 -0.3453342
-4.0390182 -2.8651664 -0.34619531
-6.0443678 -4.2877054 -0.3450036
-2.3944955 -1.7443213 -0.34623438
-2.9857967 -2.1750674 -0.34480256
-4.0050182 -2.9175413 -0.34640259
-5.9952989 -4.3674035 -0.3453145
-2.3672559 -1.7705283 -0.34549204
-2.9600081 -2.2138619 -0.34501642
-3.9610579 -2.9625716 -0.34579954
-5.9582744 -4.4563384 -0.34638661
-2.3451629 -1.8004923 -0.34554914
-2.942147 -2.2588251 -0.34622249
-3.9402273 -3.0250983 -0.34727898
-5.8908582 -4.5226898 -0.34575078
-2.9010463 -2.2858999 -0.34474581
-3.8739903 -3.0525382 -0.34480157
-5.8236327 -4.5887723 -0.34516919
-2.8666306 -2.3178773 -0.3440972
-3.8393278 -3.1043732 -0.34516835
-5.7796354 -4.6732516 -0.34602189
-2.8452299 -2.3604343 -0.34506881
-3.7978001 -3.150697 -0.34497437
-5.7153115 -4.7414861 -0.345718
-2.8132415 -2.3943341 -0.3448185
-3.771214 -3.2096591 -0.34620324
-5.6552305 -4.8131347 -0.34572244
-2.7900586 -2.4358416 -0.34570912
-3.718802 -3.2466745 -0.34511748
-5.5880208 -4.8785834 -0.34534189
-2.7464507 -2.4593911 -0.34411579
-3.6803863 -3.2957118 -0.34537634
-5.5289507 -4.9510636 -0.34551686
-2.7256429 -2.5033078 -0.34543091
-3.6463556 -3.3489163 -0.34611276
-5.4732881 -5.026823 -0.34596667
-2.6949103 -2.538373 -0.34555951
-3.5944376 -3.3856502 -0.34520403
-5.4051018 -5.0911398 -0.34568149
-2.6602514 -2.5697045 -0.34523714
-3.5572362 -3.4361587 -0.3457593
-5.3292904 -5.1478977 -0.34495142
-2.6256652 -2.600996 -0.34497178
-3.5123079 -3.4793084 -0.34562343
-5.2703652 -5.2208481 -0.34536529
-2.5948596 -2.6360364 -0.34525815
-3.4598923 -3.514796 -0.34479344
-5.2079053 -5.2905478 -0.34561044
-2.5569103 -2.6637571 -0.34464452
-3.4196048 -3.5625012 -0.34522173
-5.1430478 -5.3579626 -0.34575632
-2.5289538 -2.7019222 -0.34543481
-3.3775234 -3.60853 -0.34553334
-5.0745606 -5.4216366 -0.34571433
-2.48984 -2.7281897 -0.34475735
-3.331989 -3.6509564 -0.34555089
-4.9983525 -5.4768386 -0.34519354
-2.4657958 -2.7711284 -0.3462323
-3.2815406 -3.6878846 -0.34510767
-4.9377289 -5.5491538 -0.34580511
-2.4306018 -2.8018332 -0.34621713
-3.2346616 -3.7286987 -0.34508803
-4.8589301 -5.6010451 -0.34519863
-2.3880177 -2.8238041 -0.34518892
-3.1928985 -3.7755668 -0.34567726
-4.79772 -5.6732502 -0.34589788
-2.3476739 -2.8480687 -0.34451398
-3.1469724 -3.8177338 -0.34588233
-4.7115607 -5.715806 -0.34484792
-3.09442 -3.8517861 -0.34540984
-4.6545262 -5.7937317 -0.3459858
-3.0335944 -3.8750105 -0.34403965
-4.5776992 -5.8473978 -0.34572086
-3.0078363 -3.9434128 -0.34672245
-4.5073986 -5.9094081 -0.34600398
-2.9558725 -3.9781823 -0.34647945
-4.4295526 -5.961545 -0.34576339
-2.8803852 -3.9803131 -0.34347883
-4.360671 -6.0258732 -0.34628215
-2.848228 -4.0420771 -0.34568632
-4.2697163 -6.0593891 -0.34509113
-2.7898076 -4.0669775 -0.34478414
-4.1977215 -6.119432 -0.3454729
-2.7409749 -4.1056714 -0.34511107
-4.1244035 -6.1778913 -0.34581381
-2.6930313 -4.1459684 -0.34562045
-4.0409756 -6.2211523 -0.34535968
-2.6364362 -4.1729341 -0.34507352
-3.9522309 -6.2555656 -0.34448001
-2.592521 -4.2201829 -0.34625363
-3.8904147 -6.3329329 -0.3460153
-2.5370502 -4.2489271 -0.34596345
-3.8059399 -6.374002 -0.3456133
-7.617362 -12.757185 -0.3454628
-2.4812415 -4.2769008 -0.34566969
-3.7197993 -6.4117951 -0.34509537
-7.457027 -12.853632 -0.34550437
-2.4309933 -4.3145475 -0.34621087
-3.6376636 -6.4561563 -0.34499025
-7.293735 -12.944983 -0.34546375
-2.3736565 -4.3396611 -0.34580022
-3.5613139 -6.5110078 -0.34549758
-7.1303158 -13.036072 -0.34547108
-3.4843473 -6.5653138 -0.34602362
-6.9680443 -13.129403 -0.34559181
-3.3947113 -6.5956588 -0.34534261
-6.8017783 -13.215324 -0.34557155
-3.3121121 -6.6393175 -0.34541741
-6.6349297 -13.300095 -0.34557611
-3.2221568 -6.6678801 -0.34476516
-6.4705682 -13.390091 -0.34577
-3.1451809 -6.7233915 -0.34556022
-6.2996511 -13.46664 -0.34567088
-3.0606101 -6.7631979 -0.34559792
-6.1311097 -13.54825 -0.34575656
-2.9731505 -6.7964897 -0.34535864
-5.9565277 -13.616356 -0.34555307
-2.8928001 -6.8463116 -0.34601188
-5.7843475 -13.689658 -0.34553748
-2.798136 -6.8620062 -0.34499699
-5.609488 -13.756423 -0.34541237
-2.7171516 -6.9110351 -0.34571436
-5.4452229 -13.849845 -0.34600902
-2.6231408 -6.9268036 -0.34482348
-5.2688999 -13.913335 -0.34591022
-2.5390539 -6.9684439 -0.3452774
-5.0882239 -13.964651 -0.34556571
-2.4492056 -6.9944181 -0.34500891
-4.9107795 -14.024158 -0.34548065
-1.5747333 -4.6854291 -0.34556076
-2.3712032 -7.0552292 -0.3465082
-4.7352138 -14.089058 -0.34558314
-1.5183586 -4.713408 -0.34618673
-2.2773457 -7.0695152 -0.34577402
-4.5585089 -14.150882 -0.3456642
-1.4599687 -4.7356491 -0.34644252
-2.1847715 -7.0866666 -0.34523994
-4.3789086 -14.203712 -0.34558037
-1.4016569 -4.7585158 -0.34679669
-2.0969875 -7.1191096 -0.34550667
-4.1994333 -14.256749 -0.34555683
-1.3379071 -4.7625341 -0.34583429
-2.0069661 -7.1441765 -0.3454693
-4.0154223 -14.293657 -0.34519848
-1.2793144 -4.7845354 -0.34623468
-1.9150234 -7.1620374 -0.34513956
-3.8395209 -14.359507 -0.34559372
-1.2147086 -4.783483 -0.34502432
-1.8317838 -7.2135057 -0.34648079
-3.6582193 -14.40595 -0.34557545
-1.1572161 -4.8101768 -0.34587121
-1.7353992 -7.2134995 -0.34540349
-3.4748967 -14.444034 -0.34541199
-1.0992137 -4.8360491 -0.34670874
-1.6447971 -7.2363715 -0.34547955
-3.2943728 -14.493768 -0.34558189
-1.0340658 -4.8300323 -0.34531653
-1.5585815 -7.2800007 -0.34659803
-3.1103544 -14.528199 -0.34544158
-0.97493136 -4.8514452 -0.34594229
-1.4599169 -7.2648263 -0.344973
-2.9268343 -14.564489 -0.34540078
-0.91218263 -4.8548956 -0.34534189
-1.3685721 -7.2839303 -0.34503448
-2.7448373 -14.608806 -0.34560469
-0.84824926 -4.8503742 -0.34423319
-1.279065 -7.3138223 -0.34566009
-2.558521 -14.62988 -0.3453137
-0.78984225 -4.8775434 -0.34542814
-1.1874199 -7.3327193 -0.34581912
-2.3758674 -14.671786 -0.34556925
-0.72756922 -4.8817592 -0.34505051
-1.0929205 -7.3331513 -0.34516308
-2.1916192 -14.705071 -0.34567583
-0.66665924 -4.8950481 -0.34536907
-1.0033283 -7.3670931 -0.34613857
-2.00594 -14.728924 -0.34561536
-0.60511106 -4.9041834 -0.34544861
-0.9085238 -7.3632216 -0.34539178
-1.820406 -14.753662 -0.34563056
-0.54436392 -4.9209089 -0.34611648
-0.81509483 -7.3682466 -0.34511867
-1.6335554 -14.766918 -0.34543183
-0.48016661 -4.9049616 -0.34454221
-0.72242129 -7.3796234 -0.34519807
-1.4478738 -14.790212 -0.34552282
-0.42052117 -4.9358778 -0.34631446
-0.62917608 -7.3849707 -0.34505025
-1.2608606 -14.799384 -0.34533882
-0.35737729 -4.9275193 -0.3453849
-0.53688514 -7.4025745 -0.3455295
-1.07374 -14.804731 -0.34512073
-0.4429124 -7.396677 -0.34496653
-0.88781112 -14.826526 -0.34534079
-0.35033891 -7.4142532 -0.34555313
-0.70118499 -14.83924 -0.34540391
-0.25719655 -7.4250011 -0.34587568
-0.51395077 -14.837233 -0.34517917
-0.16325648 -7.4081421 -0.34496722
-0.32747048 -14.859733 -0.3455793
-0.070009902 -7.4142523 -0.34518334
-0.14025243 -14.853141 -0.34535754
0.023337895 -7.4106836 -0.34500352
0.046737775 -14.841049 -0.34506273
0.11676729 -7.4175377 -0.34536368
0.23403464 -14.86684 -0.34570351
0.21006602 -7.4123816 -0.3452194
0.42081842 -14.848983 -0.34538409
0.30355799 -7.4134903 -0.3454217
0.60801291 -14.848886 -0.34553251
0.39720112 -7.4150987 -0.34570226
0.79400885 -14.822853 -0.34513205
0.4907262 -7.4124022 -0.34583724
0.98162162 -14.82736 -0.3454974
0.58500069 -7.4180918 -0.34641892
1.1670071 -14.798214 -0.3451333
0.6772027 -7.3975277 -0.3458294
1.3538659 -14.789162 -0.34529242
0.76821673 -7.3685012 -0.34489733
1.5403017 -14.774105 -0.34536636
0.86347646 -7.3799725 -0.34591576
1.7264369 -14.755534 -0.34541303
0.95714444 -7.3747845 -0.34621006
1.9112455 -14.72612 -0.3452605
1.0483648 -7.3512006 -0.34569526
2.0971634 -14.705443 -0.34536749
1.1402831 -7.3338223 -0.34552586
2.280061 -14.664394 -0.34505036
1.2336291 -7.3253837 -0.34583274
2.4654093 -14.639789 -0.34517452
1.3261316 -7.3112817 -0.34592789
2.651396 -14.617782 -0.34541544
1.41457 -7.2759275 -0.3450706
2.8338654 -14.57616 -0.34524781
1.5092231 -7.2727313 -0.34579289
3.0202978 -14.554385 -0.34560543
1.5972418 -7.2375908 -0.34505102
3.2004678 -14.502297 -0.3452982
1.6922889 -7.2341914 -0.34587747
3.3816638 -14.455926 -0.34518063
1.780699 -7.2020254 -0.34538427
3.566072 -14.422955 -0.34543815
1.8716877 -7.1807504 -0.34546685
3.7479289 -14.37897 -0.34548768
1.9612674 -7.1541109 -0.34534603
3.9249218 -14.316929 -0.34515715
2.0519605 -7.1315246 -0.34547564
4.108263 -14.278138 -0.34544176
2.1415544 -7.1049962 -0.3454695
4.2848306 -14.215704 -0.34520924
1.4826769 -4.703867 -0.3447938
2.2277193 -7.0675516 -0.34498543
4.4665771 -14.170441 -0.34544849
1.5450751 -4.6948171 -0.34552917
2.3221157 -7.0559087 -0.345817
4.6453061 -14.115083 -0.34549758
2.4071107 -7.0154347 -0.34529153
4.8237944 -14.058769 -0.34557861
2.4980011 -6.9922628 -0.34567183
5.0010877 -13.998761 -0.34562412
2.582973 -6.952528 -0.34528804
5.1826077 -13.949903 -0.34600165
2.6717558 -6.923203 -0.34547511
5.3523526 -13.869315 -0.3456471
2.7611015 -6.8949714 -0.34577391
5.518837 -13.781538 -0.34516409
2.8424151 -6.8469324 -0.34513238
5.6957211 -13.720099 -0.34539425
2.9268365 -6.8069615 -0.34494799
5.8648782 -13.639983 -0.34520918
3.0222349 -6.7918687 -0.34608427
6.0355458 -13.563683 -0.34517422
3.1072679 -6.7527432 -0.34605694
6.2053952 -13.485622 -0.34514889
3.1833112 -6.6947122 -0.34510988
6.3824115 -13.42263 -0.34556624
3.2713177 -6.6621737 -0.34552863
6.5496616 -13.338655 -0.34550023
3.3543899 -6.6193633 -0.34547162
6.7149901 -13.250983 -0.34539211
3.4412818 -6.5838962 -0.34585473
6.8779106 -13.15889 -0.34522179
2.3452616 -4.3525863 -0.34564722
3.519731 -6.5322919 -0.34544477
7.0422416 -13.069742 -0.34518209
2.3905823 -4.3059645 -0.34430811
3.5998118 -6.4840527 -0.34526351
7.2052345 -12.978212 -0.3451336
2.4529452 -4.2901006 -0.34548205
3.692229 -6.4575572 -0.34630093
7.3728743 -12.894855 -0.3453584
2.501848 -4.2505155 -0.34480393
3.7643249 -6.3954015 -0.34548226
7.5375481 -12.80592 -0.34549114
2.5663724 -4.2371745 -0.34631577
3.8406463 -6.3410478 -0.34513125
7.6970301 -12.708078 -0.34543899
2.6080744 -4.1861544 -0.34480262
3.9230206 -6.296741 -0.34538105
7.8577166 -12.612222 -0.34549555
2.6616457 -4.1546526 -0.3449412
4.006042 -6.2531662 -0.34573048
8.0120354 -12.506256 -0.34532914
2.7211828 -4.1321011 -0.34588635
4.0843215 -6.2020197 -0.34571877
8.1638899 -12.396822 -0.34511864
2.7667284 -4.0882506 -0.34510466
4.1628222 -6.151186 -0.34577975
8.3212776 -12.295919 -0.34519929
2.8202999 -4.0564194 -0.34538814
4.2371664 -6.0942893 -0.34555328
8.4780598 -12.193939 -0.34530601
2.8677747 -4.0158582 -0.34498194
4.3149676 -6.0424194 -0.34566563
8.6340647 -12.090622 -0.34543172
2.9220989 -3.984868 -0.34545329
4.3828144 -5.9768472 -0.34504431
8.7827358 -11.977022 -0.34531844
2.9714472 -3.94697 -0.34538421
4.467566 -5.9342628 -0.34580621
8.9414892 -11.87697 -0.34565264
3.024214 -3.9135201 -0.34576207
4.5344644 -5.867878 -0.3452377
9.0783024 -11.747885 -0.34519541
3.0656843 -3.8655913 -0.34491089
4.6172538 -5.8220005 -0.34593186
9.2375116 -11.647789 -0.34564477
3.123611 -3.8383546 -0.34596276
4.6854815 -5.7576118 -0.3455843
9.3828535 -11.529835 -0.34562322
2.3747962 -2.844281 -0.34585828
3.1768169 -3.8048573 -0.34652168
4.7530613 -5.6927171 -0.34525421
9.5247707 -11.407769 -0.34553203
2.4058869 -2.8088608 -0.34520775
3.2097321 -3.7473459 -0.34493756
4.8215613 -5.6291485 -0.34505373
9.6576109 -11.275211 -0.34517309
2.4397223 -2.776819 -0.34501812
3.2588146 -3.7090852 -0.34516564
4.9009457 -5.5781097 -0.34568068
9.8008842 -11.155074 -0.34524605
2.4754333 -2.7469239 -0.34514934
3.3072963 -3.6700203 -0.34537846
4.9583812 -5.5021868 -0.34481761
9.953476 -11.045113 -0.34569448
2.527113 -2.7342432 -0.34752685
3.3560233 -3.6310937 -0.34566471
5.0354638 -5.4481869 -0.3453798
10.079659 -10.90582 -0.34528002
2.5459526 -2.6859732 -0.34543905
3.3956535 -3.5824056 -0.34507293
5.1013193 -5.3818789 -0.34522113
10.22275 -10.784975 -0.34550217
2.5734823 -2.6474407 -0.34462377
3.4477019 -3.5467842 -0.34579614
5.1716709 -5.3202977 -0.34542093
10.354779 -10.652362 -0.34540358
2.6144202 -2.6226597 -0.34565601
3.4871306 -3.4981203 -0.34530535
5.2404108 -5.2569261 -0.34556341
10.485171 -10.518216 -0.34530765
2.6483696 -2.5906425 -0.3458041
3.5258753 -3.4490211 -0.344814
5.3147454 -5.1988988 -0.34612083
10.62479 -10.393199 -0.34556824
2.6861105 -2.5621765 -0.34649184
3.5716805 -3.4068873 -0.34507072
5.3558898 -5.1087751 -0.34458351
10.749405 -10.253439 -0.34539452
2.7253709 -2.5348601 -0.34741125
3.6123908 -3.359875 -0.34488899
5.4209003 -5.041965 -0.34465405
10.882386 -10.121678 -0.34554473
2.7353251 -2.4806218 -0.34467098
3.6527226 -3.3125947 -0.34472981
5.5019073 -4.9895902 -0.34578228
11.003371 -9.9787779 -0.34536907
2.7774446 -2.4558008 -0.34605429
3.7082181 -3.2787852 -0.34604329
5.5606098 -4.9166598 -0.34555325
11.136304 -9.8466568 -0.34562233
2.7949636 -2.4092715 -0.34442979
3.7344892 -3.2191467 -0.34468478
5.6143217 -4.839571 -0.34507662
11.260666 -9.7067461 -0.34566113
2.8302345 -2.3782218 -0.34505853
3.7800791 -3.176368 -0.3451736
5.6826534 -4.775085 -0.34555343
11.372153 -9.5559225 -0.34536231
2.8638241 -2.3455663 -0.34552532
3.823328 -3.1314313 -0.34549478
5.7412004 -4.7022319 -0.34548563
11.496002 -9.4156036 -0.3454954
2.8942146 -2.3101864 -0.34565482
3.8466144 -3.0704 -0.34407797
5.808085 -4.6360621 -0.34597006
11.608292 -9.2658367 -0.34533617
2.9131093 -2.2658117 -0.34447658
3.9027302 -3.0355372 -0.34565097
5.8611841 -4.5588198 -0.34568617
11.731768 -9.1249495 -0.3455638
2.3611767 -1.7892625 -0.3462413
2.9480498 -2.2339859 -0.34525445
3.9355271 -2.9822805 -0.34520233
5.9131026 -4.4808564 -0.34539303
11.834046 -8.9676552 -0.34522292
2.3720732 -1.7509425 -0.34457871
2.983341 -2.2021489 -0.34611252
3.9697976 -2.9303002 -0.34494442
5.9756207 -4.4108958 -0.34577304
11.951314 -8.8218451 -0.34537587
2.3931286 -1.720359 -0.34446311
3.0110762 -2.1645858 -0.34614059
4.0136437 -2.8853059 -0.34556991
6.0301318 -4.3349075 -0.3457413
12.060115 -8.6697083 -0.34533778
2.4308498 -1.7014639 -0.34678122
3.040833 -2.1284194 -0.34645283
4.0512152 -2.8356326 -0.34570304
6.0633135 -4.2439933 -0.3445524
12.171196 -8.5191822 -0.34541938
2.4512589 -1.670162 -0.34666505
3.0495806 -2.0778277 -0.34444118
4.0786467 -2.7789805 -0.3450304
6.130085 -4.1767254 -0.34533066
12.270397 -8.3604183 -0.34521961
2.4689751 -1.6370972 -0.34622768
3.0833132 -2.0444448 -0.34531605
4.1139832 -2.7278488 -0.34508654
6.1726851 -4.092907 -0.34479976
12.356552 -8.1932287 -0.34471357
2.4768486 -1.5977882 -0.34448308
3.1125672 -2.0078833 -0.34573331
4.1547089 -2.6801577 -0.34564435
6.2442169 -4.0280766 -0.34593475
12.473715 -8.0466585 -0.345128
2.5027485 -1.5702257 -0.34530789
3.1394582 -1.9696976 -0.34593782
4.1835394 -2.6247547 -0.34526581
6.2830219 -3.9419711 -0.3453072
12.58474 -7.8956718 -0.34542158
2.5231643 -1.5391028 -0.34542328
3.1514664 -1.9223604 -0.34456635
4.2258096 -2.577698 -0.34604809
6.3285327 -3.8603365 -0.34510952
12.683278 -7.7366624 -0.34542489
2.5435066 -1.5079008 -0.34558135
3.1906228 -1.8915392 -0.34621584
4.257935 -2.5242882 -0.34604844
6.3913431 -3.7890646 -0.34590539
12.781001 -7.5771303 -0.34546039
2.5708816 -1.4807031 -0.34673995
3.2097495 -1.84866 -0.3457379
4.2802315 -2.4652054 -0.34531024
6.4295216 -3.7030923 -0.3454206
12.866432 -7.4104404 -0.34521997
2.5710986 -1.438023 -0.34429967
3.2283258 -1.8056121 -0.34526241
4.3079381 -2.4094424 -0.34507045
6.4850554 -3.6271102 -0.34592292
12.962206 -7.2497993 -0.34531286
2.6041479 -1.4137586 -0.34631395
3.2500415 -1.764406 -0.34518135
4.3373613 -2.3546979 -0.34502482
6.520195 -3.5397305 -0.34539235
13.059458 -7.0898128 -0.34549794
2.6131167 -1.3763142 -0.34517458
3.2840405 -1.7296859 -0.34645158
4.3859124 -2.3100359 -0.34654561
6.5617404 -3.4560323 -0.34526044
13.152071 -6.9271231 -0.34561303
2.6345892 -1.3455243 -0.34574544
3.2931492 -1.6818609 -0.34515092
4.412972 -2.2537713 -0.34641379
6.6081314 -3.3748722 -0.34543794
13.227236 -6.7553487 -0.3453255
2.6387031 -1.3059994 -0.34409988
3.3229432 -1.6446571 -0.34607559
4.427896 -2.1915424 -0.34539166
6.6409574 -3.2868745 -0.34496295
13.303315 -6.5843415 -0.34511977
2.6664181 -1.2781745 -0.34558776
3.3316071 -1.5970396 -0.34485614
4.4575276 -2.136761 -0.34557682
6.7026343 -3.2129755 -0.34603769
13.388885 -6.4180975 -0.34521568
2.6807349 -1.2437733 -0.34538606
3.3679955 -1.5626397 -0.34655845
4.4790959 -2.0781541 -0.34519282
6.7203774 -3.1180353 -0.34489936
13.466169 -6.2478623 -0.34515247
2.7033308 -1.2131286 -0.3463017
3.3727837 -1.5135478 -0.34506267
4.5110879 -2.0243654 -0.34566638
6.7630606 -3.0349457 -0.34510121
13.556222 -6.0833998 -0.3454698
2.7172012 -1.1784781 -0.3461501
3.396307 -1.4730133 -0.34554425
4.5204153 -1.9605508 -0.3444621
6.8131452 -2.9549313 -0.34573081
13.628218 -5.9106984 -0.34538043
2.7269251 -1.1421199 -0.34552932
3.4174767 -1.4313442 -0.34583691
4.556241 -1.9082936 -0.34533361
6.8355889 -2.8629544 -0.34501296
13.705183 -5.7401514 -0.34547171
2.7426126 -1.1083096 -0.3457213
3.4232581 -1.3833634 -0.34463185
4.5817962 -1.851537 -0.345476
6.8800788 -2.7802896 -0.34546408
13.776442 -5.5671597 -0.34547347
2.7445965 -1.0691105 -0.34424707
3.4617035 -1.3484472 -0.34676537
4.6020508 -1.7926499 -0.34527376
6.916646 -2.6942606 -0.34556925
13.848804 -5.3945637 -0.34555724
2.766721 -1.037799 -0.3453556
3.4617953 -1.2985219 -0.34510925
4.6253171 -1.7349598 -0.34535289
6.9512634 -2.607424 -0.345631
13.92658 -5.2238708 -0.34582916
2.7858887 -1.0051607 -0.34614086
3.4844117 -1.2571908 -0.34575832
4.6409674 -1.674481 -0.34491971
6.9869537 -2.5209231 -0.3457998
13.970157 -5.040493 -0.34530774
2.7911935 -0.9675315 -0.3452588
3.4916487 -1.2103355 -0.34493676
4.663321 -1.6164806 -0.34504089
7.0184584 -2.4328589 -0.34581542
14.049457 -4.8700647 -0.34572464
2.80846 -0.93407488 -0.34591228
3.5228252 -1.1716679 -0.34653163
4.70086 -1.5634745 -0.34633431
7.0325041 -2.3389635 -0.34502894
14.102782 -4.6904907 -0.34555605
2.3407435 -0.74591643 -0.34525427
2.827389 -0.900994 -0.3468188
3.5339854 -1.1261626 -0.34620705
4.7096114 -1.5007952 -0.34555933
7.0790219 -2.255847 -0.3458901
14.153145 -4.5101323 -0.34537113
2.352531 -0.71717131 -0.34563348
2.8347239 -0.86416835 -0.34635627
3.5364063 -1.0780768 -0.34508693
4.7387905 -1.4446249 -0.34633809
7.0991359 -2.1641784 -0.34551394
14.206816 -4.3309617 -0.34532264
2.3581359 -0.68655038 -0.34515944
2.8400269 -0.82684869 -0.34570464
3.5483341 -1.033066 -0.34495413
4.7552276 -1.3844423 -0.34623784
7.1220088 -2.0735097 -0.34532902
14.282332 -4.1581745 -0.34585804
2.3594642 -0.65482557 -0.34411964
2.8584735 -0.79331636 -0.3467066
3.5606565 -0.98819429 -0.34491503
4.7629294 -1.3218628 -0.34555924
7.1477008 -1.9837118 -0.3453362
14.303996 -3.9698091 -0.34514478
2.3704274 -0.62583214 -0.34454191
2.8647101 -0.75633103 -0.34628046
3.5832324 -0.94603282 -0.3459205
4.7593327 -1.2565428 -0.34412307
7.1703949 -1.8931034 -0.34525356
14.365186 -3.7926474 -0.34544149
2.3818204 -0.59686345 -0.34507814
2.8600192 -0.71669585 -0.34459519
3.5905032 -0.8997488 -0.34550127
4.7923131 -1.2009119 -0.34538692
7.1896501 -1.8016636 -0.34506094
14.410569 -3.6111629 -0.34541196
2.3989313 -0.56914753 -0.34649137
2.8657093 -0.67989075 -0.34422195
3.6093254 -0.85631406 -0.34624743
4.7910128 -1.1366699 -0.34423435
7.21315 -1.7113229 -0.3451272
14.442217 -3.4264224 -0.34510902
2.3978882 -0.53710067 -0.34533644
2.8877871 -0.6468327 -0.34586811
3.6070857 -0.80794775 -0.34502923
4.8281093 -1.0814437 -0.34589389
7.2428026 -1.6223085 -0.34554115
14.505443 -3.2490604 -0.34561476
2.4075327 -0.5075134 -0.34577766
2.8810592 -0.60733384 -0.34411907
3.6042452 -0.75978309 -0.34381512
4.8282442 -1.0178049 -0.34495801
7.2559028 -1.5295608 -0.34521988
14.542685 -3.0656312 -0.34555498
2.3956571 -0.4735862 -0.34318832
2.9111645 -0.57549453 -0.34682187
3.6335127 -0.71829212 -0.34571677
4.8342834 -0.95566684 -0.34450239
7.2828379 -1.4397101 -0.34561145
14.577418 -2.8817415 -0.34549063
2.4131546 -0.44554919 -0.34486386
2.9124146 -0.53772932 -0.34613666
3.6365986 -0.67143792 -0.34517857
4.8536696 -0.89614999 -0.34505236
7.3002758 -1.3478755 -0.34560615
14.608563 -2.6972301 -0.34539646
2.4139338 -0.41433299 -0.34420231
2.9177139 -0.50080293 -0.34598953
3.6433718 -0.6253565 -0.34504667
4.8902259 -0.83936936 -0.34687233
7.314579 -1.2554908 -0.34550744
14.647997 -2.514215 -0.34555286
2.4291682 -0.38552603 -0.34565496
2.9127777 -0.46227822 -0.34468657
3.6584232 -0.58061737 -0.3457523
4.8868575 -0.77557856 -0.34591323
7.3286915 -1.1631147 -0.34545484
14.677614 -2.3294401 -0.34553218
2.4242837 -0.3535172 -0.3442992
2.9363153 -0.42818338 -0.34680641
3.6604517 -0.53377938 -0.34528139
4.8857074 -0.71245033 -0.3451694
7.3420324 -1.0706398 -0.34542081
14.697859 -2.1432912 -0.34534603
2.4296918 -0.32311735 -0.3444621
2.9419854 -0.39124569 -0.3468667
3.6639581 -0.48725867 -0.34500602
4.902473 -0.65196502 -0.34574649
7.3436527 -0.97661012 -0.34489113
14.729081 -1.9587759 -0.34547272
2.4474757 -0.29417062 -0.34643072
2.9285886 -0.35199726 -0.34473729
3.6732397 -0.44149947 -0.34532914
4.9022827 -0.58922243 -0.34518242
7.355587 -0.88409364 -0.34490144
14.741041 -1.7717772 -0.34520259
2.4332409 -0.26142415 -0.34392264
2.925493 -0.31431106 -0.34387973
3.6734219 -0.39466754 -0.3448517
4.9163938 -0.52821082 -0.34568027
7.384326 -0.79336214 -0.34575316
14.764626 -1.5862917 -0.34525973
2.4528186 -0.23232685 -0.34624887
2.9482648 -0.27925467 -0.34611568
3.6762245 -0.34820578 -0.34467587
4.9227686 -0.46627635 -0.34568825
7.4035401 -0.70125085 -0.34621191
14.782165 -1.4001417 -0.34523019
2.4346228 -0.1997079 -0.34329808
2.9463606 -0.24168485 -0.34550744
3.6801503 -0.30187637 -0.34466022
4.9268084 -0.40413755 -0.34558716
7.3943295 -0.60654408 -0.34539664
14.811918 -1.2149961 -0.3455404
2.4542315 -0.17023633 -0.34573334
2.9456904 -0.20432609 -0.34509981
3.6872768 -0.2557658 -0.34499869
4.9183588 -0.34115908 -0.34466583
7.4035969 -0.51354617 -0.34550008
14.831983 -1.0288118 -0.34567884
2.4461911 -0.13875447 -0.34432724
2.9473796 -0.16718321 -0.34502369
3.7024229 -0.21001127 -0.34614092
4.9323072 -0.27977359 -0.34536904
7.4152064 -0.42061025 -0.34576729
14.829327 -0.84115887 -0.3453427
2.4450514 -0.10782421 -0.34394842
2.9398458 -0.12964413 -0.34392342
3.6955867 -0.16297151 -0.34528258
4.9268532 -0.21726906 -0.34476823
7.4132748 -0.32691765 -0.34545785
14.841725 -0.6545046 -0.34541211
2.4585676 -0.077418469 -0.34568524
2.9589291 -0.093174487 -0.34599122
3.7090917 -0.11679655 -0.34637949
4.9456596 -0.15573516 -0.34591961
7.4252286 -0.23381494 -0.34585029
14.845351 -0.46746913 -0.34533212
2.4655724 -0.046573579 -0.34656021
2.9448974 -0.055627819 -0.34424129
3.7040584 -0.069968037 -0.34579977
4.9453177 -0.09341488 -0.34578604
7.4177527 -0.14011809 -0.34539253
14.841007 -0.28034011 -0.34512159
2.4561696 0.046395965 -0.34523854
2.9534085 0.055788588 -0.34523618
3.7007864 0.069906227 -0.3454943
4.9304843 0.093134679 -0.34474882
7.4258041 0.14027017 -0.34576741
14.866405 0.28081989 -0.34571224
2.4550571 0.077307932 -0.34519166
2.9451849 0.092741691 -0.3443841
3.7056923 0.1166895 -0.34606203
4.9490299 0.15584129 -0.34615535
7.424861 0.23380338 -0.34583315
14.864312 0.46806619 -0.34577319
2.455327 0.10827735 -0.34539393
2.9545944 0.13029452 -0.3456488
3.701848 0.16324763 -0.34586757
4.9380836 0.21776432 -0.34555411
7.4150414 0.32699555 -0.3455402
14.831436 0.65405083 -0.34517264
2.4634466 0.13973325 -0.34675616
2.9532318 0.16751517 -0.34570879
3.7051291 0.21016479 -0.34639394
4.9563093 0.28113505 -0.34704971
7.4113345 0.42039061 -0.34558672
14.827784 0.84107137 -0.34530675
2.450103 0.16994996 -0.34515175
2.9581568 0.20519081 -0.34656027
3.695641 0.25634599 -0.34578127
4.931272 0.34205481 -0.34557077
7.4067926 0.51376784 -0.34564921
14.807828 1.0271363 -0.34511587
2.4611511 0.20188396 -0.34703872
2.9506226 0.24203447 -0.34600723
3.68278 0.30209208 -0.34490648
4.9142251 0.40310538 -0.34470454
7.4012399 0.60711092 -0.34571946
14.816279 1.2153538 -0.34564212
2.4428012 0.23137802 -0.34483477
2.9285691 0.27738911 -0.34380347
3.6873257 0.34925729 -0.34571671
4.9243345 0.4664247 -0.34579825
7.3951964 0.70046055 -0.34582174
14.79978 1.4018102 -0.34564158
2.4464734 0.26284584 -0.34579295
2.9321973 0.31503138 -0.34466779
3.6624749 0.39349142 -0.34382403
4.9044781 0.52693063 -0.34484246
7.3833017 0.79325211 -0.34570518
14.767924 1.5866461 -0.34533688
2.4239278 0.29134032 -0.34309763
2.9252636 0.35159764 -0.3443459
3.6731241 0.44148555 -0.34531826
4.8931208 0.58812124 -0.34453729
7.3569932 0.88426268 -0.3449674
14.757209 1.7737204 -0.3455812
2.4246199 0.32244286 -0.34374306
2.926311 0.38916123 -0.34501868
3.6630721 0.48714086 -0.3449226
4.8939772 0.65083522 -0.34514731
7.3650603 0.97945702 -0.34589654
14.727246 1.9585319 -0.34542966
2.4364808 0.35529584 -0.34603143
2.9268827 0.42680791 -0.34569234
3.6729605 0.53560352 -0.34646133
4.8734865 0.71066827 -0.34430605
7.3492093 1.0716865 -0.34575847
14.717647 2.1461768 -0.34581098
2.4317319 0.38593289 -0.34601977
2.9033532 0.46078247 -0.34357134
3.6585267 0.58063382 -0.34576207
4.8829031 0.77495092 -0.3456333
7.3260837 1.1627008 -0.34533191
14.669695 2.3281834 -0.34534577
2.4093623 0.41354832 -0.34355044
2.9207826 0.50132966 -0.34635344
3.6400206 0.62478125 -0.3447293
4.8663344 0.8352685 -0.34517765
7.3173532 1.2559669 -0.34563848
14.640827 2.5129843 -0.34538373
7.2958469 1.3470578 -0.34539646
14.606833 2.6969106 -0.34535554
7.2924962 1.4416194 -0.34606978
14.583686 2.8829806 -0.3456392
7.2482781 1.5279535 -0.34485713
14.536565 3.0643408 -0.34540954
7.2321196 1.6199157 -0.3450315
14.500012 3.247844 -0.34548539
7.212574 1.7111863 -0.34509966
14.46839 3.4326317 -0.34573442
7.2047944 1.8054588 -0.34578779
14.414836 3.6122322 -0.34551424
7.1710625 1.8932796 -0.34528568
14.351072 3.7889214 -0.3451021
7.1468086 1.9834644 -0.3452931
14.326711 3.9761133 -0.34569287
7.1298709 2.0757987 -0.34571025
14.262481 4.1523948 -0.34537733
7.1047153 2.1658795 -0.3457855
14.22423 4.3362703 -0.34574592
7.0733867 2.254051 -0.34561476
14.163671 4.5134869 -0.34562796
7.0486736 2.3443415 -0.34582224
14.104306 4.6909971 -0.34559339
7.0215631 2.4339352 -0.3459684
14.04311 4.8678646 -0.34556848
6.9922786 2.5228443 -0.34606332
13.976256 5.0426936 -0.34545851
6.9587178 2.6102202 -0.34600165
13.900416 5.2140565 -0.34517947
6.914175 2.6932981 -0.34544578
13.85351 5.3963971 -0.34567466
6.8898826 2.7842515 -0.34595633
13.760959 5.5609026 -0.3450852
6.8569646 2.8719072 -0.34609187
13.710583 5.742413 -0.34560785
6.8090219 2.9531429 -0.34552157
13.650721 5.9204578 -0.34595069
6.7788253 3.0420203 -0.34590566
13.555899 6.0832543 -0.34546155
4.4875703 2.0820858 -0.34584588
6.7317748 3.1233234 -0.34548429
13.486991 6.2575226 -0.34568614
2.6572542 1.2737817 -0.34440005
3.3364558 1.5993638 -0.34535801
4.4630017 2.139385 -0.34600118
6.6975613 3.2105436 -0.34577581
13.394717 6.4208932 -0.34536606
2.6447415 1.3089881 -0.34488732
3.3195806 1.6429929 -0.34572539
4.4314528 2.1933026 -0.34566906
6.6582899 3.2954533 -0.34586328
13.305901 6.5856209 -0.34518683
2.6321893 1.3442987 -0.34543052
3.2917147 1.6811283 -0.34500059
4.3965039 2.2453609 -0.34512106
6.605042 3.3732944 -0.34527642
13.236806 6.7602363 -0.34557533
2.6094398 1.3743775 -0.34468886
3.2743275 1.7245702 -0.34542692
4.3671761 2.3001673 -0.34506515
6.5587797 3.454473 -0.34510463
13.159902 6.9312472 -0.34581879
2.598948 1.4109358 -0.34562245
3.252121 1.765535 -0.34540221
4.3370485 2.3545282 -0.34499997
6.5131698 3.5359166 -0.3450202
13.068486 7.0947142 -0.3457368
2.5731587 1.4391751 -0.34457552
3.2361724 1.8100007 -0.34610158
4.3152184 2.4135141 -0.34565359
6.4694786 3.6183982 -0.34509203
12.973123 7.2559052 -0.34560367
2.5551021 1.4716148 -0.34461173
3.1992378 1.8426057 -0.34460565
4.2874632 2.4693708 -0.34589371
6.425817 3.7009587 -0.34522158
12.889161 7.4235311 -0.34582978
2.550499 1.5120461 -0.34653139
3.177464 1.883738 -0.34478799
4.2607646 2.5259657 -0.3462784
6.3961444 3.7919111 -0.34616524
12.789224 7.582005 -0.34568265
2.5236425 1.5393946 -0.34548876
3.1585855 1.926703 -0.34534472
4.2068491 2.5661323 -0.34449545
6.3307939 3.8617156 -0.34523281
12.693043 7.7426186 -0.34569082
2.5119338 1.5759885 -0.3465752
3.1402738 1.9702094 -0.3460277
4.1789708 2.6218886 -0.34488878
6.2766676 3.9379845 -0.34495798
12.597253 7.903523 -0.34576505
2.4918685 1.6074774 -0.34657204
3.1006799 2.0002151 -0.34441292
4.1618047 2.6847353 -0.34623468
6.2290349 4.0182829 -0.34509364
12.490935 8.0577669 -0.34560448
2.4229546 1.6959379 -0.34565493
3.0283048 2.1196504 -0.34502545
4.0406623 2.8282461 -0.34480253
6.0691519 4.2480798 -0.34488419
12.173954 8.5211124 -0.34549767
2.4014428 1.7263359 -0.34565985
2.9872909 2.1474872 -0.34340632
4.0276775 2.8953943 -0.34677821
6.0313711 4.3357987 -0.34581235
12.058216 8.6683435 -0.34528342
2.3830087 1.7590144 -0.34616724
2.9814491 2.2007523 -0.34589303
3.9756956 2.934654 -0.34545693
5.9724874 4.4085827 -0.34559175
11.945932 8.817873 -0.34522036
2.3554509 1.7849237 -0.34540167
2.9638519 2.2459605 -0.34710506
3.9432242 2.9881134 -0.34587747
5.9173098 4.4840446 -0.34563878
11.850566 8.9801731 -0.34570485
2.9108312 2.26404 -0.3442072
3.8998847 3.033324 -0.34539896
5.8429461 4.5446339 -0.34461048
11.736193 9.1283922 -0.34569415
2.8900142 2.3068335 -0.34515312
3.8616707 3.0824182 -0.34542477
5.8001957 4.629765 -0.34550014
11.621664 9.2765102 -0.345734
2.8731916 2.3532386 -0.34665555
3.8178918 3.1269789 -0.34500352
5.7401476 4.7013698 -0.34542227
11.491323 9.4117718 -0.3453548
2.7646441 2.4444826 -0.34445941
3.7038014 3.2748799 -0.34563112
5.5645585 4.9201508 -0.34579861
11.128752 9.8399792 -0.34538794
2.7493119 2.4933064 -0.34643346
3.6586173 3.3179405 -0.3452861
5.4909983 4.9796972 -0.34509671
11.006338 9.9814692 -0.3454622
2.7158992 2.5260506 -0.34620383
3.6166415 3.3638284 -0.3452948
5.4214149 5.0424438 -0.34468678
10.880735 10.120143 -0.34549233
2.6796908 2.5560529 -0.34566373
3.5765636 3.411545 -0.34554249
5.378552 5.1303916 -0.34604153
10.751558 10.255493 -0.34546372
2.6450675 2.5874124 -0.34537295
3.5261438 3.4492836 -0.34484023
5.296247 5.1808038 -0.34491614
10.620902 10.389396 -0.34544179
2.608206 2.6164258 -0.34483442
3.4890497 3.5000455 -0.34549537
5.2357669 5.2522674 -0.34525719
10.491074 10.524137 -0.34550199
2.5909741 2.6654353 -0.34696618
3.4388595 3.5376875 -0.34490925
5.1731086 5.3217769 -0.34551698
10.355048 10.652638 -0.34541255
2.5422819 2.6821008 -0.34494102
3.4077756 3.5951943 -0.34630477
5.0981297 5.3785138 -0.34500527
10.227929 10.790439 -0.34567723
2.5107799 2.7165713 -0.34528074
3.3445454 3.618675 -0.34448251
5.0377631 5.4506741 -0.34553748
10.081182 10.907467 -0.34533218
2.4757032 2.7472234 -0.34518695
3.3079307 3.6707244 -0.34544471
4.9651589 5.5097075 -0.34528893
9.9511042 11.04248 -0.34561211
2.43698 2.7736976 -0.34463033
3.2560115 3.7058949 -0.34486872
4.8884873 5.56393 -0.34480199
9.8196278 11.176407 -0.34590629
2.4165635 2.8213255 -0.34673968
3.2105029 3.748246 -0.34502038
4.8199644 5.627284 -0.34493944
9.6532221 11.270087 -0.34501621
2.383393 2.8545775 -0.34711033
3.167623 3.7938459 -0.34551883
4.7651272 5.7071681 -0.34613064
9.5221262 11.404601 -0.34543607
3.1195967 3.8334219 -0.34551817
4.6761489 5.7461438 -0.34489596
9.3714828 11.515862 -0.34520435
3.0764794 3.8792031 -0.34612539
4.610621 5.8136373 -0.3454349
9.2353926 11.645118 -0.3455655
3.0248988 3.9144063 -0.34584039
4.5320134 5.864706 -0.34505108
9.0914917 11.764953 -0.34569696
4.466835 5.9332914 -0.34574962
8.9321337 11.864543 -0.34529096
4.3929071 5.9906106 -0.34583887
8.7768621 11.969012 -0.3450875
4.3135099 6.0403781 -0.34554887
8.6369267 12.094629 -0.34554622
8.4793863 12.195847 -0.34536007
8.336031 12.317719 -0.34581131
8.1739712 12.412131 -0.34554482
3.1843705 6.6969404 -0.34522474
3.0986919 6.7341065 -0.34510183
3.0188408 6.7842412 -0.34569559
6.0385451 13.570423 -0.34534577
2.9284847 6.8107948 -0.34514225
5.8758826 13.665577 -0.3458569
2.8452201 6.8536892 -0.34547296
5.6946177 13.717442 -0.34532735
2.7556281 6.8813033 -0.34508845
5.5275774 13.803365 -0.34571075
2.6646373 6.904757 -0.34455463
5.3474393 13.856584 -0.34532979
2.5831058 6.9528852 -0.3453058
5.1729312 13.923857 -0.34535563
2.4966798 6.9885645 -0.345489
4.9988265 13.992432 -0.34546784
2.4045196 7.0078831 -0.34491983
4.8175206 14.040484 -0.34512913
1.54433 4.692553 -0.34536254
2.3173516 7.0414324 -0.34510753
4.64675 14.119471 -0.34560499
0.82287627 4.886302 -0.34640861
1.2300653 7.3042216 -0.34483367
2.4663694 14.645489 -0.3453089
0.69955027 4.9052911 -0.34639576
1.047966 7.3484039 -0.34556374
2.1005156 14.72895 -0.34591955
0.63560396 4.8973193 -0.34524027
0.95529354 7.3605232 -0.34554055
1.9132152 14.741296 -0.34561631
0.5116502 4.9075933 -0.34494659
0.76995003 7.3851266 -0.3456755
1.5399929 14.771144 -0.34529713
0.45255914 4.9435992 -0.34704933
0.67649645 7.3898129 -0.34546873
1.3537623 14.78803 -0.34526598
0.38851544 4.9265637 -0.34548256
0.58348781 7.3989072 -0.345523
1.1672086 14.800769 -0.34519291
0.32651523 4.9320011 -0.34554815
0.49050295 7.40903 -0.34567988
0.98122013 14.821296 -0.34535611
0.26454419 4.9386101 -0.34575036
0.39693278 7.410089 -0.3454687
0.79502398 14.841804 -0.34557328
0.20251927 4.9459238 -0.34605643
0.30396828 7.4235106 -0.34588856
0.60783315 14.844496 -0.34543037
0.13992368 4.9373417 -0.34530529
0.210216 7.4176741 -0.3454659
0.42116305 14.861143 -0.34566694
0.077768736 4.9401894 -0.34540862
0.11666197 7.4108477 -0.34505218
0.23400649 14.865052 -0.34566194
0.015564633 4.9423723 -0.34552014
0.023353258 7.4155622 -0.34523064
0.046842374 14.874265 -0.345835
-0.046631202 4.9383802 -0.34525472
-0.069987752 7.4119062 -0.34507412
-0.14031486 14.859752 -0.34551126
-0.10888164 4.9407568 -0.34548935
-0.16343611 7.4162927 -0.34534678
-0.32741746 14.857327 -0.34552336
-0.17077522 4.9301057 -0.34486759
-0.25704354 7.4205837 -0.3456699
-0.51479214 14.861523 -0.34574428
-0.41965565 4.9257193 -0.34560171
-0.63098997 7.4062614 -0.34604502
-1.2626835 14.820781 -0.3458381
-0.48158556 4.9194565 -0.34556037
-0.72446764 7.400527 -0.34617588
-1.44862 14.797832 -0.34570089
-0.5425809 4.9047914 -0.34498283
-0.81733435 7.3884912 -0.34606689
-1.6347697 14.777895 -0.34568858
-0.60535294 4.9061432 -0.34558666
-0.90727049 7.3530645 -0.3449153
-1.820678 14.755867 -0.3456822
-2.0050087 14.722087 -0.34545493
-2.3754144 14.668987 -0.34550333
-2.5592539 14.634071 -0.34541261
-2.7435024 14.601701 -0.3454366
-2.9274619 14.567611 -0.34547481
-3.1125202 14.538315 -0.34568211
-3.2950766 14.496864 -0.34565571
-3.4726212 14.434575 -0.34518579
-3.6556053 14.395657 -0.34532851
-3.8390205 14.357635 -0.34554869
-4.0175362 14.301181 -0.34538019
-4.2015858 14.264057 -0.34573394
-4.3782878 14.201697 -0.34553137
-3.5617921 6.5118823 -0.34554398
-3.639899 6.4601235 -0.34520224
-3.7309577 6.4310288 -0.34613058
-4.19595 6.1168494 -0.34532711
-4.2808814 6.0752344 -0.34599355
-4.3604517 6.0255704 -0.34626472
-4.4251742 5.9556522 -0.34542161
-4.4926691 5.8900971 -0.34487328
-4.5791354 5.8492322 -0.34582931
-4.649579 5.7875738 -0.34561807
-4.7180872 5.7237239 -0.34532559
-4.7877269 5.6614337 -0.34517744
-4.8599243 5.6021914 -0.34526926
-4.92312 5.5327363 -0.34478202
-5.0051708 5.4843097 -0.34566444
-5.0734468 5.4204464 -0.34563845
-5.1387243 5.3534584 -0.34546566
-5.2104588 5.2931418 -0.34577993
-5.2775917 5.2280064 -0.34583881
-5.3398948 5.1581411 -0.3456378
-5.3969736 5.0834842 -0.34516168
-2.5492303 1.4896934 -0.34507844
-3.2122409 1.8771367 -0.3472729
-4.2733874 2.4972386 -0.34602016
-2.5794127 1.464077 -0.346641
-3.2166042 1.8257476 -0.3452318
-4.2964954 2.438695 -0.34537739
-2.5951645 1.4301175 -0.34631032
-3.2363448 1.7834527 -0.34491286
-4.3311634 2.3867745 -0.3457208
-2.6116052 1.3966002 -0.34613001
-3.2687004 1.747993 -0.34598789
-4.3613777 2.3323209 -0.34576088
-2.6238036 1.3609197 -0.34544805
-3.2911229 1.7070464 -0.34605858
-4.3863182 2.2751043 -0.34543949
-2.6374707 1.3261356 -0.34502155
-3.3120613 1.6653237 -0.34602782
-4.4084349 2.2165868 -0.3449558
-2.6587811 1.2951704 -0.34564838
-3.3159206 1.6152824 -0.34427869
-4.4494557 2.1674604 -0.34600252
-2.6674736 1.2580982 -0.34469157
-3.3516009 1.5807629 -0.34588915
-4.4574604 2.102335 -0.34453908
-2.6897893 1.227463 -0.34555054
-3.3668535 1.5364355 -0.34543917
-4.4859047 2.0471051 -0.34471786
-2.69928 1.1909603 -0.34481585
-3.398586 1.4995041 -0.34673017
-4.5237551 1.9959445 -0.34566769
-2.7296124 1.1635072 -0.34679151
-3.3958895 1.4475104 -0.34456813
-2.7360768 1.125767 -0.34578437
-3.4170988 1.4059755 -0.34489644
-2.7307901 1.0835909 -0.3433646
-3.4357741 1.363332 -0.34502131
-2.7530603 1.0525017 -0.34447107
-3.4667985 1.3253657 -0.34643337
-2.7657697 1.0176345 -0.34443066
-2.7879274 0.98611218 -0.34561625
-2.799691 0.95078397 -0.34556293
-2.8097389 0.91490304 -0.34535378
-2.3502495 0.73268574 -0.34596944
-14.188771 4.4233222 -0.34555438
-2.3564813 0.70219862 -0.34555778
-14.261216 4.2496438 -0.34598801
-2.3743856 0.67510194 -0.34690917
-14.286332 4.0619898 -0.34532905
-2.376096 0.64336449 -0.34594798
-14.333948 3.8811367 -0.34527132
-2.3808467 0.61258209 -0.3454892
-14.381485 3.7002971 -0.34526664
-14.438388 3.5217166 -0.3455407
-14.471541 3.3373244 -0.34530103
-14.511184 3.1545777 -0.34527171
-14.561571 2.9740281 -0.34555218
-14.590449 2.7890275 -0.34537667
-4.8646207 0.86655104 -0.34543639
-14.637191 2.6073713 -0.34567851
-4.8636546 0.80333287 -0.34462214
-14.664366 2.4221225 -0.34557259
-4.9065104 0.74707377 -0.34696469
-14.698491 2.2380178 -0.34568524
-4.9042912 0.68366915 -0.3461715
-14.703677 2.0497255 -0.34517282
-4.9005179 0.62034589 -0.34532642
-14.751005 1.8672978 -0.34570447
-3.6849327 0.41939765 -0.34617344
-4.903409 0.55807751 -0.3450076
-14.75633 1.6794798 -0.34530625
-3.6747522 0.37143338 -0.34475031
-4.9316912 0.49848118 -0.34652844
-14.790228 1.4949538 -0.34563157
-3.6888349 0.32599133 -0.34565899
-4.9326692 0.43591201 -0.34618402
-14.796391 1.3075931 -0.34536344
-3.6933599 0.27957255 -0.34572572
-4.9376798 0.37376258 -0.34617791
-14.816096 1.1215191 -0.34546635
-3.6845849 0.23228984 -0.34460318
-4.9428263 0.31161401 -0.34623617
-14.839671 0.93554765 -0.34571394
-2.9555099 0.14899158 -0.34585884
-3.68682 0.185858 -0.34456602
-4.9387341 0.24896882 -0.34570253
-14.841249 0.74816906 -0.34550384
-2.9375498 0.11102547 -0.3435663
-3.6806977 0.13911293 -0.34380287
-4.9348545 0.18651412 -0.34523916
-14.858296 0.56157327 -0.3457087
-2.9539301 0.074412651 -0.34534508
-3.7142434 0.093565755 -0.34679875
-4.9486198 0.12466101 -0.34606495
-14.849539 0.37407571 -0.34536794
