# .PCD v0.7 - Point Cloud Data file format
VERSION 0.7
FIELDS x y z intensity
SIZE 4 4 4 4
TYPE F F F F
COUNT 1 1 1 1
WIDTH 1344
HEIGHT 1
VIEWPOINT 0 0 0 1 0 0 0
POINTS 1344
DATA ascii
-0.14999534 -1.1256195 -0.29722047 0
-0.16266461 -1.2206943 -0.29187885 0
-0.18332312 -1.3757232 -0.29501137 0
-0.20716907 -1.554672 -0.29541239 0
-0.23671298 -1.7763802 -0.2945312 0
-0.27589184 -2.0703926 -0.29353389 0
-0.33392343 -2.5058827 -0.29545963 0
-0.41972792 -3.1497908 -0.29660138 0
-0.65181828 -4.8914814 -0.34498343 0
-0.97953695 -7.350801 -0.34523901 0
-1.9601661 -14.709799 -0.34503257 0
-0.092964776 -0.86354572 -0.29344308 0
-0.10150015 -0.94283032 -0.29598206 0
-0.11083892 -1.0295779 -0.29695097 0
-0.11838809 -1.0997018 -0.28949568 0
-0.13381395 -1.2429919 -0.29630849 0
-0.14721209 -1.3674465 -0.29234669 0
-0.16770652 -1.5578185 -0.29511201 0
-0.19179165 -1.7815442 -0.29449102 0
-0.22464804 -2.0867457 -0.2949546 0
-0.27108791 -2.5181236 -0.29600194 0
-0.3385874 -3.1451235 -0.29526314 0
-0.5291236 -4.9150062 -0.34559062 0
-0.7931723 -7.3677425 -0.34498459 0
-1.5907198 -14.776126 -0.34553659 0
-0.07263878 -0.88376528 -0.29959556 0
-0.076805077 -0.93445486 -0.292651 0
-0.083780758 -1.019325 -0.29329056 0
-0.091921873 -1.1183745 -0.29370698 0
-0.10136149 -1.2332224 -0.29327637 0
-0.11366016 -1.3828551 -0.29493365 0
-0.12762634 -1.5527756 -0.29345304 0
-0.14767265 -1.7966706 -0.29628098 0
-0.17203313 -2.0930543 -0.29513857 0
-0.20768499 -2.5268154 -0.29631311 0
-0.25832629 -3.1429465 -0.29435298 0
-0.40500206 -4.9274883 -0.34563953 0
-0.6082617 -7.4004631 -0.34568778 0
-1.218186 -14.821153 -0.34576043 0
-0.049791276 -0.87605977 -0.29646298 0
-0.053045265 -0.93331259 -0.2917811 0
-0.058118191 -1.0225689 -0.29370835 0
-0.063984796 -1.1257898 -0.2951363 0
-0.070522673 -1.2408214 -0.29456639 0
-0.078404106 -1.3794924 -0.29370087 0
-0.081869625 -1.440467 -0.27175122 0
-0.082071543 -1.4440196 -0.23770958 0
-0.081359223 -1.4314866 -0.20149815 0
-0.080789611 -1.4214646 -0.16639936 0
-0.081720345 -1.4378405 -0.1344251 0
-0.081915259 -1.4412699 -0.10092095 0
-0.42044517 -7.3975835 -0.34494773 0
-0.84399223 -14.849744 -0.34582037 0
-0.027762607 -0.87992227 -0.2974382 0
-0.030215576 -0.95766789 -0.29906163 0
-0.032510977 -1.0304195 -0.29563341 0
-0.035116371 -1.1129962 -0.29145718 0
-0.039300837 -1.2456207 -0.29537624 0
-0.041503172 -1.3154228 -0.27974802 0
-0.041100178 -1.30265 -0.2454775 0
-0.041612856 -1.3188992 -0.21687073 0
-0.041446477 -1.3136258 -0.18470183 0
-0.041331284 -1.3099748 -0.15317726 0
-0.041656252 -1.3202746 -0.1232962 0
-0.042883646 -1.3591763 -0.095066518 0
-0.23344214 -7.3988347 -0.3446216 0
-0.46826136 -14.841315 -0.34523889 0
-0.0055165691 -0.87465042 -0.295515 0
-0.0059773042 -0.94769979 -0.29580745 0
-0.0064308089 -1.0196028 -0.29239038 0
-0.0070835967 -1.1231021 -0.29396316 0
-0.0076770075 -1.2171873 -0.28849593 0
-0.007619034 -1.2079957 -0.25677907 0
-0.0075287637 -1.1936833 -0.22483589 0
-0.0076131145 -1.207057 -0.1983854 0
-0.0076340172 -1.2103711 -0.17010249 0
-0.0076990915 -1.2206886 -0.14266875 0
-0.0077025276 -1.2212334 -0.11399261 0
-0.0085967183 -1.3630071 -0.09528894 0
-0.046775091 -7.4161768 -0.34526443 0
-0.093729928 -14.860852 -0.3455283 0
0.016517717 -0.87262225 -0.29487672 0
0.018022744 -0.95213205 -0.2972382 0
0.019619774 -1.0365024 -0.29728395 0
0.021356329 -1.1282436 -0.29535592 0
0.022532191 -1.1903638 -0.2821832 0
0.022851178 -1.2072157 -0.25665414 0
0.022846553 -1.2069714 -0.22737496 0
0.022588218 -1.1933236 -0.19615948 0
0.022835527 -1.2063888 -0.16956982 0
0.022779053 -1.2034053 -0.14067115 0
0.022820465 -1.2055932 -0.11255064 0
0.025568819 -1.3507872 -0.094449677 0
0.14085415 -7.4412503 -0.3464869 0
0.28122717 -14.857082 -0.34549567 0
0.038373224 -0.86838961 -0.29368016 0
0.041948725 -0.94930351 -0.29659128 0
0.045722887 -1.0347131 -0.2970072 0
0.049656596 -1.1237334 -0.29440954 0
0.053042166 -1.2003491 -0.28477693 0
0.05318502 -1.2035818 -0.25608543 0
0.052794967 -1.1947548 -0.22525285 0
0.052987624 -1.1991148 -0.19726846 0
0.053354137 -1.207409 -0.1698484 0
0.052937236 -1.1979744 -0.14014786 0
0.052347593 -1.1846309 -0.11068175 0
0.060135655 -1.3608754 -0.095230862 0
0.32783926 -7.4190321 -0.34572753 0
0.65511906 -14.825404 -0.34503365 0
0.060506288 -0.87052542 -0.29482505 0
0.065865867 -0.94763559 -0.29649514 0
0.071773537 -1.0326313 -0.29683506 0
0.077702075 -1.1179273 -0.29330879 0
0.082785301 -1.1910615 -0.2829791 0
0.083630964 -1.2032282 -0.25637767 0
0.083457656 -1.200735 -0.22670524 0
0.083094344 -1.1955078 -0.19695736 0
0.082737356 -1.1903716 -0.16769208 0
0.083480172 -1.2010589 -0.14071037 0
0.08333905 -1.1990284 -0.11218774 0
0.092713401 -1.3339006 -0.093477204 0
0.51400226 -7.395133 -0.34510845 0
1.0304067 -14.824826 -0.3455154 0
0.081491873 -0.85861367 -0.29139462 0
0.090237252 -0.95075661 -0.2980893 0
0.097558856 -1.0278984 -0.29608807 0
0.10514235 -1.1077995 -0.29125509 0
0.11294217 -1.1899799 -0.28330913 0
0.11376151 -1.1986126 -0.25592446 0
0.11282403 -1.1887351 -0.22490562 0
0.1143581 -1.2048984 -0.1989166 0
0.11474282 -1.208952 -0.17066318 0
0.11358581 -1.1967615 -0.14049803 0
0.11458141 -1.2072512 -0.11319164 0
0.12876962 -1.356741 -0.095275231 0
0.7003386 -7.3788986 -0.34506583 0
1.4043844 -14.796858 -0.34557962 0
0.10504375 -0.87217748 -0.29680312 0
0.11375514 -0.94450808 -0.2969358 0
0.12368274 -1.0269369 -0.29661584 0
0.13312513 -1.1053369 -0.2913982 0
0.14325082 -1.1894104 -0.28394392 0
0.14428325 -1.1979827 -0.25648582 0
0.1454308 -1.2075108 -0.22907946 0
0.14436322 -1.1986468 -0.19842285 0
0.14611496 -1.2131914 -0.17172755 0
0.14347315 -1.1912564 -0.14023221 0
0.14285833 -1.1861516 -0.11151589 0
0.16144995 -1.3405178 -0.094392069 0
0.88692665 -7.3641453 -0.34531277 0
1.777133 -14.755522 -0.34555173 0
0.12681876 -0.86789829 -0.29634175 0
0.13657288 -0.93465167 -0.29482689 0
0.14796072 -1.0125856 -0.29345587 0
0.16202131 -1.1088108 -0.29329866 0
0.17588277 -1.2036732 -0.28831676 0
0.17673747 -1.2095225 -0.25982875 0
0.17697795 -1.2111682 -0.23054725 0
0.17477119 -1.196066 -0.19866256 0
0.17501631 -1.1977435 -0.17011198 0
0.17633037 -1.2067364 -0.14253297 0
0.1756248 -1.2019078 -0.11337784 0
0.19631156 -1.3434799 -0.094919309 0
1.0718522 -7.3353391 -0.34512064 0
2.1490674 -14.707382 -0.34558451 0
0.14863707 -0.86419404 -0.29626352 0
0.15996654 -0.93006498 -0.29455984 0
0.17555858 -1.0207191 -0.29700252 0
0.18816878 -1.0940362 -0.29055429 0
0.20745233 -1.2061532 -0.29007253 0
0.20444757 -1.188683 -0.25637886 0
0.20713243 -1.2042933 -0.23016043 0
0.20742837 -1.2060138 -0.20112038 0
0.20509613 -1.1924539 -0.17004175 0
0.20736061 -1.2056198 -0.14297372 0
0.20803908 -1.2095646 -0.11455894 0
0.22888723 -1.3307782 -0.094399996 0
1.2566065 -7.3060632 -0.3451255 0
2.5194113 -14.648165 -0.34557718 0
0.17076795 -0.86205536 -0.29691336 0
0.18387577 -0.9282251 -0.29535285 0
0.20230119 -1.0212386 -0.29854432 0
0.21833479 -1.102178 -0.2940864 0
0.23869571 -1.2049621 -0.29114226 0
0.23731713 -1.1980029 -0.2595982 0
0.23784694 -1.2006775 -0.23054326 0
0.23756567 -1.1992576 -0.20092961 0
0.23877385 -1.2053566 -0.17268603 0
0.23708101 -1.196811 -0.14259328 0
0.23650536 -1.193905 -0.11360498 0
0.25998598 -1.3124378 -0.093534678 0
1.4430491 -7.2846699 -0.3457253 0
2.8892255 -14.585127 -0.34570023 0
0.19182676 -0.85463285 -0.29593018 0
0.20736451 -0.92385715 -0.29553422 0
0.2264761 -1.0090038 -0.29654419 0
0.24748339 -1.102596 -0.29577038 0
0.2687977 -1.1975563 -0.2908994 0
0.26888135 -1.197929 -0.26096961 0
0.270785 -1.2064102 -0.23288211 0
0.26898333 -1.1983833 -0.20185629 0
0.2664699 -1.1871854 -0.17099178 0
0.26693785 -1.1892703 -0.14245218 0
0.26942864 -1.2003672 -0.11483037 0
0.29597989 -1.3186593 -0.094480373 0
1.6263416 -7.2457299 -0.34571522 0
3.2540374 -14.497493 -0.34545976 0
0.21606016 -0.86039716 -0.29971895 0
0.22893764 -0.91167802 -0.29339316 0
0.25217205 -1.0042024 -0.29690906 0
0.27430117 -1.0923252 -0.29477847 0
0.29759294 -1.185078 -0.28960055 0
0.30262345 -1.2051105 -0.26411393 0
0.29914275 -1.1912496 -0.23133932 0
0.30266276 -1.2052671 -0.20423745 0
0.299842 -1.1940342 -0.17301312 0
0.3017354 -1.2015741 -0.14479205 0
0.30436441 -1.2120434 -0.11664506 0
0.33210561 -1.3225147 -0.095326811 0
1.8097429 -7.2067785 -0.3459259 0
3.6181357 -14.40818 -0.34539756 0
0.23750581 -0.85397351 -0.29947406 0
0.25282872 -0.90906841 -0.29451311 0
0.27706808 -0.99622315 -0.29652303 0
0.29931393 -1.0762101 -0.29237518 0
0.33703038 -1.2118231 -0.29812008 0
0.33471686 -1.2035046 -0.26552886 0
0.33579811 -1.2073923 -0.23604493 0
0.33515874 -1.2050934 -0.20557597 0
0.3350167 -1.2045827 -0.1757108 0
0.33355379 -1.1993227 -0.14548886 0
0.33404711 -1.2010965 -0.11636589 0
0.35922593 -1.2916292 -0.093724251 0
1.9866284 -7.1431012 -0.34516624 0
3.9797721 -14.309629 -0.34533298 0
0.25614244 -0.83843148 -0.29619646 0
0.27383056 -0.89633006 -0.29253212 0
0.30281407 -0.99120182 -0.29720864 0
0.32617801 -1.067679 -0.29220098 0
0.3630074 -1.1882328 -0.29447681 0
0.36942986 -1.2092553 -0.26876923 0
0.36323434 -1.1889756 -0.23416218 0
0.36945581 -1.2093403 -0.20782498 0
0.36376718 -1.1907197 -0.17497215 0
0.36799365 -1.2045542 -0.14720331 0
0.36386162 -1.1910288 -0.11624321 0
0.39701495 -1.2995496 -0.094995826 0
2.1658514 -7.0894847 -0.34510693 0
4.3408794 -14.209007 -0.34543869 0
0.27786326 -0.83364576 -0.29688877 0
0.30187675 -0.90569109 -0.29797897 0
0.32649747 -0.97955817 -0.29609391 0
0.3559697 -1.0679808 -0.29464853 0
0.39791131 -1.193814 -0.29825392 0
0.4414548 -1.3244534 -0.29675505 0
0.49013528 -1.4705045 -0.29195109 0
0.5641852 -1.6926692 -0.29323864 0
0.66373622 -1.9913424 -0.2949886 0
0.79465163 -2.384115 -0.29370973 0
1.0050515 -3.015357 -0.29667705 0
1.5596597 -4.6792932 -0.34481952 0
2.3479605 -7.044354 -0.34568468 0
4.6987915 -14.097321 -0.34549654 0
0.3002367 -0.83031934 -0.29830781 0
0.32248312 -0.8918429 -0.29600638 0
0.35050434 -0.96933699 -0.2955842 0
0.38783127 -1.0725664 -0.29851919 0
0.42716163 -1.1813365 -0.29773527 0
0.470218 -1.300411 -0.29393363 0
0.53169674 -1.4704334 -0.29450744 0
0.61253262 -1.693989 -0.29605126 0
0.71164691 -1.9680943 -0.29411179 0
0.85842907 -2.3740277 -0.29504222 0
1.08058 -2.9883969 -0.29661337 0
1.4368744 -3.9737468 -0.29540578 0
2.5275891 -6.9901714 -0.34604612 0
5.0513988 -13.969892 -0.34538808 0
0.31948131 -0.81835681 -0.29681242 0
0.3450692 -0.88390058 -0.29616663 0
0.37524408 -0.96119404 -0.29589489 0
0.41614386 -1.0659596 -0.29950821 0
0.45148617 -1.1564895 -0.29425123 0
0.50458598 -1.2925055 -0.29493141 0
0.56507218 -1.4474419 -0.29266584 0
0.6516307 -1.669163 -0.29449302 0
0.7678622 -1.966892 -0.29673377 0
0.91356945 -2.3401237 -0.29360071 0
1.1513386 -2.9491735 -0.29551032 0
1.5353161 -3.9327381 -0.29514387 0
2.7025177 -6.922545 -0.34596479 0
5.4011879 -13.835234 -0.34531924 0
0.33817154 -0.80561393 -0.2951923 0
0.36738655 -0.87521178 -0.29626784 0
0.3989104 -0.95030993 -0.29554957 0
0.43690515 -1.0408235 -0.29544982 0
0.48674393 -1.1595526 -0.29806143 0
0.53806829 -1.2818209 -0.29549804 0
0.60144728 -1.4328063 -0.29268268 0
0.69454205 -1.6545826 -0.29491943 0
0.81276965 -1.9362321 -0.29510906 0
0.97760963 -2.3289244 -0.29519728 0
1.2228251 -2.9130921 -0.29489353 0
1.638685 -3.9037805 -0.29598027 0
2.8727927 -6.8437514 -0.34554052 0
5.7505183 -13.699253 -0.34543779 0
0.35539868 -0.79017365 -0.29272822 0
0.38970813 -0.86645538 -0.2965388 0
0.42702991 -0.94943452 -0.29853418 0
0.46402082 -1.0316781 -0.29608393 0
0.511765 -1.1378298 -0.29570356 0
0.56651515 -1.2595583 -0.29356855 0
0.63953775 -1.4219126 -0.29366109 0
0.73893768 -1.6429129 -0.29606935 0
0.86572528 -1.9248054 -0.29660326 0
1.0378474 -2.3074923 -0.29570672 0
1.3017784 -2.8943019 -0.29622304 0
1.7362241 -3.860224 -0.2959061 0
3.0470166 -6.7745671 -0.34582016 0
6.0886064 -13.537068 -0.34511319 0
0.38507515 -0.8014617 -0.3004148 0
0.40883362 -0.85091048 -0.29465628 0
0.44404006 -0.92418611 -0.29402548 0
0.49277583 -1.0256205 -0.29781997 0
0.53471673 -1.1129125 -0.29264212 0
0.5983637 -1.2453818 -0.29369077 0
0.6815744 -1.4185693 -0.29642895 0
0.78480923 -1.6334332 -0.29783574 0
0.9100408 -1.8940792 -0.29531381 0
1.0901389 -2.2689195 -0.29419586 0
1.3737473 -2.8591974 -0.29608449 0
1.8320086 -3.8129823 -0.29573497 0
3.2188537 -6.6994405 -0.34602204 0
6.4293976 -13.381585 -0.34517634 0
0.39132458 -0.76443607 -0.29014605 0
0.4319444 -0.84378517 -0.2958698 0
0.46688294 -0.91203612 -0.29381537 0
0.51772135 -1.0113468 -0.29737484 0
0.57729912 -1.1277294 -0.30027395 0
0.62250769 -1.2160425 -0.29038453 0
0.71702737 -1.4006827 -0.29637852 0
0.81057698 -1.5834279 -0.29235509 0
0.95756626 -1.8705653 -0.29532173 0
1.1493856 -2.2452762 -0.29479775 0
1.4481096 -2.8288212 -0.29662925 0
1.9256303 -3.7616377 -0.2954281 0
3.3810797 -6.6047964 -0.34543127 0
6.771853 -13.228528 -0.34552693 0
0.41960776 -0.77107882 -0.29659256 0
0.45589271 -0.83775663 -0.29769579 0
0.49081042 -0.90192211 -0.29445404 0
0.54529971 -1.0020527 -0.2985937 0
0.59720367 -1.0974321 -0.29612592 0
0.65876961 -1.2105669 -0.29295406 0
0.74844539 -1.3753567 -0.2949228 0
0.85779417 -1.576298 -0.29494205 0
1.0103099 -1.8565637 -0.29704237 0
1.2095975 -2.2227783 -0.29575804 0
1.5078646 -2.770879 -0.29445034 0
2.3616741 -4.3398547 -0.34541091 0
3.5407953 -6.506629 -0.34486115 0
7.1009741 -13.048878 -0.34540576 0
0.43393165 -0.75159007 -0.29321557 0
0.47445098 -0.82177156 -0.29617634 0
0.5177334 -0.89673865 -0.29693329 0
0.56261736 -0.97447985 -0.29451504 0
0.61932206 -1.0726951 -0.29357532 0
0.69710457 -1.2074181 -0.29635543 0
0.7752533 -1.3427753 -0.29203898 0
0.90249884 -1.5631707 -0.29665336 0
1.0546223 -1.8266557 -0.29642156 0
1.2705194 -2.2005997 -0.29697916 0
1.5847225 -2.7448142 -0.29583663 0
2.4773672 -4.2909169 -0.34638211 0
3.7077987 -6.4220829 -0.34523004 0
7.423759 -12.858302 -0.34521091 0
0.45522064 -0.74443144 -0.29481119 0
0.49186096 -0.80435002 -0.29427791 0
0.53881818 -0.88114017 -0.29617697 0
0.58715558 -0.96018726 -0.29458037 0
0.65060252 -1.0639433 -0.29557997 0
0.72131866 -1.1795869 -0.29389921 0
0.81446636 -1.3319131 -0.2940537 0
0.93466467 -1.5284758 -0.29445216 0
1.095884 -1.7921209 -0.29521176 0
1.3160696 -2.152195 -0.29483551 0
1.6551738 -2.7067387 -0.29614103 0
2.5731909 -4.2079906 -0.34482074 0
3.8698611 -6.3284612 -0.34533778 0
7.7479382 -12.670358 -0.34530514 0
0.48148766 -0.74450552 -0.29955772 0
0.5129438 -0.79314488 -0.29482099 0
0.56201768 -0.86902595 -0.29677841 0
0.61293507 -0.94775754 -0.29541901 0
0.6782757 -1.0487912 -0.2960321 0
0.75413322 -1.1660867 -0.29518387 0
0.84977853 -1.3139793 -0.29473558 0
0.96889901 -1.4981706 -0.29323158 0
1.1505923 -1.7791158 -0.29775828 0
1.3800001 -2.1338401 -0.2969979 0
1.7227728 -2.6638563 -0.29611224 0
2.6813889 -4.1461267 -0.34518704 0
4.0302134 -6.231761 -0.3455016 0
8.0690508 -12.476857 -0.34547186 0
0.48764443 -0.71385872 -0.2920858 0
0.52890855 -0.77426493 -0.29267192 0
0.58249164 -0.85270476 -0.29613099 0
0.64475739 -0.94385505 -0.29917967 0
0.70723748 -1.0353192 -0.29717323 0
0.7889567 -1.1549473 -0.29731002 0
0.89119369 -1.3046111 -0.2975848 0
1.0131961 -1.4832096 -0.29521441 0
1.1847793 -1.7343887 -0.29518321 0
1.4322598 -2.0966735 -0.29676172 0
1.7786126 -2.6036966 -0.29432118 0
2.7896564 -4.083755 -0.34574604 0
4.1838107 -6.1246462 -0.34530738 0
8.3738117 -12.258354 -0.34516379 0
0.51753449 -0.71802354 -0.29903919 0
0.54647827 -0.7581799 -0.29171246 0
0.59853482 -0.83040279 -0.2935386 0
0.65890217 -0.91415596 -0.29494318 0
0.72849059 -1.0107025 -0.29529086 0
0.80971551 -1.1233933 -0.29435435 0
0.91020161 -1.2628069 -0.2931959 0
1.0437537 -1.4480962 -0.2933754 0
1.2235092 -1.6974875 -0.29406482 0
1.4762418 -2.0481269 -0.29507011 0
1.8530488 -2.5709062 -0.29580712 0
2.8938754 -4.0149412 -0.34599352 0
4.3412294 -6.0229897 -0.3456434 0
8.6938114 -12.061729 -0.34569564 0
0.52601725 -0.69227523 -0.2937513 0
0.56656915 -0.74564433 -0.29229814 0
0.61795276 -0.81326878 -0.29290184 0
0.68900937 -0.90678418 -0.2980805 0
0.75319445 -0.9912563 -0.29506943 0
0.84008074 -1.1056046 -0.29515496 0
0.94183302 -1.2395177 -0.29321435 0
1.089293 -1.4335853 -0.29591122 0
1.2721826 -1.6742808 -0.29551286 0
1.5248942 -2.0068667 -0.29457676 0
1.9185164 -2.5249009 -0.29599088 0
2.9869916 -3.9310884 -0.34515423 0
4.4901471 -5.9093456 -0.34551516 0
8.9847889 -11.824606 -0.34528887 0
0.55150527 -0.68901336 -0.29817867 0
0.58793533 -0.73452657 -0.29366332 0
0.63547784 -0.79392302 -0.29161799 0
0.7013607 -0.87623256 -0.29376289 0
0.77096802 -0.96319526 -0.29241556 0
0.87026709 -1.0872529 -0.29602519 0
0.97783142 -1.2216364 -0.29472864 0
1.1201519 -1.3994418 -0.29460537 0
1.3108722 -1.637715 -0.29480463 0
1.5835965 -1.9784381 -0.29617631 0
1.9779187 -2.4710779 -0.29543933 0
3.0799072 -3.8478277 -0.34455919 0
4.6398554 -5.7967215 -0.34566709 0
9.2854595 -11.600625 -0.34548181 0
0.57323933 -0.68024886 -0.30055121 0
0.61243588 -0.72676247 -0.29664457 0
0.65995979 -0.78315789 -0.29368851 0
0.72945213 -0.86562276 -0.29628381 0
0.80351847 -0.95351541 -0.29553956 0
0.90035474 -1.0684286 -0.29699242 0
1.0038517 -1.1912459 -0.29341584 0
1.1576852 -1.3737962 -0.29526356 0
1.3557217 -1.6088014 -0.29566514 0
1.6230403 -1.9260217 -0.29436809 0
2.3814907 -2.826056 -0.34495655 0
3.1760404 -3.7689283 -0.34456238 0
4.7735872 -5.6646976 -0.34486893 0
9.5742512 -11.361526 -0.3454476 0
0.58650988 -0.66138494 -0.29866183 0
0.62588841 -0.70579064 -0.29443851 0
0.68593448 -0.77350235 -0.29646543 0
0.74485195 -0.83994132 -0.29383463 0
0.82155645 -0.92643803 -0.29348037 0
0.91608047 -1.0330292 -0.29348591 0
1.0418005 -1.1747988 -0.29574707 0
1.1896541 -1.3415278 -0.29468769 0
1.3957453 -1.5739291 -0.29563624 0
1.6842856 -1.899305 -0.29668736 0
2.4586926 -2.7725744 -0.34589288 0
3.2830026 -3.7021174 -0.34591946 0
4.9172988 -5.5450511 -0.34503067 0
9.8528337 -11.110667 -0.34527129 0
0.59677291 -0.63968998 -0.29557246 0
0.64230216 -0.68849343 -0.29389182 0
0.70023865 -0.75059646 -0.29436618 0
0.77060473 -0.82602292 -0.29567534 0
0.8481344 -0.90912819 -0.29468414 0
0.94643068 -1.0144935 -0.29491228 0
1.0698735 -1.1468136 -0.2954056 0
1.2242881 -1.3123331 -0.29496831 0
1.4200276 -1.5221492 -0.29254904 0
1.7152847 -1.8386397 -0.29387996 0
2.5172136 -2.6982396 -0.34443551 0
3.3654728 -3.6075015 -0.34490561 0
5.0696549 -5.4342403 -0.34598714 0
10.129546 -10.858015 -0.34525478 0
0.60866332 -0.62029201 -0.29361412 0
0.65859723 -0.67117989 -0.29350328 0
0.72353131 -0.73735458 -0.2962403 0
0.79640508 -0.81162059 -0.29762021 0
0.87460619 -0.89131582 -0.2959713 0
0.9671315 -0.98560876 -0.29351786 0
1.0984141 -1.1193995 -0.29539108 0
1.2569884 -1.2810035 -0.29496327 0
1.4699174 -1.4980005 -0.29494414 0
1.7680118 -1.8017901 -0.29502845 0
2.6011276 -2.6508229 -0.3466526 0
3.4526546 -3.5186186 -0.34462938 0
5.1917696 -5.2909594 -0.34509757 0
10.406078 -10.604889 -0.34544727 0
0.62263674 -0.60330003 -0.29291627 0
0.68421853 -0.66296935 -0.29736981 0
0.7411617 -0.71814406 -0.29594344 0
0.81431758 -0.78902799 -0.29677764 0
0.89793074 -0.87004441 -0.29633901 0
0.99664372 -0.96569175 -0.29498363 0
1.1177292 -1.0830168 -0.29314119 0
1.2951038 -1.2548828 -0.29638091 0
1.5038267 -1.4571236 -0.29427516 0
1.8154166 -1.7590367 -0.29543638 0
2.6674592 -2.5846181 -0.34668857 0
3.5428824 -3.4328542 -0.34487748 0
5.3309255 -5.1653676 -0.34557164 0
10.66862 -10.337294 -0.34539169 0
0.64651847 -0.59555817 -0.29698533 0
0.68960559 -0.63524896 -0.29264972 0
0.75165707 -0.6924094 -0.29306287 0
0.82551253 -0.76044339 -0.29376927 0
0.91506839 -0.84294021 -0.29487967 0
1.0254316 -0.94460428 -0.29635346 0
1.1504325 -1.0597522 -0.29460946 0
1.3152491 -1.2115775 -0.29389957 0
1.5425061 -1.4209216 -0.29473248 0
1.8520997 -1.7061121 -0.29430479 0
2.7160876 -2.5019979 -0.34469169 0
3.6249812 -3.3392503 -0.3445555 0
5.4554796 -5.0254636 -0.34531361 0
10.928258 -10.066862 -0.34546167 0
0.66334939 -0.58081633 -0.29788804 0
0.71504009 -0.62607574 -0.29664323 0
0.77406651 -0.67775816 -0.2950367 0
0.84282792 -0.73796439 -0.29320967 0
0.95396179 -0.83527118 -0.30052388 0
1.0428423 -0.91309327 -0.29463112 0
1.1796286 -1.0328609 -0.2953164 0
1.341154 -1.1742893 -0.29297212 0
1.571916 -1.3763403 -0.293621 0
1.8823545 -1.6481545 -0.29240924 0
2.7789547 -2.4332008 -0.34476662 0
3.7301235 -3.2660265 -0.34660381 0
5.5825033 -4.8879356 -0.34543508 0
11.179626 -9.7886715 -0.34548795 0
0.66615069 -0.55420882 -0.2927714 0
0.73634279 -0.61260557 -0.2989713 0
0.79238862 -0.65923327 -0.29558432 0
0.85770035 -0.71356982 -0.29202521 0
0.95353007 -0.7932961 -0.29398677 0
1.0679913 -0.88852286 -0.29530656 0
1.2103354 -1.006947 -0.29654691 0
1.3833917 -1.1509225 -0.29575917 0
1.6197282 -1.3475443 -0.29610476 0
1.9426883 -1.6162333 -0.29535085 0
2.8371353 -2.3603749 -0.34448412 0
3.8031628 -3.1640682 -0.34586006 0
5.7051353 -4.7464275 -0.34550062 0
11.427243 -9.5069752 -0.34561494 0
0.68463969 -0.54095238 -0.29480287 0
0.72955245 -0.5764392 -0.29021472 0
0.80474794 -0.63585317 -0.29411456 0
0.88177967 -0.69671804 -0.29414287 0
0.97702706 -0.77197558 -0.29513007 0
1.083813 -0.85635006 -0.29361159 0
1.2380697 -0.97823238 -0.29719821 0
1.4110633 -1.1149194 -0.29556501 0
1.6506414 -1.3042166 -0.29564425 0
1.9999455 -1.5802112 -0.2978974 0
2.8947415 -2.2872138 -0.34435979 0
3.8738348 -3.060822 -0.34515175 0
5.8341289 -4.6097035 -0.34615642 0
11.662094 -9.2145376 -0.34557402 0
0.69959509 -0.52464938 -0.29544672 0
0.76047206 -0.57030302 -0.29669413 0
0.82923448 -0.62187022 -0.29723284 0
0.90059537 -0.67538613 -0.29463935 0
0.99467313 -0.74593818 -0.29467961 0
1.1122146 -0.8340863 -0.29550865 0
1.2432355 -0.9323433 -0.29269636 0
1.4325286 -1.0743004 -0.29428804 0
1.6824543 -1.2617279 -0.29554445 0
2.370883 -1.7780033 -0.34635502 0
2.9535117 -2.2149358 -0.34459114 0
3.9538388 -2.9651141 -0.34550214 0
5.939146 -4.4539614 -0.34560749 0
11.890049 -8.9167395 -0.34555006 0
0.71947855 -0.51171619 -0.29829448 0
0.77092743 -0.54830831 -0.2952801 0
0.84289116 -0.59949124 -0.29661009 0
0.91141522 -0.64822769 -0.2927334 0
1.0187638 -0.72457743 -0.29630443 0
1.1444422 -0.81396395 -0.29851797 0
1.2702423 -0.90343708 -0.29359284 0
1.4611624 -1.0392256 -0.29468822 0
1.7231859 -1.2255851 -0.29717112 0
2.4135077 -1.7165639 -0.34614256 0
3.0165744 -2.1454844 -0.34552097 0
4.0246801 -2.8624816 -0.34526944 0
6.0470405 -4.300849 -0.34545937 0
12.112021 -8.6144581 -0.34557229 0
0.7259354 -0.489205 -0.29575825 0
0.78029412 -0.52583712 -0.29369092 0
0.85505009 -0.57621485 -0.29567692 0
0.93678325 -0.63129455 -0.29566956 0
1.0372483 -0.6989975 -0.29645503 0
1.1606561 -0.78216159 -0.29750323 0
1.2999357 -0.87602156 -0.29525161 0
1.4973171 -1.0090361 -0.2967492 0
1.7405974 -1.1729817 -0.29497436 0
2.4571044 -1.6558331 -0.34629118 0
3.0710592 -2.0695748 -0.34566873 0
4.0875654 -2.7545943 -0.34459025 0
6.1600494 -4.1512327 -0.34581974 0
12.320668 -8.3028498 -0.34543636 0
0.73443061 -0.46842641 -0.2943089 0
0.78996062 -0.5038439 -0.2924498 0
0.87461859 -0.55783951 -0.29748037 0
0.9462719 -0.60354066 -0.29376304 0
1.0373108 -0.66160613 -0.29160756 0
1.1622275 -0.74127907 -0.29301712 0
1.3129524 -0.83741271 -0.29331419 0
1.5174779 -0.96786088 -0.29580933 0
1.775784 -1.1326108 -0.29599872 0
2.4892998 -1.5876976 -0.34507123 0
3.1249473 -1.9931191 -0.34596193 0
4.1697803 -2.659523 -0.34575233 0
6.2685218 -3.9981191 -0.34613416 0
12.517872 -7.9840102 -0.34520572 0
0.74999994 -0.45214882 -0.29588071 0
0.80587572 -0.48583439 -0.29370868 0
0.8871901 -0.53485602 -0.29707021 0
0.97710937 -0.58906519 -0.29862574 0
1.0660034 -0.64265639 -0.29501989 0
1.1905955 -0.71776861 -0.29550779 0
1.3449354 -0.81081468 -0.29579332 0
1.5432088 -0.93034685 -0.2961536 0
1.7909174 -1.0796818 -0.29388544 0
2.5439091 -1.5336342 -0.34716502 0
3.159971 -1.9050364 -0.34440663 0
4.2316933 -2.5511405 -0.34543708 0
6.3466983 -3.8262033 -0.34500867 0
12.720123 -7.6685195 -0.34533584 0
0.764844 -0.43517241 -0.29730913 0
0.82146662 -0.46738896 -0.29499769 0
0.89343441 -0.50833637 -0.29477119 0
0.97418892 -0.5542832 -0.29336426 0
1.0862375 -0.61803538 -0.29620847 0
1.1966525 -0.68085808 -0.29265279 0
1.3644489 -0.77632898 -0.29568151 0
1.5562114 -0.88543582 -0.29426649 0
1.8215072 -1.0363809 -0.29451904 0
2.5766037 -1.4660074 -0.34646705 0
3.2132845 -1.8282589 -0.34507823 0
4.296103 -2.4443491 -0.34554884 0
6.449873 -3.6697769 -0.34547231 0
12.914745 -7.3480878 -0.3454746 0
0.76172727 -0.40831044 -0.29199871 0
0.8412078 -0.45091459 -0.29790518 0
0.90559775 -0.48542967 -0.2946482 0
0.9810161 -0.52585632 -0.29133067 0
1.0981163 -0.58862579 -0.29530242 0
1.2200251 -0.65397286 -0.29423845 0
1.3810632 -0.74029458 -0.29513896 0
1.5859629 -0.85012734 -0.29574087 0
1.8439249 -0.98840332 -0.29401654 0
2.6029799 -1.3952814 -0.34516853 0
3.258193 -1.7464967 -0.34505731 0
4.3500929 -2.3317904 -0.34504786 0
6.5240455 -3.4970994 -0.34460783 0
13.098557 -7.0212493 -0.34554115 0
0.77477115 -0.39046535 -0.2931278 0
0.84592938 -0.42632732 -0.29567254 0
0.90717715 -0.45719466 -0.2913149 0
1.006198 -0.50709873 -0.29491419 0
1.112239 -0.56054074 -0.29520178 0
1.2381703 -0.62400693 -0.29472241 0
1.3990519 -0.7050873 -0.29508621 0
1.6023821 -0.80756062 -0.29490799 0
1.8807868 -0.94786966 -0.29598534 0
2.6409862 -1.3309913 -0.3456437 0
3.3066177 -1.6664529 -0.34562135 0
4.4213104 -2.2282302 -0.34612578 0
6.6345339 -3.3436399 -0.34587625 0
13.260586 -6.6830044 -0.34525597 0
0.78752792 -0.37228265 -0.29430559 0
0.86594599 -0.40935269 -0.29896247 0
0.9302966 -0.4397727 -0.29508081 0
1.0207742 -0.48254359 -0.29552272 0
1.121031 -0.52993727 -0.29389179 0
1.2536126 -0.59261161 -0.2947441 0
1.4120164 -0.66749275 -0.29417366 0
1.62833 -0.76974916 -0.29601371 0
1.897768 -0.89711881 -0.29500049 0
2.6724312 -1.26332 -0.34547612 0
3.3391461 -1.5784914 -0.34474736 0
4.4622149 -2.1093922 -0.34505031 0
6.6949902 -3.1648765 -0.34475392 0
13.425441 -6.3465161 -0.34526774 0
0.80012184 -0.35382035 -0.29558066 0
0.86540431 -0.38268876 -0.29534677 0
0.94023293 -0.41577858 -0.29481009 0
1.0187201 -0.4504863 -0.29154354 0
1.1413788 -0.50472695 -0.29579234 0
1.2629638 -0.55849278 -0.29353508 0
1.4228343 -0.62918878 -0.2930257 0
1.6504929 -0.72986132 -0.29659954 0
1.9270077 -0.8521384 -0.29610819 0
2.6868074 -1.188128 -0.34334868 0
3.3909206 -1.4994925 -0.34607524 0
4.5209236 -1.9991889 -0.34557825 0
6.7844753 -3.00015 -0.34535274 0
13.584727 -6.0072761 -0.34535497 0
0.79844308 -0.32925132 -0.29179773 0
0.88403803 -0.36454782 -0.298471 0
0.95653826 -0.39444453 -0.29670665 0
1.0279536 -0.42389384 -0.29103154 0
1.1390916 -0.46972343 -0.29203427 0
1.2826258 -0.52891213 -0.29490837 0
1.4399201 -0.59377509 -0.29336467 0
1.6676131 -0.68766809 -0.29646271 0
1.9515759 -0.80476487 -0.29666781 0
2.735055 -1.1278456 -0.34576648 0
3.4355557 -1.4167087 -0.34687093 0
4.5746803 -1.8864458 -0.34593779 0
6.8603907 -2.8289967 -0.34547248 0
13.72751 -5.660768 -0.34524277 0
0.81932747 -0.31391719 -0.29644018 0
0.88577461 -0.33937573 -0.29607114 0
0.96929985 -0.37137762 -0.29766288 0
1.0320725 -0.39542836 -0.28928 0
1.1713132 -0.44877699 -0.29729652 0
1.2902735 -0.49435547 -0.29370448 0
1.4625313 -0.56035435 -0.29499605 0
1.6855495 -0.64580154 -0.29665929 0
1.9689327 -0.75437701 -0.29631764 0
2.7523031 -1.0545176 -0.34447265 0
3.4636655 -1.327069 -0.34621707 0
4.6085815 -1.7657323 -0.34502152 0
6.9321666 -2.6559906 -0.3456012 0
13.882524 -5.3189516 -0.34565505 0
0.81567913 -0.28913644 -0.29238674 0
0.88650537 -0.31424245 -0.29357088 0
0.96870673 -0.34338063 -0.29472548 0
1.0683582 -0.37870443 -0.29667696 0
1.1594921 -0.41100898 -0.29157037 0
1.3031266 -0.46192351 -0.29388279 0
1.4707574 -0.52134413 -0.29390761 0
1.6932827 -0.60022348 -0.29526007 0
1.9908285 -0.70569551 -0.29683784 0
2.7768896 -0.9843331 -0.34433079 0
3.4789824 -1.2332063 -0.34452724 0
4.6468372 -1.6471796 -0.34466338 0
6.9990363 -2.4809713 -0.34570312 0
14.015941 -4.968276 -0.34574467 0
0.81957519 -0.26743957 -0.291271 0
0.89832032 -0.29313526 -0.29493952 0
0.97617573 -0.31854066 -0.29445809 0
1.0688751 -0.34878984 -0.29428223 0
1.1751853 -0.38348046 -0.29298952 0
1.3274739 -0.43317443 -0.29681349 0
1.4868944 -0.48519573 -0.2945914 0
1.7034545 -0.55586249 -0.29449362 0
2.0127025 -0.65677476 -0.29753298 0
2.8098171 -0.91688502 -0.34543425 0
3.5080338 -1.1447235 -0.34443337 0
4.694572 -1.5319086 -0.34522626 0
7.0562663 -2.3025646 -0.3455494 0
14.123618 -4.6087465 -0.34542146 0
0.83941734 -0.25066385 -0.2959801 0
0.91274852 -0.27256176 -0.29732335 0
0.97825205 -0.29212219 -0.29276717 0
1.0766459 -0.32150421 -0.29409397 0
1.1882784 -0.35483953 -0.2939274 0
1.3217223 -0.39468804 -0.29320678 0
1.5141395 -0.45214701 -0.29763362 0
1.7306091 -0.51678836 -0.29683864 0
2.3580077 -0.70414001 -0.34584132 0
2.8366704 -0.84707654 -0.34599704 0
3.5432241 -1.0580652 -0.34515661 0
4.7439456 -1.4166204 -0.34611759 0
7.1324153 -2.1298568 -0.34653565 0
14.248861 -4.2549448 -0.34574798 0
0.84856015 -0.23024194 -0.29706028 0
0.92025018 -0.24969378 -0.29761934 0
0.9956038 -0.27013966 -0.29582545 0
1.0808926 -0.29328129 -0.29313868 0
1.2010891 -0.3258945 -0.29496768 0
1.3366849 -0.36268604 -0.29440165 0
1.4993353 -0.40681836 -0.29261205 0
1.7243867 -0.46788216 -0.29365236 0
2.3802862 -0.64584899 -0.34660771 0
2.8564334 -0.77504319 -0.34591147 0
3.575119 -0.97004598 -0.34576854 0
4.7507267 -1.2890265 -0.34412909 0
7.1631165 -1.9435863 -0.34553394 0
14.344546 -3.8921416 -0.34557608 0
0.83668596 -0.20450249 -0.29100385 0
0.92117041 -0.22515216 -0.29598489 0
0.99571735 -0.24337289 -0.29394042 0
1.1060501 -0.27034038 -0.29801607 0
1.2036561 -0.2941972 -0.29368106 0
1.3397206 -0.32745406 -0.29315662 0
1.514768 -0.37023908 -0.29370672 0
1.7333405 -0.42366248 -0.29326284 0
2.3754673 -0.58061087 -0.34366268 0
2.8671219 -0.70078099 -0.34495413 0
3.5853736 -0.8763358 -0.34451145 0
4.8023953 -1.1737999 -0.34561574 0
7.2151909 -1.7635345 -0.34578872 0
14.42525 -3.5258145 -0.34526655 0
0.86846131 -0.18918286 -0.30029917 0
0.92009497 -0.20043057 -0.29392031 0
1.0136795 -0.22081673 -0.29750296 0
1.0964869 -0.23885523 -0.29372147 0
1.2125932 -0.26414746 -0.29414129 0
1.3522382 -0.29456729 -0.29417521 0
1.5448012 -0.33651459 -0.29778838 0
1.7582753 -0.38301712 -0.29575181 0
2.4071844 -0.52437341 -0.3462263 0
2.8938484 -0.63038677 -0.34614524 0
3.6174095 -0.78800499 -0.34556863 0
4.8330412 -1.0528144 -0.34579879 0
7.2429805 -1.5777879 -0.34510213 0
14.532005 -3.165606 -0.3457993 0
0.85544324 -0.16385563 -0.294274 0
0.93115848 -0.17835848 -0.29592225 0
1.0076163 -0.19300357 -0.29420015 0
1.1139627 -0.21337365 -0.29686567 0
1.2156376 -0.23284894 -0.2933608 0
1.3569602 -0.25991854 -0.2936818 0
1.5386441 -0.29471913 -0.29507363 0
1.7596656 -0.33705464 -0.29446098 0
2.4121766 -0.46203965 -0.34515715 0
2.8970714 -0.55491871 -0.3447457 0
3.6274545 -0.69481969 -0.34474319 0
4.852634 -0.92949629 -0.34541214 0
7.2757592 -1.3936331 -0.3448782 0
14.587238 -2.7941084 -0.34532553 0
0.85276556 -0.14113745 -0.29203451 0
0.92714608 -0.15344785 -0.29332289 0
1.0074044 -0.16673106 -0.2928164 0
1.1196785 -0.18531303 -0.29704788 0
1.2129959 -0.20075759 -0.29140776 0
1.3824897 -0.22880976 -0.29786235 0
1.5289831 -0.25305524 -0.29190308 0
1.7622483 -0.29166192 -0.29356784 0
2.4334538 -0.40275016 -0.3466368 0
2.916801 -0.48274681 -0.34553355 0
3.6391194 -0.6022945 -0.34429744 0
4.8707767 -0.80614066 -0.34514537 0
7.3152671 -1.2107174 -0.34519252 0
14.669397 -2.4278669 -0.34570977 0
0.86833501 -0.12129171 -0.29622367 0
0.94778508 -0.13238955 -0.29870027 0
1.011595 -0.1413027 -0.29290456 0
1.1184545 -0.15622915 -0.29558292 0
1.2465827 -0.17412651 -0.29832578 0
1.3687931 -0.19119725 -0.29377812 0
1.5564445 -0.21740897 -0.296004 0
1.7732832 -0.24769767 -0.29427099 0
2.4294567 -0.33935401 -0.34473762 0
2.9411297 -0.41082606 -0.34707677 0
3.6734481 -0.51311857 -0.34620979 0
4.8949847 -0.68374658 -0.34552792 0
7.3601761 -1.028092 -0.3459771 0
14.723332 -2.0566006 -0.34564754 0
0.85961753 -0.098032519 -0.29231262 0
0.93271315 -0.10636849 -0.29301086 0
1.0196992 -0.11628856 -0.29430756 0
1.12289 -0.12805665 -0.2958068 0
1.23562 -0.14091259 -0.29475725 0
1.383094 -0.15773082 -0.29589882 0
1.5482266 -0.17656288 -0.29350016 0
1.7825394 -0.20328438 -0.29486167 0
2.4355066 -0.27775007 -0.34449163 0
2.9390213 -0.33517194 -0.34571958 0
3.6894505 -0.42075238 -0.34660673 0
4.912714 -0.56025583 -0.34567115 0
7.3745823 -0.84101224 -0.34554645 0
14.758892 -1.6831338 -0.34537506 0
0.87321335 -0.077321418 -0.29617795 0
0.93828809 -0.083083659 -0.29400983 0
1.0146277 -0.089843392 -0.29209632 0
1.115369 -0.098763838 -0.2930755 0
1.2411773 -0.10990395 -0.29532722 0
1.3726345 -0.12154423 -0.29291153 0
1.5637083 -0.13846345 -0.29567838 0
1.78283 -0.15786628 -0.294157 0
2.4538405 -0.21728301 -0.34619898 0
2.9492617 -0.26115161 -0.34603861 0
3.682755 -0.32610109 -0.34509462 0
4.9236751 -0.43598223 -0.34555811 0
7.3855176 -0.65397382 -0.34517553 0
14.796088 -1.310166 -0.34536168 0
0.87446457 -0.055238135 -0.2960352 0
0.94382572 -0.059619538 -0.29517952 0
1.0117788 -0.063911997 -0.29071921 0
1.1182714 -0.070638917 -0.29327628 0
1.1294111 -0.071342587 -0.26821956 0
1.382461 -0.087327227 -0.29444435 0
1.5483505 -0.097806126 -0.29221457 0
1.8020202 -0.11382993 -0.29675475 0
2.4611659 -0.15546682 -0.34656852 0
2.9620438 -0.18710624 -0.34687382 0
3.6993711 -0.23368171 -0.34598878 0
4.9318824 -0.31153691 -0.34547225 0
7.4037089 -0.46767715 -0.34536409 0
14.8087 -0.9354353 -0.34499514 0
0.86726081 -0.032841925 -0.29322249 0
0.94573468 -0.035813618 -0.29539979 0
1.0328546 -0.039112724 -0.29639697 0
1.1395972 -0.043154914 -0.29848847 0
1.1334964 -0.042923886 -0.26884687 0
1.3728507 -0.051987886 -0.29202503 0
1.5573785 -0.058975693 -0.29354402 0
1.788583 -0.067731082 -0.29416674 0
2.4502027 -0.092785664 -0.34458521 0
2.9573615 -0.11199104 -0.34588435 0
3.6885037 -0.13967836 -0.34453297 0
4.9422197 -0.18715477 -0.3457554 0
7.4205508 -0.28100565 -0.34570879 0
14.843088 -0.56208652 -0.34535578 0
0.86996824 -0.010976821 -0.29395059 0
0.95097625 -0.011998939 -0.29684785 0
1.0415028 -0.013141159 -0.29868844 0
1.1293442 -0.014249498 -0.29561463 0
1.1325938 -0.014290499 -0.26846173 0
1.1288047 -0.01424269 -0.23996007 0
1.1300293 -0.014258142 -0.21285908 0
1.1325346 -0.014289752 -0.18614841 0
1.1355636 -0.014327971 -0.15959877 0
1.127306 -0.01422378 -0.13176246 0
1.1246003 -0.01418964 -0.10497893 0
1.1367666 -0.014343148 -0.079477027 0
1.130687 -0.01426644 -0.05264293 0
1.119951 -0.014130979 -0.026041435 0
1.1321173 -0.014284486 3.2322696e-05 0
1.1296649 -0.014253543 0.026331844 0
1.1226907 -0.014165546 0.052334882 0
1.12647 -0.01421323 0.078821771 0
1.12591 -0.014206166 0.10516605 0
1.1206911 -0.014140316 0.13105416 0
1.1248084 -0.014192266 0.15815265 0
0.98882377 -0.012476481 0.16258545 0
0.88114548 0.01111785 -0.29772726 0
0.94679779 0.011946218 -0.29554355 0
1.0147665 0.012803813 -0.29102081 0
1.1289668 0.014244736 -0.29551584 0
1.1336352 0.014303639 -0.26870859 0
1.132598 0.014290552 -0.24076645 0
1.1286945 0.0142413 -0.21260765 0
1.1243824 0.014186891 -0.18480846 0
1.1224346 0.014162316 -0.15775354 0
1.1223073 0.014160709 -0.1311782 0
1.1321753 0.014285218 -0.10568605 0
1.1255624 0.014201781 -0.078693688 0
1.131763 0.014280016 -0.052693028 0
1.1300728 0.014258691 -0.02627679 0
1.13877 0.014368426 3.2512635e-05 0
1.1294863 0.014251291 0.026327683 0
1.1329553 0.014295061 0.052813377 0
1.1382376 0.014361709 0.079645187 0
1.138827 0.014369146 0.10637256 0
1.1278644 0.014230824 0.13189301 0
1.1437247 0.014430943 0.16081236 0
1.0150926 0.012807928 0.16690466 0
0.88133508 0.033374898 -0.29798102 0
0.9423998 0.035687331 -0.29435813 0
1.0384949 0.039326318 -0.29801559 0
1.1280372 0.042717155 -0.29546064 0
1.1300007 0.042791508 -0.26801774 0
1.385934 0.052483335 -0.29480806 0
1.5582055 0.059007008 -0.29369989 0
1.7887336 0.067736782 -0.29419151 0
2.4638624 0.093302935 -0.34650624 0
2.9476662 0.1116239 -0.3447504 0
3.7102439 0.14050162 -0.34656367 0
4.9314613 0.18674739 -0.34500274 0
7.4056835 0.28044263 -0.34501615 0
14.829684 0.56157893 -0.34504393 0
0.86619437 0.054715727 -0.29323545 0
0.9428972 0.059560884 -0.29488912 0
1.0318606 0.065180518 -0.29648939 0
1.1065391 0.069897816 -0.2901994 0
1.1306195 0.071418926 -0.26850653 0
1.3773534 0.087004595 -0.29335651 0
1.5637115 0.09877646 -0.29511362 0
1.8041563 0.11396486 -0.2971065 0
2.4499345 0.15475734 -0.34498695 0
2.937726 0.18557015 -0.34402606 0
3.7012029 0.23379742 -0.34616011 0
4.9167838 0.31058317 -0.34441462 0
7.4090219 0.46801275 -0.34561193 0
14.818665 0.93606472 -0.34522727 0
0.87782955 0.077730171 -0.29774368 0
0.94819176 0.083960615 -0.29711312 0
1.0350935 0.091655605 -0.29798812 0
1.1208857 0.099252336 -0.29452509 0
1.1290029 0.099971108 -0.26863629 0
1.3660191 0.12095845 -0.29149988 0
1.5558455 0.13776721 -0.29419163 0
1.7820915 0.15780088 -0.29403514 0
2.4457486 0.21656647 -0.34505731 0
2.945924 0.26085609 -0.34564704 0
3.7006376 0.32768458 -0.34677032 0
4.9194694 0.43560982 -0.34526294 0
7.3890629 0.65428776 -0.34534124 0
14.812224 1.3115948 -0.34573832 0
0.85483199 0.097486764 -0.2906853 0
0.92914718 0.10596181 -0.29189059 0
1.0315249 0.11763717 -0.2977207 0
1.1259257 0.12840284 -0.29660651 0
1.2503501 0.14259245 -0.29827112 0
1.3788995 0.15725248 -0.29500142 0
1.5588404 0.1777733 -0.29551223 0
1.7890913 0.20403159 -0.2959455 0
2.4380462 0.27803972 -0.34485087 0
2.9349787 0.3347109 -0.34524402 0
3.673378 0.41891944 -0.3450968 0
4.9195867 0.56103957 -0.34615475 0
7.3707995 0.84058082 -0.34536922 0
14.762081 1.6834975 -0.34544969 0
0.8831678 0.1233636 -0.30128372 0
0.94229728 0.13162299 -0.29697075 0
1.0113724 0.14127161 -0.29284009 0
1.1202347 0.15647784 -0.29605344 0
1.2344552 0.1724325 -0.29542348 0
1.3611242 0.19012602 -0.29213217 0
1.5611166 0.21806157 -0.29689252 0
1.7898264 0.25000846 -0.29701626 0
2.4345636 0.34006736 -0.34546226 0
2.9264195 0.40877128 -0.34534082 0
3.6758499 0.51345402 -0.34643614 0
4.9044967 0.68507522 -0.34619933 0
7.3542833 1.027269 -0.34570009 0
14.735117 2.0582466 -0.34592417 0
0.86349553 0.14291333 -0.29570904 0
0.92743784 0.15349613 -0.29341519 0
1.0117582 0.16745162 -0.29408187 0
1.1092378 0.18358503 -0.294278 0
1.2098757 0.20024118 -0.29065818 0
1.3604031 0.2251543 -0.29310372 0
1.5365213 0.25430286 -0.29334223 0
1.7861043 0.29561022 -0.29754195 0
2.425096 0.40136692 -0.34544629 0
2.8972838 0.47951663 -0.34322149 0
3.6486611 0.60387373 -0.34520018 0
4.8653574 0.80524379 -0.3447614 0
7.3127055 1.2102935 -0.34507167 0
14.665815 2.4272742 -0.34562537 0
0.8549217 0.16375573 -0.29409462 0
0.94403875 0.18082564 -0.3000156 0
1.0026802 0.19205807 -0.29275891 0
1.1051852 0.21169236 -0.29452652 0
1.1968031 0.2292413 -0.28881562 0
1.3681481 0.26206151 -0.29610315 0
1.4107468 0.27022108 -0.27054611 0
1.4049525 0.26911122 -0.23510358 0
1.4134784 0.27074429 -0.20225392 0
1.4018357 0.26851422 -0.16681564 0
1.4056805 0.26925066 -0.13359196 0
1.3993948 0.26804665 -0.099609397 0
7.2767825 1.3938291 -0.34492669 0
14.590768 2.7947843 -0.3454091 0
0.85344833 0.18591249 -0.29510793 0
0.91875118 0.20013784 -0.29349104 0
1.0120894 0.22047034 -0.29703629 0
1.0959259 0.23873302 -0.2935712 0
1.2170393 0.26511601 -0.29521981 0
1.231867 0.26834598 -0.26798883 0
1.2271379 0.26731583 -0.23655303 0
1.2398494 0.27008486 -0.20854965 0
1.2418609 0.27052304 -0.17861736 0
1.2271338 0.26731491 -0.14678256 0
1.2176627 0.26525179 -0.11632248 0
1.3300234 0.28972808 -0.095161714 0
7.2409797 1.577352 -0.34500682 0
14.506776 3.1601102 -0.34519893 0
0.85161239 0.20815082 -0.29619536 0
0.93152529 0.2276831 -0.29931206 0
1.0065099 0.24601081 -0.29712644 0
1.104036 0.26984811 -0.2974734 0
1.2113999 0.29608995 -0.29557046 0
1.2148613 0.29693598 -0.26583499 0
1.1905519 0.29099429 -0.23084266 0
1.2144017 0.29682365 -0.20546389 0
1.2044574 0.29439306 -0.17425078 0
1.2085608 0.295396 -0.14540645 0
1.2011595 0.293587 -0.11541704 0
1.3168397 0.32186151 -0.094769485 0
7.2093053 1.7620959 -0.34550661 0
14.429559 3.5268679 -0.34536967 0
0.85026467 0.23070444 -0.29765698 0
0.89944136 0.24404767 -0.29088953 0
0.99716508 0.27056327 -0.29628932 0
1.088143 0.29524857 -0.29510501 0
1.2139888 0.32939461 -0.29813564 0
1.2105199 0.32845339 -0.26661411 0
1.2091218 0.32807404 -0.23597364 0
1.2110513 0.32859758 -0.20623453 0
1.2126284 0.32902548 -0.17657806 0
1.2017037 0.32606125 -0.14552522 0
1.2007821 0.32581118 -0.11613394 0
1.2981431 0.3522284 -0.094033778 0
7.160078 1.9427618 -0.34538734 0
14.350914 3.8938692 -0.34572947 0
0.84091127 0.25110996 -0.29650688 0
0.90102291 0.26906028 -0.29350379 0
0.97665554 0.29164544 -0.29228935 0
1.081799 0.32304305 -0.29550159 0
1.1836034 0.35344347 -0.29277098 0
1.2063285 0.36022958 -0.2676082 0
1.1985065 0.35789379 -0.2355898 0
1.2011578 0.35868552 -0.20602576 0
1.2015663 0.35880753 -0.17622983 0
1.2011992 0.35869789 -0.1465138 0
1.2126846 0.3621276 -0.11813143 0
1.295301 0.3867982 -0.09450496 0
7.1045661 2.1215405 -0.34518257 0
14.234119 4.2505426 -0.34539026 0
0.84339041 0.2752108 -0.29973474 0
0.9004516 0.29383072 -0.29563925 0
0.9910866 0.32340628 -0.29895586 0
1.0586766 0.34546191 -0.29147437 0
1.1896034 0.38818529 -0.29658416 0
1.2130063 0.39582199 -0.27121937 0
1.2023633 0.39234897 -0.23821858 0
1.2093357 0.3946242 -0.20907024 0
1.2038547 0.39283568 -0.17796294 0
1.2136664 0.3960374 -0.14920615 0
1.2109307 0.39514467 -0.11889422 0
1.2906499 0.42115822 -0.094910935 0
7.0552511 2.3022332 -0.34549966 0
14.120935 4.6078711 -0.34535587 0
0.8283391 0.29362407 -0.29692483 0
0.89468408 0.31714159 -0.29627931 0
0.98192567 0.34806639 -0.29874727 0
1.0561661 0.37438262 -0.29329127 0
1.1692827 0.41447943 -0.29403234 0
1.2062867 0.42759636 -0.27204332 0
1.2036307 0.42665491 -0.24052659 0
1.1960045 0.42395163 -0.20854896 0
1.2179147 0.4317182 -0.18159433 0
1.1989124 0.4249824 -0.14866363 0
1.2147357 0.43059134 -0.12029654 0
1.282841 0.45473284 -0.095150381 0
6.9941368 2.4792345 -0.34546113 0
14.021221 4.9701481 -0.34587491 0
0.81141275 0.31088474 -0.29357657 0
0.877967 0.33638433 -0.29346144 0
0.96867406 0.37113783 -0.29747072 0
1.0643878 0.40780959 -0.29833764 0
1.1606511 0.44469193 -0.29459032 0
1.2096224 0.46345481 -0.27534589 0
1.1985401 0.45920873 -0.24174839 0
1.2130396 0.46476406 -0.21349682 0
1.1974077 0.45877486 -0.18020576 0
1.2012979 0.46026534 -0.15035199 0
1.2104429 0.46376914 -0.12099205 0
1.2586141 0.48222545 -0.094226152 0
6.9258718 2.653579 -0.34528738 0
13.871534 5.3147402 -0.34538138 0
0.8070569 0.3328034 -0.29494572 0
0.87320656 0.36008129 -0.29481405 0
0.96683532 0.39869067 -0.29990065 0
1.0468394 0.43168169 -0.29637843 0
1.1470037 0.47298613 -0.29406273 0
1.2102499 0.49906674 -0.27826729 0
1.2167281 0.50173813 -0.24789225 0
1.2007132 0.49513409 -0.21345881 0
1.2056895 0.49718618 -0.18328227 0
1.2022508 0.49576819 -0.15198892 0
1.1949663 0.49276429 -0.12064978 0
1.2481023 0.5146758 -0.094381623 0
6.8653216 2.8310301 -0.34572083 0
13.738957 5.6654887 -0.34553066 0
0.78701669 0.34802514 -0.29073936 0
0.87431437 0.38662887 -0.29838762 0
0.92693585 0.40989852 -0.2906408 0
1.0336661 0.4570955 -0.29582086 0
1.1443294 0.50603175 -0.29655704 0
1.2055596 0.53310823 -0.28019336 0
1.2023139 0.53167295 -0.24761061 0
1.1962631 0.52899718 -0.21497278 0
1.2113848 0.53568417 -0.18614402 0
1.1993439 0.53035957 -0.15326485 0
1.2111809 0.53559399 -0.12361237 0
1.2367355 0.54689443 -0.094535746 0
6.7967038 3.0055573 -0.34597519 0
13.596448 6.0124588 -0.34565294 0
0.79394871 0.37531787 -0.29670507 0
0.86077148 0.40690657 -0.29717597 0
0.93824762 0.44353133 -0.2976028 0
1.0122771 0.4785268 -0.29306275 0
1.1298488 0.53410566 -0.29620346 0
1.256135 0.59380406 -0.29533714 0
1.4155939 0.66918391 -0.29491898 0
1.623445 0.76744002 -0.29512569 0
1.905328 0.90069258 -0.29617569 0
2.6698656 1.2621073 -0.34514445 0
3.3501406 1.5836889 -0.34588251 0
4.4613204 2.1089692 -0.34498113 0
6.7056627 3.1699216 -0.34530351 0
13.44213 6.3544054 -0.34569693 0
0.77324319 0.38969529 -0.29254973 0
0.84505337 0.42588583 -0.29536635 0
0.91699815 0.4621442 -0.29446864 0
1.0070633 0.50753474 -0.29516777 0
1.1097506 0.55928665 -0.29454133 0
1.2391529 0.62450218 -0.29495633 0
1.4008727 0.70600492 -0.29547024 0
1.6191528 0.81601268 -0.29799455 0
1.8736913 0.94429374 -0.29486871 0
2.6422968 1.3316518 -0.34581524 0
3.3097117 1.6680121 -0.34594476 0
4.4091024 2.2220778 -0.34517008 0
6.629343 3.3410237 -0.34560561 0
13.27313 6.6893268 -0.34558257 0
0.77135682 0.41347218 -0.29569009 0
0.82637483 0.4429636 -0.29265222 0
0.91318798 0.48949829 -0.29711777 0
0.98892123 0.53009373 -0.29367825 0
1.1007217 0.59002244 -0.29600307 0
1.219602 0.65374613 -0.29413643 0
1.3654865 0.73194486 -0.29181013 0
1.5829018 0.84848654 -0.29517007 0
1.8441626 0.98853076 -0.29405442 0
2.6152632 1.4018657 -0.34679738 0
3.2495718 1.7418755 -0.34414431 0
4.3499498 2.3317139 -0.34503654 0
6.5439348 3.5077605 -0.34565839 0
13.096991 7.0204101 -0.34549984 0
0.77086633 0.43859893 -0.2996501 0
0.82665044 0.47033837 -0.29685923 0
0.90341711 0.51401621 -0.2980648 0
0.98864359 0.56250745 -0.29771709 0
1.0856669 0.61771065 -0.29605281 0
1.1935132 0.67907184 -0.29188502 0
1.2349421 0.70264357 -0.26761684 0
1.2376879 0.70420593 -0.23403642 0
1.8290812 1.0406902 -0.29574364 0
2.5725775 1.4637165 -0.34592566 0
3.2210121 1.8326555 -0.34590808 0
4.3077765 2.4509909 -0.34648776 0
6.4444747 3.6667056 -0.34518316 0
12.911015 7.3459659 -0.34537482 0
0.74015337 0.44621268 -0.29199618 0
0.80441087 0.48495129 -0.2931748 0
0.89016521 0.53664958 -0.29806641 0
0.95679617 0.57681906 -0.29241759 0
1.0632089 0.6409716 -0.29424649 0
1.1088128 0.6684646 -0.27520916 0
1.1579206 0.69806999 -0.25466293 0
1.2333709 0.74355632 -0.23669332 0
1.8063442 1.088982 -0.29641694 0
2.5296323 1.5250273 -0.34521666 0
3.1575155 1.9035562 -0.34413904 0
4.2416034 2.5571151 -0.34624606 0
6.3494234 3.8278461 -0.34515679 0
12.725309 7.6716456 -0.34547663 0
0.73364437 0.46792492 -0.29399383 0
0.80296361 0.51213735 -0.29726362 0
0.87529594 0.55827153 -0.29771075 0
0.94360912 0.60184228 -0.29293641 0
1.0490099 0.66906786 -0.29489639 0
1.1013161 0.70242923 -0.27766031 0
1.1306731 0.72115332 -0.25259289 0
1.1907102 0.75944555 -0.2321109 0
1.7643619 1.1253257 -0.2940948 0
2.500602 1.5949062 -0.34663793 0
3.1285019 1.9953864 -0.34635544 0
4.1563554 2.6509604 -0.34463915 0
6.2507367 3.9867754 -0.34515211 0
12.52892 7.9910564 -0.34551039 0
0.70912945 0.47787955 -0.28891122 0
0.78909516 0.53176808 -0.29700351 0
0.85617971 0.57697618 -0.29606757 0
0.93805063 0.63214862 -0.29606959 0
1.0330721 0.69618326 -0.29526147 0
1.1206577 0.75520682 -0.2872507 0
1.1003368 0.7415126 -0.24991712 0
1.1162127 0.75221139 -0.22121918 0
1.1010207 0.74197352 -0.18658702 0
1.1100028 0.74802643 -0.15643786 0
1.1160566 0.75210613 -0.1256198 0
1.1106104 0.74843597 -0.09362676 0
1.1051987 0.74478906 -0.062044885 0
1.1153276 0.75161481 -0.031270601 0
1.1039521 0.74394894 3.8004437e-05 0
1.1195284 0.75444579 0.031465504 0
1.1103206 0.74824065 0.062409032 0
1.0494996 0.70725363 0.088547602 0
1.0891267 0.73395818 0.1226643 0
1.0830253 0.72984654 0.15271139 0
0.7207092 0.51259148 -0.29880473 0
0.76442581 0.54368412 -0.29278985 0
0.8421725 0.59898007 -0.29635718 0
0.91949898 0.6539771 -0.29532978 0
1.0107148 0.7188527 -0.2939634 0
1.1101576 0.78957969 -0.28957516 0
1.1352212 0.80740571 -0.26238525 0
1.4565873 1.0359716 -0.29376552 0
1.6989921 1.2083777 -0.29299879 0
2.4073789 1.7122051 -0.34526357 0
3.0131261 2.1430318 -0.34512603 0
4.0251174 2.8627925 -0.34530693 0
6.0328598 4.2907634 -0.34464926 0
12.113308 8.6153727 -0.34560901 0
1.0443294 0.74276054 0.089664504 0
1.0421884 0.74123782 0.11944681 0
1.0606824 0.75439131 0.15219721 0
1.0502506 0.74697196 0.18119547 0
1.087289 0.77331477 0.21936342 0
0.70147812 0.52606159 -0.29624197 0
0.74857014 0.56137741 -0.29205066 0
0.82674068 0.62000012 -0.29633898 0
0.8804493 0.66027796 -0.28804836 0
1.0040882 0.75299877 -0.29746887 0
1.1138111 0.8352837 -0.29593289 0
1.2419262 0.93136132 -0.29238811 0
1.4374921 1.0780227 -0.29530773 0
1.6714917 1.2535067 -0.29361871 0
2.3586078 1.7687976 -0.34456176 0
2.966712 2.2248349 -0.34613124 0
3.957675 2.9679909 -0.34583735 0
5.9346728 4.4506068 -0.3453472 0
11.890841 8.9173336 -0.3455731 0
0.99748254 0.74804503 0.058116294 0
0.99099809 0.74318212 0.086668417 0
0.97381556 0.73029637 0.11368679 0
0.96488219 0.72359693 0.14102648 0
