# .PCD v0.7 - Point Cloud Data file format
VERSION 0.7
FIELDS x y z intensity
SIZE 4 4 4 4
TYPE F F F F
COUNT 1 1 1 1
WIDTH 1363
HEIGHT 1
VIEWPOINT 0 0 0 1 0 0 0
POINTS 1363
DATA ascii
-1.9451668 0.51219344 -0.05018425 0
-1.4715772 0.76545352 0.35089639 0
-1.9329464 0.49630296 -0.050071497 0
-1.454689 0.75985628 0.34684691 0
-1.2402858 0.87800759 0.46840078 0
-1.9157857 0.48330456 -0.049763311 0
-1.4602644 0.7418589 0.35138872 0
-1.2345419 0.86997914 0.46775198 0
-1.9032604 0.46784544 -0.049651265 0
-1.4502482 0.73257214 0.35004309 0
-1.2518711 0.84849769 0.48301607 0
-1.8979186 0.44815481 -0.049845718 0
-1.4386638 0.72434485 0.34812367 0
-1.2365764 0.84587765 0.47600594 0
-1.8936321 0.42764646 -0.050096359 0
-1.4291513 0.71500432 0.34704012 0
-1.2493254 0.82625622 0.48852053 0
-1.8882858 0.40759903 -0.050315063 0
-1.4295189 0.69947255 0.34989002 0
-1.2429613 0.81816292 0.48787436 0
-1.8758496 0.39200062 -0.050243847 0
-1.416756 0.69226855 0.34762108 0
-1.2331129 0.81237942 0.40997362 0
-1.2543311 0.79850179 0.49986145 0
-1.8676903 0.37358415 -0.05036442 0
-1.4166757 0.67674416 0.35045311 0
-1.2343662 0.79928774 0.41411614 0
-1.24716 0.7906881 0.49887782 0
-1.842433 0.36686867 -0.049754217 0
-1.4033356 0.67011416 0.34802732 0
-1.2511889 0.77518833 0.3550944 0
-1.2364472 0.78536898 0.41889805 0
-1.2429647 0.78086793 0.50010103 0
-1.8358585 0.34742385 -0.04996001 0
-1.4051317 0.65296942 0.35178778 0
-1.2460399 0.76582474 0.355571 0
-1.2350419 0.77362633 0.42169115 0
-1.2309452 0.77653241 0.49573562 0
-1.8237356 0.33183742 -0.049933396 0
-1.3881419 0.64915508 0.34793887 0
-1.251148 0.74895114 0.36136633 0
-1.2372047 0.75910848 0.42680985 0
-1.2379409 0.7585721 0.50532162 0
-1.8185626 0.31107259 -0.050225079 0
-1.3875691 0.63342321 0.35089394 0
-1.2523341 0.73456872 0.36529797 0
-1.2393074 0.74431175 0.43205315 0
-1.2427673 0.7417239 0.51355863 0
-1.795523 0.30376148 -0.049727138 0
-1.3813547 0.62173808 0.35159409 0
-1.2460607 0.7256096 0.36546817 0
-1.2418226 0.72886348 0.43772453 0
-1.2303915 0.73763967 0.50917178 0
-1.7853733 0.28673685 -0.049814276 0
-1.3691088 0.61473548 0.34980851 0
-1.2607965 0.70008087 0.37677366 0
-1.2427477 0.7143026 0.44256288 0
-1.2447038 0.71276122 0.52493024 0
-1.771921 0.27229953 -0.049760472 0
-1.3618242 0.60389245 0.35016483 0
-1.2550477 0.69022888 0.3774581 0
-1.2451135 0.69826138 0.44849515 0
-1.2463386 0.69727081 0.5314191 0
-1.7634969 0.25373602 -0.049947739 0
-1.3552794 0.59239781 0.35090351 0
-1.2535484 0.67679501 0.38050225 0
-1.2434336 0.68518633 0.45199019 0
-1.2392628 0.68864644 0.53141356 0
-1.7562082 0.23402858 -0.050201155 0
-1.3377194 0.59020203 0.3469007 0
-1.2500261 0.66483742 0.3825708 0
-1.2426683 0.6710996 0.45623136 0
-1.2352438 0.67741859 0.53387249 0
-1.7397366 0.22209692 -0.05003386 0
-1.3386589 0.57225502 0.35103598 0
-1.2427994 0.65594447 0.38270852 0
-1.2319971 0.66537535 0.45405722 0
-1.2380208 0.66011643 0.54181963 0
-1.7208563 0.21247613 -0.049756411 0
-1.3378433 0.55545664 0.35453475 0
-1.2470844 0.63672942 0.38930759 0
-1.2294501 0.65252054 0.45736298 0
-1.2375705 0.64524889 0.5474602 0
-1.7181677 0.18824613 -0.050266434 0
-1.3133579 0.56003487 0.34747711 0
-1.2485079 0.61959499 0.39451009 0
-1.2430556 0.6246025 0.47178963 0
-1.2434456 0.62424427 0.55840951 0
-1.6938925 0.18385029 -0.049738709 0
-1.3099133 0.54552555 0.34992558 0
-1.2523488 0.59974641 0.40127158 0
-1.2428564 0.6086874 0.47713995 0
-1.2428015 0.60873908 0.56439245 0
-1.6918627 0.15847933 -0.050311469 0
-1.3031217 0.53398883 0.35093978 0
-1.2407104 0.59427583 0.39934805 0
-1.2431446 0.59192437 0.48303345 0
-1.2403613 0.5946129 0.56912768 0
-1.6772456 0.14500439 -0.050274827 0
-1.2924042 0.52623004 0.35019591 0
-1.2445652 0.57361948 0.4064697 0
-1.2436298 0.5745461 0.48928732 0
-1.2420462 0.57611483 0.57751334 0
-1.6528735 0.14147151 -0.049749848 0
-1.2838192 0.51638228 0.35049978 0
-1.2470993 0.55368483 0.41305596 0
-1.2398475 0.56105167 0.49273309 0
-1.2409872 0.55989397 0.58388299 0
-1.6488849 0.11723363 -0.05027109 0
-1.3960953 0.38058668 0.049238533 0
-1.4062815 0.36997479 0.137739 0
-1.4033048 0.3730759 0.22630145 0
-1.3971905 0.37944579 0.31539887 0
-1.2669326 0.51514673 0.34687859 0
-1.2368138 0.54652417 0.41221353 0
-1.2456913 0.53727573 0.50330138 0
-1.2400557 0.54314685 0.59061974 0
-1.6238661 0.1149218 -0.04971651 0
-1.3713591 0.38469899 0.048524439 0
-1.3747739 0.38105071 0.13454562 0
-1.3730079 0.38293743 0.22125167 0
-1.3787237 0.37683064 0.31264189 0
-1.2638088 0.49960518 0.3499164 0
-1.2409133 0.52406675 0.42012972 0
-1.2447277 0.5199914 0.50924635 0
-1.2396812 0.525383 0.598113 0
-1.6118942 0.098889582 -0.04984675 0
-1.352055 0.38360292 0.048085392 0
-1.3588148 0.37619603 0.13376462 0
-1.355376 0.37996399 0.21948712 0
-1.3558202 0.37947732 0.30817974 0
-1.2675546 0.47619241 0.35648265 0
-1.241156 0.50511813 0.4259595 0
-1.236465 0.5102582 0.51001668 0
-1.2421119 0.50407076 0.60837352 0
-1.6022342 0.080116384 -0.050113771 0
-1.3375441 0.37758243 0.047898248 0
-1.3463272 0.36771166 0.13354357 0
-1.3409458 0.37375939 0.21857616 0
-1.3411885 0.37348658 0.3068161 0
-1.2504047 0.47551197 0.35283113 0
-1.2430136 0.48381823 0.43302581 0
-1.2386663 0.48870391 0.51876557 0
-1.2429824 0.4838534 0.61762613 0
-1.5850857 0.069683187 -0.049989499 0
-1.3231958 0.3715722 0.047721338 0
-1.3243756 0.37021214 0.13178456 0
-1.3215294 0.37349302 0.21630095 0
-1.3209984 0.37410522 0.30329752 0
-1.2480785 0.45816231 0.35665661 0
-1.2380822 0.46968532 0.43607411 0
-1.2363802 0.47164726 0.52442187 0
-1.237859 0.46994257 0.6218183 0
-1.5717309 0.05489504 -0.050080314 0
-1.3056871 0.36948872 0.04737119 0
-1.2989817 0.37741792 0.12942104 0
-1.3028235 0.37287492 0.21419099 0
-1.3073269 0.36754966 0.30229872 0
-1.2517346 0.43328696 0.36373344 0
-1.2416017 0.44526911 0.4447 0
-1.2354636 0.45252728 0.5313893 0
-1.2337403 0.45456505 0.62715566 0
-1.5614704 0.03624713 -0.050356593 0
-1.2984452 0.35533482 0.047593378 0
-1.2978481 0.35605919 0.13110499 0
-1.3009201 0.35233247 0.21681489 0
-1.2981195 0.35572994 0.30310801 0
-1.2512383 0.41260368 0.36890987 0
-1.2397368 0.42655665 0.45015249 0
-1.2386662 0.42785543 0.54189223 0
-1.2333615 0.43429089 0.63624132 0
-1.5390518 0.032417174 -0.049957447 0
-1.2838144 0.35012442 0.047407959 0
-1.2891562 0.34347528 0.13156433 0
-1.2827607 0.35143602 0.21487308 0
-1.2809956 0.35363317 0.30076528 0
-1.2508228 0.39119077 0.37434825 0
-1.2443037 0.3993054 0.46009755 0
-1.2463738 0.39672875 0.55640614 0
-1.2353899 0.41040093 0.64798987 0
-1.5266403 0.016255969 -0.050134186 0
-1.2816391 0.32921219 0.04794468 0
-1.2846186 0.32540625 0.13278282 0
-1.284778 0.32520258 0.21880616 0
-1.2819369 0.32883179 0.30587238 0
-1.2486204 0.37138915 0.37905473 0
-1.2440894 0.37717694 0.46722105 0
-1.2398086 0.38264513 0.55988622 0
-1.2438843 0.37743884 0.66643661 0
-1.5087146 0.0071133324 -0.050001137 0
-1.2719213 0.31756037 0.048061699 0
-1.2698743 0.32024401 0.1322529 0
-1.2702413 0.319763 0.21797933 0
-1.2720376 0.31740773 0.30663437 0
-1.2528765 0.34252888 0.38751823 0
-1.2389973 0.36072516 0.47132185 0
-1.239278 0.36035722 0.56854802 0
-1.2421308 0.35661715 0.6755718 0
-1.4957258 -0.0085214432 -0.050168175 0
-1.2749861 0.2885626 0.048954606 0
-1.2690046 0.29661286 0.13422565 0
-1.2734402 0.29064316 0.22252208 0
-1.2731841 0.29098785 0.31219548 0
-1.2532679 0.31779224 0.39417151 0
-1.2378047 0.3386035 0.47834235 0
-1.23972 0.33602577 0.57840717 0
-1.2404855 0.33499539 0.68522936 0
-1.4748157 -0.013416415 -0.049867649 0
-1.2777947 0.25884056 0.049869623 0
-1.2830232 0.25161564 0.13901635 0
-1.2793936 0.25663126 0.22810367 0
-1.2814065 0.25384963 0.32107711 0
-1.2514749 0.2952112 0.39987716 0
-1.234265 0.31899303 0.48402348 0
-1.2387319 0.31282032 0.58747798 0
-1.2368488 0.31542248 0.69331479 0
-1.4595276 -0.025927311 -0.049913947 0
-1.1695462 0.38560116 0.043940738 0
-1.1734076 0.38012141 0.12093098 0
-1.1742198 0.3789686 0.19912481 0
-1.328897 0.1594578 0.34771729 0
-1.2424825 0.28209335 0.40169021 0
-1.2414821 0.28351295 0.49771509 0
-1.2366515 0.29036844 0.59601516 0
-1.4389385 -0.030773645 -0.049636394 0
-1.1543928 0.38403666 0.043677766 0
-1.1575923 0.37937248 0.1200268 0
-1.1517835 0.38784045 0.19550115 0
-1.3079293 0.16021144 0.34450558 0
-1.245425 0.25133002 0.41065255 0
-1.2383142 0.26169616 0.50438297 0
-1.2397704 0.25957328 0.60955709 0
-1.4340614 -0.058807854 -0.050367709 0
-1.1378371 0.38490283 0.043320879 0
-1.1414373 0.3795101 0.11904148 0
-1.1441284 0.37547904 0.19657372 0
-1.3004571 0.14131629 0.34742957 0
-1.2395935 0.23248315 0.41475815 0
-1.2387418 0.23375905 0.51406187 0
-1.2442176 0.22555673 0.62489992 0
-1.4178157 -0.070292599 -0.050391153 0
-1.1275361 0.376598 0.043366235 0
-1.1231613 0.38333303 0.11761808 0
-1.1254317 0.37983775 0.19406261 0
-1.2789069 0.14355981 0.34392753 0
-1.2476039 0.1917516 0.42754158 0
-1.234484 0.21194994 0.52063382 0
-1.2413888 0.20131969 0.63424957 0
-1.3990242 -0.077784784 -0.050254479 0
-1.1123567 0.37595087 0.043093354 0
-1.1123744 0.37592286 0.11766329 0
-1.1096386 0.38025308 0.19246306 0
-1.2721434 0.1230415 0.34740463 0
-1.2383314 0.17655873 0.43013364 0
-1.2415736 0.17142725 0.53634495 0
-1.2416779 0.17126215 0.64699113 0
-1.3840181 -0.091260441 -0.050379522 0
-1.0927004 0.38295507 0.042510021 0
-1.0938106 0.38114792 0.1161317 0
-1.0955619 0.37829715 0.19141997 0
-1.2515434 0.12438571 0.34433433 0
-1.2410691 0.1414361 0.44053322 0
-1.2391644 0.14453673 0.54526734 0
-1.240301 0.14268649 0.65876216 0
-1.3585818 -0.087446578 -0.049792591 0
-1.0832741 0.37362522 0.042620584 0
-1.0818114 0.37607473 0.11592998 0
-1.0860839 0.36891955 0.19198103 0
-1.2546277 0.086650722 0.35297692 0
-1.2413659 0.10886084 0.44985443 0
-1.2471552 0.099165075 0.56304973 0
-1.2409058 0.10963141 0.67306554 0
-1.3436747 -0.100963 -0.049938496 0
-1.0610962 0.38611567 0.041834641 0
-1.0665131 0.37677878 0.11503078 0
-1.061545 0.385342 0.18718363 0
-1.248673 0.062790744 0.35745251 0
-1.234987 0.08638119 0.45522332 0
-1.2404848 0.076904528 0.56959194 0
-1.2377957 0.081539862 0.68438929 0
-1.3293649 -0.1157558 -0.050143395 0
-1.0526713 0.37532234 0.042019866 0
-1.0402198 0.39742142 0.11170227 0
-1.0536339 0.37361389 0.18831167 0
-1.246048 0.032115813 0.36391422 0
-1.2393235 0.044050451 0.46816552 0
-1.2375915 0.047124501 0.57970136 0
-1.3071901 -0.11647678 -0.049781624 0
-1.0348221 0.38148278 0.04151826 0
-1.0295812 0.39106447 0.11174462 0
-1.0288 0.39249265 0.18316084 0
-1.2475514 -0.0074417642 0.37292436 0
-1.2408377 0.0048326203 0.47981772 0
-1.2401925 0.0060121962 0.59510666 0
-1.2926391 -0.1310252 -0.049992461 0
-1.0249016 0.37345392 0.0416026 0
-1.0201703 0.38236874 0.11208759 0
-1.0168132 0.38869458 0.18273841 0
-1.2444909 -0.040302757 0.37993482 0
-1.2386738 -0.029342061 0.48948565 0
-1.2405998 -0.032971028 0.60939604 0
-1.2820308 -0.15356576 -0.050530221 0
-1.0041856 0.38626587 0.040854622 0
-1.0039467 0.38673007 0.11086452 0
-1.0047415 0.3851856 0.18229078 0
-1.2401099 -0.072116621 0.3866106 0
-1.2446319 -0.080902584 0.50560665 0
-1.2432331 -0.07818497 0.62649208 0
-1.2517701 -0.13756871 -0.049532417 0
-0.99106377 0.38503206 0.040682152 0
-0.99668074 0.3737725 0.11175372 0
-0.99487311 0.37739599 0.18273941 0
-1.2384114 -0.11079038 0.39521623 0
-1.2427477 -0.11948276 0.51677275 0
-1.2382858 -0.11053861 0.63751531 0
-1.2419817 -0.16232646 -0.0501718 0
-0.97674376 0.38655287 0.040408079 0
-0.97358292 0.39309394 0.10879569 0
-0.97598368 0.38812572 0.17950083 0
-1.2408855 -0.1600579 0.40677759 0
-1.2439237 -0.166345 0.53094023 0
-1.2210826 -0.16440451 -0.049918398 0
-0.96509087 0.38282394 0.040349655 0
-0.96873707 0.3750295 0.11032534 0
-0.96587628 0.38114506 0.17985505 0
-1.2433363 -0.21197605 0.41900885 0
-1.241457 -0.20795834 0.54309112 0
-1.2049882 -0.17667413 -0.050076149 0
-0.94972658 0.38739163 0.039972216 0
-0.95340645 0.37925994 0.1092236 0
-0.95309669 0.37994456 0.17908828 0
-1.24079 -0.25578725 0.42889169 0
-1.2426275 -0.25984752 0.55893683 0
-1.1873977 -0.18580902 -0.050118797 0
-0.93814927 0.38396192 0.03991605 0
-0.93911242 0.38176012 0.10835357 0
-0.94015396 0.37937921 0.17823246 0
-1.2439418 -0.31506622 0.44303662 0
-1.2352109 -0.29510772 0.56865156 0
-1.1712128 -0.19835579 -0.050302066 0
-0.92449939 0.38553411 0.039671984 0
-0.92740011 0.37866908 0.10816155 0
-0.92360502 0.38765079 0.17568304 0
-1.2359513 -0.35157049 0.45078751 0
-1.1432815 -0.18244708 -0.049395163 0
-0.91234201 0.38389724 0.039559543 0
-0.91541421 0.37636304 0.10789656 0
-0.91229188 0.38402015 0.17550549 0
-1.2443035 -0.43018806 0.47012994 0
-1.1298802 -0.2017554 -0.049857236 0
-0.89730221 0.38980329 0.039164186 0
-0.89757961 0.38909763 0.1059135 0
-0.89671248 0.39130324 0.17324157 0
-1.2392863 -0.48002827 0.48145884 0
-1.1092889 -0.20300663 -0.049634237 0
-0.89002687 0.3759883 0.039530817 0
-0.89293814 0.36830056 0.10781911 0
-0.88758731 0.38243026 0.174142 0
-1.2416052 -0.55240798 0.49890018 0
-1.0932239 -0.21623003 -0.049877044 0
-0.87715757 0.37676495 0.039344814 0
-0.87376523 0.38607532 0.10531083 0
-0.87768131 0.37532759 0.17472062 0
-1.073567 -0.21972346 -0.049758393 0
-0.86377764 0.37939143 0.039095804 0
-0.86738938 0.36907703 0.10680064 0
-0.85988653 0.39050359 0.17106342 0
-1.0548806 -0.22585106 -0.049748808 0
-0.85508704 0.36861056 0.039359171 0
-0.85173619 0.37858069 0.10528859 0
-0.85201979 0.37773687 0.17278084 0
-1.0383639 -0.23870265 -0.050000302 0
-0.83887583 0.38056409 0.03877287 0
-0.8342638 0.39488107 0.10303755 0
-0.83888137 0.38054687 0.17155872 0
-1.0162711 -0.23407972 -0.049605772 0
-0.82615751 0.38258517 0.038567547 0
-0.82599038 0.38312733 0.10397501 0
-0.82395768 0.38972068 0.16917162 0
-1.0013597 -0.25286317 -0.05009421 0
-0.81350285 0.38489634 0.038358159 0
-0.81206459 0.38977915 0.10285864 0
-0.81474233 0.38068843 0.17025165 0
-0.98328787 -0.26168203 -0.050218381 0
-0.80309749 0.37973988 0.03843236 0
-0.80051875 0.38891947 0.10260433 0
-0.80288321 0.38050264 0.16969244 0
-0.96232355 -0.26003432 -0.049963765 0
-0.79317385 0.37257236 0.10408995 0
-0.78890967 0.38852 0.16763166 0
-0.94237959 -0.26168787 -0.049841292 0
-0.77950847 0.37969345 0.10297897 0
-0.77897137 0.38180834 0.16835089 0
-0.92421061 -0.27036345 -0.049986284 0
-0.76685345 0.3837198 0.10223246 0
-0.76793855 0.37920952 0.16832832 0
-0.90680474 -0.28287196 -0.050279576 0
-0.75610304 0.38014811 0.16767728 0
-0.88491845 -0.27545607 -0.049852647 0
-0.74375796 0.38389242 0.16653804 0
-0.86645573 -0.28356397 -0.050002147 0
-0.7325725 0.38266468 0.16634496 0
-0.84642822 -0.28393137 -0.049878564 0
-0.72221231 0.37718105 0.16695918 0
-0.82960331 -0.30212402 -0.05041045 0
-0.80916262 -0.30035424 -0.050226953 0
-0.78946364 -0.30270457 -0.050201822 0
-0.76724583 -0.28645217 -0.0495154 0
-0.74825436 -0.29241943 -0.049639411 0
-0.73010015 -0.30677915 -0.050073285 0
-0.70881814 -0.29236162 -0.049482539 0
-0.6900478 -0.30255294 -0.049783785 0
-0.67037612 -0.30329633 -0.049755033 0
-0.65085357 -0.30624402 -0.049813997 0
-0.63082683 -0.29946756 -0.049534172 0
-0.61167705 -0.31239772 -0.049967445 0
-0.59184557 -0.30840528 -0.049804911 0
-0.57217795 -0.30995834 -0.049849302 0
-0.55245173 -0.31918776 -0.050176591 0
-0.532628 -0.3197453 -0.050203182 0
-0.51298702 -0.31308258 -0.049980819 0
-0.49276662 -0.32432687 -0.050407011 0
-0.47332311 -0.31538892 -0.050121032 0
-0.45332193 -0.31788051 -0.050252512 0
-0.49569038 0.32209301 0.039354619 0
-0.43511835 -0.29635847 -0.049533159 0
-0.48444512 0.32912874 0.039133128 0
-0.41457587 -0.30591691 -0.049935441 0
-0.47468024 0.35064244 0.038397416 0
-0.39440179 -0.30917537 -0.050121401 0
-0.46181291 0.33741152 0.038912296 0
-0.37583518 -0.29753959 -0.049781382 0
-0.44749832 0.31495214 0.039765473 0
-0.44179183 0.26617968 0.11291933 0
-0.44157898 0.26436067 0.18575606 0
-0.44261917 0.27325082 0.25801003 0
-0.44193995 0.26744556 0.33656761 0
-0.44214177 0.26917052 0.41667038 0
-0.35502559 -0.30502486 -0.050137591 0
-0.4339228 0.30287707 0.040252686 0
-0.42983827 0.27140594 0.1125192 0
-0.42894894 0.26455355 0.18600048 0
-0.43096697 0.28010255 0.25663912 0
-0.42786798 0.25622487 0.34084597 0
-0.42896742 0.26469582 0.41917714 0
-0.43033642 0.27524394 0.49998048 0
-0.33680883 -0.29252732 -0.049783252 0
-0.42023474 0.29246056 0.040687121 0
-0.41913092 0.28472048 0.11125664 0
-0.41965082 0.28836614 0.18197142 0
-0.42041707 0.29373896 0.253555 0
-0.4201633 0.29195952 0.32941172 0
-0.41923571 0.28545529 0.41120419 0
-0.41972584 0.28889209 0.49393055 0
-0.31701428 -0.29178381 -0.04986117 0
-0.40635279 0.28280395 0.041101176 0
-0.40572792 0.27878511 0.1120999 0
-0.40700534 0.28700083 0.18255115 0
-0.4072836 0.28879052 0.25529769 0
-0.40629068 0.28240442 0.33323634 0
-0.40535367 0.27637804 0.41576883 0
-0.40690619 0.28636324 0.49612758 0
-0.29765257 -0.28812027 -0.049842559 0
-0.39058647 0.2637282 0.041863441 0
-0.39124009 0.26760948 0.11353442 0
-0.39101365 0.26626492 0.18670388 0
-0.39159176 0.26969767 0.26074636 0
-0.3903437 0.26228654 0.34069163 0
-0.39028907 0.26196229 0.42265788 0
-0.39645839 0.2985962 0.49092117 0
-0.27780962 -0.287166 -0.049931046 0
0.069984876 -2.2046406 0.13150433 0
-0.38498658 0.30372614 0.48938161 0
-0.25951153 -0.27792227 -0.049727336 0
0.11387231 -2.1984453 0.13157628 0
-0.37531137 0.31770116 0.48340338 0
-0.2390009 -0.2800324 -0.049945466 0
0.1603625 -2.2045078 0.1321155 0
-0.36575136 0.33076 0.4779399 0
-0.22189896 -0.2659682 -0.049582295 0
0.20561679 -2.2031729 0.13240713 0
-0.3563664 0.34334487 0.47276565 0
-0.20241217 -0.26320946 -0.049640454 0
0.24982734 -2.1964419 0.13252264 0
-0.34755445 0.35724419 0.46696132 0
-0.18288945 -0.26041245 -0.049706396 0
0.29934159 -2.2107925 0.13343428 0
-0.0056949048 -0.97707462 0.25302786 0
-0.002900162 -0.98837805 0.42264763 0
-0.33748448 0.36484617 0.46444175 0
-0.163179 -0.25813878 -0.049800921 0
0.34203306 -2.1963904 0.13331105 0
-0.32876998 0.37715286 0.45954672 0
-0.14206432 -0.26072335 -0.050084792 0
0.38895509 -2.1977217 0.13378969 0
-0.3175039 0.37922728 0.46000013 0
-0.12244312 -0.25738192 -0.050159398 0
-0.30022031 0.36047715 0.47137097 0
-0.10653446 -0.2415303 -0.049777009 0
-0.30368841 0.41256386 0.44588107 0
-0.08659602 -0.2393502 -0.049912348 0
-0.29375172 0.41786176 0.44481266 0
-0.066766419 -0.23652387 -0.050033379 0
-0.28447908 0.4250111 0.44283041 0
-0.052261032 -0.21790767 -0.049568359 0
-0.26235184 0.39439416 0.46087855 0
-0.030425945 -0.22077405 -0.049922582 0
-0.0071698814 -0.22673893 -0.050406922 0
0.0031749222 -0.19828987 -0.049587861 0
0.02892377 -0.20985293 -0.050308425 0
0.047867976 -0.20369112 -0.050360098 0
0.063480519 -0.18968046 -0.050116286 0
0.079798959 -0.17767155 -0.049956981 0
-0.18974759 0.42808044 0.3804332 0
0.099530898 -0.17334211 -0.050106607 0
0.11699107 -0.16398203 -0.050068054 0
-0.16191892 0.42258406 0.38731748 0
-0.20405386 0.51119661 0.49399349 0
0.13327374 -0.15227842 -0.04994477 0
0.55723017 -1.0156832 0.46208391 0
-0.16138564 0.44780761 0.37801027 0
-0.19385193 0.51392657 0.49516827 0
0.15361352 -0.14876628 -0.050156731 0
0.58749694 -1.0049672 0.46279129 0
-0.14876474 0.44792986 0.38029769 0
-0.19084521 0.53096914 0.48691997 0
0.16766812 -0.13289988 -0.049882695 0
0.61348265 -0.98583698 0.46186832 0
-0.13871948 0.45328408 0.38022995 0
-0.17934145 0.53100246 0.49002454 0
0.18667264 -0.12662089 -0.050002757 0
0.64735121 -0.98159742 0.46405643 0
-0.12552775 0.45279396 0.38296974 0
-0.170608 0.53645867 0.4895944 0
0.20217772 -0.11385763 -0.049868621 0
0.67949682 -0.97361445 0.4655754 0
-0.11238105 0.45273185 0.38560444 0
-0.1585726 0.53593296 0.49329314 0
0.22354467 -0.11153091 -0.05017072 0
0.72534949 -0.98916698 0.47207859 0
-0.08086703 0.42087263 0.40350202 0
-0.15515165 0.55079335 0.48661089 0
0.23900892 -0.098749645 -0.050053071 0
0.76093453 -0.9854753 0.47472325 0
-0.058937289 0.40744621 0.41286698 0
-0.14973678 0.56171 0.48262239 0
0.25469181 -0.086483486 -0.049964122 0
0.8017047 -0.98962188 0.47913498 0
-0.060588606 0.4340561 0.40305683 0
-0.1328976 0.55344087 0.49195278 0
0.2713888 -0.075957544 -0.049955949 0
0.84357399 -0.99435759 0.48381531 0
-0.13053648 0.56916243 0.48474127 0
0.28822479 -0.065653689 -0.049966 0
0.88464969 -0.99663329 0.48811918 0
-0.12331326 0.57672995 0.48323518 0
0.31111369 -0.064522512 -0.050377276 0
0.91532832 -0.98201919 0.48892283 0
0.025262555 0.36954099 0.44463208 0
-0.11349878 0.58024931 0.48465547 0
0.31792131 -0.039105657 -0.049757525 0
0.95319504 -0.97781658 0.49208438 0
0.031993531 0.38339502 0.44140878 0
-0.10756353 0.58961123 0.48199221 0
0.33842769 -0.034151796 -0.050025817 0
0.045581125 0.38704753 0.44334409 0
-0.10384483 0.6019659 0.47719762 0
0.35232553 -0.019612914 -0.049887314 0
0.05426427 0.39777404 0.4417845 0
-0.096028514 0.608235 0.47682855 0
0.37254801 -0.013858682 -0.050144155 0
0.072465919 0.39536345 0.44701126 0
-0.094277658 0.62275171 0.47046268 0
0.38769719 -0.0010592989 -0.050099928 0
0.095918976 0.38650936 0.4557454 0
-0.080123492 0.62034637 0.47661415 0
0.40278354 0.011775488 -0.050062239 0
0.10190567 0.40113014 0.45243537 0
-0.074997403 0.63005364 0.47388047 0
0.41906485 0.0230658 -0.050103165 0
0.11986216 0.40033734 0.45727691 0
-0.064282067 0.63252902 0.47664183 0
0.43850759 0.030522102 -0.050330378 0
-0.063635446 0.64756531 0.46993014 0
0.44485661 0.053915497 -0.049830098 0
-0.056858994 0.65481776 0.46916747 0
0.46518525 0.060450193 -0.050120611 0
0.48179159 0.071536772 -0.050210133 0
-0.038467921 0.66368061 0.47227094 0
0.49528179 0.086180203 -0.050139729 0
-0.034422614 0.67397934 0.46930286 0
0.51240438 0.096824877 -0.050271112 0
-0.024462858 0.67769551 0.47165674 0
0.51110286 0.12704647 -0.049451616 0
-0.018256763 0.68551946 0.47078425 0
0.53553277 0.1299721 -0.049980249 0
-0.0087519074 0.68989879 0.47281408 0
0.55558592 0.13782096 -0.050282799 0
-0.0041059642 0.69927675 0.47078344 0
0.55873555 0.16250777 -0.049742408 0
0.0045008273 0.70466173 0.47216222 0
0.57347065 0.17562115 -0.04979552 0
0.19615646 0.53552657 0.35246935 0
0.0098760342 0.71321225 0.47093195 0
0.60085243 0.17702746 -0.05047271 0
0.19785859 0.55185103 0.34915775 0
0.0099753952 0.72660071 0.46553069 0
0.61623377 0.18996584 -0.050564703 0
0.19870599 0.56861496 0.34559271 0
0.016524753 0.73383218 0.46549046 0
0.61736363 0.21559596 -0.049984325 0
0.83735079 0.021084661 0.072467923 0
0.21707483 0.56952912 0.34994254 0
0.031825565 0.73332548 0.47245097 0
0.63442892 0.22695351 -0.050176613 0
0.83487636 0.054166909 0.071624607 0
0.23552538 0.5708102 0.35428643 0
0.035534464 0.74320328 0.47025526 0
0.64820224 0.2412585 -0.050220072 0
0.27045187 0.55867881 0.36575139 0
0.2699891 0.55906767 0.45345822 0
0.65744835 0.25931501 -0.050062526 0
0.83625156 0.11286937 0.070313841 0
0.30338082 0.549308 0.37617368 0
0.2484016 0.59433776 0.43725502 0
0.049992345 0.75684148 0.47161648 0
0.66622728 0.27760631 -0.049895652 0
0.26934543 0.59440082 0.35793558 0
0.25069341 0.60928899 0.43410066 0
0.059791707 0.76166832 0.47433573 0
0.68531209 0.28773659 -0.050207 0
0.25373837 0.62341398 0.43147129 0
0.061381064 0.77302915 0.47090614 0
0.68670398 0.31155378 -0.049728598 0
0.26176479 0.63356602 0.43154761 0
0.062570833 0.78451204 0.46731871 0
0.71138996 0.31776088 -0.050301645 0
0.2942594 0.62566525 0.44428098 0
0.071419559 0.7901541 0.46951705 0
0.71480173 0.33976316 -0.049937576 0
0.086171232 0.79166955 0.4760592 0
0.72669929 0.3555162 -0.049958628 0
0.095171176 0.79755193 0.47839418 0
0.73240203 0.37551188 -0.049720485 0
0.10888495 0.80034441 0.48414537 0
0.74407774 0.3913492 -0.049751014 0
0.91658193 0.27696735 0.069140479 0
0.83849126 0.32874668 0.4333154 0
0.1165311 0.80745506 0.48555627 0
0.75799829 0.4057678 -0.049885176 0
0.95524424 0.2785266 0.070265196 0
0.83823007 0.35401118 0.18448842 0
0.84100312 0.35222232 0.30612397 0
0.8404488 0.35257989 0.43040499 0
0.12664612 0.81304628 0.48876163 0
0.765724 0.42418844 -0.049764875 0
0.98828524 0.28455341 0.071144968 0
0.84667581 0.37339926 0.18413576 0
0.83658248 0.37973183 0.30278811 0
0.83514994 0.38063055 0.4254227 0
0.13101305 0.82240641 0.48796701 0
0.78967732 0.43261468 -0.050333858 0
1.0360247 0.28234547 0.072635882 0
0.83096725 0.40742826 0.180776 0
0.85029525 0.39563841 0.30338198 0
0.84190756 0.40075481 0.42418757 0
0.13608111 0.83130127 0.4877477 0
0.79213613 0.45425397 -0.050010931 0
1.0708985 0.28899157 0.073580578 0
0.823654 0.43556875 0.17854382 0
0.83673841 0.4278118 0.29829624 0
0.85158831 0.41900814 0.42390412 0
0.13344134 0.84475672 0.48229349 0
0.80342132 0.47055048 -0.050065245 0
0.85239035 0.44234663 0.18084274 0
0.83527356 0.45220506 0.29584849 0
0.83874887 0.45020354 0.41706017 0
0.13698806 0.85438365 0.48122901 0
0.80526191 0.49217683 -0.049741264 0
0.84847254 0.468009 0.17911516 0
0.84156066 0.47187489 0.29508346 0
0.83651119 0.47469902 0.41347861 0
0.15229644 0.85738236 0.48824671 0
0.81805378 0.50760144 -0.049875468 0
0.8510384 0.48969448 0.17823187 0
0.8378126 0.49687463 0.29231536 0
0.8430205 0.49404734 0.41255066 0
0.8353011 0.52078992 -0.050196424 0
0.84117573 0.51769578 0.17587805 0
0.84238654 0.51705807 0.2913262 0
0.83578998 0.52053243 0.40773731 0
0.83305556 0.54419136 -0.049740579 0
0.84392697 0.53863913 0.17510419 0
0.82684892 0.5473612 0.28632233 0
0.84861606 0.53624433 0.40879652 0
0.83691078 0.54222244 0.52687705 0
0.85244054 0.55653173 -0.050160989 0
0.85568982 0.55492353 0.17544745 0
0.83652478 0.56440914 0.28650022 0
0.84648234 0.55948073 0.40564698 0
0.83841842 0.56347185 0.52414936 0
0.85634059 0.57662731 -0.049971972 0
0.8700189 0.57007051 0.17611898 0
0.83210832 0.58824331 0.28390169 0
0.84192163 0.58353925 0.40191275 0
0.83331829 0.58766329 0.51909924 0
0.8658182 0.59399158 -0.050013557 0
0.8962422 0.57987583 0.17821845 0
0.84643763 0.60298353 0.28510505 0
0.83312398 0.60916066 0.3970941 0
0.83898383 0.60644186 0.51813895 0
0.87045032 0.61356586 -0.049873881 0
0.92849034 0.58752018 0.18103035 0
0.83788782 0.62817836 0.2818158 0
0.83816403 0.62805444 0.39626271 0
0.84119362 0.62669492 0.5160104 0
0.88084966 0.63053483 -0.049969014 0
0.9695341 0.59207147 0.18486857 0
0.8396731 0.64839351 0.28063866 0
0.83710259 0.64950842 0.39380538 0
0.8384369 0.64892972 0.51218516 0
0.88496393 0.65021235 -0.049828667 0
1.0041195 0.60030633 0.18794082 0
0.84508854 0.66691339 0.28022745 0
0.83720499 0.67021519 0.39175788 0
0.84386259 0.66742682 0.51143265 0
0.89638966 0.66683179 -0.049980137 0
1.0312991 0.61231393 0.19015111 0
0.83114642 0.69319707 0.2760984 0
0.84740359 0.68662745 0.39257088 0
0.83841616 0.69025934 0.50686646 0
0.89749843 0.6875881 -0.049743615 0
1.0717452 0.61971331 0.19389816 0
0.83907443 0.71034616 0.27628669 0
0.83405191 0.71230263 0.38698846 0
0.84158963 0.70936644 0.50550324 0
0.26058778 0.93568569 0.44523042 0
0.90691823 0.70505208 -0.049835101 0
0.85555929 0.72431684 0.278164 0
0.84254903 0.72919703 0.38747424 0
0.8363592 0.73151881 0.50124598 0
0.2784932 0.94077474 0.45268947 0
0.91139907 0.72437 -0.049747083 0
0.84568554 0.74807972 0.27501291 0
0.84016424 0.75007182 0.38506415 0
0.83818668 0.75078535 0.49960321 0
0.25467125 0.96132022 0.43795356 0
0.91130298 0.74521202 -0.049495719 0
0.85056573 0.76626581 0.27474895 0
0.8399815 0.76993465 0.38333032 0
0.83778185 0.77069712 0.49726719 0
0.83351237 0.7721771 0.6155082 0
0.27058122 0.96731001 0.44445914 0
0.92908794 0.75992334 -0.049928062 0
0.85032779 0.78611845 0.27355698 0
0.83836073 0.79009861 0.38128442 0
0.84123164 0.78914374 0.49638048 0
0.83945769 0.78973377 0.61550152 0
0.2913442 0.97203261 0.4535363 0
0.9336881 0.77915955 -0.04987159 0
0.85467869 0.8043372 0.27328578 0
0.83099276 0.81188512 0.37777597 0
0.84291905 0.80808461 0.4949632 0
0.82913715 0.8124764 0.60852289 0
0.31626597 0.97591126 0.46479228 0
0.94502717 0.79630303 -0.050075915 0
0.84891325 0.82560343 0.2711516 0
0.844724 0.82688051 0.37998191 0
0.83474427 0.82992285 0.4902043 0
0.83479446 0.82990754 0.60861111 0
0.31597367 0.98807061 0.46284199 0
0.94390684 0.8172273 -0.049824245 0
0.8632682 0.84070456 0.27285498 0
0.83579761 0.84870237 0.37620932 0
0.83496588 0.84894449 0.48846772 0
0.84066898 0.84728408 0.60888755 0
0.33436003 0.99469149 0.47071245 0
0.95085663 0.83573091 -0.049882244 0
0.8866269 0.85355669 0.27627325 0
0.83776397 0.8671177 0.37540695 0
0.84050447 0.86635709 0.48865581 0
0.84812158 0.86424309 0.60993522 0
0.31748739 1.0115108 0.46029055 0
0.956191 0.85470653 -0.049889013 0
0.92206925 0.86371523 0.28196436 0
0.83848923 0.88578176 0.37434104 0
0.83362383 0.8870663 0.48464549 0
0.82886547 0.88832259 0.59963375 0
0.32306549 1.0218621 0.46163091 0
0.96179801 0.873622 -0.049914606 0
0.9567284 0.87489241 0.28751576 0
0.84898776 0.90189129 0.37591097 0
0.83784956 0.9046824 0.48454663 0
0.84354824 0.90325439 0.60398084 0
0.32854018 1.032311 0.46298108 0
0.95897084 0.89456022 -0.049639404 0
0.98485297 0.88841969 0.2918655 0
0.84657866 0.92122531 0.37414491 0
0.83376974 0.92426425 0.48168415 0
0.83443409 0.92410666 0.59826881 0
0.3331233 1.0430429 0.46393648 0
0.97818238 0.91036636 -0.050180946 0
1.017967 0.90145504 0.29715666 0
0.83764619 0.94184488 0.37074202 0
0.82963592 0.9436391 0.47889546 0
0.8347556 0.94249237 0.59668791 0
0.33719507 1.0539405 0.46469641 0
0.98320884 0.92955625 -0.05021077 0
1.0420861 0.91714478 0.30080622 0
0.84037513 0.95966589 0.37045652 0
0.84081858 0.95957237 0.48140499 0
0.84297544 0.95911771 0.59855133 0
0.35489318 1.0620066 0.47249228 0
0.98371226 0.94966489 -0.050084718 0
1.0779805 0.93102944 0.30664784 0
0.84958857 0.97617918 0.37191659 0
0.83525938 0.97901183 0.47829863 0
0.83311743 0.97943527 0.59286886 0
0.36605659 1.0717664 0.47698775 0
0.98699516 0.96917319 -0.050069075 0
0.8483848 0.99476528 0.37072462 0
0.84453648 0.99547583 0.48030183 0
0.83613557 0.99702692 0.59272873 0
0.39409688 1.078642 0.49012229 0
0.98749381 0.9891513 -0.049961518 0
0.86233813 1.0106333 0.37351945 0
0.84193081 1.0141361 0.47835961 0
0.84033018 1.0144109 0.59317631 0
0.3862842 1.0923443 0.48507145 0
0.98311609 1.0098298 -0.049687009 0
0.43359628 1.0970424 0.041822903 0
0.43137267 1.0973953 0.11359341 0
0.43034169 1.097559 0.18636872 0
0.43909338 1.0961699 0.26342115 0
0.42583254 1.0982746 0.33721218 0
0.43237755 1.0972358 0.42093539 0
0.39909974 1.1025172 0.49056852 0
0.98645085 1.029191 -0.049700659 0
0.40689537 1.1137037 0.040790949 0
0.3983117 1.1149554 0.10979673 0
0.4044964 1.1140536 0.18131278 0
0.40098789 1.1145651 0.25310335 0
0.39835098 1.1149497 0.32733816 0
0.40724 1.1136535 0.40962273 0
0.41517249 1.1124967 0.4977673 0
0.99752814 1.0475354 -0.05000193 0
0.38835296 1.1285478 0.040062118 0
0.43212554 1.1227267 0.11328062 0
0.43186954 1.1227607 0.18598551 0
0.42871353 1.1231804 0.25980595 0
0.43668863 1.1221198 0.3396416 0
0.4293339 1.1230979 0.41814306 0
0.42406818 1.1237981 0.50139493 0
0.9952684 1.0677001 -0.049831484 0
0.38280484 1.1413143 0.03980837 0
0.41402969 1.1375612 0.11115102 0
0.42283651 1.1365027 0.18405803 0
0.42744586 1.1359487 0.25907597 0
0.41301963 1.1376826 0.33117902 0
0.42784688 1.1359005 0.41686657 0
1.0025383 1.0867231 -0.050012566 0
0.36531809 1.1551852 0.039132062 0
0.84333652 1.1038276 0.36543125 0
0.83979088 1.1042085 0.47351477 0
0.83506161 1.1047165 0.58585 0
1.0048667 1.1063457 -0.050024826 0
0.3565723 1.167751 0.03877629 0
0.84373349 1.1216079 0.3650758 0
0.83939403 1.1220189 0.4727875 0
0.82921654 1.122983 0.5826816 0
1.0110573 1.1256632 -0.050184272 0
0.35997137 1.1790706 0.038861595 0
0.85075003 1.1388129 0.36647263 0
0.84173924 1.139552 0.47305128 0
0.83462244 1.1401358 0.58428603 0
1.0074883 1.1457735 -0.050003022 0
0.36365506 1.1904327 0.038962118 0
0.85005885 1.1566936 0.36595246 0
0.83961397 1.157418 0.47189754 0
0.82705659 1.1582891 0.58059508 0
1.0039059 1.1657598 -0.049830485 0
0.8517887 1.1743883 0.36610889 0
0.84260422 1.1749092 0.47252432 0
0.83587795 1.1752907 0.58379734 0
1.011909 1.1851164 -0.050081056 0
0.85159022 1.1921862 0.36582971 0
0.8400076 1.192697 0.47136354 0
0.83900768 1.1927412 0.58472782 0
1.0046535 1.2051334 -0.049795214 0
0.85369831 1.2098869 0.3661966 0
0.82559913 1.2107717 0.4663462 0
0.8350777 1.2104733 0.58282453 0
1.0087861 1.2247369 -0.049925089 0
0.84636265 1.227805 0.36421052 0
0.83998615 1.2279254 0.47098753 0
0.83094424 1.2280962 0.58092988 0
1.0112574 1.2444454 -0.050004452 0
0.84667236 1.2454817 0.36423272 0
0.83810514 1.2455356 0.47028798 0
0.83769089 1.2455382 0.58363217 0
1.0103595 1.264192 -0.049972396 0
0.84731179 1.2631655 0.36439589 0
0.84670025 1.2631617 0.4731476 0
0.85738784 1.2632289 0.59178758 0
1.0023581 1.2837849 -0.049695559 0
0.84728593 1.2808557 0.3644461 0
0.82436746 1.2804227 0.46579036 0
0.84264356 1.2807679 0.58577472 0
1.0206414 1.3040131 -0.05036629 0
0.8556096 1.2988164 0.3666845 0
0.8385312 1.2982787 0.47065076 0
0.84293538 1.2984173 0.58607948 0
1.0025954 1.3231161 -0.049748227 0
0.84444231 1.3161416 0.36400425 0
0.83953565 1.3159252 0.47120643 0
0.83805269 1.3158599 0.58433199 0
1.018571 1.3437152 -0.050354891 0
0.84753829 1.3340138 0.36502275 0
0.83124012 1.3330894 0.46873748 0
0.83599728 1.3333591 0.58384681 0
0.99673826 1.362124 -0.049618315 0
1.3009573 1.3832259 0.072505422 0
1.2941895 1.3827565 0.20546792 0
1.3036153 1.3834103 0.34243941 0
0.84917873 1.3518885 0.36572739 0
0.84794396 1.3518029 0.47467557 0
0.84538203 1.3516252 0.58820063 0
1.0146915 1.3832781 -0.050314452 0
1.248674 1.4024713 0.070695981 0
1.2407522 1.4018215 0.19989596 0
1.0167814 1.3834496 0.29085639 0
0.8451845 1.3693737 0.36504793 0
0.83588284 1.3686107 0.47109631 0
0.83746415 1.3687404 0.58546656 0
1.0045971 1.402272 -0.050015155 0
1.2482148 1.4253471 0.070751548 0
1.2368474 1.4242703 0.19969033 0
0.89172131 1.3915806 0.26851815 0
0.84030396 1.3867104 0.3641969 0
0.84529048 1.3871827 0.474758 0
0.84759694 1.3874012 0.59032583 0
0.99129027 1.4207115 -0.049608689 0
0.63979548 1.3829474 0.048987653 0
0.64682144 1.3837023 0.13616239 0
0.65087932 1.3841382 0.22516695 0
0.63563973 1.3825009 0.31213617 0
0.84929818 1.4054561 0.47669601 0
0.83845621 1.4042913 0.58726358 0
1.0072461 1.4423827 -0.050262179 0
0.54705948 1.3870713 0.04571468 0
0.55040818 1.3874737 0.12591302 0
0.55509502 1.3880371 0.20808235 0
0.55462414 1.3879805 0.29175675 0
0.84536749 1.4229259 0.47605389 0
0.84004325 1.422286 0.58875901 0
0.98091191 1.4588979 -0.049403489 0
0.56209499 1.4032007 0.046319544 0
0.56182164 1.4031644 0.1273417 0
0.54742664 1.40125 0.20700955 0
0.53149527 1.3991314 0.28625974 0
0.83423501 1.4393919 0.4730674 0
0.83868939 1.4399842 0.58912313 0
0.99615031 1.4808666 -0.050050605 0
0.55374533 1.4163536 0.046089131 0
0.54811043 1.4155319 0.12606575 0
0.54459924 1.4150199 0.20684738 0
0.55471152 1.4164945 0.29273796 0
0.8393504 1.4580015 0.47560781 0
0.83847064 1.4578731 0.59005606 0
0.99322349 1.5004175 -0.050052371 0
0.55383509 1.4306835 0.046169311 0
0.55071789 1.4301888 0.1265799 0
0.55294019 1.4305415 0.20875594 0
0.55027062 1.4301177 0.29214102 0
0.83446461 1.4752214 0.4748632 0
0.84319597 1.4766071 0.59315783 0
0.99171299 1.520216 -0.050114352 0
0.5474748 1.4439659 0.046022549 0
0.54669362 1.4438319 0.12639213 0
0.54893154 1.444216 0.20844452 0
0.56294829 1.4466219 0.29601851 0
0.84258848 1.49462 0.47858161 0
0.83901983 1.4940073 0.59262586 0
0.98675019 1.5394248 -0.050060183 0
0.55007118 1.4587991 0.046206679 0
0.53412777 1.4558555 0.1252892 0
0.54937762 1.4586711 0.20898092 0
0.55271441 1.4592872 0.29401463 0
0.84341806 1.5129608 0.47992346 0
0.84586805 1.5134132 0.59682643 0
0.97571915 1.5573981 -0.049793832 0
0.55028731 1.4732965 0.046311434 0
0.54248947 1.4717549 0.12649266 0
0.55152136 1.4735404 0.20986415 0
0.54850382 1.4729439 0.29361367 0
0.83397835 1.5293781 0.47786424 0
0.84443516 1.5314451 0.59764552 0
0.97387344 1.577119 -0.049870156 0
0.55546361 1.4889172 0.046604101 0
0.54525846 1.486766 0.12710707 0
0.54718775 1.4871727 0.20959038 0
0.56526119 1.4909827 0.29872355 0
0.83822542 1.548524 0.48052329 0
0.83822328 1.5485237 0.59654051 0
0.97885543 1.5984275 -0.05020557 0
0.54717606 1.501736 0.046412185 0
0.54509002 1.5012689 0.12742047 0
0.54191393 1.5005574 0.20917374 0
0.55812556 1.5041887 0.29766029 0
0.83125824 1.5653673 0.47944856 0
0.84093517 1.5675349 0.5993098 0
0.96411473 1.6153033 -0.049828146 0
0.56094497 1.5196511 0.047034919 0
0.55241865 1.5176282 0.12858303 0
0.55123907 1.5173483 0.21149302 0
0.56066602 1.5195849 0.29917455 0
0.83562142 1.5848182 0.4823173 0
0.82399851 1.5820607 0.59382814 0
0.9620865 1.6350935 -0.049925223 0
0.55025369 1.5318917 0.046767645 0
0.55913943 1.5341184 0.1297047 0
0.54709429 1.5311 0.21135449 0
0.54859728 1.5314766 0.29690203 0
0.83876568 1.6041903 0.48486084 0
0.84344298 1.6053624 0.6039359 0
0.95374435 1.6532906 -0.049798671 0
0.55766684 1.5487196 0.047173668 0
0.5526697 1.5474002 0.12938701 0
0.55398935 1.5477487 0.21330699 0
0.5527162 1.5474125 0.29893291 0
0.83993548 1.6232432 0.48681727 0
0.84938055 1.6257368 0.60841882 0
0.95806915 1.6749139 -0.050149471 0
0.5543254 1.5628623 0.04719048 0
0.55123895 1.5620058 0.12964882 0
0.54975492 1.5615939 0.21322244 0
0.55385655 1.5627322 0.30023527 0
0.84222823 1.6427644 0.48925096 0
0.83557981 1.6409192 0.60454625 0
0.95250016 1.6939176 -0.050143778 0
0.55714077 1.5788124 0.047442898 0
0.54345912 1.574829 0.12922148 0
0.55357498 1.5777742 0.21468322 0
0.54827708 1.5762317 0.29980797 0
0.8365826 1.6601694 0.48902792 0
0.84253198 1.6619015 0.6096909 0
0.9443199 1.7121245 -0.050049517 0
0.84051377 1.680479 0.37885892 0
0.84355158 1.6814052 0.4932676 0
0.83597881 1.6790966 0.60912377 0
0.932239 1.7290218 -0.049817294 0
0.85022146 1.7028855 0.38292488 0
0.84268218 1.7004831 0.4948805 0
0.83412987 1.6977577 0.61069244 0
0.93724042 1.7514312 -0.050234791 0
0.85543448 1.7242231 0.38587514 0
0.83701867 1.7180982 0.49490336 0
0.83178085 1.7163562 0.61215186 0
0.92568737 1.7684172 -0.050039239 0
0.84991807 1.7421528 0.38601342 0
0.83854634 1.738211 0.49753636 0
0.83872694 1.7382736 0.6177932 0
0.91404933 1.7852294 -0.049847674 0
0.8448078 1.7602468 0.38632363 0
0.8422038 1.7593073 0.50102401 0
0.84006339 1.7585349 0.62111235 0
0.91276413 1.8057839 -0.050058007 0
0.84011406 1.7785327 0.38681072 0
0.84006673 1.778515 0.50256342 0
0.82998151 1.774732 0.61951047 0
0.90874189 1.8254347 -0.0501744 0
0.84494406 1.8005834 0.38997078 0
0.83327836 1.7960392 0.50253576 0
0.831276 1.7952592 0.6230461 0
0.8887127 1.838709 -0.049684528 0
0.83903104 1.8186322 0.39026693 0
0.82746154 1.813957 0.50293559 0
0.82874435 1.8144753 0.62500632 0
0.89027411 1.8606548 -0.050034206 0
0.84228414 1.8405552 0.39316279 0
0.82822007 1.8346647 0.50579047 0
0.83659714 1.8381733 0.63174659 0
0.88870436 1.8815149 -0.050274678 0
0.82573944 1.8542064 0.39064538 0
0.82981366 1.8559735 0.50905806 0
0.82644743 1.8545135 0.63053358 0
0.87077302 1.8952221 -0.04988651 0
0.83224958 1.8779346 0.39460877 0
0.82010251 1.8724836 0.50831938 0
0.84024912 1.8815243 0.64027631 0
0.87437707 1.9186226 -0.050350405 0
0.82558721 1.8959857 0.39497438 0
0.82835346 1.8972691 0.51424015 0
0.82224149 1.8944334 0.63571221 0
0.86812764 1.9376661 -0.050438635 0
0.82245594 1.9157728 0.39640534 0
0.81518561 1.9122877 0.51240927 0
0.81072181 1.9101479 0.63417381 0
0.84029871 1.9461019 -0.049677316 0
0.81303948 1.9326103 0.39612678 0
0.81104928 1.9316251 0.51398957 0
0.8152445 1.9337015 0.64012808 0
0.83975035 1.9678708 -0.050008956 0
0.81193298 1.9536642 0.39828756 0
0.80216211 1.948674 0.51389593 0
0.80257279 1.9488838 0.63826448 0
0.82604903 1.9829801 -0.049823098 0
0.80150181 1.9700513 0.39785013 0
0.79814738 1.9682846 0.51571429 0
0.79802376 1.9682195 0.64027864 0
0.82616824 2.0054469 -0.0502051 0
0.78603786 1.9836606 0.39600831 0
0.79453927 1.9882759 0.51779217 0
0.78573471 1.9834961 0.63877445 0
0.81155294 2.019985 -0.049998607 0
0.78704292 2.0062764 0.39901775 0
0.78345352 2.0042689 0.51712996 0
0.78408474 2.0046217 0.6423977 0
0.8110463 2.0424843 -0.050379388 0
0.77494389 2.0216911 0.39827451 0
0.78373486 2.0267541 0.52090412 0
0.77641982 2.022541 0.64330012 0
0.78631717 2.0509393 -0.04976942 0
0.78674167 2.0511911 0.4046708 0
0.77670282 2.0452397 0.52198714 0
0.77850467 2.0463078 0.64901024 0
0.78089803 2.0706732 -0.049966719 0
0.7704739 2.0643146 0.40283951 0
0.77110451 2.0646992 0.5237276 0
0.77295738 2.0658295 0.65120757 0
0.78441948 2.0961843 -0.050552815 0
0.75784165 2.0795093 0.40213829 0
0.77206677 2.0884342 0.52815443 0
0.76411098 2.0834427 0.65192944 0
0.76160091 2.1051993 -0.05003823 0
0.75627869 2.1017659 0.40484998 0
0.75631422 2.101789 0.52611756 0
0.75709182 2.1022906 0.65366638 0
0.75020963 2.1213596 -0.05001368 0
0.75447708 2.1241894 0.40759677 0
0.75212997 2.122633 0.52874845 0
0.74183542 2.1158071 0.65144318 0
0.73857325 2.137336 -0.049987081 0
0.73929256 2.1378262 0.40632242 0
0.73999161 2.1383023 0.52830499 0
0.73439568 2.1344895 0.65320188 0
0.73371857 2.15804 -0.050264511 0
0.71840674 2.1473227 0.4033145 0
0.73274237 2.1573567 0.5299229 0
0.73430437 2.1584501 0.65880835 0
0.71900004 2.1718979 -0.050122172 0
0.7306878 2.1803 0.4107382 0
0.72532386 2.1764441 0.53158396 0
0.71547455 2.1693637 0.65506387 0
0.70088476 2.1831279 -0.049835484 0
0.71234268 2.1915855 0.40865043 0
0.70815748 2.1884961 0.52932864 0
0.70267481 2.1844492 0.65445799 0
0.69276959 2.2016859 -0.050000302 0
0.70509464 2.2110255 0.41014016 0
0.70368713 2.209959 0.53241444 0
0.69797176 2.2056279 0.65815061 0
0.67724878 2.2146349 -0.049842302 0
0.68352073 2.2195132 0.40709293 0
0.69371206 2.2274401 0.53332376 0
0.68638593 2.2217417 0.65840852 0
0.66286236 2.2283509 -0.049741942 0
0.68721837 2.247792 0.41229934 0
0.68855792 2.2488613 0.53638774 0
0.6789059 2.2411571 0.6609512 0
0.65920395 2.250766 -0.050143544 0
0.66568416 2.2560735 0.40935549 0
0.67077774 2.2602453 0.5341692 0
0.67421716 2.2630622 0.66514421 0
0.64363545 2.2635472 -0.050007116 0
0.66550738 2.2819259 0.41353226 0
0.66841334 2.2843678 0.53868806 0
0.66243833 2.2793472 0.66569585 0
0.63436705 2.2816362 -0.0501737 0
0.7273882 2.3618209 0.066558205 0
0.71104771 2.3477354 0.18597598 0
0.71496111 2.3511088 0.30895698 0
0.65044481 2.2954953 0.41284952 0
0.64622062 2.2918541 0.53467959 0
0.65568238 2.3000102 0.66911066 0
0.61889142 2.2943978 -0.050057128 0
0.69091028 2.3580766 0.065489225 0
0.6899516 2.357229 0.18493909 0
0.68429226 2.3522251 0.3049227 0
0.63940626 2.312537 0.41358745 0
0.63686222 2.3102877 0.53636748 0
0.62800485 2.3024559 0.66114396 0
0.60509199 2.308573 -0.050027717 0
0.65161151 2.3507607 0.064269766 0
0.65508085 2.3539071 0.18190907 0
0.66029507 2.3586357 0.30246982 0
0.63509697 2.335784 0.4167251 0
0.63094014 2.3320143 0.53972179 0
0.62845284 2.3297586 0.66882342 0
0.5884611 2.3200905 -0.049868554 0
0.6392315 2.367312 0.064343937 0
0.64154238 2.3694613 0.18196818 0
0.63381988 2.3622785 0.29939747 0
0.60977548 2.3399148 0.41267982 0
0.61573988 2.3454623 0.53902364 0
0.61454016 2.3443465 0.66866642 0
0.57774299 2.3370972 -0.050006308 0
0.6220867 2.3793948 0.06419415 0
0.62755555 2.3846114 0.18199033 0
0.6240446 2.3812623 0.30046165 0
0.59409493 2.3526945 0.41200319 0
0.58999902 2.3487875 0.53354818 0
0.59691793 2.3553872 0.66648948 0
0.56498247 2.352246 -0.050054397 0
0.61954814 2.4056225 0.06477952 0
0.61756355 2.403681 0.18264183 0
0.61115748 2.3974147 0.30081385 0
0.58077878 2.367698 0.41221908 0
0.58293408 2.3698065 0.53671598 0
0.58289236 2.3697655 0.66644871 0
0.55445617 2.369689 -0.050225668 0
0.60205644 2.4174392 0.064632758 0
0.60674077 2.4221382 0.18321151 0
0.60390192 2.4192903 0.30266079 0
0.57398134 2.3892756 0.41486135 0
0.57063752 2.3859212 0.53758264 0
0.57049996 2.3857832 0.66747081 0
0.53507096 2.3781958 -0.049956594 0
0.60098511 2.4460042 0.065332711 0
0.60911328 2.454366 0.18585868 0
0.60364121 2.4487369 0.30641249 0
0.55436808 2.3980477 0.41294587 0
0.55655581 2.4002981 0.53770477 0
0.56103712 2.4049082 0.67036545 0
0.5217604 2.3928404 -0.050004706 0
0.61120433 2.4872036 0.066646509 0
0.62200493 2.4985981 0.19024754 0
0.61620575 2.49248 0.31367314 0
0.5554902 2.4284253 0.41873547 0
0.55448061 2.4273601 0.54372203 0
0.54484469 2.4171941 0.66939253 0
0.5059461 2.4048305 -0.049931407 0
0.53642923 2.4378121 0.41716078 0
0.53987342 2.4415386 0.54384506 0
0.53867227 2.440239 0.67461228 0
0.48966166 2.4162264 -0.049840011 0
0.51283044 2.4419363 0.41387919 0
0.51888996 2.4486604 0.54088908 0
0.52570373 2.4562213 0.67588049 0
0.47869989 2.4335876 -0.050042905 0
0.49874613 2.4564035 0.41424796 0
0.5008654 2.4588156 0.53942674 0
0.5021295 2.4602544 0.67063951 0
0.45845315 2.4403331 -0.049751144 0
0.48537585 2.4717653 0.4149732 0
0.48483714 2.4711363 0.5390287 0
0.49226448 2.4798076 0.67407835 0
0.44372663 2.4533741 -0.049767151 0
0.46744129 2.4817772 0.41396892 0
0.47005758 2.4849105 0.53935272 0
0.47623965 2.4923148 0.67374808 0
0.43150005 2.4695101 -0.049934026 0
0.45364711 2.4967248 0.41467312 0
0.4541156 2.4973004 0.53915989 0
0.45347115 2.4965086 0.66909158 0
0.41816702 2.4844451 -0.050051577 0
0.43893138 2.5106273 0.4150869 0
0.44392511 2.5169241 0.54212624 0
0.4429619 2.5157094 0.67256415 0
0.40529761 2.5001209 -0.050209031 0
0.42912731 2.5309579 0.4176293 0
0.42643103 2.5274689 0.54130083 0
0.42557803 2.526365 0.67160118 0
0.3895323 2.51214 -0.050208859 0
0.41049728 2.5399878 0.41657841 0
0.40908173 2.5381074 0.54061449 0
0.41472092 2.545598 0.67520654 0
0.37296811 2.5230746 -0.050169516 0
0.39808503 2.5573268 0.41824058 0
0.39571509 2.5540948 0.54223162 0
0.3907437 2.5473154 0.66985631 0
0.35710666 2.5349512 -0.050181031 0
0.37898734 2.5655916 0.41709232 0
0.3763561 2.5619068 0.54056126 0
0.37862912 2.5650899 0.67287779 0
0.33660462 2.5401728 -0.049911804 0
0.36107972 2.5753751 0.41650105 0
0.36453912 2.5803509 0.54331279 0
0.3578867 2.5707827 0.66985762 0
0.32249841 2.554512 -0.050049081 0
0.34116116 2.5820889 0.41503888 0
0.34453151 2.5870693 0.54139054 0
0.34286097 2.5846007 0.67105633 0
0.3068718 2.5667243 -0.050101925 0
0.31895217 2.5850682 0.41252488 0
0.32277426 2.590872 0.5384236 0
0.32211408 2.5898695 0.66810107 0
0.28824291 2.5743251 -0.0499672 0
0.30514333 2.6007054 0.41395146 0
0.30259505 2.5967278 0.53640026 0
0.30587062 2.6018407 0.66859418 0
0.27032259 2.5828893 -0.049883965 0
0.28722522 2.6100194 0.41351864 0
0.29236606 2.6182706 0.54064184 0
0.29120442 2.6164062 0.6704492 0
0.25648245 2.5980828 -0.050087519 0
0.27019432 2.6207216 0.41357079 0
0.26060578 2.6048906 0.53131783 0
0.27190134 2.6235402 0.66878241 0
0.24168743 2.6119432 -0.05024159 0
0.25038645 2.6267226 0.41229445 0
0.25652876 2.6371582 0.53983974 0
0.25461057 2.6338992 0.66879469 0
0.22002234 2.6140137 -0.049917374 0
0.23659886 2.6430054 0.41412258 0
0.23743488 2.6444676 0.53875542 0
0.23382558 2.638155 0.66600031 0
0.20493044 2.627459 -0.050071087 0
0.21166469 2.6395888 0.41024032 0
0.21809746 2.6511757 0.53754169 0
0.21942003 2.653558 0.66862863 0
0.18354161 2.6294529 -0.049767103 0
0.20046319 2.6608579 0.41362977 0
0.19518866 2.6510689 0.53385293 0
0.19674899 2.6539648 0.66427189 0
0.1668988 2.6400712 -0.0498234 0
0.18852885 2.6814539 0.41684395 0
0.18242718 2.66978 0.53736138 0
0.18051435 2.6661205 0.66556644 0
0.14770384 2.6457477 -0.049689982 0
0.16498484 2.6798489 0.41373086 0
0.16203441 2.6740267 0.53551275 0
0.16410752 2.6781178 0.66687435 0
0.13585342 2.6661751 -0.050153721 0
0.13986756 2.67435 0.40961474 0
0.13862033 2.6718102 0.53137535 0
0.13925995 2.6731126 0.66042739 0
0.11938312 2.6776557 -0.050266922 0
0.12127449 2.6816335 0.40922385 0
0.12417599 2.6877353 0.53405499 0
0.12003609 2.679029 0.65916979 0
0.10193481 2.6872094 -0.050311919 0
0.10399666 2.6916902 0.4096801 0
0.10235181 2.6881156 0.53109288 0
0.10828223 2.7010036 0.66534901 0
0.080829106 2.6886296 -0.050047446 0
0.083360396 2.6943183 0.40812024 0
0.086941741 2.7023666 0.53329873 0
0.083175085 2.6939018 0.65838408 0
0.058596157 2.686964 -0.049674835 0
0.06207522 2.6950552 0.40611601 0
0.060857855 2.692224 0.52672911 0
0.062359951 2.6957176 0.65561873 0
0.045630775 2.7069452 -0.05015178 0
0.044257782 2.7036378 0.40636373 0
0.045775376 2.7072935 0.52939427 0
0.044631146 2.7045372 0.65612549 0
0.027137717 2.714036 -0.050136901 0
0.024272701 2.7068815 0.40520471 0
0.027689358 2.7154136 0.52962381 0
0.025554677 2.7100828 0.65526927 0
0.0054640383 2.7128644 -0.049814846 0
0.0029713723 2.7064054 0.40310308 0
