# .PCD v0.7 - Point Cloud Data file format
VERSION 0.7
FIELDS x y z intensity
SIZE 4 4 4 4
TYPE F F F F
COUNT 1 1 1 1
WIDTH 1360
HEIGHT 1
VIEWPOINT 0 0 0 1 0 0 0
POINTS 1360
DATA ascii
-1.3257154 0.36866772 0.047858611 0
-1.3191863 0.37619406 0.13093351 0
-1.3253236 0.36911941 0.21734518 0
-1.3178283 0.37775952 0.30206326 0
-1.2510732 0.45471013 0.3581771 0
-1.2341261 0.47424561 0.43357453 0
-1.2417451 0.46546298 0.5285182 0
-1.2431023 0.4638986 0.62656349 0
-1.5712056 0.05551612 -0.050051276 0
-1.2995819 0.37670821 0.047033641 0
-1.3070971 0.36782146 0.1307717 0
-1.3100014 0.36438715 0.21619572 0
-1.3090317 0.36553377 0.30297232 0
-1.2479759 0.43773156 0.36179692 0
-1.2450743 0.44116282 0.44692659 0
-1.2373196 0.45033252 0.53282744 0
-1.2400357 0.44712085 0.63293743 0
-1.5549273 0.044184919 -0.049989335 0
-1.2889432 0.36686218 0.047060043 0
-1.3000606 0.35337508 0.13147882 0
-1.2989771 0.35468954 0.21626399 0
-1.2918397 0.36334825 0.30058908 0
-1.2516553 0.41209775 0.36912799 0
-1.2362593 0.4307754 0.44788882 0
-1.2329086 0.43484026 0.53736317 0
-1.2396798 0.42662585 0.64213234 0
-1.5416362 0.029200071 -0.050104775 0
-1.2891504 0.34348255 0.047712125 0
-1.2905685 0.34171736 0.13180667 0
-1.2931097 0.33855414 0.21785316 0
-1.2885751 0.34419852 0.30385292 0
-1.2462218 0.39691788 0.37190413 0
-1.2303715 0.41664767 0.45088708 0
-1.2428465 0.40111941 0.55358827 0
-1.2393967 0.40541339 0.651784 0
-1.5226781 0.021317119 -0.049904712 0
-1.2831725 0.3272534 0.048033487 0
-1.289144 0.31962562 0.13357179 0
-1.2730041 0.34024227 0.21536145 0
-1.2812617 0.32969421 0.30559292 0
-1.2474296 0.37291014 0.37841204 0
-1.2409689 0.38116288 0.46512517 0
-1.241326 0.38070679 0.56111789 0
-1.2376846 0.38535815 0.6604721 0
-1.5097156 0.0058010765 -0.05006006 0
-1.2784029 0.3090626 0.048443258 0
-1.2763364 0.31177181 0.13339803 0
-1.2715726 0.31801748 0.21837525 0
-1.2774564 0.31030351 0.30891395 0
-1.2517582 0.34399509 0.38690475 0
-1.2371327 0.36316973 0.4700489 0
-1.237571 0.36259514 0.56713974 0
-1.2398833 0.35956359 0.67337412 0
-1.4960401 -0.008944517 -0.050186992 0
-1.2754663 0.2879163 0.04898335 0
-1.2665504 0.29991591 0.13378341 0
-1.2733957 0.29070312 0.22250859 0
-1.2664015 0.3001163 0.30929402 0
-1.2512636 0.3204897 0.39305344 0
-1.2426186 0.33212471 0.48168424 0
-1.2389061 0.33712107 0.5777244 0
-1.2387528 0.33732736 0.68350643 0
-1.4722605 -0.0098854359 -0.049712047 0
-1.2715498 0.26747018 0.049489323 0
-1.2801456 0.25559199 0.13848884 0
-1.2797078 0.25619704 0.22820033 0
-1.2737879 0.26437753 0.3177616 0
-1.2480301 0.29997146 0.39792225 0
-1.2421466 0.30810153 0.48958987 0
-1.2352726 0.31760049 0.58452576 0
-1.2361212 0.31642807 0.69257867 0
-1.4620388 -0.029490953 -0.050069589 0
-1.1750225 0.37782961 0.04428016 0
-1.1695582 0.38558429 0.12021279 0
-1.1726881 0.38114244 0.1986452 0
-1.3347569 0.15114176 0.3503128 0
-1.2437996 0.2802242 0.40245092 0
-1.2374794 0.28919339 0.49483794 0
-1.2429353 0.28145069 0.60147351 0
-1.4497173 -0.046486977 -0.05031668 0
-1.1572077 0.37993312 0.043855421 0
-1.1517125 0.38794386 0.11890975 0
-1.1567664 0.38057637 0.19708982 0
-1.3132143 0.15250695 0.34688923 0
-1.2407826 0.25809765 0.40792215 0
-1.2395611 0.25987852 0.50529557 0
-1.2383071 0.26170653 0.60826278 0
-1.4316385 -0.055178527 -0.050211918 0
-1.1414256 0.37952763 0.043551616 0
-1.1448386 0.37441546 0.1196998 0
-1.1383318 0.38416177 0.1946909 0
-1.3049426 0.13459766 0.34949064 0
-1.2415271 0.22958696 0.41591665 0
-1.2404428 0.23121107 0.51533031 0
-1.2407175 0.23079956 0.62174588 0
-1.407396 -0.054251198 -0.049708243 0
-1.1211492 0.38643086 0.042947635 0
-1.1251498 0.38027161 0.11801039 0
-1.1211125 0.38648725 0.19263259 0
-1.2853026 0.1337136 0.34692305 0
-1.2406213 0.20250142 0.42327696 0
-1.2432799 0.19840837 0.52731943 0
-1.241316 0.20143199 0.63418263 0
-1.3947265 -0.070982225 -0.049967211 0
-1.1075233 0.38360119 0.042770281 0
-1.1112119 0.37776297 0.11742938 0
-1.1097223 0.38012058 0.19249132 0
-1.2625055 0.13829625 0.34280097 0
-1.240131 0.17371047 0.43125457 0
-1.2377995 0.17740083 0.53341937 0
-1.2428071 0.16947472 0.64804894 0
-1.3798208 -0.084428079 -0.050093248 0
-1.0967045 0.37643713 0.042783123 0
-1.0958066 0.37789875 0.11654152 0
-1.0903444 0.38679028 0.18962231 0
-1.2532326 0.12163603 0.34515768 0
-1.2378103 0.14674103 0.43846187 0
-1.2366425 0.14864194 0.54327255 0
-1.2397686 0.14355314 0.65825319 0
-1.3578947 -0.086295851 -0.049744744 0
-1.0817302 0.37621087 0.042513069 0
-1.0762988 0.38530701 0.11477438 0
-1.0776138 0.3831048 0.18900138 0
-1.2485565 0.09681832 0.34995556 0
-1.2369914 0.11618709 0.44701558 0
-1.2486763 0.096617691 0.56427819 0
-1.2423909 0.10714423 0.67451495 0
-1.3451304 -0.10347236 -0.05004207 0
-1.0565912 0.39388102 0.041514128 0
-1.0580741 0.39132482 0.1132235 0
-1.0649441 0.37948304 0.18840523 0
-1.2487081 0.062730186 0.35747039 0
-1.2408742 0.076233499 0.45912638 0
-1.2417107 0.074791662 0.57060331 0
-1.2366344 0.083541624 0.68323135 0
-1.3290912 -0.11527003 -0.05012349 0
-1.0463729 0.38650078 0.041561794 0
-1.0454168 0.38819766 0.11284006 0
-1.0499635 0.38012826 0.18696316 0
-1.2493469 0.026260966 0.36562881 0
-1.2416915 0.039847728 0.46977046 0
-1.2367395 0.048636433 0.57898283 0
-1.307315 -0.11670519 -0.049790919 0
-1.0368811 0.37771845 0.04167144 0
-1.0355104 0.38022441 0.11307247 0
-1.036924 0.37763983 0.18621404 0
-1.246847 -0.0061539463 0.37254989 0
-1.2367721 0.012265557 0.47699907 0
-1.2390606 0.0080815498 0.5941301 0
-1.2935551 -0.13275123 -0.050062224 0
-1.0153718 0.39141035 0.040876843 0
-1.0195312 0.38357311 0.11194105 0
-1.0193681 0.38388056 0.1837213 0
-1.2454675 -0.04214311 0.38046634 0
-1.24157 -0.034799222 0.49154109 0
-1.2373234 -0.026797658 0.60650241 0
-1.2810048 -0.15157235 -0.05045018 0
-1.0111276 0.37277812 0.041396189 0
-1.0074276 0.37996686 0.11168199 0
-1.0059196 0.38289684 0.18275502 0
-1.2403542 -0.072591312 0.38674679 0
-1.2377127 -0.067459233 0.5005765 0
-1.2425051 -0.076770313 0.62583333 0
-1.2580835 -0.15022421 -0.050037336 0
-0.99200732 0.38314056 0.040757619 0
-0.99747372 0.37218297 0.11194463 0
-0.98964238 0.38788128 0.18062617 0
-1.2412744 -0.11652923 0.39685246 0
-1.2407908 -0.11556018 0.5153144 0
-1.2369118 -0.1077844 0.63624096 0
-1.2392563 -0.15668631 -0.049948163 0
-0.98320115 0.3731901 0.040937927 0
-0.97801751 0.38391703 0.10989103 0
-0.97787428 0.38421333 0.1802845 0
-1.2384462 -0.1550101 0.40534723 0
-1.2385738 -0.15527391 0.52684945 0
-1.219136 -0.16024327 -0.049754381 0
-0.96234387 0.38869619 0.040118203 0
-0.96661419 0.37956762 0.10978691 0
-0.96320796 0.38684899 0.17871936 0
-1.2386249 -0.20190454 0.41617203 0
-1.2422082 -0.20956433 0.54368097 0
-1.2033411 -0.17303455 -0.049933523 0
-0.95430821 0.37726724 0.040368956 0
-0.95030987 0.38610268 0.10841642 0
-0.95323926 0.37962943 0.17915066 0
-1.2397487 -0.25348639 0.42824736 0
-1.2364428 -0.24618089 0.55394608 0
-1.1791188 -0.16688371 -0.049381319 0
-0.93995804 0.37982714 0.040077172 0
-0.94043195 0.37874371 0.10870741 0
-0.93942076 0.3810553 0.17790253 0
-1.2425414 -0.31186521 0.4421452 0
-1.237167 -0.29957926 0.57027531 0
-1.1633531 -0.17975438 -0.049581122 0
-0.92628509 0.38130796 0.039835781 0
-0.92279166 0.38957584 0.10688905 0
-0.932329 0.36700398 0.17972541 0
-1.2400312 -0.36122656 0.45346197 0
-1.1496973 -0.19818079 -0.050001781 0
-0.91176701 0.38530731 0.039505176 0
-0.91022533 0.38908809 0.10641968 0
-0.91058141 0.38821489 0.1746885 0
-1.2452124 -0.43241727 0.4707441 0
-1.1350303 -0.2148546 -0.050359741 0
-0.90221298 0.37731272 0.03964334 0
-0.90194619 0.37799138 0.10719602 0
-0.89945561 0.3843261 0.17459364 0
-1.2407469 -0.48374319 0.48247722 0
-1.1133544 -0.21374238 -0.050044082 0
-0.88645035 0.38543248 0.03917028 0
-0.88429868 0.39111441 0.1051974 0
-0.88897848 0.37875658 0.17485045 0
-1.2390183 -0.54557693 0.49703658 0
-1.0926633 -0.21469128 -0.049818572 0
-0.87729675 0.37638301 0.039359327 0
-0.87700969 0.3771708 0.10632933 0
-0.87486261 0.3830635 0.17323573 0
-1.0738665 -0.22057855 -0.049790744 0
-0.86277944 0.38224208 0.038987972 0
-0.8655892 0.37421799 0.10621526 0
-0.8643598 0.37772894 0.17350449 0
-1.0571867 -0.23271275 -0.050007243 0
-0.85300857 0.3747949 0.039126247 0
-0.85103434 0.38066888 0.10505183 0
-0.85050017 0.38225842 0.17192057 0
-1.0373311 -0.23549628 -0.049880039 0
-0.83950472 0.3786118 0.038846094 0
-0.83956331 0.37843007 0.104895 0
-0.84071338 0.37485981 0.17263629 0
-1.0214831 -0.25098538 -0.050237358 0
-0.82670712 0.38080251 0.038634144 0
-0.82621545 0.38239735 0.10405711 0
-0.82573414 0.38395852 0.17025907 0
-0.99992037 -0.24797678 -0.049912348 0
-0.81644851 0.37489605 0.038730349 0
-0.81559467 0.37779474 0.10420131 0
-0.81204885 0.3898325 0.16853248 0
-0.97995865 -0.24983096 -0.049778908 0
-0.80409002 0.3762067 0.038563378 0
-0.80302775 0.37998807 0.10360134 0
-0.80094302 0.38740921 0.16839865 0
-0.96489733 -0.26966 -0.050319485 0
-0.79111564 0.38026994 0.038301006 0
-0.79093164 0.38095808 0.10315709 0
-0.78978008 0.38526481 0.16823936 0
-0.94237036 -0.26165152 -0.049839959 0
-0.77941197 0.38007325 0.038202412 0
-0.77883881 0.38233042 0.10268658 0
-0.77883589 0.38234186 0.16825162 0
-0.92590767 -0.27741766 -0.050245315 0
-0.76813459 0.37839454 0.10282109 0
-0.76761615 0.38054973 0.16807972 0
-0.90636224 -0.28092527 -0.050208304 0
-0.75607115 0.38028848 0.16765131 0
-0.88257319 -0.26450157 -0.049452696 0
-0.74368119 0.38425118 0.16647188 0
-0.86619997 -0.28229094 -0.049955793 0
-0.73478591 0.37165046 0.16837107 0
-0.84629196 -0.28320611 -0.049852222 0
-0.72255743 0.37534434 0.16729623 0
-0.82702136 -0.28735995 -0.049875356 0
-0.80743408 -0.28967988 -0.049840901 0
-0.78778261 -0.29142559 -0.049794696 0
-0.76792431 -0.29143405 -0.049694903 0
-0.74890918 -0.29772663 -0.049830321 0
-0.73043525 -0.30980825 -0.050182089 0
-0.70965034 -0.30086231 -0.049787477 0
-0.69067055 -0.30986238 -0.050045688 0
-0.67127174 -0.31564474 -0.050197043 0
-0.65067333 -0.3032335 -0.049706325 0
-0.63110137 -0.30527806 -0.049741842 0
-0.61166197 -0.31196284 -0.049951907 0
-0.59206527 -0.31837487 -0.050160922 0
-0.57222426 -0.31486583 -0.050024513 0
-0.55244005 -0.32290626 -0.050309349 0
-0.53268951 -0.31583786 -0.050063659 0
-0.51293021 -0.31508577 -0.050052363 0
-0.49313897 -0.31523323 -0.050082084 0
-0.4733839 -0.31425428 -0.050080463 0
-0.453383 -0.31695807 -0.050219506 0
-0.49571273 0.32243055 0.039342541 0
-0.43509561 -0.29664683 -0.049543485 0
-0.48436457 0.3281073 0.03916971 0
-0.41402435 -0.31194139 -0.050151423 0
-0.47367629 0.33967578 0.038790576 0
-0.39506495 -0.30281448 -0.049893077 0
-0.4623239 0.34231281 0.038736366 0
-0.37535825 -0.30161572 -0.049927898 0
-0.44779098 0.31745327 0.039675571 0
-0.44217387 0.26944506 0.11256601 0
-0.44204703 0.26836079 0.18502972 0
-0.44210449 0.268852 0.25913996 0
-0.4418444 0.2666291 0.33684111 0
-0.44205427 0.26842266 0.41698214 0
-0.35548726 -0.30146766 -0.050009526 0
-0.43486533 0.3101393 0.039991241 0
-0.42862749 0.26207674 0.1135302 0
-0.42845672 0.26076108 0.1866902 0
-0.42782369 0.25588357 0.26286998 0
-0.42916012 0.26618075 0.33750594 0
-0.43115202 0.28152829 0.41214946 0
-0.43063983 0.27758181 0.49880096 0
-0.33631235 -0.29600859 -0.049908794 0
-0.42022228 0.29237324 0.040690273 0
-0.4188 0.28240013 0.11150854 0
-0.41987789 0.28995824 0.18168138 0
-0.41919026 0.28513664 0.25577193 0
-0.42109305 0.29847914 0.32722071 0
-0.41948584 0.28720909 0.41047069 0
-0.42094246 0.29742312 0.48961893 0
-0.31384382 -0.3121748 -0.050597906 0
-0.40680054 0.28568375 0.040997129 0
-0.40682507 0.28584141 0.11133245 0
-0.40513781 0.27498966 0.18474337 0
-0.40491429 0.27355212 0.25923222 0
-0.40656456 0.28416604 0.33264321 0
-0.4056032 0.27798289 0.41509634 0
-0.40918222 0.30100173 0.48871535 0
-0.29726166 -0.29044151 -0.049926598 0
-0.39030987 0.26208568 0.041922908 0
-0.39213926 0.2729488 0.11295253 0
-0.39167058 0.2701658 0.18599044 0
-0.39190003 0.27152818 0.26027274 0
-0.39087743 0.26545602 0.33962232 0
-0.39072976 0.264579 0.42155921 0
-0.39931592 0.31556433 0.48231179 0
-0.27809697 -0.28558183 -0.049873564 0
0.069781922 -2.2035215 0.13146372 0
-0.38392943 0.29789793 0.49234527 0
-0.25852004 -0.28302217 -0.049912814 0
0.11468967 -2.2026494 0.13172919 0
-0.37557295 0.31904668 0.48271757 0
-0.24172328 -0.26691365 -0.049467128 0
0.15832157 -2.1946728 0.1317569 0
-0.36783752 0.34081286 0.47280288 0
-0.2189426 -0.27936435 -0.050072063 0
0.20573027 -2.203687 0.13242593 0
-0.35821578 0.35172498 0.46847183 0
-0.19901679 -0.27772415 -0.050172638 0
0.25189963 -2.2053001 0.13284744 0
-0.34702435 0.3549782 0.4681257 0
-0.18145798 -0.26620197 -0.049919315 0
0.29539719 -2.1948397 0.13284758 0
-0.0069657951 -0.97193456 0.25245881 0
-0.0029198315 -0.98829818 0.42263281 0
-0.33815241 0.36754763 0.46304938 0
-0.16256581 -0.26049125 -0.049887713 0
0.34459779 -2.2062299 0.13367407 0
-0.32790136 0.37382048 0.46126974 0
-0.14153601 -0.26265049 -0.050156128 0
0.391422 -2.2067204 0.1341228 0
-0.316903 0.37703544 0.46113726 0
-0.12319381 -0.25477302 -0.050062478 0
-0.30279574 0.36942798 0.46671081 0
-0.10342876 -0.25183392 -0.050161213 0
-0.30336672 0.41149652 0.44643882 0
-0.087253816 -0.2372632 -0.049834229 0
-0.29179245 0.41164595 0.44807354 0
-0.067285128 -0.2349478 -0.049974144 0
-0.28466395 0.42557281 0.44253454 0
-0.048262395 -0.22956157 -0.050008226 0
-0.2648578 0.4016977 0.45701516 0
-0.030325273 -0.22105598 -0.04993327 0
-0.011989155 -0.21376705 -0.049912881 0
0.0082558012 -0.21145558 -0.05009168 0
0.024850627 -0.19968152 -0.049917258 0
0.043051861 -0.1920898 -0.049911648 0
0.063354395 -0.1893872 -0.05010489 0
0.083229087 -0.18537998 -0.050258201 0
-0.19179569 0.43268311 0.37834737 0
0.098652683 -0.17143357 -0.050031602 0
0.11401685 -0.157727 -0.049820781 0
-0.16113751 0.4209407 0.38807091 0
-0.20321597 0.50943446 0.49515066 0
0.12496676 -0.13536084 -0.049271908 0
0.55383736 -1.0087736 0.46069565 0
-0.16228287 0.44963485 0.37716743 0
-0.19722153 0.52078891 0.49063441 0
0.15399356 -0.14951622 -0.050186746 0
0.58650225 -1.0030046 0.46239445 0
-0.15183811 0.45399469 0.37748262 0
-0.18627416 0.52194887 0.49291706 0
0.17108841 -0.13944352 -0.0501463 0
0.61362177 -0.98610306 0.46192244 0
-0.13329433 0.44290465 0.38507903 0
-0.17690514 0.52634132 0.49314365 0
0.18303658 -0.1198727 -0.04972909 0
0.64769536 -0.98223591 0.46418726 0
-0.12371392 0.44942766 0.38455296 0
-0.1740831 0.54290807 0.48524967 0
0.20114435 -0.1119963 -0.049792618 0
0.68300635 -0.97993588 0.46687937 0
-0.11474443 0.45698887 0.38358846 0
-0.16554053 0.54848379 0.48477975 0
0.22197737 -0.10878981 -0.050057989 0
0.71878511 -0.97768617 0.46969348 0
-0.084796317 0.42774475 0.40022445 0
-0.15445201 0.54956973 0.48744681 0
0.23829664 -0.097539552 -0.05000294 0
0.75498551 -0.97536826 0.47260815 0
-0.058266677 0.40630686 0.41341436 0
-0.1448216 0.55335933 0.4883689 0
0.25908133 -0.093730696 -0.050266616 0
0.80482405 -0.99477196 0.48022088 0
-0.056665398 0.42757875 0.40619224 0
-0.13821639 0.56222236 0.48586416 0
0.27502039 -0.081786521 -0.050201137 0
0.84558314 -0.99758244 0.48450056 0
-0.12999938 0.56830037 0.48534361 0
0.2889826 -0.066836603 -0.050016157 0
0.87906891 -0.98792219 0.48625341 0
-0.12019575 0.57186371 0.48666248 0
0.3054125 -0.055865292 -0.050007202 0
0.909702 -0.97347569 0.48707789 0
0.021662673 0.37500733 0.4419221 0
-0.11593676 0.58395135 0.48202664 0
0.32180819 -0.044849042 -0.050005112 0
0.95717055 -0.98369098 0.49336362 0
0.033490025 0.38118368 0.4425143 0
-0.10839216 0.59083563 0.48111543 0
0.33774552 -0.033170704 -0.049983155 0
0.99737972 -0.98191833 0.49720216 0
0.040814601 0.3939032 0.43988693 0
-0.1069173 0.60638499 0.4740057 0
0.35435578 -0.022455936 -0.050012037 0
0.054658853 0.39722157 0.4420656 0
-0.098318912 0.61144233 0.47449121 0
0.36922255 -0.009323841 -0.049943388 0
0.066122137 0.40401441 0.44256964 0
-0.093357004 0.6214962 0.47138599 0
0.3809503 0.0079026166 -0.049699444 0
1.1400015 -1.0003443 0.10675555 0
1.1249015 -0.98028684 0.30659986 0
0.097785436 0.38403016 0.45703024 0
-0.084221847 0.62579018 0.47257307 0
0.40325245 0.011168713 -0.05008962 0
0.10102 0.40227628 0.45183569 0
-0.076288529 0.63172442 0.47262824 0
0.41498432 0.028211111 -0.049868718 0
0.12961753 0.38803661 0.4637771 0
-0.068217881 0.63749176 0.47288546 0
0.4345946 0.035330411 -0.050109059 0
0.44882438 0.049163338 -0.050051119 0
-0.054807462 0.65236068 0.47106579 0
0.46326062 0.062697165 -0.050014984 0
-0.04487697 0.65594524 0.4732455 0
0.47111318 0.083690636 -0.049632534 0
-0.045536496 0.67172581 0.46591976 0
0.49743518 0.083790652 -0.050254568 0
1.2097925 -0.70669377 0.10024447 0
-0.035263218 0.67491215 0.46855819 0
0.50401193 0.10590517 -0.049829677 0
1.2022412 -0.64955294 0.098555893 0
-0.029692689 0.68335408 0.46708718 0
0.52469712 0.11270451 -0.050157107 0
0.38488397 0.26020706 0.054901335 0
0.53894192 0.12646496 -0.050154865 0
0.38308439 0.28680164 0.054171864 0
0.83055705 -0.17353082 0.22000176 0
-0.015455284 0.69679487 0.4671106 0
0.55417305 0.13923836 -0.050211348 0
0.39458761 0.29932672 0.054141294 0
0.83631736 -0.14379525 0.21815862 0
-0.0051136999 0.70028764 0.46993697 0
0.55735248 0.16386068 -0.049673341 0
0.4098787 0.30811995 0.054308202 0
0.74270946 -0.017455941 0.20145594 0
0.73894793 -0.013776427 0.33305374 0
0.7408399 -0.015627151 0.46934497 0
-0.0029392627 0.71193969 0.46598989 0
0.58449358 0.16510689 -0.050339371 0
0.42689231 0.31543666 0.054563601 0
0.8392536 -0.077898748 0.21343167 0
0.19672425 0.53498501 0.35273039 0
0.0054941983 0.71739197 0.46734071 0
0.58687299 0.19002974 -0.049791124 0
0.45433554 0.31330246 0.055329058 0
0.844428 -0.049521569 0.21174543 0
0.19385792 0.55557203 0.34734002 0
0.0207571 0.71657264 0.47426298 0
0.60855025 0.19693387 -0.050194386 0
0.83319718 -0.0067948154 0.073021457 0
0.83259243 -0.0062463335 0.20766264 0
0.19429542 0.57261485 0.34361178 0
0.01692619 0.73346812 0.46581185 0
0.61352175 0.21899295 -0.049801234 0
0.8337211 0.024294013 0.07229495 0
0.83885211 0.019757146 0.20629951 0
0.8408367 0.018002385 0.34260869 0
0.20740445 0.57807958 0.34564799 0
0.028933963 0.73588216 0.47016191 0
0.61554474 0.24323177 -0.049286518 0
0.83439308 0.054583546 0.071601823 0
0.84676653 0.043917533 0.20523259 0
0.83626229 0.052972194 0.33783939 0
0.24006863 0.56689388 0.356282 0
0.038289927 0.74082804 0.47241268 0
0.63596076 0.25154483 -0.049649227 0
0.84340101 0.077234618 0.071322598 0
0.84254688 0.077952258 0.20251653 0
0.83672827 0.082841627 0.33441189 0
0.92927498 0.0050754496 0.50143188 0
0.26722905 0.561387 0.36435086 0
0.2826592 0.54842114 0.46031022 0
0.039743327 0.75254124 0.46856681 0
0.6593048 0.25779456 -0.050148193 0
0.83149487 0.11676525 0.070094332 0
0.83463293 0.11419498 0.19937499 0
0.83840519 0.11110543 0.33138999 0
0.94293517 0.025491828 0.50078839 0
0.29302987 0.55778575 0.37172234 0
0.24884363 0.59397572 0.4374916 0
0.045881055 0.76020879 0.46846485 0
0.66593868 0.27783668 -0.049882472 0
0.84369606 0.13594925 0.070002429 0
0.84257811 0.13684154 0.19850869 0
0.84089988 0.13818121 0.32866958 0
0.98785311 0.020881886 0.51043946 0
0.27625397 0.58888632 0.36087644 0
0.24857868 0.61097699 0.43298036 0
0.052052222 0.76784605 0.46846297 0
0.6801452 0.29175544 -0.049973305 0
0.85046095 0.15928411 0.069676526 0
0.84432811 0.16405416 0.19684637 0
0.83719116 0.16960526 0.32463658 0
0.26029977 0.61831051 0.43491298 0
0.055507861 0.77759731 0.46649352 0
0.69498247 0.30528051 -0.050099421 0
0.85092288 0.18711126 0.069084607 0
0.83239251 0.20115328 0.19340089 0
0.83602136 0.19840336 0.32130638 0
0.2627143 0.63284647 0.43204087 0
0.070537947 0.77847469 0.47324696 0
0.72048134 0.31105012 -0.050705064 0
0.85190541 0.21403968 0.068536878 0
0.83057827 0.22978222 0.19140196 0
0.84694141 0.21770382 0.3207987 0
0.28801993 0.6302709 0.44107005 0
0.075673781 0.78701383 0.47265294 0
0.72581035 0.33184934 -0.050421614 0
0.85017723 0.24244523 0.067889884 0
0.84180862 0.24846113 0.1911955 0
0.84426636 0.24669433 0.31733018 0
0.081095301 0.79531854 0.47235182 0
0.72874111 0.35408705 -0.050047606 0
0.85553747 0.26533639 0.067573123 0
0.84570283 0.27222019 0.19005951 0
0.83740383 0.27802896 0.31305099 0
0.83757621 0.27790833 0.44042635 0
0.087374292 0.80300933 0.4727501 0
0.73062819 0.37672049 -0.049643852 0
0.87409252 0.27897125 0.067841597 0
0.84034795 0.30196303 0.1877695 0
0.83968931 0.30241179 0.31089124 0
0.84545606 0.29848266 0.43909764 0
0.10759088 0.80122608 0.4832167 0
0.74456245 0.39102781 -0.049771778 0
0.92473358 0.27156228 0.069489665 0
0.84334904 0.32552564 0.18662453 0
0.83535439 0.33082664 0.30738354 0
0.83752126 0.32938987 0.43301845 0
0.11913481 0.80572861 0.48740903 0
0.76441067 0.40163124 -0.050157607 0
0.95205432 0.28058434 0.07012967 0
0.84478384 0.34978342 0.18532658 0
0.83842129 0.3538878 0.30556989 0
0.84708256 0.34830052 0.43241906 0
0.12890305 0.81159037 0.49035445 0
0.77908355 0.41580671 -0.050327927 0
0.99383873 0.28106916 0.071379028 0
0.83179551 0.38273519 0.18224791 0
0.83790749 0.37890053 0.30307022 0
0.83404201 0.38132572 0.42508897 0
0.12393614 0.82684648 0.48301241 0
0.7750414 0.44154245 -0.0497218 0
1.0322931 0.28462172 0.072479829 0
0.83203214 0.40677869 0.18091005 0
0.85093099 0.39525062 0.30351627 0
0.83354229 0.4058575 0.42168763 0
0.13357712 0.8328287 0.48600823 0
0.79593962 0.45199913 -0.05016879 0
1.0678418 0.29080373 0.073453709 0
0.83456868 0.42909807 0.17990746 0
0.83472902 0.42900306 0.29787493 0
0.84544045 0.42265284 0.4220807 0
0.13052966 0.84648293 0.48028609 0
0.79854769 0.47335744 -0.049864456 0
0.84577626 0.44615602 0.18002246 0
0.84339136 0.44752967 0.29753798 0
0.84492522 0.44664621 0.41887861 0
0.14768846 0.84822077 0.48855215 0
0.81245548 0.48815352 -0.050035521 0
0.84827274 0.46812081 0.17909054 0
0.8445521 0.47020167 0.29570162 0
0.84688526 0.46889681 0.41651124 0
0.14615847 0.86081535 0.48407596 0
0.83158201 0.50025713 -0.050425023 0
0.85263544 0.48882747 0.17842716 0
0.83660823 0.49752849 0.29206821 0
0.83661324 0.49752569 0.41069061 0
0.8323732 0.52233201 -0.05007828 0
0.84934622 0.51339239 0.17687048 0
0.84091538 0.51783288 0.29102635 0
0.84183568 0.51734817 0.40948066 0
0.84116513 0.54004967 -0.050065674 0
0.85299832 0.5340063 0.17619884 0
0.83874398 0.54128617 0.28873116 0
0.83815187 0.5415886 0.40579873 0
0.82951134 0.54600149 0.52411282 0
0.85008341 0.55769843 -0.050067089 0
0.85219198 0.55665481 0.17502801 0
0.83554 0.56489652 0.28630206 0
0.84732825 0.55906206 0.40588778 0
0.83812338 0.56361789 0.52403986 0
0.85268348 0.57838041 -0.049827181 0
0.8696447 0.57024986 0.1760744 0
0.84917384 0.58006281 0.28731477 0
0.83552784 0.58660418 0.40010375 0
0.83821434 0.58531636 0.52090555 0
0.85727531 0.59795523 -0.049677338 0
0.90965003 0.57365507 0.1798069 0
0.84569365 0.6033287 0.28495714 0
0.83067816 0.61029541 0.3964062 0
0.8405202 0.60572898 0.51870245 0
0.88491422 0.6070751 -0.050439872 0
0.92838818 0.58756602 0.18101831 0
0.84650856 0.62430978 0.28351992 0
0.83709985 0.62853199 0.3959651 0
0.84040755 0.62704766 0.51572376 0
0.87613195 0.63258094 -0.049785428 0
0.95885414 0.59670347 0.18361752 0
0.83737582 0.64938992 0.28018707 0
0.83451313 0.65063149 0.39308527 0
0.8382315 0.64901876 0.51211065 0
0.89218932 0.6471861 -0.050108336 0
1.0054345 0.59975559 0.18809405 0
0.83937734 0.66930538 0.27911073 0
0.84053105 0.66882217 0.39267784 0
0.83673757 0.67041105 0.50886267 0
0.90329438 0.66404158 -0.050246008 0
1.0408617 0.60844964 0.19125953 0
0.83804232 0.69041038 0.27743977 0
0.83938318 0.68986851 0.39036384 0
0.84067446 0.68934673 0.50767684 0
0.89886099 0.68705732 -0.049795821 0
1.0722462 0.6195181 0.19395594 0
0.84226018 0.70910519 0.27690327 0
0.84095699 0.70961285 0.38887912 0
0.84285277 0.7088744 0.50595427 0
0.27200428 0.93123859 0.45136061 0
0.91976351 0.70023382 -0.050324891 0
0.85474032 0.7246241 0.27800623 0
0.8318519 0.73320949 0.38455939 0
0.84853941 0.72694999 0.50557399 0
0.27672353 0.94143856 0.45174375 0
0.91637689 0.72257394 -0.049936011 0
0.84372538 0.74878693 0.2746371 0
0.83109444 0.75334424 0.38260415 0
0.83959645 0.75027668 0.5001018 0
0.25645009 0.9606784 0.43889976 0
0.92738897 0.739636 -0.050103534 0
0.85759372 0.76382965 0.27609044 0
0.83247358 0.77253717 0.38130298 0
0.84010297 0.76989257 0.49808446 0
0.84527642 0.76809925 0.62066323 0
0.26291946 0.96996588 0.44040185 0
0.92719072 0.76055431 -0.049856681 0
0.85423726 0.78481817 0.27430004 0
0.85144693 0.78574622 0.38480297 0
0.84481758 0.78795111 0.49763772 0
0.84454054 0.7880432 0.61771935 0
0.29599991 0.97048414 0.45599118 0
0.94333512 0.77608532 -0.05023307 0
0.84748751 0.80662876 0.27192461 0
0.8427816 0.80812842 0.38093269 0
0.84536153 0.80730629 0.49581605 0
0.83445209 0.81078273 0.61083245 0
0.30083194 0.9808296 0.45668742 0
0.95339268 0.79375279 -0.050388142 0
0.84941322 0.82545102 0.27124587 0
0.83980805 0.82837921 0.37867069 0
0.84066957 0.82811654 0.49226516 0
0.84606951 0.82647038 0.61349154 0
0.31160274 0.98940307 0.46055564 0
0.95576137 0.81377596 -0.05026504 0
0.87208003 0.83813906 0.27451017 0
0.83887464 0.84780651 0.37702698 0
0.82714313 0.85122204 0.48575705 0
0.83933002 0.84767395 0.6083101 0
0.32085326 0.99862385 0.46367386 0
0.95241445 0.83529854 -0.04993996 0
0.90060693 0.84967679 0.27888981 0
0.85557884 0.8621735 0.38012388 0
0.84173781 0.86601484 0.48908162 0
0.83834666 0.866956 0.60573506 0
0.32064638 1.0106341 0.46193087 0
0.95623165 0.8546958 -0.049890514 0
0.92109448 0.8639726 0.28178254 0
0.83291167 0.88725436 0.37286925 0
0.83760005 0.88601655 0.48601365 0
0.83207077 0.88747633 0.60100639 0
0.32396951 1.0216235 0.46209875 0
0.96078593 0.87387562 -0.049877353 0
0.95984095 0.87411243 0.28809446 0
0.83494109 0.90541124 0.3722164 0
0.84412855 0.90310895 0.48670021 0
0.82642061 0.9075464 0.59667015 0
0.33576897 1.0304995 0.46670976 0
0.9745155 0.89087224 -0.050209776 0
0.97909397 0.88978601 0.29079804 0
0.84436399 0.92175078 0.37356418 0
0.83616835 0.92369521 0.48250428 0
0.84616655 0.92132312 0.60326129 0
0.34078416 1.0412253 0.46787596 0
0.97951144 0.91006863 -0.050229572 0
1.0145526 0.90221983 0.29652563 0
0.84143895 0.94099534 0.37173364 0
0.83858377 0.94163489 0.48194614 0
0.82991201 0.94357723 0.59463274 0
0.34203437 1.0528566 0.46717772 0
0.98110205 0.93000031 -0.050133903 0
1.0498784 0.91550213 0.30224243 0
0.83502823 0.96079302 0.36906236 0
0.84754556 0.95815432 0.4836922 0
0.8330223 0.96121585 0.59433979 0
0.35746947 1.0614635 0.47380963 0
0.98040634 0.9503184 -0.049964409 0
1.0866898 0.92930776 0.30824894 0
0.84938365 0.97621965 0.37186334 0
0.84086388 0.9779039 0.48019934 0
0.83721155 0.97862595 0.59459674 0
0.36036989 1.0728905 0.47408739 0
0.97816759 0.97080302 -0.049748592 0
0.84694833 0.99503052 0.37035194 0
0.84309143 0.99574262 0.47981295 0
0.83709604 0.99684954 0.59313315 0
0.39544049 1.0783939 0.49080592 0
0.994003 0.98803407 -0.050197303 0
0.85411471 1.0120448 0.37139073 0
0.85092074 1.012593 0.48139423 0
0.83414155 1.015473 0.59057653 0
0.38933012 1.0918214 0.48661774 0
0.9857462 1.0094123 -0.049782079 0
0.44234183 1.0956544 0.042139038 0
0.43785307 1.0963668 0.11429857 0
0.44502589 1.0952284 0.18905014 0
0.43216589 1.0972694 0.26163161 0
0.43254206 1.0972097 0.33947232 0
0.43803647 1.0963377 0.42330775 0
0.38517681 1.1047269 0.48351514 0
0.99798173 1.0275096 -0.050116681 0
0.40837958 1.1134872 0.0408445 0
0.40262231 1.1143268 0.11026489 0
0.40281615 1.1142986 0.18100654 0
0.411814 1.1129864 0.25589463 0
0.40655467 1.1137534 0.33009633 0
0.40828094 1.1135017 0.41005826 0
0.40662923 1.1137426 0.49344757 0
1.0035526 1.0467343 -0.050218899 0
0.3899481 1.1283357 0.04011957 0
0.43742433 1.1220219 0.11385509 0
0.43063387 1.122925 0.18576069 0
0.43621311 1.1221831 0.26173618 0
0.43786225 1.1219637 0.3400355 0
0.43061933 1.122927 0.41867998 0
0.41678283 1.1247671 0.49771768 0
0.99229556 1.0680574 -0.049724586 0
0.37670609 1.1420473 0.03958907 0
0.41577759 1.1373512 0.11134022 0
0.42321935 1.1364567 0.18412757 0
0.43404773 1.1351552 0.26077247 0
0.43825391 1.1346496 0.33963472 0
0.43645903 1.1348654 0.42045796 0
1.003139 1.0866586 -0.050034136 0
0.36145338 1.1556004 0.038993292 0
0.85558838 1.1025112 0.36857507 0
0.84698123 1.103436 0.47592071 0
0.84312314 1.1038505 0.58920699 0
1.0029887 1.1065235 -0.049957473 0
0.3622143 1.1672165 0.038978618 0
0.84963256 1.1210492 0.36658761 0
0.83006507 1.1229025 0.46966994 0
0.84870416 1.121137 0.59078628 0
1.0069637 1.125999 -0.050037634 0
0.35366485 1.179588 0.03863569 0
0.8515653 1.138746 0.36668134 0
0.83962458 1.1397254 0.47234535 0
0.83423728 1.1401674 0.584126 0
1.0120807 1.145455 -0.050167371 0
0.36576679 1.1902862 0.039037693 0
0.85528499 1.1563311 0.36728904 0
0.84416801 1.1571021 0.4734163 0
0.83873445 1.157479 0.58544171 0
1.0218004 1.1647447 -0.050470367 0
0.85146612 1.1744065 0.36602646 0
0.84292537 1.174891 0.47263134 0
0.84382373 1.17484 0.58709246 0
1.01738 1.1848751 -0.050276566 0
0.85862917 1.1918758 0.36762729 0
0.84561414 1.1924498 0.47323066 0
0.84048361 1.1926761 0.58533949 0
1.024001 1.2045242 -0.050486289 0
0.8510856 1.2099692 0.36552972 0
0.84157389 1.2102687 0.47166353 0
0.84967822 1.2100135 0.58887267 0
1.0106899 1.2247009 -0.049993068 0
0.84875923 1.2277597 0.36482206 0
0.8437528 1.2278543 0.4722409 0
0.84205753 1.2278863 0.58553201 0
1.0125009 1.2444377 -0.050048847 0
0.84904355 1.2454667 0.36483771 0
0.8342914 1.2455597 0.46901914 0
0.83563215 1.2455512 0.58277977 0
1.0145293 1.2642182 -0.050121266 0
0.85159701 1.2631924 0.36548921 0
0.84309322 1.2631389 0.47194752 0
0.839616 1.2631171 0.5844292 0
1.0231783 1.2841781 -0.050439 0
0.84925777 1.2808928 0.36494929 0
0.84515935 1.2808155 0.47270891 0
0.84311312 1.2807767 0.58596915 0
1.0089221 1.3036441 -0.049947686 0
0.84750766 1.2985613 0.36461642 0
0.8458373 1.2985086 0.47308263 0
0.83370513 1.2981267 0.58225596 0
1.003772 1.3231679 -0.049790274 0
0.84805161 1.3163009 0.36492601 0
0.85198277 1.3164742 0.47535154 0
0.83735925 1.3158293 0.58404464 0
1.004275 1.3429043 -0.04984368 0
0.84380037 1.3338017 0.36406752 0
0.84621614 1.3339388 0.47372791 0
0.83228749 1.3331487 0.58230841 0
1.0187896 1.3636535 -0.050407466 0
1.2959931 1.3828815 0.072327763 0
1.3093957 1.3838112 0.20710604 0
1.3033125 1.3833892 0.3423847 0
0.85161179 1.3520573 0.36634961 0
0.8395043 1.3512175 0.471861 0
0.83927637 1.3512017 0.58566666 0
1.0029746 1.3823169 -0.049894739 0
1.2473152 1.4023598 0.070647307 0
1.2401727 1.4017739 0.19983348 0
1.0087078 1.3827872 0.28939542 0
0.84327143 1.3692168 0.36455822 0
0.83785099 1.3687721 0.4717533 0
0.83763534 1.3687545 0.58553767 0
1.0087962 1.4026697 -0.050165743 0
1.2445 1.4249952 0.070618331 0
1.2426262 1.4248177 0.20031413 0
0.89986008 1.3923515 0.26999256 0
0.8414126 1.3868154 0.36448103 0
0.84703118 1.3873476 0.47533971 0
0.83918947 1.3866048 0.58682925 0
1.0063924 1.4223341 -0.050150953 0
0.64774066 1.383801 0.04927294 0
0.64935166 1.3839741 0.13643588 0
0.64235276 1.3832222 0.22362034 0
0.63760668 1.3827122 0.31264088 0
0.85004264 1.4055361 0.4769451 0
0.84387463 1.4048734 0.58951992 0
0.99402779 1.4407939 -0.049786873 0
0.55254966 1.3877312 0.045912098 0
0.54945737 1.3873595 0.1258101 0
0.54969937 1.3873886 0.20710225 0
0.55736059 1.3883094 0.29245993 0
0.84276301 1.4226129 0.47518116 0
0.84178108 1.4224949 0.58948368 0
1.0008178 1.4615451 -0.050120406 0
0.5582301 1.4026868 0.046180349 0
0.55554718 1.4023299 0.12666143 0
0.56844729 1.4040456 0.21083398 0
0.55334085 1.4020365 0.29188231 0
0.84291226 1.4405458 0.47597972 0
0.84963864 1.4414403 0.59369642 0
0.9980734 1.4811469 -0.050119989 0
0.54990727 1.4157939 0.045950659 0
0.55172366 1.4160588 0.12645817 0
0.55711049 1.4168442 0.20912765 0
0.54688436 1.4153531 0.2907199 0
0.84451443 1.4587545 0.47734404 0
0.84168321 1.4583416 0.59140021 0
1.0056932 1.5023965 -0.050503124 0
0.55632216 1.4310782 0.046259213 0
0.55432612 1.4307615 0.12697251 0
0.55167288 1.4303403 0.20852451 0
0.55401045 1.4307113 0.29310712 0
0.84388918 1.4767171 0.47803795 0
0.83549243 1.4753845 0.58992833 0
0.98961097 1.5198551 -0.050038207 0
0.55392486 1.445073 0.046256188 0
0.54972512 1.4443523 0.12672268 0
0.54587907 1.4436921 0.20788597 0
0.55629355 1.4454796 0.29429588 0
0.84326893 1.4947368 0.47881132 0
0.84058088 1.4942753 0.59328169 0
0.99369985 1.5407078 -0.050312486 0
0.55127102 1.4590207 0.046250239 0
0.54979604 1.4587483 0.12700149 0
0.55430084 1.4595801 0.20988382 0
0.55909759 1.4604658 0.29567072 0
0.84072644 1.5124638 0.47901285 0
0.84142405 1.5125927 0.59495538 0
0.98164636 1.5585698 -0.050009537 0
0.55105692 1.4734486 0.046339445 0
0.55465347 1.4741596 0.12782523 0
0.53875786 1.4710172 0.20751774 0
0.55027562 1.4732941 0.29407445 0
0.8416695 1.5308985 0.48047253 0
0.84479815 1.5315169 0.59779871 0
0.97308868 1.5769535 -0.049841527 0
0.55104858 1.4879866 0.046443012 0
0.55631703 1.4890971 0.12832165 0
0.53613049 1.4848418 0.20755239 0
0.5552004 1.4888618 0.29610032 0
0.83330435 1.5474867 0.4788501 0
0.84526104 1.5500072 0.59951842 0
0.97113687 1.5966986 -0.049923178 0
0.55978054 1.5045594 0.046873331 0
0.55712992 1.5039656 0.12874645 0
0.55187446 1.5027885 0.21101461 0
0.55104584 1.5026029 0.29580927 0
0.83078414 1.5652612 0.47928694 0
0.84299809 1.567997 0.6001851 0
0.97366112 1.6175681 -0.050178424 0
0.56127411 1.5197291 0.047046993 0
0.5536111 1.5179111 0.12871474 0
0.54996783 1.5170467 0.21125738 0
0.54997557 1.5170486 0.2963714 0
0.83770603 1.5853127 0.48303008 0
0.84034389 1.5859386 0.60078359 0
0.96397704 1.6355672 -0.049994804 0
0.55810982 1.5338603 0.04705679 0
0.5549925 1.5330791 0.12924525 0
0.55120629 1.5321305 0.21211903 0
0.55131108 1.5321567 0.29761583 0
0.84745485 1.6063677 0.48784107 0
0.83845001 1.6041112 0.60180473 0
0.95695275 1.6541377 -0.049917139 0
0.55388099 1.5477201 0.047033876 0
0.55705851 1.548559 0.12987483 0
0.54720467 1.5459573 0.21204145 0
0.56094593 1.5495853 0.30110452 0
0.83806628 1.6227497 0.48617411 0
0.83510691 1.6219684 0.60230654 0
0.94950312 1.6725366 -0.049832091 0
0.55107147 1.5619593 0.047069922 0
0.55421048 1.5628304 0.12998024 0
0.54937249 1.5614877 0.21315087 0
0.5353325 1.5575912 0.29533055 0
0.84148008 1.6425568 0.48899266 0
0.83864766 1.6417707 0.60586447 0
0.94906467 1.6929175 -0.050016031 0
0.55145258 1.5771562 0.047231391 0
0.55121201 1.5770862 0.13008927 0
0.55336183 1.5777121 0.21464317 0
0.55501872 1.5781945 0.30159935 0
0.8456282 1.6628028 0.49216229 0
0.84137243 1.6615639 0.60919088 0
0.93384773 1.708932 -0.04965866 0
0.85441047 1.6847155 0.3825655 0
0.82310992 1.6751735 0.48615775 0
0.84081882 1.680572 0.61121875 0
0.93839246 1.7309827 -0.050047867 0
0.84418017 1.7009604 0.38130718 0
0.84389275 1.7008688 0.49530318 0
0.83584887 1.6983055 0.61143947 0
0.92844623 1.7485064 -0.049903918 0
0.84206742 1.7197773 0.38228106 0
0.84202439 1.719763 0.49665844 0
0.8288272 1.7153738 0.61086309 0
0.93152982 1.7704425 -0.050259996 0
0.84630042 1.7408988 0.38503656 0
0.8391524 1.7384211 0.49774978 0
0.83787888 1.7379797 0.61742163 0
0.91480273 1.7855012 -0.049876265 0
0.82981318 1.7548366 0.38225663 0
0.83178133 1.7555467 0.49733773 0
0.82688946 1.7537817 0.61531365 0
0.90925103 1.804466 -0.04992405 0
0.83994776 1.7784704 0.38676542 0
0.83745915 1.7775369 0.50163686 0
0.83879119 1.7780366 0.62340617 0
0.90738839 1.8249074 -0.05012254 0
0.84279317 1.7997456 0.38938186 0
0.82760471 1.7938291 0.50050998 0
0.83533198 1.7968391 0.62484837 0
0.9038673 1.844833 -0.050268069 0
0.83954638 1.8188405 0.39040875 0
0.83086818 1.8153336 0.50415802 0
0.82019943 1.8110223 0.62119043 0
0.88948864 1.8603258 -0.050003801 0
0.8255046 1.8335274 0.38852146 0
0.82536298 1.8334681 0.50475991 0
0.83664376 1.8381928 0.63176757 0
0.8829487 1.8790187 -0.050050694 0
0.8306492 1.8563359 0.39201075 0
0.82636613 1.8544782 0.50780785 0
0.81976229 1.8516141 0.62751663 0
0.86932606 1.8945727 -0.049829885 0
0.82586449 1.8750693 0.39282322 0
0.83216125 1.8778949 0.51271665 0
0.82016736 1.8725127 0.63116294 0
0.85349399 1.9089335 -0.049528517 0
0.83465701 1.9001938 0.39752528 0
0.81868094 1.8927814 0.51069266 0
0.81829828 1.8926039 0.63391244 0
0.85676068 1.9322171 -0.049988605 0
0.83453554 1.9215633 0.39982301 0
0.81502491 1.9122107 0.51235002 0
0.82028204 1.9147308 0.63856339 0
0.84110969 1.9465033 -0.049709626 0
0.82851475 1.9402696 0.40053213 0
0.8036626 1.9279692 0.51124752 0
0.81800514 1.9350679 0.64140344 0
0.84935695 1.9727771 -0.050394066 0
0.81909853 1.9573237 0.40034035 0
0.81140131 1.9533926 0.5173474 0
0.8090567 1.9521952 0.64127886 0
0.83543926 1.987926 -0.050202001 0
0.81322068 1.9762236 0.40122932 0
0.80298072 1.9708303 0.51753175 0
0.79584867 1.9670738 0.63926071 0
0.82033294 2.002279 -0.049968053 0
0.80040437 1.9914601 0.400179 0
0.78653187 1.9839288 0.51476091 0
0.79678816 1.9894968 0.64398187 0
0.81494051 2.0218794 -0.050137177 0
0.79974097 2.0133784 0.40272972 0
0.78427464 2.0047281 0.517443 0
0.78898424 2.0073621 0.64472204 0
0.79555851 2.0335641 -0.049741305 0
0.78078538 2.0250554 0.3999944 0
0.77893418 2.0239892 0.51906103 0
0.78279561 2.0262132 0.64634645 0
0.79883915 2.058363 -0.050289132 0
0.78800541 2.0519402 0.4050456 0
0.77399951 2.043637 0.52094162 0
0.77289766 2.0429838 0.64631146 0
0.78420824 2.0726924 -0.050105147 0
0.76796871 2.0627863 0.40209085 0
0.77628607 2.0678599 0.52574688 0
0.77196628 2.0652249 0.65072691 0
0.76098949 2.0814843 -0.049565334 0
0.76528007 2.0841761 0.40437868 0
0.77293795 2.0889807 0.52849656 0
0.76109177 2.0815485 0.65045375 0
0.75530356 2.1011369 -0.049770691 0
0.76100653 2.104816 0.40628541 0
0.76008326 2.1042204 0.52760977 0
0.75904995 2.1035538 0.6546312 0
0.74685305 2.1191339 -0.049869895 0
0.74463719 2.1176648 0.40458459 0
0.75800711 2.1265299 0.53109449 0
0.74166721 2.1156955 0.65135962 0
0.73665434 2.1360285 -0.049904186 0
0.73687023 2.1361756 0.40557459 0
0.74586946 2.1423073 0.5306713 0
0.73842698 2.1372364 0.65522164 0
0.73174399 2.1566579 -0.050178465 0
0.73387831 2.1581519 0.40813267 0
0.72365111 2.1509933 0.52623093 0
0.72861117 2.154465 0.65593106 0
0.70724171 2.1634452 -0.049605172 0
0.7226972 2.1745558 0.40822744 0
0.71725076 2.1706405 0.52827609 0
0.71759015 2.1708844 0.65614265 0
0.70207578 2.1840069 -0.049888339 0
0.71225864 2.1915233 0.40862373 0
0.71716255 2.1951432 0.53305238 0
0.70461172 2.1858788 0.6554547 0
0.69962138 2.2068779 -0.050307218 0
0.69399363 2.2026134 0.40658662 0
0.71138149 2.2157896 0.53562629 0
0.70214814 2.2087927 0.66032016 0
0.69268197 2.2266388 -0.050540332 0
0.69421774 2.2278333 0.41055042 0
0.69666451 2.2297363 0.53456819 0
0.69185275 2.2259939 0.6612761 0
0.66998261 2.2340343 -0.050067198 0
0.68627185 2.2470365 0.41199034 0
0.68933409 2.2494807 0.53671819 0
0.68865198 2.2489364 0.66611427 0
0.65199393 2.2448606 -0.049810819 0
0.67291337 2.2619944 0.41173959 0
0.67099029 2.2604194 0.53426063 0
0.67375356 2.2626827 0.66489607 0
0.64002007 2.2605093 -0.049838524 0
0.65742821 2.2751372 0.41083986 0
0.66206294 2.2790318 0.53592843 0
0.65795487 2.2755797 0.66327119 0
0.63265187 2.2801578 -0.050092854 0
0.72337109 2.3583581 0.066368856 0
0.71691853 2.3527961 0.18680897 0
0.71623093 2.3522034 0.30925936 0
0.64833885 2.29368 0.41214016 0
0.64594847 2.2916195 0.53456002 0
0.65414733 2.298687 0.66827154 0
0.61186284 2.2881832 -0.04972218 0
0.67662102 2.3454423 0.064808272 0
0.67749304 2.3462131 0.18315184 0
0.68007749 2.3484983 0.30390802 0
0.64362413 2.3162665 0.41502389 0
0.63704497 2.3104491 0.5364486 0
0.64161354 2.3144886 0.66866511 0
0.60425287 2.307812 -0.049987275 0
0.65849823 2.3570063 0.064601682 0
0.66436869 2.3623302 0.18325657 0
0.65881306 2.3572917 0.30210897 0
0.6245138 2.3261864 0.41308004 0
0.62375921 2.3255022 0.53649664 0
0.63351732 2.3343515 0.67165416 0
0.59296173 2.3242764 -0.050087985 0
0.63788396 2.3660586 0.064278238 0
0.64200717 2.3698936 0.18203641 0
0.64102572 2.3689806 0.30117229 0
0.61009306 2.3402104 0.41279048 0
0.61666816 2.3463259 0.5394454 0
0.61256355 2.3425081 0.66754878 0
0.57938308 2.3386614 -0.050087225 0
0.18756516 1.9649216 0.042755619 0
0.62512034 2.3822885 0.18162866 0
0.62417227 2.3813841 0.30049348 0
0.59998828 2.3583159 0.41408107 0
0.5977487 2.3561797 0.53711128 0
0.60009938 2.358422 0.66830981 0
0.57714468 2.3641431 -0.050661802 0
0.16661014 1.9625572 0.042158879 0
0.61587757 2.4020319 0.1823884 0
0.61582536 2.4019806 0.30199152 0
0.5808056 2.3677244 0.41222867 0
0.58786875 2.3746336 0.53901255 0
0.58147091 2.3683751 0.66562545 0
0.55856901 2.3738146 -0.050433651 0
0.17271419 1.9867438 0.042921405 0
0.61306316 2.4284806 0.18417393 0
0.60647768 2.4218743 0.3033188 0
0.57346827 2.3887608 0.41467592 0
0.56645435 2.3817248 0.53561139 0
0.57260007 2.3878899 0.66870242 0
0.53744155 2.3806345 -0.050078019 0
0.18674995 2.0198646 0.044115636 0
0.16697706 1.9995235 0.11768839 0
0.61300415 2.4583688 0.30883506 0
0.55637318 2.4001102 0.41367978 0
0.54848081 2.3919911 0.53385055 0
0.5667879 2.4108243 0.67378145 0
0.51641923 2.3872056 -0.049727518 0
0.21204115 2.0660875 0.045931447 0
0.15800263 2.0090768 0.11776119 0
0.60947853 2.4853828 0.31190956 0
0.54943568 2.4220378 0.41649008 0
0.54396802 2.4162695 0.53863806 0
0.54558069 2.4179707 0.66983551 0
0.50897175 2.4081042 -0.050090555 0
0.25303116 2.131186 0.048628315 0
0.13900585 2.0078146 0.11626701 0
0.53447253 2.4356949 0.41642523 0
0.53695852 2.4383848 0.54241627 0
0.53844434 2.4399924 0.67447329 0
0.48986754 2.4164548 -0.049850989 0
0.24657138 2.1464756 0.048876047 0
0.12583424 2.0124967 0.11568442 0
0.52303189 2.4532564 0.41776705 0
0.52082294 2.4508052 0.54184967 0
0.52043992 2.4503803 0.67262495 0
0.47592184 2.4304256 -0.049892638 0
0.23816814 2.1598215 0.049032569 0
0.11077531 2.0148268 0.11479567 0
0.49604222 2.453326 0.41320276 0
0.50392514 2.4622982 0.54096907 0
0.50302416 2.4612727 0.67120069 0
0.4577435 2.4395046 -0.0497122 0
0.26180777 2.2107508 0.050959107 0
0.093998335 2.0148339 0.11361473 0
0.48712227 2.4738042 0.41565809 0
0.48060581 2.4661963 0.5368647 0
0.48256144 2.4684794 0.66790271 0
0.44326922 2.4528265 -0.049741674 0
0.086284958 2.0252681 0.11393566 0
0.47052595 2.4854715 0.41519681 0
0.4714255 2.4865489 0.54006279 0
0.45869657 2.4713037 0.66241503 0
0.43007866 2.4677634 -0.049853627 0
0.066039108 2.0204244 0.11215002 0
0.45808706 2.5021806 0.41646773 0
0.45373985 2.4968386 0.53896183 0
0.45916924 2.5035105 0.67282933 0
0.4241164 2.4919469 -0.050393403 0
0.042663656 2.0109644 0.040477045 0
0.058428489 2.0308428 0.11251061 0
0.4340544 2.504478 0.41308445 0
0.43469766 2.5052891 0.53718573 0
0.43621227 2.5071988 0.66806674 0
0.40110919 2.4947009 -0.04996448 0
0.032343052 2.0174947 0.040433493 0
0.051023804 2.0416687 0.1129362 0
0.42896912 2.5307534 0.41756332 0
0.41891775 2.5177462 0.53721291 0
0.41889849 2.5177214 0.66707832 0
0.39510456 2.5195415 -0.05053962 0
0.02847 2.0325413 0.040776759 0
0.046012126 2.0558426 0.11382072 0
0.40972814 2.5389662 0.41625214 0
0.40790412 2.5365431 0.53996307 0
0.41269317 2.5429046 0.67381066 0
0.37012449 2.5191967 -0.049997836 0
0.020152709 2.0419402 0.040869001 0
0.10223981 2.1538823 0.12588216 0
0.39739785 2.5563896 0.4179441 0
0.38689944 2.5420728 0.53727186 0
0.39737698 2.5563612 0.6745007 0
0.35011932 2.5251665 -0.049751781 0
0.037701093 2.0876751 0.042559091 0
0.12644406 2.2119453 0.13246244 0
0.37877569 2.5652952 0.4169994 0
0.37435117 2.5590994 0.53941351 0
0.37747207 2.5634696 0.67205346 0
0.33688065 2.5405698 -0.049929067 0
0.093777679 2.1909163 0.046725322 0
0.36163935 2.57618 0.41675118 0
0.36266962 2.577662 0.54222322 0
0.36183324 2.5764589 0.67272002 0
0.32214364 2.5539877 -0.05002648 0
0.09282472 2.2151351 0.047419101 0
0.3428677 2.5846107 0.41581574 0
0.34026274 2.5807614 0.53885663 0
0.34427854 2.5866954 0.67210352 0
0.29881683 2.5544927 -0.049579062 0
0.089394711 2.2364864 0.047985092 0
0.32712623 2.5974805 0.41631663 0
0.32054439 2.587486 0.53707474 0
0.32062468 2.5876079 0.66697985 0
0.28432891 2.5682156 -0.049708162 0
0.29678139 2.5876529 0.4099966 0
0.30741921 2.6042578 0.53937554 0
0.30271736 2.5969186 0.66617393 0
0.27394894 2.5887098 -0.050128799 0
0.28853551 2.6121225 0.4141508 0
0.28730443 2.6101465 0.53745735 0
0.29121998 2.6164312 0.6704613 0
0.2589508 2.6021583 -0.050257619 0
0.27561846 2.6296771 0.41624203 0
0.26961598 2.6197667 0.53710407 0
0.27343097 2.6260655 0.6700049 0
0.24024381 2.6094909 -0.05013999 0
0.25726387 2.638407 0.41575357 0
0.25103846 2.6278303 0.53623879 0
0.25314721 2.631413 0.66760027 0
0.22044165 2.614747 -0.049947534 0
0.23965968 2.6483586 0.41569588 0
0.23223461 2.6353724 0.53526986 0
0.2353384 2.640801 0.6672622 0
0.20498271 2.6275532 -0.050074935 0
0.21728183 2.6497066 0.41319281 0
0.22005434 2.6547005 0.53888297 0
0.22067024 2.6558099 0.66969508 0
0.18593855 2.6339016 -0.049947504 0
0.20003815 2.660069 0.41340116 0
0.19934209 2.6587772 0.53676605 0
0.19878776 2.6577485 0.66605145 0
0.17158873 2.6490438 -0.050184861 0
0.17964955 2.6644659 0.41195342 0
0.180097 2.6653218 0.5356878 0
0.17610241 2.6576796 0.661623 0
0.15146507 2.6531699 -0.049987048 0
0.16035213 2.670707 0.41111609 0
0.1625386 2.6750216 0.53588378 0
0.15824254 2.666544 0.6615023 0
0.12912329 2.6524689 -0.049608584 0
0.1439801 2.6827254 0.41199526 0
0.13993366 2.6744847 0.53236669 0
0.13965888 2.6739252 0.66080219 0
0.11575492 2.6700253 -0.049965281 0
0.12586959 2.6912971 0.41195393 0
0.12439074 2.6881871 0.53422141 0
0.12365802 2.6866462 0.66266197 0
0.096941255 2.6763573 -0.049885437 0
0.10606088 2.6961763 0.41094002 0
0.10343947 2.6904795 0.53195858 0
0.10069766 2.6845207 0.65783668 0
0.083188616 2.6939323 -0.05025465 0
0.082885407 2.6932509 0.40782216 0
0.083899103 2.6955287 0.53080881 0
0.084538065 2.6969647 0.65977222 0
0.063125215 2.6974974 -0.050084177 0
0.064408563 2.7004819 0.40762308 0
0.062811814 2.6967683 0.52837479 0
0.065121852 2.7021408 0.65851367 0
0.044176422 2.7034419 -0.050016358 0
0.041270219 2.6964412 0.4043757 0
0.04485365 2.7050731 0.52859443 0
0.04344096 2.7016702 0.65484023 0
0.018260678 2.6918683 -0.049284391 0
0.024380108 2.7071497 0.40527844 0
0.028419992 2.7172379 0.53027767 0
0.026783546 2.7131515 0.65663791 0
0.0070864172 2.7170684 -0.049975723 0
0.010006211 2.7246344 0.40808824 0
0.0072223158 2.7174208 0.52775377 0
0.0057711811 2.7136605 0.6536507 0
-0.0080930972 2.732897 -0.050312277 0
-0.016208271 2.7110536 0.40247914 0
-0.010987856 2.7251053 0.52799898 0
-0.010486581 2.7264545 0.65622073 0
-0.030911664 2.7280576 -0.049871042 0
-0.034228899 2.7187722 0.40275541 0
-0.030889491 2.7281196 0.52667451 0
-0.035159387 2.7161677 0.64872152 0
-0.048782744 2.7366881 -0.049950987 0
-0.052289881 2.7264669 0.40308535 0
-0.051080681 2.729991 0.52504194 0
-0.054272331 2.7206891 0.64787298 0
-0.067391701 2.7432671 -0.049961969 0
-0.074231483 2.7224839 0.40033865 0
-0.07243178 2.7279522 0.52213603 0
-0.072184719 2.728703 0.64865547 0
-0.08596734 2.7499876 -0.049987007 0
-0.093569942 2.725868 0.39964765 0
-0.091038473 2.7338994 0.52212113 0
-0.09357775 2.7258434 0.64481252 0
-0.10481779 2.7558687 -0.04998938 0
-0.11234621 2.7308919 0.39946115 0
-0.11209402 2.7317286 0.51936716 0
-0.11356554 2.7268465 0.64277124 0
-0.1239062 2.7609401 -0.049970496 0
-0.10674302 2.8205903 0.064186484 0
-0.10637621 2.8218651 0.1812976 0
-0.10616634 2.8225944 0.30031106 0
-0.12827145 2.7457688 0.40195411 0
-0.13275741 2.7301781 0.51692986 0
-0.13073109 2.7372205 0.64488333 0
-0.14393677 2.7625363 -0.049831949 0
-0.13441674 2.7972624 0.063117459 0
-0.13640775 2.79 0.17712773 0
-0.13205396 2.8058813 0.29614642 0
-0.14929764 2.7429814 0.39981854 0
-0.1487488 2.7449834 0.52023309 0
-0.15201347 2.7330749 0.64084762 0
-0.16225849 2.7703135 -0.049931217 0
-0.15666409 2.7917764 0.06272307 0
-0.15709426 2.7901261 0.17656654 0
-0.15789597 2.7870502 0.29166156 0
-0.16880535 2.7451963 0.39907879 0
-0.17130832 2.7355936 0.51527637 0
-0.17201437 2.7328849 0.63863242 0
-0.18036915 2.779249 -0.050081272 0
-0.17943914 2.7830102 0.062219605 0
-0.17685531 2.7934606 0.17639115 0
-0.1791027 2.7843709 0.29025185 0
-0.18885247 2.7449381 0.39775607 0
-0.19143416 2.7344966 0.51327449 0
-0.19031136 2.7390375 0.63923693 0
-0.19940908 2.7846904 -0.050111152 0
-0.19748344 2.792922 0.06241297 0
-0.19745441 2.793046 0.17583002 0
-0.19853891 2.7884102 0.29014018 0
-0.20753713 2.7499444 0.39788288 0
-0.20967527 2.7408044 0.51389539 0
