# .PCD v0.7 - Point Cloud Data file format
VERSION 0.7
FIELDS x y z intensity
SIZE 4 4 4 4
TYPE F F F F
COUNT 1 1 1 1
WIDTH 1360
HEIGHT 1
VIEWPOINT 0 0 0 1 0 0 0
POINTS 1360
DATA ascii
-1.2421432 -0.076067217 0.38774416 0
-1.2409489 -0.073746927 0.50292921 0
-1.23622 -0.06455911 0.62014705 0
-1.2605939 -0.15525639 -0.050238106 0
-0.99116135 0.38483644 0.04068996 0
-1.0014535 0.36420518 0.11290276 0
-0.98800373 0.39116603 0.17996414 0
-1.2444971 -0.12298942 0.39869437 0
-1.2432815 -0.12055267 0.51717061 0
-1.241841 -0.11766518 0.64081275 0
-1.2410094 -0.1603142 -0.050092015 0
-0.98123312 0.37726265 0.040776446 0
-0.98310691 0.37338513 0.11114812 0
-0.98110932 0.37751889 0.18162541 0
-1.24702 -0.1727525 0.4103747 0
-1.2426144 -0.16363561 0.52993912 0
-1.2229503 -0.16839707 -0.050075762 0
-0.96950597 0.37338591 0.040721651 0
-0.96519142 0.38260901 0.10942604 0
-0.96539617 0.38217133 0.17965071 0
-1.2449729 -0.21547461 0.41999426 0
-1.2410295 -0.20704472 0.54275554 0
-1.2011288 -0.1681459 -0.04974195 0
-0.9482764 0.39059615 0.03984664 0
-0.95493019 0.37589294 0.10962078 0
-0.94918948 0.38857847 0.17737915 0
-1.2447324 -0.26449895 0.43133131 0
-1.2392559 -0.2523973 0.55621618 0
-1.1949719 -0.20312333 -0.050793495 0
-0.94234037 0.37438124 0.040289387 0
-0.93999279 0.37974769 0.10858963 0
-0.93573225 0.38948709 0.17624274 0
-1.2382302 -0.30200982 0.4394007 0
-1.2385896 -0.30283153 0.57145631 0
-1.1617495 -0.17595923 -0.049434032 0
-0.92667681 0.38038087 0.039871711 0
-0.92675072 0.38020593 0.10798225 0
-0.92943281 0.37385839 0.17838341 0
-1.2383302 -0.35720098 0.45234698 0
-1.1518934 -0.20356643 -0.050209425 0
-0.91600502 0.37491423 0.039905883 0
-0.91081154 0.38765049 0.10658653 0
-0.91399723 0.37983805 0.17632003 0
-1.241217 -0.42261922 0.46804449 0
-1.1312979 -0.20536149 -0.049995571 0
-0.90086871 0.38073194 0.039512176 0
-0.90466017 0.37108839 0.10799316 0
-0.90062761 0.38134515 0.17517132 0
-1.2428471 -0.48908496 0.48394164 0
-1.1121556 -0.21057665 -0.049923226 0
-0.88857406 0.37982458 0.039384365 0
-0.89011502 0.37575543 0.10696242 0
-0.89010811 0.37577367 0.17542571 0
-1.2393451 -0.54643977 0.49727198 0
-1.0922892 -0.21366465 -0.049779568 0
-0.87617379 0.37946498 0.039242219 0
-0.87451887 0.38400698 0.1055474 0
-0.87272733 0.38892376 0.17211086 0
-1.0763242 -0.22759712 -0.05005623 0
-0.86357123 0.37998092 0.039073505 0
-0.86061335 0.38842797 0.1045972 0
-0.85890186 0.39331555 0.1705261 0
-1.0545988 -0.22501266 -0.049717225 0
-0.85057396 0.38203877 0.038853414 0
-0.85020196 0.38314557 0.10477103 0
-0.85104972 0.38062316 0.17223169 0
-1.0362617 -0.23217642 -0.049755514 0
-0.83572435 0.39034724 0.038405921 0
-0.83658898 0.38766313 0.10385252 0
-0.83875704 0.38093293 0.17148557 0
-1.0246986 -0.26141548 -0.050627019 0
-0.82529342 0.38538802 0.038462833 0
-0.82894933 0.37352949 0.10505439 0
-0.82404524 0.38943672 0.1692252 0
-0.99949628 -0.24653697 -0.04985876 0
-0.81378901 0.38392484 0.038394317 0
-0.81675833 0.37384427 0.1046439 0
-0.81179547 0.39069271 0.16837074 0
-0.98343241 -0.26219642 -0.050237454 0
-0.80489987 0.37332404 0.038670275 0
-0.80163753 0.38493687 0.1030489 0
-0.80165499 0.38487476 0.16887341 0
-0.9620322 -0.25894463 -0.049923494 0
-0.79027927 0.3833977 0.038185418 0
-0.79098761 0.38074857 0.10318039 0
-0.79398888 0.36952418 0.17117788 0
-0.94253981 -0.26231885 -0.049864538 0
-0.77951628 0.37966269 0.10298237 0
-0.78171861 0.37098986 0.17036392 0
-0.92557806 -0.27604747 -0.050195001 0
-0.76770622 0.38017523 0.16814917 0
-0.90556854 -0.27743328 -0.05008046 0
-0.75508618 0.38462186 0.16684987 0
-0.8847174 -0.27451682 -0.049818359 0
-0.74364454 0.3844223 0.16644032 0
-0.86649662 -0.28376722 -0.050009549 0
-0.73378134 0.37664932 0.16745152 0
-0.84869915 -0.296018 -0.050317626 0
-0.72128659 0.38210803 0.16605507 0
-0.82964748 -0.30237639 -0.050419599 0
-0.80798316 -0.29307055 -0.04996353 0
-0.7881549 -0.29392326 -0.049884856 0
-0.76852971 -0.29587913 -0.049855061 0
-0.75015175 -0.30779731 -0.05019258 0
-0.73011398 -0.3069042 -0.050077777 0
-0.70982879 -0.30268562 -0.049852882 0
-0.69052732 -0.30818093 -0.049985439 0
-0.67118657 -0.31447089 -0.050155025 0
-0.65138078 -0.31504762 -0.050128862 0
-0.63130862 -0.30966377 -0.049898591 0
-0.61140913 -0.30466235 -0.049691118 0
-0.59170288 -0.30193055 -0.049573693 0
-0.57217085 -0.30920577 -0.049822427 0
-0.55247498 -0.31181443 -0.04991335 0
-0.53277951 -0.31012142 -0.04985955 0
-0.51319253 -0.30582952 -0.04972177 0
-0.49291542 -0.32069266 -0.050277155 0
-0.47321248 -0.31745446 -0.050194882 0
-0.45356315 -0.31423688 -0.050122146 0
-0.49586767 0.32477123 0.039258793 0
-0.43518996 -0.29545057 -0.049500644 0
-0.48377788 0.32066798 0.039436128 0
-0.41403487 -0.31182659 -0.05014731 0
-0.47423923 0.3458249 0.038570128 0
-0.39493689 -0.30404294 -0.04993717 0
-0.46247798 0.34379071 0.038683318 0
-0.37619224 -0.29448783 -0.049671687 0
-0.44880688 0.32613605 0.03936347 0
-0.44235027 0.27095264 0.11240289 0
-0.44195467 0.26757157 0.18517302 0
-0.44048819 0.25503778 0.26268846 0
-0.44211146 0.26891154 0.33607656 0
-0.44063327 0.25627762 0.42204493 0
-0.3564173 -0.29430163 -0.049751546 0
-0.43463841 0.3083908 0.040054187 0
-0.42861626 0.26199025 0.11353958 0
-0.42952809 0.26901597 0.18518895 0
-0.42859924 0.26185924 0.2613326 0
-0.42825615 0.25921565 0.33984262 0
-0.43068764 0.27795017 0.41364336 0
-0.430554 0.27692062 0.49913454 0
-0.33647206 -0.29488873 -0.049868409 0
-0.42045617 0.29401326 0.040631127 0
-0.41980198 0.28942597 0.11074584 0
-0.42067257 0.2955305 0.18066625 0
-0.4194994 0.28730428 0.25521332 0
-0.4203333 0.29315168 0.32901105 0
-0.41966319 0.2884528 0.40995055 0
-0.41909498 0.28446841 0.49616629 0
-0.31756452 -0.28824496 -0.049733315 0
-0.40598783 0.2804566 0.041185986 0
-0.40611473 0.28127289 0.11182933 0
-0.40663692 0.28463137 0.18298361 0
-0.40441144 0.27031803 0.26006725 0
-0.40578079 0.27912503 0.33434048 0
-0.40631065 0.28253299 0.41318983 0
-0.41017202 0.30736756 0.48549199 0
-0.29633209 -0.29596138 -0.050126441 0
-0.39144126 0.26880401 0.041679677 0
-0.39196655 0.2719233 0.11306429 0
-0.39058414 0.26371449 0.18717031 0
-0.39055893 0.26356465 0.26233312 0
-0.39043787 0.26284575 0.34050295 0
-0.39097106 0.26601201 0.42095757 0
-0.39889333 0.31305498 0.483585 0
-0.27658486 -0.29391849 -0.050176047 0
0.070140682 -2.2054994 0.13153549 0
-0.38525736 0.30521911 0.48862243 0
-0.25748852 -0.28832781 -0.05010578 0
0.11230256 -2.1903713 0.13128263 0
-0.37248462 0.30316162 0.4908143 0
-0.2393329 -0.27843261 -0.049887132 0
0.15781046 -2.1922097 0.13166709 0
-0.3693302 0.34800589 0.46912724 0
-0.22136398 -0.26839232 -0.04967092 0
0.20464529 -2.1987705 0.13224618 0
-0.35930514 0.3566612 0.46594262 0
-0.20048858 -0.27143264 -0.049941957 0
0.25026748 -2.1983232 0.13259162 0
-0.34921604 0.36434728 0.46331143 0
-0.18101366 -0.26799905 -0.049985409 0
0.29553869 -2.1954119 0.13286862 0
-0.0067488342 -0.97281194 0.25255597 0
-0.003801265 -0.98473334 0.42197052 0
-0.33737719 0.36441225 0.46466538 0
-0.16346852 -0.25702798 -0.049759939 0
0.34285787 -2.1995547 0.1334278 0
-0.32773688 0.37318945 0.46159601 0
-0.14276771 -0.25815761 -0.049989808 0
0.39061353 -2.2037711 0.13401364 0
-0.31767669 0.3798576 0.45967311 0
-0.12353272 -0.25359499 -0.05001872 0
-0.30481756 0.37645477 0.46305239 0
-0.10549743 -0.2449708 -0.0499053 0
-0.30592331 0.41997856 0.44200635 0
-0.086903878 -0.2383734 -0.049875785 0
-0.29081687 0.40855086 0.44969723 0
-0.06728176 -0.23495793 -0.049974523 0
-0.28723383 0.43338156 0.43842134 0
-0.04761187 -0.23145747 -0.050079785 0
-0.26205674 0.39353406 0.46133348 0
-0.028521279 -0.22610545 -0.050124705 0
-0.012640991 -0.21201253 -0.049846057 0
0.0059761615 -0.20554852 -0.04986563 0
0.026512643 -0.20383191 -0.050076868 0
0.043001018 -0.19196737 -0.049906913 0
0.063062154 -0.18870747 -0.050078474 0
0.07930734 -0.17656672 -0.049913812 0
-0.18807538 0.42432249 0.3821362 0
0.1022416 -0.17923307 -0.050338119 0
0.11285963 -0.15529335 -0.049724571 0
-0.1579717 0.41428274 0.39112329 0
-0.20017947 0.50304854 0.49934417 0
0.13586791 -0.15756154 -0.050154895 0
0.55266076 -1.0063772 0.4602142 0
-0.15534897 0.43551368 0.38368094 0
-0.19329821 0.51279891 0.4959133 0
0.15841706 -0.15824533 -0.050536118 0
0.58660787 -1.0032129 0.46243662 0
-0.15375035 0.4577682 0.37573111 0
-0.18553184 0.52048397 0.493891 0
0.17105688 -0.13938332 -0.050143871 0
0.6125316 -0.98401737 0.46149805 0
-0.13931082 0.4544155 0.37970141 0
-0.17985092 0.53197724 0.48937228 0
0.18727554 -0.12773979 -0.050048135 0
0.65123302 -0.98880172 0.46553233 0
-0.1296577 0.4604587 0.37936488 0
-0.17130525 0.53775269 0.48872265 0
0.20772077 -0.12384189 -0.05027632 0
-0.091688313 0.41545969 0.040254328 0
0.68222219 -0.97852325 0.46658802 0
-0.11012162 0.4486621 0.3875317 0
-0.16479109 0.54713386 0.48569539 0
0.22376938 -0.11192394 -0.050186884 0
-0.10002194 0.45437378 0.038897876 0
0.72042507 -0.98055434 0.47028935 0
-0.076653875 0.41350394 0.4070164 0
-0.16137536 0.56167835 0.47917488 0
0.24041839 -0.1011442 -0.050152272 0
-0.083265848 0.44877923 0.1064541 0
0.75859791 -0.98150563 0.47389254 0
-0.05753205 0.40505874 0.41401398 0
-0.1473083 0.55758411 0.48546159 0
0.25683931 -0.090029009 -0.05011211 0
-0.087873228 0.47910404 0.10340206 0
0.80204874 -0.99018979 0.47925475 0
-0.060773201 0.43436086 0.40290931 0
-0.13643484 0.55928105 0.48790354 0
0.27417472 -0.080429204 -0.050144043 0
-0.079256244 0.48685384 0.10317715 0
0.84976608 -1.0042963 0.48592719 0
-0.12562166 0.56127375 0.4902533 0
0.28832015 -0.065802582 -0.049972314 0
-0.07089413 0.49490714 0.10292546 0
0.88336593 -0.99462962 0.48769 0
-0.12017787 0.57183582 0.48668215 0
0.30008057 -0.047768716 -0.049661096 0
0.9145754 -0.98087573 0.48867592 0
0.025483986 0.3692047 0.4447988 0
-0.11630491 0.58451039 0.48162967 0
0.32440987 -0.048693422 -0.050170839 0
0.0014497848 0.42852789 0.11316022 0
0.95211786 -0.9762249 0.49173775 0
0.03243085 0.38274884 0.44173184 0
-0.10594497 0.58721954 0.48370486 0
0.3368921 -0.031943206 -0.049929783 0
0.010830245 0.43702948 0.11297704 0
0.040636562 0.39415926 0.43975782 0
-0.10467935 0.60316616 0.47633067 0
0.3467755 -0.011840945 -0.049546357 0
0.05752679 0.3932054 0.44410887 0
-0.096874632 0.60941982 0.47596508 0
0.37394199 -0.015759712 -0.050228313 0
0.072813354 0.39488959 0.44725454 0
-0.095659532 0.62463623 0.46907681 0
0.38333669 0.0047327229 -0.049841095 0
0.095713221 0.38678265 0.45560378 0
-0.083283253 0.62454349 0.47349855 0
0.39890906 0.016789431 -0.049836021 0
0.073826097 0.4374668 0.042855542 0
0.10183658 0.40121949 0.45238861 0
-0.074814506 0.62981695 0.47405782 0
0.41630819 0.026541824 -0.049944781 0
0.074935578 0.45698631 0.04233123 0
0.11942556 0.40088785 0.45698601 0
-0.065414168 0.63395649 0.47556135 0
0.4349598 0.034881707 -0.050129712 0
0.062657677 0.49237382 0.041071765 0
-0.066439755 0.65101129 0.46729532 0
0.44838831 0.049685713 -0.050026823 0
0.075097524 0.49677408 0.041233037 0
-0.053473689 0.65076315 0.47229999 0
0.46248326 0.063604824 -0.049972318 0
0.077522121 0.51304501 0.040845376 0
-0.04949937 0.66134191 0.46903148 0
0.47090337 0.083929412 -0.049621191 0
0.060388587 0.55116504 0.039416496 0
-0.042172469 0.66789699 0.4689424 0
0.49397978 0.087625019 -0.050070297 0
-0.033993937 0.6735037 0.4696826 0
0.50084955 0.10932695 -0.049663335 0
0.51897925 0.11873674 -0.049860373 0
-0.021247962 0.68867511 0.46820563 0
0.53164095 0.13397574 -0.049780913 0
0.38368222 0.2861867 0.054202482 0
-0.010749497 0.69195378 0.47111449 0
0.53969306 0.15376389 -0.049479112 0
-0.010670104 0.70586157 0.46526948 0
0.57087511 0.15063274 -0.050348688 0
0.73994392 -0.014750725 0.20104018 0
0.74870092 -0.023316985 0.33551431 0
0.73874897 -0.013581878 0.46859872 0
-0.0015009431 0.71053267 0.46718314 0
0.5810203 0.16841996 -0.050168004 0
0.83508962 -0.073926933 0.21281324 0
0.1917295 0.53974932 0.35043395 0
0.59724599 0.18038189 -0.050296869 0
0.45749876 0.31036037 0.055483285 0
0.84368402 -0.048829559 0.21163625 0
0.19887097 0.5509094 0.34961772 0
0.014896712 0.72202331 0.46951661 0
0.60096365 0.20381403 -0.049828745 0
0.83688289 -0.010137325 0.073199086 0
0.83438915 -0.0078758057 0.20792332 0
0.19392045 0.57295489 0.34344336 0
0.01763322 0.73282689 0.46637788 0
0.61373383 0.21880555 -0.049811341 0
0.83635038 0.021969194 0.072420247 0
0.84152669 0.017392391 0.20668319 0
0.83953935 0.019149417 0.34229639 0
0.21405406 0.57220006 0.34860104 0
0.035017572 0.73050308 0.47497785 0
0.62328845 0.23655665 -0.049651515 0
0.83762425 0.051798221 0.071754128 0
0.84253961 0.047561165 0.20463285 0
0.83482891 0.054207798 0.33749807 0
0.2336349 0.57243979 0.35345605 0
0.032822512 0.74554098 0.46813187 0
0.645289 0.24370635 -0.050084226 0
0.83933324 0.080652706 0.071132913 0
0.83859879 0.081269853 0.20196232 0
0.84165007 0.078705899 0.33557129 0
0.92083126 0.012170548 0.4986181 0
0.27107981 0.55815119 0.36602426 0
0.27357545 0.55605412 0.45539773 0
0.040313564 0.75206208 0.46900851 0
0.65364558 0.26242959 -0.049887039 0
0.83677489 0.1124407 0.070337996 0
0.82991809 0.11805665 0.19872004 0
0.83222407 0.1161679 0.32994905 0
0.94209152 0.026182884 0.50051016 0
0.29008308 0.56019926 0.37045509 0
0.25169805 0.59163791 0.4390192 0
0.050551079 0.75638384 0.4720448 0
0.66434497 0.27910888 -0.049809664 0
0.85179621 0.12948358 0.070372447 0
0.83524746 0.14269304 0.19750066 0
0.83960253 0.13921678 0.32837018 0
0.97778994 0.028914446 0.50715435 0
0.277235 0.58810329 0.36129406 0
0.24877651 0.61081904 0.43308514 0
0.054599427 0.76581287 0.4703958 0
0.6756708 0.29523551 -0.049770936 0
0.84915465 0.16030014 0.069617443 0
0.85226005 0.15788472 0.1979263 0
0.83376521 0.17226994 0.32385382 0
0.25532731 0.62217808 0.43230477 0
0.062237285 0.77236319 0.47154942 0
0.68412513 0.31350797 -0.049613081 0
0.85269433 0.18576884 0.069163956 0
0.8438732 0.19245338 0.19494896 0
0.83710939 0.19757891 0.32155257 0
0.26369306 0.63210481 0.4325493 0
0.073106728 0.77652812 0.47515833 0
0.7091766 0.31939471 -0.050203428 0
0.84097964 0.22210443 0.068052061 0
0.84135228 0.22182941 0.19284111 0
0.83662122 0.22532165 0.31848532 0
0.28543082 0.63218206 0.43973765 0
0.072304033 0.78950125 0.47016904 0
0.71141618 0.342197 -0.049788717 0
0.84757501 0.24431586 0.067775466 0
0.83677012 0.25208318 0.19052863 0
0.84417063 0.24676311 0.31730893 0
0.085695766 0.79201138 0.47571191 0
0.73691028 0.34836906 -0.050403602 0
0.84878284 0.27006435 0.067278765 0
0.84427685 0.27321827 0.18987246 0
0.84635216 0.27176565 0.31502086 0
0.84773833 0.27079546 0.443591 0
0.090372227 0.80091095 0.47492027 0
0.74236435 0.36872411 -0.05015086 0
0.88510317 0.27146918 0.068317257 0
0.83464247 0.30585051 0.18702754 0
0.83773679 0.30374217 0.31046513 0
0.83894688 0.30291772 0.4370881 0
0.10901018 0.80025905 0.48423523 0
0.75129098 0.3865664 -0.05006 0
0.91004056 0.28130472 0.06886027 0
0.84190804 0.3264811 0.18643871 0
0.84433323 0.32487309 0.3093265 0
0.84913439 0.32168961 0.43657348 0
0.1091974 0.81231779 0.48033786 0
0.75480813 0.40782577 -0.049749643 0
0.95005256 0.28187567 0.070044622 0
0.83590442 0.35551143 0.18419099 0
0.84301311 0.35092568 0.30655536 0
0.84727079 0.3481791 0.43247622 0
0.11984911 0.81743097 0.48396474 0
0.7742489 0.41883993 -0.050124165 0
0.98766524 0.28494245 0.071118839 0
0.83690482 0.37952954 0.18289614 0
0.83320969 0.38184792 0.30207002 0
0.83423191 0.38120657 0.42514619 0
0.13877739 0.8175351 0.49340287 0
0.78086311 0.43799126 -0.049965255 0
1.0421852 0.27858764 0.072893508 0
0.83801883 0.4031269 0.18166368 0
0.84381181 0.39959323 0.30201232 0
0.84050542 0.40161008 0.42376858 0
0.13217975 0.83368105 0.48503754 0
0.79911214 0.45011824 -0.050300464 0
1.0685804 0.29036593 0.073484361 0
0.85093087 0.41939789 0.18195167 0
0.84088451 0.42535383 0.29916549 0
0.82894999 0.43242908 0.41718966 0
0.13619228 0.84312588 0.48419008 0
0.80227751 0.47120923 -0.050018124 0
0.85686368 0.43977028 0.18139751 0
0.8381657 0.45053935 0.29645041 0
0.8433122 0.44757527 0.41840371 0
0.14026721 0.85249507 0.48347318 0
0.81101102 0.48896134 -0.049976442 0
0.84497768 0.46996367 0.17868482 0
0.83591098 0.47503471 0.29391602 0
0.84342808 0.47083038 0.41550064 0
0.14851756 0.85949588 0.48567897 0
0.82315451 0.50483233 -0.050082672 0
0.85803956 0.48589367 0.179088 0
0.83788949 0.49683291 0.29233113 0
0.84400946 0.49351043 0.41283774 0
0.8387062 0.51899648 -0.05033382 0
0.85311502 0.51140743 0.17732824 0
0.84157103 0.51748759 0.29115999 0
0.83943242 0.51861399 0.40878764 0
0.84178048 0.53973544 -0.050090339 0
0.84909099 0.53600186 0.17572734 0
0.83743006 0.54195726 0.28846508 0
0.85119861 0.53492546 0.40953633 0
0.83360916 0.54390866 0.52564365 0
0.84479183 0.5603174 -0.049856305 0
0.85635632 0.55459374 0.17552736 0
0.83637029 0.56448555 0.28646913 0
0.83846706 0.56344777 0.40336525 0
0.84299868 0.56120497 0.52584958 0
0.86641735 0.57179695 -0.05037092 0
0.87172753 0.56925142 0.17632262 0
0.83035225 0.5890851 0.28355047 0
0.84826773 0.58049709 0.40370831 0
0.84568518 0.58173507 0.52366191 0
0.86405247 0.59481078 -0.049944066 0
0.90965742 0.57365161 0.17980778 0
0.83986527 0.60603291 0.28379837 0
0.8437987 0.60420793 0.40009645 0
0.84290141 0.60462421 0.51957577 0
0.86839384 0.61448872 -0.049793411 0
0.93834788 0.58309662 0.18219151 0
0.84603149 0.62452388 0.2834256 0
0.83437639 0.62975413 0.39520353 0
0.83953828 0.62743771 0.51540679 0
0.88248223 0.62982672 -0.050032549 0
0.971322 0.59129602 0.18507802 0
0.84127611 0.64769828 0.28095379 0
0.84544545 0.64589 0.3961255 0
0.85124213 0.64337593 0.51682884 0
0.87863916 0.6528613 -0.049583863 0
0.99905986 0.60242546 0.1873513 0
0.84120244 0.66854101 0.27946758 0
0.83006042 0.67320758 0.38978162 0
0.84325343 0.66768199 0.51121289 0
0.88892919 0.66984665 -0.049692862 0
1.0432094 0.60750091 0.19153167 0
0.84547275 0.68740767 0.27888513 0
0.84121078 0.68913001 0.39086676 0
0.83408803 0.69200838 0.5053134 0
0.90143782 0.68605357 -0.049894549 0
1.0655684 0.62211937 0.19318576 0
0.84800035 0.70686924 0.27801427 0
0.83927757 0.71026707 0.38841927 0
0.83274144 0.71281308 0.50234407 0
0.26969627 0.93213767 0.45012128 0
0.91956085 0.70030981 -0.050317168 0
0.8508032 0.72610086 0.27724788 0
0.84247559 0.72922456 0.38745424 0
0.83799905 0.73090374 0.50182867 0
0.28049752 0.94002295 0.45376053 0
0.9073934 0.72581524 -0.049595051 0
0.85070974 0.74626696 0.27597618 0
0.83517486 0.751872 0.38371089 0
0.84349197 0.74887115 0.50147963 0
0.25169787 0.96239305 0.43637198 0
0.91865045 0.74266505 -0.049773347 0
0.84484285 0.76824951 0.27365661 0
0.83715183 0.77091551 0.38256621 0
0.84080273 0.76964998 0.49833089 0
0.84953421 0.76662332 0.62252903 0
0.26489118 0.96928239 0.44144601 0
0.91418296 0.76488066 -0.049367275 0
0.86461192 0.7813676 0.27627188 0
0.84099323 0.78922302 0.38199225 0
0.83522922 0.79114008 0.49427596 0
0.84116107 0.78916717 0.61624479 0
0.29260376 0.97161371 0.45420042 0
0.93163615 0.77981341 -0.049794707 0
0.84130222 0.80859983 0.27075383 0
0.83791929 0.80967784 0.37963071 0
0.84203166 0.80836737 0.49465334 0
0.84317464 0.80800313 0.61462283 0
0.30641738 0.97904968 0.45962051 0
0.94676989 0.79577172 -0.050140962 0
0.84867173 0.8256771 0.27110606 0
0.83721715 0.82916898 0.37797967 0
0.84084851 0.828062 0.49232742 0
0.84718066 0.82613164 0.61397249 0
0.31189868 0.98931289 0.46071047 0
0.94194525 0.81779844 -0.049751308 0
0.88150603 0.83539474 0.2762807 0
0.85096925 0.84428525 0.38024083 0
0.83906835 0.84775013 0.48988923 0
0.83294839 0.84953189 0.60555822 0
0.33008543 0.99593598 0.46848491 0
0.9567706 0.83408958 -0.050101358 0
0.89539689 0.85112274 0.27791467 0
0.85378653 0.8626709 0.37964934 0
0.83379346 0.86821961 0.4863387 0
0.83942491 0.86665672 0.60619837 0
0.31511614 1.0121689 0.45905927 0
0.960347 0.85360932 -0.050042469 0
0.93255562 0.86094666 0.28392038 0
0.84018213 0.88533485 0.37478772 0
0.84350044 0.88445872 0.48804396 0
0.84312302 0.88455838 0.60573924 0
0.31484297 1.0240331 0.45737588 0
0.9598462 0.87411112 -0.049842767 0
0.957223 0.8747685 0.2876077 0
0.82479089 0.90795481 0.36954668 0
0.84087437 0.90392441 0.48558408 0
0.83789235 0.90467167 0.60156673 0
0.32147911 1.0340804 0.4593389 0
0.97174138 0.89153045 -0.050107982 0
0.97754711 0.89015299 0.29051134 0
0.83025664 0.92509776 0.36986503 0
0.84765679 0.92096955 0.48643249 0
0.84032744 0.92270845 0.60077661 0
0.32490173 1.0449934 0.45970872 0
0.97412843 0.91127437 -0.050032631 0
1.0118895 0.90281636 0.29603341 0
0.83861321 0.94162828 0.37099487 0
0.8289867 0.94378453 0.47867411 0
0.83010179 0.94353473 0.59471327 0
0.34466913 1.0522664 0.46852866 0
0.97667998 0.93093252 -0.049972557 0
1.0358583 0.91845763 0.29965836 0
0.83390135 0.9610306 0.36876854 0
0.84736997 0.95819134 0.48363248 0
0.83861536 0.96003687 0.59670639 0
0.35134557 1.0627544 0.47067824 0
0.98535234 0.94934064 -0.050144408 0
1.0812238 0.93038827 0.30724409 0
0.85300058 0.97550464 0.37280399 0
0.83962005 0.97814983 0.47977749 0
0.83621079 0.97882378 0.59417444 0
0.35397151 1.0741554 0.47082406 0
0.98113066 0.97025591 -0.049856167 0
0.84079081 0.99616736 0.36875442 0
0.84184843 0.9959721 0.47939244 0
0.84133762 0.99606645 0.59491897 0
0.38507888 1.0803071 0.48553395 0
0.99686319 0.98754311 -0.050300907 0
0.84183294 1.0141529 0.36821142 0
0.83853894 1.0147183 0.47721463 0
0.84370703 1.0138313 0.5945949 0
0.37999836 1.0934232 0.4818804 0
0.9927327 1.0083035 -0.050034627 0
0.43041322 1.0975475 0.04170784 0
0.41276726 1.1003481 0.11156889 0
0.43307886 1.0971245 0.18686853 0
0.41797128 1.0995222 0.25796476 0
0.43494049 1.0968291 0.34028026 0
0.43012729 1.0975929 0.41999206 0
0.39401081 1.1033249 0.48799047 0
1.0012519 1.0270326 -0.050234664 0
0.40987173 1.1132697 0.040898334 0
0.40831074 1.1134974 0.11088268 0
0.41046605 1.113183 0.18240079 0
0.41443267 1.1126046 0.2565698 0
0.41013756 1.1132309 0.33130094 0
0.4084461 1.1134776 0.41012737 0
0.40468737 1.1140257 0.4924657 0
1.0059743 1.0464122 -0.050306123 0
0.39104727 1.1281894 0.040159155 0
0.43665531 1.1221242 0.11377173 0
0.41876438 1.1245035 0.1836012 0
0.42752394 1.1233386 0.25949979 0
0.42711595 1.1233928 0.33642879 0
0.42976615 1.1230404 0.41832361 0
0.42393085 1.1238164 0.50132561 0
0.99896711 1.0672555 -0.049964484 0
0.37797275 1.1418951 0.039634615 0
0.42191765 1.1366131 0.11200484 0
0.43161687 1.1354474 0.18565294 0
0.4357923 1.1349455 0.26122075 0
0.43001148 1.1356403 0.33687279 0
0.43456843 1.1350926 0.41966957 0
0.99858433 1.087148 -0.049870595 0
0.35747346 1.156028 0.038850386 0
0.84988731 1.1031238 0.36711216 0
0.84091288 1.1040879 0.47389019 0
0.84230715 1.1039381 0.58886719 0
1.0144726 1.1054357 -0.050369304 0
0.3539969 1.167995 0.038683932 0
0.84194523 1.1217773 0.36461753 0
0.84191447 1.1217802 0.47362983 0
0.83325428 1.1226004 0.58436084 0
1.0121983 1.1255696 -0.050225146 0
0.35605362 1.179392 0.03872126 0
0.85369045 1.1385717 0.36722535 0
0.83269137 1.1402942 0.47003096 0
0.83103961 1.1404297 0.58279759 0
1.0108528 1.1455401 -0.050123431 0
0.36967769 1.1900148 0.039177649 0
0.84618455 1.1569623 0.36496162 0
0.83850271 1.1574951 0.47152698 0
0.84160024 1.1572802 0.58663112 0
1.0012066 1.1659129 -0.049733959 0
0.85087043 1.1744404 0.36587423 0
0.84062105 1.1750216 0.47186348 0
0.84699148 1.1746603 0.58840615 0
0.99526531 1.1858504 -0.049486279 0
0.85558337 1.1920102 0.36684948 0
0.83852583 1.1927624 0.47087014 0
0.84718508 1.1923805 0.58811682 0
1.0098398 1.2049701 -0.049980462 0
0.84665102 1.2101089 0.36439773 0
0.84922642 1.2100277 0.47421077 0
0.84064931 1.2102978 0.58513248 0
1.0090158 1.2247325 -0.049933292 0
0.85113543 1.2277148 0.36542842 0
0.83309311 1.2280556 0.46869382 0
0.83868772 1.22795 0.58413655 0
1.0120174 1.2444407 -0.050031587 0
0.85153776 1.2454511 0.36547408 0
0.82962519 1.245589 0.46746671 0
0.84590024 1.2454865 0.58703119 0
1.0140022 1.264215 -0.05010245 0
0.84029168 1.2631212 0.3626048 0
0.83213919 1.26307 0.46830311 0
0.83413643 1.2630825 0.58216047 0
1.0181423 1.284083 -0.05025918 0
0.84451479 1.2808032 0.36373895 0
0.85558981 1.2810124 0.47617972 0
0.83985275 1.2807152 0.58461899 0
1.010744 1.3037015 -0.050012764 0
0.84977394 1.2986326 0.36519492 0
0.85050851 1.2986557 0.47463751 0
0.84348458 1.2984346 0.58630699 0
1.0129451 1.3235725 -0.050118081 0
0.85346109 1.3165394 0.3663075 0
0.83520252 1.3157341 0.4697634 0
0.84125859 1.3160013 0.5856607 0
1.0133723 1.3434204 -0.050168991 0
0.84528393 1.3338859 0.36444667 0
0.84366173 1.3337939 0.4728767 0
0.84107178 1.333647 0.58595127 0
1.0078764 1.3628966 -0.05001691 0
1.3029059 1.3833611 0.072575152 0
1.2996696 1.3831366 0.20605828 0
1.2997544 1.3831425 0.34174144 0
0.84677213 1.3517216 0.36511189 0
0.83457023 1.3508753 0.47021553 0
0.8385393 1.3511506 0.58536077 0
1.0029955 1.3823187 -0.049895488 0
1.2407999 1.4018254 0.070413925 0
1.256772 1.4031355 0.20162338 0
1.0246192 1.3840925 0.29227465 0
0.84796053 1.3696015 0.36575857 0
0.83700961 1.3687031 0.47147247 0
0.84411865 1.3692863 0.58823097 0
0.99504727 1.4013674 -0.049672689 0
1.2465764 1.4251919 0.070692793 0
1.2509135 1.4256027 0.20120876 0
0.89106351 1.3915182 0.26839897 0
0.85390681 1.3879988 0.36768296 0
0.83869618 1.3865581 0.4725543 0
0.83734888 1.3864305 0.58606374 0
1.0021001 1.421873 -0.049996834 0
0.63641125 1.3825839 0.048866138 0
0.64846891 1.3838793 0.13634047 0
0.63142699 1.3820484 0.22163856 0
0.64373642 1.3833709 0.31421378 0
0.84537548 1.4050347 0.4753834 0
0.84186989 1.404658 0.5886851 0
0.99217719 1.4405715 -0.049720328 0
0.54786772 1.3871684 0.045743741 0
0.55338711 1.3878318 0.12623547 0
0.54792041 1.3871747 0.20677911 0
0.55274898 1.387755 0.29127491 0
0.84211916 1.4225355 0.47496539 0
0.84182078 1.4224997 0.58950025 0
0.98531562 1.4594836 -0.049562089 0
0.56121713 1.403084 0.046287928 0
0.55563539 1.4023417 0.12667102 0
0.54985052 1.4015723 0.20745054 0
0.54971057 1.4015538 0.29094797 0
0.84256727 1.4404999 0.4758639 0
0.83576912 1.4395958 0.58790338 0
0.99286288 1.4803872 -0.049931996 0
0.55299813 1.4162446 0.046062175 0
0.55533224 1.416585 0.1268501 0
0.55094045 1.4159446 0.20800312 0
0.53891426 1.4141909 0.28866497 0
0.84824067 1.4592979 0.47859684 0
0.83413202 1.4572405 0.58824068 0
0.98796231 1.4995825 -0.049862187 0
0.55954486 1.4315897 0.046375707 0
0.54420942 1.4291558 0.12587169 0
0.55255443 1.4304802 0.20868549 0
0.54854912 1.4298446 0.29169631 0
0.82785898 1.4741729 0.47263804 0
0.84294099 1.4765666 0.5930509 0
0.98229271 1.518599 -0.049773119 0
0.54525751 1.4435854 0.045942232 0
0.55301648 1.4449172 0.12708157 0
0.55059069 1.4445008 0.20874813 0
0.55076355 1.4445305 0.29286435 0
0.84707695 1.4953903 0.48009673 0
0.8395012 1.49409 0.59282804 0
0.9727878 1.5368468 -0.049553283 0
0.56404966 1.46138 0.046714164 0
0.5488618 1.4585758 0.12689942 0
0.55379361 1.4594865 0.2097908 0
0.55738729 1.46015 0.29522699 0
0.84150845 1.5126083 0.47927743 0
0.83976454 1.5122863 0.5942567 0
0.98877865 1.5599798 -0.050269093 0
0.5548647 1.4742014 0.046478018 0
0.55196112 1.4736273 0.12753028 0
0.54565459 1.4723806 0.20878564 0
0.56333405 1.4758756 0.29747054 0
0.84733421 1.5320183 0.48239362 0
0.83927935 1.5304259 0.59546947 0
0.96486109 1.5752192 -0.049541336 0
0.5519188 1.48817 0.046474762 0
0.54996353 1.4877578 0.12762383 0
0.55540282 1.4889044 0.2111045 0
0.56292528 1.4904902 0.29811451 0
0.84098715 1.5491062 0.4814623 0
0.83916956 1.5487231 0.59694093 0
0.98279279 1.5993094 -0.050349623 0
0.54432088 1.5010966 0.046307728 0
0.55606967 1.5037282 0.12862968 0
0.5581978 1.5042049 0.21218327 0
0.53926152 1.4999633 0.29272819 0
0.84323043 1.5680491 0.48353034 0
0.84126896 1.5676097 0.59945142 0
0.97481805 1.6178427 -0.050220873 0
0.54689449 1.5163176 0.046519376 0
0.55731767 1.5187905 0.12912413 0
0.54690117 1.5163192 0.21068898 0
0.55629307 1.5185474 0.29802793 0
0.83209008 1.5839803 0.4811098 0
0.84116703 1.5861338 0.60113388 0
0.96752006 1.6364551 -0.050125204 0
0.55155057 1.5322167 0.04681538 0
0.53953129 1.5292047 0.12753226 0
0.55012673 1.5318599 0.21191829 0
0.54937428 1.5316713 0.29710642 0
0.83483237 1.6032046 0.48351178 0
0.83739942 1.6038479 0.60135627 0
0.95197564 1.6528237 -0.049733359 0
0.55211896 1.5472548 0.046968814 0
0.55703157 1.5485519 0.12987183 0
0.55656415 1.5484284 0.21378727 0
0.55263513 1.5473912 0.29891151 0
0.83821481 1.6227889 0.48622519 0
0.84412748 1.62435 0.60616934 0
0.95050758 1.6728153 -0.04986931 0
0.5409953 1.5591627 0.046696588 0
0.54565996 1.5604573 0.12902659 0
0.54546446 1.5604031 0.21241942 0
0.55065197 1.5618428 0.29938674 0
0.84064764 1.6423258 0.48870525 0
0.84466201 1.6434399 0.60844874 0
0.94143444 1.690696 -0.049732316 0
0.55753547 1.5789272 0.047457572 0
0.55359131 1.5777789 0.1303556 0
0.54813749 1.5761911 0.21366185 0
0.5542689 1.5779762 0.30140013 0
0.83989173 1.6611327 0.49017456 0
0.83577627 1.6599345 0.60677767 0
0.93457264 1.7091531 -0.049685717 0
0.85468918 1.6848005 0.38263986 0
0.83936983 1.6801304 0.49181312 0
0.83322388 1.6782568 0.60793132 0
0.93526632 1.7299865 -0.049930729 0
0.85728985 1.705138 0.3848176 0
0.85117167 1.7031884 0.49784485 0
0.84223133 1.7003394 0.61421299 0
0.94090718 1.7526509 -0.05037275 0
0.84288555 1.7200495 0.38250104 0
0.83776218 1.7183454 0.49516401 0
0.83669704 1.7179912 0.61429697 0
0.92034274 1.7665646 -0.049837288 0
0.84046823 1.7388772 0.38346174 0
0.83202392 1.73595 0.4952397 0
0.83549911 1.7371547 0.61637878 0
0.91235965 1.7846197 -0.049783539 0
0.83799535 1.7577888 0.38447589 0
0.83138889 1.7554051 0.49719894 0
0.82637376 1.7535957 0.61508667 0
0.90966827 1.8046225 -0.049939957 0
0.83582848 1.7769252 0.38564298 0
0.83840495 1.7778916 0.50197291 0
0.82945234 1.7745335 0.61927646 0
0.90118569 1.8224913 -0.049884889 0
0.83895761 1.7982515 0.38833168 0
0.82932121 1.7944977 0.50112289 0
0.83068031 1.7950271 0.6227814 0
0.90644604 1.8458751 -0.05036737 0
0.82898468 1.8145725 0.38750243 0
0.82898635 1.8145732 0.50348276 0
0.83173078 1.8156822 0.62633991 0
0.89183992 1.8613107 -0.050094813 0
0.84042674 1.8397772 0.39264899 0
0.82783049 1.8345015 0.50564992 0
0.82776397 1.8344737 0.62778151 0
0.89122659 1.8826089 -0.050372828 0
0.83131117 1.8566229 0.39219484 0
0.82751423 1.8549762 0.50822419 0
0.8202787 1.8518381 0.62774968 0
0.87030226 1.8950108 -0.049868088 0
0.83021504 1.8770216 0.39403984 0
0.81476325 1.8700875 0.50637239 0
0.81739265 1.8712674 0.62990373 0
0.86481029 1.9141839 -0.049973886 0
0.8309316 1.8984653 0.39647752 0
0.82090515 1.8938134 0.51150841 0
0.82118076 1.8939413 0.6352281 0
0.85321587 1.9305179 -0.049848258 0
0.82454878 1.9167761 0.39699745 0
0.82249814 1.9157931 0.51510715 0
0.81473297 1.9120708 0.63601559 0
0.8383655 1.945145 -0.049600311 0
0.8220064 1.9370483 0.39867938 0
0.80814523 1.9301878 0.5129115 0
0.80421978 1.9282449 0.63503498 0
0.82538432 1.960534 -0.049433056 0
0.8127051 1.9540584 0.39850876 0
0.80760604 1.9514543 0.51592964 0
0.80237252 1.9487815 0.63817132 0
0.82552248 1.9827029 -0.049801853 0
0.80281037 1.9707406 0.39822745 0
0.79513377 1.9666973 0.51458108 0
0.80126649 1.9699273 0.64179605 0
0.82249552 2.003453 -0.050055902 0
0.79982597 1.991146 0.40001106 0
0.79310578 1.9874978 0.51724952 0
0.79619485 1.9891747 0.64370233 0
0.80468601 2.0161443 -0.049717706 0
0.79130596 2.0086606 0.40026397 0
0.7880289 2.0068278 0.51887411 0
0.79104131 2.0085127 0.64569789 0
0.80482644 2.038902 -0.05012314 0
0.78651553 2.0283558 0.40168148 0
0.78523117 2.027616 0.52147865 0
0.78009671 2.0246587 0.6450569 0
0.79569644 2.0565 -0.050158698 0
0.77909058 2.0466552 0.40240148 0
0.78191727 2.048331 0.52400392 0
0.78145963 2.0480597 0.65043259 0
0.79024166 2.0763726 -0.050357461 0
0.76742738 2.0624561 0.40192908 0
0.7744419 2.066735 0.52502823 0
0.77556461 2.0674198 0.65247208 0
0.7645219 2.0837004 -0.049714211 0
0.76186281 2.0820322 0.4033494 0
0.76861233 2.0862668 0.52679765 0
0.75638252 2.0785937 0.64815199 0
0.75922889 2.1036692 -0.049937453 0
0.75832027 2.1030829 0.40546981 0
0.75792557 2.1028283 0.52675551 0
0.75769144 2.1026773 0.65396178 0
0.75315446 2.1233125 -0.05013983 0
0.75252503 2.122895 0.4069992 0
0.74881047 2.1204319 0.52742332 0
0.74979264 2.1210833 0.65539616 0
0.73413461 2.1343117 -0.04979533 0
0.73484868 2.1347983 0.40495047 0
0.74354726 2.1407249 0.5297364 0
0.74414784 2.1411343 0.65808779 0
0.72744638 2.1536498 -0.049991183 0
0.72724491 2.1535089 0.40606692 0
0.72666019 2.1530995 0.52745295 0
0.72916442 2.1548524 0.65621072 0
0.71654671 2.1701343 -0.050014302 0
0.72475225 2.1760333 0.40887317 0
0.71870846 2.1716883 0.52887338 0
0.71845931 2.1715093 0.65658581 0
0.69756478 2.1806772 -0.049688164 0
0.7053445 2.1864197 0.4064312 0
0.7037608 2.1852508 0.52751052 0
0.7148599 2.1934435 0.66072857 0
0.68811005 2.1981549 -0.049791582 0
0.69671315 2.2046742 0.40745714 0
0.70763463 2.2129502 0.53406221 0
0.70562726 2.2114291 0.66212749 0
0.68366116 2.2196224 -0.050132331 0
0.68548316 2.2210395 0.40772724 0
0.69548339 2.2288177 0.53407031 0
0.68355185 2.2195375 0.65692204 0
0.66130012 2.2271039 -0.049670581 0
0.68404609 2.2452598 0.41126376 0
0.67323333 2.236629 0.52986431 0
0.67943603 2.2415802 0.66123205 0
0.65943366 2.2509542 -0.050154146 0
0.66925329 2.2589967 0.41053256 0
0.67257088 2.261714 0.5349403 0
0.67209226 2.261322 0.66400701 0
0.63895375 2.2596133 -0.049788799 0
0.65734321 2.2750657 0.41081154 0
0.66709203 2.2832575 0.53811383 0
0.65923721 2.2766571 0.66396463 0
0.62359744 2.2723527 -0.049666077 0
0.71807724 2.3537948 0.066119336 0
0.72266871 2.3577528 0.18762484 0
0.72740036 2.3618314 0.31191882 0
0.6528011 2.2975266 0.41364321 0
0.64492291 2.2907355 0.53410953 0
0.65631419 2.3005548 0.66945606 0
0.60996741 2.2865074 -0.049631853 0
0.68826836 2.3557405 0.065363325 0
0.68681544 2.3544559 0.18448918 0
0.6857416 2.3535066 0.30527163 0
0.64086062 2.313823 0.41408277 0
0.64125043 2.3141677 0.53831625 0
0.63490897 2.3085606 0.66495967 0
0.60321563 2.3068714 -0.049937282 0
0.66276413 2.3608749 0.064807273 0
0.65242487 2.3514984 0.18152374 0
0.66189963 2.360091 0.30286047 0
0.62754506 2.3289354 0.41412401 0
0.63181728 2.3328097 0.54011577 0
0.62136596 2.3233316 0.66486222 0
0.59528905 2.326441 -0.050201461 0
0.63709205 2.3653219 0.064239629 0
0.63591009 2.3642228 0.18114154 0
0.64163119 2.3695438 0.30132139 0
0.61073548 2.3408079 0.41301432 0
0.61513621 2.3449008 0.53874934 0
0.6118564 2.3418503 0.66714889 0
0.58402783 2.343092 -0.050316386 0
0.63201338 2.3888636 0.064683914 0
0.62378174 2.3810117 0.18142986 0
0.63249844 2.3893261 0.30256864 0
0.5991835 2.3575482 0.41379732 0
0.59233207 2.3510129 0.53462082 0
0.59981757 2.3581531 0.66814858 0
0.56349283 2.3507888 -0.04998 0
0.61535639 2.4015219 0.064570174 0
0.61764365 2.4037595 0.1826539 0
0.61072963 2.396996 0.30070591 0
0.58388609 2.3707376 0.41332808 0
0.58540136 2.3722198 0.53786421 0
0.58991915 2.3766391 0.67051858 0
0.55348474 2.3687143 -0.050176542 0
0.60174674 2.4171286 0.064617097 0
0.60250121 2.4178853 0.18256614 0
0.60138196 2.4167626 0.30201706 0
0.57741886 2.3927238 0.41610357 0
0.56913668 2.3844156 0.53687543 0
0.57038194 2.3856647 0.66740155 0
0.53752059 2.3807158 -0.050082069 0
0.60228068 2.4473372 0.065399066 0
0.59955126 2.4445293 0.18438438 0
0.60049456 2.4454997 0.30559832 0
0.55788261 2.4016631 0.41423225 0
0.56386727 2.4078197 0.54119462 0
0.56455809 2.4085305 0.67245692 0
0.51637822 2.3871622 -0.049725391 0
0.61536425 2.4915922 0.066862389 0
0.61056668 2.4865308 0.18846066 0
0.61352867 2.4896557 0.31297132 0
0.54231471 2.4145253 0.41384915 0
0.54560024 2.4179914 0.5394274 0
0.55319113 2.4259996 0.67441589 0
0.51182514 2.4111915 -0.05024064 0
0.53001469 2.430872 0.41474962 0
0.54089576 2.4426448 0.54434615 0
0.52872366 2.4294751 0.66854364 0
0.49468109 2.4217963 -0.050107695 0
0.52208155 2.4522021 0.41740492 0
0.51704687 2.4466152 0.53997314 0
0.51967424 2.4495306 0.67215139 0
0.47435793 2.4286456 -0.049808048 0
0.50284177 2.4610651 0.41583112 0
0.50635689 2.465066 0.54219484 0
0.50887245 2.4679289 0.67486924 0
0.45762846 2.4393704 -0.049705885 0
0.48981509 2.476948 0.41671422 0
0.48553297 2.4719489 0.5393846 0
0.48272082 2.4686656 0.66800416 0
0.44720861 2.4575446 -0.049961109 0
0.47123906 2.4863257 0.41548073 0
0.47307119 2.4885199 0.5409171 0
0.47052082 2.4854655 0.6700536 0
0.4272103 2.4642386 -0.049691387 0
0.46058783 2.5052536 0.41747856 0
0.46702525 2.513164 0.54596436 0
0.45592496 2.4995236 0.67070115 0
0.42033139 2.4871743 -0.050175931 0
0.44494662 2.5182121 0.41755667 0
0.44181022 2.5142574 0.54099387 0
0.4399412 2.5119007 0.67055142 0
0.3966336 2.488909 -0.049703166 0
0.42221603 2.5220144 0.4147456 0
0.43252644 2.5353568 0.5446173 0
0.42452875 2.5250072 0.67089069 0
0.38606092 2.507529 -0.050002802 0
0.40515545 2.5328922 0.41431242 0
0.40847626 2.5373032 0.54027957 0
0.40919247 2.5382545 0.67140079 0
0.37052563 2.5197439 -0.050022054 0
0.39815524 2.5574224 0.41827089 0
0.39118913 2.5479226 0.53968525 0
0.39170662 2.5486283 0.6705305 0
0.35537705 2.5325291 -0.050074775 0
0.37666789 2.5623436 0.41607404 0
0.37691262 2.5626862 0.54087991 0
0.37834176 2.5646875 0.67267305 0
0.33872518 2.5432229 -0.050044425 0
0.36284128 2.5779088 0.41728836 0
0.35905698 2.5724659 0.54011774 0
0.3579503 2.5708742 0.66990376 0
0.32546756 2.5588994 -0.050238211 0
0.33837131 2.5779665 0.41376892 0
0.34535959 2.5882928 0.5418821 0
0.33952782 2.5796754 0.668594 0
0.31220672 2.5748253 -0.050448224 0
0.32712707 2.5974817 0.41631702 0
0.32471684 2.5938218 0.53959864 0
0.32248566 2.5904338 0.6683808 0
0.28776088 2.5735726 -0.0499353 0
0.30351236 2.5981596 0.41318011 0
0.30605856 2.602134 0.53853637 0
0.30524585 2.6008656 0.66811466 0
0.26997259 2.5823276 -0.049860336 0
0.29100248 2.6160822 0.41534108 0
0.28777573 2.6109028 0.53775382 0
0.2874352 2.6103563 0.66749787 0
0.25710467 2.5991101 -0.050130397 0
0.27346113 2.6261153 0.41517958 0
0.27022603 2.620774 0.53749591 0
0.2736648 2.6264515 0.67019176 0
0.24100228 2.6107793 -0.050193369 0
0.25595203 2.6361783 0.41509378 0
0.25366494 2.6322925 0.53796142 0
0.25242135 2.6301796 0.6670078 0
0.21601208 2.6069999 -0.049628932 0
0.23826893 2.6459262 0.41498101 0
0.23446782 2.6392782 0.53676671 0
0.2376339 2.6448157 0.669177 0
0.2039984 2.6257801 -0.050002534 0
0.21934338 2.65342 0.41427639 0
0.21977623 2.6541996 0.5386923 0
0.22301181 2.6600275 0.67169243 0
0.18717559 2.6361973 -0.05004061 0
0.19444765 2.6496935 0.41039422 0
0.19550772 2.6516612 0.53407675 0
0.19737573 2.655128 0.66481894 0
0.16695483 2.6401782 -0.049827721 0
0.18252553 2.6699684 0.41353744 0
0.17877592 2.6627946 0.53473902 0
0.17870106 2.6626513 0.66394567 0
0.15119107 2.6526291 -0.049965404 0
0.16473521 2.6793563 0.41358998 0
0.16065861 2.6713119 0.53450012 0
0.16150589 2.6729836 0.66449136 0
0.13356598 2.6615167 -0.04996844 0
0.13522758 2.6649005 0.40692893 0
0.14384867 2.6824577 0.53532183 0
0.14339413 2.6815321 0.66431093 0
0.10731461 2.6522748 -0.04926357 0
0.12387069 2.6870933 0.41076633 0
0.12735851 2.6944284 0.53652066 0
0.12263622 2.6844971 0.66167676 0
0.095631026 2.6735101 -0.049773533 0
0.10457142 2.6929393 0.41003093 0
0.10155239 2.6863782 0.53045666 0
0.10381379 2.6912928 0.66092312 0
0.07923653 2.6850507 -0.049907591 0
0.082505248 2.6923964 0.40758359 0
0.083564602 2.694777 0.53053504 0
0.082989357 2.6934845 0.65819502 0
0.062252305 2.695467 -0.050005279 0
0.065731429 2.7035584 0.40847751 0
0.061621509 2.694 0.52737224 0
0.065335356 2.7026374 0.65873742 0
0.042440079 2.6992593 -0.049854681 0
0.04912474 2.7153616 0.40960231 0
0.048276208 2.7133174 0.5315643 0
0.046553157 2.709167 0.65820104 0
0.02263852 2.7028008 -0.049704824 0
0.025563141 2.710104 0.40609035 0
0.025463244 2.7098544 0.52763158 0
0.024757763 2.7080927 0.65438169 0
0.0076679797 2.7185755 -0.050033394 0
0.0082019782 2.7199593 0.40680969 0
0.0086382246 2.7210896 0.52906209 0
0.0044753165 2.7103026 0.65216041 0
-0.010552564 2.7262769 -0.050060149 0
-0.011391737 2.7240181 0.40600774 0
-0.014549413 2.7155187 0.52459663 0
-0.012855568 2.720078 0.65340424 0
-0.029846469 2.731039 -0.049984075 0
-0.035418786 2.7154415 0.40185305 0
-0.029062727 2.733233 0.52848101 0
-0.033588924 2.7205637 0.65065426 0
-0.047428764 2.7406342 -0.050099932 0
-0.053128041 2.7240238 0.40242645 0
-0.050718047 2.7310479 0.52541375 0
-0.051880933 2.7276587 0.65092379 0
-0.066620536 2.7456102 -0.050050039 0
-0.073106416 2.7259023 0.40125686 0
-0.071947493 2.729424 0.52265143 0
-0.073442377 2.7248816 0.64698976 0
-0.088698305 2.7413235 -0.049662683 0
-0.090805419 2.7346387 0.40199384 0
-0.092305847 2.7298784 0.52071857 0
-0.089631058 2.7383645 0.65024811 0
-0.10751728 2.7469127 -0.049655426 0
-0.11389778 2.7257442 0.39808947 0
-0.1105345 2.7369025 0.52116501 0
-0.11014269 2.7382023 0.64768195 0
-0.12338484 2.7627521 -0.050037812 0
-0.10700396 2.8196833 0.064152792 0
-0.10764543 2.8174539 0.18080431 0
-0.10371775 2.8311045 0.30190811 0
-0.1316057 2.7341809 0.39887768 0
-0.13115628 2.7357428 0.51885629 0
-0.13130488 2.7352264 0.64402413 0
-0.14182274 2.7702477 -0.050117411 0
-0.13284074 2.8030112 0.063330278 0
-0.13466512 2.7963564 0.17783608 0
-0.12981333 2.8140545 0.2976748 0
-0.15014325 2.739897 0.39900255 0
-0.14958452 2.741935 0.51918149 0
-0.15072466 2.737776 0.64286584 0
-0.15851314 2.7846825 -0.050461348 0
-0.15446092 2.8002288 0.063034922 0
-0.15477811 2.7990119 0.1775534 0
-0.15798886 2.7866938 0.29159513 0
-0.16794787 2.748486 0.39994615 0
-0.16888289 2.7448988 0.51847559 0
-0.17229964 2.7317903 0.6381641 0
-0.18060176 2.7783082 -0.050046675 0
-0.17777078 2.789758 0.062467761 0
-0.1796657 2.782094 0.17513283 0
-0.17926522 2.7837138 0.29012972 0
-0.18870242 2.7455449 0.39791554 0
-0.19088756 2.7367072 0.51403219 0
-0.1893038 2.7431126 0.640975 0
-0.19923492 2.7854347 -0.050138447 0
-0.19827543 2.7895365 0.062288836 0
-0.1952364 2.8025277 0.17687652 0
-0.19822372 2.7897575 0.29038972 0
-0.20848148 2.7459075 0.39682513 0
-0.21148722 2.7330587 0.51124889 0
-0.20991679 2.7397721 0.63763386 0
-0.21931766 2.7863081 -0.050009929 0
-0.21665861 2.7983568 0.062450442 0
-0.21987496 2.7837825 0.17432517 0
-0.21770124 2.7936323 0.29029259 0
-0.22926165 2.7412486 0.3944909 0
-0.22746335 2.7493973 0.51537144 0
-0.23202012 2.728749 0.63115495 0
-0.23950405 2.7862508 -0.049857061 0
-0.23674072 2.799567 0.062342592 0
-0.23370285 2.8142061 0.17721125 0
-0.23738186 2.7964776 0.29005128 0
-0.24688934 2.7506623 0.3958979 0
-0.24913006 2.7398646 0.51076108 0
-0.25007758 2.7352984 0.63224137 0
-0.25709981 2.7989705 -0.050178498 0
-0.24989142 2.8360472 0.063526973 0
-0.25382611 2.8158088 0.17695402 0
-0.25178501 2.8263073 0.2948139 0
-0.26795945 2.743113 0.39295045 0
-0.26959747 2.7346878 0.5077309 0
-0.26748177 2.7455699 0.63499111 0
-0.27754867 2.7972479 -0.049983244 0
-0.26865011 2.8463078 0.063763328 0
-0.26815358 2.8490453 0.18018022 0
-0.26651308 2.8580897 0.29995686 0
-0.28616393 2.7497499 0.39375693 0
-0.28964621 2.7305512 0.50514656 0
-0.28893185 2.7344897 0.62884223 0
-0.29700086 2.8006332 -0.049982663 0
-0.3070403 2.7410183 0.39064491 0
-0.30953264 2.7262187 0.50258696 0
-0.30833828 2.7333109 0.62697726 0
-0.31659821 2.803103 -0.04995786 0
-0.32616466 2.7415755 0.39000526 0
-0.32817593 2.7286398 0.50239056 0
-0.32797554 2.7299287 0.62429518 0
-0.33673456 2.8016911 -0.049802028 0
-0.34426609 2.7488797 0.39116767 0
-0.34874368 2.7174826 0.49771035 0
-0.34701923 2.7295744 0.62298781 0
-0.35543606 2.8105054 -0.050023735 0
-0.36518207 2.7354124 0.38704294 0
-0.36681747 2.7228115 0.49865565 0
-0.36673397 2.723455 0.61937565 0
-0.37527394 2.8109794 -0.049953796 0
-0.3839345 2.7369592 0.38684872 0
-0.38626438 2.717046 0.49595955 0
-0.38578147 2.7211735 0.61747241 0
-0.39431259 2.8186741 -0.050152112 0
-0.40483716 2.7177255 0.38138485 0
-0.40479305 2.7181487 0.49564636 0
-0.40545398 2.7118092 0.61272305 0
-0.41478768 2.8122463 -0.049852498 0
-0.4227412 2.7253647 0.38287959 0
-0.42306125 2.7218685 0.49628595 0
-0.42388052 2.7129192 0.61243713 0
-0.43461657 2.8113644 -0.049761027 0
-0.44218069 2.7154474 0.37993741 0
-0.44311076 2.7036538 0.48968151 0
-0.442763 2.7080636 0.60977018 0
-0.45370039 2.820807 -0.050047975 0
-0.46102789 2.7101257 0.37823531 0
-0.46110448 2.7089689 0.4910121 0
-0.4609434 2.7114017 0.61060423 0
-0.47363621 2.818187 -0.049912062 0
-0.47960579 2.7067447 0.3770909 0
-0.48006728 2.6981297 0.48703519 0
-0.47988638 2.7015066 0.60604566 0
-0.49324214 2.8213565 -0.049992051 0
-0.49819672 2.7003555 0.37523875 0
-0.49869105 2.6882837 0.48347062 0
-0.49851489 2.6925852 0.60199189 0
-0.51267999 2.8325589 -0.050367728 0
-0.51662385 2.6933963 0.37330148 0
-0.51699907 2.6801574 0.48055777 0
-0.51707906 2.6773334 0.59541458 0
-0.53270978 2.8231947 -0.050017741 0
-0.53456438 2.7053831 0.37625813 0
-0.53493893 2.6815908 0.48090306 0
-0.53475523 2.6932607 0.60184628 0
-0.55247629 2.8200371 -0.049898345 0
-0.55289108 2.6883295 0.37186319 0
-0.55291766 2.6798785 0.48027685 0
-0.55292213 2.6784532 0.59564465 0
-0.57217103 2.8178709 -0.049823221 0
-0.57082289 2.6750998 0.3685022 0
-0.57078481 2.6710656 0.47736356 0
-0.57078785 2.671387 0.59274215 0
-0.59192097 2.820471 -0.049927138 0
-0.58850873 2.6656306 0.36615756 0
-0.58851445 2.6658909 0.47573498 0
-0.58832943 2.6574957 0.58710563 0
-0.61156112 2.8176942 -0.049847893 0
-0.60621977 2.6634936 0.36574057 0
-0.605878 2.6536274 0.47182015 0
-0.60573786 2.6495831 0.58403492 0
-0.63145471 2.8213983 -0.050009083 0
-0.62321568 2.6470351 0.36172232 0
-0.62380528 2.659513 0.47402063 0
-0.62332314 2.6493089 0.58421934 0
-0.65069067 2.812166 -0.049716678 0
-0.6406852 2.6450734 0.36146092 0
-0.63999957 2.6336238 0.46570778 0
-0.63999808 2.6335988 0.57809323 0
-0.64053708 2.6426001 0.70185572 0
-0.67070001 2.8164048 -0.049914874 0
-0.65798241 2.6410546 0.36072931 0
-0.65727794 2.6313417 0.46532995 0
-0.65725732 2.631057 0.57751513 0
-0.65784514 2.6391621 0.70071137 0
-0.68992925 2.809804 -0.049733903 0
-0.67309213 2.6121781 0.45938751 0
-0.67334807 2.6151817 0.57148623 0
-0.67292732 2.6102438 0.68688011 0
-0.71042854 2.8174548 -0.050072636 0
-0.69081128 2.6170619 0.46154302 0
-0.69088703 2.6178362 0.57324272 0
-0.68948501 2.6035144 0.68428236 0
-0.72867709 2.8025582 -0.049611222 0
-0.70673633 2.6042194 0.56831557 0
-0.70717192 2.6081574 0.68751055 0
-0.74867928 2.8045061 -0.049763281 0
-0.72145176 2.5838382 0.56064212 0
-0.72175878 2.5863266 0.67750967 0
-0.76814848 2.8017228 -0.049754199 0
-0.73921436 2.5892699 0.68009412 0
-0.78866833 2.8060114 -0.050009202 0
-0.7538808 2.572598 0.67287201 0
-0.80814219 2.802696 -0.049999055 0
-0.83051503 2.8159802 -0.050599389 0
-0.84594965 2.7900271 -0.049786039 0
-0.86650848 2.7924695 -0.050011702 0
-0.88758975 2.7965765 -0.050308198 0
-0.90310538 2.7752397 -0.049683701 0
-0.92296928 2.7738469 -0.04979682 0
-0.94464141 2.779238 -0.050169375 0
-0.96423322 2.7758193 -0.050227694 0
-0.9798218 2.7579868 -0.049760837 0
-1.0016637 2.7625382 -0.050132614 0
-1.0198098 2.7542012 -0.050034594 0
-1.0355572 2.7386327 -0.04967349 0
-1.0567925 2.7401829 -0.049963064 0
-1.0753005 2.7333167 -0.049945641 0
-1.0937598 2.7263439 -0.049932931 0
-1.1118289 2.7183571 -0.049890291 0
-1.132372 2.7167366 -0.050100379 0
-1.144763 2.6947234 -0.049535241 0
-1.1669095 2.6968143 -0.049907338 0
-1.1841456 2.6870179 -0.049829099 0
-1.2044688 2.6841695 -0.05003117 0
-1.2215452 2.6740365 -0.049957372 0
-1.2434217 2.6739492 -0.050289951 0
-1.2585056 2.6597135 -0.050071098 0
-1.2713544 2.6414654 -0.049697321 0
-1.2902333 2.6351352 -0.04980924 0
-1.3133074 2.6363039 -0.050236732 0
-1.3249829 2.6166217 -0.049824696 0
-1.3486885 2.6182485 -0.050295204 0
-1.365093 2.6069944 -0.050246023 0
-1.3778684 2.5898929 -0.049960081 0
-1.3914064 2.5743704 -0.049745291 0
-1.4106925 2.5679691 -0.049924288 0
-1.4295349 2.5606706 -0.050076656 0
-1.439273 2.5399044 -0.049657505 0
-1.4661634 2.5439875 -0.050325237 0
-1.4780192 2.5264864 -0.050062735 0
-1.4982442 2.5205538 -0.05031893 0
-1.5074271 2.4998417 -0.049925346 0
-1.5223784 2.4869432 -0.049887355 0
-1.5366172 2.4731953 -0.049818665 0
-1.5554076 2.4650409 -0.050016291 0
-1.565151 2.4459674 -0.049716529 0
-1.5826221 2.43612 -0.049855277 0
-1.6026961 2.4290459 -0.050138578 0
-1.6097875 2.4074452 -0.049735177 0
-1.631091 2.4014404 -0.050093975 0
-1.6419188 2.3841522 -0.04991195 0
-1.6596012 2.374006 -0.050092231 0
-1.6762034 2.3626063 -0.050222449 0
-1.6813167 2.3399768 -0.049787994 0
-1.6956489 2.3264472 -0.049824856 0
