# .PCD v0.7 - Point Cloud Data file format
VERSION 0.7
FIELDS x y z intensity
SIZE 4 4 4 4
TYPE F F F F
COUNT 1 1 1 1
WIDTH 1361
HEIGHT 1
VIEWPOINT 0 0 0 1 0 0 0
POINTS 1361
DATA ascii
-1.237223 0.56371778 0.49086127 0
-1.2397716 0.56112885 0.58285534 0
-1.6436824 0.1226536 -0.050002869 0
-1.4016275 0.37482327 0.049523748 0
-1.4027582 0.37364537 0.1371922 0
-1.4008093 0.37567568 0.22565152 0
-1.4011948 0.37527406 0.31687421 0
-1.2711465 0.51075673 0.34890309 0
-1.2450758 0.53791684 0.41715336 0
-1.2404876 0.54269683 0.49954164 0
-1.2390217 0.54422408 0.58973414 0
-1.6376027 0.10024571 -0.050434172 0
-1.3755206 0.38025296 0.048741851 0
-1.3739991 0.38187844 0.13442378 0
-1.3682085 0.3880651 0.21998501 0
-1.3745838 0.38125366 0.31109625 0
-1.2627109 0.50077826 0.34938183 0
-1.244917 0.51978916 0.42255554 0
-1.240301 0.52472091 0.50600517 0
-1.2323995 0.53316283 0.59179348 0
-1.6185933 0.091549151 -0.050201543 0
-1.3500137 0.38583958 0.047977287 0
-1.3519814 0.38368356 0.13267522 0
-1.3521376 0.3835125 0.2186207 0
-1.3544515 0.38097697 0.30766174 0
-1.252579 0.49260163 0.34909165 0
-1.2412436 0.50502217 0.42601332 0
-1.2420858 0.50409931 0.51418865 0
-1.2397801 0.50662583 0.60632205 0
-1.5991815 0.083547108 -0.049949821 0
-1.3314749 0.38440305 0.0475723 0
-1.3386011 0.37639445 0.13229449 0
-1.3393667 0.37553406 0.21814774 0
-1.3439404 0.37039405 0.30787224 0
-1.2507763 0.47509432 0.35301712 0
-1.2349142 0.49292058 0.42798114 0
-1.2328812 0.49520534 0.51441133 0
-1.2387002 0.48866582 0.61380583 0
-1.5874755 0.066928379 -0.050119698 0
-1.3234737 0.37125182 0.047736477 0
-1.3182611 0.37726051 0.13078177 0
-1.3225877 0.37227309 0.21659222 0
-1.3165892 0.37918782 0.30158085 0
-1.2455058 0.46112788 0.35535046 0
-1.2476282 0.45868134 0.44210559 0
-1.237991 0.46979046 0.52565181 0
-1.2398294 0.46767128 0.62360156 0
-1.5696501 0.057355519 -0.049965274 0
-1.3075283 0.36731166 0.047472984 0
-1.3112547 0.36290514 0.13146365 0
-1.3116329 0.36245799 0.21665138 0
-1.3121269 0.36187387 0.3041952 0
-1.2502831 0.43500334 0.36298561 0
-1.2428706 0.44376868 0.44551358 0
-1.2474394 0.43836606 0.54066873 0
-1.2397707 0.44743419 0.63269407 0
-1.5531538 0.046336409 -0.049889792 0
-1.2993723 0.3542102 0.047645412 0
-1.3057663 0.34645325 0.13244285 0
-1.2994766 0.35408372 0.21640559 0
-1.2990314 0.35462379 0.30347374 0
-1.2461257 0.41880608 0.36623567 0
-1.242371 0.42336112 0.45186707 0
-1.2354472 0.43176067 0.53936005 0
-1.24221 0.42355633 0.64449143 0
-1.5349368 0.03753924 -0.04972288 0
-1.289343 0.34324265 0.047723111 0
-1.2828155 0.35136783 0.13047631 0
-1.2810339 0.35358542 0.21437584 0
-1.2912917 0.34081697 0.3049596 0
-1.2503052 0.39183509 0.37407327 0
-1.2399491 0.40472585 0.45721874 0
-1.2404542 0.40409708 0.55167717 0
-1.2455829 0.39771307 0.65764183 0
-1.5213929 0.022958631 -0.049830284 0
-1.2791562 0.33238363 0.047800884 0
-1.2813717 0.32955372 0.13221675 0
-1.284737 0.32525492 0.21879417 0
-1.2786806 0.33299124 0.30452466 0
-1.2479011 0.37230796 0.37866649 0
-1.2416773 0.38025802 0.46560097 0
-1.2362189 0.38723034 0.55697262 0
-1.2334247 0.39079964 0.65637374 0
-1.5095408 0.0060300776 -0.050049778 0
-1.2748772 0.31368506 0.048235703 0
-1.2701334 0.31990445 0.1322988 0
-1.2756521 0.3126691 0.21958838 0
-1.2739567 0.31489187 0.30744165 0
-1.2591574 0.33429438 0.39096379 0
-1.241294 0.35771412 0.47288981 0
-1.2367656 0.36365104 0.56647527 0
-1.2434858 0.35484058 0.67689687 0
-1.4927253 -0.0044832281 -0.049988564 0
-1.2729189 0.29134476 0.048830859 0
-1.2759606 0.28725117 0.13547906 0
-1.2705462 0.29453802 0.22164696 0
-1.2783906 0.28398055 0.31442276 0
-1.2569042 0.31289816 0.3962 0
-1.2423131 0.33253568 0.48147222 0
-1.2381381 0.33815473 0.57708007 0
-1.2393641 0.3365047 0.68411428 0
-1.476022 -0.015083319 -0.049941111 0
-1.2774901 0.25926155 0.049851071 0
-1.2789247 0.25727916 0.13826503 0
-1.2785867 0.25774616 0.22785547 0
-1.2738415 0.26430345 0.31778494 0
-1.2526817 0.2935434 0.40056208 0
-1.2402457 0.31072837 0.48824736 0
-1.2393425 0.31197661 0.58799905 0
-1.2403582 0.31057292 0.6968649 0
-1.4620159 -0.029458528 -0.05006817 0
-1.1708431 0.38376075 0.044021118 0
-1.1736122 0.37983096 0.12096918 0
-1.1743864 0.37873226 0.19917695 0
-1.3335963 0.15278864 0.3497988 0
-1.2367834 0.29018122 0.39839849 0
-1.239177 0.28678441 0.49605811 0
-1.2390335 0.28698796 0.59808427 0
-1.4373103 -0.028400188 -0.049533639 0
-1.160434 0.37522984 0.044059046 0
-1.1600552 0.37578213 0.12049472 0
-1.1595833 0.37646997 0.19798791 0
-1.3213285 0.14067793 0.35054901 0
-1.2428005 0.25515616 0.40910891 0
-1.2380698 0.26205242 0.50420409 0
-1.2427784 0.25518823 0.61221772 0
-1.4321476 -0.055941109 -0.050244652 0
-1.1406751 0.38065183 0.043503359 0
-1.1383121 0.38419133 0.11843659 0
-1.1345668 0.38980144 0.19346796 0
-1.2982397 0.14463782 0.34641066 0
-1.2362618 0.23747373 0.41276181 0
-1.2408797 0.23055661 0.51565611 0
-1.2414578 0.22969067 0.62241298 0
-1.4114225 -0.060450081 -0.049972139 0
-1.1246663 0.38101614 0.043178149 0
-1.1200956 0.38805276 0.11701325 0
-1.1173041 0.39235038 0.19137169 0
-1.2834358 0.13658762 0.34604871 0
-1.2433624 0.19828141 0.42495108 0
-1.23725 0.20769167 0.52273619 0
-1.242384 0.19978774 0.63516361 0
-1.3970736 -0.074697264 -0.050124094 0
-1.1084387 0.38215226 0.042831469 0
-1.1084877 0.38207471 0.11688126 0
-1.1139181 0.37347949 0.19390805 0
-1.2695931 0.12707818 0.34618646 0
-1.2416927 0.17123878 0.43222722 0
-1.2371119 0.17848909 0.53288645 0
-1.2416637 0.17128456 0.64697784 0
-1.3793916 -0.083729275 -0.050063968 0
-1.0980687 0.37421638 0.042876169 0
-1.0963377 0.37703425 0.11665054 0
-1.0884867 0.38981438 0.18898223 0
-1.2536522 0.12095284 0.34536222 0
-1.2407995 0.14187491 0.44036192 0
-1.2359186 0.14982021 0.54270005 0
-1.2473555 0.13120294 0.66550535 0
-1.3654853 -0.099008329 -0.050273344 0
-1.0802764 0.37864572 0.042411827 0
-1.0751765 0.38718665 0.11453909 0
-1.0786891 0.38130391 0.18937966 0
-1.2484341 0.09702348 0.34989461 0
-1.2400941 0.11099087 0.44902909 0
-1.2409835 0.10950124 0.55806535 0
-1.2353386 0.11895513 0.6676321 0
-1.3433009 -0.10031892 -0.049911913 0
-1.066401 0.3769719 0.042212043 0
-1.0606073 0.38695842 0.113766 0
-1.0614381 0.38552642 0.18714517 0
-1.2511386 0.058540937 0.35870606 0
-1.239113 0.079269163 0.45795876 0
-1.2361542 0.084369414 0.56601876 0
-1.2391039 0.079284899 0.68569362 0
-1.3259292 -0.10965813 -0.049893521 0
-1.0514258 0.37753296 0.041929279 0
-1.0480846 0.38346297 0.11342411 0
-1.0517026 0.3770417 0.18760209 0
-1.2508307 0.023627395 0.3664 0
-1.2412014 0.040717598 0.46943825 0
-1.240517 0.041932222 0.58216894 0
-1.3049619 -0.11240316 -0.04961586 0
-1.0312256 0.38805807 0.041250691 0
-1.0383637 0.37500775 0.11371148 0
-1.0353611 0.38049734 0.18562666 0
-1.2441514 -0.0012255958 0.3711167 0
-1.2416881 0.0032777735 0.48040733 0
-1.2431604 0.00058626611 0.59766734 0
-1.2955271 -0.13646698 -0.050212402 0
-1.0235333 0.37603211 0.041498397 0
-1.0248947 0.37346697 0.11317062 0
-1.0209856 0.38083255 0.18434362 0
-1.2428111 -0.037137751 0.37902063 0
-1.2395906 -0.031069761 0.49013638 0
-1.2479409 -0.046803478 0.61587977 0
-1.2784528 -0.14661396 -0.050251085 0
-1.0013387 0.39179701 0.040632531 0
-1.0047625 0.38514495 0.1110561 0
-1.0107236 0.37356299 0.18464825 0
-1.2415637 -0.074941404 0.3874211 0
-1.2422944 -0.076361068 0.50390738 0
-1.2410917 -0.074024446 0.62455469 0
-1.2575356 -0.14912593 -0.049993519 0
-0.99477476 0.37759316 0.040978946 0
-0.9904893 0.38618356 0.11026315 0
-0.99611175 0.3749131 0.18323983 0
-1.2416154 -0.1172129 0.3970474 0
-1.2416552 -0.11729277 0.51595855 0
-1.2450646 -0.12412728 0.6438027 0
-1.241293 -0.16090107 -0.050115287 0
-0.98552257 0.36838621 0.041128408 0
-0.98067963 0.37840807 0.11054858 0
-0.976215 0.38764709 0.17959671 0
-1.238803 -0.15574837 0.40555644 0
-1.2361552 -0.15026903 0.5250001 0
-1.2237122 -0.17002583 -0.05013996 0
-0.96480775 0.38342923 0.040325798 0
-0.96659034 0.37961864 0.10978086 0
-0.96980184 0.37275338 0.18152589 0
-1.2393171 -0.20338404 0.41658875 0
-1.23877 -0.20221448 0.54098141 0
-1.2026072 -0.17141247 -0.049869962 0
-0.95137972 0.38373858 0.040115368 0
-0.95421493 0.37747341 0.10943434 0
-0.95197606 0.3824209 0.17859808 0
-1.2400298 -0.25410748 0.42842129 0
-1.2436844 -0.26218319 0.55978972 0
-1.1860319 -0.18268681 -0.049997129 0
-0.94114703 0.37710917 0.040183086 0
-0.93875104 0.38258618 0.10825668 0
-0.94225758 0.37457043 0.17917907 0
-1.2410673 -0.30849516 0.44120672 0
-1.2397562 -0.30549812 0.57242471 0
-1.1638626 -0.18096042 -0.049627863 0
-0.92482269 0.38476908 0.039701637 0
-0.92133796 0.39301628 0.10648768 0
-0.92428905 0.38603199 0.17599997 0
-1.240827 -0.36310971 0.45398355 0
-1.1464256 -0.19015765 -0.049692445 0
-0.9145751 0.37842089 0.039770685 0
-0.91337568 0.38136232 0.10731634 0
-0.91448456 0.37864292 0.17655279 0
-1.2406989 -0.42134857 0.4676944 0
-1.1315886 -0.20610058 -0.050023928 0
-0.90138674 0.37941438 0.039562721 0
-0.90113318 0.38005918 0.10695723 0
-0.89704907 0.39044714 0.17340748 0
-1.2390661 -0.47946835 0.48130533 0
-1.1158266 -0.2202704 -0.050293293 0
-0.88819671 0.38082111 0.039346322 0
-0.89050591 0.3747232 0.10708104 0
-0.88629884 0.38583273 0.17348585 0
-1.2389804 -0.54547679 0.49700928 0
-1.096814 -0.22608304 -0.050251432 0
-0.87589091 0.38024133 0.039212722 0
-0.8771891 0.37667847 0.10638564 0
-0.87546343 0.38141459 0.17355222 0
-1.0756783 -0.22575271 -0.049986467 0
-0.8619982 0.38447303 0.038903583 0
-0.86234987 0.38346881 0.10516188 0
-0.86389488 0.37905651 0.17325081 0
-1.0591371 -0.23851585 -0.050225809 0
-0.84852636 0.38813108 0.038623955 0
-0.85123491 0.38007218 0.10511949 0
-0.84842879 0.38842154 0.17074795 0
-1.0383433 -0.23863828 -0.049997889 0
-0.83826399 0.38246346 0.038701627 0
-0.84096265 0.37408614 0.10538547 0
-0.83936393 0.37904894 0.17184255 0
-1.0152241 -0.23068333 -0.049478885 0
-0.82878917 0.37404907 0.03888645 0
-0.82896674 0.37347305 0.10506074 0
-0.82861358 0.37461853 0.17202176 0
-1.0011873 -0.25227797 -0.050072428 0
-0.81436366 0.38197386 0.038466927 0
-0.81229675 0.38899094 0.10294695 0
-0.81510562 0.37945497 0.17048356 0
-0.98274267 -0.25974107 -0.050146405 0
-0.80429715 0.37546957 0.038590714 0
-0.80204141 0.38349926 0.10320938 0
-0.80384344 0.37708449 0.17033277 0
-0.96420395 -0.26706684 -0.050223652 0
-0.79131693 0.37951708 0.03832883 0
-0.79104972 0.38051635 0.10320623 0
-0.79212105 0.37650967 0.16987379 0
-0.94251651 -0.26222694 -0.049861155 0
-0.78044569 0.37600261 0.038352352 0
-0.77862364 0.38317782 0.10259261 0
-0.77878237 0.38255262 0.1682124 0
-0.92478228 -0.27273965 -0.050073538 0
-0.76863772 0.37630332 0.16886739 0
-0.90709329 -0.28414142 -0.050326053 0
-0.75548178 0.38288146 0.16717175 0
-0.88763171 -0.28812945 -0.050315361 0
-0.74311113 0.38691372 0.16598082 0
-0.86574882 -0.28004599 -0.049874041 0
-0.84570211 -0.28006673 -0.04973818 0
-0.72261465 0.37503976 0.16735213 0
-0.82851392 -0.29589462 -0.050184678 0
-0.80832392 -0.29517496 -0.050039642 0
-0.7879988 -0.29287612 -0.049847055 0
-0.76941115 -0.30235124 -0.050088257 0
-0.74943376 -0.30197787 -0.049983241 0
-0.73015648 -0.30728853 -0.050091583 0
-0.71065956 -0.31117201 -0.050157305 0
-0.69177639 -0.32284164 -0.050510745 0
-0.67096955 -0.31147861 -0.050047915 0
-0.65150309 -0.31709003 -0.050201908 0
-0.6313625 -0.31080353 -0.049939331 0
-0.61163878 -0.31129241 -0.049927961 0
-0.59182686 -0.30755639 -0.049774595 0
-0.57220221 -0.3125267 -0.049940996 0
-0.55247593 -0.31150687 -0.049902372 0
-0.53278512 -0.30976474 -0.049846817 0
-0.51318443 -0.30611563 -0.049731988 0
-0.49329647 -0.31138635 -0.049944632 0
-0.47358137 -0.31056786 -0.049948666 0
-0.45299354 -0.32284093 -0.050429992 0
-0.4961729 0.32938164 0.039093837 0
-0.43494341 -0.29857683 -0.0496126 0
-0.48393735 0.32269025 0.039363705 0
-0.41520551 -0.29903901 -0.049688864 0
-0.47366998 0.33960676 0.03879305 0
-0.39426854 -0.31045341 -0.05016727 0
-0.46230096 0.34209269 0.038744267 0
-0.37493393 -0.3052423 -0.050058253 0
-0.44809213 0.32002723 0.03958305 0
-0.44219357 0.26961344 0.11254779 0
-0.4424662 0.27194333 0.18437921 0
-0.4409717 0.25917023 0.26162693 0
-0.44206437 0.26850897 0.33621141 0
-0.44074717 0.25725108 0.42163911 0
-0.35556117 -0.30089819 -0.04998903 0
-0.43485048 0.31002492 0.039995357 0
-0.42867571 0.26244831 0.11348995 0
-0.43052775 0.27671826 0.1837882 0
-0.43085465 0.27923703 0.25686181 0
-0.42901877 0.26509154 0.33787134 0
-0.43004867 0.27302706 0.4156988 0
-0.42978629 0.27100527 0.502119 0
-0.33576107 -0.29987419 -0.050048199 0
-0.42048699 0.29422933 0.040623337 0
-0.41974729 0.28904259 0.11078746 0
-0.42026961 0.29270506 0.18118097 0
-0.4204832 0.29420269 0.25343549 0
-0.42110187 0.29854095 0.32719994 0
-0.42060357 0.29504693 0.40719274 0
-0.41893202 0.28332579 0.49674377 0
-0.31671751 -0.29369247 -0.049930137 0
-0.40680569 0.28571677 0.040995933 0
-0.40532252 0.2761777 0.11238348 0
-0.40636685 0.28289437 0.18330064 0
-0.40661588 0.28449619 0.25640652 0
-0.40713561 0.28783876 0.33140665 0
-0.40654656 0.28405029 0.41255406 0
-0.4089427 0.29946119 0.4894954 0
-0.29672131 -0.29365015 -0.050042763 0
-0.39139202 0.26851165 0.04169026 0
-0.39142883 0.26873022 0.11341227 0
-0.38905069 0.25460863 0.18883567 0
-0.3912265 0.26752871 0.26130751 0
-0.39054817 0.26350081 0.34028196 0
-0.39047021 0.26303792 0.42220628 0
-0.39824396 0.30919909 0.48554143 0
-0.27732411 -0.28984272 -0.050028164 0
0.067941807 -2.1933765 0.13109562 0
-0.38544446 0.30625051 0.48809794 0
-0.25745323 -0.28850937 -0.050112385 0
0.11414339 -2.1998396 0.13162699 0
-0.37503684 0.31628913 0.48412311 0
-0.23869301 -0.28151608 -0.049999565 0
0.15972109 -2.2014172 0.1320028 0
-0.36941192 0.34839982 0.46892595 0
-0.21995468 -0.27477837 -0.049904399 0
0.2038181 -2.1950223 0.13210915 0
-0.35880679 0.35440302 0.46709967 0
-0.20106135 -0.26898408 -0.049852181 0
0.24977984 -2.1962388 0.13251521 0
-0.34943995 0.36530441 0.46281964 0
-0.1797791 -0.27299225 -0.050169036 0
0.29873666 -2.2083461 0.13334429 0
-0.0044810562 -0.9819839 0.25357133 0
-0.0052269488 -0.97896719 0.42089927 0
-0.33752841 0.36502379 0.46435019 0
-0.1628481 -0.25940824 -0.049847759 0
0.34071961 -2.1913514 0.13312513 0
-0.32724905 0.3713178 0.46256375 0
-0.14393096 -0.25391436 -0.049832731 0
0.39028922 -2.2025881 0.13396984 0
-0.3151879 0.37077922 0.46438298 0
-0.12238038 -0.25759995 -0.050167501 0
-0.29977465 0.35892826 0.47217739 0
-0.10397238 -0.2500304 -0.05009396 0
-0.30155548 0.40548748 0.449579 0
-0.08425314 -0.24678302 -0.050190579 0
-0.29292914 0.41525209 0.44618171 0
-0.068125315 -0.23239481 -0.049878187 0
-0.28382635 0.42302775 0.4438751 0
-0.046605326 -0.23439109 -0.050190512 0
-0.26204711 0.39350605 0.4613483 0
-0.029966215 -0.22206092 -0.049971368 0
-0.01158581 -0.21485269 -0.049954228 0
0.011682055 -0.22033393 -0.05043143 0
0.024224242 -0.19811738 -0.049857106 0
0.044150911 -0.19473732 -0.050013985 0
0.065672718 -0.1947788 -0.050314419 0
0.079683922 -0.17741311 -0.049946882 0
-0.19332103 0.43611103 0.37679389 0
0.095368765 -0.16429687 -0.049751133 0
0.11571135 -0.16129065 -0.04996166 0
-0.16396894 0.42689538 0.38534093 0
-0.19908671 0.50075036 0.5008533 0
0.13275541 -0.15122271 -0.049902782 0
0.55430692 -1.0097299 0.46088779 0
-0.15692084 0.43871486 0.38220435 0
-0.19589622 0.51808983 0.49241763 0
0.15315713 -0.14786565 -0.050120682 0
0.58650857 -1.0030172 0.46239698 0
-0.15111683 0.45257139 0.37814328 0
-0.18479519 0.51903033 0.49485746 0
0.17043759 -0.13819849 -0.050096143 0
0.61071593 -0.98054338 0.46079111 0
-0.13616972 0.44840586 0.38250899 0
-0.17807539 0.52858025 0.49164543 0
0.18365325 -0.12101711 -0.049775504 0
0.64840931 -0.98356104 0.4644587 0
-0.12555705 0.45284832 0.38294417 0
-0.17072599 0.5366776 0.48944691 0
0.20592983 -0.12061609 -0.050144594 0
0.67766708 -0.97031856 0.46489555 0
-0.11357201 0.45487702 0.38458854 0
-0.16450168 0.54661256 0.48604903 0
0.21979047 -0.1049651 -0.049900699 0
0.7227152 -0.98455977 0.47112146 0
-0.078375407 0.41651487 0.4055804 0
-0.15542819 0.55127704 0.48628047 0
0.2385831 -0.098026283 -0.050023105 0
0.75279492 -0.97164655 0.4718293 0
-0.060208537 0.40960598 0.41182935 0
-0.15066858 0.5632931 0.48153296 0
0.25527748 -0.087450393 -0.050004482 0
0.80205339 -0.99019742 0.47925636 0
-0.0568792 0.42793173 0.40602139 0
-0.13769214 0.56135684 0.48646426 0
0.27117071 -0.075607546 -0.049941227 0
0.84317988 -0.99372506 0.48368093 0
-0.12453533 0.55953014 0.49147162 0
0.28623429 -0.062546618 -0.049834263 0
0.88341492 -0.99470615 0.48770639 0
-0.11679456 0.56655473 0.49040172 0
0.30472919 -0.054827694 -0.049962845 0
0.91585535 -0.98281932 0.48909563 0
0.026166579 0.36816818 0.44531265 0
-0.10913233 0.57361883 0.4893637 0
0.32469478 -0.049114469 -0.050188988 0
0.95728821 -0.98386478 0.4934015 0
0.033847652 0.38065523 0.4427785 0
-0.10443885 0.58499408 0.48529851 0
0.33782777 -0.033288959 -0.0499883 0
0.99893945 -0.98416162 0.49769491 0
0.040689193 0.39408356 0.439796 0
-0.10476268 0.60328609 0.47624406 0
0.35262766 -0.020035988 -0.049905874 0
0.057819091 0.39279616 0.4443171 0
-0.092209406 0.60288692 0.48072588 0
0.37526777 -0.01756764 -0.050308354 0
0.073289059 0.39424092 0.44758761 0
-0.097585119 0.62726212 0.46714568 0
0.38338378 0.0046702572 -0.049843892 0
1.1345702 -0.99312997 0.10643316 0
1.1333289 -0.99148107 0.30810571 0
0.088266812 0.39667374 0.45047769 0
-0.081574418 0.62227362 0.47518352 0
0.39833966 0.017526144 -0.049802776 0
0.1121942 0.38781613 0.45940199 0
-0.07268063 0.62705559 0.47612745 0
0.41558281 0.027456397 -0.049903106 0
0.12824626 0.38976562 0.46286339 0
-0.069451071 0.63904673 0.47170851 0
0.43308982 0.037179586 -0.050023943 0
-0.063859321 0.64784044 0.4697198 0
0.44919166 0.048723575 -0.050071571 0
-0.048675813 0.64501679 0.47673953 0
0.46667263 0.05871379 -0.050202232 0
-0.044126071 0.65506864 0.47393 0
0.47742042 0.076511972 -0.049973693 0
-0.036154367 0.6610474 0.47434968 0
0.48553714 0.096993558 -0.049620051 0
1.2058734 -0.70234478 0.10003547 0
-0.034489252 0.67405331 0.46924382 0
0.50561601 0.1041696 -0.049914051 0
1.2046986 -0.65221179 0.098685145 0
-0.024280349 0.6774981 0.47181618 0
0.52143699 0.11614382 -0.04998792 0
0.38220182 0.26303673 0.05476214 0
0.54270095 0.12259793 -0.050347403 0
0.38438144 0.28546739 0.054238297 0
0.84186083 -0.18515944 0.22174461 0
-0.016837696 0.69821697 0.46593443 0
0.55548626 0.13792098 -0.050277758 0
0.39673623 0.29717129 0.05424995 0
0.84374148 -0.15124273 0.21928874 0
-0.005527535 0.70070279 0.46958932 0
0.56454843 0.15682161 -0.05003272 0
0.40327165 0.314583 0.053978235 0
0.75220376 -0.026743298 0.20288327 0
0.74630672 -0.02097488 0.33491027 0
0.73939139 -0.01421023 0.46882799 0
0.0012063595 0.70788443 0.46942914 0
0.58268672 0.16683042 -0.050250221 0
0.42046282 0.32156956 0.054246377 0
0.84025699 -0.07885588 0.2135807 0
0.19307472 0.53846616 0.35105246 0
0.0096646762 0.71341383 0.47075877 0
0.59331554 0.18403757 -0.050105236 0
0.45932862 0.30865842 0.055572502 0
0.82821459 -0.034441475 0.20936581 0
0.19434829 0.55511594 0.34756282 0
0.013723633 0.72311449 0.46856645 0
0.60363871 0.201388 -0.049957674 0
0.84065288 -0.013556248 0.073380783 0
0.84371191 -0.016330367 0.20927587 0
0.19220038 0.57451475 0.34267086 0
0.01832976 0.7321952 0.46693555 0
0.62285942 0.21073663 -0.050246231 0
0.8394509 0.019227738 0.072568007 0
0.83719319 0.021224016 0.20606153 0
0.8353731 0.022833223 0.34129339 0
0.21061195 0.57524353 0.34707242 0
0.027484557 0.73716372 0.46901456 0
0.62615639 0.23408449 -0.049786691 0
0.84035712 0.049442407 0.071882941 0
0.83222502 0.05645239 0.20316936 0
0.84004527 0.049711343 0.33874011 0
0.22955437 0.57595718 0.35166374 0
0.03136941 0.74679357 0.46699414 0
0.64517218 0.24380457 -0.050078779 0
0.8445248 0.076290242 0.071375005 0
0.84094745 0.079296343 0.20229201 0
0.83779675 0.081943862 0.3346636 0
0.92284173 0.010481233 0.49928808 0
0.26665196 0.56187189 0.3641001 0
0.27596524 0.55404603 0.45669013 0
0.6546014 0.26164681 -0.049931142 0
0.84777385 0.10343217 0.070845567 0
0.84047431 0.10941076 0.20018643 0
0.83087629 0.11727177 0.32963488 0
0.9486174 0.020838017 0.50266224 0
0.28983858 0.56039953 0.37034994 0
0.24883194 0.59398532 0.43748531 0
0.04958012 0.75717908 0.47130045 0
0.66625458 0.27758455 -0.0498969 0
0.85095924 0.13015175 0.070334211 0
0.8428604 0.13661635 0.1985475 0
0.84755939 0.13286555 0.3302063 0
0.9860962 0.022284264 0.50986588 0
0.27158675 0.59261173 0.35888967 0
0.2488478 0.61076218 0.43312293 0
0.05506327 0.76544255 0.4707478 0
0.68540221 0.2876665 -0.050211076 0
0.85319692 0.15715611 0.069800265 0
0.84442323 0.16398025 0.19685932 0
0.8444286 0.16397607 0.32629019 0
0.25568792 0.62189764 0.4324939 0
0.060122512 0.7740081 0.46996054 0
0.69613236 0.30440909 -0.050150931 0
0.84928745 0.18835056 0.069011346 0
0.84353071 0.1927129 0.19490278 0
0.83128816 0.20199013 0.32023534 0
0.2619597 0.63341832 0.43164885 0
0.072038554 0.77733755 0.47436354 0
0.71003574 0.31876057 -0.050241549 0
0.84896773 0.2162081 0.06840653 0
0.84141284 0.22178471 0.1928492 0
0.83908254 0.22350478 0.31903705 0
0.28588495 0.63184685 0.43997136 0
0.0736387 0.78851604 0.47115284 0
0.71448988 0.33998734 -0.049923871 0
0.84168416 0.24855065 0.067516454 0
0.83368164 0.25430346 0.19011986 0
0.83813113 0.25110483 0.31596747 0
0.08869072 0.7898584 0.47789937 0
0.72484988 0.35681075 -0.049878035 0
0.85800618 0.26360846 0.067680702 0
0.84383243 0.27352929 0.18981415 0
0.84682506 0.27143466 0.31512496 0
0.8439303 0.27346081 0.44240513 0
0.086812399 0.8034026 0.47234336 0
0.74661082 0.36583072 -0.050334312 0
0.88510114 0.27147055 0.068317175 0
0.84729034 0.29723287 0.18867232 0
0.83786601 0.30365413 0.31049332 0
0.83807749 0.30351007 0.43681967 0
0.10307797 0.80430096 0.47997814 0
0.74844629 0.38845259 -0.049938146 0
0.91930956 0.2751587 0.069257319 0
0.83377391 0.33187461 0.18538983 0
0.8382147 0.32893008 0.30800247 0
0.8430199 0.32574385 0.43470171 0
0.11167195 0.81067699 0.48209867 0
0.7698378 0.39813036 -0.050388176 0
0.9513256 0.2810545 0.070098706 0
0.8363983 0.35519284 0.18425415 0
0.84821028 0.34757304 0.30767077 0
0.84456021 0.34992766 0.43165326 0
0.12382629 0.81486529 0.48677158 0
0.77025992 0.42134261 -0.049956046 0
0.99611217 0.27964276 0.07147485 0
0.8420735 0.37628675 0.18355186 0
0.84066015 0.37717342 0.30365628 0
0.83703393 0.37944853 0.42599013 0
0.13373347 0.82069963 0.48987159 0
0.77435857 0.4419589 -0.049693242 0
1.039168 0.28042811 0.072767332 0
0.84395975 0.39950299 0.18241157 0
0.83919483 0.40240955 0.30103698 0
0.84278804 0.40021771 0.42445073 0
0.12845744 0.83595163 0.48245177 0
0.79487735 0.45262885 -0.050124701 0
1.0784642 0.28450632 0.073894575 0
0.82732135 0.43339467 0.179002 0
0.84192139 0.42473906 0.2993829 0
0.84058386 0.42553204 0.42064023 0
0.14601018 0.83730537 0.49095887 0
0.79900521 0.47309393 -0.049883302 0
0.84765691 0.44507289 0.18025571 0
0.83409184 0.45288569 0.29560256 0
0.83464509 0.4525671 0.41585189 0
0.1431994 0.85080624 0.48547992 0
0.81372446 0.48744375 -0.050087433 0
0.85201484 0.4660278 0.17955135 0
0.83456868 0.47578549 0.29363865 0
0.83511466 0.47548008 0.41307038 0
0.1577055 0.854357 0.49192223 0
0.81681377 0.50827461 -0.049825095 0
0.85038227 0.49005073 0.17815162 0
0.84030503 0.49552149 0.29282683 0
0.84483284 0.49306345 0.41307676 0
0.82143754 0.52809179 -0.04963702 0
0.86064869 0.50743943 0.17824332 0
0.84708053 0.51458573 0.29228303 0
0.84115368 0.51770735 0.40928397 0
0.84361607 0.53879797 -0.050163925 0
0.85316068 0.53392339 0.17621845 0
0.84458309 0.53830409 0.28991362 0
0.83759576 0.54187262 0.40563941 0
0.84112567 0.54006982 0.52845162 0
0.84449023 0.56046671 -0.049844287 0
0.85181111 0.55684328 0.17498234 0
0.83571523 0.5648098 0.28633732 0
0.83898979 0.56318909 0.40351406 0
0.84017497 0.56260246 0.52480143 0
0.86842948 0.57083237 -0.050450586 0
0.87907225 0.56573063 0.17719796 0
0.83722192 0.58579206 0.28492439 0
0.84811729 0.58056921 0.40366572 0
0.8341797 0.58725035 0.51941705 0
0.86719698 0.5933519 -0.050067823 0
0.89995593 0.57815278 0.17865843 0
0.84106869 0.60547453 0.28403762 0
0.83206159 0.60965353 0.3967953 0
0.8342703 0.60862875 0.51641023 0
0.8705911 0.61350268 -0.049879391 0
0.75675708 0.66458607 0.057424922 0
0.93028778 0.58671361 0.18124208 0
0.832169 0.6307447 0.28068534 0
0.83852333 0.62789321 0.3963632 0
0.83772475 0.62825155 0.51474547 0
0.88454288 0.62893301 -0.050112735 0
0.75221366 0.68632555 0.056963217 0
0.96744257 0.5929786 0.18462357 0
0.84230334 0.64725274 0.28115574 0
0.83304697 0.65126735 0.39267755 0
0.84202415 0.64737386 0.51348603 0
0.88743645 0.64917672 -0.04992437 0
0.76090199 0.70217329 0.057026707 0
0.99289852 0.60500598 0.18663342 0
0.84348243 0.66758603 0.2799134 0
0.83943719 0.66928035 0.39237529 0
0.84358412 0.66754347 0.51133221 0
0.89796239 0.66619629 -0.050040696 0
0.75770146 0.72287673 0.056639787 0
1.0304428 0.61265999 0.19005185 0
0.8393777 0.68987077 0.2776995 0
0.84453458 0.68778682 0.39178139 0
0.84349543 0.68820673 0.50868911 0
0.89872879 0.68710881 -0.049790759 0
0.76394838 0.73961025 0.056626745 0
1.0695611 0.62056404 0.19364627 0
0.85229713 0.70519549 0.27884594 0
0.84685773 0.70731431 0.39049476 0
0.82900816 0.71426731 0.50101113 0
0.27922127 0.92842734 0.45523587 0
0.90366501 0.70627236 -0.049711052 0
0.77648622 0.75397718 0.056861699 0
0.84465474 0.72840714 0.27606356 0
0.83760482 0.73105156 0.38612702 0
0.84403449 0.72863984 0.50397325 0
0.28016225 0.94014871 0.45358136 0
0.91028315 0.72477263 -0.049704727 0
0.78199869 0.7710582 0.056835819 0
0.81998485 0.75735259 0.16336775 0
0.84601325 0.74796146 0.27507576 0
0.83963472 0.75026286 0.38492054 0
0.84502333 0.74831867 0.50202125 0
0.25537625 0.96106583 0.43832856 0
0.92284364 0.74121159 -0.049931787 0
0.77713901 0.79171818 0.05642629 0
0.8030265 0.78274465 0.16073953 0
0.85418576 0.76501095 0.27543995 0
0.83552641 0.77147895 0.38212731 0
0.84315592 0.76883429 0.49915949 0
0.83867687 0.77038687 0.61777127 0
0.25769094 0.97177827 0.4376331 0
0.93393415 0.75831151 -0.050110396 0
0.9292044 0.7598846 0.061932445 0
0.79605621 0.80416882 0.15928981 0
0.84857184 0.78670245 0.27322325 0
0.84041017 0.78941697 0.38183549 0
0.84428424 0.78812844 0.49745077 0
0.85144335 0.78574741 0.62073129 0
0.29724923 0.97006863 0.45664993 0
0.93494552 0.77875882 -0.049918707 0
0.75234288 0.83694816 0.055076558 0
0.81030315 0.81847817 0.16026957 0
0.84412187 0.80770129 0.27128756 0
0.84677738 0.80685508 0.38200265 0
0.84324771 0.80797982 0.49507797 0
0.84370619 0.80783373 0.61485386 0
0.30537155 0.97938299 0.45907128 0
0.94043165 0.79770398 -0.049904395 0
0.75415581 0.85449034 0.054951951 0
0.78631073 0.84468788 0.15696959 0
0.85046488 0.8251304 0.27144414 0
0.84438568 0.82698369 0.37989166 0
0.83405 0.83013451 0.48996285 0
0.84975535 0.82534671 0.61508691 0
0.32021073 0.98677891 0.46505827 0
0.94341952 0.81736922 -0.049806125 0
0.76128799 0.87039518 0.055033822 0
0.77603489 0.86610174 0.15525401 0
0.86506194 0.8401823 0.2731919 0
0.83679718 0.84841132 0.37647495 0
0.84600765 0.84572983 0.49229375 0
0.84648389 0.84559113 0.61139506 0
0.32641771 0.99700379 0.4665736 0
0.9491747 0.83619767 -0.049819924 0
0.76871198 0.88628179 0.055133656 0
0.78511947 0.88172817 0.15573382 0
0.88528687 0.85392857 0.27602243 0
0.82972211 0.86934954 0.37327766 0
0.83339769 0.86832947 0.48620206 0
0.83345908 0.86831242 0.60363495 0
0.32230392 1.010174 0.46279153 0
0.9431538 0.85814857 -0.04940762 0
0.90070516 0.86935574 0.059840221 0
0.77152532 0.90346134 0.15371318 0
0.91463512 0.86567795 0.28057769 0
0.83820456 0.88585693 0.37426591 0
0.83420795 0.88691211 0.48484644 0
0.84517831 0.88401574 0.6066193 0
0.32172117 1.0222172 0.46093526 0
0.96789712 0.87209362 -0.050139084 0
0.78168231 0.91875744 0.055285417 0
0.79754335 0.91478276 0.15611801 0
0.95517009 0.87528288 0.28722602 0
0.84565204 0.90272719 0.37503359 0
0.84482986 0.90293318 0.48694074 0
0.84495836 0.90290099 0.60458279 0
0.3181459 1.0349157 0.45761961 0
0.96386224 0.89339972 -0.049818885 0
0.81058615 0.92976457 0.15709828 0
0.98762935 0.887761 0.29238012 0
0.8428933 0.92209971 0.37317854 0
0.84289151 0.92210013 0.48480314 0
0.84191555 0.92233163 0.60145235 0
0.34414813 1.0404272 0.46960577 0
0.9735108 0.91141272 -0.050010033 0
0.86790472 0.9350673 0.16297276 0
1.0150535 0.9021076 0.29661819 0
0.840087 0.94129819 0.37138018 0
0.83758169 0.94185936 0.48160449 0
0.84313112 0.94061631 0.60024154 0
0.34363005 1.0524992 0.46799588 0
0.96874589 0.93260503 -0.049683075 0
1.0397768 0.91763157 0.30038059 0
0.84021932 0.95969874 0.37041593 0
0.84297913 0.959117 0.48213956 0
0.83352762 0.96110934 0.59455359 0
0.35479346 1.0620276 0.47244126 0
0.98411065 0.94958615 -0.05009922 0
1.0972713 0.92721593 0.31019422 0
0.83827609 0.97841549 0.3689746 0
0.83958107 0.97815752 0.47976428 0
0.85340792 0.97542411 0.60143244 0
0.36394665 1.0721835 0.47591162 0
0.99144727 0.96835119 -0.050230708 0
0.83713633 0.99684215 0.36780626 0
0.83163089 0.99785864 0.47593564 0
0.83294159 0.99761659 0.59138399 0
0.37741795 1.0817215 0.48163608 0
0.99057299 0.98862278 -0.050073057 0
0.84855694 1.0129987 0.36995205 0
0.85467428 1.0119488 0.48266131 0
0.84452254 1.0136912 0.5949375 0
0.38903597 1.091872 0.48646843 0
0.99168056 1.0084705 -0.049996596 0
0.44411096 1.0953736 0.042202991 0
0.43458471 1.0968856 0.11394294 0
0.42702201 1.0980858 0.18576252 0
0.43361816 1.097039 0.26200676 0
0.4419308 1.0957197 0.34263501 0
0.43190899 1.0973102 0.420739 0
0.39324686 1.1034461 0.48760346 0
0.99782652 1.0275321 -0.050111081 0
0.40958712 1.1133112 0.040888064 0
0.39851889 1.1149253 0.10981922 0
0.40836647 1.1134893 0.18201813 0
0.41300252 1.1128131 0.25620106 0
0.39539978 1.11538 0.32634592 0
0.40962479 1.1133057 0.41062057 0
0.402392 1.1143605 0.49130508 0
0.99721366 1.0475773 -0.049990606 0
0.39697489 1.1274012 0.040372644 0
0.4376007 1.1219985 0.11387422 0
0.42414758 1.1237876 0.18458059 0
0.42900386 1.1231418 0.25988069 0
0.43499294 1.1223453 0.3390725 0
0.43655643 1.1221374 0.4211598 0
0.4208484 1.1242263 0.49976978 0
0.99998552 1.0671332 -0.0500011 0
0.37596628 1.1421362 0.039562467 0
0.42869869 1.1357981 0.11273884 0
0.42153105 1.1366596 0.1838209 0
0.42303374 1.136479 0.2579422 0
0.42031947 1.1368052 0.33362511 0
0.43099275 1.1355224 0.41817844 0
1.0116612 1.085743 -0.050340135 0
0.36090884 1.155659 0.038973741 0
0.85504419 1.1025697 0.36843544 0
0.83576173 1.1046413 0.47216657 0
0.83453089 1.1047736 0.58562899 0
1.0071743 1.106127 -0.050107576 0
0.34459928 1.1688851 0.03834692 0
0.83854741 1.1220992 0.36374676 0
0.84544176 1.1214461 0.47480857 0
0.83204454 1.122715 0.58385772 0
1.0026934 1.1263492 -0.049884666 0
0.36645725 1.1785386 0.039093927 0
0.85713381 1.1382892 0.36810681 0
0.83389705 1.1401953 0.47043344 0
0.84908408 1.1389495 0.59029377 0
1.0061423 1.1458669 -0.049954854 0
0.37909833 1.1893615 0.039514787 0
0.84933895 1.1567434 0.36576834 0
0.83226877 1.1579275 0.46944797 0
0.83753568 1.1575621 0.58494419 0
0.997379 1.1661299 -0.049597092 0
0.84602624 1.174715 0.36463636 0
0.84152764 1.1749703 0.47216555 0
0.82994586 1.1756272 0.58133727 0
1.0065906 1.1853509 -0.049890999 0
0.8482663 1.1923329 0.36498085 0
0.84691495 1.1923925 0.47366384 0
0.83157104 1.1930691 0.58164579 0
1.015542 1.2047906 -0.050184142 0
0.84936517 1.2100234 0.36509055 0
0.84108645 1.210284 0.47150129 0
0.84606761 1.2101272 0.58737695 0
0.99733144 1.2249533 -0.049516074 0
0.85345393 1.227671 0.36602005 0
0.85070521 1.227723 0.47455433 0
0.83815044 1.2279601 0.58391404 0
1.0043722 1.2444888 -0.049758639 0
0.84804827 1.245473 0.36458379 0
0.84719604 1.2454784 0.47331253 0
0.83890969 1.2455306 0.58413678 0
1.0116289 1.2642 -0.050017711 0
0.84803241 1.26317 0.36457974 0
0.8422367 1.2631335 0.47166258 0
0.85051113 1.2631856 0.58894026 0
1.0142602 1.2840097 -0.050120555 0
0.84200472 1.2807559 0.36309844 0
0.84245175 1.2807643 0.47180796 0
0.83676893 1.2806569 0.5833419 0
1.0180017 1.30393 -0.050271999 0
0.84402937 1.2984518 0.36372855 0
0.83903915 1.2982947 0.47081983 0
0.83630615 1.2982086 0.58333337 0
1.0084591 1.3233746 -0.049957771 0
0.84341377 1.3160963 0.36374161 0
0.84320086 1.3160869 0.47242701 0
0.83791071 1.3158536 0.58427316 0
1.0061265 1.3430094 -0.04990989 0
0.83353013 1.3332193 0.36144307 0
0.84577864 1.333914 0.47358215 0
0.84589022 1.3339204 0.58794945 0
1.0099553 1.3630407 -0.050091311 0
1.2943783 1.3827696 0.072269976 0
1.300334 1.3831826 0.20612985 0
1.30277 1.3833517 0.34228662 0
0.84526664 1.3516172 0.36472687 0
0.8458243 1.3516558 0.47396868 0
0.84383959 1.3515183 0.58756047 0
1.0013165 1.3821809 -0.049835347 0
1.2438177 1.4020729 0.070522025 0
1.2433294 1.4020329 0.20017387 0
1.0075474 1.3826921 0.28918543 0
0.84955758 1.3697325 0.3661674 0
0.84270233 1.3691701 0.47337276 0
0.84191912 1.3691059 0.58731723 0
0.99058324 1.4009446 -0.049512602 0
1.2443848 1.4249842 0.070614196 0
1.2472219 1.425253 0.20081025 0
0.90218133 1.3925713 0.27041304 0
0.83386868 1.3861009 0.36254773 0
0.84202415 1.3868734 0.47366649 0
0.84363025 1.3870255 0.5886761 0
0.99227005 1.4208168 -0.04964387 0
0.65369636 1.3844409 0.049486786 0
0.65323597 1.3843914 0.13685572 0
0.64639157 1.3836561 0.22435293 0
0.6400401 1.3829737 0.31326529 0
0.834454 1.4038613 0.47172901 0
0.8342039 1.4038343 0.58549279 0
0.99149412 1.4404894 -0.049695767 0
0.54615062 1.3869621 0.045681998 0
0.55230564 1.3877017 0.12611841 0
0.55515593 1.3880444 0.20809342 0
0.54633218 1.3869839 0.289626 0
0.83853549 1.4221047 0.47376457 0
0.83884448 1.4221419 0.5882591 0
0.99551052 1.4608394 -0.049929265 0
0.55667704 1.4024802 0.046124417 0
0.55673152 1.4024875 0.12678985 0
0.5458867 1.4010453 0.2067294 0
0.55188745 1.4018433 0.29150826 0
0.83621675 1.4396554 0.47373253 0
0.85411996 1.4420363 0.59556818 0
0.99091941 1.4801037 -0.049861878 0
0.55357081 1.4163281 0.046082836 0
0.56437439 1.4179035 0.12783211 0
0.5568077 1.4168001 0.20907246 0
0.54902738 1.4156656 0.29127243 0
0.82998985 1.4566364 0.47246069 0
0.84298652 1.4585317 0.59194559 0
0.99107236 1.5000761 -0.049974613 0
0.55103248 1.4302387 0.046067998 0
0.54587823 1.4294207 0.12605327 0
0.55013555 1.4300964 0.20824379 0
0.55689305 1.4311688 0.29385179 0
0.84047419 1.4761751 0.47688755 0
0.83612496 1.4754848 0.59019351 0
0.98118883 1.5184096 -0.049733132 0
0.5572024 1.4456357 0.046374913 0
0.55649358 1.445514 0.12746072 0
0.5503307 1.4444562 0.20870055 0
0.55449933 1.4451717 0.29383141 0
0.83964521 1.4941148 0.47758809 0
0.83727127 1.4937073 0.59189129 0
0.97873515 1.5379449 -0.049769197 0
0.55855864 1.4603662 0.046514813 0
0.56358558 1.4612944 0.12850851 0
0.54867452 1.4585413 0.20885198 0
0.54656023 1.4581509 0.29241797 0
0.83803838 1.5119675 0.47810343 0
0.84077924 1.5124736 0.59468389 0
0.98526853 1.5592859 -0.050141357 0
0.55753475 1.4747292 0.046575185 0
0.55738169 1.4746989 0.12812412 0
0.55830711 1.4748819 0.21111166 0
0.5482983 1.4729033 0.29356021 0
0.83510464 1.5296007 0.47824618 0
0.83630592 1.5298382 0.59421456 0
0.98304898 1.5790532 -0.050204936 0
0.54731661 1.4871999 0.046306849 0
0.55933076 1.4897324 0.12865263 0
0.54685086 1.4871017 0.20952828 0
0.54028076 1.4857167 0.29221019 0
0.82975954 1.5467395 0.47764483 0
0.83586305 1.5480261 0.59554183 0
0.96386653 1.5950702 -0.049657192 0
0.55826515 1.5042199 0.046817891 0
0.55597323 1.5037066 0.12861906 0
0.55639261 1.5038005 0.21184964 0
0.54774302 1.5018631 0.29494575 0
0.84966761 1.5694909 0.48572505 0
0.84114867 1.5675827 0.5994004 0
0.9616279 1.6147133 -0.049736902 0
0.55824476 1.5190104 0.046935845 0
0.55224341 1.5175866 0.12856367 0
0.55842251 1.5190526 0.21282449 0
0.55442673 1.5181046 0.29753855 0
0.83458859 1.5845731 0.48196411 0
0.83613962 1.5849411 0.59899455 0
0.96915621 1.636865 -0.050185427 0
0.55065995 1.5319935 0.046782598 0
0.54425186 1.5303878 0.12805527 0
0.55867773 1.5340027 0.21350814 0
0.54615635 1.530865 0.29626003 0
0.8344869 1.6031181 0.48339328 0
0.84231216 1.6050791 0.60345328 0
0.95477623 1.653563 -0.049836773 0
0.55903524 1.5490808 0.047224194 0
0.56044739 1.5494537 0.13025151 0
0.5499962 1.5466944 0.21256216 0
0.54309982 1.5448736 0.29639536 0
0.83618373 1.6222527 0.48552632 0
0.84012634 1.6232936 0.60445601 0
0.94970042 1.6725913 -0.0498394 0
0.55393213 1.5627532 0.04717591 0
0.55077881 1.5618781 0.1295975 0
0.54683501 1.5607835 0.21267593 0
0.54183799 1.5593966 0.29705304 0
0.83965915 1.6420515 0.48836395 0
0.83328873 1.6402835 0.60356176 0
0.95049351 1.6933335 -0.050069164 0
0.55553967 1.5783461 0.047383361 0
0.5563063 1.5785694 0.13065949 0
0.54138452 1.5742251 0.2123934 0
0.56194836 1.580212 0.30344075 0
0.8444857 1.6624702 0.49176639 0
0.84384352 1.6622833 0.61025643 0
0.93648332 1.7097355 -0.04975703 0
0.84289044 1.6812036 0.37949285 0
0.84827143 1.682844 0.4949092 0
0.83307284 1.6782107 0.60786593 0
0.93354708 1.7294387 -0.049866308 0
0.86259371 1.7068282 0.38623783 0
0.83914989 1.6993574 0.4936471 0
0.84384745 1.7008544 0.61491525 0
0.93384045 1.7503004 -0.050106872 0
0.85023195 1.7224928 0.3844763 0
0.83720547 1.7181603 0.49496883 0
0.84067315 1.7193136 0.61603189 0
0.92278582 1.7674115 -0.049929604 0
0.8482303 1.7415679 0.38555768 0
0.84225816 1.7394977 0.49884337 0
0.84465951 1.74033 0.62039292 0
0.91222984 1.7845728 -0.049778614 0
0.84154075 1.759068 0.38543752 0
0.83282429 1.755923 0.49770662 0
0.82389027 1.7526996 0.61399353 0
0.91700333 1.807374 -0.050219648 0
0.84649938 1.7809279 0.38855067 0
0.830329 1.7748624 0.49910331 0
0.84178668 1.7791601 0.62473077 0
0.90805739 1.825168 -0.05014817 0
0.83555561 1.7969263 0.38740018 0
0.82032055 1.7909917 0.49790925 0
0.83324355 1.7960256 0.62392032 0
0.89687842 1.8420088 -0.049998954 0
0.83587974 1.8173589 0.38939977 0
0.82048386 1.8111372 0.50043178 0
0.83549505 1.8172033 0.62802088 0
0.88965815 1.8603969 -0.050010361 0
0.83521038 1.8375925 0.39120615 0
0.82516247 1.833384 0.50468755 0
0.81962055 1.831063 0.62412608 0
0.88310128 1.8790848 -0.050056636 0
0.8307417 1.8563759 0.39203647 0
0.82415479 1.8535192 0.50700593 0
0.82552081 1.8541116 0.63011539 0
0.87817925 1.8985456 -0.050176322 0
0.83226126 1.8779398 0.39461201 0
0.8197934 1.8723449 0.50820667 0
0.82143849 1.8730831 0.6317398 0
0.87060243 1.9168712 -0.050201848 0
0.83203393 1.8989767 0.39678752 0
0.82625037 1.8962934 0.5134688 0
0.81722349 1.8921052 0.6334219 0
0.85289818 1.9303657 -0.049835682 0
0.83275014 1.9207075 0.39931789 0
0.80668312 1.9082119 0.50927234 0
0.82090014 1.915027 0.63884717 0
0.84339648 1.9476351 -0.049800716 0
0.81969136 1.9359025 0.39802036 0
0.80387944 1.9280765 0.51132804 0
0.81007355 1.9311422 0.6377393 0
0.84581655 1.970969 -0.05025214 0
0.81909043 1.9573196 0.40033802 0
0.80400938 1.9496174 0.51458603 0
0.80968779 1.9525175 0.64157224 0
0.83119565 1.985691 -0.050030768 0
0.80977029 1.9744062 0.40023437 0
0.79617232 1.9672443 0.51497161 0
0.79460949 1.9664211 0.63868088 0
0.81720799 2.0005825 -0.04984111 0
0.80390793 1.9933621 0.40119609 0
0.79650027 1.9893405 0.51853454 0
0.79197663 1.9868847 0.64171511 0
0.80575913 2.0167444 -0.049761608 0
0.7864334 2.0059354 0.39883956 0
0.78968221 2.0077524 0.51950431 0
0.79213458 2.009124 0.64621651 0
0.80377656 2.0382972 -0.050079886 0
0.79653901 2.0341287 0.4046326 0
0.78546888 2.0277529 0.52156991 0
0.78006238 2.0246391 0.64504045 0
0.79010433 2.0531847 -0.049926605 0
0.7730847 2.0430946 0.40062016 0
0.77501994 2.0442419 0.52133626 0
0.77483863 2.0441344 0.64724571 0
0.77122682 2.0647738 -0.049562275 0
0.76996976 2.064007 0.40268886 0
0.76788539 2.0627356 0.5224731 0
0.76978105 2.0638919 0.64966714 0
0.77089757 2.0877006 -0.049982924 0
0.75590879 2.0782967 0.40155613 0
0.75563234 2.0781231 0.52169973 0
0.76586264 2.0845416 0.6527856 0
0.76367599 2.1065378 -0.050126392 0
0.75548476 2.1012537 0.40460894 0
0.75187868 2.0989275 0.52436149 0
0.7606985 2.1046171 0.65544343 0
0.75692874 2.1258149 -0.0503015 0
0.75202996 2.1225667 0.40684763 0
0.74860984 2.1202989 0.52734321 0
0.74888021 2.1204782 0.65494287 0
0.73113126 2.1322653 -0.049665585 0
0.75050479 2.1454656 0.4097839 0
0.74190646 2.139607 0.52907586 0
0.73786801 2.1368554 0.65494156 0
0.71849221 2.1473823 -0.049600977 0
0.73201126 2.1568451 0.40755126 0
0.73166209 2.1566005 0.52948415 0
0.73044044 2.1557455 0.65685558 0
0.71576709 2.1695738 -0.049980022 0
0.72624189 2.177104 0.40934122 0
0.71712774 2.170552 0.52822572 0
0.714333 2.1685429 0.65448171 0
0.70239586 2.1842432 -0.04990254 0
0.71418434 2.1929448 0.4092344 0
0.70680791 2.1875 0.52877057 0
0.71139473 2.1908858 0.65894538 0
0.69995326 2.2071295 -0.050322082 0
0.70397562 2.2101774 0.40978196 0
0.70163637 2.2084048 0.53155833 0
0.70610589 2.2117918 0.66237617 0
0.68396932 2.2198622 -0.050146267 0
0.68362945 2.2195978 0.40712807 0
0.69684154 2.2298741 0.53464282 0
0.69579846 2.2290628 0.66334569 0
0.6685558 2.2328954 -0.050002024 0
0.67360753 2.2369277 0.40785617 0
0.68617254 2.2469573 0.53537232 0
0.68949527 2.2496095 0.66656101 0
0.65745896 2.2493367 -0.050063014 0
0.67266637 2.2617922 0.41165811 0
0.67466372 2.263428 0.53584033 0
0.66381758 2.2545447 0.6595785 0
0.6462124 2.2657125 -0.050127286 0
0.65756148 2.2752492 0.41088432 0
0.67081779 2.2863884 0.53973293 0
0.66625267 2.2825522 0.66775864 0
0.61950761 2.2688274 -0.049473304 0
0.72402555 2.3589222 0.066399708 0
0.72273642 2.3578112 0.18763445 0
0.71982425 2.3553007 0.31011492 0
0.64193577 2.2881606 0.40998334 0
0.64301687 2.2890925 0.53327233 0
0.64761227 2.2930536 0.66469932 0
0.6125378 2.2887802 -0.049754344 0
0.68042165 2.3488026 0.064989388 0
0.6837483 2.3517442 0.18404919 0
0.68362743 2.3516371 0.30476266 0
0.63888556 2.3120766 0.41341013 0
0.63796705 2.3112645 0.53685808 0
0.64065939 2.3136451 0.66813779 0
0.60261792 2.3063293 -0.049908474 0
0.66094249 2.3592229 0.064719483 0
0.66579574 2.3636243 0.18346359 0
0.65979487 2.3581822 0.30234802 0
0.62504131 2.3266647 0.41326168 0
0.62754995 2.3289397 0.53819913 0
0.62902313 2.3302758 0.66914213 0
0.59511954 2.3262835 -0.050193194 0
0.64081448 2.3687842 0.064421125 0
0.63536698 2.3637176 0.18106182 0
0.64517313 2.3728383 0.30219379 0
0.61321837 2.343117 0.41387939 0
0.61125952 2.3412952 0.53698796 0
0.59682351 2.3278682 0.65864867 0
0.57696527 2.3363552 -0.049967933 0
0.62313503 2.3803947 0.064245865 0
0.62562412 2.3827691 0.18170349 0
0.62618405 2.3833032 0.30099487 0
0.60734159 2.36533 0.41667375 0
0.60575515 2.3638167 0.54079241 0
0.60481328 2.3629184 0.67100704 0
0.57275587 2.3598502 -0.050442617 0
0.60321945 2.3896496 0.063964032 0
0.61145622 2.3977067 0.1817237 0
0.60529143 2.3916764 0.29933393 0
0.58150524 2.3684087 0.41247836 0
0.58259326 2.369473 0.53655738 0
0.58211488 2.369005 0.6659984 0
0.54111773 2.3563085 -0.049551159 0
0.59475154 2.4101112 0.064263359 0
0.60148317 2.4168642 0.18241116 0
0.60372216 2.4191101 0.30261487 0
0.57838088 2.3936889 0.41645125 0
0.57229 2.387579 0.53836137 0
0.5761252 2.3914261 0.67076975 0
0.53264469 2.3757 -0.049832322 0
0.59613603 2.441016 0.065084338 0
0.59638768 2.4412746 0.1838966 0
0.60224742 2.4473028 0.30605185 0
0.559928 2.4037673 0.41498095 0
0.56341857 2.4073582 0.54098046 0
0.56005043 2.4038932 0.6697793 0
0.5233174 2.3944829 -0.050085504 0
0.61200911 2.4880524 0.066688269 0
0.61621755 2.4924924 0.18934345 0
0.604397 2.4800217 0.31057739 0
0.55253881 2.4253116 0.41764089 0
0.54715461 2.4196312 0.54017913 0
0.5482617 2.4207993 0.67144907 0
0.51138991 2.4107206 -0.050217751 0
0.53879386 2.4403706 0.4180496 0
0.53276473 2.4338474 0.54036069 0
0.53036159 2.4312472 0.66954279 0
0.48379692 2.4097185 -0.049527247 0
0.52156216 2.4516256 0.41720697 0
0.51743716 2.4470482 0.54016709 0
0.51649779 2.4460058 0.67018682 0
0.47976205 2.4347963 -0.050100353 0
0.50027865 2.4581478 0.41484034 0
0.49970338 2.4574931 0.53884101 0
0.49867961 2.4563277 0.66847539 0
0.46164176 2.4440558 -0.049926139 0
0.48749849 2.4742434 0.41580567 0
0.48518428 2.4715416 0.53920627 0
0.48355755 2.4696424 0.66853666 0
0.45275375 2.464186 -0.050269995 0
0.46762499 2.4819973 0.41404203 0
0.47564444 2.4916019 0.5422529 0
0.47146556 2.4865968 0.67066395 0
0.42958364 2.467155 -0.049825627 0
0.45319602 2.4961705 0.41449079 0
0.45094702 2.4934068 0.53748977 0
0.45629892 2.4999833 0.67094648 0
0.41328433 2.4782884 -0.049771044 0
0.44706365 2.5208814 0.41842592 0
0.43267223 2.5027351 0.53610128 0
0.44386336 2.5168462 0.67316478 0
0.40160212 2.4953387 -0.049993262 0
0.42573747 2.5265713 0.41621491 0
0.42578515 2.526633 0.5409494 0
0.42396799 2.5242815 0.67051095 0
0.38576779 2.5071394 -0.049985401 0
0.40859661 2.5374632 0.41577217 0
0.41554144 2.5466878 0.54418766 0
0.40931359 2.5384154 0.67148417 0
0.36655083 2.5143235 -0.049782086 0
0.39382192 2.551513 0.41640127 0
0.39556435 2.5538893 0.5421468 0
0.39153203 2.5483904 0.67040831 0
0.35195908 2.5277429 -0.049864803 0
0.37726465 2.563179 0.416336 0
0.38439843 2.5731688 0.54516536 0
0.38012877 2.5671899 0.6739462 0
0.34313866 2.5495708 -0.050320446 0
0.35772321 2.5705476 0.41500092 0
0.36169985 2.576267 0.54165804 0
0.35550281 2.567354 0.66812861 0
0.31661925 2.5458248 -0.049674582 0
0.33997038 2.5803294 0.41449684 0
0.34131876 2.5823219 0.53948349 0
0.34443977 2.5869336 0.67222261 0
0.30040106 2.5568984 -0.049681898 0
0.32540479 2.5948665 0.41551811 0
0.32092872 2.5880697 0.53730726 0
0.32760808 2.5982122 0.67223698 0
0.29229781 2.5806544 -0.050235562 0
0.30718395 2.6038909 0.4149166 0
0.30531409 2.6009719 0.53807724 0
0.30997637 2.6082494 0.67174548 0
0.26931253 2.5812681 -0.04981577 0
0.28661898 2.6090462 0.41322613 0
0.29045805 2.6152081 0.53944147 0
0.2894437 2.6135802 0.66907054 0
0.25413421 2.5942059 -0.049925692 0
0.27373001 2.6265593 0.41531202 0
0.27372488 2.6265507 0.53974277 0
0.26805755 2.6171939 0.66571045 0
0.24069311 2.610254 -0.05017161 0
0.25245646 2.6302395 0.41333562 0
0.25442359 2.6335814 0.538459 0
0.25187221 2.629247 0.66655964 0
0.21449597 2.6043482 -0.049519882 0
0.2369947 2.6436977 0.41432604 0
0.23910595 2.6473901 0.53987551 0
0.23782249 2.6451454 0.66933429 0
0.20463349 2.6269243 -0.050049249 0
0.21306278 2.642107 0.41097519 0
0.21779133 2.6506243 0.53733188 0
0.21479996 2.6452363 0.66468775 0
0.18644775 2.6348467 -0.049985833 0
0.19768246 2.6556971 0.41213411 0
0.20028992 2.6605363 0.53743088 0
0.19580962 2.6522214 0.66345197 0
0.16891976 2.6439376 -0.049979161 0
0.17417981 2.6540012 0.40894082 0
0.18098451 2.6670201 0.53632528 0
0.18599834 2.6766126 0.67046815 0
0.15421845 2.6586032 -0.050204508 0
0.16038634 2.6707745 0.41113538 0
0.16717191 2.6841648 0.53929394 0
0.16201825 2.6739948 0.66496068 0
0.13320346 2.6607783 -0.049939074 0
0.14201649 2.6787264 0.41085866 0
0.14217551 2.6790502 0.53405887 0
0.14466031 2.6841106 0.66550034 0
0.11806145 2.6748762 -0.05015704 0
0.12486228 2.6891787 0.41135544 0
0.12146517 2.6820345 0.53195482 0
0.11949887 2.6778991 0.65865177 0
0.092470132 2.6666408 -0.049503576 0
0.10383793 2.6913452 0.40958324 0
0.10613211 2.696331 0.53410161 0
0.10721876 2.6986926 0.66429567 0
0.08034011 2.6875308 -0.050004505 0
0.086553417 2.701494 0.41012406 0
0.084784649 2.6975191 0.53153348 0
0.083743535 2.6951792 0.65896302 0
0.063274942 2.6978455 -0.050097704 0
0.062902592 2.6969795 0.40665039 0
0.064801477 2.7013958 0.53005058 0
0.067175291 2.7069166 0.66066605 0
0.044170223 2.7034268 -0.050015785 0
0.047995411 2.712641 0.40885082 0
0.043467127 2.7017334 0.52739137 0
0.046639703 2.7093754 0.6582945 0
0.021945974 2.7010713 -0.049638309 0
0.023903748 2.7059603 0.40495154 0
0.026869377 2.7133658 0.52888995 0
0.024715802 2.707988 0.65433496 0
0.01096513 2.7271192 -0.050360341 0
0.0092731332 2.7227349 0.40756878 0
0.0070955367 2.7170923 0.52763659 0
0.0069502802 2.7167158 0.65500665 0
-0.012583115 2.7208114 -0.049851991 0
-0.015200653 2.7137659 0.40321732 0
-0.011060872 2.7249088 0.52792931 0
-0.013048031 2.7195599 0.65317541 0
-0.029472688 2.7320855 -0.050023742 0
-0.033038832 2.7221034 0.40365791 0
-0.034870006 2.7169776 0.52273816 0
-0.032927491 2.722415 0.65146822 0
-0.044340588 2.7496347 -0.050439648 0
-0.053744115 2.7222285 0.40194213 0
-0.051750518 2.7280388 0.52435535 0
-0.055386402 2.717442 0.64645165 0
-0.06622199 2.7468212 -0.050095558 0
-0.072534092 2.7276416 0.40172398 0
-0.074537344 2.7215545 0.5198952 0
-0.070257641 2.7345586 0.6512078 0
-0.086760886 2.7474701 -0.049892768 0
-0.091457583 2.7325697 0.40144035 0
-0.091729768 2.7317061 0.52135611 0
