# .PCD v0.7 - Point Cloud Data file format
VERSION 0.7
FIELDS x y z intensity
SIZE 4 4 4 4
TYPE F F F F
COUNT 1 1 1 1
WIDTH 1359
HEIGHT 1
VIEWPOINT 0 0 0 1 0 0 0
POINTS 1359
DATA ascii
-1.2913395 -0.1285764 -0.049893487 0
-1.0171366 0.38808519 0.04101124 0
-1.0243301 0.37453067 0.11304121 0
-1.0178046 0.38682646 0.18311982 0
-1.2427557 -0.037033204 0.37899044 0
-1.2388033 -0.029585963 0.48957753 0
-1.2425455 -0.036637191 0.6111145 0
-1.2749563 -0.13982058 -0.049978316 0
-1.0048157 0.38504153 0.040903784 0
-1.0087881 0.37732357 0.11200146 0
-1.0041659 0.38630408 0.18206391 0
-1.2395422 -0.071013935 0.38629416 0
-1.2382151 -0.068435319 0.50094175 0
-1.2408839 -0.073620565 0.62436664 0
-1.2578356 -0.14972734 -0.050017517 0
-0.99298424 0.38118231 0.040835746 0
-0.99542958 0.37628049 0.11145252 0
-0.99609739 0.37494189 0.18323402 0
-1.2404592 -0.11489547 0.39638665 0
-1.2365404 -0.10704006 0.51214665 0
-1.2410828 -0.1161455 0.6401096 0
-1.2348369 -0.14754105 -0.049585544 0
-0.97797501 0.38400501 0.040509101 0
-0.97965997 0.38051814 0.11029673 0
-0.97817481 0.38359153 0.18040904 0
-1.2364602 -0.15090013 0.40418264 0
-1.2390858 -0.15633345 0.52724093 0
-1.2232884 -0.16911983 -0.050104249 0
-0.96488631 0.38326126 0.040332418 0
-0.9666909 0.37940365 0.10980637 0
-0.96574551 0.38142461 0.17979938 0
-1.237341 -0.19915974 0.41539893 0
-1.2416736 -0.20842159 0.54326123 0
-1.2038106 -0.17407167 -0.049974166 0
-0.95278811 0.38062632 0.040237326 0
-0.95437557 0.37711853 0.10947619 0
-0.95092291 0.38474804 0.17813739 0
-1.239406 -0.25272894 0.42803523 0
-1.2396539 -0.25327682 0.55653733 0
-1.1864144 -0.18356097 -0.050031196 0
-0.93718958 0.38615566 0.039830562 0
-0.93681127 0.38702041 0.10773653 0
-0.93910182 0.38178444 0.17775899 0
-1.2385106 -0.30265069 0.43957919 0
-1.2392757 -0.30439973 0.57202578 0
-1.1713879 -0.19877017 -0.050318126 0
-0.92402333 0.38666087 0.039628316 0
-0.92923218 0.3743332 0.10866741 0
-0.92737889 0.37871927 0.1774317 0
-1.2383187 -0.35717356 0.45233941 0
-1.151384 -0.20231712 -0.050161261 0
-0.91003078 0.38956517 0.039341014 0
-0.91199368 0.38475144 0.10692298 0
-0.91037709 0.38871592 0.17459092 0
-1.2412804 -0.42277479 0.46808735 0
-1.1284354 -0.19808066 -0.049716271 0
-0.89919919 0.38497829 0.03934928 0
-0.90163958 0.37877125 0.10710596 0
-0.9011398 0.38004243 0.17542377 0
-1.2417965 -0.486413 0.48320913 0
-1.1105138 -0.20624125 -0.049757723 0
-0.88823819 0.38071144 0.03935051 0
-0.89022762 0.37545818 0.10699658 0
-0.88837051 0.38036197 0.17454086 0
-1.2396704 -0.54729903 0.49750641 0
-1.0930969 -0.21588135 -0.049863793 0
-0.87502348 0.382622 0.039122261 0
-0.87844431 0.37323356 0.10677968 0
-0.8727513 0.38885808 0.17212346 0
-1.0736848 -0.22005963 -0.049771111 0
-0.86122268 0.38668787 0.038819801 0
-0.8657189 0.37384754 0.10625742 0
-0.86372137 0.37955213 0.1731561 0
-1.0587111 -0.2372483 -0.050178066 0
-0.85040963 0.38252765 0.038835004 0
-0.8455109 0.39710337 0.10318854 0
-0.85091048 0.38103747 0.17215286 0
-1.0352008 -0.22888339 -0.049632002 0
-0.83927274 0.37933189 0.038819082 0
-0.84070724 0.374879 0.10529594 0
-0.83714938 0.38592345 0.17053999 0
-1.0209202 -0.24915946 -0.05016914 0
-0.82691383 0.38013196 0.038659196 0
-0.82736659 0.37866336 0.10447704 0
-0.82524806 0.3855353 0.1699615 0
-1.0021358 -0.25549769 -0.050192263 0
-0.81358063 0.38463235 0.038367987 0
-0.81755239 0.37114847 0.10494592 0
-0.81320018 0.38592392 0.16926733 0
-0.98330557 -0.26174498 -0.050220717 0
-0.80155247 0.38523972 0.038228404 0
-0.80214989 0.38311315 0.10325248 0
-0.80410355 0.37615865 0.17050621 0
-0.96359575 -0.2647922 -0.050139595 0
-0.79156488 0.37858969 0.038363103 0
-0.78988826 0.38486022 0.10272299 0
-0.78946006 0.38646162 0.16801593 0
-0.94504589 -0.27218771 -0.050228052 0
-0.77802718 0.38552666 0.10233217 0
-0.77917105 0.38102204 0.1684972 0
-0.92376131 -0.26849592 -0.049917709 0
-0.7679618 0.3791129 0.16834623 0
-0.90588915 -0.27884388 -0.050132103 0
-0.75494266 0.38525319 0.1667331 0
-0.88428724 -0.27250755 -0.049744997 0
-0.74413061 0.38215196 0.16685906 0
-0.86626452 -0.28261232 -0.049967494 0
-0.7325421 0.38281614 0.16631711 0
-0.84707421 -0.28736949 -0.050003458 0
-0.82779586 -0.29178882 -0.050035872 0
-0.80878717 -0.29803562 -0.050143097 0
-0.7887364 -0.29782498 -0.050025687 0
-0.76785755 -0.29094386 -0.049677242 0
-0.74866295 -0.29573071 -0.04975852 0
-0.73073798 -0.31254518 -0.050280396 0
-0.71028525 -0.30734837 -0.050020143 0
-0.69045246 -0.307302 -0.049953949 0
-0.67158651 -0.31998539 -0.050352417 0
-0.65074849 -0.30448842 -0.049751211 0
-0.63122463 -0.3078866 -0.049835075 0
-0.61220175 -0.32754445 -0.050508525 0
-0.59170055 -0.30182564 -0.04956995 0
-0.57227468 -0.32020617 -0.050215177 0
-0.55245191 -0.31912327 -0.050174288 0
-0.53278035 -0.3100698 -0.04985771 0
-0.51308626 -0.30958116 -0.049855761 0
-0.49284172 -0.32249248 -0.050341468 0
-0.47366261 -0.30905104 -0.049894437 0
-0.45403692 -0.30708098 -0.04986611 0
-0.49574584 0.32293093 0.039324638 0
-0.43349501 -0.31694317 -0.050270341 0
-0.48441446 0.32874 0.039147053 0
-0.41411808 -0.31091762 -0.050114721 0
-0.47363716 0.33924812 0.038805909 0
-0.39433157 -0.3098489 -0.050145574 0
-0.46161985 0.33555996 0.038978759 0
-0.37529254 -0.30217731 -0.049948081 0
-0.44864929 0.32478905 0.039411888 0
-0.44108748 0.26015979 0.1135707 0
-0.44236773 0.27110177 0.18453202 0
-0.44292662 0.27587843 0.25733507 0
-0.44236594 0.27108645 0.33534804 0
-0.44193891 0.26743674 0.41739312 0
-0.35529259 -0.30296755 -0.050063524 0
-0.43427962 0.30562639 0.040153708 0
-0.42833629 0.25983304 0.11377337 0
-0.42951083 0.26888287 0.18521315 0
-0.43012437 0.27361029 0.25830939 0
-0.42909855 0.26570636 0.33766508 0
-0.4297021 0.27035666 0.4168137 0
-0.42993242 0.27213126 0.50155091 0
-0.3364732 -0.29488075 -0.049868122 0
-0.42104077 0.29811239 0.040483303 0
-0.41960168 0.28802139 0.11089832 0
-0.41954002 0.28758907 0.18211296 0
-0.42063886 0.29529428 0.25315419 0
-0.4191235 0.28466845 0.33186194 0
-0.41927123 0.28570437 0.41110003 0
-0.42067778 0.29556727 0.4905569 0
-0.3164095 -0.29567349 -0.050001711 0
-0.40752378 0.29033536 0.040829066 0
-0.40664947 0.28471208 0.11145528 0
-0.4048036 0.27284032 0.18513566 0
-0.40665668 0.28475851 0.25633878 0
-0.40670222 0.28505135 0.33234516 0
-0.40789685 0.29273462 0.40891522 0
-0.40899661 0.29980785 0.48931986 0
-0.29625782 -0.29640234 -0.050142404 0
-0.39153665 0.26937044 0.041659169 0
-0.39050263 0.26323032 0.11401167 0
-0.39124867 0.26766038 0.18644865 0
-0.39078087 0.26488262 0.26199213 0
-0.39171869 0.27045131 0.337937 0
-0.39207098 0.27254331 0.41821527 0
-0.39796785 0.30755937 0.48637336 0
-0.279266 -0.27913678 -0.049639709 0
0.070008837 -2.2047727 0.13150913 0
-0.38632604 0.31111091 0.48562643 0
-0.26113549 -0.2695694 -0.049423542 0
0.11596479 -2.209208 0.13196772 0
-0.3751134 0.31668288 0.48392245 0
-0.23892914 -0.28037822 -0.049958076 0
0.16025378 -2.2039838 0.13209639 0
-0.36706772 0.33710337 0.47469842 0
-0.21868236 -0.28054357 -0.050115172 0
0.20363291 -2.1941831 0.13207847 0
-0.36035645 0.36142498 0.46350175 0
-0.19994991 -0.27373517 -0.050026383 0
0.25131997 -2.2028224 0.13275659 0
-0.34783059 0.35842472 0.46635473 0
-0.18330412 -0.2587353 -0.04964472 0
0.29484746 -2.192616 0.1327658 0
-0.0038776782 -0.98442435 0.25384149 0
-0.0077476888 -0.96877217 0.41900524 0
-0.33969915 0.37380332 0.45982516 0
-0.1628332 -0.25946546 -0.049849868 0
0.3443161 -2.2051492 0.13363419 0
-0.32769635 0.37303394 0.46167642 0
-0.14312692 -0.25684726 -0.049941305 0
0.39170268 -2.2077441 0.13416071 0
-0.31853867 0.3830018 0.45804188 0
-0.12528314 -0.24751163 -0.049792718 0
-0.30428275 0.37459606 0.4640201 0
-0.10355464 -0.25141633 -0.050145641 0
-0.30352885 0.41203445 0.44615772 0
-0.086708255 -0.238994 -0.049899016 0
-0.29155102 0.41087997 0.44847539 0
-0.06935776 -0.22864985 -0.049737435 0
-0.28629246 0.43052125 0.439928 0
-0.048913635 -0.22766352 -0.049936589 0
-0.26319605 0.39685458 0.45957705 0
-0.031707205 -0.21718776 -0.04978662 0
-0.011461535 -0.21518719 -0.049966965 0
0.0077060671 -0.21003115 -0.050037172 0
0.026015719 -0.20259106 -0.050029151 0
0.039821707 -0.18430889 -0.049610876 0
0.063210629 -0.18905282 -0.050091896 0
0.080231391 -0.17864335 -0.049994957 0
-0.18938608 0.42726803 0.38080135 0
0.09909191 -0.17238808 -0.050069112 0
0.11583366 -0.1615479 -0.049971826 0
-0.15930475 0.41708624 0.38983801 0
-0.20137043 0.50555319 0.49769941 0
0.13112898 -0.14791048 -0.049771044 0
0.55755061 -1.0163357 0.46221501 0
-0.15979053 0.4445591 0.37950867 0
-0.19586755 0.51803142 0.49245623 0
0.15289606 -0.14735055 -0.050100066 0
0.58643776 -1.0028772 0.4623687 0
-0.14747955 0.4453938 0.38147485 0
-0.18599372 0.52139544 0.49328503 0
0.17261137 -0.14235723 -0.050263677 0
0.6100114 -0.97919559 0.46051684 0
-0.13981019 0.45537084 0.37925506 0
-0.17675872 0.52606124 0.4933311 0
0.19063945 -0.1339829 -0.050301317 0
0.64840668 -0.98355603 0.46445769 0
-0.12623681 0.45410985 0.38235086 0
-0.16917334 0.53379607 0.49138805 0
0.20468499 -0.11837388 -0.050053038 0
0.68659097 -0.9863925 0.46821123 0
-0.11337347 0.45451945 0.38475788 0
-0.16639854 0.55002922 0.48373145 0
0.21787615 -0.10161699 -0.049763005 0
0.71796364 -0.97624946 0.46939501 0
-0.080651738 0.42049611 0.40368161 0
-0.15736304 0.55466098 0.48396873 0
0.24128552 -0.10261751 -0.050213303 0
0.75752217 -0.97967792 0.47351003 0
-0.056593396 0.40346402 0.41478014 0
-0.15240552 0.56624407 0.47950226 0
0.25359783 -0.084677227 -0.04988873 0
0.80310446 -0.99193287 0.47962227 0
-0.056332387 0.42702889 0.40645838 0
-0.13612424 0.55876815 0.48825911 0
0.27963099 -0.089186914 -0.050512422 0
0.84502465 -0.99668598 0.48431009 0
-0.1262707 0.56231552 0.48952538 0
0.28806254 -0.065400489 -0.049955267 0
0.87979621 -0.98905754 0.48649654 0
-0.11897958 0.56996536 0.48799953 0
0.30247709 -0.051407818 -0.049816657 0
0.91589564 -0.98288059 0.48910883 0
0.01919516 0.3787542 0.44006461 0
-0.11020551 0.57524848 0.48820651 0
0.32631853 -0.051513795 -0.050292417 0
0.95732719 -0.98392248 0.49341404 0
0.035393976 0.37837029 0.44392082 0
-0.10651211 0.58805758 0.48310474 0
0.33596954 -0.030616289 -0.049872082 0
1.0007429 -0.98675561 0.49826467 0
0.042078696 0.39208502 0.44080383 0
-0.11099301 0.61224705 0.46977153 0
0.35244426 -0.019779092 -0.049894609 0
0.053870521 0.39832544 0.44150397 0
-0.098682143 0.61195099 0.47412056 0
0.36401156 -0.0022175363 -0.049628779 0
0.070075832 0.39862281 0.44533783 0
-0.091449358 0.61889476 0.47329912 0
0.38526568 0.0021704384 -0.049955599 0
1.1321772 -0.98995137 0.10629112 0
1.1351519 -0.99390244 0.30843142 0
0.096960269 0.38512617 0.45646223 0
-0.08316759 0.62438983 0.47361258 0
0.40527943 0.0085456315 -0.050207969 0
0.10582914 0.3960529 0.45509207 0
-0.079946734 0.6364584 0.46908018 0
0.41869614 0.023530716 -0.050081979 0
0.12226912 0.39730239 0.45888069 0
-0.067661144 0.6367898 0.47341681 0
0.43243411 0.037985321 -0.049986858 0
-0.058855452 0.64169157 0.47442126 0
0.44719991 0.051108953 -0.049960628 0
-0.058241941 0.65647411 0.46788782 0
0.45943865 0.067159288 -0.049805231 0
-0.047728874 0.65927488 0.47064555 0
0.47521505 0.079022042 -0.049854405 0
-0.04102812 0.66659451 0.46997061 0
0.49503705 0.086451761 -0.050126679 0
1.209587 -0.7064656 0.10023351 0
-0.034728386 0.67431867 0.46903199 0
0.50891095 0.10060477 -0.050087355 0
1.2062154 -0.65385306 0.098764934 0
-0.021732965 0.67474192 0.47404197 0
0.5252381 0.11213373 -0.050185181 0
0.37867549 0.26675695 0.054579139 0
-0.023578504 0.69113386 0.46619654 0
0.54191464 0.12340688 -0.050307129 0
0.39023802 0.27944249 0.054538269 0
0.83997375 -0.18321812 0.22145365 0
-0.017730752 0.69913566 0.46517459 0
0.54748744 0.14594495 -0.049873266 0
0.39430138 0.29961383 0.054126821 0
0.83546418 -0.14293933 0.21802874 0
-0.0040760427 0.69924676 0.4708086 0
0.56032318 0.16095471 -0.049821705 0
0.40058741 0.31720877 0.053844176 0
0.74948663 -0.024085408 0.20247479 0
0.74178916 -0.016555792 0.33377054 0
0.73259884 -0.0075657419 0.46640372 0
0.0018573614 0.70724761 0.46996918 0
0.57989866 0.16948986 -0.050112665 0
0.43000129 0.31247109 0.054716993 0
0.85077852 -0.088891871 0.21514335 0
0.18922634 0.54213697 0.34928307 0
0.0051544518 0.71771604 0.46706226 0
0.57922477 0.19714332 -0.049418222 0
0.46326157 0.30500036 0.055764258 0
0.83928031 -0.044733647 0.21098992 0
0.19325377 0.55613399 0.34706551 0
0.013808212 0.72303581 0.46863496 0
0.60274774 0.20219612 -0.049914729 0
0.83790749 -0.011066562 0.073248468 0
0.83793968 -0.011095768 0.20843844 0
0.18466152 0.58135164 0.33928493 0
0.61959583 0.21362233 -0.0500907 0
0.83578628 0.022467965 0.072393365 0
0.83860523 0.019975418 0.20626411 0
0.83792228 0.020579332 0.34190708 0
0.21246327 0.57360661 0.34789458 0
0.028310021 0.73643386 0.469668 0
0.63157624 0.22941256 -0.050042152 0
0.84778708 0.043037768 0.072233148 0
0.84117502 0.048737403 0.20443924 0
0.84053904 0.049285647 0.33885771 0
0.24314882 0.56423873 0.35763493 0
0.03790947 0.74115598 0.4721148 0
0.64551634 0.24351537 -0.050094824 0
0.84018034 0.079940908 0.071172409 0
0.83781022 0.081932418 0.20185164 0
0.84600919 0.075042956 0.33659816 0
0.93107301 0.0035645911 0.50203109 0
0.26202193 0.56576246 0.36208811 0
0.28099927 0.54981595 0.45941252 0
0.043191217 0.74964398 0.4712376 0
0.66030902 0.25697207 -0.050194539 0
0.85291821 0.099218719 0.071082965 0
0.84003896 0.10976731 0.20012596 0
0.8515479 0.10034107 0.33445382 0
0.95262033 0.017559523 0.50398237 0
0.3007113 0.55149442 0.37502566 0
0.24926259 0.59363264 0.4377158 0
0.047275625 0.75906658 0.46953389 0
0.6635831 0.27971697 -0.049774867 0
0.85517842 0.12678397 0.070526943 0
0.83212322 0.1451869 0.19707105 0
0.83698291 0.14130771 0.3277657 0
0.98096341 0.026381249 0.50819033 0
0.28045091 0.5855363 0.36266303 0
0.24892433 0.61070108 0.43316346 0
0.058540307 0.76266718 0.4733862 0
0.6833933 0.28922904 -0.050120216 0
0.84996098 0.15967298 0.069653913 0
0.85090929 0.15893531 0.1977424 0
0.84638304 0.16245592 0.32673675 0
0.25440386 0.62289637 0.43182039 0
0.063586973 0.77131337 0.47256348 0
0.69953734 0.30182886 -0.050303452 0
0.8563686 0.18298459 0.069328539 0
0.83610278 0.19834173 0.19390118 0
0.83845168 0.19656169 0.32185632 0
0.26966277 0.62758106 0.43565047 0
0.068023585 0.78038001 0.47137606 0
0.70024627 0.32598662 -0.04980715 0
0.8489117 0.21624947 0.068404041 0
0.83496994 0.22654045 0.19198859 0
0.84528512 0.21892631 0.32042742 0
0.29052642 0.62842071 0.44235992 0
0.06982132 0.79133385 0.46833897 0
0.70862466 0.34420371 -0.04966598 0
0.85446173 0.23936522 0.068078272 0
0.8391549 0.25036883 0.19084428 0
0.83943921 0.25016439 0.31625801 0
0.085883223 0.79187661 0.47584885 0
0.73420137 0.35026515 -0.050285555 0
0.85231036 0.26759529 0.067432493 0
0.84387428 0.27350003 0.18981965 0
0.85002619 0.26919401 0.31582966 0
0.83961445 0.27648169 0.44106108 0
0.086210869 0.80382365 0.47190791 0
0.75153023 0.36247891 -0.050546832 0
0.88256127 0.27320105 0.06820745 0
0.83848852 0.30322999 0.18752769 0
0.84575588 0.29827839 0.31221515 0
0.83986133 0.30229461 0.43737042 0
0.10853895 0.80058014 0.48389706 0
0.74729759 0.38921428 -0.049888939 0
0.91772503 0.27620935 0.069189444 0
0.83553439 0.33070731 0.18561684 0
0.84151572 0.32674134 0.30871677 0
0.83939308 0.32814878 0.43359143 0
0.11604365 0.80777824 0.48520944 0
0.76319498 0.40241545 -0.050105959 0
0.94767648 0.28340846 0.069943681 0
0.84092361 0.35227358 0.1848329 0
0.84079558 0.3523562 0.30607945 0
0.84316069 0.3508305 0.43122831 0
0.11943879 0.81769568 0.48367515 0
0.76529711 0.42445624 -0.049746886 0
0.99688166 0.27915996 0.071507283 0
0.84649152 0.37351489 0.18411238 0
0.84130305 0.37677014 0.30379313 0
0.8412146 0.37682557 0.42724931 0
0.13167484 0.82199121 0.48843035 0
0.78356284 0.43634444 -0.050078157 0
1.0315398 0.28508127 0.072448321 0
0.84526497 0.39870679 0.18257587 0
0.8373186 0.40355396 0.30064061 0
0.85117215 0.39510351 0.42695633 0
0.13922806 0.8293817 0.48993379 0
0.7927466 0.45389205 -0.050036266 0
1.0697463 0.2896747 0.073532753 0
0.84271604 0.42426801 0.18092535 0
0.84651822 0.42201388 0.30034667 0
0.84554905 0.42258847 0.42211288 0
0.14369269 0.83867931 0.48936114 0
0.78709358 0.47995442 -0.049392555 0
0.8391667 0.44996285 0.17920275 0
0.84387892 0.44724882 0.29763946 0
0.83497936 0.45237458 0.41595033 0
0.14117046 0.85197479 0.48409137 0
0.80757493 0.49088317 -0.049835879 0
0.84450036 0.47023064 0.17862605 0
0.83788019 0.47393334 0.29432294 0
0.83757597 0.47410351 0.41378987 0
0.14791556 0.85983253 0.48526993 0
0.81883961 0.50717479 -0.04990739 0
0.84952956 0.49051362 0.17804736 0
0.84054679 0.49539024 0.29287645 0
0.83768719 0.4969427 0.41100237 0
0.82100326 0.52832049 -0.0496195 0
0.85104102 0.51249981 0.17707632 0
0.83516401 0.5208621 0.28985402 0
0.84147865 0.51753622 0.40937766 0
0.83810157 0.54161429 -0.049942862 0
0.84399277 0.53860557 0.17511211 0
0.8426277 0.53930271 0.28951764 0
0.83037025 0.5455628 0.40356946 0
0.84522134 0.53797811 0.52998161 0
0.86063403 0.55247647 -0.050487373 0
0.84555882 0.55993783 0.1742326 0
0.84540886 0.56001204 0.28828797 0
0.83934981 0.56301093 0.40361655 0
0.84614092 0.55964971 0.52701604 0
0.85864955 0.57552052 -0.050063387 0
0.8700164 0.5700717 0.17611869 0
0.8358714 0.58643943 0.28465429 0
0.83838087 0.58523649 0.40091097 0
0.83118314 0.58868682 0.51831144 0
0.86525911 0.59425098 -0.049991552 0
0.89975137 0.57824767 0.1786342 0
0.84157437 0.60523993 0.28413817 0
0.8344962 0.60852396 0.39748007 0
0.8470059 0.60271984 0.52108115 0
0.87269574 0.61255819 -0.049961749 0
0.94456476 0.58030671 0.18292382 0
0.83691138 0.62861651 0.2816228 0
0.83881205 0.62776363 0.3964439 0
0.83688098 0.62863016 0.51443779 0
0.87976152 0.63100678 -0.049926668 0
0.96055919 0.59596401 0.18381724 0
0.84178728 0.64747655 0.28105429 0
0.84237832 0.64722025 0.39527255 0
0.84830242 0.64465088 0.51576275 0
0.88352305 0.65081584 -0.049772896 0
0.997096 0.603248 0.18712249 0
0.8410663 0.668598 0.279441 0
0.83247453 0.67219651 0.39044937 0
0.83448547 0.67135423 0.50805038 0
0.90126723 0.66486073 -0.050167952 0
1.03835 0.60946465 0.19096841 0
0.83079273 0.69334 0.27602959 0
0.84230882 0.68868625 0.39116892 0
0.84682256 0.68686223 0.50988299 0
0.90544158 0.68449396 -0.050047953 0
1.0760624 0.61803162 0.19439608 0
0.84636289 0.70750707 0.27769735 0
0.83905524 0.71035367 0.38835838 0
0.84304756 0.70879853 0.50602376 0
0.28245762 0.9271667 0.45697364 0
0.91062099 0.70366317 -0.049976289 0
0.84563738 0.72803855 0.27625284 0
0.84595245 0.72792041 0.38840163 0
0.84740657 0.72737497 0.50517142 0
0.28561279 0.93810421 0.456494 0
0.91828746 0.72188461 -0.050008524 0
0.85429257 0.7449742 0.27666312 0
0.84301978 0.7490415 0.38583866 0
0.84282821 0.74911064 0.50124484 0
0.27350798 0.95452386 0.44797304 0
0.91819113 0.74282432 -0.049755991 0
0.85934979 0.76322091 0.27642563 0
0.8433941 0.76875174 0.38425177 0
0.84194142 0.76925528 0.49873182 0
0.83738238 0.77083558 0.61720407 0
0.27164629 0.96694082 0.44502315 0
0.92969793 0.75972044 -0.049951009 0
0.8543728 0.78477311 0.27432579 0
0.83828145 0.79012495 0.38126311 0
0.84401065 0.78821945 0.49735484 0
0.83595198 0.79089975 0.61397189 0
0.29793426 0.96984082 0.45701113 0
0.94229001 0.77641839 -0.05019391 0
0.84330481 0.80796164 0.27113289 0
0.84533304 0.80731535 0.38161591 0
0.83663327 0.81008768 0.49276832 0
0.8369891 0.80997425 0.6119349 0
0.30751559 0.97869974 0.46019718 0
0.93788582 0.79848003 -0.049809378 0
0.85675365 0.82321328 0.27262986 0
0.83818752 0.82887322 0.37823847 0
0.83863252 0.8287375 0.4915567 0
0.83376104 0.83022261 0.60816377 0
0.3230941 0.98589993 0.46656647 0
0.95956832 0.81266761 -0.050406598 0
0.86234051 0.84097463 0.27268073 0
0.83935684 0.84766614 0.37715513 0
0.84212035 0.84686154 0.49094677 0
0.84786826 0.84518808 0.61199206 0
0.32731512 0.99674255 0.46704125 0
0.94770771 0.83660483 -0.049765568 0
0.89335507 0.8516894 0.27753252 0
0.84030169 0.86641335 0.37607887 0
0.83993989 0.86651379 0.48846087 0
0.83390135 0.86818969 0.60382497 0
0.31745395 1.0115201 0.46027321 0
0.95088214 0.85610819 -0.049692985 0
0.92125744 0.86392957 0.28181294 0
0.84852976 0.88313091 0.37699047 0
0.84281558 0.88463956 0.48780829 0
0.83741087 0.8860665 0.60329312 0
0.3191475 1.0228966 0.45960343 0
0.96234006 0.87348616 -0.049934555 0
0.95716995 0.87478179 0.28759784 0
0.83806473 0.90462852 0.37303796 0
0.84165961 0.90372765 0.4858534 0
0.84425598 0.90307701 0.60428292 0
0.32298973 1.0337018 0.46011811 0
0.95585614 0.8952992 -0.049525119 0
0.98024589 0.88951272 0.29101154 0
0.84105998 0.92253464 0.37269783 0
0.84159034 0.92240882 0.48435825 0
0.83638567 0.92364365 0.59909922 0
0.336 1.0423603 0.46541581 0
0.97322267 0.91147727 -0.04999949 0
1.0169607 0.90168041 0.29697067 0
0.84114558 0.94106108 0.37165695 0
0.83916265 0.94150519 0.48214349 0
0.84162468 0.94095373 0.5996024 0
0.34458956 1.0522842 0.46848786 0
0.9771691 0.93082941 -0.049990404 0
1.0570283 0.91399491 0.30356026 0
0.83676392 0.96042717 0.36951494 0
0.84341878 0.95902425 0.48228908 0
0.84505302 0.9586798 0.59943044 0
0.35902223 1.0611362 0.47460359 0
0.97184664 0.95201057 -0.049652901 0
1.0932944 0.92800212 0.30946311 0
0.85051519 0.97599602 0.37215757 0
0.8371883 0.97863054 0.47895283 0
0.84041458 0.97799277 0.59594858 0
0.36557141 1.0718622 0.47674027 0
0.97933871 0.97058678 -0.049791113 0
0.85339206 0.99384075 0.37202373 0
0.83483082 0.99726778 0.47701824 0
0.84355587 0.99565685 0.59585297 0
0.38297322 1.0806959 0.48446262 0
0.99457818 0.9879353 -0.050218139 0
0.85152978 1.0124885 0.37072158 0
0.84941345 1.0128517 0.48088548 0
0.83533627 1.015268 0.59107846 0
0.38523349 1.0925246 0.48453805 0
1.0016602 1.0068867 -0.050357342 0
0.43146732 1.0973803 0.041745946 0
0.42825428 1.0978903 0.1132541 0
0.42976835 1.0976499 0.18626402 0
0.42477271 1.0984428 0.25972176 0
0.43481568 1.0968488 0.34023821 0
0.43217638 1.0972677 0.42085108 0
0.38933304 1.1040673 0.48562071 0
0.99057299 1.0285898 -0.04984938 0
0.41159227 1.1130189 0.040960409 0
0.41580191 1.1124049 0.11169627 0
0.40765873 1.1135924 0.18188915 0
0.41484526 1.1125444 0.25667617 0
0.40484545 1.1140027 0.32952166 0
0.40239432 1.1143601 0.40759522 0
0.40834531 1.1134923 0.49431527 0
1.0005713 1.0471308 -0.050111528 0
0.39215311 1.1280425 0.040198985 0
0.4332501 1.1225771 0.11340256 0
0.43079737 1.1229032 0.18579043 0
0.42339703 1.1238874 0.2584376 0
0.42703053 1.1234041 0.33640012 0
0.43188414 1.1227587 0.41920829 0
0.41706023 1.1247301 0.49785769 0
1.0018092 1.066914 -0.05006668 0
0.37613651 1.1421157 0.039568588 0
0.42873767 1.1357934 0.11274306 0
0.42495266 1.1362484 0.18444242 0
0.42916086 1.1357425 0.25951669 0
0.42659166 1.1360513 0.33572686 0
0.42392656 1.1363716 0.41523173 0
1.0027331 1.0867022 -0.050019562 0
0.35620776 1.1561641 0.038804941 0
0.84716064 1.1034167 0.36641252 0
0.8327269 1.1049675 0.47115111 0
0.83769935 1.1044332 0.58694845 0
1.0063241 1.1062076 -0.050077084 0
0.85358959 1.1206744 0.36760166 0
0.84034282 1.121929 0.4731046 0
0.83675259 1.1222692 0.58581579 0
1.0066051 1.1260283 -0.050024789 0
0.36477676 1.1786765 0.03903373 0
0.83891279 1.1397839 0.36344242 0
0.85272878 1.1386505 0.47671971 0
0.83680898 1.1399565 0.58519441 0
0.99962133 1.1463193 -0.049721491 0
0.37205401 1.1898501 0.039262693 0
0.84798568 1.1568373 0.36542225 0
0.84097236 1.1573238 0.47235057 0
0.84266216 1.1572065 0.58707184 0
1.0070537 1.1655812 -0.049943045 0
0.8518284 1.174386 0.36611903 0
0.84127754 1.1749845 0.47208226 0
0.83953208 1.1750835 0.58531272 0
1.0147681 1.1849903 -0.050183229 0
0.84571594 1.1924453 0.36432955 0
0.8386032 1.1927589 0.47089589 0
0.83786696 1.1927915 0.58425504 0
1.0058877 1.2050946 -0.049839303 0
0.85268348 1.2099189 0.36593759 0
0.84235281 1.2102442 0.47192279 0
0.83634812 1.2104332 0.58335078 0
0.99875683 1.2249264 -0.049566969 0
0.8460328 1.2278112 0.36412632 0
0.83629519 1.2279952 0.46975935 0
0.83518523 1.2280161 0.58268613 0
1.0083091 1.244464 -0.049899191 0
0.84491748 1.2454927 0.363785 0
0.82755679 1.245602 0.46677855 0
0.85088664 1.2454551 0.58909577 0
1.0057052 1.2641627 -0.04980623 0
0.85442895 1.2632103 0.36621171 0
0.82907933 1.2630507 0.46728513 0
0.84214753 1.2631329 0.58547735 0
0.99944514 1.2837298 -0.049591549 0
0.84133512 1.2807432 0.36292759 0
0.84479624 1.2808086 0.47258809 0
0.84034699 1.2807245 0.58482361 0
1.0047259 1.303512 -0.049797807 0
0.85617429 1.2988342 0.36682862 0
0.83098441 1.298041 0.46813872 0
0.83632034 1.2982091 0.58333927 0
1.0060873 1.3232701 -0.049873013 0
0.85151511 1.3164536 0.36581051 0
0.84142643 1.3160087 0.47183606 0
0.83910793 1.3159064 0.58476931 0
1.0050554 1.3429486 -0.049871586 0
0.84151715 1.3336723 0.36348408 0
0.85200328 1.334267 0.47565636 0
0.84204239 1.3337021 0.58635372 0
1.0148565 1.3633807 -0.050266709 0
1.3045758 1.383477 0.072634913 0
1.2968096 1.3829383 0.20575018 0
1.2988639 1.3830807 0.34158045 0
0.85959595 1.3526112 0.36839151 0
0.83276612 1.3507501 0.46961385 0
0.84130317 1.3513423 0.5865078 0
1.0046657 1.3824557 -0.049955316 0
1.2505102 1.4026219 0.070761755 0
1.2361559 1.4014444 0.19940034 0
1.013203 1.3831559 0.29020885 0
0.84815985 1.3696178 0.36580959 0
0.84046263 1.3689864 0.47262511 0
0.84327918 1.3692174 0.58788228 0
0.99253041 1.401129 -0.049582429 0
1.2341197 1.4240119 0.070246078 0
1.2503551 1.4255497 0.20114848 0
0.89822358 1.3921964 0.26969609 0
0.8506543 1.3876908 0.36684942 0
0.8369934 1.3863969 0.47198525 0
0.85009772 1.3876381 0.59136587 0
0.99718255 1.4213446 -0.049820259 0
0.64928859 1.3839673 0.049328521 0
0.64786381 1.3838142 0.13627507 0
0.63853687 1.3828121 0.2229282 0
0.64904374 1.3839411 0.31557563 0
0.83741099 1.404179 0.47271842 0
0.83503598 1.4039237 0.58583933 0
0.99827248 1.4413041 -0.049939506 0
0.55008584 1.387435 0.0458235 0
0.54744834 1.387118 0.12559263 0
0.5569281 1.3882574 0.20841533 0
0.55236393 1.3877088 0.29117596 0
0.84378678 1.4227359 0.47552422 0
0.84063774 1.4223574 0.5890069 0
0.99963468 1.4613879 -0.0500778 0
0.54067057 1.4003516 0.045547932 0
0.5524978 1.4019245 0.12633087 0
0.55579108 1.4023625 0.20853136 0
0.55741435 1.4025782 0.29293072 0
0.83057958 1.4389057 0.47184056 0
0.83872777 1.4399893 0.58913916 0
0.9927215 1.4803666 -0.049926899 0
0.54876477 1.4156272 0.045909438 0
0.54670733 1.4153273 0.12591337 0
0.54424793 1.4149686 0.20678335 0
0.551943 1.4160907 0.29202414 0
0.83681208 1.4576313 0.47475442 0
0.85464507 1.4602318 0.59682363 0
1.0021803 1.501839 -0.050376143 0
0.55113631 1.4302552 0.046071753 0
0.56262058 1.4320778 0.12787507 0
0.56038374 1.4317228 0.21011516 0
0.56166631 1.4319264 0.2950848 0
0.84011489 1.4761181 0.47676656 0
0.8413462 1.4763135 0.59238231 0
0.98714179 1.5194314 -0.049948767 0
0.54900688 1.4442289 0.046078045 0
0.56528205 1.4470224 0.12841903 0
0.54797119 1.4440511 0.20826879 0
0.55007011 1.4444114 0.29268485 0
0.84004647 1.4941837 0.47772354 0
0.83910125 1.4940214 0.59266007 0
0.99045008 1.5401078 -0.050194506 0
0.55137724 1.4590403 0.046254091 0
0.5520553 1.4591655 0.12724842 0
0.55574149 1.459846 0.21014802 0
0.55006999 1.458799 0.29332858 0
0.83212334 1.5108755 0.47610226 0
0.84119302 1.51255 0.59485811 0
0.97737592 1.5577257 -0.049854126 0
0.5487389 1.4729904 0.046255086 0
0.55328375 1.4738889 0.12767518 0
0.54822606 1.4728891 0.20925836 0
0.54094249 1.4714491 0.2916472 0
0.81793207 1.5262059 0.47242242 0
0.84804744 1.5321593 0.59917003 0
0.9798227 1.5783731 -0.050087225 0
0.55096287 1.4879684 0.046439886 0
0.54050356 1.4857637 0.12658483 0
0.5664894 1.4912415 0.21314791 0
0.54858631 1.4874675 0.29437575 0
0.84895176 1.5507852 0.48417032 0
0.82920223 1.5466219 0.59272343 0
0.97931236 1.5985299 -0.050222289 0
0.55677897 1.5038871 0.046763517 0
0.55751735 1.5040524 0.12878911 0
0.55999535 1.5046074 0.21251549 0
0.55927175 1.5044454 0.29795995 0
0.83288199 1.565731 0.48000216 0
0.83606762 1.5664446 0.59724456 0
0.96747261 1.6161 -0.049951356 0
0.54334718 1.515476 0.046389215 0
0.54886633 1.5167854 0.12819065 0
0.55540568 1.5183369 0.21226533 0
0.55935055 1.5192728 0.29882962 0
0.84740812 1.5876145 0.4863475 0
0.83425671 1.5844944 0.59819329 0
0.96063417 1.6347295 -0.049871773 0
0.55194408 1.5323153 0.046829864 0
0.54400355 1.5303255 0.12802777 0
0.55892152 1.5340638 0.21355347 0
0.54875714 1.5315167 0.29694411 0
0.84295684 1.6052406 0.48629835 0
0.84098309 1.604746 0.60288596 0
0.95613259 1.6539211 -0.049886856 0
0.55222911 1.5472839 0.046972882 0
0.56069928 1.5495201 0.1302795 0
0.55466646 1.5479274 0.2134333 0
0.54731995 1.5459878 0.29750896 0
0.83736092 1.6225635 0.48593137 0
0.84604436 1.624856 0.60699022 0
0.95364791 1.6736869 -0.049985662 0
0.55813783 1.5639204 0.047331735 0
0.55685049 1.5635631 0.1302747 0
0.54418021 1.5600467 0.21217905 0
0.54998571 1.5616579 0.29921037 0
0.83418649 1.6405326 0.48647439 0
0.84192032 1.642679 0.60727066 0
0.95586497 1.6948973 -0.050268892 0
0.54923779 1.5765114 0.047149036 0
0.56025678 1.5797195 0.13110167 0
0.55056149 1.5768968 0.21411717 0
0.55197245 1.5773076 0.30078989 0
0.84295934 1.6620258 0.49123749 0
0.84545988 1.6627538 0.61095351 0
0.94661778 1.7128249 -0.050135281 0
0.86026579 1.6865005 0.38412729 0
0.83641845 1.6792306 0.49078661 0
0.84545177 1.6819844 0.61322409 0
0.93123311 1.7287012 -0.049779601 0
0.84710377 1.701892 0.38209003 0
0.83287066 1.6973565 0.49145454 0
0.83640486 1.6984826 0.61168104 0
0.93324918 1.7501038 -0.050084624 0
0.84607929 1.7211117 0.38335976 0
0.83976477 1.7190115 0.49586615 0
0.83249873 1.7165948 0.61246508 0
0.93100661 1.7702612 -0.05024023 0
0.8388347 1.7383109 0.38302064 0
0.83772939 1.7379278 0.49724868 0
0.84179574 1.7393373 0.619138 0
0.91326326 1.7849457 -0.049817834 0
0.84222108 1.7593135 0.38562202 0
0.83512288 1.7567524 0.49851963 0
0.82427186 1.7528373 0.61416155 0
0.90229565 1.8018571 -0.049658842 0
0.83996934 1.7784785 0.38677132 0
0.82048041 1.7711681 0.4956038 0
0.83637816 1.7771314 0.62233913 0
0.90605217 1.824387 -0.050071344 0
0.84167224 1.7993089 0.38907495 0
0.82978779 1.7946795 0.50128949 0
0.83218616 1.7956138 0.62345052 0
0.89696342 1.8420432 -0.050002228 0
0.84305257 1.8202574 0.39137357 0
0.84183115 1.8197639 0.50809193 0
0.82778794 1.8140888 0.62457919 0
0.88893789 1.8600953 -0.049982484 0
0.83147019 1.836026 0.39017156 0
0.83009654 1.8354506 0.50646728 0
0.83328205 1.8367848 0.6302585 0
0.88593775 1.8803151 -0.050167017 0
0.82740957 1.8549308 0.39110982 0
0.82992321 1.8560209 0.50909775 0
0.82877249 1.8555219 0.63158286 0
0.87647372 1.8977803 -0.050109588 0
0.83698565 1.88006 0.39593318 0
0.82628375 1.8752574 0.51057339 0
0.83074266 1.8772583 0.63596219 0
0.86996108 1.9165738 -0.050176609 0
0.82778794 1.8970068 0.39559332 0
0.83145636 1.8987087 0.51537818 0
0.82078511 1.8937577 0.6350475 0
0.86079854 1.9341527 -0.050148468 0
0.82676619 1.9178391 0.39762485 0
0.81508869 1.9122413 0.51237357 0
0.81854743 1.9138993 0.63776696 0
0.84511548 1.9484859 -0.049869195 0
0.81549257 1.9338243 0.39682508 0
0.81888956 1.9355056 0.51689994 0
0.8057459 1.9290003 0.63573998 0
0.8409155 1.9684659 -0.050055668 0
0.81910378 1.9573264 0.40034187 0
0.81473655 1.955096 0.51859337 0
0.79555565 1.9453 0.63500214 0
0.8335939 1.9869541 -0.05012754 0
1.0343217 2.0926762 0.46498519 0
0.80188555 1.9702535 0.51711988 0
0.79430491 1.9662608 0.6385383 0
0.82101876 2.0026515 -0.049995914 0
0.80073184 1.9916378 0.40027404 0
0.79813224 1.9902265 0.51915234 0
0.79328328 1.9875941 0.64233065 0
0.80439669 2.0159824 -0.049705874 0
0.78878909 2.0072529 0.39952821 0
0.78257543 2.0037777 0.51679528 0
0.79302913 2.0096245 0.6466409 0
0.79737777 2.0346119 -0.049816258 0
0.78033251 2.0247946 0.39986104 0
0.77881151 2.0239186 0.51901394 0
0.7815116 2.0254736 0.64573294 0
0.78472811 2.0499973 -0.049703471 0
0.77284211 2.0429509 0.40054822 0
0.77136642 2.0420761 0.51992327 0
0.77401084 2.0436437 0.64684731 0
0.77688414 2.0682247 -0.049798857 0
0.77150494 2.0649436 0.40314764 0
0.76814717 2.0628953 0.52257514 0
0.7735427 2.0661864 0.65149146 0
0.76140612 2.0817456 -0.049582891 0
0.75967687 2.0806606 0.40269104 0
0.75448614 2.077404 0.52124953 0
0.76382357 2.0832624 0.65178901 0
0.76675493 2.1085241 -0.050257199 0
0.76043111 2.1044447 0.40611067 0
0.75490922 2.1008825 0.52556127 0
0.75467473 2.1007314 0.65247548 0
0.75015837 2.1213257 -0.050011486 0
0.74849159 2.1202204 0.40576446 0
0.75058585 2.1216092 0.52813202 0
0.74824029 2.120054 0.654625 0
0.73189396 2.1327851 -0.049698535 0
0.74498719 2.141706 0.40808046 0
0.74018341 2.1384332 0.52838224 0
0.73981375 2.1381812 0.65591639 0
0.7247842 2.1517866 -0.049875174 0
0.73324245 2.1577067 0.40793464 0
0.72990245 2.155369 0.52876961 0
0.72963804 2.1551838 0.65645009 0
0.71630388 2.1699598 -0.050003625 0
0.71022707 2.1655915 0.40430915 0
0.72351414 2.175143 0.53084242 0
0.72900766 2.1790922 0.6619646 0
0.70717674 2.1877723 -0.050114688 0
0.71595138 2.1942492 0.40979475 0
0.71142787 2.1909103 0.53068101 0
0.70559591 2.1866055 0.65596122 0
0.69576389 2.2039549 -0.050134428 0
0.7052415 2.2111368 0.41018718 0
0.6966148 2.2045996 0.52946228 0
0.71161515 2.2159667 0.66523814 0
0.67992431 2.2167158 -0.049963314 0
0.69188017 2.2260151 0.40979487 0
0.70268196 2.2344167 0.53710443 0
0.69236416 2.2263916 0.66154432 0
0.67030662 2.234293 -0.050081998 0
0.68606228 2.2468693 0.41192192 0
0.68803197 2.2484415 0.53616387 0
0.68156534 2.2432797 0.66236007 0
0.65623194 2.2483318 -0.050006393 0
0.67610508 2.2646086 0.41279215 0
0.67495733 2.2636685 0.53596663 0
0.67730957 2.2655952 0.66679925 0
0.65182763 2.270431 -0.050389133 0
0.66264564 2.2795215 0.41257858 0
0.66954666 2.28532 0.53918052 0
0.66912538 2.2849662 0.66931224 0
0.63068467 2.2784619 -0.050000127 0
0.72090143 2.3562293 0.066252455 0
0.72004575 2.3554916 0.18725269 0
0.72754306 2.3619545 0.3119528 0
0.65028697 2.2953594 0.41279635 0
0.65903503 2.3029003 0.54030812 0
0.65417928 2.2987146 0.66828907 0
0.61550635 2.291405 -0.049895816 0
0.67550725 2.3444574 0.064755186 0
0.680682 2.3490329 0.18360932 0
0.68412584 2.3520777 0.30488262 0
0.63979787 2.3128834 0.41372085 0
0.63283998 2.3067312 0.53458118 0
0.629435 2.3037205 0.66193438 0
0.5999828 2.3039396 -0.049781471 0
0.65428287 2.3531835 0.064398512 0
0.65686804 2.3555279 0.18216835 0
0.66584188 2.3636661 0.30382025 0
0.62196106 2.3238714 0.41220078 0
0.63262874 2.3335457 0.5404802 0
0.63073748 2.3318305 0.67010039 0
0.58377248 2.3157296 -0.049639951 0
0.6392377 2.3673177 0.064344242 0
0.63752478 2.3657243 0.18137851 0
0.64548713 2.3731301 0.3022711 0
0.61391598 2.343766 0.41412249 0
0.60697633 2.3373115 0.53504187 0
0.60974365 2.3398852 0.66595423 0
0.58411258 2.3431728 -0.050320569 0
0.62434715 2.381551 0.064305671 0
0.61899954 2.3764501 0.1807196 0
0.62796563 2.3850026 0.3014389 0
0.59792811 2.3563509 0.41335469 0
0.60803252 2.365989 0.54183948 0
0.59974498 2.358084 0.66810703 0
0.56521839 2.3524768 -0.050066181 0
0.61710864 2.4032359 0.064657681 0
0.60847956 2.3947949 0.18127617 0
0.61607009 2.4022202 0.30205327 0
0.5891133 2.3758509 0.41519368 0
0.58173496 2.3686335 0.53615791 0
0.58494383 2.3717723 0.66763693 0
0.55002564 2.3652444 -0.050001621 0
0.60222131 2.4176044 0.064641096 0
0.6066063 2.4220033 0.18319103 0
0.60470456 2.4200954 0.30286583 0
0.57575446 2.3910544 0.41550213 0
0.57007128 2.3853531 0.53731579 0
0.5688172 2.3840952 0.66648394 0
0.53030175 2.3732896 -0.049712315 0
0.60162455 2.4466622 0.065365463 0
0.088978611 1.9192835 0.10566228 0
0.093978129 1.9244267 0.174541 0
0.56122702 2.4051037 0.41545644 0
0.56349951 2.4074414 0.54101908 0
0.5620448 2.4059448 0.670964 0
0.5190888 2.3900218 -0.049866054 0
0.61787921 2.4942455 0.066992901 0
0.058492862 1.9040943 0.10221578 0
0.070208095 1.916454 0.17053495 0
0.55239469 2.4251595 0.41758746 0
0.55220193 2.4249561 0.54262006 0
0.54747623 2.4199705 0.67097634 0
0.50234765 2.4009371 -0.049742132 0
0.048663042 1.9100671 0.16703868 0
0.53634375 2.4377198 0.41712865 0
0.53630775 2.4376807 0.54209727 0
0.53676814 2.4381788 0.67345077 0
0.49012455 2.4167399 -0.049864694 0
0.0443817 1.9221109 0.16812256 0
0.51548404 2.4448807 0.4148905 0
0.51622087 2.4456985 0.53956258 0
0.51970452 2.4495642 0.6721701 0
0.47457704 2.428895 -0.049819898 0
0.039168082 1.9333255 0.16900851 0
0.50808269 2.46703 0.41785693 0
0.50663882 2.4653869 0.54233688 0
0.50494093 2.4634542 0.6724031 0
0.4650937 2.448086 -0.050115582 0
0.02747198 1.9371648 0.16814926 0
0.48885664 2.4758289 0.41633829 0
0.48398051 2.4701362 0.53859061 0
0.48297152 2.4689581 0.66816372 0
0.44263741 2.4520695 -0.049706474 0
0.022658607 1.9490632 0.16922724 0
0.47285447 2.4882605 0.41612378 0
0.47286209 2.4882696 0.54080856 0
0.46848962 2.4830327 0.66874146 0
0.43814036 2.4776697 -0.05030961 0
0.018467626 1.9619677 0.17054233 0
0.45121476 2.4937358 0.41368994 0
0.45572302 2.4992757 0.54000711 0
0.45516047 2.4985843 0.67019969 0
0.41667733 2.4825668 -0.049965989 0
0.012136958 1.9724725 0.17130424 0
0.43701419 2.5082099 0.4142997 0
0.45125517 2.5261667 0.54605085 0
0.43730101 2.5085716 0.66879219 0
0.39756885 2.4901195 -0.049757771 0
0.0038296792 1.9805967 0.17153437 0
0.42338201 2.5235233 0.41523212 0
0.42200854 2.5217459 0.53889459 0
0.42713413 2.5283787 0.67265481 0
0.38651881 2.5081372 -0.050029982 0
-0.0055676489 1.9873292 0.17147197 0
0.41054502 2.5400512 0.41659868 0
0.41002688 2.5393629 0.54113728 0
0.40581712 2.533771 0.66907722 0
0.37055883 2.5197892 -0.050024059 0
-0.01888142 1.9887093 0.17023967 0
0.3917084 2.548631 0.41548944 0
0.39274588 2.5500457 0.54056108 0
0.39649734 2.5551615 0.67388481 0
0.35394678 2.5305262 -0.04998691 0
-0.036163606 1.9842393 0.10239191 0
-0.02842907 1.9950702 0.17015955 0
0.37978181 2.566704 0.4174411 0
0.37828574 2.5646091 0.54166597 0
0.37774679 2.5638542 0.67224914 0
0.33727071 2.5411308 -0.049953461 0
-0.045469023 1.9906387 0.10237806 0
-0.032237031 2.0096703 0.17191641 0
0.36005691 2.573904 0.41604394 0
0.35407647 2.5653026 0.53721511 0
0.35685924 2.5693049 0.66911238 0
0.3200008 2.5508213 -0.049889982 0
-0.054413356 1.9975692 0.10244852 0
-0.041690923 2.0163684 0.17194811 0
0.34301916 2.5848346 0.41588467 0
0.34072068 2.5814381 0.53912842 0
0.34216258 2.5835688 0.67054039 0
0.303417 2.5614781 -0.049877666 0
-0.040284194 2.0395699 0.1755691 0
0.3287231 2.5999053 0.41705739 0
0.32728478 2.5977213 0.54115206 0
0.31960496 2.5860596 0.6662122 0
0.28751323 2.5731862 -0.049918909 0
0.30813202 2.6053705 0.41536498 0
0.30631819 2.6025393 0.53869653 0
0.30375668 2.598541 0.66697162 0
0.2744315 2.5894845 -0.05016138 0
0.2859886 2.6080344 0.41292199 0
0.2887328 2.6124392 0.53835601 0
0.28791824 2.6111317 0.66787612 0
0.25554761 2.5965395 -0.050023098 0
0.27004436 2.6204741 0.41349694 0
0.27612004 2.6305053 0.54128093 0
0.27279726 2.6250193 0.66949844 0
0.23650451 2.6031377 -0.049876805 0
0.25104955 2.6278491 0.41262797 0
0.25635538 2.6368635 0.53972602 0
0.25335464 2.6317654 0.66776961 0
0.21741547 2.6094544 -0.049729872 0
0.24001695 2.6489835 0.41587949 0
0.23557533 2.6412151 0.53750902 0
0.23520066 2.6405599 0.66714734 0
0.20382388 2.6254659 -0.049989697 0
-0.055343546 2.1586483 0.042927541 0
0.21892197 2.6526608 0.41405493 0
0.21836103 2.6516504 0.53772235 0
0.21779914 2.6506383 0.66724604 0
0.18717666 2.6361995 -0.050040692 0
0.20124878 2.6623158 0.41405231 0
0.19991495 2.6598403 0.53716791 0
0.20023264 2.66043 0.66731262 0
0.17321618 2.6521575 -0.050310295 0
0.18141569 2.667845 0.41292617 0
0.18384404 2.6724908 0.53837901 0
0.17967881 2.6645219 0.6648196 0
0.15390225 2.6579792 -0.050179537 0
0.16374965 2.6774116 0.41303369 0
0.16224398 2.6744401 0.53566694 0
0.16105123 2.6720865 0.6640749 0
0.1335478 2.6614795 -0.049966965 0
0.14492227 2.6846442 0.41254064 0
0.14070441 2.6760542 0.53294843 0
0.14064635 2.675936 0.66172975 0
0.11471351 2.6678352 -0.049878702 0
0.12008091 2.6791232 0.40851471 0
0.12495413 2.6893718 0.53465784 0
0.12089064 2.6808262 0.65999371 0
0.10069986 2.6845255 -0.050206441 0
0.10196575 2.6872766 0.40844056 0
0.10060778 2.6843255 0.52970487 0
0.10118642 2.6855829 0.65832078 0
0.079400562 2.6854193 -0.049921993 0
0.082647167 2.6927154 0.40767267 0
0.085203849 2.6984611 0.5318765 0
0.083224081 2.6940119 0.65843403 0
0.060146891 2.6905706 -0.049814988 0
0.061557434 2.693851 0.40578157 0
0.065254532 2.7024496 0.53043216 0
0.061202191 2.6930249 0.65440524 0
0.043144844 2.7009568 -0.049920306 0
0.045493327 2.706614 0.40718588 0
0.04480537 2.7049568 0.52855253 0
0.051440977 2.7209411 0.66347921 0
0.026948115 2.7135625 -0.050118692 0
0.026908061 2.7134624 0.40701336 0
0.029119333 2.7189844 0.53090352 0
0.025871953 2.7108753 0.65562266 0
0.0079912161 2.7194133 -0.05006545 0
0.0071183653 2.7171514 0.40604183 0
0.0091881966 2.7225149 0.52957034 0
0.0080297207 2.7195129 0.65624791 0
-0.0128598 2.7200665 -0.049823627 0
-0.010450819 2.7265508 0.40669703 0
-0.012210169 2.7218151 0.52683133 0
-0.014288821 2.7162201 0.65170026 0
-0.032204129 2.7244399 -0.049733885 0
-0.032206871 2.7244322 0.40428883 0
-0.032806076 2.722755 0.5247792 0
-0.032511033 2.7235808 0.65198082 0
-0.050505377 2.7316675 -0.049761489 0
-0.047564782 2.740238 0.40679988 0
-0.053011931 2.7243624 0.52306223 0
-0.052296259 2.7264481 0.6503939 0
-0.069215186 2.7377262 -0.049753722 0
-0.073663123 2.7242107 0.40080252 0
-0.073026575 2.726145 0.52150303 0
-0.073532976 2.7246063 0.64686978 0
-0.088038094 2.7434182 -0.049741089 0
-0.090697564 2.7349808 0.40208536 0
-0.090106703 2.7368555 0.52315235 0
-0.093171246 2.727133 0.64537233 0
-0.10424007 2.7577856 -0.05006085 0
-0.11105854 2.7351639 0.40059954 0
-0.11155728 2.7335093 0.51998591 0
-0.11464912 2.7232516 0.6412167 0
-0.12488488 2.7575388 -0.049844138 0
-0.10424177 2.8292832 0.064509429 0
-0.10421071 2.8293912 0.18213923 0
-0.10635788 2.8219287 0.30018616 0
-0.12773176 2.7476447 0.40245205 0
-0.13402219 2.7257824 0.5154081 0
-0.13129301 2.7352674 0.6440419 0
-0.14248441 2.7678339 -0.050028063 0
-0.13479026 2.7958999 0.063067026 0
-0.13339145 2.8010025 0.17835379 0
-0.13614173 2.7909703 0.293358 0
-0.15027653 2.7394109 0.39887396 0
-0.15274166 2.7304187 0.51520872 0
-0.15261416 2.7308838 0.63990694 0
-0.16049485 2.7770796 -0.050180845 0
-0.15378346 2.8028278 0.063130811 0
-0.15857993 2.7844262 0.17593351 0
-0.1567585 2.791414 0.29247487 0
-0.17006339 2.7403698 0.39780626 0
-0.17020948 2.7398093 0.51672572 0
-0.16970964 2.7417271 0.6424157 0
-0.1790645 2.7845254 -0.050275326 0
-0.17732395 2.7915652 0.062534221 0
-0.17782457 2.7895403 0.17595717 0
-0.1781906 2.7880599 0.29093716 0
-0.18843211 2.7466383 0.3982029 0
-0.19255938 2.7299454 0.51171482 0
-0.1891389 2.7437797 0.64125943 0
-0.19693412 2.7952702 -0.050499067 0
-0.19978456 2.7830851 0.062052298 0
-0.20121561 2.7769678 0.17405544 0
-0.19933428 2.7850101 0.28951043 0
-0.21100648 2.7351139 0.39399692 0
-0.21025996 2.7383049 0.51304138 0
-0.20863049 2.7452707 0.63997197 0
-0.21862103 2.7894645 -0.050125334 0
-0.21673866 2.7979941 0.062437184 0
-0.21642928 2.799396 0.17604351 0
-0.21965544 2.7847774 0.28865719 0
-0.22924165 2.7413392 0.39451459 0
-0.23147781 2.7312064 0.50917387 0
-0.23131381 2.7319496 0.63251197 0
-0.23630469 2.8016682 -0.0504192 0
-0.23385839 2.8134565 0.06284903 0
-0.232504 2.8199832 0.17784533 0
-0.23456247 2.8100636 0.29255372 0
-0.24853937 2.7427111 0.39382607 0
-0.2510514 2.7306058 0.50761509 0
-0.2498108 2.7365842 0.63278502 0
-0.25692239 2.7998829 -0.050211683 0
-0.25128093 2.8289001 0.063267037 0
-0.25237128 2.8232918 0.17777327 0
-0.25192723 2.8255758 0.29467952 0
-0.26730469 2.7464809 0.39382577 0
-0.270109 2.7320566 0.50683916 0
-0.26950675 2.7351544 0.63059795 0
-0.27727503 2.7987566 -0.050037984 0
-0.26571596 2.8624845 0.064350277 0
-0.26651695 2.8580682 0.18116575 0
-0.26501614 2.8663425 0.30146956 0
-0.28749913 2.7423887 0.39184821 0
-0.29024026 2.7272761 0.50403923 0
-0.28984183 2.7294726 0.62673116 0
-0.2969127 2.8011568 -0.050001618 0
-0.30661571 2.7435396 0.39129722 0
-0.30871373 2.7310815 0.50422752 0
-0.30769762 2.7371151 0.62857455 0
-0.31571898 2.8087578 -0.05016217 0
-0.32562101 2.7450719 0.39090803 0
-0.32780892 2.7310004 0.50318533 0
-0.32773101 2.7315013 0.6249541 0
-0.33608097 2.8062742 -0.049967304 0
-0.34651795 2.7330894 0.38709828 0
-0.34678414 2.7312229 0.50232792 0
-0.34713489 2.7287633 0.6226486 0
-0.35501361 2.8137603 -0.050140914 0
-0.36566535 2.7316887 0.38608494 0
-0.36634883 2.7264223 0.49986702 0
-0.36641473 2.7259147 0.62040263 0
-0.37556264 2.808512 -0.049865108 0
-0.38575459 2.7214031 0.38285282 0
-0.38597539 2.719516 0.49678695 0
-0.38639334 2.7159441 0.61529243 0
-0.39439189 2.8179135 -0.050124809 0
-0.40463403 2.7196741 0.38188469 0
-0.40406671 2.7251155 0.49797678 0
-0.40407574 2.725029 0.61822611 0
-0.41562971 2.8030481 -0.049522739 0
-0.42333078 2.7189243 0.38122955 0
-0.42447758 2.7063973 0.49111718 0
-0.42333421 2.7188869 0.61491823 0
-0.43441346 2.8139398 -0.049853254 0
-0.44194767 2.7184026 0.3806937 0
-0.44204137 2.7172146 0.49420705 0
-0.44276139 2.7080839 0.60977864 0
-0.4541353 2.8142378 -0.049812935 0
-0.46146616 2.7035055 0.37654263 0
-0.46166542 2.700496 0.48818702 0
-0.46151164 2.7028184 0.60704261 0
-0.4737395 2.8162589 -0.049843121 0
-0.47895423 2.7189083 0.38019872 0
-0.48032337 2.6933484 0.48544222 0
-0.48056582 2.6888227 0.60078651 0
-0.49367738 2.8107274 -0.049612254 0
-0.49815825 2.7012956 0.37547877 0
-0.49808252 2.7031453 0.48841912 0
-0.49872297 2.6875043 0.59988636 0
-0.51318157 2.8148608 -0.049735632 0
-0.51661873 2.6935763 0.37334743 0
-0.51698631 2.6806061 0.48070711 0
-0.5170809 2.6772697 0.59538817 0
-0.53291112 2.8104038 -0.049561031 0
-0.53473562 2.6945035 0.37348208 0
-0.53483409 2.6882501 0.48311877 0
-0.53486216 2.686465 0.5990324 0
-0.55246586 2.8233469 -0.0500165 0
-0.55291039 2.6821942 0.37029788 0
-0.55293745 2.6735897 0.47818461 0
-0.55291337 2.6812339 0.59679592 0
-0.57219476 2.8203843 -0.049912956 0
-0.5708617 2.6792054 0.36954975 0
-0.57073724 2.6660264 0.47568691 0
-0.57076848 2.6693344 0.5918923 0
-0.59205651 2.8266211 -0.050146747 0
-0.5886687 2.6728919 0.36801058 0
-0.58858877 2.6692629 0.47685707 0
-0.58833396 2.6577013 0.58719075 0
-0.61155927 2.8176401 -0.049845964 0
-0.60634351 2.6670671 0.36665279 0
-0.60586292 2.6531932 0.4716756 0
-0.60599822 2.6570976 0.58714807 0
-0.63126951 2.8174796 -0.049869023 0
-0.62370324 2.6573541 0.36435792 0
-0.62303394 2.643189 0.46858367 0
-0.62317932 2.646265 0.58295768 0
-0.65131724 2.8226299 -0.050090928 0
-0.64128792 2.6551394 0.36403364 0
-0.64025772 2.6379347 0.46714458 0
-0.63982034 2.6306307 0.57686216 0
-0.64058173 2.6433454 0.70222932 0
-0.67123914 2.8238385 -0.050180957 0
-0.65823704 2.6445656 0.36162743 0
-0.65773839 2.6376901 0.46744758 0
-0.6577605 2.637995 0.58039528 0
-0.65619266 2.6163778 0.68928158 0
-0.69035292 2.8147771 -0.049912095 0
-0.67305946 2.6117947 0.45925951 0
-0.67383283 2.6208725 0.57385087 0
-0.67310578 2.6123383 0.6879319 0
-0.70979899 2.8110242 -0.049841959 0
-0.68894976 2.598047 0.45518661 0
-0.68930024 2.6016269 0.56649935 0
-0.68964761 2.6051755 0.68511736 0
-0.72974849 2.8122435 -0.049959108 0
-0.70641673 2.6013303 0.56711209 0
-0.70626009 2.5999146 0.68336111 0
-0.75004673 2.8155887 -0.050161947 0
-0.72354597 2.600811 0.56772274 0
-0.72263116 2.5933969 0.68107408 0
-0.76936823 2.810679 -0.050076898 0
-0.73742557 2.5761354 0.67346179 0
-0.78710985 2.7955546 -0.049631763 0
-0.75466144 2.577836 0.67552179 0
-0.80734444 2.7977695 -0.049820889 0
-0.82640588 2.7924836 -0.049747802 0
-0.84601808 2.7903917 -0.049799275 0
-0.866009 2.7899837 -0.049921185 0
-0.88216209 2.7712245 -0.04938259 0
-0.90581369 2.7871549 -0.050119948 0
-0.92267823 2.7726369 -0.049752392 0
-0.94371837 2.7756028 -0.050035484 0
-0.96181494 2.7667754 -0.049893469 0
-0.97913063 2.7555263 -0.049669597 0
-1.0018913 2.7633109 -0.050161377 0
-1.0158975 2.7415109 -0.049560498 0
-1.0391269 2.7497139 -0.050089128 0
-1.0557517 2.7370858 -0.049846414 0
-1.0761155 2.7356443 -0.050033689 0
-1.0965894 2.7341099 -0.050228018 0
-1.1167774 2.7314246 -0.050389148 0
-1.1311322 2.7135832 -0.049979407 0
-1.1477096 2.7019496 -0.049813848 0
-1.1657217 2.6940031 -0.049798381 0
-1.1856476 2.6904514 -0.049962897 0
-1.2021524 2.6790507 -0.049830578 0
-1.2206372 2.6720953 -0.049880866 0
-1.242072 2.6711562 -0.050179202 0
-1.2557994 2.6542888 -0.04985467 0
-1.2748177 2.6481943 -0.049967498 0
-1.2906133 2.6358511 -0.049838178 0
