# .PCD v0.7 - Point Cloud Data file format
VERSION 0.7
FIELDS x y z intensity
SIZE 4 4 4 4
TYPE F F F F
COUNT 1 1 1 1
WIDTH 1360
HEIGHT 1
VIEWPOINT 0 0 0 1 0 0 0
POINTS 1360
DATA ascii
-1.2433786 0.71380538 0.44296485 0
-1.2442478 0.71312058 0.52458596 0
-1.7808419 0.26508635 -0.050170045 0
-1.3614097 0.60422754 0.34998751 0
-1.2472776 0.69651151 0.37332097 0
-1.2384807 0.70362455 0.44422734 0
-1.2442676 0.69894534 0.52983969 0
-1.7678984 0.2500844 -0.050151918 0
-1.3525035 0.59470063 0.34970358 0
-1.2465326 0.6826154 0.37672797 0
-1.2431945 0.68538475 0.45183468 0
-1.2389016 0.68894613 0.5311352 0
-1.7480365 0.24098349 -0.049818058 0
-1.3502614 0.57952768 0.35238001 0
-1.2535211 0.66186285 0.384471 0
-1.2321901 0.68001753 0.44934696 0
-1.2399883 0.67338043 0.53756744 0
-1.7361536 0.22522497 -0.049864057 0
-1.3420511 0.56929344 0.35253415 0
-1.2503089 0.64938837 0.38683593 0
-1.2423609 0.65632731 0.46094078 0
-1.2439488 0.65494102 0.5464865 0
-1.7281686 0.20592821 -0.050106838 0
-1.3387618 0.55463409 0.35494494 0
-1.2516677 0.63262516 0.39185494 0
-1.2363493 0.6463424 0.46199673 0
-1.239074 0.6439026 0.54865706 0
-1.7029171 0.20225275 -0.049527179 0
-1.3121444 0.56114942 0.34692895 0
-1.2542689 0.61430401 0.39774868 0
-1.2374595 0.62974215 0.46798795 0
-1.2349352 0.63206059 0.55155677 0
-1.6933087 0.18440008 -0.049710084 0
-1.3038793 0.55120909 0.34716776 0
-1.2514126 0.60062808 0.40073916 0
-1.2404232 0.61097926 0.47546747 0
-1.2435504 0.60803372 0.5650025 0
-1.6789734 0.17092991 -0.049671676 0
-1.2980523 0.53888565 0.34859487 0
-1.2421732 0.59286278 0.40019014 0
-1.2450546 0.59007949 0.48436204 0
-1.237802 0.59708512 0.56701744 0
-1.6698163 0.1523639 -0.049901482 0
-1.2931403 0.52550077 0.35054064 0
-1.2338251 0.58425874 0.40021041 0
-1.2404139 0.57773185 0.4870224 0
-1.2438246 0.57435316 0.57899791 0
-1.6623931 0.13180077 -0.050234314 0
-1.2806293 0.51962286 0.34898698 0
-1.2358186 0.56514454 0.40639806 0
-1.2413574 0.55951786 0.49380997 0
-1.242179 0.55868316 0.58489054 0
-1.648641 0.11748766 -0.050258514 0
-1.3991355 0.37741941 0.049395271 0
-1.4021699 0.37425822 0.13710091 0
-1.4026409 0.3737675 0.22612855 0
-1.3943914 0.38236171 0.31436765 0
-1.276181 0.50551188 0.35132182 0
-1.2462707 0.53667206 0.41786775 0
-1.2372925 0.54602545 0.49723309 0
-1.2360394 0.54733098 0.58718014 0
-1.6227612 0.11610209 -0.049658794 0
-1.3694992 0.38668609 0.048427273 0
-1.3701116 0.38603181 0.1338124 0
-1.3739852 0.3818934 0.22150956 0
-1.3771757 0.37848467 0.3120639 0
-1.2654291 0.49787408 0.35070524 0
-1.2397017 0.52536118 0.41939563 0
-1.2382307 0.52693278 0.50448936 0
-1.237968 0.52721351 0.59662604 0
-1.6143899 0.09615504 -0.049978923 0
-1.3604724 0.37437969 0.048531186 0
-1.3511841 0.38455707 0.13254812 0
-1.3555053 0.37982225 0.21952173 0
-1.3484744 0.38752621 0.30539957 0
-1.2600138 0.48445511 0.35276097 0
-1.238157 0.50840414 0.42411757 0
-1.2360399 0.51072395 0.50970119 0
-1.2399805 0.50640625 0.6064983 0
-1.6005427 0.082017295 -0.050022922 0
-1.3409243 0.37378359 0.048079789 0
-1.3381463 0.37690556 0.13222097 0
-1.3359722 0.37934887 0.21722682 0
-1.3347224 0.3807534 0.3043344 0
-1.2562436 0.46895003 0.35575339 0
-1.2532517 0.47231239 0.43940252 0
-1.2430964 0.48372531 0.52209997 0
-1.2409449 0.48614317 0.61580843 0
-1.5844649 0.0703988 -0.049955674 0
-1.3231778 0.37159288 0.047720358 0
-1.3226657 0.37218326 0.13150412 0
-1.3233838 0.37135541 0.21681131 0
-1.3186978 0.37675714 0.30240181 0
-1.2485929 0.45756936 0.35691777 0
-1.2370174 0.47091281 0.43540129 0
-1.2409639 0.46636343 0.52792174 0
-1.2366985 0.47128046 0.62076795 0
-1.5656829 0.062046643 -0.049745936 0
-1.3081977 0.36651993 0.047509998 0
-1.2991494 0.3772195 0.12944897 0
-1.3116734 0.36240995 0.21666272 0
-1.3126787 0.36122137 0.30441323 0
-1.2434641 0.44306678 0.35947227 0
-1.2362758 0.45156682 0.4412851 0
-1.2449569 0.44130164 0.53874511 0
-1.2371782 0.45049983 0.63031304 0
-1.5476927 0.052961703 -0.049583264 0
-1.3008946 0.35236335 0.047730863 0
-1.2985262 0.35523671 0.13121954 0
-1.2961446 0.35812575 0.21546087 0
-1.296857 0.35726154 0.30260158 0
-1.2514325 0.41236806 0.36901143 0
-1.2418519 0.42399079 0.45152923 0
-1.2417696 0.42409068 0.54433334 0
-1.2373369 0.4294681 0.63994795 0
-1.5368531 0.035153862 -0.049832117 0
-1.2861747 0.34718645 0.047542505 0
-1.2863659 0.3469485 0.13108553 0
-1.286458 0.34683371 0.21593778 0
-1.2915218 0.34053057 0.30505332 0
-1.254897 0.38611948 0.37651247 0
-1.2364028 0.40914011 0.45487434 0
-1.2434602 0.4003554 0.55407858 0
-1.2357937 0.40989834 0.64837217 0
-1.5321635 0.0092008058 -0.050454065 0
-1.2763602 0.33595526 0.047638945 0
-1.285264 0.32458186 0.13289534 0
-1.2824274 0.32820511 0.21811846 0
-1.2826484 0.32792276 0.30616692 0
-1.2514496 0.36777514 0.38058168 0
-1.2428926 0.37870556 0.46641728 0
-1.2426152 0.37905991 0.56216437 0
-1.2385571 0.38424361 0.66131151 0
-1.5084662 0.0074390122 -0.049986515 0
-1.2751073 0.31338334 0.048249252 0
-1.2694995 0.32073539 0.13218647 0
-1.2800736 0.30687219 0.22090326 0
-1.2777654 0.3098985 0.30904391 0
-1.2392914 0.36033958 0.38006577 0
-1.2441815 0.35392839 0.47486115 0
-1.2364568 0.36405593 0.56622046 0
-1.2386522 0.36117768 0.67217022 0
-1.4896903 -0.00039852181 -0.049806885 0
-1.2720046 0.2925753 0.048776127 0
-1.2743922 0.28936183 0.13519648 0
-1.2692505 0.29628193 0.22125514 0
-1.2744591 0.28927183 0.31274092 0
-1.2461615 0.32735652 0.39020732 0
-1.2372168 0.33939469 0.47793424 0
-1.2387987 0.33726561 0.57763433 0
-1.2420604 0.33287585 0.68679535 0
-1.4809638 -0.021912342 -0.050242055 0
-1.2757578 0.26165539 0.049745575 0
-1.2794632 0.25653499 0.13836375 0
-1.2795408 0.25642776 0.22814898 0
-1.2804168 0.25521725 0.32064644 0
-1.2525238 0.29376167 0.40047243 0
-1.2388021 0.31272334 0.48722777 0
-1.2363222 0.31615025 0.58542138 0
-1.2457445 0.30312991 0.70231348 0
-1.4597303 -0.026214963 -0.049926512 0
-1.1728153 0.38096184 0.04414336 0
-1.1758298 0.37668389 0.12138291 0
-1.1776289 0.37413067 0.20019217 0
-1.3360021 0.14937449 0.35086435 0
-1.2425054 0.28206074 0.40170348 0
-1.2453234 0.27806163 0.50047618 0
-1.24025 0.28526163 0.59914088 0
-1.4382561 -0.029778844 -0.049593326 0
-1.1603839 0.37530273 0.04405589 0
-1.1521467 0.38731098 0.11899222 0
-1.1586117 0.37788641 0.19767813 0
-1.3192126 0.14376259 0.34959462 0
-1.2408997 0.257927 0.40799099 0
-1.238185 0.26188439 0.50428849 0
-1.2409772 0.25781405 0.61062449 0
-1.427887 -0.049559239 -0.049970698 0
-1.1408441 0.38039869 0.043514226 0
-1.1420165 0.37864256 0.11915357 0
-1.1385181 0.38388282 0.1947514 0
-1.2959356 0.14808905 0.34535196 0
-1.2380067 0.23486006 0.4138073 0
-1.2401674 0.23162365 0.51512492 0
-1.2392048 0.23306537 0.62038279 0
-1.4136832 -0.063930519 -0.050120305 0
-1.1237748 0.38238865 0.043119721 0
-1.1233224 0.38308507 0.11764986 0
-1.1258253 0.37923181 0.19419292 0
-1.2878654 0.12976813 0.34812337 0
-1.2421998 0.20007133 0.42424101 0
-1.2373744 0.2075001 0.52283078 0
-1.2445545 0.19644606 0.63715732 0
-1.3956994 -0.072522052 -0.050032239 0
-1.1097119 0.38013715 0.042916566 0
-1.1109493 0.37817854 0.11737654 0
-1.1052024 0.38727462 0.19096516 0
-1.2719899 0.12328433 0.34733137 0
-1.2411791 0.17205167 0.43190736 0
-1.2338082 0.18371832 0.53032541 0
-1.2412976 0.17186403 0.64663488 0
-1.376128 -0.078416713 -0.04984137 0
-1.095084 0.37907511 0.042672589 0
-1.0863835 0.39323795 0.11460681 0
-1.0920315 0.38404405 0.19020358 0
-1.2544583 0.1196407 0.34575513 0
-1.2402875 0.14270842 0.44003645 0
-1.2422333 0.13954115 0.5476948 0
-1.2363962 0.14904273 0.65502965 0
-1.3632941 -0.09533871 -0.050120756 0
-1.0765113 0.38495123 0.042149633 0
-1.077256 0.38370413 0.11497502 0
-1.0735565 0.38989973 0.18757409 0
-1.250788 0.093081228 0.35106605 0
-1.2390921 0.11266886 0.44837886 0
-1.2412261 0.10909509 0.55826128 0
-1.242612 0.10677385 0.67473072 0
-1.3423311 -0.098647125 -0.049842913 0
-1.0620767 0.3844257 0.041904394 0
-1.0583675 0.39081919 0.11328632 0
-1.0645347 0.38018876 0.18825808 0
-1.2523903 0.056383368 0.35934246 0
-1.2332245 0.089419238 0.4540548 0
-1.2392892 0.078965537 0.56860542 0
-1.2384919 0.080339782 0.68508345 0
-1.3303899 -0.11757494 -0.050217941 0
-1.042469 0.39342952 0.041277863 0
-1.047753 0.38405156 0.11335149 0
-1.0483118 0.38305968 0.18635634 0
-1.2472485 0.029985184 0.36453819 0
-1.2392876 0.044114109 0.46814126 0
-1.2386447 0.0452553 0.58058971 0
-1.3133831 -0.12779939 -0.050242372 0
-1.0352147 0.38076502 0.041547462 0
-1.0320122 0.38662004 0.11228903 0
-1.0361774 0.37900496 0.18593343 0
-1.2446611 -0.0021575741 0.37138772 0
-1.2393773 0.0075026699 0.47880524 0
-1.2417371 0.0031883665 0.59643936 0
-1.2901217 -0.12628174 -0.049800742 0
-1.0240394 0.37507868 0.041536931 0
-1.017961 0.38653171 0.11158109 0
-1.0173442 0.38769388 0.18294273 0
-1.2384167 -0.028857594 0.37662902 0
-1.2389135 -0.029793983 0.48965585 0
-1.2410052 -0.033735041 0.60975415 0
-1.2726904 -0.13541806 -0.04980154 0
-1.0087754 0.3773483 0.041212685 0
-1.0091263 0.37666643 0.11208089 0
-1.0061829 0.38238513 0.18285879 0
-1.2428912 -0.077520616 0.38816121 0
-1.2436755 -0.079044469 0.50491142 0
-1.2433923 -0.078494437 0.62663615 0
-1.2586141 -0.15128779 -0.05007977 0
-0.99498343 0.37717485 0.040995635 0
-0.99106157 0.38503647 0.11040093 0
-0.99119782 0.3847633 0.18125457 0
-1.2391154 -0.11220146 0.39561856 0
-1.2399929 -0.11396063 0.51471967 0
-1.2407218 -0.11542178 0.63977474 0
-1.2415065 -0.16134286 -0.0501328 0
-0.97984314 0.38013905 0.040662393 0
-0.97533274 0.3894729 0.10922789 0
-0.98019981 0.37940091 0.18124844 0
-1.2415322 -0.16139627 0.40715683 0
-1.2434821 -0.16543126 0.53060257 0
-1.2191809 -0.16033936 -0.049758174 0
-0.96498597 0.3830483 0.040340815 0
-0.9671306 0.37846369 0.10991789 0
-0.96411526 0.38490945 0.17910552 0
-1.239518 -0.20381367 0.41670975 0
-1.2407979 -0.20654953 0.54257363 0
-1.2022493 -0.17062163 -0.049838971 0
-0.95644593 0.37254345 0.040554069 0
-0.95466864 0.37647086 0.1095526 0
-0.95114088 0.38426644 0.17823274 0
-1.2395799 -0.25311315 0.42814285 0
-1.2400624 -0.25417924 0.55686688 0
-1.1831772 -0.17616117 -0.049742844 0
-0.93996966 0.3798005 0.040078208 0
-0.93675154 0.38715708 0.10772049 0
-0.93842793 0.38332492 0.17745575 0
-1.2411383 -0.30865765 0.44125196 0
-1.2431599 -0.31327891 0.57525015 0
-1.173354 -0.20342326 -0.050498467 0
-0.92879725 0.37536252 0.040066212 0
-0.92513895 0.38402045 0.10753721 0
-0.92475516 0.38492882 0.17621596 0
-1.2458491 -0.37499571 0.45727563 0
-1.1468042 -0.19108593 -0.049728237 0
-0.91192067 0.38493043 0.039519709 0
-0.91724849 0.3718648 0.10841861 0
-0.91278201 0.3828181 0.17573962 0
-1.2407928 -0.42157876 0.46775779 0
-1.1304382 -0.20317495 -0.049911693 0
-0.90019345 0.38244945 0.039446291 0
-0.90095329 0.38051677 0.10690439 0
-0.89895725 0.38559371 0.174348 0
-1.2393548 -0.48020279 0.48150665 0
-1.1130341 -0.21289647 -0.050011788 0
-0.88665581 0.38489008 0.039190985 0
-0.887815 0.38182902 0.10626446 0
-0.88659072 0.38506192 0.17363448 0
-1.2375655 -0.54174054 0.49598998 0
-1.0941435 -0.21875381 -0.04997294 0
-0.87893599 0.37188405 0.039530277 0
-0.87698817 0.37722993 0.10632256 0
-0.87553298 0.38122362 0.17358887 0
-1.0749794 -0.22375679 -0.049910963 0
-0.86214751 0.38404661 0.03891971 0
-0.86309379 0.38134426 0.1054038 0
-0.8642959 0.37791127 0.17346963 0
-1.0558963 -0.22887325 -0.049862631 0
-0.8518827 0.3781448 0.039000075 0
-0.84986579 0.38414586 0.10465763 0
-0.8518517 0.37823701 0.17268568 0
-1.0366278 -0.23331296 -0.049798146 0
-0.83872515 0.38103187 0.038755324 0
-0.84144735 0.37258142 0.10555536 0
-0.83879232 0.38082331 0.17150635 0
-1.021034 -0.24952888 -0.050182942 0
-0.82554317 0.38457793 0.038493097 0
-0.82528466 0.38541645 0.10371758 0
-0.82772654 0.37749571 0.17147876 0
-1.0041503 -0.26233697 -0.050446805 0
-0.81567514 0.37752157 0.038632631 0
-0.81558734 0.3778196 0.10419852 0
-0.81460553 0.38115281 0.17016435 0
-0.98228234 -0.25810254 -0.050085645 0
-0.80149508 0.38544399 0.03822083 0
-0.80190861 0.38397205 0.1031566 0
-0.80348706 0.37835318 0.17009512 0
-0.96362102 -0.26488674 -0.050143085 0
-0.79137838 0.37928724 0.038337324 0
-0.79124516 0.37978554 0.10328753 0
-0.78841323 0.39037669 0.16728504 0
-0.94261152 -0.26260114 -0.049874935 0
-0.78092629 0.37410998 0.10359806 0
-0.77668536 0.39081073 0.16667581 0
-0.92458946 -0.2719382 -0.050044108 0
-0.7693333 0.37341207 0.10337183 0
-0.76851177 0.3768267 0.1687703 0
-0.90521711 -0.27588713 -0.05002385 0
-0.75463009 0.38662851 0.16647874 0
-0.88597506 -0.28039134 -0.050032835 0
-0.74732566 0.36722815 0.16961153 0
-0.86661905 -0.28437638 -0.050031729 0
-0.73204446 0.38529229 0.16586161 0
-0.84640282 -0.28379619 -0.049873654 0
-0.82751662 -0.29019177 -0.049977992 0
-0.80690736 -0.28642702 -0.04972326 0
-0.78611803 -0.28025663 -0.049391549 0
-0.76902896 -0.29954505 -0.049987148 0
-0.74941623 -0.30183613 -0.049978144 0
-0.73006111 -0.30642664 -0.050060622 0
-0.7103582 -0.30809343 -0.050046869 0
-0.68973833 -0.29892039 -0.049653627 0
-0.67036521 -0.30314612 -0.049749654 0
-0.65131068 -0.31387699 -0.050086994 0
-0.63181412 -0.32036114 -0.050280929 0
-0.61179858 -0.31590557 -0.050092757 0
-0.591847 -0.30847192 -0.049807291 0
-0.57215691 -0.30772829 -0.049769677 0
-0.55245119 -0.31936681 -0.050182983 0
-0.53277647 -0.31031513 -0.049866471 0
-0.51292408 -0.31530392 -0.050060153 0
-0.49323887 -0.31279349 -0.049994912 0
-0.47366491 -0.30900812 -0.049892902 0
-0.48591444 -0.080329187 0.053717069 0
-0.48546782 -0.088667043 0.15053697 0
-0.45350868 -0.31506002 -0.050151598 0
-0.49602464 0.3271423 0.039173957 0
-0.46957421 -0.072390802 0.14889297 0
-0.43437502 -0.30578411 -0.049870711 0
-0.48481122 0.33377123 0.038966872 0
-0.45311078 -0.068205483 0.14857234 0
-0.41455939 -0.30609691 -0.049941894 0
-0.47427553 0.34622163 0.038555905 0
-0.43595466 -0.072382577 0.14917615 0
-0.3958329 -0.29544866 -0.049628682 0
-0.46044737 0.32431358 0.039382447 0
-0.41704243 -0.092013128 0.15147388 0
-0.37558195 -0.29970384 -0.049859174 0
-0.44816965 0.32068986 0.039559234 0
-0.4414458 0.2632224 0.11323932 0
-0.4417125 0.2655018 0.18554886 0
-0.44150957 0.26376736 0.26044604 0
-0.44156903 0.26427549 0.33762947 0
-0.4408271 0.25793433 0.42135432 0
-0.35533741 -0.30262232 -0.050051097 0
-0.43522918 0.31294274 0.039890315 0
-0.42841768 0.2604602 0.1137054 0
-0.42900068 0.26495224 0.18592797 0
-0.42977485 0.27091718 0.25900227 0
-0.42963177 0.26981467 0.33628681 0
-0.428884 0.26405323 0.41944546 0
-0.43111986 0.2812804 0.49693486 0
-0.3363719 -0.29559112 -0.049893737 0
-0.4186756 0.2815277 0.041081388 0
-0.41917443 0.28502554 0.11122353 0
-0.41777375 0.27520394 0.18436921 0
-0.41972724 0.28890181 0.2548016 0
-0.41955179 0.28767169 0.33085269 0
-0.41970503 0.28874612 0.40982789 0
-0.41990852 0.29017299 0.49328315 0
-0.31801978 -0.28531694 -0.049627524 0
-0.40653363 0.28396702 0.041059155 0
-0.40549028 0.27725667 0.11226614 0
-0.40584105 0.2795127 0.18391785 0
-0.40642765 0.28328556 0.25671908 0
-0.40693152 0.28652608 0.33184862 0
-0.40412354 0.26846641 0.41908386 0
-0.40807378 0.29387277 0.49232513 0
-0.29599038 -0.29799056 -0.050199904 0
-0.39153093 0.26933652 0.041660398 0
-0.39091414 0.26567405 0.11374535 0
-0.39047033 0.26303852 0.18729393 0
-0.39197391 0.27196699 0.26015922 0
-0.39173496 0.27054811 0.33790433 0
-0.39164621 0.27002108 0.41927427 0
-0.39819315 0.3088972 0.48569459 0
-0.27452153 -0.30529404 -0.050588798 0
-0.32740071 -0.013758546 0.052010778 0
-0.31222025 -0.097452052 0.15364453 0
-0.38666359 0.31297195 0.48468009 0
-0.25724491 -0.28958082 -0.050151352 0
-0.30700114 -0.03365672 0.052843455 0
-0.37471661 0.31464201 0.48496267 0
-0.23861267 -0.28190327 -0.05001368 0
-0.29199317 -0.024670249 0.052634474 0
-0.36766973 0.34000444 0.473216 0
-0.21997677 -0.27467823 -0.049900733 0
-0.27916524 -0.0064771227 0.052095219 0
-0.35764608 0.34914356 0.46979451 0
-0.20017724 -0.27276349 -0.049990751 0
-0.21906553 -0.19201982 0.05903028 0
-0.34938109 0.3650527 0.46294895 0
-0.18023063 -0.27116597 -0.050101873 0
-0.22805493 -0.077741034 0.05498841 0
-0.006606081 -0.97338939 0.25261986 0
-0.0065865307 -0.9734683 0.41987774 0
-0.3404769 0.37694907 0.45820382 0
-0.16071026 -0.26761007 -0.050150361 0
0.34172645 -2.195214 0.13326764 0
-0.32601476 0.36658245 0.46501219 0
-0.14081721 -0.2652725 -0.05025319 0
0.3885273 -2.1961613 0.13373193 0
-0.31760311 0.3795892 0.45981234 0
-0.12421048 -0.25123954 -0.04993121 0
-0.30007395 0.35996848 0.47163579 0
-0.10398034 -0.25000405 -0.05009298 0
-0.30426732 0.41448444 0.44487742 0
-0.088495709 -0.23332322 -0.049686745 0
-0.2942588 0.41947049 0.44396871 0
-0.065265305 -0.24108505 -0.050204813 0
-0.28500539 0.42661029 0.44198805 0
-0.047800697 -0.2309072 -0.050059021 0
-0.2639178 0.39895809 0.45846432 0
-0.026925841 -0.23057139 -0.050294008 0
-0.012053885 -0.21359277 -0.049906243 0
0.0029835913 -0.19779396 -0.049568884 0
0.026515862 -0.2038399 -0.050077178 0
0.045849465 -0.19882882 -0.05017215 0
0.059669398 -0.18081701 -0.049771834 0
0.079120122 -0.17614591 -0.049897365 0
-0.19045739 0.42967558 0.37971032 0
0.10011175 -0.17460442 -0.050156217 0
0.11932292 -0.16888607 -0.050261918 0
-0.162488 0.42378086 0.38676879 0
-0.20075189 0.50425231 0.49855363 0
0.13378341 -0.15331638 -0.04998605 0
0.55113596 -1.0032721 0.45959029 0
-0.16314413 0.45138884 0.37635839 0
-0.19470103 0.51565576 0.4940258 0
0.14985873 -0.14135683 -0.049860176 0
0.58427888 -0.99861717 0.46150738 0
-0.14802299 0.44646615 0.38097709 0
-0.18687092 0.52312648 0.49213412 0
0.16815998 -0.13384092 -0.049920604 0
0.61445445 -0.98769593 0.46224666 0
-0.13245054 0.44129032 0.38583323 0
-0.18121551 0.53458792 0.48762527 0
0.18519039 -0.1238699 -0.049891196 0
0.64848024 -0.98369265 0.4644857 0
-0.12713201 0.45577133 0.38156945 0
-0.16492869 0.52591836 0.49669492 0
0.20413722 -0.11738718 -0.050012745 0
0.6794886 -0.97359943 0.46557233 0
-0.11133299 0.45084405 0.38649842 0
-0.16747136 0.5519616 0.48242071 0
0.21965285 -0.10472441 -0.049890798 0
0.71990758 -0.97964931 0.4701013 0
-0.077945568 0.41576308 0.40593895 0
-0.15266182 0.54643869 0.48958573 0
0.237745 -0.096602328 -0.049964119 0
0.75790936 -0.98033571 0.47364771 0
-0.060696162 0.41043442 0.41143131 0
-0.14571516 0.55487746 0.48732418 0
0.25748464 -0.091094501 -0.050156582 0
0.80289227 -0.99158239 0.47954839 0
-0.056579567 0.42743701 0.40626085 0
-0.13488518 0.55672246 0.48967752 0
0.27724448 -0.085356362 -0.050351296 0
0.84231573 -0.99233794 0.48338619 0
-0.1294169 0.56736541 0.48599687 0
0.2948415 -0.075981982 -0.050403915 0
0.88274652 -0.9936626 0.48748291 0
-0.11885653 0.56977326 0.48813483 0
0.30872819 -0.060899977 -0.050222423 0
0.91354042 -0.97930408 0.48833653 0
0.021637043 0.37504625 0.44190282 0
-0.11343799 0.58015698 0.484721 0
0.3216317 -0.044588212 -0.049993873 0
0.95693415 -0.98334169 0.49328759 0
0.028467974 0.38860458 0.43880436 0
-0.10513965 0.58602953 0.484557 0
0.33324209 -0.026693469 -0.049701508 0
0.99046904 -0.9719789 0.49501887 0
0.041924261 0.39230716 0.4406918 0
-0.099044837 0.59506214 0.48218423 0
0.3535929 -0.021387583 -0.049965169 0
0.056038104 0.39529008 0.44304827 0
-0.10023487 0.61412531 0.47253603 0
0.3616595 0.00099002803 -0.049486779 0
0.073859893 0.39346248 0.44798729 0
-0.090924717 0.61817932 0.47382528 0
0.38623479 0.00088321645 -0.050013125 0
1.126636 -0.98259091 0.10596219 0
1.1342466 -0.99269986 0.30826968 0
0.095881186 0.38655949 0.45571941 0
-0.084805615 0.62656564 0.47199747 0
0.40884069 0.0039372393 -0.050415896 0
0.10717931 0.39430571 0.45600629 0
-0.080560334 0.63725239 0.46848506 0
0.41270277 0.031087989 -0.049737632 0
0.12758519 0.39059919 0.46242291 0
-0.072171308 0.64247674 0.46911231 0
0.43655112 0.032926198 -0.050219718 0
-0.065767206 0.65018487 0.46792722 0
0.45102295 0.046530124 -0.050173584 0
-0.059089161 0.65748882 0.46710387 0
0.4662672 0.059187051 -0.050179984 0
-0.045705594 0.65691268 0.47249007 0
0.48250386 0.07072603 -0.050248656 0
-0.035830714 0.66067898 0.47464049 0
0.49335489 0.08831834 -0.050036971 0
1.2130551 -0.71031415 0.10041847 0
-0.033112444 0.67252553 0.47046351 0
0.51394278 0.095160477 -0.050352026 0
1.203995 -0.65145051 0.098648138 0
-0.028653363 0.68222952 0.46799532 0
0.52254134 0.11497878 -0.050045229 0
0.38324723 0.2619338 0.054816391 0
-0.017270247 0.68447864 0.47163472 0
0.54274458 0.1225531 -0.050349638 0
0.38263699 0.2872619 0.054148946 0
0.83395785 -0.17702925 0.2205261 0
-0.010134437 0.69132107 0.47163779 0
0.55297202 0.14044309 -0.050150618 0
0.39492449 0.2989887 0.05415833 0
0.8409254 -0.14841783 0.21886007 0
-0.0038369086 0.69900686 0.47100946 0
0.56145197 0.15985048 -0.049878079 0
0.41487733 0.30323029 0.054557845 0
0.74933881 -0.023940807 0.20245257 0
0.74865204 -0.023269063 0.33550197 0
0.74321991 -0.017955309 0.4701944 0
0.0067247958 0.70248622 0.47400728 0
0.56667715 0.18210125 -0.04946034 0
0.42656651 0.31574744 0.054547522 0
0.83831376 -0.077002294 0.21329209 0
0.19219626 0.53930408 0.35064855 0
0.013179145 0.71006161 0.4736391 0
0.58978695 0.18731952 -0.049933191 0
0.45901117 0.30895364 0.055557024 0
0.84172612 -0.047008399 0.21134888 0
0.19599231 0.55358684 0.34830979 0
0.014661453 0.72224218 0.46932605 0
0.60712713 0.19822454 -0.050125796 0
0.8482514 -0.02044726 0.073747009 0
0.83694905 -0.010197287 0.2082947 0
0.19209422 0.57461107 0.34262314 0
0.022798559 0.7281425 0.47051328 0
0.62167472 0.21178424 -0.050189767 0
0.83613437 0.022160167 0.072409958 0
0.84720296 0.012373323 0.20749748 0
0.84466201 0.01462006 0.34352961 0
0.21207584 0.57394916 0.34772253 0
0.026626071 0.73792279 0.46833494 0
0.63129777 0.22965252 -0.050029028 0
0.83123547 0.057305332 0.07145299 0
0.83631045 0.052930709 0.20374902 0
0.8362661 0.052968975 0.33784029 0
0.23540826 0.57091111 0.35423499 0
0.037065946 0.7418831 0.47145438 0
0.64379233 0.244964 -0.050014433 0
0.84414881 0.076606266 0.071357466 0
0.83441812 0.084782831 0.20137547 0
0.8506754 0.071122043 0.33769736 0
0.92275208 0.010556573 0.49925819 0
0.25899121 0.56830913 0.36077109 0
0.27333191 0.5562588 0.455266 0
0.037088953 0.75477165 0.46651065 0
0.65573269 0.26072019 -0.049983356 0
0.83573979 0.11328851 0.070290223 0
0.83858472 0.11095845 0.19992395 0
0.84584051 0.10501563 0.3331233 0
0.94425386 0.024411911 0.50122321 0
0.28846619 0.56152356 0.36975977 0
0.24942751 0.59349751 0.43780407 0
0.047989093 0.75848222 0.47008082 0
0.67704254 0.26897347 -0.050389696 0
0.84390146 0.13578534 0.070011817 0
0.83620566 0.1419282 0.19763242 0
0.83974332 0.13910437 0.32840267 0
0.98573869 0.022569651 0.50974917 0
0.27846476 0.58712167 0.36181754 0
0.23958643 0.61815464 0.42821661 0
0.059573434 0.76184255 0.47417012 0
0.68005878 0.29182261 -0.049969397 0
0.8547433 0.15595329 0.069870211 0
0.83691412 0.16982079 0.19583695 0
0.84117144 0.16650939 0.325546 0
0.25518414 0.62228948 0.43222967 0
0.066956781 0.76869237 0.47509527 0
0.69347662 0.30642152 -0.050031971 0
0.84913522 0.18846595 0.069004528 0
0.83659095 0.1979717 0.19396701 0
0.84293669 0.19316304 0.32287118 0
0.26003823 0.63487434 0.43065068 0
0.068857752 0.7797479 0.47199672 0
0.70734519 0.32074654 -0.05012216 0
0.84805459 0.21688211 0.068366006 0
0.8439222 0.21993244 0.19318439 0
0.83535904 0.22625327 0.31820241 0
0.29067692 0.62830961 0.44243738 0
0.076365672 0.78650314 0.47316292 0
0.71528763 0.33941388 -0.049958944 0
0.84754211 0.24433947 0.06777402 0
0.84393257 0.24693429 0.19147663 0
0.84434944 0.2466346 0.31734866 0
0.082929038 0.79400033 0.47369114 0
0.72442538 0.35710788 -0.049859535 0
0.85294086 0.26715398 0.067459963 0
0.84416097 0.27329934 0.18985726 0
0.83697206 0.27833116 0.31295595 0
0.83857423 0.27720976 0.44073713 0
0.091014586 0.80046129 0.47538528 0
0.73775834 0.37186235 -0.049951877 0
0.87933439 0.27539968 0.06806805 0
0.83877355 0.30303574 0.18756478 0
0.83693796 0.30428642 0.31029081 0
0.83831233 0.30335003 0.43689221 0
0.10788342 0.80102682 0.48342663 0
0.74288148 0.39214247 -0.049699768 0
0.91305035 0.27930897 0.068989202 0
0.83942538 0.32812732 0.18611857 0
0.83941311 0.32813549 0.30826181 0
0.83697897 0.32974941 0.43285245 0
0.11280628 0.80992484 0.48290583 0
0.763776 0.40204066 -0.050130643 0
0.9563418 0.27781856 0.070311822 0
0.8358621 0.35553879 0.18418556 0
0.83567768 0.3556577 0.30498105 0
0.835859 0.35554075 0.42901146 0
0.1359144 0.80706739 0.49530262 0
0.77255231 0.41990435 -0.050052661 0
0.99767274 0.27866369 0.071540616 0
0.84032267 0.37738526 0.18332973 0
0.83554453 0.38038301 0.30256712 0
0.84207863 0.37628353 0.42750955 0
0.13987012 0.81684947 0.49416792 0
0.78671795 0.43441981 -0.050210103 0
1.0360445 0.28233343 0.072636709 0
0.83749408 0.40344697 0.18159764 0
0.84551936 0.39855164 0.30237305 0
0.83732384 0.40355086 0.42281774 0
0.13713028 0.8306613 0.48847651 0
0.77946156 0.46176797 -0.049484894 0
1.0752976 0.28638363 0.073763154 0
0.83874756 0.42662072 0.18042953 0
0.83183175 0.43072069 0.2972675 0
0.83754021 0.42733645 0.41973749 0
0.14277609 0.83922267 0.48872921 0
0.80342108 0.4705506 -0.050065238 0
0.84490329 0.44665885 0.17991419 0
0.83742982 0.4509632 0.29629725 0
0.83845001 0.45037568 0.41697216 0
0.14609809 0.84913671 0.48746371 0
0.81335527 0.48765022 -0.050072331 0
0.84607035 0.46935254 0.17881936 0
0.83306831 0.47662461 0.29332861 0
0.84280282 0.47118008 0.41531783 0
0.15256335 0.85723305 0.48842812 0
0.81907493 0.50704712 -0.049916945 0
0.8494516 0.490556 0.17803781 0
0.84030861 0.49551958 0.29282758 0
0.82672292 0.50289512 0.40781936 0
0.82729608 0.52500612 -0.049873415 0
0.85140604 0.51230752 0.17712067 0
0.84354502 0.51644784 0.29156235 0
0.84439462 0.51600039 0.41021854 0
0.84094507 0.54016209 -0.050056852 0
0.84456116 0.53831524 0.17518072 0
0.83631998 0.54252416 0.28824028 0
0.83955675 0.54087108 0.40620118 0
0.83969563 0.54080021 0.52791739 0
0.84357649 0.56091893 -0.049807891 0
0.84948331 0.55799538 0.17470321 0
0.83330673 0.56600189 0.28585264 0
0.83526129 0.56503445 0.40245268 0
0.83804637 0.56365603 0.52401125 0
0.861911 0.57395715 -0.050192509 0
0.85801607 0.5758242 0.1746885 0
0.83417839 0.58725101 0.28431568 0
0.84832317 0.58047056 0.40372398 0
0.83598417 0.58638537 0.52008277 0
0.86266452 0.59545475 -0.049889442 0
0.89511281 0.58039981 0.17808464 0
0.84049815 0.60573924 0.28392419 0
0.83710533 0.60731339 0.39821389 0
0.83484739 0.60836101 0.51662189 0
0.88198918 0.60838777 -0.050325412 0
0.94098788 0.58191186 0.18250249 0
0.83392125 0.62995839 0.2810317 0
0.84347481 0.62567121 0.39774784 0
0.82703978 0.63304651 0.51084906 0
0.87704664 0.63218421 -0.049821023 0
0.96050566 0.5959872 0.18381096 0
0.84942538 0.64416385 0.28255579 0
0.83157879 0.65190411 0.39226925 0
0.84034687 0.64810133 0.51287776 0
0.89033324 0.64796352 -0.050036494 0
0.99903232 0.60243696 0.1873481 0
0.83573884 0.6708293 0.27839932 0
0.84539777 0.66678387 0.39402401 0
0.84020299 0.66895956 0.51011264 0
0.8985669 0.66595197 -0.050063975 0
1.0408273 0.60846359 0.19125554 0
0.84817225 0.68631679 0.27941021 0
0.84437138 0.6878528 0.39173648 0
0.83818227 0.69035381 0.50678259 0
0.90014261 0.68655813 -0.049844921 0
1.0781951 0.61720085 0.19464205 0
0.84755105 0.70704424 0.27792731 0
0.84317988 0.70874697 0.38948774 0
0.83863765 0.71051633 0.50444925 0
0.2747179 0.93018156 0.45281771 0
0.91723031 0.70118403 -0.050228301 0
0.85052961 0.7262035 0.27719519 0
0.83472449 0.73213202 0.38534212 0
0.84034294 0.73002452 0.50266153 0
0.2767261 0.9414376 0.45174512 0
0.92371505 0.7199263 -0.050214525 0
0.84834152 0.74712139 0.27552214 0
0.84087521 0.74981529 0.38525701 0
0.84280723 0.74911821 0.50123745 0
0.2638053 0.95802462 0.44281209 0
0.93450624 0.73716885 -0.050372463 0
0.85356361 0.7652266 0.27532122 0
0.83330518 0.77224892 0.38152754 0
0.84131593 0.76947206 0.49851158 0
0.83169037 0.77280867 0.61470973 0
0.26477894 0.96932131 0.44138655 0
0.93244499 0.75880682 -0.050054368 0
0.85451669 0.78472525 0.27435312 0
0.82950383 0.79304433 0.37890309 0
0.83744901 0.79040182 0.49505422 0
0.83039695 0.79274726 0.61154801 0
0.29759517 0.9699536 0.45683235 0
0.94441384 0.77574158 -0.050273489 0
0.85048348 0.80567402 0.27249172 0
0.84017891 0.80895782 0.38023576 0
0.84282368 0.80811501 0.49492991 0
0.83732802 0.80986625 0.61208218 0
0.30930409 0.9781298 0.4611364 0
0.95355421 0.79370356 -0.05039417 0
0.84360665 0.82722116 0.27015108 0
0.84000987 0.82831764 0.37872455 0
0.84861988 0.82569289 0.4950304 0
0.84387547 0.8271392 0.61254185 0
0.31442747 0.98854196 0.46203318 0
0.95568055 0.8137995 -0.050262034 0
0.8630864 0.84075743 0.27282083 0
0.83731836 0.84825957 0.37661344 0
0.84416717 0.84626561 0.49165601 0
0.83958131 0.84760076 0.60841852 0
0.32948509 0.9961108 0.46817204 0
0.94015521 0.83870089 -0.049485747 0
0.89969414 0.84993011 0.27871898 0
0.85375875 0.86267865 0.37964198 0
0.84418434 0.86533582 0.48992637 0
0.83779949 0.86710787 0.60549998 0
0.31404898 1.0124651 0.45850515 0
0.96044117 0.85358441 -0.050045948 0
0.92875105 0.86195117 0.28321069 0
0.83438569 0.8868652 0.3732582 0
0.85402411 0.88168031 0.4916651 0
0.83441478 0.88685751 0.60201013 0
0.32429996 1.0215362 0.46226975 0
0.96157855 0.87367702 -0.049906526 0
0.97094077 0.87133092 0.29015818 0
0.83948165 0.90427339 0.37341064 0
0.84475809 0.90295118 0.48691612 0
0.82847995 0.90703034 0.59754914 0
0.32864162 1.0322855 0.46303341 0
0.97553056 0.89063144 -0.050247021 0
0.97920614 0.88975942 0.29081884 0
0.84604746 0.92135137 0.37400562 0
0.8400026 0.92278552 0.48381531 0
0.83759159 0.92335755 0.59961241 0
0.32794628 1.0442711 0.46127433 0
0.97610003 0.91083276 -0.050104763 0
1.0088602 0.90349483 0.29547358 0
0.83752304 0.94187248 0.37070984 0
0.84030002 0.94125044 0.48253128 0
0.83491582 0.94245648 0.59675586 0
0.3406643 1.0531634 0.46647522 0
0.96961266 0.93242234 -0.049714703 0
1.0431262 0.91692549 0.30099791 0
0.83974034 0.95979971 0.37029102 0
0.83465976 0.96087068 0.47931093 0
0.8443194 0.95883441 0.59911996 0
0.35299727 1.0624063 0.47152284 0
0.97796375 0.95080131 -0.049875516 0
1.0805656 0.93051845 0.30712306 0
0.85137981 0.97582507 0.37238243 0
0.8411693 0.97784352 0.4803029 0
0.85003418 0.97609109 0.60000855 0
0.36023232 1.0729177 0.47401723 0
0.98680276 0.96920872 -0.05006209 0
0.85390514 0.99374604 0.37215683 0
0.8435809 0.99565226 0.47997856 0
0.83981997 0.99634665 0.59428 0
0.39348188 1.0787556 0.48980936 0
0.97636396 0.99106169 -0.04955836 0
0.84357268 1.0138543 0.36866179 0
0.8376326 1.0148739 0.47690871 0
0.83793563 1.0148218 0.59217042 0
0.38821164 1.0920135 0.48604995 0
0.99714893 1.0076027 -0.050194267 0
0.42996159 1.0976193 0.041691516 0
0.42043194 1.0991317 0.11240291 0
0.42896464 1.0977775 0.18611726 0
0.42896321 1.0977777 0.26080427 0
0.43041059 1.097548 0.33875433 0
0.42190573 1.0988978 0.41654542 0
0.38965121 1.1040168 0.48578188 0
1.0000898 1.0272021 -0.050192736 0
0.41452101 1.1125917 0.041066073 0
0.38839909 1.116401 0.10872015 0
0.4073188 1.113642 0.18182719 0
0.3950403 1.1154325 0.25156987 0
0.40183511 1.1144416 0.32850954 0
0.41091052 1.1131182 0.41115853 0
0.4022263 1.1143847 0.49122131 0
0.9959262 1.0477484 -0.049944237 0
0.39375177 1.1278298 0.04025656 0
0.44692096 1.120759 0.11488467 0
0.42629758 1.1235017 0.18497175 0
0.42405877 1.1237994 0.25860792 0
0.4132143 1.1252416 0.33176306 0
0.42792478 1.1232853 0.41755453 0
0.40522429 1.1263041 0.49188358 0
0.99542516 1.0676813 -0.04983712 0
0.37214205 1.1425959 0.039424952 0
0.4282054 1.1358573 0.11268543 0
0.43083474 1.1355413 0.18551089 0
0.42312035 1.1364685 0.25796446 0
0.43352517 1.135218 0.33805019 0
0.42294106 1.1364901 0.41482076 0
0.9999494 1.0870012 -0.049919609 0
0.35950229 1.15581 0.038923234 0
0.85505027 1.102569 0.36843699 0
0.84520119 1.1036272 0.47532514 0
0.84038061 1.1041452 0.58806491 0
0.99445683 1.1073316 -0.049651518 0
0.35812876 1.1676036 0.038832106 0
0.8517552 1.1208481 0.36713156 0
0.83565313 1.1223732 0.47153738 0
0.84513348 1.1214753 0.58930129 0
0.99604207 1.1268948 -0.049646407 0
0.36637923 1.178545 0.039091133 0
0.85753185 1.1382565 0.36820871 0
0.84582907 1.1392165 0.47441652 0
0.84993714 1.1388795 0.59064811 0
1.0026041 1.1461123 -0.049828235 0
0.37726167 1.1894888 0.039449058 0
0.84316415 1.1571717 0.36418918 0
0.82689518 1.1583003 0.46765593 0
0.83377272 1.1578232 0.58338249 0
1.0115212 1.1653278 -0.050102796 0
0.83589154 1.17529 0.36204651 0
0.84224921 1.1749294 0.47240603 0
0.83686715 1.1752347 0.58420759 0
1.0050249 1.1854199 -0.049835045 0
0.8565622 1.191967 0.36709946 0
0.83992356 1.1927007 0.47133559 0
0.83676475 1.1928401 0.58379823 0
1.0063037 1.2050815 -0.049854159 0
0.8554092 1.209833 0.36663336 0
0.83291548 1.2105414 0.46878153 0
0.83608705 1.2104415 0.58324265 0
1.0079286 1.224753 -0.049894471 0
0.84519082 1.2278271 0.36391148 0
0.84376878 1.227854 0.47224623 0
0.83499056 1.2280198 0.58260548 0
1.0127666 1.244436 -0.050058335 0
0.840635 1.2455198 0.36269239 0
0.84878057 1.2454684 0.4738397 0
0.84151381 1.2455142 0.58521503 0
1.0040973 1.2641525 -0.049748827 0
0.84855145 1.2631732 0.36471215 0
0.84861106 1.2631737 0.47378334 0
0.84529835 1.2631528 0.58678198 0
1.0149916 1.2840235 -0.050146673 0
0.85339075 1.2809709 0.36600393 0
0.83669585 1.2806555 0.46989268 0
0.84578723 1.2808273 0.58707649 0
1.010824 1.303704 -0.050015617 0
0.84923416 1.2986157 0.36505711 0
0.84328085 1.2984282 0.47223172 0
0.83930391 1.298303 0.58457518 0
1.0145117 1.3236415 -0.050174065 0
0.84859771 1.3163249 0.36506549 0
0.84370857 1.3161093 0.47259608 0
0.83828026 1.3158699 0.58442634 0
1.0130479 1.3434019 -0.050157391 0
0.83725768 1.3334306 0.36239558 0
0.834333 1.3332648 0.46976811 0
0.8328492 1.3331805 0.58254129 0
1.0089489 1.3629709 -0.050055295 0
1.3055862 1.3835469 0.072671071 0
1.306164 1.3835871 0.2067579 0
1.2973387 1.382975 0.34130475 0
0.84804827 1.3518101 0.36543825 0
0.83658761 1.3510152 0.47088829 0
0.83914441 1.3511926 0.58561188 0
1.0029672 1.3823164 -0.049894478 0
1.2449831 1.4021685 0.070563771 0
1.2466103 1.402302 0.20052765 0
1.0170108 1.3834684 0.29089791 0
0.85109192 1.3698583 0.36656016 0
0.84816736 1.3696184 0.47519705 0
0.83295649 1.3683707 0.58359396 0
1.0005755 1.401891 -0.049870934 0
1.2462907 1.4251648 0.070682548 0
1.2422835 1.4247853 0.20027713 0
0.88926619 1.391348 0.26807341 0
0.85723919 1.3883145 0.36853695 0
0.83839053 1.3865292 0.47245219 0
0.83764654 1.3864586 0.58618754 0
1.003909 1.4220673 -0.050061781 0
0.64544016 1.3835539 0.049190335 0
0.63866216 1.3828256 0.13528048 0
0.63546878 1.3824825 0.2223717 0
0.64588457 1.3836017 0.31476501 0
0.83573216 1.4039986 0.47215667 0
0.84154075 1.4046227 0.588548 0
1.0023793 1.4417977 -0.050087176 0
0.56073219 1.3887147 0.046206325 0
0.55197603 1.3876622 0.12608273 0
0.54903239 1.3873084 0.20698111 0
0.55483931 1.3880063 0.29181206 0
0.84947604 1.4234197 0.47743064 0
0.85096389 1.4235985 0.5933131 0
0.99634093 1.4609498 -0.049959175 0
0.5477311 1.4012905 0.045802221 0
0.55538374 1.4023082 0.12664373 0
0.54331356 1.4007031 0.20626125 0
0.55477613 1.4022274 0.29225174 0
0.84233063 1.4404684 0.47578448 0
0.83821863 1.4399216 0.58892649 0
1.0019773 1.4817163 -0.050260834 0
0.54714113 1.4153905 0.045850858 0
0.5520305 1.4161035 0.1264915 0
0.55769342 1.4169292 0.20923388 0
0.54655498 1.415305 0.29063496 0
0.83729941 1.4577024 0.47491825 0
0.84023458 1.4581304 0.59079409 0
0.99586385 1.5008365 -0.050147813 0
0.55249709 1.4304712 0.046120942 0
0.54783279 1.4297309 0.12626596 0
0.54656023 1.429529 0.20759092 0
0.55632538 1.4310787 0.29370514 0
0.84156901 1.4763489 0.47725636 0
0.84278041 1.4765412 0.5929836 0
0.98588938 1.5192164 -0.0499034 0
0.55689102 1.4455822 0.046363633 0
0.55365115 1.445026 0.12715077 0
0.54919988 1.444262 0.20849362 0
0.54706091 1.443895 0.29190588 0
0.83434516 1.4932051 0.47579899 0
0.84019989 1.49421 0.59312159 0
0.99520904 1.5409865 -0.050367277 0
0.5696066 1.462406 0.046915907 0
0.55213565 1.4591804 0.1272572 0
0.54902321 1.4586056 0.20891593 0
0.55734426 1.460142 0.29521585 0
0.83735794 1.5118419 0.47787321 0
0.84161323 1.5126276 0.59503502 0
0.97732955 1.5577165 -0.049852442 0
0.53716594 1.4707026 0.045833919 0
0.55140883 1.4735183 0.12746978 0
0.54648525 1.4725449 0.20893833 0
0.54260892 1.4717786 0.29208058 0
0.83816916 1.5302064 0.47928545 0
0.83933491 1.530437 0.59549296 0
0.98553604 1.5795774 -0.050295681 0
0.55050081 1.4878711 0.046423029 0
0.55488306 1.4887948 0.12816416 0
0.55646676 1.4891287 0.21130061 0
0.54926473 1.4876105 0.29455265 0
0.84551579 1.5500609 0.48300204 0
0.84188586 1.5492957 0.59809023 0
0.97547418 1.5976702 -0.050081864 0
0.55188161 1.5027901 0.046584345 0
0.55827051 1.5042212 0.12887208 0
0.54780644 1.5018773 0.21026276 0
0.54637891 1.5015576 0.2945891 0
0.82951528 1.564977 0.47885436 0
0.84121698 1.5675981 0.59942943 0
0.96270353 1.6149684 -0.049776364 0
0.54994196 1.5170406 0.046631195 0
0.5566116 1.518623 0.12904614 0
0.53976291 1.5146257 0.20936586 0
0.54883856 1.5167788 0.29607326 0
0.83276409 1.5841403 0.48134026 0
0.84566182 1.5872003 0.60304654 0
0.95929974 1.6343951 -0.049822655 0
0.55471176 1.5330088 0.046931729 0
0.54929823 1.5316522 0.12861437 0
0.54762369 1.5312326 0.21145292 0
0.55378002 1.5327754 0.29826522 0
0.84232241 1.6050816 0.48608074 0
0.84530145 1.605828 0.60472918 0
0.95506829 1.6536402 -0.049847558 0
0.5634343 1.5502423 0.047386624 0
0.56688672 1.5511538 0.13096724 0
0.54690045 1.5458771 0.21198471 0
0.55103165 1.5469677 0.29848841 0
0.84442335 1.624428 0.48836151 0
0.83779377 1.6226778 0.60345715 0
0.95038074 1.6727802 -0.049864609 0
0.56206375 1.56501 0.047477189 0
0.55213708 1.562255 0.12974899 0
0.55193824 1.5621998 0.21363108 0
0.54435879 1.5600963 0.29772046 0
0.85135227 1.6452966 0.49240121 0
0.84435278 1.6433541 0.60831583 0
0.94494635 1.6917185 -0.049862903 0
0.55266505 1.5775093 0.047276475 0
0.55628735 1.5785638 0.13065736 0
0.55123228 1.5770921 0.21424317 0
0.54188508 1.5743707 0.29810941 0
0.84789842 1.6634638 0.49294892 0
0.83723789 1.6603601 0.60740799 0
0.94221312 1.7114823 -0.049970888 0
0.85051388 1.6835276 0.3815262 0
0.8383022 1.6798049 0.49144179 0
0.83013362 1.6773146 0.60659367 0
0.93782336 1.7308013 -0.05002654 0
0.85468477 1.7043079 0.38412002 0
0.83671063 1.6985801 0.49279535 0
0.83748215 1.698826 0.61214918 0
0.93861097 1.7518871 -0.050286356 0
0.8457002 1.7209857 0.38325784 0
0.83479971 1.7173601 0.49412537 0
0.83342975 1.7169045 0.61287135 0
0.914455 1.7645237 -0.049614821 0
0.83308154 1.7363167 0.38146713 0
0.83900338 1.7383693 0.49769729 0
0.83242422 1.7360888 0.6150313 0
0.91460556 1.7854301 -0.049868785 0
0.84806722 1.7614228 0.38720769 0
0.8432886 1.7596986 0.50140768 0
0.82915181 1.754598 0.61630946 0
0.9209159 1.8088416 -0.050368834 0
0.84594268 1.780719 0.38839898 0
0.83389276 1.7761991 0.50036955 0
0.82946128 1.7745368 0.61928046 0
0.91248721 1.8268937 -0.050317898 0
0.8541463 1.804168 0.39249042 0
0.82518476 1.7928865 0.49964601 0
0.82956785 1.7945938 0.62228709 0
0.89668292 1.8419298 -0.049991425 0
0.82962328 1.8148305 0.38767815 0
0.83089286 1.8153436 0.5041669 0
0.82210046 1.8117905 0.62203938 0
0.8910014 1.8609594 -0.050062355 0
0.83420449 1.8371712 0.39092788 0
0.8317861 1.8361583 0.50707668 0
0.8261171 1.833784 0.62704229 0
0.88369817 1.8793437 -0.050079864 0
0.83593327 1.8586276 0.39348021 0
0.83016413 1.8561255 0.50918514 0
0.82229024 1.8527105 0.62865752 0
0.87491387 1.8970803 -0.050048549 0
0.82602018 1.8751391 0.39286676 0
0.8216328 1.8731703 0.5088774 0
0.81948167 1.8722049 0.63085181 0
0.85409528 1.9092125 -0.049552184 0
0.831101 1.8985438 0.39652511 0
0.82894284 1.8975426 0.51445633 0
0.81301433 1.8901522 0.63150066 0
0.85463196 1.9311967 -0.049904324 0
0.82441515 1.9167119 0.39695963 0
0.81289941 1.9111918 0.5115658 0
0.80688757 1.9083099 0.63241333 0
0.8465026 1.9491724 -0.049924448 0
0.82543439 1.9387449 0.39965522 0
0.80625051 1.9292501 0.51220822 0
0.80607301 1.9291621 0.63589108 0
0.84224433 1.9691446 -0.050108936 0
0.81520849 1.955337 0.39922592 0
0.80826634 1.9517915 0.51617634 0
0.79498106 1.9450065 0.63473499 0
0.83610064 1.9882743 -0.050228689 0
0.81312543 1.9761734 0.40120184 0
0.79956216 1.9690298 0.51624626 0
0.8005479 1.9695489 0.64145976 0
0.82223946 2.003314 -0.050045501 0
0.80843109 1.9958177 0.40250915 0
0.79323059 1.9875655 0.51729679 0
0.78805584 1.9847562 0.63986796 0
0.8119846 2.0202262 -0.050016262 0
0.78503543 2.0051537 0.39843094 0
0.79137951 2.0087018 0.52015132 0
0.79364794 2.0099704 0.64693445 0
0.80969614 2.0417066 -0.050323766 0
0.78266948 2.0261407 0.40054911 0
0.79098707 2.0309312 0.5236885 0
0.7831642 2.0264256 0.64652258 0
0.781542 2.0481086 -0.049571238 0
0.78158313 2.0481329 0.40314078 0
0.78517383 2.0502615 0.52526343 0
0.77376014 2.0434952 0.64672661 0
0.790286 2.0763998 -0.050359312 0
0.77694267 2.0682604 0.40477273 0
0.77698189 2.0682845 0.52601808 0
0.77039164 2.0642643 0.6499632 0
0.78093523 2.0939982 -0.050405968 0
0.76548034 2.0843017 0.40443897 0
0.77000409 2.0871401 0.52734429 0
0.76357645 2.0831072 0.65166819 0
0.7627452 2.1059375 -0.050086848 0
0.76483411 2.107285 0.40744752 0
0.75671333 2.1020465 0.52627558 0
0.76083964 2.1047082 0.65551299 0
0.73939186 2.1141868 -0.049550287 0
0.74327534 2.1167619 0.40416768 0
0.75278014 2.1230643 0.52900797 0
0.7479313 2.119849 0.65447152 0
0.73812157 2.1370282 -0.049967572 0
0.74190515 2.1396062 0.40712896 0
0.73575717 2.1354172 0.5266003 0
0.7403751 2.1385636 0.65619767 0
0.72911578 2.1548183 -0.050063934 0
0.72989839 2.1553662 0.40689325 0
0.74049205 2.162781 0.53306997 0
0.73793858 2.1609938 0.66064501 0
0.71350855 2.1679504 -0.049880717 0
0.72533292 2.1764505 0.40905562 0
0.72167975 2.1738243 0.53009087 0
0.72339219 2.1750555 0.65910119 0
0.70946604 2.1894619 -0.050216269 0
0.71304339 2.1921027 0.4088726 0
0.71178085 2.1911707 0.53082693 0
0.70673972 2.1874497 0.65654981 0
0.69304067 2.2018912 -0.050012439 0
0.70046133 2.2075145 0.40865698 0
0.70520097 2.2111061 0.53304631 0
0.70356399 2.2098656 0.66105568 0
0.68671519 2.2219977 -0.050270461 0
0.68878764 2.2236099 0.4087953 0
0.69332904 2.2271421 0.5331623 0
0.69102877 2.225353 0.66084391 0
0.66338378 2.2287672 -0.049765762 0
0.68316251 2.2445545 0.41097534 0
0.67840582 2.2407579 0.53206617 0
0.6766122 2.2393262 0.6597361 0
0.65197986 2.2448492 -0.049810167 0
0.67920429 2.2671468 0.41381422 0
0.67444128 2.2632458 0.53574467 0
0.66918391 2.25894 0.66245049 0
0.6420967 2.2622542 -0.04993536 0
0.65792495 2.2755547 0.41100544 0
0.66891795 2.2847919 0.53890735 0
0.66263562 2.2795129 0.6658026 0
0.63016599 2.2780149 -0.049975682 0
0.7225849 2.3576806 0.066331804 0
0.71050733 2.3472695 0.18589932 0
0.71563941 2.3516934 0.30911851 0
0.65276986 2.2974997 0.41363272 0
0.6538592 2.2984385 0.53803468 0
0.65528744 2.2996697 0.66889477 0
0.61457616 2.2905824 -0.049851485 0
0.68806678 2.3555624 0.065353721 0
0.67884451 2.3474081 0.18334571 0
0.68503755 2.3528841 0.30510211 0
0.63971037 2.3128059 0.41369101 0
0.64335519 2.3160286 0.53925091 0
0.6385017 2.3117373 0.66694528 0
0.59945029 2.3034565 -0.049755808 0
0.66353816 2.3615768 0.064844586 0
0.65635818 2.3550653 0.18209438 0
0.65806895 2.356617 0.30192783 0
0.62428457 2.3259785 0.41300106 0
0.63348538 2.3343225 0.54086488 0
0.62451369 2.3261862 0.66662163 0
0.58823985 2.3198845 -0.049857762 0
0.63860613 2.3667302 0.064313449 0
0.63957518 2.3676317 0.18167947 0
0.64215547 2.3700314 0.30145052 0
0.60981506 2.3399518 0.41269362 0
0.60301715 2.3336289 0.533243 0
0.60871941 2.3389328 0.66537511 0
0.57662505 2.3360307 -0.049951147 0
0.61769229 2.3752031 0.063977338 0
0.62333411 2.3805847 0.18136337 0
0.62602502 2.3831515 0.30095524 0
0.59831113 2.3567162 0.41348976 0
0.59729403 2.355746 0.53690219 0
0.60371894 2.3618746 0.67038095 0
0.56673545 2.3539608 -0.050141942 0
0.60893255 2.3952382 0.064249352 0
0.60820538 2.394527 0.18123497 0
0.61711508 2.4032423 0.3023169 0
0.59020656 2.3769205 0.41558388 0
0.58420545 2.3710501 0.53730768 0
0.58734781 2.3741241 0.6690293 0
0.54992181 2.3651402 -0.049996372 0
0.59766632 2.4130352 0.064410761 0
0.60022062 2.4155974 0.18221898 0
0.60932904 2.4247346 0.30404717 0
0.57232553 2.3876145 0.41426298 0
0.56741196 2.3826854 0.53606266 0
0.57764655 2.3929522 0.67166197 0
0.52401406 2.3668213 -0.049390264 0
0.59375721 2.4385686 0.064962499 0
0.60671729 2.4519012 0.18548925 0
0.61140543 2.4567242 0.30842143 0
0.56007248 2.4039159 0.41503382 0
0.56327659 2.407212 0.54091269 0
0.55502468 2.3987231 0.666794 0
0.52569693 2.3969934 -0.050208993 0
0.60995513 2.4858856 0.066581674 0
0.60738903 2.4831784 0.18796425 0
0.60815781 2.4839895 0.31156334 0
0.54816598 2.4206982 0.4160192 0
0.54994065 2.4225705 0.5415265 0
0.54896706 2.4215434 0.67187363 0
0.51080304 2.4100857 -0.050186884 0
0.53012878 2.4309955 0.41479251 0
0.52992541 2.4307754 0.53896892 0
0.5387581 2.4403319 0.67466468 0
0.49601015 2.4232712 -0.050178576 0
0.52071434 2.4506848 0.41688386 0
0.51431519 2.4435837 0.53861552 0
0.51790076 2.4475627 0.67105454 0
0.47609112 2.4306183 -0.049901791 0
0.49907169 2.456774 0.41437382 0
0.50186616 2.4599547 0.53993124 0
0.50054842 2.4584548 0.66964763 0
0.46839032 2.4519348 -0.0502965 0
0.4887273 2.475678 0.41628757 0
0.49014196 2.4773295 0.54174167 0
0.48690042 2.4735451 0.67066425 0
0.44528112 2.455236 -0.049853738 0
0.47457632 2.4903226 0.41680917 0
0.4651092 2.4789839 0.53678405 0
0.46354994 2.4771166 0.66555041 0
0.43323997 2.471648 -0.050032433 0
0.46090028 2.5056376 0.41760489 0
0.45384261 2.4969649 0.53901601 0
0.45297632 2.4959004 0.66876704 0
0.41951147 2.4861405 -0.050128825 0
0.43487725 2.5055153 0.41342232 0
0.44283172 2.5155454 0.5415408 0
0.44607136 2.5196304 0.67463601 0
0.40767762 2.5032008 -0.050347991 0
0.42527518 2.5259731 0.41602203 0
0.42280135 2.5227718 0.53932595 0
0.42449895 2.5249686 0.67087048 0
0.38349018 2.5041142 -0.049850207 0
0.40803286 2.5367143 0.41553304 0
0.40745363 2.5359449 0.53971386 0
0.40895286 2.5379362 0.67123586 0
0.36592147 2.5134652 -0.049744088 0
0.39285156 2.5501897 0.41598263 0
0.39597562 2.55445 0.54237819 0
0.39094904 2.5475953 0.67000014 0
0.3557916 2.5331097 -0.050100245 0
0.37995955 2.5669529 0.41751915 0
0.37524399 2.5603495 0.53992462 0
0.37049696 2.5537021 0.66708404 0
0.33540741 2.538451 -0.04983693 0
0.36025646 2.5741911 0.41613314 0
0.35941407 2.5729795 0.54032588 0
0.36203608 2.5767508 0.67286712 0
0.32109591 2.5524397 -0.049959742 0
0.34073481 2.581459 0.41484481 0
0.34096989 2.5818064 0.53927636 0
0.34304753 2.5848763 0.67119414 0
0.30414888 2.5625894 -0.049925175 0
0.32343242 2.5918715 0.41460314 0
0.32720485 2.5976 0.54110366 0
0.32483241 2.5939975 0.67014742 0
0.28383788 2.5674491 -0.04967567 0
0.3027254 2.5969312 0.41280788 0
0.3122355 2.6117759 0.542346 0
0.30297628 2.5973229 0.66637266 0
0.27061751 2.5833626 -0.049903877 0
0.28786001 2.6110382 0.41382489 0
0.28477773 2.6060908 0.53586763 0
0.2881386 2.6114855 0.66804868 0
0.25646511 2.5980542 -0.050086323 0
0.27061823 2.6214216 0.41377956 0
0.2751756 2.6289458 0.54067439 0
0.27174821 2.6232872 0.66865999 0
0.24159254 2.6117821 -0.05023491 0
0.2502366 2.6264679 0.41221908 0
0.24785914 2.6224287 0.53415352 0
0.25071278 2.6272771 0.66561323 0
0.22025396 2.6144187 -0.049934033 0
0.24132605 2.651273 0.41655236 0
0.23629071 2.6424663 0.53798854 0
0.23620768 2.6423211 0.66798735 0
0.20209511 2.6223519 -0.049862545 0
0.21804942 2.6510892 0.41359627 0
0.22301914 2.6600406 0.54091507 0
0.22065945 2.6557903 0.6696859 0
0.17751493 2.618268 -0.049313504 0
0.19846459 2.6571486 0.41255477 0
0.19691433 2.6542716 0.53506333 0
0.19890483 2.6579657 0.66615361 0
0.17206182 2.6499491 -0.050221324 0
0.17534353 2.6562276 0.40958178 0
0.18153138 2.6680663 0.53671801 0
0.18048604 2.6660664 0.66554111 0
0.15393032 2.6580346 -0.050181754 0
0.15981252 2.6696422 0.41081151 0
0.16353287 2.6769836 0.53661561 0
0.16292967 2.6757934 0.66579545 0
0.13696004 2.6684287 -0.050243355 0
0.13800867 2.6705644 0.40853873 0
0.14533074 2.6854761 0.53644049 0
0.14396371 2.6826921 0.664846 0
0.11858471 2.6759765 -0.050200544 0
0.12284704 2.6849406 0.41015813 0
0.12397566 2.687314 0.53389978 0
0.12362041 2.6865671 0.66262573 0
0.09713199 2.6767719 -0.049901724 0
0.10202011 2.6873949 0.40847376 0
0.10179736 2.6869106 0.53065163 0
0.10517385 2.6942484 0.66227019 0
0.080602132 2.6881194 -0.050027512 0
0.087951146 2.7046349 0.41100121 0
0.083383702 2.6943707 0.53038704 0
0.087934278 2.704597 0.66323096 0
0.060054325 2.6903553 -0.049806625 0
