# .PCD v0.7 - Point Cloud Data file format
VERSION 0.7
FIELDS x y z intensity
SIZE 4 4 4 4
TYPE F F F F
COUNT 1 1 1 1
WIDTH 1358
HEIGHT 1
VIEWPOINT 0 0 0 1 0 0 0
POINTS 1358
DATA ascii
-1.2870084 0.34614861 0.30321473 0
-1.2468097 0.39618617 0.37221643 0
-1.2397979 0.40491402 0.45711884 0
-1.2434987 0.40030742 0.55410933 0
-1.2344989 0.41151011 0.64714605 0
-1.5232723 0.020558113 -0.049939122 0
-1.2775283 0.33446312 0.047706597 0
-1.2761652 0.33620423 0.13130906 0
-1.2772142 0.33486432 0.21659322 0
-1.2757206 0.3367722 0.30329958 0
-1.2504225 0.36908722 0.38002732 0
-1.2440698 0.37720191 0.46720794 0
-1.2422061 0.37958252 0.56183225 0
-1.2347013 0.38916898 0.65760189 0
-1.505641 0.011142964 -0.0498202 0
-1.2713927 0.31825334 0.048030585 0
-1.2789009 0.30840981 0.13385245 0
-1.2730391 0.31609482 0.21881135 0
-1.269408 0.32085532 0.3055281 0
-1.2463162 0.35112977 0.38391939 0
-1.2466865 0.35064429 0.47657126 0
-1.2400401 0.35935813 0.56917673 0
-1.2381666 0.36181432 0.67169535 0
-1.4943545 -0.0066758445 -0.050086088 0
-1.274359 0.28940666 0.048917063 0
-1.2687571 0.29694593 0.13418105 0
-1.2730997 0.29110157 0.22241908 0
-1.2692269 0.2963137 0.31050268 0
-1.2515012 0.32016993 0.393186 0
-1.2355859 0.34158963 0.47680205 0
-1.237162 0.33946842 0.57626122 0
-1.2361342 0.34085172 0.68090254 0
-1.4792122 -0.019491797 -0.050135382 0
-1.2822453 0.25269055 0.050140645 0
-1.2724935 0.26616633 0.13708609 0
-1.2744406 0.26347548 0.22658004 0
-1.2747936 0.26298767 0.31819931 0
-1.247208 0.30110741 0.39745575 0
-1.2329428 0.32082003 0.48308975 0
-1.2408924 0.30983484 0.58932185 0
-1.2403454 0.31059068 0.69685191 0
-1.4610474 -0.028084164 -0.050008152 0
-1.174294 0.37886339 0.04423501 0
-1.1701643 0.38472408 0.12032588 0
-1.1793979 0.37162018 0.20074604 0
-1.3252288 0.16466355 0.34609252 0
-1.2416283 0.28330564 0.40119681 0
-1.2375673 0.2890687 0.49490112 0
-1.2350358 0.29266137 0.5946117 0
-1.4402193 -0.032640699 -0.049717229 0
-1.1565703 0.38086236 0.043815196 0
-1.1550461 0.3830843 0.11954307 0
-1.1545732 0.38377362 0.19639058 0
-1.3208848 0.14132476 0.35034889 0
-1.2365121 0.26432335 0.40541044 0
-1.2369708 0.26365465 0.50339967 0
-1.2463002 0.25005412 0.61533278 0
-1.4277169 -0.049304489 -0.049959764 0
-1.1345251 0.38986379 0.043107923 0
-1.138734 0.38355941 0.11851824 0
-1.1366581 0.38666892 0.19414723 0
-1.3014684 0.13980162 0.34789425 0
-1.242416 0.22825539 0.41644931 0
-1.2386836 0.23384607 0.51401854 0
-1.2428645 0.22758353 0.62368065 0
-1.4068174 -0.053360585 -0.049670327 0
-1.1271384 0.37721038 0.043340169 0
-1.1246523 0.38103771 0.11791223 0
-1.1260526 0.37888193 0.19426817 0
-1.2869455 0.13118458 0.34769246 0
-1.2373252 0.2075758 0.42126384 0
-1.2365686 0.20874059 0.52221829 0
-1.242214 0.2000494 0.63500744 0
-1.3895352 -0.062765487 -0.049620219 0
-1.1066401 0.3849991 0.042711247 0
-1.1083211 0.3823384 0.11684774 0
-1.1082971 0.38237631 0.1920101 0
-1.2658118 0.1330632 0.34438026 0
-1.24116 0.17208183 0.43189543 0
-1.2366574 0.17920852 0.53253406 0
-1.2390399 0.17543757 0.64451993 0
-1.3794998 -0.083905466 -0.050071351 0
-1.0927367 0.38289589 0.042512503 0
-1.0919541 0.38417 0.11575053 0
-1.0910652 0.3856169 0.18987067 0
-1.2588253 0.11253213 0.34788364 0
-1.2389063 0.14495695 0.4391585 0
-1.2416655 0.14046538 0.54724574 0
-1.2384768 0.14565611 0.65701836 0
-1.3592103 -0.088499196 -0.049836364 0
-1.077935 0.38256699 0.042248774 0
-1.0789063 0.38094032 0.11532096 0
-1.0786523 0.3813656 0.18936671 0
-1.2518191 0.091354243 0.35157925 0
-1.2374614 0.11539971 0.44732067 0
-1.2420957 0.10763859 0.5589636 0
-1.2394654 0.11204373 0.67165971 0
-1.3458105 -0.10464466 -0.050090458 0
-1.0551931 0.39629096 0.041414663 0
-1.0628829 0.38303596 0.11425335 0
-1.0634944 0.38198185 0.18788423 0
-1.248448 0.063178413 0.35733816 0
-1.24115 0.075757973 0.45930928 0
-1.2402807 0.077256434 0.5694235 0
-1.2382737 0.080715887 0.68486589 0
-1.3274162 -0.11229707 -0.050001662 0
-1.0449214 0.38907701 0.041456223 0
-1.0459907 0.3871792 0.11296569 0
-1.0492468 0.38140035 0.18669982 0
-1.2521152 0.021347517 0.36706766 0
-1.2390945 0.044456836 0.46801037 0
-1.2398232 0.043163653 0.58158368 0
-1.3068371 -0.11583138 -0.049755361 0
-1.0332946 0.38427556 0.041404609 0
-1.0338537 0.3832534 0.11270143 0
-1.0354675 0.38030279 0.18566664 0
-1.253948 -0.019136434 0.37632519 0
-1.2363839 0.01297521 0.47672996 0
-1.2412537 0.0040719458 0.59602237 0
-1.2946336 -0.13478351 -0.050144359 0
-1.0184351 0.3856383 0.041110136 0
-1.0222882 0.37837833 0.11257308 0
-1.0170723 0.3882063 0.1828381 0
-1.2431862 -0.037844662 0.37922481 0
-1.240164 -0.032150153 0.49054331 0
-1.2401361 -0.032097582 0.60898662 0
-1.2753857 -0.14065504 -0.050011821 0
-1.0071716 0.3804642 0.041087575 0
-1.0088036 0.37729335 0.11200511 0
-1.0069193 0.38095456 0.18314897 0
-1.2440479 -0.07976795 0.38880607 0
-1.2348106 -0.061820511 0.4984667 0
-1.239356 -0.070652016 0.62298429 0
-1.2579432 -0.14994299 -0.050026119 0
-0.99073845 0.38568413 0.040656138 0
-0.98928219 0.38860333 0.10997254 0
-0.99771893 0.37169135 0.18388915 0
-1.2387527 -0.11147464 0.39541131 0
-1.2419648 -0.11791349 0.51618934 0
-1.2361673 -0.10629214 0.63555044 0
-1.2396468 -0.15749443 -0.049980205 0
-0.97733641 0.38532645 0.040456705 0
-0.97572875 0.3886534 0.10932571 0
-0.97823721 0.38346237 0.18043493 0
-1.2387869 -0.15571499 0.40554699 0
-1.2397736 -0.15775704 0.52776694 0
-1.2176327 -0.15702975 -0.049627721 0
-0.96757948 0.37750405 0.040559337 0
-0.96642286 0.37997657 0.10973839 0
-0.96221697 0.38896745 0.17829755 0
-1.2378718 -0.20029438 0.4157185 0
-1.2398527 -0.20452881 0.54183143 0
-1.2037815 -0.17400753 -0.049971651 0
-0.95869654 0.36757016 0.040748954 0
-0.94971228 0.38742316 0.10826065 0
-0.95337981 0.37931883 0.17921214 0
-1.2410424 -0.25634491 0.42904785 0
-1.2387069 -0.25118423 0.5557732 0
-1.1845803 -0.1793685 -0.049867824 0
-0.93831092 0.38359243 0.039930448 0
-0.93758279 0.38525683 0.1079434 0
-0.94392765 0.37075281 0.17993057 0
-1.2402444 -0.30661404 0.44068289 0
-1.2431113 -0.31316745 0.57520968 0
-1.1640972 -0.18151557 -0.04964938 0
-0.92523146 0.38380158 0.039739132 0
-0.92335635 0.38823938 0.10704499 0
-0.92714781 0.37926614 0.17732462 0
-1.2378683 -0.35610747 0.45204413 0
-1.1492602 -0.19710898 -0.049960457 0
-0.91325843 0.38164985 0.039646193 0
-0.9125095 0.38348651 0.10706981 0
-0.91235816 0.38385761 0.17553715 0
-1.2398987 -0.41938615 0.46715367 0
-1.134079 -0.21243501 -0.050266925 0
-0.90241069 0.37680995 0.039662629 0
-0.90078586 0.38094264 0.10685521 0
-0.89956415 0.38405007 0.17464714 0
-1.2400982 -0.48209345 0.48202497 0
-1.11613 -0.2210716 -0.050323874 0
-0.88676625 0.38459837 0.03920212 0
-0.8891781 0.3782295 0.10667811 0
-0.88786811 0.38168877 0.17428499 0
-1.2389855 -0.54549062 0.49701303 0
-1.0930027 -0.21562278 -0.049853969 0
-0.87219083 0.39039624 0.038826864 0
-0.87547922 0.38137114 0.10584889 0
-0.87502956 0.38260537 0.17332366 0
-1.0759877 -0.22663617 -0.050019879 0
-0.86455065 0.37718379 0.03917931 0
-0.86319745 0.3810482 0.10543751 0
-0.86729425 0.3693487 0.17510583 0
-1.0572208 -0.23281407 -0.050011057 0
-0.85354644 0.37319458 0.039186522 0
-0.8479563 0.38982731 0.10401348 0
-0.85368669 0.37277722 0.17372447 0
-1.0407946 -0.24624789 -0.050283309 0
-0.84189081 0.37120479 0.039123915 0
-0.84261137 0.36896789 0.10596336 0
-0.83861732 0.38136655 0.17140342 0
-1.0207444 -0.24858963 -0.050147854 0
-0.82341808 0.39147103 0.038235575 0
-0.82935542 0.37221235 0.10520253 0
-0.8274821 0.37828869 0.17132911 0
-1.0000163 -0.24830258 -0.049924474 0
-0.81191272 0.39029479 0.038157243 0
-0.81447405 0.38159913 0.10377508 0
-0.81294674 0.38678414 0.16910559 0
-0.98335981 -0.2619381 -0.050227877 0
-0.80126947 0.38624704 0.03819105 0
-0.80028546 0.38974988 0.10251162 0
-0.80177718 0.38443971 0.16895492 0
-0.96443248 -0.26792145 -0.050255235 0
-0.79106522 0.38045835 0.10321268 0
-0.78874445 0.38913798 0.16751628 0
-0.94253045 -0.26228189 -0.049863175 0
-0.78194624 0.37009358 0.038570005 0
-0.78029734 0.37658674 0.10332344 0
-0.92497981 -0.27356076 -0.05010369 0
-0.76938128 0.37321246 0.10339389 0
-0.76698744 0.38316298 0.16759497 0
-0.90509069 -0.2753309 -0.050003484 0
-0.75700605 0.37617517 0.16841207 0
-0.88724446 -0.28632069 -0.05024932 0
-0.74487424 0.37867862 0.16749966 0
-0.86814559 -0.29197276 -0.050308354 0
-0.84822243 -0.29348063 -0.050225455 0
-0.82670826 -0.28556979 -0.049810473 0
-0.80880469 -0.29814386 -0.050147012 0
-0.78858238 -0.29679167 -0.049988389 0
-0.76841062 -0.29500461 -0.049823552 0
-0.75064939 -0.31183028 -0.050337654 0
-0.72944552 -0.30086172 -0.049860738 0
-0.71042258 -0.30875063 -0.050070446 0
-0.6898452 -0.30017459 -0.049698565 0
-0.6707443 -0.30837286 -0.049936745 0
-0.65117401 -0.3115952 -0.050005384 0
-0.63162023 -0.31625819 -0.050134283 0
-0.6119262 -0.31959033 -0.050224382 0
-0.59187663 -0.309816 -0.049855288 0
-0.57220685 -0.31302273 -0.049958706 0
-0.55245799 -0.31720114 -0.050105665 0
-0.53273273 -0.31309378 -0.04996568 0
-0.51285869 -0.31761134 -0.050142564 0
-0.492744 -0.32487905 -0.050426744 0
-0.47343203 -0.3133558 -0.050048344 0
-0.4534702 -0.31564128 -0.050172392 0
-0.49579853 0.32372677 0.039296161 0
-0.43406627 -0.30969942 -0.050010927 0
-0.48504078 0.33668202 0.038862631 0
-0.41340578 -0.31869864 -0.050393675 0
-0.47525361 0.35690582 0.038172871 0
-0.394187 -0.31123555 -0.050195348 0
-0.4620547 0.33973068 0.038829051 0
-0.37488896 -0.30562651 -0.050072066 0
-0.44900954 0.32786804 0.039301213 0
-0.44138175 0.26267493 0.11329855 0
-0.44238192 0.27122307 0.18450999 0
-0.44060588 0.25604367 0.26243007 0
-0.44170871 0.26546937 0.33722958 0
-0.44266221 0.2736187 0.41481611 0
-0.3569988 -0.28982127 -0.049590252 0
-0.43379495 0.30189192 0.040288154 0
-0.42849973 0.26109248 0.11363687 0
-0.42848331 0.26096588 0.18665294 0
-0.4286724 0.2624228 0.26118761 0
-0.42904985 0.26533109 0.337791 0
-0.42954466 0.26914358 0.41732016 0
-0.4310393 0.28065985 0.49724796 0
-0.33768675 -0.28637123 -0.049561247 0
-0.42019325 0.29216969 0.040697612 0
-0.41941282 0.28669721 0.11104206 0
-0.41895285 0.28347176 0.18286303 0
-0.41945228 0.28697383 0.25529847 0
-0.41845542 0.27998388 0.33343622 0
-0.42046776 0.2940945 0.40759104 0
-0.42075807 0.29613012 0.4902724 0
-0.31634834 -0.29606688 -0.050015923 0
-0.40666658 0.28482205 0.041028261 0
-0.40610307 0.28119785 0.11183748 0
-0.40684456 0.28596675 0.18273988 0
-0.40644687 0.28340906 0.25668719 0
-0.40657994 0.28426486 0.33260995 0
-0.40641877 0.2832284 0.41289845 0
-0.40853253 0.29682308 0.49083123 0
-0.29861915 -0.28238058 -0.049634762 0
-0.39090428 0.26561546 0.041795116 0
-0.39169475 0.27030927 0.11324019 0
-0.39142844 0.2687279 0.18625343 0
-0.39121825 0.26747966 0.2613202 0
-0.38999233 0.26020008 0.34139556 0
-0.39115724 0.26711744 0.42049342 0
-0.39919418 0.31484139 0.48267859 0
-0.27662468 -0.29369903 -0.050168082 0
0.067510389 -2.1909981 0.13100933 0
-0.38353348 0.29571491 0.49345535 0
-0.2575447 -0.28803885 -0.050095271 0
0.11511191 -2.2048213 0.13180818 0
-0.37594715 0.32097137 0.48173654 0
-0.23857255 -0.28209662 -0.050020728 0
0.15918393 -2.1988285 0.13190842 0
-0.36725384 0.3380003 0.47424009 0
-0.22047953 -0.27240002 -0.049817443 0
0.20287569 -2.1907518 0.13195302 0
-0.35785776 0.35010272 0.46930304 0
-0.20089598 -0.26969099 -0.049878102 0
0.25022694 -2.1981499 0.13258527 0
-0.34898812 0.36337286 0.46381211 0
-0.18091242 -0.26840854 -0.050000463 0
0.29689148 -2.2008832 0.13306983 0
-0.0063538342 -0.97440958 0.25273281 0
-0.0030299213 -0.98785305 0.42255008 0
-0.33734286 0.36427337 0.46473694 0
-0.16086991 -0.26699758 -0.05012776 0
0.34183916 -2.1956465 0.1332836 0
-0.32572865 0.36548489 0.46557972 0
-0.14149104 -0.26281452 -0.050162204 0
0.39180794 -2.208128 0.13417491 0
-0.31812257 0.38148397 0.45882931 0
-0.12615494 -0.24448156 -0.049680155 0
-0.29887077 0.35578686 0.47381294 0
-0.1037334 -0.25082338 -0.050123528 0
-0.30150935 0.40533441 0.44965899 0
-0.086982407 -0.23812425 -0.04986646 0
-0.29365283 0.41754806 0.44497722 0
-0.065133758 -0.24148476 -0.050219838 0
-0.28561705 0.42846894 0.44100904 0
-0.049885549 -0.22483099 -0.049829677 0
-0.26104209 0.3905769 0.46289775 0
-0.026324132 -0.23225558 -0.05035786 0
-0.0099124694 -0.21935678 -0.050125767 0
0.010244927 -0.21660995 -0.050288923 0
0.025108477 -0.20032549 -0.04994202 0
0.043133043 -0.1922853 -0.049919207 0
0.06168624 -0.18550754 -0.04995412 0
0.081159197 -0.18072844 -0.050076436 0
-0.1901053 0.42888433 0.38006887 0
0.097840033 -0.1696676 -0.0499622 0
0.11648371 -0.16291487 -0.050025869 0
-0.16492002 0.42889559 0.38442391 0
-0.20340358 0.50982898 0.49489158 0
0.13105853 -0.14776707 -0.049765341 0
0.55114013 -1.0032804 0.45959198 0
-0.15940861 0.44378132 0.37986743 0
-0.1914586 0.50905246 0.49838853 0
0.1526825 -0.14692903 -0.050083198 0
0.58541566 -1.0008605 0.46196094 0
-0.1477202 0.44586867 0.38125443 0
-0.18638726 0.52217203 0.4927687 0
0.16696699 -0.13155842 -0.049828656 0
0.60976523 -0.97872472 0.460421 0
-0.13632993 0.44871241 0.38236576 0
-0.17637156 0.52532047 0.49382681 0
0.18524171 -0.12396515 -0.049895056 0
0.64304346 -0.97360253 0.46241862 0
-0.1223732 0.44693941 0.38572323 0
-0.17449413 0.54367095 0.48473579 0
0.20181985 -0.11321307 -0.049842302 0
0.68218046 -0.97844815 0.46657252 0
-0.11369375 0.4550963 0.38448468 0
-0.16519736 0.54786563 0.48519903 0
0.22289588 -0.11039627 -0.050124053 0
0.7205655 -0.98080015 0.4703404 0
-0.082130678 0.42308271 0.40244797 0
-0.16041331 0.55999577 0.4803243 0
0.23566599 -0.093070276 -0.049817793 0
0.25117543 -0.11941994 0.062909372 0
0.75844473 -0.98124528 0.47383803 0
-0.054390408 0.39972126 0.41657826 0
-0.15074851 0.56342888 0.48143953 0
0.25176153 -0.081645377 -0.049762186 0
0.27749947 -0.12413967 0.063535862 0
0.24074318 -0.063453682 0.17157163 0
0.80011994 -0.98700523 0.47858331 0
-0.062738009 0.43760484 0.40133902 0
-0.13496201 0.5568493 0.48958957 0
0.2707397 -0.074915774 -0.049912129 0
0.31164488 -0.14057159 0.064673834 0
0.24683721 -0.036550526 0.16945086 0
0.84149903 -0.99102712 0.48310766 0
-0.13349368 0.57390898 0.48142469 0
0.28868309 -0.066369064 -0.049996335 0
0.34829423 -0.15941799 0.065941542 0
0.25755158 -0.017774826 0.16835999 0
0.88604885 -0.99881744 0.48858699 0
-0.11609391 0.56546104 0.49117199 0
0.30743912 -0.05894256 -0.050138749 0
0.26849696 0.00019084891 0.059610944 0
0.27126065 -0.0040057949 0.1679216 0
0.906941 -0.9692831 0.48617253 0
0.024670562 0.37043989 0.44418645 0
-0.11236952 0.57853448 0.48587313 0
0.32390836 -0.047952417 -0.050138894 0
0.28822407 0.0047764727 0.05986584 0
0.29116127 0.00043630085 0.16871208 0
0.95694596 -0.9833591 0.49329135 0
0.036636971 0.37653363 0.44483906 0
-0.10220847 0.5816983 0.48765856 0
0.34141508 -0.038448576 -0.050212651 0
0.43961576 -0.17969 0.06835416 0
0.32389209 -0.01324535 0.17191443 0
0.99564356 -0.97942114 0.49665365 0
0.044910155 0.38801259 0.44285744 0
-0.099537887 0.59577125 0.48167202 0
0.35281125 -0.020293003 -0.04991715 0
0.32647923 0.016580695 0.060299508 0
0.38122436 -0.060081009 0.17957817 0
0.05997058 0.38978332 0.44584993 0
-0.097430952 0.61019886 0.47539738 0
0.37159583 -0.012560254 -0.050086666 0
0.34001753 0.030503148 0.060180195 0
0.069507264 0.39939809 0.44493976 0
-0.090341158 0.61738354 0.4744105 0
0.39047113 -0.0047439388 -0.050264586 0
0.41096392 -0.031964425 0.063481003 0
1.1271896 -0.9833262 0.30700874 0
0.095260046 0.38738465 0.45529178 0
-0.088032611 0.63085204 0.46881554 0
0.39263555 0.024907583 -0.049469735 0
0.43945739 -0.035682682 0.064203501 0
0.10790177 0.39337075 0.45649549 0
-0.07687787 0.63248706 0.47205663 0
0.40864965 0.036198612 -0.049504761 0
0.46337876 -0.032810453 0.064649217 0
0.12618174 0.39236885 0.46148777 0
-0.070151396 0.63992983 0.4710401 0
0.42912796 0.042047974 -0.049799856 0
0.48392972 -0.025293475 0.064899519 0
-0.064634718 0.64879322 0.46899125 0
0.4509463 0.046621915 -0.050169315 0
0.52729863 -0.044824842 0.066422448 0
-0.058207817 0.65643322 0.46791938 0
0.46487114 0.060817 -0.050103366 0
-0.041044392 0.65147078 0.47673944 0
0.4743273 0.080032341 -0.04980639 0
-0.042966701 0.66880095 0.46822879 0
0.49352404 0.088130705 -0.050045989 0
1.2061827 -0.70268798 0.10005196 0
-0.032751836 0.67212534 0.470783 0
0.50822896 0.10134255 -0.050051488 0
1.2058932 -0.65350425 0.098747984 0
-0.029085616 0.68269724 0.4676176 0
0.51682144 0.12101328 -0.049748391 0
0.38429347 0.26082999 0.054870691 0
-0.014012971 0.68104219 0.47444272 0
0.53632361 0.1291585 -0.050020758 0
0.38737187 0.28239101 0.054391466 0
0.83784252 -0.18102562 0.22112505 0
-0.013847032 0.69514042 0.46847895 0
0.54577297 0.14766479 -0.049786568 0
0.39287546 0.30104423 0.054054715 0
0.83789271 -0.14537549 0.21839842 0
0.55832905 0.16290545 -0.049722113 0
0.41245684 0.30559802 0.054436959 0
0.74961048 -0.024206644 0.20249343 0
0.74387556 -0.018596774 0.33429694 0
0.74395198 -0.018671518 0.47045568 0
0.0034648988 0.70567507 0.47130284 0
0.57011169 0.17882514 -0.049629793 0
0.42412648 0.31807488 0.054427139 0
0.83689123 -0.075645335 0.21308081 0
0.18592151 0.54528934 0.3477636 0
0.0045314641 0.7183103 0.46655166 0
0.59378678 0.18359923 -0.050128214 0
0.45885941 0.30909491 0.055549622 0
0.83499271 -0.040745739 0.21036063 0
0.18656273 0.56235725 0.34402543 0
0.60587293 0.1993618 -0.050065354 0
0.8397606 -0.012747055 0.073337786 0
0.83588916 -0.0092361029 0.20814094 0
0.19369788 0.57315671 0.34334341 0
0.019567331 0.7310729 0.46792632 0
0.62508363 0.20877004 -0.050352223 0
0.84210509 0.016880864 0.072694495 0
0.84173411 0.017208928 0.20671295 0
0.84351462 0.015634531 0.34325337 0
0.21551742 0.57090616 0.34925091 0
0.64129382 0.22103584 -0.050500188 0
0.83264357 0.056091543 0.071519367 0
0.83577198 0.053394791 0.20367262 0
0.83351713 0.055338617 0.33718574 0
0.23904647 0.56777501 0.35583302 0
0.037022494 0.74192059 0.47142035 0
0.64989418 0.23983669 -0.050298974 0
0.83765155 0.082065813 0.071054488 0
0.83301014 0.085965984 0.20117782 0
0.83626288 0.083232753 0.33430225 0
0.92351145 0.0099184457 0.49951127 0
0.2698997 0.55914289 0.36551142 0
0.27788487 0.55243301 0.45772824 0
0.65393418 0.26219326 -0.049900357 0
0.83879882 0.11078297 0.070431389 0
0.83884364 0.11074638 0.19995992 0
0.84371072 0.10676002 0.33262682 0
0.94567829 0.02324521 0.50169295 0
0.2980192 0.55369931 0.37386796 0
0.24672814 0.59570837 0.43635941 0
0.049327992 0.75738555 0.47110721 0
0.66445619 0.27902001 -0.04981475 0
0.84946972 0.13134062 0.070266172 0
0.84019655 0.13874257 0.1981812 0
0.83725184 0.14109313 0.32782775 0
0.98481125 0.02330994 0.50944644 0
0.26898089 0.59469175 0.3577804 0
0.24737282 0.61193949 0.43234155 0
0.060211919 0.76133287 0.47465464 0
0.68209547 0.29023844 -0.050061516 0
0.84441108 0.16398966 0.069402896 0
0.84368974 0.16455078 0.19675945 0
0.8377406 0.16917801 0.32476211 0
0.25863007 0.61960918 0.43403718 0
0.063051365 0.77173001 0.47216108 0
0.69181579 0.30768013 -0.049957577 0
0.85162348 0.1865803 0.069115989 0
0.83785921 0.19701064 0.19413804 0
0.84325606 0.19292104 0.32294345 0
0.26526877 0.63091075 0.43336785 0
0.067207955 0.78099811 0.47076914 0
0.70127231 0.32522917 -0.049852684 0
0.85020703 0.21529329 0.068461522 0
0.83411247 0.22717345 0.19187406 0
0.83829421 0.22408676 0.31886035 0
0.28738859 0.63073689 0.44074517 0
0.078998409 0.78455979 0.47510356 0
0.71658832 0.33847886 -0.050016131 0
0.84570605 0.24565935 0.067693293 0
0.83889848 0.25055325 0.19081032 0
0.84000736 0.24975598 0.3163842 0
0.084627889 0.79277903 0.47493199 0
0.73046225 0.35288239 -0.050122607 0
0.84462005 0.27297807 0.067097358 0
0.83971757 0.27640951 0.18927437 0
0.83699673 0.27831393 0.31296137 0
0.83789879 0.27768254 0.44052678 0
0.098644219 0.79512101 0.48090827 0
0.72913462 0.37773812 -0.04957933 0
0.8882367 0.26933414 0.068452626 0
0.84208554 0.30077916 0.18799546 0
0.83814782 0.30346215 0.3105548 0
0.84535593 0.29855084 0.43906674 0
0.10817643 0.80082715 0.48363692 0
0.75305074 0.38539958 -0.050135382 0
0.91414422 0.27858371 0.069036059 0
0.83863276 0.32865292 0.18601635 0
0.83689827 0.32980299 0.30771762 0
0.84741443 0.32283008 0.43604696 0
0.11811789 0.80640292 0.48668543 0
0.76108414 0.40377718 -0.050016277 0
0.95723039 0.27724534 0.070349574 0
0.84961218 0.34666872 0.18594408 0
0.83690363 0.35486686 0.30524415 0
0.83636767 0.35521263 0.4291659 0
0.12002399 0.81731814 0.48408818 0
0.77113515 0.42079347 -0.049992934 0
1.0047618 0.274216 0.071839392 0
0.84496492 0.37447268 0.1839187 0
0.84277004 0.37584972 0.30410549 0
0.84909421 0.3718819 0.42962256 0
0.13653369 0.81894279 0.49183205 0
0.77605969 0.44092131 -0.04976438 0
1.0304846 0.28572488 0.072404198 0
0.84535092 0.39865434 0.1825867 0
0.84069425 0.40149492 0.30135372 0
0.84026664 0.40175575 0.4236972 0
0.13891084 0.82957518 0.48971346 0
0.79507428 0.45251209 -0.050132878 0
1.0719266 0.28838211 0.073623247 0
0.83588046 0.42832041 0.18007135 0
0.8353073 0.42866021 0.29799619 0
0.83616132 0.42815393 0.41932851 0
0.14282967 0.8391909 0.48876616 0
0.80611628 0.46899825 -0.050176278 0
0.85195047 0.44260007 0.18078819 0
0.85200793 0.44256693 0.29933128 0
0.83845907 0.45037037 0.41697484 0
0.14255972 0.85117465 0.48504212 0
0.81737453 0.48540223 -0.050236743 0
0.8541823 0.4648155 0.17981824 0
0.83841354 0.47363502 0.29443315 0
0.84163278 0.47183448 0.41497582 0
0.14416571 0.86192983 0.48272189 0
0.81820077 0.50752163 -0.04988144 0
0.84719592 0.49178058 0.17776197 0
0.82913262 0.50158685 0.29053414 0
0.82779831 0.50231129 0.40813157 0
0.8203364 0.52867168 -0.049592592 0
0.85120326 0.51241428 0.17709604 0
0.84518069 0.51558638 0.29189578 0
0.83497292 0.52096272 0.40750173 0
0.82807702 0.54673398 -0.049541 0
0.84948045 0.53580296 0.17577434 0
0.8456884 0.53773963 0.29013744 0
0.84337431 0.53892142 0.40729484 0
0.84035057 0.54046571 0.528162 0
0.85476452 0.55538154 -0.050253563 0
0.85127217 0.55711007 0.17491771 0
0.83434469 0.56548816 0.28606153 0
0.83400697 0.56565529 0.40209559 0
0.82925671 0.56800634 0.52074844 0
0.85985857 0.57494098 -0.050111249 0
0.87396747 0.56817776 0.17658958 0
0.84455115 0.58227867 0.28639024 0
0.8439098 0.58258617 0.40247527 0
0.83546573 0.58663392 0.5198915 0
0.86293107 0.59533113 -0.049899928 0
0.89957887 0.57832778 0.17861375 0
0.84045583 0.60575891 0.28391576 0
0.84072691 0.60563314 0.39923248 0
0.83955318 0.60617775 0.51834774 0
0.87006432 0.61373907 -0.049858779 0
0.93759066 0.58343637 0.18210232 0
0.83951169 0.62744963 0.2821368 0
0.84048039 0.62701494 0.39691049 0
0.83638293 0.62885368 0.51425618 0
0.87101191 0.63480151 -0.049586184 0
0.97227639 0.59088212 0.18518981 0
0.84457594 0.64626712 0.28160247 0
0.84653968 0.64541543 0.39642978 0
0.83467036 0.6505633 0.51081926 0
0.88269025 0.65116465 -0.049740661 0
0.99758214 0.60304439 0.18717913 0
0.83919901 0.66938007 0.27907589 0
0.83487171 0.67119247 0.39111245 0
0.84226769 0.66809481 0.5108574 0
0.90320581 0.66407734 -0.050242599 0
1.0439045 0.60721999 0.19161224 0
0.8563984 0.68299258 0.28101033 0
0.83239633 0.69269198 0.38844123 0
0.8441866 0.68792748 0.50893706 0
0.90913814 0.68305409 -0.050189581 0
1.0782446 0.61718154 0.19464776 0
0.85190016 0.70535016 0.27876908 0
0.84035927 0.70984566 0.38871545 0
0.84059793 0.70975268 0.50514919 0
0.2685056 0.93260145 0.44948199 0
0.91430598 0.70228094 -0.050116796 0
0.84761804 0.72729564 0.27663437 0
0.83323127 0.73269212 0.38493523 0
0.84349519 0.72884214 0.50378162 0
0.27397338 0.94247013 0.45027414 0
0.91693681 0.72237194 -0.04995726 0
0.84768289 0.74735904 0.27539587 0
0.83976287 0.7502166 0.38495529 0
0.83747619 0.75104171 0.49935192 0
0.25592521 0.96086776 0.43862057 0
0.93457907 0.73714364 -0.050375216 0
0.85770851 0.76378983 0.27611235 0
0.83890349 0.77030832 0.38303924 0
0.84260482 0.76902533 0.49896541 0
0.84656316 0.76765323 0.62122709 0
0.27104452 0.96714938 0.44470447 0
0.93060058 0.75942022 -0.049984973 0
0.84644991 0.78740817 0.27281994 0
0.84018165 0.78949296 0.38177404 0
0.85023814 0.78614825 0.49953827 0
0.84577316 0.78763324 0.61825716 0
0.29318145 0.97142154 0.45450503 0
0.93366462 0.77916706 -0.049870711 0
0.85341984 0.80473834 0.27304751 0
0.84450525 0.8075791 0.38139424 0
0.84086972 0.80873764 0.49424759 0
0.83288831 0.81128103 0.61015296 0
0.31289974 0.97698396 0.46302459 0
0.94097942 0.79753697 -0.049924839 0
0.84922165 0.82550943 0.27120975 0
0.83652896 0.82937878 0.37779608 0
0.83226389 0.830679 0.48934159 0
0.84506315 0.82677716 0.61305588 0
0.31273332 0.98905843 0.46114704 0
0.95287889 0.81461519 -0.05015786 0
0.87751693 0.83655614 0.27553141 0
0.84250516 0.84674948 0.37799171 0
0.83478206 0.84899801 0.48840401 0
0.84742147 0.8453182 0.61179936 0
0.33835509 0.99352837 0.47279435 0
0.94316036 0.8378669 -0.049597088 0
0.89693993 0.85069448 0.27820349 0
0.83016342 0.86922711 0.37339452 0
0.84454221 0.86523652 0.4900499 0
0.83307523 0.86841899 0.60347003 0
0.31442878 1.0123597 0.45870236 0
0.96217638 0.85312629 -0.05011002 0
0.92315048 0.86342978 0.28216603 0
0.84350103 0.88445854 0.37566352 0
0.83487469 0.88673609 0.48507586 0
0.85198933 0.88221753 0.60953599 0
0.32812634 1.0205261 0.46424982 0
0.96474785 0.87288278 -0.050023176 0
0.95126265 0.87626207 0.28649956 0
0.83626896 0.90507847 0.37256566 0
0.84141308 0.9037894 0.48576882 0
0.84660798 0.90248764 0.60528684 0
0.32064441 1.0342895 0.45890835 0
0.97213441 0.89143717 -0.05012241 0
0.98131925 0.88925809 0.2912105 0
0.84709209 0.92110354 0.37427953 0
0.84588534 0.92138982 0.48582679 0
0.8396197 0.92287636 0.60047543 0
0.33841118 1.0417883 0.46665567 0
0.97455174 0.91117954 -0.050048117 0
1.0091662 0.90342629 0.29553014 0
0.84179372 0.94091588 0.37182641 0
0.83868295 0.94161266 0.48197994 0
0.84129351 0.94102794 0.59946191 0
0.35582188 1.0497683 0.47424713 0
0.97140473 0.93204457 -0.049780089 0
1.0525824 0.91493213 0.30274081 0
0.83861488 0.96003693 0.36999756 0
0.84677976 0.95831579 0.48343182 0
0.84498101 0.95869493 0.59939992 0
0.35334262 1.0623335 0.47169939 0
0.99368578 0.94769329 -0.050447676 0
1.0876735 0.92911327 0.30842978 0
0.84950143 0.97619641 0.37189394 0
0.83817261 0.97843593 0.47928664 0
0.84166914 0.97774476 0.5964781 0
0.36297795 1.0723749 0.47541755 0
0.96863109 0.9725638 -0.049402371 0
0.85097069 0.99428785 0.3713955 0
0.84780186 0.99487293 0.4814066 0
0.84168047 0.99600309 0.59506339 0
0.39301351 1.078842 0.48957103 0
0.99350339 0.98811984 -0.050179206 0
0.85335976 1.0121744 0.37119529 0
0.83050042 1.016098 0.47450119 0
0.84112686 1.0142741 0.59351099 0
0.39572015 1.0907247 0.4898617 0
0.99100918 1.0085771 -0.049972326 0
0.43284985 1.0971608 0.041795921 0
0.43454781 1.0968914 0.11393892 0
0.43668994 1.0965514 0.18752795 0
0.43144825 1.0973833 0.26144621 0
0.44012287 1.0960066 0.342026 0
0.43215886 1.0972705 0.42084372 0
0.39342675 1.1034176 0.48769456 0
1.0008759 1.0270875 -0.050221097 0
0.40990809 1.1132644 0.040899646 0
0.40683535 1.1137124 0.11072244 0
0.40816215 1.113519 0.18198088 0
0.41471556 1.1125634 0.25664273 0
0.41601267 1.1123742 0.33327621 0
0.40321496 1.1142404 0.4079386 0
0.4032878 1.1142298 0.49175802 0
1.0066566 1.0463215 -0.050330698 0
0.38492152 1.1290041 0.039938536 0
0.43561408 1.1222627 0.11365885 0
0.43071404 1.1229143 0.18577528 0
0.43281367 1.1226351 0.26086125 0
0.43459323 1.1223985 0.33893833 0
0.43150207 1.1228095 0.4190487 0
0.41404125 1.1251316 0.49633387 0
1.0028999 1.0667828 -0.050105896 0
0.36736974 1.1431694 0.03925335 0
0.43324652 1.1352514 0.11323111 0
0.42087325 1.1367387 0.18370141 0
0.42472938 1.1362752 0.25837791 0
0.42051879 1.1367812 0.3336919 0
0.42146173 1.136668 0.41420388 0
1.0046099 1.0865005 -0.050086953 0
0.36137441 1.1556089 0.038990457 0
0.85401279 1.1026804 0.36817077 0
0.84037262 1.104146 0.47370943 0
0.84185153 1.1039871 0.58867747 0
0.99182659 1.1075808 -0.049557194 0
0.35643557 1.1677639 0.038771383 0
0.86082786 1.1199887 0.36945668 0
0.84168905 1.1218015 0.47355449 0
0.82980055 1.1229275 0.58292449 0
0.99818939 1.1267186 -0.049723327 0
0.36126122 1.1789649 0.0389078 0
0.85178405 1.138728 0.36673734 0
0.84021801 1.1396768 0.47254345 0
0.83426493 1.1401651 0.5841375 0
1.0013064 1.1462023 -0.049781792 0
0.36983082 1.1900042 0.039183132 0
0.84896868 1.1567692 0.36567366 0
0.84499401 1.1570449 0.47369176 0
0.83931226 1.157439 0.58568156 0
1.0000129 1.1659806 -0.049691275 0
0.84508997 1.1747682 0.36439708 0
0.84277707 1.1748993 0.47258192 0
0.84307545 1.1748825 0.58678216 0
1.0060846 1.1853732 -0.049872912 0
0.85445744 1.1920599 0.36656195 0
0.84681958 1.1923966 0.47363207 0
0.84273309 1.1925769 0.58627176 0
1.0049555 1.2051239 -0.049806006 0
0.85879463 1.2097265 0.3674975 0
0.83967632 1.2103285 0.4710319 0
0.83216017 1.2105651 0.58161598 0
1.0177623 1.2245673 -0.050245605 0
0.85335714 1.2276728 0.36599535 0
0.83916873 1.2279409 0.47071555 0
0.83563131 1.2280077 0.58287084 0
1.0140028 1.2444282 -0.050102469 0
0.84733993 1.2454774 0.36440304 0
0.8380757 1.2455359 0.4702782 0
0.83586651 1.2455497 0.58287674 0
0.99686509 1.264107 -0.049490619 0
0.85374182 1.263206 0.36603642 0
0.83461279 1.2630855 0.46912611 0
0.85164922 1.2631928 0.58941156 0
1.0105149 1.2839389 -0.049986817 0
0.84799045 1.2808689 0.36462587 0
0.84037739 1.2807251 0.47111773 0
0.8283307 1.2804976 0.57984763 0
1.0155693 1.3038534 -0.050185118 0
0.84822422 1.2985839 0.36479932 0
0.85218531 1.2987086 0.47519565 0
0.84488767 1.2984788 0.58688819 0
0.99472505 1.3227689 -0.049466971 0
0.85661858 1.3166786 0.36711386 0
0.84024531 1.3159566 0.47144273 0
0.84631783 1.3162243 0.58775741 0
1.0123 1.3433596 -0.050130647 0
0.84557635 1.3339025 0.36452138 0
0.84159046 1.3336765 0.47218651 0
0.83330351 1.3332064 0.58272976 0
1.0134407 1.3632824 -0.050216042 0
1.2844868 1.3820834 0.071915984 0
1.3063115 1.3835973 0.20677379 0
1.2973238 1.3829739 0.34130204 0
0.84844798 1.3518379 0.3655405 0
0.84387034 1.3515203 0.47331703 0
0.83440548 1.3508638 0.58364505 0
0.98663205 1.3809764 -0.049309332 0
1.2429452 1.4020014 0.07049077 0
1.2500756 1.4025862 0.20090131 0
1.0174956 1.3835081 0.29098561 0
0.84717494 1.369537 0.36555743 0
0.85152906 1.3698941 0.47631919 0
0.83868712 1.3688408 0.58597463 0
1.0145916 1.4032186 -0.050373569 0
1.2383813 1.4244156 0.070398904 0
1.2552435 1.4260128 0.20167619 0
0.89314777 1.3917156 0.26877657 0
0.85941404 1.3885205 0.36909431 0
0.84103757 1.3867799 0.47333679 0
0.83471292 1.3861809 0.58496749 0
1.0113821 1.4228702 -0.050330117 0
0.64144474 1.3831246 0.049046874 0
0.64719635 1.3837426 0.13620292 0
0.64537638 1.3835471 0.22416879 0
0.63774282 1.3827269 0.31267583 0
0.83386582 1.4037981 0.4715322 0
0.84051424 1.4045124 0.58812058 0
0.99725848 1.4411823 -0.049903043 0
0.55386931 1.3878897 0.045959547 0
0.55711466 1.3882798 0.12663893 0
0.55283064 1.3877649 0.20767103 0
0.5453288 1.3868632 0.28936818 0
0.83424145 1.4215887 0.47232571 0
0.84415656 1.4227804 0.59047431 0
0.99621779 1.4609334 -0.049954738 0
0.55413204 1.4021418 0.046032753 0
0.54286295 1.4006431 0.12528628 0
0.5615105 1.403123 0.20957194 0
0.55630857 1.4024312 0.29264614 0
0.84029597 1.4401978 0.47510162 0
0.84778541 1.4411938 0.59292239 0
0.9928785 1.4803895 -0.049932562 0
0.54250199 1.414714 0.045683485 0
0.5658775 1.4181226 0.12799536 0
0.54929096 1.415704 0.20770249 0
0.56411749 1.4178661 0.29516309 0
0.84230489 1.4584323 0.47660118 0
0.83542198 1.4574286 0.58878046 0
0.9872244 1.4994655 -0.049835514 0
0.55834466 1.4313992 0.046332322 0
0.55788285 1.4313259 0.12735954 0
0.55463868 1.430811 0.20906608 0
0.55808955 1.4313587 0.29416087 0
0.84358376 1.4766686 0.47793505 0
0.83925456 1.4759816 0.59150553 0
0.99483782 1.5207523 -0.050227545 0
0.55638105 1.4454947 0.046345163 0
0.55903572 1.4459503 0.12773791 0
0.54649013 1.443797 0.20799777 0
0.56426543 1.4468479 0.29635948 0
0.84483618 1.4950057 0.47934037 0
0.82932049 1.4923426 0.58855128 0
0.98052782 1.5382758 -0.049834277 0
0.560754 1.4607716 0.046594512 0
0.54679638 1.4581945 0.1266737 0
0.55092174 1.4589562 0.2092641 0
0.55426699 1.4595739 0.29441744 0
0.84108585 1.5125302 0.47913444 0
0.83843976 1.5120417 0.59369892 0
0.96956664 1.5561819 -0.049569931 0
0.546251 1.4724985 0.046164546 0
0.55251998 1.4737378 0.12759151 0
0.55725163 1.4746733 0.21091762 0
0.55663294 1.474551 0.29572779 0
0.84140235 1.5308456 0.48038194 0
0.84012848 1.5305939 0.59582788 0
0.97794813 1.5779779 -0.050018828 0
0.54752463 1.4872437 0.046314437 0
0.54789561 1.4873219 0.1273967 0
0.55352336 1.4885082 0.2107581 0
0.55444485 1.4887025 0.2959033 0
0.8473931 1.5504566 0.48364037 0
0.85260445 1.5515552 0.60262573 0
0.97577697 1.597738 -0.050092943 0
0.54655415 1.5015968 0.046389434 0
0.55050701 1.5024822 0.12801705 0
0.55722767 1.5039876 0.21200398 0
0.56604868 1.5059633 0.29973182 0
0.84077328 1.5674987 0.48269263 0
0.84181994 1.567733 0.59968525 0
0.97401625 1.6176524 -0.050191455 0
0.54536062 1.5159537 0.046463091 0
0.56068105 1.5195885 0.12949564 0
0.55440301 1.518099 0.21207947 0
0.55785352 1.5189176 0.29843709 0
0.8382414 1.5854398 0.48321313 0
0.84765989 1.5876743 0.60389674 0
0.96025747 1.6346351 -0.049857903 0
0.55241019 1.5324321 0.046847016 0
0.55281967 1.5325347 0.12900452 0
0.54166645 1.5297399 0.21034531 0
0.55581361 1.5332849 0.29880008 0
0.83412904 1.6030284 0.48327056 0
0.83888668 1.6042206 0.60199112 0
0.96463591 1.6561662 -0.050200835 0
0.55714005 1.5485805 0.047154214 0
0.55418795 1.5478011 0.12955576 0
0.55926448 1.5491414 0.21429095 0
0.55197328 1.5472164 0.29873687 0
0.83951336 1.6231318 0.48667201 0
0.83397585 1.6216698 0.60182214 0
0.95270115 1.6734241 -0.049950581 0
0.54888982 1.5613538 0.046989087 0
0.54275995 1.5596526 0.12870315 0
0.55569559 1.5632426 0.21433434 0
0.55112427 1.5619739 0.29951182 0
0.83556479 1.640915 0.48695028 0
0.84292823 1.6429586 0.60770375 0
0.94677395 1.6922506 -0.049930859 0
0.55097991 1.5770186 0.047213815 0
0.54893273 1.5764226 0.12983415 0
0.5539251 1.5778761 0.21474898 0
0.54385751 1.574945 0.29863355 0
0.8459323 1.6628914 0.49226767 0
0.8404817 1.6613045 0.60880679 0
0.94571644 1.7125502 -0.050101638 0
0.84718376 1.6825124 0.38063797 0
0.83671147 1.67932 0.49088854 0
0.84693223 1.6824358 0.6138649 0
0.92614681 1.7270805 -0.049589019 0
0.8499096 1.7027862 0.38284141 0
0.83459252 1.6979052 0.49205574 0
0.84175581 1.7001878 0.61400634 0
0.9266296 1.7479022 -0.04983557 0
0.84291083 1.7200578 0.38250783 0
0.83422416 1.7171688 0.49392357 0
0.839315 1.7188619 0.6154393 0
0.92382413 1.7677714 -0.049968835 0
0.85211271 1.7429136 0.38660604 0
0.83281332 1.7362237 0.49551767 0
0.83932859 1.7384821 0.61805683 0
0.92332643 1.7885766 -0.050199773 0
0.83895308 1.7581344 0.38473564 0
0.8336671 1.7562271 0.4980047 0
0.83366591 1.7562267 0.61829644 0
0.91201144 1.8055015 -0.050029308 0
0.84484297 1.7803066 0.38809931 0
0.83169335 1.7753741 0.49958807 0
0.83077234 1.7750287 0.61986017 0
0.90701216 1.8247609 -0.050108127 0
0.83135468 1.7952899 0.38624993 0
0.82968396 1.794639 0.50125241 0
0.82838458 1.7941328 0.62176132 0
0.90224284 1.8441767 -0.050205518 0
0.84451646 1.8208489 0.39177641 0
0.82075924 1.8112485 0.5005306 0
0.82990164 1.8149431 0.62552309 0
0.89353651 1.8620212 -0.050160479 0
0.84031624 1.839731 0.39261845 0
0.82376999 1.8328009 0.50418532 0
0.82892078 1.8349582 0.62830085 0
0.87958461 1.8775597 -0.049919784 0
0.8301242 1.8561082 0.39186475 0
0.84033245 1.8605356 0.51287258 0
0.82504088 1.8539034 0.62989879 0
0.87380821 1.8965842 -0.050005283 0
0.82614809 1.8751965 0.39290252 0
0.82273835 1.8736664 0.50928056 0
0.82443303 1.8744268 0.63309878 0
0.86433929 1.9139653 -0.049955353 0
0.83086067 1.8984324 0.39645755 0
0.81918699 1.8930162 0.51087826 0
0.81811398 1.8925183 0.63382828 0
0.86125952 1.9343737 -0.050166715 0
0.82853538 1.9186871 0.39812541 0
0.80816466 1.9089222 0.50981891 0
0.81612486 1.912738 0.63665462 0
0.85589343 1.9538203 -0.050298531 0
0.82279342 1.9374378 0.39890343 0
0.81341881 1.9327979 0.51486915 0
0.81134611 1.9317721 0.63832718 0
0.83650237 1.9662122 -0.049878757 0
0.81330496 1.9543648 0.3986806 0
0.79313225 1.9440624 0.5105226 0
0.80549902 1.9503782 0.63962489 0
0.82843322 1.984236 -0.049919304 0
0.80617362 1.9725119 0.39919725 0
0.79319257 1.9656749 0.51385117 0
0.8122651 1.9757203 0.64694291 0
0.81568211 1.9997541 -0.049779121 0
0.79929978 1.9908603 0.39985833 0
0.78472251 1.9829465 0.51407599 0
0.79074031 1.9862136 0.64113265 0
0.80493647 2.0162842 -0.049727954 0
0.78632718 2.0058761 0.39880854 0
0.7823053 2.0036266 0.51669228 0
0.78199786 2.0034547 0.64140773 0
0.80379397 2.0383074 -0.050080601 0
0.78913468 2.0298643 0.40245262 0
0.78828841 2.0293767 0.52265239 0
0.78027529 2.0247617 0.64514226 0
0.78756481 2.0516791 -0.049821205 0
0.77821535 2.0461364 0.4021419 0
0.778292 2.0461817 0.52260178 0
0.75856847 2.0344889 0.63941443 0
0.78075689 2.0705872 -0.049960818 0
0.76957053 2.0637636 0.40256956 0
0.76522142 2.0611107 0.52143496 0
0.77442294 2.0667233 0.65191835 0
0.76289266 2.0826783 -0.049645543 0
0.75685471 2.0788901 0.40184104 0
0.75707024 2.0790253 0.52226448 0
0.76523083 2.0841453 0.65247685 0
0.75964195 2.1039355 -0.049955003 0
0.75925535 2.1036861 0.4057537 0
0.75219887 2.0991342 0.52448827 0
0.76437598 2.1069894 0.65725535 0
0.74220508 2.1160522 -0.049670793 0
0.74937636 2.1208072 0.40603533 0
0.7560572 2.125237 0.53031611 0
0.75420779 2.1240108 0.65758955 0
0.73478693 2.1347563 -0.049823515 0
0.7437517 2.1408644 0.40769905 0
0.73754376 2.1366346 0.52731955 0
0.73951083 2.1379747 0.65576464 0
0.73364013 2.1579852 -0.050261095 0
0.72641796 2.15293 0.40580937 0
0.72815126 2.1541431 0.52805841 0
0.73336142 2.1577899 0.65833181 0
0.71430844 2.1685255 -0.049915891 0
0.72383469 2.1753736 0.40858486 0
0.71294731 2.1675467 0.5265128 0
0.72036332 2.172878 0.65755671 0
0.70581084 2.186764 -0.050054077 0
0.71646637 2.1946294 0.40995806 0
0.70496303 2.1861382 0.52800775 0
0.71837324 2.1960371 0.66253662 0
0.68960696 2.1992893 -0.049858633 0
0.70011669 2.2072532 0.40854666 0
0.70243889 2.209013 0.53189337 0
0.70238489 2.2089722 0.66044319 0
0.67828161 2.2154381 -0.049889017 0
0.68669599 2.221983 0.4081192 0
0.70427543 2.2356563 0.53777605 0
0.69719738 2.2301509 0.66407949 0
0.66515034 2.2301772 -0.049846459 0
0.68932682 2.249475 0.41298765 0
0.67976993 2.2418466 0.53264683 0
0.69111735 2.2509043 0.66742039 0
0.65141588 2.2443871 -0.049784143 0
0.6645717 2.2551622 0.40898862 0
0.67325109 2.2622709 0.53523284 0
0.67431945 2.2631462 0.66519892 0
0.64135641 2.2616322 -0.049900837 0
0.66183716 2.278842 0.41230917 0
0.66093093 2.2780805 0.53543651 0
0.67195386 2.2873428 0.67084187 0
0.626118 2.2745256 -0.049784884 0
0.71613401 2.3521199 0.066027746 0
0.72327858 2.3582785 0.18771139 0
0.72358245 2.3585403 0.31100979 0
0.65162522 2.2965128 0.41324714 0
0.64962739 2.2947907 0.53617597 0
0.65736002 2.3014562 0.67002773 0
0.61275667 2.2889736 -0.049764775 0
0.68338126 2.3514194 0.065130427 0
0.67413551 2.3432446 0.18267019 0
0.6817556 2.349982 0.30431202 0
0.63868517 2.3118994 0.41334188 0
0.63676447 2.3102012 0.53632402 0
0.64659387 2.3188922 0.67141765 0
0.60613579 2.3095195 -0.050078023 0
0.65904278 2.3575001 0.064627923 0
0.65803963 2.3565903 0.18233833 0
0.66094893 2.3592286 0.30262899 0
0.61619228 2.3186398 0.41021389 0
0.61867207 2.3208885 0.53421181 0
0.63073391 2.3318272 0.67009836 0
0.58469957 2.316592 -0.049685154 0
0.64681524 2.3743656 0.064713702 0
0.63850302 2.3666344 0.18152209 0
0.64327329 2.3710711 0.30172586 0
0.60425323 2.3347788 0.41075572 0
0.61310953 2.3430159 0.53782851 0
0.6065219 2.3368888 0.66413254 0
0.567738 2.3275537 -0.049512681 0
0.62245446 2.3797457 0.064212292 0
0.62057549 2.3779533 0.18095365 0
0.62431175 2.3815172 0.30052823 0
0.60084742 2.3591354 0.41438401 0
0.60230893 2.3605297 0.53920794 0
0.5964089 2.3549018 0.66619825 0
0.56008297 2.3474534 -0.049809705 0
0.61198825 2.3982272 0.064401962 0
0.60234052 2.3887899 0.18035325 0
0.61595505 2.4021075 0.30202422 0
0.58274716 2.3696237 0.41292161 0
0.58413893 2.370985 0.53727674 0
0.58519787 2.3720207 0.66778404 0
0.54648203 2.3616896 -0.049822424 0
0.6081174 2.4235191 0.064939253 0
0.60121888 2.416599 0.18237095 0
0.60220295 2.4175861 0.30222678 0
0.57393044 2.3892245 0.41484296 0
0.57160908 2.3868957 0.53804046 0
0.57623082 2.3915322 0.67083168 0
0.54019469 2.383467 -0.050219033 0
0.60813063 2.4533553 0.065698706 0
0.59775621 2.4426827 0.1841076 0
0.59975451 2.4447384 0.30540684 0
0.55571502 2.3994334 0.41343889 0
0.55932766 2.4031496 0.53902781 0
0.56016666 2.4040129 0.66984838 0
0.5175932 2.3884442 -0.049788445 0
0.61215848 2.48821 0.066696018 0
0.6131019 2.4892054 0.18885671 0
0.61375982 2.4898994 0.31303191 0
0.54773754 2.4202461 0.4158603 0
0.55636495 2.4293482 0.54463339 0
0.54696959 2.419436 0.67067146 0
0.50825733 2.4073312 -0.050052982 0
0.53763217 2.4391136 0.41761294 0
0.53709203 2.4385293 0.54248172 0
0.53660351 2.4380007 0.67335039 0
0.49218652 2.419028 -0.049974658 0
0.51431042 2.4435785 0.41444322 0
0.52356929 2.4538529 0.54321456 0
0.51963454 2.4494865 0.67212689 0
0.47537991 2.4298089 -0.049863327 0
0.50419265 2.4626026 0.41635326 0
0.50149339 2.4595304 0.53974336 0
0.5066492 2.4653986 0.67347461 0
0.46169469 2.4441178 -0.049929045 0
0.4908056 2.4781044 0.41710266 0
0.48782727 2.4746273 0.54055792 0
0.48761031 2.4743741 0.67111617 0
0.44417426 2.4539104 -0.049792089 0
0.4675326 2.4818864 0.41400525 0
0.46553358 2.4794922 0.53700441 0
0.46727416 2.4815769 0.66795623 0
0.43552014 2.4744499 -0.050161406 0
0.45348832 2.4965296 0.41460893 0
0.4569045 2.5007274 0.54062986 0
0.46150348 2.5063789 0.67436045 0
0.41128567 2.4757683 -0.049656212 0
0.43307433 2.503242 0.41268206 0
0.44084737 2.5130432 0.54047835 0
0.44059375 2.5127234 0.67098618 0
0.40418902 2.4986863 -0.050144304 0
0.42761865 2.5290058 0.41699982 0
0.42054603 2.5198534 0.53809887 0
0.42720369 2.5284686 0.6727019 0
0.38454124 2.5055103 -0.049912594 0
0.41402075 2.544668 0.41807303 0
0.40986308 2.5391455 0.54104668 0
0.40843645 2.5372503 0.67088038 0
0.36797109 2.5162601 -0.049867831 0
0.39087477 2.5474939 0.41512975 0
0.39303651 2.550442 0.54072464 0
0.39776024 2.5568838 0.67476904 0
0.34762225 2.5216699 -0.049598377 0
0.38261136 2.5706663 0.41868332 0
0.3814123 2.5689874 0.54345584 0
0.37740377 2.563374 0.67200476 0
0.32441941 2.5226469 -0.049149737 0
0.35820976 2.5712473 0.41521838 0
0.3679038 2.5851903 0.54527372 0
0.36566737 2.5819736 0.67550087 0
0.3187035 2.5489044 -0.049807347 0
0.34456536 2.5871191 0.41658852 0
0.33877352 2.5785608 0.53797263 0
0.34864727 2.5931509 0.67533082 0
0.30313578 2.5610511 -0.049859416 0
0.32706526 2.597388 0.41628838 0
0.32848254 2.59954 0.54187655 0
0.32300398 2.5912209 0.66877097 0
0.28821465 2.574281 -0.049965329 0
0.3077347 2.6047504 0.41517708 0
0.30286989 2.5971568 0.53656983 0
0.30917534 2.6069992 0.6711306 0
0.27151152 2.5847976 -0.049964238 0
0.29185829 2.6174557 0.41575399 0
0.28706482 2.609762 0.53730655 0
0.29012337 2.6146712 0.66960275 0
0.25836083 2.6011841 -0.050216962 0
0.26937923 2.6193759 0.41316938 0
0.27252355 2.6245673 0.5389713 0
0.27164468 2.6231163 0.66857725 0
0.24042518 2.6097989 -0.050152753 0
0.25555071 2.6354964 0.4148919 0
0.2466711 2.6204104 0.53337431 0
0.25068298 2.6272264 0.66558892 0
0.22173376 2.6170068 -0.050040469 0
0.23783363 2.645165 0.41475725 0
0.23833968 2.64605 0.53936183 0
0.23488267 2.6400037 0.66688204 0
0.19821484 2.6153629 -0.04957715 0
0.21343304 2.6427741 0.41116983 0
0.22018529 2.6549363 0.53897274 0
0.21415778 2.6440794 0.66413999 0
0.19056197 2.6424823 -0.050295483 0
0.19419457 2.6492238 0.41025808 0
0.19956805 2.6591966 0.53692454 0
0.19606252 2.6526906 0.66367269 0
0.17066015 2.6472673 -0.050113298 0
0.18276437 2.6704252 0.41366902 0
0.18351246 2.6718564 0.53814089 0
0.17994578 2.6650326 0.66505826 0
0.15490784 2.6599636 -0.050258957 0
0.15878256 2.6676097 0.41023019 0
0.16230454 2.6745598 0.53571153 0
0.16706558 2.683955 0.6695838 0
0.13187732 2.6580777 -0.049831662 0
0.14139588 2.6774626 0.41049939 0
0.14324833 2.6812351 0.53486866 0
0.13763733 2.6698081 0.65890318 0
0.11564013 2.6697838 -0.049955737 0
0.12712939 2.6939466 0.41270241 0
0.12154897 2.6822107 0.53201973 0
0.12195011 2.6830542 0.66101527 0
0.10002198 2.6830525 -0.05014855 0
0.10552027 2.6950014 0.41061005 0
0.10421064 2.6921551 0.53257233 0
0.10657146 2.6972859 0.66365457 0
0.079051696 2.6846354 -0.04989136 0
0.083847187 2.6954122 0.40842572 0
0.084198199 2.6962011 0.5310536 0
0.085115455 2.6982622 0.66036022 0
0.063625179 2.6986599 -0.050129361 0
0.063931905 2.6993732 0.40731519 0
0.070297502 2.7141778 0.53467953 0
0.068567954 2.7101555 0.66212577 0
0.041771315 2.6976483 -0.049792409 0
0.045551859 2.7067552 0.40722483 0
0.044459306 2.7041233 0.5282523 0
0.043640934 2.7021518 0.65505618 0
0.022613784 2.702739 -0.049702443 0
0.028269729 2.7168627 0.40794787 0
0.025204679 2.7092087 0.52740014 0
0.023684939 2.7054138 0.65318686 0
0.011605046 2.7287774 -0.050423797 0
0.005151412 2.7120545 0.40464795 0
0.0091336584 2.7223735 0.52951992 0
0.0082810735 2.7201643 0.656537 0
-0.014448025 2.7157915 -0.049660809 0
-0.013335922 2.718785 0.40458339 0
-0.013313212 2.7188461 0.52577758 0
-0.0095557356 2.72896 0.65732735 0
-0.032228507 2.7243717 -0.049731299 0
-0.03122429 2.7271824 0.40503398 0
-0.032613494 2.723294 0.52496964 0
-0.028697768 2.7342546 0.65667373 0
-0.049644209 2.7341776 -0.049856223 0
-0.056072749 2.7154417 0.40011153 0
-0.055929877 2.715858 0.52007097 0
-0.049721457 2.7339523 0.65367866 0
-0.070266046 2.7345331 -0.049633704 0
-0.071053304 2.732141 0.40293249 0
-0.074201621 2.7225745 0.52025247 0
-0.071901746 2.729563 0.64903027 0
-0.086184479 2.7492988 -0.049961217 0
-0.094883062 2.7217021 0.39853323 0
-0.093154289 2.7271867 0.51977962 0
-0.090906627 2.7343175 0.64849132 0
-0.10455418 2.7567432 -0.050021987 0
-0.11299054 2.728754 0.39889154 0
-0.10988019 2.7390733 0.52191931 0
-0.11052299 2.7369409 0.64713639 0
-0.12464822 2.7583613 -0.049874693 0
-0.10689888 2.8200486 0.06416636 0
-0.10859022 2.8141704 0.1804371 0
-0.10732976 2.8185511 0.29955226 0
-0.12819548 2.746033 0.40202421 0
-0.13303174 2.7292247 0.51659977 0
-0.1312658 2.7353621 0.64408267 0
-0.14470954 2.7597175 -0.049727596 0
-0.13460307 2.7965827 0.063092299 0
-0.13580243 2.792208 0.17737377 0
-0.13388772 2.7991922 0.29489553 0
-0.14666094 2.7525992 0.40236291 0
-0.1498455 2.740983 0.51885307 0
-0.15250225 2.731292 0.64008218 0
-0.1613252 2.7738938 -0.050063316 0
-0.15647624 2.7924972 0.062749662 0
-0.15604694 2.7941442 0.17701279 0
-0.1562271 2.793453 0.29285485 0
-0.16773139 2.7493165 0.40016514 0
-0.17093407 2.7370296 0.51577002 0
-0.1730236 2.729013 0.63697577 0
-0.18190469 2.7730384 -0.04985287 0
-0.17755698 2.7906227 0.06249956 0
-0.1784604 2.7869687 0.17567247 0
-0.17956556 2.7824988 0.28990406 0
-0.18865933 2.7457192 0.39796138 0
-0.18803503 2.7482443 0.51798606 0
-0.19051592 2.7382102 0.63888407 0
-0.20049132 2.7800639 -0.049941521 0
-0.19735973 2.7934508 0.06243236 0
-0.19645615 2.7973135 0.17630102 0
-0.19496106 2.8037045 0.29297298 0
-0.20897885 2.7437813 0.39626804 0
-0.21037208 2.7378256 0.51287764 0
-0.20931064 2.742363 0.63873559 0
-0.22058247 2.7805767 -0.049800392 0
-0.21685593 2.7974629 0.062417757 0
-0.21887271 2.7883241 0.17482498 0
-0.21809487 2.7918489 0.28996319 0
-0.22902025 2.7423425 0.3947767 0
-0.2303967 2.7361054 0.51084286 0
-0.22863089 2.7441068 0.63766664 0
-0.23739289 2.7964244 -0.050228003 0
-0.23547579 2.8056624 0.062564842 0
-0.23462684 2.8097534 0.17672254 0
-0.23742633 2.7962632 0.29001182 0
-0.24695699 2.7503362 0.39581296 0
-0.24944188 2.7383618 0.51025051 0
-0.25098431 2.7309291 0.6303938 0
-0.25816208 2.7935064 -0.049979776 0
-0.25187242 2.8258576 0.063156389 0
-0.25267875 2.8217101 0.17760013 0
-0.25167522 2.8268719 0.29491764 0
-0.26758841 2.7450216 0.39344648 0
-0.26929298 2.736254 0.50826168 0
-0.26930621 2.736186 0.63103306 0
-0.27757007 2.7971299 -0.049978968 0
-0.26708782 2.8549211 0.06407585 0
-0.26669818 2.8570693 0.18105663 0
-0.26891291 2.8448589 0.29753175 0
-0.28710732 2.7445486 0.39240828 0
-0.28927821 2.7325799 0.50583261 0
-0.29078427 2.7242768 0.6245448 0
-0.29561058 2.8088889 -0.050281554 0
-0.30479547 2.7543483 0.39409369 0
-0.30798385 2.7354157 0.5056898 0
-0.30837569 2.7330887 0.62688398 0
-0.3169882 2.8005946 -0.049867231 0
-0.32744497 2.733341 0.38787916 0
-0.32789135 2.7304702 0.50300682 0
-0.32775989 2.7313156 0.62487632 0
