# .PCD v0.7 - Point Cloud Data file format
VERSION 0.7
FIELDS x y z intensity
SIZE 4 4 4 4
TYPE F F F F
COUNT 1 1 1 1
WIDTH 1361
HEIGHT 1
VIEWPOINT 0 0 0 1 0 0 0
POINTS 1361
DATA ascii
-1.7458924 0.24280834 -0.049717538 0
-1.3327663 0.59441769 0.34473675 0
-1.2564703 0.65935278 0.38607448 0
-1.2321821 0.68002433 0.44934174 0
-1.2453128 0.66884887 0.54171383 0
-1.7386111 0.22307944 -0.049980525 0
-1.3386576 0.57225615 0.35103542 0
-1.2533592 0.6467253 0.38851246 0
-1.2420599 0.6565901 0.46074086 0
-1.2430794 0.65570003 0.54580206 0
-1.724001 0.20966017 -0.049907114 0
-1.3332392 0.55957961 0.35247856 0
-1.2464435 0.63730335 0.38895139 0
-1.2347306 0.64779192 0.46090955 0
-1.2391353 0.6438477 0.54870582 0
-1.7104706 0.19531536 -0.049893327 0
-1.3216814 0.55239034 0.351237 0
-1.2430247 0.62463093 0.39142764 0
-1.2400672 0.62734705 0.46975952 0
-1.2413108 0.62620503 0.55669045 0
-1.7039846 0.1743443 -0.050233681 0
-1.3125104 0.54307932 0.35111254 0
-1.2471545 0.60463893 0.39831716 0
-1.2328022 0.61815768 0.47022918 0
-1.2382396 0.61303604 0.5606758 0
-1.6819246 0.16807914 -0.049818169 0
-1.3035144 0.53360951 0.35112143 0
-1.2442223 0.59088349 0.40136972 0
-1.2419842 0.59304523 0.48222622 0
-1.2402009 0.59476799 0.5689953 0
-1.6713133 0.15088093 -0.04997671 0
-1.2877704 0.53082025 0.34802592 0
-1.2304988 0.58755386 0.39827183 0
-1.2496541 0.56857848 0.49353001 0
-1.2424353 0.57572949 0.57783812 0
-1.6583192 0.13593936 -0.050026987 0
-1.2839131 0.51628679 0.35054436 0
-1.2379678 0.56296116 0.40766656 0
-1.2440635 0.55676883 0.49574003 0
-1.2452043 0.55560988 0.58744806 0
-1.6466206 0.11959242 -0.050154354 0
-1.4008749 0.37560737 0.049484942 0
-1.4050038 0.37130588 0.13754071 0
-1.4056596 0.37062275 0.2269147 0
-1.4043403 0.37199718 0.31803307 0
-1.2728393 0.50899321 0.34971637 0
-1.2442603 0.5387665 0.41666573 0
-1.2388018 0.54445308 0.49832359 0
-1.2427558 0.54033393 0.59293205 0
-1.6251793 0.11351883 -0.049785119 0
-1.374203 0.38166064 0.048673015 0
-1.3670934 0.38925642 0.13333774 0
-1.3823988 0.37290418 0.2237301 0
-1.3671867 0.38915682 0.30833447 0
-1.263993 0.49940842 0.35000607 0
-1.2342715 0.53116274 0.41610554 0
-1.2343284 0.531102 0.50163215 0
-1.2422749 0.52261198 0.60036385 0
-1.617651 0.092581622 -0.050151635 0
-1.3517773 0.38390714 0.048070688 0
-1.3515537 0.38415217 0.13260703 0
-1.353088 0.38247102 0.21887499 0
-1.3492178 0.38671172 0.3056809 0
-1.2548851 0.49007475 0.3502298 0
-1.2429736 0.50312656 0.42707586 0
-1.241504 0.5047369 0.51375669 0
-1.2432125 0.50286478 0.6093418 0
-1.6025923 0.079713933 -0.050133005 0
-1.3370725 0.37811238 0.047872923 0
-1.3404902 0.37427139 0.13259991 0
-1.3341597 0.3813858 0.21673508 0
-1.336828 0.37838709 0.30514252 0
-1.2506634 0.47522122 0.35296059 0
-1.2468692 0.47948521 0.43542725 0
-1.2415665 0.48544455 0.52094853 0
-1.2347105 0.49314958 0.61024648 0
-1.5872391 0.067200772 -0.050106823 0
-1.3239336 0.37072164 0.047761537 0
-1.315987 0.37988204 0.13040879 0
-1.3190067 0.37640107 0.21560666 0
-1.3219601 0.37299657 0.30367199 0
-1.2489264 0.45718491 0.35708711 0
-1.2372787 0.47061157 0.43556643 0
-1.2353433 0.47284251 0.5236302 0
-1.2427218 0.46433717 0.62621915 0
-1.5651436 0.062684409 -0.049716115 0
-1.3116661 0.36241859 0.047701761 0
-1.3108543 0.36337858 0.13139702 0
-1.310517 0.36377758 0.21633969 0
-1.3080432 0.36670274 0.30258173 0
-1.2533382 0.4313907 0.36455968 0
-1.2418501 0.44497526 0.44485933 0
-1.2393444 0.44793832 0.53439629 0
-1.2408876 0.44611341 0.63371992 0
-1.5600195 0.038007256 -0.050275154 0
-1.2954541 0.35896349 0.04742549 0
-1.296962 0.35713416 0.13095526 0
-1.2953115 0.35913652 0.21522462 0
-1.2997 0.35381258 0.30374196 0
-1.2500765 0.41401309 0.3683022 0
-1.2350427 0.43225133 0.44709688 0
-1.2365764 0.43039066 0.54024833 0
-1.244476 0.42080742 0.64660418 0
-1.5425261 0.028092498 -0.050155498 0
-1.2878327 0.34512264 0.047637019 0
-1.2825543 0.35169297 0.13043149 0
-1.2938873 0.33758622 0.21807708 0
-1.2913682 0.34072173 0.30499077 0
-1.2473265 0.39554292 0.37249094 0
-1.2448399 0.39863807 0.46045196 0
-1.2430531 0.40086216 0.55375332 0
-1.235431 0.41034991 0.64802867 0
-1.5265384 0.016386027 -0.050128285 0
-1.2917156 0.31634074 0.048528273 0
-1.2857165 0.32400382 0.13297422 0
-1.2782965 0.33348197 0.21690984 0
-1.2856113 0.32413822 0.30739316 0
-1.2394952 0.38304538 0.37412974 0
-1.2335495 0.39064014 0.46014184 0
-1.2437681 0.37758726 0.5631001 0
-1.2383815 0.38446796 0.66114253 0
-1.5103412 0.0049807974 -0.050096892 0
-1.2737728 0.31513286 0.048170697 0
-1.2704049 0.31954843 0.13234691 0
-1.2720797 0.31735259 0.21852607 0
-1.2686039 0.32190949 0.30518985 0
-1.2463174 0.35112816 0.38392007 0
-1.2465838 0.350779 0.47650114 0
-1.2426897 0.35588419 0.57136273 0
-1.2467289 0.3505888 0.68006814 0
-1.492994 -0.0048446706 -0.050004646 0
-1.2703707 0.29477423 0.048678327 0
-1.270012 0.29525703 0.13440718 0
-1.2737066 0.29028469 0.22260261 0
-1.2716688 0.29302728 0.31154728 0
-1.2517406 0.31984776 0.39331955 0
-1.2406133 0.33482349 0.48029217 0
-1.2389783 0.33702403 0.5777849 0
-1.2427987 0.33188236 0.68752939 0
-1.4785115 -0.01852346 -0.050092712 0
-1.2802352 0.25546831 0.050018232 0
-1.2812382 0.2540822 0.13868915 0
-1.2748028 0.26297504 0.22669144 0
-1.2740377 0.26403224 0.31787035 0
-1.2480923 0.29988551 0.39795756 0
-1.2367047 0.31562161 0.48574653 0
-1.2397844 0.31136602 0.58837616 0
-1.242736 0.30728716 0.69927019 0
-1.453938 -0.017994886 -0.049567506 0
-1.1797659 0.3710978 0.044574164 0
-1.173858 0.37948215 0.12101503 0
-1.1704427 0.38432896 0.19794218 0
-1.3313596 0.15596282 0.34880808 0
-1.2410668 0.28410238 0.40087253 0
-1.2399806 0.28564394 0.49663574 0
-1.2390385 0.28698099 0.5980885 0
-1.4446303 -0.039071087 -0.04999562 0
-1.1536509 0.38511831 0.043630939 0
-1.1591209 0.37714398 0.12031724 0
-1.1584694 0.37809378 0.19763277 0
-1.3199993 0.14261568 0.34994951 0
-1.2360833 0.26494843 0.40515822 0
-1.2418246 0.25657874 0.50695235 0
-1.2439132 0.25353396 0.61322141 0
-1.4243762 -0.04430056 -0.049744967 0
-1.1405584 0.38082665 0.043495856 0
-1.142923 0.37728477 0.11932904 0
-1.13761 0.38524312 0.19445643 0
-1.2995692 0.14264619 0.34702161 0
-1.240106 0.23171556 0.4150652 0
-1.2361534 0.23763609 0.51213175 0
-1.2408006 0.23067498 0.62182081 0
-1.4135643 -0.063747413 -0.050112516 0
-1.1229079 0.38372326 0.043062903 0
-1.119228 0.38938844 0.11684208 0
-1.121201 0.38635099 0.19266191 0
-1.2831711 0.1369952 0.34592471 0
-1.2393471 0.20446301 0.42249876 0
-1.240777 0.20226169 0.52541703 0
-1.2404126 0.20282257 0.63335288 0
-1.3933203 -0.068756588 -0.049873225 0
-1.1077528 0.3832379 0.042785626 0
-1.1092083 0.380934 0.11702627 0
-1.110351 0.3791256 0.19270357 0
-1.2683746 0.12900686 0.34560442 0
-1.2385342 0.17623794 0.43025991 0
-1.2404629 0.17318511 0.53548402 0
-1.2375923 0.17772877 0.64316392 0
-1.3789874 -0.083071478 -0.050036408 0
-1.0922418 0.38370174 0.042478736 0
-1.0940318 0.38078785 0.1161771 0
-1.0955935 0.37824565 0.19143088 0
-1.2524772 0.12286567 0.34478948 0
-1.2367767 0.14842343 0.43780497 0
-1.2383461 0.14586878 0.5446201 0
-1.2388046 0.14512229 0.65733176 0
-1.3610461 -0.091573723 -0.049964204 0
-1.0780163 0.38243067 0.04225444 0
-1.0750576 0.38738573 0.11451419 0
-1.0737898 0.38950902 0.18765616 0
-1.2507446 0.093153827 0.35104448 0
-1.2406954 0.10998379 0.44941929 0
-1.2357875 0.11820327 0.55386901 0
-1.2378068 0.11482131 0.67004108 0
-1.343156 -0.10006905 -0.049901597 0
-1.0616926 0.38508773 0.041877069 0
-1.0645493 0.38016349 0.11461025 0
-1.0594854 0.38889205 0.18644343 0
-1.2482929 0.063445918 0.35725927 0
-1.246619 0.066331141 0.46293512 0
-1.2436132 0.071512215 0.57217306 0
-1.2391281 0.079243176 0.68571776 0
-1.3313819 -0.11933566 -0.050290093 0
-1.049814 0.38039362 0.041812055 0
-1.051105 0.3781023 0.11408535 0
-1.0446074 0.38963425 0.18499535 0
-1.2548347 0.016521091 0.36848104 0
-1.2381133 0.046198484 0.4673453 0
-1.2407162 0.041578647 0.58233696 0
-1.3096035 -0.12088908 -0.049961176 0
-1.0404606 0.3711741 0.041937746 0
-1.0332013 0.38444591 0.11255535 0
-1.0363517 0.37868619 0.18599895 0
-1.2521461 -0.015842086 0.37536722 0
-1.2412403 0.0040965029 0.48009688 0
-1.2448798 -0.0025575212 0.59915096 0
-1.2872896 -0.1209457 -0.049585067 0
-1.0185364 0.38544744 0.041117851 0
-1.0214216 0.38001126 0.11237441 0
-1.0188382 0.38487899 0.18351744 0
-1.23816 -0.028374081 0.37648937 0
-1.2395312 -0.030957585 0.4900941 0
-1.2405865 -0.032945994 0.60938436 0
-1.2775376 -0.14483583 -0.050179686 0
-1.0146656 0.36590409 0.0416722 0
-1.0085216 0.37784135 0.11193889 0
-1.0103866 0.37421769 0.18451545 0
-1.2410783 -0.07399822 0.3871505 0
-1.2444124 -0.080476172 0.50544715 0
-1.2400578 -0.072015531 0.6236192 0
-1.2605698 -0.15520835 -0.050236188 0
-0.99380916 0.3795287 0.040901721 0
-0.99462825 0.37788689 0.11125959 0
-0.98961896 0.38792819 0.18061671 0
-1.2385629 -0.11109424 0.39530283 0
-1.2380219 -0.11000944 0.51325065 0
-1.2395236 -0.11301995 0.63866347 0
-1.235238 -0.14837086 -0.049618449 0
-0.97904122 0.38179857 0.040596593 0
-0.97973347 0.38036603 0.11031488 0
-0.97880876 0.38227963 0.18067183 0
-1.2397976 -0.15780663 0.40613964 0
-1.2397233 -0.15765285 0.52772844 0
-1.21697 -0.15561318 -0.04957189 0
-0.96717262 0.3783738 0.040525056 0
-0.96470958 0.3836391 0.10930384 0
-0.9691726 0.3740986 0.18125804 0
-1.2412342 -0.2074821 0.41774306 0
-1.2369376 -0.1982975 0.53954273 0
-1.2060826 -0.17909253 -0.050170913 0
-0.95234263 0.38161081 0.040198747 0
-0.95491004 0.37593752 0.10961552 0
-0.95101583 0.3845427 0.17817806 0
-1.2375612 -0.24865234 0.42689365 0
-1.2407069 -0.25560379 0.55738705 0
-1.1883231 -0.1879245 -0.05020123 0
-0.93715358 0.38623792 0.039827358 0
-0.94063461 0.37828058 0.10876174 0
-0.93401277 0.39341766 0.175469 0
-1.2396115 -0.30516744 0.44028005 0
-1.2391707 -0.30415964 0.57193863 0
-1.1706406 -0.19700146 -0.050249577 0
-0.92532885 0.38357103 0.039748069 0
-0.92837912 0.37635207 0.10843187 0
-0.92394561 0.38684469 0.17584085 0
-1.2382687 -0.35705519 0.45230663 0
-1.1510409 -0.20147586 -0.050128821 0
-0.91056013 0.38826692 0.039391067 0
-0.9147774 0.37792474 0.10771531 0
-0.90910685 0.39183092 0.17398421 0
-1.2353929 -0.40833652 0.46410918 0
-1.1292119 -0.20005572 -0.049792036 0
-0.90122384 0.37982863 0.039546829 0
-0.90374362 0.37341952 0.10772396 0
-0.89948875 0.38424188 0.17460997 0
-1.2398145 -0.48137176 0.48182714 0
-1.1138388 -0.21502125 -0.050092902 0
-0.89063996 0.37436926 0.039592624 0
-0.88785011 0.38173622 0.10627512 0
-0.88825601 0.38066447 0.17448252 0
-1.2387632 -0.54490328 0.49685282 0
-1.0926722 -0.21471584 -0.049819507 0
-0.87566465 0.38086241 0.039189123 0
-0.87178105 0.39152092 0.10468795 0
-0.87629026 0.37914538 0.17398779 0
-1.0759563 -0.22654676 -0.0500165 0
-0.86173546 0.38522339 0.0388752 0
-0.86246753 0.3831327 0.10520016 0
-0.86471194 0.37672311 0.17369668 0
-1.0569946 -0.23214078 -0.049985699 0
-0.84892464 0.3869462 0.038668584 0
-0.85278976 0.37544584 0.105644 0
-0.85061842 0.38190651 0.17198752 0
-1.0400081 -0.24380648 -0.050191738 0
-0.83862382 0.38134646 0.038743522 0
-0.83850336 0.38172042 0.10452349 0
-0.83995497 0.37721413 0.17219019 0
-1.0180004 -0.23968875 -0.049815323 0
-0.82545912 0.3848505 0.038482912 0
-0.82509917 0.3860181 0.10364991 0
-0.82500678 0.38631785 0.16981381 0
-0.99997234 -0.24815321 -0.049918916 0
-0.81390673 0.38352525 0.038409188 0
-0.8178609 0.37010115 0.10506326 0
-0.81410939 0.38283712 0.16984767 0
-0.98444849 -0.26581335 -0.050371584 0
-0.80286938 0.38055187 0.10353839 0
-0.80448127 0.37481415 0.17075807 0
-0.95959866 -0.24984348 -0.049587153 0
-0.79098332 0.38076472 0.1031786 0
-0.78925878 0.38721436 0.16787539 0
-0.9432075 -0.26494813 -0.049961388 0
-0.77934146 0.38035095 0.038192183 0
-0.77978957 0.37858647 0.1031017 0
-0.77915698 0.38107765 0.16848686 0
-0.92319828 -0.2661556 -0.049831774 0
-0.76679868 0.38394755 0.16744943 0
-0.90344131 -0.26807451 -0.049737815 0
-0.88677239 -0.28411555 -0.050168809 0
-0.74304223 0.38723576 0.16592142 0
-0.86518633 -0.27724695 -0.049772114 0
-0.84748596 -0.28956091 -0.050083067 0
-0.72244525 0.3759414 0.16718666 0
-0.82780868 -0.29186201 -0.050038524 0
-0.80814731 -0.29408419 -0.050000191 0
-0.79094154 -0.31262088 -0.050559755 0
-0.7680335 -0.29223561 -0.049723785 0
-0.7498312 -0.30519915 -0.050099123 0
-0.73088861 -0.31390655 -0.050329294 0
-0.70957989 -0.30014265 -0.04976166 0
-0.69013792 -0.30361021 -0.049821667 0
-0.67023879 -0.30140293 -0.049687255 0
-0.6504162 -0.2989397 -0.049552757 0
-0.63113689 -0.30602944 -0.049768697 0
-0.61181414 -0.31635451 -0.050108794 0
-0.592004 -0.31559384 -0.050061613 0
-0.57210404 -0.30213296 -0.049569912 0
-0.55247247 -0.31259334 -0.04994116 0
-0.53267515 -0.31675172 -0.050096292 0
-0.51315683 -0.30708933 -0.049766764 0
-0.49380985 -0.29884911 -0.049496662 0
-0.47382045 -0.3061043 -0.049789082 0
-0.45396009 -0.30824125 -0.049907625 0
-0.49542779 0.31812662 0.039496534 0
-0.43368894 -0.31448412 -0.050182275 0
-0.48469499 0.33229721 0.039019663 0
-0.41408834 -0.31124258 -0.05012637 0
-0.3948808 -0.30458081 -0.049956474 0
-0.37618327 -0.29456437 -0.049674436 0
-0.44318703 0.27810425 0.25676331 0
-0.44094372 0.25893104 0.33941966 0
-0.4423973 0.27135444 0.41576001 0
-0.35460275 -0.30828273 -0.050254878 0
-0.42862597 0.26206517 0.26127961 0
-0.42900124 0.26495647 0.33791667 0
-0.42862388 0.26204908 0.42028221 0
-0.4308314 0.27905798 0.49805614 0
-0.33665249 -0.29362357 -0.049822781 0
-0.41955215 0.28767413 0.25511798 0
-0.41963452 0.2882517 0.33065775 0
-0.41996682 0.29058176 0.40906018 0
-0.41964516 0.28832644 0.49421641 0
-0.3165749 -0.29460967 -0.049963273 0
-0.40679747 0.28566384 0.25610501 0
-0.40497324 0.27393126 0.33608919 0
-0.4065077 0.28380024 0.41265884 0
-0.40917081 0.30092829 0.48875254 0
-0.29865509 -0.28216732 -0.04962704 0
-0.39111409 0.26686132 0.26148018 0
-0.39225543 0.27363867 0.33686164 0
-0.38980243 0.25907248 0.42387122 0
-0.39854541 0.31098908 0.48463321 0
-0.27808571 -0.28564394 -0.049875814 0
-0.38651252 0.31213903 0.48510361 0
-0.25687468 -0.29148519 -0.050220616 0
-0.37450716 0.31356466 0.48551181 0
-0.24012308 -0.27462471 -0.04974829 0
-0.36930594 0.34788901 0.46918696 0
-0.22016345 -0.27383232 -0.049869809 0
-0.36035383 0.36141318 0.4635078 0
-0.19816752 -0.28135467 -0.05030575 0
-0.34828427 0.36036408 0.46535817 0
-0.17970045 -0.2733103 -0.050180733 0
-0.3383666 0.36841387 0.46260291 0
-0.16102441 -0.26640499 -0.050105896 0
0.34337083 -2.2015226 0.1335004 0
-0.32595798 0.36636466 0.46512485 0
-0.14235283 -0.25967097 -0.050045833 0
0.39083996 -2.2045972 0.13404422 0
-0.31489089 0.3696959 0.46494502 0
-0.12372128 -0.2529397 -0.049994372 0
-0.30262488 0.3688342 0.46701995 0
-0.10652582 -0.24155903 -0.049778081 0
-0.30378839 0.41289556 0.44570774 0
-0.085562415 -0.24262929 -0.050035093 0
-0.29258385 0.41415668 0.44675639 0
-0.067565478 -0.23409581 -0.049942125 0
-0.28730023 0.43358338 0.43831506 0
-0.047489025 -0.23181558 -0.050093308 0
-0.26362544 0.39810604 0.45891505 0
-0.033183791 -0.21305442 -0.049629923 0
-0.014661112 -0.20657504 -0.049638968 0
0.0078742718 -0.21046698 -0.05005385 0
0.028905353 -0.20980704 -0.050306659 0
0.041897617 -0.18930936 -0.04980417 0
0.059427343 -0.18025398 -0.049749959 0
0.076514266 -0.17028987 -0.049668532 0
-0.18918912 0.4268254 0.38100195 0
0.10143539 -0.17748094 -0.050269261 0
0.11799892 -0.16610157 -0.050151844 0
-0.1624871 0.42377895 0.38676968 0
-0.20349564 0.51002264 0.49476442 0
0.13716443 -0.16020191 -0.050259911 0
-0.15969621 0.44436699 0.37959728 0
-0.18642609 0.4988035 0.5051598 0
0.15153416 -0.14466298 -0.049992502 0
-0.15409075 0.45843989 0.37541932 0
-0.18471144 0.51886505 0.49496731 0
0.17302401 -0.14314675 -0.05029548 0
-0.13060553 0.43776047 0.38748232 0
-0.17721476 0.52693367 0.49274728 0
0.18678887 -0.12683654 -0.050011504 0
-0.12796085 0.45730948 0.38084602 0
-0.17349975 0.54182547 0.48597902 0
0.20666762 -0.12194491 -0.05019886 0
-0.11294595 0.45374936 0.38512257 0
-0.15992133 0.53836238 0.49164525 0
0.21984179 -0.10505474 -0.049904387 0
-0.080773987 0.42070985 0.40357965 0
-0.15255032 0.54624379 0.48971891 0
0.23323943 -0.088947542 -0.049647003 0
-0.059621908 0.40860933 0.41230816 0
-0.14697872 0.55702418 0.48584691 0
0.2550092 -0.087007411 -0.049985994 0
-0.057605691 0.42913121 0.40544075 0
-0.14003296 0.56522167 0.48378462 0
0.27302173 -0.078578599 -0.050066195 0
0.83662325 -0.98320127 0.48144475 0
-0.13042189 0.56897849 0.48486975 0
0.29501274 -0.076249249 -0.050415248 0
0.88381141 -0.99532509 0.48783895 0
-0.12249807 0.57545745 0.4841314 0
0.30594566 -0.056674842 -0.050041806 0
0.91280574 -0.97818851 0.48809561 0
0.020293375 0.37708658 0.44089133 0
-0.11521883 0.58286119 0.48280078 0
0.32117704 -0.043916348 -0.049964909 0
0.9508155 -0.97430038 0.4913187 0
0.035707556 0.37790698 0.44415247 0
-0.1065518 0.58811623 0.48306274 0
0.33948901 -0.035678271 -0.050092194 0
0.99001509 -0.97132587 0.49487546 0
0.043179534 0.39050174 0.44160223 0
-0.11035053 0.611323 0.47043896 0
0.35371801 -0.02156282 -0.049972855 0
0.059315287 0.39070094 0.44538307 0
-0.09459696 0.60623032 0.47828943 0
0.37319985 -0.014747625 -0.050183505 0
0.069037043 0.40003937 0.44461051 0
-0.091958173 0.61958861 0.47278884 0
0.38544074 0.0019379803 -0.049965989 0
1.1298075 -0.98680353 0.10615045 0
1.134925 -0.99360108 0.30839092 0
0.090211473 0.39409065 0.45181638 0
-0.080787309 0.6212281 0.47595963 0
0.4081789 0.0047936388 -0.050377257 0
0.1081989 0.39298624 0.45669669 0
-0.077582903 0.63339943 0.47137281 0
0.41836557 0.023947591 -0.050062988 0
0.12549593 0.3932336 0.46103078 0
0.43770322 0.031510469 -0.050284885 0
-0.064471819 0.64859307 0.46914431 0
0.44675478 0.051642176 -0.049935829 0
-0.054175891 0.65160418 0.47165024 0
0.46050546 0.065913908 -0.049863778 0
0.47805855 0.07578551 -0.050008215 0
-0.041844346 0.66752356 0.46923721 0
0.4943665 0.087195866 -0.050090916 0
1.2116241 -0.70872629 0.10034215 0
-0.034912921 0.67452341 0.46886852 0
0.49921533 0.11109494 -0.049577378 0
1.196906 -0.64378059 0.098275267 0
-0.023647944 0.67681384 0.47236878 0
0.51871186 0.1190189 -0.049846493 0
0.37974247 0.26563126 0.054634511 0
-0.024167577 0.69175529 0.46568874 0
0.53192407 0.13368452 -0.049795415 0
0.38582715 0.28398013 0.054312345 0
0.8349691 -0.17806971 0.22068202 0
0.55099481 0.14242649 -0.050050631 0
0.39092407 0.30300176 0.053956032 0
0.83488446 -0.14235783 0.21794049 0
-0.004508236 0.69968027 0.47044554 0
0.56217319 0.15914512 -0.049914092 0
0.40353569 0.31432474 0.053991418 0
0.74160522 -0.016375786 0.20128992 0
0.74961203 -0.024208074 0.33574417 0
0.74079865 -0.015586859 0.46933028 0
0.00068672624 0.70839274 0.46899804 0
0.58225924 0.16723812 -0.050229132 0
0.43195221 0.31061023 0.054813247 0
0.84138054 -0.079927571 0.21374756 0
0.19407059 0.53751624 0.35151035 0
0.0091976738 0.71385938 0.47037598 0
0.58682853 0.19007111 -0.049788952 0
0.45967397 0.30833721 0.055589341 0
0.83326048 -0.039134625 0.21010639 0
0.18802078 0.56100112 0.34468788 0
0.019506058 0.71773624 0.47324973 0
0.60419017 0.20088792 -0.049984254 0
0.83704323 -0.010282641 0.073206812 0
0.84037822 -0.0133071 0.20879221 0
0.1941293 0.57276547 0.34353715 0
0.020193299 0.73050523 0.46842751 0
0.62228781 0.21124208 -0.050218988 0
0.84499389 0.014326686 0.07283216 0
0.84152907 0.017390246 0.20668353 0
0.83392745 0.024111504 0.34094539 0
0.20988669 0.57588476 0.34675035 0
0.028103253 0.73661673 0.4695043 0
0.62291545 0.23687816 -0.049633935 0
0.83394414 0.05497038 0.071580671 0
0.84015542 0.049616214 0.20429458 0
0.84236485 0.047711726 0.33929244 0
0.23092265 0.57477778 0.35226473 0
0.032373808 0.74592775 0.46778056 0
0.64868206 0.24085522 -0.05024245 0
0.84705383 0.074165218 0.071492933 0
0.84070259 0.079502098 0.20225763 0
0.83413476 0.085020892 0.33380097 0
0.92599577 0.0078308526 0.50033915 0
0.26679739 0.56174964 0.36416331 0
0.27374825 0.55590892 0.45549116 0
0.043348275 0.74951202 0.47135928 0
0.66480368 0.25329077 -0.050401956 0
0.83750659 0.11184143 0.070371762 0
0.83458942 0.11423063 0.19936895 0
0.84034568 0.10951602 0.33184236 0
0.93890816 0.02879023 0.49946031 0
0.29548404 0.5557757 0.37277773 0
0.25596675 0.58814168 0.44130376 0
0.04573556 0.76032788 0.46835333 0
0.67660004 0.26932669 -0.050369482 0
0.85266119 0.12879324 0.070411958 0
0.84240168 0.13698244 0.19848444 0
0.83581513 0.14223993 0.32749623 0
0.98627347 0.022142762 0.50992376 0
0.27197757 0.59229976 0.35905606 0
0.24999721 0.60984468 0.43373185 0
0.054395758 0.76597542 0.47024128 0
0.67697483 0.29422134 -0.049829911 0
0.85335296 0.15703464 0.069807328 0
0.83866864 0.16845608 0.19607584 0
0.83337051 0.17257702 0.32376364 0
0.25488266 0.62252396 0.43207151 0
0.06652125 0.76903111 0.47476807 0
0.68926734 0.30961126 -0.049843423 0
0.85516149 0.18389928 0.069274463 0
0.84654742 0.19042683 0.19530955 0
0.84942061 0.18824971 0.32433835 0
0.25986424 0.63500619 0.43056029 0
0.067378126 0.78086913 0.47089577 0
0.70837182 0.31998867 -0.050167721 0
0.84559327 0.21869898 0.068256788 0
0.83946735 0.22322083 0.19258933 0
0.83910996 0.22348452 0.31904322 0
0.28445533 0.63290209 0.43923566 0
0.075512789 0.78713274 0.47253424 0
0.71744794 0.33786088 -0.050053928 0
0.84751862 0.24435639 0.067772992 0
0.83737391 0.25164914 0.19060855 0
0.83444303 0.25375605 0.31514829 0
0.085222326 0.79235172 0.47536615 0
0.7238403 0.35751736 -0.049834039 0
0.84803957 0.27058458 0.067246377 0
0.84227961 0.27461624 0.18961045 0
0.83995563 0.27624291 0.31361273 0
0.83732051 0.27808738 0.44034669 0
0.0961143 0.79689175 0.47907692 0
0.73575181 0.37322956 -0.049865194 0
0.87781554 0.2764346 0.068002433 0
0.84371191 0.29967099 0.18820697 0
0.84181601 0.30096287 0.31135532 0
0.83188778 0.3077274 0.43490878 0
0.11702635 0.79479724 0.48998782 0
0.76530033 0.37727726 -0.050660115 0
0.91345602 0.27903998 0.069006577 0
0.83521324 0.33092028 0.18557543 0
0.84653324 0.32341433 0.30980256 0
0.8397308 0.32792479 0.43369484 0
0.11212071 0.81037945 0.482418 0
0.75016683 0.41081977 -0.049552456 0
0.952591 0.28023821 0.070152469 0
0.84152859 0.35188335 0.18491027 0
0.83583337 0.35555726 0.30501446 0
0.84270459 0.3511247 0.43108988 0
0.12072422 0.81686646 0.48458233 0
0.77370721 0.4191798 -0.050101336 0
0.99495202 0.28037065 0.071425952 0
0.84105581 0.37692523 0.18342276 0
0.83963937 0.37781388 0.30343893 0
0.83667225 0.37967551 0.42588118 0
0.1254033 0.82592601 0.4840396 0
0.76827222 0.44567156 -0.049438715 0
1.0383726 0.28091329 0.072734065 0
0.84349376 0.39978719 0.1823529 0
0.84494227 0.39890367 0.30225113 0
0.84422201 0.39934295 0.42487928 0
0.1305141 0.83469707 0.48388046 0
0.78324479 0.45952511 -0.049641911 0
1.0775992 0.28501916 0.073858678 0
0.83708066 0.42760885 0.18022129 0
0.8456735 0.42251468 0.30016956 0
0.84365088 0.4237138 0.42154989 0
0.13874914 0.84161001 0.48595288 0
0.80048305 0.47224277 -0.049944192 0
0.84971255 0.44388896 0.18051064 0
0.8492083 0.44417942 0.29874861 0
0.84642857 0.44578034 0.41932124 0
0.13848199 0.85352325 0.48225141 0
0.80287725 0.49351054 -0.049643721 0
0.84385103 0.47059387 0.17854609 0
0.84799534 0.4682759 0.29641315 0
0.83498937 0.47555023 0.41303375 0
0.15388264 0.85649514 0.48932457 0
0.81938881 0.50687665 -0.049929701 0
0.84946591 0.49054819 0.17803957 0
0.84074897 0.4952805 0.29291794 0
0.8359018 0.49791199 0.41048405 0
0.83775061 0.51949978 -0.050295264 0
0.84818107 0.51400608 0.17672895 0
0.8357082 0.52057546 0.28996494 0
0.84206742 0.5172261 0.40954745 0
0.84392375 0.5386408 -0.050176263 0
0.85160524 0.53471774 0.17603074 0
0.84497494 0.53810394 0.28999299 0
0.84441811 0.53838837 0.40759385 0
0.84054464 0.54036659 0.52823454 0
0.85393757 0.55579084 -0.05022062 0
0.84421128 0.56060475 0.17407103 0
0.84353954 0.56093723 0.2879118 0
0.83835 0.56350571 0.40333194 0
0.84587008 0.55978376 0.52691549 0
0.85618263 0.57670301 -0.049965717 0
0.86882263 0.57064396 0.17597643 0
0.84338886 0.58283591 0.28615779 0
0.83627421 0.58624637 0.40031496 0
0.83406955 0.58730322 0.5193764 0
0.87021357 0.59195226 -0.050186545 0
0.90579456 0.5754438 0.17935015 0
0.83888036 0.60648984 0.28360257 0
0.82972628 0.61073709 0.39613849 0
0.83620077 0.60773313 0.51711822 0
0.86714429 0.61504942 -0.049744517 0
0.93066388 0.58654481 0.18128638 0
0.84391838 0.62547213 0.28300789 0
0.83530849 0.62933588 0.39546418 0
0.84354252 0.62564081 0.51686692 0
0.87510592 0.63302594 -0.0497455 0
0.96985704 0.5919314 0.18490641 0
0.83630687 0.64985347 0.27997693 0
0.837861 0.64917946 0.3940163 0
0.84156972 0.64757091 0.51332122 0
0.89051479 0.64788747 -0.05004352 0
1.0008146 0.60169053 0.18755576 0
0.84725755 0.6660049 0.28065154 0
0.83973986 0.66915357 0.39245901 0
0.83191508 0.67243081 0.50712323 0
0.89408201 0.66776431 -0.049891278 0
1.0336745 0.61135405 0.19042645 0
0.83863693 0.69017011 0.27755544 0
0.83566648 0.69137049 0.38934109 0
0.84231645 0.68868321 0.50826603 0
0.90056509 0.68639356 -0.049861111 0
1.0689192 0.62081409 0.19357222 0
0.84668726 0.70738071 0.27776015 0
0.84870857 0.70659333 0.39100152 0
0.84374946 0.70852506 0.5062744 0
0.27049848 0.93182516 0.45055208 0
0.91855758 0.70068616 -0.050278913 0
0.84591836 0.72793323 0.27630696 0
0.83953267 0.73032844 0.38665232 0
0.83852929 0.73070484 0.50201708 0
0.27896336 0.94059843 0.4529407 0
0.92153722 0.72071207 -0.050131869 0
0.85070568 0.74626845 0.27597541 0
0.83820003 0.75078052 0.38453141 0
0.83784133 0.75090992 0.49948108 0
0.26243564 0.9585188 0.44208354 0
0.92197281 0.74151343 -0.049898885 0
0.85403877 0.76506186 0.2754119 0
0.84484082 0.76825023 0.38464245 0
0.83572263 0.77141094 0.4965421 0
0.83835787 0.77049744 0.61763149 0
0.26421306 0.96951747 0.44108689 0
0.93144685 0.75913876 -0.050016813 0
0.8457461 0.78764224 0.27268618 0
0.84337765 0.78842998 0.38263336 0
0.83575469 0.79096532 0.4944602 0
0.83507305 0.79119205 0.61358839 0
0.29784772 0.96986955 0.45696551 0
0.94096786 0.77683973 -0.050144367 0
0.84526914 0.80733567 0.2715047 0
0.83558625 0.81042129 0.37900597 0
0.84161395 0.80850047 0.49450749 0
0.83521312 0.8105402 0.61116314 0
0.30819866 0.97848207 0.46055591 0
0.94830018 0.79530525 -0.050198078 0
0.84448677 0.82695287 0.27031702 0
0.8297382 0.83144897 0.37598482 0
0.83642715 0.82940984 0.49078962 0
0.83776659 0.82900149 0.60989761 0
0.31308714 0.98895055 0.46133211 0
0.94302648 0.8174836 -0.049791511 0
0.87259406 0.83798939 0.27460673 0
0.84607607 0.84570986 0.37894058 0
0.83940393 0.84765244 0.49000552 0
0.83924299 0.84769922 0.60827261 0
0.33175734 0.99544924 0.46935615 0
0.95236629 0.83531195 -0.049938176 0
0.89553696 0.85108387 0.2779409 0
0.83943468 0.86665404 0.37584931 0
0.83910662 0.86674505 0.48817319 0
0.83743709 0.86720842 0.6053443 0
0.32211378 1.0102268 0.4626928 0
0.96196073 0.85318321 -0.050102059 0
0.92078322 0.8640548 0.28172448 0
0.83717424 0.88612896 0.37399402 0
0.84097832 0.88512462 0.48717609 0
0.83975953 0.88544637 0.60429889 0
0.3367385 1.0182523 0.46870649 0
0.96641666 0.8724646 -0.050084595 0
0.96262103 0.87341577 0.28861135 0
0.8413077 0.90381581 0.37389094 0
0.84000653 0.90414184 0.48528644 0
0.84203452 0.90363371 0.60333472 0
0.32951662 1.0320662 0.46348473 0
0.96393961 0.89338142 -0.049821723 0
0.98479468 0.88843352 0.29185471 0
0.84314102 0.92204094 0.37324351 0
0.83152002 0.92479801 0.48091486 0
0.82960767 0.92525172 0.59621501 0
0.32598725 1.0447359 0.46026695 0
0.97369927 0.91137052 -0.050016928 0
1.015227 0.90206873 0.29665026 0
0.83837193 0.94168234 0.37093174 0
0.84288281 0.94067192 0.48341185 0
0.84725171 0.93969339 0.60198992 0
0.34628633 1.0519041 0.46935788 0
0.9771226 0.93083918 -0.049988709 0
1.05703 0.91399455 0.30356055 0
0.84108025 0.95951724 0.3706404 0
0.83540922 0.96071273 0.47956577 0
0.84610885 0.95845723 0.59987718 0
0.35838154 1.0612712 0.47427598 0
0.98160058 0.95008236 -0.050007872 0
1.0766193 0.93129855 0.30639759 0
0.85409266 0.97528881 0.37308797 0
0.84164423 0.97774965 0.48046398 0
0.830185 0.98001498 0.59163123 0
0.36752066 1.0714769 0.47773445 0
0.98115581 0.97025132 -0.04985708 0
0.85056609 0.99436253 0.37129053 0
0.83442134 0.99734342 0.47687972 0
0.83553916 0.99713701 0.59247762 0
0.39157251 1.0791081 0.4888379 0
0.99189609 0.98839569 -0.050120983 0
0.85121995 1.0125417 0.37064138 0
0.84408969 1.0137656 0.47908837 0
0.8490991 1.0129057 0.59686005 0
0.37548676 1.0941976 0.47959006 0
0.98992914 1.0087484 -0.049933285 0
0.43368295 1.0970286 0.041826036 0
0.43626949 1.0966182 0.11412626 0
0.41783729 1.0995435 0.18408534 0
0.43475923 1.0968578 0.26230153 0
0.43692681 1.0965139 0.34094939 0
0.42428622 1.0985199 0.41754335 0
0.39405671 1.1033176 0.48801371 0
0.99421507 1.0280588 -0.049980782 0
0.40522841 1.1139468 0.040730808 0
0.40594569 1.1138422 0.11062582 0
0.39806119 1.114992 0.18013993 0
0.40517929 1.1139539 0.25418401 0
0.40257743 1.1143334 0.32875913 0
0.40756252 1.1136065 0.40975767 0
0.39453104 1.1155068 0.48733032 0
1.0039725 1.0466784 -0.050234031 0
0.39907756 1.1271216 0.040448371 0
0.42914984 1.1231223 0.11295801 0
0.4338893 1.1224921 0.18635297 0
0.43807927 1.1219349 0.26221648 0
0.42463705 1.1237226 0.3355968 0
0.42513022 1.1236569 0.41638729 0
0.40899548 1.1258026 0.49378705 0
1.0003562 1.0670886 -0.050014429 0
0.37383685 1.1423922 0.039485898 0
0.43066445 1.1355618 0.11295161 0
0.42633733 1.1360819 0.18469395 0
0.42624632 1.1360928 0.25876775 0
0.42022195 1.136817 0.33359244 0
0.43103024 1.1355178 0.41819409 0
1.0127808 1.0856227 -0.050380342 0
0.35669866 1.1561112 0.038822565 0
0.85121375 1.1029812 0.36745253 0
0.8296693 1.1052959 0.47012797 0
0.83196992 1.1050488 0.58456254 0
0.99862677 1.1069367 -0.049801055 0
0.3587338 1.1675463 0.038853802 0
0.83833545 1.1221192 0.36369243 0
0.84555775 1.1214352 0.47484732 0
0.83224624 1.1226959 0.58394164 0
1.0010126 1.1264871 -0.049824454 0
0.35201868 1.1797229 0.038576722 0
0.84663063 1.1391507 0.36541811 0
0.844567 1.13932 0.47399521 0
0.83306319 1.1402637 0.58363825 0
1.0060507 1.1458732 -0.049951579 0
0.37248114 1.1898204 0.039277978 0
0.83652037 1.1576326 0.36249006 0
0.83967549 1.1574137 0.47191808 0
0.82975191 1.1581022 0.58171368 0
1.0052547 1.1656833 -0.049878716 0
0.85959309 1.1739455 0.36810324 0
0.83711141 1.1752207 0.47069395 0
0.83778483 1.1751826 0.58458817 0
1.01177 1.1851225 -0.05007609 0
0.85378486 1.1920894 0.36639017 0
0.8315255 1.1930711 0.46853888 0
0.84708875 1.1923847 0.58807689 0
1.0092125 1.2049899 -0.049958058 0
0.85003072 1.2100024 0.36526042 0
0.83966845 1.2103287 0.47102928 0
0.83919424 1.2103436 0.58452976 0
1.0104399 1.2247056 -0.049984138 0
0.84936064 1.2277484 0.36497551 0
0.84007007 1.2279239 0.47101545 0
0.84053808 1.227915 0.58490276 0
1.0131189 1.2444338 -0.050070908 0
0.84575289 1.2454875 0.36399814 0
0.84112662 1.2455167 0.47129324 0
0.84243077 1.2455084 0.58559465 0
0.99721617 1.2641093 -0.049503155 0
0.85153133 1.2631921 0.36547244 0
0.84020597 1.2631208 0.47098693 0
0.85100001 1.2631887 0.58914274 0
1.0142516 1.2840095 -0.050120249 0
0.85905749 1.281078 0.36744994 0
0.844181 1.280797 0.47238338 0
0.8355127 1.2806332 0.58282173 0
1.0144371 1.3038177 -0.050144672 0
0.84749633 1.298561 0.3646135 0
0.84006792 1.298327 0.47116226 0
0.84722382 1.2985524 0.58785594 0
1.0111214 1.3234921 -0.050052911 0
0.84491438 1.3161625 0.3641248 0
0.83456165 1.3157059 0.46954998 0
0.83310384 1.3156416 0.58228105 0
1.0097761 1.3432164 -0.050040394 0
0.85586852 1.3344864 0.36715147 0
0.83786017 1.3334649 0.47094348 0
0.84191805 1.3336951 0.58630216 0
1.0103303 1.3630668 -0.05010473 0
1.2996278 1.3831336 0.072457835 0
1.2903144 1.3824877 0.20505047 0
1.2982877 1.3830408 0.34147629 0
0.84711975 1.3517457 0.36520079 0
0.83429712 1.3508563 0.47012442 0
0.83822256 1.3511286 0.58522928 0
1.0030866 1.3823261 -0.049898751 0
1.2475266 1.4023771 0.070654884 0
1.2455949 1.4022187 0.20041814 0
1.020084 1.3837204 0.29145399 0
0.84466976 1.3693315 0.36491618 0
0.84387571 1.3692664 0.47376445 0
0.8351472 1.3685504 0.58450401 0
1.0025918 1.4020821 -0.049943246 0
1.2372342 1.424307 0.07035777 0
1.2393942 1.4245116 0.19996524 0
0.8960759 1.391993 0.26930702 0
0.839423 1.386627 0.36397114 0
0.83100468 1.3858296 0.46998397 0
0.83181006 1.3859059 0.5837602 0
1.0008107 1.4217345 -0.049950533 0
0.64410657 1.3834106 0.04914245 0
0.65236419 1.3842977 0.1367615 0
0.64177114 1.3831596 0.22351485 0
0.63519353 1.382453 0.31202167 0
0.84421068 1.4049095 0.47499371 0
0.84148377 1.4046166 0.58852434 0
1.0004646 1.4415675 -0.050018325 0
0.56137317 1.3887917 0.046229374 0
0.54709691 1.3870758 0.12555459 0
0.55705374 1.3882725 0.20843814 0
0.53648776 1.3858006 0.28709629 0
0.84518343 1.4229038 0.47599223 0
0.85110003 1.423615 0.59336984 0
0.99452132 1.4607078 -0.04989364 0
0.55379957 1.4020976 0.04602078 0
0.54598862 1.4010588 0.12562515 0
0.55668002 1.4024806 0.20869309 0
0.54811531 1.4013417 0.29053739 0
0.84186512 1.4404066 0.47562823 0
0.83792704 1.4398829 0.58880472 0
0.99085623 1.4800946 -0.049859602 0
0.55047315 1.4158764 0.045971077 0
0.55065483 1.4159029 0.12634209 0
0.54382235 1.4149066 0.20670581 0
0.56165129 1.4175065 0.29452726 0
0.84025842 1.4581338 0.47591311 0
0.84027535 1.4581363 0.59081113 0
0.98401302 1.4989557 -0.049719431 0
0.56065434 1.4317658 0.046415813 0
0.54748708 1.4296761 0.12622835 0
0.55303353 1.4305563 0.20877297 0
0.55246454 1.4304659 0.29270777 0
0.84264642 1.4765198 0.47761929 0
0.84045738 1.4761724 0.59200978 0
0.97899884 1.5180337 -0.049653802 0
0.55076247 1.4445302 0.046141639 0
0.55688661 1.4455814 0.12750357 0
0.55250829 1.4448299 0.20909901 0
0.55823523 1.4458129 0.29479849 0
0.83906227 1.4940147 0.4773913 0
0.83838254 1.493898 0.59235817 0
0.98456329 1.5390209 -0.049980786 0
0.5524177 1.4592324 0.046291865 0
0.55146521 1.4590565 0.12718391 0
0.54211277 1.4573298 0.20764858 0
0.55368501 1.4594663 0.29426646 0
0.82973176 1.5104339 0.47529313 0
0.85330909 1.5147871 0.59995937 0
0.98108453 1.5584588 -0.049989089 0
0.55092794 1.4734231 0.046334747 0
0.55281454 1.4737961 0.12762378 0
0.55112344 1.4734617 0.209791 0
0.53923637 1.4711119 0.29120347 0
0.83722407 1.5300196 0.47896495 0
0.83541888 1.5296628 0.59384018 0
0.9711259 1.5765398 -0.049769912 0
0.55208224 1.4882045 0.046480726 0
0.54768747 1.487278 0.12737384 0
0.54889983 1.4875336 0.20990594 0
0.5445208 1.4866104 0.29331571 0
0.83678406 1.5482203 0.48003322 0
0.84655434 1.5502799 0.60006565 0
0.96475321 1.5952688 -0.049689628 0
0.55151433 1.5027078 0.046570908 0
0.55768698 1.5040904 0.1288078 0
0.54408544 1.5010438 0.20957506 0
0.54468244 1.5011775 0.29414552 0
0.84772533 1.5690558 0.48506284 0
0.84276885 1.5679456 0.60008782 0
0.96620542 1.6157993 -0.049904861 0
0.55756456 1.518849 0.046910882 0
0.54798943 1.5165774 0.12809381 0
0.54674202 1.5162814 0.21065946 0
0.54498523 1.5158646 0.29506287 0
0.83510667 1.5846961 0.48214126 0
0.83315665 1.5842334 0.59772521 0
0.95361596 1.6329708 -0.049613465 0
0.54884523 1.5315387 0.046715811 0
0.55174834 1.5322663 0.12888582 0
0.55322009 1.5326351 0.21249342 0
0.5452053 1.5306267 0.2960099 0
0.84337431 1.6053451 0.48644152 0
0.83645791 1.6036119 0.60095447 0
0.95066518 1.6524776 -0.049684972 0
0.55799025 1.548805 0.047185607 0
0.55304867 1.5475003 0.12942912 0
0.55017537 1.5467417 0.21259558 0
0.55505484 1.54803 0.29955 0
0.84239155 1.6238916 0.4876624 0
0.83606571 1.6222215 0.6027171 0
0.95961648 1.6753434 -0.050206803 0
0.55159503 1.5621046 0.047089316 0
0.55333596 1.5625877 0.12988271 0
0.53879744 1.5585529 0.2111716 0
0.55871946 1.5640818 0.30152282 0
0.83412963 1.6405168 0.48645476 0
0.84772199 1.6442891 0.60976356 0
0.95279604 1.6940038 -0.050154779 0
0.55768663 1.5789713 0.047463194 0
0.55471176 1.5781051 0.130481 0
0.53718978 1.5730038 0.21160546 0
0.55978709 1.5795828 0.30286646 0
0.84740192 1.6633192 0.49277687 0
0.85201186 1.6646614 0.61377889 0
0.94643384 1.7127689 -0.050128415 0
0.84807628 1.6827846 0.38087603 0
0.83579761 1.6790414 0.49057069 0
0.84143394 1.6807595 0.611485 0
0.93231517 1.7290461 -0.049820147 0
0.85215348 1.7035012 0.38344222 0
0.84579057 1.7014736 0.49596587 0
0.84090251 1.6999159 0.61363554 0
0.91769403 1.7449303 -0.049499374 0
0.84581858 1.721025 0.38328964 0
0.83320481 1.7168298 0.49356619 0
0.8353942 1.7175579 0.61372846 0
0.9254294 1.7683278 -0.050029494 0
0.8514604 1.7426875 0.38642991 0
0.83060819 1.7354593 0.49474123 0
0.83419198 1.7367016 0.61580598 0
0.91082853 1.7840673 -0.049725428 0
0.84918815 1.7618271 0.3875117 0
0.83284277 1.7559297 0.49771315 0
0.82872802 1.7544451 0.61612296 0
0.92430431 1.8101126 -0.050498035 0
0.83787102 1.7776914 0.38619953 0
0.82134503 1.7714925 0.49591103 0
0.83675724 1.7772737 0.62250674 0
0.91470593 1.8277578 -0.050402906 0
0.83684212 1.7974274 0.38775244 0
0.82719272 1.7936686 0.50036293 0
0.82250947 1.7918444 0.61915082 0
0.89626187 1.8417597 -0.049975213 0
0.84015864 1.819088 0.39057726 0
0.8271597 1.8138349 0.50282729 0
0.82919389 1.814657 0.62520707 0
0.89269596 1.8616692 -0.050127946 0
0.83433145 1.8372244 0.39096302 0
0.8250888 1.8333533 0.50466102 0
0.8194409 1.8309877 0.62404543 0
0.88971263 1.8819523 -0.050313912 0
0.82420522 1.853541 0.3902187 0
0.82099551 1.8521489 0.50586027 0
0.8211574 1.8522192 0.62814623 0
0.86884564 1.8943572 -0.049811088 0
0.84044176 1.8816109 0.39689967 0
0.81154424 1.8686429 0.50519854 0
0.8277337 1.875908 0.63459665 0
0.86732703 1.9153516 -0.050072942 0
0.81736881 1.8921726 0.39266291 0
0.82250124 1.8945539 0.51209378 0
0.82337719 1.8949603 0.63623059 0
0.85941178 1.933488 -0.050093565 0
0.82980543 1.9192959 0.39848474 0
0.81562644 1.9124991 0.51257193 0
0.81709176 1.9132015 0.63709861 0
0.85048491 1.9511434 -0.050083082 0
0.81504351 1.9336021 0.39669725 0
0.80878872 1.9305063 0.51315039 0
0.81104857 1.9316248 0.63818973 0
0.84209377 1.9690677 -0.050102897 0
0.81825918 1.956895 0.4000999 0
0.80889815 1.9521142 0.51641238 0
0.80559236 1.9504259 0.63966823 0
0.83238202 1.9863158 -0.050078642 0
0.81774932 1.9786088 0.4025352 0
0.79696947 1.9676641 0.51527137 0
0.79636747 1.9673471 0.63950354 0
0.82179743 2.0030739 -0.050027542 0
0.80361837 1.9932048 0.40111202 0
0.79254895 1.9871955 0.51703876 0
0.79342693 1.9876721 0.64239836 0
0.81968313 2.0245321 -0.050331179 0
0.77846593 2.0014791 0.39651048 0
0.79243869 2.0092943 0.52055508 0
0.79021472 2.0080504 0.64530575 0
0.8096723 2.041693 -0.050322782 0
0.78431612 2.0270889 0.40103391 0
0.7912659 2.0310917 0.52379555 0
0.78726667 2.0287883 0.64848268 0
0.79267985 2.0547116 -0.050033499 0
0.77719241 2.0455298 0.40183848 0
0.77601236 2.0448303 0.52172011 0
0.78381449 2.0494556 0.65156603 0
0.78308696 2.0720084 -0.050058253 0
0.78132135 2.0709314 0.40608129 0
0.7756632 2.0674801 0.52550417 0
0.77019876 2.0641468 0.64986968 0
0.76992244 2.0870888 -0.049941819 0
0.75786489 2.0795238 0.4021453 0
0.76119405 2.0816126 0.52388412 0
0.77156574 2.0881197 0.65557319 0
0.75993127 2.1041222 -0.049967293 0
0.7553671 2.1011779 0.4045732 0
0.74906987 2.0971158 0.52324945 0
0.76262468 2.1058598 0.65639251 0
0.74314469 2.1166751 -0.049711045 0
0.74740785 2.1195018 0.4054327 0
0.7515958 2.1222789 0.52853519 0
0.75247306 2.1228604 0.65672773 0
0.73212725 2.1329441 -0.049708612 0
0.72904974 2.1308472 0.40316018 0
0.73547369 2.1352241 0.52648616 0
0.73442549 2.1345098 0.65321684 0
0.72076279 2.1489716 -0.049699929 0
0.73127097 2.1563268 0.40732071 0
0.72388047 2.1511538 0.52632409 0
0.72896332 2.1547117 0.65610909 0
0.71794254 2.1711378 -0.050075676 0
0.72079057 2.1731851 0.40762836 0
0.71540695 2.1693151 0.52752066 0
0.71877664 2.1717374 0.65674764 0
0.70496029 2.1861362 -0.050016336 0
0.71882182 2.196368 0.410705 0
0.71170849 2.1911173 0.530797 0
0.71682268 2.1948924 0.66173869 0
0.69801897 2.2056637 -0.050235439 0
0.70486516 2.2108517 0.41006672 0
0.7045576 2.2106185 0.53277779 0
0.70830947 2.2134616 0.66352087 0
0.67938524 2.2162967 -0.049938936 0
0.69220537 2.2262681 0.40989995 0
0.69629222 2.2294469 0.53441125 0
0.69255024 2.2265363 0.66164196 0
0.67124408 2.2350411 -0.05012482 0
0.69772941 2.256182 0.4157306 0
0.68644482 2.2471745 0.53548825 0
0.68203455 2.2436543 0.66260862 0
0.65928751 2.2508345 -0.050147396 0
0.66740376 2.2574818 0.40992263 0
0.67201394 2.2612579 0.53470081 0
0.67486924 2.2635963 0.66549313 0
0.63738042 2.2582912 -0.04971543 0
0.67148536 2.2869494 0.41552439 0
0.65955132 2.2769213 0.53483701 0
0.65611142 2.2740307 0.66227424 0
0.63401836 2.2813358 -0.050157264 0
0.7132836 2.3496628 0.065893397 0
0.71518594 2.3513026 0.18656315 0
0.72013324 2.355567 0.3101885 0
0.64585012 2.2915347 0.41130188 0
0.65228528 2.2970819 0.53734338 0
0.64549273 2.2912266 0.66354072 0
0.62351435 2.2984855 -0.050277442 0
0.67867798 2.347261 0.064906292 0
0.68676084 2.3544078 0.18448135 0
0.67967421 2.3481417 0.30381095 0
0.64492172 2.3174138 0.4154658 0
0.63496536 2.3086104 0.53552508 0
0.63788718 2.3111939 0.66660565 0
0.60549194 2.3089356 -0.050046992 0
0.65029997 2.3495715 0.064206555 0
0.65906137 2.357517 0.18248658 0
0.65869766 2.357187 0.3020809 0
0.62043387 2.3224862 0.41167477 0
0.63555688 2.3362012 0.54179531 0
0.62966138 2.3308547 0.66949886 0
0.58837789 2.320013 -0.049864493 0
0.6463241 2.3739088 0.064689748 0
0.63669461 2.3649523 0.18125668 0
0.63394457 2.3623946 0.29942819 0
0.61580878 2.3455265 0.41478202 0
0.6129027 2.3428235 0.53773457 0
0.62094682 2.3503053 0.67228895 0
0.57931429 2.3385959 -0.050083835 0
0.62623483 2.3833516 0.06439881 0
0.62902659 2.3860145 0.18220881 0
0.62117428 2.3785245 0.29974625 0
0.60377222 2.3619254 0.41541523 0
0.59884351 2.357224 0.53761458 0
0.60321802 2.3613968 0.67009431 0
0.56131238 2.3486559 -0.049871102 0
0.60925704 2.3955555 0.064265557 0
0.61922306 2.4053044 0.18289134 0
0.61543614 2.4016001 0.30189332 0
0.58704299 2.3738258 0.41445479 0
0.58221084 2.3690989 0.53637934 0
0.58681399 2.3736017 0.66872013 0
0.55535704 2.3705926 -0.050271224 0
0.59882015 2.4141927 0.064469106 0
0.61267596 2.428092 0.18411498 0
0.59725755 2.4126251 0.30096346 0
0.57268637 2.3879764 0.41439337 0
0.57852584 2.3938344 0.5413 0
0.57562941 2.3909287 0.67047906 0
0.53454667 2.3776565 -0.049929742 0
0.59191245 2.436671 0.064868011 0
0.60173923 2.4467802 0.18472172 0
0.60180408 2.4468467 0.30593714 0
0.55968398 2.4035163 0.41489163 0
0.55338389 2.3970351 0.53619081 0
0.55890661 2.4027166 0.66909993 0
0.5353846 2.4072139 -0.050711744 0
0.6154899 2.4917247 0.066868909 0
0.61519283 2.4914114 0.18918337 0
0.61869019 2.4951012 0.3143245 0
0.54958171 2.4221919 0.41654423 0
0.5488674 2.4214382 0.54100746 0
0.54535359 2.417731 0.66969883 0
0.50747651 2.4064863 -0.05001191 0
0.53482467 2.4360762 0.41655761 0
0.53767258 2.4391575 0.54276633 0
0.52864152 2.4293861 0.66849351 0
0.49349043 2.420475 -0.050044198 0
0.51802999 2.447706 0.4158608 0
0.51823515 2.4479337 0.54056364 0
0.5192799 2.4490931 0.67190748 0
0.47079846 2.4245944 -0.049615517 0
0.50032896 2.458205 0.4148598 0
0.49987826 2.4576921 0.53892922 0
0.50558394 2.4641862 0.67280644 0
0.46624216 2.4494267 -0.05017861 0
0.49660298 2.4848728 0.41937637 0
0.48607907 2.4725862 0.53966385 0
0.48908827 2.4760995 0.67205673 0
0.44514236 2.4550698 -0.049846012 0
0.47034082 2.4852498 0.41512313 0
0.47447214 2.4901979 0.54164428 0
0.47373793 2.4893186 0.67213196 0
0.42335293 2.4594986 -0.049473211 0
0.45454177 2.4978242 0.41503474 0
0.46046266 2.5050998 0.54250532 0
0.45509586 2.4985049 0.67015731 0
0.42092726 2.4879255 -0.050210167 0
0.44302949 2.5157948 0.41676953 0
0.44320402 2.5160148 0.54174018 0
0.44236216 2.5149534 0.6721645 0
0.39993021 2.4931753 -0.049895644 0
0.42957726 2.5315404 0.41781706 0
0.42660633 2.5276957 0.5413962 0
0.42422143 2.5246096 0.67068261 0
0.38058743 2.5002584 -0.049677905 0
0.40866289 2.5375512 0.41580027 0
0.41051808 2.5400155 0.54140902 0
0.40773526 2.536319 0.67039764 0
0.3650277 2.5122464 -0.049690127 0
0.39347127 2.5510349 0.41625002 0
0.39183494 2.5488033 0.5400486 0
0.39476946 2.5528052 0.67267495 0
0.35414687 2.5308065 -0.049999204 0
0.3823798 2.5703421 0.41858166 0
0.37679002 2.5625145 0.54080969 0
0.38215563 2.5700283 0.67539024 0
0.33514073 2.5380673 -0.049820252 0
0.35440704 2.5657778 0.41351882 0
0.36249128 2.5774055 0.54211926 0
0.35987017 2.5736353 0.67129618 0
0.3246164 2.5576417 -0.050183993 0
0.34666213 2.5902176 0.41754299 0
0.34374776 2.585911 0.54092532 0
0.34466299 2.5872633 0.67238754 0
0.30302718 2.5608861 -0.049852364 0
0.32391068 2.5925977 0.41482502 0
0.32404163 2.5927966 0.53919023 0
0.32571253 2.5953338 0.67080998 0
0.28498241 2.5692356 -0.049751412 0
0.30397752 2.5988858 0.41340008 0
0.30603477 2.6020968 0.53852171 0
0.30363259 2.5983472 0.66687638 0
0.26867536 2.5802455 -0.049772754 0
0.28514543 2.6066811 0.41251516 0
0.28886893 2.6126575 0.53844166 0
0.28470257 2.6059704 0.6653583 0
0.25641891 2.5979779 -0.050083138 0
0.27416083 2.6272705 0.41552418 0
0.27191082 2.6235557 0.53857785 0
0.26614615 2.614038 0.6641829 0
0.24306192 2.6142786 -0.050338328 0
0.254841 2.6342907 0.41453493 0
0.25332519 2.6317153 0.53773862 0
0.25420949 2.6332178 0.66846734 0
0.21919198 2.6125615 -0.04985765 0
0.23482813 2.6399083 0.41321242 0
0.24016716 2.6492462 0.54058677 0
0.23141636 2.6339414 0.66399068 0
0.20118876 2.6207194 -0.049795885 0
0.21230365 2.6407399 0.41057619 0
0.21533169 2.646194 0.53564602 0
0.21869083 2.6522446 0.66800666 0
0.18263008 2.6277614 -0.049698498 0
0.201427 2.6626468 0.41414815 0
0.20045175 2.6608367 0.53754437 0
0.19851388 2.6572402 0.66581237 0
0.1656567 2.6376946 -0.049727671 0
0.18302079 2.6709158 0.41381022 0
0.18143721 2.667886 0.53665036 0
0.17745693 2.6602709 0.66283363 0
0.15133519 2.6529136 -0.049976788 0
0.15867479 2.667397 0.41016936 0
0.16039957 2.6708007 0.53430945 0
0.15783913 2.6657479 0.66113281 0
0.13461448 2.6636519 -0.050053366 0
0.14289279 2.680511 0.4113659 0
0.14111979 2.6769004 0.53326201 0
0.14301611 2.6807623 0.66395587 0
0.1192682 2.6774142 -0.05025737 0
0.11829456 2.6753664 0.40745339 0
0.12757172 2.6948769 0.53668588 0
0.12022259 2.6794212 0.65934962 0
0.097968481 2.6785898 -0.049973167 0
0.099199496 2.6812649 0.4067522 0
0.10064384 2.6844039 0.5297336 0
0.10755237 2.6994176 0.66462606 0
0.075929545 2.677619 -0.049617186 0
0.085877798 2.6999755 0.40970007 0
0.083710037 2.6951039 0.53065407 0
0.081182919 2.6894248 0.6563552 0
0.06269189 2.6964893 -0.05004501 0
0.063934408 2.6993792 0.40731683 0
0.06605079 2.7043011 0.53110278 0
0.06611862 2.704459 0.65955848 0
0.044694267 2.7046893 -0.050064579 0
0.048667513 2.7142601 0.40929806 0
0.040707789 2.6950865 0.524997 0
0.0453225 2.7062025 0.65687209 0
0.023037812 2.7037978 -0.049743164 0
0.027620217 2.715241 0.40750211 0
0.023028811 2.7037754 0.52545291 0
0.026202699 2.7117012 0.65599102 0
0.0064739794 2.7154815 -0.049914997 0
0.010309598 2.7254205 0.4083032 0
0.0037847969 2.7085133 0.52457726 0
0.0091710901 2.7224705 0.65756053 0
-0.010965982 2.7251642 -0.050017767 0
-0.012978473 2.7197473 0.4048453 0
-0.013124862 2.7193532 0.52595752 0
-0.011097827 2.7248094 0.65549403 0
-0.030820051 2.7283142 -0.049880762 0
-0.032755174 2.7228973 0.403873 0
-0.031267799 2.7270606 0.52630037 0
-0.033759929 2.7200849 0.65044379 0
-0.048745014 2.736798 -0.049955137 0
-0.049216785 2.7354231 0.40550119 0
-0.049124457 2.7356923 0.52704734 0
-0.049528874 2.7345135 0.65392441 0
-0.069705971 2.7362349 -0.049697667 0
-0.076359846 2.7160168 0.39860162 0
-0.072973885 2.726305 0.52155906 0
-0.074190594 2.7226081 0.64599884 0
-0.08836434 2.742383 -0.049702346 0
-0.092424788 2.7295012 0.40061951 0
-0.090219505 2.7364974 0.52302748 0
-0.092129506 2.730438 0.64680713 0
-0.10375942 2.7593801 -0.050120309 0
-0.10992313 2.7389307 0.40160331 0
-0.10900078 2.741991 0.52293313 0
-0.10981015 2.7393057 0.64815903 0
-0.12489153 2.7575157 -0.049843278 0
-0.10589258 2.8235459 0.064296283 0
-0.10352761 2.8317654 0.18240474 0
-0.10655434 2.8212459 0.30005801 0
-0.12942968 2.7417433 0.4008854 0
-0.13493843 2.7225981 0.51430565 0
-0.13135464 2.7350533 0.64394963 0
-0.14046238 2.7752099 -0.050301105 0
-0.13170488 2.8071544 0.063483648 0
-0.1367328 2.7888141 0.17699559 0
-0.13138036 2.8083382 0.29660589 0
-0.14750637 2.7495155 0.4015471 0
-0.1535645 2.7274172 0.51417333 0
-0.15078442 2.7375581 0.64277232 0
-0.16022627 2.77811 -0.050218865 0
-0.15639533 2.7928073 0.062761113 0
-0.15523829 2.7972465 0.17735733 0
-0.15726061 2.7894878 0.29211587 0
-0.17130674 2.7355995 0.39654857 0
-0.17284401 2.729702 0.51325071 0
