# .PCD v0.7 - Point Cloud Data file format
VERSION 0.7
FIELDS x y z intensity
SIZE 4 4 4 4
TYPE F F F F
COUNT 1 1 1 1
WIDTH 1360
HEIGHT 1
VIEWPOINT 0 0 0 1 0 0 0
POINTS 1360
DATA ascii
-1.2352749 0.54812741 0.58652544 0
-1.6233556 0.11546718 -0.049689844 0
-1.3742813 0.38157696 0.048677105 0
-1.377115 0.3785494 0.1349138 0
-1.3753669 0.38041717 0.22187424 0
-1.3699763 0.38617641 0.30937597 0
-1.2582979 0.5054931 0.34723333 0
-1.2429703 0.521869 0.42137605 0
-1.2504737 0.51385236 0.51345348 0
-1.2381792 0.52698779 0.59680945 0
-1.6160933 0.094288461 -0.050069138 0
-1.3507054 0.38508177 0.048013914 0
-1.352553 0.38305718 0.13276635 0
-1.3567932 0.37841117 0.21986626 0
-1.357417 0.37772769 0.30878407 0
-1.2569523 0.48780972 0.35125002 0
-1.2370389 0.50962937 0.4234308 0
-1.2385352 0.50798988 0.51155317 0
-1.2421371 0.50404316 0.60839564 0
-1.5978957 0.084992044 -0.049880769 0
-1.3366669 0.37856805 0.047851145 0
-1.3338932 0.38168526 0.13153338 0
-1.3379958 0.37707472 0.21777581 0
-1.3343396 0.38118368 0.30418745 0
-1.2487725 0.47734618 0.35201427 0
-1.2404801 0.48666561 0.43144777 0
-1.2382485 0.48917341 0.51845115 0
-1.2399303 0.48728341 0.61490327 0
-1.5827363 0.072391383 -0.049861498 0
-1.3196578 0.37565053 0.047528584 0
-1.3251095 0.36936623 0.1319049 0
-1.3230578 0.37173128 0.21672158 0
-1.3205743 0.37459415 0.30313239 0
-1.2435982 0.46332681 0.35438198 0
-1.2370702 0.47085184 0.4354347 0
-1.2382406 0.46950281 0.52584231 0
-1.2367014 0.47127718 0.62077057 0
-1.5694709 0.057567354 -0.049955368 0
-1.3073115 0.36756784 0.047461003 0
-1.3102849 0.36405206 0.13130224 0
-1.3099703 0.36442399 0.21618702 0
-1.3089466 0.36563444 0.30293867 0
-1.2488215 0.43673176 0.36223251 0
-1.238243 0.44924074 0.44254643 0
-1.2418278 0.44500166 0.53632057 0
-1.2418228 0.44500756 0.63457876 0
-1.5580771 0.040363666 -0.05016613 0
-1.2992086 0.3544088 0.047636226 0
-1.3021346 0.35085911 0.13182923 0
-1.2979525 0.35593265 0.21597345 0
-1.302009 0.35101157 0.30466807 0
-1.2506894 0.41326958 0.36862275 0
-1.2447673 0.42045391 0.45342702 0
-1.2357923 0.43134201 0.53963149 0
-1.2355914 0.43158555 0.63832051 0
-1.5421937 0.028506273 -0.050136548 0
-1.2825216 0.35173362 0.047334265 0
-1.2885395 0.34424275 0.13145854 0
-1.2857544 0.3477096 0.21573515 0
-1.2807003 0.35400063 0.30064502 0
-1.250074 0.39212281 0.37395048 0
-1.2422255 0.4018923 0.45872363 0
-1.2374219 0.40787166 0.5492546 0
-1.2408899 0.4035548 0.65319782 0
-1.521068 0.023373717 -0.04981146 0
-1.2835474 0.32677448 0.048055205 0
-1.2790303 0.33254445 0.13180856 0
-1.2807376 0.33036363 0.21762405 0
-1.2744622 0.33837962 0.30277872 0
-1.2453775 0.37553132 0.37730455 0
-1.2414582 0.38053793 0.46545377 0
-1.2421229 0.37968886 0.56176472 0
-1.2355951 0.38802713 0.65846187 0
-1.5092025 0.0064737746 -0.050029855 0
-1.284444 0.30114257 0.048798878 0
-1.2722989 0.31706524 0.13268255 0
-1.2725123 0.3167854 0.21865471 0
-1.2716571 0.31790668 0.30647427 0
-1.2495065 0.34694725 0.38566947 0
-1.2370828 0.36323512 0.47001487 0
-1.2443335 0.35372919 0.57271886 0
-1.2382257 0.36173683 0.67175317 0
-1.4929398 -0.004771953 -0.050001409 0
-1.268474 0.29732704 0.048564781 0
-1.2757006 0.28760111 0.13543221 0
-1.2736073 0.29041833 0.22257258 0
-1.2693113 0.29620016 0.31053877 0
-1.2545199 0.31610709 0.39486995 0
-1.2408856 0.3344571 0.48048115 0
-1.2449671 0.32896382 0.58280909 0
-1.2459699 0.32761425 0.69068283 0
-1.4796817 -0.020140534 -0.050163973 0
-1.2809669 0.25445706 0.050062798 0
-1.2744712 0.26343328 0.13744864 0
-1.2771111 0.25978541 0.22740151 0
-1.2761921 0.26105523 0.3188079 0
-1.2492889 0.29823196 0.39863664 0
-1.239616 0.31159854 0.48780262 0
-1.2391601 0.31222874 0.58784336 0
-1.237589 0.3143996 0.6940636 0
-1.4639328 -0.032178883 -0.050186984 0
-1.1709388 0.38362485 0.044027053 0
-1.1768494 0.37523699 0.12157315 0
-1.1713146 0.38309157 0.19821517 0
-1.329244 0.15896535 0.34787098 0
-1.2418685 0.28296465 0.40133557 0
-1.24138 0.28365797 0.49764165 0
-1.2465497 0.27632129 0.60461313 0
-1.443572 -0.037528399 -0.049928833 0
-1.1509081 0.3891167 0.043457832 0
-1.1543008 0.38417083 0.11940147 0
-1.154834 0.38339341 0.19647375 0
-1.3092127 0.15834057 0.3450844 0
-1.2360495 0.26499754 0.40513843 0
-1.2335666 0.26861709 0.50090808 0
-1.236444 0.26442248 0.60661489 0
-1.4312345 -0.05457342 -0.050185941 0
-1.1403974 0.38106775 0.043485504 0
-1.1382313 0.38431239 0.11842094 0
-1.1452457 0.37380564 0.19693659 0
-1.2953256 0.14900279 0.34507164 0
-1.2424976 0.22813332 0.41649815 0
-1.2414249 0.22973979 0.51606274 0
-1.2409831 0.23040164 0.62198526 0
-1.4132851 -0.063317664 -0.050094221 0
-1.1234812 0.38284063 0.043100476 0
-1.1253146 0.38001806 0.11804289 0
-1.1201538 0.38796324 0.19231518 0
-1.2899216 0.12660265 0.34908643 0
-1.2402951 0.20300353 0.42307773 0
-1.2429435 0.19892621 0.52706379 0
-1.2416494 0.20091867 0.63448888 0
-1.3994291 -0.078425415 -0.050281536 0
-1.1096654 0.38021058 0.042913467 0
-1.1139793 0.37338263 0.11798622 0
-1.1070255 0.3843891 0.19158071 0
-1.272162 0.12301206 0.34741351 0
-1.23585 0.18048644 0.42858797 0
-1.24673 0.16326571 0.54034209 0
-1.2389098 0.17564344 0.64439815 0
-1.3725674 -0.072620638 -0.049598519 0
-1.0902236 0.38698697 0.042341087 0
-1.0954536 0.37847334 0.11646904 0
-1.087924 0.3907302 0.18878838 0
-1.2563115 0.11662411 0.34665841 0
-1.2408073 0.14186227 0.4403668 0
-1.2341789 0.15265226 0.5413239 0
-1.2436247 0.13727617 0.66193914 0
-1.3655632 -0.099138744 -0.050278768 0
-1.0776709 0.3830092 0.042230386 0
-1.0779275 0.38257945 0.11511578 0
-1.0768766 0.38433939 0.18874206 0
-1.2526976 0.089882962 0.35201642 0
-1.2375269 0.11529028 0.44736311 0
-1.2451451 0.10253166 0.56142634 0
-1.240073 0.11102616 0.67225271 0
-1.3433781 -0.10045195 -0.049917404 0
-1.0622441 0.38413715 0.041916303 0
-1.0667505 0.37636924 0.11508166 0
-1.0635517 0.38188314 0.1879048 0
-1.2493058 0.061699983 0.35777426 0
-1.243188 0.072245233 0.46066043 0
-1.2367028 0.083423726 0.5664714 0
-1.237923 0.081320398 0.68451619 0
-1.3282232 -0.11372948 -0.050060362 0
-1.0500498 0.37997514 0.041829202 0
-1.0487796 0.38222939 0.11357627 0
-1.0448275 0.38924366 0.18507621 0
-1.2480899 0.028491849 0.36497548 0
-1.2434422 0.036740657 0.47095695 0
-1.2362834 0.049445983 0.57859814 0
-1.3086246 -0.11909951 -0.04988835 0
-1.0393372 0.37322795 0.041854169 0
-1.0357053 0.37986791 0.11311614 0
-1.0343118 0.38241583 0.18523228 0
-1.2539473 -0.019135004 0.3763248 0
-1.2386513 0.0088299457 0.47830191 0
-1.2405751 0.0053129145 0.59543669 0
-1.2951907 -0.13583302 -0.050186779 0
-1.0246809 0.37387002 0.041585784 0
-1.0240254 0.37510502 0.11297134 0
-1.0205618 0.38163114 0.18418057 0
-1.241156 -0.034019236 0.37811989 0
-1.2384 -0.028826242 0.48929137 0
-1.242471 -0.036496881 0.6110487 0
-1.2783278 -0.14637125 -0.05024134 0
-1.0036904 0.38722789 0.040815994 0
-1.0064591 0.38184851 0.11145455 0
-1.0092819 0.37636411 0.18408008 0
-1.23706 -0.066190846 0.38491026 0
-1.2365249 -0.06515158 0.49971306 0
-1.2412668 -0.07436467 0.62471312 0
-1.2530113 -0.14005697 -0.049631692 0
-0.99222839 0.38269746 0.040775295 0
-0.9907282 0.38570476 0.11032066 0
-0.99610651 0.37492359 0.18323772 0
-1.2432482 -0.12048615 0.39798063 0
-1.2398025 -0.11357892 0.51457775 0
-1.2436216 -0.12123454 0.64246428 0
-1.2394046 -0.15699327 -0.049960338 0
-0.97822201 0.38349384 0.04052937 0
-0.97809058 0.38376576 0.10990909 0
-0.97817343 0.38359433 0.18040849 0
-1.2341602 -0.14614069 0.402834 0
-1.2374343 -0.15291584 0.52597809 0
-1.2198094 -0.16168284 -0.049811125 0
-0.9614886 0.39052451 0.040046141 0
-0.96530801 0.3823598 0.10945563 0
-0.96718657 0.378344 0.18041275 0
-1.238396 -0.20141506 0.41603416 0
-1.2396698 -0.20413792 0.54168785 0
-1.2057896 -0.17844474 -0.050145533 0
-0.95105273 0.38446116 0.040087048 0
-0.95457941 0.37666804 0.10952935 0
-0.95614654 0.37320501 0.18042241 0
-1.242546 -0.25966763 0.42997834 0
-1.2401803 -0.25443983 0.55696207 0
-1.1871179 -0.18516958 -0.050093878 0
-0.93698531 0.38662267 0.039812367 0
-0.94105959 0.37730902 0.1088757 0
-0.93716455 0.38621289 0.17688726 0
-1.2401215 -0.30633318 0.44060466 0
-1.2371758 -0.29959953 0.57028264 0
-1.1700823 -0.1956805 -0.050198376 0
-0.92800909 0.3772279 0.039993912 0
-0.92969096 0.37324739 0.1087941 0
-0.92450476 0.38552147 0.17609991 0
-1.2387582 -0.35821366 0.45262748 0
-1.1506871 -0.20060802 -0.050095364 0
-0.9162429 0.37433088 0.039928377 0
-0.9139452 0.37996566 0.10747844 0
-0.91596848 0.37500381 0.17726158 0
-1.2354245 -0.40841401 0.46413052 0
-1.1311523 -0.2049911 -0.049981363 0
-0.90134072 0.37953132 0.039558236 0
-0.90185922 0.37821263 0.10717047 0
-0.89874512 0.38613331 0.17424344 0
-1.2420697 -0.48710799 0.48339969 0
-1.1119779 -0.21010756 -0.049905322 0
-0.88873488 0.3793999 0.039400578 0
-0.88924158 0.37806195 0.10669736 0
-0.88691014 0.38421845 0.17379715 0
-1.2399807 -0.54811847 0.49772996 0
-1.0907458 -0.20942891 -0.049618617 0
-0.87378544 0.38601983 0.038993154 0
-0.87296295 0.38827705 0.10505898 0
-0.87241203 0.3897891 0.17194475 0
-1.0743775 -0.22203803 -0.049845949 0
-0.86747777 0.3688246 0.039495513 0
-0.86674142 0.37092751 0.10658994 0
-0.86698884 0.37022084 0.17493917 0
-1.0571675 -0.23265564 -0.050005093 0
-0.85227066 0.37699038 0.039043557 0
-0.84976029 0.38445967 0.10462204 0
-0.84974533 0.38450426 0.17149326 0
-1.0367321 -0.23363662 -0.049810287 0
-0.83645278 0.38808596 0.038490739 0
-0.841676 0.37187171 0.10563549 0
-0.8375513 0.38467586 0.17077638 0
-1.0208197 -0.24883342 -0.050156958 0
-0.82704622 0.37970251 0.038675241 0
-0.82870382 0.37432575 0.10496484 0
-0.8280347 0.37649614 0.17166741 0
-0.9982084 -0.24216461 -0.049696036 0
-0.81441182 0.38181049 0.10375141 0
-0.8131898 0.38595903 0.16926073 0
-0.98513103 -0.26824296 -0.050461683 0
-0.8016479 0.38489997 0.038241006 0
-0.80184221 0.38420832 0.10313022 0
-0.80514032 0.37246799 0.17119758 0
-0.96192139 -0.25853026 -0.04990818 0
-0.79174036 0.37793338 0.038387354 0
-0.79000735 0.38441479 0.10277255 0
-0.79193544 0.37720394 0.16974419 0
-0.94436914 -0.26952243 -0.050129879 0
-0.78018099 0.37704492 0.038313959 0
-0.78154051 0.37169123 0.10386625 0
-0.77566689 0.39482129 0.16592954 0
-0.92415708 -0.27014101 -0.049978118 0
-0.77106655 0.36620754 0.10416818 0
-0.76571059 0.38847029 0.16661049 0
-0.90297931 -0.26604187 -0.049663398 0
-0.75595933 0.38078022 0.16756037 0
-0.88784373 -0.28911972 -0.050351512 0
-0.74328536 0.38610011 0.16613087 0
-0.86879075 -0.29518342 -0.050425269 0
-0.73226231 0.3842082 0.16606103 0
-0.8461532 -0.28246748 -0.049825389 0
-0.82881612 -0.29762244 -0.0502473 0
-0.80851632 -0.29636323 -0.050082613 0
-0.78898728 -0.29950833 -0.05008645 0
-0.76923132 -0.30103099 -0.050040688 0
-0.74843764 -0.29390478 -0.049692839 0
-0.72872567 -0.2943542 -0.049626991 0
-0.70972466 -0.30162191 -0.049814723 0
-0.69048572 -0.30769253 -0.049967937 0
-0.6707297 -0.30817151 -0.049929541 0
-0.65077013 -0.30485022 -0.049764149 0
-0.63102639 -0.30369103 -0.049685121 0
-0.61157572 -0.30947232 -0.04986294 0
-0.5918299 -0.30769455 -0.049779531 0
-0.57226038 -0.31868804 -0.050160978 0
-0.55247438 -0.31199062 -0.049919639 0
-0.53260154 -0.32142687 -0.050263222 0
-0.51283848 -0.31832409 -0.050168023 0
-0.49313501 -0.31533039 -0.050085556 0
-0.47316056 -0.31842339 -0.050229523 0
-0.45398271 -0.30789971 -0.049895406 0
-0.49536869 0.31723416 0.039528467 0
-0.43415508 -0.30857348 -0.049970604 0
-0.48429751 0.3272571 0.039200157 0
-0.41391304 -0.31315756 -0.050195023 0
-0.4727478 0.32953322 0.039154194 0
-0.39493015 -0.30410743 -0.049939487 0
-0.46114942 0.33104771 0.039140724 0
-0.37486616 -0.30582166 -0.050079077 0
-0.4488911 0.32685584 0.039337598 0
-0.44197738 0.26776564 0.11274771 0
-0.44187438 0.26688534 0.18529764 0
-0.44151834 0.26384211 0.26042688 0
-0.44224527 0.27005512 0.33569351 0
-0.44271877 0.27410221 0.41461456 0
-0.35458159 -0.30844593 -0.050260749 0
-0.43655446 0.32315403 0.0395227 0
-0.42789093 0.25640148 0.11414523 0
-0.42807275 0.25780249 0.18722823 0
-0.42936143 0.26773173 0.25982177 0
-0.42936638 0.26776993 0.3369728 0
-0.42854643 0.2614522 0.42053142 0
-0.43040001 0.27573419 0.49973315 0
-0.33755499 -0.28729522 -0.049594566 0
-0.42043504 0.29386503 0.040636472 0
-0.4204796 0.29417753 0.11023001 0
-0.41934115 0.2861945 0.18236703 0
-0.42025262 0.29258585 0.25385219 0
-0.41975766 0.28911513 0.33036759 0
-0.41988823 0.29003078 0.40929061 0
-0.41946894 0.28709072 0.49484095 0
-0.31590664 -0.29890752 -0.050118558 0
-0.40560085 0.27796781 0.041275907 0
-0.40603632 0.28076845 0.11188418 0
-0.40695447 0.28667378 0.18261084 0
-0.40718734 0.28817147 0.25545755 0
-0.40569589 0.27857912 0.3345243 0
-0.40570578 0.27864265 0.41481993 0
-0.40836555 0.29574913 0.491375 0
-0.29694816 -0.2923032 -0.049993999 0
-0.39075893 0.26475227 0.041826367 0
-0.39195722 0.27186793 0.11307032 0
-0.39048001 0.26309615 0.1872834 0
-0.3927086 0.27632964 0.25903052 0
-0.39162877 0.26991755 0.33811709 0
-0.38947979 0.25715667 0.42467561 0
-0.39785269 0.30687565 0.48672029 0
-0.27691147 -0.29211783 -0.050110713 0
0.068592213 -2.1969624 0.13122573 0
-0.38595033 0.30903959 0.4866797 0
-0.26047477 -0.27296793 -0.049547143 0
0.11468848 -2.2026432 0.13172896 0
-0.3743735 0.31287718 0.4858622 0
-0.23679237 -0.29067504 -0.050333515 0
0.16011359 -2.2033083 0.13207176 0
-0.36788154 0.34102511 0.47269443 0
-0.21873285 -0.2803148 -0.050106812 0
0.20490856 -2.1999636 0.1322898 0
-0.35811496 0.35126811 0.46870592 0
-0.20046385 -0.27153826 -0.049945831 0
0.25049099 -2.1992788 0.13262667 0
-0.34717074 0.35560399 0.46780413 0
-0.1841905 -0.25515032 -0.049512874 0
0.29858783 -2.2077441 0.13332216 0
-0.0024966386 -0.99000978 0.25445986 0
-0.0045144348 -0.98184896 0.42143467 0
-0.34014833 0.37562013 0.45888877 0
-0.15988202 -0.27078772 -0.050267592 0
0.28872707 -1.9918811 0.12576586 0
-0.32492012 0.36238289 0.46718365 0
-0.14242341 -0.25941348 -0.050036304 0
0.32863632 -1.9776971 0.1256447 0
-0.31762978 0.37968647 0.45976189 0
-0.12397624 -0.25205362 -0.049961455 0
0.37158075 -1.9743464 0.1259442 0
-0.29938188 0.35756326 0.47288805 0
-0.10531781 -0.24556673 -0.049927521 0
0.41072866 -1.9576447 0.12576713 0
-0.30147392 0.40521687 0.44972041 0
-0.086632766 -0.23923361 -0.049907986 0
0.45443007 -1.9557824 0.12616324 0
-0.29395071 0.41849309 0.44448149 0
-0.064842768 -0.24236906 -0.050253071 0
0.50635678 -1.9779983 0.12748665 0
-0.28708795 0.43293828 0.43865484 0
-0.04744003 -0.23195839 -0.050098695 0
-0.26114082 0.39086467 0.46274552 0
-0.02818046 -0.22705948 -0.05016087 0
-0.012231925 -0.21311355 -0.049887992 0
0.010121427 -0.21628988 -0.050276678 0
0.025562605 -0.20145953 -0.049985636 0
0.047276579 -0.20226657 -0.050305035 0
0.061542653 -0.18517351 -0.049941141 0
0.081819497 -0.18221223 -0.050134417 0
-0.18773811 0.42356449 0.3824797 0
0.0949535 -0.16339457 -0.049715672 0
0.1184357 -0.16702008 -0.050188154 0
-0.16045813 0.41951191 0.38872594 0
-0.20254265 0.50801843 0.49608052 0
0.13150151 -0.14866912 -0.049801216 0
0.55348235 -1.0080507 0.4605504 0
-0.15762977 0.44015861 0.38153842 0
-0.19318165 0.51256144 0.49607015 0
0.1533549 -0.14825594 -0.050136305 0
0.59184068 -1.0135391 0.46452439 0
-0.15511478 0.46046072 0.37448135 0
-0.1899472 0.52919704 0.48809811 0
0.17062522 -0.13855743 -0.050110605 0
0.61368889 -0.98623157 0.46194863 0
-0.13967036 0.45510334 0.37938005 0
-0.1787733 0.52991551 0.49075192 0
0.18493684 -0.12339938 -0.049872112 0
0.64654785 -0.98010612 0.46375096 0
-0.13061871 0.46224225 0.37852606 0
-0.17050438 0.53626633 0.48972395 0
0.20438536 -0.1178341 -0.050030995 0
0.67874664 -0.9722631 0.46529669 0
-0.11462954 0.45678186 0.38368648 0
-0.16832902 0.55350643 0.4813728 0
0.22020419 -0.1056887 -0.049930453 0
0.72039074 -0.9804945 0.47027689 0
-0.082352228 0.4234702 0.40226316 0
-0.1603782 0.55993438 0.48036623 0
0.23996378 -0.10037196 -0.050120279 0
0.76009327 -0.98404598 0.47442418 0
-0.062081225 0.41278756 0.41030079 0
-0.146327 0.55591697 0.48660883 0
0.25246558 -0.082807787 -0.049810704 0
0.8046692 -0.99451637 0.480167 0
-0.050694086 0.4177199 0.41096449 0
-0.13387649 0.55505711 0.49083218 0
0.27292261 -0.078419454 -0.050059505 0
0.83680934 -0.98349977 0.4815082 0
-0.13099219 0.5698939 0.48423016 0
0.29662707 -0.078769095 -0.050522085 0
0.87891287 -0.98767853 0.48620123 0
-0.12087504 0.57292402 0.48591572 0
0.31150225 -0.065112479 -0.050402496 0
0.91972953 -0.9887023 0.49036598 0
0.012687764 0.38863569 0.43516582 0
-0.11361314 0.58042294 0.48453215 0
0.32271644 -0.0461911 -0.050062969 0
0.9502601 -0.97347975 0.49113998 0
0.034423672 0.37980407 0.44320405 0
-0.10816298 0.59049696 0.48135793 0
0.33613208 -0.030850058 -0.049882248 0
0.99874371 -0.98388028 0.4976331 0
0.038057171 0.39786917 0.43788701 0
-0.10856635 0.60875684 0.47229254 0
0.34812298 -0.013727909 -0.049629137 0
0.057037555 0.39389056 0.44376031 0
-0.099570371 0.61319482 0.47321415 0
0.37422541 -0.016146189 -0.050245423 0
0.069002472 0.40008652 0.44458634 0
-0.092040367 0.61970073 0.47270641 0
0.39220408 -0.007045751 -0.050367448 0
1.1329128 -0.99092841 0.10633478 0
1.1315917 -0.98917341 0.30779529 0
0.094258212 0.38871533 0.45460215 0
-0.080757536 0.62118852 0.47598898 0
0.39809385 0.017844195 -0.049788427 0
0.11069383 0.38975763 0.45838606 0
-0.080944277 0.63774925 0.46811271 0
0.41654095 0.02624833 -0.049958155 0
0.12369295 0.39550704 0.45982945 0
-0.069696285 0.6393559 0.47147447 0
0.43626657 0.033275958 -0.050203625 0
-0.057147481 0.63959277 0.476026 0
0.44828603 0.049808141 -0.050021127 0
-0.054336824 0.65179694 0.47150129 0
0.45914349 0.067503922 -0.04978903 0
-0.049014486 0.66077584 0.46947351 0
0.47359297 0.080868237 -0.049766667 0
-0.039860345 0.66526538 0.47101986 0
0.49465522 0.086875431 -0.050106317 0
1.2019092 -0.69794583 0.099824056 0
-0.035057999 0.67468441 0.46874002 0
0.50669736 0.10299968 -0.049970929 0
1.2121069 -0.66022742 0.099074826 0
-0.030357758 0.68407363 0.46650609 0
0.5192073 0.11849617 -0.049872208 0
0.37394992 0.2717424 0.054333899 0
-0.023286561 0.69082582 0.46644825 0
0.52999073 0.1356734 -0.04969639 0
0.39206108 0.27756703 0.054631647 0
0.8349387 -0.17803836 0.22067733 0
-0.0099053765 0.69108546 0.47183266 0
0.5504598 0.14296317 -0.050023578 0
0.39072528 0.3032012 0.053945981 0
0.8419674 -0.14946318 0.2190187 0
-0.0093533779 0.70454073 0.46637553 0
0.56075388 0.16053343 -0.049843214 0
0.41384485 0.30424029 0.05450628 0
0.74143797 -0.016212231 0.20126478 0
0.75010115 -0.024686581 0.33586755 0
0.74968868 -0.024283057 0.4725031 0
0.0029843661 0.70614511 0.4709042 0
0.58357614 0.16598201 -0.050294105 0
0.42638031 0.31592506 0.054538339 0
0.83883971 -0.077504046 0.2133702 0
0.19105871 0.54038918 0.35012555 0
0.0072856755 0.7156831 0.46880898 0
0.59128231 0.18592858 -0.050006106 0
0.46211013 0.3060714 0.055708114 0
0.84096485 -0.046300415 0.21123715 0
0.19548716 0.55405664 0.34808028 0
0.018715343 0.71847171 0.47260931 0
0.60762888 0.1977694 -0.050149985 0
0.84080631 -0.013695365 0.073388182 0
0.84428507 -0.016850239 0.20935902 0
0.1911682 0.57545084 0.34220725 0
0.022437057 0.72847039 0.47022387 0
0.6150766 0.21761823 -0.049875334 0
0.83980852 0.018911475 0.072585046 0
0.83691329 0.021471376 0.20602138 0
0.84016782 0.018593902 0.34244767 0
0.21061398 0.57524174 0.34707332 0
0.034738325 0.73075002 0.47475681 0
0.62538666 0.23474801 -0.04975041 0
0.84444875 0.045915481 0.072075799 0
0.83830327 0.051212903 0.20403177 0
0.83532089 0.053783651 0.33761522 0
0.22842242 0.57693297 0.35116655 0
0.032812558 0.74554956 0.46812409 0
0.64742202 0.24191403 -0.050183695 0
0.84074098 0.079469793 0.071198553 0
0.84013325 0.079980485 0.20217772 0
0.83465523 0.084583633 0.33392355 0
0.92320067 0.010179633 0.49940768 0
0.26652274 0.56198049 0.36404395 0
0.27342519 0.55618042 0.45531645 0
0.042266034 0.75042146 0.47052091 0
0.65690941 0.25975639 -0.05003766 0
0.83854657 0.11098956 0.070419751 0
0.83881789 0.11076748 0.19995634 0
0.83806723 0.11138224 0.3313112 0
0.94513029 0.023694033 0.50151223 0
0.29109624 0.5593695 0.3708908 0
0.25669131 0.58754826 0.44169152 0
0.044422232 0.76140356 0.46734655 0
0.67791826 0.26827449 -0.050429698 0
0.84818012 0.13237011 0.070207261 0
0.83965534 0.1391747 0.19810678 0
0.8478803 0.13260937 0.33028033 0
0.98573178 0.022575134 0.50974691 0
0.26707432 0.59621358 0.35696882 0
0.2497936 0.61000723 0.43362397 0
0.047957681 0.77111435 0.46535599 0
0.68834502 0.28537762 -0.050344177 0
0.83751327 0.1693548 0.06909091 0
0.83543879 0.17096829 0.19563608 0
0.83510047 0.17123139 0.32415891 0
0.25216052 0.62464124 0.43064368 0
0.053857826 0.77888072 0.46525377 0
0.68848449 0.31020457 -0.049808349 0
0.84177846 0.19404066 0.068674989 0
0.84371966 0.19256973 0.19492826 0
0.83775288 0.19709122 0.32169819 0
0.25440887 0.63914025 0.4277263 0
0.076158248 0.7742157 0.47742894 0
0.69911736 0.32681984 -0.049757063 0
0.85634559 0.21076214 0.068733908 0
0.83487576 0.22661006 0.191976 0
0.8383463 0.22404826 0.318872 0
0.28554878 0.63209498 0.43979836 0
0.083701633 0.78108811 0.4785704 0
0.70754212 0.34498185 -0.049618386 0
0.84307307 0.24755216 0.067577526 0
0.8334921 0.25443965 0.19009477 0
0.84044725 0.24943984 0.31648192 0
0.087045275 0.79104125 0.47669759 0
0.72747296 0.35497475 -0.049992338 0
0.85116118 0.26839966 0.06738241 0
0.84464163 0.27296299 0.18992029 0
0.84221143 0.27466393 0.31410933 0
0.84039253 0.27593708 0.44130337 0
0.085732363 0.80415857 0.47156152 0
0.7386474 0.37125659 -0.049990289 0
0.88059431 0.27454132 0.068122469 0
0.83408695 0.306229 0.1869553 0
0.84071249 0.30171472 0.31111452 0
0.84049422 0.30186343 0.4375658 0
0.11294021 0.79758137 0.48705548 0
0.74515718 0.39063352 -0.049797252 0
0.91091746 0.28072321 0.068897836 0
0.84768063 0.32265353 0.18718307 0
0.83878559 0.32855153 0.308126 0
0.8373968 0.32947242 0.43298033 0
0.11793222 0.80652601 0.48655331 0
0.76776177 0.39946949 -0.05029998 0
0.95597523 0.27805507 0.07029625 0
0.84154981 0.35186964 0.18491298 0
0.83875531 0.35367233 0.30564156 0
0.83511215 0.35602248 0.42878473 0
0.1309839 0.81024802 0.49182299 0
0.77269453 0.41981512 -0.050058655 0
0.98991317 0.28353208 0.071213581 0
0.84387237 0.37515813 0.18378009 0
0.84359604 0.37533146 0.30428135 0
0.83785444 0.37893379 0.42623726 0
0.13382848 0.82064003 0.48993814 0
0.78089648 0.43797088 -0.049966652 0
1.0359812 0.282372 0.072634064 0
0.84160453 0.40093964 0.18211508 0
0.84076887 0.40144938 0.30136949 0
0.83419305 0.40546054 0.42188212 0
0.13760324 0.83037281 0.48880512 0
0.78347307 0.45938981 -0.049651384 0
1.0729198 0.28779328 0.073664464 0
0.84360582 0.42374051 0.18103652 0
0.84112352 0.42521209 0.29921561 0
0.83295923 0.43005228 0.41837877 0
0.13427593 0.84426194 0.48286891 0
0.80240697 0.47113466 -0.050023455 0
0.84526461 0.44645077 0.179959 0
0.83787888 0.45070463 0.29639068 0
0.83380884 0.45304877 0.41560569 0
0.14606632 0.84915507 0.48744196 0
0.81250268 0.48812705 -0.050037455 0
0.8512935 0.46643126 0.17946252 0
0.83946925 0.47304457 0.2946513 0
0.84536856 0.4697451 0.41606787 0
0.14962871 0.85887438 0.48643401 0
0.82590681 0.5033381 -0.050194483 0
0.84866995 0.49098027 0.17794223 0
0.83796948 0.49678946 0.29234755 0
0.84082872 0.49523717 0.41191438 0
0.82146472 0.52807742 -0.049638119 0
0.8529647 0.51148659 0.17730998 0
0.84262329 0.51693332 0.29137447 0
0.83923787 0.51871639 0.40873155 0
0.83719724 0.54207617 -0.049906608 0
0.85840732 0.53124386 0.17685157 0
0.84038264 0.54044932 0.28906301 0
0.84541315 0.53788018 0.40787894 0
0.84020633 0.54053938 0.52810818 0
0.84270674 0.56134939 -0.049773242 0
0.85914737 0.55321229 0.17586204 0
0.84107858 0.56215525 0.28741658 0
0.84084374 0.56227148 0.40404183 0
0.83776289 0.56379634 0.52390599 0
0.84836656 0.58044976 -0.049656268 0
0.87392539 0.56819785 0.17658457 0
0.84383327 0.58262283 0.28624666 0
0.84122127 0.58387494 0.40171462 0
0.84009343 0.58441561 0.52159888 0
0.86910433 0.59246689 -0.050142892 0
0.90329343 0.57660431 0.17905383 0
0.8431645 0.6045022 0.28445429 0
0.8393386 0.60627729 0.39884201 0
0.83957928 0.60616559 0.51835734 0
0.86647671 0.61534899 -0.049718391 0
0.92908579 0.58725297 0.18110049 0
0.83415514 0.62985343 0.28107795 0
0.83484858 0.62954223 0.39533558 0
0.8460297 0.62452465 0.51777393 0
0.86893779 0.63570112 -0.049505468 0
0.959732 0.59632272 0.18372035 0
0.83701819 0.64954495 0.28011677 0
0.83638507 0.64981955 0.39360586 0
0.84599 0.64565384 0.51492417 0
0.89101893 0.64767635 -0.050063033 0
1.0085964 0.59843129 0.18846245 0
0.83960027 0.66921198 0.27915433 0
0.83669692 0.67042804 0.3916173 0
0.83559984 0.67088753 0.5084523 0
0.90435666 0.66361231 -0.050286911 0
1.0287772 0.61333305 0.18985879 0
0.83631545 0.69110823 0.27710384 0
0.84795529 0.68640447 0.3927227 0
0.83958524 0.68978685 0.50728601 0
0.91917092 0.67914599 -0.050573979 0
1.0692452 0.62068713 0.19360982 0
0.85245115 0.70513552 0.27887571 0
0.84479505 0.70811778 0.38993001 0
0.8461327 0.70759672 0.50712532 0
0.26848909 0.93260789 0.44947311 0
0.90947407 0.7040934 -0.049932554 0
0.85459441 0.72467881 0.27797812 0
0.84519392 0.72820491 0.38819498 0
0.84328538 0.72892082 0.50370711 0
0.28382173 0.93877602 0.45553693 0
0.9149701 0.72308153 -0.049882621 0
0.8547141 0.74482214 0.27674395 0
0.83401293 0.7522912 0.38339573 0
0.83935219 0.75036478 0.50001544 0
0.2692574 0.95605749 0.44571212 0
0.92032737 0.74208385 -0.04983671 0
0.85872012 0.76343918 0.27630547 0
0.85011703 0.76642132 0.38606715 0
0.83256418 0.77250576 0.49542996 0
0.8408832 0.76962209 0.61873811 0
0.27087197 0.96720922 0.4446131 0
0.92616671 0.76089489 -0.049818154 0
0.85322064 0.78515631 0.2741068 0
0.84462208 0.78801614 0.38296795 0
0.84645039 0.78740805 0.49821022 0
0.83862907 0.79000932 0.61514002 0
0.29098496 0.97215211 0.45334685 0
0.94385272 0.77592039 -0.050252464 0
0.84360355 0.80786645 0.27118942 0
0.84203726 0.80836558 0.3807334 0
0.83439034 0.8108024 0.49198517 0
0.83460361 0.81073445 0.61089832 0
0.3076252 0.97866482 0.46025476 0
0.94099301 0.7975328 -0.04992535 0
0.84251624 0.82755357 0.2699455 0
0.83771628 0.82901686 0.37811276 0
0.83247429 0.83061486 0.48941478 0
0.84362715 0.8272149 0.61243433 0
0.31846866 0.98730999 0.46414703 0
0.95504004 0.813986 -0.050238218 0
0.87013394 0.83870566 0.27414462 0
0.83333689 0.84941876 0.37555546 0
0.83777016 0.84812808 0.4894394 0
0.83395451 0.84923893 0.60599208 0
0.33233902 0.99527985 0.46965927 0
0.95218796 0.83536142 -0.049931567 0
0.89714938 0.85063636 0.27824271 0
0.84278661 0.86572373 0.37673682 0
0.8389346 0.8667928 0.48811379 0
0.83857948 0.86689132 0.60583514 0
0.3177112 1.0114487 0.46040678 0
0.96232706 0.85308653 -0.050115582 0
0.91447061 0.8657214 0.28054699 0
0.83348125 0.88710392 0.37301958 0
0.84186274 0.88489109 0.48748043 0
0.83577651 0.88649797 0.6025933 0
0.32725307 1.0207566 0.46379793 0
0.96516591 0.87277806 -0.050038561 0
0.95563012 0.87516761 0.28731155 0
0.83177847 0.90620381 0.37138453 0
0.84628373 0.90256888 0.48743939 0
0.84272128 0.90346164 0.60362786 0
0.32450977 1.0333209 0.46090215 0
0.97205824 0.89145523 -0.050119612 0
0.9904272 0.88709724 0.29289871 0
0.84466738 0.92167878 0.37364376 0
0.83927232 0.92295879 0.48356563 0
0.83901542 0.92301971 0.60021824 0
0.33790246 1.041909 0.4663941 0
0.96427113 0.91348231 -0.049671993 0
1.0204608 0.90089643 0.29761755 0
0.82636684 0.94437134 0.36779299 0
0.83903772 0.94153321 0.4821009 0
0.84088129 0.94112027 0.59928697 0
0.33142737 1.0552324 0.46173912 0
0.97305149 0.93169743 -0.049840167 0
1.0454779 0.91642976 0.30143136 0
0.84290999 0.95913154 0.37111744 0
0.83210713 0.96140879 0.47844303 0
0.82678074 0.96253163 0.59169877 0
0.34616676 1.0638461 0.46803012 0
0.98397619 0.94961274 -0.050094325 0
1.0808737 0.93045753 0.30717972 0
0.84471577 0.97714245 0.37064934 0
0.83823615 0.97842336 0.47930816 0
0.82733339 0.98057872 0.5904277 0
0.36834571 1.0713139 0.47815526 0
0.98876411 0.96884656 -0.050133299 0
0.84515709 0.99536121 0.3698872 0
0.83368891 0.99747866 0.47663191 0
0.84023339 0.9962703 0.59445405 0
0.38703755 1.0799454 0.48653051 0
0.9850685 0.98956758 -0.049873665 0
0.84963638 1.0128134 0.37023145 0
0.83910352 1.0146214 0.47740522 0
0.83948666 1.0145556 0.59282196 0
0.3886427 1.0919394 0.48626876 0
0.9899959 1.0087379 -0.049935699 0
0.4223614 1.0988255 0.041416783 0
0.42603275 1.0982428 0.11301236 0
0.42279741 1.0987562 0.18499109 0
0.43129304 1.0974079 0.26140612 0
0.43112186 1.0974351 0.33899394 0
0.43279234 1.09717 0.42110929 0
0.39074942 1.1038425 0.48633826 0
0.98527414 1.0293626 -0.049658205 0
0.40825829 1.113505 0.040840123 0
0.39043322 1.1161042 0.10894107 0
0.40394935 1.1141334 0.18121308 0
0.40532932 1.1139321 0.25422269 0
0.4015272 1.1144866 0.32840604 0
0.40540233 1.1139214 0.40885383 0
0.4112449 1.1130694 0.49578139 0
0.99937743 1.0472895 -0.050068535 0
0.38970569 1.1283679 0.040110841 0
0.433382 1.1225595 0.11341685 0
0.42281219 1.1239651 0.18433765 0
0.42659041 1.1234627 0.25925952 0
0.42857108 1.1231993 0.33691716 0
0.42502704 1.1236706 0.4163442 0
0.41800484 1.1246045 0.49833447 0
0.98373407 1.0690864 -0.049416728 0
0.3885071 1.1406288 0.040013414 0
0.4280422 1.135877 0.11266778 0
0.42709795 1.1359905 0.18483211 0
0.4324092 1.1353521 0.26035142 0
0.41843829 1.1370313 0.33299473 0
0.42543009 1.136191 0.41585872 0
1.0070864 1.0862345 -0.050175872 0
0.36490574 1.1552296 0.039117258 0
0.85439509 1.1026394 0.36826888 0
0.84566098 1.1035779 0.47547898 0
0.8342486 1.1048039 0.58551145 0
0.99599665 1.1071858 -0.049706735 0
0.36340925 1.1671034 0.03902147 0
0.85171396 1.120852 0.36712101 0
0.84409934 1.1215732 0.47435999 0
0.84586602 1.121406 0.58960593 0
0.99400896 1.1270616 -0.049573582 0
0.35366371 1.179588 0.038635649 0
0.84193999 1.1395355 0.36421737 0
0.83700389 1.1399405 0.47147056 0
0.84070498 1.1396369 0.58681285 0
0.99140126 1.1468893 -0.049427316 0
0.35913053 1.1907464 0.038800199 0
0.8529461 1.1564933 0.36669084 0
0.84208006 1.1572469 0.47272 0
0.84481531 1.1570573 0.58796549 0
1.015334 1.1651115 -0.050239138 0
0.84461683 1.174795 0.3642762 0
0.82996649 1.175626 0.46831304 0
0.84165889 1.1749629 0.58619469 0
1.0044823 1.1854439 -0.049815655 0
0.84674042 1.1924001 0.36459115 0
0.82666284 1.1932856 0.46691954 0
0.84195977 1.192611 0.58595127 0
1.0084083 1.2050152 -0.049929332 0
0.85033923 1.2099926 0.36533919 0
0.83318132 1.210533 0.46886998 0
0.83647341 1.2104293 0.58340269 0
1.0102592 1.224709 -0.049977686 0
0.84452361 1.2278397 0.36374122 0
0.84011632 1.2279229 0.47103086 0
0.83902031 1.2279437 0.58427429 0
1.0139081 1.2444288 -0.05009909 0
0.84685546 1.2454805 0.36427945 0
0.84949917 1.2454638 0.4740788 0
0.82875949 1.2455945 0.57993418 0
1.0122038 1.2642037 -0.050038241 0
0.84787542 1.2631691 0.36453965 0
0.83408874 1.2630823 0.46895173 0
0.84349495 1.2631414 0.58603525 0
1.0095956 1.2839216 -0.049953997 0
0.84656948 1.2808421 0.3642633 0
0.84219903 1.2807596 0.47172385 0
0.84301049 1.2807748 0.58592659 0
1.0052434 1.3035283 -0.049816284 0
0.85175222 1.298695 0.36569989 0
0.83814555 1.2982665 0.47052237 0
0.84017891 1.2983305 0.58493763 0
1.0139233 1.3236156 -0.050153039 0
0.84511715 1.3161714 0.36417663 0
0.83761817 1.3158407 0.47056785 0
0.83320791 1.3156463 0.58232415 0
1.0143751 1.3434772 -0.050204847 0
0.85069782 1.334193 0.36583012 0
0.84487003 1.3338624 0.47327933 0
0.83657557 1.333392 0.58408666 0
1.0007802 1.3624043 -0.049762961 0
1.300361 1.3831846 0.072484083 0
1.3033587 1.3833925 0.20645569 0
1.301169 1.3832406 0.34199718 0
0.85190052 1.3520774 0.36642346 0
0.83581477 1.3509616 0.47063053 0
0.84088916 1.3513136 0.58633602 0
1.0057011 1.3825406 -0.049992409 0
1.2426767 1.4019793 0.070481159 0
1.2488949 1.4024894 0.200774 0
1.0212572 1.3838167 0.29166627 0
0.85010868 1.3697777 0.36630845 0
0.84290868 1.369187 0.47344163 0
0.83396178 1.3684531 0.58401155 0
0.99542648 1.4014033 -0.049686287 0
1.2443007 1.4249763 0.070611186 0
1.2467371 1.425207 0.20075791 0
0.89929849 1.3922982 0.26989082 0
0.83615094 1.386317 0.3631326 0
0.84120435 1.3867956 0.47339249 0
0.84356588 1.3870194 0.58864933 0
0.99411756 1.4210153 -0.049710207 0
0.63933629 1.3828981 0.048971165 0
0.64351231 1.3833468 0.13580471 0
0.63899952 1.3828619 0.22301212 0
0.6441142 1.3834114 0.31431073 0
0.83309036 1.4037148 0.47127271 0
0.83942932 1.4043958 0.58766878 0
0.99227136 1.4405829 -0.049723715 0
0.54820007 1.3872083 0.045755696 0
0.55120748 1.3875698 0.12599954 0
0.55064231 1.3875018 0.20727353 0
0.54827517 1.3872174 0.29012531 0
0.83909649 1.4221722 0.47395253 0
0.84014982 1.4222988 0.58880341 0
0.9926514 1.4604591 -0.049826294 0
0.56070191 1.4030155 0.046269372 0
0.55330354 1.4020315 0.1264182 0
0.55760759 1.402604 0.20886186 0
0.54723924 1.4012251 0.2903119 0
0.84447652 1.4407538 0.47650471 0
0.84354097 1.4406294 0.59114957 0
0.9894436 1.4798886 -0.049808633 0
0.54624206 1.4152594 0.045818422 0
0.55476111 1.4165016 0.12678806 0
0.53883964 1.4141799 0.20579767 0
0.5563584 1.4167346 0.29316258 0
0.83940107 1.4580089 0.47562483 0
0.83253306 1.4570073 0.58757162 0
0.9912979 1.5001119 -0.049982764 0
0.54845899 1.4298303 0.045974974 0
0.55361837 1.430649 0.12689552 0
0.55855292 1.4314322 0.20978083 0
0.55899733 1.4315028 0.29439536 0
0.83709151 1.4756383 0.47574806 0
0.83896583 1.4759357 0.59138447 0
0.98366886 1.5188353 -0.049822967 0
0.54173154 1.4429802 0.04581451 0
0.55548078 1.4453402 0.12735027 0
0.5515545 1.4446663 0.20892449 0
0.54469115 1.4434882 0.29129243 0
0.83400482 1.4931467 0.47568411 0
0.83317643 1.4930044 0.5901711 0
0.98165613 1.5384842 -0.049875244 0
0.55310982 1.4593602 0.046316996 0
0.55378312 1.4594845 0.12743723 0
0.54432029 1.4577373 0.20805341 0
0.55309635 1.4593577 0.29411373 0
0.83496433 1.5114 0.47706342 0
0.83827358 1.5120109 0.59362894 0
0.98318535 1.5588741 -0.050065547 0
0.55552238 1.4743314 0.046501953 0
0.55140549 1.4735175 0.12746942 0
0.55330437 1.4738929 0.21019195 0
0.55389065 1.4740088 0.29501459 0
0.84616512 1.5317872 0.48199713 0
0.8401596 1.5306 0.59584099 0
0.97195202 1.5767139 -0.049800053 0
0.54125959 1.4859231 0.046085853 0
0.56299859 1.4905056 0.12905549 0
0.5511387 1.4880055 0.21031858 0
0.55382019 1.4885708 0.29574043 0
0.84722584 1.5504214 0.48358351 0
0.83950454 1.5487937 0.59708267 0
0.96980184 1.5963997 -0.049874339 0
0.56183463 1.5050194 0.046948485 0
0.55103809 1.5026011 0.12807554 0
0.54467791 1.5011766 0.20968457 0
0.55933207 1.5044589 0.29797575 0
0.83455795 1.5661064 0.48057356 0
0.85468489 1.5706147 0.60514379 0
0.9624148 1.6149 -0.049765773 0
0.55656582 1.5186121 0.046874236 0
0.5528689 1.517735 0.12863275 0
0.5574922 1.518832 0.21265207 0
0.55375057 1.5179442 0.29736125 0
0.84229892 1.5864024 0.48460051 0
0.84124738 1.5861529 0.60116804 0
0.96472389 1.6357543 -0.050022293 0
0.55685216 1.5335453 0.047010504 0
0.55366307 1.5327461 0.12909797 0
0.54666024 1.5309912 0.21127379 0
0.54727715 1.5311458 0.2965548 0
0.84185654 1.6049649 0.48592094 0
0.83596128 1.6034875 0.60074246 0
0.95145041 1.6526849 -0.049713969 0
0.54970688 1.546618 0.046879746 0
0.55618852 1.5483292 0.12977813 0
0.55124205 1.5470233 0.21279456 0
0.54906934 1.5464497 0.29797059 0
0.83998507 1.6232563 0.48683432 0
0.83369786 1.6215963 0.60170317 0
0.94739085 1.6719503 -0.049753834 0
0.54896456 1.5613745 0.046991855 0
0.5565986 1.5634933 0.13024659 0
0.55332047 1.5625834 0.21388979 0
0.55046672 1.5617914 0.29933769 0
0.82867783 1.6390038 0.48457244 0
0.84334809 1.6430752 0.60788411 0
0.95065802 1.6933814 -0.050075281 0
0.54937488 1.5765513 0.047154136 0
0.54880601 1.5763857 0.12981997 0
0.54748112 1.576 0.21353856 0
0.55426139 1.577974 0.30139813 0
0.82781941 1.657618 0.48599142 0
0.84195453 1.6617333 0.60944194 0
0.95110339 1.7141925 -0.050302699 0
0.85278839 1.684221 0.38213286 0
0.84001845 1.6803281 0.49203873 0
0.8444373 1.6816752 0.61278498 0
0.93408042 1.7296085 -0.04988629 0
0.85374469 1.7040083 0.38386831 0
0.83900613 1.6993116 0.49359688 0
0.83744007 1.6988126 0.61213094 0
0.92920321 1.7487581 -0.049932398 0
0.84992892 1.7223921 0.38439482 0
0.83109826 1.7161291 0.49282759 0
0.8398636 1.7190443 0.61567861 0
0.9209699 1.766782 -0.049860988 0
0.84590298 1.740761 0.38492924 0
0.83375257 1.7365493 0.49584839 0
0.84024674 1.7388004 0.61845917 0
0.92239088 1.788239 -0.050164267 0
0.84448701 1.760131 0.38623664 0
0.83855838 1.7579919 0.49973467 0
0.82686418 1.7537726 0.61530256 0
0.9049812 1.8028644 -0.049761239 0
0.83904713 1.7781326 0.38652003 0
0.83807868 1.7777693 0.50185698 0
0.84696764 1.7811035 0.62702179 0
0.90821987 1.8252313 -0.050154395 0
0.85073191 1.802838 0.39155555 0
0.83597034 1.7970878 0.50349689 0
0.83154124 1.7953625 0.62316394 0
0.8996684 1.8431363 -0.050106388 0
0.84483439 1.8209774 0.39186388 0
0.83121496 1.8154738 0.50428247 0
0.83720368 1.8178939 0.62878394 0
0.8923853 1.8615391 -0.050115921 0
0.82704788 1.8341738 0.38894835 0
0.82436746 1.8330512 0.50440085 0
0.81778675 1.830295 0.62330294 0
0.88137478 1.8783361 -0.049989447 0
0.83437186 1.8579503 0.39304599 0
0.82827955 1.8553082 0.50850171 0
0.82794744 1.8551641 0.63121057 0
0.87120038 1.8954139 -0.049903236 0
0.83686966 1.8800079 0.39590073 0
0.83178729 1.8777272 0.51258034 0
0.81566375 1.8704916 0.62911916 0
0.86203903 1.9128981 -0.049864821 0
0.83017319 1.8981135 0.3962642 0
0.82649225 1.8964056 0.51355755 0
0.82829195 1.8972406 0.63847387 0
0.85532945 1.9315311 -0.049931936 0
0.83213431 1.9204122 0.39914364 0
0.81818956 1.9137276 0.51351756 0
0.81577176 1.9125687 0.63649255 0
0.84334499 1.9476095 -0.049798667 0
0.82222229 1.9371551 0.39874083 0
0.81628186 1.9342149 0.51593196 0
0.81808823 1.935109 0.64144188 0
0.83334988 1.9646021 -0.049752377 0
0.81370479 1.9545691 0.39879516 0
0.80045575 1.9478025 0.51325852 0
0.79970688 1.9474201 0.63693208 0
0.84150273 1.9911195 -0.050446659 0
0.8075766 1.9732509 0.39960182 0
0.80244356 1.9705473 0.51732975 0
0.79810041 1.9682598 0.64031446 0
0.82795948 2.0064194 -0.050277866 0
0.80040985 1.9914629 0.40018058 0
0.79279155 1.9873271 0.51713055 0
0.79326791 1.9875858 0.64232343 0
0.81400579 2.0213568 -0.050098941 0
0.79627961 2.0114424 0.4017179 0
0.78860456 2.0071497 0.51909357 0
0.77647704 2.0003667 0.63878864 0
0.80181974 2.0371702 -0.049999263 0
0.7910282 2.0309548 0.4030101 0
0.77952415 2.0243292 0.51928759 0
0.78605074 2.0280881 0.64790171 0
0.79838818 2.0580957 -0.050270416 0
0.78521281 2.0502846 0.40421733 0
0.77348393 2.0433314 0.52074218 0
0.77795631 2.0459826 0.64874631 0
0.77546138 2.0673568 -0.049739361 0
0.77215606 2.0653408 0.40334225 0
0.76950759 2.0637252 0.52310526 0
0.76675528 2.0620463 0.64819962 0
0.77973884 2.0932477 -0.050355546 0
0.76667207 2.0850496 0.40479794 0
0.76380461 2.0832505 0.52490944 0
0.76342553 2.0830126 0.65159446 0
0.76267689 2.1058934 -0.050083946 0
0.75571233 2.1014006 0.40467802 0
0.75274104 2.099484 0.52470291 0
0.7571426 2.1023233 0.65369141 0
0.74635631 2.1188047 -0.049848616 0
0.74770063 2.1196961 0.40552238 0
0.74198443 2.115906 0.5246985 0
0.74381286 2.1171184 0.65242553 0
0.74652559 2.1427543 -0.050330628 0
0.74263328 2.1401024 0.40735376 0
0.73530227 2.1351073 0.5264172 0
0.73538464 2.1351635 0.65369737 0
0.72762698 2.1537762 -0.049999055 0
0.72844154 2.1543465 0.40643957 0
0.72879988 2.1545973 0.52832186 0
0.73102909 2.1561575 0.65715307 0
0.72256953 2.174464 -0.050279118 0
0.71698278 2.1704478 0.40643188 0
0.72610861 2.1770082 0.53190547 0
0.72709054 2.1777141 0.66098702 0
0.70653301 2.1872971 -0.050086122 0
0.71259576 2.1917722 0.40873066 0
0.71276969 2.1919007 0.53123587 0
0.71772176 2.1955562 0.6622014 0
0.69523329 2.2035527 -0.050110657 0
0.71361893 2.2174852 0.41286889 0
0.69969839 2.2069364 0.53074944 0
0.70543319 2.211282 0.6620267 0
0.68191844 2.218267 -0.050053507 0
0.69637722 2.2295129 0.41124842 0
0.69418424 2.2278073 0.53352278 0
0.69168001 2.2258594 0.66118544 0
0.67161459 2.235337 -0.050141744 0
0.68440861 2.2455492 0.41138211 0
0.68106669 2.2428818 0.53319883 0
0.68364614 2.2449408 0.6634624 0
0.65400463 2.2465076 -0.049903609 0
0.67145115 2.2607968 0.41125736 0
0.67785233 2.2660396 0.53721154 0
0.67552012 2.2641294 0.66584152 0
0.64077288 2.2611418 -0.049873624 0
0.65424865 2.2724655 0.40978032 0
0.65833789 2.2759016 0.53430974 0
0.65964717 2.2770016 0.66418642 0
0.6269986 2.2752848 -0.049826391 0
0.72324175 2.3582466 0.066362761 0
0.7213425 2.3566096 0.18743667 0
0.7215808 2.3568149 0.31053317 0
0.64993948 2.2950597 0.41267931 0
0.65742809 2.3015151 0.53960234 0
0.6501351 2.2952282 0.66607833 0
0.62019855 2.2955537 -0.050119422 0
0.67875832 2.347332 0.064910121 0
0.67923599 2.3477542 0.18340188 0
0.68258744 2.3507175 0.30451229 0
0.63787287 2.3111813 0.41306525 0
0.63743347 2.3107927 0.53662115 0
0.63499898 2.3086402 0.66500944 0
0.61013001 2.3131418 -0.050270528 0
0.66222745 2.3603883 0.064781405 0
0.66249233 2.3606284 0.18298432 0
0.66625935 2.3640447 0.30392191 0
0.62723118 2.3286507 0.41401592 0
0.61420184 2.3168347 0.53220415 0
0.62415117 2.3258574 0.66641903 0
0.58724934 2.3189633 -0.049809467 0
0.63750964 2.3657105 0.064259991 0
0.64162606 2.369539 0.18198046 0
0.64256316 2.3704107 0.30155095 0
0.61755425 2.3471498 0.41539016 0
0.61554354 2.3452799 0.53893447 0
0.61681885 2.3464658 0.66995484 0
0.58058995 2.3398128 -0.05014677 0
0.62730438 2.3843718 0.064451583 0
0.62380177 2.3810308 0.18143283 0
0.62237054 2.3796656 0.30004439 0
0.60442895 2.3625517 0.41564679 0
0.60274142 2.3609421 0.53940678 0
0.59301573 2.351665 0.66425663 0
0.56151313 2.3488524 -0.049881134 0
0.61466986 2.4008505 0.064535886 0
0.60367101 2.3900914 0.18055329 0
0.6077581 2.3940892 0.29995623 0
0.59140259 2.3780904 0.41601074 0
0.58162147 2.3685224 0.53610504 0
0.5856058 2.3724198 0.66802037 0
0.55419809 2.3694298 -0.050212614 0
0.60823745 2.4236395 0.064945325 0
0.60467905 2.4200699 0.18289764 0
0.60603231 2.4214275 0.30320501 0
0.57396573 2.3892598 0.41485569 0
0.56993383 2.3852153 0.537251 0
0.57541555 2.3907142 0.67035359 0
0.53850645 2.3817301 -0.050132565 0
0.60553247 2.4506824 0.065565623 0
0.59925431 2.4442236 0.18433858 0
0.61057788 2.4558728 0.3082073 0
0.5595997 2.4034295 0.41486076 0
0.55770391 2.4014792 0.53825283 0
0.55728334 2.4010468 0.66813564 0
0.52027601 2.3912745 -0.049927671 0
0.60740548 2.4831958 0.066449359 0
0.61277324 2.4888587 0.18880537 0
0.60993451 2.4858639 0.31202909 0
0.54821688 2.420752 0.41603807 0
0.54817063 2.4207032 0.54067045 0
0.54844481 2.4209924 0.67155933 0
0.50886697 2.4079909 -0.050085049 0
0.52690893 2.4275115 0.41358215 0
0.52588207 2.4264004 0.53698701 0
0.53865463 2.4402199 0.67460155 0
0.49187443 2.4186819 -0.049958017 0
0.52134365 2.4513831 0.41712368 0
0.52088338 2.4508724 0.54187971 0
0.51544625 2.444839 0.66953647 0
0.47878906 2.4336889 -0.050047729 0
0.50373429 2.4620807 0.41617608 0
0.49954137 2.4573085 0.53875941 0
0.5079152 2.4668396 0.67426884 0
0.46282718 2.4454398 -0.049991194 0
0.48139343 2.4671156 0.41341126 0
0.48988149 2.4770257 0.54160857 0
0.48562559 2.4720569 0.66985291 0
0.4389706 2.4476779 -0.04950222 0
0.47483394 2.4906313 0.41691175 0
0.47938308 2.4960797 0.54419363 0
0.47293898 2.4883616 0.67161578 0
0.43286821 2.4711912 -0.050011408 0
0.4597275 2.5041964 0.41713086 0
0.4562231 2.4998901 0.54027075 0
0.45322427 2.4962051 0.6689297 0
0.41334531 2.4783652 -0.049774546 0
0.44553146 2.5189495 0.41779682 0
0.44142452 2.5137711 0.5407874 0
0.44994327 2.5245125 0.67721593 0
0.40389249 2.4983027 -0.050126988 0
0.42136505 2.5209131 0.41439053 0
0.42940387 2.5313158 0.54291832 0
0.42370698 2.5239439 0.67033422 0
0.38299981 2.5034628 -0.049821097 0
0.41000488 2.5393336 0.41636953 0
0.40614089 2.5342011 0.5389877 0
0.41133675 2.5411029 0.67287689 0
0.37447521 2.5251298 -0.050260503 0
0.39891049 2.5584524 0.41859671 0
0.39346293 2.5510235 0.54096454 0
0.39178845 2.5487399 0.67058784 0
0.36043486 2.5396118 -0.050385494 0
0.38098201 2.5683849 0.417968 0
0.37769362 2.5637798 0.541327 0
0.38695988 2.5767558 0.67881304 0
0.33659509 2.540159 -0.049911205 0
0.35909817 2.572525 0.41561544 0
0.35810259 2.5710931 0.53956151 0
0.36004809 2.5738914 0.67142522 0
0.32181856 2.5535073 -0.050005775 0
0.33405998 2.5715959 0.41180634 0
0.34434089 2.5867875 0.54127741 0
0.34539309 2.5883422 0.67292684 0
0.30502251 2.5639162 -0.049981885 0
0.33155683 2.6042082 0.41837189 0
0.32371357 2.5922983 0.53899181 0
0.32197765 2.5896623 0.66799837 0
0.28918126 2.5757897 -0.050029304 0
0.30483678 2.6002269 0.4138065 0
0.30601767 2.6020703 0.53851116 0
0.30820039 2.6054773 0.67038232 0
0.27720645 2.5939386 -0.050348729 0
0.29216883 2.6179543 0.41590381 0
0.2911354 2.6162956 0.53986764 0
0.28453436 2.6057003 0.66522658 0
0.25971243 2.6034157 -0.050310105 0
0.2712104 2.6223993 0.41407117 0
0.26316735 2.6091199 0.53296286 0
0.27151707 2.6229055 0.66847527 0
0.23841991 2.6063921 -0.050011616 0
0.25192216 2.6293316 0.41306686 0
0.2533091 2.6316881 0.53772801 0
0.25287762 2.630955 0.66738021 0
0.22479601 2.6223626 -0.050260723 0
0.23442598 2.639205 0.41300571 0
0.23278369 2.6363328 0.53563786 0
0.23878862 2.6468351 0.67014015 0
0.20189179 2.6219857 -0.049847592 0
0.2198043 2.6542501 0.41451865 0
0.21994801 2.6545091 0.53881007 0
0.21633811 2.6480067 0.66599977 0
0.18667759 2.6352732 -0.05000313 0
0.20590796 2.6709628 0.4165583 0
0.20082565 2.6615307 0.53780663 0
0.20132966 2.662466 0.66827017 0
0.16623403 2.6387992 -0.049772166 0
0.18328293 2.6714172 0.41395462 0
0.18180718 2.6685939 0.53691608 0
0.18193282 2.6688342 0.66683429 0
0.15197839 2.6541827 -0.050027587 0
0.15829016 2.6666379 0.40995225 0
0.16167392 2.6733153 0.53524739 0
0.16148938 2.6729512 0.66447628 0
0.13842161 2.6714053 -0.050361745 0
0.13841309 2.6713879 0.40877286 0
0.14052816 2.6756954 0.53281546 0
0.14314552 2.6810257 0.6640774 0
0.11631884 2.6712112 -0.050012164 0
0.12106069 2.6811838 0.40909684 0
0.12075742 2.6805458 0.53140646 0
0.12439146 2.6881886 0.66336912 0
0.10204639 2.6874518 -0.050321445 0
0.10607173 2.6961999 0.41094661 0
0.10122158 2.6856594 0.53019339 0
0.098100625 2.6788769 0.65526438 0
0.078997217 2.6845129 -0.049886573 0
0.078764401 2.6839898 0.40523598 0
0.081419609 2.6899567 0.52877975 0
0.082095228 2.6914752 0.65728438 0
0.063562594 2.6985145 -0.050123703 0
0.064230405 2.7000675 0.40750802 0
0.06244161 2.6959074 0.528063 0
0.068009101 2.7088556 0.66153997 0
0.046212457 2.7083461 -0.050205946 0
0.048248194 2.7132502 0.40901905 0
0.046414815 2.7088337 0.52994913 0
0.04934939 2.7159026 0.66122055 0
0.024908086 2.7084682 -0.049922779 0
0.025183341 2.7091556 0.40582973 0
0.027374586 2.7146275 0.52934211 0
0.021383962 2.6996677 0.65062416 0
0.0096549606 2.7237244 -0.050230425 0
0.0081058359 2.7197101 0.40674156 0
0.0058472962 2.7138577 0.52648312 0
0.0099136448 2.7243946 0.65841448 0
-0.013727703 2.7177305 -0.049734656 0
-0.011755028 2.7230403 0.40574154 0
-0.015626231 2.7126203 0.52356791 0
-0.013425984 2.7185426 0.65272605 0
-0.03063474 2.7288327 -0.049900424 0
-0.034977116 2.7166777 0.40218797 0
-0.03565941 2.7147679 0.52195752 0
-0.030606428 2.7289119 0.65432471 0
-0.048059441 2.7387962 -0.050030556 0
-0.052963175 2.7245045 0.40255606 0
-0.055957414 2.7157779 0.52004278 0
-0.055454411 2.7172439 0.64636493 0
-0.067124493 2.7440789 -0.049992487 0
-0.070512064 2.7337856 0.40337422 0
-0.071718998 2.7301183 0.52289462 0
-0.07298059 2.7262847 0.64760143 0
-0.085609414 2.7511232 -0.050029512 0
-0.096161433 2.7176464 0.3974483 0
-0.091496773 2.7324452 0.52161396 0
-0.092607982 2.72892 0.64614809 0
-0.10730002 2.7476335 -0.049682304 0
-0.11547006 2.7205279 0.39669949 0
-0.11651257 2.7170691 0.51427335 0
-0.11015601 2.7381582 0.64766282 0
-0.12391699 2.7609026 -0.049969103 0
-0.10581026 2.823832 0.064306915 0
-0.10239405 2.835705 0.18284531 0
-0.10824881 2.815357 0.29895282 0
-0.13122232 2.7355132 0.39923137 0
-0.13014401 2.7392609 0.52007425 0
-0.13277821 2.7301056 0.64181805 0
-0.14072736 2.7742434 -0.050265323 0
-0.13540892 2.7936432 0.062983483 0
-0.13533305 2.79392 0.17756458 0
-0.13557775 2.7930274 0.29374272 0
-0.14896794 2.744184 0.40013671 0
-0.1480682 2.7474661 0.52108955 0
-0.14907236 2.7438033 0.64545339 0
-0.16295381 2.7676458 -0.049832795 0
-0.15719913 2.7897236 0.062647343 0
-0.15843974 2.7849641 0.17599325 0
-0.16052003 2.776983 0.2897853 0
-0.16959171 2.7421794 0.39828339 0
-0.17083661 2.7374034 0.51589853 0
-0.17486013 2.721967 0.63396102 0
-0.18130313 2.7754714 -0.049942348 0
-0.17846681 2.7869427 0.062364228 0
-0.17937495 2.7832699 0.175263 0
