# .PCD v0.7 - Point Cloud Data file format
VERSION 0.7
FIELDS x y z intensity
SIZE 4 4 4 4
TYPE F F F F
COUNT 1 1 1 1
WIDTH 1359
HEIGHT 1
VIEWPOINT 0 0 0 1 0 0 0
POINTS 1359
DATA ascii
-1.9977585 0.82511687 -0.047656901 0
-1.9901526 0.80766588 -0.047578834 0
-2.0028076 0.78367233 -0.04826941 0
-2.011097 0.76064384 -0.0488097 0
-2.0073082 0.74147999 -0.04890598 0
-2.005415 0.72154307 -0.04908397 0
-2.0076423 0.69989306 -0.049429897 0
-1.9985269 0.68247813 -0.049352329 0
-2.008297 0.65734863 -0.050011877 0
-1.9957318 0.64123034 -0.049820412 0
-1.9993852 0.61810046 -0.050268661 0
-1.9815717 0.60441595 -0.049888451 0
-1.4963804 0.82582891 0.34938118 0
-1.9706056 0.58779478 -0.049783058 0
-1.48787 0.81547421 0.34826267 0
-1.9642576 0.56900334 -0.049868692 0
-1.4957669 0.79721892 0.35325718 0
-1.9607018 0.54873675 -0.050075874 0
-1.4913318 0.78473878 0.35377657 0
-1.946875 0.53362954 -0.049881563 0
-1.474059 0.7788707 0.3495467 0
-1.9403819 0.51475227 -0.049990527 0
-1.4754229 0.76339704 0.35234725 0
-1.9274741 0.4993186 -0.04984843 0
-1.4630165 0.75526732 0.35001025 0
-1.2471435 0.87422848 0.4730444 0
-1.9283412 0.47617805 -0.050278727 0
-1.454725 0.74500304 0.3492696 0
-1.2372249 0.86845624 0.4695816 0
-1.9121492 0.46265107 -0.050018821 0
-1.4498887 0.73278219 0.34990457 0
-1.2335697 0.85919249 0.47044513 0
-1.9021286 0.44562304 -0.050021105 0
-1.4480543 0.71869755 0.35176927 0
-1.2414643 0.84293818 0.47938848 0
-1.8971429 0.42547441 -0.050243754 0
-1.4324919 0.71293753 0.34834704 0
-1.2459594 0.82833862 0.48617321 0
-1.8853003 0.40949845 -0.050188731 0
-1.4250476 0.70231724 0.34812692 0
-1.2371182 0.8218804 0.40908068 0
-1.2361661 0.8224861 0.48309803 0
-1.8704405 0.39553839 -0.050013099 0
-1.4251119 0.68680346 0.35094282 0
-1.2412422 0.80706257 0.41483369 0
-1.2463191 0.80374199 0.49418393 0
-1.8553923 0.38185054 -0.049835395 0
-1.413518 0.67886674 0.34918725 0
-1.2546912 0.78562576 0.35385945 0
-1.2430074 0.79347938 0.41932565 0
-1.2327657 0.8003636 0.48859203 0
-1.8482774 0.36283237 -0.050007798 0
-1.4056253 0.66853279 0.34895313 0
-1.2471056 0.77800822 0.35303983 0
-1.2356344 0.78593034 0.41840383 0
-1.2346603 0.78660309 0.49411577 0
-1.8378557 0.34600711 -0.050047431 0
-1.4003923 0.65633142 0.34985459 0
-1.2500699 0.76296592 0.35761678 0
-1.2424773 0.76835191 0.42625234 0
-1.2415121 0.76903665 0.50341874 0
-1.8261403 0.33008569 -0.050039608 0
-1.3903991 0.64751071 0.34886798 0
-1.2508761 0.74914932 0.36122698 0
-1.240007 0.75706702 0.42854458 0
-1.2439499 0.75419474 0.50973058 0
-1.8049415 0.32126015 -0.049617819 0
-1.3844731 0.63573873 0.34960771 0
-1.2471359 0.73845655 0.36261037 0
-1.2420713 0.74224454 0.43378007 0
-1.242695 0.74177808 0.51350504 0
-1.8051726 0.2963531 -0.050161459 0
-1.3773071 0.62484562 0.34989637 0
-1.2507619 0.72200042 0.36792207 0
-1.2337599 0.7350536 0.43263867 0
-1.2383403 0.73153698 0.5151149 0
-1.7883418 0.28439784 -0.049949199 0
-1.3684803 0.61523062 0.34954235 0
-1.2444739 0.71294236 0.36816964 0
-1.2455486 0.71209556 0.44434708 0
-1.2384127 0.71771836 0.52018034 0
-1.7669759 0.27629799 -0.049533434 0
-1.3638021 0.60229307 0.35101113 0
-1.2533242 0.69162244 0.37654042 0
-1.23515 0.70631754 0.44208428 0
-1.2494909 0.69472194 0.53382319 0
-1.7610548 0.25576204 -0.049834453 0
-1.351649 0.59540957 0.34933418 0
-1.2460548 0.68301177 0.37647095 0
-1.2372258 0.69033647 0.44795442 0
-1.241639 0.68667513 0.53324455 0
-1.7581215 0.23240018 -0.050290853 0
-1.3442484 0.58464533 0.34975305 0
-1.256078 0.65968668 0.38586119 0
-1.2369205 0.67599148 0.45245498 0
-1.2470839 0.66734147 0.54309314 0
-1.7388059 0.22290945 -0.049989756 0
-1.3315537 0.57845813 0.34789804 0
-1.2569941 0.64355189 0.39051029 0
-1.2379748 0.66015667 0.45802751 0
-1.2371424 0.66088325 0.54112816 0
-1.7209013 0.21243596 -0.049758565 0
-1.326919 0.56523919 0.34965602 0
-1.2472939 0.63654172 0.38942409 0
-1.2427716 0.64059144 0.46631008 0
-1.2348164 0.64771515 0.5452677 0
-1.7101803 0.19558191 -0.049879257 0
-1.3148539 0.55866098 0.34815288 0
-1.2523689 0.61604887 0.39668062 0
-1.2357786 0.63128603 0.46684596 0
-1.2378529 0.62938088 0.55390614 0
-1.6945841 0.18319869 -0.049772635 0
-1.3114874 0.54404294 0.35064498 0
-1.2507415 0.6012603 0.4003574 0
-1.2316753 0.61921901 0.46945468 0
-1.242011 0.60948372 0.56374836 0
-1.6843933 0.16569448 -0.049940705 0
-1.3005919 0.53643239 0.34976965 0
-1.242626 0.59242541 0.4004508 0
-1.2407458 0.59424162 0.48136464 0
-1.2279841 0.60656899 0.55892199 0
-1.6755131 0.14672053 -0.050187763 0
-1.292716 0.52592111 0.35034195 0
-1.2421659 0.57599628 0.40507138 0
-1.2407855 0.57736379 0.48728409 0
-1.2371861 0.5809294 0.57345623 0
-1.661356 0.13285434 -0.050181534 0
-1.2812349 0.51900762 0.34927419 0
-1.2420292 0.55883539 0.41006356 0
-1.243329 0.55751497 0.49521616 0
-1.2392733 0.56163502 0.58243412 0
-1.6442643 0.1220473 -0.050032873 0
-1.4053937 0.3708998 0.049717911 0
-1.4005148 0.37598246 0.13684405 0
-1.4023269 0.37409467 0.22604676 0
-1.4070661 0.36915749 0.31903732 0
-1.2697293 0.51223326 0.34822217 0
-1.2376665 0.54563582 0.41272336 0
-1.2435594 0.53949678 0.50176102 0
-1.2353277 0.54807228 0.58657074 0
-1.6294279 0.10897946 -0.050007086 0
-1.370909 0.38517994 0.048500922 0
-1.3731858 0.38274747 0.13429585 0
-1.3718048 0.38422275 0.22093415 0
-1.3711299 0.3849439 0.3098067 0
-1.2692907 0.49374843 0.35258526 0
-1.2478652 0.51663935 0.4243418 0
-1.2331934 0.5323146 0.50080109 0
-1.2409427 0.52403533 0.5992077 0
-1.6152076 0.095259063 -0.050022226 0
-1.3589967 0.37599659 0.048453037 0
-1.3562741 0.37897992 0.13335958 0
-1.3493173 0.3866027 0.21786618 0
-1.3562893 0.37896323 0.3083573 0
-1.258706 0.48588818 0.35211548 0
-1.2363795 0.5103519 0.42302579 0
-1.2377136 0.50889003 0.51094347 0
-1.2385784 0.50794238 0.60526496 0
-1.6035231 0.078667872 -0.050182991 0
-1.3364934 0.37876314 0.047841821 0
-1.3326696 0.38306046 0.13133556 0
-1.3358473 0.3794893 0.21719292 0
-1.3410347 0.37365955 0.30675703 0
-1.2488577 0.47725052 0.35205689 0
-1.2344779 0.49341089 0.4277094 0
-1.2348357 0.49300873 0.51588249 0
-1.2409569 0.48612958 0.61581916 0
-1.58469 0.070139281 -0.049967941 0
-1.3255934 0.36880851 0.047851957 0
-1.3212665 0.37379611 0.13127466 0
-1.3241229 0.37050343 0.21701473 0
-1.3149953 0.38102525 0.30096024 0
-1.2544202 0.4508521 0.3598763 0
-1.2394736 0.46808147 0.43695319 0
-1.2413396 0.46593052 0.52820849 0
-1.2442027 0.46262997 0.62755942 0
-1.575978 0.049872752 -0.050315134 0
-1.305733 0.36943448 0.047373727 0
-1.3092283 0.36530137 0.13112639 0
-1.3095962 0.36486626 0.21608256 0
-1.3109647 0.36324811 0.30373603 0
-1.2453256 0.4408657 0.36043131 0
-1.2397388 0.44747192 0.44350556 0
-1.2420352 0.44475651 0.53648126 0
-1.2429907 0.44362652 0.63565141 0
-1.5533668 0.046078082 -0.049901746 0
-1.3067473 0.34526318 0.048059363 0
-1.2965852 0.35759133 0.13089161 0
-1.304381 0.34813392 0.21779619 0
-1.2991545 0.35447443 0.30352312 0
-1.2502637 0.41378611 0.36840007 0
-1.2447 0.42053562 0.45338315 0
-1.2346712 0.43270195 0.53874964 0
-1.2398144 0.42646259 0.64225787 0
-1.5397171 0.031589027 -0.04999537 0
-1.2829298 0.35122555 0.047357533 0
-1.2879268 0.34500557 0.13135336 0
-1.2883186 0.34451777 0.21647355 0
-1.2847356 0.34897786 0.3022888 0
-1.2518544 0.3899067 0.3748962 0
-1.239712 0.40502107 0.45706198 0
-1.2399169 0.4047659 0.55124789 0
-1.2389331 0.40599054 0.6513449 0
-1.5302262 0.011675352 -0.050341867 0
-1.2853868 0.32442492 0.04816173 0
-1.2809402 0.33010489 0.13214152 0
-1.2838324 0.32641047 0.21852951 0
-1.2755494 0.33699089 0.30322871 0
-1.2531124 0.36565101 0.38147917 0
-1.2390552 0.38360745 0.46383974 0
-1.2410908 0.38100713 0.56092703 0
-1.2384334 0.38440162 0.66119248 0
-1.5076613 0.0084941331 -0.049939137 0
-1.2716823 0.31787378 0.048047625 0
-1.2744036 0.31430602 0.13305549 0
-1.2794274 0.30771947 0.22071107 0
-1.2743359 0.31439471 0.30760118 0
-1.25024 0.34598553 0.38607189 0
-1.2458837 0.35169679 0.47602323 0
-1.2386531 0.36117655 0.56803238 0
-1.2397709 0.35971105 0.67326415 0
-1.4908013 -0.0018938831 -0.049873397 0
-1.2703593 0.29478967 0.048677638 0
-1.2701309 0.29509711 0.13442859 0
-1.2723548 0.29210395 0.22219385 0
-1.2693574 0.29613805 0.3105585 0
-1.2492579 0.32318914 0.3919346 0
-1.24464 0.32940418 0.48308754 0
-1.2349167 0.34249032 0.57437754 0
-1.2346898 0.34279567 0.67946625 0
-1.474007 -0.012298947 -0.049818404 0
-1.275635 0.26182508 0.049738098 0
-1.2769443 0.26001579 0.13790201 0
-1.2737461 0.26443529 0.22636636 0
-1.2812366 0.25408435 0.3210032 0
-1.251806 0.29475355 0.40006509 0
-1.2412593 0.30932772 0.48896322 0
-1.2368872 0.31536937 0.5859037 0
-1.2386413 0.31294554 0.69512802 0
-1.4529238 -0.016555553 -0.049504641 0
-1.1772329 0.37469274 0.044417158 0
-1.172797 0.38098794 0.12081708 0
-1.1760845 0.37632239 0.19970863 0
-1.3309271 0.15657675 0.34861648 0
-1.2413484 0.28370279 0.40103519 0
-1.2407637 0.28453261 0.49719864 0
-1.2409991 0.28419858 0.59979159 0
-1.4458007 -0.04077721 -0.050069485 0
-1.1503314 0.38995743 0.043421436 0
-1.1568 0.38052744 0.1198763 0
-1.1581166 0.37860805 0.1975203 0
-1.3135061 0.15208149 0.34702086 0
-1.2416338 0.25685698 0.40842271 0
-1.2408839 0.25795001 0.50626385 0
-1.2456272 0.25103545 0.61473739 0
-1.4262595 -0.047121529 -0.049866058 0
-1.1385547 0.38382787 0.043367025 0
-1.1369336 0.38625622 0.11816975 0
-1.1367824 0.3864826 0.19418764 0
-1.3040183 0.13598216 0.34906593 0
-1.2375253 0.23558104 0.41351888 0
-1.236307 0.23740602 0.51224631 0
-1.2385589 0.23403287 0.61980075 0
-1.4101344 -0.058467034 -0.049887717 0
-1.1264663 0.37824494 0.043296125 0
-1.1254692 0.37977999 0.1180734 0
-1.1297641 0.37316793 0.19549699 0
-1.2826158 0.13785017 0.34566459 0
-1.237465 0.20736039 0.42134926 0
-1.2423478 0.19984341 0.52661097 0
-1.2430755 0.19872308 0.63579881 0
-1.3916745 -0.066151626 -0.049763218 0
-1.1075767 0.38351661 0.042773854 0
-1.1075941 0.38348895 0.11670148 0
-1.1123451 0.37596923 0.19337691 0
-1.2713743 0.12425875 0.34703732 0
-1.242748 0.1695683 0.43288463 0
-1.2351154 0.18164921 0.53133881 0
-1.2388258 0.17577648 0.64431936 0
-1.3789983 -0.083089001 -0.050037142 0
-1.0915185 0.38487905 0.04242941 0
-1.0881984 0.39028358 0.11497944 0
-1.0881016 0.39044112 0.18884957 0
-1.2611445 0.10875665 0.3490141 0
-1.2391219 0.14460576 0.43929562 0
-1.238251 0.14602351 0.54454494 0
-1.242884 0.13848162 0.66123122 0
-1.3611631 -0.091769822 -0.049972355 0
-1.0755928 0.38648963 0.042085662 0
-1.0799632 0.37917018 0.11554252 0
-1.0825775 0.3747918 0.19074754 0
-1.2480811 0.097614519 0.34971899 0
-1.2412367 0.10907721 0.4497706 0
-1.2455269 0.10189211 0.56173474 0
-1.2425213 0.10692584 0.67464215 0
-1.344241 -0.10193933 -0.049978796 0
-1.0663098 0.37712908 0.042205557 0
-1.062435 0.38380802 0.11415743 0
-1.0674952 0.37508571 0.18932208 0
-1.2483141 0.063409321 0.35727006 0
-1.2405361 0.076816194 0.45890227 0
-1.242178 0.073986046 0.57098889 0
-1.2352039 0.086007349 0.68180507 0
-1.3303872 -0.11757017 -0.050217748 0
-1.049397 0.38113362 0.041781731 0
-1.0479305 0.38373643 0.11339036 0
-1.0480844 0.38346332 0.18627279 0
-1.2503141 0.024544114 0.36613154 0
-1.2438009 0.03610396 0.47120005 0
-1.2415235 0.04014587 0.58301783 0
-1.3070705 -0.11625815 -0.049772728 0
-1.0313584 0.3878153 0.04126057 0
-1.0368359 0.37780094 0.11336933 0
-1.0356709 0.37993091 0.18574309 0
-1.2442224 -0.0013554147 0.37115443 0
-1.2353419 0.014880413 0.47600752 0
-1.2426792 0.0014659115 0.59725219 0
-1.2933741 -0.13241005 -0.050048433 0
-1.021612 0.37965238 0.041352075 0
-1.0181197 0.38623261 0.11161748 0
-1.0187938 0.3849625 0.18350039 0
-1.2381581 -0.028370386 0.3764883 0
-1.2393018 -0.030525452 0.48993137 0
-1.2435244 -0.038481835 0.61197913 0
-1.2755224 -0.14092028 -0.050022472 0
-1.0066558 0.38146639 0.041047331 0
-1.006955 0.380885 0.11157101 0
-1.0018498 0.39080411 0.18115114 0
-1.2435319 -0.0787654 0.38851839 0
-1.2371384 -0.066343434 0.50015903 0
-1.2371092 -0.066286691 0.62095153 0
-1.2586943 -0.15144861 -0.050086189 0
-0.99009943 0.3869651 0.040605031 0
-0.99430305 0.37853873 0.1111813 0
-0.98806578 0.39104164 0.1799892 0
-1.2424949 -0.118976 0.39755008 0
-1.2405995 -0.11517657 0.51517177 0
-1.2373643 -0.10869146 0.63666064 0
-1.2403438 -0.15893686 -0.050037399 0
-0.97756726 0.38484871 0.040475648 0
-0.97402954 0.39216965 0.108906 0
-0.98191535 0.3758508 0.18195954 0
-1.2389812 -0.15611732 0.40566099 0
-1.2426624 -0.16373515 0.52997583 0
-1.2213832 -0.16504705 -0.049943723 0
-0.96694589 0.37885857 0.040505949 0
-0.96250075 0.38836086 0.10874362 0
-0.96758187 0.37749904 0.18058099 0
-1.2416148 -0.20829582 0.41797227 0
-1.2414975 -0.20804513 0.54312301 0
-1.2039061 -0.17428291 -0.04998244 0
-0.95150054 0.38347161 0.040125828 0
-0.950257 0.38621944 0.10840264 0
-0.95193559 0.38251019 0.17858039 0
-1.2361468 -0.24552679 0.42601836 0
-1.240095 -0.25425148 0.55689329 0
-1.1818998 -0.17324102 -0.049629051 0
-0.9436456 0.3713975 0.040405657 0
-0.93383157 0.39383191 0.10693753 0
-0.94095498 0.37754822 0.17859289 0
-1.2368472 -0.29884815 0.43852028 0
-1.2395937 -0.30512667 0.57228976 0
-1.167891 -0.19049442 -0.049997378 0
-0.92687517 0.37991148 0.039889902 0
-0.92786288 0.37757385 0.10828932 0
-0.92585856 0.38231742 0.17672724 0
-1.2392675 -0.35941899 0.45296133 0
-1.1527274 -0.20561171 -0.050288282 0
-0.91826034 0.36938334 0.04011913 0
-0.91310716 0.38202083 0.10723991 0
-0.9145754 0.37842017 0.17659618 0
-1.2410631 -0.42224181 0.46794048 0
-1.1297204 -0.20134914 -0.049841654 0
-0.8996194 0.38390958 0.039390277 0
-0.90390712 0.37300378 0.10777197 0
-0.89811718 0.38773042 0.17393394 0
-1.2376631 -0.47589993 0.48032707 0
-1.1120496 -0.21029651 -0.049912535 0
-0.88719869 0.38345647 0.039245714 0
-0.88983572 0.37649298 0.10687765 0
-0.88987023 0.37640184 0.17530456 0
-1.2417494 -0.55278897 0.49900413 0
-1.0936581 -0.21742141 -0.049922314 0
-0.87637055 0.37892491 0.039262742 0
-0.87684292 0.37762851 0.10627697 0
-0.87311566 0.38785803 0.17231542 0
-1.0721575 -0.215698 -0.049606126 0
-0.86066896 0.38826901 0.038759992 0
-0.86611509 0.37271607 0.10638627 0
-0.86027139 0.38940448 0.17127346 0
-1.0571219 -0.23251951 -0.049999963 0
-0.84976292 0.38445187 0.038762528 0
-0.85128349 0.37992769 0.10513587 0
-0.85121447 0.38013309 0.17232494 0
-1.0399618 -0.24366271 -0.050186343 0
-0.83704156 0.3862583 0.038559288 0
-0.83755845 0.38465357 0.10419232 0
-0.84036404 0.37594426 0.17243081 0
-1.0194644 -0.24443758 -0.049992733 0
-0.82622033 0.38238138 0.038575161 0
-0.82914716 0.37288779 0.10512656 0
-0.82668638 0.38086969 0.17084201 0
-1.001034 -0.25175738 -0.050053056 0
-0.81517649 0.37921435 0.038569633 0
-0.81550479 0.37809986 0.10416713 0
-0.81671476 0.37399215 0.17151062 0
-0.9816255 -0.25576437 -0.049998935 0
-0.80330497 0.37900126 0.038459748 0
-0.8024258 0.38213092 0.10336213 0
-0.80604053 0.36926365 0.17179784 0
-0.96265095 -0.26125872 -0.050009008 0
-0.79083866 0.38130575 0.038262729 0
-0.79381335 0.37018073 0.10435601 0
-0.7915116 0.37878901 0.16944829 0
-0.94437641 -0.26955128 -0.050130937 0
-0.77902251 0.38160712 0.10276677 0
-0.77808422 0.38530207 0.16770081 0
-0.92385066 -0.26886725 -0.049931344 0
-0.76846188 0.37703425 0.10297144 0
-0.76818478 0.37818605 0.16851816 0
-0.90512699 -0.27549064 -0.050009333 0
-0.8859483 -0.28026628 -0.050028272 0
-0.74490076 0.37855464 0.16752253 0
-0.8653152 -0.2778883 -0.049795467 0
-0.73318136 0.37963498 0.16690229 0
-0.84809542 -0.2928046 -0.050200898 0
-0.72175926 0.37959218 0.16651672 0
-0.82762796 -0.2908287 -0.050001074 0
-0.80753613 -0.29030991 -0.049863689 0
-0.78832394 -0.29505742 -0.049925789 0
-0.76808685 -0.29262745 -0.049737904 0
-0.74893475 -0.29793358 -0.049837761 0
-0.72984922 -0.30451083 -0.049991809 0
-0.71038145 -0.30833101 -0.050055396 0
-0.69024205 -0.30483246 -0.049865462 0
-0.67131346 -0.31622076 -0.050217658 0
-0.65038049 -0.29834259 -0.049531404 0
-0.63197178 -0.3236984 -0.050400209 0
-0.61155933 -0.30899882 -0.049846027 0
-0.59194404 -0.31287491 -0.049964517 0
-0.57213354 -0.30525267 -0.049681295 0
-0.55243498 -0.32450628 -0.050366469 0
-0.53259188 -0.32204068 -0.050285138 0
-0.51280278 -0.31958258 -0.050212968 0
-0.49298868 -0.3189038 -0.050213236 0
-0.47334653 -0.31495202 -0.050105408 0
-0.45348942 -0.31535101 -0.050162006 0
-0.49651903 0.33460993 0.038906772 0
-0.43462101 -0.30266523 -0.049759019 0
-0.48370764 0.31977707 0.039468031 0
-0.41436994 -0.30816627 -0.050016083 0
-0.47456676 0.34940279 0.038441859 0
-0.39378759 -0.3150667 -0.050332867 0
-0.46175912 0.33689576 0.038930811 0
-0.37603119 -0.29586411 -0.049721159 0
-0.45044282 0.34011805 0.038860891 0
-0.44171172 0.26549518 0.1129934 0
-0.44213444 0.26910794 0.18489406 0
-0.44035113 0.25386631 0.26298937 0
-0.44241256 0.27148479 0.33521461 0
-0.44183606 0.26655769 0.41775957 0
-0.356188 -0.29606831 -0.049815148 0
-0.43434256 0.30611145 0.040136248 0
-0.42956498 0.26930022 0.11274739 0
-0.42817339 0.258578 0.18708721 0
-0.42920583 0.26653296 0.2601302 0
-0.42883185 0.26365131 0.33835453 0
-0.42755002 0.253775 0.42373672 0
-0.43152311 0.28438765 0.49536714 0
-0.33657366 -0.29417634 -0.049842719 0
-0.42013162 0.2917375 0.040713198 0
-0.419595 0.28797472 0.11090337 0
-0.4200038 0.29084128 0.18152051 0
-0.4184646 0.28004819 0.25708333 0
-0.41969836 0.28869945 0.33050728 0
-0.42050526 0.29435736 0.40748113 0
-0.41860664 0.28104407 0.49789694 0
-0.3169595 -0.29213607 -0.049873903 0
-0.40653583 0.2839812 0.041058641 0
-0.40680674 0.28572351 0.11134528 0
-0.40617609 0.28166759 0.18352455 0
-0.4079864 0.29331058 0.25413063 0
-0.40648946 0.28368288 0.33280587 0
-0.40738106 0.28941733 0.4103052 0
-0.40919614 0.30109125 0.48867002 0
-0.29882059 -0.28118443 -0.049591456 0
-0.38923457 0.25570047 0.042154077 0
-0.39035988 0.26238269 0.11410405 0
-0.39042082 0.26274467 0.1873477 0
-0.3893981 0.25667167 0.2641165 0
-0.39185825 0.27128005 0.33765739 0
-0.39156109 0.26951563 0.41948649 0
-0.39890751 0.31313926 0.48354223 0
-0.27756357 -0.28852248 -0.049980264 0
0.071275614 -2.2117565 0.13176252 0
-0.38505569 0.30410719 0.48918784 0
-0.25945961 -0.27818942 -0.049737051 0
0.1128151 -2.1930072 0.1313785 0
-0.37504083 0.31630969 0.48411262 0
-0.23935078 -0.27834642 -0.049883988 0
0.16094656 -2.2073224 0.13221812 0
-0.36761972 0.3397634 0.47333914 0
-0.22179763 -0.2664274 -0.049599081 0
0.20504089 -2.2005632 0.13231173 0
-0.35778913 0.34979182 0.46946236 0
-0.19979282 -0.27440679 -0.050051007 0
0.24992396 -2.1968548 0.13253778 0
-0.3486751 0.3620348 0.46449968 0
-0.18049972 -0.27007771 -0.050061848 0
0.29849538 -2.20737 0.1333084 0
-0.0081597352 -0.96710563 0.25192422 0
-0.0053292303 -0.97855353 0.42082241 0
-0.33810875 0.36737108 0.4631404 0
-0.16241242 -0.26107979 -0.049909428 0
0.34376189 -2.2030232 0.13355576 0
-0.32751313 0.37233096 0.46203992 0
-0.14162458 -0.26232731 -0.050144169 0
0.38653901 -2.1889086 0.13346344 0
-0.31707114 0.37764877 0.46081907 0
-0.1220356 -0.25879824 -0.050212014 0
-0.29967853 0.35859418 0.47235131 0
-0.10500381 -0.2466085 -0.049966365 0
-0.30254278 0.40876299 0.4478673 0
-0.092654772 -0.22012842 -0.049192823 0
-0.29315314 0.41596276 0.44580889 0
-0.065594293 -0.24008548 -0.05016724 0
-0.28572652 0.42880154 0.44083384 0
-0.044903673 -0.23935044 -0.0503777 0
-0.26061627 0.38933587 0.46355423 0
-0.030687729 -0.22004128 -0.049894802 0
-0.015206852 -0.20510602 -0.049583018 0
0.0045072646 -0.20174217 -0.049719971 0
0.39452556 -1.2123795 0.10039457 0
0.024556717 -0.19894767 -0.049889032 0
0.41676298 -1.1783578 0.099554658 0
0.046595238 -0.2006253 -0.05024159 0
0.44247237 -1.1542313 0.09910363 0
0.058686994 -0.17853212 -0.049683042 0
0.46198329 -1.1164808 0.098133259 0
0.080678724 -0.17964864 -0.05003424 0
0.56483704 -1.2676976 0.10455116 0
-0.18873338 0.42580122 0.38146606 0
0.098623894 -0.17137098 -0.05002914 0
0.48881182 -1.019331 0.095353626 0
0.1153179 -0.16046321 -0.049928948 0
0.51479226 -1.0005841 0.095140412 0
-0.16067638 0.41997087 0.38851553 0
-0.20036055 0.50342929 0.4990941 0
0.1275105 -0.14054132 -0.049477946 0
0.5464465 -0.99372172 0.095411539 0
0.5566507 -1.014503 0.4618468 0
-0.16271316 0.45051116 0.37676325 0
-0.19208895 0.51033616 0.49754038 0
0.1523722 -0.14631677 -0.050058693 0
0.59489352 -1.0195634 0.097009227 0
0.5925861 -1.0150099 0.46482176 0
-0.14817841 0.44677287 0.38083476 0
-0.18492909 0.51929462 0.49468178 0
0.16476734 -0.12734997 -0.049659126 0
0.60818905 -0.97570896 0.45980731 0
-0.13779058 0.45150691 0.38106021 0
-0.18582796 0.54341257 0.48172009 0
0.18741126 -0.12799168 -0.05005835 0
0.64462775 -0.97654295 0.46302095 0
-0.12406362 0.45007664 0.38424772 0
-0.16830949 0.53219283 0.49246812 0
0.20481665 -0.11861099 -0.05006272 0
0.68583089 -0.98502326 0.46792883 0
-0.11300824 0.45386153 0.38506943 0
-0.16194026 0.54199892 0.48917854 0
0.22549339 -0.11493922 -0.050310884 0
0.71507639 -0.97119975 0.46834594 0
-0.081297018 0.42162466 0.40314335 0
-0.15673234 0.55355787 0.48472232 0
0.23680581 -0.095006712 -0.049898017 0
0.75824934 -0.9809134 0.47376859 0
-0.057809301 0.4055298 0.41378766 0
-0.14666452 0.55649036 0.48621425 0
0.25626728 -0.089084513 -0.050072689 0
0.8044948 -0.99422836 0.48010629 0
-0.053526737 0.42239672 0.40870064 0
-0.13644491 0.55929768 0.487892 0
0.27172223 -0.076492794 -0.049978461 0
0.83836669 -0.98599958 0.48203936 0
-0.12840326 0.56573844 0.48713368 0
0.28559461 -0.061548118 -0.049791932 0
0.87633449 -0.98365402 0.48533919 0
-0.11927972 0.57043386 0.48766956 0
0.30243185 -0.051339153 -0.049813721 0
0.91451222 -0.98077989 0.48865521 0
0.018090924 0.380431 0.43923333 0
-0.11329693 0.57994276 0.48487309 0
0.31629571 -0.036703471 -0.049653973 0
0.95592254 -0.98184681 0.49296203 0
0.031360589 0.38433027 0.44094121 0
-0.10453591 0.58513749 0.48519582 0
0.3401489 -0.036627416 -0.050133463 0
0.99286121 -0.97541928 0.49577463 0
0.045418285 0.38728178 0.44322598 0
-0.10756118 0.60731113 0.47333679 0
0.35209039 -0.019283539 -0.049872868 0
0.051694177 0.40137309 0.43995345 0
-0.09674371 0.60923648 0.47609869 0
0.3693082 -0.0094406661 -0.049948558 0
0.074344598 0.39280152 0.44832665 0
-0.093165912 0.62123567 0.47157761 0
0.38171557 0.0068861195 -0.049744871 0
1.1276687 -0.98396254 0.1060235 0
1.1406412 -1.001194 0.3094123 0
0.094010316 0.38904464 0.45443147 0
-0.086178042 0.62838864 0.47064421 0
0.39961758 0.015872473 -0.04987739 0
0.10199549 0.40101385 0.45249623 0
-0.076987185 0.6326285 0.47195059 0
0.41946968 0.022555465 -0.050126422 0
0.12734641 0.39090031 0.46226379 0
-0.071652003 0.64182192 0.46960792 0
0.43505499 0.034764763 -0.050135095 0
-0.064943798 0.64917308 0.46870086 0
0.44656608 0.051868077 -0.04992532 0
-0.056217827 0.65404987 0.46976075 0
0.46379933 0.062068339 -0.050044544 0
-0.047655739 0.65918952 0.47071221 0
0.47732148 0.076624505 -0.049968347 0
-0.0433046 0.66918558 0.46792513 0
0.49702546 0.084245197 -0.05023272 0
1.2050709 -0.70145416 0.099992663 0
-0.034706153 0.67429399 0.46905166 0
0.50550741 0.10428726 -0.049908333 0
1.2045509 -0.65205204 0.098677382 0
-0.024633447 0.67788011 0.4715077 0
0.52071708 0.11690342 -0.049950555 0
0.37730077 0.26820725 0.054507796 0
0.53662473 0.12884879 -0.050036181 0
0.38205722 0.28785837 0.054119252 0
0.83748049 -0.18065321 0.22106925 0
-0.011670687 0.69290149 0.47033069 0
0.547885 0.14554608 -0.049893372 0
0.39602527 0.29788452 0.054213997 0
0.8374452 -0.14492667 0.21833031 0
0.56025213 0.16102421 -0.049818154 0
0.40593979 0.31197304 0.054111484 0
0.74272805 -0.01747418 0.20145874 0
0.73887557 -0.013705736 0.3330355 0
0.74240619 -0.017159348 0.46990401 0
-0.0028900292 0.71189153 0.46603075 0
0.58344609 0.16610599 -0.05028769 0
0.42578265 0.31649512 0.05450885 0
0.83221012 -0.071180351 0.21238559 0
0.1894929 0.54188269 0.34940562 0
0.59361774 0.18375647 -0.050119974 0
0.45866856 0.30927229 0.055540323 0
0.83576089 -0.041460279 0.21047337 0
0.19090374 0.55831969 0.34599778 0
0.012509367 0.72424382 0.46758303 0
0.60678452 0.1985352 -0.050109286 0
0.83892471 -0.011989003 0.073297493 0
0.83574396 -0.0091044959 0.20811988 0
0.18648268 0.57970005 0.34010285 0
0.020877322 0.72988486 0.46897513 0
0.61836714 0.21470869 -0.050032146 0
0.83825725 0.020283097 0.072511129 0
0.84744686 0.012157792 0.20753247 0
0.84757489 0.012044543 0.3442308 0
0.20720102 0.57825947 0.34555763 0
0.029611429 0.73528314 0.47069824 0
0.62577742 0.23441112 -0.049768832 0
0.8413263 0.048606988 0.07192862 0
0.84114772 0.048760887 0.20443536 0
0.83743542 0.051960941 0.3381187 0
0.23730136 0.56927931 0.35506651 0
0.0373623 0.74162763 0.47168639 0
0.64609307 0.24303079 -0.050121717 0
0.84332889 0.077295177 0.071319237 0
0.84077603 0.079440348 0.20226796 0
0.84346682 0.077179305 0.33599928 0
0.92517895 0.0085172597 0.50006694 0
0.26436529 0.56379336 0.36310643 0
0.28383639 0.54743195 0.46094686 0
0.040774904 0.75167441 0.46936586 0
0.6578899 0.25895339 -0.050082903 0
0.84216183 0.10802864 0.070586585 0
0.83807415 0.11137652 0.19985303 0
0.84018892 0.10964441 0.33180583 0
0.95089835 0.018969888 0.50341445 0
0.30302188 0.54960197 0.3760193 0
0.24374534 0.59815139 0.43476307 0
0.04987707 0.75693589 0.47152811 0
0.6753667 0.27031118 -0.050313141 0
0.84364754 0.135988 0.070000216 0
0.84082228 0.1382432 0.19826724 0
0.83636957 0.1417973 0.32762417 0
0.97982663 0.02728867 0.50781924 0
0.27077505 0.59325963 0.35854417 0
0.2474295 0.61189425 0.43237156 0
0.0606521 0.76098156 0.47498861 0
0.67980331 0.29202133 -0.049957842 0
0.84926468 0.16021454 0.06962242 0
0.84949952 0.16003191 0.19755045 0
0.8337751 0.17226231 0.32385609 0
0.25474694 0.62262952 0.43200034 0
0.068495594 0.76749551 0.47625139 0
0.69506568 0.30521744 -0.05010315 0
0.85365242 0.18504286 0.069206871 0
0.83394021 0.19998038 0.1936096 0
0.84513205 0.19149947 0.32336795 0
0.2635341 0.63222528 0.43246672 0
0.074384771 0.77555966 0.4761093 0
0.69980639 0.32631129 -0.049787633 0
0.85238856 0.21368301 0.06855832 0
0.83804625 0.22426975 0.1923995 0
0.83891994 0.22362483 0.3190006 0
0.29394397 0.62589806 0.44411865 0
0.075670324 0.78701645 0.47265038 0
0.71608347 0.3388418 -0.049993936 0
0.84911007 0.24321234 0.06784296 0
0.83592218 0.2526927 0.19041641 0
0.83608526 0.25257552 0.31551304 0
0.080238245 0.79593468 0.47172582 0
0.72738546 0.35503596 -0.049988531 0
0.85322434 0.26695555 0.067472316 0
0.83745974 0.27798986 0.1889782 0
0.84190518 0.27487832 0.31404191 0
0.8426916 0.27432787 0.44201934 0
0.089911424 0.80123347 0.4745867 0
0.74061543 0.36991572 -0.050075304 0
0.8868348 0.2702893 0.068392068 0
0.84024769 0.3020314 0.18775646 0
0.84082228 0.30163991 0.31113848 0
0.84004205 0.30217147 0.43742621 0
0.11419477 0.79672658 0.48795578 0
0.75435823 0.38453257 -0.050191391 0
0.92118865 0.27391279 0.069337815 0
0.84521836 0.32428622 0.18686555 0
0.84487623 0.32451308 0.30944398 0
0.83647865 0.33008116 0.43269926 0
0.10260268 0.8166905 0.47564521 0
0.7614482 0.40354234 -0.050031744 0
0.95407623 0.27928007 0.070215575 0
0.82731444 0.36105275 0.18309242 0
0.84454817 0.34993541 0.30688483 0
0.84049672 0.35254896 0.43041953 0
0.12469443 0.81430531 0.48738426 0
0.77168268 0.42044997 -0.050016008 0
0.98300976 0.28786325 0.070922628 0
0.83472222 0.38089895 0.18261921 0
0.84783846 0.37266982 0.30518457 0
0.83773249 0.37901032 0.42620051 0
0.13739283 0.81840378 0.49243352 0
0.78288585 0.43675739 -0.050049845 0
1.0258189 0.28857088 0.072209083 0
0.84725326 0.39749396 0.18282616 0
0.84312195 0.40001404 0.30186659 0
0.83235437 0.40658218 0.4213326 0
0.13400461 0.83256793 0.48630524 0
0.79267317 0.45393556 -0.050033223 0
1.064162 0.29298532 0.073300987 0
0.84726435 0.42157155 0.1814936 0
0.83431047 0.42925119 0.29778719 0
0.83935517 0.42626047 0.42027581 0
0.13665034 0.84285432 0.48450589 0
0.80114371 0.47186226 -0.049971409 0
0.84945709 0.44403613 0.18047895 0
0.83869153 0.45023656 0.29655984 0
0.83370334 0.4531095 0.41557464 0
0.13738669 0.85415405 0.48150182 0
0.80984277 0.48961478 -0.04992865 0
0.85003227 0.46713668 0.17930722 0
0.84259373 0.47129703 0.29529697 0
0.84749573 0.46855533 0.41668969 0
0.15052868 0.85837102 0.48704556 0
0.81801838 0.50762063 -0.04987403 0
0.85431212 0.4879173 0.17863217 0
0.84564406 0.49262303 0.29392245 0
0.83523005 0.49827665 0.41028905 0
0.82292527 0.52730817 -0.049697053 0
0.85295659 0.51149088 0.17730901 0
0.83957535 0.51853871 0.29075319 0
0.84235317 0.5170756 0.40962988 0
0.83738869 0.54197836 -0.049914282 0
0.84832746 0.53639174 0.1756352 0
0.83569688 0.54284239 0.2881141 0
0.83828348 0.54152137 0.40583643 0
0.82849187 0.54652214 0.52373195 0
0.84481567 0.5603056 -0.049857251 0
0.84522134 0.56010485 0.17419215 0
0.83749348 0.56392968 0.28669515 0
0.83744437 0.56395394 0.40307415 0
0.83372134 0.56579661 0.52240574 0
0.86423951 0.57284093 -0.050284695 0
0.85856277 0.57556212 0.17475367 0
0.84502631 0.58205098 0.28648525 0
0.83687574 0.585958 0.40048513 0
0.84669882 0.58124924 0.52403587 0
0.87533802 0.58957469 -0.050388228 0
0.89565283 0.58014929 0.17814863 0
0.83293313 0.60924917 0.28242016 0
0.84006149 0.60594183 0.39904535 0
0.84741765 0.60252881 0.52123213 0
0.87097138 0.61333203 -0.049894273 0
0.93253142 0.58570677 0.18150637 0
0.84248978 0.62611324 0.28272548 0
0.83827025 0.62800676 0.39629239 0
0.84994894 0.6227659 0.51920307 0
0.87981158 0.63098508 -0.049928617 0
0.97062343 0.59159899 0.18499619 0
0.83903581 0.6486699 0.28051341 0
0.83696133 0.64956963 0.39376613 0
0.84458596 0.64626276 0.51441503 0
0.8923915 0.6471014 -0.050116163 0
1.0118023 0.59708858 0.18883598 0
0.83342689 0.67179763 0.27794728 0
0.84272784 0.66790211 0.39328551 0
0.83729023 0.67017955 0.50906199 0
0.88463134 0.67158341 -0.049527366 0
1.0343962 0.61106241 0.19051011 0
0.83581012 0.69131243 0.27700555 0
0.83444685 0.69186336 0.38900548 0
0.84143776 0.68903828 0.50795072 0
0.90410417 0.68501496 -0.049996708 0
1.0792335 0.61679631 0.19476183 0
0.84552413 0.70783383 0.27753499 0
0.83297771 0.71272105 0.38669434 0
0.84091038 0.70963097 0.50526077 0
0.27331528 0.93072796 0.45206457 0
0.90922469 0.70418692 -0.049923047 0
0.85050589 0.72621238 0.27719063 0
0.83935076 0.73039669 0.38660276 0
0.83768278 0.73102236 0.50171632 0
0.27503714 0.94207114 0.45084259 0
0.91373128 0.7235285 -0.0498356 0
0.85258013 0.74559212 0.27633479 0
0.84719485 0.74753511 0.38697106 0
0.84823734 0.747159 0.50315803 0
0.24937113 0.96323252 0.43513438 0
0.92155212 0.74165928 -0.049882989 0
0.8437106 0.76864201 0.27344048 0
0.85084456 0.76616913 0.38626361 0
0.85148579 0.76594687 0.50209248 0
0.83933085 0.7701602 0.61805785 0
0.2685118 0.96802735 0.44336328 0
0.92704362 0.76060325 -0.049851146 0
0.84352654 0.78838044 0.27226433 0
0.8328914 0.79191762 0.37981388 0
0.84606296 0.78753686 0.49807441 0
0.84582072 0.78761744 0.61827797 0
0.29763088 0.96994174 0.45685115 0
0.93682891 0.77815866 -0.049989279 0
0.84989923 0.80586022 0.2723811 0
0.84056848 0.80883366 0.3803401 0
0.83790213 0.80968332 0.49321142 0
0.84240979 0.80824685 0.61429054 0
0.30122456 0.98070449 0.45689359 0
0.93814844 0.79839998 -0.049819179 0
0.85644621 0.82330698 0.27257189 0
0.84087259 0.82805467 0.37895465 0
0.8397544 0.82839549 0.49194691 0
0.84567302 0.82659119 0.61331987 0
0.31907788 0.98712426 0.46446571 0
0.94472855 0.81698805 -0.049854804 0
0.86662501 0.83972722 0.27348551 0
0.83888465 0.84780359 0.37702963 0
0.84542245 0.84590018 0.49209097 0
0.84860104 0.84497476 0.61230803 0
0.33799103 0.99363434 0.47260463 0
0.95497578 0.83458775 -0.050034858 0
0.89657098 0.85079688 0.27813444 0
0.84304363 0.86565244 0.37680486 0
0.84324783 0.86559576 0.48960298 0
0.8467012 0.86463732 0.60932493 0
0.32744202 1.0087481 0.46545953 0
0.97048801 0.85093188 -0.050416924 0
0.9184162 0.86467969 0.28128296 0
0.84996361 0.88275236 0.37736881 0
0.83948642 0.88551849 0.48666278 0
0.83774811 0.88597745 0.60343754 0
0.31496742 1.0240002 0.45744029 0
0.96384901 0.87310803 -0.049990091 0
0.95168024 0.87615746 0.28657717 0
0.83733696 0.90481085 0.37284657 0
0.84164876 0.90373033 0.48584968 0
0.84593409 0.9026565 0.60499918 0
0.32238784 1.0338526 0.45980766 0
0.96891207 0.89220166 -0.050004173 0
0.99332029 0.88641083 0.29343495 0
0.83850533 0.9231407 0.37202796 0
0.85198611 0.91994244 0.48791283 0
0.83675677 0.92355561 0.59925711 0
0.33999208 1.0414132 0.46746862 0
0.98137242 0.90965182 -0.050297655 0
1.0218164 0.9005928 0.29786807 0
0.8482824 0.93946248 0.37352288 0
0.84770268 0.93959236 0.48505515 0
0.83813983 0.94173431 0.59812379 0
0.34047911 1.0532049 0.4663803 0
0.98066491 0.93009245 -0.050117955 0
1.0427557 0.91700363 0.30092964 0
0.83154267 0.96152776 0.36815354 0
0.84022552 0.95969743 0.48120335 0
0.84509343 0.95867127 0.59944749 0
0.35617742 1.0617359 0.47314894 0
0.97950727 0.95049614 -0.049931694 0
1.0709782 0.9324137 0.30536056 0
0.84712952 0.97666532 0.37127709 0
0.84633213 0.97682291 0.48205376 0
0.84308237 0.97746533 0.59707457 0
0.38363317 1.0682918 0.4859522 0
0.9770593 0.97100765 -0.049708359 0
0.8508454 0.99431098 0.37136298 0
0.82971698 0.99821198 0.47528815 0
0.84315032 0.99573171 0.5956822 0
0.39136729 1.079146 0.48873347 0
0.99182683 0.98840761 -0.050118472 0
0.84838778 1.0130278 0.36990824 0
0.83885497 1.0146641 0.47732136 0
0.83560556 1.0152217 0.59119159 0
0.38673893 1.0922662 0.4853023 0
0.99309367 1.0082462 -0.050047677 0
0.42927721 1.0977279 0.041666776 0
0.43179652 1.0973281 0.11363954 0
0.42779693 1.0979627 0.18590403 0
0.43051615 1.0975312 0.26120543 0
0.423821 1.0985938 0.33653459 0
0.42239502 1.0988201 0.41675055 0
0.39915302 1.1025088 0.49059552 0
1.0107538 1.025647 -0.050577477 0
0.41398403 1.1126701 0.041046701 0
0.4085063 1.1134689 0.1109039 0
0.40586218 1.1138544 0.18156171 0
0.39815536 1.1149782 0.25237301 0
0.39484552 1.1154609 0.32615957 0
0.42095378 1.1116537 0.41536078 0
0.40865102 1.1134477 0.49446985 0
0.98429877 1.0492948 -0.049525466 0
0.39252445 1.1279931 0.040212359 0
0.42845514 1.1232147 0.1128827 0
0.43561503 1.1222626 0.18666695 0
0.42038676 1.1242877 0.25766283 0
0.43224111 1.1227113 0.33814889 0
0.43273708 1.1226453 0.41956455 0
0.42391726 1.1238183 0.50131875 0
0.99153143 1.0681492 -0.049697109 0
0.38045695 1.1415964 0.039723944 0
0.42835876 1.135839 0.11270203 0
0.42439964 1.1363147 0.18434197 0
0.42667487 1.1360413 0.25887787 0
0.43088129 1.1355357 0.33716425 0
0.4341878 1.1351383 0.41951084 0
0.99971658 1.0870262 -0.049911249 0
0.36509666 1.1552091 0.039124109 0
0.83577961 1.1046394 0.36349213 0
0.8428455 1.1038803 0.47453687 0
0.83784741 1.1044173 0.58701009 0
1.0003968 1.106769 -0.049864531 0
0.3481392 1.1685498 0.038473867 0
0.8556034 1.1204836 0.36811775 0
0.83506817 1.1224287 0.47134188 0
0.8343001 1.1225014 0.58479577 0
1.0116082 1.125618 -0.050204005 0
0.35115138 1.1797941 0.038545653 0
0.84705037 1.1391164 0.36552554 0
0.84190625 1.1395383 0.47310698 0
0.84384519 1.1393793 0.58811736 0
1.0068957 1.1458147 -0.049981818 0
0.37731627 1.1894851 0.039451014 0
0.84396678 1.1571161 0.36439446 0
0.84093004 1.1573267 0.47233647 0
0.84305578 1.1571792 0.58723521 0
0.99655265 1.1661768 -0.049567547 0
0.84600729 1.1747162 0.3646315 0
0.85049933 1.1744614 0.47515517 0
0.84279042 1.1748986 0.58666396 0
1.0139939 1.1850244 -0.050155561 0
0.85912544 1.191854 0.36775404 0
0.83042461 1.1931196 0.46817228 0
0.84492713 1.1924801 0.58718109 0
1.0079272 1.2050303 -0.049912151 0
0.83900207 1.2103497 0.36244529 0
0.8358956 1.2104475 0.46977344 0
0.84749323 1.2100823 0.58796751 0
1.0143092 1.2246325 -0.050122306 0
0.85143632 1.2277092 0.36550519 0
0.84078795 1.2279103 0.47125432 0
0.83917886 1.2279407 0.58433992 0
1.0055215 1.2444816 -0.049799673 0
0.85340327 1.2454393 0.36595005 0
0.84458715 1.2454948 0.47244456 0
0.84405881 1.2454982 0.58626872 0
1.0114735 1.264199 -0.050012168 0
0.85187644 1.2631942 0.36556047 0
0.84070259 1.2631239 0.47115216 0
0.83322364 1.2630768 0.58178252 0
1.0022238 1.2837824 -0.049690764 0
0.85274571 1.2809588 0.3658393 0
0.84199256 1.2807556 0.47165516 0
0.84487194 1.28081 0.58669746 0
1.0092955 1.3036559 -0.049961023 0
0.84865898 1.2985976 0.3649103 0
0.84229046 1.2983971 0.47190204 0
0.83107597 1.2980438 0.5811668 0
1.0018438 1.3230829 -0.049721368 0
0.85688215 1.3166902 0.36718115 0
0.84723669 1.3162649 0.47377098 0
0.82511503 1.3152894 0.57897019 0
1.0099348 1.3432254 -0.050046068 0
0.84589773 1.3339207 0.36460352 0
0.84243339 1.3337243 0.47246739 0
0.84090501 1.3336376 0.58588207 0
1.0033426 1.3625821 -0.049854662 0
1.3017952 1.3832841 0.072535411 0
1.2983552 1.3830454 0.20591667 0
1.3015141 1.3832645 0.34205955 0
0.84890538 1.3518696 0.36565745 0
0.8448413 1.3515877 0.47364086 0
0.8322944 1.3507174 0.58276892 0
1.0010374 1.382158 -0.049825348 0
1.2457504 1.4022315 0.070591256 0
1.2397745 1.4017413 0.19979052 0
1.0090698 1.3828169 0.28946093 0
0.84501499 1.3693599 0.36500454 0
0.83857793 1.3688318 0.47199601 0
0.83033711 1.3681558 0.58250576 0
1.0077916 1.4025745 -0.050129715 0
1.2488112 1.4254035 0.070772931 0
1.2514992 1.4256581 0.20127198 0
0.8933987 1.3917395 0.26882201 0
0.84421486 1.3870808 0.36519918 0
0.83677751 1.3863764 0.4719131 0
0.82156712 1.3849357 0.57950032 0
0.99998111 1.4216453 -0.049920749 0
0.62862319 1.3817471 0.048586491 0
0.64181966 1.3831649 0.13562176 0
0.63250083 1.3821636 0.22183335 0
0.64477605 1.3834825 0.31448054 0
0.84881514 1.4054042 0.47653437 0
0.84048945 1.4045097 0.58811027 0
1.0034993 1.4419323 -0.050127447 0
0.55434304 1.3879467 0.045976583 0
0.55377823 1.3878788 0.1262778 0
0.55129355 1.3875802 0.20739183 0
0.54243308 1.3865151 0.28862405 0
0.83480138 1.421656 0.47251332 0
0.84212357 1.422536 0.58962649 0
1.0002118 1.4614645 -0.050098583 0
0.56157845 1.4031321 0.04630094 0
0.5469833 1.4011911 0.12573299 0
0.55030209 1.4016324 0.20753272 0
0.55527979 1.4022944 0.29238135 0
0.83663613 1.4397112 0.47387329 0
0.84134132 1.4403368 0.59023076 0
0.98999351 1.4799688 -0.049828473 0
0.55523688 1.416571 0.046142947 0
0.55871803 1.4170787 0.1272178 0
0.55292088 1.4162333 0.20836405 0
0.55094856 1.4159458 0.29176775 0
0.834804 1.4573385 0.47407925 0
0.84315771 1.4585567 0.59201717 0
0.99214274 1.5002459 -0.050013304 0
0.55271238 1.4305053 0.046128727 0
0.5533312 1.4306035 0.12686425 0
0.55220288 1.4304245 0.20862128 0
0.54901844 1.429919 0.29181755 0
0.84483892 1.4768678 0.47835785 0
0.83588845 1.4754473 0.59009433 0
0.99434048 1.520667 -0.050209526 0
0.55535382 1.4453183 0.046307955 0
0.55263275 1.4448513 0.12703973 0
0.55137211 1.4446349 0.20889112 0
0.55039769 1.4444677 0.29276964 0
0.84599417 1.4952044 0.47973123 0
0.84167105 1.4944625 0.59373963 0
0.98059911 1.5382891 -0.04983687 0
0.55029029 1.4588397 0.046214633 0
0.5590573 1.4604583 0.12801364 0
0.54446453 1.457764 0.20807986 0
0.55807883 1.4602777 0.2954064 0
0.83975154 1.5122838 0.47868299 0
0.84735352 1.5136875 0.59745187 0
0.97928935 1.5581039 -0.049923763 0
0.54663056 1.4725736 0.04617836 0
0.54565185 1.4723802 0.12683912 0
0.5571236 1.4746479 0.21089406 0
0.55515081 1.4742579 0.29534236 0
0.84503645 1.5315641 0.48161438 0
0.84604806 1.531764 0.59832627 0
0.96388644 1.5750138 -0.049505774 0
0.55066973 1.4879067 0.046429191 0
0.56195444 1.4902855 0.12894081 0
0.54755908 1.4872509 0.20965882 0
0.55047995 1.4878666 0.29486951 0
0.83881694 1.5486487 0.48072439 0
0.83440083 1.5477178 0.59492308 0
0.97404236 1.5973495 -0.050029479 0
0.55719107 1.5039793 0.046778593 0
0.56291288 1.5052609 0.12938334 0
0.54349381 1.5009114 0.20946573 0
0.54692298 1.5016794 0.29473135 0
0.84451383 1.5683365 0.48396793 0
0.84504324 1.5684551 0.60105288 0
0.97256273 1.6173075 -0.050138123 0
0.5541783 1.5180457 0.046786632 0
0.56097466 1.5196581 0.12952806 0
0.5476411 1.5164948 0.21082611 0
0.55027848 1.5171205 0.29645079 0
0.83981067 1.5858121 0.48374972 0
0.85534412 1.5894974 0.60716659 0
0.95908779 1.634342 -0.049814854 0
0.55021769 1.5318826 0.046766322 0
0.55962652 1.5342405 0.12975866 0
0.5469169 1.5310556 0.2113215 0
0.56296343 1.5350766 0.30068064 0
0.84025043 1.6045624 0.48537007 0
0.83792609 1.6039799 0.6015811 0
0.95946401 1.6548007 -0.050009865 0
0.55534774 1.5481073 0.047088034 0
0.55762392 1.5487083 0.12993766 0
0.55735546 1.5486374 0.21393487 0
0.55238003 1.5473238 0.29884422 0
0.84612161 1.6248764 0.48894587 0
0.84279424 1.6239979 0.60559845 0
0.9593609 1.6752725 -0.050197329 0
0.56360275 1.5654371 0.047534212 0
0.54747051 1.5609598 0.12922852 0
0.55606228 1.5633444 0.21440297 0
0.54750377 1.5609691 0.2985532 0
0.84050936 1.6422874 0.48865747 0
0.8325513 1.6400788 0.60324496 0
0.95180041 1.6937139 -0.050117757 0
0.54293984 1.5746778 0.046914853 0
0.55733269 1.5788682 0.13077436 0
0.55459207 1.5780703 0.21487425 0
0.55173403 1.5772382 0.30072656 0
0.8541165 1.6652741 0.49510354 0
0.83936626 1.6609797 0.60832578 0
0.9349336 1.7092631 -0.049699187 0
0.8434208 1.6813653 0.37963429 0
0.83663541 1.6792967 0.49086207 0
0.83455461 1.6786624 0.60850728 0
0.9320671 1.7289671 -0.049810853 0
0.85030645 1.7029127 0.38294765 0
0.84423023 1.7009764 0.49542102 0
0.84478706 1.7011538 0.61532354 0
0.93582362 1.7509601 -0.050181486 0
0.8477816 1.7216779 0.38381746 0
0.83248001 1.7165886 0.49331206 0
0.84150356 1.7195898 0.61639422 0
0.92594367 1.7685062 -0.050048925 0
0.84690803 1.7411095 0.38520065 0
0.83861464 1.7382346 0.49756041 0
0.84740192 1.7412807 0.62159461 0
0.91393596 1.7851884 -0.049843367 0
0.83697921 1.7574222 0.38420027 0
0.84516376 1.7603751 0.5020709 0
0.83435863 1.7564766 0.61860132 0
0.90303308 1.8021337 -0.049686957 0
0.8541258 1.7837886 0.39062878 0
0.82718021 1.7736813 0.49798447 0
0.84035343 1.7786225 0.62409699 0
0.90761048 1.824994 -0.050131053 0
0.84069949 1.7989299 0.38880861 0
0.82824963 1.7940804 0.50074029 0
0.82151264 1.7914561 0.6187079 0
0.89827961 1.8425751 -0.050052911 0
0.83692294 1.8177804 0.38968685 0
0.82842964 1.8143482 0.50328302 0
0.82584494 1.8133037 0.62371153 0
0.88685542 1.859223 -0.049901884 0
0.84372145 1.8411572 0.39356035 0
0.82759339 1.8344023 0.50556445 0
0.83595389 1.8379039 0.63145787 0
0.88205844 1.8786325 -0.050016053 0
0.83058316 1.8563071 0.39199239 0
0.82417303 1.8535271 0.50701255 0
0.81810325 1.8508946 0.62676787 0
0.87385184 1.8966037 -0.050006989 0
0.8355034 1.8793948 0.39551869 0
0.82370287 1.8740993 0.50963229 0
0.81881386 1.8719052 0.63054872 0
0.86513513 1.9143347 -0.049986675 0
0.82425278 1.8953665 0.39459905 0
0.82689041 1.8965904 0.51370358 0
0.82453912 1.8954993 0.63676089 0
0.85043782 1.9291862 -0.049738273 0
0.82998914 1.9193839 0.39853668 0
0.82113308 1.9151387 0.51460356 0
0.80854446 1.9091042 0.63317412 0
0.84861809 1.9502195 -0.050008718 0
0.82535285 1.9387046 0.39963201 0
0.81612867 1.9341391 0.5158751 0
0.81720966 1.9346741 0.64103597 0
0.84655303 1.9713451 -0.050281659 0
0.81581873 1.9556487 0.39940074 0
0.8030991 1.9491526 0.51424599 0
0.80082422 1.9479908 0.63745153 0
0.83013791 1.9851338 -0.049988087 0
0.80874342 1.9738654 0.39993829 0
0.80255896 1.9706081 0.51737309 0
0.78994578 1.9639648 0.63649845 0
0.8241573 2.0043552 -0.050123408 0
0.79734761 1.9898006 0.3992916 0
0.7950049 1.9885287 0.51796848 0
0.79780227 1.9900475 0.64445966 0
0.79849929 2.0126839 -0.049464636 0
0.78872079 2.0072148 0.39950824 0
0.78521091 2.0052516 0.51779991 0
0.79262382 2.0093977 0.64644867 0
0.79489428 2.0331814 -0.049713939 0
0.77958566 2.0243645 0.39964116 0
0.78172988 2.0255995 0.52013439 0
0.78079718 2.0250623 0.64539158 0
0.79180998 2.0541959 -0.049997393 0
0.78117901 2.0478933 0.40302092 0
0.77691358 2.0453646 0.52206868 0
0.77362531 2.0434151 0.6466617 0
0.78218657 2.0714593 -0.050020602 0
0.76999003 2.0640194 0.40269491 0
0.76913518 2.063498 0.52296013 0
0.77694434 2.0682614 0.6531412 0
0.76642126 2.084892 -0.04979426 0
0.76435822 2.0835979 0.40410104 0
0.76835972 2.0861084 0.52669847 0
0.76878518 2.0863752 0.65421414 0
0.75990421 2.1041048 -0.049966149 0
0.75490385 2.1008792 0.40443256 0
0.76098663 2.1048031 0.52796745 0
0.74384409 2.0937445 0.64713907 0
0.74866706 2.120337 -0.049947605 0
0.75341791 2.123487 0.40727252 0
0.75387412 2.1237895 0.52944469 0
0.7537716 2.1237216 0.65737289 0
0.73149437 2.1325128 -0.049681272 0
0.73588461 2.135504 0.40527028 0
0.74509746 2.1417813 0.53036046 0
0.73393911 2.1341786 0.65297318 0
0.73608714 2.159698 -0.050367732 0
0.73740464 2.16062 0.40923086 0
0.73088115 2.156054 0.52916706 0
0.72995001 2.1554022 0.65660769 0
0.7113536 2.1664011 -0.049785972 0
0.72669965 2.177433 0.40948507 0
0.71638292 2.1700165 0.52792054 0
0.71470445 2.1688101 0.65467119 0
0.71459931 2.1932511 -0.050444055 0
0.70503408 2.1861906 0.40633279 0
0.72262377 2.1991744 0.53531069 0
0.70781916 2.1882465 0.65710533 0
0.69852489 2.2060471 -0.0502581 0
0.70110351 2.2080011 0.40886256 0
0.70334119 2.2096968 0.53227001 0
0.70910972 2.2140682 0.66393661 0
0.67735952 2.214721 -0.049847312 0
0.69202691 2.2261293 0.40984231 0
0.70249468 2.234271 0.53702545 0
0.68206495 2.2183809 0.65614206 0
0.66222221 2.2278399 -0.049712699 0
0.68775338 2.248219 0.41247401 0
0.68475038 2.245822 0.53476691 0
0.68776697 2.24823 0.66564548 0
0.6578365 2.2496459 -0.050080441 0
0.67778128 2.2659814 0.41334495 0
0.67565781 2.2642422 0.53626782 0
0.67069155 2.2601748 0.6632573 0
0.64482051 2.2645431 -0.050062381 0
0.66862994 2.2845497 0.41457281 0
0.66684681 2.2830515 0.53800732 0
0.6626789 2.2795494 0.66582596 0
0.6349532 2.2821414 -0.050201323 0
0.715303 2.3514035 0.06598857 0
0.71803838 2.3537614 0.18696786 0
0.71850771 2.3541658 0.30980143 0
0.64413995 2.2900605 0.4107258 0
0.65731925 2.3014212 0.53955448 0
0.64905566 2.2942979 0.66548836 0
0.61572272 2.2915962 -0.049906123 0
0.68111199 2.3494132 0.06502229 0
0.67784697 2.3465261 0.18320261 0
0.67815691 2.3468001 0.30344567 0
0.6376335 2.3109696 0.41298375 0
0.63756639 2.3109102 0.53668016 0
0.63586956 2.3094099 0.66549057 0
0.60613376 2.3095179 -0.050077926 0
0.64583296 2.3455203 0.063991264 0
0.65693778 2.3555911 0.18217848 0
0.65895361 2.3574193 0.30214322 0
0.63092309 2.3319988 0.41528752 0
0.62365359 2.3254061 0.53644913 0
0.62432879 2.3260186 0.66651827 0
0.58740145 2.3191049 -0.049816888 0
0.64016622 2.3681812 0.064389512 0
0.63661772 2.3648808 0.1812454 0
0.64352614 2.3713062 0.30178812 0
0.61203641 2.3420179 0.41346762 0
0.61102873 2.3410804 0.53688306 0
0.61192399 2.3419132 0.66718709 0
0.58246034 2.3415966 -0.050239049 0
0.61609751 2.373682 0.063898653 0
0.63376623 2.3905354 0.18291274 0
0.62673062 2.3838246 0.3011311 0
0.60006493 2.3583891 0.41410813 0
0.60071141 2.3590057 0.53847337 0
0.59928483 2.357645 0.66784382 0
0.55785686 2.3452759 -0.049698532 0
0.60799485 2.394321 0.064202525 0
0.61317426 2.3993874 0.18198197 0
0.61195332 2.3981931 0.30101463 0
0.58983642 2.3765583 0.41545174 0
0.58428961 2.3711324 0.53734684 0
0.58323485 2.3701007 0.66664714 0
0.54549438 2.3606989 -0.049772482 0
0.60347444 2.4188616 0.06470447 0
0.60734969 2.422749 0.18330419 0
0.60545903 2.4208524 0.30305856 0
0.58322459 2.3985479 0.41820166 0
0.57144064 2.3867269 0.53796113 0
0.57034606 2.3856287 0.66738057 0
0.5309903 2.3739979 -0.049747583 0
0.59386855 2.4386833 0.064968206 0
0.6026178 2.447684 0.18485719 0
0.60225004 2.4473057 0.30605254 0
0.55902129 2.4028347 0.4146491 0
0.5611555 2.40503 0.5399003 0
0.56184584 2.4057403 0.67084587 0
0.52427846 2.3954968 -0.050135378 0
0.60995334 2.4858837 0.066581577 0
0.61409956 2.490258 0.18901257 0
0.61763149 2.493984 0.31404692 0
0.54281026 2.4150479 0.41403291 0
0.54785544 2.4203706 0.54051805 0
0.54495686 2.4173126 0.66946006 0
0.50912064 2.4082654 -0.050098389 0
0.53051811 2.4314165 0.41493881 0
0.53326124 2.4343846 0.54060405 0
0.534051 2.4352391 0.67179334 0
0.49227485 2.4191263 -0.049979374 0
0.5189597 2.4487376 0.41621512 0
0.52083355 2.4508171 0.54185498 0
0.52014893 2.4500573 0.672445 0
0.4810302 2.4362397 -0.05016895 0
0.51219624 2.4717121 0.41944703 0
0.49878582 2.4564486 0.53837854 0
0.50418764 2.4625969 0.67193049 0
0.45986685 2.4419837 -0.049828731 0
0.48250541 2.4684141 0.41384739 0
0.48482844 2.4711263 0.53902429 0
0.48229131 2.4681642 0.66773081 0
0.44315228 2.4526863 -0.049735155 0
0.47317359 2.4886427 0.4162508 0
0.472177 2.4874489 0.54045296 0
0.47255918 2.4879067 0.67137045 0
0.42896268 2.466392 -0.049790505 0
0.45564565 2.4991806 0.41548094 0
0.44981882 2.4920204 0.5368951 0
0.45615873 2.4998112 0.67085457 0
0.41739854 2.4834762 -0.050007429 0
0.44313821 2.5159318 0.41681418 0
0.44396767 2.5169778 0.54214901 0
0.4436681 2.5166001 0.67303473 0
0.40317592 2.4973752 -0.050085153 0
0.42865381 2.5303452 0.41743174 0
