# .PCD v0.7 - Point Cloud Data file format
VERSION 0.7
FIELDS x y z intensity
SIZE 4 4 4 4
TYPE F F F F
COUNT 1 1 1 1
WIDTH 1360
HEIGHT 1
VIEWPOINT 0 0 0 1 0 0 0
POINTS 1360
DATA ascii
-1.9456545 0.5342626 -0.049832478 0
-1.478318 0.77666163 0.35114291 0
-1.9403582 0.51476496 -0.04998957 0
-1.4732172 0.76457649 0.35151514 0
-1.937359 0.49387139 -0.050251365 0
-1.4666996 0.75323772 0.35140932 0
-1.9262547 0.47736228 -0.050193079 0
-1.4515826 0.74678671 0.34806746 0
-1.2334362 0.87060678 0.46699798 0
-1.9178677 0.4593094 -0.05025528 0
-1.4462206 0.73492575 0.3484911 0
-1.2395457 0.85570031 0.47454992 0
-1.9012549 0.44614846 -0.049984708 0
-1.4435339 0.72141612 0.3500143 0
-1.2378643 0.84510314 0.47689715 0
-1.8974596 0.42527843 -0.05025705 0
-1.4397445 0.70845068 0.35118434 0
-1.2360168 0.83448976 0.47923955 0
-1.8905946 0.40613014 -0.050412759 0
-1.4291676 0.699696 0.34975153 0
-1.2418518 0.81886882 0.41188779 0
-1.2477697 0.81510377 0.49125418 0
-1.8663889 0.39818835 -0.04984026 0
-1.4170629 0.69206786 0.34774306 0
-1.2310537 0.81372625 0.40874249 0
-1.2406893 0.80742413 0.49019447 0
-1.8570309 0.38074917 -0.049905881 0
-1.408774 0.68205547 0.34728557 0
-1.2489288 0.78949916 0.35098466 0
-1.247282 0.79060608 0.42190266 0
-1.2300069 0.8022179 0.48662075 0
-1.8492266 0.3621769 -0.050048977 0
-1.4023117 0.67082119 0.34761336 0
-1.2432685 0.78065819 0.35110906 0
-1.241894 0.78160739 0.42221001 0
-1.2341659 0.78694451 0.49375945 0
-1.8328952 0.34952593 -0.049830303 0
-1.4063033 0.65213829 0.35226569 0
-1.2552768 0.75927228 0.36025998 0
-1.2375388 0.77185512 0.4232229 0
-1.2456108 0.76612908 0.50639904 0
-1.8208456 0.33394277 -0.049805742 0
-1.3883264 0.64902061 0.34801483 0
-1.248158 0.75112933 0.35983464 0
-1.2432681 0.75469142 0.43056327 0
-1.2409084 0.75641042 0.50749892 0
-1.8173399 0.31198716 -0.050170563 0
-1.3883673 0.63282615 0.35122558 0
-1.2537899 0.73347992 0.36605066 0
-1.244712 0.74026948 0.43542996 0
-1.2389752 0.74456018 0.51075023 0
-1.7956018 0.30370098 -0.049730685 0
-1.3852859 0.61871994 0.35324299 0
-1.2461755 0.7255215 0.36552808 0
-1.2410583 0.72945023 0.43724245 0
-1.241514 0.72910041 0.51748776 0
-1.7895073 0.28347945 -0.050002173 0
-1.3681117 0.61552107 0.34938622 0
-1.2487421 0.70957917 0.3704195 0
-1.2438504 0.71343374 0.44326529 0
-1.2460091 0.71173269 0.52591586 0
-1.7759964 0.26900429 -0.049947578 0
-1.3555719 0.60894781 0.34748986 0
-1.2479141 0.69599694 0.37365979 0
-1.2468693 0.6968416 0.44962496 0
-1.2428852 0.70006311 0.52878535 0
-1.7634581 0.25376821 -0.049945939 0
-1.3572191 0.5907886 0.351742 0
-1.2564964 0.67434931 0.38208818 0
-1.2467529 0.68243265 0.45414805 0
-1.2429246 0.68560863 0.53423512 0
-1.7433071 0.24500859 -0.049596339 0
-1.3435528 0.58523726 0.34944919 0
-1.2526157 0.66263342 0.38397875 0
-1.2390575 0.6741727 0.453859 0
-1.2398605 0.67348921 0.5374679 0
-1.7342601 0.22687805 -0.049774319 0
-1.3355266 0.57498962 0.34965262 0
-1.2492051 0.650352 0.38622928 0
-1.2406892 0.65778691 0.45983037 0
-1.2433312 0.65548027 0.5460003 0
-1.7247118 0.20902371 -0.049941175 0
-1.3248652 0.56707823 0.34873888 0
-1.2435745 0.63987249 0.38735688 0
-1.2366676 0.64605743 0.46221048 0
-1.2372172 0.64556533 0.54717886 0
-1.7076474 0.19790816 -0.049756479 0
-1.3212445 0.55279171 0.35103959 0
-1.2456545 0.62221569 0.39290598 0
-1.2398891 0.62751073 0.46963847 0
-1.2467064 0.62124962 0.56103504 0
-1.6943167 0.18345058 -0.049759522 0
-1.3053584 0.54981589 0.3478438 0
-1.2481418 0.60370898 0.39887872 0
-1.2483546 0.60350865 0.48091903 0
-1.2383797 0.61290407 0.56078994 0
-1.6867204 0.16344655 -0.050056219 0
-1.3023648 0.53471994 0.35058969 0
-1.2452134 0.58992606 0.40194029 0
-1.2401847 0.5947836 0.48097432 0
-1.2439581 0.5911386 0.57209337 0
-1.673636 0.14858007 -0.050093431 0
-1.2880419 0.53055125 0.34815308 0
-1.2411761 0.57697684 0.40449449 0
-1.2471969 0.57101256 0.4917995 0
-1.2455294 0.57266438 0.58042097 0
-1.6563067 0.1379838 -0.049924571 0
-1.2817708 0.51846313 0.34952837 0
-1.2335483 0.56745088 0.40505815 0
-1.2389736 0.56193954 0.49210975 0
-1.2356204 0.56534588 0.579346 0
-1.642398 0.1239916 -0.049936652 0
-1.4057394 0.37053955 0.049735736 0
-1.4057437 0.37053508 0.13765554 0
-1.4024501 0.37396634 0.22607884 0
-1.3956407 0.38106024 0.31482792 0
-1.2745646 0.50719589 0.35054523 0
-1.2340417 0.54941213 0.41055608 0
-1.2417892 0.54134083 0.50048208 0
-1.2361999 0.54716378 0.58731759 0
-1.6198699 0.11919116 -0.049507741 0
-1.3766026 0.37909681 0.048798386 0
-1.3806092 0.37481636 0.13546331 0
-1.3668324 0.38953543 0.21962182 0
-1.3776724 0.37795389 0.31224939 0
-1.2670851 0.4961049 0.35151142 0
-1.2382909 0.52686852 0.41854081 0
-1.2436619 0.52113008 0.50846601 0
-1.2428988 0.52194542 0.6009053 0
-1.6132916 0.097358339 -0.049920756 0
-1.3527452 0.38284665 0.048121944 0
-1.359804 0.37511206 0.13392234 0
-1.3496876 0.38619697 0.21796525 0
-1.3473594 0.38874793 0.30497757 0
-1.2530416 0.49209476 0.34931996 0
-1.2386625 0.50785035 0.42442799 0
-1.2350068 0.5118559 0.50893444 0
-1.2367927 0.5098992 0.60369384 0
-1.5960102 0.087110989 -0.049779505 0
-1.3386234 0.3763693 0.047956221 0
-1.331875 0.38395351 0.13120708 0
-1.3379784 0.37709433 0.21777108 0
-1.3347137 0.38076317 0.30433106 0
-1.2506391 0.47524858 0.35294843 0
-1.2426788 0.48419458 0.43281722 0
-1.2441294 0.48256433 0.52287751 0
-1.2341596 0.49376857 0.6097551 0
-1.5847232 0.070100896 -0.049969751 0
-1.3205771 0.37459081 0.047578666 0
-1.3217976 0.37318391 0.13136175 0
-1.3165253 0.37926149 0.21492371 0
-1.3223168 0.37258548 0.30381083 0
-1.2461908 0.46033835 0.3556982 0
-1.2362431 0.47180539 0.43491209 0
-1.2391473 0.46845758 0.52653468 0
-1.2356398 0.4725008 0.61980987 0
-1.5689762 0.058152314 -0.049928017 0
-1.3124924 0.36144167 0.047747441 0
-1.3068757 0.36808324 0.13073486 0
-1.3093162 0.36519748 0.21600433 0
-1.307891 0.36688268 0.30252159 0
-1.2501181 0.43519843 0.36290061 0
-1.2420576 0.44472992 0.44499236 0
-1.2371225 0.45056558 0.53267473 0
-1.2378503 0.449705 0.63093036 0
-1.5566678 0.042073365 -0.050087027 0
-1.297384 0.35662216 0.047533818 0
-1.3027481 0.35011488 0.13193288 0
-1.3002684 0.35312313 0.2166301 0
-1.2975993 0.35636109 0.30289933 0
-1.2553897 0.4075675 0.3710812 0
-1.2409976 0.42502719 0.45097312 0
-1.2386986 0.42781621 0.54191762 0
-1.2448133 0.42039812 0.64691877 0
-1.5405364 0.03056919 -0.050042078 0
-1.2893574 0.34322476 0.04772393 0
-1.286365 0.34694946 0.1310854 0
-1.2908995 0.3413052 0.21721673 0
-1.2921308 0.33977252 0.3053014 0
-1.2487068 0.39382464 0.3732242 0
-1.2432039 0.4006744 0.45937046 0
-1.2401363 0.40449291 0.55142313 0
-1.2404662 0.40408212 0.65279675 0
-1.5189865 0.026032561 -0.049690906 0
-1.2854743 0.32431316 0.0481668 0
-1.2733065 0.33985591 0.13081066 0
-1.2789907 0.33259505 0.21711297 0
-1.2804441 0.33073854 0.30525455 0
-1.2570579 0.36061126 0.38360855 0
-1.2437514 0.3776086 0.46699408 0
-1.2452127 0.37574196 0.56427264 0
-1.2410897 0.38100851 0.66374809 0
-1.5085086 0.0073834606 -0.049989007 0
-1.2747023 0.3139143 0.04822541 0
-1.2712643 0.31842172 0.1324992 0
-1.2759014 0.31234211 0.21966255 0
-1.2744769 0.31420982 0.30766049 0
-1.2491728 0.34738463 0.38548648 0
-1.2393901 0.36021018 0.47159004 0
-1.2415159 0.35742325 0.57039428 0
-1.2426409 0.35594827 0.67607069 0
-1.4922241 -0.0038086227 -0.049958564 0
-1.2669419 0.29938889 0.048473079 0
-1.2691354 0.29643691 0.13424921 0
-1.2708459 0.2941348 0.22173756 0
-1.2710257 0.29389286 0.31127214 0
-1.2512187 0.32055026 0.39302838 0
-1.2372916 0.33929408 0.47798616 0
-1.2367333 0.34004545 0.57590151 0
-1.2394557 0.33638144 0.68420529 0
-1.4755851 -0.014479643 -0.049914505 0
-1.2719831 0.26687157 0.049515706 0
-1.2721015 0.2667079 0.13701424 0
-1.2774693 0.25929028 0.22751172 0
-1.2754891 0.26202673 0.31850192 0
-1.2496109 0.29778689 0.39881939 0
-1.244249 0.3051964 0.49107462 0
-1.238054 0.31375706 0.58689946 0
-1.2438341 0.30576968 0.70038104 0
-1.4678981 -0.037806395 -0.05043276 0
-1.1696754 0.38541794 0.043948743 0
-1.1687053 0.38679457 0.12005368 0
-1.1760763 0.37633401 0.19970606 0
-1.332422 0.15445518 0.3492786 0
-1.2368686 0.29006034 0.39844769 0
-1.234148 0.29392129 0.49244326 0
-1.2388934 0.28718686 0.59796256 0
-1.4490999 -0.045586828 -0.050277714 0
-1.1581593 0.378546 0.043915477 0
-1.1540341 0.38455945 0.11935082 0
-1.1550125 0.38313323 0.19653064 0
-1.3165919 0.14758313 0.34841263 0
-1.237535 0.26283211 0.40601206 0
-1.2415688 0.25695163 0.50676513 0
-1.2375623 0.26279223 0.60760403 0
-1.4255764 -0.046098236 -0.049822137 0
-1.1350513 0.38907564 0.043141756 0
-1.1376704 0.38515258 0.11831237 0
-1.1381804 0.38438851 0.19464174 0
-1.298277 0.14458191 0.34642783 0
-1.2327039 0.24280298 0.41062996 0
-1.2417428 0.22926366 0.51629978 0
-1.2412711 0.22997034 0.62224478 0
-1.4097641 -0.057896856 -0.049863443 0
-1.1233087 0.38310623 0.04308917 0
-1.119727 0.38862032 0.11694051 0
-1.1204711 0.38747472 0.19242024 0
-1.2878972 0.12971914 0.34813827 0
-1.2415431 0.20108235 0.42383993 0
-1.235497 0.21039033 0.52140379 0
-1.2419714 0.200423 0.63478464 0
-1.3965533 -0.073873647 -0.050089315 0
-1.1062559 0.38560718 0.042685568 0
-1.1037484 0.3895759 0.1159277 0
-1.103395 0.39013535 0.19035488 0
-1.2708292 0.12512159 0.34677693 0
-1.2356343 0.18082786 0.42845359 0
-1.2459757 0.16445947 0.53975737 0
-1.2407714 0.17269683 0.64614195 0
-1.3760071 -0.078219898 -0.049833126 0
-1.0949918 0.37922502 0.042666309 0
-1.0958058 0.37790018 0.11654134 0
-1.0899744 0.38739252 0.18949485 0
-1.2525281 0.12278294 0.34481427 0
-1.2403127 0.14266753 0.44005242 0
-1.2383014 0.1459415 0.54458475 0
-1.2390747 0.14468265 0.65758997 0
-1.3565581 -0.084057458 -0.049651667 0
-1.076213 0.38545078 0.042128861 0
-1.083005 0.37407601 0.11618016 0
-1.0806922 0.37794936 0.19008429 0
-1.2499647 0.094460003 0.35065636 0
-1.2431725 0.10583519 0.45102686 0
-1.2442803 0.10397994 0.56072789 0
-1.243883 0.10464524 0.67597121 0
-1.3472179 -0.10707057 -0.050190583 0
-1.0609344 0.3863945 0.04182313 0
-1.0632898 0.38233471 0.11434048 0
-1.0585706 0.39046901 0.18611464 0
-1.2546473 0.052492972 0.36048993 0
-1.2405488 0.076794378 0.45891067 0
-1.2439603 0.070914023 0.5724594 0
-1.2346683 0.086930625 0.68127102 0
-1.3293165 -0.11566985 -0.050139874 0
-1.0487463 0.38228846 0.041734409 0
-1.0509235 0.37842447 0.11404563 0
-1.0488139 0.38216841 0.18654083 0
-1.2540059 0.017992014 0.36805031 0
-1.2389966 0.044630643 0.467944 0
-1.2403799 0.042175528 0.5820533 0
-1.3077357 -0.11747433 -0.049822219 0
-1.0406398 0.37084663 0.041951071 0
-1.0371546 0.37721843 0.11344068 0
-1.0321994 0.38627774 0.18443841 0
-1.248145 -0.0085270461 0.37323999 0
-1.2359539 0.013761396 0.47643185 0
-1.2371829 0.011514539 0.59250998 0
-1.2906058 -0.12719393 -0.049837608 0
-1.0187746 0.38499874 0.041135989 0
-1.0235338 0.37603122 0.11285866 0
-1.0203447 0.38204014 0.18409707 0
-1.2334636 -0.019524937 0.3739334 0
-1.2345425 -0.021557814 0.48655373 0
-1.2421687 -0.035927299 0.61078173 0
-1.268591 -0.12745333 -0.049481742 0
-1.0064605 0.38184565 0.041032106 0
-1.0139554 0.36728394 0.11321494 0
-1.0065899 0.38159448 0.18301918 0
-1.2392155 -0.070378907 0.38611197 0
-1.2404948 -0.07286454 0.50259906 0
-1.2452143 -0.082034118 0.62828451 0
-1.2559392 -0.145926 -0.049865849 0
-0.99094653 0.38526708 0.040672775 0
-0.98925215 0.38866353 0.10996532 0
-0.9933334 0.38048238 0.18211737 0
-1.2381834 -0.11033333 0.3950859 0
-1.2365105 -0.10697985 0.5121243 0
-1.2435553 -0.12110174 0.64240283 0
-1.2342978 -0.14642537 -0.049541306 0
-0.9793697 0.38111877 0.040623546 0
-0.9855271 0.36837685 0.11174589 0
-0.98045415 0.37887472 0.18135384 0
-1.2343241 -0.14647973 0.40293008 0
-1.24388 -0.16625464 0.5309068 0
-1.2228737 -0.16823339 -0.05006931 0
-0.96999639 0.37233758 0.040762972 0
-0.97396988 0.36384344 0.11165253 0
-0.96360439 0.38600153 0.17888808 0
-1.2434082 -0.21212959 0.41905209 0
-1.2439709 -0.21333218 0.54506493 0
-1.2043169 -0.17519045 -0.050018005 0
-0.95310074 0.37993556 0.040264394 0
-0.95132941 0.3838498 0.10868217 0
-0.95128673 0.38394403 0.17829655 0
-1.2431344 -0.26096785 0.43034247 0
-1.2384976 -0.25072157 0.55560422 0
-1.185024 -0.18038285 -0.049907349 0
-0.94225121 0.37458503 0.040281449 0
-0.93871075 0.38267839 0.10824586 0
-0.93950593 0.38086063 0.17794085 0
-1.2412646 -0.30894637 0.44133237 0
-1.2394608 -0.3048228 0.57217944 0
-1.1627407 -0.17830503 -0.049524948 0
-0.92330372 0.3883639 0.039562311 0
-0.92330611 0.38835824 0.10703111 0
-0.92745423 0.37854093 0.17746662 0
-1.2426817 -0.36749935 0.45519936 0
-1.1493068 -0.19722331 -0.049964864 0
-0.91519165 0.37690884 0.039828982 0
-0.91658825 0.3734839 0.10823071 0
-0.91252798 0.38344115 0.17561826 0
-1.2393565 -0.41805649 0.46678731 0
-1.1275926 -0.1959368 -0.049634028 0
-0.90231615 0.37705034 0.039653406 0
-0.89824748 0.38739896 0.10610966 0
-0.90173292 0.37853378 0.17571612 0
-1.2396637 -0.48098814 0.48172197 0
-1.1140248 -0.21551239 -0.050111651 0
-0.89084291 0.37383336 0.039613083 0
-0.88730687 0.38317084 0.10611026 0
-0.88502276 0.38920236 0.17283602 0
-1.2393245 -0.54638529 0.49725711 0
-1.0964068 -0.22496533 -0.050208963 0
-0.8785947 0.37282079 0.039494682 0
-0.87421602 0.3848381 0.10545234 0
-0.87466097 0.38361692 0.1731295 0
-1.0788701 -0.23486757 -0.050331246 0
-0.86478138 0.37652493 0.039204232 0
-0.86433405 0.37780243 0.1058071 0
-0.86653626 0.37151337 0.17469218 0
-1.058556 -0.23678672 -0.050160684 0
-0.84619963 0.39505404 0.038363211 0
-0.85030061 0.38285208 0.10480431 0
-0.85313535 0.3744176 0.17341238 0
-1.0366428 -0.23335958 -0.049799893 0
-0.84014899 0.37661195 0.038921103 0
-0.83504707 0.39244962 0.10331208 0
-0.83678126 0.38706619 0.17032348 0
-1.0211161 -0.24979508 -0.050192885 0
-0.82602137 0.38302678 0.038551047 0
-0.82383275 0.39012587 0.10318796 0
-0.82585639 0.38356197 0.17033391 0
-1.0001644 -0.24880528 -0.049943186 0
-0.81359696 0.38457686 0.03837005 0
-0.81272572 0.3875345 0.10311012 0
-0.81669116 0.37407219 0.17149557 0
-0.97991872 -0.24968874 -0.04977363 0
-0.80245346 0.38203245 0.038347341 0
-0.80347633 0.37839127 0.10377958 0
-0.80346906 0.37841713 0.17008314 0
-0.96354175 -0.26459026 -0.050132129 0
-0.78877372 0.38902843 0.10225931 0
-0.79317468 0.37256914 0.17060943 0
-0.94162226 -0.25870562 -0.049731445 0
-0.7822898 0.36874068 0.1041934 0
-0.7756952 0.39470994 0.16595027 0
-0.92215538 -0.26182067 -0.049672592 0
-0.76702881 0.3829909 0.10231303 0
-0.76621813 0.38636076 0.1670018 0
-0.90495819 -0.27474809 -0.049982145 0
-0.75631088 0.37923372 0.1678464 0
-0.88946944 -0.29671311 -0.050628752 0
-0.74436188 0.38107151 0.16705832 0
-0.86595196 -0.281057 -0.049910855 0
-0.8463605 -0.283571 -0.049865477 0
-0.72147882 0.38108504 0.16624279 0
-0.8269015 -0.2866745 -0.049850512 0
-0.80701369 -0.28708398 -0.049747016 0
-0.78826892 -0.29468834 -0.049912471 0
-0.76994324 -0.3062582 -0.050229032 0
-0.75016212 -0.30788112 -0.050195593 0
-0.73054367 -0.31078863 -0.050217301 0
-0.70977414 -0.30212688 -0.04983284 0
-0.69085979 -0.3120836 -0.050125275 0
-0.67118931 -0.31450808 -0.050156359 0
-0.65068793 -0.30347741 -0.04971505 0
-0.63138801 -0.31134331 -0.04995862 0
-0.61177027 -0.31508923 -0.050063591 0
-0.59184474 -0.30836833 -0.049803589 0
-0.57214826 -0.30681694 -0.049737141 0
-0.55249643 -0.30499542 -0.049669903 0
-0.53277469 -0.31042922 -0.049870543 0
-0.51299244 -0.31289077 -0.049973965 0
-0.49341211 -0.3085624 -0.049843729 0
-0.47344458 -0.31312108 -0.050039951 0
-0.45417419 -0.30500734 -0.049791917 0
-0.4950256 0.31205201 0.039713878 0
-0.4346742 -0.30199063 -0.049734857 0
-0.48402086 0.32374913 0.039325785 0
-0.41408893 -0.3112359 -0.050126132 0
-0.47245869 0.32637513 0.039267413 0
-0.39415643 -0.3115288 -0.050205875 0
-0.4609668 0.32929593 0.039203603 0
-0.37494418 -0.30515456 -0.050055102 0
-0.44845217 0.32310438 0.039472442 0
-0.44212592 0.26903486 0.1126104 0
-0.44250229 0.27225196 0.18432316 0
-0.44156146 0.26421064 0.2603322 0
-0.44189066 0.26702422 0.33670875 0
-0.44218412 0.26953244 0.41651952 0
-0.35574952 -0.29944694 -0.049936783 0
-0.43443272 0.30680591 0.040111247 0
-0.42995971 0.27234167 0.11241779 0
-0.42850712 0.26114941 0.18661956 0
-0.42943367 0.26828831 0.25967857 0
-0.42929456 0.26721668 0.33715841 0
-0.42934081 0.26757294 0.41797593 0
-0.43115821 0.2815761 0.49678567 0
-0.33599803 -0.29821277 -0.049988281 0
-0.42116538 0.29898626 0.040451791 0
-0.41957885 0.28786135 0.11091569 0
-0.41833091 0.27911079 0.18365748 0
-0.41924623 0.28552914 0.25567079 0
-0.42077494 0.29624838 0.32797039 0
-0.41951719 0.28742898 0.41037875 0
-0.41859668 0.28097439 0.49793217 0
-0.31559953 -0.30088282 -0.050189923 0
-0.40600097 0.28054124 0.041182928 0
-0.40744182 0.28980821 0.11090102 0
-0.40591294 0.27997512 0.18383346 0
-0.40653169 0.28395456 0.25654635 0
-0.40479696 0.27279752 0.3364709 0
-0.40646553 0.28352898 0.41277251 0
-0.40882632 0.29871267 0.48987442 0
-0.29696417 -0.29220808 -0.049990557 0
-0.39034465 0.26229227 0.041915428 0
-0.39395961 0.28375828 0.11177447 0
-0.39210522 0.27274668 0.18551843 0
-0.39221814 0.27341729 0.25978401 0
-0.39166468 0.27013075 0.33804515 0
-0.39050406 0.26323897 0.42212188 0
-0.39774591 0.30624157 0.48704201 0
-0.27873111 -0.28208566 -0.049746711 0
0.067949735 -2.1934202 0.13109721 0
-0.38530287 0.30547005 0.48849484 0
-0.25935316 -0.27873695 -0.049756963 0
0.11276617 -2.1927555 0.13136935 0
-0.37586078 0.3205272 0.48196295 0
-0.23922895 -0.27893341 -0.049905397 0
0.15771975 -2.1917727 0.13165115 0
-0.36878064 0.34535778 0.47048044 0
-0.21978019 -0.27556908 -0.049933303 0
0.20528091 -2.2016509 0.13235149 0
-0.36055747 0.36233592 0.46303505 0
-0.19865887 -0.2792542 -0.050228737 0
0.25248578 -2.2078059 0.13293931 0
-0.35148865 0.37406218 0.45831946 0
-0.179796 -0.27292395 -0.050166525 0
0.29622504 -2.1981878 0.13297071 0
-0.0051154285 -0.97941828 0.25328729 0
-0.0052751689 -0.97877216 0.42086303 0
-0.33664265 0.36144149 0.46619654 0
-0.16087611 -0.26697385 -0.050126884 0
0.34247753 -2.1980956 0.13337395 0
-0.32781029 0.37347102 0.46145043 0
-0.14176659 -0.26180935 -0.050124992 0
0.39202741 -2.2089286 0.13420455 0
-0.31695253 0.3772161 0.46104351 0
-0.12367389 -0.25310445 -0.050000492 0
-0.30230168 0.36771089 0.46760482 0
-0.10394139 -0.25013328 -0.050097797 0
-0.30244014 0.40842241 0.44804528 0
-0.084448554 -0.24616301 -0.050167374 0
-0.29670614 0.42723489 0.43989548 0
-0.065619417 -0.24000919 -0.050164372 0
-0.28334731 0.42157221 0.44464183 0
-0.051653124 -0.21967947 -0.049635235 0
-0.26218441 0.39390624 0.46113664 0
-0.031690754 -0.21723378 -0.049788363 0
-0.010132291 -0.21876502 -0.050103229 0
0.009746871 -0.2153194 -0.050239541 0
0.022371134 -0.19348979 -0.049679138 0
0.043987475 -0.19434369 -0.049998771 0
0.063367508 -0.18941772 -0.050106075 0
0.076621734 -0.17053127 -0.049677968 0
-0.18579523 0.41919833 0.38445836 0
0.10056498 -0.17558932 -0.050194923 0
0.11655178 -0.16305804 -0.050031528 0
-0.16002478 0.41860056 0.38914376 0
-0.20133851 0.50548601 0.49774352 0
0.13566978 -0.15715802 -0.050138846 0
0.32791522 -0.54867375 0.077710621 0
0.55698484 -1.0151834 0.4619835 0
-0.15984012 0.44466013 0.37946206 0
-0.19510226 0.51647288 0.49348593 0
0.15309556 -0.14774418 -0.050115824 0
0.33151326 -0.49982357 0.076207332 0
0.58956963 -1.0090575 0.46361828 0
-0.15084244 0.45202988 0.37839463 0
-0.18052725 0.51060826 0.50045681 0
0.16732599 -0.1322453 -0.049856324 0
0.48092636 -0.73222876 0.086025998 0
0.61506611 -0.98886633 0.46248481 0
-0.1396258 0.4550181 0.37941986 0
-0.1788152 0.52999568 0.49069828 0
0.18321814 -0.12020958 -0.049742755 0
0.50658828 -0.72035432 0.086081028 0
0.64650685 -0.9800303 0.4637354 0
-0.12457777 0.45103085 0.38379896 0
-0.17117189 0.53750515 0.4888894 0
0.20152546 -0.11268283 -0.049820647 0
0.38616547 -0.44526005 0.075401202 0
0.67626649 -0.96779585 0.46437517 0
-0.11103917 0.45031482 0.38674903 0
-0.16328649 0.54442376 0.48753372 0
0.21535076 -0.097200163 -0.049581364 0
0.42245278 -0.45941305 0.076477379 0
0.71793348 -0.97619677 0.46938407 0
-0.086000837 0.42985141 0.39921972 0
-0.15505238 0.55061972 0.4867295 0
0.23585714 -0.093394883 -0.049831245 0
0.44765148 -0.45322287 0.076737672 0
0.75745791 -0.97956872 0.4734872 0
-0.061490066 0.41178322 0.41078332 0
-0.1485676 0.55972362 0.48398927 0
0.25412074 -0.085540541 -0.049924765 0
0.54437083 -0.56475413 0.081926756 0
0.81213003 -1.0068345 0.48276427 0
-0.057386793 0.42876977 0.40561572 0
-0.13491721 0.55677533 0.48964083 0
0.27533802 -0.082296379 -0.050222583 0
0.84081823 -0.98993421 0.48287547 0
-0.12753917 0.5643515 0.48810279 0
0.29089138 -0.069816001 -0.050142482 0
0.88304514 -0.99412894 0.48758274 0
-0.11840195 0.56906372 0.48863459 0
0.30162659 -0.050116304 -0.049761448 0
0.90521187 -0.9666574 0.48560554 0
0.016418537 0.38297051 0.43797433 0
-0.1101642 0.57518572 0.48825106 0
0.32577512 -0.050710682 -0.050257802 0
0.95768851 -0.9844563 0.49353027 0
0.026899954 0.39092147 0.43764603 0
-0.11303014 0.59768891 0.47620785 0
0.34276316 -0.040387515 -0.050296959 0
0.99715728 -0.98159838 0.49713185 0
0.042947792 0.39083499 0.44143417 0
-0.10204754 0.59938091 0.47906479 0
0.3562583 -0.025120026 -0.050128911 0
0.061022364 0.38831049 0.44659927 0
-0.097949155 0.61092454 0.47486857 0
0.3634114 -0.0013990453 -0.049592547 0
0.072986208 0.39465386 0.44737557 0
-0.083565004 0.60814285 0.48120618 0
0.38550434 0.0018534609 -0.049969766 0
1.1379226 -0.99758291 0.10663215 0
1.1292405 -0.98605037 0.30737516 0
0.084388457 0.40182537 0.44780785 0
-0.078478582 0.61816144 0.47823608 0
0.39443776 0.022575492 -0.04957496 0
0.10649952 0.39518541 0.45554599 0
-0.072455056 0.6267637 0.47634622 0
0.4183903 0.023916358 -0.050064407 0
0.12278583 0.39665085 0.459225 0
-0.070422061 0.64027107 0.47078177 0
0.43248561 0.037922021 -0.049989767 0
-0.065260865 0.64956266 0.46840295 0
0.44431576 0.054563399 -0.049799964 0
-0.057280399 0.65532243 0.46877757 0
0.45699629 0.070010893 -0.049671188 0
-0.051732697 0.66394931 0.46699551 0
0.48274764 0.07044863 -0.050261844 0
0.48873648 0.093443386 -0.049790669 0
1.2043695 -0.70067596 0.099955268 0
-0.035568096 0.67525047 0.46828809 0
0.50425249 0.10564493 -0.049842332 0
1.202449 -0.64977777 0.098566823 0
0.52503854 0.11234426 -0.050174829 0
0.38328859 0.26189011 0.054818541 0
-0.022120634 0.68959576 0.46745333 0
0.5414409 0.12389421 -0.050282866 0
0.38829067 0.2814458 0.054438528 0
0.84551626 -0.1889199 0.22230823 0
-0.0086590433 0.6898033 0.47289306 0
0.55090171 0.14251995 -0.050045919 0
0.3862184 0.30772227 0.053718071 0
0.83344561 -0.14091432 0.21772146 0
-0.010578373 0.70576954 0.46534654 0
0.57048649 0.15101302 -0.050329275 0
0.40642837 0.31149513 0.054135885 0
0.73751944 -0.012379175 0.2006757 0
0.73589891 -0.01079393 0.33228454 0
0.73986965 -0.014678126 0.4689987 0
-0.0010136751 0.71005601 0.46758741 0
0.57413107 0.17499137 -0.049828097 0
0.43629608 0.30646676 0.055027567 0
0.839706 -0.078330405 0.21349888 0
0.19295146 0.53858376 0.35099578 0
0.0076444955 0.71534085 0.46910307 0
0.59122974 0.18597758 -0.05000354 0
0.47103831 0.29776728 0.056143425 0
0.84013194 -0.045525674 0.2111149 0
0.19427373 0.55518526 0.34752893 0
0.013947628 0.72290611 0.46874788 0
0.60671884 0.19859469 -0.050106123 0
0.84417003 -0.016745931 0.073550299 0
0.83562928 -0.0090004262 0.20810324 0
0.19016077 0.57636452 0.34175476 0
0.019663772 0.73098546 0.46800354 0
0.62432033 0.20944488 -0.050315849 0
0.83925182 0.01940369 0.072558522 0
0.84173268 0.01721012 0.20671275 0
0.83747381 0.020975823 0.34179914 0
0.21237035 0.57368875 0.34785333 0
0.029006859 0.73581773 0.47021964 0
0.63110119 0.22982204 -0.05001976 0
0.84116727 0.048744079 0.071921125 0
0.83864337 0.050919767 0.20408002 0
0.84284586 0.047297116 0.33940697 0
0.21895333 0.58509535 0.34700736 0
0.64370316 0.24503899 -0.050010271 0
0.83765966 0.082059018 0.071054868 0
0.83742923 0.082252614 0.20179814 0
0.83529514 0.08404588 0.33407429 0
0.92801291 0.0061359354 0.50101131 0
0.26770869 0.5609839 0.36455932 0
0.27969322 0.55091339 0.45870623 0
0.040622376 0.75180256 0.46924773 0
0.65611356 0.26040828 -0.050000928 0
0.8331061 0.11544549 0.070168689 0
0.84372908 0.10674488 0.20063858 0
0.8453359 0.10542893 0.33300567 0
0.95200449 0.018063778 0.50377929 0
0.29033574 0.55999231 0.37056375 0
0.24968679 0.59328514 0.43794283 0
0.05123087 0.75582707 0.47256589 0
0.66951185 0.2749846 -0.050045691 0
0.84564 0.13439763 0.070091225 0
0.85021466 0.13074601 0.19955878 0
0.83887547 0.13979709 0.32820243 0
0.98041409 0.0268197 0.50801104 0
0.26532814 0.59760743 0.35622549 0
0.24661101 0.61254758 0.43193793 0
0.057495318 0.76350129 0.47259325 0
0.68990976 0.28416049 -0.05041495 0
0.84981102 0.15978968 0.069647126 0
0.84789449 0.16128027 0.19733194 0
0.83623582 0.17034841 0.32441831 0
0.25398782 0.62321997 0.43160215 0
0.061615907 0.77284652 0.47108257 0
0.69051081 0.30866903 -0.049899116 0
0.85301203 0.18552816 0.069178179 0
0.84317201 0.1929847 0.19485441 0
0.83673507 0.19786263 0.32146785 0
0.26905265 0.62804341 0.43533352 0
0.06818869 0.7802549 0.47149891 0
0.70731121 0.32077163 -0.050120655 0
0.84970468 0.21566415 0.068439223 0
0.84121603 0.22193003 0.1928229 0
0.83619648 0.22563517 0.3183901 0
0.29147276 0.62772214 0.44284695 0
0.086223088 0.7792269 0.48042896 0
0.71557373 0.33920819 -0.049971525 0
0.84740418 0.24443865 0.067767955 0
0.84304804 0.24757016 0.19135955 0
0.83969837 0.24997807 0.31631559 0
0.08529868 0.79229683 0.47542191 0
0.73283273 0.35122317 -0.05022591 0
0.84897906 0.26992702 0.067287318 0
0.84647506 0.27167964 0.19016081 0
0.84245342 0.27449459 0.31416261 0
0.83450395 0.2800588 0.43946955 0
0.090605699 0.80074751 0.47508928 0
0.73867279 0.3712393 -0.049991384 0
0.89172 0.2669608 0.068603106 0
0.84509903 0.2987259 0.18838736 0
0.83577675 0.30507767 0.31003737 0
0.83404404 0.3062582 0.4355745 0
0.10348859 0.80402124 0.4802728 0
0.75257474 0.38571513 -0.050114997 0
0.91522735 0.27786547 0.069082454 0
0.83809131 0.32901192 0.18594654 0
0.83416957 0.33161223 0.30712715 0
0.83251292 0.33271074 0.4314853 0
0.10997286 0.81180358 0.48088962 0
0.76201946 0.4031738 -0.050056014 0
0.96339911 0.27326596 0.070611656 0
0.84539288 0.34939051 0.18540448 0
0.84708351 0.34829992 0.30742893 0
0.83424538 0.35658163 0.42852154 0
0.13564248 0.80724281 0.49511075 0
0.77380472 0.41911858 -0.050105445 0
0.98830575 0.28454053 0.07114584 0
0.84545904 0.37416261 0.1839814 0
0.84126109 0.37679648 0.30378419 0
0.83829147 0.37865955 0.42636889 0
0.13176955 0.82193178 0.48849666 0
0.78170234 0.43747938 -0.050000351 0
1.0357794 0.28249514 0.072625622 0
0.84368843 0.39966851 0.1823774 0
0.84409648 0.39941961 0.30207247 0
0.83703429 0.40372741 0.42273122 0
0.14522018 0.82572657 0.49409637 0
0.78806728 0.45666611 -0.04984206 0
1.0741088 0.28708839 0.073713817 0
0.84223682 0.42455208 0.18086548 0
0.84045774 0.42560679 0.29907602 0
0.84039587 0.4256435 0.42058447 0
0.13386638 0.84450477 0.48258653 0
0.79861385 0.47331929 -0.049867183 0
0.85007471 0.44368041 0.18055555 0
0.83013612 0.45516407 0.29477924 0
0.84183389 0.44842666 0.41796845 0
0.14154913 0.85175669 0.4843505 0
0.803132 0.49336809 -0.049654141 0
0.84516996 0.46985614 0.17870849 0
0.83973235 0.47289741 0.29470566 0
0.83012432 0.47827125 0.41161159 0
0.15353127 0.85669166 0.48908582 0
0.8345688 0.49863565 -0.050546356 0
0.85080749 0.48981988 0.17820361 0
0.84192389 0.49464267 0.29315904 0
0.85076374 0.48984361 0.41479856 0
0.8304742 0.52333224 -0.050001655 0
0.84667724 0.5147981 0.17654629 0
0.84122115 0.51767188 0.29108867 0
0.83329624 0.52184588 0.40701821 0
0.83647698 0.54244399 -0.049877737 0
0.84462661 0.53828186 0.17518862 0
0.82692713 0.54732126 0.28633815 0
0.83699316 0.54218036 0.40546679 0
0.83995634 0.540667 0.52801478 0
0.85075277 0.55736715 -0.050093751 0
0.85285419 0.55632704 0.17510742 0
0.84233743 0.5615322 0.2876699 0
0.84428662 0.5605675 0.40502191 0
0.84395403 0.56073207 0.52620429 0
0.85779375 0.57593077 -0.050029501 0
0.87035459 0.56990957 0.17615901 0
0.83485645 0.58692598 0.28445131 0
0.84722179 0.58099854 0.40341234 0
0.84127671 0.58384836 0.52203542 0
0.85971981 0.59682101 -0.049773544 0
0.91168934 0.57270885 0.18004851 0
0.84144813 0.60529846 0.28411308 0
0.83597869 0.60783613 0.39789701 0
0.8369084 0.60740477 0.51737779 0
0.87112361 0.61326373 -0.049900226 0
0.93331844 0.58535355 0.18159907 0
0.83542258 0.62928468 0.28132847 0
0.83985597 0.62729514 0.39673588 0
0.83510011 0.62942934 0.5137884 0
0.88355631 0.62936091 -0.050074339 0
0.96324772 0.59479791 0.18413219 0
0.8408547 0.64788103 0.28087094 0
0.83879286 0.64877534 0.39427543 0
0.8420065 0.64738154 0.51347959 0
0.88257748 0.65121186 -0.049736299 0
1.0040289 0.6003443 0.18793027 0
0.84610862 0.66648614 0.28042689 0
0.84739965 0.66594541 0.39457774 0
0.84236521 0.66805398 0.51089251 0
0.89121097 0.66892451 -0.049780726 0
1.0378038 0.60968536 0.19090509 0
0.83158463 0.69301999 0.27618363 0
0.84393138 0.6880306 0.39161542 0
0.84835118 0.68624455 0.51043147 0
0.91233498 0.68180877 -0.050312065 0
1.0621368 0.62345606 0.19278997 0
0.85516459 0.70407856 0.27940089 0
0.84171528 0.70931745 0.38908672 0
0.84892124 0.70651054 0.50812095 0
0.27572313 0.92979002 0.45335749 0
0.91656488 0.7014336 -0.050202928 0
0.85024947 0.72630858 0.27714121 0
0.84085017 0.72983426 0.38701132 0
0.8384307 0.7307418 0.50198209 0
0.2730504 0.94281638 0.44978091 0
0.92256647 0.72034073 -0.050170932 0
0.84452301 0.74849916 0.27479002 0
0.83945817 0.75032657 0.38487265 0
0.83325714 0.75256389 0.49785972 0
0.25714591 0.96042734 0.4392699 0
0.92317504 0.74109674 -0.049944308 0
0.85937339 0.76321268 0.27643013 0
0.83411318 0.77196884 0.38174573 0
0.83731097 0.77086037 0.4971014 0
0.8327958 0.77242553 0.61519414 0
0.26401249 0.96958697 0.44098067 0
0.92977589 0.75969452 -0.049953945 0
0.84568113 0.78766388 0.27267382 0
0.83830208 0.7901181 0.38126868 0
0.84442705 0.78808099 0.49750081 0
0.83852452 0.79004413 0.61509436 0
0.29559323 0.97061938 0.45577675 0
0.93450612 0.77889884 -0.049902245 0
0.84849733 0.80630696 0.27211577 0
0.83896738 0.80934387 0.37991136 0
0.8393907 0.80920893 0.4937312 0
0.84118825 0.80863613 0.61375964 0
0.31140378 0.97746068 0.462239 0
0.93953091 0.79797852 -0.049870778 0
0.85306293 0.82433844 0.271934 0
0.8370139 0.82923096 0.37792543 0
0.84164423 0.82781941 0.49260417 0
0.84377331 0.82717037 0.61249757 0
0.31642291 0.98793364 0.46307695 0
0.94191426 0.81780744 -0.049750157 0
0.88583714 0.8341338 0.27709424 0
0.84224075 0.84682649 0.37792143 0
0.84029549 0.84739286 0.49031445 0
0.84110802 0.84715629 0.60907686 0
0.32793227 0.99656284 0.46736285 0
0.96043175 0.8330735 -0.050237007 0
0.8927086 0.85186881 0.27741152 0
0.85067469 0.86353457 0.37882537 0
0.8354004 0.86777365 0.48689353 0
0.83901244 0.86677116 0.60602117 0
0.3213605 1.0104359 0.46230167 0
0.96347886 0.85278243 -0.050158113 0
0.92163306 0.86383045 0.281883 0
0.8507722 0.88253886 0.37758219 0
0.82972926 0.88809454 0.48330536 0
0.84214181 0.88481742 0.60531902 0
0.31616113 1.0236851 0.45805803 0
0.96744972 0.87220573 -0.050122615 0
0.94986755 0.87661171 0.28624013 0
0.83887845 0.90442461 0.37325197 0
0.84204537 0.90363097 0.48598573 0
0.83199352 0.90614986 0.59904885 0
0.32108387 1.0341794 0.45913503 0
0.97277325 0.8912856 -0.050145846 0
1.0024612 0.88424212 0.29512927 0
0.83245665 0.92457581 0.37044191 0
0.84992677 0.92043102 0.48720866 0
0.83386379 0.9242419 0.5980261 0
0.32944199 1.0439162 0.46204346 0
0.96657258 0.91296679 -0.049756192 0
1.0270112 0.89942926 0.29882815 0
0.83838743 0.94167888 0.37093583 0
0.84593278 0.93998879 0.48445171 0
0.84207004 0.94085401 0.59979135 0
0.34776399 1.0515732 0.47011551 0
0.96539694 0.93331099 -0.049560886 0
1.0405517 0.91746825 0.3005234 0
0.83260816 0.96130317 0.36843136 0
0.83950764 0.95984876 0.48095924 0
0.84196109 0.95933157 0.59812212 0
0.35687205 1.0615895 0.47350413 0
0.98683912 0.94904673 -0.050198514 0
1.0829046 0.93005604 0.30755308 0
0.84343177 0.97739625 0.37031543 0
0.84685296 0.97671998 0.4822304 0
0.82978195 0.98009467 0.59146112 0
0.37909594 1.0691887 0.48363811 0
0.97497839 0.97139186 -0.04963281 0
0.84959716 0.99454147 0.37103915 0
0.83361953 0.99749142 0.47660846 0
0.8366273 0.99693608 0.5929358 0
0.39778265 1.0779616 0.4919976 0
0.98658437 0.9893074 -0.049928576 0
0.84680861 1.0132989 0.36949944 0
0.83148032 1.0159298 0.47483197 0
0.83952743 1.0145487 0.59283912 0
0.38683632 1.0922495 0.48535177 0
0.9873715 1.0091543 -0.049840834 0
0.4380044 1.0963428 0.041982248 0
0.44004884 1.0960183 0.11453751 0
0.42982182 1.0976415 0.18627378 0
0.43829551 1.0962965 0.26321504 0
0.42661235 1.0981508 0.33747485 0
0.43097445 1.0974585 0.42034721 0
0.4002904 1.1023283 0.49117172 0
0.99528128 1.0279033 -0.050019253 0
0.41787717 1.1121024 0.04118716 0
0.41067246 1.113153 0.11113917 0
0.40685591 1.1137094 0.18174282 0
0.4037216 1.1141665 0.25380814 0
0.40080145 1.1145923 0.32816201 0
0.39652607 1.1152158 0.40513986 0
0.40369096 1.114171 0.4919619 0
0.98905653 1.0486621 -0.049696822 0
0.38762137 1.1286451 0.040035769 0
0.4288834 1.1231577 0.11292913 0
0.43474153 1.1223787 0.18650803 0
0.43432388 1.1224343 0.26124993 0
0.43437508 1.1224275 0.33886513 0
0.43860582 1.1218648 0.42201579 0
0.41440609 1.1250831 0.49651805 0
0.99084145 1.0682322 -0.049672294 0
0.37225744 1.1425819 0.039429106 0
0.42425516 1.1363322 0.11225786 0
0.416383 1.1372783 0.18288577 0
0.43033949 1.1356009 0.25981954 0
0.4291369 1.1357454 0.33657974 0
0.42922577 1.1357347 0.41744161 0
1.0040256 1.0865633 -0.050065968 0
0.35876057 1.1558897 0.038896602 0
0.85701567 1.1023579 0.36894131 0
0.83680481 1.1045293 0.47251558 0
0.84172314 1.1040009 0.588624 0
0.99699968 1.1070908 -0.049742706 0
0.35854265 1.1675644 0.038846947 0
0.8523975 1.1207873 0.36729619 0
0.84132653 1.1218358 0.47343332 0
0.83422881 1.1225082 0.58476615 0
1.0123944 1.1255535 -0.050232168 0
0.36002466 1.1790662 0.038863502 0
0.85170561 1.1387345 0.36671728 0
0.83693188 1.1399463 0.47144651 0
0.84108108 1.139606 0.58696914 0
1.0034206 1.1460557 -0.049857453 0
0.36214456 1.1905375 0.038908064 0
0.84968108 1.1567197 0.36585584 0
0.8383283 1.1575072 0.47146881 0
0.826114 1.1583544 0.58020383 0
0.99834162 1.1660753 -0.049631514 0
0.8394683 1.1750871 0.36296052 0
0.83751947 1.1751976 0.47082993 0
0.83483654 1.1753498 0.5833655 0
1.0120375 1.1851107 -0.050085649 0
0.83718365 1.1928216 0.36215058 0
0.84301597 1.1925644 0.47236541 0
0.8430689 1.1925621 0.58641088 0
1.0107945 1.2049401 -0.050014567 0
0.85207969 1.2099379 0.36578345 0
0.83492488 1.2104781 0.46945032 0
0.83638197 1.2104322 0.58336478 0
1.0112711 1.22469 -0.050013825 0
0.84305626 1.2278675 0.36336678 0
0.83170849 1.2280818 0.46823311 0
0.83064908 1.2281018 0.58080763 0
1.0106336 1.2444494 -0.049982183 0
0.83961707 1.2455261 0.36243266 0
0.8383866 1.2455338 0.47038162 0
0.83832389 1.2455343 0.58389419 0
1.0141697 1.2642159 -0.050108425 0
0.85096389 1.2631885 0.36532766 0
0.84087235 1.2631249 0.47120866 0
0.82689279 1.263037 0.57916129 0
1.0100223 1.2839296 -0.04996923 0
0.84195739 1.2807549 0.36308637 0
0.83536488 1.2806305 0.46944979 0
0.83213502 1.2805694 0.58142298 0
1.0027506 1.3034497 -0.049727246 0
0.85121948 1.2986782 0.36556387 0
0.83621222 1.2982056 0.46987885 0
0.84778434 1.29857 0.58808815 0
1.003327 1.3231484 -0.049774371 0
0.84252793 1.3160572 0.36351538 0
0.83620447 1.3157784 0.47009706 0
0.84177464 1.3160241 0.5858745 0
1.0099877 1.3432283 -0.05004796 0
0.8488695 1.3340893 0.36536291 0
0.8462047 1.3339381 0.4737241 0
0.83859569 1.3335066 0.5849244 0
1.0034412 1.3625889 -0.04985819 0
1.3007118 1.3832089 0.07249663 0
1.3030016 1.3833678 0.20641723 0
1.3030092 1.3833683 0.34232983 0
0.84938675 1.351903 0.36578056 0
0.83980459 1.3512384 0.47196114 0
0.83487779 1.3508966 0.58384109 0
1.0005592 1.3821188 -0.049808219 0
1.2490171 1.4024994 0.070708275 0
1.2447922 1.4021529 0.2003316 0
1.0145563 1.383267 0.29045373 0
0.84630924 1.3694659 0.36533585 0
0.8341015 1.3684646 0.47050172 0
0.84983844 1.3697555 0.59060711 0
1.0097768 1.4027625 -0.050200902 0
1.2478092 1.4253086 0.070736997 0
1.2390636 1.4244802 0.19992955 0
0.90419286 1.3927618 0.27077743 0
0.84872133 1.3875077 0.36635405 0
0.83035129 1.3857677 0.4697656 0
0.84896415 1.3875307 0.5908944 0
1.0116258 1.4228964 -0.050338868 0
0.64846617 1.3838789 0.049298991 0
0.6451413 1.3835218 0.13598078 0
0.62724227 1.3815987 0.2208795 0
0.63884038 1.3828448 0.31295747 0
0.83217949 1.4036169 0.47096792 0
0.8497985 1.4055098 0.59198672 0
0.9999947 1.4415112 -0.050001431 0
0.53426749 1.3855337 0.0452547 0
0.5461306 1.3869596 0.12545 0
0.54362875 1.3866589 0.20599955 0
0.55874568 1.3884759 0.29281589 0
0.84579605 1.4229774 0.47619751 0
0.8408758 1.4223861 0.5891062 0
0.99025625 1.4601406 -0.049740031 0
0.55139166 1.4017774 0.045934059 0
0.54733378 1.4012377 0.12577099 0
0.55689055 1.4025086 0.2087314 0
0.54934639 1.4015054 0.29085425 0
0.83566958 1.4395826 0.47354886 0
0.85084361 1.4416006 0.59419972 0
0.99505371 1.4807066 -0.050011039 0
0.5532015 1.4162743 0.046069514 0
0.55742067 1.4168895 0.12707689 0
0.54338092 1.4148421 0.20662534 0
0.54973239 1.4157684 0.2914542 0
0.84614056 1.4589916 0.47789079 0
0.83680302 1.45763 0.58935827 0
0.99147505 1.5001401 -0.049989168 0
0.54565889 1.4293859 0.045873757 0
0.55177277 1.4303561 0.12669468 0
0.55895704 1.4314964 0.20985463 0
0.55153221 1.430318 0.29246691 0
0.8461861 1.4770817 0.47881168 0
0.84439868 1.4767979 0.59366196 0
0.98130161 1.5184289 -0.049737215 0
0.54941899 1.4442997 0.046092972 0
0.54938596 1.444294 0.12668569 0
0.56151909 1.4463766 0.21074787 0
0.54537088 1.4436048 0.29146838 0
0.84560484 1.4951377 0.47959983 0
0.83260113 1.4929057 0.5899294 0
0.98770839 1.5396017 -0.050094966 0
0.54929405 1.4586557 0.046178468 0
0.54216915 1.4573402 0.12616801 0
0.56236285 1.4610686 0.21136236 0
0.55366427 1.4594625 0.29426107 0
0.82889646 1.5102797 0.47501054 0
0.83940822 1.5122205 0.59410667 0
0.97713321 1.5576776 -0.049845293 0
0.56215125 1.4756418 0.046743192 0
0.55486435 1.4742013 0.12784834 0
0.54647857 1.4725436 0.20893709 0
0.54777533 1.4727999 0.29342422 0
0.84352058 1.5312644 0.48110029 0
0.83709008 1.5299932 0.59454548 0
0.97144324 1.5766066 -0.04978149 0
0.55460745 1.4887367 0.04657286 0
0.55922657 1.4897105 0.1286412 0
0.54759163 1.4872578 0.20966482 0
0.55342859 1.4884882 0.29563832 0
0.83433491 1.547704 0.47920048 0
0.83874649 1.5486339 0.59676188 0
0.97533149 1.5976382 -0.050076645 0
0.54970056 1.5023016 0.04650455 0
0.56180257 1.5050123 0.12926106 0
0.55780381 1.5041167 0.21211046 0
0.55368203 1.5031934 0.29649851 0
0.83558732 1.5663371 0.48092452 0
0.83442968 1.5660778 0.59654963 0
0.96404999 1.6152879 -0.049825769 0
0.55328375 1.5178335 0.046753813 0
0.55057734 1.5171914 0.12837966 0
0.55121011 1.5173415 0.21148765 0
0.54733175 1.5164213 0.29567814 0
0.83849508 1.5855 0.48329985 0
0.83621794 1.5849597 0.59902787 0
0.963314 1.635401 -0.0499704 0
0.54885834 1.5315421 0.046716291 0
0.546776 1.5310202 0.12833492 0
0.55026072 1.5318935 0.21194321 0
0.54909593 1.5316015 0.29703322 0
0.83384639 1.6029576 0.48317361 0
0.84292346 1.6052322 0.60371417 0
0.95618528 1.6539351 -0.049888801 0
0.55159599 1.5471168 0.046949502 0
0.54799765 1.5461668 0.1288677 0
0.55035096 1.5467881 0.21262833 0
0.55124909 1.5470252 0.29854578 0
0.83672982 1.6223968 0.48571423 0
0.83682555 1.6224221 0.60304248 0
0.9541195 1.6738178 -0.050003134 0
0.55115062 1.5619812 0.047072854 0
0.54500872 1.5602766 0.12895395 0
0.54294568 1.5597041 0.21194799 0
0.55623525 1.5633924 0.30086508 0
0.84284216 1.6429348 0.48946297 0
0.83760077 1.6414801 0.60541457 0
0.9473123 1.6924073 -0.049950875 0
0.54611284 1.5756016 0.047032837 0
0.55685729 1.5787297 0.13072115 0
0.55494326 1.5781726 0.21494022 0
0.55598873 1.5784769 0.30185711 0
0.83021384 1.6583151 0.48682109 0
0.83511358 1.6597416 0.60649192 0
0.95541531 1.7155069 -0.050463635 0
0.86161298 1.6869112 0.38448662 0
0.84741634 1.6825833 0.49461177 0
0.83735615 1.6795164 0.60971993 0
0.9434852 1.7326056 -0.050238691 0
0.84894758 1.7024796 0.3825838 0
0.83548647 1.69819 0.49236792 0
0.838965 1.6992985 0.61279356 0
0.93088073 1.7493161 -0.049995515 0
0.84080869 1.7193587 0.38194263 0
0.84220594 1.7198235 0.49672207 0
0.84322971 1.7201639 0.61714739 0
0.92768437 1.7691095 -0.050114699 0
0.84702367 1.7411495 0.38523188 0
0.84265572 1.7396355 0.49898332 0
0.83042771 1.7353967 0.61415642 0
0.91625792 1.7860262 -0.049931496 0
0.84918398 1.7618257 0.3875106 0
0.82983583 1.7548448 0.49664965 0
0.83912379 1.7581959 0.62069875 0
0.9115532 1.8053296 -0.050011832 0
0.83699042 1.777361 0.38595957 0
0.83320004 1.7759393 0.50012344 0
0.83850378 1.7779287 0.62327909 0
0.90440971 1.8237472 -0.050008412 0
0.84710592 1.8014255 0.39056271 0
0.83522111 1.796796 0.50322938 0
0.81831223 1.7902094 0.61728579 0
0.90420491 1.8449695 -0.05028107 0
0.83013004 1.8150353 0.38781759 0
0.82819301 1.8142526 0.50319809 0
0.83536667 1.8171515 0.6279636 0
0.88894612 1.8600987 -0.049982805 0
0.83511227 1.8375514 0.391179 0
0.82483047 1.833245 0.50456786 0
0.82155305 1.8318723 0.62499356 0
0.8840912 1.8795142 -0.05009516 0
0.82420522 1.853541 0.3902187 0
0.81830364 1.8509815 0.50488412 0
0.82204455 1.8526039 0.6285466 0
0.86843234 1.8941717 -0.049794916 0
0.83460444 1.8789912 0.39526728 0
0.82210618 1.8733827 0.50905001 0
0.82523733 1.8747878 0.63346374 0
0.85913199 1.9115493 -0.04975041 0
0.82212883 1.894381 0.39400166 0
0.81265026 1.8899833 0.50848085 0
0.81377393 1.8905047 0.63184738 0
0.85696846 1.9323168 -0.049996831 0
0.81922489 1.914224 0.39549118 0
0.82034594 1.9147614 0.51431316 0
0.81853241 1.913892 0.63776004 0
0.86224514 1.956964 -0.050551552 0
0.81597263 1.9340619 0.39696175 0
0.80996829 1.9310901 0.51358831 0
0.80647725 1.9293623 0.63607788 0
0.84022623 1.9681139 -0.050028034 0
0.81985408 1.9577096 0.4005568 0
0.80911368 1.9522243 0.51649284 0
0.80761915 1.951461 0.64061052 0
0.82818979 1.9841077 -0.04990948 0
0.80468291 1.9717268 0.39876738 0
0.80258459 1.9706216 0.51738274 0
0.80568427 1.9722542 0.64386332 0
0.81220311 1.9978654 -0.049637794 0
0.79749495 1.9898806 0.39933434 0
0.78596693 1.9836222 0.51454705 0
0.79388779 1.9879223 0.6426155 0
0.81466883 2.0217276 -0.050126068 0
0.79472107 2.0105708 0.40126228 0
0.7879743 2.0067973 0.51885331 0
0.7888816 2.0073047 0.64467329 0
0.79862565 2.0353305 -0.049867667 0
0.79027349 2.0305202 0.40278789 0
0.78574783 2.0279136 0.52167702 0
0.77282959 2.0204732 0.64158469 0
0.78875595 2.0523853 -0.049870644 0
0.77298838 2.0430374 0.40059158 0
0.7759611 2.0447998 0.52170032 0
0.77776414 2.0458689 0.64865381 0
0.78524894 2.0733271 -0.050148666 0
0.77653271 2.0680103 0.40465021 0
0.77403063 2.0664842 0.52486795 0
0.77540094 2.0673201 0.65239269 0
0.77460581 2.0900271 -0.050139211 0
0.77159077 2.0881355 0.40627936 0
0.77026695 2.0873048 0.52744752 0
0.77138287 2.0880051 0.65548378 0
0.75540143 2.1012001 -0.049774844 0
0.74734944 2.0960059 0.40213895 0
0.75913078 2.103606 0.52723271 0
0.75197047 2.0989869 0.65114301 0
0.75056881 2.1215978 -0.050029065 0
0.74422246 2.1173899 0.40445763 0
0.75387305 2.1237888 0.52944422 0
0.7546801 2.1243241 0.65782422 0
0.73653752 2.1359489 -0.049899142 0
0.73683399 2.1361511 0.40556338 0
0.73998708 2.1382992 0.52830315 0
0.74093086 2.1389425 0.65647608 0
0.73562986 2.1593778 -0.050347801 0
0.72390455 2.1511707 0.40502664 0
0.72171658 2.1496391 0.52544534 0
0.7265287 2.1530075 0.65487868 0
0.71582097 2.1696126 -0.049982391 0
0.72257835 2.1744704 0.4081901 0
0.72193271 2.1740062 0.53019446 0
0.72370762 2.1752822 0.65926206 0
0.71486491 2.1934471 -0.050455838 0
0.70429796 2.1856472 0.40609932 0
0.70402092 2.1854427 0.52761811 0
0.71036333 2.1901245 0.6584146 0
0.68702286 2.197331 -0.049742877 0
0.70186108 2.2085752 0.40910506 0
0.70368081 2.2099543 0.53241181 0
0.70683163 2.2123418 0.66275322 0
0.6798287 2.2166414 -0.049958989 0
0.69632739 2.2294743 0.41123229 0
0.69597369 2.2291992 0.53427702 0
0.68813699 2.2231038 0.65932709 0
0.66616851 2.2309899 -0.049892969 0
0.68673974 2.2474101 0.41214308 0
0.68783778 2.2482865 0.53608125 0
0.67974299 2.2418251 0.66139466 0
0.65694815 2.2489185 -0.050039444 0
0.67495173 2.263664 0.41241181 0
0.66902786 2.2588122 0.53341669 0
0.67920727 2.2671492 0.66781479 0
0.63697523 2.2579505 -0.049696535 0
0.67104179 2.2865765 0.41537657 0
0.65568823 2.273675 0.53315824 0
0.66329724 2.2800689 0.66616035 0
0.62400454 2.2727036 -0.049685262 0
0.71813613 2.3538456 0.066122115 0
0.7234779 2.3584502 0.18773966 0
0.71600598 2.3520093 0.30920577 0
0.65276688 2.297497 0.41363168 0
0.64716774 2.2926705 0.53509557 0
0.65870994 2.3026199 0.67076564 0
0.62712783 2.3016806 -0.05044964 0
0.69262701 2.3595946 0.06557104 0
0.6848107 2.3526833 0.18420158 0
0.67824513 2.3468783 0.30346695 0
0.63472384 2.3083968 0.41199282 0
0.6400966 2.3131475 0.53780383 0
0.64194328 2.3147802 0.66884738 0
0.59920818 2.3032372 -0.04974414 0
0.65246516 2.3515348 0.064310908 0
0.65651745 2.3552098 0.18211749 0
0.65814179 2.356683 0.30194557 0
0.62011784 2.3221996 0.41156593 0
0.62618321 2.3277004 0.53758532 0
0.62706584 2.3285007 0.66804814 0
0.59311467 2.3244188 -0.050095443 0
0.63215977 2.3607345 0.063999146 0
0.63861352 2.3667371 0.18153831 0
0.64416271 2.3718984 0.30194491 0
0.62154919 2.3508656 0.41678211 0
0.61484343 2.3446286 0.53861636 0
0.6127823 2.3427117 0.66767246 0
0.57903332 2.3383279 -0.050069969 0
0.62502486 2.3821974 0.064339109 0
0.61939186 2.3768244 0.18077788 0
0.62316364 2.3804221 0.30024207 0
0.59504586 2.3536015 0.41233844 0
0.59716731 2.3556252 0.5368439 0
0.59459907 2.3531754 0.66516268 0
0.56822175 2.3554149 -0.050216176 0
0.61725062 2.4033749 0.064664774 0
0.61091954 2.3971817 0.18164299 0
0.60976821 2.3960557 0.30046335 0
0.5869711 2.3737555 0.41442913 0
0.59001178 2.3767297 0.54000992 0
0.59514564 2.3817518 0.67354572 0
0.54832214 2.3635354 -0.049915478 0
0.60079485 2.4161735 0.064568959 0
0.60118181 2.4165618 0.1823653 0
0.60307628 2.418462 0.30244988 0
0.57073122 2.3860152 0.41368681 0
0.57427138 2.3895664 0.53929508 0
0.57421392 2.3895087 0.66964889 0
0.53350419 2.3765841 -0.049876347 0
0.59805268 2.4429877 0.065182514 0
0.60500723 2.4501421 0.18522561 0
0.59720248 2.4421132 0.30474651 0
0.56319755 2.407131 0.41617772 0
0.56075877 2.4046218 0.53971088 0
0.56037182 2.4042239 0.66997021 0
0.52333909 2.394506 -0.050086632 0
0.61432415 2.490495 0.06680841 0
0.61786383 2.4942293 0.18960063 0
0.60945779 2.4853609 0.31190413 0
0.54616278 2.4185848 0.41527626 0
0.54564601 2.4180396 0.53944951 0
0.53547746 2.4073119 0.66375488 0
0.50438279 2.4031391 -0.049849182 0
0.53246504 2.4335229 0.41567066 0
0.53421825 2.43542 0.54107314 0
0.5225448 2.4227896 0.66477448 0
0.48838052 2.4148047 -0.049771685 0
0.51994842 2.4498348 0.41659194 0
0.52438051 2.4547529 0.54361773 0
0.51888889 2.4486592 0.67166567 0
0.47704169 2.4317002 -0.049953211 0
0.50310475 2.4613645 0.41593277 0
0.50759703 2.4664772 0.54281986 0
0.5078432 2.4667575 0.6742236 0
0.46006212 2.4422116 -0.049839444 0
0.48088416 2.4665213 0.41321158 0
0.49085817 2.4781659 0.542108 0
0.48868713 2.4756312 0.67180151 0
0.44533357 2.4552987 -0.049856663 0
0.46788606 2.4823098 0.41414595 0
0.47181353 2.4870138 0.54026425 0
0.46418461 2.4778767 0.66596037 0
0.43350986 2.4719796 -0.050047699 0
0.45815632 2.5022657 0.41649577 0
0.45428154 2.4975042 0.53924733 0
0.45275697 2.495631 0.66862315 0
0.41770586 2.4838636 -0.050025083 0
0.43990293 2.5118525 0.4154858 0
0.4421179 2.5146453 0.54115862 0
0.43744758 2.5087564 0.66888988 0
0.40094534 2.4944887 -0.049954914 0
0.42445633 2.5249135 0.41568035 0
0.42596784 2.5268695 0.54104882 0
0.42173359 2.5213902 0.668998 0
0.38853875 2.5108204 -0.050149884 0
0.40872023 2.5376272 0.41582459 0
0.41271469 2.542933 0.542624 0
0.40822169 2.5369651 0.6707325 0
0.36805829 2.5163791 -0.049873095 0
0.39378759 2.5514662 0.41638649 0
0.39409676 2.5518878 0.5413211 0
0.39481214 2.5528634 0.67270488 0
0.35402963 2.5306423 -0.049991999 0
0.3784686 2.5648651 0.41686457 0
0.37521318 2.5603065 0.53990698 0
0.38038501 2.5675488 0.67412877 0
0.34151366 2.5472333 -0.050218813 0
0.36108801 2.5753872 0.41650477 0
0.35942391 2.5729935 0.5403316 0
0.35721323 2.569814 0.66936916 0
0.31837609 2.5484207 -0.049786489 0
0.34527549 2.5881686 0.41691178 0
0.3450574 2.5878463 0.54170275 0
0.33997449 2.5803356 0.66892397 0
0.30039439 2.5568883 -0.049681466 0
