# .PCD v0.7 - Point Cloud Data file format
VERSION 0.7
FIELDS x y z intensity
SIZE 4 4 4 4
TYPE F F F F
COUNT 1 1 1 1
WIDTH 1361
HEIGHT 1
VIEWPOINT 0 0 0 1 0 0 0
POINTS 1361
DATA ascii
-1.2376003 -0.30057001 0.57063508 0
-1.1701844 -0.1959219 -0.050207734 0
-0.92993802 0.37266266 0.040170848 0
-0.92218274 0.39101684 0.10672095 0
-0.92066151 0.39461714 0.1743191 0
-1.2398558 -0.36081111 0.45334691 0
-1.1446908 -0.18590319 -0.049528413 0
-0.91411638 0.37954587 0.039727312 0
-0.91037452 0.38872212 0.10646215 0
-0.91524673 0.37677389 0.17691682 0
-1.2395123 -0.41843855 0.46689257 0
-1.1319586 -0.20704198 -0.050060038 0
-0.89617884 0.39266056 0.039054576 0
-0.89754146 0.38919467 0.10590229 0
-0.90069395 0.38117647 0.17520401 0
-1.2342967 -0.46733713 0.47797966 0
-1.1143405 -0.21634638 -0.050143488 0
-0.89090878 0.37365937 0.039619725 0
-0.88291836 0.39475924 0.10477855 0
-0.89010662 0.37577754 0.17542496 0
-1.2397815 -0.5475924 0.49758646 0
-1.0969226 -0.22638118 -0.050262757 0
-0.87455434 0.38390952 0.039073341 0
-0.87584788 0.38035941 0.10596462 0
-0.87098622 0.39370233 0.17119363 0
-1.0722315 -0.21590924 -0.049614117 0
-0.86448961 0.37735814 0.039172716 0
-0.86304843 0.38147384 0.10538905 0
-0.86114198 0.38691825 0.17174853 0
-1.053759 -0.22251379 -0.049623113 0
-0.85113138 0.38038021 0.038915884 0
-0.84658396 0.39391059 0.10355053 0
-0.84810102 0.38939679 0.17056242 0
-1.037105 -0.23479426 -0.049853705 0
-0.83874798 0.38096106 0.038757976 0
-0.84044647 0.37568843 0.10520455 0
-0.83934015 0.37912267 0.17182857 0
-1.0198004 -0.24552763 -0.050033458 0
-0.82742614 0.37847024 0.038721278 0
-0.82272387 0.39372277 0.10278345 0
-0.82710755 0.37950355 0.17109984 0
-1.0011306 -0.25208509 -0.050065249 0
-0.81528336 0.37885171 0.03858313 0
-0.81470019 0.38083142 0.10386109 0
-0.81547219 0.37821054 0.17071751 0
-0.97921067 -0.2471683 -0.049680166 0
-0.80213034 0.38318264 0.10324472 0
-0.80186898 0.38411307 0.16901611 0
-0.96276867 -0.26169896 -0.050025281 0
-0.79247332 0.37519222 0.038488656 0
-0.79002213 0.3843596 0.10277869 0
-0.79038501 0.38300246 0.1686617 0
-0.9416427 -0.25878596 -0.049734406 0
-0.77903444 0.38155997 0.102772 0
-0.77977514 0.37864316 0.16893986 0
-0.92434454 -0.27092016 -0.050006725 0
-0.76794159 0.37919688 0.16833065 0
-0.90643632 -0.28125095 -0.050220232 0
-0.75408441 0.38902926 0.16603471 0
-0.88527501 -0.27712154 -0.049913455 0
-0.74423981 0.38164181 0.16695315 0
-0.86604774 -0.28153372 -0.049928214 0
-0.73517662 0.36970615 0.16872874 0
-0.84675753 -0.28568399 -0.049942233 0
-0.72162235 0.38032109 0.16638297 0
-0.82611698 -0.28218853 -0.049687926 0
-0.80914503 -0.30024564 -0.050223026 0
-0.7890597 -0.29999423 -0.050103988 0
-0.76832682 -0.29438937 -0.049801387 0
-0.74918127 -0.29993165 -0.049909636 0
-0.73096132 -0.31456411 -0.050352912 0
-0.71019226 -0.30639851 -0.049986068 0
-0.69023883 -0.30479467 -0.04986411 0
-0.67115223 -0.31399739 -0.050138075 0
-0.65120184 -0.31206 -0.050022006 0
-0.63180465 -0.32016146 -0.050273795 0
-0.61202061 -0.32231629 -0.050321765 0
-0.59194696 -0.31300616 -0.049969207 0
-0.5721876 -0.31098175 -0.049885839 0
-0.55246395 -0.31531382 -0.050038282 0
-0.53278363 -0.30986094 -0.049850252 0
-0.51315838 -0.30703485 -0.049764816 0
-0.49358943 -0.30423188 -0.049688995 0
-0.47346008 -0.31283188 -0.050029609 0
-0.45403814 -0.30706227 -0.049865443 0
-0.49519411 0.31459683 0.039622828 0
-0.43355921 -0.31612921 -0.050241191 0
-0.48399913 0.32347339 0.039335661 0
-0.4150233 -0.30102932 -0.049760219 0
-0.47531831 0.35761243 0.038147539 0
-0.39540917 -0.29951298 -0.049774569 0
-0.46194434 0.33867228 0.038867041 0
-0.37467265 -0.30747545 -0.050138522 0
-0.44858384 0.32422978 0.039431989 0
-0.44117534 0.26091081 0.11348943 0
-0.44124848 0.26153576 0.186269 0
-0.44133145 0.26224476 0.26083717 0
-0.4426474 0.27349216 0.33454224 0
-0.44138128 0.2626707 0.41937992 0
-0.35642493 -0.29424286 -0.04974943 0
-0.43553877 0.31532818 0.039804436 0
-0.42994618 0.27223724 0.1124291 0
-0.42826304 0.25926876 0.18696158 0
-0.42851821 0.26123476 0.26149327 0
-0.42826355 0.25927263 0.33982351 0
-0.42816222 0.25849187 0.42176735 0
-0.4300231 0.27283013 0.50119835 0
-0.33580241 -0.29958427 -0.050037745 0
-0.42029029 0.29285008 0.040673073 0
-0.42027083 0.29271364 0.11038893 0
-0.42034769 0.29325259 0.18108124 0
-0.4190343 0.28404289 0.25605381 0
-0.41920787 0.28526008 0.33166313 0
-0.4188675 0.28287339 0.41228402 0
-0.42035758 0.29332191 0.49169171 0
-0.31538945 -0.30223393 -0.05023874 0
-0.40618041 0.28169531 0.041141231 0
-0.40686712 0.28611183 0.11130305 0
-0.40653902 0.28400183 0.18309852 0
-0.4075703 0.29063451 0.2548216 0
-0.40684816 0.28599 0.3320291 0
-0.40594405 0.28017515 0.41417778 0
-0.40813658 0.29427648 0.49212068 0
-0.29987282 -0.27493632 -0.049365245 0
-0.39122009 0.26749074 0.041727223 0
-0.39254704 0.2753703 0.11268863 0
-0.39279842 0.27686292 0.18476562 0
-0.39161661 0.26984519 0.26070818 0
-0.39246163 0.27486312 0.33644855 0
-0.3910377 0.26640773 0.42079142 0
-0.39938211 0.31595755 0.48211229 0
-0.2758446 -0.29799974 -0.050324131 0
0.068673514 -2.1974106 0.13124199 0
-0.38398358 0.29819643 0.49219349 0
-0.26128182 -0.26881683 -0.049396168 0
0.11390676 -2.1986222 0.13158272 0
-0.37420809 0.31202644 0.48629585 0
-0.23858155 -0.28205323 -0.050019149 0
0.15990879 -2.2023215 0.13203578 0
-0.36914939 0.34713459 0.46957248 0
-0.2199742 -0.27468979 -0.049901158 0
0.20525713 -2.2015431 0.13234755 0
-0.35792157 0.35039192 0.46915486 0
-0.20121093 -0.26834464 -0.049828738 0
0.24972303 -2.1959958 0.1325063 0
-0.34828299 0.36035866 0.46536097 0
-0.18100958 -0.26801562 -0.049986012 0
0.29793409 -2.2050998 0.13322492 0
-0.0039100437 -0.98429346 0.25382701 0
-0.0081345821 -0.96720719 0.41871452 0
-0.34003097 0.37514544 0.45913345 0
-0.16280295 -0.25958145 -0.049854148 0
0.34430262 -2.2050974 0.13363229 0
-0.32825571 0.37517995 0.46056682 0
-0.14309166 -0.25697589 -0.049946062 0
0.38999239 -2.2015057 0.13392976 0
-0.31461564 0.3686918 0.4654659 0
-0.12289295 -0.25581849 -0.050101321 0
0.21189739 -1.4193718 0.10532703 0
-0.30127397 0.36413908 0.46946442 0
-0.10201363 -0.25652897 -0.050336279 0
0.25062332 -1.4264662 0.10596065 0
-0.30296636 0.41016835 0.44713292 0
-0.0867889 -0.23873818 -0.049889442 0
0.28351054 -1.4135318 0.10586528 0
-0.29335597 0.41660625 0.44547135 0
-0.068275996 -0.23193693 -0.04986098 0
0.31117311 -1.3849192 0.10519578 0
-0.28701782 0.43272525 0.43876705 0
-0.050080813 -0.22426188 -0.049808193 0
0.33368859 -1.3427434 0.10402457 0
-0.25944313 0.38591683 0.46536279 0
-0.02665011 -0.23134327 -0.050323274 0
0.36509314 -1.3278887 0.10389458 0
-0.013071873 -0.21085262 -0.049801882 0
0.40545908 -1.3374026 0.10470709 0
0.0047881217 -0.20247006 -0.049747825 0
0.45244703 -1.362469 0.10613813 0
0.026748916 -0.204422 -0.050099563 0
0.043413959 -0.19296205 -0.049945366 0
0.059345745 -0.18006432 -0.049742583 0
0.080146991 -0.17845368 -0.049987543 0
-0.18846978 0.42520887 0.38173452 0
0.096075676 -0.16583323 -0.049811509 0
0.11895289 -0.16810787 -0.050231155 0
-0.16275255 0.42433727 0.38651374 0
-0.1987551 0.50005299 0.50131124 0
0.13069881 -0.14703441 -0.049736198 0
0.5468486 -0.99454045 0.45783597 0
-0.16082759 0.44667107 0.3785345 0
-0.19379778 0.5138163 0.49524111 0
0.14856692 -0.13880754 -0.049758147 0
0.58298618 -0.99606609 0.46099162 0
-0.14983957 0.45005089 0.3793132 0
-0.18838333 0.52611095 0.49014992 0
0.17065664 -0.13861752 -0.050113022 0
0.61292309 -0.98476624 0.46165046 0
-0.13707717 0.45014203 0.38169789 0
-0.17619903 0.52499038 0.49404764 0
0.18134196 -0.1167276 -0.049601547 0
0.64818615 -0.98314667 0.46437386 0
-0.12614603 0.45394135 0.38243008 0
-0.17242505 0.53983092 0.48732263 0
0.20582803 -0.12043262 -0.050137106 0
0.68196493 -0.97806001 0.46649244 0
-0.11065713 0.44962668 0.38707492 0
-0.16098352 0.54027557 0.49034747 0
0.21813203 -0.1020645 -0.049781412 0
0.72033805 -0.98040223 0.47025776 0
-0.083152421 0.42486966 0.40159568 0
-0.15800317 0.55578053 0.48320392 0
0.23437096 -0.09087003 -0.049726646 0
0.75881749 -0.98187876 0.47397059 0
-0.062793441 0.41399759 0.40971947 0
-0.14995609 0.56208259 0.48236594 0
0.25379488 -0.085002549 -0.049902309 0
0.80563956 -0.99611831 0.48050478 0
-0.059831746 0.43280649 0.4036617 0
-0.13327633 0.55406624 0.49151921 0
0.2691398 -0.072347768 -0.04980411 0
0.84343487 -0.99413443 0.4837679 0
-0.1248878 0.56009591 0.49107629 0
0.28799662 -0.065297492 -0.049950901 0
0.87904555 -0.98788571 0.48624557 0
-0.11904136 0.5700618 0.48793161 0
0.29443601 -0.039197449 -0.049294695 0
0.91033798 -0.97444129 0.48728642 0
0.027087828 0.36676925 0.44600618 0
-0.11667491 0.58507222 0.48123074 0
0.32554862 -0.050376061 -0.050243374 0
0.95431107 -0.97946572 0.4924435 0
0.027806899 0.38958132 0.43831602 0
-0.10385264 0.58412778 0.48591882 0
0.33604822 -0.030729419 -0.049877007 0
0.9966014 -0.98079896 0.49695626 0
0.040089272 0.3949464 0.43936089 0
-0.10376791 0.60185528 0.47727755 0
0.35819736 -0.027835375 -0.050248034 0
0.057727896 0.39292377 0.44425216 0
-0.10105909 0.6152795 0.47169492 0
0.36065456 0.002360458 -0.049426109 0
0.066037379 0.40413004 0.44251028 0
-0.084002204 0.60873908 0.4807677 0
0.38456938 0.0030953833 -0.049914267 0
1.1333714 -0.99153757 0.106362 0
1.1244899 -0.97974014 0.3065263 0
0.084982477 0.40103632 0.44821677 0
-0.076363392 0.61535186 0.48032171 0
0.40566584 0.0080456678 -0.050230529 0
0.10788288 0.39339519 0.45648271 0
-0.076768346 0.63234532 0.47216284 0
0.41998717 0.021902913 -0.050156157 0
0.12851717 0.38942403 0.4630439 0
-0.067717381 0.63686067 0.47336313 0
0.43102959 0.039711233 -0.049907412 0
-0.059144922 0.64204729 0.47414926 0
0.44700024 0.051348086 -0.049949504 0
-0.051853932 0.6488232 0.47379875 0
0.46570787 0.059840079 -0.050149292 0
-0.046160676 0.65744406 0.47207519 0
0.47632679 0.077756636 -0.049914543 0
-0.03861884 0.66385233 0.47213537 0
0.49218902 0.089612119 -0.049974795 0
1.2071358 -0.7037456 0.10010279 0
-0.036957003 0.67679167 0.4670577 0
0.50209934 0.10797464 -0.049729075 0
1.2075229 -0.6552676 0.09883371 0
-0.0288739 0.68246818 0.46780261 0
0.51653773 0.12131261 -0.049733665 0
0.38641354 0.25859332 0.054980714 0
-0.019292692 0.68661231 0.46989125 0
0.53619939 0.12928629 -0.050014395 0
0.37980893 0.29017127 0.054004092 0
0.84286445 -0.1861918 0.22189935 0
-0.010817626 0.69202387 0.47105649 0
0.54378611 0.14965796 -0.049686093 0
0.39837173 0.29553068 0.054332651 0
0.83601242 -0.14348936 0.2181122 0
-0.0084929848 0.70367759 0.4670983 0
0.56446964 0.15689874 -0.050028782 0
0.40898475 0.30899447 0.054263555 0
0.74395674 -0.018676167 0.20164345 0
0.74321347 -0.017948991 0.33412987 0
0.7353664 -0.010272985 0.46739149 0
0.0026207182 0.70650089 0.47060248 0
0.57369524 0.17540693 -0.049806599 0
0.4237949 0.3183912 0.054410778 0
0.84659654 -0.084903009 0.21452226 0
0.19854005 0.53325295 0.35356528 0
0.010063968 0.71303302 0.47108597 0
0.58196443 0.19459522 -0.049551796 0
0.45527551 0.31242824 0.055374883 0
0.84685999 -0.051783446 0.21210237 0
0.19810612 0.55162078 0.34927022 0
0.017516574 0.71958667 0.47163841 0
0.61306983 0.19283509 -0.050412215 0
0.84581977 -0.018242007 0.073629811 0
0.83267766 -0.0063237003 0.20767501 0
0.19498296 0.57199132 0.34392056 0
0.023011586 0.72794938 0.47068381 0
0.61477441 0.21788538 -0.049860932 0
0.83518308 0.023001308 0.072364621 0
0.83574563 0.022503847 0.20585386 0
0.8352173 0.022971028 0.3412559 0
0.20686944 0.57855266 0.34541038 0
0.026251396 0.73825407 0.46803835 0
0.62963599 0.23108506 -0.0499507 0
0.8397575 0.049959298 0.071854673 0
0.84387249 0.046412226 0.20482196 0
0.8373192 0.052061077 0.33809105 0
0.22901018 0.57642633 0.35142472 0
0.034563981 0.74403983 0.46949542 0
0.63458055 0.25270462 -0.049584869 0
0.83847982 0.081369869 0.071093112 0
0.84518355 0.075736754 0.20288664 0
0.84759206 0.073712938 0.33697101 0
0.92552418 0.0082272235 0.50018197 0
0.26668027 0.5618481 0.36411241 0
0.27537975 0.55453795 0.45637348 0
0.048584543 0.74511206 0.47541541 0
0.64941889 0.26589143 -0.049691986 0
0.83828074 0.11120736 0.070407487 0
0.84776312 0.10344099 0.20119897 0
0.83857375 0.11096739 0.33142927 0
0.94460195 0.024126763 0.50133806 0
0.29437247 0.5566861 0.3722997 0
0.24760897 0.59498692 0.43683082 0
0.050070904 0.75677711 0.47167671 0
0.66664475 0.27727312 -0.049914721 0
0.85319191 0.12836957 0.070436202 0
0.83584613 0.14221513 0.19758298 0
0.83949643 0.13930142 0.32834569 0
0.98506159 0.023110146 0.50952816 0
0.26720008 0.59611326 0.35702235 0
0.24573649 0.61324561 0.43147466 0
0.057883941 0.7631911 0.47288814 0
0.68287843 0.28962952 -0.050096929 0
0.85335058 0.15703654 0.069807217 0
0.84199327 0.16587019 0.19652848 0
0.84204286 0.16583157 0.32574511 0
0.25880757 0.61947113 0.43413028 0
0.06433221 0.77073371 0.4731234 0
0.69794756 0.30303359 -0.050232239 0
0.85025746 0.18761551 0.069054797 0
0.83138114 0.20191967 0.19326451 0
0.83874291 0.19634104 0.32192221 0
0.26539758 0.63081318 0.43343475 0
0.073574506 0.77617365 0.4755064 0
0.70348138 0.32359862 -0.049950708 0
0.8519581 0.2140007 0.068539217 0
0.83357614 0.22756934 0.1918024 0
0.83601135 0.22577178 0.31834862 0
0.28132173 0.63521516 0.43762305 0
0.081574522 0.78265828 0.47700244 0
0.71354085 0.34066963 -0.049882136 0
0.84868401 0.24351859 0.06782423 0
0.83135313 0.25597733 0.18981166 0
0.83556718 0.25294793 0.31539798 0
0.08969941 0.78913325 0.47863615 0
0.71906382 0.36086065 -0.049625892 0
0.85377878 0.26656747 0.067496479 0
0.84085709 0.27561188 0.18942384 0
0.84175831 0.27498108 0.31400958 0
0.85277873 0.26726741 0.44516072 0
0.093944512 0.79841053 0.47750622 0
0.73801833 0.37168521 -0.049963113 0
0.88680941 0.27030665 0.068390965 0
0.82973737 0.3091926 0.18638965 0
0.83280629 0.30710161 0.30938911 0
0.8436268 0.29972905 0.43853289 0
0.10800239 0.80094576 0.48351201 0
0.75937349 0.38120717 -0.050406225 0
0.92123455 0.27388227 0.069339782 0
0.83478099 0.33120686 0.1855197 0
0.83178002 0.33319676 0.30661005 0
0.84515125 0.32433069 0.43535414 0
0.11960211 0.80541879 0.48774153 0
0.7558971 0.40712327 -0.049795903 0
0.95007342 0.2818622 0.070045508 0
0.83518571 0.35597509 0.18409906 0
0.83939284 0.35326105 0.30577838 0
0.8394081 0.35325122 0.43008903 0
0.11701073 0.81926197 0.48196158 0
0.76150054 0.42683822 -0.049586874 0
0.99097246 0.28286749 0.071258225 0
0.83674079 0.37963247 0.18287532 0
0.83323127 0.38183439 0.30207461 0
0.83588272 0.38017082 0.42564341 0
0.13475193 0.82006061 0.49058464 0
0.78741628 0.43399388 -0.050239302 0
1.0272946 0.28767073 0.072270796 0
0.8434363 0.39982229 0.18234566 0
0.83549887 0.40466404 0.30025619 0
0.83591813 0.40440828 0.42239764 0
0.14447291 0.82618237 0.49357727 0
0.78295261 0.45969832 -0.049629785 0
1.0654362 0.29222983 0.073353872 0
0.83221656 0.43049252 0.17961359 0
0.83775133 0.42721128 0.29850858 0
0.84025985 0.42572415 0.42054412 0
0.13935526 0.84125072 0.48637077 0
0.79582101 0.47492784 -0.04975212 0
0.85343724 0.44174373 0.18097258 0
0.83985072 0.44956893 0.29680109 0
0.84613138 0.44595152 0.41923374 0
0.13493402 0.85556668 0.47982329 0
0.81449062 0.48701519 -0.050118774 0
0.85459393 0.4645853 0.17986892 0
0.8365466 0.47467923 0.29404736 0
0.83841783 0.47363263 0.41403598 0
0.15153714 0.85780698 0.4877308 0
0.82188445 0.50552177 -0.050031081 0
0.85273236 0.4887749 0.17843901 0
0.8417992 0.49471033 0.29313344 0
0.84003979 0.49566555 0.41168532 0
0.82976264 0.52370697 -0.049972944 0
0.84399706 0.51620978 0.17622074 0
0.8476873 0.51426613 0.29240671 0
0.84433657 0.51603097 0.41020179 0
0.83482128 0.5432896 -0.049811359 0
0.84136361 0.53994828 0.17479485 0
0.84283167 0.53919858 0.28955895 0
0.8457579 0.53770411 0.40797767 0
0.8375892 0.54187596 0.52713048 0
0.83894259 0.56321239 -0.049623299 0
0.84860605 0.55842966 0.17459801 0
0.84204215 0.56167835 0.2876105 0
0.83399433 0.56566155 0.40209198 0
0.8403427 0.56251949 0.52486366 0
0.85370022 0.57789302 -0.049867433 0
0.8701908 0.56998807 0.17613949 0
0.83248347 0.58806348 0.2839767 0
0.8303358 0.58909297 0.39863479 0
0.83980781 0.58455247 0.52149349 0
0.8702336 0.59194303 -0.050187331 0
0.90697759 0.57489496 0.17949031 0
0.83585936 0.6078915 0.28300193 0
0.84400982 0.60410994 0.40015581 0
0.83410877 0.60870373 0.51635098 0
0.87231284 0.61273003 -0.049946766 0
0.93255872 0.58569449 0.18150958 0
0.84320766 0.62579107 0.2828674 0
0.8460471 0.6245169 0.39846715 0
0.8414436 0.62658268 0.51610154 0
0.87610143 0.63259417 -0.049784239 0
0.96681386 0.59325129 0.18454993 0
0.84373242 0.64663297 0.28143665 0
0.83222026 0.65162587 0.39244765 0
0.84336597 0.64679188 0.51397264 0
0.88578933 0.64986658 -0.049860619 0
0.99942487 0.60227257 0.18739383 0
0.83021384 0.67314333 0.27731901 0
0.84518105 0.66687465 0.39396408 0
0.83808142 0.6698482 0.50934738 0
0.9022339 0.66447008 -0.050205179 0
1.0353528 0.61067581 0.19062099 0
0.84356278 0.68817949 0.27851361 0
0.83340114 0.69228595 0.38871774 0
0.84155315 0.68899161 0.50799215 0
0.90087789 0.68627167 -0.049873095 0
1.068778 0.6208691 0.19355594 0
0.86107796 0.70177507 0.28054544 0
0.83826047 0.7106632 0.3881408 0
0.83353919 0.7125023 0.50262892 0
0.26810142 0.93275893 0.44926494 0
0.91436261 0.70225972 -0.050118953 0
0.85883015 0.72308993 0.27879402 0
0.84016377 0.73009175 0.38682428 0
0.84383541 0.72871453 0.50390249 0
0.28332272 0.93896317 0.45527026 0
0.91442555 0.72327799 -0.049861949 0
0.85656971 0.74415267 0.2770997 0
0.84314603 0.74899596 0.3858729 0
0.84412962 0.74864107 0.50170511 0
0.26025537 0.95930541 0.44092384 0
0.92012876 0.74215263 -0.049829207 0
0.84882599 0.76686883 0.27441689 0
0.83527428 0.77156633 0.38205925 0
0.8448047 0.76826274 0.49974003 0
0.840321 0.76981694 0.61849177 0
0.26170304 0.97038752 0.4397577 0
0.92821044 0.76021516 -0.049895044 0
0.84397632 0.78823084 0.27234983 0
0.83963221 0.78967571 0.38162631 0
0.83755082 0.79036796 0.49508992 0
0.84266514 0.78866696 0.61690104 0
0.2882531 0.97306067 0.45190638 0
0.93355805 0.77920103 -0.049866717 0
0.85623068 0.8038426 0.27357957 0
0.83054608 0.81202745 0.37765634 0
0.83160394 0.81169033 0.49101219 0
0.84761637 0.8065877 0.61655301 0
0.30866918 0.9783321 0.46080297 0
0.93873197 0.79822212 -0.049840957 0
0.84848386 0.82573432 0.27107066 0
0.84747714 0.82604122 0.38071623 0
0.84453183 0.82693911 0.4936085 0
0.84505147 0.82678074 0.61305082 0
0.31124058 0.98951352 0.46036622 0
0.95785886 0.81316531 -0.050343037 0
0.8558498 0.84286433 0.27146155 0
0.84643048 0.84560668 0.37903476 0
0.82990795 0.85041708 0.48671508 0
0.83510369 0.84890437 0.60648763 0
0.32577661 0.99719048 0.46623951 0
0.94933385 0.83615351 -0.049825821 0
0.90138155 0.84946179 0.27903482 0
0.84175295 0.86601061 0.37646312 0
0.83808821 0.8670277 0.48782155 0
0.83293194 0.86845869 0.60340852 0
0.3107793 1.0133725 0.45680737 0
0.95526701 0.85495049 -0.049854893 0
0.92342824 0.86335641 0.28221786 0
0.84139985 0.88501334 0.37510908 0
0.84130067 0.88503951 0.48728701 0
0.83842891 0.88579768 0.60372907 0
0.31412783 1.0242219 0.45700583 0
0.96018177 0.87402701 -0.049855117 0
0.95561546 0.8751713 0.28730881 0
0.82899302 0.90690178 0.3706519 0
0.84082192 0.90393758 0.48556611 0
0.85055143 0.90149945 0.60697007 0
0.33369109 1.0310202 0.46563795 0
0.96640688 0.89279604 -0.049912252 0
0.99223596 0.88666809 0.29323396 0
0.83985144 0.92282134 0.37238094 0
0.83669549 0.9235701 0.48268452 0
0.84690195 0.9211486 0.60357422 0
0.33480385 1.0426441 0.46480069 0
0.96834284 0.9125703 -0.049820956 0
1.0125606 0.90266597 0.29615748 0
0.84722811 0.93969864 0.37324727 0
0.83999437 0.94131893 0.48242706 0
0.84592229 0.93999112 0.60142583 0
0.34088263 1.0531145 0.46658719 0
0.9693653 0.93247443 -0.049705677 0
1.0462242 0.91627246 0.30156893 0
0.84017915 0.9597072 0.37040544 0
0.8378889 0.96019 0.48040888 0
0.84529001 0.95862985 0.5995307 0
0.34621432 1.0638361 0.46805444 0
0.9830777 0.94979036 -0.050061628 0
1.0874665 0.92915422 0.30839172 0
0.85091239 0.97591746 0.37226087 0
0.84306878 0.97746801 0.48094708 0
0.84166187 0.97774619 0.59647506 0
0.36343643 1.0722843 0.47565138 0
0.98409325 0.96970898 -0.049963724 0
0.84369916 0.99563038 0.36950895 0
0.84419447 0.99553895 0.4801861 0
0.84537691 0.99532062 0.59661967 0
0.394142 1.0786338 0.49014524 0
0.9922238 0.98833948 -0.050132852 0
0.84594613 1.0134469 0.3692762 0
0.84218091 1.0140932 0.47844404 0
0.8360818 1.0151401 0.59139162 0
0.39005426 1.0916972 0.48698536 0
0.98426253 1.0096478 -0.049728446 0
0.42315105 1.0987002 0.041445326 0
0.42648533 1.098171 0.1130616 0
0.42610487 1.0982313 0.18559505 0
0.42448208 1.0984889 0.25964668 0
0.43280312 1.0971683 0.3395603 0
0.42750934 1.0980084 0.41889456 0
0.39754173 1.1027645 0.48977923 0
0.99402529 1.0280864 -0.049973939 0
0.42163441 1.1115544 0.041322719 0
0.40717444 1.1136631 0.11075927 0
0.40901127 1.1133952 0.18213564 0
0.41180262 1.1129881 0.25589168 0
0.40179709 1.1144472 0.32849678 0
0.40943643 1.1133332 0.41054174 0
0.40214494 1.1143965 0.49118015 0
1.0034138 1.0467527 -0.050213903 0
0.39296487 1.1279345 0.040228218 0
0.42393729 1.1238155 0.11239291 0
0.43034646 1.1229632 0.18570839 0
0.42807505 1.1232653 0.25964162 0
0.43383321 1.1224996 0.33868325 0
0.42828128 1.1232378 0.41770342 0
0.41748318 1.1246738 0.49807119 0
1.0038074 1.0666738 -0.050138529 0
0.39030042 1.1404133 0.040077899 0
0.43305376 1.1352746 0.11321024 0
0.42675826 1.1360313 0.18477041 0
0.42113635 1.1367071 0.25745463 0
0.43774292 1.134711 0.3394635 0
0.42947552 1.1357048 0.41754574 0
1.0030986 1.0866629 -0.050032686 0
0.36535671 1.1551811 0.039133448 0
0.85068899 1.1030376 0.36731789 0
0.84254628 1.1039125 0.47443673 0
0.83835167 1.1043631 0.58722001 0
1.0062934 1.1062105 -0.050075985 0
0.34218326 1.1691139 0.038260281 0
0.85192794 1.1208317 0.36717582 0
0.83819038 1.1221329 0.47238526 0
0.84925038 1.1210853 0.59101349 0
1.0021757 1.1263916 -0.049866121 0
0.35486338 1.1794896 0.03867862 0
0.85815078 1.1382058 0.36836714 0
0.83118957 1.1404173 0.46952966 0
0.84164387 1.1395599 0.58720291 0
1.0041779 1.1460031 -0.049884554 0
0.37507877 1.1896403 0.039370939 0
0.84447426 1.1570809 0.36452425 0
0.84734255 1.1568819 0.474475 0
0.83762413 1.1575561 0.58498091 0
1.0006735 1.1659431 -0.049714901 0
0.85758573 1.1740594 0.36759031 0
0.82964021 1.1756445 0.46820435 0
0.84767073 1.1746218 0.58868784 0
1.015219 1.1849704 -0.050199341 0
0.85446364 1.1920595 0.36656353 0
0.83633178 1.1928592 0.47013944 0
0.84344131 1.1925457 0.58656526 0
1.0135891 1.2048521 -0.05011439 0
0.84501559 1.2101604 0.36398029 0
0.84339935 1.2102112 0.47227111 0
0.84389502 1.2101957 0.58647698 0
1.0118707 1.2246786 -0.050035235 0
0.84630412 1.2278061 0.36419559 0
0.83202714 1.2280757 0.46833915 0
0.83998471 1.2279254 0.58467364 0
1.0110033 1.2444471 -0.049995378 0
0.85559779 1.2454255 0.36650994 0
0.8393237 1.245528 0.47069341 0
0.84258932 1.2455074 0.58566028 0
1.0076103 1.2641747 -0.049874242 0
0.84073728 1.2631241 0.36271846 0
0.83126897 1.2630645 0.46801358 0
0.83844084 1.2631097 0.58394265 0
1.002604 1.2837895 -0.049704343 0
0.84845704 1.2808777 0.36474496 0
0.84596163 1.2808306 0.47297591 0
0.84102386 1.2807373 0.58510393 0
1.0186976 1.303952 -0.050296862 0
0.8428728 1.2984153 0.36343333 0
0.8329528 1.298103 0.4687939 0
0.84060496 1.2983439 0.58511412 0
1.0109252 1.3234833 -0.0500459 0
0.84186798 1.3160281 0.36334684 0
0.8446601 1.3161513 0.47291297 0
0.83502251 1.3157263 0.58307618 0
1.003002 1.3428321 -0.049798165 0
0.86046368 1.334747 0.36832571 0
0.84540612 1.3338928 0.47345802 0
0.83466095 1.3332834 0.58329266 0
1.0047264 1.3626781 -0.049904183 0
1.3017268 1.3832793 0.072532959 0
1.3034085 1.3833959 0.20646106 0
1.3024786 1.3833314 0.34223393 0
0.86542565 1.3530155 0.36988243 0
0.83507055 1.3509099 0.47038236 0
0.83323401 1.3507826 0.58315885 0
1.0112113 1.3829926 -0.050189789 0
1.2498732 1.4025697 0.070738941 0
1.2463384 1.4022797 0.20049833 0
1.014606 1.3832711 0.29046273 0
0.8446216 1.3693275 0.36490384 0
0.84251994 1.3691552 0.47331184 0
0.83444124 1.3684925 0.58421075 0
1.0174642 1.4034907 -0.050476581 0
1.2392421 1.4244971 0.070429772 0
1.2489122 1.4254131 0.20099272 0
0.88940758 1.3913615 0.26809901 0
0.85410029 1.3880172 0.36773255 0
0.84510833 1.3871654 0.47469714 0
0.836968 1.3863944 0.58590531 0
1.0009092 1.4217449 -0.049954068 0
0.65752453 1.3848522 0.049624246 0
0.64082199 1.3830577 0.13551392 0
0.64133376 1.3831127 0.22343552 0
0.6504038 1.3840872 0.31592461 0
0.84149832 1.4046181 0.47408611 0
0.84473532 1.4049659 0.58987832 0
1.0066602 1.4423122 -0.050241109 0
0.54752868 1.3871276 0.045731552 0
0.5576424 1.3883432 0.12669608 0
0.55632168 1.3881845 0.20830518 0
0.55523282 1.3880537 0.29191318 0
0.84703702 1.4231266 0.47661334 0
0.83952612 1.4222238 0.58854336 0
0.98531932 1.4594841 -0.049562223 0
0.5443688 1.4008434 0.045681126 0
0.55062073 1.4016749 0.12612735 0
0.55567771 1.4023473 0.20851073 0
0.54646701 1.4011225 0.29011315 0
0.83773452 1.4398572 0.47424194 0
0.83290619 1.4392151 0.58670759 0
0.99744982 1.4810561 -0.050097492 0
0.55324358 1.4162804 0.04607103 0
0.54253584 1.414719 0.12546033 0
0.55514449 1.4165576 0.20876932 0
0.54411203 1.4149488 0.29000509 0
0.85170931 1.4598037 0.47976303 0
0.83192736 1.456919 0.58731824 0
0.99287802 1.5003626 -0.050039884 0
0.56107634 1.4318327 0.046431068 0
0.54692584 1.4295869 0.12616727 0
0.54672343 1.4295548 0.20762071 0
0.55102271 1.4302372 0.29233533 0
0.8343007 1.4751953 0.47480798 0
0.83730263 1.4756718 0.59068722 0
0.98414057 1.5189162 -0.049840052 0
0.55294162 1.4449043 0.046220575 0
0.54502732 1.4435458 0.12621042 0
0.55273503 1.4448688 0.20914051 0
0.55193919 1.4447322 0.29316866 0
0.84561497 1.4951394 0.47960326 0
0.82880813 1.4922546 0.58833605 0
0.97296399 1.5368793 -0.049559675 0
0.5654735 1.461643 0.046765856 0
0.54858524 1.4585248 0.12686919 0
0.5618059 1.4609658 0.21126023 0
0.55189258 1.4591354 0.2938014 0
0.84175378 1.5126536 0.4793604 0
0.84811312 1.5138277 0.5977717 0
0.98912066 1.5600474 -0.050281543 0
0.54863673 1.4729702 0.046251368 0
0.54292935 1.4718419 0.12654085 0
0.54267818 1.4717922 0.20823844 0
0.54552132 1.4723543 0.29283801 0
0.84256071 1.5310746 0.48077479 0
0.84972638 1.5324912 0.59987861 0
0.97805792 1.5780011 -0.050022837 0
0.54751462 1.4872416 0.046314072 0
0.54901809 1.4875585 0.12751999 0
0.55670792 1.4891795 0.21134505 0
0.5510723 1.4879916 0.29502398 0
0.84729367 1.5504357 0.48360658 0
0.84306771 1.5495448 0.59859037 0
0.96988088 1.5964173 -0.049877226 0
0.55372614 1.5032033 0.046651829 0
0.542867 1.5007709 0.12717564 0
0.54312867 1.5008296 0.20939822 0
0.54083747 1.5003164 0.29314023 0
0.83902925 1.567108 0.48209801 0
0.83829194 1.5669429 0.59818834 0
0.97497422 1.6178796 -0.050226606 0
0.55244142 1.5176336 0.046722904 0
0.54778725 1.5165294 0.12807147 0
0.56058437 1.5195656 0.21322522 0
0.55094522 1.5172787 0.29662564 0
0.85422963 1.589233 0.48867998 0
0.83821827 1.5854343 0.59987903 0
0.96048504 1.6346921 -0.049866281 0
0.53955787 1.5292114 0.046373986 0
0.55627877 1.5334015 0.12938775 0
0.55876666 1.534025 0.21352468 0
0.55362707 1.532737 0.29822499 0
0.83837026 1.6040912 0.48472521 0
0.83315665 1.6027848 0.5995453 0
0.95923346 1.6547399 -0.050001353 0
0.53762811 1.543429 0.046433743 0
0.55268687 1.5474048 0.12938891 0
0.54308075 1.5448686 0.21127224 0
0.54027039 1.5441266 0.29564878 0
0.84728593 1.6251838 0.4893465 0
0.82867628 1.6202706 0.59955281 0
0.96164745 1.675907 -0.050282046 0
0.55555838 1.5632045 0.047236159 0
0.55236095 1.5623171 0.12977396 0
0.54846305 1.5612353 0.21298066 0
0.55522984 1.5631133 0.30059889 0
0.8339594 1.6404696 0.48639601 0
0.8418749 1.6426663 0.60725117 0
0.9597891 1.6960398 -0.050414808 0
0.55862194 1.5792435 0.047497973 0
0.55038649 1.5768459 0.12999688 0
0.54691869 1.5758362 0.21343292 0
0.56532544 1.5811951 0.3043381 0
0.85157937 1.6645355 0.4942244 0
0.83455104 1.6595778 0.60624927 0
0.93290812 1.7086456 -0.04962359 0
0.85130602 1.6837691 0.38173747 0
0.83453089 1.6786551 0.49013007 0
0.84657091 1.6823256 0.6137085 0
0.9263503 1.7271453 -0.049596641 0
0.8563208 1.7048292 0.38455814 0
0.84327728 1.7006726 0.49508828 0
0.84562892 1.7014221 0.61568934 0
0.92483407 1.747305 -0.049768012 0
0.85544342 1.7242261 0.38587752 0
0.83329862 1.7168609 0.49359906 0
0.83628553 1.7178544 0.61411744 0
0.92424387 1.7679169 -0.049984697 0
0.85519105 1.7439806 0.38743728 0
0.83003801 1.7352617 0.49454045 0
0.82894653 1.7348833 0.61350739 0
0.92584163 1.7894841 -0.050295237 0
0.84006673 1.7585361 0.38503772 0
0.83473772 1.7566134 0.49838337 0
0.83620971 1.7571446 0.61941612 0
0.90998441 1.8047411 -0.049952015 0
0.83966678 1.778365 0.38668886 0
0.83329993 1.7759768 0.50015891 0
0.83189195 1.7754487 0.62035531 0
0.9069435 1.8247342 -0.050105494 0
0.83626717 1.7972034 0.38759503 0
0.831083 1.795184 0.50175196 0
0.82867819 1.7942473 0.6218918 0
0.89715558 1.8421208 -0.050009627 0
0.83635193 1.8175497 0.38952973 0
0.82581836 1.813293 0.50234598 0
0.82500464 1.8129641 0.62333626 0
0.8852933 1.8585688 -0.049841419 0
0.82497174 1.8333042 0.38837406 0
0.83331627 1.8367991 0.50762862 0
0.81872553 1.8306881 0.62372434 0
0.8893072 1.8817765 -0.050298136 0
0.83594912 1.8586345 0.39348462 0
0.82936019 1.8557768 0.50889355 0
0.82642823 1.8545052 0.63052493 0
0.86885756 1.8943626 -0.049811557 0
0.83702761 1.8800788 0.39594492 0
0.83007807 1.8769602 0.51195705 0
0.8226704 1.8736359 0.63229889 0
0.86419398 1.913898 -0.049949635 0
0.82426614 1.8953727 0.39460281 0
0.81878525 1.8928298 0.51073092 0
0.82136101 1.8940248 0.63531035 0
0.86023921 1.9338846 -0.050126322 0
0.83183652 1.9202695 0.39905939 0
0.81915122 1.9141886 0.51387239 0
0.82324296 1.9161501 0.63992292 0
0.83438772 1.9431763 -0.049441855 0
0.81436819 1.9332678 0.396505 0
0.81441015 1.9332886 0.51523715 0
0.81486374 1.933513 0.63995224 0
0.8423999 1.9692241 -0.050115172 0
0.82373017 1.9596891 0.40166721 0
0.80506831 1.9501582 0.51498163 0
0.81260616 1.954008 0.64292902 0
0.83189648 1.98606 -0.050059043 0
0.80901378 1.9740078 0.40001625 0
0.80114084 1.9698611 0.51683986 0
0.80066174 1.9696088 0.64151305 0
0.81415492 1.998925 -0.04971708 0
0.8019492 1.9922987 0.40062746 0
0.79328054 1.9875926 0.51731569 0
0.78629857 1.9838022 0.63904011 0
0.8082369 2.0181303 -0.049862958 0
0.79069096 2.0083168 0.4000842 0
0.78338224 2.0042288 0.51710278 0
0.78704411 2.0062771 0.64380163 0
0.79537386 2.0334578 -0.049733698 0
0.77825254 2.0235968 0.39924866 0
0.77525729 2.0218716 0.51764935 0
0.77709919 2.0229323 0.64362472 0
0.78492445 2.0501137 -0.049711622 0
0.7700209 2.0412784 0.39971143 0
0.77509588 2.044287 0.52136564 0
0.78340584 2.0492134 0.65136933 0
0.78159791 2.0711 -0.049995985 0
0.76217872 2.0592546 0.40036049 0
0.76708692 2.0622485 0.5221619 0
0.77090162 2.0645754 0.65021056 0
0.77366906 2.0894394 -0.05009973 0
0.76270062 2.0825579 0.4036018 0
0.76790565 2.0858235 0.52652007 0
0.76908833 2.0865655 0.65436232 0
0.76488584 2.1073184 -0.050177794 0
0.75638705 2.101836 0.40488288 0
0.75223678 2.0991585 0.52450329 0
0.76125854 2.1049786 0.6557194 0
0.74687952 2.1191516 -0.049871031 0
0.75580722 2.1250713 0.40800396 0
0.73993546 2.1145473 0.52388054 0
0.74900573 2.1205614 0.65500522 0
0.73926157 2.137805 -0.050016817 0
0.74151474 2.1393402 0.40700847 0
0.73728377 2.1364574 0.52721488 0
0.73762876 2.1366925 0.65482169 0
0.72977871 2.1552823 -0.05009282 0
0.72787911 2.1539526 0.40626439 0
0.7309553 2.1561058 0.52919716 0
0.73246914 2.1571655 0.65788084 0
0.70511419 2.1619158 -0.049511626 0
0.71884829 2.1717889 0.40701804 0
0.72026044 2.1728041 0.52950931 0
0.72524065 2.1763842 0.66004372 0
0.70329446 2.1849065 -0.049942415 0
0.72244006 2.1990387 0.41185239 0
0.71820039 2.1959093 0.53348154 0
0.72139627 2.1982684 0.6640923 0
0.68640119 2.1968598 -0.049715035 0
0.70437878 2.2104831 0.40991101 0
0.69793457 2.2055998 0.53001314 0
0.7098965 2.2146642 0.66434538 0
0.67897266 2.2159758 -0.049920276 0
0.68990451 2.2244785 0.40915629 0
0.69123036 2.2255099 0.53227782 0
0.69719917 2.2301524 0.66408044 0
0.65942401 2.2256064 -0.04958488 0
0.68541223 2.2463503 0.41170973 0
0.6865657 2.2472711 0.53553969 0
0.67867476 2.2409725 0.66082871 0
0.65358168 2.2461612 -0.049884088 0
0.67672414 2.2651155 0.41299632 0
0.67310029 2.2621474 0.53516799 0
0.67238265 2.2615597 0.6641624 0
0.64486331 2.2645791 -0.050064374 0
0.6605956 2.2777987 0.41189542 0
0.66061622 2.2778161 0.53529972 0
0.66032952 2.277575 0.66455537 0
0.63330775 2.2807231 -0.05012377 0
0.72144932 2.3567016 0.066278279 0
0.71982092 2.3552978 0.18722078 0
0.72754282 2.3619542 0.31195274 0
0.65152186 2.2964239 0.41321233 0
0.64484602 2.2906692 0.53407574 0
0.64810449 2.293478 0.66496837 0
0.60377818 2.2810349 -0.049336899 0
0.68218809 2.3503644 0.065073572 0
0.68904907 2.356431 0.1848096 0
0.67991167 2.3483517 0.30386814 0
0.6391297 2.3122926 0.41349328 0
0.64110094 2.3140354 0.53824985 0
0.63342017 2.3072443 0.66413689 0
0.60336441 2.3070064 -0.049944453 0
0.66078275 2.3590779 0.064711779 0
0.65364581 2.3526056 0.18170087 0
0.65740329 2.3560133 0.30176577 0
0.62480587 2.3264513 0.41318062 0
0.61772901 2.3200333 0.53378826 0
0.61854166 2.3207703 0.66328365 0
0.5918017 2.3231976 -0.050031431 0
0.64134592 2.3692784 0.06444703 0
0.63292938 2.3614502 0.18070406 0
0.63706917 2.3653007 0.30019778 0
0.61683947 2.3464851 0.41514111 0
0.61476725 2.3445578 0.53858173 0
0.60964459 2.3397932 0.66589826 0
0.57503313 2.3345122 -0.049872603 0
0.6245349 2.3817301 0.064314932 0
0.62610656 2.3832293 0.18177512 0
0.62664706 2.3837447 0.30111027 0
0.60339588 2.3615663 0.41528255 0
0.60160321 2.3598564 0.53888345 0
0.59112889 2.3498654 0.66317707 0
0.56490034 2.3521657 -0.050050292 0
0.60991842 2.3962026 0.064298585 0
0.6027506 2.3891909 0.18041492 0
0.61048275 2.3967545 0.30064362 0
0.59344965 2.3800929 0.41674134 0
0.58540505 2.3722236 0.53786594 0
0.58862585 2.3753741 0.66976947 0
0.54763156 2.3628428 -0.049880553 0
0.60735303 2.4227524 0.064900599 0
0.60272759 2.4181125 0.1826006 0
0.5944826 2.4098413 0.30025458 0
0.57823771 2.3935454 0.41639951 0
0.57413322 2.3894279 0.53922999 0
0.57433599 2.3896313 0.66972047 0
0.53621918 2.3793771 -0.050015405 0
0.59681088 2.4417102 0.065118909 0
0.60475236 2.4498799 0.18518631 0
0.60793477 2.4531536 0.3075234 0
0.55803591 2.4018209 0.41428837 0
0.5643701 2.4083371 0.54143465 0
0.55747682 2.4012456 0.66825056 0
0.5221892 2.3932927 -0.050026957 0
0.61493152 2.4911358 0.066839933 0
0.61667651 2.4929767 0.18941514 0
0.61702925 2.4933488 0.31388903 0
0.54319161 2.4154503 0.41417435 0
0.55117375 2.4238713 0.54212278 0
0.55070502 2.4233768 0.67291963 0
0.50945956 2.408632 -0.050116215 0
0.53136986 2.432338 0.415259 0
0.54434568 2.4463775 0.5460372 0
0.53975254 2.4414077 0.67527127 0
0.48751649 2.413846 -0.049725607 0
0.52532834 2.4558048 0.41864228 0
0.51709038 2.4466634 0.53999472 0
0.52007788 2.4499784 0.67240101 0
0.47721514 2.4318976 -0.049962591 0
0.50234026 2.4604943 0.41563725 0
0.50317138 2.4614401 0.54058909 0
0.5079177 2.4668424 0.67427039 0
0.45686468 2.4384785 -0.049663965 0
0.48325476 2.4692888 0.4141413 0
0.4850702 2.4714084 0.53914785 0
0.49249336 2.4800749 0.67422402 0
0.44902822 2.4597237 -0.050062466 0
0.47305009 2.4884946 0.41620162 0
0.47401616 2.4896517 0.54140764 0
0.47348568 2.4890165 0.671969 0
0.436663 2.4758544 -0.050226048 0
0.45825514 2.502387 0.41653568 0
0.45503864 2.4984345 0.53964639 0
0.45353147 2.4965827 0.66913116 0
0.41567823 2.481307 -0.049908586 0
0.43976614 2.5116799 0.41542965 0
0.44194606 2.5144286 0.54106665 0
0.44605502 2.5196097 0.67462516 0
0.39900216 2.4919741 -0.04984146 0
0.42445233 2.5249083 0.41567871 0
0.42003712 2.5191948 0.53782195 0
0.42984757 2.5318902 0.67449212 0
0.38958427 2.5122089 -0.050211944 0
0.40965638 2.5388708 0.41622171 0
0.40938857 2.5385151 0.54078418 0
0.4110823 2.5407648 0.67270172 0
0.37153843 2.5211251 -0.050083201 0
0.38878724 2.5446472 0.41422909 0
0.3910816 2.547776 0.53962481 0
0.39015099 2.5465071 0.66944134 0
0.35634467 2.533884 -0.050134219 0
0.3857924 2.5751209 0.42007986 0
0.3750585 2.5600898 0.53981847 0
0.38636962 2.5759292 0.67839253 0
0.33677319 2.5404153 -0.049922343 0
0.36160526 2.5761311 0.41673595 0
0.3601996 2.5741093 0.54078364 0
0.35628143 2.5684738 0.6686933 0
0.32323006 2.5555933 -0.050095685 0
0.34305158 2.5848825 0.41589943 0
0.34285405 2.5845904 0.54039484 0
0.3421742 2.583586 0.67054898 0
0.304463 2.5630665 -0.049945563 0
0.31857255 2.5844917 0.41234878 0
0.32257357 2.5905674 0.53830224 0
0.32966152 2.6013303 0.67378277 0
0.28842452 2.5746086 -0.049979221 0
0.30688539 2.6034248 0.4147754 0
0.30963668 2.6077192 0.54074317 0
0.30625156 2.6024354 0.66888654 0
0.2685748 2.5800841 -0.049765963 0
0.28799149 2.6112492 0.41388834 0
0.29488674 2.6223166 0.5422278 0
0.29104534 2.6161509 0.67032456 0
0.25190136 2.5905192 -0.049771819 0
0.27103451 2.6221089 0.41398457 0
0.26963291 2.6197948 0.53711498 0
0.2743617 2.6276021 0.67074871 0
0.23735757 2.6045873 -0.04993685 0
0.25382683 2.6325676 0.41402486 0
0.25244084 2.6302128 0.53715855 0
0.25089321 2.6275835 0.66576046 0
0.22028698 2.6144764 -0.04993641 0
0.23172195 2.6344757 0.41161582 0
0.23326065 2.637167 0.53595757 0
0.24263544 2.653563 0.67334902 0
0.2036673 2.6251838 -0.049978182 0
0.22086687 2.6561642 0.41507721 0
0.219723 2.6541038 0.53865588 0
0.21750219 2.6501036 0.66699278 0
0.1821378 2.6268477 -0.049661446 0
0.19712938 2.6546707 0.41183662 0
0.2027082 2.6650245 0.53912699 0
0.19957747 2.659214 0.66674072 0
0.16937001 2.644799 -0.050013859 0
0.17694898 2.6592991 0.41046602 0
0.18087734 2.666815 0.53624827 0
0.18026222 2.6656382 0.66534108 0
0.15012385 2.6505229 -0.049881112 0
0.16179742 2.673559 0.41193184 0
0.16115655 2.6722944 0.53486657 0
0.15693058 2.663955 0.66030061 0
0.13136543 2.6570351 -0.049790196 0
0.14137407 2.6774182 0.41048679 0
0.14161177 2.6779022 0.53363335 0
0.14172561 2.678134 0.66274357 0
0.114019 2.6663747 -0.04982096 0
0.12529601 2.6900909 0.41161314 0
0.12187799 2.6829026 0.53227466 0
0.12240949 2.6840203 0.66145813 0
0.095721446 2.6737065 -0.049781255 0
0.10765972 2.6996508 0.41191584 0
0.10758313 2.6994843 0.53525645 0
0.10009267 2.6832061 0.65723747 0
0.083609186 2.6948774 -0.050291583 0
0.085388504 2.6988759 0.40939301 0
0.085623346 2.6994038 0.53221983 0
0.084183358 2.6961677 0.65941095 0
0.063630842 2.6986732 -0.050129872 0
0.063033246 2.6972835 0.40673479 0
0.060600363 2.6916251 0.52651221 0
0.067887269 2.7085724 0.6614123 0
0.043625139 2.7021139 -0.049965031 0
0.042680465 2.6998384 0.40531415 0
0.043609284 2.7020757 0.5275147 0
0.050231777 2.7180283 0.66217345 0
0.025874039 2.7108803 -0.050015546 0
0.02743127 2.7147691 0.40737244 0
0.029658576 2.720331 0.53138608 0
0.024666687 2.7078655 0.6542803 0
0.0037579152 2.7084436 -0.04964567 0
0.0079571819 2.7193251 0.40663624 0
0.010041437 2.7247257 0.53035879 0
0.0077721686 2.7188456 0.6559518 0
-0.012664237 2.720593 -0.049843673 0
-0.0099333907 2.7279434 0.40707609 0
-0.012138524 2.722008 0.52689981 0
-0.0071665435 2.7353911 0.66016781 0
-0.028257469 2.735487 -0.050152697 0
-0.029951433 2.7307453 0.40599924 0
-0.034536041 2.7179124 0.52306843 0
-0.032652833 2.7231839 0.65180629 0
-0.046737172 2.74265 -0.050176013 0
-0.052314021 2.7263963 0.4030664 0
-0.053281285 2.7235773 0.52278614 0
-0.051236011 2.7295382 0.65174657 0
-0.070856787 2.732738 -0.049566243 0
-0.073191769 2.7256432 0.40118718 0
-0.070681699 2.7332702 0.52399856 0
-0.073788978 2.7238283 0.64653069 0
-0.084325738 2.7551959 -0.050181959 0
-0.09445969 2.7230453 0.39889255 0
-0.093045034 2.7275333 0.51990056 0
-0.094727047 2.7221971 0.64322966 0
-0.10564259 2.7531323 -0.049887344 0
-0.11001868 2.7386138 0.40151882 0
-0.11348633 2.7271094 0.51776206 0
-0.11265514 2.729867 0.64407742 0
-0.12527411 2.756186 -0.049793884 0
-0.10500626 2.8266263 0.064410724 0
-0.1072484 2.8188338 0.18095861 0
-0.1057081 2.824187 0.30060995 0
-0.1279311 2.7469518 0.40226814 0
-0.13159303 2.7342248 0.51833081 0
-0.13239093 2.7314517 0.64239794 0
-0.14422514 2.7614844 -0.049793009 0
-0.1355014 2.7933059 0.062970996 0
-0.13483773 2.7957268 0.17776591 0
-0.1305735 2.8112814 0.29715627 0
-0.14962129 2.7418008 0.39950624 0
-0.15234469 2.7318668 0.51570827 0
-0.14994337 2.7406261 0.6440894 0
-0.16121311 2.7743239 -0.050079182 0
-0.15590359 2.7946939 0.062830716 0
-0.15554293 2.7960777 0.17722753 0
-0.15803485 2.7865174 0.29156226 0
-0.16923706 2.74354 0.39864209 0
-0.16969986 2.7417645 0.51739794 0
-0.17179941 2.7337096 0.63898528 0
-0.18191357 2.7730024 -0.049851552 0
-0.17730249 2.791652 0.062537409 0
-0.17823987 2.7878606 0.17577124 0
-0.17957591 2.7824571 0.28989628 0
-0.18997322 2.7404053 0.39656475 0
-0.19134982 2.7348375 0.51339144 0
-0.19277389 2.7290778 0.63498908 0
-0.2010573 2.7776444 -0.049852815 0
-0.19915117 2.7857928 0.062151577 0
-0.19720478 2.7941132 0.17594782 0
-0.19834198 2.789252 0.29029611 0
-0.20674224 2.7533426 0.39877322 0
-0.20788158 2.748472 0.5165152 0
-0.20998083 2.7394981 0.63751739 0
-0.2211204 2.7781391 -0.049711276 0
-0.21471788 2.8071508 0.062771954 0
-0.21677448 2.7978318 0.17587136 0
-0.21716161 2.7960777 0.29074422 0
-0.22988085 2.7384429 0.39375782 0
-0.23039074 2.7361324 0.5108521 0
-0.22844921 2.74493 0.63801569 0
-0.24075608 2.7802176 -0.049637072 0
-0.23621051 2.8021221 0.062435754 0
-0.23308669 2.8171754 0.17753714 0
-0.23557247 2.8051968 0.29165727 0
-0.24605529 2.7546813 0.39694515 0
-0.25155535 2.7281773 0.50678992 0
-0.25039467 2.7337706 0.63159525 0
-0.25890589 2.7896807 -0.049840637 0
-0.25258848 2.8221745 0.063022435 0
-0.2552565 2.8084514 0.17614853 0
-0.25135562 2.8285158 0.29521969 0
-0.26723814 2.7468231 0.39391473 0
-0.27085713 2.7282085 0.50553495 0
-0.26861256 2.7397537 0.63253796 0
-0.27744517 2.7978184 -0.05000395 0
-0.26951274 2.8415518 0.063590765 0
-0.26800919 2.8498414 0.18026717 0
-0.26747692 2.8527758 0.29898286 0
-0.28775117 2.740999 0.3914879 0
-0.2876941 2.7413137 0.50878567 0
-0.29050264 2.7258294 0.62519813 0
-0.29836887 2.79251 -0.04968857 0
-0.30485359 2.754003 0.3940044 0
-0.31050947 2.7204182 0.50062996 0
-0.30908343 2.7288861 0.62511951 0
-0.31677622 2.8019581 -0.049916495 0
-0.32667544 2.7382903 0.38915703 0
-0.32737505 2.7337909 0.50412488 0
-0.3288621 2.7242265 0.62190592 0
-0.33566046 2.8092227 -0.050073639 0
-0.34497207 2.7439291 0.38989186 0
-0.3483898 2.7199638 0.49854422 0
-0.34805769 2.7222927 0.61994231 0
-0.35665831 2.8010879 -0.049684696 0
-0.36543658 2.7334511 0.38653842 0
-0.36781237 2.7151461 0.496084 0
-0.36730954 2.7190204 0.61752415 0
-0.3754245 2.8096926 -0.049907543 0
-0.38560754 2.7226601 0.38317564 0
-0.38462916 2.7310221 0.50064105 0
-0.38522464 2.7259326 0.61945623 0
-0.39444065 2.8174458 -0.050108019 0
-0.40494806 2.7166619 0.38111204 0
-0.40431029 2.7227793 0.49719527 0
-0.40568534 2.7095902 0.61179924 0
-0.4156498 2.8028288 -0.049514867 0
-0.42383659 2.7133989 0.37981397 0
-0.42295879 2.7229877 0.49665982 0
-0.42369658 2.7149286 0.61327249 0
-0.43376663 2.8221421 -0.050146997 0
-0.44261238 2.7099733 0.37853646 0
-0.44230282 2.7138991 0.49310058 0
-0.44338027 2.7002363 0.6065194 0
-0.45397577 2.8166478 -0.049899161 0
-0.46039867 2.71963 0.38066548 0
-0.46169427 2.7000601 0.48804173 0
-0.4614974 2.7030337 0.60713196 0
-0.4736172 2.818542 -0.049924746 0
-0.47943184 2.7099922 0.37792063 0
-0.47978115 2.7034712 0.48881489 0
-0.48038626 2.6921747 0.60217637 0
-0.49320844 2.82218 -0.050021477 0
-0.49842778 2.6947134 0.37379801 0
-0.49825656 2.6988945 0.48700374 0
-0.49861896 2.6900442 0.60093886 0
-0.51290226 2.824717 -0.050087653 0
-0.51640159 2.7012396 0.37530336 0
-0.51686615 2.6848459 0.48211825 0
-0.51691449 2.6831405 0.59781986 0
-0.53265512 2.8266678 -0.050141744 0
-0.53462881 2.7012877 0.37521318 0
-0.53501409 2.6768131 0.47931334 0
-0.53481817 2.689261 0.6001901 0
-0.55245161 2.8278766 -0.050178226 0
-0.55286419 2.6968665 0.37404123 0
-0.55292916 2.6762235 0.47906089 0
-0.55295199 2.6689816 0.59172302 0
-0.57209319 2.8096256 -0.049528837 0
-0.57073641 2.6659367 0.3661643 0
-0.57080948 2.6736798 0.47823331 0
-0.57076275 2.6687274 0.59164095 0
-0.59190214 2.8196149 -0.049896561 0
-0.58875054 2.6766047 0.36895809 0
-0.58831429 2.6568096 0.4727129 0
-0.5884375 2.6623998 0.58913648 0
-0.61206973 2.8323767 -0.050372392 0
-0.60600591 2.65732 0.36416456 0
-0.60571688 2.6489773 0.47027215 0
-0.60614324 2.6612852 0.58888292 0
-0.63151181 2.8226066 -0.050052267 0
-0.62347019 2.652421 0.36309794 0
-0.62302428 2.6429853 0.46851584 0
-0.62328047 2.6484065 0.58384532 0
-0.65116715 2.820123 -0.050001264 0
-0.64022964 2.6374664 0.35951665 0
-0.64014781 2.6360996 0.46653298 0
-0.64033508 2.6392269 0.58042771 0
-0.64034742 2.6394327 0.70026815 0
-0.67098176 2.8202901 -0.050053947 0
-0.65769309 2.6370659 0.35970899 0
-0.65674382 2.6239774 0.46287346 0
-0.65653038 2.6210344 0.57335454 0
-0.6567502 2.6240654 0.69313806 0
-0.6918 2.8317621 -0.050520681 0
-0.67338061 2.6155643 0.46051821 0
-0.67346275 2.6165278 0.57204556 0
-0.67283237 2.6091287 0.68632019 0
-0.71030998 2.8162439 -0.050029196 0
-0.69102085 2.6192026 0.46225864 0
-0.69024825 2.611311 0.57052809 0
-0.69062501 2.6151597 0.69013679 0
-0.72997957 2.8143325 -0.050034139 0
-0.70654917 2.6025279 0.56761092 0
-0.70604551 2.5979748 0.68238473 0
-0.74958014 2.8118074 -0.050025921 0
-0.72257012 2.5929022 0.56442332 0
-0.72349995 2.6004381 0.68462372 0
-0.76940709 2.8109648 -0.050087195 0
-0.73895556 2.5873694 0.67913455 0
-0.78880394 2.8069212 -0.050042048 0
-0.75407517 2.5739024 0.67353189 0
-0.80871189 2.8062139 -0.050126288 0
-0.82570344 2.7884672 -0.049602229 0
-0.84656054 2.7932787 -0.049904149 0
-0.86743766 2.7970932 -0.050180074 0
-0.88586658 2.7885277 -0.050014339 0
-0.90556777 2.7860727 -0.050080329 0
-0.92109436 2.7660534 -0.049510647 0
-0.94273025 2.7717118 -0.049892157 0
-0.96257031 2.7696002 -0.049997866 0
-0.97873682 2.7541246 -0.049617611 0
-0.9997223 2.7559474 -0.049887322 0
-1.0213689 2.759258 -0.050223514 0
-1.0404012 2.7536697 -0.050237503 0
-1.0585982 2.7455554 -0.050165411 0
-1.07901 2.7439103 -0.050346367 0
-1.0942342 2.7276459 -0.049982399 0
-1.113631 2.7231157 -0.050071958 0
-1.1338435 2.720479 -0.050243948 0
-1.153258 2.7155559 -0.050338447 0
-1.1682124 2.6998978 -0.050026849 0
-1.1850741 2.6891403 -0.049911812 0
-1.2091144 2.6944351 -0.050433446 0
-1.2185125 2.6675537 -0.049701855 0
-1.2408779 2.6686852 -0.050081223 0
-1.2566239 2.6559415 -0.0499206 0
-1.2764742 2.6514127 -0.050096732 0
-1.2908989 2.6363895 -0.049859937 0
-1.3095459 2.629427 -0.049956888 0
-1.3282218 2.6223702 -0.050060261 0
-1.3402556 2.6037128 -0.049695257 0
-1.3646502 2.6062529 -0.050215192 0
-1.376642 2.5878966 -0.049876437 0
-1.3943415 2.579016 -0.04994148 0
-1.4162775 2.5765676 -0.050290339 0
-1.4296761 2.5608821 -0.050085735 0
-1.4382945 2.5384779 -0.049595751 0
-1.4605092 2.5359635 -0.049974792 0
-1.4796001 2.528671 -0.050159007 0
-1.4914215 2.5113716 -0.049910519 0
-1.5086768 2.5014801 -0.049998909 0
-1.5242858 2.4893796 -0.049997825 0
-1.5416327 2.4794385 -0.05010457 0
-1.5492897 2.457619 -0.049672905 0
-1.574471 2.4569883 -0.050231814 0
-1.5811888 2.4344678 -0.049777191 0
-1.604598 2.4311833 -0.050240722 0
-1.613822 2.4118659 -0.049948849 0
-1.6220087 2.3917367 -0.04961947 0
-1.6377163 2.3797741 -0.049695291 0
-1.6603295 2.3747458 -0.050129294 0
-1.6725756 2.3590126 -0.050040148 0
-1.6810371 2.3397067 -0.049774118 0
-1.707296 2.3374178 -0.050396085 0
-1.7181556 2.3203859 -0.050265849 0
-1.7285492 2.3030558 -0.050125081 0
-1.7377951 2.2848513 -0.049941853 0
-1.7502809 2.2695696 -0.049923271 0
-1.7633086 2.254751 -0.049939007 0
-1.7755404 2.23927 -0.049926639 0
-1.2222188 1.7918698 0.51302397 0
-1.7808537 2.2183449 -0.049608845 0
-1.2353145 1.7884835 0.51784104 0
-1.7977786 2.2066133 -0.04982866 0
-1.2319546 1.7722036 0.51034051 0
-1.8215261 2.1997869 -0.050357196 0
-1.2352144 1.7612702 0.50796509 0
-1.821505 2.1751807 -0.049834866 0
-1.2399551 1.7515382 0.5067994 0
-1.8322967 2.1586926 -0.049804106 0
-1.2350364 1.7350128 0.49871024 0
-1.8428507 2.1420629 -0.049772341 0
-1.2278212 1.7173169 0.48918661 0
-1.8569498 2.1278396 -0.049902394 0
-1.2372048 1.7112634 0.4917641 0
-1.8751621 2.1161928 -0.050214522 0
-1.2327656 1.6960365 0.48457944 0
-1.8740811 2.0920069 -0.049714003 0
-1.2385827 1.6876945 0.4847967 0
-1.89685 2.0829875 -0.050231457 0
-1.2347676 1.6733805 0.4783684 0
-1.9005653 2.0620799 -0.049955983 0
