# .PCD v0.7 - Point Cloud Data file format
VERSION 0.7
FIELDS x y z intensity
SIZE 4 4 4 4
TYPE F F F F
COUNT 1 1 1 1
WIDTH 1360
HEIGHT 1
VIEWPOINT 0 0 0 1 0 0 0
POINTS 1360
DATA ascii
-1.0976069 -0.22825909 -0.050334115 0
-0.8738656 0.38579983 0.039001513 0
-0.87264609 0.38914686 0.1049595 0
-0.87541544 0.38154626 0.17352696 0
-1.0743799 -0.22204483 -0.049846206 0
-0.86321032 0.38101143 0.039034523 0
-0.85928965 0.39220822 0.10416675 0
-0.86184609 0.38490748 0.17213276 0
-1.05514 -0.22662282 -0.049777869 0
-0.85036087 0.38267279 0.038829539 0
-0.85304701 0.37468052 0.10573077 0
-0.84790844 0.38996977 0.1704534 0
-1.0418594 -0.24955332 -0.05040729 0
-0.838772 0.38088638 0.038760778 0
-0.83921683 0.37950552 0.10477357 0
-0.83633065 0.38846517 0.1700584 0
-1.0219588 -0.25252855 -0.050295006 0
-0.82572365 0.38399249 0.038514972 0
-0.82579893 0.38374829 0.10390518 0
-0.82619649 0.38245887 0.17054211 0
-1.0011861 -0.2522738 -0.050072275 0
-0.81513119 0.37936819 0.038563907 0
-0.81509757 0.37948245 0.10401223 0
-0.81402624 0.38311934 0.1697946 0
-0.97977608 -0.24918103 -0.049754806 0
-0.80360985 0.37791598 0.038499992 0
-0.80088991 0.38759828 0.10275181 0
-0.8000772 0.39049119 0.1678213 0
-0.96401131 -0.26634634 -0.050197024 0
-0.79065132 0.38200641 0.038236834 0
-0.79053217 0.38245201 0.1029909 0
-0.78806168 0.39169139 0.1670396 0
-0.94424927 -0.2690506 -0.050112501 0
-0.78019619 0.37698519 0.10327926 0
-0.77895015 0.38189191 0.16833535 0
-0.92448568 -0.27150691 -0.050028272 0
-0.76774156 0.38002819 0.10264051 0
-0.76735497 0.38163513 0.16787837 0
-0.9039579 -0.27034724 -0.049821023 0
-0.75741118 0.37439275 0.16874173 0
-0.88785231 -0.28915989 -0.050352976 0
-0.74289149 0.38793969 0.1657916 0
-0.86740434 -0.28828418 -0.050174031 0
-0.73431629 0.3739872 0.16794123 0
-0.84640622 -0.28381407 -0.049874306 0
-0.72216785 0.37741768 0.16691576 0
-0.82494593 -0.27549231 -0.049445234 0
-0.80834192 -0.29528594 -0.050043654 0
-0.78674018 -0.2844311 -0.049542226 0
-0.76895171 -0.29897797 -0.049966715 0
-0.74954057 -0.30284357 -0.050014384 0
-0.72975016 -0.30361533 -0.049959645 0
-0.71066111 -0.31118762 -0.050157864 0
-0.69020146 -0.30435598 -0.049848389 0
-0.67025733 -0.30165803 -0.049696386 0
-0.65062612 -0.30244482 -0.049678121 0
-0.63146001 -0.31286764 -0.050013103 0
-0.61170882 -0.31331539 -0.050000224 0
-0.59190422 -0.31106687 -0.049899954 0
-0.57216173 -0.30824113 -0.049787991 0
-0.55246413 -0.31525588 -0.050036214 0
-0.53263497 -0.31930375 -0.050187413 0
-0.51315546 -0.30713809 -0.049768507 0
-0.49380338 -0.2990067 -0.049502291 0
-0.47309512 -0.31964505 -0.050273199 0
-0.45438853 -0.30176961 -0.049676072 0
-0.49590325 0.32530862 0.039239567 0
-0.43433031 -0.30635118 -0.049891021 0
-0.48339012 0.31575114 0.039612211 0
-0.41473168 -0.30421472 -0.049874421 0
-0.47414869 0.34483606 0.038605578 0
-0.39415911 -0.31150293 -0.050204948 0
-0.46162495 0.33560872 0.038977008 0
-0.37489393 -0.30558407 -0.050070539 0
-0.44930795 0.33041853 0.039209537 0
-0.44242305 0.27157456 0.1123356 0
-0.44115189 0.26071006 0.18641894 0
-0.44084826 0.25811517 0.26189795 0
-0.44234264 0.27088737 0.33541474 0
-0.44126603 0.26168585 0.41979045 0
-0.35528645 -0.30301487 -0.050065227 0
-0.43554032 0.31534016 0.039804008 0
-0.43028414 0.27484137 0.11214691 0
-0.42828551 0.25944179 0.18693012 0
-0.42831779 0.25969046 0.26189056 0
-0.42849037 0.26102024 0.33923721 0
-0.42877224 0.26319206 0.41980499 0
-0.42911476 0.26583129 0.50472951 0
-0.33654153 -0.29440153 -0.049850836 0
-0.42012393 0.29168355 0.040715143 0
-0.41997069 0.29060894 0.11061741 0
-0.42041457 0.29372156 0.18099579 0
-0.41858658 0.28090358 0.25686288 0
-0.41896588 0.28356314 0.3322334 0
-0.41910192 0.28451705 0.4115966 0
-0.41945913 0.28702193 0.49487573 0
-0.3167088 -0.2937485 -0.049932156 0
-0.40513358 0.27496243 0.041384492 0
-0.40693751 0.28656465 0.1112538 0
-0.40516248 0.27514839 0.18471441 0
-0.40527564 0.27587616 0.25863215 0
-0.40735254 0.2892338 0.33093694 0
-0.40625301 0.28216225 0.41334516 0
-0.41017699 0.30739963 0.48547575 0
-0.2965484 -0.29467702 -0.050079938 0
-0.39094639 0.2658655 0.041786063 0
-0.39194664 0.27180499 0.11307718 0
-0.39096174 0.26595664 0.18676025 0
-0.38983467 0.25926399 0.26344579 0
-0.39142975 0.26873577 0.33851579 0
-0.39103526 0.26639318 0.42079753 0
-0.39777097 0.30639035 0.48696652 0
-0.27567008 -0.29896188 -0.050359044 0
0.071086608 -2.2107146 0.13172472 0
-0.38587576 0.30862844 0.48688877 0
-0.25866213 -0.28229129 -0.04988623 0
0.11573156 -2.2080083 0.13192409 0
-0.3735123 0.3084476 0.48812002 0
-0.24021305 -0.27419126 -0.049732484 0
0.16101654 -2.2076597 0.13223042 0
-0.36675933 0.3356173 0.47545782 0
-0.21887387 -0.27967584 -0.050083447 0
0.20422478 -2.1968651 0.13217652 0
-0.35820526 0.35167742 0.46849623 0
-0.2017688 -0.26595974 -0.049741294 0
0.24887384 -2.1923656 0.1323732 0
-0.34685263 0.35424417 0.46850291 0
-0.18227877 -0.26288235 -0.049797229 0
0.29687569 -2.2008193 0.13306749 0
-0.0065578013 -0.97358465 0.25264147 0
-0.0085567022 -0.96550012 0.41839737 0
-0.33824575 0.36792517 0.4628548 0
-0.16292395 -0.25911736 -0.049837023 0
0.34617981 -2.2122996 0.133898 0
-0.32893482 0.37778527 0.45921972 0
-0.1446474 -0.25130093 -0.049735989 0
0.39126155 -2.206135 0.13410114 0
-0.31510383 0.37047261 0.46454206 0
-0.1212771 -0.26143444 -0.050309949 0
-0.30264142 0.36889166 0.46699002 0
-0.10337055 -0.25202715 -0.050168414 0
-0.30048227 0.40192688 0.45143968 0
-0.08574409 -0.24205291 -0.05001352 0
-0.29268533 0.41447866 0.44658747 0
-0.065354057 -0.2408154 -0.050194677 0
-0.28636739 0.43074888 0.4398081 0
-0.047921576 -0.23055482 -0.050045718 0
-0.26230568 0.39425963 0.46094969 0
-0.028069118 -0.22737122 -0.050172687 0
-0.013643541 -0.20931387 -0.04974328 0
0.0078170514 -0.21031868 -0.050048172 0
0.026783666 -0.20450878 -0.050102901 0
0.048275732 -0.20467329 -0.05039807 0
0.060650669 -0.18309903 -0.049860522 0
0.075507544 -0.16802752 -0.049580127 0
-0.18895568 0.42630076 0.38123971 0
0.10073843 -0.17596638 -0.050209738 0
0.19300778 -0.3764869 0.070090115 0
0.11487385 -0.15952921 -0.049892027 0
0.20965321 -0.35885656 0.069771782 0
-0.16142698 0.42154944 0.38779181 0
-0.2013015 0.50540817 0.49779463 0
0.13394625 -0.15364802 -0.049999241 0
0.2846404 -0.4605428 0.074205384 0
0.55225617 -1.0055535 0.46004868 0
-0.1589248 0.44279599 0.38032192 0
-0.19603105 0.51836443 0.49223623 0
0.15214182 -0.1458621 -0.050040495 0
0.58509988 -1.0002372 0.46183494 0
-0.15520845 0.46064556 0.37439555 0
-0.18569086 0.52079785 0.49368232 0
0.16467173 -0.12716711 -0.049651757 0
0.25876108 -0.30717981 0.068903372 0
0.61427873 -0.98736 0.46217826 0
-0.13665004 0.44932485 0.38207966 0
-0.17635871 0.52529591 0.49384323 0
0.18362398 -0.12096275 -0.049773298 0
0.26902667 -0.2794621 0.068201087 0
0.64456469 -0.97642565 0.46299696 0
-0.11918119 0.4410153 0.38850939 0
-0.16987155 0.53509188 0.49051514 0
0.19625755 -0.10319412 -0.049433183 0
0.29736206 -0.28530562 0.068869576 0
0.68674761 -0.98667455 0.46826947 0
-0.11563421 0.45859152 0.38282949 0
-0.16544862 0.54831821 0.48489204 0
0.22169413 -0.10829438 -0.050037615 0
0.33445045 -0.30550063 0.070147723 0
0.7205283 -0.98073506 0.47032687 0
-0.084104426 0.42653471 0.40080157 0
-0.15058182 0.5428009 0.49207088 0
0.23476084 -0.091532357 -0.049754087 0
0.40579018 -0.38210273 0.073791414 0
0.75705642 -0.9788866 0.47334445 0
-0.059023567 0.40759277 0.41279656 0
-0.14951338 0.56133044 0.48288357 0
0.2562609 -0.089074023 -0.050072249 0
0.48030397 -0.45897734 0.07751172 0
0.80286974 -0.9915452 0.47954056 0
-0.058514275 0.43063128 0.40471461 0
-0.13401978 0.55529362 0.49066818 0
0.27092591 -0.075214632 -0.049924701 0
0.84395629 -0.99497104 0.48394573 0
-0.12893526 0.56659234 0.48653704 0
0.29395768 -0.074602373 -0.050345421 0
0.8820439 -0.99256587 0.487248 0
-0.12026156 0.57196641 0.48659015 0
0.30383864 -0.053475384 -0.049905036 0
0.9165532 -0.98387909 0.48932445 0
0.018548628 0.37973601 0.43957785 0
-0.10920904 0.5737353 0.489281 0
0.3213667 -0.044196729 -0.049976993 0
0.95269805 -0.97708201 0.49192446 0
0.031433307 0.38422281 0.44099495 0
-0.1048573 0.58561236 0.48485574 0
0.33755437 -0.032895807 -0.049971201 0
0.98991352 -0.97117972 0.49484333 0
0.046707116 0.38542801 0.44416076 0
-0.10223494 0.59965044 0.47887009 0
0.35568187 -0.024312859 -0.050093502 0
0.051135264 0.40215576 0.43955523 0
-0.091773309 0.60227627 0.48117089 0
0.37115642 -0.011960989 -0.050060138 0
0.068780385 0.40038943 0.4444308 0
-0.091604628 0.61910653 0.4731434 0
0.38692316 -3.1118791e-05 -0.050053984 0
1.1275759 -0.98383927 0.10601798 0
1.1354223 -0.99426174 0.30847979 0
0.096385919 0.38588911 0.45606685 0
-0.082725592 0.62380272 0.47404844 0
0.40647301 0.0070011565 -0.050277654 0
0.10529342 0.39674616 0.45472932 0
-0.07755322 0.63336098 0.47140163 0
0.4172233 0.025387878 -0.04999736 0
0.12780376 0.39032358 0.46256855 0
0.43426254 0.035738464 -0.050090276 0
-0.06456954 0.64871317 0.46905249 0
0.45580551 0.040802117 -0.050439991 0
-0.049920358 0.64650738 0.47558796 0
0.46586546 0.05965602 -0.050157942 0
-0.042472281 0.65313786 0.47543767 0
0.47488901 0.079393141 -0.04983677 0
-0.034276344 0.65890986 0.47603709 0
0.48931095 0.092805855 -0.049821306 0
1.2119848 -0.70912635 0.10036138 0
-0.032998122 0.67239863 0.47056481 0
0.50872082 0.1008104 -0.050077356 0
1.2099096 -0.65784991 0.098959245 0
-0.024450162 0.6776818 0.47166783 0
0.51427633 0.12369835 -0.049616307 0
0.38615939 0.25886148 0.054967523 0
-0.017328778 0.68454039 0.47158426 0
0.53519028 0.13032448 -0.049962707 0
0.38855752 0.28117126 0.054452196 0
0.83801454 -0.18120253 0.22115158 0
-0.012078264 0.69332081 0.46998388 0
0.5469839 0.14645004 -0.049847804 0
0.39533612 0.29857582 0.054179147 0
0.8392095 -0.14669645 0.21859887 0
-0.0029738334 0.69814104 0.47173449 0
0.56693345 0.15448856 -0.050151832 0
0.41856983 0.2996183 0.054742254 0
0.73232836 -0.0073010973 0.19989526 0
0.73660988 -0.011489397 0.33246389 0
0.73560077 -0.010502344 0.46747515 0
0.00049766031 0.70857763 0.4688412 0
0.57156998 0.17743421 -0.049701743 0
0.42923066 0.3132062 0.054678969 0
0.84145945 -0.080002911 0.21375929 0
0.19442965 0.53717375 0.35167542 0
0.0030738327 0.71970063 0.46535704 0
0.60021752 0.17761803 -0.050441753 0
0.4531624 0.31439364 0.055271856 0
0.84135765 -0.046665791 0.2112948 0
0.19268627 0.55666178 0.34680769 0
0.014127276 0.72273904 0.46889338 0
0.60425299 0.20083106 -0.049987275 0
0.84702951 -0.01933909 0.073688112 0
0.83346754 -0.0070399097 0.2077896 0
0.19165434 0.57501 0.34242558 0
0.019263526 0.7313484 0.46768314 0
0.62068003 0.21266365 -0.05014237 0
0.84013373 0.018623943 0.072600551 0
0.83797699 0.020530934 0.20617396 0
0.83936697 0.019301886 0.34225488 0
0.20671315 0.57869083 0.345341 0
0.023336431 0.74083149 0.46573079 0
0.62553173 0.23462296 -0.04975725 0
0.83935016 0.050310489 0.071835473 0
0.84344858 0.046777483 0.20476183 0
0.84373361 0.046531912 0.33961836 0
0.22318633 0.58144653 0.34886664 0
0.033548675 0.74491507 0.46870044 0
0.64589125 0.24320042 -0.050112307 0
0.84287328 0.077678077 0.071297988 0
0.83839291 0.081442825 0.20193341 0
0.83772868 0.082000963 0.33464757 0
0.92508703 0.0085946266 0.5000363 0
0.26823571 0.56054109 0.36478832 0
0.27291355 0.55661029 0.45503977 0
0.046034895 0.74725449 0.47344038 0
0.65616304 0.26036775 -0.050003208 0
0.83404332 0.1146779 0.07021194 0
0.83515722 0.11376571 0.19944781 0
0.84129411 0.10873925 0.33206347 0
0.93810958 0.029444212 0.49919698 0
0.29320952 0.55763865 0.37179959 0
0.25649133 0.58771199 0.4415845 0
0.046284996 0.75987792 0.4687745 0
0.65470272 0.28680533 -0.049369212 0
0.85089892 0.13019979 0.070331462 0
0.84832937 0.13225091 0.19929953 0
0.84873933 0.13192368 0.33047858 0
0.98301095 0.024746889 0.50885874 0
0.27325597 0.59127933 0.35960025 0
0.24067403 0.6172865 0.42879277 0
0.055216752 0.76532012 0.47086424 0
0.67361814 0.29683214 -0.049678095 0
0.85125488 0.15866661 0.06971243 0
0.83958668 0.16774201 0.19620083 0
0.84122998 0.16646397 0.32555935 0
0.25266567 0.62424833 0.43090865 0
0.064512335 0.77059364 0.47325873 0
0.69136149 0.30802441 -0.049937226 0
0.84673125 0.19028759 0.068896845 0
0.83770329 0.19712877 0.19411701 0
0.84642416 0.19052029 0.32366031 0
0.25646016 0.63758582 0.42879191 0
0.076009415 0.77432847 0.47731823 0
0.70887536 0.31961709 -0.050190058 0
0.84786111 0.21702492 0.068357423 0
0.84779865 0.21707106 0.19370219 0
0.83748108 0.22468686 0.31867808 0
0.28523257 0.63232833 0.43963563 0
0.071845554 0.78983968 0.46983108 0
0.72195607 0.33462012 -0.050252147 0
0.84574157 0.24563384 0.067694858 0
0.84048945 0.24940944 0.19102091 0
0.83877474 0.25064206 0.31611043 0
0.079706334 0.79631698 0.47133735 0
0.72574979 0.35618079 -0.049917251 0
0.85063237 0.2687698 0.067359366 0
0.83922595 0.27675366 0.18920988 0
0.83746666 0.27798504 0.31306481 0
0.85011369 0.26913285 0.44433072 0
0.098789357 0.79501939 0.48101333 0
0.73320645 0.37496382 -0.049755234 0
0.87324756 0.27954692 0.067805097 0
0.82966334 0.30924302 0.18638003 0
0.83815449 0.30345756 0.31055626 0
0.84269482 0.30036402 0.43824521 0
0.10724594 0.80146116 0.48296916 0
0.74613041 0.38998818 -0.049838942 0
0.91678017 0.27683592 0.069148973 0
0.83632511 0.33018303 0.18571879 0
0.83685547 0.32983136 0.30770835 0
0.83801943 0.32905954 0.43317094 0
0.11876752 0.80597216 0.48714769 0
0.7584303 0.40548909 -0.049903531 0
0.96076256 0.27496678 0.070499644 0
0.83903247 0.35349357 0.18459104 0
0.85154766 0.34542012 0.30838701 0
0.84840769 0.34744567 0.43282139 0
0.12148204 0.81637758 0.4851172 0
0.76729828 0.42320079 -0.049831223 0
0.99002701 0.28346062 0.071218379 0
0.83489949 0.38078773 0.1826417 0
0.83871979 0.37839085 0.30324316 0
0.84145457 0.37667507 0.42732155 0
0.12664886 0.82514453 0.48491162 0
0.77609056 0.44090241 -0.049765673 0
1.0261782 0.28835171 0.07222411 0
0.84469336 0.39905548 0.18250391 0
0.84622663 0.39812016 0.30252248 0
0.84709972 0.39758766 0.42573929 0
0.14376254 0.82661569 0.4930838 0
0.79533738 0.45235616 -0.050143793 0
1.0738276 0.28725511 0.073702142 0
0.83264142 0.43024063 0.17966667 0
0.83597869 0.42826217 0.29813695 0
0.84384531 0.42359853 0.42160755 0
0.13465454 0.84403747 0.48312995 0
0.79517049 0.47530258 -0.049725316 0
0.84655756 0.44570607 0.18011937 0
0.84080893 0.44901705 0.29700053 0
0.84017855 0.4493801 0.41748106 0
0.14700504 0.84861439 0.48808441 0
0.81179208 0.48852456 -0.050008386 0
0.85320824 0.46536028 0.1796983 0
0.84203643 0.47160876 0.29518178 0
0.84067672 0.47236919 0.41469634 0
0.14135899 0.8634997 0.4808147 0
0.8223744 0.50525582 -0.050050985 0
0.8555792 0.48722941 0.17878713 0
0.83969706 0.49585158 0.29270208 0
0.84396237 0.493536 0.41282406 0
0.83351833 0.52172887 -0.050124489 0
0.84845406 0.51386225 0.1767621 0
0.84601504 0.51514697 0.29206583 0
0.84325403 0.51660115 0.40988961 0
0.82965332 0.54592896 -0.049604189 0
0.85382873 0.53358221 0.17629905 0
0.84519261 0.53799278 0.29003707 0
0.83602351 0.54267555 0.40518901 0
0.83882767 0.54124343 0.52759314 0
0.85336143 0.55607599 -0.050197668 0
0.84156841 0.56191283 0.17375411 0
0.8417812 0.56180751 0.28755796 0
0.84427792 0.56057179 0.40501943 0
0.84263545 0.56138474 0.52571476 0
0.85919744 0.5752579 -0.050085075 0
0.86883587 0.57063758 0.175978 0
0.84058696 0.58417898 0.28559738 0
0.83844084 0.58520776 0.40092796 0
0.83128363 0.5886386 0.51834857 0
0.8625831 0.59549254 -0.049886234 0
0.9108364 0.57310456 0.17994747 0
0.83765727 0.60705733 0.28335938 0
0.8400833 0.60593176 0.39905146 0
0.84407836 0.60407817 0.52000743 0
0.86653107 0.61532462 -0.049720518 0
0.93050843 0.58661455 0.18126807 0
0.83472735 0.62959665 0.28119105 0
0.83754414 0.62833261 0.39608935 0
0.84420198 0.62534487 0.51710743 0
0.8772884 0.63207936 -0.049830429 0
0.96610636 0.59355813 0.18446705 0
0.84218282 0.64730507 0.28113201 0
0.84570938 0.64577556 0.3961989 0
0.83480257 0.65050596 0.51086718 0
0.88746697 0.64916402 -0.049925547 0
1.0010737 0.60158199 0.18758595 0
0.84384233 0.66743529 0.27998379 0
0.83269697 0.67210335 0.39051089 0
0.83728415 0.67018205 0.50905985 0
0.90486497 0.66340691 -0.050306488 0
1.0479113 0.60560089 0.19207667 0
0.83723396 0.69073707 0.27728254 0
0.84655672 0.68696964 0.39233783 0
0.84045547 0.68943524 0.50759822 0
0.90178746 0.68591738 -0.049907949 0
1.0752192 0.61836004 0.19429883 0
0.85151881 0.7054987 0.27869526 0
0.8385666 0.71054399 0.3882246 0
0.83789104 0.71080714 0.5041827 0
0.27615604 0.9296214 0.45358995 0
0.91698855 0.70127469 -0.050219081 0
0.85770541 0.72351187 0.27857739 0
0.83642954 0.73149246 0.38580674 0
0.84514338 0.72822386 0.50436723 0
0.28571221 0.9380669 0.45654717 0
0.9165836 0.72249937 -0.049943857 0
0.84732383 0.74748856 0.27532703 0
0.84072214 0.74987054 0.38521546 0
0.83577222 0.75165647 0.49874926 0
0.24946417 0.96319896 0.43518388 0
0.92344922 0.74100167 -0.049954668 0
0.8564344 0.76423144 0.27586916 0
0.84065109 0.76970255 0.38351113 0
0.83062059 0.77317953 0.49474558 0
0.84503537 0.76818275 0.62055767 0
0.27172258 0.96691436 0.44506353 0
0.91545993 0.76445591 -0.049415316 0
0.85102171 0.7858876 0.27368888 0
0.8308906 0.79258311 0.37927592 0
0.83902222 0.78987855 0.49560583 0
0.84712309 0.7871843 0.61884618 0
0.29631862 0.97037816 0.45615923 0
0.92907029 0.78063107 -0.049698561 0
0.85421544 0.80448478 0.2731981 0
0.82683963 0.81320858 0.37666386 0
0.84497529 0.80742931 0.4956812 0
0.83595926 0.81030244 0.61148745 0
0.31449506 0.9764756 0.46386233 0
0.94672436 0.79578561 -0.05013926 0
0.85027522 0.82518822 0.27140841 0
0.84889668 0.82560849 0.38109484 0
0.83856553 0.82875794 0.4915334 0
0.83676952 0.82930547 0.60946602 0
0.31540087 0.98824525 0.46254236 0
0.94183379 0.81783086 -0.049747162 0
0.86013323 0.84161723 0.27226612 0
0.84887916 0.84489375 0.37968543 0
0.8368488 0.8483963 0.48912013 0
0.84505302 0.8460077 0.61077803 0
0.32386103 0.99774814 0.46524128 0
0.95395678 0.83487052 -0.049997102 0
0.89450508 0.85137022 0.27774778 0
0.83513981 0.86784595 0.37471217 0
0.83428854 0.86808223 0.48650962 0
0.83895928 0.86678594 0.60599834 0
0.32510737 1.0093961 0.46424723 0
0.96771187 0.85166484 -0.050314415 0
0.92916876 0.8618409 0.28328863 0
0.84052223 0.88524503 0.37487748 0
0.84274453 0.88465828 0.48778385 0
0.84464866 0.88415557 0.60639256 0
0.31586441 1.0237634 0.45790449 0
0.96689361 0.87234509 -0.050102148 0
0.95482689 0.87536889 0.28716221 0
0.82924777 0.90683794 0.37071893 0
0.84050494 0.90401697 0.48545739 0
0.83317703 0.90585333 0.599554 0
0.3164328 1.035345 0.45673597 0
0.96065325 0.89416111 -0.049701136 0
0.99491447 0.88603258 0.29373044 0
0.83866876 0.92310196 0.37207082 0
0.84001428 0.92278272 0.48381934 0
0.83461398 0.92406398 0.59834534 0
0.34577683 1.0400409 0.47044331 0
0.96570939 0.91316015 -0.049724609 0
1.016768 0.90172356 0.29693505 0
0.84043759 0.94121963 0.37147182 0
0.83868295 0.94161266 0.48197997 0
0.83644325 0.94211435 0.59740394 0
0.33842078 1.053666 0.46532491 0
0.97332722 0.93163931 -0.049850229 0
1.0393945 0.91771215 0.30031013 0
0.83748668 0.96027476 0.36970338 0
0.8399778 0.95974964 0.48111913 0
0.84024054 0.95969427 0.59739411 0
0.35857925 1.0612296 0.47437707 0
0.97538489 0.95131105 -0.049781669 0
1.0910354 0.92844868 0.30904782 0
0.84992498 0.97611266 0.37200412 0
0.84045345 0.97798502 0.48006016 0
0.84175116 0.97772849 0.59651273 0
0.35842803 1.0732744 0.473097 0
0.99527794 0.96764386 -0.050369781 0
0.8456555 0.99526918 0.37001652 0
0.84069842 0.99618447 0.47900337 0
0.84272474 0.99581033 0.59550303 0
0.39361092 1.0787318 0.48987502 0
0.98948449 0.98880965 -0.050033629 0
0.8446694 1.013666 0.36894569 0
0.83869284 1.0146918 0.47726661 0
0.83424777 1.0154548 0.59062117 0
0.39371279 1.0910692 0.48884264 0
0.98172837 1.0100499 -0.049636841 0
0.43233904 1.0972419 0.041777458 0
0.43397924 1.0969816 0.11387705 0
0.43219051 1.0972655 0.18670632 0
0.43114504 1.0974314 0.26136789 0
0.44072828 1.0959105 0.34222993 0
0.43286601 1.0971583 0.42114016 0
0.38715884 1.1044123 0.48451924 0
0.99995106 1.0272224 -0.050187733 0
0.40305582 1.1142637 0.04065242 0
0.41278294 1.1128452 0.11136838 0
0.40430281 1.1140817 0.1812775 0
0.40621939 1.1138023 0.25445217 0
0.40287349 1.1142902 0.32885867 0
0.39858243 1.114916 0.40600029 0
0.40077361 1.1145965 0.49048677 0
0.98341292 1.0494126 -0.049493562 0
0.39547941 1.1276001 0.040318783 0
0.43806097 1.1219373 0.11392413 0
0.43082049 1.1229001 0.18579465 0
0.43239191 1.1226912 0.26075268 0
0.42309508 1.1239276 0.33507928 0
0.42591432 1.1235527 0.41671479 0
0.4110544 1.1255288 0.49482629 0
0.99622101 1.0675856 -0.049865738 0
0.38688794 1.1408235 0.039955191 0
0.43408659 1.1351504 0.11332203 0
0.42760602 1.1359295 0.18492439 0
0.42584279 1.1361413 0.25866404 0
0.43300363 1.1352806 0.33787543 0
0.43368092 1.1351993 0.41929945 0
1.0040809 1.0865574 -0.050067957 0
0.36018243 1.1557369 0.038947657 0
0.85257274 1.1028352 0.36780125 0
0.83770949 1.1044321 0.47281832 0
0.84185034 1.1039872 0.58867693 0
0.99975806 1.1068295 -0.049841624 0
0.3524895 1.1681377 0.038629875 0
0.8608169 1.1199898 0.36945385 0
0.84251457 1.1217233 0.47383034 0
0.84534138 1.1214556 0.58938777 0
1.0076274 1.1259445 -0.050061408 0
0.34151891 1.1805842 0.038200606 0
0.85034603 1.138846 0.36636922 0
0.83202356 1.140349 0.46980804 0
0.83996111 1.1396979 0.5865038 0
0.99977547 1.1463085 -0.049727004 0
0.36975387 1.1900096 0.039180376 0
0.84676677 1.1569219 0.36511055 0
0.83949155 1.1574265 0.47185671 0
0.84991497 1.1567035 0.59008199 0
1.0045962 1.1657206 -0.049855169 0
0.84902543 1.1745449 0.36540276 0
0.84101266 1.1749995 0.47199395 0
0.83131343 1.1755496 0.58190441 0
1.0129071 1.1850723 -0.050116725 0
0.84398168 1.1925218 0.36388665 0
0.82518238 1.1933508 0.46642652 0
0.84267145 1.1925796 0.58624619 0
1.0184469 1.204699 -0.050287902 0
0.85302609 1.2099081 0.36602503 0
0.84342557 1.2102104 0.47227988 0
0.8372274 1.2104056 0.58371496 0
0.99671644 1.2249649 -0.04949411 0
0.83858877 1.2279518 0.36222678 0
0.83861631 1.2279513 0.4705317 0
0.83876449 1.2279485 0.58416831 0
1.0110103 1.244447 -0.049995631 0
0.85094112 1.2454548 0.36532184 0
0.84088367 1.2455181 0.47121242 0
0.83230466 1.2455721 0.581402 0
1.0139954 1.2642149 -0.050102204 0
0.84537405 1.2631533 0.3639015 0
0.84504074 1.2631512 0.47259548 0
0.8401739 1.2631205 0.58466017 0
1.0132203 1.28399 -0.050083421 0
0.8516838 1.2809386 0.36556834 0
0.83732527 1.2806674 0.4701021 0
0.84115285 1.2807398 0.58515733 0
1.0155797 1.3038538 -0.05018549 0
0.85863215 1.2989116 0.36745602 0
0.84514362 1.2984868 0.47285172 0
0.84533876 1.298493 0.58707505 0
1.0099918 1.3234422 -0.050012544 0
0.85160559 1.3164575 0.36583364 0
0.84016448 1.315953 0.47141582 0
0.83571523 1.3157568 0.58336329 0
0.99653536 1.3424653 -0.049566925 0
0.83686846 1.3334086 0.36229613 0
0.83692807 1.3334119 0.47063288 0
0.84527797 1.3338856 0.58769554 0
1.0064354 1.3627965 -0.049965344 0
1.2937584 1.3827266 0.072247788 0
1.302013 1.3832991 0.20631072 0
1.3089252 1.3837786 0.34339935 0
0.84588128 1.3516599 0.36488408 0
0.85032624 1.3519682 0.47547001 0
0.83250684 1.3507321 0.58285707 0
1.0057487 1.3825445 -0.049994111 0
1.2546685 1.402963 0.070910715 0
1.2564102 1.4031059 0.20158437 0
1.0031133 1.3823284 0.28838307 0
0.84466022 1.3693308 0.3649137 0
0.8392362 1.3688858 0.47221571 0
0.83960503 1.368916 0.58635592 0
1.0081642 1.4026098 -0.050143074 0
1.2404791 1.4246143 0.07047414 0
1.2398179 1.4245517 0.20001099 0
0.8997038 1.3923366 0.26996422 0
0.85429281 1.3880354 0.36778188 0
0.83716244 1.3864129 0.47204176 0
0.83514076 1.3862214 0.58514541 0
1.009009 1.4226152 -0.050244909 0
0.64149827 1.3831303 0.049048793 0
0.64017493 1.3829882 0.13544399 0
0.64221662 1.3832076 0.22359566 0
0.63124603 1.3820288 0.31100875 0
0.83598083 1.4040253 0.47223988 0
0.83992749 1.4044493 0.5878762 0
0.99948245 1.4414495 -0.049983013 0
0.56287795 1.3889725 0.046283484 0
0.55051428 1.3874865 0.12592451 0
0.54612976 1.3869596 0.20645384 0
0.53858691 1.386053 0.28763571 0
0.83699399 1.4219195 0.47324803 0
0.84032637 1.42232 0.58887708 0
0.99682504 1.4610142 -0.04997661 0
0.55377728 1.4020946 0.046019979 0
0.55737215 1.4025726 0.12685931 0
0.55182511 1.401835 0.20780981 0
0.5532276 1.4020215 0.29185316 0
0.83824593 1.4399252 0.47441354 0
0.83904928 1.440032 0.58927345 0
0.99635357 1.4808962 -0.050057936 0
0.5380742 1.4140683 0.045523733 0
0.55439264 1.416448 0.12674804 0
0.55731875 1.4168746 0.2091656 0
0.55899686 1.4171194 0.29384285 0
0.83151823 1.4568594 0.47297457 0
0.84578162 1.4589393 0.59311509 0
0.99838036 1.501236 -0.050238781 0
0.55969375 1.4316133 0.04638109 0
0.55725175 1.4312258 0.12729087 0
0.54238826 1.4288667 0.20682907 0
0.55183023 1.4303653 0.29254392 0
0.84396189 1.4767287 0.47806245 0
0.84009713 1.4761152 0.59185874 0
0.98951691 1.519839 -0.050034802 0
0.5568859 1.4455813 0.046363447 0
0.54990464 1.444383 0.12674224 0
0.55484205 1.4452305 0.20952606 0
0.55421942 1.4451237 0.29375896 0
0.84428567 1.4949112 0.47915453 0
0.84997457 1.4958878 0.59722787 0
0.98119324 1.5383987 -0.04985844 0
0.55039769 1.4588594 0.046218533 0
0.54852659 1.458514 0.12686278 0
0.5535509 1.4594417 0.20974629 0
0.55745929 1.4601632 0.29524568 0
0.83520406 1.5114442 0.47714451 0
0.83668 1.5117167 0.59295797 0
0.9785766 1.557963 -0.049897823 0
0.55667967 1.4745601 0.046544068 0
0.55595821 1.4744176 0.12796818 0
0.56574327 1.4763519 0.2124787 0
0.55290204 1.4738134 0.29475752 0
0.83925968 1.5304221 0.4796553 0
0.83903426 1.5303775 0.59536606 0
0.98193461 1.5788183 -0.050164279 0
0.55645221 1.4891256 0.046640169 0
0.55224484 1.4882387 0.12787439 0
0.54792482 1.4873281 0.20972621 0
0.54218775 1.4861187 0.29270741 0
0.84015018 1.5489298 0.48117769 0
0.83382684 1.5475968 0.59468019 0
0.96825427 1.596053 -0.049817719 0
0.55368167 1.5031933 0.046650201 0
0.54758865 1.5018286 0.12769565 0
0.55115527 1.5026274 0.21088168 0
0.55446535 1.5033689 0.29670331 0
0.83576423 1.5663767 0.48098484 0
0.83617479 1.5664687 0.59729004 0
0.96536249 1.6155993 -0.049873929 0
0.55768174 1.5188769 0.046915185 0
0.55497998 1.5182359 0.12886594 0
0.53991681 1.5146621 0.20939438 0
0.54991919 1.5170352 0.29635659 0
0.84439713 1.5869002 0.48531798 0
0.85082382 1.5884249 0.60524309 0
0.95980924 1.6345228 -0.049841408 0
0.55672604 1.5335137 0.047005866 0
0.55098933 1.532076 0.12880173 0
0.54850036 1.5314523 0.21161592 0
0.53532666 1.5281512 0.29341158 0
0.84330434 1.6053276 0.4864175 0
0.84670466 1.6061797 0.60532814 0
0.96612281 1.6565588 -0.050255738 0
0.55427164 1.5478232 0.047048301 0
0.55595988 1.5482689 0.12975271 0
0.54396027 1.5451008 0.21143629 0
0.54887205 1.5463976 0.29791853 0
0.82803732 1.6201019 0.48272321 0
0.84169894 1.6237087 0.60512936 0
0.95573086 1.674265 -0.050062835 0
0.55533534 1.5631427 0.0472279 0
0.55117029 1.5619867 0.12964116 0
0.55470592 1.5629679 0.2141491 0
0.54191512 1.5594181 0.29707345 0
0.84519166 1.6435869 0.49027416 0
0.84011501 1.6421779 0.6064949 0
0.94623452 1.6920935 -0.049910799 0
0.55126899 1.5771028 0.047224559 0
0.54471427 1.5751945 0.12936197 0
0.55699533 1.5787699 0.21532568 0
0.55408806 1.5779235 0.30135205 0
0.84346145 1.6621721 0.49141151 0
0.8321833 1.6588885 0.60522825 0
0.94185084 1.7113718 -0.049957361 0
0.85052449 1.6835308 0.381529 0
0.84628445 1.6822382 0.49421808 0
0.83734161 1.679512 0.60971367 0
0.93627816 1.7303089 -0.049968641 0
0.85702592 1.7050539 0.38474694 0
0.83627611 1.6984416 0.49264362 0
0.83948261 1.6994635 0.61301851 0
0.93719226 1.7514153 -0.05023298 0
0.85381764 1.7236854 0.38544041 0
0.82903725 1.7154436 0.49210495 0
0.83580285 1.7176938 0.6139068 0
0.92940146 1.7697047 -0.050179575 0
0.84982497 1.7421206 0.3859883 0
0.83019704 1.7353168 0.49459645 0
0.83644277 1.7374818 0.61679226 0
0.91496724 1.7855605 -0.049882509 0
0.83962828 1.7583779 0.38491878 0
0.83834988 1.7579167 0.49966094 0
0.83075756 1.7551774 0.61701626 0
0.91568285 1.8068787 -0.050169297 0
0.85029811 1.7823528 0.38958579 0
0.8317973 1.7754132 0.49962503 0
0.83543295 1.7767769 0.62192112 0
0.89777154 1.8211614 -0.049754076 0
0.82907075 1.7944002 0.38562462 0
0.82884651 1.7943128 0.50095344 0
0.8253985 1.7929697 0.62043452 0
0.89221138 1.8401228 -0.049819246 0
0.84089249 1.8193845 0.39077917 0
0.81979138 1.8108574 0.50018328 0
0.8324675 1.8159798 0.62666893 0
0.8870241 1.8592937 -0.049908407 0
0.83783895 1.8386934 0.39193323 0
0.83231944 1.8363817 0.50726908 0
0.82634479 1.8338794 0.62714452 0
0.87963551 1.8775817 -0.049921766 0
0.82970625 1.8559269 0.39174852 0
0.82146114 1.8523508 0.50602913 0
0.83220547 1.8570108 0.63313222 0
0.86541337 1.8928169 -0.04967678 0
0.83468312 1.8790267 0.3952893 0
0.8135137 1.8695267 0.50591671 0
0.82464308 1.8745211 0.63319409 0
0.86376899 1.9137008 -0.049932908 0
0.83199984 1.8989609 0.39677793 0
0.81383938 1.890535 0.50891697 0
0.81152302 1.8894603 0.63081998 0
0.85339087 1.9306018 -0.049855188 0
0.82729846 1.9180942 0.39777541 0
0.8124755 1.9109886 0.5114094 0
0.81638199 1.9128612 0.63677269 0
0.84763664 1.9497337 -0.049969625 0
0.81623894 1.9341937 0.39703757 0
0.80399829 1.9281354 0.51137215 0
0.81147653 1.9318366 0.63838744 0
0.84277588 1.969416 -0.050130244 0
0.81770557 1.9566123 0.3999413 0
0.80413073 1.9496794 0.51463133 0
0.80498773 1.9501171 0.63938719 0
0.82833356 1.9841834 -0.04991528 0
0.80953246 1.9742811 0.40016583 0
0.78966278 1.9638158 0.51252389 0
0.8042416 1.9714943 0.64318824 0
0.82067269 2.0024633 -0.049981855 0
0.7945314 1.9882717 0.39847404 0
0.79608375 1.9891144 0.51837689 0
0.79317039 1.9875327 0.64227748 0
0.80988795 2.0190537 -0.049930498 0
0.79157692 2.0088122 0.40034318 0
0.78503329 2.0051525 0.5177322 0
0.78169662 2.0032861 0.6412648 0
0.80272168 2.0376897 -0.050036423 0
0.78909403 2.0298409 0.40244064 0
0.79348296 2.0323687 0.52464676 0
0.79116851 2.0310357 0.65034699 0
0.78490239 2.0501008 -0.049710706 0
0.77029878 2.0414431 0.39979386 0
0.77792591 2.0459647 0.52246016 0
0.78178781 2.0482543 0.65059054 0
0.78157884 2.0710886 -0.049995188 0
0.77241737 2.0655 0.40342033 0
0.77127689 2.0648043 0.52379477 0
0.77655846 2.0680261 0.65295404 0
0.7629537 2.0827167 -0.049648117 0
0.77585298 2.0908096 0.40756312 0
0.74877101 2.0738184 0.51900494 0
0.7595045 2.0805526 0.64967793 0
0.76050442 2.1044919 -0.049991649 0
0.75481206 2.1008198 0.4044047 0
0.75542194 2.1012135 0.52576435 0
0.75962788 2.1039264 0.65491593 0
0.74480337 2.117775 -0.049782097 0
0.75127786 2.1220682 0.40661743 0
0.74558789 2.1182952 0.52613693 0
0.7384066 2.1135335 0.6497398 0
0.73488849 2.1348255 -0.0498279 0
0.74161845 2.139411 0.40704048 0
0.7418744 2.1395853 0.52906293 0
0.74410671 2.1411061 0.65806717 0
0.72813064 2.1541288 -0.050021 0
0.72760481 2.1537607 0.40617895 0
0.72912925 2.1548278 0.52845562 0
0.73837346 2.1612983 0.66086483 0
0.70522612 2.1619964 -0.049516551 0
0.72192436 2.1740003 0.40798461 0
0.71661919 2.1701865 0.52801734 0
0.72031385 2.1728425 0.6575315 0
0.70591933 2.1868441 -0.05005889 0
0.71707517 2.1950788 0.41015112 0
0.70287281 2.1845953 0.52714336 0
0.70829314 2.1885962 0.65734929 0
0.69590813 2.2040641 -0.050140891 0
0.70384747 2.2100804 0.40974092 0
0.69701082 2.2048998 0.5296275 0
0.70552999 2.2113554 0.66207695 0
0.67720062 2.2145975 -0.049840122 0
0.68705469 2.2222619 0.40823516 0
0.69053167 2.2249663 0.53198332 0
0.69397718 2.2276461 0.66239041 0
0.66626865 2.2310698 -0.049897544 0
0.67805701 2.2404795 0.4093087 0
0.67707235 2.2396934 0.53149855 0
0.68238634 2.2439351 0.66279501 0
0.65484434 2.2471952 -0.049942359 0
0.66951424 2.2592103 0.4106186 0
0.67419165 2.2630415 0.53563732 0
0.67523795 2.2638984 0.66569048 0
0.63786203 2.2586958 -0.049737889 0
0.66221875 2.2791626 0.41243631 0
0.64956254 2.2685277 0.53049636 0
0.66524965 2.2817094 0.66721618 0
0.63079721 2.278559 -0.050005432 0
0.71748322 2.3532827 0.066091336 0
0.72046143 2.35585 0.18731166 0
0.72442728 2.3592687 0.31121093 0
0.65490264 2.2993381 0.41435111 0
0.65413803 2.2986789 0.53815717 0
0.64803034 2.2934141 0.66492784 0
0.62128359 2.2965131 -0.050171133 0
0.68100697 2.3493202 0.065017283 0
0.67943257 2.347928 0.18343008 0
0.67917091 2.3476968 0.30368981 0
0.64207047 2.3148928 0.41449478 0
0.63737077 2.3107371 0.53659326 0
0.63915473 2.3123145 0.66730618 0
0.60426646 2.3078244 -0.049987927 0
0.65717906 2.3558099 0.064538099 0
0.66494936 2.3628566 0.1833408 0
0.66035455 2.3586898 0.30248427 0
0.62682647 2.3282835 0.41387656 0
0.62251502 2.3243737 0.53593779 0
0.62544638 2.3270321 0.66714293 0
0.58356887 2.3155401 -0.049630024 0
0.64364094 2.371413 0.064558931 0
0.64039069 2.3683901 0.18179916 0
0.64537364 2.3730247 0.30224314 0
0.61020976 2.3403189 0.41283116 0
0.60845929 2.3386908 0.53571564 0
0.60978049 2.3399196 0.66597509 0
0.57754916 2.3369122 -0.049996745 0
0.61760122 2.3751163 0.063972838 0
0.62606281 2.3831875 0.18176864 0
0.62689179 2.3839781 0.30117127 0
0.59792536 2.3563483 0.41335371 0
0.59064144 2.3494003 0.53384346 0
0.59740967 2.3558564 0.66677082 0
0.56135172 2.3486946 -0.049873073 0
0.61849707 2.4045942 0.064727023 0
0.60813946 2.3944623 0.18122506 0
0.61129409 2.3975482 0.30084834 0
0.59271902 2.3793781 0.41648057 0
0.58583647 2.3726454 0.53806674 0
0.58562964 2.3724432 0.66803414 0
0.54737884 2.3625891 -0.049867772 0
0.60430163 2.4196913 0.06474629 0
0.60530311 2.420696 0.18299265 0
0.60905176 2.4244564 0.30397633 0
0.57149094 2.3867772 0.41396135 0
0.57198125 2.3872693 0.53821588 0
0.57889563 2.3942053 0.67239457 0
0.54320949 2.3865683 -0.050373454 0
0.60758871 2.4527977 0.065670952 0
0.59643477 2.4413233 0.18390387 0
0.59222323 2.4369907 0.30345818 0
0.56403261 2.4079897 0.41648337 0
0.56397408 2.4079297 0.54124558 0
0.56478685 2.4087658 0.67259282 0
0.52985841 2.4013839 -0.05042496 0
0.62295336 2.4995987 0.067256235 0
0.61622995 2.4925056 0.18934537 0
0.61772496 2.4940827 0.31407145 0
0.5508514 2.4235313 0.41701511 0
0.54982704 2.4224505 0.54147154 0
0.55029982 2.4229496 0.67267573 0
0.50953585 2.4087145 -0.050120227 0
0.53446859 2.4356909 0.41642377 0
0.53471643 2.4359591 0.54131728 0
0.53240389 2.4334569 0.67078853 0
0.48984048 2.4164248 -0.049849547 0
0.51734537 2.4469464 0.41559991 0
0.52115482 2.4511735 0.54201466 0
0.5205254 2.450475 0.67267781 0
0.4771609 2.4318359 -0.04995966 0
0.504821 2.4633176 0.41659617 0
0.50656563 2.4653034 0.54230005 0
0.50689429 2.4656775 0.67362839 0
0.46367428 2.4464288 -0.050037682 0
0.48146304 2.4671969 0.41343859 0
0.49107441 2.4784184 0.54221863 0
0.49204895 2.4795561 0.6739412 0
0.44664952 2.4568748 -0.049929965 0
0.47511539 2.4909685 0.41702381 0
0.47088632 2.4859033 0.53978294 0
0.46955499 2.4843087 0.66942972 0
0.43281433 2.4711249 -0.05000836 0
0.45412669 2.497314 0.41486692 0
0.45701775 2.5008667 0.54068953 0
0.45381865 2.4969354 0.66931951 0
0.42108032 2.4881186 -0.050218962 0
0.43852773 2.5101185 0.41492113 0
0.44486043 2.5181034 0.54262698 0
0.43592069 2.5068312 0.66787249 0
0.39650682 2.4887452 -0.049695764 0
0.42520973 2.5258884 0.41599473 0
0.42092326 2.5203414 0.53830409 0
0.42495444 2.525558 0.67117894 0
0.38321415 2.5037477 -0.049833823 0
0.40365079 2.5308936 0.41367418 0
0.40765837 2.5362167 0.53982717 0
0.41010866 2.5394714 0.67203146 0
0.36650857 2.5142658 -0.049779534 0
0.39108685 2.5477834 0.41522127 0
0.39593038 2.5543883 0.54235274 0
0.38880852 2.5446763 0.66850144 0
0.35375264 2.5302544 -0.049974985 0
0.37748405 2.5634863 0.41643235 0
0.3791323 2.5657945 0.54215056 0
0.37834576 2.564693 0.67267591 0
0.33862248 2.5430751 -0.050038002 0
0.36044851 2.5744672 0.41621894 0
0.36193964 2.576612 0.54179776 0
0.36706576 2.5839849 0.6765151 0
0.31857672 2.5487173 -0.049799271 0
0.34435013 2.5868013 0.41649055 0
0.34125713 2.5822308 0.53944689 0
0.34143713 2.5824966 0.67000449 0
0.30371889 2.5619366 -0.049897265 0
0.32329157 2.5916576 0.41453782 0
0.31882969 2.5848823 0.5360375 0
0.32540867 2.5948722 0.67058122 0
0.28397402 2.5676615 -0.049684674 0
0.30703464 2.6036577 0.414846 0
0.3052794 2.6009178 0.53805584 0
0.30615202 2.6022799 0.66881013 0
0.26544967 2.575068 -0.049554974 0
0.28572819 2.6076164 0.41279632 0
0.29067501 2.6155565 0.53957796 0
0.28474256 2.6060345 0.66538966 0
0.25715205 2.5991883 -0.05013366 0
0.26869991 2.6182544 0.41283485 0
0.26855335 2.6180124 0.53642172 0
0.27574584 2.6298873 0.67185491 0
0.23784424 2.6054142 -0.049971104 0
0.25343046 2.6318941 0.41382548 0
0.25379524 2.632514 0.5380469 0
0.25604805 2.6363413 0.66996807 0
0.22223647 2.6178861 -0.050076626 0
0.23110433 2.6333957 0.41129836 0
0.23680063 2.6433582 0.53833032 0
0.23419423 2.6387997 0.66630781 0
0.20643802 2.6301744 -0.050181974 0
0.21511181 2.645798 0.41205221 0
0.22463311 2.6629479 0.54202133 0
0.21166201 2.6395841 0.66201115 0
0.18638988 2.6347392 -0.049981475 0
0.20021196 2.6603916 0.41349462 0
0.20331652 2.6661534 0.53955364 0
0.19573028 2.6520741 0.66338271 0
0.16773917 2.6416788 -0.049888171 0
0.18262388 2.6701565 0.41359162 0
0.1812485 2.6675251 0.53651488 0
0.17864074 2.6625359 0.66389179 0
0.14380689 2.6380575 -0.049382199 0
0.16137435 2.6727242 0.41169304 0
0.16497864 2.6798368 0.53767967 0
0.15845926 2.6669717 0.66170079 0
0.13341166 2.6612024 -0.049955938 0
0.14597018 2.6867783 0.41314724 0
0.14533176 2.6854782 0.53644133 0
0.14351244 2.6817729 0.66442209 0
0.11458024 2.6675549 -0.049867623 0
0.12123182 2.6815436 0.40919849 0
0.11924168 2.6773582 0.53023213 0
0.12122454 2.6815283 0.66031563 0
0.093887053 2.6697199 -0.049624585 0
0.10377409 2.6912065 0.40954429 0
0.10380676 2.6912775 0.53225088 0
0.10253348 2.6885104 0.65965503 0
0.083353363 2.6943023 -0.050269116 0
0.082909308 2.6933045 0.40783715 0
0.077478193 2.6810992 0.5255543 0
0.086267494 2.7008514 0.66153347 0
0.063345633 2.6980097 -0.050104093 0
0.066767476 2.7059681 0.4091467 0
0.068726324 2.7105238 0.53335625 0
0.06877961 2.7106478 0.66234761 0
0.040806852 2.6953249 -0.049702603 0
0.047758661 2.7120707 0.40869325 0
0.050871156 2.7195683 0.53381598 0
0.044623099 2.7045178 0.65611678 0
0.026630959 2.7127705 -0.050088234 0
0.02692165 2.7134964 0.40702271 0
0.026163181 2.7116024 0.52825797 0
0.026699862 2.7129426 0.65654469 0
0.008091948 2.7196741 -0.050075438 0
0.0062332363 2.7148578 0.40541458 0
0.0096112108 2.7236109 0.52996123 0
0.010304294 2.7254069 0.65886372 0
-0.010738292 2.7257769 -0.050041109 0
-0.0085543776 2.7316554 0.40808633 0
-0.013449111 2.7184803 0.52564776 0
-0.01677368 2.7095318 0.64874613 0
-0.030922571 2.7280271 -0.04986988 0
-0.031898417 2.7252955 0.40452275 0
-0.030912975 2.7280538 0.52665126 0
-0.028578797 2.7345877 0.65682012 0
-0.052814223 2.7249386 -0.04950751 0
-0.049414612 2.7348466 0.40534568 0
-0.049152173 2.7356114 0.52701896 0
-0.055765308 2.7163377 0.64596832 0
-0.066819794 2.7450049 -0.050027285 0
-0.072647817 2.7272959 0.40163115 0
-0.0729293 2.7264407 0.5216065 0
-0.071797259 2.7298803 0.64916867 0
-0.088912047 2.7406454 -0.049637303 0
-0.093012549 2.7276363 0.40012068 0
-0.09123645 2.7332711 0.52190208 0
-0.093290307 2.7267551 0.64520836 0
-0.10510991 2.7548997 -0.049953241 0
-0.11237002 2.7308128 0.39944011 0
-0.11496419 2.7222061 0.51605839 0
-0.11128781 2.7344034 0.64603907 0
-0.11970661 2.7755358 -0.05051272 0
-0.10230536 2.8360131 0.064759441 0
-0.1074482 2.8181393 0.18088096 0
-0.10389379 2.8304927 0.30179328 0
-0.13272826 2.7302792 0.3978419 0
-0.13109462 2.7359571 0.51893049 0
-0.13241605 2.7313645 0.64236033 0
-0.13871746 2.7815747 -0.050536722 0
-0.13137673 2.8083515 0.063527964 0
-0.13248347 2.8043144 0.17872286 0
-0.13439427 2.7973444 0.29455 0
-0.14752604 2.7494438 0.40152809 0
-0.15213804 2.7326205 0.51596826 0
-0.15155797 2.7347364 0.64156091 0
-0.1654454 2.7580867 -0.049480122 0
-0.15639879 2.7927942 0.062760621 0
-0.15530325 2.7969973 0.17732964 0
-0.16010885 2.7785606 0.2900793 0
-0.17040317 2.7390661 0.39746255 0
-0.17206301 2.7326982 0.51428086 0
-0.16941176 2.7428699 0.64290464 0
-0.18026064 2.7796876 -0.05009741 0
-0.17767249 2.7901554 0.062482376 0
-0.18069233 2.7779417 0.17467314 0
-0.1794446 2.7829881 0.28999493 0
-0.19067769 2.737556 0.39581594 0
-0.18998997 2.7403376 0.51527631 0
-0.19148792 2.7342792 0.63720739 0
-0.20188539 2.7741046 -0.049723025 0
-0.20008175 2.7818148 0.062005721 0
-0.19563888 2.8008072 0.17668663 0
-0.19946565 2.7844484 0.28940642 0
-0.20775233 2.7490246 0.39764184 0
-0.21296255 2.726752 0.509094 0
-0.21155556 2.7327666 0.63465506 0
-0.21966855 2.784718 -0.049951795 0
-0.21652831 2.7989473 0.062472031 0
-0.21619119 2.8004749 0.17616224 0
-0.21748273 2.7946227 0.29047546 0
-0.22933997 2.7408938 0.39439818 0
-0.22827326 2.7457275 0.51412112 0
-0.23010992 2.7374051 0.63482505 0
-0.23957203 2.7859232 -0.049845118 0
-0.23587652 2.8037314 0.062494434 0
-0.23512568 2.8073497 0.17645869 0
-0.23505749 2.8076782 0.29211435 0
-0.24913259 2.7398524 0.39308119 0
-0.25032249 2.7341185 0.50880861 0
-0.25146189 2.7286277 0.62942064 0
-0.25723183 2.7982912 -0.050153799 0
-0.25371146 2.8163984 0.062812351 0
-0.25326151 2.8187127 0.17727196 0
-0.25170124 2.8267381 0.29489309 0
-0.26646504 2.7507997 0.39494824 0
-0.26957071 2.7348254 0.50777751 0
-0.26957786 2.7347887 0.63044369 0
-0.2778194 2.7957554 -0.04992909 0
-0.26714179 2.8546236 0.064065054 0
-0.26693049 2.8557882 0.18091673 0
-0.26625016 2.8595393 0.30022255 0
-0.28596914 2.7508237 0.3940354 0
-0.29012519 2.7279105 0.50425369 0
-0.28981075 2.7296441 0.62680328 0
-0.29735082 2.7985551 -0.049907427 0
-0.30691478 2.7417636 0.39083776 0
-0.30784798 2.7362223 0.50596195 0
-0.30754179 2.7380404 0.62896305 0
-0.31790686 2.7946861 -0.049653761 0
-0.32672763 2.7379549 0.38907042 0
-0.32748911 2.7330573 0.50387788 0
-0.32752281 2.7328403 0.62551522 0
-0.3376593 2.7952068 -0.049568191 0
-0.34692246 2.730253 0.38636729 0
-0.34669572 2.731843 0.5025363 0
-0.34789178 2.7234559 0.62042886 0
-0.35546377 2.8102918 -0.050016046 0
-0.36542663 2.7335281 0.38655818 0
-0.36689982 2.7221773 0.49844283 0
-0.36696073 2.7217078 0.6186462 0
-0.37461463 2.8166144 -0.050156347 0
-0.38458753 2.7313778 0.38541502 0
-0.38592783 2.7199225 0.49692312 0
-0.38542387 2.7242298 0.61874646 0
-0.39488372 2.8131959 -0.049955476 0
-0.40417916 2.7240369 0.38300386 0
-0.40513209 2.7148967 0.49455857 0
-0.40431905 2.7226951 0.61725456 0
-0.41437411 2.8167639 -0.050014455 0
-0.4229748 2.7228129 0.38222578 0
-0.42436698 2.7076054 0.49152082 0
-0.42354462 2.7165885 0.61396265 0
-0.433593 2.8243437 -0.050225839 0
-0.44197929 2.7180016 0.38059106 0
-0.44211304 2.7163053 0.49390364 0
-0.4422344 2.7147667 0.61255413 0
-0.45376247 2.8198693 -0.050014425 0
-0.46085221 2.7127793 0.37891379 0
-0.46189904 2.6969666 0.4870103 0
-0.46153754 2.7024271 0.60688025 0
-0.47334227 2.8236744 -0.05010825 0
-0.47923297 2.7137046 0.37886918 0
-0.48021594 2.695354 0.48611048 0
-0.4801496 2.6965926 0.6040082 0
-0.49341854 2.8170483 -0.049838111 0
-0.49830943 2.6976035 0.37453604 0
-0.49837533 2.6959939 0.48603797 0
-0.49846542 2.6937938 0.60249263 0
-0.51300842 2.8209698 -0.049953818 0
-0.516527 2.6968141 0.37417379 0
-0.51696581 2.68133 0.480948 0
-0.51692432 2.6827939 0.59767634 0
-0.53261328 2.829325 -0.050236624 0
-0.5346325 2.7010558 0.37515396 0
-0.53507179 2.6731479 0.47809374 0
-0.53502423 2.6761715 0.5947699 0
-0.55247384 2.8208017 -0.049925644 0
-0.552921 2.6788223 0.36943755 0
-0.55293685 2.6737821 0.4782486 0
-0.55292451 2.6777112 0.59533745 0
-0.57222694 2.8237872 -0.050034452 0
-0.57084739 2.67769 0.3691631 0
-0.57078379 2.6709571 0.47732747 0
-0.5708034 2.6730356 0.59342486 0
-0.59189004 2.8190653 -0.049876932 0
-0.58852142 2.6662073 0.36630473 0
-0.58845425 2.6631589 0.4748258 0
-0.58835173 2.658509 0.58752519 0
-0.61179447 2.8244298 -0.050088506 0
-0.60646081 2.6704531 0.36751717 0
-0.60622114 2.6635332 0.47511774 0
-0.60576749 2.6504374 0.58438885 0
-0.63178498 2.828388 -0.050258901 0
-0.62442201 2.672565 0.36824304 0
-0.62327182 2.6482234 0.4702605 0
-0.62333912 2.649647 0.58435947 0
-0.65107936 2.8186576 -0.049948853 0
-0.64127308 2.6548913 0.36397022 0
-0.63988 2.6316266 0.4650422 0
-0.63981205 2.6304922 0.5768047 0
-0.64032215 2.6390114 0.70005697 0
-0.67173398 2.8306615 -0.05042519 0
-0.65731549 2.6318598 0.35837725 0
-0.65768176 2.6369095 0.46718717 0
-0.65714556 2.6295161 0.57687557 0
-0.65707165 2.6284976 0.6953615 0
-0.69020826 2.8130791 -0.049851261 0
-0.67377424 2.6201844 0.46206084 0
-0.67427737 2.6260898 0.57601893 0
-0.67413235 2.6243877 0.69398254 0
-0.71049106 2.818094 -0.050095562 0
-0.69037139 2.6125689 0.46004105 0
-0.69051552 2.6140411 0.57166392 0
-0.69030446 2.6118848 0.68849039 0
-0.72999597 2.8144805 -0.050039463 0
-0.70593095 2.5969393 0.565283 0
-0.70654267 2.6024687 0.68464696 0
-0.74857944 2.8036971 -0.049734179 0
-0.72282606 2.5949767 0.56528878 0
-0.72356665 2.6009786 0.68489629 0
-0.76822871 2.8023119 -0.049775429 0
-0.73812366 2.5812612 0.67605013 0
-0.78830522 2.8035753 -0.04992127 0
-0.75385815 2.5724461 0.67279518 0
-0.80833966 2.8039153 -0.050043151 0
-0.82586247 2.7893763 -0.049635183 0
-0.84754688 2.7985282 -0.050094843 0
-0.86776763 2.7987351 -0.050239865 0
-0.88556451 2.787117 -0.049962826 0
-0.90553111 2.7859118 -0.050074428 0
-0.92567092 2.7850766 -0.050209176 0
-0.94140005 2.7664735 -0.049699206 0
-0.96284771 2.7706375 -0.050036203 0
-0.98217309 2.7663567 -0.050071225 0
-1.0005763 2.7588465 -0.049995221 0
-1.0219314 2.7610826 -0.05029168 0
-1.0382202 2.7468996 -0.049983565 0
-1.0546539 2.7338197 -0.049723402 0
-1.0766696 2.7372265 -0.050093539 0
-1.0977064 2.7371755 -0.050344501 0
-1.1125387 2.7202313 -0.049961839 0
-1.1316402 2.714875 -0.050028969 0
-1.1529776 2.7148683 -0.050311934 0
-1.1686234 2.7008705 -0.050064549 0
-1.1856323 2.6904166 -0.049961537 0
-1.2040166 2.6831701 -0.049992003 0
-1.2200701 2.6708832 -0.049833089 0
-1.2419219 2.6708455 -0.05016689 0
-1.2617183 2.6661534 -0.050328031 0
-1.2761527 2.6507883 -0.050071657 0
-1.2882673 2.6314309 -0.04965952 0
-1.310459 2.6310964 -0.050024826 0
-1.3221083 2.6115196 -0.049615625 0
-1.3409497 2.6049092 -0.049744632 0
-1.3584158 2.5958118 -0.049781036 0
-1.3760345 2.5869076 -0.049834996 0
-1.391885 2.5751278 -0.049777288 0
-1.4151338 2.5748069 -0.050215386 0
-1.4267989 2.5565724 -0.04990074 0
-1.4449236 2.548142 -0.050014142 0
-1.468393 2.5471518 -0.050463427 0
-1.478544 2.5272117 -0.050094698 0
-1.4934547 2.5141079 -0.050032225 0
-1.5000074 2.4901142 -0.049488567 0
-1.5233209 2.488147 -0.049941938 0
-1.5439819 2.4823627 -0.050238483 0
-1.5531156 2.4622602 -0.049887646 0
-1.5707303 2.452565 -0.050024997 0
-1.5835081 2.4371414 -0.049903549 0
-1.5972482 2.4229233 -0.049845986 0
-1.6140981 2.4121683 -0.049963467 0
-1.6272175 2.3973019 -0.049891606 0
-1.6416897 2.3839135 -0.049900133 0
-1.6557722 2.3701162 -0.049897365 0
-1.671932 2.3583751 -0.050007802 0
-1.6796153 2.3383331 -0.049703538 0
-1.6966536 2.3273935 -0.049874131 0
-1.7069113 2.3100588 -0.049720798 0
-1.7199937 2.2953944 -0.049715068 0
-1.7353964 2.282757 -0.049828168 0
-1.7482857 2.2678716 -0.049829733 0
-1.7572571 2.2497306 -0.049658291 0
-1.7763422 2.2399185 -0.049963452 0
-1.2258471 1.7948035 0.51579106 0
-1.7904999 2.2259457 -0.050047293 0
-1.2313321 1.7853456 0.51483423 0
-1.8076667 2.2142048 -0.050273716 0
-1.2339942 1.7737695 0.5118655 0
-1.8218219 2.2000082 -0.050370384 0
-1.2354455 1.761443 0.50813627 0
-1.8268411 2.1790679 -0.050070561 0
-1.2315893 1.7454441 0.50066131 0
-1.8377789 2.1625814 -0.050044071 0
-1.234797 1.734843 0.49853626 0
-1.8532742 2.1492615 -0.050224591 0
-1.2380379 1.7243727 0.49655017 0
-1.8628393 2.1317983 -0.050155744 0
-1.2352122 1.7099241 0.49034029 0
-1.8766235 2.1171486 -0.050276861 0
-1.2468586 1.705254 0.49456617 0
-1.8828157 2.097564 -0.0500836 0
-1.2468903 1.6929798 0.49063602 0
-1.8918005 2.0798635 -0.050019473 0
-1.2432878 1.6786517 0.48431018 0
-1.9016972 2.0627606 -0.050003134 0
-1.2424721 1.666311 0.48008588 0
-1.9086937 2.0439727 -0.049875934 0
-1.2452171 1.656257 0.4784455 0
-1.9169148 2.0259795 -0.049809661 0
-1.2355747 1.6392502 0.4684563 0
-1.9371406 2.0146513 -0.050242461 0
-1.2424438 1.6318249 0.4698621 0
-1.9302828 1.9884902 -0.049581666 0
-1.9427466 1.9728724 -0.049715534 0
-1.9535538 1.9563123 -0.049790237 0
-1.9592453 1.9371982 -0.049669646 0
-1.9702262 1.9206693 -0.049768079 0
-1.9761726 1.9017633 -0.049676575 0
-1.998677 1.8902302 -0.050241023 0
-2.0014045 1.8698307 -0.050040565 0
-1.9971602 1.8467124 -0.049581945 0
-2.0064809 1.8293211 -0.049657833 0
-1.9973764 1.8048254 -0.04903752 0
