# .PCD v0.7 - Point Cloud Data file format
VERSION 0.7
FIELDS x y z intensity
SIZE 4 4 4 4
TYPE F F F F
COUNT 1 1 1 1
WIDTH 1360
HEIGHT 1
VIEWPOINT 0 0 0 1 0 0 0
POINTS 1360
DATA ascii
-1.2527218 0.47290796 0.35399076 0
-1.2396688 0.48757726 0.43094251 0
-1.2383485 0.48906106 0.51852638 0
-1.241044 0.48603171 0.61589688 0
-1.5834359 0.071584933 -0.049899615 0
-1.3174731 0.378169 0.047409553 0
-1.3166008 0.37917441 0.13050947 0
-1.3208491 0.37427729 0.21611372 0
-1.3197846 0.37550437 0.30282494 0
-1.251671 0.45402116 0.35848054 0
-1.2388602 0.46878844 0.4365657 0
-1.2414217 0.46583587 0.5282712 0
-1.2363799 0.47164774 0.62047958 0
-1.5706714 0.056147691 -0.050021745 0
-1.3067449 0.36823797 0.047429673 0
-1.3109759 0.36323482 0.13141726 0
-1.3070009 0.36793524 0.21535769 0
-1.3089777 0.36559761 0.30295098 0
-1.2532076 0.43154526 0.36449233 0
-1.2341976 0.45402426 0.43995261 0
-1.2377101 0.44987077 0.53313005 0
-1.2410073 0.44597191 0.63382977 0
-1.5565605 0.042203661 -0.050081003 0
-1.2998354 0.35364836 0.047671407 0
-1.2953098 0.35913867 0.13067611 0
-1.2970713 0.3570016 0.2157236 0
-1.304612 0.34785354 0.30571222 0
-1.2515223 0.41225916 0.3690584 0
-1.2346565 0.43271983 0.4468455 0
-1.2441474 0.421206 0.54620379 0
-1.2416415 0.42424601 0.64396137 0
-1.5375308 0.034310456 -0.049870748 0
-1.2847692 0.3489359 0.047462385 0
-1.2916864 0.34032565 0.13199852 0
-1.2839742 0.34992546 0.21522252 0
-1.2912668 0.34084797 0.30494943 0
-1.2453885 0.39795506 0.37146151 0
-1.2401882 0.40442818 0.45737684 0
-1.2422951 0.40180564 0.55314779 0
-1.2369242 0.40849108 0.64944273 0
-1.5271176 0.015646214 -0.050161831 0
-1.2833475 0.32702994 0.04804362 0
-1.2787014 0.33296466 0.13175121 0
-1.2805495 0.33060384 0.21756904 0
-1.2796119 0.33180159 0.30491012 0
-1.2485747 0.37144738 0.37903011 0
-1.2437119 0.37765896 0.46696761 0
-1.2500008 0.36962581 0.56815904 0
-1.2360601 0.38743317 0.65890926 0
-1.5155209 -0.001810079 -0.050401807 0
-1.2664764 0.32469887 0.047741171 0
-1.2729368 0.31622887 0.13279559 0
-1.273892 0.31497663 0.21906498 0
-1.2703935 0.31956327 0.30594268 0
-1.2490443 0.34755319 0.38541594 0
-1.2415 0.35744405 0.47303045 0
-1.2414045 0.35756928 0.57030237 0
-1.2391669 0.3605029 0.67267346 0
-1.4973323 -0.010683661 -0.050264347 0
-1.2706231 0.29443461 0.04869343 0
-1.2739351 0.28997713 0.13511409 0
-1.2726387 0.29172188 0.2222797 0
-1.2731503 0.29103327 0.31218106 0
-1.2483219 0.32444882 0.3914125 0
-1.2393042 0.33658534 0.47938335 0
-1.2369087 0.33980936 0.57604867 0
-1.2402645 0.33529294 0.68500954 0
-1.4779341 -0.017725712 -0.050057556 0
-1.2733133 0.26503336 0.049596712 0
-1.2806778 0.25485653 0.13858642 0
-1.2732981 0.26505429 0.22622856 0
-1.2823398 0.25256002 0.32148328 0
-1.2561065 0.28881085 0.40250558 0
-1.2362654 0.31622869 0.48543626 0
-1.2399577 0.31112647 0.5885241 0
-1.2401373 0.31087816 0.69664145 0
-1.4662819 -0.03551269 -0.05033258 0
-1.1829739 0.36654526 0.044772994 0
-1.1716917 0.38255662 0.12061084 0
-1.1671375 0.38901955 0.19690733 0
-1.3266684 0.16262043 0.34673017 0
-1.2354828 0.29202706 0.39764726 0
-1.242115 0.28261489 0.49816996 0
-1.2390093 0.28702241 0.59806317 0
-1.4441003 -0.038298491 -0.04996217 0
-1.1526014 0.38664812 0.043564707 0
-1.153964 0.38466161 0.11933751 0
-1.1568867 0.38040102 0.19712818 0
-1.3202348 0.14227235 0.35005569 0
-1.2380694 0.26205295 0.40632641 0
-1.2420958 0.25618333 0.50715089 0
-1.2380763 0.26204288 0.60805869 0
-1.4207554 -0.038876895 -0.049512148 0
-1.1447984 0.37447554 0.043768484 0
-1.1362761 0.38724089 0.11804251 0
-1.1379113 0.38479167 0.19455431 0
-1.2946023 0.15008616 0.34473929 0
-1.2447478 0.22476256 0.4178465 0
-1.2430489 0.22730732 0.51727366 0
-1.2439289 0.22598922 0.62463975 0
-1.4066802 -0.053149346 -0.049661335 0
-1.1261407 0.37874627 0.043274783 0
-1.1239513 0.38211673 0.11777395 0
-1.1240069 0.3820312 0.19359089 0
-1.2897737 0.12683034 0.34901714 0
-1.2369114 0.20821273 0.42101112 0
-1.2437485 0.19768691 0.52767563 0
-1.2398585 0.20367575 0.63284391 0
-1.3954939 -0.072196849 -0.050018501 0
-1.1137376 0.37376529 0.043185651 0
-1.1077629 0.38322186 0.11673543 0
-1.1116357 0.37709206 0.19313738 0
-1.2741158 0.11991965 0.3483468 0
-1.2451134 0.16582441 0.43435794 0
-1.239807 0.1742233 0.53497559 0
-1.2400755 0.17379856 0.64548999 0
-1.3773032 -0.080329902 -0.049921535 0
-1.0920702 0.38398087 0.042467039 0
-1.0939196 0.38097042 0.11615409 0
-1.0935152 0.38162875 0.19071481 0
-1.2522542 0.12322854 0.34468082 0
-1.2419677 0.13997328 0.44110438 0
-1.2388275 0.14508522 0.54500085 0
-1.2373689 0.14745939 0.65595943 0
-1.3600399 -0.089888819 -0.049894139 0
-1.0784744 0.3816635 0.04228634 0
-1.0829111 0.37423313 0.1161605 0
-1.0763414 0.38523585 0.18855375 0
-1.2504654 0.093621366 0.35090557 0
-1.241243 0.1090666 0.44977471 0
-1.2412972 0.10897576 0.55831879 0
-1.2458566 0.10133993 0.67789739 0
-1.3450263 -0.10329283 -0.050034657 0
-1.064885 0.37958497 0.042104192 0
-1.0548664 0.39685392 0.11253653 0
-1.0682865 0.37372184 0.18960646 0
-1.2522938 0.056549545 0.35929343 0
-1.2404115 0.07703089 0.45881969 0
-1.2398766 0.077952974 0.56909007 0
-1.2361552 0.084367625 0.68275356 0
-1.325385 -0.10869218 -0.04985394 0
-1.0544225 0.37221438 0.042147227 0
-1.052632 0.37539214 0.11441968 0
-1.0493019 0.3813026 0.18672006 0
-1.2508872 0.02352714 0.36642936 0
-1.2423086 0.038752314 0.47018871 0
-1.2466377 0.031069273 0.58733141 0
-1.3120389 -0.12534165 -0.050142363 0
-1.0325164 0.38569826 0.041346718 0
-1.0348053 0.38151342 0.11291457 0
-1.03488 0.38137686 0.18544586 0
-1.2541276 -0.019464856 0.37642074 0
-1.2427437 0.0013478943 0.48113918 0
-1.2412506 0.0040776678 0.59601963 0
-1.2970031 -0.13924813 -0.050324813 0
-1.0232362 0.3765921 0.041475765 0
-1.0179602 0.3865332 0.1115809 0
-1.0244524 0.37430036 0.18567733 0
-1.2386912 -0.029374843 0.37677842 0
-1.2392675 -0.03046084 0.48990706 0
-1.2418334 -0.035295609 0.61048567 0
-1.2688025 -0.12786424 -0.049498238 0
-1.0071588 0.38048929 0.041086569 0
-1.0031672 0.38824463 0.11068146 0
-1.0088365 0.37722933 0.18390457 0
-1.2423322 -0.07643462 0.3878496 0
-1.2401079 -0.072112806 0.50231773 0
-1.2344134 -0.061048869 0.61851251 0
-1.2589668 -0.15199494 -0.050107982 0
-0.99485928 0.37742364 0.040985707 0
-0.99329609 0.38055724 0.11093888 0
-0.98812628 0.3909204 0.18001364 0
-1.2390921 -0.11215497 0.3956053 0
-1.2389339 -0.11183787 0.51393044 0
-1.2323731 -0.098686226 0.63203126 0
-1.2369242 -0.15186036 -0.049756806 0
-0.97725964 0.38548529 0.040450409 0
-0.98120999 0.37731051 0.11067957 0
-0.97569931 0.38871419 0.17938296 0
-1.2357452 -0.14942062 0.40376341 0
-1.2420675 -0.16250384 0.52952087 0
-1.2196068 -0.16124964 -0.049794052 0
-0.96355927 0.38609809 0.040220607 0
-0.96084827 0.39189327 0.10832452 0
-0.96710002 0.37852907 0.1803759 0
-1.2377748 -0.20008707 0.41566011 0
-1.2399403 -0.20471621 0.54190028 0
-1.2036217 -0.17365456 -0.049957819 0
-0.95537919 0.37490076 0.040461693 0
-0.95910031 0.36667806 0.11070777 0
-0.95003343 0.3867135 0.17774832 0
-1.2410295 -0.2563163 0.42903987 0
-1.2363483 -0.24597204 0.55386984 0
-1.1855782 -0.1816498 -0.04995672 0
-0.9400118 0.37970424 0.040081963 0
-0.93693918 0.38672805 0.10777083 0
-0.93607759 0.38869762 0.17639813 0
-1.2421364 -0.31093919 0.44188732 0
-1.2360034 -0.29691947 0.56930947 0
-1.1662165 -0.18653131 -0.049843777 0
-0.92909527 0.37465721 0.040093549 0
-0.92543352 0.38332343 0.10761853 0
-0.92799103 0.37727052 0.17771535 0
-1.2398874 -0.36088598 0.45336765 0
-1.1545094 -0.20998192 -0.050456781 0
-0.91252297 0.38345337 0.039576657 0
-0.91203564 0.38464844 0.10693495 0
-0.91341525 0.38126516 0.17604207 0
-1.2405885 -0.42107785 0.46761981 0
-1.1339338 -0.21206558 -0.050252751 0
-0.89559835 0.39413697 0.038997941 0
-0.90071982 0.38111061 0.10683582 0
-0.90380353 0.37326723 0.17673671 0
-1.2366045 -0.473207 0.47958884 0
-1.1101538 -0.20529044 -0.049721424 0
-0.88545775 0.3880536 0.039070219 0
-0.8898688 0.37640572 0.10688769 0
-0.88849854 0.38002408 0.17460603 0
-1.2443535 -0.55966532 0.50088006 0
-1.0953007 -0.22192979 -0.050093621 0
-0.87452209 0.38399816 0.039069973 0
-0.87408382 0.38520092 0.10541084 0
-0.87492144 0.38290203 0.17326671 0
-1.0743634 -0.22199726 -0.049844407 0
-0.86204559 0.38433772 0.038908701 0
-0.86168516 0.38536704 0.10494573 0
-0.86304766 0.38147593 0.17278849 0
-1.0561918 -0.22975254 -0.049895748 0
-0.85411668 0.37149787 0.039250426 0
-0.84926307 0.38593918 0.10445431 0
-0.85171419 0.37864619 0.17260784 0
-1.0370922 -0.2347548 -0.049852226 0
-0.83880937 0.3807705 0.038765125 0
-0.84009135 0.37679076 0.1050801 0
-0.83609456 0.38919806 0.16991954 0
-1.0227325 -0.25503826 -0.050388772 0
-0.82757503 0.37798733 0.03873932 0
-0.82449442 0.38797969 0.10342931 0
-0.82653296 0.38136739 0.17074808 0
-1.000077 -0.24850869 -0.049932145 0
-0.81595236 0.37658048 0.03866766 0
-0.81404638 0.3830511 0.10361242 0
-0.81503773 0.37968552 0.17044021 0
-0.98093396 -0.25330269 -0.049907647 0
-0.80311221 0.37968755 0.038434297 0
-0.8034209 0.37858862 0.10375755 0
-0.80399984 0.37652785 0.17043705 0
-0.96157926 -0.25725067 -0.049860891 0
-0.79098344 0.38076419 0.10317866 0
-0.79088694 0.38112515 0.16901216 0
-0.94120407 -0.25705862 -0.049670782 0
-0.77740675 0.38796985 0.16720441 0
-0.9250946 -0.27403796 -0.050121214 0
-0.76605618 0.38703394 0.16687693 0
-0.90405226 -0.27076221 -0.049836215 0
-0.75612289 0.38006085 0.16769342 0
-0.8841778 -0.27199662 -0.049726341 0
-0.74557596 0.37540072 0.16810422 0
-0.86766249 -0.28956878 -0.05022081 0
-0.73213702 0.38483167 0.16594635 0
-0.84632033 -0.28335714 -0.04985771 0
-0.72112674 0.38295871 0.16589896 0
-0.82945365 -0.3012681 -0.050379429 0
-0.80844104 -0.29589808 -0.050065793 0
-0.78913856 -0.30052328 -0.050123088 0
-0.76896822 -0.29909909 -0.049971081 0
-0.74984097 -0.30527818 -0.050101962 0
-0.73005068 -0.30633235 -0.05005724 0
-0.71023959 -0.30688155 -0.050003398 0
-0.69009769 -0.30313849 -0.049804766 0
-0.67129183 -0.3159219 -0.050206963 0
-0.65149158 -0.31689823 -0.050195046 0
-0.63153118 -0.31437361 -0.050066929 0
-0.61209565 -0.32448208 -0.050399132 0
-0.59196264 -0.3137176 -0.04999461 0
-0.57217169 -0.30929708 -0.049825691 0
-0.55249971 -0.30394983 -0.049632575 0
-0.53270578 -0.31480396 -0.050026745 0
-0.51317602 -0.30641294 -0.049742602 0
-0.49324235 -0.31270826 -0.049991868 0
-0.4738346 -0.30584037 -0.049779646 0
-0.45346054 -0.31578708 -0.050177608 0
-0.49606994 0.32782644 0.039149482 0
-0.43433964 -0.30623281 -0.049886778 0
-0.48377311 0.32060742 0.039438296 0
-0.41423622 -0.30962706 -0.050068457 0
-0.47445008 0.34812826 0.03848755 0
-0.39509976 -0.30248082 -0.049881097 0
-0.46115959 0.33114499 0.039137233 0
-0.37410545 -0.31232309 -0.050312772 0
-0.4482581 0.32144564 0.039532065 0
-0.44203097 0.26822352 0.11269818 0
-0.44072717 0.25708032 0.18707801 0
-0.44195962 0.26761365 0.25945807 0
-0.44121644 0.26126188 0.33863893 0
-0.44186416 0.26679796 0.4176594 0
-0.3562634 -0.29548752 -0.049794242 0
-0.43470144 0.30887645 0.040036704 0
-0.42939669 0.26800346 0.11288793 0
-0.42954764 0.26916647 0.18516158 0
-0.42945823 0.2684778 0.25962985 0
-0.4296709 0.27011639 0.3361856 0
-0.42913601 0.26599503 0.41863471 0
-0.43061027 0.27735418 0.49891579 0
-0.3342188 -0.31068861 -0.050438195 0
-0.42043617 0.29387295 0.040636189 0
-0.41971627 0.28882492 0.11081108 0
-0.4186419 0.28129148 0.18326023 0
-0.42002183 0.29096764 0.25426921 0
-0.42046764 0.29409373 0.32869446 0
-0.42073372 0.29595941 0.40681112 0
-0.41920426 0.28523475 0.49577898 0
-0.3163448 -0.29608965 -0.050016746 0
-0.40484661 0.27311683 0.041451175 0
-0.40523177 0.27559412 0.11244696 0
-0.40603897 0.28078568 0.18368551 0
-0.40569428 0.27856863 0.25793698 0
-0.40585753 0.27961874 0.33417425 0
-0.40526769 0.27582508 0.41600052 0
-0.41051146 0.30955088 0.48438647 0
-0.29734078 -0.28997171 -0.049909588 0
-0.39141461 0.26864582 0.041685402 0
-0.39301369 0.27814126 0.11238664 0
-0.39055181 0.26352245 0.18720545 0
-0.39163771 0.26997066 0.26067573 0
-0.39166152 0.27011192 0.3380515 0
-0.3913635 0.26834232 0.41997916 0
-0.39707574 0.30226201 0.48906121 0
-0.27887359 -0.28130019 -0.049718209 0
0.069376312 -2.2012856 0.13138258 0
-0.38659993 0.31262094 0.48485854 0
-0.2578347 -0.28654718 -0.05004102 0
0.11497887 -2.2041368 0.13178329 0
-0.37179288 0.29960358 0.49262789 0
-0.23808418 -0.28444993 -0.050106537 0
0.15908904 -2.1983712 0.13189174 0
-0.36904979 0.34665465 0.46981773 0
-0.21990566 -0.27500045 -0.049912516 0
0.20593901 -2.2046325 0.1324605 0
-0.35714504 0.34687322 0.47095779 0
-0.20014487 -0.27290189 -0.049995828 0
0.24845763 -2.1905866 0.13230796 0
-0.34965643 0.36622977 0.46234414 0
-0.17925499 -0.27511191 -0.050246991 0
0.29632291 -2.1985836 0.13298526 0
-0.0058831363 -0.97631335 0.25294358 0
-0.0053382902 -0.97851682 0.42081562 0
-0.33931315 0.37224221 0.46062976 0
-0.16298892 -0.25886798 -0.049827825 0
0.34310231 -2.2004926 0.1334624 0
-0.32731852 0.37158436 0.46242595 0
-0.14285807 -0.257828 -0.049977608 0
0.38753852 -2.1925545 0.13359842 0
-0.31717658 0.37803334 0.46061954 0
-0.12426633 -0.25104535 -0.049924001 0
-0.30102593 0.36327702 0.46991324 0
-0.10543192 -0.24518812 -0.049913406 0
-0.30459273 0.415564 0.44431326 0
-0.085595585 -0.24252403 -0.050031155 0
-0.29033485 0.40702164 0.4504995 0
-0.067825265 -0.23330653 -0.049912453 0
-0.28689176 0.43234217 0.43896884 0
-0.047622122 -0.23142767 -0.05007866 0
-0.26386479 0.39880353 0.4585461 0
-0.029456059 -0.22348893 -0.050025508 0
-0.013508656 -0.20967698 -0.049757104 0
0.0052253217 -0.20360291 -0.04979118 0
0.027249536 -0.20567214 -0.050147638 0
0.043703876 -0.19366038 -0.049972359 0
0.058876298 -0.17897236 -0.049700152 0
0.078174196 -0.17402017 -0.049814299 0
-0.18998305 0.42860961 0.38019338 0
0.093728207 -0.16073167 -0.049611021 0
0.11655297 -0.16306067 -0.050031628 0
-0.16128229 0.42124516 0.38793132 0
-0.20588578 0.51504922 0.49146357 0
0.13165791 -0.14898765 -0.049813889 0
0.54905957 -0.99904346 0.45874071 0
-0.1616307 0.44830668 0.37778005 0
-0.19547682 0.5172357 0.49298197 0
0.14794089 -0.13757217 -0.049708702 0
0.58716732 -1.0043168 0.46265978 0
-0.15202828 0.45436996 0.37730843 0
-0.18570785 0.52083135 0.49366006 0
0.17096217 -0.139202 -0.05013657 0
0.61304253 -0.98499489 0.46169698 0
-0.1381207 0.45213854 0.38076514 0
-0.17432787 0.52141047 0.49644324 0
0.18865772 -0.13030505 -0.050152164 0
0.64121705 -0.97021294 0.46172419 0
-0.12839951 0.45812362 0.38046312 0
-0.17091332 0.53702533 0.48921266 0
0.20453031 -0.11809529 -0.050041661 0
0.68004972 -0.97461009 0.46578082 0
-0.11178584 0.45165974 0.38611215 0
-0.16785915 0.55266011 0.48194689 0
0.22413994 -0.11257208 -0.050213534 0
0.71619862 -0.97316265 0.46875373 0
-0.081550159 0.4220674 0.4029322 0
-0.1517175 0.54478717 0.49071398 0
0.23582287 -0.093336709 -0.049828835 0
0.75762111 -0.97984624 0.47354525 0
-0.058482476 0.40667343 0.41323823 0
-0.15186863 0.56533188 0.48012996 0
0.25484017 -0.086728342 -0.049974341 0
0.80075067 -0.98804665 0.47880289 0
-0.055566348 0.4257642 0.40707061 0
-0.13807483 0.56198871 0.4860262 0
0.26699093 -0.068898685 -0.049659032 0
0.83934373 -0.98756766 0.48237261 0
-0.12903027 0.56674486 0.4864305 0
0.28609028 -0.062321905 -0.049824737 0
0.88059038 -0.99029708 0.48676205 0
-0.11795587 0.56836742 0.48912501 0
0.30586001 -0.056544784 -0.050036248 0
0.91277701 -0.97814512 0.48808622 0
0.020582398 0.37664771 0.44110891 0
-0.11530114 0.58298612 0.48271203 0
0.32251588 -0.045894746 -0.050050192 0
0.95344228 -0.97818184 0.49216393 0
0.034673534 0.37943488 0.44338861 0
-0.09895549 0.57689154 0.49110061 0
0.33798495 -0.03351498 -0.049998127 0
0.99205703 -0.97426271 0.49552056 0
0.043711804 0.38973618 0.44198826 0
-0.10916299 0.60961497 0.47167268 0
0.34857836 -0.014365559 -0.049657114 0
0.054909967 0.3968699 0.4422445 0
-0.099353589 0.61289126 0.47343534 0
0.37277636 -0.014170175 -0.050157942 0
0.069938324 0.39881027 0.44524157 0
-0.094018169 0.62239784 0.47072291 0
0.3903558 -0.0045907549 -0.050257742 0
1.1319131 -0.98960042 0.10627542 0
1.1322496 -0.99004745 0.30791286 0
0.095604204 0.38692749 0.45552871 0
-0.084073551 0.62559325 0.47271928 0
0.39188364 0.025880689 -0.049425833 0
0.10576978 0.39612973 0.45505187 0
-0.073098339 0.62759614 0.47572231 0
0.41929147 0.022780055 -0.050116185 0
0.12283941 0.39658326 0.4592607 0
-0.071664192 0.6418373 0.4695963 0
0.43251762 0.037882682 -0.049991578 0
-0.059894241 0.64296806 0.47344527 0
0.44847283 0.049584385 -0.050031532 0
-0.059483893 0.65796161 0.46673861 0
0.45632562 0.07079386 -0.049634382 0
-0.047810175 0.65936983 0.47057143 0
0.4732475 0.081261389 -0.049747985 0
-0.039135732 0.66444063 0.47167096 0
0.48813447 0.094111435 -0.049758561 0
1.2050775 -0.70146155 0.09999302 0
-0.028296212 0.66718107 0.47473013 0
0.51323265 0.095928781 -0.050314676 0
1.2046592 -0.65216935 0.098683082 0
-0.02380226 0.67698079 0.47223395 0
0.52512735 0.11225056 -0.050179437 0
0.37816855 0.26729178 0.054552831 0
-0.023769537 0.69133538 0.46603185 0
0.53045362 0.13519716 -0.049720097 0
0.38478395 0.28505325 0.054258917 0
0.83874565 -0.18195474 0.2212643 0
0.54945511 0.14397109 -0.049972769 0
0.39612874 0.29778069 0.054219227 0
0.8387354 -0.14622092 0.21852671 0
-0.005334714 0.70050931 0.46975133 0
0.56371123 0.15764058 -0.049990907 0
0.41054407 0.30746913 0.054341432 0
0.74190909 -0.016673094 0.20133561 0
0.74625009 -0.020919567 0.334896 0
0.7424522 -0.017204409 0.46992043 0
0.00094046321 0.70814449 0.46920857 0
0.5749281 0.17423105 -0.049867421 0
0.42631564 0.31598675 0.054535147 0
0.84951621 -0.087687857 0.21495587 0
0.20441802 0.52764624 0.35626781 0
0.0070147128 0.71594161 0.46858686 0
0.5847711 0.19198465 -0.049688641 0
0.46029064 0.3077637 0.055619404 0
0.84290725 -0.048107032 0.21152224 0
0.18777432 0.56123036 0.34457591 0
0.011069081 0.72558343 0.46641651 0
0.59626371 0.20807624 -0.049602229 0
0.84444159 -0.016992217 0.073563389 0
0.83817703 -0.011310941 0.20847286 0
0.1859441 0.58018851 0.33986098 0
0.024515113 0.72658587 0.47188753 0
0.61443943 0.21818161 -0.049844969 0
0.842655 0.01639461 0.072720706 0
0.84056038 0.018246645 0.20654456 0
0.83356744 0.024429793 0.34085873 0
0.2140878 0.57217026 0.348616 0
0.029878637 0.73504692 0.47090974 0
0.63430256 0.22706234 -0.05017066 0
0.8465274 0.044123646 0.072173774 0
0.84015757 0.049614426 0.20429488 0
0.83468121 0.054335114 0.3374629 0
0.22715886 0.57802218 0.35061154 0
0.035942398 0.74285161 0.47057465 0
0.64384216 0.24492216 -0.050016753 0
0.84042722 0.079733364 0.071183927 0
0.84102303 0.079232804 0.20230262 0
0.83913392 0.080820195 0.33497858 0
0.91844314 0.014177317 0.49782225 0
0.26509687 0.5631786 0.36342433 0
0.28289017 0.54822707 0.46043515 0
0.047600232 0.74593914 0.47465295 0
0.65662891 0.25998616 -0.050024711 0
0.84238225 0.10784816 0.070596755 0
0.83385855 0.11482929 0.19926742 0
0.84281749 0.1074916 0.33241859 0
0.94742829 0.021811957 0.5022701 0
0.2900314 0.56024164 0.37043285 0
0.25107428 0.59214872 0.43868539 0
0.055994414 0.75192559 0.47621748 0
0.66724008 0.27679789 -0.04994192 0
0.84950739 0.13131058 0.070267893 0
0.83582026 0.14223576 0.19757943 0
0.83931953 0.13944268 0.32830489 0
0.9815622 0.025903339 0.50838584 0
0.25834855 0.60317862 0.35325438 0
0.24451049 0.6142242 0.43082517 0
0.051823579 0.76802856 0.46828946 0
0.67876726 0.29282719 -0.049910981 0
0.84706861 0.16192269 0.069523089 0
0.85184461 0.15820789 0.19786975 0
0.84369487 0.16454673 0.32612252 0
0.25608024 0.62159246 0.43269971 0
0.064415716 0.7706688 0.47318611 0
0.69144219 0.30796325 -0.049940839 0
0.85590845 0.18333328 0.069307923 0
0.84982079 0.18794644 0.19575094 0
0.83977145 0.19556165 0.32215497 0
0.26498076 0.63112903 0.43321824 0
0.07448753 0.77548176 0.4761858 0
0.69987816 0.3262583 -0.049790818 0
0.84892052 0.21624291 0.068404429 0
0.84183246 0.22147501 0.19290525 0
0.83664685 0.2253027 0.31849107 0
0.28638884 0.63147485 0.44023067 0
0.080573402 0.78339726 0.47626448 0
0.7100963 0.34314579 -0.049730685 0
0.84981412 0.24270618 0.067873918 0
0.83245689 0.25518388 0.18995774 0
0.84317726 0.24747729 0.31708828 0
0.083485089 0.79360056 0.47409731 0
0.73300558 0.35110217 -0.050233439 0
0.85261267 0.26738364 0.067445666 0
0.83388597 0.28049135 0.18850937 0
0.85328978 0.26690966 0.31654811 0
0.83616477 0.27889627 0.4399868 0
0.096191488 0.79683775 0.4791328 0
0.73652571 0.37270224 -0.049898628 0
0.87779647 0.27644759 0.068001606 0
0.84097129 0.30153835 0.18785056 0
0.84935838 0.29582381 0.31300133 0
0.83707064 0.30419606 0.43650886 0
0.10506602 0.80294645 0.48140481 0
0.74994344 0.38745987 -0.050002277 0
0.90845436 0.2823565 0.068792321 0
0.84122545 0.32693374 0.18635069 0
0.85005575 0.32107872 0.31056479 0
0.84660131 0.3233692 0.43579805 0
0.11547234 0.80815709 0.48480293 0
0.76546639 0.40095025 -0.050202455 0
0.9589507 0.27613556 0.070422664 0
0.84004492 0.35284048 0.18472052 0
0.83914584 0.35342044 0.30572537 0
0.84405082 0.35025626 0.43149862 0
0.11901095 0.81797165 0.48337322 0
0.76826769 0.42259252 -0.049872082 0
0.98788613 0.28480381 0.071128152 0
0.84525996 0.37428761 0.18395613 0
0.85065335 0.37090379 0.30578387 0
0.84115523 0.37686282 0.42723143 0
0.13467516 0.82010883 0.49053088 0
0.77319545 0.44266844 -0.049644604 0
1.0293093 0.2864418 0.072355047 0
0.8458069 0.39837623 0.1826441 0
0.84674472 0.3978042 0.30263191 0
0.85319859 0.39386737 0.42756194 0
0.13727064 0.83057564 0.48857406 0
0.79680949 0.45148343 -0.050204892 0
1.079321 0.28399837 0.073930137 0
0.83940798 0.42622918 0.18051206 0
0.83995396 0.42590553 0.2989704 0
0.84129399 0.42511106 0.42085084 0
0.13502331 0.8438189 0.48338416 0
0.79739279 0.47402257 -0.049816877 0
0.84606534 0.44598961 0.18005832 0
0.83942991 0.44981122 0.29671353 0
0.83992654 0.44952518 0.41740692 0
0.14977904 0.84701669 0.4899829 0
0.80941147 0.489856 -0.049911004 0
0.8495248 0.46742052 0.17924473 0
0.84491271 0.47000003 0.29577613 0
0.83540004 0.47532052 0.4131538 0
0.15291454 0.85703659 0.48866674 0
0.82454902 0.50407529 -0.050139319 0
0.84972054 0.49040997 0.17807071 0
0.83734936 0.49712616 0.29222026 0
0.8533389 0.48844564 0.41554612 0
0.82965726 0.52376246 -0.04996869 0
0.85566515 0.51006424 0.17763799 0
0.83839649 0.51915956 0.29051292 0
0.84529179 0.51552784 0.41047722 0
0.83542722 0.54298013 -0.049835652 0
0.84898537 0.5360558 0.17571458 0
0.84200603 0.53962022 0.28939176 0
0.83821458 0.5415566 0.4058167 0
0.84321564 0.53900242 0.52923238 0
0.84391755 0.56075013 -0.049821474 0
0.84425956 0.56058085 0.17407683 0
0.84678215 0.55933231 0.28856432 0
0.83884913 0.56325871 0.40347403 0
0.83130723 0.56699151 0.52150959 0
0.85728592 0.57617414 -0.0500094 0
0.86516351 0.57239795 0.17554034 0
0.84625369 0.58146256 0.28673074 0
0.84393793 0.5825727 0.40248325 0
0.84422821 0.58243358 0.52312434 0
0.87240821 0.59093404 -0.050272919 0
0.90599126 0.57535261 0.17937344 0
0.8368327 0.60743994 0.28319544 0
0.84184176 0.60511589 0.39954603 0
0.84988254 0.60138518 0.52213615 0
0.87944406 0.60952985 -0.05022582 0
0.93676394 0.58380741 0.18200493 0
0.84613174 0.62447888 0.28344542 0
0.84385234 0.62550175 0.3978534 0
0.84935349 0.62303311 0.51898593 0
0.88705474 0.62784362 -0.05021048 0
0.97154492 0.5911994 0.18510413 0
0.83776397 0.64922154 0.28026339 0
0.8490743 0.64431614 0.39713466 0
0.84180206 0.64747018 0.5134055 0
0.90010113 0.64387238 -0.05041457 0
1.0026163 0.60093594 0.18776569 0
0.84095722 0.66864365 0.27941966 0
0.83646065 0.67052698 0.39155197 0
0.83907002 0.66943407 0.50970399 0
0.89734226 0.66644686 -0.05001682 0
0.90701181 0.6625393 0.062389158 0
1.0292892 0.61312616 0.18991815 0
0.84156984 0.68898493 0.27812591 0
0.84449083 0.68780452 0.39176935 0
0.83988291 0.68966663 0.50739276 0
0.90618831 0.68420315 -0.050076559 0
0.77536255 0.73516405 0.057064075 0
1.069429 0.62061548 0.19363102 0
0.84316343 0.70875341 0.27707809 0
0.83418804 0.71224958 0.38702574 0
0.83535081 0.71179664 0.50327575 0
0.27186772 0.93129182 0.4512873 0
0.90891045 0.70430481 -0.049911063 0
0.78614277 0.75035501 0.057229903 0
0.84831029 0.72703594 0.2767677 0
0.83308357 0.7327475 0.38489503 0
0.83079702 0.73360521 0.4992696 0
0.29119244 0.93601125 0.4594757 0
0.91852242 0.72179985 -0.050017443 0
0.79138023 0.76767325 0.05719189 0
0.85252184 0.74561316 0.27632362 0
0.8224135 0.75647634 0.38024962 0
0.8359229 0.75160211 0.49880254 0
0.25140861 0.96249741 0.43621814 0
0.91386646 0.74432337 -0.049592584 0
0.94268745 0.73433298 0.062681593 0
0.8483637 0.76702911 0.27432865 0
0.84861916 0.76694053 0.3856627 0
0.84223276 0.76915431 0.49883443 0
0.82982796 0.77345425 0.61389363 0
0.25789627 0.97170711 0.43774185 0
0.92926842 0.75986332 -0.049934849 0
0.80495554 0.80120891 0.05725769 0
0.87361735 0.77837247 0.16807421 0
0.84719127 0.78716159 0.27296087 0
0.84322411 0.78848106 0.38259208 0
0.84410328 0.78818864 0.49738729 0
0.83661026 0.79068077 0.61425912 0
0.29413411 0.97110468 0.45500737 0
0.93884081 0.77751756 -0.050064664 0
0.82241505 0.81461853 0.057702173 0
0.85617191 0.80386132 0.1654433 0
0.85364848 0.80466545 0.27309081 0
0.84200197 0.80837685 0.38072392 0
0.84410316 0.80770725 0.49537665 0
0.83864421 0.80944681 0.61265415 0
0.30430385 0.97972322 0.45851061 0
0.94173199 0.79730755 -0.049952928 0
0.83282882 0.8305068 0.057888296 0
0.85125667 0.82488906 0.16426641 0
0.84258729 0.82753187 0.26995891 0
0.83365542 0.83025479 0.37702963 0
0.83637029 0.82942718 0.49076986 0
0.8378095 0.82898843 0.60991615 0
0.3116031 0.98940295 0.46055585 0
0.94439346 0.81708562 -0.049842343 0
0.81926674 0.85351515 0.057189684 0
0.85203594 0.84397471 0.16376092 0
0.87583369 0.83704621 0.27521524 0
0.83872038 0.8478514 0.376986 0
0.83588642 0.8486765 0.48878667 0
0.84641606 0.84561086 0.61136585 0
0.32798061 0.99654877 0.46738803 0
0.95456403 0.83470201 -0.050019603 0
0.98773426 0.8254962 0.063248582 0
0.86492616 0.85957932 0.16463478 0
0.8901189 0.85258758 0.27692682 0
0.84398848 0.86539018 0.37705505 0
0.84069186 0.86630511 0.48872054 0
0.8403694 0.86639458 0.60660422 0
0.31310859 1.0127261 0.45801684 0
0.96065825 0.85352713 -0.050053965 0
0.81038016 0.89320302 0.056505006 0
0.86049598 0.87997162 0.16360244 0
0.92013341 0.86422634 0.28160328 0
0.83942467 0.88553476 0.37458786 0
0.82736486 0.88871878 0.48249179 0
0.84602088 0.88379329 0.60698014 0
0.3184146 1.0230901 0.45922416 0
0.96609873 0.87254429 -0.050072894 0
0.825082 0.90788186 0.05688275 0
0.85911483 0.8993535 0.16293964 0
0.95788985 0.87460136 0.28773171 0
0.8254028 0.90780145 0.36970764 0
0.84417576 0.90309709 0.48671639 0
0.84735829 0.90229958 0.60560709 0
0.3229225 1.0337187 0.4600834 0
0.95948416 0.89443845 -0.049658239 0
0.82360786 0.92667514 0.056672629 0
0.85823876 0.918459 0.16236161 0
0.98661679 0.8880012 0.29219243 0
0.83170432 0.92475426 0.37024465 0
0.8378281 0.9233014 0.48307177 0
0.84190923 0.92233318 0.60144967 0
0.32650933 1.0446121 0.46053541 0
0.95892996 0.91467863 -0.049476579 0
0.8469364 0.93976396 0.057379197 0
0.85722309 0.93745989 0.16179639 0
1.0125029 0.90267891 0.29614681 0
0.84195918 0.94087881 0.37186968 0
0.8473801 0.9396646 0.48494512 0
0.83961481 0.94140393 0.59874958 0
0.3399516 1.053323 0.46610981 0
0.98688537 0.92878121 -0.050344914 0
0.85872167 0.95579839 0.057668746 0
0.86665064 0.95412695 0.16240594 0
1.0511491 0.91523427 0.30247664 0
0.83885819 0.95998567 0.37006098 0
0.83698851 0.96037978 0.48010275 0
0.84159571 0.95940858 0.59796751 0
0.34669587 1.0637347 0.46830067 0
0.9853012 0.94935077 -0.050142545 0
0.89935523 0.96634102 0.059014782 0
0.88646585 0.96888912 0.16417497 0
1.0848277 0.92967588 0.3079066 0
0.84940571 0.9762153 0.37186906 0
0.84190983 0.97769713 0.48055404 0
0.84699148 0.97669256 0.59872442 0
0.36183533 1.0726008 0.4748348 0
0.97267753 0.97181666 -0.049549278 0
0.85058683 0.99435872 0.37129593 0
0.83524197 0.99719191 0.47715735 0
0.83570844 0.99710578 0.59254891 0
0.38869312 1.0796398 0.48737285 0
0.98526853 0.98953325 -0.049880911 0
0.84937257 1.0128587 0.37016317 0
0.83878607 1.0146759 0.47729808 0
0.84228641 1.014075 0.59399813 0
0.38923606 1.0918376 0.48657 0
0.99252313 1.0083368 -0.05002705 0
0.43963227 1.0960845 0.042041093 0
0.4283773 1.0978707 0.11326747 0
0.43237618 1.097236 0.18674023 0
0.43596414 1.0966666 0.26261279 0
0.4301835 1.097584 0.33867785 0
0.43668267 1.0965526 0.42274019 0
0.40101555 1.1022131 0.49153909 0
1.0025802 1.026839 -0.050282586 0
0.41454449 1.1125883 0.041066922 0
0.40899435 1.1133977 0.11095691 0
0.40973511 1.1132896 0.18226756 0
0.40512612 1.1139617 0.2541703 0
0.40392366 1.1141371 0.32921174 0
0.40722337 1.1136559 0.40961576 0
0.39968571 1.114755 0.48993668 0
0.99768835 1.0475141 -0.050007701 0
0.39583573 1.1275527 0.040331617 0
0.42295346 1.1239464 0.11228624 0
0.43912366 1.121796 0.18730529 0
0.42792633 1.1232851 0.25960335 0
0.43025932 1.1229749 0.33748376 0
0.4373298 1.1220345 0.4214828 0
0.41202065 1.1254003 0.495314 0
0.9979462 1.0673783 -0.049927771 0
0.38274422 1.1413215 0.039806191 0
0.4384124 1.1346306 0.11379027 0
0.42697319 1.1360055 0.18480945 0
0.42001876 1.1368413 0.25716746 0
0.42465064 1.1362846 0.33507645 0
0.42204729 1.1365975 0.41444805 0
1.0140866 1.0854824 -0.050427224 0
0.35308793 1.1564991 0.038692918 0
0.84121376 1.1040556 0.36488655 0
0.83865792 1.1043302 0.47313565 0
0.83613044 1.1046017 0.58629513 0
1.0033386 1.1064904 -0.049970023 0
0.36083552 1.1673472 0.038929172 0
0.85149795 1.1208725 0.36706561 0
0.8367669 1.1222677 0.47190961 0
0.84609061 1.1213846 0.58969933 0
1.0061991 1.1260617 -0.050010249 0
0.34939393 1.1799383 0.0384827 0
0.84844321 1.1390021 0.3658821 0
0.85634536 1.1383539 0.47792697 0
0.83356053 1.1402229 0.5838449 0
1.00465 1.1459703 -0.049901448 0
0.36872968 1.1900806 0.039143726 0
0.85119849 1.1566144 0.3662439 0
0.83933038 1.1574377 0.47180301 0
0.84686595 1.1569149 0.58881658 0
1.0062915 1.1656244 -0.049915791 0
0.85310525 1.1743135 0.36644533 0
0.83492404 1.1753448 0.46996507 0
0.84093982 1.1750036 0.58589655 0
1.0183544 1.1848321 -0.05031139 0
0.86198837 1.1917278 0.36848521 0
0.83780652 1.1927941 0.47063059 0
0.84041041 1.1926793 0.58530915 0
1.0077835 1.2050349 -0.049907017 0
0.85896093 1.2097212 0.36753997 0
0.83814389 1.2103767 0.47052184 0
0.84859878 1.2100475 0.58842546 0
1.0184184 1.2245549 -0.050269037 0
0.84988135 1.2277385 0.3651084 0
0.84340054 1.2278609 0.47212368 0
0.84318644 1.227865 0.58599949 0
1.0168723 1.2444102 -0.050204914 0
0.84949642 1.245464 0.36495325 0
0.84624785 1.2454844 0.47299707 0
0.84209222 1.2455106 0.58545446 0
1.0144331 1.2642176 -0.050117832 0
0.84783441 1.2631688 0.36452922 0
0.82725745 1.2630392 0.46667895 0
0.84275061 1.2631367 0.5857271 0
1.0167192 1.2840561 -0.050208364 0
0.84584743 1.2808285 0.36407903 0
0.84618145 1.2808348 0.47304904 0
0.84749454 1.2808596 0.58778352 0
1.0223464 1.3040668 -0.050427191 0
0.85036236 1.2986512 0.36534509 0
0.83216304 1.2980781 0.46853104 0
0.83601409 1.2981994 0.58321238 0
1.005637 1.3232502 -0.049856924 0
0.85243887 1.3164943 0.36604643 0
0.84433645 1.316137 0.47280517 0
0.84227353 1.316046 0.58608127 0
1.0049264 1.3429413 -0.049866974 0
0.85933346 1.3346828 0.3680369 0
0.84030706 1.3336036 0.47175884 0
0.84300977 1.3337569 0.58675492 0
1.0013646 1.3624449 -0.049783874 0
1.3025112 1.3833337 0.072561026 0
1.3065056 1.3836107 0.20679469 0
1.2885286 1.3823638 0.33971199 0
0.85935003 1.3525941 0.36832863 0
0.83494967 1.3509016 0.47034207 0
0.84749454 1.3517717 0.58907741 0
1.0042094 1.3824183 -0.049938973 0
1.2422907 1.4019476 0.070467331 0
1.2408974 1.4018334 0.19991162 0
1.0212107 1.3838129 0.29165787 0
0.85314816 1.3700269 0.36708653 0
0.83648151 1.3686599 0.47129616 0
0.83027428 1.3681507 0.58247972 0
1.0126581 1.4030355 -0.05030423 0
1.2443553 1.4249815 0.070613146 0
1.2508711 1.4255986 0.20120417 0
0.90212077 1.3925656 0.27040207 0
0.86114496 1.3886844 0.36953792 0
0.84146208 1.3868201 0.47347865 0
0.83972591 1.3866557 0.58705229 0
1.0020869 1.4218715 -0.049996357 0
0.63600117 1.3825397 0.048851412 0
0.64184624 1.3831677 0.13562463 0
0.64297384 1.3832889 0.22373299 0
0.64266461 1.3832557 0.31393877 0
0.83796746 1.4042387 0.47290462 0
0.83454555 1.4038711 0.58563513 0
0.98592716 1.4398203 -0.049495589 0
0.56007856 1.3886361 0.046182822 0
0.54487342 1.3868085 0.12531392 0
0.55297047 1.3877817 0.20769644 0
0.55377382 1.3878783 0.29153827 0
0.84132773 1.4224404 0.47470024 0
0.84177941 1.4224946 0.58948302 0
1.0059887 1.4622328 -0.050306641 0
0.54917663 1.4014828 0.045854282 0
0.53874749 1.4000958 0.1248401 0
0.56184477 1.4031675 0.20963274 0
0.55629987 1.4024301 0.2926439 0
0.83517641 1.439517 0.47338337 0
0.84082395 1.440268 0.5900147 0
0.98208386 1.4788153 -0.049543101 0
0.55493373 1.4165268 0.046132006 0
0.56029242 1.4173083 0.12738879 0
0.54326266 1.414825 0.20660378 0
0.55641562 1.4167429 0.29317734 0
0.84522146 1.4588575 0.47758174 0
0.84139258 1.4582993 0.59127861 0
0.99268228 1.5003316 -0.050032809 0
0.56146282 1.4318941 0.046445038 0
0.55632931 1.4310794 0.1271905 0
0.5518164 1.4303631 0.20855072 0
0.54795176 1.4297497 0.29154199 0
0.83706146 1.4756335 0.47573796 0
0.83878964 1.4759078 0.59131056 0
0.98875207 1.5197078 -0.050007094 0
0.55128258 1.4446195 0.046160478 0
0.55475694 1.4452159 0.12727135 0
0.5478006 1.4440218 0.20823757 0
0.55698782 1.4455988 0.29447559 0
0.84863156 1.4956572 0.48062152 0
0.82977182 1.4924201 0.58874083 0
0.99201924 1.5403975 -0.050251473 0
0.55434114 1.4595876 0.046361696 0
0.55255991 1.4592587 0.12730357 0
0.5432021 1.4575309 0.20784836 0
0.55049485 1.4588774 0.29343879 0
0.83199149 1.510851 0.47605765 0
0.84868616 1.5139334 0.59801298 0
0.98347288 1.5589309 -0.050076012 0
0.54719895 1.4726859 0.046199042 0
0.54925376 1.4730922 0.1272337 0
0.56266266 1.4757429 0.21191236 0
0.5586583 1.4749513 0.29625455 0
0.84366196 1.5312923 0.48114824 0
0.83885247 1.5303415 0.59528929 0
0.9835946 1.5791682 -0.050224844 0
0.53883952 1.4854128 0.045997553 0
0.54538339 1.4867923 0.12712078 0
0.55344051 1.4884908 0.21074285 0
0.55687839 1.4892155 0.29653785 0
0.838368 1.5485541 0.48057175 0
0.84290999 1.5495116 0.59852362 0
0.97417825 1.5973799 -0.050034452 0
0.54650134 1.501585 0.046387501 0
0.5560444 1.5037225 0.1286269 0
0.54923648 1.5021976 0.21052706 0
0.54852611 1.5020385 0.29515049 0
0.84867746 1.5692691 0.48538747 0
0.84197837 1.5677686 0.59975249 0
0.9676128 1.6161332 -0.049956501 0
0.54409212 1.5156528 0.046416551 0
0.54447049 1.5157425 0.12770514 0
0.5413546 1.5150032 0.20966089 0
0.55128437 1.5173591 0.29671457 0
0.83679157 1.5850958 0.48271737 0
0.83704454 1.5851558 0.5993796 0
0.96642023 1.6361794 -0.050084725 0
0.55010015 1.5318532 0.046761997 0
0.55430275 1.5329064 0.12916884 0
0.54472178 1.5305054 0.21091338 0
0.54932147 1.5316581 0.29709253 0
0.83732599 1.6038295 0.48436704 0
0.8417235 1.6049315 0.60320199 0
0.96371526 1.6559231 -0.050166842 0
0.55108374 1.5469816 0.046930589 0
0.5481531 1.5462078 0.12888497 0
0.5551272 1.5480491 0.21351925 0
0.55436748 1.5478485 0.29936865 0
0.84467357 1.6244941 0.48844761 0
0.83942825 1.6231092 0.60415703 0
0.94579226 1.6715066 -0.049694601 0
0.55247241 1.562348 0.047121827 0
0.55282992 1.5624473 0.12982625 0
0.54912287 1.5614184 0.21310416 0
0.55328149 1.5625726 0.30008298 0
0.83463186 1.6406562 0.48662817 0
0.844616 1.6434271 0.60842896 0
0.93676013 1.6893351 -0.049558509 0
0.54338676 1.574808 0.046931475 0
0.55589443 1.5784495 0.13061339 0
0.56060523 1.579821 0.21600375 0
0.54601508 1.5755732 0.29920688 0
0.84034759 1.6612655 0.49033251 0
0.8386119 1.6607602 0.60800046 0
0.93115216 1.7081103 -0.049558051 0
0.8442207 1.6816092 0.37984765 0
0.83809501 1.6797417 0.49136972 0
0.83569008 1.6790086 0.60899878 0
0.92854553 1.7278448 -0.049678899 0
0.86057132 1.7061837 0.38569629 0
0.8405208 1.6997943 0.49412578 0
0.8361364 1.6983972 0.6115644 0
0.93687075 1.7513083 -0.050220881 0
0.84650201 1.7212523 0.38347343 0
0.83334023 1.7168747 0.49361366 0
0.83761889 1.7182978 0.61469918 0
0.92944413 1.7697195 -0.050181191 0
0.83507985 1.7370094 0.38200673 0
0.83361131 1.7365004 0.49579868 0
0.83517855 1.7370436 0.6162383 0
0.90955979 1.7836095 -0.049677271 0
0.84696788 1.7610261 0.38690951 0
0.83210069 1.755662 0.49745068 0
0.83607179 1.7570947 0.61935538 0
0.91088265 1.8050781 -0.049986266 0
0.84312743 1.7796631 0.38763186 0
0.83368462 1.776121 0.50029564 0
0.8344503 1.7764083 0.6214866 0
0.90529293 1.8240912 -0.050042257 0
0.83745629 1.7976667 0.38792059 0
0.83268386 1.7958076 0.50232351 0
0.8182109 1.79017 0.61724079 0
0.90030497 1.8433936 -0.0501309 0
0.82928056 1.814692 0.38758385 0
0.82975477 1.8148837 0.50375849 0
0.8333233 1.8163258 0.62705112 0
0.88082629 1.8566978 -0.049668513 0
0.84347183 1.8410527 0.3934913 0
0.82752115 1.834372 0.50553834 0
0.83312422 1.8367187 0.63018763 0
0.87602526 1.8760159 -0.049781278 0
0.82875103 1.8555126 0.39148286 0
0.82920152 1.855708 0.50883609 0
0.82126802 1.8522671 0.62819612 0
0.86568087 1.8929369 -0.049687248 0
0.83438247 1.8788917 0.39520523 0
0.82472235 1.8745567 0.51000404 0
0.81815726 1.8716106 0.63025075 0
0.86514682 1.91434 -0.049987134 0
0.83033711 1.8981894 0.3963103 0
0.81351334 1.8903838 0.50879741 0
0.81967634 1.8932432 0.63454139 0
0.86907846 1.9381218 -0.050476279 0
0.83189994 1.9202999 0.39907733 0
0.81804997 1.9136608 0.51346606 0
0.81380445 1.9116256 0.63558918 0
0.84110242 1.9464997 -0.049709335 0
0.82262486 1.9373544 0.39885545 0
0.80871302 1.9304689 0.51312232 0
0.80491036 1.9285867 0.63535404 0
0.84742159 1.9717888 -0.050316483 0
0.80792898 1.9516193 0.3971405 0
0.80503792 1.9501427 0.51497024 0
0.81390184 1.9546696 0.64353138 0
0.83651751 1.9884939 -0.050245509 0
0.80860764 1.973794 0.39989913 0
0.80105954 1.9698184 0.51680934 0
0.80092901 1.9697497 0.6416381 0
0.82182568 2.0030894 -0.050028693 0
0.80126232 1.9919258 0.40042806 0
0.7804262 1.9806142 0.51244956 0
0.78689486 1.9841259 0.63932097 0
0.81199497 2.0202322 -0.05001669 0
0.78736418 2.0064559 0.39911166 0
0.78903538 2.0073907 0.51925778 0
0.79167122 2.0088649 0.64599675 0
0.80326468 2.0380025 -0.050058793 0
0.78689212 2.0285726 0.40179235 0
0.78161615 2.0255339 0.52009076 0
0.78472894 2.0273268 0.6472702 0
0.79034072 2.0533247 -0.049936417 0
0.77020234 2.0413859 0.39976528 0
0.77921981 2.0467319 0.52296066 0
0.77253455 2.0427685 0.6461367 0
0.79388386 2.0785944 -0.050509769 0
0.78012997 2.0702047 0.40572524 0
0.7667827 2.062063 0.52204335 0
0.76527816 2.0611453 0.64748329 0
0.77407962 2.0896969 -0.050117031 0
0.76250595 2.0824356 0.40354314 0
0.76222819 2.0822613 0.52429026 0
0.7595765 2.0805976 0.6497131 0
0.76414913 2.1068432 -0.050146494 0
0.75221473 2.0991445 0.4036161 0
0.75762171 2.1026323 0.52663523 0
0.75198811 2.0989983 0.65115178 0
0.74805075 2.1199281 -0.0499212 0
0.74099964 2.115253 0.40347105 0
0.74254495 2.1162775 0.52492219 0
0.74639076 2.1188276 0.65370619 0
0.74294215 2.1403127 -0.050175823 0
0.73929268 2.1378262 0.40632242 0
0.74393982 2.1409924 0.52989447 0
0.74236113 2.1399169 0.65719265 0
0.72574526 2.1524591 -0.049917053 0
0.72668344 2.1531157 0.40589204 0
0.73505265 2.1589737 0.53086102 0
0.73183841 2.156724 0.65756208 0
0.71404237 2.168334 -0.049904186 0
0.71626836 2.1699343 0.40620741 0
0.72504431 2.1762431 0.5314694 0
0.71928555 2.1721032 0.6570071 0
0.70895451 2.1890845 -0.050193571 0
0.7124148 2.1916387 0.40867326 0
0.71081585 2.1904585 0.53042793 0
0.70937377 2.189394 0.65790534 0
0.6924569 2.2014489 -0.049986292 0
0.70679086 2.2123108 0.41068316 0
0.69901496 2.2064185 0.53046417 0
0.70134634 2.2081852 0.65990365 0
0.66992849 2.2089412 -0.049511217 0
0.68977135 2.2243748 0.40911323 0
0.68590206 2.2213655 0.53003198 0
0.69699758 2.2299955 0.66397476 0
0.67008358 2.2341149 -0.050071809 0
0.67816716 2.2405672 0.40934464 0
0.6718362 2.2355139 0.52926958 0
0.67681104 2.2394848 0.65984142 0
0.65994722 2.2513747 -0.050177842 0
0.67467421 2.2634366 0.41232029 0
0.67531711 2.2639632 0.53612131 0
0.66798931 2.2579615 0.66181111 0
0.64749855 2.2667935 -0.05018726 0
0.6627391 2.2795999 0.41260973 0
0.65708596 2.2748497 0.53376567 0
0.65906256 2.2765105 0.66387028 0
0.63083941 2.2785954 -0.050007425 0
0.72064143 2.3560052 0.066240199 0
0.72083277 2.3561702 0.18736434 0
0.71940869 2.3549426 0.31001598 0
0.65457302 2.2990539 0.41424006 0
0.64969879 2.2948523 0.53620726 0
0.64429396 2.2901933 0.66288543 0
0.6192655 2.2947288 -0.050074957 0
0.67872244 2.3473003 0.064908408 0
0.67556018 2.3445041 0.18287458 0
0.6781339 2.3467798 0.30344015 0
0.63935643 2.3124931 0.41357049 0
0.63361746 2.3074186 0.53492647 0
0.64394706 2.3165519 0.66995478 0
0.60548574 2.3089302 -0.05004669 0
0.66265875 2.3607793 0.0648022 0
0.66127259 2.3595223 0.18280737 0
0.66743082 2.3651071 0.30420715 0
0.62074095 2.3227649 0.41178057 0
0.62185496 2.3237751 0.53564137 0
0.63185936 2.3328478 0.67072743 0
0.58893543 2.3205316 -0.049891677 0
0.64032513 2.368329 0.064397261 0
0.64511126 2.3727806 0.18249199 0
0.63236862 2.3609288 0.29904002 0
0.60822934 2.3384769 0.41214108 0
0.60964471 2.3397932 0.53625423 0
0.61127204 2.3413069 0.66681844 0
0.58093041 2.3401375 -0.050163567 0
0.62268406 2.3799646 0.064223617 0
0.62528402 2.3824446 0.18165298 0
0.62864441 2.3856499 0.30160809 0
0.59492689 2.3534882 0.41229653 0
0.59946269 2.3578148 0.53789932 0
0.59876698 2.357151 0.66754746 0
0.56537229 2.3526273 -0.050073866 0
0.61186463 2.3981063 0.064395785 0
0.61505824 2.4012303 0.18226521 0
0.61637396 2.4025173 0.30212992 0
0.58607811 2.3728819 0.41411045 0
0.58548373 2.3723004 0.53790259 0
0.58699328 2.3737772 0.66882396 0
0.54645425 2.3616617 -0.049821015 0
0.60184175 2.4172237 0.064621903 0
0.60399145 2.4193802 0.18279299 0
0.59185117 2.4072018 0.29958239 0
0.56849796 2.3837748 0.41287974 0
0.57461411 2.3899102 0.53945661 0
0.57088119 2.3861656 0.66769439 0
0.53795546 2.3811634 -0.050104342 0
0.60331899 2.4484053 0.065452248 0
0.59757727 2.4424984 0.18408 0
0.60610753 2.4512739 0.30705065 0
0.56185418 2.4057488 0.41568601 0
0.56251293 2.4064264 0.54054821 0
0.565139 2.409128 0.67280197 0
0.51731187 2.3881471 -0.049773838 0
0.61697072 2.4932871 0.066945754 0
0.60750419 2.4833 0.18798225 0
0.61078948 2.4867659 0.31225324 0
0.54436094 2.4166839 0.414608 0
0.55667025 2.4296701 0.54478097 0
0.54696685 2.4194331 0.67066979 0
0.50863177 2.4077363 -0.050072674 0
0.53307861 2.4341869 0.41590127 0
0.53154117 2.4325235 0.53976089 0
0.53344673 2.4345851 0.67142469 0
0.48089823 2.4065018 -0.049372654 0
0.51834005 2.44805 0.41597894 0
0.52050918 2.4504571 0.54169381 0
0.52032453 2.4502523 0.6725536 0
0.48488984 2.4406326 -0.050377715 0
0.50694424 2.4657342 0.41741687 0
0.49829146 2.4558861 0.53812939 0
0.49850544 2.4561296 0.66836613 0
0.4692342 2.45292 -0.050342813 0
0.48686966 2.4735093 0.41555905 0
0.49429211 2.4821751 0.54386425 0
0.48914275 2.4761631 0.67209142 0
0.4415774 2.4507999 -0.049647428 0
0.46757135 2.4819329 0.41402066 0
0.46640143 2.4805317 0.53745484 0
0.4692609 2.4839566 0.66923976 0
0.43312368 2.4715052 -0.050025858 0
0.45511302 2.4985261 0.41526565 0
0.46221408 2.507252 0.54342848 0
0.45574149 2.4992983 0.6705808 0
0.40938404 2.4733706 -0.049546957 0
0.44282755 2.5155401 0.41668665 0
0.44194177 2.5144231 0.54106432 0
0.43806759 2.5095382 0.669303 0
0.39950779 2.4926286 -0.049870979 0
0.42679307 2.5279374 0.41665536 0
0.42148623 2.52107 0.5386104 0
0.42240909 2.5222642 0.66945541 0
0.39170417 2.5150249 -0.050337777 0
0.40767708 2.5362415 0.41538209 0
0.41369179 2.5442309 0.54316455 0
0.40765253 2.5362091 0.67034072 0
0.36856881 2.5170753 -0.049903918 0
0.40079716 2.5610251 0.41941071 0
0.39748076 2.5565026 0.54322499 0
0.39122137 2.5479667 0.67019075 0
0.35281679 2.5289438 -0.049917493 0
0.37754521 2.5635719 0.4164592 0
0.37412551 2.5587833 0.53928429 0
0.37714574 2.5630126 0.67182094 0
0.34358582 2.5502138 -0.050348409 0
0.35379574 2.5648987 0.41324562 0
0.36247811 2.5773864 0.54211158 0
0.35792509 2.570838 0.66988546 0
0.3236672 2.5562391 -0.050123531 0
0.34284517 2.5845773 0.41580546 0
0.34384802 2.5860591 0.54098481 0
0.3424677 2.5840197 0.67076582 0
0.30647579 2.5661228 -0.050076216 0
0.32652035 2.5965605 0.41603556 0
0.32594499 2.5956867 0.54034156 0
0.32280025 2.5909116 0.66861767 0
0.28668901 2.5718994 -0.049864359 0
0.30564091 2.6014822 0.41418681 0
0.30933252 2.6072445 0.5405556 0
0.30807284 2.6052783 0.67028445 0
0.26857939 2.5800912 -0.049766272 0
0.28627029 2.6084867 0.41305789 0
0.2889066 2.6127181 0.53846538 0
0.28702977 2.6097057 0.66718048 0
0.2524409 2.5914102 -0.049809001 0
0.26761946 2.6164706 0.41230276 0
0.27170983 2.6232238 0.53844875 0
0.27521542 2.6290116 0.67143101 0
0.24656589 2.6202316 -0.050584942 0
0.25625202 2.6366878 0.41524464 0
0.25523314 2.6349568 0.53898996 0
0.25813004 2.6398785 0.67166746 0
0.2212217 2.6161113 -0.05000364 0
0.23064961 2.6326003 0.41106465 0
0.23600037 2.6419587 0.53779393 0
0.23270459 2.6361945 0.66506529 0
0.20188113 2.6219666 -0.049846809 0
0.22465046 2.6629791 0.41706592 0
0.21628238 2.6479063 0.53629762 0
0.21830972 2.6515582 0.66768157 0
0.18741782 2.636647 -0.050058842 0
0.19865741 2.6575065 0.41265848 0
0.19413228 2.6491084 0.53311205 0
0.20369096 2.6668484 0.67033124 0
0.16692485 2.640121 -0.049825408 0
0.18136181 2.6677418 0.41289648 0
0.1846676 2.6740665 0.53897053 0
0.17934848 2.6638899 0.66452432 0
0.1556064 2.6613421 -0.050314128 0
0.1603414 2.6706858 0.41111004 0
0.16058733 2.6711712 0.53444767 0
0.16029634 2.6705968 0.66338348 0
0.13313587 2.6606407 -0.049933601 0
0.1440369 2.6828411 0.41202816 0
0.13893355 2.6724479 0.5316118 0
0.14123751 2.67714 0.66228503 0
0.11636712 2.6713128 -0.05001618 0
0.12077304 2.6805789 0.40892595 0
0.12363424 2.6865959 0.53363526 0
0.11908194 2.6770222 0.65824986 0
0.09817829 2.6790457 -0.049991086 0
0.10082521 2.684798 0.40774447 0
0.1043615 2.6924832 0.53269243 0
0.1001149 2.6832542 0.65725946 0
0.07808467 2.6824622 -0.049806442 0
0.087021552 2.7025461 0.41041785 0
0.078644358 2.6837199 0.52650863 0
0.086593173 2.7015831 0.66186517 0
0.061008297 2.692574 -0.049892846 0
0.061687134 2.6941526 0.40586534 0
0.066763304 2.7059584 0.53170294 0
0.063039206 2.6972971 0.6563307 0
0.042516731 2.6994438 -0.049861822 0
0.045483731 2.7065909 0.40717947 0
0.046856485 2.7098975 0.53033233 0
0.044997595 2.70542 0.6565212 0
0.026975354 2.7136307 -0.050121311 0
0.026783964 2.7131524 0.40692818 0
0.023922941 2.7060082 0.5262531 0
0.024366459 2.7071157 0.65394592 0
0.0070684166 2.7170219 -0.049973939 0
0.0094366884 2.7231586 0.40768462 0
0.010916791 2.726994 0.53116769 0
0.011303267 2.7279954 0.66001248 0
-0.011734285 2.7230961 -0.049939007 0
-0.01267139 2.7205737 0.40507025 0
-0.012021043 2.7223244 0.52701199 0
-0.0094799185 2.7291641 0.65741748 0
-0.027556757 2.7374485 -0.050227061 0
-0.030455628 2.7293341 0.40561688 0
-0.029049555 2.7332699 0.528494 0
-0.034086145 2.7191718 0.6500423 0
-0.046586372 2.7430894 -0.050192602 0
-0.055257298 2.7178183 0.40075257 0
-0.052712299 2.7252357 0.52336937 0
-0.053833164 2.7219689 0.64843321 0
-0.066510268 2.7459452 -0.05006263 0
-0.072966851 2.7263265 0.40137076 0
-0.072962053 2.726341 0.5215717 0
-0.073469736 2.7247984 0.64695358 0
-0.087070324 2.7464886 -0.049856022 0
-0.089361645 2.7392192 0.40321913 0
-0.093208231 2.7270157 0.5197199 0
-0.092205502 2.730197 0.64670247 0
-0.10289831 2.7622371 -0.050226834 0
-0.11175311 2.7328596 0.39998549 0
-0.11577294 2.7195232 0.51512605 0
-0.11179999 2.7327039 0.64530426 0
-0.12608303 2.7533746 -0.049689442 0
-0.10584427 2.8237138 0.064302526 0
-0.10404549 2.8299654 0.18220346 0
-0.10773469 2.8171437 0.29928815 0
-0.13074391 2.7371759 0.39967281 0
-0.13386811 2.7263179 0.51559347 0
-0.13185985 2.7332976 0.64319319 0
-0.14237924 2.7682178 -0.050042264 0
-0.1322314 2.805234 0.063412555 0
-0.13310839 2.8020349 0.17846885 0
-0.13341974 2.8008993 0.29521477 0
-0.15053837 2.7384558 0.39862126 0
-0.15282659 2.7301087 0.51510185 0
-0.15435521 2.7245328 0.63718045 0
-0.16154943 2.7730339 -0.05003158 0
-0.15685801 2.7910323 0.062695622 0
-0.15825902 2.7856574 0.17607024 0
-0.15676014 2.7914078 0.2924737 0
-0.16666077 2.7534239 0.40124807 0
-0.16966183 2.7419105 0.51744813 0
-0.16874234 2.7454381 0.64400357 0
-0.17943369 2.7830324 -0.050220415 0
-0.17778613 2.7896957 0.062465474 0
-0.17681684 2.7936163 0.1764084 0
-0.17947726 2.7828562 0.2899704 0
-0.19240479 2.7305708 0.39398012 0
-0.1915084 2.7341962 0.51317161 0
-0.18834336 2.7469971 0.64263177 0
