# .PCD v0.7 - Point Cloud Data file format
VERSION 0.7
FIELDS x y z intensity
SIZE 4 4 4 4
TYPE F F F F
COUNT 1 1 1 1
WIDTH 1362
HEIGHT 1
VIEWPOINT 0 0 0 1 0 0 0
POINTS 1362
DATA ascii
-1.2410915 0.17219019 0.53597128 0
-1.2408836 0.17251933 0.64624709 0
-1.3796356 -0.084126599 -0.050080616 0
-1.0905119 0.38651752 0.042360757 0
-1.0897088 0.38782495 0.11528955 0
-1.0976356 0.3749215 0.19213447 0
-1.2560128 0.11711024 0.34651279 0
-1.2362599 0.14926469 0.43747652 0
-1.2417415 0.14034152 0.54730588 0
-1.2322239 0.15583479 0.65104133 0
-1.3586866 -0.087622054 -0.049799886 0
-1.0786221 0.38141614 0.042296626 0
-1.0784669 0.38167614 0.11522885 0
-1.0795721 0.37982523 0.18969026 0
-1.2546337 0.086640589 0.3529799 0
-1.2433213 0.10558604 0.45112336 0
-1.2425056 0.10695206 0.55929464 0
-1.2368509 0.11642241 0.66910809 0
-1.3445036 -0.10239208 -0.049997482 0
-1.0584329 0.39070636 0.041645162 0
-1.0600357 0.38794369 0.11364359 0
-1.0616409 0.38517696 0.18721804 0
-1.2482285 0.063556783 0.35722655 0
-1.2374727 0.082096688 0.45687127 0
-1.2386357 0.080091946 0.56806624 0
-1.2401931 0.077407353 0.68677968 0
-1.3259572 -0.10970784 -0.049895559 0
-1.0386802 0.40015399 0.041002311 0
-1.0458537 0.38742238 0.11293568 0
-1.0499349 0.38017917 0.18695262 0
-1.2529578 0.019852275 0.36750555 0
-1.2399607 0.042919632 0.46859735 0
-1.2412515 0.040628668 0.58278841 0
-1.3113602 -0.12410093 -0.050091874 0
-1.0345213 0.38203269 0.041495882 0
-1.0339125 0.38314569 0.11271463 0
-1.0375159 0.37655783 0.18643647 0
-1.2492106 -0.010475164 0.37380651 0
-1.2398123 0.0067074248 0.47910678 0
-1.2420156 0.0026791045 0.59667969 0
-1.2951316 -0.13572156 -0.050182275 0
-1.0205281 0.38169479 0.041269526 0
-1.0238305 0.37547207 0.11292668 0
-1.0223496 0.37826252 0.18486837 0
-1.2364973 -0.025241023 0.37558442 0
-1.2418268 -0.035282973 0.49172327 0
-1.2395972 -0.03108204 0.60851061 0
-1.2755049 -0.14088643 -0.050021112 0
-1.0072668 0.38027942 0.041094992 0
-1.0069922 0.3808127 0.11157975 0
-1.005084 0.38452023 0.18242572 0
-1.2438216 -0.079328306 0.38867992 0
-1.24072 -0.073302276 0.50276285 0
-1.2388608 -0.069689877 0.6225363 0
-1.2576483 -0.14935195 -0.050002534 0
-0.99488962 0.37736291 0.040988129 0
-0.98984081 0.38748354 0.11010703 0
-0.99200976 0.38313574 0.1815826 0
-1.2427195 -0.11942626 0.39767846 0
-1.2421509 -0.11828662 0.51632804 0
-1.237349 -0.10866071 0.63664645 0
-1.2400981 -0.15842843 -0.050017241 0
-0.97783184 0.38430125 0.040497355 0
-0.97966552 0.38050663 0.1102981 0
-0.98029888 0.37919599 0.18128949 0
-1.2343546 -0.14654291 0.40294799 0
-1.2389779 -0.15611041 0.5271585 0
-1.220094 -0.16229117 -0.049835101 0
-0.96437591 0.38435233 0.040289413 0
-0.96675873 0.37925863 0.10982357 0
-0.96309131 0.38709843 0.17866969 0
-1.240489 -0.20588934 0.41729441 0
-1.2408497 -0.20666039 0.54261434 0
-1.2040336 -0.17456472 -0.049993485 0
-0.95104533 0.3844775 0.040086411 0
-0.95303398 0.38008308 0.1091265 0
-0.95192128 0.38254189 0.17857413 0
-1.2407734 -0.25575054 0.42888141 0
-1.2419819 -0.25842106 0.55841589 0
-1.1862297 -0.18313885 -0.050014745 0
-0.93928534 0.38136494 0.040017247 0
-0.9386006 0.38293016 0.10821633 0
-0.94050026 0.3785876 0.1783883 0
-1.2421925 -0.31106758 0.44192308 0
-1.2372003 -0.29965532 0.57030296 0
-1.1683004 -0.19146311 -0.050034925 0
-0.93089902 0.37038833 0.040258996 0
-0.92588675 0.38225067 0.10774369 0
-0.92158681 0.39242721 0.17474785 0
-1.2349445 -0.34918785 0.4501276 0
-1.149757 -0.1983273 -0.050007429 0
-0.90974158 0.39027435 0.03931367 0
-0.91431499 0.37905878 0.10758369 0
-0.91525698 0.37674874 0.17692173 0
-1.2391344 -0.41751194 0.46663728 0
-1.1323396 -0.20801091 -0.050097208 0
-0.90097749 0.38045526 0.039522789 0
-0.8955816 0.39417958 0.10532665 0
-0.89931363 0.3846873 0.17452365 0
-1.237672 -0.47592211 0.48033315 0
-1.1090565 -0.20239294 -0.049610808 0
-0.88720804 0.38343173 0.03924666 0
-0.8851763 0.38879687 0.10546373 0
-0.8858999 0.38688612 0.1732827 0
-1.2394757 -0.54678476 0.49736613 0
-1.0942539 -0.21905673 -0.049984448 0
-0.87570184 0.38076019 0.039193008 0
-0.87734777 0.376243 0.10643546 0
-0.87749559 0.37583739 0.17462276 0
-1.0743757 -0.2220329 -0.049845759 0
-0.8647567 0.37659532 0.039201569 0
-0.86001903 0.39012522 0.10440394 0
-0.862409 0.38329995 0.17243995 0
-1.0608939 -0.24374294 -0.05042268 0
-0.84692585 0.3928932 0.038444597 0
-0.85047358 0.38233745 0.10486266 0
-0.85450441 0.37034428 0.17418738 0
-1.0363193 -0.23235524 -0.049762223 0
-0.84008008 0.37682575 0.038913082 0
-0.83506143 0.39240503 0.10331712 0
-0.83945107 0.37877846 0.17189379 0
-1.022185 -0.25326216 -0.050322417 0
-0.82386249 0.39002949 0.038289431 0
-0.82644343 0.38165784 0.10414027 0
-0.82628065 0.38218582 0.17059363 0
-1.0033814 -0.25972652 -0.050349653 0
-0.81300247 0.38659513 0.038294934 0
-0.81286114 0.38707495 0.10316161 0
-0.81400067 0.38320619 0.16977829 0
-0.98249108 -0.25884545 -0.050113194 0
-0.80493057 0.37321478 0.038674328 0
-0.79949135 0.39257663 0.10219608 0
-0.80235952 0.38236684 0.16934323 0
-0.96205348 -0.25902426 -0.049926434 0
-0.79160964 0.37842226 0.038369291 0
-0.79004449 0.38427579 0.10278802 0
-0.79279345 0.37399489 0.17034326 0
-0.94205457 -0.26040781 -0.049794145 0
-0.78103685 0.37367469 0.10364632 0
-0.77686334 0.39010972 0.16680624 0
-0.92747897 -0.2839489 -0.050485138 0
-0.76806754 0.37867326 0.16842778 0
-0.90685654 -0.28309977 -0.050287917 0
-0.75511831 0.38448054 0.166876 0
-0.88570994 -0.27915299 -0.049987622 0
-0.74689388 0.36924487 0.16923958 0
-0.86788225 -0.29066229 -0.050260633 0
-0.73342097 0.37844276 0.1671216 0
-0.84564734 -0.27977526 -0.049727593 0
-0.82778442 -0.29172337 -0.050033499 0
-0.8083052 -0.2950592 -0.050035454 0
-0.78824085 -0.29450011 -0.049905676 0
-0.77082163 -0.3127079 -0.050461415 0
-0.74964803 -0.30371439 -0.05004571 0
-0.73000681 -0.30593586 -0.050042994 0
-0.70980829 -0.30247581 -0.049845353 0
-0.69069684 -0.31017041 -0.050056722 0
-0.67035806 -0.30304742 -0.049746122 0
-0.65092885 -0.30750108 -0.049858958 0
-0.63186026 -0.32133842 -0.050315857 0
-0.61148822 -0.30694675 -0.049772725 0
-0.59198213 -0.31460309 -0.050026231 0
-0.57224506 -0.31706572 -0.05010305 0
-0.552499 -0.30417871 -0.049640745 0
-0.53277326 -0.31051743 -0.049873691 0
-0.51312929 -0.30806231 -0.049801514 0
-0.49340317 -0.30878115 -0.049851544 0
-0.47341931 -0.31359315 -0.05005683 0
-0.45404711 -0.30692685 -0.049860597 0
-0.49600479 0.32684237 0.03918469 0
-0.43405968 -0.30978298 -0.050013918 0
-0.48449805 0.32979995 0.039109092 0
-0.41454473 -0.30625713 -0.049947642 0
-0.47432449 0.34675646 0.038536731 0
-0.39441174 -0.30907989 -0.05011797 0
-0.46176541 0.33695585 0.038928654 0
-0.37551567 -0.30027032 -0.049879536 0
-0.44987473 0.33526272 0.039035413 0
-0.4420633 0.26850003 0.11266826 0
-0.44178361 0.26610947 0.18543851 0
-0.44368261 0.28233975 0.25567532 0
-0.44177791 0.26606071 0.33703148 0
-0.44200042 0.26796252 0.41717395 0
-0.3560527 -0.29711092 -0.04985268 0
-0.43613762 0.31994212 0.039638333 0
-0.42903173 0.26519144 0.11319267 0
-0.43016794 0.27394587 0.18429238 0
-0.4292396 0.26679307 0.26006326 0
-0.42871842 0.26277745 0.33864769 0
-0.42976373 0.27083158 0.41661543 0
-0.4305248 0.27669555 0.49924812 0
-0.33603629 -0.29794443 -0.049978606 0
-0.41905689 0.28420144 0.040984966 0
-0.41895753 0.28350472 0.11138862 0
-0.41869706 0.28167826 0.18318976 0
-0.42052019 0.29446208 0.25336865 0
-0.41907451 0.28432494 0.3319774 0
-0.4210681 0.29830408 0.4058305 0
-0.41987938 0.28996879 0.49338636 0
-0.3166289 -0.29426229 -0.049950723 0
-0.40728104 0.28877413 0.040885471 0
-0.40735635 0.28925848 0.1109608 0
-0.40766072 0.29121608 0.18178181 0
-0.4059715 0.2803517 0.2574766 0
-0.4056713 0.27842087 0.33457756 0
-0.40657946 0.28426188 0.41246539 0
-0.40925419 0.30146462 0.48848096 0
-0.29581743 -0.29901743 -0.050237078 0
-0.39185089 0.27123636 0.041591614 0
-0.38982973 0.25923467 0.11444712 0
-0.39183688 0.27115321 0.18580987 0
-0.39199063 0.27206624 0.26013356 0
-0.39192995 0.27170604 0.33751369 0
-0.3913303 0.2681452 0.42006192 0
-0.39737701 0.30405104 0.48815346 0
-0.27785695 -0.28690517 -0.04992158 0
0.06824448 -2.1950452 0.13115616 0
-0.38590771 0.30880451 0.48679924 0
-0.25798267 -0.28578615 -0.050013337 0
0.11360618 -2.1970763 0.13152649 0
-0.37527567 0.31751758 0.48349696 0
-0.24009036 -0.27478254 -0.049754046 0
0.15954848 -2.2005851 0.13197246 0
-0.36690456 0.33631718 0.47510016 0
-0.21793459 -0.28393197 -0.050239056 0
0.20738257 -2.211174 0.13269965 0
-0.35923493 0.35634309 0.46610561 0
-0.20046423 -0.27153659 -0.049945772 0
0.24852486 -2.1908739 0.1323185 0
-0.34950596 0.36558658 0.46267462 0
-0.18337108 -0.25846457 -0.049634758 0
0.2973465 -2.2027235 0.13313751 0
-0.004932621 -0.98015761 0.25336915 0
-0.0041597872 -0.98328328 0.42170113 0
-0.33892128 0.37065727 0.46144664 0
-0.1615593 -0.2643528 -0.050030183 0
0.34316644 -2.2007387 0.13347147 0
-0.32742491 0.37199253 0.46221489 0
-0.14451076 -0.25179946 -0.049754441 0
0.39284542 -2.2119124 0.13431501 0
-0.3158212 0.37308937 0.46318448 0
-0.1195916 -0.26729238 -0.050527569 0
-0.3027786 0.36936843 0.46674183 0
-0.10452086 -0.24821079 -0.050026111 0
-0.30320352 0.41095513 0.44672173 0
-0.083798029 -0.24822688 -0.050244629 0
-0.29187298 0.41190141 0.44793952 0
-0.066708483 -0.23669994 -0.050039995 0
-0.2874136 0.43392783 0.4381336 0
-0.048505761 -0.22885239 -0.04998146 0
-0.26401255 0.39923418 0.45831829 0
-0.030699829 -0.22000742 -0.049893517 0
-0.011270442 -0.21570146 -0.049986552 0
0.0077851624 -0.21023607 -0.050045013 0
0.025353512 -0.20093739 -0.049965553 0
0.043666981 -0.19357157 -0.049968928 0
0.062226973 -0.18676507 -0.050002992 0
0.078260742 -0.17421472 -0.049821906 0
-0.18525119 0.41797566 0.38501245 0
0.10051837 -0.17548811 -0.050190944 0
0.11438581 -0.15850294 -0.049851455 0
-0.1579987 0.4143396 0.39109725 0
-0.20113306 0.50505394 0.49802727 0
0.13636895 -0.15858197 -0.050195478 0
0.55428237 -1.00968 0.46087775 0
-0.16049944 0.44600284 0.37884274 0
-0.19431664 0.51487291 0.49454302 0
0.15309234 -0.14773786 -0.050115567 0
0.58349973 -0.99707961 0.46119651 0
-0.15112771 0.45259285 0.37813333 0
-0.19039948 0.5300895 0.48750478 0
0.17152806 -0.14028466 -0.050180186 0
0.61204177 -0.98308015 0.46130732 0
-0.14110361 0.45784545 0.37809896 0
-0.17498253 0.52266294 0.49560511 0
0.18856443 -0.13013184 -0.050145138 0
0.6498577 -0.98624897 0.46500939 0
-0.12404851 0.45004863 0.38426089 0
-0.17559557 0.54571509 0.48335871 0
0.20371689 -0.11663008 -0.049981833 0
0.68399078 -0.981709 0.46724516 0
-0.11979163 0.46607995 0.37928325 0
-0.16286393 0.54366261 0.48805001 0
0.21823575 -0.10224593 -0.04978887 0
0.7209211 -0.98142195 0.47046956 0
-0.086478598 0.43068701 0.3988212 0
-0.15712766 0.55424935 0.48424995 0
0.24070294 -0.10162771 -0.050172303 0
0.7566362 -0.97817278 0.47319505 0
-0.058278091 0.40632623 0.41340503 0
-0.14852275 0.55964744 0.48404172 0
0.25425908 -0.085768946 -0.049934302 0
0.79886252 -0.98492908 0.47814554 0
-0.05865965 0.43087137 0.40459841 0
-0.13549672 0.55773216 0.48897743 0
0.26633975 -0.067853458 -0.049615066 0
0.84312528 -0.99363732 0.48366228 0
-0.12912028 0.56688935 0.48632953 0
0.28168038 -0.055438284 -0.049532879 0
0.8789416 -0.98772335 0.48621079 0
-0.11924911 0.57038605 0.48770323 0
0.30463585 -0.054685954 -0.049956787 0
0.91116685 -0.9756999 0.48755822 0
0.01861318 0.37963796 0.43962649 0
-0.11195106 0.5778991 0.48632434 0
0.32142451 -0.044282082 -0.04998067 0
0.95154327 -0.97537589 0.49155289 0
0.032113872 0.38321716 0.44149771 0
-0.10015131 0.57865852 0.48983532 0
0.33899936 -0.034974102 -0.050061572 0
1.0013129 -0.98757529 0.49844474 0
0.038542591 0.39717096 0.4382391 0
-0.10926984 0.60976863 0.4715617 0
0.35235104 -0.019648558 -0.049888879 0
0.054715954 0.39714158 0.44210631 0
-0.10000772 0.61380726 0.47276783 0
0.36935851 -0.0095092114 -0.049951594 0
0.071410619 0.39680248 0.44627243 0
-0.090901352 0.61814743 0.4738487 0
0.38509426 0.0023981282 -0.049945425 0
1.1253085 -0.98082757 0.1058834 0
1.1277534 -0.98407507 0.30710945 0
0.087758802 0.39734846 0.45012799 0
-0.083050109 0.62423378 0.47372845 0
0.40415642 0.009998912 -0.050142396 0
0.10045608 0.40300596 0.45145383 0
-0.077454723 0.63323355 0.47149712 0
0.41693726 0.025748605 -0.049980924 0
0.12985803 0.38773334 0.46393734 0
-0.066403218 0.63520366 0.47461739 0
0.4283497 0.043004271 -0.049755838 0
-0.066303946 0.6508444 0.46742293 0
0.44135061 0.058114644 -0.049634796 0
0.4655616 0.060010787 -0.050141264 0
-0.047408082 0.65890038 0.47093797 0
0.47320363 0.081311338 -0.049745612 0
-0.04533086 0.67149174 0.46610454 0
0.49400148 0.087600939 -0.050071452 0
1.2041662 -0.7004503 0.09994442 0
-0.02887849 0.66782719 0.47421429 0
0.51431781 0.094754569 -0.050371759 0
1.2051229 -0.65267098 0.098707475 0
0.52733499 0.10992157 -0.050294001 0
0.37595198 0.26963025 0.054437798 0
-0.014882484 0.68195951 0.47369313 0
0.53507513 0.13044286 -0.04995681 0
0.38929448 0.28041309 0.054489944 0
0.84222025 -0.18552923 0.22180003 0
-0.014352062 0.69565994 0.46804926 0
0.54991871 0.14350593 -0.049996216 0
0.39870659 0.29519469 0.05434959 0
0.83778387 -0.14526629 0.21838185 0
-0.0044850498 0.69965702 0.47046503 0
0.56168729 0.15962029 -0.049889833 0
0.41709909 0.30105698 0.054668803 0
0.73888868 -0.013718611 0.20088154 0
0.7443977 -0.019107467 0.33442867 0
0.72807008 -0.0031356863 0.46478742 0
-0.0031974104 0.71219218 0.46577576 0
0.58721524 0.16251087 -0.050473649 0
0.43209925 0.31046993 0.054820504 0
0.8431018 -0.081569441 0.21400321 0
0.19646557 0.53523177 0.35261148 0
0.0056916089 0.71720362 0.4675025 0
0.59026855 0.18687153 -0.049956676 0
0.46714386 0.30138946 0.055953547 0
0.83762211 -0.043191317 0.21074653 0
0.19184496 0.55744427 0.34642541 0
0.013014994 0.72377354 0.46799254 0
0.60421401 0.20086634 -0.049985401 0
0.842987 -0.015673047 0.07349328 0
0.84065944 -0.013562208 0.20883302 0
0.19357897 0.57326454 0.34329 0
0.61550695 0.21723771 -0.049895842 0
0.84148592 0.017428393 0.072664984 0
0.84069151 0.018130774 0.20656337 0
0.82834452 0.02904796 0.33960137 0
0.21353967 0.5726549 0.34837261 0
0.028592011 0.73618454 0.46989122 0
0.63513738 0.2263428 -0.050210007 0
0.83797795 0.051493283 0.071770795 0
0.83833271 0.051187512 0.20403595 0
0.84156281 0.04840314 0.33910146 0
0.22932829 0.57615209 0.35156444 0
0.036446474 0.7424171 0.47096932 0
0.64515644 0.24381781 -0.050078042 0
0.83668703 0.082876317 0.071009509 0
0.84513992 0.07577347 0.20288052 0
0.8435418 0.077116244 0.33601695 0
0.92149919 0.01160931 0.49884069 0
0.26624689 0.56221229 0.36392409 0
0.27034888 0.55876535 0.4536528 0
0.043920778 0.74903101 0.47180274 0
0.66164309 0.25587934 -0.050256107 0
0.84039277 0.10947751 0.070504948 0
0.84776348 0.10344063 0.20119902 0
0.83365899 0.11499273 0.33028358 0
0.95363492 0.016728515 0.50431693 0
0.29446933 0.55660683 0.37234133 0
0.24680223 0.59564769 0.43639907 0
0.05103942 0.75598389 0.47241911 0
0.66588348 0.27788079 -0.049879946 0
0.84475452 0.13510442 0.070050783 0
0.83677465 0.14147401 0.19771066 0
0.84511727 0.13481486 0.32964274 0
0.98653966 0.021930331 0.51001066 0
0.2720187 0.59226698 0.35907355 0
0.2526249 0.60774726 0.43512386 0
0.05359634 0.76661348 0.46963465 0
0.67359513 0.29685003 -0.049677052 0
0.85095173 0.15890229 0.069698721 0
0.84528202 0.1633122 0.19697624 0
0.8369568 0.16978765 0.32458302 0
0.25428364 0.62298983 0.43175733 0
0.065000318 0.77021408 0.47362536 0
0.70066077 0.30097753 -0.050353777 0
0.85843402 0.18141949 0.069421053 0
0.83543962 0.19884419 0.19381177 0
0.84323817 0.19293463 0.3229394 0
0.26490405 0.63118714 0.4331784 0
0.067316793 0.78091568 0.47085011 0
0.70650226 0.32136875 -0.050084755 0
0.84962696 0.21572149 0.068435781 0
0.83890766 0.22363389 0.19251457 0
0.84065622 0.22234321 0.31938982 0
0.28543028 0.63218242 0.43973735 0
0.081989907 0.78235161 0.47730863 0
0.71860963 0.33702582 -0.050105006 0
0.85061127 0.24213314 0.067908973 0
0.8367483 0.25209892 0.19052574 0
0.84588462 0.24553096 0.31768963 0
0.080196224 0.7959649 0.47169513 0
0.73385578 0.35050708 -0.05027049 0
0.84835404 0.2703644 0.067260087 0
0.83945578 0.27659279 0.18924002 0
0.83394998 0.28044653 0.31229067 0
0.8361004 0.27894133 0.43996674 0
0.089867972 0.80126387 0.47455525 0
0.73388702 0.3745001 -0.049784634 0
0.87801582 0.27629811 0.068011083 0
0.84098917 0.30152619 0.18785289 0
0.84868139 0.29628509 0.3128536 0
0.83031398 0.30879968 0.43442291 0
0.10230251 0.80482936 0.47942168 0
0.75375861 0.38493019 -0.050165705 0
0.92503625 0.27136153 0.069502637 0
0.8394075 0.32813913 0.18611626 0
0.8443324 0.32487369 0.30932629 0
0.83783835 0.32917964 0.43311548 0
0.11924949 0.80565256 0.48749062 0
0.76755434 0.39960331 -0.050291166 0
0.95581251 0.27816004 0.070289336 0
0.84453338 0.34994501 0.18529454 0
0.85072142 0.34595317 0.30820969 0
0.83745128 0.35451359 0.42949489 0
0.12045201 0.81704199 0.48439026 0
0.76924282 0.42198074 -0.049913179 0
0.99896628 0.27785212 0.07159514 0
0.8401503 0.37749332 0.18330789 0
0.84250516 0.37601596 0.30404907 0
0.8364622 0.37980729 0.42581794 0
0.13037832 0.82280463 0.48752266 0
0.77552074 0.44125003 -0.049741842 0
1.0356104 0.2825982 0.072618559 0
0.83904082 0.40250349 0.18179233 0
0.8330124 0.40618074 0.2997309 0
0.84488124 0.39894092 0.42507628 0
0.13183035 0.83389419 0.48479483 0
0.79107422 0.45488352 -0.049966861 0
1.0694246 0.28986537 0.073519401 0
0.84891218 0.42059469 0.18169945 0
0.85324913 0.41802353 0.30175787 0
0.8359769 0.42826325 0.41927382 0
0.13796051 0.84207761 0.48540917 0
0.79347175 0.47628093 -0.049655333 0
0.8547793 0.44097078 0.18113902 0
0.83920091 0.44994313 0.29666588 0
0.84141511 0.44866782 0.41784516 0
0.13555194 0.85521078 0.48024619 0
0.80239612 0.49377966 -0.049624041 0
0.84654683 0.46908611 0.17887802 0
0.85067803 0.46677548 0.29696748 0
0.83190364 0.47727603 0.41213173 0
0.14932974 0.85904163 0.48623085 0
0.82134706 0.5058136 -0.050009247 0
0.85135657 0.4895218 0.17827076 0
0.84913224 0.49072933 0.29463828 0
0.84941846 0.49057394 0.414408 0
0.83549362 0.52068847 -0.050204195 0
0.84938067 0.51337421 0.17687467 0
0.83516246 0.52086294 0.28985369 0
0.83604497 0.52039808 0.40781087 0
0.82442707 0.54859811 -0.049394678 0
0.84942085 0.53583336 0.17576714 0
0.84100574 0.54013109 0.28918919 0
0.83983034 0.54073137 0.40627956 0
0.84556621 0.53780198 0.53011048 0
0.84573895 0.55984867 -0.049894027 0
0.84666282 0.55939138 0.174365 0
0.83834308 0.56350911 0.28686613 0
0.84430009 0.56056076 0.40502575 0
0.83639115 0.56447524 0.52339679 0
0.85459739 0.57746297 -0.049902953 0
0.86864239 0.57073039 0.17595494 0
0.83805424 0.58539313 0.28509083 0
0.83808225 0.58537966 0.40082648 0
0.84048754 0.58422661 0.52174431 0
0.86528271 0.59424001 -0.049992483 0
0.8929134 0.5814203 0.17782408 0
0.84152526 0.60526276 0.2841284 0
0.84213287 0.60498083 0.39962789 0
0.84047681 0.60574919 0.51868653 0
0.87261981 0.61259228 -0.04995878 0
0.93958181 0.58254284 0.18233687 0
0.82957929 0.63190687 0.28017342 0
0.8337087 0.63005376 0.39501682 0
0.84853107 0.62340218 0.51868606 0
0.89062589 0.62629473 -0.050349452 0
0.96600729 0.59360105 0.18445545 0
0.83461398 0.65058774 0.27964416 0
0.8277449 0.6535669 0.39120308 0
0.8405053 0.64803255 0.51293522 0
0.87968427 0.65242362 -0.049624313 0
0.99573284 0.60381889 0.18696366 0
0.83821207 0.66979343 0.27888289 0
0.83638769 0.6705575 0.3915318 0
0.83564895 0.67086697 0.50847 0
0.90614909 0.66288793 -0.050355934 0
1.033571 0.61139584 0.19041446 0
0.83025211 0.69355851 0.27592441 0
0.83183485 0.6929189 0.38828671 0
0.83897048 0.69003528 0.50706542 0
0.90875679 0.68320262 -0.05017497 0
0.84036988 0.70984155 0.059554778 0
1.0750041 0.61844385 0.19427402 0
0.85148066 0.70551354 0.27868789 0
0.83571917 0.71165317 0.38744494 0
0.83496612 0.71194649 0.50313836 0
0.28023109 0.92803401 0.45577809 0
0.91025966 0.70379871 -0.049962509 0
0.82986182 0.73395604 0.058896918 0
0.8617565 0.72199225 0.2793577 0
0.8365491 0.73144758 0.38583931 0
0.82694072 0.73505169 0.49789935 0
0.28232631 0.93933696 0.45473778 0
0.93503016 0.7158438 -0.050643977 0
0.83832198 0.75073653 0.058973514 0
0.84280807 0.74911791 0.27446121 0
0.8403278 0.75001281 0.38510853 0
0.84004015 0.75011659 0.50025874 0
0.25616607 0.96078086 0.43874869 0
0.92811364 0.73938483 -0.050130915 0
0.83174485 0.77278978 0.058489587 0
0.84109324 0.76954931 0.2729409 0
0.84594578 0.76786721 0.3849408 0
0.84476036 0.76827812 0.49972442 0
0.83798152 0.77062792 0.61746657 0
0.26660076 0.9686898 0.44235128 0
0.9335565 0.7584371 -0.050096188 0
0.82910913 0.79317558 0.058166448 0
0.84980386 0.78629267 0.27345741 0
0.84141487 0.78908277 0.38210562 0
0.84676868 0.78730214 0.49832183 0
0.83332008 0.79177505 0.61282349 0
0.29767653 0.96992654 0.45687523 0
0.92548066 0.781775 -0.049564056 0
0.8360216 0.81028259 0.058212016 0
0.85526615 0.80414999 0.273397 0
0.83733231 0.80986488 0.37947354 0
0.8450194 0.80741525 0.4956966 0
0.84272271 0.80814719 0.61442649 0
0.30618104 0.97912502 0.45949638 0
0.93708819 0.79872322 -0.049779605 0
0.81905776 0.83470494 0.057374313 0
0.87041909 0.81904739 0.16641934 0
0.84283811 0.82745546 0.27000618 0
0.8462984 0.82640058 0.38040182 0
0.83706349 0.82921582 0.49101096 0
0.83042938 0.83123827 0.6067217 0
0.32502064 0.98531264 0.46757421 0
0.9497121 0.81553715 -0.050040107 0
0.80107564 0.85881138 0.056513269 0
0.85930759 0.84185761 0.16457485 0
0.86637622 0.83979964 0.27343878 0
0.83807844 0.84803832 0.37681541 0
0.8394869 0.84762824 0.49003428 0
0.83480936 0.84899008 0.60636067 0
0.33081511 0.99572355 0.46886516 0
0.9626624 0.83245444 -0.050319657 0
0.78709131 0.88118094 0.05581462 0
0.84979671 0.86377823 0.16294737 0
0.90129274 0.84948641 0.27901819 0
0.8295489 0.86939764 0.3732318 0
0.83830446 0.86696768 0.4878962 0
0.85376483 0.86267692 0.61236006 0
0.31225809 1.0129621 0.45757523 0
0.96908361 0.85130268 -0.050365068 0
0.78748697 0.89924723 0.055659682 0
0.81662232 0.89155495 0.1587258 0
0.92435998 0.86311048 0.28239164 0
0.83013707 0.8879869 0.3721371 0
0.84133846 0.88502949 0.48730004 0
0.83409816 0.88694108 0.60187453 0
0.32040378 1.0225649 0.46025354 0
0.96749049 0.87219554 -0.050124116 0
0.79035562 0.91658396 0.05560464 0
0.81335551 0.91082042 0.15786986 0
0.95017964 0.87653345 0.28629819 0
0.83651036 0.90501797 0.37262917 0
0.83980531 0.90419233 0.48521742 0
0.84372097 0.90321112 0.60405457 0
0.31869861 1.0347772 0.4579047 0
0.96816498 0.89237893 -0.049976762 0
0.98112792 0.88930345 0.062452402 0
0.79854602 0.93262112 0.15576841 0
0.9770754 0.89026493 0.2904239 0
0.84158081 0.92241108 0.37283441 0
0.84913713 0.92061836 0.48693869 0
0.84396321 0.92184585 0.60232371 0
0.3289645 1.0440296 0.46179792 0
0.97269291 0.91159588 -0.049980111 0
0.8109017 0.94783539 0.056060832 0
0.80192441 0.94984621 0.15570621 0
1.0175151 0.90155625 0.29707313 0
0.83737653 0.94190532 0.37067151 0
0.84055287 0.94119382 0.4826175 0
0.83941835 0.94144797 0.59866625 0
0.34179631 1.0529099 0.46705565 0
0.96858639 0.93263865 -0.049677256 0
0.93627208 0.93945062 0.060498238 0
0.82319683 0.96328712 0.15763336 0
1.0473324 0.91603881 0.30177319 0
0.84369665 0.95896572 0.3713226 0
0.84458548 0.95877832 0.48268574 0
0.84357399 0.95899159 0.59880459 0
0.35500726 1.0619825 0.4725506 0
0.97389704 0.9516052 -0.049727522 0
0.95131677 0.95606899 0.060905781 0
0.83421665 0.97921801 0.15845113 0
1.0899683 0.92865962 0.30885166 0
0.86513001 0.97310686 0.37595844 0
0.82645792 0.98075175 0.47531378 0
0.8392064 0.97823161 0.59543866 0
0.3591511 1.0731314 0.47346577 0
0.99428552 0.96782714 -0.05033375 0
0.91086739 0.98322892 0.05930528 0
0.88090688 0.98876059 0.16318721 0
0.84449333 0.99548376 0.36971498 0
0.84197015 0.99594963 0.4794336 0
0.84389228 0.99559474 0.59599459 0
0.38619253 1.0801015 0.48610058 0
0.98588604 0.98942727 -0.049903281 0
0.85255986 1.0123117 0.37098822 0
0.84678036 1.0133036 0.47999665 0
0.83430821 1.0154444 0.59064656 0
0.38311556 1.0928881 0.4834629 0
0.99371237 1.0081481 -0.05007004 0
0.43785509 1.0963665 0.04197685 0
0.42607948 1.0982354 0.11301744 0
0.42271838 1.0987688 0.18497665 0
0.43305334 1.0971285 0.26186085 0
0.43830237 1.0962955 0.34141275 0
0.44179288 1.0957415 0.42488247 0
0.39023682 1.1039238 0.48607856 0
0.99273294 1.0282749 -0.049927313 0
0.40529558 1.113937 0.040733233 0
0.4001669 1.1146849 0.1099982 0
0.40384588 1.1141484 0.18119422 0
0.40413061 1.1141069 0.25391361 0
0.41390589 1.1126814 0.3325679 0
0.40885141 1.1134185 0.41029698 0
0.40409777 1.1141117 0.49216759 0
0.99648494 1.0476742 -0.049964361 0
0.38004449 1.1296527 0.039762884 0
0.4265953 1.1234621 0.11268107 0
0.423228 1.1239098 0.1844133 0
0.41866395 1.1245168 0.2572194 0
0.43377247 1.1225076 0.33866286 0
0.43791738 1.1219563 0.42172825 0
0.41200283 1.1254027 0.495305 0
1.0043657 1.0666066 -0.050158601 0
0.37883821 1.141791 0.039665736 0
0.43079141 1.1355466 0.11296536 0
0.43592188 1.1349299 0.18643494 0
0.42425558 1.1363322 0.25825617 0
0.42874655 1.1357924 0.33644894 0
0.42416194 1.1363434 0.41532987 0
1.0047275 1.0864879 -0.050091173 0
0.35857567 1.1559097 0.038889963 0
0.848813 1.1032392 0.36683649 0
0.83660847 1.1045504 0.4724499 0
0.83880705 1.1043142 0.58740968 0
1.0070945 1.1061347 -0.050104711 0
0.34876248 1.1684908 0.038496219 0
0.83780938 1.122169 0.36355761 0
0.83732945 1.1222144 0.47209758 0
0.84201795 1.1217704 0.58800554 0
1.002389 1.1263742 -0.049873762 0
0.35497275 1.1794807 0.038682539 0
0.85362059 1.1385775 0.36720747 0
0.83915406 1.1397641 0.47218829 0
0.84073919 1.139634 0.5868271 0
1.0109012 1.1455368 -0.050125159 0
0.38616678 1.1888711 0.039767746 0
0.84769839 1.1568573 0.36534879 0
0.84588641 1.1569829 0.47398937 0
0.84270447 1.1572037 0.58708942 0
1.0019985 1.1658679 -0.049762279 0
0.84704679 1.1746572 0.36489713 0
0.84374219 1.1748446 0.47290355 0
0.83227557 1.175495 0.5823034 0
1.0069443 1.1853353 -0.049903635 0
0.84948295 1.1922792 0.36529157 0
0.84839803 1.192327 0.47415775 0
0.83672422 1.1928419 0.58378148 0
1.0103636 1.2049537 -0.049999174 0
0.84843093 1.2100527 0.36485207 0
0.82974046 1.2106413 0.46772465 0
0.84539872 1.2101482 0.58709991 0
1.0157688 1.224605 -0.050174423 0
0.84109217 1.2279046 0.3628656 0
0.84467524 1.2278368 0.47254786 0
0.83977205 1.2279295 0.58458555 0
1.0127701 1.2444359 -0.050058454 0
0.84980375 1.2454619 0.36503169 0
0.83915144 1.2455291 0.47063613 0
0.83829242 1.2455344 0.5838812 0
1.0039213 1.2641515 -0.049742535 0
0.84183067 1.263131 0.36299744 0
0.83963841 1.2631172 0.47079811 0
0.83655638 1.2630978 0.58316243 0
1.0063031 1.2838594 -0.049836427 0
0.84106618 1.2807381 0.36285898 0
0.84398121 1.2807932 0.47231689 0
0.84602624 1.2808318 0.58717549 0
1.0131128 1.303776 -0.050097372 0
0.84355623 1.2984369 0.36360779 0
0.84168512 1.298378 0.47170055 0
0.8394025 1.2983061 0.58461601 0
0.99568683 1.3228114 -0.049501345 0
0.85116595 1.3164382 0.36572137 0
0.8294825 1.3154819 0.46785852 0
0.83713371 1.3158194 0.58395112 0
1.0101497 1.3432375 -0.050053757 0
0.83568341 1.3333414 0.36199331 0
0.84114224 1.3336511 0.47203714 0
0.82927686 1.332978 0.58105987 0
0.99969321 1.3623289 -0.049724065 0
1.301232 1.383245 0.072515249 0
1.2901596 1.3824769 0.20503378 0
1.30255 1.3833364 0.34224683 0
0.84419042 1.3515426 0.36445165 0
0.84323984 1.3514767 0.47310677 0
0.84516615 1.3516102 0.58811104 0
1.0063577 1.3825945 -0.050015926 0
1.2510808 1.4026687 0.0707822 0
1.2450148 1.4021711 0.2003556 0
1.0118048 1.3830413 0.28995585 0
0.84634501 1.3694689 0.36534497 0
0.8340711 1.3684621 0.47049156 0
0.83868533 1.3688406 0.58597386 0
1.0118886 1.4029626 -0.050276633 0
1.2412744 1.4246897 0.070502654 0
1.2400447 1.4245732 0.20003547 0
0.89079207 1.3914926 0.26834983 0
0.85596508 1.3881938 0.36821043 0
0.83393544 1.3861072 0.47096336 0
0.84611267 1.3872606 0.58970851 0
1.0014198 1.4217999 -0.049972404 0
0.648588 1.3838921 0.049303364 0
0.64182168 1.3831651 0.13562198 0
0.63047773 1.3819463 0.22146638 0
0.63519019 1.3824526 0.31202084 0
0.8433916 1.4048215 0.47471961 0
0.84216529 1.4046898 0.58880812 0
0.99528199 1.4409447 -0.049831972 0
0.5443204 1.386742 0.045616187 0
0.5556187 1.3881 0.12647702 0
0.55316561 1.3878052 0.2077319 0
0.55402988 1.3879091 0.29160404 0
0.84819537 1.4232658 0.47700152 0
0.84685987 1.4231052 0.59160161 0
1.0012854 1.4616073 -0.050137252 0
0.55273134 1.4019555 0.045982305 0
0.55655605 1.4024642 0.12677082 0
0.54376727 1.4007634 0.20634378 0
0.54943877 1.4015176 0.29087803 0
0.83888859 1.4400107 0.47462925 0
0.83957976 1.4401026 0.589495 0
0.99985892 1.4814074 -0.05018441 0
0.54837793 1.4155709 0.045895483 0
0.5528565 1.4162239 0.12658121 0
0.56436366 1.417902 0.21044958 0
0.55926007 1.4171578 0.29391071 0
0.84076983 1.4582084 0.47608504 0
0.84090739 1.4582285 0.5910756 0
0.98263484 1.498737 -0.049669612 0
0.54760259 1.4296943 0.045944016 0
0.560857 1.4317979 0.12768318 0
0.55340248 1.4306148 0.20884036 0
0.55372983 1.4306668 0.29303461 0
0.84678811 1.4771771 0.47901446 0
0.83698291 1.475621 0.59055316 0
0.9844808 1.5189747 -0.049852379 0
0.55685002 1.4455751 0.04636215 0
0.55527371 1.4453046 0.12732771 0
0.5601365 1.4461392 0.21049488 0
0.53989011 1.4426641 0.29004961 0
0.82879633 1.4922526 0.47392595 0
0.84784693 1.4955225 0.59633404 0
0.97971839 1.5381265 -0.049804892 0
0.55692393 1.4600644 0.046455465 0
0.54963011 1.4587177 0.12698337 0
0.55736929 1.4601467 0.21044657 0
0.54592997 1.4580345 0.29225448 0
0.83858711 1.5120689 0.47828907 0
0.83801502 1.5119632 0.59352005 0
0.97970361 1.5581858 -0.049938835 0
0.55301589 1.4738358 0.046410732 0
0.55143887 1.4735241 0.12747309 0
0.53633028 1.4705374 0.20707145 0
0.54706305 1.4726591 0.29323897 0
0.83418995 1.5294199 0.47793597 0
0.83696002 1.5299674 0.59449059 0
0.9849425 1.5794524 -0.050274022 0
0.54917544 1.4875916 0.046374667 0
0.55420738 1.4886525 0.12808993 0
0.54544109 1.4868045 0.20926845 0
0.5622856 1.4903554 0.2979477 0
0.83596355 1.5480473 0.47975424 0
0.83298177 1.5474187 0.59432262 0
0.9818483 1.599098 -0.050315067 0
0.55581778 1.5036718 0.046728354 0
0.5438382 1.5009885 0.1272826 0
0.547656 1.5018436 0.21023497 0
0.55402452 1.50327 0.29658806 0
0.83874673 1.5670447 0.48200169 0
0.83974034 1.5672673 0.59880286 0
0.96049458 1.6144444 -0.049695313 0
0.5507012 1.5172207 0.046659052 0
0.5467791 1.5162902 0.12796013 0
0.55229026 1.5175978 0.21168786 0
0.54234678 1.5152386 0.29437101 0
0.83562714 1.5848196 0.48231924 0
0.84089762 1.5860699 0.6010192 0
0.97740251 1.6389315 -0.050488934 0
0.55010682 1.5318549 0.046762243 0
0.53503531 1.5280781 0.12703416 0
0.54566413 1.5307416 0.2110886 0
0.52692264 1.5260451 0.29120117 0
0.84222788 1.6050578 0.48604831 0
0.83567482 1.6034157 0.60062015 0
0.95764917 1.6543216 -0.049942855 0
0.55461019 1.5479126 0.047060799 0
0.54799753 1.5461668 0.12886769 0
0.54845148 1.5462866 0.21227401 0
0.55122358 1.5470184 0.29853901 0
0.84109932 1.6235504 0.48721772 0
0.84055883 1.6234077 0.6046412 0
0.94859499 1.6722845 -0.049798448 0
0.54929131 1.5614651 0.047003962 0
0.55657917 1.5634878 0.13024442 0
0.5364086 1.5578898 0.21072449 0
0.55035335 1.5617599 0.29930767 0
0.83832484 1.6416811 0.48790324 0
0.83644313 1.6411588 0.60491717 0
0.94517165 1.691784 -0.049871277 0
0.55167395 1.5772207 0.04723962 0
0.55077189 1.5769581 0.13004 0
0.54945296 1.5765741 0.21390894 0
0.54720753 1.5759203 0.29952374 0
0.83999854 1.6611638 0.49021158 0
0.83647734 1.6601386 0.60707998 0
0.94203132 1.7114269 -0.0499641 0
0.85388893 1.6845565 0.38242641 0
0.84853369 1.682924 0.49500042 0
0.8371318 1.6794481 0.60962284 0
0.94057208 1.7316773 -0.050129537 0
0.86301333 1.7069619 0.38635021 0
0.84429723 1.7009977 0.49544442 0
0.84470612 1.701128 0.61528838 0
0.92282349 1.7466363 -0.049692366 0
0.84714133 1.7214649 0.38364533 0
0.83670765 1.7179948 0.49479431 0
0.83978742 1.7190191 0.61564541 0
0.9251973 1.7682475 -0.050020725 0
0.84709066 1.7411728 0.38524997 0
0.84027976 1.7388119 0.49814674 0
0.84451944 1.7402815 0.62033153 0
0.92012042 1.7874199 -0.050078094 0
0.85589367 1.7642466 0.38933045 0
0.83512849 1.7567544 0.49852157 0
0.83559543 1.7569228 0.61914569 0
0.90909427 1.8044072 -0.049918074 0
0.8434847 1.7797971 0.3877292 0
0.83076519 1.775026 0.49925831 0
0.83391744 1.7762084 0.62125093 0
0.9120788 1.8267345 -0.050302248 0
0.83676499 1.7973974 0.38773131 0
0.83784169 1.7978168 0.50416505 0
0.83052295 1.7949659 0.62271148 0
0.89200586 1.8400398 -0.049811333 0
0.83271712 1.8160808 0.38852948 0
0.82842404 1.814346 0.503281 0
0.82707065 1.813799 0.62425888 0
0.88456386 1.8582633 -0.049813181 0
0.83817106 1.8388325 0.39202505 0
0.82134682 1.831786 0.50331134 0
0.82957679 1.835233 0.62859523 0
0.87054187 1.8736377 -0.049567889 0
0.83239931 1.8570949 0.39249745 0
0.81931585 1.8514205 0.50525117 0
0.82268888 1.8528833 0.62883741 0
0.86968726 1.8947349 -0.049844023 0
0.83391505 1.878682 0.39507452 0
0.82776135 1.8759205 0.51111221 0
0.82197589 1.8733242 0.6319837 0
0.8597495 1.9118359 -0.049774714 0
0.82423335 1.8953575 0.3945936 0
0.82488018 1.8956577 0.51296633 0
0.82898754 1.8975633 0.63879126 0
0.85922557 1.9333987 -0.050086189 0
0.82619268 1.9175642 0.39746258 0
0.81216961 1.9108419 0.51129657 0
0.81186932 1.9106981 0.63470072 0
0.84528452 1.9485695 -0.04987593 0
0.83593208 1.9439406 0.40264362 0
0.80044252 1.9263755 0.5100522 0
0.81579882 1.9339759 0.6403842 0
0.84088475 1.9684503 -0.050054435 0
0.8024897 1.9488413 0.39558226 0
0.80209118 1.9486377 0.5138694 0
0.80122501 1.9481953 0.63763785 0
0.82804126 1.9840295 -0.049903486 0
0.80573195 1.9722793 0.39906988 0
0.80069751 1.9696277 0.51667321 0
0.79653996 1.967438 0.63958424 0
0.8158192 1.9998286 -0.04978469 0
0.80385715 1.9933345 0.40118134 0
0.79693156 1.9895747 0.5186978 0
0.78974193 1.9856715 0.64066225 0
0.80933231 2.0187428 -0.04990777 0
0.78571314 2.0055325 0.39862904 0
0.79159623 2.0088229 0.52023393 0
0.78462785 2.0049255 0.64265537 0
0.79867691 2.0353601 -0.049869779 0
0.77116078 2.0195122 0.39716068 0
0.78334969 2.0265324 0.5207563 0
0.78245384 2.0260165 0.64618313 0
0.78829879 2.0521142 -0.049851667 0
0.77122766 2.0419936 0.40006939 0
0.78090984 2.0477338 0.52361429 0
0.78032237 2.0473855 0.64988518 0
0.77739626 2.068537 -0.049820274 0
0.7721433 2.0653329 0.40333843 0
0.77557856 2.0674284 0.52547115 0
0.7728228 2.0657473 0.6511423 0
0.76478416 2.0838649 -0.049725264 0
0.76832384 2.0860858 0.40529543 0
0.76640755 2.0848835 0.52593172 0
0.76701206 2.0852628 0.65334743 0
0.7678346 2.1092205 -0.050303072 0
0.76254088 2.1058056 0.40675125 0
0.74799222 2.0964205 0.5228228 0
0.76060528 2.104557 0.65539747 0
0.75824112 2.1266851 -0.050357722 0
0.74238604 2.1161721 0.40389544 0
0.75012714 2.121305 0.52794892 0
0.7465983 2.1189651 0.65380925 0
0.74148971 2.139323 -0.050113074 0
0.7394231 2.1379151 0.40636271 0
0.73624367 2.1357486 0.52679616 0
0.73933834 2.1378572 0.65567821 0
0.73094255 2.1560969 -0.05014354 0
0.73124272 2.156307 0.40731189 0
0.72983795 2.1553237 0.52874339 0
0.73717576 2.16046 0.66025954 0
0.72060508 2.1730518 -0.050192747 0
0.72066182 2.1730926 0.40758789 0
0.72112805 2.1734278 0.52986479 0
0.71632189 2.1699727 0.65549588 0
0.706222 2.1870675 -0.05007232 0
0.71213561 2.1914327 0.40858474 0
0.71063262 2.1903231 0.53035212 0
0.71223241 2.191504 0.65937644 0
0.68888956 2.1987455 -0.049826499 0
0.7020244 2.208699 0.40915734 0
0.70069546 2.2076919 0.53116566 0
0.70171136 2.2084618 0.66009331 0
0.67610866 2.213748 -0.049790736 0
0.6905567 2.2249858 0.40936711 0
0.69526809 2.2286503 0.53397959 0
0.69488484 2.2283521 0.66286647 0
0.66184562 2.2275393 -0.049695503 0
0.67885107 2.2411132 0.40956789 0
0.68751508 2.2480288 0.53594381 0
0.69109207 2.2508841 0.66740692 0
0.66619843 2.2564948 -0.050466321 0
0.67518777 2.2638571 0.41248962 0
0.67917413 2.2671223 0.53777999 0
0.67863363 2.2666795 0.66750783 0
0.64641267 2.2658808 -0.050136622 0
0.65987939 2.2771969 0.41165671 0
0.66410774 2.2807498 0.53681701 0
0.66023082 2.277492 0.66450202 0
0.63039392 2.2782114 -0.04998643 0
0.72182888 2.3570287 0.066296168 0
0.72429508 2.3591547 0.1878556 0
0.71632367 2.3522832 0.30928144 0
0.65128654 2.296221 0.41313305 0
0.64453608 2.2904019 0.5339396 0
0.6469664 2.2924969 0.66434622 0
0.61398882 2.2900631 -0.049823496 0
0.67774051 2.346432 0.064861618 0
0.68641371 2.3541007 0.18443155 0
0.67845505 2.3470638 0.30351746 0
0.6396479 2.3127508 0.41366976 0
0.63510376 2.3087327 0.53558654 0
0.63629824 2.3097889 0.66572756 0
0.60798448 2.3111961 -0.050167121 0
0.66007859 2.3584394 0.064677849 0
0.65463132 2.3534994 0.18184386 0
0.66384107 2.3618515 0.30333313 0
0.62380499 2.3255434 0.41283587 0
0.63013166 2.3312809 0.53935868 0
0.62370974 2.3254571 0.66617227 0
0.58913344 2.3207159 -0.049901333 0
0.63986093 2.3678973 0.064374633 0
0.63673502 2.36499 0.18126261 0
0.64290947 2.3707328 0.30163625 0
0.61373776 2.3436003 0.41406041 0
0.61592466 2.3456342 0.53910756 0
0.61604577 2.3457468 0.66951776 0
0.5823459 2.3414876 -0.050233409 0
0.62569243 2.3828342 0.064372048 0
0.63012975 2.3870668 0.18237266 0
0.61325496 2.3709705 0.29777247 0
0.60421675 2.3623493 0.41557196 0
0.60388631 2.3620341 0.53993315 0
0.60131747 2.3595839 0.66900682 0
0.5633232 2.3506229 -0.049971532 0
0.60725814 2.3936002 0.064165734 0
0.6013698 2.3878403 0.18020733 0
0.61241299 2.3986428 0.30113059 0
0.58489722 2.3717268 0.41368899 0
0.58874959 2.3754952 0.53942245 0
0.58404666 2.3708947 0.6671173 0
0.55082017 2.3660414 -0.050041795 0
0.60477501 2.4201663 0.064770237 0
0.61222965 2.4276445 0.18404704 0
0.59833282 2.4137037 0.30123812 0
0.58720523 2.4025412 0.41964021 0
0.57257766 2.3878675 0.53849691 0
0.56553954 2.3808072 0.66456175 0
0.53915995 2.3824024 -0.050166037 0
0.60006326 2.445056 0.065285496 0
0.60255295 2.4476173 0.18484719 0
0.59839243 2.4433372 0.30505443 0
0.55558258 2.399297 0.4133904 0
0.56524462 2.4092367 0.54185206 0
0.5621205 2.4060228 0.671009 0
0.51820642 2.389091 -0.049820267 0
0.61765093 2.4940047 0.066981055 0
0.62151796 2.4980843 0.19017147 0
0.61169213 2.4877181 0.31248987 0
0.5463137 2.4187441 0.41533223 0
0.55065662 2.4233258 0.54187274 0
0.54475182 2.4170964 0.66933668 0
0.50144631 2.3999619 -0.049694724 0
0.53535563 2.4366505 0.4167572 0
0.53051716 2.4314156 0.53925902 0
0.54282337 2.4447303 0.67714447 0
0.49346969 2.4204521 -0.050043095 0
0.51478308 2.444103 0.41462338 0
0.52341801 2.4536848 0.5431394 0
0.5224213 2.452579 0.67385036 0
0.47564182 2.4301069 -0.049877491 0
0.49694487 2.4543533 0.41355172 0
0.50136775 2.4593873 0.53968 0
0.50352222 2.4618397 0.67151314 0
0.46086892 2.4431534 -0.049883723 0
0.48420307 2.470396 0.4145132 0
0.49266872 2.4802797 0.54303396 0
0.48568806 2.4721298 0.66989267 0
0.44813225 2.4586508 -0.050012562 0
0.47620174 2.4922695 0.41745624 0
0.46854267 2.4830964 0.53856641 0
0.472864 2.4882717 0.67156732 0
0.42947981 2.4670274 -0.049819756 0
0.4509581 2.4934204 0.4135862 0
0.45815358 2.5022624 0.5412882 0
0.4577702 2.5017912 0.6719116 0
0.41320786 2.4781921 -0.049766652 0
0.43883386 2.5105045 0.41504684 0
0.43977806 2.5116949 0.53990585 0
0.44346032 2.5163381 0.67289627 0
0.40136012 2.4950256 -0.049979132 0
0.42982635 2.5318625 0.41792098 0
0.42059138 2.519912 0.53812355 0
0.42744443 2.5287802 0.67286491 0
0.38674417 2.5084364 -0.050043359 0
0.40758726 2.5361223 0.415344 0
0.40815088 2.536871 0.54009956 0
0.41498712 2.5459516 0.67538983 0
0.35907808 2.5041327 -0.049330935 0
0.39541402 2.5536842 0.41708818 0
0.39314249 2.5505865 0.54078424 0
0.39512917 2.5532959 0.67292684 0
0.3573409 2.5352793 -0.050195422 0
0.37462726 2.5594859 0.41517818 0
0.37937358 2.5661323 0.54228872 0
0.38221744 2.5701146 0.67543423 0
0.333217 2.5353005 -0.04969994 0
0.35497698 2.5665977 0.41377357 0
0.36428216 2.5799813 0.543163 0
0.36491254 2.5808878 0.6749534 0
0.32630882 2.5601425 -0.050291795 0
0.34284809 2.5845816 0.4158068 0
0.34192124 2.5832121 0.53984112 0
0.34337011 2.5853529 0.67143244 0
0.30895349 2.5698853 -0.050237052 0
0.31554922 2.579901 0.41094631 0
0.32286873 2.5910156 0.53848076 0
0.32694891 2.5972114 0.67174071 0
0.2853525 2.5698133 -0.049775906 0
0.31018707 2.6085784 0.41633695 0
0.30619863 2.6023526 0.53862274 0
0.30336645 2.5979319 0.66667211 0
0.27174041 2.585165 -0.04997969 0
0.28685287 2.6094217 0.41333899 0
0.29444453 2.6216068 0.54194957 0
0.28928587 2.6133268 0.66894692 0
0.25912389 2.6024439 -0.050269548 0
0.27136144 2.6226487 0.41414556 0
0.27068231 2.6215274 0.53778887 0
0.27244785 2.6244423 0.6692192 0
0.23923381 2.6077747 -0.0500689 0
0.25288525 2.6309679 0.41355127 0
0.25644436 2.6370146 0.53978437 0
0.25397256 2.6328151 0.66827399 0
0.21773632 2.6100156 -0.049752951 0
0.23427464 2.6389403 0.41292793 0
0.24091507 2.6505542 0.54108804 0
0.23462422 2.6395516 0.66666645 0
0.20227952 2.622684 -0.049876109 0
0.21377195 2.6433845 0.41134796 0
0.21820684 2.6513727 0.53761667 0
0.22013761 2.6548505 0.66924077 0
0.18557866 2.6332335 -0.049920421 0
0.20003219 2.660058 0.41339794 0
0.20049049 2.6609085 0.53757155 0
0.20061268 2.6611354 0.66764432 0
0.16685577 2.6399887 -0.049820084 0
0.18151654 2.6680379 0.41298172 0
0.18196101 2.6688883 0.53702658 0
0.17947544 2.6641328 0.6646378 0
0.14843382 2.6471882 -0.049747635 0
0.15876026 2.6675658 0.41021761 0
0.16109736 2.6721776 0.534823 0
0.1617467 2.6734588 0.66471195 0
0.13485195 2.6641357 -0.050072603 0
0.13971187 2.6740329 0.40952462 0
0.1421165 2.67893 0.53401434 0
0.14122893 2.6771226 0.66227698 0
0.11268105 2.6635609 -0.049709726 0
0.12095507 2.6809616 0.40903407 0
0.12039103 2.6797752 0.53112262 0
0.12359538 2.6865144 0.66260159 0
0.098384641 2.6794941 -0.05000871 0
0.10429957 2.6923485 0.40986499 0
0.10144427 2.6861434 0.53037059 0
0.10330602 2.6901894 0.66042018 0
0.084162734 2.6961215 -0.050340194 0
0.087574862 2.7037892 0.41076505 0
0.087798022 2.7042909 0.5339995 0
0.084706448 2.6973433 0.6599437 0
0.062472187 2.6959784 -0.05002515 0
0.065095626 2.7020798 0.40806684 0
0.06302955 2.6972747 0.52855819 0
0.066700123 2.7058115 0.66016799 0
0.051090382 2.7200966 -0.050660156 0
0.04494103 2.7052836 0.40681833 0
0.043512665 2.7018428 0.52743083 0
0.048380993 2.7135699 0.66017485 0
0.027638992 2.7152877 -0.050185043 0
0.030686459 2.7228978 0.40960646 0
0.027562818 2.7150974 0.5295105 0
0.028175434 2.7166274 0.6581881 0
0.0080079054 2.7194564 -0.050067104 0
0.0083061671 2.7202291 0.40688354 0
0.0070431442 2.7169564 0.52758819 0
0.0089659309 2.7219388 0.65732461 0
-0.0094479704 2.72925 -0.050173383 0
-0.013448336 2.7184825 0.40450105 0
-0.010823824 2.7255468 0.52815568 0
-0.014542797 2.7155366 0.65139836 0
-0.029292742 2.7325892 -0.050042838 0
-0.033459581 2.7209256 0.40333882 0
-0.032046951 2.7248797 0.52552992 0
-0.032596149 2.7233424 0.65187603 0
-0.048407294 2.7377822 -0.049992289 0
-0.049858429 2.7335532 0.40499678 0
-0.05089388 2.7305353 0.52523351 0
-0.05590985 2.7159164 0.6457839 0
-0.065982707 2.7475483 -0.050122879 0
-0.074247427 2.7224355 0.40032563 0
-0.072509684 2.7277157 0.52205312 0
-0.074185826 2.7226226 0.64600515 0
-0.084885575 2.7534196 -0.050115474 0
-0.093697555 2.7254632 0.39953935 0
-0.090812244 2.734617 0.52237147 0
-0.092532106 2.7291608 0.64625263 0
-0.10303313 2.7617896 -0.050210156 0
-0.11180589 2.7326844 0.39993882 0
-0.11507366 2.721843 0.51593214 0
-0.11340214 2.7273886 0.64300567 0
-0.12406612 2.7603843 -0.049949851 0
-0.10603175 2.8230622 0.064278319 0
-0.10687218 2.8201413 0.18110484 0
-0.10868374 2.8138454 0.29866916 0
-0.13087691 2.7367136 0.39955008 0
-0.1354994 2.7206483 0.51363069 0
-0.13379423 2.7265747 0.6402967 0
-0.1430216 2.7658746 -0.049955525 0
-0.13553365 2.7931883 0.062966645 0
-0.13447537 2.7970486 0.1779132 0
-0.13411699 2.7983558 0.29473916 0
-0.14873014 2.7450514 0.40036616 0
-0.15156351 2.7347162 0.51669121 0
-0.1527089 2.7305381 0.63975859 0
-0.15913711 2.7822886 -0.050373029 0
-0.15669145 2.7916713 0.062719196 0
-0.15849207 2.7847633 0.17597096 0
-0.15727447 2.7894347 0.29210594 0
-0.16677289 2.7529938 0.40113467 0
-0.17078437 2.7376039 0.51596749 0
-0.17047887 2.738776 0.64115304 0
-0.18118005 2.7759693 -0.049960658 0
-0.1764233 2.795208 0.062668182 0
-0.1777613 2.7897964 0.1759855 0
-0.17877699 2.7856884 0.29049659 0
-0.19002642 2.74019 0.39650819 0
-0.19438572 2.722559 0.50918335 0
-0.19166379 2.7335677 0.63690406 0
-0.19845386 2.7887735 -0.050260864 0
-0.19874944 2.7875102 0.062214542 0
-0.19823726 2.7896996 0.17546068 0
-0.19961675 2.7838025 0.28928676 0
-0.20998646 2.7394741 0.39513943 0
-0.21000539 2.7393932 0.51341325 0
-0.2113447 2.7336679 0.63503832 0
-0.22070681 2.7800133 -0.049779795 0
-0.21700077 2.7968063 0.062393758 0
-0.21794443 2.7925305 0.17528792 0
-0.21732776 2.7953248 0.29060516 0
-0.23015083 2.7372196 0.39343822 0
-0.22900976 2.7423899 0.51298404 0
-0.23086832 2.7339683 0.6333679 0
-0.2391829 2.7877984 -0.049913485 0
-0.23747618 2.7960229 0.062213369 0
-0.23709254 2.7978716 0.17541841 0
-0.23450612 2.8103352 0.29260376 0
-0.24873509 2.7417679 0.39358032 0
-0.25099435 2.7308807 0.50770849 0
-0.24943818 2.7383797 0.63354433 0
-0.26020986 2.7829735 -0.049596701 0
-0.25296015 2.8202629 0.062952906 0
-0.25166032 2.8269486 0.17817363 0
-0.25356111 2.8171718 0.29313549 0
-0.26767653 2.7445683 0.39332867 0
-0.26924676 2.7364917 0.50834227 0
-0.27058131 2.7296274 0.62826669 0
-0.27796522 2.7949514 -0.049899921 0
-0.26707795 2.8549755 0.064077824 0
-0.26662213 2.8574884 0.18110242 0
-0.26633689 2.859061 0.3001349 0
-0.28813407 2.738888 0.39094049 0
-0.2893188 2.7323563 0.50575691 0
-0.28953263 2.7311773 0.6274485 0
-0.29710412 2.80002 -0.049960464 0
-0.30768776 2.7371736 0.38965023 0
-0.30782753 2.7363436 0.5060029 0
-0.30744964 2.7385876 0.62919283 0
-0.31690493 2.8011303 -0.049886584 0
-0.32627022 2.7408967 0.38982999 0
-0.32869101 2.725327 0.50127518 0
-0.32966006 2.7190945 0.61975551 0
-0.33545795 2.8106427 -0.050124846 0
-0.34625301 2.7349472 0.38757709 0
-0.34650618 2.7331719 0.50298297 0
-0.34733638 2.7273505 0.62205762 0
-0.35573477 2.8082037 -0.049940873 0
-0.36522549 2.7350779 0.38695687 0
-0.36715972 2.7201746 0.49777099 0
-0.3652955 2.7345386 0.62400311 0
-0.37594667 2.8052297 -0.049747128 0
-0.38556036 2.7230632 0.3832792 0
-0.38488692 2.7288191 0.49990311 0
-0.38498676 2.7279658 0.62030381 0
-0.39412087 2.8205128 -0.050218113 0
-0.40497339 2.7164187 0.38104966 0
-0.40538561 2.7124648 0.49374518 0
-0.40463182 2.7196951 0.61600572 0
-0.41396409 2.8212426 -0.050175019 0
-0.42305189 2.7219708 0.38201004 0
-0.42346823 2.717423 0.49480069 0
-0.42262921 2.726588 0.61812013 0
-0.43381867 2.8214822 -0.050123364 0
-0.44214487 2.7159019 0.38005367 0
-0.44223684 2.7147357 0.49337983 0
-0.44261998 2.7098773 0.6105234 0
-0.45433253 2.8112588 -0.049706347 0
-0.46124783 2.7068033 0.37738582 0
-0.46113673 2.7084816 0.49084964 0
-0.46130881 2.7058823 0.60831398 0
-0.47343054 2.8220267 -0.050049335 0
-0.47993922 2.70052 0.37550053 0
-0.48018885 2.6958599 0.48627898 0
-0.47988716 2.7014918 0.60603952 0
-0.49356201 2.8135448 -0.049712922 0
-0.49816427 2.7011483 0.37544116 0
-0.49828953 2.6980898 0.48673579 0
-0.49886733 2.6839783 0.59842527 0
-0.51300859 2.8209643 -0.049953625 0
-0.5163008 2.7047946 0.37621075 0
-0.51660222 2.6941593 0.48521796 0
-0.51720959 2.672729 0.59350741 0
-0.53279388 2.8178513 -0.049826946 0
-0.53463626 2.7008157 0.37509269 0
-0.53484726 2.6874111 0.48283961 0
-0.53495306 2.680692 0.59664172 0
-0.55245483 2.8268373 -0.050141122 0
-0.55288905 2.688957 0.37202325 0
-0.55293214 2.6752882 0.47874969 0
-0.55295444 2.668201 0.59139985 0
-0.57225388 2.8266406 -0.05013632 0
-0.57093143 2.6865933 0.37143469 0
-0.57073629 2.6659267 0.47565377 0
-0.57072169 2.6643784 0.58984023 0
-0.59203637 2.8257077 -0.050114132 0
-0.58869481 2.6740761 0.36831284 0
-0.58846587 2.6636865 0.47500136 0
-0.58836204 2.6589766 0.58771884 0
-0.6121096 2.8335283 -0.050413527 0
-0.60597152 2.6563275 0.36391115 0
-0.60605568 2.6587572 0.47352782 0
-0.60585648 2.6530063 0.58545303 0
-0.63151592 2.8226933 -0.050055373 0
-0.62339336 2.6507952 0.36268267 0
-0.62348294 2.6526909 0.47174844 0
-0.62323618 2.6474688 0.58345664 0
-0.6512112 2.820859 -0.050027583 0
-0.640558 2.6429501 0.36091819 0
-0.64052498 2.6423986 0.46863237 0
-0.63979352 2.6301825 0.57667631 0
-0.64037198 2.639843 0.70047373 0
-0.67123652 2.8238027 -0.050179675 0
-0.65763098 2.6362092 0.35948986 0
-0.65737337 2.6326578 0.4657689 0
-0.65746081 2.6338632 0.5786801 0
-0.65754855 2.6350727 0.6986599 0
-0.69060367 2.8177199 -0.050017539 0
