# .PCD v0.7 - Point Cloud Data file format
VERSION 0.7
FIELDS x y z intensity
SIZE 4 4 4 4
TYPE F F F F
COUNT 1 1 1 1
WIDTH 1361
HEIGHT 1
VIEWPOINT 0 0 0 1 0 0 0
POINTS 1361
DATA ascii
-1.2760134 0.28718013 0.22330016 0
-1.2747824 0.28883672 0.31287923 0
-1.2466145 0.32674682 0.39046004 0
-1.2381585 0.33812743 0.47858793 0
-1.2378415 0.33855397 0.57683122 0
-1.2369626 0.33973688 0.68172622 0
-1.4797953 -0.020297652 -0.050170898 0
-1.2731971 0.26519406 0.04958963 0
-1.2803206 0.25535017 0.13852093 0
-1.2790666 0.25708306 0.2280031 0
-1.2708609 0.26842225 0.31648782 0
-1.2456657 0.30323869 0.39658052 0
-1.2402439 0.31073099 0.48824602 0
-1.2412542 0.30933475 0.58963072 0
-1.2391229 0.31228006 0.69561517 0
-1.4571637 -0.022572523 -0.049767431 0
-1.1738298 0.37952226 0.044206232 0
-1.171428 0.38293064 0.12056166 0
-1.1680552 0.38771731 0.19719462 0
-1.3347267 0.15118456 0.35029945 0
-1.2423495 0.28228205 0.40161338 0
-1.2379624 0.28850806 0.49518508 0
-1.2411988 0.28391522 0.59996504 0
-1.4433742 -0.037239794 -0.049916342 0
-1.1556065 0.38226742 0.043754365 0
-1.1597281 0.37625897 0.12043257 0
-1.1574913 0.37951958 0.19732095 0
-1.3157601 0.1487956 0.34803748 0
-1.2403706 0.25869828 0.40767983 0
-1.2413824 0.25722337 0.50662869 0
-1.2471737 0.24878085 0.61610532 0
-1.4287332 -0.050826672 -0.050025109 0
-1.1375972 0.38526207 0.04330546 0
-1.1413412 0.37965405 0.11902288 0
-1.1397691 0.38200897 0.19515774 0
-1.2995236 0.14271462 0.34700063 0
-1.2392676 0.23297131 0.41456285 0
-1.2402163 0.23155046 0.5151614 0
-1.2406235 0.23094046 0.62166119 0
-1.4152977 -0.066416152 -0.050226126 0
-1.1305425 0.37196946 0.04356328 0
-1.1249582 0.38056672 0.11797259 0
-1.1240276 0.38199931 0.19359776 0
-1.2817916 0.13911891 0.34527859 0
-1.2454146 0.195122 0.4262045 0
-1.2425379 0.19955075 0.52675545 0
-1.2350707 0.21104658 0.62844622 0
-1.3992497 -0.078141578 -0.050269548 0
-1.1089929 0.381275 0.042868517 0
-1.109419 0.38060063 0.11706865 0
-1.11057 0.37877893 0.19277753 0
-1.267707 0.13006341 0.34528553 0
-1.2336229 0.18401158 0.42720073 0
-1.2399726 0.17396128 0.53510386 0
-1.2424376 0.17005956 0.64770281 0
-1.3752816 -0.077038892 -0.049783643 0
-1.1010929 0.36929357 0.043082435 0
-1.0955063 0.37838763 0.11647984 0
-1.0931808 0.38217318 0.19059958 0
-1.2521144 0.12345623 0.34461266 0
-1.2409244 0.14167166 0.44044125 0
-1.2439567 0.13673556 0.54905814 0
-1.2380584 0.14633703 0.65661848 0
-1.3615866 -0.092478879 -0.050001841 0
-1.079301 0.38027912 0.042343907 0
-1.0750533 0.38739288 0.1145133 0
-1.0762262 0.38542855 0.18851328 0
-1.2527349 0.089820497 0.35203499 0
-1.2402465 0.11073541 0.44912803 0
-1.2335074 0.12202191 0.55202758 0
-1.2403505 0.11056136 0.67252356 0
-1.346454 -0.10575379 -0.050136235 0
-1.0680394 0.37414777 0.042328607 0
-1.0613891 0.38561094 0.11393343 0
-1.0662639 0.37720811 0.18887955 0
-1.2481561 0.063681714 0.35718971 0
-1.2404757 0.076920502 0.45886216 0
-1.2420861 0.074144475 0.57091302 0
-1.2386516 0.080064528 0.68524265 0
-1.3272398 -0.1119839 -0.049988832 0
-1.0453148 0.38837886 0.041484833 0
-1.0555216 0.37026358 0.11505231 0
-1.0566895 0.36819094 0.18943425 0
-1.2512206 0.022935385 0.36660266 0
-1.2408692 0.041307207 0.46921313 0
-1.2400557 0.04275107 0.58177978 0
-1.3066937 -0.11556912 -0.049744692 0
-1.0344212 0.38221562 0.041488435 0
-1.0297805 0.39069998 0.11178926 0
-1.0362482 0.37887537 0.18596005 0
-1.2453642 -0.0034430078 0.37176153 0
-1.237833 0.010325903 0.4777346 0
-1.2419025 0.0028859326 0.596582 0
-1.2905712 -0.12712872 -0.049834974 0
-1.0219729 0.37897247 0.041379556 0
-1.0216106 0.37965494 0.11241776 0
-1.0157131 0.3907674 0.18231519 0
-1.2400973 -0.032024268 0.37754369 0
-1.2378702 -0.027827984 0.48891538 0
-1.2369679 -0.02612794 0.60618842 0
-1.2782557 -0.14623106 -0.050235711 0
-1.0012203 0.39202702 0.0406233 0
-1.009587 0.37577111 0.11218911 0
-1.0044177 0.38581496 0.18216312 0
-1.2362092 -0.06453789 0.38443592 0
-1.2420326 -0.075852521 0.50371706 0
-1.2427944 -0.077332385 0.62609512 0
-1.260576 -0.15522063 -0.05023668 0
-0.99200487 0.38314557 0.040757418 0
-0.99181896 0.38351822 0.11058326 0
-0.9953922 0.37635541 0.18294914 0
-1.2397245 -0.11342276 0.39596674 0
-1.2428248 -0.11963738 0.51683027 0
-1.2404522 -0.11488128 0.63952464 0
-1.237712 -0.15349066 -0.049821451 0
-0.98251551 0.37460899 0.040881667 0
-0.97529453 0.38955194 0.10921845 0
-0.97619778 0.3876828 0.17958957 0
-1.2406267 -0.15952218 0.40662581 0
-1.241375 -0.16107082 0.5289914 0
-1.2198713 -0.16181517 -0.049816336 0
-0.96672136 0.3793385 0.040487032 0
-0.96760899 0.37744099 0.11003923 0
-0.96691889 0.3789162 0.18029882 0
-1.2405527 -0.20602524 0.41733271 0
-1.2430396 -0.2113415 0.54433376 0
-1.1991103 -0.1636852 -0.049567156 0
-0.95062405 0.38540846 0.040049929 0
-0.95250535 0.38125128 0.10898871 0
-0.9547891 0.37620473 0.1798286 0
-1.2445965 -0.26419866 0.43124723 0
-1.2391875 -0.25224614 0.55616093 0
-1.1836059 -0.17714107 -0.049781028 0
-0.94550997 0.36713564 0.040571734 0
-0.9410035 0.37743729 0.10886066 0
-0.93789923 0.38453341 0.17721786 0
-1.2383778 -0.3023473 0.4394947 0
-1.2431829 -0.31333148 0.57526922 0
-1.1708435 -0.19748187 -0.050268192 0
-0.92537796 0.3834548 0.039752573 0
-0.92129207 0.39312488 0.10647501 0
-0.92604828 0.38186842 0.17681514 0
-1.2395858 -0.36017215 0.45316994 0
-1.1482303 -0.19458318 -0.049863074 0
-0.91090369 0.38742447 0.039423548 0
-0.91020012 0.3891499 0.10641251 0
-0.91201276 0.38470465 0.17537217 0
-1.2404501 -0.42073858 0.46752632 0
-1.1326239 -0.20873415 -0.050124954 0
-0.89971656 0.38366234 0.039399758 0
-0.90015429 0.38254911 0.10666971 0
-0.89867991 0.38629913 0.17421131 0
-1.2408049 -0.48389089 0.48251772 0
-1.1152548 -0.21876049 -0.050235648 0
-0.88620216 0.38608795 0.039145257 0
-0.88868862 0.37952203 0.10652956 0
-0.88709253 0.38373679 0.17389004 0
-1.2438152 -0.55824399 0.50049233 0
-1.0979731 -0.22926426 -0.05037231 0
-0.87258261 0.38932097 0.038867719 0
-0.87442237 0.38427186 0.1055171 0
-0.87441069 0.38430387 0.17299764 0
-1.0756959 -0.2258029 -0.049988359 0
-0.86233509 0.38351107 0.038939971 0
-0.86383748 0.37922049 0.10564563 0
-0.85971898 0.39098203 0.170972 0
-1.0565451 -0.23080361 -0.049935337 0
-0.847247 0.39193767 0.038480587 0
-0.84959376 0.38495523 0.10456586 0
-0.84967864 0.38470268 0.17145552 0
-1.0363516 -0.23245549 -0.049765982 0
-0.84144282 0.37259549 0.039071754 0
-0.83827323 0.38243473 0.10444284 0
-0.838579 0.38148552 0.17138086 0
-1.0178281 -0.23913002 -0.049794447 0
-0.82409346 0.3892802 0.038317423 0
-0.82503325 0.38623202 0.10362586 0
-0.83013296 0.36969012 0.17295188 0
-0.99633813 -0.23581517 -0.049459722 0
-0.81400049 0.38320696 0.038421035 0
-0.81487948 0.38022268 0.1039293 0
-0.81361419 0.38451827 0.1695316 0
-0.97970492 -0.24892771 -0.049745411 0
-0.80342251 0.37858295 0.03847526 0
-0.80086637 0.38768208 0.10274245 0
-0.80122441 0.38640749 0.1685863 0
-0.96134311 -0.25636744 -0.049828254 0
-0.78998303 0.38450575 0.10276243 0
-0.79208201 0.37665576 0.16984652 0
-0.94443834 -0.26979518 -0.050139923 0
-0.77944195 0.37995523 0.03820676 0
-0.77844483 0.38388199 0.16796505 0
-0.92203641 -0.26132607 -0.049654432 0
-0.76794302 0.3791908 0.10273307 0
-0.7658627 0.38783807 0.16672777 0
-0.90762359 -0.28647459 -0.050411478 0
-0.75604689 0.38039505 0.16763161 0
-0.88778669 -0.28885341 -0.050341789 0
-0.86751354 -0.28882766 -0.050193828 0
-0.73558211 0.3676883 0.16909994 0
-0.84808421 -0.29274499 -0.05019873 0
-0.72275323 0.37430203 0.1674875 0
-0.8276391 -0.29089212 -0.050003376 0
-0.80598915 -0.28075707 -0.049518198 0
-0.78831267 -0.29498184 -0.049923066 0
-0.76926005 -0.30124176 -0.050048284 0
-0.7491796 -0.29991794 -0.049909145 0
-0.73002672 -0.30611563 -0.050049454 0
-0.7106086 -0.31065106 -0.050138615 0
-0.69089925 -0.31254661 -0.050141864 0
-0.67108589 -0.31308281 -0.050105341 0
-0.65113109 -0.31087816 -0.049979739 0
-0.63130254 -0.30953503 -0.049893994 0
-0.61174881 -0.31446898 -0.050041437 0
-0.59201282 -0.31599617 -0.050075982 0
-0.57219493 -0.31175423 -0.049913418 0
-0.55243433 -0.32471061 -0.050373767 0
-0.53267014 -0.31706882 -0.050107613 0
-0.5128538 -0.31778336 -0.050148703 0
-0.49310347 -0.31610024 -0.050113067 0
-0.47317055 -0.31823742 -0.05022287 0
-0.45366493 -0.31269956 -0.050067142 0
-0.49616909 0.32932431 0.039095886 0
-0.43420279 -0.30796802 -0.049948923 0
-0.48346516 0.31670272 0.039578132 0
-0.41409796 -0.31113732 -0.050122596 0
-0.39496088 -0.30381274 -0.049928907 0
-0.46176159 0.33691949 0.038929958 0
-0.37355569 -0.31702185 -0.050481666 0
-0.44845086 0.3230933 0.039472841 0
-0.44134152 0.26233095 0.11333578 0
-0.44218653 0.26955318 0.1848132 0
-0.44068098 0.25668544 0.26226521 0
-0.44106725 0.25998694 0.339066 0
-0.44297802 0.27631783 0.41369095 0
-0.35508075 -0.30459976 -0.050122287 0
-0.43380138 0.30194163 0.040286362 0
-0.42835635 0.25998777 0.1137566 0
-0.43046549 0.27623862 0.18387541 0
-0.43021235 0.27428818 0.25813499 0
-0.42804897 0.25761932 0.34037817 0
-0.42789865 0.25646096 0.42261526 0
-0.4294591 0.26848435 0.50339091 0
-0.33659112 -0.29405379 -0.049838301 0
-0.42115128 0.29888743 0.040455353 0
-0.41989782 0.29009801 0.11067288 0
-0.41914487 0.28481823 0.18261775 0
-0.41823888 0.27846533 0.25749123 0
-0.42154491 0.30164748 0.32615596 0
-0.41974822 0.28904897 0.40970123 0
-0.41993344 0.29034775 0.49319485 0
-0.31732926 -0.28975809 -0.049787983 0
-0.40640169 0.28311849 0.04108981 0
-0.40676874 0.28547919 0.11137186 0
-0.40789759 0.29273939 0.18150377 0
-0.40747645 0.2900309 0.25497743 0
-0.40731859 0.28901553 0.33101043 0
-0.4056451 0.27825242 0.41498342 0
-0.4088026 0.29856008 0.4899517 0
-0.29844624 -0.28340745 -0.049671937 0
-0.39174256 0.27059317 0.041614901 0
-0.39197057 0.27194715 0.11306167 0
-0.39249972 0.27508914 0.18509002 0
-0.39213628 0.27293116 0.25990978 0
-0.39156786 0.26955575 0.33823913 0
-0.39078707 0.2649194 0.42141628 0
-0.39728242 0.30348933 0.48843849 0
-0.27874845 -0.28198993 -0.049743235 0
0.06915053 -2.2000408 0.13133742 0
-0.38473246 0.30232507 0.49009404 0
-0.25900137 -0.28054643 -0.049822774 0
0.11455216 -2.201942 0.13170345 0
-0.37521851 0.31722361 0.48364681 0
-0.23879693 -0.28101528 -0.049981304 0
0.16088761 -2.2070384 0.13220777 0
-0.36908656 0.34683186 0.46972719 0
-0.22071804 -0.27131927 -0.049777932 0
0.20760502 -2.2121818 0.1327365 0
-0.35825148 0.35188681 0.46838894 0
-0.19867747 -0.27917469 -0.05022582 0
0.25039086 -2.1988506 0.13261096 0
-0.34850284 0.36129844 0.46487808 0
-0.18088703 -0.26851118 -0.05000424 0
0.29482177 -2.1925123 0.13276199 0
-0.0052594333 -0.97883582 0.25322282 0
-0.0051995902 -0.97907782 0.42091984 0
-0.33780438 0.36614007 0.46377486 0
-0.16140069 -0.26496136 -0.050052632 0
0.34338316 -2.20157 0.13350214 0
-0.32773861 0.37319607 0.46159258 0
-0.14310478 -0.25692809 -0.049944296 0
0.38979241 -2.2007761 0.13390276 0
-0.31755218 0.37940341 0.45990872 0
-0.12064008 -0.26364827 -0.050392196 0
-0.30339658 0.37151623 0.46562359 0
-0.10844583 -0.23518896 -0.049540557 0
-0.30280447 0.40963119 0.44741362 0
-0.086495228 -0.23966992 -0.049924318 0
-0.29108065 0.40938771 0.44925821 0
-0.067415304 -0.23455215 -0.049959272 0
-0.28339747 0.4217245 0.44456157 0
-0.047741748 -0.23107898 -0.050065503 0
-0.264588 0.40091133 0.45743111 0
-0.028436879 -0.22634184 -0.050133664 0
-0.013619521 -0.2093786 -0.049745746 0
0.007815442 -0.21031463 -0.05004802 0
0.026293119 -0.20328379 -0.050055791 0
0.041207753 -0.1876477 -0.049739935 0
0.059828304 -0.18118644 -0.049786195 0
0.080478154 -0.17919791 -0.050016627 0
-0.19092266 0.43072122 0.37923646 0
0.1019161 -0.17852557 -0.050310317 0
0.11807504 -0.16626155 -0.050158169 0
-0.1577139 0.41374058 0.39137185 0
-0.20066033 0.50405973 0.49868011 0
0.13803335 -0.16197145 -0.050330292 0
0.55534869 -1.0118515 0.46131405 0
-0.16442896 0.45400542 0.37515149 0
-0.19612168 0.51854897 0.49211428 0
0.15166338 -0.14491796 -0.050002705 0
0.58949751 -1.0089152 0.46358946 0
-0.15147637 0.45328087 0.37781397 0
-0.18805905 0.52547103 0.49057534 0
0.17311181 -0.14331472 -0.050302245 0
0.61291152 -0.98474407 0.46164593 0
-0.13722728 0.45042926 0.38156369 0
-0.17637454 0.52532619 0.49382296 0
0.18488361 -0.12330056 -0.049868107 0
0.64579827 -0.97871518 0.46346599 0
-0.12428016 0.45047855 0.38405871 0
-0.1734703 0.54177082 0.48601583 0
0.20420177 -0.11750341 -0.050017495 0
0.68654436 -0.98630857 0.46819395 0
-0.11457843 0.45668983 0.38373008 0
-0.16445665 0.5465315 0.48610401 0
0.22106554 -0.10719515 -0.049992409 0
0.71854264 -0.97726202 0.46960539 0
-0.081216581 0.42148399 0.40321043 0
-0.155176 0.55083591 0.4865818 0
0.23383518 -0.089959748 -0.049688935 0
0.75965947 -0.98330903 0.47426996 0
-0.061044849 0.41102684 0.4111467 0
-0.14694838 0.55697262 0.4858824 0
0.25747249 -0.091074355 -0.050155744 0
0.80585688 -0.99647713 0.48058045 0
-0.05540625 0.42549986 0.40719855 0
-0.13877808 0.56314975 0.48522115 0
0.27161935 -0.076327689 -0.049971517 0
0.84301633 -0.99346232 0.48362514 0
-0.13018148 0.56859267 0.48513937 0
0.28970101 -0.067957886 -0.050063699 0
0.88062578 -0.99035239 0.48677388 0
-0.12340382 0.57687128 0.48313561 0
0.30589703 -0.056601051 -0.050038651 0
0.91547638 -0.98224401 0.48897135 0
0.022533437 0.37368512 0.44257763 0
-0.11339647 0.58009392 0.4847658 0
0.32528493 -0.049986366 -0.050226577 0
0.96043772 -0.98851871 0.49441496 0
0.03205999 0.38329685 0.44145787 0
-0.10550929 0.58657575 0.48416588 0
0.33567098 -0.030186897 -0.049853411 0
0.99017864 -0.97156096 0.49492711 0
0.048520945 0.38281918 0.44547632 0
-0.10722546 0.60682827 0.47368553 0
0.34876338 -0.014624601 -0.04966848 0
0.052076541 0.40083766 0.44022584 0
-0.10035387 0.61429197 0.47241458 0
0.36975929 -0.010055786 -0.04997579 0
0.069453202 0.39947188 0.44490188 0
-0.089895226 0.61677539 0.47485772 0
0.38231096 0.0060951659 -0.049780209 0
1.1351923 -0.99395609 0.10647008 0
1.128679 -0.98530459 0.30727485 0
0.087852322 0.39722431 0.45019236 0
-0.078181662 0.61776704 0.47852883 0
0.40478376 0.0091870967 -0.050179027 0
0.1022652 0.40066487 0.45267886 0
-0.080999382 0.63782054 0.46805924 0
0.42099091 0.020637268 -0.050213825 0
0.12399008 0.39513236 0.4600274 0
-0.072070666 0.64234984 0.46920836 0
0.4374074 0.031874057 -0.050268151 0
-0.063576616 0.647493 0.46998543 0
0.444913 0.053848024 -0.049833234 0
-0.057871111 0.65602994 0.46823096 0
0.46204266 0.064119212 -0.049948141 0
0.47885153 0.074883096 -0.050051104 0
0.49253163 0.08923208 -0.049993061 0
1.2052842 -0.70169103 0.10000405 0
-0.031868614 0.67114526 0.4715654 0
0.5008828 0.10929083 -0.049665086 0
1.2091167 -0.65699208 0.098917536 0
-0.028218249 0.68175876 0.46837547 0
0.52437025 0.11304938 -0.050140142 0
0.38340697 0.26176524 0.054824684 0
-0.021891812 0.68935442 0.46765059 0
0.54011434 0.12525892 -0.050214916 0
0.38860938 0.28111792 0.054454852 0
0.83836693 -0.18156505 0.22120591 0
-0.0087443376 0.68989104 0.47282049 0
0.54640204 0.14703369 -0.049818382 0
0.39499095 0.29892206 0.05416169 0
0.84160775 -0.14910221 0.21896394 0
0.5660333 0.15536904 -0.050106879 0
0.41552898 0.30259287 0.054590385 0
0.73982686 -0.014636284 0.20102258 0
0.74592 -0.020596629 0.33481273 0
0.73644739 -0.011330491 0.46777731 0
0.57919163 0.17016423 -0.050077777 0
0.41775993 0.3241477 0.054113023 0
0.8340264 -0.07291282 0.21265534 0
0.19615354 0.53552943 0.35246801 0
0.0052997679 0.7175774 0.46718135 0
0.59007913 0.18704772 -0.049947441 0
0.45287427 0.31466168 0.055257808 0
0.84597856 -0.050963644 0.21197301 0
0.18877442 0.56030017 0.34503031 0
0.59901386 0.20558226 -0.049734775 0
0.84459347 -0.017129904 0.073570706 0
0.8382687 -0.011394149 0.20848617 0
0.18767901 0.57861519 0.34064013 0
0.02057918 0.73015529 0.46873644 0
0.61090666 0.22130513 -0.049676616 0
0.84359664 0.015562052 0.072765581 0
0.84179038 0.017159218 0.20672101 0
0.84042829 0.018363589 0.34251037 0
0.21125509 0.5746749 0.34735805 0
0.030579885 0.73442686 0.47146487 0
0.63455957 0.22684085 -0.050182771 0
0.83530396 0.053798314 0.071644761 0
0.83942169 0.050248738 0.20419046 0
0.84151679 0.048442718 0.3390905 0
0.22950526 0.57599956 0.35164216 0
0.033677302 0.74480414 0.46880117 0
0.63743359 0.25030732 -0.049717907 0
0.83685404 0.082735889 0.071017303 0
0.83631235 0.083191149 0.20164137 0
0.84143716 0.078884713 0.33552116 0
0.91656548 0.015755171 0.49719653 0
0.27038494 0.55873513 0.36572227 0
0.28256068 0.54850394 0.46025696 0
0.041857742 0.75076455 0.47020465 0
0.65997285 0.25724739 -0.050179023 0
0.83384186 0.11484288 0.070202641 0
0.84054977 0.10934889 0.20019692 0
0.83099049 0.11717831 0.32966149 0
0.95569164 0.015043968 0.50499523 0
0.29525122 0.55596638 0.37267762 0
0.25104305 0.59217435 0.43866867 0
0.055882476 0.75201732 0.47613168 0
0.67058736 0.27412605 -0.050094821 0
0.850146 0.13080084 0.070297062 0
0.83625048 0.14189231 0.1976386 0
0.8385064 0.14009166 0.32811725 0
0.9854551 0.022796029 0.50965661 0
0.27613947 0.58897775 0.36082768 0
0.23816599 0.61928844 0.4274641 0
0.051174901 0.76854634 0.46779725 0
0.67407697 0.29647529 -0.049698845 0
0.85643345 0.15463865 0.069946654 0
0.83512443 0.17121279 0.19559328 0
0.83743376 0.16941667 0.32469201 0
0.25779083 0.62026197 0.43359694 0
0.068344913 0.7676127 0.47613817 0
0.69193262 0.30759156 -0.049962811 0
0.85277671 0.1857065 0.069167644 0
0.83977741 0.19555712 0.19439667 0
0.83878893 0.19630611 0.32193261 0
0.26458481 0.63142908 0.43301255 0
0.063703619 0.78365368 0.46816158 0
0.69581336 0.32925874 -0.049610447 0
0.85204715 0.21393502 0.068543166 0
0.8435933 0.22017515 0.19314046 0
0.8368575 0.22514725 0.31853828 0
0.29621783 0.62421966 0.44528881 0
0.074348949 0.78799182 0.47167635 0
0.71592969 0.3389523 -0.049987175 0
0.85038894 0.242293 0.06789919 0
0.84451908 0.24651277 0.19155425 0
0.84318429 0.24747217 0.31708986 0
0.079011701 0.79681641 0.47082999 0
0.72642964 0.35570502 -0.049946874 0
0.85336035 0.26686037 0.067478247 0
0.83602482 0.27899426 0.18878995 0
0.83812326 0.27752548 0.31320935 0
0.84137779 0.27524751 0.44161019 0
0.09171214 0.79997307 0.47589022 0
0.7532149 0.36133105 -0.05061961 0
0.88631767 0.27064168 0.068369724 0
0.83689576 0.30431521 0.18732056 0
0.83968979 0.3024115 0.31089133 0
0.84033197 0.30197394 0.43751574 0
0.11359438 0.79713565 0.48752496 0
0.75033432 0.38720071 -0.050019022 0
0.91113669 0.2805779 0.068907224 0
0.8375625 0.32936257 0.18587835 0
0.84627861 0.32358319 0.30974743 0
0.84023541 0.32759023 0.43384928 0
0.11943855 0.80552721 0.48762515 0
0.74927109 0.4113977 -0.049514398 0
0.95776838 0.27689832 0.070372432 0
0.83556825 0.35572833 0.18414798 0
0.83587128 0.35553277 0.3050226 0
0.84557408 0.34927362 0.43196109 0
0.13236131 0.80935949 0.49279505 0
0.77659982 0.41736495 -0.050223246 0
0.98602229 0.28597319 0.071049593 0
0.84574276 0.37398463 0.18401739 0
0.84585851 0.37391204 0.30476302 0
0.83734828 0.37925136 0.42608479 0
0.12931485 0.8234719 0.48677808 0
0.78283912 0.43678588 -0.050047889 0
1.0326028 0.28443277 0.072492778 0
0.8390941 0.40247101 0.18179904 0
0.83880752 0.40264577 0.30095515 0
0.84058219 0.40156329 0.4237915 0
0.14183135 0.82779366 0.49174225 0
0.78639907 0.45765519 -0.049772821 0
1.079571 0.28385019 0.073940516 0
0.83510727 0.42877883 0.17997473 0
0.85083276 0.41945606 0.30125123 0
0.83473748 0.42899805 0.41890618 0
0.13218923 0.84549904 0.48143023 0
0.80677158 0.4686209 -0.050203275 0
0.85497516 0.44085795 0.18116331 0
0.83547097 0.45209146 0.29588956 0
0.84289008 0.4478184 0.41827941 0
0.14137091 0.85185939 0.48422852 0
0.81167907 0.48858768 -0.050003767 0
0.84883195 0.46780801 0.1791594 0
0.83695048 0.47445333 0.29413083 0
0.84173769 0.47177583 0.41500646 0
0.14393289 0.86206007 0.48256364 0
0.82177526 0.50558108 -0.050026648 0
0.85363322 0.48828578 0.17854917 0
0.83249158 0.49976331 0.29122341 0
0.83432418 0.49876845 0.41002604 0
0.82976347 0.5237065 -0.049972981 0
0.85321361 0.51135552 0.17734021 0
0.83934981 0.51865745 0.29070723 0
0.84354371 0.51644856 0.40997314 0
0.85144216 0.53480101 -0.050477657 0
0.850043 0.53551561 0.17584223 0
0.84363157 0.53879005 0.28972095 0
0.84767145 0.53672677 0.40852588 0
0.83439523 0.54350716 0.52593732 0
0.83804876 0.56365484 -0.049587693 0
0.84383255 0.56079221 0.17402561 0
0.84073001 0.56232774 0.28734645 0
0.83238286 0.56645912 0.40163326 0
0.83115631 0.56706613 0.52145356 0
0.85113841 0.57912105 -0.049766012 0
0.87898785 0.5657711 0.1771879 0
0.8301999 0.58915812 0.28352001 0
0.83252829 0.58804202 0.3992551 0
0.82914287 0.58966482 0.51755869 0
0.86840588 0.59279096 -0.050115403 0
0.89865917 0.57875443 0.17850479 0
0.84193987 0.60507035 0.28421083 0
0.83044523 0.61040348 0.3963407 0
0.8382991 0.60675955 0.51788783 0
0.87407058 0.61194122 -0.050015546 0
0.92694134 0.58821529 0.18084788 0
0.84396595 0.62545079 0.28301728 0
0.8381483 0.62806147 0.39625832 0
0.83553857 0.62923259 0.51394826 0
0.88187963 0.63008809 -0.050009098 0
0.96362752 0.59463322 0.18417667 0
0.84133273 0.64767373 0.28096494 0
0.84198719 0.64738989 0.39516377 0
0.84706706 0.64518672 0.51531476 0
0.89072722 0.64779848 -0.050051741 0
1.0091647 0.59819323 0.18852867 0
0.83198172 0.67240286 0.27766469 0
0.83944374 0.66927755 0.39237711 0
0.82808691 0.67403412 0.50574243 0
0.89768833 0.66630703 -0.050030142 0
1.0415113 0.60818714 0.19133483 0
0.83809954 0.69038725 0.27745089 0
0.83767062 0.69056058 0.38989261 0
0.84690589 0.68682855 0.50991285 0
0.90242988 0.68566716 -0.049932558 0
1.0773692 0.61752254 0.1945468 0
0.84185845 0.70926172 0.27682552 0
0.84170729 0.7093206 0.38908455 0
0.84284085 0.70887905 0.50594997 0
0.27731296 0.92917073 0.45421115 0
0.90953869 0.70406914 -0.049935021 0
0.8569265 0.723804 0.27842733 0
0.83845788 0.73073161 0.38635942 0
0.84667569 0.72764909 0.50491178 0
0.27991638 0.94024092 0.45344996 0
0.92568177 0.7192167 -0.050289165 0
0.84413129 0.74864048 0.27471492 0
0.84130615 0.74965978 0.38537389 0
0.83793634 0.75087565 0.4995147 0
0.25953236 0.9595663 0.44053927 0
0.90796238 0.74636996 -0.049369495 0
0.84840995 0.76701307 0.27433747 0
0.85123688 0.76603311 0.38636953 0
0.84090036 0.76961619 0.49836522 0
0.83421594 0.7719332 0.61581653 0
0.27610782 0.96539426 0.44738573 0
0.92075282 0.76269555 -0.049614459 0
0.85973936 0.78298819 0.27534577 0
0.83497077 0.79122609 0.38037297 0
0.82983416 0.79293448 0.49238437 0
0.84072262 0.78931302 0.61605346 0
0.29089341 0.97218251 0.45329857 0
0.93161517 0.77982008 -0.049793918 0
0.85101157 0.80550575 0.27259165 0
0.84431261 0.80764049 0.38134268 0
0.83935362 0.80922079 0.49371824 0
0.83852667 0.8094843 0.61260307 0
0.3047528 0.97958016 0.45874637 0
0.93371338 0.79975206 -0.049653642 0
0.84380871 0.82715958 0.27018917 0
0.82882029 0.83172882 0.37573999 0
0.84265119 0.82751244 0.49295443 0
0.83898288 0.82863075 0.61042404 0
0.30544016 0.99128175 0.45733216 0
0.94123501 0.8180052 -0.049724896 0
0.87095934 0.83846533 0.27429965 0
0.8344807 0.84908575 0.37585941 0
0.8413319 0.84709108 0.49067357 0
0.83813947 0.84802055 0.60779673 0
0.33004227 0.99594855 0.46846241 0
0.95791906 0.83377087 -0.050143909 0
0.89397222 0.85151815 0.27764803 0
0.83170396 0.86879951 0.37380239 0
0.82969159 0.869358 0.48492247 0
0.83874899 0.8668443 0.60590798 0
0.32907102 1.008296 0.46630535 0
0.94106168 0.85870093 -0.049330369 0
0.93242007 0.86098248 0.28389508 0
0.83082741 0.88780463 0.37231928 0
0.83235794 0.88740057 0.48420987 0
0.83878475 0.88570374 0.60388148 0
0.31670383 1.0235418 0.45833886 0
0.96584111 0.87260884 -0.050063413 0
0.95921749 0.87426865 0.28797853 0
0.83879346 0.90444589 0.37322965 0
0.8360948 0.90512216 0.48394477 0
0.84347743 0.90327209 0.60395062 0
0.3281118 1.0324183 0.46276012 0
0.97445911 0.89088565 -0.050207704 0
0.98120028 0.88928628 0.29118845 0
0.83886689 0.92305493 0.37212279 0
0.83509725 0.9239493 0.48213804 0
0.84824711 0.92082947 0.6041466 0
0.32744876 1.0443891 0.4610185 0
0.9736014 0.91139239 -0.050013348 0
1.005074 0.90434289 0.29477382 0
0.83212608 0.94308132 0.36929876 0
0.84284014 0.94068152 0.48339731 0
0.83654124 0.94209236 0.59744555 0
0.34191331 1.0528836 0.46711564 0
0.967619 0.93284261 -0.049641959 0
1.0584714 0.91369069 0.30382624 0
0.84150642 0.95942742 0.3707515 0
0.84509379 0.95867115 0.4828586 0
0.83879334 0.95999932 0.59678173 0
0.35281959 1.0624437 0.47143194 0
0.97438377 0.951509 -0.049745236 0
1.0810771 0.9304173 0.30721712 0
0.84417313 0.97724974 0.37050819 0
0.84627742 0.97683376 0.48203522 0
0.83736521 0.97859555 0.59466159 0
0.35507342 1.0739375 0.47138608 0
0.9861024 0.969338 -0.050036661 0
0.84832042 0.99477714 0.37070793 0
0.83774644 0.99672949 0.47800466 0
0.84795147 0.99484527 0.59770364 0
0.38550487 1.0802284 0.48575068 0
0.98715883 0.98920882 -0.049949385 0
0.85377198 1.0121037 0.37130201 0
0.84561831 1.0135032 0.47960436 0
0.83734292 1.0149236 0.59192139 0
0.38739219 1.0921541 0.48563394 0
0.99536258 1.0078862 -0.050129693 0
0.43210664 1.0972788 0.041769054 0
0.43223861 1.0972579 0.11368763 0
0.44456038 1.0953023 0.18896514 0
0.42853072 1.0978464 0.26069254 0
0.42410412 1.0985489 0.33662996 0
0.43667361 1.096554 0.42273641 0
0.39871827 1.1025778 0.49037528 0
0.98445886 1.0294815 -0.04962879 0
0.42053667 1.1117145 0.041283112 0
0.41401955 1.1126648 0.11150268 0
0.41266689 1.1128621 0.1828019 0
0.41606262 1.1123669 0.25699005 0
0.40819332 1.1135144 0.33064726 0
0.40219483 1.1143892 0.40751174 0
0.40661165 1.1137451 0.49343866 0
1.0023772 1.0468906 -0.050176572 0
0.39553764 1.1275923 0.040320881 0
0.42240772 1.124019 0.11222707 0
0.43793359 1.1219542 0.18708877 0
0.42770109 1.123315 0.25954536 0
0.43096831 1.1228806 0.33772174 0
0.42442849 1.1237502 0.41609418 0
0.4135237 1.1252004 0.49607265 0
0.98772055 1.0686073 -0.049560074 0
0.37960312 1.1416991 0.03969324 0
0.42891809 1.1357718 0.11276259 0
0.43795243 1.1346859 0.18680379 0
0.4366295 1.1348449 0.26143587 0
0.42627099 1.1360899 0.33561939 0
0.43209681 1.1353897 0.41863886 0
1.0015187 1.0868326 -0.049975954 0
0.3546941 1.1563267 0.038750589 0
0.84544009 1.1036016 0.36597103 0
0.83691972 1.104517 0.47255406 0
0.83266145 1.1049745 0.58485055 0
0.99226409 1.1075393 -0.049572881 0
0.34692004 1.1686653 0.038430147 0
0.84455091 1.1215304 0.36528528 0
0.84796864 1.1212068 0.47565299 0
0.84239668 1.1217345 0.58816308 0
0.99978906 1.1265875 -0.049780633 0
0.35149649 1.1797658 0.038558014 0
0.84396464 1.1393695 0.36473563 0
0.83392948 1.1401926 0.47044426 0
0.85033649 1.1388468 0.59081405 0
1.0145521 1.1452836 -0.050255816 0
0.36271116 1.1904981 0.038928341 0
0.85117501 1.1566161 0.36623794 0
0.83990365 1.157398 0.47199416 0
0.84767181 1.156859 0.58915097 0
1.0052463 1.1656837 -0.049878415 0
0.84970587 1.1745064 0.36557662 0
0.82773513 1.1757526 0.4675695 0
0.83130258 1.1755502 0.58189994 0
1.0152484 1.1849691 -0.050200395 0
0.8551603 1.1920289 0.36674145 0
0.83461589 1.1929349 0.46956804 0
0.84492153 1.1924803 0.58717871 0
0.99112374 1.2055595 -0.049311947 0
0.85344177 1.209895 0.36613116 0
0.84471804 1.2101697 0.4727101 0
0.84821886 1.2100594 0.5882681 0
1.0066428 1.2247773 -0.049848557 0
0.85455436 1.2276503 0.36630085 0
0.8419978 1.2278874 0.47165692 0
0.84491688 1.2278323 0.58671606 0
1.0044241 1.2444885 -0.049760491 0
0.84624797 1.2454844 0.36412448 0
0.82770485 1.2456011 0.46682781 0
0.82912058 1.2455922 0.58008367 0
1.006472 1.2641675 -0.049833603 0
0.85318118 1.2632024 0.36589339 0
0.8391493 1.2631141 0.47063541 0
0.8471418 1.2631644 0.58754522 0
1.0184772 1.2840893 -0.050271135 0
0.85837203 1.281065 0.36727503 0
0.83827931 1.2806854 0.47041959 0
0.84307343 1.280776 0.5859527 0
0.99005061 1.3030499 -0.049273618 0
0.86011201 1.2989582 0.36783379 0
0.84235686 1.2983991 0.47192413 0
0.84357077 1.2984374 0.58634269 0
1.0083607 1.3233703 -0.049954254 0
0.84933728 1.3163575 0.36525434 0
0.84014541 1.3159522 0.47140947 0
0.83257586 1.3156184 0.58206218 0
1.0156491 1.3435495 -0.050250407 0
0.8554427 1.3344622 0.36704266 0
0.84608537 1.3339314 0.47368434 0
0.8404246 1.3336103 0.58568287 0
1.0103909 1.363071 -0.050106902 0
1.2966321 1.3829259 0.072350629 0
1.291904 1.3825979 0.2052217 0
1.2966493 1.3829271 0.34118009 0
0.85205621 1.3520882 0.36646327 0
0.83156759 1.350667 0.46921417 0
0.85096842 1.3520128 0.59051919 0
1.0081306 1.3827399 -0.050079431 0
1.2421416 1.4019355 0.070461988 0
1.2464905 1.4022921 0.20051472 0
1.0242081 1.3840587 0.29220027 0
0.85195512 1.3699291 0.36678112 0
0.83928412 1.3688897 0.47223172 0
0.83752972 1.3687458 0.5854938 0
1.0067571 1.4024765 -0.050092619 0
1.2559986 1.4260843 0.071030684 0
1.2450728 1.4250494 0.20057826 0
0.89661175 1.3920438 0.26940408 0
0.8395142 1.3866355 0.36399451 0
0.85539919 1.3881402 0.47813615 0
0.83726019 1.3864222 0.58602691 0
0.9959957 1.4212171 -0.049777642 0
0.6471346 1.3837359 0.049251176 0
0.63864201 1.3828235 0.13527828 0
0.6474964 1.3837748 0.22455333 0
0.63907474 1.38287 0.31301761 0
0.83646399 1.4040772 0.47240159 0
0.83541185 1.4039642 0.58599585 0
1.0028718 1.4418569 -0.050104883 0
0.55515164 1.3880439 0.046005659 0
0.56260556 1.3889397 0.1272333 0
0.54367834 1.3866649 0.20600857 0
0.55642742 1.3881972 0.29222018 0
0.85147864 1.4236604 0.47810164 0
0.84721488 1.423148 0.59174967 0
0.99784499 1.4611498 -0.050013341 0
0.54386228 1.400776 0.04566288 0
0.54888433 1.401444 0.1259391 0
0.55202717 1.4018619 0.20784657 0
0.55699843 1.4025229 0.29282367 0
0.83871907 1.4399881 0.47457239 0
0.83525592 1.4395276 0.58768904 0
0.99289435 1.4803917 -0.049933132 0
0.55159706 1.4160403 0.046011627 0
0.5555895 1.4166225 0.12687802 0
0.54875737 1.4156262 0.20760523 0
0.55628866 1.4167244 0.29314461 0
0.83662909 1.4576046 0.47469288 0
0.84076422 1.4582076 0.5910157 0
0.9893778 1.4998071 -0.049913358 0
0.55157 1.430324 0.046087429 0
0.56001145 1.4316638 0.12759118 0
0.54856807 1.4298476 0.20795755 0
0.54845315 1.4298294 0.29167154 0
0.84288305 1.4765574 0.47769901 0
0.84432501 1.4767863 0.59363115 0
0.98520392 1.5190988 -0.049878571 0
0.54740149 1.4439534 0.046019889 0
0.54910332 1.4442455 0.12665488 0
0.56477028 1.4469346 0.2113428 0
0.55675107 1.4455582 0.29441428 0
0.84647554 1.4952872 0.47989374 0
0.8433184 1.4947453 0.5944317 0
0.97888428 1.5379725 -0.049774613 0
0.5494141 1.4586779 0.046182826 0
0.551117 1.4589922 0.12714587 0
0.55510873 1.4597292 0.21003197 0
0.55046755 1.4588723 0.2934317 0
0.83624214 1.5116359 0.4774957 0
0.84692019 1.5136074 0.59726948 0
0.98405033 1.5590451 -0.050097022 0
0.55037493 1.4733138 0.046314627 0
0.55681556 1.4745871 0.12806208 0
0.55580419 1.474387 0.21065153 0
0.55008239 1.473256 0.2940242 0
0.83803087 1.5301791 0.47923854 0
0.8448351 1.5315243 0.59781432 0
0.97554058 1.5774704 -0.049930982 0
0.55801648 1.4894553 0.046697244 0
0.55395132 1.4885985 0.12806182 0
0.55654711 1.4891456 0.21131542 0
0.55146009 1.4880732 0.29512507 0
0.83800226 1.5484771 0.48044741 0
0.83829015 1.5485377 0.59656882 0
0.97797889 1.5982312 -0.050173502 0
0.55952317 1.5045017 0.046863917 0
0.55640072 1.5038023 0.12866615 0
0.5500527 1.5023805 0.21067792 0
0.55978149 1.5045595 0.29809323 0
0.84768134 1.569046 0.48504785 0
0.8440724 1.5682377 0.60064089 0
0.96802634 1.6162313 -0.04997167 0
0.56324559 1.5201969 0.047119334 0
0.55123383 1.5173471 0.12845217 0
0.54996473 1.517046 0.21125682 0
0.54664797 1.5162591 0.29549885 0
0.8458721 1.5872501 0.48582229 0
0.8398754 1.5858275 0.60058421 0
0.95982164 1.6345259 -0.049841866 0
0.55591816 1.5333111 0.04697613 0
0.55447847 1.5329504 0.12918831 0
0.55232233 1.53241 0.21232651 0
0.54645747 1.5309404 0.29633924 0
0.83778185 1.6039437 0.48452342 0
0.83870286 1.6041745 0.60191268 0
0.96249849 1.6556019 -0.050121915 0
0.55808347 1.5488296 0.047189049 0
0.54904813 1.5464441 0.12898447 0
0.56156152 1.5497478 0.21471941 0
0.55469936 1.5479361 0.29945621 0
0.84629887 1.6249232 0.48900688 0
0.84174675 1.6237214 0.60514987 0
0.96040338 1.6755618 -0.050235957 0
0.55346566 1.5626237 0.047158629 0
0.55369836 1.5626884 0.12992312 0
0.54722542 1.5608919 0.212749 0
0.55150479 1.5620795 0.29961255 0
0.83660811 1.6412047 0.48731053 0
0.82809693 1.6388425 0.60133094 0
0.9340151 1.6885359 -0.04945644 0
0.54901642 1.576447 0.047140803 0
0.55750352 1.5789179 0.1307935 0
0.55590814 1.5784534 0.21512146 0
0.56085247 1.5798929 0.30314955 0
0.85194474 1.6646419 0.49435103 0
0.83057076 1.658419 0.6045329 0
0.9422707 1.7114998 -0.049973033 0
0.85554427 1.6850611 0.38286793 0
0.83907276 1.6800398 0.4917098 0
0.83713073 1.6794478 0.60962236 0
0.93189317 1.7289116 -0.049804334 0
0.85841483 1.7054965 0.38511884 0
0.82425958 1.6946124 0.48844773 0
0.84623247 1.7016144 0.61595166 0
0.92915338 1.7487416 -0.049930524 0
0.84507519 1.7207778 0.38308978 0
0.84425551 1.7205051 0.49744067 0
0.84150881 1.7195916 0.61639655 0
0.93365115 1.7711778 -0.050340153 0
0.84654731 1.7409844 0.38510323 0
0.83961147 1.7385802 0.49791142 0
0.83227617 1.7360375 0.61496645 0
0.92123121 1.7878206 -0.050120253 0
0.84151763 1.7590597 0.38543123 0
0.84289795 1.7595576 0.50126952 0
0.8297736 1.7548224 0.61658317 0
0.9034273 1.8022816 -0.049701989 0
0.83615273 1.7770468 0.38573131 0
0.84161395 1.7790953 0.50311315 0
0.83883876 1.7780544 0.62342721 0
0.91250259 1.8268996 -0.050318487 0
0.83568031 1.7969748 0.3874343 0
0.82721847 1.7936786 0.50037211 0
0.82438296 1.7925742 0.61998326 0
0.90225846 1.844183 -0.050206121 0
0.84310514 1.8202786 0.39138803 0
0.82884413 1.8145157 0.50343174 0
0.83374137 1.8164947 0.6272378 0
0.89904279 1.8643274 -0.050373603 0
0.83201927 1.8362559 0.39032346 0
0.83628696 1.8380435 0.50870013 0
0.82299381 1.8324758 0.62564027 0
0.88293558 1.8790129 -0.050050188 0
0.83185071 1.8568569 0.39234486 0
0.81629127 1.8501086 0.50415432 0
0.82120198 1.8522385 0.62816632 0
0.87207645 1.895807 -0.049937516 0
0.82811433 1.8760788 0.39345238 0
0.82800061 1.8760278 0.51119947 0
0.82346028 1.8739903 0.63265735 0
0.85611075 1.9101475 -0.049631502 0
0.82653695 1.8964263 0.39524147 0
0.81757241 1.8922671 0.51028615 0
0.82716197 1.8967162 0.63795805 0
0.85974628 1.9336483 -0.050106805 0
0.8222124 1.9156561 0.39633644 0
0.82267457 1.9158777 0.5151723 0
0.82337469 1.9162133 0.63998342 0
0.8559652 1.9538559 -0.050301392 0
0.81593841 1.934045 0.396952 0
0.8162306 1.9341896 0.51591289 0
0.81252235 1.9323542 0.63887054 0
0.83288938 1.9643669 -0.049733914 0
0.82210261 1.9588579 0.40120095 0
0.80237085 1.9487807 0.51397389 0
0.80689007 1.9510887 0.64027154 0
0.82914251 1.9846096 -0.049947925 0
0.8070696 1.9729838 0.39945564 0
0.79615217 1.9672337 0.51496404 0
0.79720598 1.9677888 0.63989592 0
0.82363313 2.0040705 -0.050102115 0
0.8056286 1.9942962 0.40169561 0
0.78644735 1.9838829 0.5147289 0
0.79330081 1.9876037 0.64233893 0
0.80488747 2.0162568 -0.04972595 0
0.79144567 2.0087388 0.40030482 0
0.7878409 2.0067227 0.51880246 0
0.79274338 2.0094647 0.64650536 0
0.80910307 2.0413651 -0.050299332 0
0.78313702 2.0264099 0.40068677 0
0.78489298 2.0274212 0.52134877 0
0.7805596 2.0249255 0.6452781 0
0.79805344 2.0578971 -0.050256521 0
0.76689094 2.0394228 0.39878312 0
0.77676576 2.0452769 0.52201146 0
0.76885599 2.0405877 0.64436609 0
0.77825874 2.0690632 -0.049856342 0
0.77552563 2.0673962 0.40434927 0
0.76968008 2.0638304 0.5231725 0
0.76736599 2.0624187 0.64849585 0
0.76091951 2.0814404 -0.049562383 0
0.7636655 2.0831633 0.40389237 0
0.77202719 2.0884092 0.52813888 0
0.76131958 2.0816913 0.65056509 0
0.76035696 2.1043968 -0.049985386 0
0.7531783 2.099766 0.40390867 0
0.76097995 2.1047988 0.52796477 0
0.76181108 2.105335 0.65599161 0
0.75263923 2.1229708 -0.050117757 0
0.75064331 2.1216474 0.40642318 0
0.75109178 2.1219447 0.52833402 0
0.74474984 2.1177394 0.65289098 0
0.74616927 2.1425116 -0.050315235 0
0.739546 2.1379988 0.40640065 0
0.74284559 2.1402469 0.52945393 0
0.73970181 2.1381049 0.6558603 0
0.73153943 2.1565146 -0.050169546 0
0.72477812 2.151782 0.40529868 0
0.73101884 2.1561503 0.52922297 0
0.72755831 2.1537282 0.65539902 0
0.71426672 2.1684954 -0.049914051 0
0.71101445 2.1661575 0.40455657 0
0.72296029 2.1747448 0.53061551 0
0.72239548 2.1743388 0.65859294 0
0.70893508 2.1890702 -0.050192714 0
0.71319813 2.1922169 0.40892166 0
0.71361846 2.1925271 0.53158683 0
0.71304148 2.1921012 0.65979278 0
0.69385964 2.2025118 -0.05004913 0
0.69667107 2.2046423 0.4074437 0
0.70481461 2.2108133 0.53288507 0
0.70611089 2.2117956 0.66237879 0
0.68163353 2.2180455 -0.050040625 0
0.68991119 2.2244837 0.40915844 0
0.69328302 2.2271063 0.53314292 0
0.69834298 2.2310419 0.66468042 0
0.6609363 2.2268136 -0.049653959 0
0.68789572 2.2483327 0.41252047 0
0.68748122 2.2480018 0.53592944 0
0.68598968 2.2468114 0.66470391 0
0.65513545 2.2474337 -0.049955789 0
0.67463285 2.2634027 0.41230667 0
0.669159 2.2589195 0.53347307 0
0.67327267 2.2622886 0.6646387 0
0.63917428 2.2597985 -0.049799085 0
0.66183764 2.2788424 0.41230932 0
0.66611689 2.2824383 0.5376901 0
0.65946883 2.2768519 0.66408992 0
0.63118058 2.2788897 -0.050023507 0
0.73296016 2.3666239 0.066820838 0
0.71836573 2.3540435 0.18701431 0
0.72022456 2.3556459 0.31021026 0
0.64822572 2.2935824 0.41210204 0
0.65638655 2.3006172 0.53914481 0
0.65251845 2.2972829 0.66738117 0
0.6218242 2.2969911 -0.050196894 0
0.68622786 2.3539364 0.06526608 0
0.68245381 2.3505995 0.18386349 0
0.68570751 2.3534763 0.3052634 0
0.63410896 2.3078532 0.41178343 0
0.63175553 2.3057723 0.53409958 0
0.63855404 2.3117836 0.66697419 0
0.6066075 2.3099475 -0.050100755 0
0.65117425 2.3503642 0.064248696 0
0.66178459 2.3599865 0.18288165 0
0.65949649 2.3579116 0.30227539 0
0.62039107 2.3224475 0.41166005 0
0.62044257 2.3224943 0.535007 0
0.62350577 2.3252721 0.6660583 0
0.59206861 2.3234458 -0.05004444 0
0.63410538 2.3625441 0.064094007 0
0.63446373 2.3628774 0.18092926 0
0.63774687 2.365931 0.3003647 0
0.61068887 2.3407645 0.41299805 0
0.60588235 2.3362939 0.53454483 0
0.60515279 2.3356154 0.66335839 0
0.5781284 2.3374646 -0.050025322 0
0.61844867 2.3759246 0.064014651 0
0.62301844 2.3802836 0.18131649 0
0.6218937 2.3792107 0.29992557 0
0.59687084 2.3553424 0.41298193 0
0.59748477 2.3559279 0.53698987 0
0.60550767 2.3635807 0.67140436 0
0.5664795 2.3537104 -0.05012916 0
0.61306638 2.399282 0.0644558 0
0.60931057 2.3956079 0.18140112 0
0.61196595 2.3982053 0.30101782 0
0.58071321 2.3676338 0.41219568 0
0.59362406 2.3802633 0.54169112 0
0.58195049 2.3688443 0.66590327 0
0.54538184 2.3605859 -0.04976679 0
0.6072157 2.4226146 0.064893663 0
0.59717673 2.412544 0.18175562 0
0.60639769 2.4217939 0.30329835 0
0.57351285 2.3888054 0.41469201 0
0.57376868 2.3890622 0.53905815 0
0.57878226 2.3940916 0.672328 0
0.52610141 2.3689687 -0.04949718 0
0.60134989 2.4463797 0.065351397 0
0.60188419 2.4469292 0.18474407 0
0.60177821 2.4468203 0.30593044 0
0.56150919 2.4053938 0.41555971 0
0.56405038 2.4080081 0.541282 0
0.56204361 2.4059436 0.67096329 0
0.52191931 2.393008 -0.05001295 0
0.61575168 2.4920008 0.066882491 0
0.61831397 2.4947042 0.18967095 0
0.61240917 2.4884746 0.31267786 0
0.55049938 2.4231601 0.41688457 0
0.54372555 2.4160135 0.53852075 0
0.54938298 2.421982 0.67212391 0
0.50969774 2.4088898 -0.050128743 0
0.53250951 2.4335711 0.41568738 0
0.53254491 2.4336095 0.54025286 0
0.53254956 2.4336145 0.67087746 0
0.49374923 2.4207623 -0.050058 0
0.51932687 2.4491451 0.41635504 0
0.51969928 2.4495585 0.5412913 0
0.5163241 2.4458129 0.67007935 0
0.4758155 2.4303045 -0.049886882 0
0.50939256 2.4685209 0.41836327 0
0.50190908 2.4600034 0.53995287 0
0.5004409 2.4583323 0.66958016 0
0.46196887 2.4444377 -0.049944088 0
0.49003384 2.4772034 0.41679999 0
0.48605999 2.472564 0.53965408 0
0.48221132 2.4680707 0.66767991 0
0.45085177 2.4619079 -0.050164048 0
0.47704515 2.4932795 0.41779196 0
0.47261474 2.4879732 0.54068017 0
0.46923515 2.4839256 0.66922307 0
0.43151006 2.4695222 -0.049934592 0
0.45100185 2.4934742 0.4136039 0
0.4585062 2.5026958 0.5414741 0
0.45452663 2.4978056 0.66978401 0
0.42149016 2.4886353 -0.05024251 0
0.43769655 2.5090704 0.4145799 0
0.43632516 2.5073411 0.53805715 0
0.44297644 2.5157278 0.6725738 0
0.40706828 2.5024123 -0.050312415 0
0.41986558 2.5189726 0.41376486 0
0.42240658 2.5222609 0.53911114 0
0.43062434 2.5328953 0.67501813 0
0.38965127 2.5122981 -0.050215922 0
0.40741435 2.5358927 0.41527066 0
0.40477738 2.5323899 0.53823346 0
0.41078308 2.5403674 0.67249572 0
0.3723937 2.5222914 -0.050134834 0
0.39883497 2.5583494 0.41856411 0
0.40199241 2.5626552 0.54576325 0
0.3889952 2.5449309 0.66863209 0
0.34912124 2.5237689 -0.049690463 0
0.37664744 2.5623147 0.41606507 0
0.37181553 2.5555487 0.5379619 0
0.37745699 2.5634484 0.67204267 0
0.34014687 2.5452676 -0.050133336 0
0.36251763 2.5774434 0.4171437 0
0.3630974 2.5782771 0.54247254 0
0.35936019 2.572902 0.67092633 0
0.32222322 2.5541053 -0.050031547 0
0.3379086 2.5772829 0.4135583 0
0.34294298 2.5847218 0.54044759 0
0.34072825 2.5814493 0.6694808 0
0.30389342 2.5622017 -0.049908593 0
0.32119212 2.5884695 0.41356394 0
0.32846263 2.59951 0.54186451 0
0.3210319 2.5882263 0.6672864 0
0.29149511 2.5794015 -0.050182443 0
0.30557808 2.6013842 0.41415709 0
0.30470607 2.6000228 0.5377022 0
0.3070372 2.6036618 0.66948956 0
0.27052251 2.5832102 -0.049897462 0
0.28372869 2.6044071 0.41183162 0
0.29049554 2.6152685 0.53946507 0
0.28713474 2.609874 0.66726261 0
0.26113632 2.6057665 -0.050408229 0
0.2701138 2.6205888 0.41353112 0
0.27568409 2.6297855 0.54100096 0
0.26843253 2.6178129 0.66601014 0
0.24248673 2.6133013 -0.050297845 0
0.2488447 2.6241033 0.41151899 0
0.25430939 2.6333873 0.53838408 0
0.25218931 2.6297855 0.66681844 0
0.21770413 2.6099594 -0.049750637 0
0.22940804 2.6304288 0.41042647 0
0.24271174 2.6536965 0.5422923 0
0.23598094 2.6419246 0.66779822 0
0.20452614 2.6267309 -0.050041355 0
0.21635194 2.6480317 0.41270405 0
0.21680076 2.64884 0.53665286 0
0.21874745 2.6523466 0.66805494 0
0.18688001 2.6356487 -0.050018366 0
0.19998766 2.6599753 0.41337398 0
0.20110048 2.6620407 0.53799939 0
0.20179816 2.6633356 0.66867906 0
0.16306277 2.6327319 -0.049527753 0
0.18228163 2.6695015 0.41340312 0
0.18007387 2.6652777 0.53567123 0
0.1782992 2.6618824 0.6635865 0
0.14799424 2.6463206 -0.049712915 0
0.15626635 2.6626444 0.40880999 0
0.1603951 2.6707919 0.53430617 0
0.15964754 2.6693165 0.66278917 0
0.13341983 2.6612189 -0.049956601 0
0.13942672 2.6734521 0.40935954 0
0.13993759 2.6744926 0.53236967 0
0.14074434 2.6761358 0.66182178 0
0.11392727 2.6661816 -0.049813334 0
0.1267273 2.6931009 0.41246352 0
0.1193855 2.6776607 0.53034359 0
0.11876097 2.6763473 0.65794039 0
0.098715805 2.6802137 -0.050036993 0
0.10089304 2.6849453 0.40778586 0
0.10427674 2.6922989 0.53262496 0
0.10443952 2.6926527 0.66154289 0
0.077875696 2.6819925 -0.049788091 0
0.085967503 2.7001772 0.40975633 0
0.084051751 2.6958718 0.53093374 0
0.080857955 2.6886945 0.65602428 0
0.064763032 2.7013063 -0.050232202 0
0.06286677 2.6968961 0.40662724 0
0.06300386 2.6972151 0.52853656 0
0.065359496 2.7026935 0.65876275 0
0.043785475 2.7025001 -0.049979959 0
0.044742547 2.7048054 0.40668628 0
0.047396265 2.7111979 0.53080076 0
0.049983226 2.7174294 0.66190499 0
0.022031447 2.7012846 -0.049646523 0
0.028315684 2.7169776 0.40797943 0
0.029469987 2.7198601 0.53121734 0
0.02719315 2.7141745 0.65709412 0
0.0088550663 2.7216516 -0.050151106 0
0.0060033412 2.714262 0.40525165 0
0.012244484 2.7304344 0.53239453 0
0.0035421464 2.7078843 0.65108728 0
-0.010491231 2.7264419 -0.050066434 0
-0.013112822 2.7193856 0.40474686 0
-0.013861098 2.7173715 0.52525419 0
-0.012989976 2.7197163 0.65324444 0
-0.027128914 2.738646 -0.050272457 0
-0.034349002 2.718436 0.40266433 0
-0.03150896 2.7263856 0.52606189 0
-0.034721948 2.7173922 0.64925987 0
-0.047760941 2.739666 -0.050063387 0
-0.05130855 2.7293267 0.40385678 0
-0.051298715 2.7293553 0.52481842 0
-0.0534027 2.7232234 0.64898241 0
-0.068447269 2.7400596 -0.049841419 0
-0.072646029 2.7273014 0.40163261 0
-0.070759691 2.7330332 0.52391553 0
-0.075200804 2.7195385 0.64466083 0
-0.085338391 2.7519832 -0.050061699 0
-0.092016049 2.7307978 0.40096638 0
-0.091628201 2.7320282 0.52146846 0
-0.090855218 2.7344806 0.64856213 0
-0.10467751 2.7563341 -0.050006732 0
-0.11417285 2.7248316 0.39784631 0
-0.11229715 2.7310545 0.51913297 0
-0.11378158 2.7261298 0.64246136 0
-0.12378667 2.7613556 -0.04998593 0
-0.10478876 2.8273821 0.064438805 0
-0.10623953 2.82234 0.18135072 0
-0.10511709 2.826241 0.30099541 0
-0.1322688 2.7318761 0.39826584 0
-0.13133346 2.735127 0.51864308 0
-0.13170765 2.7338264 0.64342099 0
-0.14250343 2.7677646 -0.050025497 0
-0.1346858 2.7962811 0.06308113 0
-0.1333542 2.8011384 0.17836894 0
-0.13324468 2.8015378 0.29533416 0
-0.14942427 2.7425196 0.39969638 0
-0.15179206 2.7338827 0.51640368 0
-0.14958774 2.7419233 0.64464635 0
-0.16470231 2.7609377 -0.049585305 0
-0.15556912 2.7959774 0.062878057 0
-0.15903793 2.7826691 0.17573836 0
-0.15767784 2.7878871 0.29181752 0
-0.16880612 2.7451932 0.39907801 0
-0.17138378 2.7353041 0.51517677 0
-0.17010446 2.7402122 0.64176762 0
-0.17862885 2.7862875 -0.050340127 0
-0.18000095 2.7807381 0.062136039 0
-0.1793908 2.7832057 0.17525589 0
-0.17844482 2.7870319 0.29074618 0
-0.19014068 2.739728 0.39638674 0
-0.18949296 2.7423477 0.51596522 0
-0.19246985 2.7303076 0.6355136 0
-0.20235921 2.772079 -0.049648758 0
-0.19958352 2.7839446 0.062083811 0
-0.19798024 2.7907982 0.17558193 0
-0.1972595 2.7938793 0.29115316 0
-0.21049778 2.7372882 0.39456671 0
-0.21078549 2.7360585 0.51227385 0
-0.20980968 2.7402298 0.63782853 0
-0.2195919 2.7850652 -0.049964495 0
-0.21647759 2.7991772 0.062480431 0
-0.21788393 2.7928045 0.17531808 0
-0.21800213 2.792269 0.29004082 0
-0.22745459 2.7494371 0.39663029 0
-0.22982742 2.7386851 0.51172179 0
-0.23205195 2.728605 0.63109386 0
-0.2396857 2.7853756 -0.049825143 0
-0.2325338 2.8198395 0.063081764 0
-0.23857363 2.7907345 0.17463504 0
-0.23351519 2.8151104 0.29348329 0
-0.24789976 2.7457931 0.39462918 0
-0.24779628 2.7462919 0.51294494 0
-0.24850257 2.7428885 0.63545084 0
-0.25865841 2.7909536 -0.049886931 0
-0.25276285 2.8212776 0.062989809 0
-0.25313023 2.8193882 0.1773459 0
-0.25106999 2.8299849 0.29548958 0
-0.27061492 2.7294545 0.38940045 0
-0.26926354 2.7364054 0.508313 0
-0.27178818 2.7234197 0.62564844 0
-0.28047013 2.7811413 -0.049398836 0
-0.26730159 2.8537424 0.064033084 0
-0.26696625 2.8555913 0.18089519 0
-0.26620588 2.8597834 0.30026731 0
-0.28632909 2.7488391 0.3935208 0
-0.28954351 2.7311175 0.50533807 0
-0.28913945 2.733345 0.62836063 0
-0.29670313 2.8024011 -0.050046671 0
-0.30589649 2.7478104 0.39240217 0
-0.30871823 2.7310545 0.50421846 0
-0.30929729 2.7276161 0.62458628 0
-0.3165555 2.8033776 -0.049967781 0
-0.32617405 2.7415152 0.38998967 0
-0.32661834 2.7386577 0.50576347 0
-0.32884911 2.7243102 0.62194097 0
-0.33685192 2.8008683 -0.049772352 0
-0.34653494 2.7329702 0.38706759 0
-0.3470479 2.7293735 0.50170636 0
-0.34705749 2.7293062 0.62287557 0
-0.3554123 2.8106883 -0.050030317 0
-0.36549982 2.732964 0.3864131 0
-0.36635101 2.7264059 0.49986145 0
-0.36670041 2.7237134 0.61948359 0
-0.37339637 2.8270268 -0.050530616 0
-0.38425857 2.7341895 0.38613728 0
-0.38572732 2.7216363 0.49749714 0
-0.38491341 2.7285926 0.62056512 0
-0.39539057 2.8083344 -0.049780969 0
-0.40488273 2.7172885 0.38127273 0
-0.40467554 2.7192757 0.49602342 0
-0.40440476 2.721873 0.61691236 0
-0.41458279 2.8144846 -0.049932737 0
-0.42341989 2.7179508 0.38098016 0
-0.42322916 2.7200346 0.49567321 0
-0.42435104 2.7077794 0.61030018 0
-0.43344384 2.8262353 -0.050293583 0
-0.442406 2.7125905 0.37920624 0
-0.44260043 2.710125 0.49184111 0
-0.44224319 2.7146549 0.6125077 0
-0.45286524 2.8334224 -0.050499342 0
-0.46073869 2.7144938 0.37935221 0
-0.46136856 2.7049797 0.48968199 0
-0.46150926 2.7028546 0.60705763 0
-0.47373709 2.8163035 -0.049844723 0
-0.47955534 2.7076864 0.37733155 0
-0.48016259 2.6963503 0.48644239 0
-0.48037276 2.6924264 0.6022808 0
-0.49328995 2.8201892 -0.049950343 0
-0.49780732 2.7098656 0.3776671 0
-0.49853912 2.6919942 0.4847061 0
-0.49826252 2.6987486 0.60454583 0
-0.51305461 2.81934 -0.049895611 0
-0.51637226 2.7022729 0.37556708 0
-0.51671445 2.6901991 0.48389992 0
-0.51693916 2.6822693 0.59745908 0
-0.53279072 2.818054 -0.049834181 0
-0.53466588 2.698935 0.37461284 0
-0.5350036 2.6774793 0.47953498 0
-0.53513098 2.6693892 0.59196144 0
-0.55242288 2.8369949 -0.050503761 0
-0.5528971 2.6864166 0.37137511 0
-0.55292213 2.6784518 0.47980219 0
-0.5529272 2.6768458 0.59497905 0
-0.57223302 2.824435 -0.050057575 0
-0.5707531 2.6677051 0.3666155 0
