# .PCD v0.7 - Point Cloud Data file format
VERSION 0.7
FIELDS x y z intensity
SIZE 4 4 4 4
TYPE F F F F
COUNT 1 1 1 1
WIDTH 1361
HEIGHT 1
VIEWPOINT 0 0 0 1 0 0 0
POINTS 1361
DATA ascii
-1.2426592 0.78107893 0.42267534 0
-1.2390124 0.78359753 0.4972524 0
-1.8383424 0.34566182 -0.050068736 0
-1.4062228 0.65219539 0.35223287 0
-1.2481648 0.76431733 0.3566497 0
-1.236008 0.77294093 0.42228386 0
-1.2391844 0.77068776 0.50172633 0
-1.8272384 0.3292858 -0.050088111 0
-1.395963 0.64345765 0.35115811 0
-1.2422314 0.75544661 0.35679883 0
-1.2445847 0.75373238 0.43137825 0
-1.2395804 0.7573778 0.50652456 0
-1.816097 0.3129167 -0.050115157 0
-1.381784 0.63775009 0.34849048 0
-1.2463465 0.73904699 0.3622022 0
-1.240033 0.74376899 0.43250659 0
-1.2431052 0.74147129 0.51380879 0
-1.7996279 0.30061001 -0.049911894 0
-1.3781823 0.62417364 0.35026351 0
-1.2509691 0.72184134 0.36803022 0
-1.2359637 0.73336166 0.4340288 0
-1.2417948 0.72888476 0.51769775 0
-1.7971449 0.27746129 -0.050349325 0
-1.3656849 0.61743331 0.34835827 0
-1.2486742 0.70963281 0.37038365 0
-1.2318517 0.72288817 0.43562216 0
-1.2433441 0.71383268 0.52390361 0
-1.7840146 0.26252097 -0.050315708 0
-1.3573004 0.60755014 0.34822941 0
-1.2550052 0.69026315 0.37743554 0
-1.23915 0.70308322 0.4446581 0
-1.2483839 0.69561702 0.53297895 0
-1.7714633 0.24712706 -0.05031728 0
-1.3560807 0.59173304 0.35124987 0
-1.243232 0.68535358 0.37495238 0
-1.235594 0.69169015 0.44689363 0
-1.2425771 0.68589687 0.53396744 0
-1.7542768 0.23567247 -0.050110608 0
-1.350361 0.57944298 0.35242349 0
-1.2538093 0.66161746 0.38462776 0
-1.2390416 0.67418629 0.45384854 0
-1.2393897 0.67388999 0.53710115 0
-1.7399176 0.22193873 -0.050042447 0
-1.3424169 0.56897408 0.3526957 0
-1.2449653 0.65405357 0.38389894 0
-1.2398558 0.65851438 0.45927691 0
-1.242514 0.65619367 0.54535693 0
-1.7292567 0.20495379 -0.050158985 0
-1.3201478 0.57130271 0.34663206 0
-1.2551197 0.62953401 0.39377344 0
-1.2374443 0.64536196 0.46273208 0
-1.2374033 0.64539874 0.54732698 0
-1.7073258 0.19820356 -0.049740888 0
-1.3150067 0.55852062 0.3482219 0
-1.2534815 0.61502713 0.39730603 0
-1.2373022 0.62988669 0.46788105 0
-1.2386431 0.62865514 0.55454236 0
-1.6951541 0.18266201 -0.049800586 0
-1.3157836 0.53999621 0.35260856 0
-1.2468841 0.60489368 0.39816335 0
-1.2355956 0.6155265 0.47214922 0
-1.2451246 0.60655099 0.56628501 0
-1.6888256 0.16141307 -0.050160713 0
-1.2999582 0.53704458 0.34947649 0
-1.245725 0.58943188 0.40223476 0
-1.2410731 0.59392536 0.48159239 0
-1.2379415 0.59695041 0.56713241 0
-1.6750997 0.14713013 -0.050166987 0
-1.2959642 0.52270341 0.35186309 0
-1.2434028 0.57477105 0.40579221 0
-1.2363588 0.58174896 0.48416647 0
-1.2435858 0.57458973 0.57879853 0
-1.6614008 0.13280892 -0.050183814 0
-1.2841139 0.51608282 0.35063958 0
-1.241956 0.55890971 0.41002038 0
-1.2410686 0.55981129 0.49360394 0
-1.2391909 0.5617187 0.5823645 0
-1.6401011 0.1263845 -0.04981824 0
-1.4001298 0.37638366 0.049446527 0
-1.4075606 0.36864227 0.1379375 0
-1.4065118 0.36973494 0.22713666 0
-1.4077696 0.36842459 0.31929651 0
-1.2772493 0.50439888 0.35183507 0
-1.2403896 0.542799 0.41435143 0
-1.2342733 0.54917079 0.49505168 0
-1.2391313 0.54410976 0.58982813 0
-1.6302224 0.10813057 -0.050048601 0
-1.3669355 0.38942516 0.048293334 0
-1.3653328 0.39113754 0.13306083 0
-1.3790345 0.3764987 0.22284219 0
-1.3740567 0.38181698 0.31089941 0
-1.266438 0.49679619 0.35119641 0
-1.2354562 0.52989709 0.4168233 0
-1.2404661 0.52454448 0.50612605 0
-1.2380983 0.52707428 0.59673917 0
-1.6141697 0.09639632 -0.049967259 0
-1.3508753 0.38489562 0.048022911 0
-1.356405 0.37883645 0.13338046 0
-1.3535336 0.38198268 0.21899423 0
-1.3574907 0.37764692 0.30881196 0
-1.2549422 0.49001217 0.35025799 0
-1.240978 0.50531322 0.42585018 0
-1.2395808 0.50684422 0.51232922 0
-1.2449638 0.50094581 0.61088252 0
-1.5997405 0.082918756 -0.049979847 0
-1.3356012 0.37976575 0.04779391 0
-1.3378962 0.3771866 0.13218054 0
-1.3401628 0.37463945 0.2183637 0
-1.3385892 0.37640786 0.30581847 0
-1.2435467 0.48321915 0.34939885 0
-1.2376516 0.48984426 0.4296861 0
-1.2398169 0.48741084 0.51963162 0
-1.2454934 0.48103142 0.61986631 0
-1.5898253 0.064219706 -0.050247718 0
-1.3152791 0.38069797 0.047290023 0
-1.3243455 0.37024689 0.13177961 0
-1.3263987 0.36788005 0.21764107 0
-1.3233439 0.37140149 0.30421072 0
-1.2525916 0.45295995 0.3589479 0
-1.2475541 0.45876688 0.44205874 0
-1.2410733 0.46623749 0.52800518 0
-1.2357702 0.47235054 0.61992782 0
-1.5760992 0.049729463 -0.050321836 0
-1.3135575 0.36018205 0.047806334 0
-1.3055954 0.3695972 0.13052177 0
-1.3117094 0.36236751 0.21667275 0
-1.3097609 0.36467153 0.30326042 0
-1.2430879 0.44351172 0.35927844 0
-1.234054 0.45419413 0.43986049 0
-1.2361991 0.45165759 0.53195918 0
-1.2399467 0.44722605 0.63285571 0
-1.5556332 0.043328639 -0.050028954 0
-1.2940114 0.36071378 0.047344513 0
-1.2957025 0.35866225 0.13074246 0
-1.2937503 0.36103058 0.21478195 0
-1.2924601 0.36259574 0.3008379 0
-1.2496997 0.41447026 0.36810508 0
-1.2408631 0.42519027 0.45088562 0
-1.2384453 0.42812347 0.54171842 0
-1.2416967 0.42417908 0.64401287 0
-1.5378429 0.033921953 -0.04988854 0
-1.2870443 0.34610409 0.047592074 0
-1.291455 0.34061366 0.13195881 0
-1.288025 0.34488326 0.216389 0
-1.284398 0.34939802 0.30215129 0
-1.244242 0.39938229 0.37085244 0
-1.238618 0.4063828 0.45633876 0
-1.2413595 0.40297025 0.55240035 0
-1.2495222 0.39280963 0.66137195 0
-1.5168658 0.028741473 -0.049568091 0
-1.2757576 0.336725 0.047604047 0
-1.2806526 0.33047217 0.13209139 0
-1.2857287 0.32398814 0.21908431 0
-1.2823962 0.32824498 0.30606252 0
-1.2463927 0.37423468 0.37785241 0
-1.2394844 0.38305902 0.46412814 0
-1.2389237 0.38377541 0.55916798 0
-1.2372453 0.38591915 0.66004956 0
-1.5040424 0.013238901 -0.049726095 0
-1.2801139 0.30681944 0.048543978 0
-1.2737284 0.31519115 0.13293585 0
-1.269685 0.32049221 0.21781392 0
-1.2748019 0.31378382 0.30779719 0
-1.2546225 0.34023994 0.38847598 0
-1.2387457 0.36105508 0.47115007 0
-1.2376609 0.36247736 0.56721383 0
-1.2396886 0.35981876 0.6731838 0
-1.4946938 -0.0071324161 -0.050106395 0
-1.2734569 0.29062068 0.048863064 0
-1.2690485 0.29655391 0.13423355 0
-1.2736996 0.29029405 0.2226005 0
-1.2715135 0.29323632 0.31148082 0
-1.247174 0.32599366 0.39077219 0
-1.2458547 0.32776928 0.48393083 0
-1.2374849 0.33903384 0.57653207 0
-1.2408984 0.33443981 0.68563986 0
-1.4763112 -0.015483027 -0.049958725 0
-1.2744362 0.26348162 0.049665097 0
-1.2830231 0.25161576 0.13901633 0
-1.2790372 0.25712365 0.22799405 0
-1.2790415 0.25711769 0.32004794 0
-1.2464198 0.30219662 0.39700848 0
-1.2418007 0.30857962 0.48934552 0
-1.2416373 0.30880535 0.58995765 0
-1.2455748 0.30336434 0.70214188 0
-1.4621301 -0.029620653 -0.050075252 0
-1.1728696 0.38088483 0.044146724 0
-1.1690203 0.38634765 0.12011243 0
-1.1730367 0.38064766 0.19875437 0
-1.327001 0.16214848 0.34687749 0
-1.2331434 0.29534692 0.39629608 0
-1.2392913 0.28662211 0.4961403 0
-1.2411463 0.28398955 0.5999195 0
-1.4492135 -0.045752529 -0.050284885 0
-1.1616625 0.37343895 0.04413658 0
-1.1566143 0.38079816 0.11984101 0
-1.1503167 0.38997871 0.19503352 0
-1.3170278 0.14694762 0.34860924 0
-1.2435327 0.25408864 0.40953958 0
-1.2387944 0.26099598 0.50473452 0
-1.2400134 0.25921917 0.60977197 0
-1.4299963 -0.052718762 -0.050106328 0
-1.1434358 0.37651646 0.043680873 0
-1.1452619 0.37378126 0.11978175 0
-1.1398944 0.38182127 0.19519843 0
-1.3026738 0.13799596 0.34844816 0
-1.2452694 0.22398126 0.41815904 0
-1.2428977 0.2275337 0.51716101 0
-1.2443575 0.2253474 0.62502593 0
-1.4100976 -0.05841041 -0.04988531 0
-1.1258634 0.37917316 0.043256607 0
-1.1298578 0.37302369 0.11893923 0
-1.1207681 0.38701743 0.19251858 0
-1.2870077 0.13108861 0.34772164 0
-1.2389102 0.20513558 0.42223188 0
-1.2369157 0.20820606 0.52248216 0
-1.2433913 0.19823694 0.63608885 0
-1.3995038 -0.07854379 -0.050286531 0
-1.1077328 0.38326961 0.042784285 0
-1.1084146 0.38219035 0.11686656 0
-1.1042529 0.38877749 0.19064455 0
-1.2664446 0.1320616 0.34468254 0
-1.2421511 0.17051315 0.43251282 0
-1.2404264 0.17324281 0.53545576 0
-1.2346988 0.18230867 0.6404534 0
-1.3830848 -0.089741237 -0.050315864 0
-1.0898013 0.38767439 0.042312283 0
-1.0947977 0.3795411 0.11633436 0
-1.092603 0.38311374 0.1904005 0
-1.2531952 0.12169706 0.34513941 0
-1.235711 0.15015829 0.43712762 0
-1.2415203 0.14070177 0.54713088 0
-1.2367368 0.1484884 0.65535522 0
-1.359755 -0.089411505 -0.049874295 0
-1.0794986 0.37994814 0.042357668 0
-1.0718902 0.3926903 0.11385021 0
-1.0752735 0.38702416 0.18817811 0
-1.2522818 0.090579383 0.3518095 0
-1.2380553 0.11440515 0.44770607 0
-1.2415749 0.10851084 0.55854297 0
-1.2401086 0.11096632 0.67228758 0
-1.3437222 -0.10104514 -0.049941886 0
-1.0597392 0.38845474 0.041738097 0
-1.0680559 0.3741194 0.1153612 0
-1.0649422 0.3794862 0.18840457 0
-1.2478688 0.064177029 0.35704362 0
-1.2389358 0.079574697 0.45784128 0
-1.2411892 0.0756905 0.57017303 0
-1.2416418 0.074910276 0.68822408 0
-1.3283852 -0.11401702 -0.050072141 0
-1.0486935 0.38238209 0.041730572 0
-1.049216 0.38145483 0.11367182 0
-1.0468519 0.38565069 0.18581997 0
-1.2560129 0.014429921 0.36909342 0
-1.2360827 0.0498023 0.46596909 0
-1.240563 0.041850444 0.5822078 0
-1.308394 -0.11867786 -0.049871191 0
-1.031033 0.38841003 0.041236367 0
-1.0326051 0.38553607 0.11242182 0
-1.0323797 0.38594788 0.18450621 0
-1.2486765 -0.0094988402 0.37352258 0
-1.2363551 0.01302802 0.47670996 0
-1.2391168 0.0079789106 0.59417856 0
-1.2943808 -0.13430691 -0.0501251 0
-1.0191092 0.38436812 0.041161474 0
-1.022456 0.37806207 0.11261155 0
-1.0232128 0.37663603 0.18520045 0
-1.2351172 -0.022640591 0.37483335 0
-1.2427386 -0.037001137 0.4923704 0
-1.2391735 -0.030283814 0.60813648 0
-1.2729826 -0.13598573 -0.049824335 0
-1.007859 0.37912863 0.041141201 0
-1.0044019 0.38584548 0.11097144 0
-1.0039482 0.38672698 0.18197814 0
-1.2401568 -0.072207697 0.3866367 0
-1.244247 -0.080154665 0.50532681 0
-1.2398802 -0.07167054 0.62345856 0
-1.2564179 -0.14688551 -0.04990413 0
-0.99245262 0.38224792 0.040793233 0
-0.99198699 0.38318139 0.11062371 0
-0.99028707 0.38658899 0.18088661 0
-1.2397137 -0.11340094 0.39596054 0
-1.2366941 -0.10734785 0.51226109 0
-1.2414488 -0.11687911 0.64044905 0
-1.2378044 -0.15368187 -0.049829032 0
-0.97702116 0.38597888 0.040430836 0
-0.97399616 0.39223868 0.10889776 0
-0.98149526 0.37672019 0.18178539 0
-1.2422547 -0.16289127 0.40758047 0
-1.2384282 -0.15497279 0.52673817 0
-1.2179034 -0.15760851 -0.049650535 0
-0.96344274 0.38634712 0.040210791 0
-0.96704543 0.37864578 0.10989628 0
-0.96536452 0.38223904 0.17963722 0
-1.2406926 -0.20632458 0.41741699 0
-1.2426393 -0.21048582 0.5440194 0
-1.2059846 -0.17887592 -0.050162427 0
-0.95451707 0.37680578 0.040387042 0
-0.95246947 0.38133043 0.10897936 0
-0.95221597 0.38189065 0.17870304 0
-1.2387182 -0.25120902 0.42760959 0
-1.2383664 -0.25043154 0.5554983 0
-1.187981 -0.18714237 -0.050170757 0
-0.9374333 0.38559854 0.039852273 0
-0.94494522 0.36842662 0.10991763 0
-0.93906611 0.38186598 0.17774294 0
-1.2377138 -0.30082917 0.43907195 0
-1.2388723 -0.30347764 0.57169092 0
-1.1685947 -0.19215965 -0.050061919 0
-0.92544192 0.38330352 0.039758436 0
-0.921323 0.39305162 0.10648355 0
-0.92575842 0.38255441 0.17668083 0
-1.2393997 -0.35973191 0.45304799 0
-1.1502614 -0.19956434 -0.050055124 0
-0.90801519 0.39450812 0.039150435 0
-0.91062289 0.38811302 0.10653283 0
-0.91434467 0.378986 0.17648599 0
-1.2385418 -0.41605878 0.46623689 0
-1.1300683 -0.20223391 -0.049875591 0
-0.90123451 0.37980151 0.039547868 0
-0.90281981 0.37576938 0.10745259 0
-0.90329021 0.37457293 0.17648369 0
-1.2401657 -0.48226511 0.48207203 0
-1.1147341 -0.21738541 -0.050183155 0
-0.88285571 0.39492476 0.038807906 0
-0.88979727 0.37659448 0.10686599 0
-0.88804984 0.38120884 0.17437755 0
-1.2403554 -0.54910767 0.49799982 0
-1.0919921 -0.21284938 -0.049748585 0
-0.87487608 0.38302654 0.039106891 0
-0.87153691 0.39219099 0.10461131 0
-0.88108772 0.36597872 0.1765151 0
-1.0764623 -0.22799146 -0.050071146 0
-0.86052072 0.38869244 0.038743977 0
-0.86021519 0.38956493 0.10446773 0
-0.86133826 0.38635767 0.17185566 0
-1.0602192 -0.24173522 -0.050347064 0
-0.84870082 0.38761216 0.038643502 0
-0.85065752 0.3817901 0.10492472 0
-0.85007757 0.38351572 0.17168134 0
-1.0405741 -0.24556327 -0.050257631 0
-0.83579302 0.39013392 0.038413923 0
-0.84021014 0.37642199 0.10512173 0
-0.84029979 0.37614381 0.17239299 0
-1.0192569 -0.24376452 -0.049967591 0
-0.82633656 0.38200438 0.038589243 0
-0.82484293 0.38684928 0.10355644 0
-0.82752055 0.37816393 0.17135265 0
-1.0019778 -0.25496149 -0.050172307 0
-0.81345069 0.3850733 0.038351573 0
-0.81401229 0.38316685 0.10359944 0
-0.81442505 0.38176548 0.17004916 0
-0.98335654 -0.26192641 -0.050227445 0
-0.8030901 0.37976617 0.1036261 0
-0.80285317 0.38060963 0.1696724 0
-0.96264642 -0.26124191 -0.050008386 0
-0.79032099 0.38324177 0.038191181 0
-0.79300439 0.37320608 0.10401946 0
-0.79361457 0.37092417 0.17091653 0
-0.94147831 -0.25813854 -0.049710557 0
-0.77996135 0.37791008 0.038282093 0
-0.77704233 0.38940507 0.16693735 0
-0.92349899 -0.26740539 -0.049877666 0
-0.768291 0.37774438 0.10289295 0
-0.76688892 0.38357234 0.16751903 0
-0.90500355 -0.27494752 -0.049989447 0
-0.75587201 0.38116443 0.16748931 0
-0.8848778 -0.27526617 -0.049845714 0
-0.86738217 -0.28817403 -0.050170023 0
-0.73237455 0.38364989 0.16616373 0
-0.84810925 -0.29287839 -0.050203577 0
-0.82556248 -0.27901781 -0.049573012 0
-0.80918574 -0.30049706 -0.05023212 0
-0.78887653 -0.2987653 -0.050059631 0
-0.76771379 -0.28988826 -0.049639206 0
-0.74992537 -0.30596256 -0.050126579 0
-0.7300517 -0.30634117 -0.050057556 0
-0.71031022 -0.30760324 -0.050029289 0
-0.69067174 -0.30987608 -0.050046176 0
-0.67088783 -0.31035137 -0.050007567 0
-0.65160638 -0.31881511 -0.05026361 0
-0.63158172 -0.31544363 -0.050105173 0
-0.61163813 -0.31127417 -0.049927309 0
-0.59175581 -0.30433381 -0.049659517 0
-0.57216567 -0.30865824 -0.049802881 0
-0.5524537 -0.31856954 -0.050154522 0
-0.53263807 -0.31910634 -0.050180364 0
-0.51295632 -0.31416476 -0.050019465 0
-0.49303007 -0.31789291 -0.05017712 0
-0.4731442 -0.31872904 -0.05024045 0
-0.45337203 -0.31712413 -0.050225452 0
-0.49602276 0.32711405 0.039174967 0
-0.4341926 -0.30809736 -0.049953554 0
-0.48409346 0.32466978 0.039292816 0
-0.41432771 -0.30862784 -0.050032631 0
-0.39467806 -0.30652547 -0.050026283 0
-0.46156061 0.33499151 0.038999163 0
-0.37381455 -0.31480944 -0.050402146 0
-0.44855449 0.3239789 0.039441008 0
-0.44260892 0.27316314 0.1121637 0
-0.44232059 0.27069885 0.18460518 0
-0.44144508 0.26321602 0.26058769 0
-0.4414075 0.26289505 0.33809188 0
-0.44178313 0.26610529 0.41794816 0
-0.35566801 -0.30007505 -0.049959391 0
-0.43529981 0.31348705 0.03987072 0
-0.42991015 0.27195978 0.11245919 0
-0.42907771 0.26554573 0.18582004 0
-0.42790565 0.25651497 0.26270753 0
-0.4296051 0.26960927 0.33635572 0
-0.42860091 0.26187199 0.42035612 0
-0.43035519 0.27538878 0.4999074 0
-0.33536443 -0.30265546 -0.050148498 0
-0.4199096 0.29018068 0.040769339 0
-0.41991663 0.29022986 0.11065856 0
-0.4208326 0.29665285 0.18046179 0
-0.42110413 0.29855675 0.25231341 0
-0.41922992 0.2854147 0.33161116 0
-0.41876781 0.28217429 0.41257641 0
-0.42045188 0.29398304 0.49135756 0
-0.31724095 -0.29032588 -0.049808498 0
-0.40463823 0.27177668 0.041499592 0
-0.40674835 0.28534806 0.11138611 0
-0.40579674 0.27922773 0.18396987 0
-0.40574458 0.27889228 0.25785342 0
-0.40553758 0.27756083 0.33486715 0
-0.40685675 0.28604519 0.41171816 0
-0.40937743 0.30225724 0.48807961 0
-0.29719099 -0.29086113 -0.049941789 0
-0.39109722 0.26676106 0.041753639 0
-0.39135092 0.26826763 0.11346269 0
-0.39086068 0.26535654 0.18686999 0
-0.39067715 0.26426679 0.26215145 0
-0.3916496 0.27004129 0.33807534 0
-0.39288223 0.27736056 0.41619268 0
-0.39668214 0.29992479 0.49024707 0
-0.27556339 -0.29955006 -0.050380383 0
0.072148465 -2.2165689 0.13193713 0
-0.38637492 0.31138039 0.4854894 0
-0.25616595 -0.29513049 -0.050353192 0
0.11338504 -2.1959388 0.13148512 0
-0.37450179 0.313537 0.48552591 0
-0.23695426 -0.28989482 -0.050305068 0
0.15997465 -2.2026389 0.13204736 0
-0.36656266 0.33466953 0.47594211 0
-0.2194887 -0.2768898 -0.04998159 0
0.20452692 -2.1982343 0.13222657 0
-0.35671523 0.34492552 0.47195575 0
-0.20062254 -0.27085996 -0.049920958 0
0.25041357 -2.1989477 0.13261452 0
-0.34694594 0.35464299 0.46829796 0
-0.18178873 -0.26486433 -0.049870122 0
0.29640046 -2.1988971 0.1329968 0
-0.0072777658 -0.97067261 0.2523191 0
-0.0092921639 -0.96252537 0.41784474 0
-0.33831567 0.36820787 0.4627091 0
-0.1624005 -0.26112545 -0.049911115 0
0.34009674 -2.1889617 0.13303697 0
-0.32744762 0.37207973 0.46216983 0
-0.14406423 -0.25342822 -0.049814735 0
0.38908771 -2.1982055 0.1338076 0
-0.31700242 0.37739801 0.46094912 0
-0.12389655 -0.25233054 -0.049971744 0
-0.30233052 0.36781114 0.4675526 0
-0.10501233 -0.24658024 -0.049965311 0
-0.30363616 0.41239047 0.44597167 0
-0.085422166 -0.24307418 -0.050051752 0
-0.29395315 0.41850084 0.44447741 0
-0.064961948 -0.2420069 -0.050239459 0
-0.28605187 0.42979014 0.4403131 0
-0.050511993 -0.22300518 -0.049760763 0
-0.26378959 0.39858443 0.45866197 0
-0.02891759 -0.22499609 -0.050082646 0
-0.0070553212 -0.22704732 -0.050418667 0
0.0075476975 -0.20962083 -0.050021466 0
0.023083767 -0.19526935 -0.049747579 0
0.041991614 -0.18953586 -0.049812924 0
0.059552334 -0.18054461 -0.049761251 0
0.081909798 -0.18241513 -0.050142344 0
-0.18980928 0.42821908 0.38037035 0
0.1000404 -0.17444932 -0.050150119 0
0.11621954 -0.16235936 -0.050003905 0
-0.16236363 0.42351931 0.38688871 0
-0.20175256 0.50635678 0.4971717 0
0.13147517 -0.1486156 -0.049799085 0
0.55563277 -1.0124302 0.46143031 0
-0.16371532 0.45255208 0.37582186 0
-0.19487588 0.51601183 0.49379054 0
0.14650966 -0.13474798 -0.049595665 0
0.58757049 -1.0051126 0.46282068 0
-0.14973091 0.44983643 0.37941274 0
-0.18717863 0.52373368 0.49173042 0
0.16684629 -0.13132751 -0.049819354 0
0.61481196 -0.98838019 0.46238586 0
-0.13710542 0.45019609 0.38167262 0
-0.18034352 0.5329197 0.48874161 0
0.186094 -0.12554693 -0.049959205 0
0.64688021 -0.98072314 0.46387735 0
-0.12958129 0.4603169 0.37943161 0
-0.17711018 0.54852611 0.48146504 0
0.20065685 -0.11111832 -0.049756762 0
0.6863901 -0.98603082 0.46813664 0
-0.10972378 0.44794559 0.38787103 0
-0.16322501 0.54431301 0.48760885 0
0.21740408 -0.10079134 -0.049729053 0
0.7159763 -0.97277379 0.46867293 0
-0.083546735 0.42555928 0.40126678 0
-0.15334292 0.54762995 0.48877195 0
0.23798378 -0.097007997 -0.049980924 0
0.75693756 -0.97868466 0.47330222 0
-0.056879617 0.40395027 0.41454652 0
-0.15026133 0.56260115 0.48200911 0
0.25682983 -0.090013392 -0.050111458 0
0.8085205 -1.0008748 0.48150769 0
-0.054946698 0.42474115 0.4075658 0
-0.13620211 0.55889678 0.48816997 0
0.27332613 -0.079067118 -0.050086748 0
0.84550053 -0.99744987 0.48447242 0
-0.12581809 0.56158906 0.49003297 0
0.29401317 -0.074689038 -0.050349094 0
0.88400191 -0.9956224 0.48790261 0
-0.11805633 0.56852424 0.48901454 0
0.30714026 -0.05848885 -0.050119352 0
0.90759045 -0.9702692 0.48638546 0
0.017528614 0.38128483 0.43881002 0
-0.10773576 0.57149816 0.49086961 0
0.31810024 -0.039370064 -0.049768921 0
0.95174366 -0.97567201 0.49161735 0
0.028223177 0.38896626 0.43862352 0
-0.10857234 0.59110188 0.48092479 0
0.33827958 -0.033938769 -0.050016552 0
0.99400705 -0.97706747 0.49613664 0
0.042975388 0.39079535 0.44145414 0
-0.10827256 0.6083343 0.47259772 0
0.34836754 -0.014070278 -0.049644161 0
0.056055866 0.39526522 0.44306093 0
-0.098692454 0.61196542 0.47411004 0
0.37142453 -0.012326604 -0.050076324 0
0.07651075 0.38984746 0.44984332 0
-0.088208474 0.61447519 0.47654933 0
0.38886616 -0.0026121191 -0.050169319 0
1.1383215 -0.99811268 0.10665583 0
1.1258051 -0.98148727 0.30676135 0
0.091513179 0.39236158 0.45271248 0
-0.084176846 0.6257304 0.47261745 0
0.39677301 0.019553537 -0.049711306 0
0.10779121 0.39351386 0.45642063 0
-0.071511276 0.62554234 0.47726157 0
0.41205725 0.031901833 -0.049700543 0
0.1223649 0.39718157 0.45894453 0
-0.06898392 0.63845772 0.47215435 0
0.42877284 0.04248428 -0.049779769 0
-0.062889643 0.64664882 0.47063088 0
0.44884428 0.049139615 -0.050052222 0
-0.059420265 0.65788537 0.4667975 0
0.46284446 0.063183181 -0.04999214 0
-0.042969741 0.65371865 0.47498417 0
0.4754723 0.078729145 -0.049868323 0
-0.040314831 0.66578263 0.47061151 0
0.48711261 0.095245354 -0.049704067 0
1.2045679 -0.70089614 0.099965848 0
-0.034645654 0.67422688 0.46910527 0
0.50955158 0.099911444 -0.050121058 0
1.2093269 -0.65721953 0.098928593 0
-0.02404044 0.67723852 0.47202584 0
0.51925057 0.11845051 -0.049874451 0
0.37764445 0.26784468 0.054525632 0
0.53962749 0.12575972 -0.050189983 0
0.38882849 0.28089255 0.054466072 0
0.84536368 -0.1887629 0.22228469 0
-0.017080525 0.69846678 0.46572781 0
0.54199094 0.15145874 -0.049595315 0
0.38656673 0.30737281 0.053735688 0
0.83644885 -0.1439271 0.21817863 0
-0.0080170417 0.70320016 0.46749809 0
0.56455749 0.15681279 -0.050033171 0
0.40770534 0.31024599 0.054199662 0
0.74795336 -0.022585636 0.2022443 0
0.74243778 -0.017190224 0.33393419 0
0.73956901 -0.014383918 0.46889138 0
0.003534219 0.7056073 0.47136033 0
0.57149082 0.17750978 -0.049697831 0
0.42282966 0.31931186 0.054363158 0
0.83967298 -0.078298815 0.21349396 0
0.1865008 0.54473674 0.34802994 0
0.0093795871 0.71368581 0.47052509 0
0.59875029 0.17898262 -0.050370216 0
0.45893928 0.30902058 0.055553518 0
0.84527522 -0.050309543 0.21186978 0
0.18848313 0.56057107 0.34489796 0
0.011786542 0.7249161 0.46699762 0
0.60254377 0.20238101 -0.049904902 0
0.83616155 -0.0094831046 0.073164321 0
0.8389942 -0.012051946 0.20859142 0
0.19295247 0.57383275 0.34300861 0
0.028451821 0.72301567 0.47503927 0
0.62008351 0.21319103 -0.050113942 0
0.83644229 0.021887893 0.072424628 0
0.8393634 0.019305104 0.20637284 0
0.84776694 0.011874789 0.34427705 0
0.21849842 0.56827039 0.35057473 0
0.62801999 0.23247802 -0.049874533 0
0.83830088 0.05121493 0.071786016 0
0.83650547 0.052762624 0.20377669 0
0.84293658 0.047218915 0.33942857 0
0.24220558 0.56505179 0.35722065 0
0.03011938 0.7478711 0.4660154 0
0.64757413 0.24178624 -0.050190784 0
0.83733827 0.082329027 0.071039878 0
0.83960372 0.080425374 0.20210339 0
0.83748347 0.082207076 0.33458978 0
0.93018156 0.0043137022 0.50173402 0
0.26187596 0.56588513 0.36202466 0
0.27743992 0.55280685 0.45748764 0
0.04618635 0.74712723 0.47355771 0
0.65429419 0.26189834 -0.049916971 0
0.83466715 0.11416697 0.070240729 0
0.84665769 0.10434639 0.20104541 0
0.84074742 0.10918712 0.331936 0
0.9417215 0.026486034 0.50038809 0
0.29178557 0.55880493 0.37118724 0
0.24800391 0.5946635 0.43704218 0
0.049988292 0.75684476 0.47161338 0
0.66383368 0.27951694 -0.049786314 0
0.84612125 0.13401353 0.070113212 0
0.84622282 0.13393235 0.19900985 0
0.84339374 0.13619053 0.32924506 0
0.98418206 0.023812169 0.50924104 0
0.2680926 0.59540081 0.35740229 0
0.24717672 0.61209601 0.43223763 0
0.056468211 0.76432115 0.47181389 0
0.6823743 0.2900216 -0.050074127 0
0.85174972 0.15828168 0.069734812 0
0.83902901 0.16817582 0.1961249 0
0.83881348 0.16834354 0.32500723 0
0.26094243 0.61781067 0.43525007 0
0.071409009 0.76522946 0.47844028 0
0.70113653 0.30061704 -0.050375085 0
0.84459287 0.191908 0.06880106 0
0.83758062 0.19722188 0.19410045 0
0.84897441 0.18858778 0.32423741 0
0.26584652 0.63047296 0.43366799 0
0.064408623 0.78311938 0.46868619 0
0.70768398 0.32049644 -0.050137199 0
0.84805936 0.21687853 0.068366215 0
0.84244698 0.22102129 0.19298734 0
0.84317714 0.22048247 0.3199549 0
0.287981 0.63029963 0.44104999 0
0.082233451 0.78217185 0.47748813 0
0.7151199 0.33953446 -0.049951568 0
0.84428257 0.24668276 0.067630701 0
0.83072609 0.25642812 0.18972866 0
0.83801049 0.2511915 0.31594068 0
0.082311772 0.79444402 0.47324029 0
0.7261315 0.35591364 -0.049933884 0
0.84799904 0.2706129 0.067244612 0
0.84614283 0.27191222 0.19011723 0
0.83937234 0.2766512 0.31348431 0
0.8348276 0.27983224 0.43957037 0
0.090399109 0.80089211 0.47493973 0
0.74127346 0.36946732 -0.050103735 0
0.87874025 0.27580452 0.068042383 0
0.83689207 0.30431777 0.18732008 0
0.83680171 0.30437934 0.31026104 0
0.84163398 0.30108684 0.43791765 0
0.1066679 0.80185497 0.48255435 0
0.75169963 0.38629544 -0.050077505 0
0.9170807 0.27663666 0.069161847 0
0.84228128 0.32623363 0.18648684 0
0.84027427 0.32756442 0.30844817 0
0.83804446 0.32904297 0.43317857 0
0.11103197 0.81110132 0.48164329 0
0.76069158 0.40403038 -0.049999598 0
0.95915669 0.27600271 0.070431419 0
0.84288901 0.35100573 0.18508425 0
0.83838516 0.35391116 0.30556211 0
0.83818454 0.35404056 0.42971754 0
0.13655289 0.80665553 0.49575326 0
0.76992196 0.42155463 -0.049941804 0
0.99713951 0.27899826 0.071518146 0
0.84602123 0.37380987 0.18405272 0
0.8387863 0.37834913 0.30325732 0
0.83886629 0.37829888 0.42654204 0
0.13467105 0.82011139 0.49052799 0
0.78512067 0.43539423 -0.050143301 0
1.0273453 0.28763986 0.072272912 0
0.8442691 0.39931428 0.1824505 0
0.84105843 0.40127277 0.30143067 0
0.84025532 0.4017626 0.42369384 0
0.14086439 0.82838351 0.49107054 0
0.78998882 0.45552701 -0.049921811 0
1.0758893 0.2860328 0.073787719 0
0.84137958 0.42506027 0.18075839 0
0.83954734 0.42614657 0.29888514 0
0.83784467 0.42715597 0.41982779 0
0.14603676 0.83728963 0.49097723 0
0.7971999 0.47413367 -0.049808931 0
0.85348791 0.44171453 0.18097886 0
0.84374911 0.44732362 0.29761243 0
0.84052342 0.4491815 0.4175826 0
0.13368066 0.85628855 0.47896549 0
0.80528051 0.49216646 -0.049742024 0
0.84616524 0.4692995 0.17883104 0
0.8428902 0.47113127 0.29535821 0
0.84044224 0.47250038 0.41462779 0
0.15418954 0.85632348 0.48953313 0
0.82694572 0.50277412 -0.050236683 0
0.85168403 0.489344 0.17831081 0
0.84154099 0.49485052 0.29308048 0
0.83789653 0.49682909 0.4110631 0
0.82222515 0.52767694 -0.049668804 0
0.84239823 0.51705188 0.17602654 0
0.84833235 0.51392645 0.29253817 0
0.83604509 0.52039802 0.4078109 0
0.82946914 0.54602295 -0.049596809 0
0.85195678 0.53453821 0.17607316 0
0.84651798 0.53731591 0.29030547 0
0.84221572 0.53951311 0.40696293 0
0.83420664 0.54360348 0.52586687 0
0.85018545 0.55764788 -0.050071158 0
0.85195953 0.55676985 0.17500015 0
0.83770674 0.56382412 0.28673807 0
0.83451229 0.56540519 0.40223944 0
0.84531993 0.56005603 0.52671129 0
0.86320287 0.57333785 -0.050243657 0
0.86368042 0.57310891 0.17536359 0
0.83471066 0.5869959 0.28442213 0
0.84845418 0.58040774 0.40376103 0
0.8353886 0.58667088 0.51986301 0
0.86487311 0.59443009 -0.04997636 0
0.91287106 0.5721606 0.18018852 0
0.84006828 0.60593873 0.28383872 0
0.83972996 0.60609567 0.39895207 0
0.84863347 0.60196471 0.52167803 0
0.88111264 0.6087811 -0.050291114 0
0.93697613 0.58371216 0.18202993 0
0.84755093 0.623842 0.28372595 0
0.83828622 0.6279996 0.39629686 0
0.84474236 0.6251024 0.51730448 0
0.89063293 0.62629169 -0.050349727 0
0.95503968 0.59835786 0.18317068 0
0.83739859 0.64938003 0.28019154 0
0.83473533 0.65053511 0.39314705 0
0.83456856 0.65060741 0.51078236 0
0.89758903 0.64492452 -0.05031734 0
0.99456137 0.60430956 0.18682717 0
0.84000927 0.66904068 0.27923432 0
0.84173971 0.66831595 0.3930122 0
0.84000665 0.66904181 0.51004183 0
0.89531749 0.66726512 -0.04993885 0
1.0408256 0.60846424 0.19125535 0
0.84555596 0.68737406 0.27890131 0
0.8418979 0.68885231 0.39105582 0
0.83236653 0.69270402 0.50469571 0
0.8944301 0.68878329 -0.049626056 0
1.0712218 0.61991715 0.19383779 0
0.85165626 0.70544511 0.27872187 0
0.84137696 0.70944923 0.38899413 0
0.83634263 0.71141028 0.5036298 0
0.28214124 0.92728996 0.45680374 0
0.91328186 0.70266509 -0.050077748 0
0.84342247 0.72886938 0.27582622 0
0.84839433 0.72700447 0.38906702 0
0.84773177 0.72725296 0.50528699 0
0.28206614 0.93943453 0.45459875 0
0.91396099 0.72344559 -0.049844321 0
0.85894579 0.74329531 0.27755529 0
0.84446317 0.74852073 0.38623017 0
0.84741396 0.74745607 0.50286674 0
0.25849167 0.9599418 0.43998572 0
0.93246263 0.73787725 -0.050295245 0
0.84936887 0.76668066 0.27452052 0
0.82722551 0.77435637 0.37988585 0
0.84444946 0.76838589 0.49961492 0
0.83750945 0.77079159 0.61725968 0
0.262198 0.97021592 0.44001982 0
0.92547756 0.76112413 -0.049792223 0
0.83972889 0.78964353 0.27154255 0
0.83450836 0.79137987 0.38024864 0
0.83528727 0.79112083 0.49429628 0
0.84475201 0.78797287 0.61781162 0
0.30338499 0.96802795 0.45988524 0
0.93639106 0.7782982 -0.049972869 0
0.85097152 0.80551857 0.27258408 0
0.83406359 0.81090653 0.37859824 0
0.84623426 0.80702811 0.49612081 0
0.84611875 0.80706495 0.61590219 0
0.2992579 0.98133117 0.45586082 0
0.93807417 0.79842263 -0.049816407 0
0.84208459 0.82768518 0.26986411 0
0.84169918 0.82780266 0.3791751 0
0.83207709 0.83073598 0.48927662 0
0.83981341 0.82837754 0.61078358 0
0.318571 0.98727882 0.46420059 0
0.95069891 0.81524986 -0.050076801 0
0.86647946 0.8397696 0.27345815 0
0.83890659 0.84779721 0.37703547 0
0.84255868 0.84673393 0.49109867 0
0.84138483 0.8470757 0.60919625 0
0.33327994 0.99500597 0.47014961 0
0.95643169 0.83418363 -0.0500888 0
0.89921933 0.85006189 0.27863011 0
0.85226268 0.86309385 0.37924585 0
0.83568662 0.8676942 0.48699233 0
0.84719104 0.86450136 0.6095354 0
0.30891576 1.0138897 0.45583972 0
0.95549732 0.85488969 -0.049863398 0
0.93178862 0.86114919 0.2837773 0
0.83843595 0.88579583 0.37432697 0
0.84003443 0.88537377 0.48685133 0
0.83070987 0.88783568 0.60042363 0
0.32701352 1.0208199 0.46367395 0
0.96784383 0.87210697 -0.050137121 0
0.95406324 0.87556028 0.28702024 0
0.82732457 0.9073199 0.37021309 0
0.84016591 0.90410197 0.48534107 0
0.83577198 0.90520304 0.60066164 0
0.32760403 1.0325456 0.46249819 0
0.96263403 0.89369112 -0.049773816 0
0.99265355 0.88656896 0.29331139 0
0.83411986 0.92418122 0.37087804 0
0.83911568 0.92299592 0.48351207 0
0.83706635 0.92348212 0.5993889 0
0.32944497 1.0439155 0.46204501 0
0.96907967 0.91240525 -0.049847916 0
1.0211649 0.90073872 0.29774767 0
0.83999854 0.94131798 0.37135705 0
0.83728093 0.94192672 0.48150197 0
0.83067054 0.94340736 0.59495461 0
0.35201594 1.0506208 0.47229567 0
0.9792344 0.93039405 -0.05006576 0
1.0515755 0.91514438 0.30255523 0
0.84197968 0.95932764 0.37087488 0
0.84226149 0.95926821 0.4818956 0
0.84465343 0.95876402 0.59926134 0
0.3566353 1.0616393 0.47338307 0
0.98362559 0.949682 -0.050081566 0
1.0767173 0.93127918 0.30641559 0
0.85227543 0.97564805 0.3726154 0
0.83929735 0.97821361 0.47966805 0
0.83752483 0.97856396 0.59472901 0
0.3687211 1.0712396 0.47834668 0
0.98553044 0.96944362 -0.0500159 0
0.85884517 0.99283391 0.37343851 0
0.83700067 0.99686718 0.47775236 0
0.85198718 0.99410015 0.59940279 0
0.39742944 1.0780268 0.49181789 0
0.98611778 0.98938751 -0.049911674 0
0.84798223 1.0130974 0.36980325 0
0.84682518 1.013296 0.48001176 0
0.84280914 1.0139853 0.59421772 0
0.38555905 1.0924687 0.48470333 0
0.98410612 1.0096726 -0.049722794 0
0.44238243 1.0956479 0.042140506 0
0.43473181 1.0968622 0.11395894 0
0.4230518 1.0987159 0.18503754 0
0.43013552 1.0975916 0.26110709 0
0.42671183 1.098135 0.33750838 0
0.4302974 1.0975659 0.42006338 0
0.39412621 1.1033065 0.48804891 0
0.99139804 1.0284696 -0.049879149 0
0.40883222 1.1134213 0.040860828 0
0.40410098 1.1141112 0.11042546 0
0.4028134 1.1142989 0.18100604 0
0.4125416 1.1128803 0.25608224 0
0.40904894 1.1133897 0.33093494 0
0.39656851 1.1152096 0.40515763 0
0.40099505 1.1145642 0.49059874 0
1.0019952 1.0469414 -0.050162815 0
0.3985438 1.1271926 0.040429149 0
0.43129137 1.1228375 0.1131902 0
0.42671153 1.1234466 0.18504708 0
0.43339887 1.1225573 0.26101187 0
0.42546579 1.1236123 0.33587497 0
0.43727288 1.1220421 0.42145902 0
0.40605703 1.1261934 0.49230388 0
1.0030687 1.0667626 -0.050111964 0
0.37620243 1.1421078 0.039570957 0
0.42264739 1.1365254 0.11208383 0
0.43108717 1.135511 0.18555674 0
0.42830417 1.1358455 0.25929654 0
0.43957266 1.1344911 0.34007663 0
0.42827293 1.1358492 0.41704425 0
1.0050918 1.0864488 -0.050104253 0
0.36501446 1.1552179 0.039121158 0
0.84523422 1.1036236 0.36591819 0
0.84437758 1.1037157 0.47504953 0
0.85078055 1.1030278 0.59239566 0
1.001645 1.1066508 -0.04990929 0
0.34293202 1.1690429 0.038287133 0
0.8419295 1.1217787 0.36461347 0
0.84172815 1.1217978 0.47356755 0
0.84260184 1.1217151 0.58824837 0
1.0114 1.125635 -0.050196547 0
0.36533448 1.1786307 0.039053708 0
0.85224897 1.1386899 0.36685637 0
0.8441543 1.1393539 0.47385743 0
0.8505711 1.1388276 0.59091151 0
1.0012387 1.146207 -0.049779367 0
0.3714647 1.189891 0.039241601 0
0.84163243 1.1572781 0.36379746 0
0.84353393 1.1571461 0.47320482 0
0.84321409 1.1571683 0.5873009 0
1.0054357 1.165673 -0.049885187 0
0.84979397 1.1745014 0.36559919 0
0.83855242 1.1751391 0.47117412 0
0.84269935 1.1749039 0.58662617 0
1.0146499 1.1849955 -0.050179005 0
0.85515398 1.1920291 0.36673984 0
0.84222788 1.1925992 0.47210294 0
0.8391723 1.1927339 0.58479601 0
1.0137258 1.2048478 -0.050119266 0
0.8455053 1.2101449 0.36410528 0
0.85034806 1.2099924 0.47458407 0
0.84191996 1.2102578 0.58565885 0
1.0126039 1.2246648 -0.050061412 0
0.85843712 1.2275769 0.36729163 0
0.85080498 1.2277211 0.47458756 0
0.84352094 1.2278587 0.58613801 0
1.0170606 1.244409 -0.050211638 0
0.84534305 1.2454901 0.3638936 0
0.84407562 1.2454981 0.47227439 0
0.83107847 1.2455798 0.58089429 0
1.0204496 1.2642555 -0.050332636 0
0.85695475 1.2632262 0.36685616 0
0.83870023 1.2631112 0.47048599 0
0.84301549 1.2631384 0.58583677 0
1.0171883 1.284065 -0.050225113 0
0.84649771 1.2808408 0.36424497 0
0.82989961 1.2805272 0.46763119 0
0.8354035 1.2806312 0.58277649 0
1.0141721 1.3038094 -0.05013521 0
0.84876209 1.2986008 0.36493659 0
0.84189039 1.2983844 0.47176886 0
0.84079629 1.29835 0.58519334 0
1.0184916 1.323817 -0.050316293 0
0.8561855 1.3166596 0.36700323 0
0.83972639 1.3159337 0.47126994 0
0.84600478 1.3162105 0.58762765 0
1.0115123 1.3433149 -0.050102476 0
0.84645718 1.3339525 0.36474648 0
0.83163863 1.3331119 0.46887028 0
0.83871526 1.3335134 0.58497399 0
1.010631 1.3630877 -0.050115488 0
1.2915567 1.3825738 0.072168998 0
1.304849 1.3834958 0.20661624 0
1.3002659 1.383178 0.34183392 0
0.84930164 1.3518971 0.36575884 0
0.83822769 1.3511289 0.47143528 0
0.83588415 1.3509665 0.58425874 0
1.0049415 1.3824784 -0.049965195 0
1.2416044 1.4018914 0.070442744 0
1.2405782 1.4018072 0.1998772 0
1.0162942 1.3834095 0.29076821 0
0.84540588 1.3693919 0.36510462 0
0.84025329 1.3689692 0.47255522 0
0.84238225 1.3691438 0.58750963 0
1.0053407 1.4023424 -0.050041821 0
1.2471501 1.4252461 0.070713364 0
1.2445856 1.4250033 0.20052566 0
0.8942855 1.3918234 0.26898268 0
0.83991379 1.3866735 0.36409694 0
0.84408277 1.3870683 0.47435445 0
0.83911747 1.386598 0.58679926 0
1.0016167 1.421821 -0.049979474 0
0.6366685 1.3826115 0.048875377 0
0.64276713 1.3832667 0.13572416 0
0.64112288 1.38309 0.22339727 0
0.64254004 1.3832422 0.31390679 0
0.84134883 1.4046021 0.47403607 0
0.84725386 1.4052365 0.59092706 0
0.9882645 1.4401013 -0.049579635 0
0.55297345 1.3877821 0.045927335 0
0.55804807 1.388392 0.12673998 0
0.5507198 1.3875113 0.20728762 0
0.54482645 1.3868029 0.28923908 0
0.83782989 1.42202 0.47352815 0
0.83932775 1.4222 0.58846062 0
0.99900228 1.4613037 -0.05005502 0
0.55671042 1.4024847 0.046125617 0
0.54779118 1.4012985 0.12582058 0
0.55866212 1.4027442 0.2090537 0
0.55363625 1.4020759 0.29195836 0
0.84304291 1.4405632 0.47602355 0
0.83970791 1.4401196 0.58954853 0
0.99398333 1.4805505 -0.049972422 0
0.5557372 1.416644 0.046161 0
0.55367523 1.4163433 0.12667014 0
0.55134219 1.4160031 0.20807634 0
0.54879087 1.4156311 0.29121146 0
0.83450371 1.4572947 0.47397831 0
0.82992345 1.4566268 0.58647978 0
0.99956757 1.5014243 -0.050281696 0
0.54680985 1.4295685 0.045915361 0
0.5501979 1.4301063 0.12652332 0
0.55540234 1.4309322 0.20920554 0
0.54519254 1.4293119 0.29082921 0
0.84377664 1.4766992 0.47800002 0
0.84203583 1.4764229 0.59267145 0
0.98579127 1.5191996 -0.049899843 0
0.55747288 1.445682 0.046384711 0
0.55244404 1.4448189 0.12701915 0
0.56203765 1.4464656 0.21084274 0
0.56124097 1.4463289 0.29557657 0
0.84612519 1.495227 0.47977546 0
0.83943516 1.4940788 0.59280032 0
0.98584837 1.5392582 -0.050027441 0
0.54806036 1.4584279 0.046133678 0
0.55153733 1.4590698 0.12719181 0
0.55752069 1.4601746 0.21047433 0
0.55293137 1.4593272 0.2940709 0
0.84170121 1.5126438 0.47934264 0
0.84478539 1.5132133 0.59637058 0
0.98526603 1.5592854 -0.050141267 0
0.5473482 1.4727155 0.046204478 0
0.55267388 1.4737682 0.12760837 0
0.54501683 1.4722546 0.20866838 0
0.54501623 1.4722545 0.29270664 0
0.83338279 1.5292603 0.47766227 0
0.83246011 1.5290779 0.5925914 0
0.98175412 1.5787803 -0.050157692 0
0.54652232 1.4870324 0.046277866 0
0.54764408 1.4872688 0.12736908 0
0.54491585 1.4866937 0.20917164 0
0.54829043 1.4874051 0.29429862 0
0.83399218 1.5476317 0.47908399 0
0.83564109 1.5479792 0.5954479 0
0.9758063 1.5977446 -0.050094012 0
0.56043619 1.5047063 0.046897318 0
0.56069726 1.5047647 0.12913933 0
0.55863136 1.504302 0.21226341 0
0.56078154 1.5047836 0.29835472 0
0.83827239 1.5669385 0.48183995 0
0.84620541 1.5687155 0.60154599 0
0.96944064 1.6165669 -0.050023567 0
0.55926698 1.519253 0.046973351 0
0.55132562 1.5173689 0.1284623 0
0.54397815 1.5156257 0.21014716 0
0.54330415 1.5154657 0.29462203 0
0.84997553 1.5882237 0.48722538 0
0.83876759 1.5855646 0.6001128 0
0.9563778 1.6336628 -0.049715113 0
0.54870456 1.5315036 0.046710633 0
0.54748684 1.5311984 0.12841368 0
0.55721027 1.5336349 0.2132353 0
0.55630261 1.5334074 0.29892871 0
0.83924168 1.6043096 0.48502409 0
0.82889193 1.601716 0.59772497 0
0.95112711 1.6525997 -0.04970203 0
0.54853886 1.5463097 0.046836618 0
0.55560952 1.5481764 0.12971377 0
0.55677551 1.5484842 0.21382669 0
0.55754226 1.5486866 0.30020636 0
0.83916527 1.6230398 0.48655227 0
0.83554989 1.6220853 0.60249621 0
0.95193499 1.6732115 -0.049922198 0
0.55994827 1.5644228 0.047398809 0
0.54836255 1.5612074 0.12932801 0
0.54843456 1.5612274 0.21297532 0
0.54888397 1.5613521 0.29891866 0
0.83939475 1.641978 0.48827267 0
0.83722359 1.6413754 0.6052525 0
0.94760984 1.6924939 -0.049961936 0
0.54969078 1.5766432 0.047165878 0
0.5589363 1.5793351 0.13095386 0
0.53829867 1.5733266 0.21181375 0
0.55181116 1.5772606 0.30074704 0
0.83286268 1.6590863 0.48773894 0
0.84282273 1.6619861 0.60981625 0
0.93994528 1.7107909 -0.049886242 0
0.85480279 1.6848351 0.38267013 0
0.84315819 1.6812853 0.49313074 0
0.83890456 1.6799885 0.61039019 0
0.93598312 1.730215 -0.049957585 0
0.85283393 1.7037181 0.38362443 0
0.84369773 1.7008066 0.49523512 0
0.83973616 1.6995443 0.61312866 0
0.92853636 1.7485363 -0.049907308 0
0.84527868 1.7208453 0.3831445 0
0.83389336 1.7170588 0.49380758 0
0.83541125 1.7175635 0.61373597 0
0.9114204 1.7634718 -0.049500156 0
0.83896655 1.7383567 0.38305625 0
0.83673805 1.7375841 0.49689963 0
0.8423813 1.7395403 0.6193946 0
0.92234737 1.7882233 -0.050162613 0
0.84411901 1.7599982 0.3861368 0
0.83858007 1.7579998 0.49974236 0
0.84052986 1.7587032 0.62131768 0
0.90968162 1.8046275 -0.049940471 0
0.84883124 1.7818025 0.38918608 0
0.82667392 1.7734914 0.49780452 0
0.83782953 1.7776759 0.62298089 0
0.90833503 1.8252763 -0.05015881 0
0.83305079 1.7959505 0.38671437 0
0.83101088 1.7951559 0.50172621 0
0.82164234 1.7915065 0.61876547 0
0.88604897 1.8376325 -0.049581956 0
0.85046786 1.823254 0.39341408 0
0.82546204 1.813149 0.50221813 0
0.82927412 1.8146894 0.62524289 0
0.89504045 1.8626511 -0.05021869 0
0.84301871 1.8408629 0.39336598 0
0.83475953 1.8374037 0.50814921 0
0.82702607 1.8341646 0.62745029 0
0.89151627 1.8827345 -0.050384097 0
0.83059615 1.8563129 0.391996 0
0.82607692 1.8543528 0.50770295 0
0.82562786 1.854158 0.63016373 0
0.88290948 1.9006684 -0.050361425 0
0.83363694 1.8785571 0.39499673 0
0.82171398 1.8732067 0.50890702 0
0.82829362 1.8761593 0.6348508 0
0.85563761 1.9099281 -0.04961288 0
0.83076733 1.8983891 0.3964313 0
0.82322925 1.8948917 0.51236081 0
0.82767326 1.8969536 0.63819146 0
0.84782511 1.9279338 -0.049634833 0
0.82216805 1.9156349 0.39632389 0
0.82321995 1.9161391 0.51537353 0
0.80719978 1.9084597 0.63255674 0
0.84650654 1.9491744 -0.049924608 0
0.81353551 1.9328557 0.39626798 0
0.81265503 1.9324199 0.51458561 0
0.81276459 1.9324741 0.63898247 0
0.83699232 1.9664624 -0.049898397 0
0.81473094 1.9550931 0.39908913 0
0.79650384 1.9457842 0.51178217 0
0.80284244 1.9490215 0.63838983 0
0.82797545 1.9839948 -0.04990083 0
0.81011373 1.9745872 0.40033343 0
0.79540271 1.966839 0.51468223 0
0.80066282 1.9696095 0.64151359 0
0.82285553 2.0036485 -0.050070528 0
0.79405564 1.9880134 0.39833593 0
0.79582196 1.9889723 0.51827776 0
0.79501802 1.9885359 0.64314795 0
0.8125307 2.0205317 -0.050038602 0
0.79318756 2.0097132 0.400814 0
0.77748138 2.0009286 0.51485342 0
0.79828829 2.0125659 0.64913583 0
0.81506401 2.0447984 -0.050544918 0
0.78568012 2.0278747 0.40143552 0
0.78755516 2.0289545 0.52237087 0
0.7780413 2.0234749 0.64407486 0
0.79146224 2.0539896 -0.049982961 0
0.78240889 2.0486224 0.4033857 0
0.7854014 2.0503964 0.52535146 0
0.77805001 2.0460382 0.64879137 0
0.79175693 2.077297 -0.050420828 0
0.77479404 2.0669498 0.40413061 0
0.7667641 2.0620515 0.52203608 0
0.7705161 2.0643404 0.65002358 0
0.77600104 2.0909026 -0.050198011 0
0.75565106 2.0781348 0.4014785 0
0.76572901 2.0844579 0.52566522 0
0.76370424 2.0831873 0.65173066 0
0.76854557 2.1096792 -0.050333276 0
0.75865132 2.1032965 0.40557033 0
0.75149411 2.0986795 0.52420926 0
0.75370246 2.1001041 0.65199643 0
0.74356717 2.1169553 -0.049729142 0
0.74879068 2.1204188 0.40585604 0
0.74945337 2.1208582 0.52767998 0
0.74208921 2.1159754 0.65156925 0
0.73927456 2.1378138 -0.050017383 0
0.74201602 2.1396818 0.4071632 0
0.74899262 2.1444352 0.5319286 0
0.73472124 2.1347115 0.65336502 0
0.71763748 2.1467841 -0.049563732 0
0.73159319 2.1565523 0.40742105 0
0.72723156 2.1534994 0.52768493 0
0.73479444 2.158793 0.65905601 0
0.71287221 2.1674929 -0.04985274 0
0.7192449 2.1720741 0.40714267 0
0.72432595 2.1757267 0.53117508 0
0.72348958 2.1751254 0.65915084 0
0.70901304 2.1891277 -0.050196171 0
0.71518713 2.1936851 0.40955243 0
0.70940691 2.1894186 0.5298453 0
0.71096343 2.1905675 0.65872341 0
0.70088357 2.2078345 -0.050363757 0
0.7009204 2.2078624 0.40880394 0
0.70105201 2.207962 0.53131443 0
0.70355064 2.2098556 0.66104871 0
0.68288654 2.2190199 -0.050097298 0
0.69087213 2.2252312 0.40946904 0
0.69179565 2.2259495 0.53251606 0
0.69354743 2.2273118 0.66216499 0
0.66527611 2.2302775 -0.0498522 0
0.68122774 2.2430103 0.41034374 0
0.68489796 2.24594 0.5348298 0
0.69042784 2.2503538 0.66705507 0
0.65697855 2.2489433 -0.050040849 0
0.67405301 2.2629278 0.41211542 0
0.67501873 2.2637188 0.53599298 0
0.67393881 2.2628343 0.66499519 0
0.64777833 2.2670286 -0.05020031 0
0.67142195 2.286896 0.41550323 0
0.67082912 2.2863977 0.53973782 0
0.67347413 2.2886205 0.67166406 0
0.63476604 2.2819803 -0.050192505 0
0.71945482 2.3549824 0.066184267 0
0.71000022 2.3468323 0.18582736 0
0.7193374 2.354881 0.30999902 0
0.65093261 2.2959158 0.41301382 0
0.65136832 2.2962914 0.53694063 0
0.65068167 2.2956996 0.66637719 0
0.6183992 2.2939627 -0.050033674 0
0.6815713 2.3498192 0.06504418 0
0.68875712 2.3561728 0.18476772 0
0.6825555 2.3506894 0.3045046 0
0.6393078 2.3124499 0.41355392 0
0.64512104 2.31759 0.54003513 0
0.63523918 2.3088527 0.66514218 0
0.61226755 2.3150804 -0.050373551 0
0.65829808 2.3568249 0.064592034 0
0.66090578 2.3591895 0.18275416 0
0.67464584 2.3716502 0.30596375 0
0.62940997 2.3306265 0.41476634 0
0.621692 2.3236272 0.53556818 0
0.6249724 2.3266022 0.66687799 0
0.58595365 2.3177583 -0.049746297 0
0.63999611 2.3680229 0.064381219 0
0.63702923 2.3652635 0.1813058 0
0.64028782 2.3682942 0.30099052 0
0.61156338 2.3415778 0.41330278 0
0.60771602 2.3379993 0.53537798 0
0.61020941 2.3403184 0.66621763 0
0.57762116 2.3369808 -0.050000295 0
0.62308651 2.3803484 0.064243473 0
0.62407714 2.3812935 0.18147373 0
0.62374705 2.3809786 0.3003875 0
0.60494655 2.3630455 0.41582933 0
0.59913784 2.3575048 0.53774995 0
0.59713167 2.3555911 0.66661179 0
0.55743355 2.3448617 -0.049677387 0
0.60835594 2.3946741 0.064220555 0
0.61761576 2.4037321 0.1826497 0
0.61429876 2.4004874 0.30160636 0
0.5853563 2.3721759 0.41385281 0
0.59415728 2.380785 0.5419392 0
0.58295757 2.3698294 0.6664865 0
0.55237919 2.3676052 -0.050120637 0
0.61070329 2.4261131 0.065070026 0
0.60427731 2.419667 0.18283649 0
0.6039713 2.4193599 0.3026785 0
0.56868106 2.3839586 0.41294593 0
0.57314843 2.3884399 0.53876591 0
0.57556945 2.3908687 0.67044383 0
0.53522795 2.3783574 -0.049964637 0
0.60263783 2.4477046 0.065417364 0
0.60151345 2.4465477 0.1846869 0
0.60514766 2.4502866 0.30680227 0
0.5599311 2.4037704 0.41498208 0
0.55821806 2.4020083 0.53849822 0
0.56987089 2.413996 0.67561281 0
0.51706856 2.3878906 -0.049761213 0
0.61917287 2.4956102 0.067060046 0
0.61708349 2.4934061 0.18947873 0
0.60478657 2.4804327 0.31067953 0
0.54256433 2.4147885 0.41394174 0
0.5421645 2.4143667 0.53776586 0
0.5497058 2.4223228 0.67231822 0
0.5027439 2.4013658 -0.049762975 0
0.53479952 2.4360487 0.41654816 0
0.53313202 2.4342446 0.5405407 0
0.53306478 2.4341719 0.67119175 0
0.49811491 2.4256067 -0.050290823 0
0.51872402 2.4484761 0.4161253 0
0.51475364 2.4440703 0.53883344 0
0.51655751 2.4460721 0.67022377 0
0.47682747 2.4314563 -0.049941622 0
0.50482792 2.4633257 0.41659886 0
0.49787435 2.4554112 0.5379191 0
0.50199956 2.4601064 0.67055798 0
0.46656403 2.4498026 -0.050196275 0
0.48711106 2.4737911 0.41565374 0
0.49015483 2.4773448 0.54174829 0
0.48442659 2.4706569 0.66908979 0
0.44840404 2.4589763 -0.050027702 0
0.47058019 2.4855366 0.41521841 0
0.4745681 2.4903128 0.54169416 0
0.47519013 2.4910579 0.67307001 0
0.44148073 2.4817746 -0.050498545 0
0.45195708 2.494648 0.41398999 0
0.45969102 2.5041516 0.54209858 0
0.45575902 2.49932 0.67059237 0
0.41693869 2.4828963 -0.049981005 0
0.44035634 2.5124242 0.41567197 0
0.43775478 2.5091438 0.53882259 0
0.43400678 2.5044179 0.66659719 0
0.40831468 2.5040252 -0.050385185 0
0.42322227 2.5233166 0.41516545 0
0.43034616 2.5325353 0.54343104 0
0.4312034 2.5336447 0.67541021 0
0.38208196 2.5022438 -0.049766619 0
0.41184285 2.541775 0.41714919 0
0.41216955 2.5422089 0.54232246 0
0.40719858 2.5356061 0.67002821 0
0.36493537 2.5121205 -0.049684554 0
0.38750806 2.5429029 0.41367722 0
0.3961226 2.5546505 0.54246086 0
0.39578012 2.5541835 0.67338264 0
0.35341445 2.5297809 -0.049954209 0
0.37940589 2.5661776 0.41727605 0
0.38615963 2.5756352 0.54617363 0
0.37896284 2.5655572 0.67311555 0
0.3381224 2.5423558 -0.050006725 0
0.36002156 2.5738533 0.41602814 0
0.3648816 2.5808434 0.5435124 0
0.35696444 2.5694561 0.66918868 0
0.32515487 2.5584373 -0.050218292 0
0.34280404 2.5845165 0.41578674 0
0.34894302 2.5935879 0.54400921 0
0.34296367 2.5847526 0.67113221 0
0.3084974 2.5691926 -0.050207444 0
0.32169881 2.5892389 0.41379899 0
0.32418665 2.5930166 0.53927797 0
0.32296309 2.5911589 0.66874021 0
0.28459111 2.5686247 -0.049725514 0
0.3036969 2.5984478 0.41326737 0
0.30970219 2.6078215 0.54078358 0
0.30426762 2.5993385 0.66736382 0
0.26731071 2.5780551 -0.04968062 0
0.28754649 2.6105349 0.41367361 0
0.2914938 2.6168706 0.54009312 0
0.29335865 2.619864 0.67213589 0
0.26145026 2.6062849 -0.050429862 0
0.27140948 2.6227281 0.41416925 0
0.2711983 2.6223793 0.53812027 0
0.26786038 2.6168683 0.66555291 0
0.24430044 2.6163828 -0.0504255 0
0.26012924 2.643275 0.41719475 0
0.25131235 2.6282957 0.53641844 0
0.2544823 2.6336813 0.66869003 0
0.21572299 2.6064944 -0.049608141 0
0.23431619 2.6390131 0.41294926 0
0.23436476 2.6390979 0.53669763 0
0.23705466 2.6438024 0.66869384 0
0.20560385 2.6286721 -0.050120622 0
0.21923347 2.6532218 0.41421863 0
0.21711738 2.6494102 0.53686988 0
0.21436198 2.6444473 0.66431415 0
0.18480195 2.6317921 -0.04986196 0
0.19967414 2.6593935 0.41320536 0
0.20294429 2.6654625 0.53929257 0
0.19796892 2.6562288 0.66533673 0
0.169064 2.6442134 -0.049990278 0
0.17998238 2.6651027 0.41213676 0
0.17988916 2.6649244 0.53553855 0
0.18164213 2.6682782 0.66657448 0
0.14356501 2.6375804 -0.049363095 0
0.15934493 2.6687195 0.41054761 0
0.16278584 2.6755095 0.53606576 0
0.15726627 2.6646175 0.66060811 0
0.13469823 2.6638224 -0.050060153 0
0.13954504 2.6736932 0.40942806 0
0.14335354 2.6814494 0.53494811 0
0.14157094 2.677819 0.66259831 0
0.1128309 2.6638761 -0.049722183 0
