# .PCD v0.7 - Point Cloud Data file format
VERSION 0.7
FIELDS x y z intensity
SIZE 4 4 4 4
TYPE F F F F
COUNT 1 1 1 1
WIDTH 1360
HEIGHT 1
VIEWPOINT 0 0 0 1 0 0 0
POINTS 1360
DATA ascii
-1.2382792 0.54499745 0.58909839 0
-1.6253082 0.11338102 -0.049791854 0
-1.3749253 0.38088894 0.048710752 0
-1.3756262 0.38014007 0.13467966 0
-1.3754672 0.38030994 0.22190072 0
-1.3777479 0.3778733 0.31227753 0
-1.2713339 0.49156547 0.35358 0
-1.2457767 0.51887077 0.42307636 0
-1.2413541 0.52359581 0.50677621 0
-1.2420133 0.52289146 0.60013688 0
-1.6093817 0.1016426 -0.049713686 0
-1.3590871 0.37589765 0.04845782 0
-1.3526113 0.3829934 0.13277563 0
-1.3474629 0.38863462 0.21737005 0
-1.3518339 0.38384515 0.30667105 0
-1.2539752 0.49107176 0.34978074 0
-1.2323731 0.51474184 0.42056504 0
-1.2435127 0.50253576 0.5152477 0
-1.2422032 0.50397068 0.60845381 0
-1.5982097 0.084639065 -0.049897633 0
-1.3386325 0.37635916 0.047956705 0
-1.3362435 0.379044 0.13191335 0
-1.3319992 0.38381386 0.21614891 0
-1.3408474 0.37387002 0.30668515 0
-1.2461263 0.48032016 0.35068986 0
-1.2474043 0.4788838 0.43576056 0
-1.2388903 0.4884522 0.51893419 0
-1.2392122 0.48809052 0.61426258 0
-1.5863919 0.068177454 -0.050060663 0
-1.3251755 0.36929005 0.047829196 0
-1.3227479 0.37208843 0.1315176 0
-1.3242162 0.37039584 0.2170404 0
-1.3236645 0.37103188 0.30433556 0
-1.2478679 0.45840502 0.35654971 0
-1.2383895 0.46933109 0.43626827 0
-1.2413456 0.46592355 0.52821314 0
-1.2397105 0.46780837 0.62349391 0
-1.5776054 0.047948357 -0.050405111 0
-1.3088285 0.36577415 0.047544871 0
-1.3076686 0.36714578 0.13086681 0
-1.3122786 0.36169434 0.21683174 0
-1.3029833 0.37268603 0.3005825 0
-1.2515755 0.4334752 0.36365145 0
-1.2339927 0.45426667 0.43982115 0
-1.2391733 0.44814068 0.53426373 0
-1.2376565 0.44993424 0.63075233 0
-1.5499264 0.050251719 -0.049708642 0
-1.3031435 0.34963518 0.047857083 0
-1.2999429 0.35351801 0.13145891 0
-1.3025266 0.35038358 0.21727039 0
-1.2980845 0.3557725 0.30309394 0
-1.2493788 0.41485953 0.36793724 0
-1.2440768 0.42129159 0.45297754 0
-1.2377685 0.42894453 0.54118603 0
-1.2379624 0.42870933 0.64053112 0
-1.5412058 0.029735917 -0.050080236 0
-1.2912655 0.3408497 0.047832698 0
-1.2933102 0.33830458 0.13227713 0
-1.2837521 0.3502019 0.21515857 0
-1.2872533 0.34584391 0.30331445 0
-1.2515507 0.39028472 0.37473491 0
-1.2407416 0.40373939 0.45774266 0
-1.2361253 0.40948546 0.54821891 0
-1.2409388 0.40349388 0.6532442 0
-1.5227276 0.021253699 -0.049907584 0
-1.2779909 0.3338722 0.047733389 0
-1.2798882 0.33144873 0.13195811 0
-1.2745384 0.33828235 0.21581036 0
-1.2833872 0.32697922 0.30647263 0
-1.2516524 0.36751622 0.38069108 0
-1.2381876 0.38471568 0.46325701 0
-1.238937 0.38375825 0.55917889 0
-1.2410706 0.38103294 0.66372967 0
-1.5137907 0.00045823536 -0.050299961 0
-1.2749124 0.31363899 0.048237775 0
-1.2729895 0.31615984 0.13280493 0
-1.2751778 0.31329083 0.21944736 0
-1.2732779 0.31578183 0.30715609 0
-1.2530833 0.3422578 0.38763168 0
-1.2463784 0.35104829 0.47636092 0
-1.2418871 0.35693663 0.57070047 0
-1.2400836 0.35930103 0.67356992 0
-1.4909807 -0.0021354011 -0.049884137 0
-1.2676823 0.29839253 0.048517395 0
-1.2749312 0.28863651 0.13529359 0
-1.2703949 0.29474175 0.22160119 0
-1.2745595 0.28913677 0.31278387 0
-1.2470938 0.32610172 0.3907274 0
-1.2454991 0.3282479 0.48368394 0
-1.2441313 0.33008873 0.5821079 0
-1.2412592 0.33395422 0.68599862 0
-1.4740714 -0.012387877 -0.049822319 0
-1.2765137 0.26061094 0.049791604 0
-1.2768267 0.26017833 0.13788044 0
-1.2792447 0.25683701 0.22805788 0
-1.2716314 0.26735759 0.3168231 0
-1.2476845 0.30044901 0.39772615 0
-1.2394327 0.31185186 0.48767316 0
-1.2355379 0.31723404 0.58475208 0
-1.2467871 0.30168909 0.70336825 0
-1.4587272 -0.024791485 -0.049864344 0
-1.1741726 0.37903565 0.044227485 0
-1.1756767 0.37690115 0.12135436 0
-1.1689657 0.38642514 0.19747971 0
-1.3330263 0.15359771 0.34954628 0
-1.2364906 0.29059678 0.39822936 0
-1.2416894 0.2832188 0.4978641 0
-1.2423306 0.28230906 0.60094815 0
-1.4465275 -0.041836981 -0.050115366 0
-1.1517203 0.38793272 0.043509092 0
-1.154309 0.38415867 0.11940305 0
-1.1552589 0.382774 0.1966092 0
-1.3127799 0.15314019 0.34669334 0
-1.2400532 0.259161 0.40749314 0
-1.2416055 0.25689811 0.50679201 0
-1.2385449 0.26135981 0.60847318 0
-1.4324942 -0.056460265 -0.050266936 0
-1.1400666 0.38156325 0.043464236 0
-1.1406506 0.38068849 0.11888922 0
-1.1389928 0.3831718 0.19490558 0
-1.3037843 0.13633263 0.34895837 0
-1.2358644 0.23806906 0.41252366 0
-1.2341521 0.24063385 0.51063943 0
-1.2414347 0.22972536 0.62239218 0
-1.4152987 -0.066417582 -0.050226189 0
-1.1221205 0.38493538 0.0430113 0
-1.1225166 0.3843255 0.1174909 0
-1.1246047 0.38111085 0.19378883 0
-1.2871479 0.13087285 0.34778729 0
-1.2391088 0.20482993 0.42235318 0
-1.2378972 0.2066952 0.52322817 0
-1.2391005 0.20484269 0.63214767 0
-1.3925451 -0.067529447 -0.049821403 0
-1.1052184 0.38724923 0.042616226 0
-1.1056916 0.38650036 0.11631867 0
-1.1112365 0.37772393 0.19300258 0
-1.2664346 0.13207746 0.34467772 0
-1.2358299 0.18051815 0.42857549 0
-1.2439173 0.16771746 0.53816181 0
-1.2351402 0.18160999 0.64086688 0
-1.3768048 -0.079518445 -0.049887538 0
-1.0902585 0.38693005 0.042343471 0
-1.0941247 0.38063675 0.11619618 0
-1.0922087 0.38375545 0.19026467 0
-1.2550923 0.11860871 0.34606412 0
-1.2440729 0.13654649 0.44244242 0
-1.2418399 0.14018142 0.54738367 0
-1.240276 0.14272726 0.6587382 0
-1.3605338 -0.090715773 -0.049928527 0
-1.0778067 0.3827818 0.042239841 0
-1.0778558 0.38269937 0.11510078 0
-1.0727578 0.39123726 0.18729314 0
-1.2488636 0.096304052 0.35010839 0
-1.2409115 0.10962176 0.44955957 0
-1.2421646 0.1075232 0.55901927 0
-1.2422576 0.10736739 0.67438483 0
-1.3431104 -0.099990495 -0.04989836 0
-1.0622516 0.38412428 0.041916832 0
-1.0621967 0.38421875 0.11410639 0
-1.0675361 0.3750152 0.18933678 0
-1.2460595 0.067295544 0.35612378 0
-1.2464011 0.066706769 0.46279067 0
-1.2375748 0.081920616 0.56719089 0
-1.237635 0.081816904 0.68422902 0
-1.3320998 -0.12060977 -0.050342299 0
-1.0463669 0.38651145 0.041561358 0
-1.0502082 0.37969387 0.11388904 0
-1.0492189 0.3814497 0.18668962 0
-1.2545398 0.017044419 0.3683278 0
-1.2345909 0.052450057 0.46495798 0
-1.2348962 0.051908132 0.57742804 0
-1.3112568 -0.12391175 -0.050084174 0
-1.0312461 0.38802063 0.041252211 0
-1.0378762 0.37589896 0.11360231 0
-1.03461 0.38187039 0.1853444 0
-1.2478566 -0.0079999026 0.37308669 0
-1.2445278 -0.0019137911 0.48237604 0
-1.2436461 -0.00030196228 0.59808648 0
-1.289802 -0.12567937 -0.049776394 0
-1.0212411 0.38035125 0.041323826 0
-1.0229192 0.3771894 0.11271774 0
-1.0194609 0.38370556 0.18375704 0
-1.2408208 -0.033387665 0.37793747 0
-1.2407972 -0.03334308 0.49099264 0
-1.2452854 -0.041799787 0.61353439 0
-1.2758389 -0.14153516 -0.050047163 0
-1.0085976 0.37769359 0.04119882 0
-1.0105597 0.37388134 0.11241753 0
-1.0020574 0.39040059 0.18123299 0
-1.2399215 -0.071750648 0.38650557 0
-1.2433604 -0.078432091 0.5046823 0
-1.2376802 -0.067395933 0.62146813 0
-1.258693 -0.15144598 -0.050086085 0
-0.98962009 0.38792592 0.040566698 0
-0.99067187 0.38581759 0.11030712 0
-0.99412268 0.37890029 0.18243624 0
-1.2375581 -0.10908008 0.39472857 0
-1.2409654 -0.11591006 0.51544446 0
-1.2378241 -0.10961319 0.63708711 0
-1.2387404 -0.15561879 -0.049905837 0
-0.97671056 0.38662153 0.040405355 0
-0.97984338 0.38013852 0.11034204 0
-0.98318952 0.37321407 0.18248768 0
-1.238873 -0.15589309 0.40559745 0
-1.2412411 -0.16079378 0.528889 0
-1.221841 -0.16602564 -0.049982291 0
-0.96354771 0.38612276 0.040219635 0
-0.96206015 0.38930261 0.10863188 0
-0.96401262 0.38512897 0.17906182 0
-1.2405168 -0.20594871 0.41731113 0
-1.2410572 -0.20710373 0.54277718 0
-1.2057794 -0.17842245 -0.050144657 0
-0.95439219 0.37708175 0.040376224 0
-0.9534725 0.37911403 0.10924081 0
-0.95420641 0.37749231 0.17957371 0
-1.2407898 -0.25578678 0.42889157 0
-1.2420665 -0.25860798 0.55848414 0
-1.1859229 -0.18243754 -0.049987417 0
-0.94006032 0.37959325 0.040086288 0
-0.93658274 0.3875429 0.10767524 0
-0.9407289 0.37806499 0.17849118 0
-1.2356558 -0.29612482 0.4377619 0
-1.2383113 -0.30219519 0.57122529 0
-1.1737146 -0.20427692 -0.050531551 0
-0.93184566 0.36814791 0.040345833 0
-0.92460448 0.38528544 0.10738961 0
-0.92594481 0.38211334 0.17676719 0
-1.2420447 -0.36599171 0.4547818 0
-1.1480901 -0.1942395 -0.049849823 0
-0.91582519 0.37535524 0.039888881 0
-0.91602117 0.37487459 0.1080693 0
-0.91468853 0.37814277 0.1766502 0
-1.2401181 -0.41992414 0.46730193 0
-1.1312259 -0.20517838 -0.049988553 0
-0.90241247 0.37680537 0.039662804 0
-0.89721406 0.39002746 0.10580612 0
-0.90095222 0.38051951 0.17533131 0
-1.2390496 -0.47942615 0.48129374 0
-1.1137042 -0.21466601 -0.050079338 0
-0.88633883 0.38572705 0.039159033 0
-0.88773823 0.3820318 0.10624114 0
-0.89295328 0.36826062 0.17687458 0
-1.2397035 -0.54738641 0.49753025 0
-1.09472 -0.22033608 -0.050033059 0
-0.87739271 0.37611961 0.039369337 0
-0.87705082 0.37705803 0.10634223 0
-0.87488097 0.38301307 0.1732454 0
-1.0758493 -0.22624087 -0.050004929 0
-0.86191922 0.38469857 0.038895052 0
-0.86434042 0.37778407 0.10580919 0
-0.86271363 0.38243002 0.17260617 0
-1.0581516 -0.23558366 -0.050115373 0
-0.8511281 0.38039005 0.038915511 0
-0.84837502 0.38858151 0.10415473 0
-0.8515836 0.37903476 0.17253391 0
-1.037832 -0.23705137 -0.049938366 0
-0.83908933 0.37990141 0.038797721 0
-0.83867329 0.3811928 0.10458307 0
-0.83827204 0.38243848 0.17120031 0
-1.0209205 -0.24916089 -0.050169192 0
-0.82591891 0.38335919 0.038538631 0
-0.82509971 0.38601649 0.1036501 0
-0.82742369 0.37847823 0.17129335 0
-1.0023128 -0.25609863 -0.050214626 0
-0.81497973 0.37988245 0.038544767 0
-0.81344789 0.38508278 0.10338479 0
-0.81501824 0.37975162 0.17042777 0
-0.9829855 -0.26060545 -0.050178461 0
-0.80296391 0.38021535 0.038414724 0
-0.80455565 0.37454915 0.10420847 0
-0.8016457 0.38490784 0.16886723 0
-0.96352416 -0.26452446 -0.050129697 0
-0.78988421 0.3848753 0.038130816 0
-0.79032117 0.38324118 0.10290311 0
-0.78850591 0.39002997 0.16734977 0
-0.94532233 -0.27327621 -0.050268143 0
-0.77780837 0.38638836 0.10223663 0
-0.77862859 0.38315845 0.16809969 0
-0.9227351 -0.26423037 -0.049761076 0
-0.7670297 0.38298738 0.16762754 0
-0.9047938 -0.27402472 -0.049955666 0
-0.75383103 0.39014399 0.16582856 0
-0.88322192 -0.26753151 -0.049563322 0
-0.74470043 0.37949044 0.16734993 0
-0.86451584 -0.27391052 -0.049650617 0
-0.73331696 0.37896007 0.16702643 0
-0.84598714 -0.28158367 -0.049793284 0
-0.82755315 -0.29040074 -0.049985565 0
-0.80918181 -0.3004725 -0.050231233 0
-0.78962713 -0.30380154 -0.050241418 0
-0.76971447 -0.30457842 -0.050168503 0
-0.75020897 -0.30826104 -0.050209261 0
-0.73047644 -0.3101809 -0.050195474 0
-0.71042335 -0.30875909 -0.050070748 0
-0.69003618 -0.30241597 -0.049778875 0
-0.67043507 -0.30410933 -0.049784131 0
-0.65055913 -0.30132592 -0.0496381 0
-0.63143599 -0.31235921 -0.049994931 0
-0.61175406 -0.31462026 -0.050046839 0
-0.59199899 -0.31536663 -0.0500535 0
-0.57215595 -0.30763006 -0.049766175 0
-0.55247426 -0.312024 -0.049920831 0
-0.53265166 -0.31824207 -0.050149508 0
-0.51278013 -0.32038343 -0.050241571 0
-0.49328929 -0.31156182 -0.049950901 0
-0.47396347 -0.30343473 -0.04969364 0
-0.47571704 -0.27069843 0.060523238 0
-0.47104689 -0.35788226 0.17951082 0
-0.45430541 -0.30302536 -0.049721003 0
-0.49597609 0.32640898 0.039200194 0
-0.45099401 -0.35304391 0.17912059 0
-0.43515348 -0.29591286 -0.049517199 0
-0.48418227 0.32579571 0.039252494 0
-0.41481614 -0.30329239 -0.049841352 0
-0.4747299 0.35118467 0.038377974 0
-0.39547139 -0.29891598 -0.049753141 0
-0.46330732 0.35174537 0.038397789 0
-0.37522766 -0.30273187 -0.049968015 0
-0.44924468 0.32987791 0.039228968 0
-0.44223177 0.26993984 0.11251247 0
-0.44054836 0.25555205 0.18735552 0
-0.44197908 0.26778013 0.2594153 0
-0.44149372 0.26363188 0.33784506 0
-0.44119 0.26103598 0.42006135 0
-0.35617891 -0.29613864 -0.049817678 0
-0.43439719 0.30653214 0.040121101 0
-0.42888179 0.26403618 0.11331787 0
-0.42827412 0.25935423 0.18694603 0
-0.4293597 0.26771843 0.2598252 0
-0.42836732 0.26007205 0.33955529 0
-0.42922589 0.26668739 0.41834566 0
-0.43079594 0.27878475 0.49819401 0
-0.33502108 -0.30506301 -0.05023532 0
-0.42071056 0.29579711 0.040566798 0
-0.4187572 0.28210002 0.11154111 0
-0.42108011 0.29838836 0.18014562 0
-0.41949481 0.2872721 0.25522161 0
-0.42085811 0.29683179 0.32777435 0
-0.42035758 0.29332197 0.40791416 0
-0.41918471 0.28509766 0.49584824 0
-0.3185128 -0.28214598 -0.049512956 0
-0.40571493 0.27870154 0.041249398 0
-0.40503937 0.27435654 0.11258156 0
-0.40628749 0.28238392 0.18339381 0
-0.40554246 0.2775923 0.25818905 0
-0.40530071 0.27603734 0.33538008 0
-0.4058198 0.27937591 0.41451266 0
-0.40774995 0.29178995 0.49337974 0
-0.29720482 -0.29077911 -0.04993882 0
-0.39178658 0.27085447 0.041605439 0
-0.390443 0.26287639 0.11405025 0
-0.39119208 0.26732433 0.18651012 0
-0.39105609 0.2665168 0.26156932 0
-0.39100426 0.26620907 0.33936825 0
-0.3918916 0.27147818 0.41866252 0
-0.39673516 0.30023968 0.4900873 0
-0.27575511 -0.29849315 -0.050342035 0
0.068834268 -2.198297 0.13127416 0
-0.38571003 0.30771464 0.48735344 0
-0.25936711 -0.27866518 -0.049754351 0
0.11503705 -2.2044361 0.13179417 0
-0.37634557 0.3230207 0.480692 0
-0.24006931 -0.27488387 -0.049757738 0
0.16099872 -2.2075737 0.13222729 0
-0.36516634 0.32794094 0.47938043 0
-0.22012655 -0.27399957 -0.049875923 0
0.20513089 -2.2009709 0.13232663 0
-0.35753611 0.34864521 0.47004986 0
-0.20104031 -0.26907396 -0.049855478 0
0.25084087 -2.2007744 0.1326815 0
-0.34760022 0.35743994 0.46686077 0
-0.1790155 -0.27608061 -0.050282612 0
0.29721889 -2.2022073 0.13311854 0
-0.0047598272 -0.98085642 0.25344652 0
-0.0051628738 -0.97922635 0.4209474 0
-0.33947614 0.37290144 0.46029001 0
-0.16235234 -0.26131022 -0.049917929 0
0.34270349 -2.1989627 0.13340594 0
-0.32759696 0.37265259 0.46187362 0
-0.14407484 -0.25338948 -0.0498133 0
0.39206806 -2.2090769 0.13421005 0
-0.31623164 0.37458652 0.46240774 0
-0.12348247 -0.25376976 -0.050025206 0
-0.30193636 0.36644125 0.46826583 0
-0.10322443 -0.25251198 -0.050186493 0
-0.30462393 0.41566759 0.44425914 0
-0.086131372 -0.24082422 -0.049967527 0
-0.29025403 0.40676522 0.450634 0
-0.068850614 -0.23019087 -0.049795356 0
-0.28531602 0.42755419 0.44149086 0
-0.045124032 -0.23870826 -0.050353464 0
-0.26135981 0.39150298 0.46240789 0
-0.031127373 -0.2188108 -0.04984815 0
-0.0090462947 -0.22168815 -0.050214559 0
0.0075803609 -0.20970535 -0.050024703 0
0.026995799 -0.20503843 -0.050123271 0
0.046434902 -0.20023894 -0.050226659 0
0.061785959 -0.1857394 -0.049963132 0
0.082977675 -0.18481505 -0.050236125 0
-0.18752967 0.42309612 0.38269195 0
0.096689664 -0.16716754 -0.049863949 0
0.11736717 -0.16477287 -0.050099317 0
-0.16556649 0.43025512 0.38380063 0
-0.20224555 0.5073936 0.49649084 0
0.1333691 -0.15247262 -0.049952492 0
0.55509239 -1.0113294 0.46120918 0
-0.16404231 0.45321804 0.37551469 0
-0.19396819 0.51416332 0.49501184 0
0.15002246 -0.14167988 -0.049873106 0
0.58572441 -1.0014696 0.46208408 0
-0.15234901 0.45500284 0.37701467 0
-0.18278302 0.51505965 0.49749735 0
0.16935714 -0.13613129 -0.050012868 0
0.6149475 -0.98863935 0.46243861 0
-0.13428418 0.44479847 0.38419428 0
-0.17723466 0.52697176 0.49272177 0
0.18871661 -0.13041425 -0.050156593 0
0.6449247 -0.9770937 0.46313381 0
-0.12844513 0.45820832 0.38042331 0
-0.17318408 0.54123962 0.48637366 0
0.2035162 -0.11626852 -0.049967069 0
0.68398219 -0.98169351 0.46724197 0
-0.11257375 0.45307899 0.38544005 0
-0.1681986 0.55327153 0.48153216 0
0.22520049 -0.11442686 -0.050289817 0
0.72463781 -0.98792219 0.47182 0
-0.083182789 0.42492276 0.40157038 0
-0.1537502 0.54834229 0.48828533 0
0.23608644 -0.093784578 -0.049847383 0
0.75630587 -0.97761154 0.47307763 0
-0.063883461 0.41584951 0.40882975 0
-0.14550067 0.55451304 0.48757496 0
0.25225338 -0.08245755 -0.049796082 0
0.80165964 -0.98954725 0.4791193 0
-0.05659423 0.42746127 0.40624911 0
-0.13571273 0.55808878 0.48873019 0
0.27221963 -0.077291138 -0.050012045 0
0.84325677 -0.99384832 0.48370713 0
-0.12513669 0.56049538 0.49079719 0
0.29147336 -0.070724376 -0.050180998 0
0.88005322 -0.98945856 0.48658246 0
-0.11793558 0.56833571 0.48914731 0
0.30625775 -0.057148699 -0.050062064 0
0.90495151 -0.9662621 0.48552018 0
0.019382438 0.37846982 0.44020557 0
-0.10827739 0.57232064 0.49028555 0
0.32279524 -0.046307448 -0.050067984 0
0.95522565 -0.98081708 0.49273777 0
0.029623052 0.38689768 0.43965766 0
-0.10115889 0.58014739 0.48876914 0
0.34249035 -0.039995078 -0.050279897 0
0.99429065 -0.9774754 0.49622622 0
0.042305075 0.39175946 0.44096798 0
-0.10865409 0.60888302 0.47220138 0
0.35548964 -0.024043685 -0.050081693 0
0.051380776 0.40181196 0.43973014 0
-0.10015307 0.61401075 0.4726195 0
0.36895576 -0.0089600142 -0.049927279 0
0.073265217 0.3942734 0.44757092 0
-0.088678725 0.61511648 0.47607774 0
0.38889006 -0.0026438287 -0.050170738 0
1.1300764 -0.98716068 0.10616641 0
1.1284443 -0.98499298 0.30723292 0
0.096340381 0.38594961 0.45603549 0
-0.084168859 0.62571985 0.47262532 0
0.40612611 0.0074500986 -0.0502574 0
0.10815861 0.39303845 0.45666939 0
-0.079030372 0.63527256 0.46996894 0
0.41937801 0.022670979 -0.050121155 0
0.12136468 0.3984428 0.45827806 0
-0.071128316 0.64116162 0.4701077 0
0.43404147 0.036010142 -0.05007777 0
-0.064506985 0.64863628 0.46911126 0
0.45034954 0.047336575 -0.050136074 0
-0.053434826 0.65071666 0.47233593 0
0.4694272 0.055497762 -0.050353408 0
-0.042231239 0.65285641 0.47565746 0
0.47674116 0.077285044 -0.049936954 0
-0.038171627 0.66334331 0.47253719 0
0.48849937 0.093706481 -0.049778026 0
1.2041427 -0.70042431 0.099943168 0
-0.037826158 0.67775619 0.46628773 0
0.50850874 0.10103976 -0.050066207 0
1.2129391 -0.66112781 0.099118598 0
-0.023116508 0.67623883 0.4728331 0
0.52173716 0.1158272 -0.050003499 0
0.38068053 0.26464164 0.054683194 0
-0.020145455 0.68751198 0.46915606 0
0.53505439 0.1304642 -0.049955748 0
0.38399181 0.28586817 0.054218341 0
0.83511072 -0.17821527 0.22070386 0
0.54969317 0.14373231 -0.049984805 0
0.39841357 0.29548866 0.054334771 0
0.84121376 -0.14870715 0.21890397 0
0.56857926 0.15287864 -0.050234031 0
0.4162508 0.3018868 0.054626435 0
0.74556619 -0.020250445 0.20188542 0
0.74812919 -0.022757655 0.33537006 0
0.73453659 -0.0094612893 0.46709532 0
0.0011282178 0.70796078 0.46936435 0
0.57895309 0.1703918 -0.050066009 0
0.41832367 0.32361001 0.054140836 0
0.83124191 -0.070256718 0.21224177 0
0.18942 0.54195225 0.34937209 0
0.0086618876 0.71437043 0.46993685 0
0.59016901 0.18696404 -0.049951825 0
0.45814273 0.30976146 0.055514678 0
0.83309251 -0.038978461 0.21008174 0
0.18531658 0.56351632 0.34345922 0
0.60188586 0.20297766 -0.049873192 0
0.83529073 -0.0086934622 0.073122352 0
0.83543652 -0.0088256653 0.20807527 0
0.19711025 0.5700621 0.34487602 0
0.61645919 0.21639562 -0.049941223 0
0.84485167 0.014452452 0.072825387 0
0.83288366 0.025034422 0.20544331 0
0.84441131 0.014841789 0.34346923 0
0.21020176 0.57560623 0.34689024 0
0.029361567 0.73550409 0.47050041 0
0.63481349 0.22662199 -0.05019474 0
0.83720464 0.052159902 0.071734346 0
0.83982819 0.049898382 0.20424813 0
0.84008664 0.049675699 0.33874997 0
0.22798844 0.57730705 0.3509759 0
0.042290889 0.73737925 0.47554532 0
0.640701 0.24756169 -0.049870279 0
0.83451945 0.084697716 0.070908435 0
0.83476716 0.084489577 0.20142446 0
0.83652359 0.083013527 0.3343637 0
0.91920084 0.01354062 0.49807477 0
0.2584627 0.5687533 0.3605414 0
0.27565262 0.55430871 0.45652103 0
0.045613252 0.74760878 0.47311378 0
0.65511483 0.2612263 -0.049954839 0
0.83415335 0.11458778 0.070217021 0
0.84320599 0.10717344 0.20056592 0
0.84514993 0.10558128 0.33296233 0
0.94887251 0.020629043 0.5027464 0
0.295441 0.55581099 0.37275922 0
0.25441262 0.5894146 0.44047201 0
0.048580073 0.75799817 0.47053388 0
0.66575092 0.27798659 -0.049873892 0
0.85142511 0.12977993 0.07035549 0
0.84052199 0.13848281 0.19822595 0
0.8462612 0.13390172 0.32990673 0
0.97740906 0.02921843 0.50703007 0
0.27262363 0.59178406 0.35933107 0
0.25494418 0.605896 0.43635255 0
0.062324189 0.75964689 0.47625741 0
0.67697054 0.29422468 -0.049829718 0
0.84883207 0.16055095 0.069602855 0
0.83462733 0.17159951 0.1955256 0
0.84460348 0.16384006 0.32633013 0
0.25327829 0.62377185 0.43122998 0
0.071979605 0.76478565 0.47886899 0
0.69916421 0.30211163 -0.05028674 0
0.8566106 0.18280113 0.06933938 0
0.84721631 0.18992007 0.19539973 0
0.84044474 0.19505143 0.32230732 0
0.26014808 0.63479114 0.43070775 0
0.080071233 0.77125055 0.48034054 0
0.70260984 0.32424194 -0.049912035 0
0.85755306 0.20987082 0.068787493 0
0.83341891 0.22768533 0.19178142 0
0.85170144 0.21419013 0.32186571 0
0.28145096 0.6351198 0.43768954 0
0.072665296 0.78923458 0.47043535 0
0.71591967 0.33895946 -0.049986735 0
0.84647304 0.24510813 0.067727014 0
0.84427088 0.24669111 0.19152141 0
0.83402103 0.25405943 0.31505457 0
0.084428154 0.79292262 0.4747861 0
0.73314935 0.35100156 -0.050239708 0
0.84730226 0.27110064 0.067214251 0
0.83275121 0.28128552 0.18836053 0
0.84077471 0.27566952 0.31379306 0
0.83826321 0.27742749 0.44064027 0
0.094519816 0.79800785 0.47792265 0
0.74236411 0.36872429 -0.050150849 0
0.88430125 0.27201551 0.068282619 0
0.82835156 0.3101368 0.18620944 0
0.83582777 0.30504286 0.31004852 0
0.84657484 0.29772037 0.43944302 0
0.11750408 0.7944718 0.49033061 0
0.75113255 0.38667148 -0.050053213 0
0.92201561 0.27336437 0.069373243 0
0.83574134 0.3305701 0.18564352 0
0.84311217 0.3256827 0.30906227 0
0.83540589 0.33079249 0.43237087 0
0.11731555 0.80693489 0.48611447 0
0.76060039 0.40408921 -0.049995724 0
0.95502192 0.27867001 0.070255749 0
0.83881813 0.35363179 0.18456362 0
0.8381471 0.35406464 0.30551103 0
0.84337944 0.35068935 0.43129477 0
0.12178447 0.81618249 0.48533058 0
0.76962787 0.42173916 -0.04992941 0
1.0024668 0.27565598 0.071742669 0
0.84254795 0.37598908 0.18361206 0
0.83781523 0.3789584 0.30305058 0
0.83275884 0.38213074 0.42470253 0
0.13674702 0.81880891 0.49198139 0
0.78981835 0.43252867 -0.050339755 0
1.0272714 0.28768492 0.072269827 0
0.83590692 0.40441513 0.18139783 0
0.84285933 0.4001742 0.3018111 0
0.83696288 0.40377098 0.42270985 0
0.13725545 0.83058494 0.48856348 0
0.78725678 0.45714664 -0.04980842 0
1.0726926 0.28792799 0.073655039 0
0.8454414 0.4226523 0.18126583 0
0.8449828 0.42292422 0.30002475 0
0.83502871 0.42882538 0.41899261 0
0.13679655 0.84276766 0.48460668 0
0.80260092 0.47102296 -0.050031446 0
0.85282391 0.44209701 0.18089651 0
0.84479779 0.44671965 0.2978307 0
0.83800226 0.45063347 0.41684034 0
0.15014477 0.84680605 0.49023318 0
0.82209224 0.48276359 -0.050429724 0
0.84445399 0.47025663 0.17862032 0
0.83758253 0.47409981 0.29426146 0
0.82717699 0.47991967 0.41075 0
0.15751274 0.85446483 0.49179122 0
0.81654471 0.50842071 -0.049814165 0
0.85198396 0.48918116 0.17834748 0
0.8376413 0.49696761 0.2922802 0
0.84831923 0.49117076 0.41408888 0
0.83082706 0.52314633 -0.050015897 0
0.84583741 0.51524049 0.17644428 0
0.84157807 0.51748383 0.29116142 0
0.83602709 0.52040756 0.40780568 0
0.84420282 0.53849834 -0.050187446 0
0.84736139 0.5368852 0.17551862 0
0.84386629 0.53867018 0.28976846 0
0.83665806 0.54235154 0.40537077 0
0.83600706 0.54268396 0.52653944 0
0.83709186 0.5641284 -0.049549576 0
0.85318917 0.55616128 0.17514758 0
0.83402699 0.5656454 0.2859976 0
0.83800906 0.56367445 0.4032349 0
0.84443182 0.56049562 0.52638161 0
0.85826701 0.57570386 -0.05004824 0
0.86177093 0.57402426 0.17513601 0
0.82800752 0.59020907 0.28308153 0
0.84380287 0.58263737 0.40244505 0
0.84300476 0.58301997 0.52267301 0
0.86665422 0.59360367 -0.050046463 0
0.91147691 0.57280743 0.18002336 0
0.83998042 0.60597944 0.28382128 0
0.83745772 0.6071499 0.39831302 0
0.84034795 0.60580897 0.51863927 0
0.87644142 0.61087734 -0.050108321 0
0.92854577 0.58749533 0.18103687 0
0.8552826 0.62037241 0.2852543 0
0.83914131 0.62761587 0.39653602 0
0.83256143 0.63056862 0.51286262 0
0.88529629 0.62860626 -0.050142054 0
0.97483414 0.58977282 0.18548943 0
0.83701783 0.64954513 0.28011671 0
0.84332937 0.64680779 0.39553702 0
0.83491284 0.6504581 0.51090717 0
0.88471919 0.65031481 -0.049819198 0
0.99925441 0.60234398 0.18737398 0
0.8360886 0.67068279 0.27846771 0
0.83605009 0.67069894 0.39143839 0
0.83755618 0.67006814 0.5091579 0
0.89526576 0.66728598 -0.049936861 0
1.0297896 0.61292398 0.18997614 0
0.83281988 0.6925208 0.2764239 0
0.84430462 0.68787974 0.39171812 0
0.84658402 0.68695861 0.50979739 0
0.90622169 0.68419009 -0.050077841 0
1.0767325 0.61777055 0.19447337 0
0.85100907 0.70569724 0.27859661 0
0.8392579 0.7102747 0.38841388 0
0.83362228 0.71246994 0.50265855 0
0.27243993 0.9310689 0.45159456 0
0.91309565 0.70273489 -0.050070647 0
0.85299271 0.72527957 0.27766964 0
0.83548015 0.7318486 0.38554803 0
0.83530754 0.73191333 0.50087231 0
0.27954134 0.94038159 0.45324954 0
0.91692799 0.72237515 -0.049956925 0
0.84822458 0.74716359 0.27549973 0
0.83558768 0.75172305 0.38382283 0
0.83795828 0.75086772 0.49952245 0
0.26302275 0.95830697 0.44239584 0
0.93029302 0.73862934 -0.050213262 0
0.84968644 0.76657057 0.27458113 0
0.83329123 0.77225375 0.38152376 0
0.83639878 0.77117658 0.49678019 0
0.84069556 0.76968712 0.61865592 0
0.26433846 0.96947396 0.44115329 0
0.93840832 0.75682342 -0.050278731 0
0.85907906 0.78320777 0.27522027 0
0.84560162 0.78769034 0.38323131 0
0.83567995 0.79099023 0.49443397 0
0.84238738 0.78875935 0.61677986 0
0.29222539 0.97173953 0.45400092 0
0.93419307 0.77899861 -0.049890511 0
0.85106641 0.80548829 0.27260202 0
0.84093314 0.80871743 0.38043773 0
0.83927113 0.80924708 0.49368942 0
0.84822434 0.80639398 0.61681718 0
0.30653051 0.97901362 0.4596799 0
0.94179612 0.797288 -0.04995532 0
0.8335622 0.83028322 0.26825726 0
0.84196478 0.82772171 0.37924594 0
0.84066397 0.82811826 0.49226323 0
0.84868604 0.82567269 0.61462408 0
0.31405976 0.98865408 0.46184084 0
0.94671422 0.81640995 -0.049928639 0
0.86469251 0.84028989 0.27312252 0
0.84238404 0.84678477 0.37795952 0
0.83603674 0.84863275 0.48883876 0
0.82890993 0.85070765 0.60381675 0
0.3386732 0.99343574 0.47296008 0
0.95665389 0.834122 -0.050097033 0
0.89177305 0.85212851 0.27723643 0
0.83632916 0.86751586 0.37502706 0
0.84120923 0.86616153 0.48889914 0
0.84464937 0.86520678 0.60844326 0
0.32661906 1.0089765 0.46503216 0
0.97005051 0.8510474 -0.050400767 0
0.92341059 0.86336112 0.28221455 0
0.82834929 0.88845885 0.37166536 0
0.8509981 0.88247919 0.49062386 0
0.83983308 0.88542694 0.60433042 0
0.32778755 1.0206155 0.46407452 0
0.97784358 0.86960113 -0.050505165 0
0.96014029 0.87403744 0.2881501 0
0.83832258 0.90456384 0.37310579 0
0.84661967 0.90248471 0.48755461 0
0.84020811 0.90409136 0.60255516 0
0.32839593 1.0323471 0.46290669 0
0.9646855 0.89320445 -0.049849089 0
0.97945946 0.88969934 0.29086578 0
0.83354276 0.92431813 0.3707267 0
0.83771724 0.92332774 0.4830339 0
0.83301407 0.92444354 0.59766454 0
0.33012322 1.0437546 0.46239376 0
0.98048156 0.90985137 -0.050265063 0
1.0241959 0.90005982 0.29830787 0
0.84065181 0.94117165 0.37152785 0
0.84650272 0.93986112 0.48464602 0
0.83719534 0.94194585 0.59772307 0
0.34878609 1.0513443 0.47063959 0
0.96870476 0.93261373 -0.049681574 0
1.049143 0.91565716 0.30210689 0
0.83185703 0.96146154 0.36823553 0
0.83661765 0.96045798 0.47997665 0
0.83552247 0.96068883 0.59539771 0
0.36799929 1.0592438 0.4791939 0
0.98003811 0.95039123 -0.049951009 0
1.079949 0.93064028 0.30700973 0
0.8604241 0.97403717 0.37473458 0
0.84076291 0.97792387 0.48016506 0
0.84056228 0.97796357 0.59601092 0
0.37108883 1.0707716 0.4795543 0
0.98430151 0.96967047 -0.049971282 0
0.84722632 0.99497914 0.37042406 0
0.83922547 0.99645638 0.47850505 0
0.83877915 0.99653882 0.59384179 0
0.39061406 1.0792851 0.48835021 0
0.99394327 0.98804432 -0.050195139 0
0.85886294 1.0112299 0.37261987 0
0.8475545 1.0131708 0.48025793 0
0.83474022 1.0153702 0.59082806 0
0.38473454 1.0926102 0.48428476 0
0.99722105 1.0075912 -0.050196871 0
0.43050888 1.0975324 0.041711301 0
0.42039374 1.0991378 0.11239874 0
0.43763474 1.0964015 0.18770047 0
0.43013474 1.0975918 0.26110691 0
0.42931256 1.0977223 0.33838445 0
0.44178864 1.0957422 0.42488068 0
0.40207461 1.1020451 0.49207562 0
0.99570721 1.0278412 -0.05003462 0
0.41773841 1.1121225 0.041182157 0
0.41630861 1.112331 0.11175129 0
0.39667639 1.115194 0.17988753 0
0.40408054 1.1141142 0.25390071 0
0.39902005 1.1148522 0.32756311 0
0.40540394 1.1139212 0.40885448 0
0.40823534 1.1135083 0.49425969 0
0.99028748 1.0484984 -0.049741153 0
0.38622436 1.1288309 0.039985456 0
0.43216154 1.1227218 0.11328453 0
0.42672697 1.1234446 0.18504988 0
0.42604908 1.1235347 0.2591202 0
0.42333731 1.1238954 0.33516058 0
0.42546573 1.1236123 0.41652742 0
0.41123483 1.1255049 0.49491736 0
1.0026413 1.0668139 -0.050096598 0
0.38329557 1.1412553 0.039826017 0
0.42649618 1.1360629 0.11250043 0
0.42762229 1.1359274 0.18492734 0
0.42894205 1.1357689 0.25946045 0
0.43075404 1.1355511 0.33712161 0
0.43838152 1.1346343 0.42125967 0
0.99426621 1.0876119 -0.049715541 0
0.35731253 1.1560453 0.038844608 0
0.84040672 1.1041423 0.36467946 0
0.84319514 1.1038427 0.47465387 0
0.85016662 1.1030937 0.59214002 0
0.99560028 1.1072233 -0.049692523 0
0.34268168 1.1690667 0.038278155 0
0.86156684 1.1199187 0.36964604 0
0.85109311 1.1209108 0.47669715 0
0.83014113 1.1228954 0.58306611 0
1.0079542 1.1259177 -0.050073117 0
0.35846731 1.179194 0.03880772 0
0.84519345 1.1392686 0.36505023 0
0.84906155 1.1389514 0.47549555 0
0.84290749 1.1394562 0.58772784 0
1.0100147 1.1455983 -0.050093435 0
0.36543027 1.1903095 0.039025649 0
0.85576385 1.1562978 0.36741149 0
0.84136015 1.1572969 0.47247991 0
0.84296626 1.1571854 0.58719808 0
1.0105385 1.1653836 -0.050067656 0
0.84346634 1.1748604 0.36398217 0
0.8337391 1.1754121 0.46957022 0
0.83470625 1.1753572 0.58331144 0
1.0035084 1.1854868 -0.049780857 0
0.8476997 1.1923578 0.36483616 0
0.833314 1.1929922 0.46913448 0
0.8446973 1.1924902 0.58708578 0
0.99789339 1.2053463 -0.049553756 0
0.85137421 1.2099601 0.36560336 0
0.84300596 1.2102236 0.47214022 0
0.8384431 1.2103673 0.58421862 0
1.0014442 1.2248756 -0.049662929 0
0.84885913 1.2277578 0.36484754 0
0.84414238 1.2278469 0.47237054 0
0.8324638 1.2280675 0.58155918 0
1.0194238 1.2443941 -0.050296012 0
0.84904844 1.2454667 0.36483896 0
0.83246309 1.2455711 0.46841088 0
0.84484583 1.2454932 0.58659458 0
0.99880809 1.2641193 -0.049559988 0
0.84008533 1.2631199 0.36255214 0
0.83928031 1.2631149 0.47067899 0
0.84379011 1.2631433 0.5861575 0
1.0049948 1.2838347 -0.049789708 0
0.85034329 1.2809134 0.36522627 0
0.84556419 1.2808231 0.47284365 0
0.84381527 1.2807901 0.5862599 0
1.0025831 1.3034445 -0.049721267 0
0.86253291 1.2990345 0.36845174 0
0.83509129 1.2981703 0.46950576 0
0.84338325 1.2984314 0.58626503 0
1.0046549 1.3232069 -0.049821824 0
0.85026711 1.3163985 0.36549184 0
0.84036881 1.3159621 0.47148389 0
0.84519202 1.3161747 0.58729082 0
1.0063931 1.3430245 -0.049919423 0
0.85217422 1.3342768 0.36620739 0
0.84054893 1.3336173 0.47183943 0
0.83148164 1.3331031 0.58197421 0
1.0066805 1.3628136 -0.049974117 0
1.2921339 1.3826139 0.072189651 0
1.2890788 1.3824019 0.20491736 0
1.2924172 1.3826336 0.340415 0
0.84496146 1.351596 0.36464885 0
0.83968085 1.3512298 0.47191986 0
0.84398395 1.3515283 0.58762044 0
1.0105253 1.3829364 -0.050165217 0
1.2526584 1.4027981 0.070838712 0
1.2464205 1.4022864 0.20050718 0
1.0096345 1.3828633 0.28956309 0
0.86115736 1.3706839 0.36913681 0
0.83342594 1.3684092 0.47027621 0
0.83127064 1.3682324 0.58289355 0
1.0011121 1.4019419 -0.049890179 0
1.2480997 1.4253361 0.07074742 0
1.241818 1.4247411 0.20022689 0
0.9104107 1.3933508 0.27190384 0
0.84848243 1.387485 0.36629283 0
0.84521979 1.387176 0.47473443 0
0.84058493 1.386737 0.58740956 0
0.99768335 1.4213984 -0.049838241 0
0.63622266 1.3825636 0.048859365 0
0.6364997 1.3825933 0.13504674 0
0.63378805 1.382302 0.22206683 0
0.64113218 1.3830911 0.31354555 0
0.84108835 1.404574 0.47394893 0
0.84511191 1.4050063 0.59003514 0
0.99386007 1.4407737 -0.049780842 0
0.54801184 1.3871857 0.045748927 0
0.5530073 1.3877861 0.12619436 0
0.56270581 1.3889518 0.20946482 0
0.54426843 1.3867358 0.2890957 0
0.84045202 1.4223351 0.47440678 0
0.83768612 1.4220027 0.58777601 0
0.98684818 1.4596874 -0.049617283 0
0.55501205 1.4022588 0.046064448 0
0.56316739 1.4033433 0.1274876 0
0.54896396 1.4014544 0.20728926 0
0.55042523 1.4016489 0.29113191 0
0.83072096 1.4389246 0.47188801 0
0.84083837 1.4402699 0.59002072 0
0.99210042 1.480276 -0.049904492 0
0.55534059 1.4165862 0.046146687 0
0.55496913 1.416532 0.12681065 0
0.56241924 1.4176184 0.2100952 0
0.5488618 1.4156414 0.29122972 0
0.84080631 1.4582138 0.47609732 0
0.84404951 1.4586867 0.5923903 0
0.9796285 1.4982599 -0.049560938 0
0.55172747 1.430349 0.046093125 0
0.54009944 1.4285035 0.12542444 0
0.55546492 1.4309422 0.20921695 0
0.54602259 1.4294436 0.29104367 0
0.839935 1.4760896 0.47670597 0
0.84861988 1.4774679 0.59543163 0
0.9914158 1.520165 -0.050103586 0
0.56193191 1.4464474 0.046546232 0
0.54468864 1.4434878 0.1261735 0
0.55026573 1.444445 0.20868866 0
0.55853397 1.4458642 0.2948758 0
0.83900219 1.4940044 0.47737104 0
0.83634907 1.493549 0.59150386 0
0.99160701 1.5403215 -0.050236508 0
0.5498932 1.4587663 0.046200216 0
0.55642098 1.4599715 0.12772553 0
0.55485791 1.4596829 0.20998599 0
0.55185229 1.459128 0.29379097 0
0.85559243 1.5152086 0.48404226 0
0.84797186 1.5138016 0.59771222 0
0.97196251 1.5566555 -0.049657121 0
0.55216438 1.4736675 0.046379745 0
0.55241138 1.4737164 0.12757961 0
0.55459088 1.4741472 0.21042846 0
0.5506801 1.4733741 0.29417965 0
0.83752483 1.5300791 0.47906694 0
0.8377009 1.5301139 0.59480327 0
0.98244661 1.5789262 -0.050182957 0
0.55206591 1.488201 0.046480127 0
0.54839402 1.487427 0.12745143 0
0.56216103 1.490329 0.21235014 0
0.54425985 1.4865555 0.2932477 0
0.8368836 1.5482413 0.48006707 0
0.83882469 1.5486504 0.59679496 0
0.9674117 1.5958643 -0.049786892 0
0.55533093 1.5035627 0.04671054 0
0.55175298 1.5027612 0.12815428 0
0.54818743 1.5019627 0.21033318 0
0.55075306 1.5025374 0.29573271 0
0.83667165 1.5665799 0.48129421 0
0.84600705 1.568671 0.60146183 0
0.96964198 1.6166146 -0.050030954 0
0.54581267 1.5160609 0.046479683 0
0.54100353 1.51492 0.1273222 0
0.5487594 1.51676 0.2110334 0
0.55019206 1.5171 0.29642817 0
0.84835202 1.5878385 0.48667023 0
0.84128886 1.5861628 0.60118568 0
0.96164805 1.6349835 -0.049909085 0
0.5488748 1.5315461 0.046716895 0
0.55178016 1.5322742 0.12888935 0
0.55988973 1.5343064 0.21373348 0
0.55452806 1.5329628 0.29846197 0
0.84128433 1.6048214 0.48572469 0
0.84496886 1.6057447 0.6045872 0
0.96577007 1.6564656 -0.050242718 0
0.55013901 1.5467321 0.046895701 0
0.53946131 1.543913 0.12791885 0
0.55257648 1.5473757 0.21304345 0
0.55647856 1.5484059 0.29992568 0
0.84521681 1.6246376 0.48863456 0
0.83866256 1.6229072 0.60382915 0
0.93112093 1.6674349 -0.049151018 0
0.55121559 1.5619992 0.04707526 0
0.55236059 1.562317 0.12977391 0
0.54838413 1.5612134 0.21296588 0
0.55128056 1.5620173 0.29955319 0
0.83549851 1.6408967 0.48692739 0
0.84872252 1.6445668 0.61019349 0
0.95588905 1.6949043 -0.05026979 0
0.54164618 1.5743012 0.046866752 0
0.55444449 1.5780272 0.1304511 0
0.55224293 1.5773864 0.21443298 0
0.55782908 1.5790128 0.30234617 0
0.83041757 1.6583744 0.48689166 0
0.8390612 1.6608909 0.60819417 0
0.93785757 1.7101544 -0.049808323 0
0.84428483 1.6816287 0.37986478 0
0.84961289 1.6832529 0.49537575 0
0.85062987 1.683563 0.61546546 0
0.9390108 1.7311797 -0.050071035 0
0.85098869 1.70313 0.38313034 0
0.83885306 1.6992629 0.49354342 0
0.83734387 1.698782 0.6120891 0
0.92434782 1.7471433 -0.049749717 0
0.84354144 1.7202677 0.38267738 0
0.83712119 1.7181323 0.49493927 0
0.84565812 1.7209716 0.61820698 0
0.92636174 1.768651 -0.05006472 0
0.84519559 1.7405158 0.38473824 0
0.8445695 1.7402989 0.49965718 0
0.83457202 1.7368333 0.61597252 0
0.9215979 1.7879529 -0.050134167 0
0.84803706 1.7614119 0.38719949 0
0.83454186 1.7565427 0.49831411 0
0.8341673 1.7564076 0.6185171 0
0.90330654 1.8022363 -0.049697388 0
0.85261482 1.7832218 0.3902171 0
0.83266014 1.7757368 0.4999316 0
0.83716708 1.7774273 0.622688 0
0.90495223 1.8239585 -0.0500292 0
0.8340283 1.7963313 0.38698199 0
0.8323496 1.7956774 0.50220418 0
0.83197504 1.7955315 0.6233567 0
0.89085549 1.8395749 -0.049767036 0
0.83947259 1.8188107 0.39038846 0
0.82374758 1.8124561 0.50160289 0
0.83264297 1.8160508 0.62674725 0
0.88847142 1.8598999 -0.049964428 0
0.83542389 1.8376819 0.39126518 0
0.82653183 1.8339577 0.50518149 0
0.82158691 1.8318865 0.62500876 0
0.87163907 1.8741136 -0.049610589 0
0.84055847 1.8606336 0.39476645 0
0.82794195 1.8551617 0.50837928 0
0.82470983 1.8537599 0.62974942 0
0.86256903 1.8915405 -0.049565475 0
0.83987111 1.8813548 0.39674011 0
0.81618303 1.8707247 0.50689012 0
0.83218926 1.8779075 0.63661867 0
0.87734956 1.9200017 -0.050467398 0
0.82597965 1.8961678 0.39508474 0
0.81387323 1.8905507 0.50892937 0
0.81848508 1.8926905 0.63399768 0
0.84691411 1.9274971 -0.049598765 0
0.82773477 1.9183033 0.39789888 0
0.80869347 1.9091756 0.51001406 0
0.81283242 1.9111598 0.63514292 0
0.86229867 1.9569905 -0.050553683 0
0.82505971 1.9385595 0.39954859 0
0.81004947 1.9311304 0.51361847 0
0.81901723 1.9355688 0.64187098 0
0.83764619 1.9667963 -0.049924608 0
0.81730825 1.9564093 0.39982745 0
0.80783957 1.9515736 0.51601684 0
0.80712992 1.9512112 0.64038312 0
0.82989818 1.9850075 -0.049978413 0
0.80596286 1.9724009 0.39913648 0
0.80664295 1.9727591 0.5189088 0
0.79964834 1.9690751 0.64103884 0
0.82476777 2.0046866 -0.050148208 0
0.80306464 1.9929043 0.4009513 0
0.79292077 1.9873973 0.51717949 0
0.78834027 1.9849106 0.64000195 0
0.80402273 2.0157733 -0.049690574 0
0.79652351 2.0115788 0.40178919 0
0.78681749 2.0061502 0.51841229 0
0.78780848 2.0067046 0.64416426 0
0.80428785 2.0385919 -0.050100949 0
0.78133184 2.0253701 0.40015528 0
0.78245074 2.0260146 0.52041113 0
0.78704506 2.0286608 0.64837682 0
0.79486126 2.0560048 -0.050124038 0
0.77757126 2.0457544 0.40195087 0
0.77361399 2.0434084 0.52079254 0
0.78275961 2.0488303 0.65105826 0
0.7870664 2.0744359 -0.050224673 0
0.76794308 2.0627708 0.40208316 0
0.7802667 2.0702882 0.52729815 0
0.77042013 2.0642817 0.64997703 0
0.7717461 2.088233 -0.050018683 0
0.76019794 2.0809877 0.40284798 0
0.76359922 2.0831215 0.52482879 0
0.75805157 2.0796409 0.64896774 0
0.76260227 2.1058452 -0.050080776 0
0.76067537 2.1046023 0.40618485 0
0.75932044 2.1037283 0.52730775 0
0.7555874 2.10132 0.65292513 0
0.75024182 2.121381 -0.050015062 0
0.75137383 2.1221316 0.40664682 0
0.7441954 2.117372 0.52558106 0
0.74245375 2.1162171 0.65175033 0
0.7419799 2.139657 -0.050134253 0
0.73271865 2.133347 0.40429291 0
0.73969561 2.1381006 0.52818584 0
0.73639315 2.1358507 0.65420264 0
0.72444862 2.1515515 -0.049860548 0
0.73684782 2.1602304 0.40905744 0
0.71805876 2.147079 0.52395993 0
0.73058838 2.155849 0.65693039 0
0.71717983 2.1705894 -0.050042141 0
0.71685487 2.1703558 0.40639168 0
0.71826726 2.1713712 0.5286926 0
0.71798879 2.1711709 0.6563459 0
0.70959634 2.1895583 -0.05022205 0
0.71295065 2.1920342 0.40884322 0
0.71623641 2.1944597 0.53266937 0
0.70643181 2.1872225 0.65639138 0
0.6915676 2.2007749 -0.049946457 0
0.70095271 2.2078869 0.40881428 0
0.70196742 2.2086558 0.53169656 0
0.69230479 2.2013335 0.65520668 0
0.68762165 2.222703 -0.050311461 0
0.69629818 2.2294514 0.41122285 0
0.69424528 2.2278547 0.53354853 0
0.69455653 2.228097 0.66269433 0
0.6670838 2.2317204 -0.049934775 0
0.67812425 2.2405331 0.40933061 0
0.68375033 2.2450237 0.53434122 0
0.68498892 2.2460124 0.66417372 0
0.66463214 2.2552118 -0.05039404 0
0.66229886 2.2533009 0.4082391 0
0.67084223 2.260298 0.53419697 0
0.66298169 2.25386 0.65913117 0
0.65027004 2.2691224 -0.050316501 0
0.66419059 2.2808194 0.41309342 0
0.66424471 2.280865 0.53687656 0
0.66593975 2.2822893 0.66758943 0
0.63199729 2.2795935 -0.050061997 0
0.72011858 2.3555546 0.066215552 0
0.72314829 2.3581662 0.1876929 0
0.71787888 2.3536239 0.3096517 0
0.64963752 2.2947996 0.4125776 0
0.65090722 2.2958939 0.5367381 0
0.65219849 2.2970071 0.66720623 0
0.6107468 2.2871966 -0.049668998 0
0.68176132 2.349987 0.065053225 0
0.69366688 2.3605139 0.18547204 0
0.6860525 2.3537815 0.30534643 0
0.64124674 2.3141644 0.41421425 0
0.63940579 2.3125367 0.53749704 0
0.6420216 2.3148494 0.6688906 0
0.6049034 2.3084021 -0.050018623 0
0.65849239 2.3570011 0.064601399 0
0.65773815 2.356317 0.18229459 0
0.64937621 2.3487337 0.29981145 0
0.62891835 2.3301809 0.41459703 0
0.62577885 2.3273337 0.5374037 0
0.63092691 2.3320024 0.67020625 0
0.58922929 2.3208048 -0.049906004 0
0.64631325 2.3738985 0.064689226 0
0.63804859 2.3662117 0.1814554 0
0.63761204 2.3658056 0.30033147 0
0.61322778 2.3431258 0.4138827 0
0.6178115 2.3473892 0.53996485 0
0.60581654 2.3362327 0.66373372 0
0.57425469 2.3337696 -0.049834196 0
0.62335712 2.3806067 0.064256832 0
0.62817019 2.3851976 0.18208161 0
0.61681443 2.3743658 0.29865962 0
0.60155505 2.3598104 0.41463348 0
0.59376413 2.3523791 0.53527927 0
0.60691231 2.3649206 0.67220813 0
0.56507128 2.3523328 -0.050058831 0
0.62031406 2.4063716 0.064817764 0
0.61363679 2.3998399 0.18205151 0
0.6173839 2.4035053 0.3023847 0
0.58304316 2.3699131 0.41302726 0
0.58683771 2.373625 0.53853273 0
0.58709496 2.3738766 0.66888285 0
0.55112618 2.3663485 -0.050057277 0
0.5971393 2.4125063 0.064384103 0
0.60139138 2.4167719 0.18239719 0
0.60264713 2.4180317 0.30234024 0
0.57360321 2.3888962 0.41472468 0
0.57250351 2.3877931 0.53846198 0
0.57581073 2.3911107 0.67058533 0
0.53409785 2.3771949 -0.049906753 0
0.60565323 2.4508066 0.065571807 0
0.59815723 2.4430952 0.18416943 0
0.59502345 2.4398713 0.30418271 0
0.55600137 2.3997278 0.41354367 0
0.56456798 2.4085407 0.54152912 0
0.56845325 2.4125376 0.67477065 0
0.52456671 2.3958011 -0.050150342 0
0.61209828 2.4881465 0.066692896 0
0.6229555 2.4996011 0.19039606 0
0.61584848 2.4921031 0.3135795 0
0.54907209 2.4216542 0.41635522 0
0.54495031 2.4173057 0.5391131 0
0.55115694 2.4238536 0.67319155 0
0.50700825 2.4059796 -0.049987279 0
0.5330345 2.4341393 0.4158847 0
0.52960545 2.430429 0.5388121 0
0.53367287 2.43483 0.67156267 0
0.50429243 2.4324617 -0.050620265 0
0.51060921 2.4394712 0.41303265 0
0.5162217 2.4456995 0.53956306 0
0.51631123 2.4457986 0.67007142 0
0.48035595 2.4354722 -0.050132476 0
0.50106305 2.4590406 0.41514355 0
0.5039466 2.4623225 0.54097986 0
0.49833342 2.4559338 0.66825819 0
0.46593091 2.4490635 -0.050161533 0
0.4890407 2.4760439 0.41641048 0
0.49155578 2.4789803 0.54246479 0
0.48852822 2.4754457 0.67170036 0
0.44717917 2.4575093 -0.04995947 0
0.47423694 2.4899163 0.41667411 0
0.47126481 2.4863565 0.5399794 0
0.47450945 2.4902425 0.67263031 0
0.43294391 2.4712844 -0.050015692 0
0.45580205 2.499373 0.41554418 0
0.45876059 2.5030084 0.54160815 0
0.45779845 2.501826 0.67193013 0
0.41546276 2.4810352 -0.049896207 0
0.43588355 2.5067844 0.4138355 0
0.44165382 2.5140603 0.54091012 0
0.44162431 2.5140228 0.67167288 0
0.39970991 2.4928901 -0.049882781 0
0.42698428 2.5281849 0.41673514 0
0.42512324 2.5257766 0.54058927 0
0.4231613 2.5232377 0.66996473 0
0.3953521 2.5198705 -0.050554313 0
0.41183338 2.5417624 0.41714516 0
0.40727195 2.5357034 0.53961337 0
0.40731236 2.5357573 0.67010653 0
0.37112173 2.5205569 -0.050058044 0
0.39245442 2.549648 0.41581127 0
0.39076242 2.5473409 0.53944522 0
0.39667347 2.5554018 0.67400813 0
0.35866812 2.5371377 -0.050276954 0
0.37462059 2.5594766 0.41517526 0
0.37641689 2.5619922 0.54059607 0
0.37600926 2.5614212 0.67101127 0
0.33207676 2.5336604 -0.04962863 0
0.36210367 2.5768478 0.41695869 0
0.36681595 2.5836256 0.54463971 0
0.36245826 2.577358 0.67317337 0
0.31898293 2.5493174 -0.049825147 0
0.34713671 2.5909188 0.41775903 0
0.34359089 2.5856793 0.54083222 0
0.34652928 2.5900211 0.6737662 0
0.31122312 2.5733316 -0.050384376 0
0.32712427 2.5974774 0.41631573 0
0.3238757 2.5925446 0.53908986 0
0.33102652 2.6034031 0.67481035 0
0.28374413 2.5673027 -0.049669463 0
0.30709365 2.6037498 0.4148739 0
0.3066341 2.6030324 0.53889132 0
0.30794623 2.6050806 0.67018723 0
0.26899537 2.580759 -0.049794361 0
0.2885336 2.6121194 0.41414988 0
0.2857925 2.6077197 0.53650606 0
0.28811708 2.6114509 0.66803181 0
0.25604621 2.5973628 -0.050057456 0
0.26780853 2.6167827 0.41239586 0
0.27265105 2.6247778 0.5390532 0
0.2712293 2.6224306 0.66824532 0
0.2381164 2.6058764 -0.049990255 0
0.25346443 2.6319518 0.41384259 0
0.25664923 2.6373627 0.53991872 0
0.2531831 2.631474 0.66762954 0
0.2170483 2.6088121 -0.049703464 0
0.23474057 2.6397552 0.41316742 0
0.2365907 2.6429911 0.53818959 0
0.23483165 2.6399145 0.66683954 0
0.19974537 2.6181195 -0.049689718 0
0.21779813 2.6506367 0.41346422 0
0.22170873 2.6576805 0.54001689 0
0.2191831 2.6531312 0.66842657 0
0.18565501 2.6333754 -0.049926165 0
0.19653572 2.653569 0.41151732 0
0.20477475 2.6688597 0.54057646 0
0.20245834 2.6645606 0.66925532 0
0.17463918 2.65488 -0.050419964 0
0.17961343 2.6643968 0.41193354 0
0.18186779 2.66871 0.53695965 0
0.17603828 2.6575568 0.66156566 0
0.15317197 2.656538 -0.050121855 0
0.16201623 2.6739907 0.41205531 0
0.15369488 2.6575699 0.52937478 0
0.15676017 2.6636188 0.66014451 0
0.13377275 2.6619377 -0.049985185 0
0.14462288 2.6840346 0.41236734 0
0.14182974 2.6783462 0.53379792 0
0.14191778 2.6785254 0.66292411 0
0.11455115 2.6674938 -0.049865201 0
0.12094494 2.6809402 0.40902805 0
0.11844095 2.6756742 0.52961177 0
0.12169083 2.6825089 0.66076523 0
0.098572813 2.679903 -0.050024781 0
0.10135856 2.6859572 0.40807 0
0.10557093 2.6951115 0.53365499 0
0.10554024 2.6950448 0.66263312 0
0.084021352 2.6958036 -0.050327774 0
0.084826969 2.697614 0.4090406 0
0.086862527 2.7021887 0.53323394 0
0.083062731 2.6936493 0.6582697 0
0.065288864 2.7025292 -0.050279729 0
0.066136204 2.7045 0.40873891 0
0.066414796 2.705148 0.53140938 0
0.065143965 2.7021923 0.65853685 0
0.044221841 2.7035513 -0.05002059 0
0.045635961 2.7069576 0.40728077 0
0.043865822 2.7026935 0.52773732 0
0.046685539 2.709486 0.65834397 0
0.027478298 2.7148864 -0.050169609 0
0.027126035 2.7140067 0.40716296 0
0.026747188 2.7130609 0.52878064 0
0.028698822 2.7179344 0.65877104 0
0.0060156197 2.714294 -0.049869545 0
0.011602542 2.728771 0.40921944 0
0.0078065009 2.7189345 0.52829355 0
0.0053335042 2.7125263 0.65314734 0
-0.012123385 2.7220488 -0.049899116 0
-0.012142637 2.721997 0.40545759 0
-0.013496616 2.7183526 0.52560234 0
-0.01339946 2.7186139 0.65275764 0
-0.030335763 2.7296696 -0.049932156 0
-0.03725145 2.7103117 0.40046322 0
-0.029797116 2.7311773 0.52775478 0
-0.033861376 2.7198009 0.65031898 0
-0.04916624 2.7355704 -0.049908802 0
-0.051906563 2.7275839 0.40338668 0
-0.051655032 2.7283168 0.52445316 0
-0.051702417 2.728179 0.65115154 0
-0.064310618 2.752629 -0.050313842 0
-0.073178388 2.7256837 0.40119812 0
-0.072926618 2.7264488 0.52160943 0
-0.073734351 2.7239943 0.64660305 0
-0.086675473 2.7477412 -0.049902912 0
-0.092447586 2.7294288 0.40060017 0
-0.092015274 2.7308004 0.52104014 0
-0.093113966 2.7273147 0.64545125 0
-0.1035798 2.7599759 -0.05014253 0
-0.11120052 2.7346928 0.40047401 0
-0.11051599 2.736964 0.52118635 0
-0.11066238 2.7364783 0.64693636 0
-0.12573405 2.7545874 -0.049734499 0
-0.10625244 2.8222952 0.064249828 0
-0.10654376 2.8212829 0.18123248 0
-0.10634578 2.8219707 0.30019403 0
-0.13041474 2.7383199 0.39997652 0
-0.13200609 2.7327893 0.51783383 0
-0.13356073 2.7273862 0.64064634 0
-0.14402075 2.7622299 -0.049820609 0
-0.13454534 2.7967935 0.063100092 0
-0.13258554 2.8039422 0.17868137 0
-0.13404472 2.7986195 0.29478845 0
-0.14757995 2.7492471 0.40147609 0
-0.15175642 2.7340126 0.51644844 0
-0.15219404 2.7324164 0.64056486 0
-0.16046183 2.7772064 -0.050185524 0
-0.1564201 2.7927125 0.062757611 0
-0.15807821 2.7863512 0.1761473 0
-0.15928583 2.781718 0.29066777 0
-0.17032345 2.739372 0.39754322 0
-0.17006578 2.7403607 0.51691526 0
-0.17153974 2.7347057 0.63941157 0
-0.18336438 2.7671347 -0.049635757 0
-0.17449506 2.8030066 0.062954992 0
-0.17791714 2.789166 0.17591573 0
-0.17749272 2.7908826 0.29146156 0
-0.18803601 2.7482402 0.39862391 0
-0.1904376 2.7385271 0.51465583 0
-0.19005392 2.7400789 0.63968104 0
-0.20013677 2.7815795 -0.049997095 0
-0.20021154 2.78126 0.061985381 0
