# .PCD v0.7 - Point Cloud Data file format
VERSION 0.7
FIELDS x y z intensity
SIZE 4 4 4 4
TYPE F F F F
COUNT 1 1 1 1
WIDTH 1358
HEIGHT 1
VIEWPOINT 0 0 0 1 0 0 0
POINTS 1358
DATA ascii
-1.9994313 0.88329464 -0.047158904 0
-2.001905 0.86320156 -0.04742742 0
-2.0024374 0.84346044 -0.047634218 0
-1.9944879 0.82609147 -0.047535062 0
-1.9943994 0.80634195 -0.047737647 0
-2.0015686 0.78407586 -0.048222877 0
-2.0026309 0.76351893 -0.048490494 0
-1.9925244 0.74670911 -0.048346139 0
-2.0089808 0.720231 -0.049219627 0
-1.997641 0.70371664 -0.04904763 0
-1.9935091 0.68446922 -0.049159598 0
-2.000802 0.6604324 -0.049722534 0
-2.0106397 0.63487589 -0.050398972 0
-1.9911137 0.62175006 -0.049945883 0
-1.9761094 0.60690862 -0.049674097 0
-1.4966788 0.82569277 0.34949028 0
-1.9733218 0.58651376 -0.049890272 0
-1.4918869 0.81357968 0.34974021 0
-1.9711429 0.56564927 -0.050142121 0
-1.4869206 0.80152822 0.34998348 0
-1.9625055 0.54782987 -0.050147951 0
-1.492838 0.78398138 0.35433748 0
-1.9513097 0.53132933 -0.050059918 0
-1.4709486 0.78048396 0.34838098 0
-1.9328811 0.51876342 -0.049686857 0
-1.4674557 0.76765752 0.34934145 0
-1.9385291 0.49322653 -0.050299063 0
-1.4582525 0.75789261 0.34820056 0
-1.9162792 0.48302442 -0.049783569 0
-1.4527193 0.74614149 0.34850234 0
-1.2431656 0.86508435 0.47363263 0
-1.9123446 0.46253687 -0.050026901 0
-1.4464582 0.73478687 0.34858266 0
-1.2505763 0.84925437 0.48212662 0
-1.8982453 0.44795835 -0.04985933 0
-1.4508456 0.7170189 0.35285291 0
-1.2346026 0.84706473 0.47463992 0
-1.8992531 0.42416888 -0.050332341 0
-1.4352567 0.71122706 0.34942868 0
-1.2430115 0.83016235 0.48411748 0
-1.8817976 0.41172695 -0.050040517 0
-1.4301977 0.69904071 0.35015768 0
-1.2460546 0.81619489 0.41438019 0
-1.2413428 0.81919265 0.48673669 0
-1.874832 0.39266616 -0.05020044 0
-1.4173355 0.69188952 0.34785146 0
-1.2416757 0.80677903 0.41509289 0
-1.2361345 0.81040311 0.48696685 0
-1.8547937 0.38225293 -0.049809642 0
-1.4111216 0.68047744 0.34822667 0
-1.255329 0.78519708 0.35417759 0
-1.2338763 0.79961693 0.41382086 0
-1.2337148 0.79972553 0.48927033 0
-1.8466519 0.36395502 -0.049937267 0
-1.4079882 0.66690093 0.3499085 0
-1.2561964 0.77173001 0.3576141 0
-1.244678 0.77968472 0.4239029 0
-1.2341297 0.78696948 0.49373335 0
-1.8415774 0.34336698 -0.050210338 0
-1.406054 0.65231514 0.352164 0
-1.2487634 0.76389265 0.35695359 0
-1.2387886 0.7709685 0.42398956 0
-1.2388518 0.77092367 0.50148451 0
-1.8316702 0.32605737 -0.05028386 0
-1.400345 0.64026541 0.35296181 0
-1.2478167 0.751378 0.35965982 0
-1.2426574 0.75513625 0.43018526 0
-1.2416602 0.75586271 0.50805056 0
-1.8073866 0.31943142 -0.049726829 0
-1.3809752 0.6383549 0.34815452 0
-1.2471088 0.73847681 0.36259636 0
-1.2445543 0.74038744 0.43533143 0
-1.2387139 0.74475569 0.5105567 0
-1.8095108 0.29302239 -0.05035672 0
-1.3713213 0.62944114 0.34738576 0
-1.252134 0.72094691 0.36863834 0
-1.2429898 0.72796738 0.43846083 0
-1.2426254 0.72824717 0.51831871 0
-1.7920793 0.28145278 -0.05011908 0
-1.3766134 0.60882217 0.3529872 0
-1.2468139 0.71109855 0.36940309 0
-1.2424028 0.71457428 0.44234324 0
-1.2400383 0.71643746 0.52140766 0
-1.7780818 0.26731807 -0.050043322 0
-1.3586578 0.60645252 0.3488102 0
-1.2453095 0.69810289 0.37227303 0
-1.2398683 0.70250249 0.44512022 0
-1.2397364 0.70260906 0.52638394 0
-1.7527294 0.26266885 -0.049448259 0
-1.3537465 0.59366947 0.35024089 0
-1.2489015 0.68065017 0.37800235 0
-1.2336723 0.69328451 0.44564423 0
-1.2427119 0.685785 0.53407133 0
-1.7480204 0.2409972 -0.049817301 0
-1.3452446 0.58379745 0.35018829 0
-1.2538178 0.66161025 0.38463235 0
-1.2438667 0.67007971 0.4570187 0
-1.2408283 0.67266566 0.53822148 0
-1.740459 0.22146618 -0.050068099 0
-1.3432356 0.5682593 0.3530573 0
-1.2487496 0.65074968 0.38597891 0
-1.2428344 0.65591389 0.46125528 0
-1.2391725 0.65911102 0.54272622 0
-1.7236294 0.209993 -0.049889304 0
-1.3244997 0.56740552 0.34857565 0
-1.2528871 0.63153315 0.39253265 0
-1.2452328 0.63838744 0.46796313 0
-1.2427359 0.64062345 0.55157214 0
-1.7109259 0.19489717 -0.049915399 0
-1.3211652 0.55286449 0.3510038 0
-1.2463325 0.62159294 0.39328715 0
-1.2401232 0.62729573 0.46979749 0
-1.2382797 0.62898886 0.55424976 0
-1.6989053 0.17912865 -0.049984563 0
-1.3110725 0.54443377 0.35045534 0
-1.2484311 0.60343659 0.39904323 0
-1.2403201 0.61107635 0.47539666 0
-1.2381601 0.61311084 0.56061107 0
-1.6850047 0.16510391 -0.049971059 0
-1.3023556 0.53472877 0.35058543 0
-1.2372922 0.59757769 0.39738035 0
-1.2397132 0.59523898 0.48064637 0
-1.2435528 0.59153008 0.57175922 0
-1.6697173 0.15246189 -0.049896512 0
-1.2854329 0.53313583 0.34693128 0
-1.2334033 0.5846765 0.39996463 0
-1.2418101 0.57634878 0.4880057 0
-1.2393135 0.57882196 0.57523209 0
-1.6588118 0.13543892 -0.050052058 0
-1.2811825 0.51906073 0.34924939 0
-1.241035 0.55984545 0.40947676 0
-1.2392461 0.56166261 0.49230418 0
-1.2399969 0.56089991 0.58304584 0
-1.6463262 0.11989927 -0.050139174 0
-1.3975439 0.37907755 0.049313214 0
-1.4077107 0.36848599 0.13796078 0
-1.398681 0.37789291 0.22509724 0
-1.4006855 0.37580466 0.31668654 0
-1.2668771 0.51520455 0.34685192 0
-1.2317432 0.55180663 0.40918186 0
-1.2395954 0.54362637 0.49889699 0
-1.2405257 0.54265714 0.59102225 0
-1.6315498 0.10671245 -0.050117947 0
-1.3760083 0.37973183 0.048767332 0
-1.3781376 0.3774569 0.13507463 0
-1.3733329 0.38259023 0.22133744 0
-1.3718139 0.38421321 0.31006205 0
-1.2702217 0.4927538 0.35303849 0
-1.2428941 0.52195048 0.42132983 0
-1.2382727 0.52688795 0.50452006 0
-1.2434014 0.52140838 0.60134155 0
-1.6110224 0.099844925 -0.049800575 0
-1.3590839 0.3759011 0.048457652 0
-1.3479211 0.38813257 0.13202789 0
-1.3490487 0.38689697 0.21779433 0
-1.3512297 0.38450724 0.30644235 0
-1.2560563 0.48879141 0.35080782 0
-1.2424024 0.50375241 0.42672509 0
-1.2305893 0.51669645 0.50565553 0
-1.236709 0.50999087 0.60362023 0
-1.6025991 0.079706185 -0.05013337 0
-1.3287807 0.38743085 0.047427602 0
-1.3381666 0.37688273 0.13222425 0
-1.3309158 0.3850314 0.21585499 0
-1.344761 0.36947179 0.30818722 0
-1.2411711 0.4858889 0.34820989 0
-1.2395383 0.48772389 0.43086123 0
-1.2432721 0.48352778 0.52223223 0
-1.2373389 0.49019563 0.61259145 0
-1.5868644 0.067632906 -0.050086401 0
-1.3192424 0.37612939 0.047505949 0
-1.3188214 0.37661463 0.13087367 0
-1.3270947 0.36707777 0.21783261 0
-1.3198059 0.37547994 0.3028332 0
-1.2526952 0.45284051 0.35900053 0
-1.2428343 0.46420747 0.43907663 0
-1.2466855 0.459768 0.5322904 0
-1.2394973 0.46805412 0.62330097 0
-1.5700934 0.056831237 -0.049989782 0
-1.3118051 0.3622542 0.047709446 0
-1.3084813 0.36618459 0.13100208 0
-1.311442 0.36268359 0.21659809 0
-1.3030899 0.37255996 0.30062464 0
-1.2569288 0.42714489 0.3664096 0
-1.2393812 0.44789481 0.44327623 0
-1.2422291 0.44452709 0.53663152 0
-1.2400411 0.44711441 0.63294244 0
-1.5496031 0.050644036 -0.049690496 0
-1.299365 0.35421896 0.047645006 0
-1.2975887 0.35637397 0.13106115 0
-1.2928771 0.36208981 0.21453439 0
-1.295874 0.35845417 0.30220726 0
-1.2495621 0.41463703 0.36803317 0
-1.2362934 0.43073398 0.44791102 0
-1.2397026 0.42659825 0.54270738 0
-1.2379465 0.42872858 0.64051634 0
-1.5400075 0.031227464 -0.050011929 0
-1.2882934 0.34454924 0.047663275 0
-1.2885295 0.34425527 0.13145681 0
-1.2820168 0.3523621 0.21465884 0
-1.2889918 0.34367979 0.3040227 0
-1.2548884 0.38613015 0.37650791 0
-1.2401074 0.40452886 0.4573234 0
-1.2395927 0.40516949 0.55098891 0
-1.2390828 0.40580422 0.65148669 0
-1.5268601 0.015975112 -0.050146915 0
-1.280049 0.3312434 0.047852583 0
-1.2770525 0.33507091 0.13146374 0
-1.288499 0.32044959 0.21989478 0
-1.2785342 0.33317828 0.30446404 0
-1.2453676 0.37554401 0.37729919 0
-1.238927 0.38377106 0.46375373 0
-1.2436377 0.37775391 0.56299418 0
-1.242359 0.3793872 0.66496921 0
-1.5078306 0.0082722846 -0.049949102 0
-1.2754972 0.31287217 0.048272204 0
-1.2755547 0.31279683 0.13325948 0
-1.2784905 0.3089478 0.22043246 0
-1.2740391 0.31478369 0.30747634 0
-1.2503785 0.34580398 0.38614786 0
-1.2341237 0.36711466 0.46799466 0
-1.2405829 0.35864627 0.56962466 0
-1.2385046 0.36137116 0.67202592 0
-1.4966552 -0.0097723063 -0.050223812 0
-1.2699045 0.29540169 0.048650417 0
-1.2759355 0.28728485 0.13547455 0
-1.270864 0.29411036 0.22174305 0
-1.271419 0.29336333 0.31144044 0
-1.2539024 0.31693828 0.39452544 0
-1.2373879 0.3391645 0.478053 0
-1.2427043 0.33200938 0.58091074 0
-1.238287 0.33795446 0.68304312 0
-1.4830189 -0.024752146 -0.050367199 0
-1.2816399 0.25352705 0.050103784 0
-1.2794657 0.2565316 0.1383642 0
-1.2787366 0.25753903 0.22790159 0
-1.2774175 0.25936174 0.31934121 0
-1.2487066 0.29903668 0.39830616 0
-1.2363907 0.31605554 0.48552477 0
-1.2427678 0.30724323 0.59092247 0
-1.2416141 0.30883747 0.69813532 0
-1.4585992 -0.02460981 -0.049856409 0
-1.1771595 0.37479675 0.044412617 0
-1.1693157 0.38592845 0.12016755 0
-1.180895 0.36949563 0.20121478 0
-1.3269103 0.16227722 0.34683731 0
-1.2462888 0.27669173 0.40388864 0
-1.2373346 0.28939891 0.49473384 0
-1.2342476 0.29377997 0.59392703 0
-1.4469335 -0.042428736 -0.050140984 0
-1.158093 0.3786425 0.043911301 0
-1.1560073 0.38168311 0.11972567 0
-1.1548933 0.38330698 0.19649264 0
-1.3167553 0.14734483 0.34848633 0
-1.2443962 0.25282979 0.41004744 0
-1.2376571 0.26265407 0.50390202 0
-1.2449952 0.25195658 0.61417848 0
-1.4307293 -0.05381668 -0.05015346 0
-1.1403245 0.38117695 0.043480817 0
-1.14275 0.37754375 0.11929557 0
-1.1404765 0.38094938 0.1953875 0
-1.3027045 0.13795006 0.34846222 0
-1.2409053 0.23051822 0.41554412 0
-1.2430602 0.22729039 0.51728213 0
-1.2405246 0.23108852 0.62157208 0
-1.4140323 -0.064468034 -0.05014319 0
-1.1227874 0.38390875 0.043055005 0
-1.1258093 0.37925649 0.11814049 0
-1.1310171 0.37123901 0.19591181 0
-1.2853959 0.13357008 0.34696671 0
-1.2452048 0.19544494 0.42607638 0
-1.2396644 0.20397449 0.52457142 0
-1.2413629 0.20135963 0.63422579 0
-1.3974613 -0.075310715 -0.050150003 0
-1.1099766 0.37971795 0.042934269 0
-1.1084647 0.38211113 0.11687662 0
-1.1080229 0.38281029 0.19191754 0
-1.2701286 0.12623048 0.34644228 0
-1.2396314 0.1745013 0.43094331 0
-1.2400433 0.17384946 0.53515869 0
-1.2333412 0.1844573 0.63918173 0
-1.3800683 -0.084830888 -0.050110128 0
-1.0945462 0.3799504 0.042635918 0
-1.0955089 0.37838328 0.11648041 0
-1.0923992 0.38344544 0.19033028 0
-1.2428586 0.1385231 0.34010124 0
-1.2404097 0.14250946 0.44011411 0
-1.2382315 0.14605522 0.5445295 0
-1.2411411 0.14131892 0.65956515 0
-1.3575978 -0.085798629 -0.049724068 0
-1.076322 0.38526839 0.042136446 0
-1.0770049 0.38412458 0.11492239 0
-1.0801135 0.37891835 0.18988076 0
-1.2546997 0.086529963 0.3530128 0
-1.241739 0.10823595 0.45009658 0
-1.2389143 0.11296677 0.55639422 0
-1.2382553 0.11407041 0.6704787 0
-1.3480195 -0.10845221 -0.05024761 0
-1.0653214 0.37883258 0.042135246 0
-1.0716429 0.36793649 0.1161294 0
-1.0656133 0.37832958 0.18864574 0
-1.2463483 0.066797726 0.35627061 0
-1.2410207 0.075980894 0.45922354 0
-1.2345233 0.087180369 0.56467319 0
-1.2369816 0.082943074 0.6835776 0
-1.3219419 -0.10258127 -0.049603526 0
-1.048874 0.38206178 0.041743696 0
-1.0489117 0.3819949 0.11360519 0
-1.053072 0.37461126 0.1881052 0
-1.2493999 0.026166791 0.36565638 0
-1.2397237 0.043340202 0.46843675 0
-1.2451202 0.03376257 0.5860514 0
-1.3070937 -0.11630059 -0.049774453 0
-1.0352437 0.38071197 0.041549623 0
-1.0351536 0.38087666 0.11299257 0
-1.0353742 0.38047355 0.18563154 0
-1.2467893 -0.0060484461 0.3725192 0
-1.2419562 0.0027877041 0.4805932 0
-1.2411422 0.0042759129 0.59592611 0
-1.2937913 -0.13319623 -0.050080206 0
-1.0177195 0.38698667 0.041055638 0
-1.0187943 0.38496172 0.11177211 0
-1.0204227 0.38189322 0.18412706 0
-1.2413042 -0.034298424 0.37820053 0
-1.2417995 -0.035231713 0.49170396 0
-1.2392633 -0.030452853 0.60821569 0
-1.2770494 -0.14388728 -0.050141603 0
-1.0075245 0.3797785 0.041115105 0
-1.0102167 0.37454784 0.11233697 0
-1.0073131 0.38018918 0.18330422 0
-1.2368413 -0.065766104 0.38478833 0
-1.2330731 -0.058444861 0.49720359 0
-1.2402172 -0.072325118 0.62376344 0
-1.2586287 -0.15131712 -0.05008094 0
-0.99499297 0.37715578 0.040996395 0
-0.99482793 0.37748659 0.11130767 0
-0.99355865 0.38003087 0.18220837 0
-1.2373458 -0.10865439 0.39460722 0
-1.2401148 -0.11420513 0.51481056 0
-1.2396986 -0.11337078 0.63882577 0
-1.2384329 -0.15498245 -0.049880601 0
-0.97557884 0.38896358 0.040312491 0
-0.98100412 0.37773663 0.11062872 0
-0.98086756 0.37801921 0.1815252 0
-1.2443708 -0.1672703 0.40882128 0
-1.2401388 -0.15851259 0.52804613 0
-1.2215948 -0.16549957 -0.049961556 0
-0.96744841 0.37778431 0.040548291 0
-0.96736437 0.3779639 0.10997719 0
-0.96820092 0.37617564 0.18084449 0
-1.2374978 -0.19949508 0.41549337 0
-1.2422941 -0.20974791 0.54374844 0
-1.2049605 -0.17661273 -0.050073743 0
-0.95289183 0.38039714 0.040246308 0
-0.95420873 0.37748718 0.1094327 0
-0.94953519 0.38781452 0.17753036 0
-1.2414486 -0.25724256 0.42929927 0
-1.2383925 -0.25048935 0.55551946 0
-1.1858671 -0.18230999 -0.049982443 0
-0.94299316 0.37288886 0.040347543 0
-0.94030148 0.37904203 0.10867241 0
-0.93616015 0.38850892 0.17643529 0
-1.2421036 -0.31086409 0.44186643 0
-1.2412522 -0.30891776 0.57366645 0
-1.1725954 -0.20162797 -0.050428886 0
-0.92454684 0.38542181 0.039676338 0
-0.92397273 0.38678056 0.10721519 0
-0.92174864 0.39204425 0.17482285 0
-1.2371244 -0.35434711 0.45155656 0
-1.1528214 -0.20584226 -0.050297171 0
-0.91337472 0.38136464 0.039657187 0
-0.91207653 0.38454819 0.10694658 0
-0.91111636 0.38690299 0.17494401 0
-1.2385812 -0.4161551 0.46626341 0
-1.1326497 -0.20879936 -0.050127458 0
-0.90187442 0.37817389 0.039610304 0
-0.90210873 0.3775779 0.10724375 0
-0.89901721 0.38544118 0.17437756 0
-1.2395258 -0.48063755 0.48162585 0
-1.1148652 -0.2177316 -0.050196372 0
-0.88877052 0.37930584 0.039404165 0
-0.89064783 0.37434846 0.10712411 0
-0.88503313 0.38917494 0.17284131 0
-1.240612 -0.54978538 0.49818471 0
-1.0946062 -0.22002363 -0.050021186 0
-0.87503392 0.38259339 0.039123349 0
-0.87349552 0.38681561 0.10522615 0
-0.87787408 0.37479848 0.17482217 0
-1.0751483 -0.22423923 -0.049929213 0
-0.8634271 0.38039231 0.03905794 0
-0.86043429 0.3889392 0.10453898 0
-0.8639406 0.37892592 0.17327575 0
-1.0592095 -0.23873127 -0.050233923 0
-0.84869838 0.38761926 0.038643233 0
-0.85244298 0.37647772 0.10552701 0
-0.85130972 0.37984967 0.17237887 0
-1.0389051 -0.24038255 -0.050063308 0
-0.83819938 0.38266402 0.038694102 0
-0.83738995 0.38517678 0.10413324 0
-0.8351652 0.39208293 0.16937292 0
-1.0229971 -0.25589645 -0.050420832 0
-0.82445025 0.38812304 0.038360655 0
-0.82494193 0.38652819 0.10359255 0
-0.82629228 0.38214809 0.17060074 0
-1.0002198 -0.24899328 -0.049950182 0
-0.81243092 0.38853538 0.038222723 0
-0.8141371 0.38274312 0.10364692 0
-0.8131997 0.38592541 0.16926704 0
-0.98175907 -0.25623989 -0.050016567 0
-0.80451709 0.3746866 0.038619749 0
-0.80101562 0.3871507 0.10280177 0
-0.80244476 0.38206339 0.16940008 0
-0.96284413 -0.26198113 -0.050035708 0
-0.79207528 0.37668079 0.038433645 0
-0.7885744 0.38977396 0.10217637 0
-0.79095942 0.38085407 0.16906276 0
-0.9449088 -0.27164781 -0.050208163 0
-0.77971178 0.37889272 0.038245894 0
-0.77761668 0.38714308 0.16735825 0
-0.92250484 -0.26327324 -0.049725931 0
-0.766747 0.38416231 0.10218354 0
-0.76574814 0.38831443 0.1666394 0
-0.90528262 -0.27617538 -0.050034404 0
-0.75694931 0.37642497 0.16836587 0
-0.88767779 -0.28834462 -0.050323211 0
-0.74441469 0.38082504 0.16710378 0
-0.86601496 -0.28137064 -0.049922276 0
-0.73349631 0.37806773 0.1671906 0
-0.84808022 -0.29272377 -0.050197959 0
-0.72264552 0.37487543 0.16738227 0
-0.82906169 -0.29902673 -0.050298195 0
-0.80898839 -0.29927838 -0.050188046 0
-0.78821903 -0.29435396 -0.049900398 0
-0.76946092 -0.30271661 -0.050101425 0
-0.74995548 -0.30620635 -0.050135352 0
-0.72929341 -0.29948676 -0.049811348 0
-0.7109012 -0.31364 -0.050245836 0
-0.69041085 -0.30681384 -0.049936458 0
-0.67006177 -0.29896188 -0.049599878 0
-0.65068305 -0.30339539 -0.049712118 0
-0.63171488 -0.31826079 -0.05020586 0
-0.61165726 -0.31182587 -0.049947016 0
-0.59185553 -0.30885661 -0.049821027 0
-0.57220572 -0.31289756 -0.049954239 0
-0.55245733 -0.31740916 -0.050113089 0
-0.53268021 -0.31642926 -0.050084777 0
-0.51293123 -0.31505156 -0.050051138 0
-0.49309015 -0.3164252 -0.050124679 0
-0.4731696 -0.31825471 -0.050223488 0
-0.45366126 -0.31275523 -0.050069135 0
-0.49647975 0.3340165 0.038928002 0
-0.43457428 -0.30325758 -0.049780231 0
-0.4846611 0.33186764 0.039035045 0
-0.41426784 -0.30928171 -0.050056074 0
-0.4747186 0.3510614 0.038382396 0
-0.39568278 -0.29688847 -0.049680363 0
-0.46094844 0.32911986 0.039209925 0
-0.3753002 -0.30211186 -0.049945731 0
-0.44836551 0.32236373 0.039499067 0
-0.44256604 0.27279669 0.11220334 0
-0.44185394 0.26671046 0.18532938 0
-0.44240144 0.27138984 0.25848806 0
-0.44100061 0.25941736 0.33925676 0
-0.44260758 0.27315181 0.41501075 0
-0.35566047 -0.30013299 -0.049961481 0
-0.43411878 0.30438709 0.040198326 0
-0.4289037 0.2642051 0.11329957 0
-0.42946017 0.26849264 0.18528411 0
-0.42966348 0.27005911 0.25922301 0
-0.429326 0.26745886 0.33707714 0
-0.42887726 0.26400137 0.41946712 0
-0.43055934 0.27696162 0.49911386 0
-0.33652675 -0.29450524 -0.04985458 0
-0.42027378 0.29273427 0.040677249 0
-0.42097229 0.29763234 0.10985497 0
-0.41931525 0.28601301 0.18240009 0
-0.42033678 0.293176 0.25370011 0
-0.41921785 0.28533012 0.33163959 0
-0.41850629 0.28034049 0.41334334 0
-0.41982675 0.2895996 0.49357295 0
-0.31588662 -0.2990365 -0.050123215 0
-0.40682018 0.28580999 0.040992565 0
-0.40613854 0.28142589 0.11181269 0
-0.40662804 0.28457439 0.18299402 0
-0.40714791 0.28791779 0.25552303 0
-0.40758619 0.29073662 0.33043095 0
-0.40760761 0.29087454 0.40969461 0
-0.40872142 0.29803801 0.49021605 0
-0.29579231 -0.29916668 -0.050242484 0
-0.39201632 0.27221888 0.041556045 0
-0.39284855 0.27716064 0.11249351 0
-0.38994473 0.2599175 0.18786474 0
-0.39096147 0.26595503 0.26171467 0
-0.39122954 0.26754677 0.33891693 0
-0.39002383 0.26038718 0.42331922 0
-0.39899707 0.31367105 0.4832724 0
-0.27451551 -0.3053273 -0.050590001 0
0.070046328 -2.2049792 0.13151661 0
-0.38559222 0.30706513 0.48768371 0
-0.25857046 -0.28276277 -0.049903382 0
0.11507305 -2.2046213 0.1318009 0
-0.37655932 0.3241201 0.4801316 0
-0.23754628 -0.28704202 -0.050201047 0
0.15833177 -2.1947222 0.13175869 0
-0.36779755 0.34062028 0.47290128 0
-0.21952061 -0.2767452 -0.049976304 0
0.20528068 -2.2016497 0.13235144 0
-0.35882267 0.35447508 0.46706274 0
-0.19863771 -0.27934456 -0.050232053 0
0.25091633 -2.201097 0.13269332 0
-0.34971741 0.36649048 0.46221015 0
-0.18172456 -0.26512372 -0.049879663 0
0.29724506 -2.2023132 0.13312243 0
-0.0056901961 -0.97709346 0.25302994 0
-0.0049178391 -0.98021746 0.42113155 0
-0.33815765 0.36756885 0.46303844 0
-0.16201355 -0.26260996 -0.049965885 0
0.34498164 -2.2077024 0.1337284 0
-0.32618013 0.36721689 0.46468419 0
-0.14415409 -0.2531004 -0.049802601 0
0.39053938 -2.2035007 0.13400362 0
-0.3156282 0.37238532 0.46354973 0
-0.12205688 -0.25872433 -0.050209269 0
-0.30274385 0.36924762 0.46680471 0
-0.10930733 -0.2323308 -0.049433984 0
-0.30422336 0.41433865 0.44495359 0
-0.08613313 -0.24081874 -0.049967319 0
-0.29209119 0.41259366 0.44757634 0
-0.065109856 -0.24155748 -0.050222568 0
-0.28652287 0.43122131 0.43955925 0
-0.049999155 -0.22449994 -0.049817178 0
-0.26402143 0.39926004 0.45830458 0
-0.030698398 -0.22001135 -0.04989367 0
-0.0092509175 -0.2211374 -0.050193582 0
0.0063106627 -0.2064153 -0.049898803 0
0.027330538 -0.20587432 -0.050155416 0
0.044750713 -0.19618201 -0.050069835 0
0.061962031 -0.18614888 -0.049979046 0
0.069231592 -0.15392351 -0.049029 0
-0.18749575 0.42301989 0.38272652 0
0.097818814 -0.16962147 -0.049960386 0
0.1191273 -0.16847467 -0.050245654 0
-0.15959962 0.41770637 0.3895537 0
-0.20410468 0.51130342 0.49392334 0
0.12743504 -0.14038765 -0.049471837 0
0.55426532 -1.009645 0.46087074 0
-0.15579645 0.43642497 0.38326058 0
-0.19024678 0.50658453 0.50001901 0
0.14952727 -0.14070272 -0.049833994 0
0.5875966 -1.0051641 0.46283108 0
-0.15743224 0.46503383 0.37235868 0
-0.18199904 0.51351255 0.49852592 0
0.17132516 -0.13989651 -0.050164551 0
0.60850614 -0.97631574 0.45993075 0
-0.13530694 0.44675523 0.38328013 0
-0.18024637 0.5327338 0.488866 0
0.18937166 -0.13163006 -0.050205898 0
0.64291424 -0.97336268 0.46236947 0
-0.13118871 0.46330011 0.37802854 0
-0.16967471 0.53472656 0.49076125 0
0.19866373 -0.10752822 -0.049610164 0
0.68308347 -0.98007464 0.46690804 0
-0.10950816 0.44755715 0.38805497 0
-0.1591595 0.53699011 0.49257606 0
0.22437944 -0.11299098 -0.050230764 0
0.71660489 -0.97387314 0.46890131 0
-0.081265844 0.42157012 0.40316936 0
-0.15677215 0.55362755 0.48467475 0
0.2326131 -0.08788348 -0.049602922 0
0.75611967 -0.97729516 0.4730114 0
-0.063230045 0.41473937 0.40936309 0
-0.14645399 0.55613273 0.48646039 0
0.25594065 -0.088545211 -0.05005018 0
0.80305427 -0.9918499 0.47960481 0
-0.055347301 0.42540246 0.40724567 0
-0.13608761 0.55870771 0.48830104 0
0.27099678 -0.075328358 -0.049929485 0
0.84238797 -0.99245405 0.48341084 0
-0.12516136 0.56053495 0.49076954 0
0.29087129 -0.069784649 -0.050141156 0
0.88517946 -0.99746037 0.4882963 0
-0.11928106 0.57043594 0.48766813 0
0.29772809 -0.04419649 -0.049508389 0
0.91442496 -0.98064733 0.48862657 0
0.021356424 0.37547237 0.44169158 0
-0.11410544 0.5811705 0.48400131 0
0.31976333 -0.041827444 -0.049874857 0
0.95522922 -0.98082232 0.49273893 0
0.032717787 0.38232487 0.44194379 0
-0.10588438 0.58713001 0.48376897 0
0.33878174 -0.034661058 -0.05004796 0
0.99193531 -0.97408772 0.49548209 0
0.04496666 0.38793129 0.44289845 0
-0.10258786 0.60015798 0.47850347 0
0.3593671 -0.02947343 -0.050319895 0
0.056178413 0.39509362 0.44314823 0
-0.099526085 0.61313277 0.47325933 0
0.37401268 -0.015856152 -0.050232582 0
0.073790871 0.39355654 0.44793898 0
-0.086037643 0.61151481 0.47872645 0
0.38911524 -0.0029429249 -0.050184105 0
1.1265329 -0.98245382 0.10595608 0
1.1277863 -0.9841187 0.30711532 0
0.092383347 0.39120573 0.45331147 0
-0.082203783 0.62310958 0.47456294 0
0.40180388 0.013043279 -0.050005041 0
0.10939451 0.39143908 0.45750627 0
-0.075396605 0.63057023 0.47349328 0
0.41693762 0.025748128 -0.049980946 0
0.12304672 0.39632183 0.45939884 0
-0.072570957 0.64298069 0.46873087 0
0.42944846 0.041654106 -0.049817983 0
-0.064171501 0.64822406 0.46942648 0
0.44841477 0.049653884 -0.050028298 0
-0.055130996 0.65274817 0.47076643 0
0.4606187 0.065781705 -0.049869988 0
-0.04274217 0.65345293 0.47519168 0
0.47136256 0.083406679 -0.049646031 0
-0.038316824 0.66350859 0.47240674 0
0.49372682 0.087905757 -0.0500568 0
1.2061843 -0.70268965 0.10005204 0
0.50541598 0.10438608 -0.049903527 0
1.209277 -0.65716565 0.098925978 0
-0.024223605 0.67743671 0.47186574 0
0.52860004 0.1085869 -0.050359655 0
0.37999108 0.265369 0.054647416 0
0.53006619 0.1355958 -0.049700249 0
0.38939628 0.28030837 0.054495156 0
0.84176522 -0.1850611 0.22172987 0
-0.010641434 0.69184268 0.4712064 0
0.55043989 0.1429832 -0.050022569 0
0.39513311 0.29877949 0.05416888 0
0.83966392 -0.1471523 0.21866803 0
-0.0041907816 0.6993618 0.47071221 0
0.56387609 0.15747929 -0.049999144 0
0.40811953 0.3098408 0.054220345 0
0.74614495 -0.02081657 0.20197241 0
0.74404377 -0.018761283 0.33433938 0
0.74439257 -0.01910246 0.47061294 0
0.0030598852 0.70607126 0.47096685 0
0.57626158 0.17295909 -0.049933217 0
0.42941919 0.31302637 0.054688271 0
0.83401054 -0.07289768 0.21265298 0
0.19356163 0.53800172 0.35127634 0
0.009054265 0.71399617 0.47025841 0
0.59532577 0.18216777 -0.050203253 0
0.4589245 0.30903429 0.055552799 0
0.84371716 -0.048860315 0.2116411 0
0.18797256 0.561046 0.34466597 0
0.01310148 0.72369307 0.46806261 0
0.60803443 0.19740164 -0.050169528 0
0.83451444 -0.0079894122 0.073084943 0
0.84685594 -0.019181615 0.209732 0
0.19233896 0.57438916 0.34273306 0
0.021829864 0.72902101 0.46973774 0
0.60915691 0.22285235 -0.049593229 0
0.83695382 0.021435613 0.072449014 0
0.84503287 0.014292115 0.20718616 0
0.85076421 0.0092245284 0.34499863 0
0.20526971 0.57996714 0.34469995 0
0.026624223 0.73792446 0.46833345 0
0.63184994 0.22917664 -0.050055053 0
0.84303397 0.047134992 0.072009109 0
0.83015412 0.05823743 0.20287552 0
0.83911616 0.050512072 0.33851892 0
0.22920193 0.57626104 0.35150892 0
0.032348476 0.74594963 0.46776071 0
0.64474887 0.24416029 -0.050059039 0
0.83715445 0.082483523 0.07103131 0
0.83613771 0.083337896 0.20161685 0
0.8380751 0.081709854 0.33472916 0
0.91959172 0.013212198 0.49820504 0
0.26311573 0.5648433 0.36256343 0
0.27914104 0.55137742 0.45840758 0
0.044213854 0.74878472 0.47202975 0
0.65948337 0.25764829 -0.050156437 0
0.84931773 0.10216772 0.070916817 0
0.84701556 0.10405325 0.20109512 0
0.84819001 0.10309135 0.33367103 0
0.94420534 0.024451608 0.50120723 0
0.29125378 0.55924046 0.37095854 0
0.2380767 0.60279423 0.43172929 0
0.049345993 0.75737089 0.47112098 0
0.66593438 0.27784014 -0.04988227 0
0.84278685 0.136675 0.0699609 0
0.84278756 0.1366744 0.19853748 0
0.83810347 0.14041328 0.32802427 0
0.98332423 0.024496907 0.50896102 0
0.27027383 0.59365976 0.35833079 0
0.24795718 0.61147308 0.4326511 0
0.062773369 0.75928831 0.47659829 0
0.680785 0.29125774 -0.050002247 0
0.84892792 0.16047657 0.069607183 0
0.85030359 0.15940642 0.19765992 0
0.83766657 0.16923547 0.32474521 0
0.25347349 0.62361997 0.43133238 0
0.06353607 0.77135301 0.47252524 0
0.69342786 0.30645853 -0.050029784 0
0.84554321 0.19118786 0.068843625 0
0.84424335 0.19217288 0.19499886 0
0.84559935 0.19114542 0.32347369 0
0.26797715 0.62885839 0.43477482 0
0.075528465 0.77469295 0.47696033 0
0.70022851 0.32599974 -0.049806364 0
0.8536517 0.21275067 0.068614371 0
0.83634168 0.225528 0.19217181 0
0.85088557 0.21479237 0.32168284 0
0.2942268 0.62568933 0.4442642 0
0.075343929 0.78725731 0.47240981 0
0.70256251 0.34856158 -0.049399436 0
0.8502 0.24242878 0.067890882 0
0.84042138 0.24945843 0.19101189 0
0.84507459 0.2461133 0.31750971 0
0.086534701 0.7914083 0.47632468 0
0.7328164 0.35123461 -0.050225198 0
0.84289259 0.27418715 0.067022085 0
0.83770055 0.2778213 0.18900977 0
0.83956546 0.27651602 0.31352684 0
0.84395987 0.27344018 0.44241431 0
0.092273019 0.79958045 0.47629625 0
0.74021918 0.37018567 -0.05005819 0
0.87657255 0.27728152 0.067948729 0
0.83852631 0.3032043 0.1875326 0
0.84532779 0.2985701 0.31212172 0
0.83628911 0.30472851 0.43626758 0
0.10318407 0.80422872 0.48005426 0
0.74879569 0.38822091 -0.049953114 0
0.91208142 0.27995151 0.068947695 0
0.84192222 0.32647175 0.18644053 0
0.84198302 0.32643145 0.30881789 0
0.84265739 0.3259843 0.43459073 0
0.11344149 0.80950367 0.48335782 0
0.76397318 0.40191352 -0.050139017 0
0.9548828 0.27875978 0.070249833 0
0.84218866 0.35145754 0.18499468 0
0.83698231 0.35481614 0.30526105 0
0.84025246 0.35270655 0.43034539 0
0.12476989 0.81425661 0.48743755 0
0.77311939 0.41954857 -0.050076563 0
0.98892063 0.28415483 0.071171746 0
0.83430618 0.3811599 0.18256643 0
0.83639675 0.3798483 0.30274856 0
0.8443504 0.37485826 0.42819375 0
0.14090313 0.81620139 0.49489111 0
0.78368002 0.43627298 -0.050083056 0
1.0288869 0.28669941 0.072337389 0
0.8402037 0.40179408 0.18193874 0
0.83338779 0.4059518 0.2998102 0
0.8459186 0.3983081 0.42538631 0
0.13874348 0.82967728 0.48959717 0
0.79338616 0.45351291 -0.050062813 0
1.0780814 0.2847333 0.073878691 0
0.84961373 0.42017877 0.18178712 0
0.85037655 0.41972649 0.3011556 0
0.84311932 0.42402887 0.42139226 0
0.13239188 0.84537888 0.48157001 0
0.80649275 0.46878147 -0.050191786 0
0.85014278 0.44364113 0.180564 0
0.85113972 0.44306695 0.29915059 0
0.8399089 0.44953543 0.41740167 0
0.1465487 0.84887719 0.48777211 0
0.80667955 0.49138397 -0.049799256 0
0.8415994 0.47185314 0.17826883 0
0.83339328 0.47644287 0.29339576 0
0.84307688 0.47102678 0.41539797 0
0.14586015 0.86098218 0.48387325 0
0.8335802 0.49917239 -0.050506197 0
0.85345918 0.48838031 0.17852788 0
0.83044022 0.50087702 0.29080245 0
0.84772128 0.49149531 0.41391531 0
0.8269214 0.52520341 -0.049858298 0
0.84438413 0.51600593 0.17626774 0
0.83799297 0.51937211 0.29043064 0
0.83595544 0.52044523 0.40778503 0
0.84634691 0.53740329 -0.050273396 0
0.85650665 0.53221452 0.17662221 0
0.83845502 0.54143381 0.28867263 0
0.84269661 0.53926754 0.40710071 0
0.84429663 0.53845036 0.5296362 0
0.85104913 0.5572204 -0.050105561 0
0.85135573 0.55706865 0.17492774 0
0.84685796 0.55929482 0.28857958 0
0.85144001 0.55702698 0.40705827 0
0.84814006 0.55866027 0.52775818 0
0.85385114 0.57782066 -0.049873408 0
0.86303753 0.57341707 0.17528696 0
0.83875352 0.58505785 0.28523073 0
0.83706719 0.58586621 0.40053931 0
0.83937997 0.58475763 0.5213356 0
0.87527496 0.58960396 -0.050385743 0
0.89823788 0.57894987 0.17845489 0
0.83855218 0.60664213 0.28353733 0
0.83903903 0.60641623 0.39875776 0
0.84475094 0.60376614 0.52025408 0
0.88022035 0.60918152 -0.050256193 0
0.93283933 0.58556855 0.18154263 0
0.8311289 0.63121146 0.28047973 0
0.84375507 0.62554544 0.39782619 0
0.8328082 0.63045788 0.51295263 0
0.88826579 0.62731832 -0.050257612 0
0.9649629 0.59405404 0.1843331 0
0.83955342 0.64844543 0.28061515 0
0.84886807 0.64440554 0.39707732 0
0.84693545 0.64524376 0.51526701 0
0.89216095 0.64719796 -0.050107237 0
1.0095569 0.59802902 0.18857436 0
0.83521348 0.67104936 0.27829659 0
0.83089048 0.67285997 0.39001122 0
0.830926 0.67284507 0.5067665 0
0.89085561 0.66906816 -0.049767043 0
1.0320157 0.61202443 0.19023417 0
0.84003907 0.68960351 0.27782816 0
0.83940309 0.68986052 0.39036933 0
0.83997399 0.68962979 0.50742549 0
0.90538734 0.68451512 -0.050045874 0
1.0735705 0.61900228 0.19410866 0
0.84533256 0.70790839 0.27749795 0
0.84030777 0.70986575 0.38870135 0
0.83652693 0.71133852 0.50369567 0
0.27919242 0.9284386 0.45522037 0
0.91231447 0.70302796 -0.05004086 0
0.84482664 0.72834271 0.27609667 0
0.84054857 0.72994739 0.38692912 0
0.8366273 0.73141825 0.50134128 0
0.28055093 0.94000292 0.45378906 0
0.90474445 0.726771 -0.049494512 0
0.85276538 0.74552524 0.27637032 0
0.84242934 0.74925452 0.38567853 0
0.84289581 0.74908626 0.5012688 0
0.27052703 0.95559937 0.44638747 0
0.92746192 0.73961067 -0.050106291 0
0.85317415 0.76536161 0.27524686 0
0.83696443 0.77098048 0.38251564 0
0.84302253 0.76888055 0.49911249 0
0.83973855 0.77001888 0.61823654 0
0.26752141 0.96837062 0.44283882 0
0.93107086 0.75926381 -0.050002668 0
0.84098166 0.78922689 0.27178064 0
0.84495109 0.78790665 0.38305643 0
0.83935279 0.78976864 0.49572173 0
0.84888881 0.78659701 0.61961669 0
0.2971634 0.97009718 0.45660466 0
0.93725103 0.7780242 -0.050005093 0
0.85031146 0.80572891 0.27245915 0
0.84711021 0.80674899 0.38209179 0
0.83918959 0.809273 0.49366096 0
0.84455436 0.80756348 0.61522245 0
0.30831656 0.97844452 0.46061781 0
0.93628353 0.79896855 -0.049749572 0
0.84668785 0.82628185 0.27073202 0
0.85121685 0.82490122 0.38171369 0
0.84732813 0.8260867 0.49458107 0
0.83188134 0.83079565 0.60735017 0
0.31405935 0.9886542 0.46184066 0
0.94550794 0.81676114 -0.049883783 0
0.85831362 0.84214699 0.27192432 0
0.84808642 0.8451246 0.37947479 0
0.83735889 0.84824777 0.48929691 0
0.82972664 0.85046989 0.60416889 0
0.32467106 0.99751234 0.46566337 0
0.95963258 0.83329529 -0.050207399 0
0.7835421 0.88216597 0.055683117 0
0.91029817 0.84698713 0.28070369 0
0.83305293 0.86842513 0.3741596 0
0.84478134 0.86517012 0.49013245 0
0.82987911 0.86930597 0.60209668 0
0.3094655 1.0137372 0.45612517 0
0.95227128 0.85574144 -0.049744274 0
0.77512091 0.90251201 0.055203073 0
0.92616814 0.86263305 0.28272891 0
0.83607298 0.88641971 0.37370345 0
0.83644873 0.88632047 0.48561749 0
0.83207959 0.887474 0.6010102 0
0.31864229 1.02303 0.459342 0
0.96279269 0.87337273 -0.049951214 0
0.76935238 0.92184722 0.054831613 0
0.95850104 0.87444818 0.28784534 0
0.83941776 0.90428942 0.37339383 0
0.83845693 0.90453023 0.48475495 0
0.83882803 0.90443718 0.60196608 0
0.33282629 1.0312369 0.4651919 0
0.9590506 0.89454132 -0.049642332 0
0.76473922 0.94064176 0.054512598 0
0.97139996 0.8916114 0.28937194 0
0.84048921 0.92267007 0.37254816 0
0.83644992 0.92362839 0.48260057 0
0.83407634 0.92419153 0.59811658 0
0.34026596 1.0413482 0.46760947 0
0.97414356 0.91127098 -0.050033182 0
0.79075259 0.95234853 0.05532366 0
1.018737 0.90128255 0.29729897 0
0.8316825 0.94318068 0.3691828 0
0.83670872 0.94205487 0.48130685 0
0.83754808 0.94186687 0.59787273 0
0.34577194 1.0520194 0.4690941 0
0.98732191 0.92868918 -0.05036084 0
0.76641053 0.97525781 0.054300688 0
1.0434618 0.91685474 0.30105978 0
0.83032328 0.96178484 0.36783564 0
0.83762604 0.96024543 0.48031947 0
0.8376134 0.96024805 0.59628242 0
0.34590378 1.0639015 0.46789566 0
0.98112959 0.95017546 -0.049990732 0
0.78599757 0.98875016 0.054889448 0
0.81074899 0.98385715 0.15588027 0
1.0702693 0.93255383 0.30523023 0
0.84727305 0.97663695 0.37131441 0
0.84186321 0.97770637 0.48053822 0
0.8393777 0.97819769 0.59551102 0
0.3630251 1.0723656 0.4754416 0
0.99118942 0.96839875 -0.05022135 0
0.774903 1.0083325 0.054369133 0
0.81774396 1.0004226 0.15628439 0
0.84708494 0.99500531 0.37038738 0
0.84048325 0.99622416 0.47893059 0
0.83355552 0.99750328 0.5916425 0
0.39077988 1.0792545 0.48843461 0
0.98344284 0.98984665 -0.049814779 0
0.78118783 1.0245621 0.05448842 0
0.80102724 1.0211569 0.15412489 0
0.84374076 1.0138254 0.3687053 0
0.84121245 1.0142593 0.47811714 0
0.84066206 1.0143539 0.59331578 0
0.38003829 1.0934163 0.48190066 0
0.99802834 1.0074631 -0.050226055 0
0.43394414 1.0969872 0.041835476 0
0.43176553 1.097333 0.11363617 0
0.427017 1.0980866 0.1857616 0
0.41974071 1.0992414 0.25842187 0
0.427699 1.0979784 0.33784091 0
0.43642071 1.0965941 0.42263037 0
0.39103755 1.1037967 0.4864842 0
0.97806996 1.0304132 -0.049398288 0
0.40904024 1.1133909 0.040868334 0
0.39968565 1.114755 0.10994594 0
0.41783306 1.1121087 0.18374348 0
0.41693756 1.1122394 0.25721565 0
0.41760114 1.1121426 0.33381027 0
0.40435275 1.1140745 0.40841466 0
0.4037843 1.1141574 0.49200904 0
0.99045962 1.0484755 -0.049747355 0
0.38705119 1.1287209 0.040015236 0
0.4346256 1.1223942 0.11355168 0
0.43214747 1.1227237 0.18603607 0
0.42191032 1.1240851 0.25805494 0
0.4242008 1.1237805 0.33545038 0
0.43886617 1.1218302 0.42212453 0
0.41486558 1.1250219 0.49674997 0
1.0045186 1.0665883 -0.050164104 0
0.38078901 1.1415565 0.039735883 0
0.43222365 1.1353744 0.11312038 0
0.42556271 1.136175 0.18455324 0
0.43062511 1.1355666 0.25989294 0
0.42381784 1.1363847 0.33479738 0
0.4189091 1.1369747 0.41313937 0
1.0002922 1.0869645 -0.049931914 0
0.35916618 1.1558461 0.038911168 0
0.76825339 1.1118944 0.14928769 0
0.8467564 1.1034601 0.36630878 0
0.8346948 1.104756 0.47180957 0
0.84579724 1.1035632 0.59032053 0
1.0005391 1.1067555 -0.049869627 0
0.34895584 1.1684724 0.038503151 0
0.76539236 1.1290282 0.1487966 0
0.85051531 1.1209655 0.36681381 0
0.84608036 1.1213856 0.47502196 0
0.83559567 1.1223787 0.5853346 0
1.0007404 1.1265094 -0.049814709 0
0.34966329 1.1799161 0.038492348 0
0.76147503 1.1461359 0.14821538 0
0.85281807 1.1386433 0.36700204 0
0.84858304 1.1389906 0.47533581 0
0.83933312 1.1397494 0.58624291 0
1.0029528 1.1460881 -0.049840711 0
0.36897925 1.1900634 0.039152656 0
0.78540343 1.1611784 0.15065767 0
0.84775573 1.1568533 0.36536345 0
0.84312767 1.1571743 0.47306934 0
0.83694333 1.1576033 0.58469832 0
1.0143172 1.1651692 -0.050202776 0
0.87646729 1.1729884 0.057273451 0
0.84136623 1.1749794 0.15656683 0
0.85223418 1.174363 0.36622274 0
0.84392971 1.174834 0.47296602 0
0.83265024 1.1754738 0.58245879 0
1.0144992 1.1850022 -0.050173618 0
0.85040492 1.1922386 0.365527 0
0.84844202 1.1923251 0.47417238 0
0.84732372 1.1923745 0.58817428 0
1.0192531 1.2046736 -0.050316703 0
0.85317785 1.2099032 0.36606377 0
0.8312785 1.2105929 0.46823663 0
0.84200805 1.210255 0.58569533 0
1.0067128 1.224776 -0.049851056 0
0.85427874 1.2276554 0.36623052 0
0.84762174 1.2277812 0.47352833 0
0.83034974 1.2281075 0.58068371 0
1.0086105 1.2444621 -0.049909953 0
0.84481698 1.2454934 0.36375934 0
0.83412534 1.2455606 0.46896392 0
0.84830707 1.2454714 0.58802772 0
1.0141065 1.2642156 -0.050106172 0
0.84931523 1.2631781 0.36490703 0
0.84277707 1.263137 0.47184235 0
0.84601694 1.2631574 0.58707947 0
1.0103852 1.2839365 -0.049982186 0
0.86007386 1.2810972 0.36770928 0
0.84727484 1.2808554 0.4734129 0
0.83881003 1.2806954 0.58418715 0
1.0030169 1.3034582 -0.049736761 0
0.85278958 1.2987276 0.36596468 0
0.84613627 1.2985181 0.47318214 0
0.83638114 1.298211 0.58336443 0
1.0065418 1.3232901 -0.049889259 0
0.8474471 1.3162742 0.36477163 0
0.83104926 1.315551 0.46838027 0
0.84376591 1.3161118 0.58669984 0
1.0112065 1.3432975 -0.050091542 0
0.85387152 1.334373 0.36664116 0
0.85172504 1.3342513 0.47556362 0
0.8474887 1.334011 0.58861238 0
1.0044402 1.3626581 -0.049893938 0
1.3026447 1.383343 0.072565801 0
1.3018228 1.383286 0.20629023 0
1.3052131 1.3835211 0.34272829 0
0.84239239 1.3514179 0.3639918 0
0.84204453 1.3513937 0.47270814 0
0.84034353 1.3512757 0.58610952 0
1.0099037 1.3828853 -0.050142948 0
1.2471502 1.4023463 0.070641398 0
1.251991 1.4027433 0.20110784 0
1.0151495 1.3833157 0.29056108 0
0.85227102 1.3699551 0.366862 0
0.83927292 1.3688889 0.47222799 0
0.85300189 1.370015 0.59192133 0
1.0050914 1.4023188 -0.050032884 0
1.2431167 1.4248642 0.070568725 0
1.2464819 1.4251829 0.20073037 0
0.90541559 1.3928777 0.27099895 0
0.85591513 1.3881891 0.36819765 0
0.8493436 1.3875667 0.47611251 0
0.84716266 1.3873601 0.59014517 0
1.0038543 1.4220614 -0.050059818 0
0.63615304 1.3825561 0.048856866 0
0.64229816 1.3832163 0.13567348 0
0.63340884 1.3822613 0.22199804 0
0.63863784 1.382823 0.31290549 0
0.84650367 1.4051559 0.47576094 0
0.84201032 1.4046731 0.58874357 0
0.99672002 1.4411175 -0.049883682 0
0.5590319 1.3885102 0.04614519 0
0.55394453 1.3878988 0.12629579 0
0.54521292 1.3868493 0.20628729 0
0.55357057 1.3878539 0.29148605 0
0.8346985 1.4216436 0.47247887 0
0.84088677 1.4223874 0.58911079 0
0.99651712 1.4609733 -0.049965516 0
0.55272549 1.4019548 0.045982096 0
0.56155854 1.4031295 0.12731318 0
0.55788893 1.4026414 0.20891303 0
0.55443937 1.4021827 0.29216504 0
0.83306521 1.4392363 0.47267482 0
0.83631748 1.4396688 0.58813244 0
0.99868208 1.4812357 -0.050141949 0
0.55182654 1.4160738 0.046019908 0
0.55585235 1.4166608 0.12690657 0
0.54795998 1.4155099 0.20745991 0
0.56040138 1.4173242 0.29420498 0
0.84785861 1.4592421 0.47846839 0
0.84149224 1.4583138 0.59132034 0
0.98752254 1.4995127 -0.049846292 0
0.55755728 1.4312742 0.046303861 0
0.54932362 1.4299675 0.12642819 0
0.56133217 1.4318733 0.21028835 0
0.55520457 1.4309008 0.29341561 0
0.84865457 1.4774734 0.4796432 0
0.83474582 1.475266 0.58961535 0
0.99412543 1.5206301 -0.050201736 0
0.56288117 1.4466103 0.046580616 0
0.56202132 1.4464628 0.12806347 0
0.5608446 1.4462608 0.21062446 0
0.54803091 1.4440614 0.29215696 0
0.83988029 1.494155 0.47766745 0
0.84302419 1.4946947 0.59430808 0
0.97921628 1.5380337 -0.049786668 0
0.55743903 1.4601595 0.046474166 0
0.55195564 1.4591471 0.12723751 0
0.56230658 1.4610583 0.21135205 0
0.54969746 1.4587301 0.2932319 0
0.839688 1.5122721 0.47866154 0
0.84835225 1.5138718 0.59787238 0
0.98474294 1.5591819 -0.050122228 0
0.54395109 1.4720439 0.046080846 0
0.54971927 1.4731842 0.12728471 0
0.55549771 1.4743265 0.21059518 0
0.55650884 1.4745264 0.29569551 0
0.83085114 1.5287598 0.47680369 0
0.84300214 1.5311619 0.59704071 0
0.97872955 1.5781426 -0.050047338 0
0.55327827 1.4884566 0.046524365 0
0.54876465 1.4875051 0.12749214 0
0.5422104 1.4861234 0.208673 0
0.55131561 1.4880428 0.2950874 0
0.8377015 1.5484136 0.48034516 0
0.83860534 1.5486041 0.59670216 0
0.97368079 1.5972685 -0.05001625 0
0.54783934 1.5018847 0.046436455 0
0.54658979 1.5016048 0.12758563 0
0.54152399 1.50047 0.20910166 0
0.55183679 1.5027801 0.29601607 0
0.83688837 1.5666285 0.48136812 0
0.84178966 1.5677264 0.59967238 0
0.97184438 1.6171372 -0.050111767 0
0.55692786 1.518698 0.046887521 0
0.54836172 1.5166657 0.12813494 0
0.56021601 1.5194781 0.21315692 0
0.5468387 1.5163044 0.29554886 0
0.83978587 1.5858063 0.48374122 0
0.84319407 1.5866147 0.60199636 0
0.95986348 1.6345364 -0.049843404 0
0.55955213 1.5342218 0.047109876 0
0.54340369 1.5301752 0.12796131 0
0.55065984 1.5319935 0.21201742 0
0.55353397 1.5327137 0.29820049 0
0.8488664 1.6067214 0.48832518 0
0.84170645 1.6049272 0.60319471 0
0.95595306 1.6538738 -0.049880229 0
0.5575189 1.5486805 0.047168203 0
0.55137128 1.5470575 0.12924269 0
0.56560189 1.5508145 0.21547306 0
0.54949671 1.5465626 0.29808336 0
0.8400107 1.623263 0.48684317 0
0.83812457 1.6227651 0.60359877 0
0.94791943 1.6720971 -0.049773414 0
0.56104571 1.5647274 0.047439471 0
0.55018121 1.5617121 0.12953085 0
0.5614925 1.5648514 0.21541932 0
0.55561382 1.5632199 0.30070055 0
0.84065944 1.642329 0.48870933 0
0.84057623 1.642306 0.60669315 0
0.94826382 1.6926843 -0.049986258 0
0.54841346 1.5762714 0.047118384 0
0.54325742 1.5747703 0.12919889 0
0.54913253 1.5764807 0.21384874 0
0.5477615 1.5760816 0.29967093 0
0.84049755 1.6613091 0.49038446 0
0.83784968 1.6605382 0.60767174 0
0.94225293 1.7114943 -0.04997237 0
0.85341638 1.6844125 0.38230038 0
0.84751481 1.6826134 0.49464604 0
0.83947819 1.6801634 0.61063844 0
0.93761855 1.7307361 -0.050018866 0
0.84655923 1.7017186 0.38194424 0
0.84799618 1.7021765 0.49673602 0
0.84204096 1.7002788 0.61413026 0
0.9456597 1.7542315 -0.050551556 0
0.84799606 1.7217492 0.3838751 0
0.84360963 1.7202903 0.4972142 0
0.84628409 1.7211798 0.61848015 0
0.92589301 1.7684885 -0.050047006 0
0.84287971 1.7397131 0.38411289 0
0.82640129 1.734001 0.49325991 0
0.83325118 1.7363755 0.61539376 0
0.9139232 1.7851838 -0.049842883 0
0.84082454 1.7588096 0.38524324 0
0.83054298 1.7550999 0.49689972 0
0.8346048 1.7565655 0.61870968 0
0.91093618 1.8050982 -0.049988303 0
0.84758657 1.7813357 0.38884693 0
0.82743019 1.773775 0.49807328 0
0.82677275 1.7735283 0.61809152 0
0.90558773 1.8242061 -0.050053548 0
0.84711319 1.8014283 0.39056471 0
0.82798415 1.7939769 0.50064552 0
0.83946353 1.7984486 0.62668413 0
0.90753347 1.8463145 -0.050409243 0
0.84246367 1.8200195 0.39121154 0
0.83006948 1.8150109 0.50387144 0
0.83272189 1.8160827 0.62678254 0
0.89058214 1.8607838 -0.050046127 0
0.8314088 1.8360003 0.3901546 0
0.82267195 1.832341 0.50378925 0
0.82394665 1.8328749 0.626068 0
0.87832576 1.8770137 -0.049870797 0
0.83774239 1.8594122 0.3939833 0
0.82861739 1.8554546 0.5086242 0
0.82042605 1.851902 0.62781614 0
0.86031693 1.8905299 -0.04947735 0
0.83062667 1.8772063 0.39415494 0
0.82487899 1.874627 0.51006114 0
0.83065361 1.8772184 0.63592178 0
0.86415297 1.9138789 -0.049948022 0
0.81956559 1.8931918 0.39328074 0
0.82215995 1.8943956 0.51196867 0
0.82132667 1.894009 0.63529468 0
0.87810296 1.9424478 -0.050833568 0
0.82625347 1.9175932 0.39747977 0
0.81775492 1.9135194 0.51335722 0
0.81659073 1.9129612 0.63686854 0
0.85012096 1.9509633 -0.050068587 0
0.81744391 1.9347901 0.39738056 0
0.81448036 1.9333234 0.5152632 0
0.80509835 1.9286798 0.63544089 0
0.84566277 1.9708905 -0.050245974 0
0.81285554 1.9541353 0.39855185 0
0.81199986 1.9536983 0.51757103 0
0.81115121 1.9532648 0.64225262 0
0.82796711 1.9839904 -0.049900491 0
0.80786294 1.9734017 0.39968437 0
0.80019265 1.9693618 0.51648331 0
0.79440016 1.966311 0.63858294 0
0.8237434 2.0041304 -0.050106596 0
0.8028565 1.9927913 0.40089086 0
0.78419155 1.9826583 0.51387495 0
0.79296166 1.9874195 0.64217919 0
0.81575638 2.0223358 -0.050170552 0
0.79434103 2.0103583 0.40115121 0
0.78641349 2.0059242 0.51825833 0
0.7912696 2.0086403 0.64580619 0
0.79960078 2.0358922 -0.049907841 0
0.78174895 2.0256104 0.40027809 0
0.78825885 2.0293598 0.522641 0
0.77982515 2.0245025 0.64492714 0
0.79656941 2.0570173 -0.05019493 0
0.78660017 2.0511072 0.40462881 0
0.77370495 2.0434623 0.52082771 0
0.77136964 2.0420778 0.645576 0
0.77927047 2.0696805 -0.049898654 0
0.76682025 2.0620859 0.40174764 0
0.77629727 2.0678668 0.52575129 0
0.76570219 2.0614038 0.64768893 0
0.77067286 2.0875595 -0.049973447 0
0.76123434 2.0816379 0.40316013 0
0.76075131 2.0813348 0.52371025 0
0.76773125 2.0857141 0.65369898 0
0.75981265 2.1040456 -0.04996226 0
0.75423807 2.1004496 0.40423045 0
0.75415725 2.1003973 0.52526361 0
0.76023108 2.1043155 0.65521312 0
0.75606567 2.1252427 -0.050264534 0
0.75258905 2.1229374 0.40701881 0
0.74731094 2.1194377 0.52682471 0
0.75248724 2.12287 0.65673482 0
0.73365957 2.1339881 -0.049774811 0
0.73345548 2.1338489 0.40452036 0
0.7373684 2.1365151 0.52724898 0
0.73728997 2.1364615 0.65465194 0
0.73391467 2.1581771 -0.050273057 0
0.72317821 2.1506624 0.40480044 0
0.73335665 2.1577866 0.53017235 0
0.72955006 2.1551223 0.65640563 0
0.71371883 2.1681015 -0.049889963 0
0.72864085 2.1788285 0.41009501 0
0.72415668 2.1756051 0.53110576 0
0.7295683 2.1794953 0.66225052 0
0.70375997 2.18525 -0.049963068 0
0.70368928 2.1851978 0.40590632 0
0.71240538 2.1916318 0.53108519 0
0.70755953 2.1880548 0.65697169 0
0.69845456 2.2059939 -0.050254952 0
0.70345515 2.2097831 0.40961534 0
0.70248467 2.2090478 0.53191245 0
0.70619851 2.2118621 0.66242427 0
0.67901248 2.2160068 -0.049922075 0
0.68803781 2.2230265 0.40855291 0
0.69556063 2.2288778 0.53410292 0
0.69392532 2.2276058 0.66236323 0
0.66271371 2.2282324 -0.049735155 0
0.68994397 2.2499676 0.41318908 0
0.68268687 2.244175 0.53388852 0
0.67891186 2.2411618 0.66095436 0
0.65107721 2.2441099 -0.049768515 0
0.66508538 2.255583 0.40915805 0
0.66952592 2.2592199 0.53363085 0
0.67261547 2.2617505 0.66428697 0
0.64264244 2.2627127 -0.049960811 0
0.66589731 2.2822537 0.4136622 0
0.66809577 2.284101 0.53855008 0
0.65542608 2.2734547 0.66190362 0
0.62651283 2.2748659 -0.049803492 0
0.71909875 2.3546753 0.066167481 0
0.71766967 2.3534436 0.18691555 0
0.72440583 2.3592501 0.3112058 0
0.6503374 2.2954028 0.41281334 0
0.64092928 2.287293 0.53235543 0
0.65082937 2.2958269 0.66645783 0
0.60985965 2.286412 -0.049626719 0
0.68006116 2.3484838 0.064972207 0
0.68421406 2.3521559 0.18411601 0
0.68805975 2.3555562 0.30582967 0
0.63536519 2.308964 0.41221124 0
0.63401943 2.3077741 0.53510505 0
0.64047092 2.3134785 0.66803366 0
0.60591692 2.3093212 -0.050067473 0
0.664056 2.3620465 0.064869538 0
0.65344471 2.3524234 0.18167169 0
0.66314584 2.3612211 0.30316389 0
0.62826794 2.3295908 0.41437301 0
0.62316817 2.324966 0.53623116 0
0.62759417 2.32898 0.66834342 0
0.59259146 2.3239322 -0.050069932 0
0.63356763 2.3620439 0.064067796 0
0.6443612 2.3720829 0.1823819 0
0.63903612 2.3671303 0.30068225 0
0.61310238 2.3430092 0.41383898 0
0.61026984 2.3403747 0.5365383 0
0.6091693 2.3393512 0.66562951 0
0.57707995 2.3364646 -0.049973592 0
0.62039465 2.3777809 0.064110667 0
0.63209325 2.3889396 0.18266428 0
0.62151903 2.3788533 0.29983217 0
0.60395259 2.3620973 0.41547883 0
0.60025507 2.3585706 0.53826362 0
0.60616404 2.3642068 0.67177999 0
0.56519967 2.3524585 -0.050065245 0
0.62202746 2.4080477 0.064903341 0
0.61171395 2.397959 0.18176244 0
0.61705023 2.4031789 0.30230054 0
0.58940548 2.3761368 0.41529796 0
0.59300166 2.3796544 0.54140145 0
0.58430928 2.3711517 0.66726941 0
0.54727918 2.3624892 -0.049862731 0
0.60527593 2.4206688 0.064795569 0
0.60222274 2.4176059 0.18252374 0
0.60767907 2.4230795 0.30362567 0
0.57669467 2.3919973 0.41584188 0
0.57335383 2.3886461 0.53886271 0
0.56462318 2.3798878 0.66402429 0
0.53946441 2.3827157 -0.050181627 0
0.5992412 2.4442103 0.065243386 0
0.60044485 2.4454486 0.18452217 0
0.59579605 2.4406662 0.30438259 0
0.56025225 2.4041009 0.41509962 0
0.5651831 2.4091735 0.54182267 0
0.5599429 2.4037826 0.66971546 0
0.52978951 2.4013112 -0.050421387 0
0.6158151 2.4920678 0.066885784 0
0.61866492 2.4950745 0.18972577 0
0.61347812 2.4896023 0.31295806 0
0.5479216 2.4204404 0.41592854 0
0.54643732 2.4188745 0.53983223 0
0.54221481 2.4144197 0.66780972 0
0.50527054 2.4040995 -0.049895875 0
0.53669578 2.4381006 0.41726094 0
0.53000444 2.4308608 0.5390076 0
0.53007191 2.4309337 0.66936606 0
0.48799846 2.4143808 -0.049751312 0
0.51954156 2.4493833 0.41643688 0
0.51368874 2.4428887 0.53830427 0
0.51776189 2.4474087 0.67096865 0
0.48112413 2.4363468 -0.050174031 0
0.50777072 2.466675 0.41773638 0
0.50397831 2.4623587 0.5409959 0
0.51191169 2.4713883 0.67677581 0
0.45541188 2.4367824 -0.049584236 0
0.48491928 2.4712322 0.41479412 0
0.48579153 2.4722507 0.53951681 0
0.48561773 2.4720478 0.66984797 0
