# .PCD v0.7 - Point Cloud Data file format
VERSION 0.7
FIELDS x y z intensity
SIZE 4 4 4 4
TYPE F F F F
COUNT 1 1 1 1
WIDTH 1360
HEIGHT 1
VIEWPOINT 0 0 0 1 0 0 0
POINTS 1360
DATA ascii
-1.2431008 0.65568143 0.46143213 0
-1.2427292 0.65600574 0.54552639 0
-1.7273017 0.2067045 -0.050065294 0
-1.3259797 0.56608021 0.34923661 0
-1.2475328 0.6363278 0.38955688 0
-1.2426504 0.64069998 0.46622866 0
-1.237956 0.64490366 0.5477671 0
-1.7104224 0.19535959 -0.049890991 0
-1.3287704 0.5458796 0.35443923 0
-1.2493583 0.61881393 0.39498818 0
-1.2406627 0.62680024 0.470164 0
-1.2339904 0.63292825 0.55079597 0
-1.6967602 0.18114913 -0.049879357 0
-1.3095675 0.54585135 0.34976751 0
-1.2516457 0.60040861 0.40087169 0
-1.2412257 0.61022335 0.47601911 0
-1.240995 0.61044061 0.56292069 0
-1.6896751 0.16059244 -0.050202884 0
-1.3111392 0.5262441 0.35464844 0
-1.2348768 0.5999108 0.39598992 0
-1.2405819 0.59439993 0.48125061 0
-1.2370715 0.59779084 0.56641501 0
-1.6781532 0.14410532 -0.050320432 0
-1.2933819 0.52526146 0.3506538 0
-1.2346603 0.58343142 0.40069714 0
-1.2400658 0.57807672 0.48677722 0
-1.2429217 0.57524759 0.57824421 0
-1.6509715 0.14340377 -0.04965305 0
-1.2807664 0.51948345 0.34905204 0
-1.2410679 0.55981195 0.40949622 0
-1.2395544 0.56134945 0.49252406 0
-1.237835 0.56309617 0.58121818 0
-1.641322 0.12511253 -0.049881183 0
-1.3973681 0.37926072 0.04930415 0
-1.4024985 0.37391591 0.13715191 0
-1.4020742 0.37435788 0.22598095 0
-1.4001113 0.37640285 0.316475 0
-1.270764 0.51115531 0.34871927 0
-1.2451019 0.53788972 0.41716895 0
-1.2379911 0.54529774 0.49773782 0
-1.2405353 0.54264712 0.59103048 0
-1.6221935 0.11670875 -0.049629126 0
-1.3721756 0.38382679 0.048567094 0
-1.3743768 0.38147491 0.13448317 0
-1.3730695 0.38287163 0.22126792 0
-1.369738 0.3864311 0.30928698 0
-1.2626411 0.50085288 0.34934783 0
-1.2359781 0.52933949 0.41713953 0
-1.2405533 0.52445143 0.50618982 0
-1.2399509 0.52509499 0.59834695 0
-1.6176203 0.092615359 -0.050150007 0
-1.3568226 0.37837887 0.048337892 0
-1.3457364 0.39052635 0.13167961 0
-1.351176 0.38456601 0.21836346 0
-1.351667 0.38402808 0.30660787 0
-1.258005 0.48665619 0.35176957 0
-1.2381102 0.50845551 0.42408881 0
-1.2349699 0.51189649 0.5089069 0
-1.2408767 0.5054242 0.60728681 0
-1.601172 0.081310146 -0.050056718 0
-1.3383379 0.37669027 0.047940884 0
-1.3328366 0.38287276 0.13136256 0
-1.3321446 0.38365048 0.21618837 0
-1.325133 0.39153033 0.30065393 0
-1.2544272 0.47099137 0.3548443 0
-1.242803 0.48405504 0.43289456 0
-1.2422379 0.48469001 0.52145386 0
-1.2464205 0.47998953 0.62069345 0
-1.5900034 0.064014427 -0.050257418 0
-1.3251665 0.36930054 0.0478287 0
-1.3203828 0.37481469 0.13112973 0
-1.3227487 0.3720876 0.21663651 0
-1.3343731 0.3586877 0.30850488 0
-1.250955 0.45484644 0.35811701 0
-1.2441972 0.46263641 0.43993777 0
-1.2436967 0.46321338 0.53000826 0
-1.2418905 0.46529531 0.62546688 0
-1.5691128 0.057990786 -0.049935572 0
-1.3068043 0.36816764 0.047432959 0
-1.310308 0.36402458 0.1313061 0
-1.304981 0.37032372 0.21479355 0
-1.3070254 0.36790615 0.3021796 0
-1.2543145 0.43023622 0.36506268 0
-1.2443491 0.4420203 0.44646162 0
-1.2484635 0.43715507 0.54146218 0
-1.2402229 0.44689941 0.63310939 0
-1.5522475 0.047435876 -0.049838923 0
-1.2974852 0.35649949 0.047539495 0
-1.2945485 0.36006218 0.13054746 0
-1.3006259 0.35268939 0.21673147 0
-1.3022563 0.35071135 0.30476734 0
-1.2506711 0.41329175 0.36861318 0
-1.2388813 0.42759448 0.4495956 0
-1.2367303 0.43020397 0.54036939 0
-1.2392612 0.42713368 0.64174205 0
-1.5423936 0.028257364 -0.050147947 0
-1.2902751 0.3420825 0.047776241 0
-1.2867829 0.34642935 0.1311571 0
-1.283643 0.35033774 0.21512716 0
-1.2905951 0.3416841 0.30467579 0
-1.2529536 0.38853842 0.37548015 0
-1.2394596 0.40533513 0.45689517 0
-1.2425963 0.40143079 0.55338836 0
-1.2370049 0.4083907 0.64951909 0
-1.5197284 0.025084848 -0.049733881 0
-1.2865127 0.32298666 0.048226941 0
-1.2840066 0.32618803 0.13267611 0
-1.2730134 0.34023035 0.21536417 0
-1.2772819 0.33477783 0.30394578 0
-1.2503566 0.36917132 0.37999177 0
-1.2407261 0.381473 0.4649621 0
-1.2385296 0.38427883 0.55884808 0
-1.2430091 0.37855679 0.66559464 0
-1.5075563 0.0086319391 -0.049932953 0
-1.2760856 0.31210077 0.048306841 0
-1.2765539 0.31148684 0.13343655 0
-1.2692678 0.32103914 0.21768987 0
-1.2782227 0.30929899 0.30923629 0
-1.2460109 0.35153002 0.38375193 0
-1.2456347 0.35202336 0.47585315 0
-1.2333558 0.3681215 0.56366217 0
-1.2392025 0.36045623 0.67270833 0
-1.4971509 -0.010439521 -0.050253488 0
-1.2780241 0.28447402 0.049136456 0
-1.2739371 0.28997445 0.13511445 0
-1.2692697 0.29625607 0.22126095 0
-1.2666677 0.29975796 0.30940792 0
-1.2448864 0.32907254 0.38949606 0
-1.2433351 0.33116031 0.4821817 0
-1.2415031 0.33362591 0.57990307 0
-1.2374651 0.33906049 0.68222594 0
-1.4754974 -0.014358288 -0.04990916 0
-1.2721905 0.26658499 0.049528334 0
-1.2769852 0.25995928 0.13790949 0
-1.2771207 0.25977194 0.22740451 0
-1.2796468 0.25628138 0.32031131 0
-1.2464774 0.30211717 0.39704108 0
-1.237686 0.31426555 0.48643959 0
-1.2411207 0.30951935 0.5895167 0
-1.2388761 0.312621 0.69536561 0
-1.4595594 -0.025972491 -0.049915925 0
-1.1721464 0.3819111 0.044101901 0
-1.173885 0.37944388 0.12102006 0
-1.1730978 0.38056093 0.1987735 0
-1.3360094 0.14936423 0.35086757 0
-1.2389879 0.28705263 0.39967179 0
-1.2423898 0.28222489 0.49836749 0
-1.2418374 0.28300887 0.60051978 0
-1.4392822 -0.031274561 -0.049658082 0
-1.1570982 0.3800928 0.043848511 0
-1.155043 0.38308877 0.11954249 0
-1.1497189 0.39085019 0.19484292 0
-1.316026 0.14840794 0.34815741 0
-1.234853 0.26674193 0.40443465 0
-1.2397871 0.25954902 0.50546104 0
-1.2389404 0.26078343 0.60882288 0
-1.4278821 -0.049551848 -0.049970385 0
-1.1417466 0.3790468 0.043572258 0
-1.1386592 0.38367128 0.11850378 0
-1.1435186 0.37639254 0.19637564 0
-1.3014377 0.13984752 0.34788015 0
-1.2438253 0.22614431 0.41729379 0
-1.2355633 0.23852003 0.51169175 0
-1.2392905 0.2329371 0.62045997 0
-1.4103376 -0.05877972 -0.049901031 0
-1.1248125 0.38079113 0.043187726 0
-1.1234241 0.38292867 0.11766991 0
-1.1222966 0.3846643 0.19302464 0
-1.2860886 0.13250363 0.34729117 0
-1.2432219 0.19849777 0.42486525 0
-1.2414916 0.20116162 0.52596015 0
-1.2397803 0.20379615 0.63277209 0
-1.3937157 -0.069382437 -0.049899653 0
-1.1074342 0.38374221 0.042764325 0
-1.1140058 0.37334061 0.11799154 0
-1.1089491 0.3813445 0.19223022 0
-1.2720944 0.12311911 0.34738123 0
-1.2394645 0.17476547 0.43083936 0
-1.2402047 0.17359388 0.53528386 0
-1.2422224 0.17040026 0.64750117 0
-1.3811952 -0.086665161 -0.050186984 0
-1.0968603 0.37618351 0.042793747 0
-1.0949705 0.37925982 0.11636985 0
-1.0905868 0.38639569 0.18970583 0
-1.2539828 0.12041496 0.3455233 0
-1.2375919 0.14709651 0.43832308 0
-1.2400178 0.14314747 0.54594249 0
-1.2435971 0.13732088 0.66191286 0
-1.3632631 -0.095286615 -0.050118592 0
-1.0819082 0.37591279 0.042525467 0
-1.0790682 0.38066906 0.11535491 0
-1.0788566 0.38102341 0.18943858 0
-1.2488161 0.096383445 0.35008481 0
-1.2431146 0.10593211 0.45098928 0
-1.242274 0.10733985 0.55910766 0
-1.2350103 0.11950492 0.66731173 0
-1.3398322 -0.094339736 -0.049665127 0
-1.0649221 0.37952107 0.042106826 0
-1.0669 0.37611169 0.11511366 0
-1.062059 0.38445598 0.18736838 0
-1.2517571 0.057474609 0.35902056 0
-1.2385356 0.080264442 0.45757601 0
-1.2417712 0.074687354 0.5706532 0
-1.2418984 0.074468009 0.68847996 0
-1.3294408 -0.11589051 -0.050148912 0
-1.0478188 0.38393474 0.041666947 0
-1.0545503 0.37198752 0.11483965 0
-1.0498739 0.38028711 0.18693027 0
-1.2467908 0.030797595 0.36430028 0
-1.2405248 0.041918512 0.46897966 0
-1.2419616 0.039368387 0.58338737 0
-1.3132684 -0.12758946 -0.050233833 0
-1.0364697 0.37847048 0.041640837 0
-1.0394412 0.3730377 0.11395281 0
-1.0340672 0.38286293 0.18514037 0
-1.244745 -0.0023108772 0.3714323 0
-1.2410823 0.0043854662 0.47998732 0
-1.2418252 0.0030273148 0.59651536 0
-1.292134 -0.13007355 -0.049953997 0
-1.0194341 0.3837561 0.041186213 0
-1.0179564 0.38654035 0.11158004 0
-1.0194166 0.38378912 0.18373998 0
-1.2374523 -0.027040368 0.37610415 0
-1.2416334 -0.034918789 0.49158609 0
-1.2385057 -0.029025322 0.60754657 0
-1.2731276 -0.13626754 -0.049835652 0
-1.0077959 0.37925118 0.04113628 0
-1.0053695 0.38396543 0.11119866 0
-0.99869442 0.39693475 0.17990763 0
-1.2415549 -0.074924238 0.38741621 0
-1.242183 -0.076144584 0.50382638 0
-1.2437336 -0.079157479 0.62694496 0
-1.2566953 -0.14744139 -0.049926311 0
-0.99711174 0.37290853 0.041165847 0
-0.98751932 0.39213711 0.10954814 0
-0.99370921 0.37972915 0.18226919 0
-1.2403227 -0.11462177 0.3963086 0
-1.2383536 -0.11067451 0.51349795 0
-1.242153 -0.11829079 0.64110219 0
-1.2398523 -0.15791965 -0.049997069 0
-0.98097402 0.37779886 0.040755186 0
-0.97710437 0.38580662 0.10966549 0
-0.98475254 0.36997968 0.18313554 0
-1.241793 -0.16193604 0.40730977 0
-1.2426066 -0.16361964 0.52993315 0
-1.2211467 -0.1645416 -0.0499238 0
-0.96553761 0.38186896 0.040387295 0
-0.96726173 0.37818336 0.10995116 0
-0.96608734 0.38069391 0.17994487 0
-1.2413242 -0.2076745 0.41779727 0
-1.2365985 -0.19757247 0.53927636 0
-1.2032608 -0.17285693 -0.049926564 0
-0.95234936 0.38159591 0.040199328 0
-0.95433056 0.37721795 0.10946447 0
-0.95427895 0.37733197 0.17960545 0
-1.2438467 -0.26254153 0.43078318 0
-1.2409408 -0.25612044 0.55757576 0
-1.1877949 -0.18671703 -0.050154183 0
-0.93965757 0.38051397 0.040050406 0
-0.93875223 0.38258362 0.10825698 0
-0.94174808 0.37573516 0.17894979 0
-1.2403239 -0.30679584 0.44073349 0
-1.2358171 -0.29649341 0.56915474 0
-1.1716641 -0.19942391 -0.050343461 0
-0.92791069 0.37746078 0.039984889 0
-0.92536467 0.38348639 0.10759952 0
-0.92241937 0.39045691 0.17513362 0
-1.2400877 -0.36136031 0.45349902 0
-1.1483653 -0.19491434 -0.049875841 0
-0.9145968 0.37836766 0.039772738 0
-0.91543305 0.37631685 0.10790192 0
-0.91254836 0.38339108 0.17562801 0
-1.2392128 -0.41770411 0.46669024 0
-1.1278548 -0.19660378 -0.049659617 0
-0.90146172 0.37922359 0.039570037 0
-0.90102971 0.38032252 0.10692681 0
-0.90085059 0.38077801 0.17528123 0
-1.242837 -0.48905921 0.48393458 0
-1.1114787 -0.20878899 -0.049854983 0
-0.88811678 0.38103205 0.039338268 0
-0.88718224 0.38349998 0.10607244 0
-0.88547599 0.38800555 0.17306682 0
-1.2363672 -0.53857636 0.49512675 0
-1.0974182 -0.22774112 -0.050314434 0
-0.87929046 0.3709113 0.039567236 0
-0.87201196 0.3908872 0.10476043 0
-0.87541509 0.38154727 0.17352676 0
-1.0751486 -0.22423995 -0.049929239 0
-0.86376774 0.37941957 0.039094739 0
-0.86289752 0.3819049 0.10533997 0
-0.86424357 0.37806082 0.17344105 0
-1.0577683 -0.23444307 -0.050072413 0
-0.85318542 0.37426871 0.039146066 0
-0.84741724 0.39143121 0.10383164 0
-0.85180825 0.37836623 0.17266111 0
-1.0368161 -0.23389769 -0.049820077 0
-0.83919114 0.37958539 0.038809575 0
-0.84153515 0.37230891 0.10558613 0
-0.83681184 0.38697124 0.17034146 0
-1.0151641 -0.23048866 -0.049471613 0
-0.82861245 0.37462217 0.038865037 0
-0.82661718 0.38109416 0.10420366 0
-0.82843673 0.37519222 0.17191349 0
-1.0006794 -0.25055337 -0.050008245 0
-0.81643802 0.37493169 0.038729023 0
-0.81423587 0.38240778 0.10368449 0
-0.81551898 0.3780517 0.17074738 0
-0.97965187 -0.24873877 -0.049738403 0
-0.80223364 0.38281494 0.038318325 0
-0.80211902 0.38322306 0.10324021 0
-0.8018328 0.38424176 0.168992 0
-0.96108252 -0.25539291 -0.049792238 0
-0.7910924 0.38035673 0.038297798 0
-0.79015869 0.38384879 0.10283551 0
-0.79132402 0.37949044 0.16931733 0
-0.9457497 -0.27495933 -0.05033014 0
-0.77960694 0.37930566 0.10302196 0
-0.78046018 0.37594551 0.16944182 0
-0.92352641 -0.26751935 -0.049881849 0
-0.76719499 0.3823002 0.16775501 0
-0.90293956 -0.26586699 -0.049656995 0
-0.75585419 0.38124305 0.16747478 0
-0.88851529 -0.29225647 -0.050466038 0
-0.74480438 0.37900478 0.16743951 0
-0.86631167 -0.28284681 -0.049976032 0
-0.84689814 -0.2864325 -0.04996942 0
-0.82554984 -0.2789458 -0.0495704 0
-0.80919033 -0.30052519 -0.050233137 0
-0.78838259 -0.29545128 -0.049940009 0
-0.76793462 -0.29150951 -0.049697623 0
-0.74911159 -0.29936695 -0.049889326 0
-0.73125654 -0.31723273 -0.050448768 0
-0.71149927 -0.31974959 -0.050464999 0
-0.69050908 -0.30796671 -0.049977761 0
-0.67034239 -0.30283082 -0.049738366 0
-0.65069723 -0.30363274 -0.049720604 0
-0.63176084 -0.31923342 -0.050240625 0
-0.61156797 -0.30924809 -0.04985493 0
-0.59202182 -0.31640339 -0.050090518 0
-0.5722422 -0.31676579 -0.050092347 0
-0.55250001 -0.30384719 -0.04962891 0
-0.53277278 -0.3105495 -0.049874835 0
-0.51292425 -0.31529617 -0.050059877 0
-0.49328652 -0.31163001 -0.049953338 0
-0.47386152 -0.30533814 -0.049761694 0
-0.45411527 -0.30589759 -0.049823768 0
-0.49574569 0.32292855 0.039324723 0
-0.43404356 -0.30998743 -0.050021242 0
-0.48417124 0.32565612 0.039257493 0
-0.41432253 -0.30868423 -0.050034653 0
-0.47354117 0.33819944 0.038843505 0
-0.39545947 -0.29903042 -0.049757246 0
-0.46234292 0.3424952 0.03872982 0
-0.37462446 -0.30788732 -0.05015333 0
-0.44916213 0.32917231 0.039254334 0
-0.44160998 0.26462561 0.11308749 0
-0.44161344 0.26465505 0.18570261 0
-0.44108015 0.26009709 0.26138887 0
-0.44212985 0.26906872 0.33602393 0
-0.44240659 0.27143395 0.41572684 0
-0.3556408 -0.30028462 -0.049966939 0
-0.43435916 0.30623931 0.040131643 0
-0.42873257 0.26288652 0.11344246 0
-0.42868024 0.26248336 0.18637697 0
-0.42867503 0.26244295 0.26118243 0
-0.42889455 0.26413447 0.33819243 0
-0.42920187 0.26650244 0.41842288 0
-0.43018442 0.27407289 0.50057131 0
-0.33595368 -0.29852366 -0.049999494 0
-0.42079133 0.29636335 0.04054638 0
-0.41999641 0.29078937 0.11059783 0
-0.42070848 0.29578239 0.18062036 0
-0.42102998 0.29803675 0.25244743 0
-0.41892731 0.28329277 0.33232424 0
-0.41960272 0.28802878 0.41012791 0
-0.41906926 0.28428817 0.49625736 0
-0.31679443 -0.29319775 -0.049912259 0
-0.40825391 0.29503107 0.040659405 0
-0.4077886 0.29203856 0.11065844 0
-0.405561 0.27771157 0.18424658 0
-0.40755597 0.2905423 0.25484541 0
-0.40535951 0.27641565 0.3352527 0
-0.40655041 0.28407496 0.41254374 0
-0.4088929 0.29914093 0.48965755 0
-0.29757801 -0.28856301 -0.049858589 0
-0.39021885 0.2615453 0.04194247 0
-0.39107421 0.26662451 0.11364175 0
-0.39109513 0.26674873 0.18661538 0
-0.39131266 0.26804042 0.26117513 0
-0.39168125 0.27022922 0.33801192 0
-0.39040276 0.26263732 0.42237446 0
-0.39694107 0.30146223 0.489467 0
-0.27772763 -0.28761804 -0.049947444 0
0.067912363 -2.1932144 0.13108975 0
-0.38496321 0.30359733 0.48944712 0
-0.25712684 -0.29018819 -0.050173443 0
0.11366292 -2.1973681 0.13153711 0
-0.37667125 0.32469589 0.47983813 0
-0.23861532 -0.28189051 -0.050013214 0
0.16105606 -2.20785 0.13223736 0
-0.36747032 0.33904356 0.47370702 0
-0.21821667 -0.28265369 -0.050192323 0
0.20396252 -2.1956768 0.13213308 0
-0.35550874 0.33945858 0.4747569 0
-0.20196895 -0.26510429 -0.049709927 0
0.25204328 -2.2059143 0.13286996 0
-0.34981132 0.36689186 0.46200392 0
-0.18134589 -0.26665533 -0.049935989 0
0.29586855 -2.1967459 0.13291769 0
-0.0077602654 -0.96872139 0.25210309 0
-0.005548039 -0.97766852 0.42065802 0
-0.33844885 0.36874658 0.46243146 0
-0.1600662 -0.27008104 -0.050241522 0
0.34285697 -2.1995513 0.13342766 0
-0.32736552 0.37176466 0.46233273 0
-0.14153285 -0.26266205 -0.050156556 0
0.39030513 -2.2026463 0.13397199 0
-0.31671849 0.37636232 0.46148646 0
-0.12196258 -0.25905192 -0.050221443 0
-0.30181399 0.36601591 0.46848729 0
-0.10534672 -0.24547088 -0.049923945 0
-0.30459514 0.41557205 0.44430909 0
-0.086960413 -0.23819399 -0.049869072 0
-0.29299474 0.41546029 0.44607252 0
-0.067386903 -0.23463857 -0.049962517 0
-0.288082 0.43595886 0.43706381 0
-0.043586709 -0.24318874 -0.050522577 0
-0.26344031 0.39756644 0.45920047 0
-0.030602971 -0.2202785 -0.049903795 0
-0.0071819215 -0.2267065 -0.050405689 0
0.0079949116 -0.21077967 -0.050065815 0
0.030006191 -0.21255589 -0.050412375 0
0.045599662 -0.19822705 -0.050148886 0
0.063993834 -0.19087434 -0.050162684 0
0.078742944 -0.17529833 -0.049864247 0
-0.18705367 0.4220264 0.38317674 0
0.09866222 -0.17145431 -0.050032414 0
0.11588546 -0.16165686 -0.049976133 0
-0.15895991 0.41636109 0.39017048 0
-0.20333047 0.50967526 0.49499252 0
0.13390149 -0.15355682 -0.049995616 0
0.55285877 -1.0067809 0.46029526 0
-0.1582811 0.44148511 0.38092658 0
-0.19568385 0.51765734 0.49270341 0
0.15297879 -0.14751375 -0.0501066 0
0.58410066 -0.99826527 0.46143624 0
-0.15234898 0.45500284 0.3770147 0
-0.18828385 0.52591467 0.49028042 0
0.17151166 -0.14025331 -0.050178923 0
0.6092785 -0.97779346 0.46023148 0
-0.13669269 0.44940639 0.38204154 0
-0.18158706 0.53529882 0.48714957 0
0.18936153 -0.13161123 -0.050205134 0
0.64854497 -0.98381281 0.46451032 0
-0.12574802 0.45320272 0.38277748 0
-0.17325045 0.54136276 0.48629069 0
0.20298274 -0.1153077 -0.049927831 0
0.68287641 -0.97970176 0.46683109 0
-0.11478145 0.45705551 0.3835569 0
-0.16483258 0.54720855 0.48564476 0
0.21633585 -0.098923095 -0.049652223 0
0.72119671 -0.98190403 0.47056973 0
-0.081781335 0.4224717 0.40273935 0
-0.15741269 0.55474782 0.48390943 0
0.23533954 -0.092515595 -0.049794815 0
0.76473254 -0.99192786 0.47607359 0
-0.062913842 0.41420215 0.40962118 0
-0.1473466 0.5576492 0.48541683 0
0.25735113 -0.090873964 -0.050147381 0
0.80282325 -0.99146843 0.47952437 0
-0.05537156 0.42544258 0.40722629 0
-0.13330023 0.55410564 0.49149188 0
0.27259347 -0.077891119 -0.050037283 0
0.83793026 -0.98529887 0.4818905 0
-0.12753658 0.56434739 0.48810568 0
0.28748551 -0.064499624 -0.049917072 0
0.88257426 -0.9933939 0.48742533 0
-0.11866806 0.56947911 0.48834202 0
0.30519894 -0.055540923 -0.049993336 0
0.91014808 -0.97415304 0.48722416 0
0.016388318 0.38301641 0.43795159 0
-0.10892773 0.57330817 0.48958433 0
0.3312023 -0.058730248 -0.050603509 0
0.95286375 -0.97732711 0.49197778 0
0.031887017 0.38355237 0.44133013 0
-0.1083589 0.59078652 0.4811506 0
0.3336837 -0.027328616 -0.049729127 0
0.99500066 -0.97849655 0.49645054 0
0.044055723 0.38924146 0.44223773 0
-0.10636962 0.60559732 0.47457466 0
0.35507646 -0.023465043 -0.050056309 0
0.062578224 0.38613176 0.44770774 0
-0.10070462 0.61478311 0.47205666 0
0.36940864 -0.0095775183 -0.049954619 0
0.067350589 0.40233916 0.44342974 0
-0.095810689 0.62484229 0.46892524 0
0.38469264 0.0029315897 -0.049921583 0
1.1343948 -0.9928968 0.10642274 0
1.1279784 -0.98437405 0.30714968 0
0.09030994 0.39395982 0.45188418 0
-0.081494786 0.62216783 0.47526202 0
0.40070245 0.014468664 -0.049940731 0
0.10950532 0.39129573 0.45758128 0
-0.074214615 0.62904066 0.47463968 0
0.41061029 0.03372645 -0.049617406 0
0.11936065 0.40096974 0.45694274 0
-0.074876703 0.64588803 0.46653023 0
0.4335368 0.036630269 -0.050049227 0
-0.063868649 0.64785188 0.46971104 0
0.45143816 0.046032783 -0.050196715 0
-0.055548228 0.65324783 0.47038037 0
0.46586129 0.059661027 -0.050157707 0
-0.051322855 0.66347086 0.46736911 0
0.47765896 0.076240413 -0.049986597 0
-0.044201292 0.67020613 0.46711949 0
0.4860644 0.096408479 -0.049648173 0
1.2026795 -0.69880056 0.099865139 0
-0.032379128 0.67171174 0.47111315 0
0.50391763 0.10600721 -0.049824718 0
1.2053643 -0.65293217 0.098720171 0
-0.029412011 0.68305033 0.46733245 0
0.52240258 0.11512517 -0.050038029 0
0.378912 0.26650739 0.054591414 0
-0.021701315 0.68915337 0.46781483 0
0.53727025 0.12818468 -0.050069246 0
0.38602236 0.28377926 0.054322343 0
0.83734566 -0.18051445 0.22104844 0
-0.0068035512 0.68789446 0.47447178 0
0.55229431 0.14112294 -0.050116342 0
0.3912206 0.30270427 0.05397103 0
0.84433931 -0.15184247 0.21937975 0
-0.00043723854 0.69559646 0.47386527 0
0.56611258 0.15529156 -0.050110836 0
0.40828308 0.30968082 0.054228514 0
0.74872011 -0.023335701 0.20235957 0
0.75006646 -0.024652725 0.33585882 0
0.74272197 -0.017468339 0.47001672 0
-0.00078592572 0.70983326 0.46777633 0
0.57426196 0.17486644 -0.049834561 0
0.43993005 0.30300045 0.055206858 0
0.8408429 -0.079414733 0.21366772 0
0.18427642 0.54685855 0.34700722 0
0.0047863335 0.71806717 0.46676055 0
0.59511322 0.18236554 -0.050192885 0
0.45968387 0.30832797 0.055589825 0
0.84418482 -0.04929531 0.21170974 0
0.1877804 0.5612247 0.34457868 0
0.010786853 0.72584593 0.46618795 0
0.60265559 0.20227969 -0.049910288 0
0.83640867 -0.009707218 0.073176235 0
0.83595926 -0.0092997607 0.20815112 0
0.19837393 0.56891608 0.34544355 0
0.019491633 0.73114157 0.46786574 0
0.61050159 0.22166348 -0.049657308 0
0.83934659 0.019319886 0.072563037 0
0.83656472 0.021779651 0.20597138 0
0.83499509 0.023167485 0.34120241 0
0.20722772 0.57823586 0.34556949 0
0.027985474 0.73672086 0.46941105 0
0.62688905 0.23345292 -0.049821224 0
0.84033626 0.049460407 0.07188195 0
0.83969432 0.050013777 0.20422915 0
0.83697742 0.052355763 0.33800966 0
0.23245277 0.57345879 0.35293683 0
0.032667957 0.74567419 0.46801087 0
0.6445685 0.24431181 -0.050050627 0
0.83987504 0.080197446 0.071158171 0
0.84099835 0.079253547 0.20229916 0
0.83686048 0.082730643 0.33444303 0
0.9221893 0.011029476 0.49907067 0
0.26664856 0.56187475 0.36409864 0
0.27899387 0.5515011 0.45832801 0
0.03726431 0.75462431 0.46664649 0
0.64770216 0.26729751 -0.049612764 0
0.83408958 0.11463999 0.070214078 0
0.84103364 0.10895263 0.20026414 0
0.84291631 0.10741066 0.33244163 0
0.94039208 0.027574772 0.49994969 0
0.28975388 0.56046891 0.37031353 0
0.24947728 0.59345675 0.43783072 0
0.046143793 0.75999355 0.46866629 0
0.66911227 0.27530354 -0.050027438 0
0.84566337 0.13437903 0.070092298 0
0.83597213 0.14211452 0.19760031 0
0.84077638 0.1382798 0.32864106 0
0.98082131 0.026494736 0.50814396 0
0.26666251 0.5965423 0.35679349 0
0.25101939 0.60902882 0.43427333 0
0.055190109 0.76534134 0.47084403 0
0.68386763 0.28886014 -0.050141666 0
0.84582895 0.16288686 0.069467023 0
0.84685785 0.16208661 0.19719079 0
0.84128445 0.16642153 0.32557184 0
0.26264593 0.61648566 0.43614361 0
0.070536159 0.76590836 0.47778451 0
0.7003749 0.30119413 -0.050340973 0
0.84603792 0.19081295 0.068865784 0
0.83711714 0.19757295 0.19403797 0
0.8391934 0.19599962 0.32202417 0
0.26233265 0.63313574 0.4318426 0
0.071800373 0.77751803 0.4741863 0
0.70417434 0.3230871 -0.04998146 0
0.84987098 0.21554136 0.068446606 0
0.83817214 0.22417688 0.19241633 0
0.83837098 0.22403002 0.31887755 0
0.29087326 0.62816471 0.44253841 0
0.079810999 0.78395998 0.47570252 0
0.71917957 0.33661604 -0.050130069 0
0.84772938 0.24420488 0.06778226 0
0.84812289 0.243922 0.19203125 0
0.83575827 0.2528106 0.31544042 0
0.094592594 0.78561568 0.48221001 0
0.72705466 0.35526747 -0.049974114 0
0.8525098 0.2674557 0.06744118 0
0.82572609 0.28620285 0.18743896 0
0.84574002 0.27219415 0.31488609 0
0.84386331 0.27350771 0.44238424 0
0.089821063 0.80129671 0.47452131 0
0.73650461 0.37271661 -0.049897715 0
0.88470942 0.27173746 0.068300247 0
0.84217256 0.30071992 0.18800677 0
0.84321064 0.30001253 0.31165969 0
0.83784038 0.3036716 0.43674651 0
0.11087229 0.79899037 0.4855715 0
0.75237948 0.38584465 -0.050106626 0
0.91681689 0.27681154 0.069150545 0
0.84328777 0.32556629 0.18661661 0
0.83767742 0.32928634 0.30788621 0
0.84098512 0.32709312 0.43407881 0
0.11442151 0.80885386 0.48405516 0
0.76380926 0.40201926 -0.050132055 0
0.95243996 0.28033561 0.070146054 0
0.83231574 0.35782641 0.18373203 0
0.83605772 0.35541248 0.30506262 0
0.83954304 0.35316426 0.43012998 0
0.12088593 0.81676209 0.48469648 0
0.77485186 0.41846162 -0.050149579 0
0.98536593 0.286385 0.071021937 0
0.83980948 0.37770718 0.18326464 0
0.84334403 0.37548959 0.30422768 0
0.84598523 0.37383252 0.42868617 0
0.13517614 0.81979448 0.49088162 0
0.78158158 0.43755293 -0.049995303 0
1.0277143 0.28741473 0.072288349 0
0.8338607 0.40566331 0.18114024 0
0.8468948 0.39771265 0.30266359 0
0.84313375 0.40000683 0.42455405 0
0.13985755 0.82899773 0.49037108 0
0.79304439 0.4537155 -0.050048627 0
1.0732354 0.28760618 0.07367757 0
0.84149808 0.42499006 0.18077318 0
0.83049232 0.43151474 0.29698667 0
0.8326655 0.43022645 0.41829166 0
0.13914086 0.84137779 0.48622292 0
0.80584937 0.46915203 -0.050165281 0
0.85321635 0.44187093 0.18094517 0
0.84456378 0.44685441 0.297782 0
0.84907633 0.44425541 0.42010078 0
0.14810349 0.84798175 0.48883617 0
0.81559187 0.48639929 -0.05016382 0
0.84597129 0.46940798 0.17880717 0
0.85215336 0.46595031 0.29727235 0
0.83415836 0.47601497 0.41279083 0
0.15140285 0.85788208 0.48763955 0
0.81994003 0.50657743 -0.04995209 0
0.84778863 0.49145877 0.17783445 0
0.8466416 0.49208152 0.29412717 0
0.82982868 0.50120902 0.408721 0
0.8381595 0.51928443 -0.050311759 0
0.85692984 0.50939816 0.17779161 0
0.84904426 0.51355147 0.2926833 0
0.84391028 0.5162555 0.41007885 0
0.83735937 0.54199332 -0.049913108 0
0.84735471 0.5368886 0.17551781 0
0.83729845 0.54202443 0.28843844 0
0.83725351 0.54204738 0.40554136 0
0.83367711 0.54387391 0.52566904 0
0.85051066 0.55748695 -0.050084107 0
0.84899563 0.55823684 0.17464472 0
0.8405568 0.56241351 0.28731158 0
0.82766837 0.56879252 0.40029117 0
0.83601028 0.56466377 0.52325541 0
0.85102707 0.5791744 -0.049761601 0
0.87173229 0.56924915 0.17632319 0
0.83885759 0.58500803 0.28525153 0
0.83844024 0.58520806 0.40092778 0
0.84510773 0.58201194 0.52344882 0
0.86388284 0.59488952 -0.04993739 0
0.91128105 0.57289833 0.18000014 0
0.83498722 0.60829616 0.28282854 0
0.84369713 0.60425502 0.40006787 0
0.85006183 0.60130197 0.5222019 0
0.8758288 0.61115223 -0.050084349 0
0.9333002 0.58536172 0.18159693 0
0.84244901 0.62613153 0.28271744 0
0.83356255 0.63011938 0.39497593 0
0.84358102 0.62562352 0.51688099 0
0.88322812 0.62950325 -0.050061572 0
0.96970206 0.59199864 0.18488826 0
0.84421462 0.64642382 0.28153145 0
0.8283295 0.65331334 0.39136565 0
0.83539718 0.65024799 0.51108283 0
0.8819564 0.65147197 -0.049712256 0
0.9919228 0.60541469 0.18651973 0
0.83464998 0.67128533 0.27818641 0
0.83862084 0.66962224 0.39214951 0
0.8461991 0.66644824 0.5122754 0
0.90306526 0.66413414 -0.05023719 0
1.0332134 0.61154038 0.190373 0
0.83727103 0.69072211 0.27728972 0
0.84792489 0.68641675 0.39271432 0
0.8393144 0.68989635 0.5071888 0
0.90532404 0.68453979 -0.050043445 0
1.07183 0.61968029 0.19390793 0
0.84680253 0.70733583 0.27778244 0
0.8386851 0.71049786 0.38825703 0
0.84254855 0.70899284 0.50584567 0
0.27476284 0.93016404 0.45284185 0
0.90727967 0.70491648 -0.049848884 0
0.85229558 0.72554111 0.27753535 0
0.84091312 0.72981066 0.38702849 0
0.83602041 0.73164594 0.50112557 0
0.28543624 0.93817043 0.45639968 0
0.91061145 0.7246542 -0.049717188 0
0.85663825 0.74412793 0.27711287 0
0.83998317 0.75013715 0.38501504 0
0.84459215 0.74847424 0.50186872 0
0.26674703 0.95696324 0.44437683 0
0.92911762 0.7390368 -0.050168853 0
0.84746784 0.76733965 0.27415764 0
0.83381408 0.77207249 0.38166496 0
0.83482987 0.77172041 0.49622771 0
0.84107417 0.76955587 0.6188218 0
0.26892152 0.96788532 0.44358021 0
0.92482001 0.76134282 -0.049767483 0
0.84014457 0.7895053 0.27162153 0
0.83470458 0.7913146 0.38030142 0
0.8435908 0.78835911 0.49720761 0
0.84202105 0.78888118 0.61662 0
0.29929611 0.96938783 0.45772922 0
0.92705673 0.78127271 -0.049623113 0
0.84831411 0.80636537 0.27208108 0
0.83778709 0.80971998 0.37959531 0
0.84789795 0.80649799 0.49670172 0
0.8348363 0.8106603 0.61099946 0
0.3106505 0.97770071 0.46184343 0
0.9402135 0.7977705 -0.049896251 0
0.85092658 0.82498968 0.27153119 0
0.83748752 0.8290866 0.37805176 0
0.84315151 0.82735991 0.49312842 0
0.85019678 0.82521218 0.61527795 0
0.30906358 0.99017715 0.4592275 0
0.94652265 0.81646574 -0.049921513 0
0.86952025 0.83888429 0.27402934 0
0.84647673 0.84559321 0.37904704 0
0.8384034 0.84794372 0.48965883 0
0.84208113 0.84687299 0.60949647 0
0.33773533 0.99370879 0.47247136 0
0.94848031 0.83639044 -0.049794193 0
0.89961463 0.84995216 0.27870411 0
0.85328323 0.86281061 0.37951607 0
0.84053844 0.86634767 0.48866752 0
0.83835298 0.86695421 0.60573781 0
0.31919292 1.0110375 0.46117616 0
0.96161538 0.85327441 -0.050089303 0
0.92486101 0.86297816 0.28248513 0
0.83603042 0.88643092 0.37369221 0
0.83870786 0.88572407 0.48639482 0
0.83692473 0.88619483 0.60308498 0
0.32127836 1.022334 0.46070611 0
0.97126859 0.87124872 -0.050263174 0
0.95661956 0.87491971 0.28749552 0
0.84990996 0.90166014 0.37615353 0
0.83858329 0.90449852 0.48479828 0
0.83632177 0.90506524 0.6008963 0
0.32113031 1.0341678 0.45915899 0
0.97111207 0.8916797 -0.050084896 0
0.98913103 0.88740474 0.29265848 0
0.8385784 0.92312342 0.37204713 0
0.8386957 0.92309558 0.48336846 0
0.84654456 0.92123342 0.60342216 0
0.33432254 1.0427583 0.46455318 0
0.97381622 0.91134429 -0.050021205 0
1.0166482 0.90175045 0.29691291 0
0.83659559 0.9420802 0.37046733 0
0.83524865 0.94238192 0.48080906 0
0.83166414 0.94318479 0.59537619 0
0.33848807 1.0536509 0.46535942 0
0.97130114 0.93206638 -0.049776308 0
1.0595715 0.91345882 0.30402899 0
0.83619541 0.96054697 0.36936674 0
0.84435755 0.95882636 0.48260826 0
0.84253651 0.95921028 0.59836555 0
0.35344818 1.0623112 0.47175339 0
0.98532969 0.94934517 -0.050143581 0
1.0818883 0.9302569 0.30736625 0
0.85388368 0.97533011 0.37303364 0
0.83346337 0.9793669 0.47768956 0
0.84332293 0.97741777 0.59717607 0
0.3630887 1.0723531 0.47547403 0
0.98331207 0.96985316 -0.049935363 0
0.85047883 0.99437869 0.37126788 0
0.84352726 0.99566215 0.47996041 0
0.83495575 0.99724472 0.59223199 0
0.38147882 1.0809718 0.48370224 0
0.97955221 0.99051446 -0.049673844 0
0.84934729 1.012863 0.37015665 0
0.84841329 1.0130234 0.48054785 0
0.83880812 1.014672 0.59253693 0
0.38281032 1.0929406 0.48330793 0
0.98740774 1.0091486 -0.049842142 0
0.42939726 1.0977088 0.041671116 0
0.42657778 1.0981563 0.11307167 0
0.4346461 1.0968758 0.18715473 0
0.42615125 1.0982239 0.26007786 0
0.43554845 1.0967326 0.34048507 0
0.43356165 1.0970479 0.42143181 0
0.39288208 1.1035041 0.48741865 0
1.0100125 1.0257552 -0.050550736 0
0.3965188 1.1152169 0.040416576 0
0.40174654 1.1144545 0.11016976 0
0.40342596 1.1142097 0.18111768 0
0.41054007 1.1131723 0.25556618 0
0.41193447 1.1129689 0.3319051 0
0.40698275 1.113691 0.40951508 0
0.40832415 1.1134953 0.49430457 0
0.9951126 1.0478567 -0.049914934 0
0.38468042 1.1290362 0.039929852 0
0.4356201 1.1222619 0.11365949 0
0.43004355 1.1230035 0.1856533 0
0.43487683 1.1223607 0.26139224 0
0.42210117 1.1240598 0.33474571 0
0.44069961 1.1215864 0.42289034 0
0.41590002 1.1248844 0.4972721 0
0.99977356 1.0671586 -0.049993481 0
0.37310448 1.1424801 0.03945956 0
0.42145464 1.1366688 0.11195472 0
0.42649862 1.1360625 0.18472324 0
0.4228349 1.1365029 0.25789112 0
0.42760977 1.135929 0.336068 0
0.43002084 1.1356392 0.41777316 0
0.99208528 1.0878462 -0.049637232 0
0.36241105 1.1554976 0.03902768 0
0.84969491 1.1031444 0.36706281 0
0.83381921 1.1048501 0.47151658 0
0.84539825 1.103606 0.59015435 0
1.0071367 1.1061306 -0.050106227 0
0.34908041 1.1684606 0.038507622 0
0.84855932 1.1211509 0.36631253 0
0.84329849 1.1216491 0.4740923 0
0.83897835 1.1220583 0.58674145 0
0.99447089 1.1270237 -0.049590129 0
0.36557552 1.1786109 0.039062344 0
0.85977751 1.1380724 0.36878356 0
0.84225458 1.1395098 0.47322327 0
0.83635682 1.1399935 0.58500654 0
1.0069882 1.1458082 -0.049985126 0
0.36771479 1.1901511 0.039107405 0
0.85562497 1.1563075 0.36737597 0
0.8418135 1.1572654 0.4726311 0
0.83343583 1.1578466 0.58324265 0
1.0097531 1.165428 -0.050039575 0
0.85016471 1.1744803 0.3656939 0
0.8462438 1.1747028 0.47373715 0
0.8380515 1.1751674 0.58469874 0
1.0120825 1.1851088 -0.050087258 0
0.85995704 1.1918173 0.36796641 0
0.83305377 1.1930037 0.46904784 0
0.82943147 1.1931634 0.58075905 0
1.0061204 1.2050873 -0.049847614 0
0.84272641 1.2102324 0.36339596 0
0.83923095 1.2103425 0.47088367 0
0.84286886 1.210228 0.58605194 0
1.0086915 1.2247386 -0.04992171 0
0.84843141 1.2277659 0.3647384 0
0.84789389 1.2277761 0.47361887 0
0.85260123 1.2276871 0.58989829 0
1.0104649 1.2444504 -0.049976159 0
0.84011954 1.245523 0.36256087 0
0.84544665 1.2454894 0.47273052 0
0.84017867 1.2455226 0.5846622 0
1.0151832 1.2642224 -0.050144609 0
0.83892328 1.2631127 0.36225566 0
0.84358245 1.263142 0.4721103 0
0.84084457 1.2631247 0.58493793 0
1.0075769 1.2838835 -0.049881909 0
0.85136968 1.2809328 0.3654882 0
0.83670348 1.2806557 0.46989518 0
0.83675307 1.2806567 0.58333534 0
1.0056341 1.3035406 -0.049830243 0
0.85822445 1.2988988 0.36735195 0
0.83616859 1.2982042 0.46986431 0
0.83754033 1.2982475 0.5838446 0
1.0137305 1.3236071 -0.050146151 0
0.85024315 1.3163974 0.3654857 0
0.84942633 1.3163614 0.47450018 0
0.83883184 1.3158942 0.58465493 0
1.0169085 1.3436209 -0.050295442 0
0.85299748 1.3343235 0.3664178 0
0.83430105 1.3332629 0.46975747 0
0.84301466 1.3337572 0.58675694 0
0.99407011 1.3619388 -0.049522828 0
1.3008572 1.383219 0.072501838 0
1.2958753 1.3828734 0.20564952 0
1.2925912 1.3826456 0.34044647 0
0.8490712 1.3518811 0.36569989 0
0.83670253 1.3510232 0.47092661 0
0.8308174 1.3506149 0.58215588 0
1.0066485 1.3826183 -0.050026346 0
1.2467242 1.4023113 0.07062614 0
1.2452774 1.4021926 0.20038392 0
1.0133871 1.3831711 0.29024217 0
0.83595926 1.3686171 0.36268637 0
0.83870906 1.3688426 0.47203976 0
0.84744591 1.3695593 0.5896132 0
1.010499 1.402831 -0.0502268 0
1.2366498 1.4242516 0.070336811 0
1.2514975 1.425658 0.2012718 0
0.8935824 1.3917569 0.2688553 0
0.84456986 1.3871144 0.36529014 0
0.83754104 1.3864487 0.47216827 0
0.83335239 1.386052 0.58440167 0
0.99152154 1.4207364 -0.049616989 0
0.63827688 1.3827842 0.048933126 0
0.63799661 1.3827542 0.13520853 0
0.64690405 1.3837111 0.22444589 0
0.64779681 1.3838071 0.3152557 0
0.84414226 1.4049021 0.47497079 0
0.83124942 1.403517 0.58426255 0
0.99544865 1.4409647 -0.049837962 0
0.55647749 1.3882033 0.046053331 0
0.55321676 1.3878113 0.12621704 0
0.55559236 1.3880968 0.20817271 0
0.54945487 1.3873591 0.29042843 0
0.84051663 1.4223429 0.47442842 0
0.83201021 1.4213204 0.58540905 0
0.99382406 1.460615 -0.049868524 0
0.55553538 1.4023284 0.046083298 0
0.54247493 1.4005915 0.12524422 0
0.54992062 1.4015818 0.20746331 0
0.55409151 1.4021364 0.29207551 0
0.84970552 1.4414492 0.47825968 0
0.84317344 1.4405805 0.59099603 0
1.0069555 1.4824421 -0.050440442 0
0.55648524 1.4167531 0.046187986 0
0.55660564 1.4167707 0.12698838 0
0.5526045 1.4161872 0.2083064 0
0.54964966 1.4157563 0.29143289 0
0.83543831 1.457431 0.47429252 0
0.84856862 1.4593457 0.5942812 0
0.9900313 1.4999108 -0.049936976 0
0.54680234 1.4295673 0.04591509 0
0.55339652 1.4306139 0.12687138 0
0.55775899 1.4313062 0.20963585 0
0.55629367 1.4310737 0.29369694 0
0.8366515 1.4755684 0.47559986 0
0.83840495 1.4758468 0.59114933 0
0.9888069 1.5197172 -0.050009079 0
0.55313784 1.4449379 0.046227682 0
0.55534858 1.4453174 0.12733586 0
0.5479185 1.4440421 0.20825914 0
0.53987485 1.4426615 0.29004565 0
0.84562713 1.4951415 0.47960734 0
0.85396188 1.4965721 0.59890288 0
0.98960537 1.5399519 -0.050163839 0
0.54814452 1.4584434 0.046136733 0
0.55795592 1.4602549 0.12789325 0
0.54317874 1.4575266 0.20784406 0
0.55283505 1.4593095 0.29404595 0
0.84744781 1.5137048 0.48128676 0
0.83889431 1.5121256 0.59389031 0
0.97944528 1.5581347 -0.049929436 0
0.54606217 1.4724612 0.046157673 0
0.54935879 1.4731129 0.12724522 0
0.55003279 1.4732462 0.20959052 0
0.55222994 1.4736805 0.29458272 0
0.83733207 1.530041 0.47900158 0
0.84095353 1.530757 0.59617609 0
0.9734382 1.5770272 -0.049854279 0
0.5542708 1.4886658 0.046560578 0
0.55908304 1.4896802 0.12862544 0
0.556068 1.4890447 0.21122712 0
0.56053811 1.489987 0.29749206 0
0.83734971 1.5483395 0.48022553 0
0.83874863 1.5486344 0.59676278 0
0.96675152 1.5957164 -0.049762737 0
0.55919939 1.5044292 0.046852071 0
0.54455239 1.5011485 0.12736127 0
0.54308218 1.5008191 0.20938964 0
0.54480654 1.5012053 0.29417798 0
0.84361535 1.5681353 0.48366159 0
0.83025998 1.5651438 0.59478039 0
0.96304268 1.6150489 -0.049788807 0
0.55226976 1.5175929 0.046716604 0
0.55374736 1.5179434 0.12872979 0
0.54773265 1.5165164 0.21084309 0
0.55364782 1.5179198 0.29733431 0
0.84727854 1.5875839 0.48630321 0
0.82750589 1.5828928 0.59532064 0
0.95859832 1.6342193 -0.049796838 0
0.54286093 1.5300392 0.046495557 0
0.54754156 1.5312121 0.12841976 0
0.55823356 1.5338914 0.21342556 0
0.55006319 1.531844 0.29728761 0
0.83864838 1.6041609 0.4848206 0
0.83044869 1.6021061 0.59838945 0
0.95724458 1.6542147 -0.049927916 0
0.55102199 1.5469652 0.046928309 0
0.54876155 1.5463685 0.12895261 0
0.55043131 1.5468093 0.21264331 0
0.55938584 1.5491735 0.30069286 0
0.84027654 1.6233332 0.48693463 0
0.83539301 1.6220438 0.60242903 0
0.95643157 1.6744595 -0.050088797 0
0.55049163 1.5617983 0.047048435 0
0.55323547 1.5625598 0.12987149 0
0.55501348 1.5630533 0.21420667 0
0.55217975 1.5622668 0.29979128 0
0.84065074 1.6423266 0.48870632 0
0.8388148 1.6418171 0.60593623 0
0.95001072 1.6931928 -0.050051209 0
0.54223722 1.5744733 0.046888728 0
0.55907029 1.5793741 0.13096885 0
0.55247074 1.5774527 0.2144758 0
0.54544443 1.575407 0.29905525 0
0.84188575 1.6617132 0.4908655 0
0.84638673 1.6630237 0.61135316 0
0.93703288 1.709903 -0.049777541 0
0.84688443 1.6824212 0.38055813 0
0.8407082 1.6805384 0.49227861 0
0.84008127 1.6803472 0.61089951 0
0.92920405 1.7280546 -0.049703576 0
0.84896225 1.7024843 0.3825877 0
0.83783859 1.6989396 0.49318922 0
0.83701164 1.698676 0.61194474 0
0.92209488 1.7463939 -0.049664956 0
0.84541768 1.7208916 0.38318187 0
0.84566909 1.7209753 0.49793628 0
0.84649259 1.7212491 0.6185711 0
0.92529052 1.7682798 -0.050024245 0
0.84468335 1.7403383 0.38459992 0
0.84101242 1.7390658 0.49840468 0
0.84120876 1.7391338 0.61888075 0
0.91329426 1.7849569 -0.049819011 0
0.83340067 1.7561311 0.38322967 0
0.83584708 1.7570137 0.49877575 0
0.83825785 1.7578835 0.62031764 0
0.91948849 1.8083061 -0.050314404 0
0.84858543 1.7817104 0.38911912 0
0.83765846 1.7776116 0.50170767 0
0.83648223 1.7771704 0.62238514 0
0.89769024 1.8211297 -0.049750961 0
0.83094841 1.7951316 0.38613874 0
0.82500547 1.7928166 0.49958199 0
0.83529526 1.7968248 0.62483197 0
0.90424007 1.8449837 -0.050282422 0
0.84729534 1.8219719 0.39254108 0
0.81755227 1.8099526 0.49937987 0
0.8285802 1.814409 0.624933 0
0.90421218 1.8664925 -0.050573695 0
0.83852583 1.838981 0.39212319 0
0.82343596 1.832661 0.50406486 0
0.82770675 1.8344498 0.62775588 0
0.8757779 1.8759086 -0.049771648 0
0.84179229 1.8611687 0.39510956 0
0.82504052 1.8539033 0.50732714 0
0.83106714 1.8565171 0.63261849 0
0.87074047 1.8952075 -0.049885236 0
0.83074874 1.877261 0.39418909 0
0.82594329 1.8751045 0.51044923 0
0.82650632 1.8753573 0.6340397 0
0.87307924 1.9180205 -0.050299332 0
0.83819383 1.9018347 0.39852005 0
0.82758707 1.8969135 0.51395905 0
0.8198213 1.8933105 0.63460761 0
0.85879141 1.9331906 -0.050069001 0
0.82174331 1.9154313 0.3962037 0
0.82048422 1.9148277 0.51436418 0
0.81807429 1.9136724 0.6375497 0
0.85103947 1.9514179 -0.050105177 0
0.82792491 1.9399775 0.40036419 0
0.80768365 1.9299594 0.51274019 0
0.81141788 1.9318076 0.63836032 0
0.84299237 1.9695266 -0.050138924 0
0.80894059 1.9521359 0.3974303 0
0.81307966 1.9542497 0.51797444 0
0.80994004 1.9526464 0.64168954 0
0.82986337 1.9849892 -0.049977008 0
1.032846 2.0918989 0.46455964 0
0.80489355 1.9718378 0.518251 0
0.79500753 1.9666308 0.63886714 0
0.81831342 2.0011826 -0.049886014 0
0.80714184 1.9951178 0.4021349 0
0.79641491 1.9892942 0.51850224 0
0.78869349 1.9851024 0.64016837 0
0.80778557 2.0178778 -0.049844496 0
0.78917569 2.0074692 0.39964125 0
0.79200023 2.0090489 0.52038795 0
0.77668446 2.0004828 0.63888705 0
0.79113954 2.031019 -0.049559243 0
0.78356141 2.0266542 0.4008117 0
0.77820021 2.0235665 0.51877922 0
0.77801806 2.0234616 0.64406371 0
0.78248817 2.0486693 -0.049610503 0
0.77692062 2.0453687 0.4017579 0
0.77118129 2.0419662 0.51985162 0
0.774131 2.043715 0.64690506 0
0.77673012 2.0681307 -0.04979242 0
0.77616912 2.0677886 0.40454155 0
0.76585346 2.0614963 0.52168125 0
0.77659422 2.068048 0.65297139 0
0.76138157 2.0817301 -0.049581859 0
0.76921743 2.0866466 0.40556455 0
0.76637846 2.0848653 0.52592027 0
0.76386958 2.0832913 0.65181148 0
0.76246172 2.1057546 -0.050074805 0
0.7564171 2.1018553 0.404892 0
0.76024383 2.1043239 0.52767336 0
0.76551384 2.1077235 0.65781599 0
0.7544983 2.1242034 -0.050197393 0
0.75174445 2.1223774 0.40676025 0
0.75173289 2.1223698 0.5285899 0
0.74780411 2.1197646 0.65440828 0
0.73078769 2.1320312 -0.04965074 0
0.73648793 2.135915 0.40545654 0
0.74982983 2.1450057 0.53226566 0
0.74484009 2.1416059 0.65843463 0
0.72318584 2.1506677 -0.049805522 0
0.72994703 2.1554003 0.40690842 0
0.73137707 2.1564012 0.5293684 0
0.72956306 2.1551313 0.65641218 0
0.72148019 2.173681 -0.050231222 0
0.72370046 2.175277 0.40854266 0
0.72665912 2.1774039 0.53213108 0
0.71999055 2.17261 0.65736663 0
0.70142764 2.1835287 -0.04985958 0
0.71063513 2.190325 0.40810892 0
0.70844525 2.1887085 0.52944767 0
0.7102198 2.1900184 0.65834075 0
0.68814105 2.1981783 -0.049792971 0
0.70278078 2.2092721 0.40939948 0
0.70269376 2.2092061 0.53199977 0
0.69623047 2.2043085 0.65724605 0
0.68148702 2.2179313 -0.050033994 0
0.6899429 2.2245083 0.40916869 0
0.68866283 2.2235126 0.53119564 0
0.69314021 2.2269952 0.66195142 0
0.66337568 2.2287607 -0.049765393 0
0.68056482 2.242481 0.41012731 0
0.68296593 2.2443976 0.53400731 0
0.68520564 2.2461855 0.66428858 0
0.66109914 2.2523181 -0.050231002 0
0.66987008 2.2595019 0.41073596 0
0.67037374 2.2599144 0.53399545 0
0.67951351 2.2674 0.6679787 0
0.65067214 2.26946 -0.050335251 0
0.66968447 2.2854359 0.41492423 0
0.65957731 2.276943 0.53484827 0
0.67007667 2.2857656 0.66982669 0
0.63474268 2.28196 -0.050191402 0
0.72639745 2.3609669 0.066511504 0
0.72411758 2.3590016 0.18783043 0
0.72242767 2.3575449 0.31073481 0
0.64697486 2.2925043 0.4116807 0
0.65397757 2.2985406 0.53808671 0
0.65621608 2.3004701 0.66940242 0
0.61299318 2.2891827 -0.049776044 0
0.67833918 2.3469613 0.064890146 0
0.68959588 2.3569145 0.18488805 0
0.67410523 2.3432176 0.30247033 0
0.63791674 2.3112199 0.41308019 0
0.640809 2.3137772 0.53812021 0
0.64556128 2.3179793 0.67084694 0
0.60036033 2.3042819 -0.049799666 0
0.65923172 2.3576715 0.064637028 0
0.65934139 2.3577709 0.1825272 0
0.65993649 2.3583105 0.3023825 0
0.61830622 2.3205569 0.41094199 0
0.62654668 2.3280299 0.53774858 0
0.61795634 2.3202395 0.66295648 0
0.58926517 2.3208385 -0.049907759 0
0.64323705 2.3710375 0.064539239 0
0.63669521 2.3649528 0.18125677 0
0.63634902 2.3646309 0.3000204 0
0.61467117 2.3444684 0.41438562 0
0.6108982 2.3409591 0.53682381 0
0.6037237 2.3342862 0.66255033 0
0.58047038 2.3396986 -0.050140869 0
0.61908871 2.3765352 0.064046234 0
0.62026387 2.377656 0.18090738 0
0.62456745 2.3817611 0.30059198 0
0.6026687 2.3608727 0.41502619 0
0.6033296 2.3615031 0.5396772 0
0.59536642 2.3539073 0.66560173 0
0.56379479 2.3510842 -0.04999508 0
0.61423153 2.4004216 0.064513989 0
0.60755116 2.3938868 0.18113661 0
0.6103453 2.3966203 0.30060896 0
0.58240086 2.3692849 0.41279802 0
0.58841807 2.3751709 0.5392682 0
0.58880669 2.375551 0.66987425 0
0.54494101 2.3601437 -0.049744498 0
0.60305816 2.4184442 0.064683415 0
0.60622877 2.4216244 0.18313356 0
0.6030032 2.4183888 0.30243123 0
0.56844097 2.3837175 0.41285914 0
0.58154494 2.396863 0.54272264 0
0.57095164 2.3862362 0.6677357 0
0.53487319 2.3779924 -0.049946468 0
0.59797281 2.4429054 0.065178424 0
0.60807914 2.4533021 0.18569924 0
0.5992499 2.4442194 0.30527624 0
0.55878121 2.4025877 0.41456121 0
0.56332308 2.4072599 0.54093486 0
0.56050807 2.4043641 0.67005122 0
0.5114606 2.381974 -0.049470179 0
0.60987192 2.4857979 0.06657736 0
0.61928791 2.4957316 0.18982309 0
0.61886877 2.4952896 0.31437132 0
0.54464895 2.4169877 0.41471481 0
0.55582339 2.4287767 0.54437149 0
0.55326658 2.4260793 0.67446131 0
0.50727171 2.4062648 -0.050001133 0
0.53360337 2.4347546 0.41609854 0
0.53851408 2.4400678 0.54317874 0
0.53827137 2.4398053 0.67436779 0
0.49350652 2.4204929 -0.050045054 0
0.51776248 2.4474092 0.41575888 0
0.52238578 2.4525394 0.54262638 0
0.5194127 2.4492404 0.67198962 0
0.47962317 2.4346383 -0.050092846 0
0.50438589 2.4628224 0.41642797 0
0.50509471 2.4636292 0.54155856 0
0.49380049 2.4507744 0.66541469 0
0.46250221 2.4450603 -0.049973357 0
0.48768339 2.4744592 0.41587818 0
0.49076101 2.4780524 0.54205835 0
0.48613665 2.4726534 0.67017817 0
0.44595298 2.4560406 -0.049891163 0
0.47337565 2.4888847 0.41633123 0
0.46907064 2.4837286 0.53884047 0
0.47080263 2.4858029 0.67023569 0
0.42989275 2.467535 -0.049843114 0
0.45533153 2.4987946 0.41535395 0
0.4601396 2.5047028 0.54233503 0
0.45623073 2.4998996 0.67090178 0
0.41597787 2.4816847 -0.049925804 0
0.44469687 2.5178971 0.41745415 0
0.43646833 2.5075216 0.5381338 0
0.44388112 2.5168686 0.67317665 0
0.39585581 2.4879026 -0.049657755 0
0.42705342 2.5282743 0.41676399 0
0.42498204 2.5255938 0.54051244 0
0.42817113 2.5297208 0.67335701 0
0.38569608 2.5070443 -0.049981147 0
0.41051659 2.5400133 0.41658661 0
0.41136351 2.5411384 0.54187661 0
0.41330519 2.5437174 0.67423195 0
0.36498842 2.5121927 -0.049687758 0
0.39250579 2.5497181 0.41583344 0
0.38899818 2.544935 0.53845263 0
0.3945224 2.5524683 0.67250204 0
0.34837118 2.5227184 -0.049644388 0
0.37583515 2.5611775 0.41570845 0
0.37792191 2.5640996 0.54145765 0
0.37890282 2.5654731 0.67307281 0
0.33382627 2.5361767 -0.049738046 0
0.3539494 2.5651197 0.41331431 0
0.35707179 2.5696106 0.53896075 0
0.3606607 2.5747726 0.67186958 0
0.31742653 2.5470176 -0.049726006 0
0.34210023 2.5834765 0.41546637 0
0.34582689 2.5889833 0.5421595 0
0.33936915 2.5794411 0.66847682 0
0.30643466 2.5660605 -0.050073549 0
0.32006672 2.5867608 0.41304189 0
0.32494912 2.5941746 0.53973919 0
0.32693806 2.5971947 0.67173254 0
0.29075369 2.5782442 -0.05013337 0
0.30444673 2.5996182 0.41362199 0
0.30337265 2.5979416 0.5368799 0
0.30634806 2.602586 0.66896063 0
0.27823439 2.5955884 -0.050418127 0
0.28386673 2.6046288 0.41189823 0
0.29180399 2.6173685 0.54028827 0
0.29305574 2.6193779 0.67189872 0
0.2580367 2.6006489 -0.050194625 0
0.27323923 2.6257489 0.41507033 0
0.27035925 2.6209941 0.53758144 0
0.27382001 2.6267078 0.6703158 0
0.23746701 2.604773 -0.04994455 0
0.25275627 2.6307487 0.41348639 0
0.25221822 2.6298347 0.53701252 0
0.24913926 2.6246037 0.66432887 0
0.22560902 2.6237845 -0.050319199 0
0.23841067 2.646174 0.41505384 0
0.23914827 2.647464 0.53990382 0
0.23255385 2.6359308 0.66493952 0
0.20457442 2.6268177 -0.050044902 0
0.20972069 2.6360874 0.40921855 0
0.21723159 2.649616 0.5369482 0
0.21514989 2.6458666 0.66498625 0
0.18979765 2.6410637 -0.050237961 0
0.20413579 2.6676738 0.4156051 0
0.20063414 2.6611753 0.53767228 0
0.20533307 2.6698959 0.67176455 0
0.16992988 2.6458702 -0.050057013 0
0.1763577 2.6581678 0.41014037 0
0.17570479 2.6569188 0.53253329 0
0.17292942 2.6516089 0.65878689 0
0.15253092 2.6552732 -0.050071228 0
0.16286422 2.6756642 0.41253394 0
0.16442646 2.6787472 0.53727329 0
0.16265567 2.6752527 0.66554451 0
0.13269241 2.6597376 -0.049897682 0
0.13998927 2.674598 0.40968519 0
0.14277638 2.680274 0.5345124 0
0.14175572 2.6781955 0.66277182 0
0.1148543 2.6681314 -0.049890403 0
0.12229773 2.6837852 0.40983179 0
0.12728985 2.694284 0.53646743 0
0.12057044 2.6801527 0.65968502 0
0.099997066 2.6829982 -0.05014642 0
0.10918935 2.702975 0.4128494 0
0.10627832 2.6966486 0.53421795 0
0.10430022 2.6923499 0.66140497 0
0.077986561 2.6822417 -0.049797826 0
0.081734858 2.6906652 0.40710014 0
0.086396597 2.7011414 0.53285259 0
0.083039843 2.6935978 0.6582464 0
0.060536228 2.6914759 -0.049850177 0
0.065653764 2.703378 0.40842733 0
0.067078136 2.7066905 0.53196806 0
0.06520208 2.7023275 0.65859777 0
0.042442404 2.6992648 -0.049854901 0
0.044768773 2.7048686 0.40670374 0
0.045637272 2.7069607 0.5292744 0
0.04510089 2.7056687 0.65663272 0
0.029226324 2.7192516 -0.050337482 0
0.023349008 2.7045748 0.40457079 0
0.026025912 2.7112596 0.52813506 0
0.028299829 2.716938 0.65832663 0
0.01079484 2.7266779 -0.050343454 0
0.0085371351 2.7208278 0.40704721 0
0.0077150078 2.7186973 0.52820897 0
0.0057367296 2.7135713 0.65361106 0
-0.0090123201 2.7304227 -0.050218042 0
-0.0094305063 2.7292972 0.40744451 0
-0.012082198 2.7221596 0.52695358 0
-0.011972466 2.722455 0.65445417 0
-0.030699709 2.7286508 -0.049893528 0
-0.034781314 2.7172258 0.40233648 0
-0.033963777 2.7195144 0.52363431 0
-0.031934716 2.725194 0.65269005 0
-0.045738377 2.7455609 -0.05028588 0
-0.052473523 2.7259314 0.40294096 0
-0.05241064 2.7261147 0.52367866 0
-0.050228275 2.7324753 0.65303218 0
-0.065749206 2.7482579 -0.050149549 0
-0.072447725 2.7279038 0.40179443 0
