# .PCD v0.7 - Point Cloud Data file format
VERSION 0.7
FIELDS x y z
SIZE 4 4 4
TYPE F F F
COUNT 1 1 1
WIDTH 1379
HEIGHT 1
VIEWPOINT 0 0 0 1 0 0 0
POINTS 1379
DATA ascii
-1.3144037 -0.40976277 -0.29265413
-1.4847987 -0.46288311 -0.29293802
-1.7028637 -0.53086448 -0.29315242
-7.0980139 -2.2127922 -0.34613082
-14.178724 -4.4201899 -0.34530967
-0.82105809 -0.26735172 -0.29173815
-0.8994894 -0.2928904 -0.29526275
-0.97495645 -0.31746387 -0.29402995
-1.0717689 -0.34898779 -0.2950184
-1.1733806 -0.38207445 -0.29247954
-1.3165423 -0.42869055 -0.29430887
-1.4841462 -0.48326549 -0.29398659
-1.710821 -0.55707502 -0.29570645
-1.9826088 -0.64557415 -0.29302418
-7.058763 -2.2984641 -0.34560072
-14.148253 -4.6069331 -0.34595296
-0.81701744 -0.27746174 -0.29152074
-0.90005362 -0.30566108 -0.29668787
-0.97507983 -0.33114022 -0.29530129
-1.0646017 -0.36154211 -0.29427537
-1.1610872 -0.39430889 -0.29062983
-1.3092247 -0.44461691 -0.29390135
-1.4897677 -0.50592989 -0.29633859
-1.6928482 -0.57489663 -0.29382792
-1.9836555 -0.67365575 -0.29440928
-7.0314298 -2.3878961 -0.34570727
-14.062514 -4.7756748 -0.34529954
-0.81273222 -0.28746986 -0.29126027
-0.88776553 -0.31400976 -0.29391742
-0.98574281 -0.34866509 -0.2998364
-1.0542178 -0.37288529 -0.29267979
-1.1656767 -0.41230914 -0.293055
-1.3108152 -0.46364579 -0.29554558
-1.4824555 -0.52435631 -0.29617399
-1.6920235 -0.59848219 -0.29496944
-1.971131 -0.69720471 -0.2938301
-6.9928088 -2.4734123 -0.34531236
-14.000355 -4.9520373 -0.34527704
-0.82602286 -0.30392602 -0.29737121
-0.9067409 -0.33362532 -0.30156666
-0.95860368 -0.35270765 -0.29290915
-1.0476325 -0.38546482 -0.29217592
-1.171939 -0.43120205 -0.29597098
-1.3006394 -0.47855592 -0.29458657
-1.4809594 -0.54490268 -0.29722238
-1.6904395 -0.62197858 -0.2960352
-1.9725133 -0.72576451 -0.29537508
-6.9564629 -2.5595539 -0.34508178
-13.955665 -5.1348329 -0.34574211
-0.81934476 -0.31323752 -0.29636356
-0.88535613 -0.33847383 -0.29584852
-0.95765096 -0.36611232 -0.2940034
-1.0527564 -0.40247136 -0.29499498
-1.1621712 -0.44430092 -0.29489368
-1.2891799 -0.49285662 -0.29337347
-1.4656909 -0.56033719 -0.29555067
-1.6769052 -0.64108497 -0.29505536
-1.9645038 -0.75103462 -0.29556844
-6.9355011 -2.6514592 -0.34567076
-13.87742 -5.3053718 -0.34543136
-0.80567569 -0.31969607 -0.29285222
-0.87355578 -0.3466312 -0.29334062
-0.97046196 -0.38508406 -0.2994014
-1.0556284 -0.4188785 -0.29725417
-1.1630174 -0.46149099 -0.29655945
-1.2778898 -0.50707299 -0.29223412
-1.4698381 -0.58323896 -0.29784429
-1.6725127 -0.66366124 -0.29572946
-1.9492949 -0.77348977 -0.29472226
-6.9053216 -2.7400653 -0.34585884
-13.829684 -5.4876866 -0.34593576
-0.81326449 -0.33462012 -0.29711872
-0.87211925 -0.35883608 -0.29435223
-0.94834238 -0.39019832 -0.29406974
-1.0477524 -0.43110088 -0.29654148
-1.1390015 -0.46864554 -0.2919172
-1.2819036 -0.52744311 -0.29464751
-1.4566331 -0.59933609 -0.29667425
-1.6693017 -0.68683922 -0.29666746
-1.948801 -0.80184001 -0.29615068
-6.8683076 -2.8259857 -0.3457599
-13.750411 -5.6576476 -0.34570745
-0.80067581 -0.34129101 -0.29406634
-0.88273549 -0.37626922 -0.29951078
-0.95297676 -0.40620983 -0.29706937
-1.0350809 -0.44120702 -0.2945042
-1.1435649 -0.48744872 -0.29463658
-1.2626228 -0.53819758 -0.29175037
-1.4511331 -0.61855084 -0.29711691
-1.6622012 -0.70851934 -0.2969676
-1.9290519 -0.82226539 -0.29469961
-6.8184614 -2.906394 -0.34506559
-13.683216 -5.832521 -0.34583718
-0.79171246 -0.34931469 -0.29236665
-0.86721432 -0.38262716 -0.29585579
-0.94619483 -0.41747448 -0.29657048
-1.0279177 -0.45353177 -0.29406771
-1.1112016 -0.49027783 -0.28786609
-1.2675495 -0.55926067 -0.29449269
-1.4348511 -0.63307649 -0.29539195
-1.6412536 -0.72414416 -0.29483083
-1.9236661 -0.84874856 -0.29548612
-6.7904611 -2.996047 -0.34553045
-13.595995 -5.9987445 -0.34551448
-0.78914535 -0.36011988 -0.29307002
-0.86659151 -0.39546183 -0.29731864
-0.94115144 -0.4294866 -0.29666132
-1.0204325 -0.46566585 -0.29358053
-1.1365762 -0.51866704 -0.29610804
-1.2604752 -0.57520735 -0.29450855
-1.4206644 -0.6483084 -0.29412869
-1.6298931 -0.74378812 -0.29444921
-1.9075109 -0.87047666 -0.29466495
-6.7482953 -3.0795283 -0.34533069
-13.522706 -6.1709743 -0.34559932
-0.79794908 -0.37634796 -0.29807585
-0.86582172 -0.40835968 -0.29879504
-0.93461895 -0.44080752 -0.29632834
-1.0175794 -0.47993535 -0.29447508
-1.1284456 -0.53222471 -0.29571238
-1.2489662 -0.58906758 -0.29352936
-1.4222206 -0.67078191 -0.29617614
-1.6313467 -0.76941508 -0.29643863
-1.9024354 -0.89727241 -0.29560286
-6.7114434 -3.1654127 -0.34545723
-13.433495 -6.3358283 -0.34533095
-0.78908736 -0.38438764 -0.29655012
-0.85098344 -0.41453904 -0.29545236
-0.92030215 -0.4483062 -0.29355568
-1.0064996 -0.49029556 -0.29303214
-1.1125116 -0.54193711 -0.29330188
-1.2470151 -0.6074577 -0.29484513
-1.4111583 -0.68741667 -0.29565161
-1.6207517 -0.78951579 -0.29629642
-1.895225 -0.9232198 -0.29626536
-6.6746278 -3.2514074 -0.34564221
-13.370008 -6.5129232 -0.34577978
-0.76963133 -0.38697511 -0.2910465
-0.84392661 -0.42433122 -0.29483405
-0.91601127 -0.46057579 -0.29401362
-1.006808 -0.50622898 -0.29495445
-1.1074642 -0.55683947 -0.29379648
-1.2328501 -0.61988419 -0.29331827
-1.3917953 -0.69980276 -0.29341781
-1.6152711 -0.8121677 -0.29714057
-1.8699256 -0.94020951 -0.29413795
-13.263327 -6.6688781 -0.34516519
-0.78013241 -0.40464064 -0.29692096
-0.84345323 -0.43748406 -0.29656973
-0.90948373 -0.47173288 -0.29380181
-0.99111468 -0.51407337 -0.29223016
-1.0853542 -0.56295377 -0.28978857
-1.2358611 -0.64101893 -0.29593164
-1.3888836 -0.72038895 -0.29469302
-1.5806125 -0.81983531 -0.29264078
-1.8615669 -0.96556127 -0.29471228
-13.191389 -6.8421364 -0.34550789
-0.79009241 -0.42251533 -0.30271271
-0.83466518 -0.44635138 -0.29543257
-0.8996799 -0.4811191 -0.29256865
-0.99523348 -0.53221804 -0.29539722
-1.0991817 -0.58780605 -0.29543334
-1.2296981 -0.65760189 -0.29641521
-1.384815 -0.74055332 -0.29578492
-1.5761305 -0.84286255 -0.29375267
-1.8669984 -0.99840915 -0.29753894
-13.101481 -7.0062399 -0.34543639
-0.75354588 -0.41525656 -0.29069081
-0.83701861 -0.46125588 -0.29829776
-0.90720063 -0.4999311 -0.29703796
-0.98262697 -0.54149628 -0.29365602
-1.0805535 -0.59546065 -0.29241869
-1.2060013 -0.66459119 -0.29269722
-1.3649145 -0.75216353 -0.2935341
-1.5795636 -0.8704502 -0.29641187
-1.8483092 -1.0185478 -0.29658097
-13.006339 -7.1674042 -0.34528011
-0.76656139 -0.435101 -0.29780167
-0.82527041 -0.46842426 -0.29618955
-0.90093803 -0.51137328 -0.29707226
-0.97910148 -0.55573893 -0.2946704
-1.0982713 -0.62337983 -0.29931402
-1.1950229 -0.67829615 -0.29208258
-1.3540622 -0.76856703 -0.29325828
-1.5607358 -0.88587511 -0.29494867
-1.8341584 -1.0410701 -0.29639038
-12.923257 -7.3352528 -0.34549922
-0.74959296 -0.43803954 -0.29332921
-0.81255549 -0.47483292 -0.29374883
-0.89682448 -0.52407718 -0.29786828
-0.98465085 -0.57540029 -0.2984975
-1.0751721 -0.62829816 -0.29515153
-1.1986607 -0.70046121 -0.29510415
-1.3530104 -0.79065847 -0.29516336
-1.5391517 -0.89943379 -0.29298684
-1.8145608 -1.0603746 -0.29535776
-12.813482 -7.487813 -0.34505785
-0.75266254 -0.45264173 -0.29673728
-0.80798107 -0.48590961 -0.29428375
-0.87781382 -0.52790618 -0.29373875
-0.96297979 -0.57912391 -0.2941153
-1.0653099 -0.64066392 -0.29463547
-1.1796045 -0.70939928 -0.29258865
-1.3416137 -0.80682951 -0.29487011
-1.545732 -0.92958373 -0.29644418
-1.7961428 -1.0801777 -0.29455048
-12.718498 -7.6487441 -0.34506631
-0.75781125 -0.468831 -0.30107081
-0.79812527 -0.49377185 -0.29293546
-0.87240666 -0.53972715 -0.29418027
-0.95821786 -0.59281546 -0.29491746
-1.0529703 -0.65143543 -0.29346812
-1.1745645 -0.7266615 -0.29358488
-1.3204316 -0.81690431 -0.29245228
-1.523697 -0.94265741 -0.29447135
-1.7931851 -1.1093802 -0.29633284
-12.640928 -7.8204947 -0.34560615
-0.7480216 -0.47590116 -0.29953855
-0.79829901 -0.50788832 -0.29532313
-0.85714757 -0.54532856 -0.2913273
-0.94885558 -0.60367441 -0.2943522
-1.0504125 -0.6682862 -0.29507723
-1.1675007 -0.74277931 -0.29413381
-1.3115624 -0.83443326 -0.29279187
-1.5238011 -0.96946228 -0.29682723
-1.7704884 -1.126408 -0.29490268
-12.543518 -7.9803514 -0.34566295
-0.73054463 -0.47780913 -0.29492599
-0.79971194 -0.52304769 -0.29825872
-0.8574872 -0.56083536 -0.29381973
-0.93472606 -0.61135304 -0.29233396
-1.0323354 -0.67519391 -0.2923643
-1.1607428 -0.7591781 -0.29481629
-1.3150473 -0.86010027 -0.29596418
-1.5004089 -0.9813351 -0.29465431
-1.76525 -1.1545531 -0.29642823
-12.443875 -8.1388559 -0.34571388
-0.72431344 -0.48686412 -0.29486203
-0.78355086 -0.5266819 -0.29468143
-0.85776281 -0.57656521 -0.29637837
-0.92822319 -0.62392682 -0.29273415
-1.035898 -0.69630289 -0.29583293
-1.159114 -0.77912539 -0.29687092
-1.3051623 -0.8772952 -0.29620224
-1.4899442 -1.0015006 -0.29505244
-1.7585444 -1.1820465 -0.2977781
-12.335423 -8.2915421 -0.3455742
-0.71225518 -0.49189121 -0.29245156
-0.79235965 -0.54721218 -0.30056193
-0.85294241 -0.58905137 -0.29725218
-0.92067713 -0.63582969 -0.29285613
-1.0301452 -0.71142948 -0.29672492
-1.1318735 -0.78168416 -0.29239196
-1.2889006 -0.89012879 -0.29503208
-1.4758967 -1.0192704 -0.29478893
-1.7186551 -1.186922 -0.29353109
-12.206184 -8.4297237 -0.34489995
-0.71805269 -0.50936651 -0.29744202
-0.77838123 -0.55216187 -0.29787338
-0.83776301 -0.59428567 -0.29454675
-0.92217648 -0.65416622 -0.29592979
-1.0086924 -0.7155382 -0.2931177
-1.131008 -0.80230546 -0.29475483
-1.2760966 -0.90522724 -0.29468706
-1.469066 -1.0421144 -0.29602218
-1.7158781 -1.217196 -0.29565111
-12.12441 -8.6007166 -0.34562212
-0.69344008 -0.50515121 -0.28985861
-0.75944263 -0.55323219 -0.29326856
-0.8394084 -0.611485 -0.29780883
-0.90855974 -0.66185975 -0.2942113
-1.0032264 -0.73082167 -0.29418021
-1.1170858 -0.81376499 -0.29377377
-1.2596833 -0.91764319 -0.29354191
-1.4469211 -1.0540407 -0.29421106
-1.6849065 -1.2274061 -0.29295447
-12.013614 -8.7515736 -0.34557781
-0.69144326 -0.51714724 -0.29172283
-0.75873452 -0.56747603 -0.29573113
-0.82726032 -0.6187281 -0.29623955
-0.90602332 -0.67763692 -0.29612964
-0.98208457 -0.73452497 -0.29066986
-1.1097242 -0.82998973 -0.29456297
-1.2411557 -0.92829055 -0.29192522
-1.4348251 -1.0731406 -0.29447588
-1.6886736 -1.2630001 -0.29635119
-11.900105 -8.9003773 -0.34550914
-0.69792533 -0.5358302 -0.29728079
-0.75430644 -0.57911664 -0.29682398
-0.81198502 -0.6233992 -0.29355732
-0.90403557 -0.69407076 -0.2983129
-0.99284607 -0.76225477 -0.29667234
-1.1078991 -0.85058641 -0.29689804
-1.2469198 -0.95731914 -0.29609284
-1.4165881 -1.0875815 -0.29352045
-1.6621532 -1.2761135 -0.29449371
-11.769526 -9.0360212 -0.34499419
-0.68930393 -0.5431419 -0.29649824
-0.73796624 -0.58148575 -0.29325211
-0.8121649 -0.63995111 -0.29651219
-0.88854647 -0.70013648 -0.29608753
-0.97588056 -0.76895201 -0.29447284
-1.0829395 -0.85330987 -0.29306555
-1.2280276 -0.96763307 -0.29447672
-1.4144642 -1.1145371 -0.2959649
-1.6521412 -1.3018163 -0.29560077
-1.9876932 -1.5662169 -0.29576012
-11.678646 -9.2022724 -0.34569949
-0.67109662 -0.54262996 -0.29158249
-0.73851734 -0.59714448 -0.29643562
-0.80699813 -0.65251613 -0.29760206
-0.87453842 -0.70712733 -0.29436347
-0.96789384 -0.78261191 -0.29501316
-1.0763813 -0.87033182 -0.29423326
-1.2373263 -1.0004674 -0.29970372
-1.3888485 -1.1229842 -0.2935406
-1.6299133 -1.3179023 -0.29456964
-1.9642017 -1.5881985 -0.29521704
-11.555755 -9.3436604 -0.34551716
-0.66419601 -0.55102438 -0.29157591
-0.72496998 -0.60144311 -0.29401445
-0.77680773 -0.64444828 -0.28943822
-0.86437804 -0.71709764 -0.29395965
-0.95170331 -0.78954363 -0.2930854
-1.069591 -0.8873446 -0.29540807
-1.2058108 -1.0003541 -0.29509783
-1.3859125 -1.1497685 -0.29595664
-1.6240597 -1.347338 -0.29655445
-1.9460745 -1.6144849 -0.29552466
-11.440171 -9.4908934 -0.34560722
-0.66698825 -0.56766993 -0.2959162
-0.72195333 -0.6144504 -0.29590547
-0.77566439 -0.66016358 -0.29208645
-0.8583647 -0.7305494 -0.29501972
-0.93238676 -0.79354912 -0.29019099
-1.0559011 -0.89867139 -0.29472908
-1.204641 -1.0252632 -0.29794747
-1.3736906 -1.1691405 -0.29646704
-1.5968608 -1.3590792 -0.29468951
-1.9274353 -1.6404294 -0.29580757
-11.313002 -9.6284323 -0.34540078
-0.65738636 -0.57392663 -0.2948392
-0.71753317 -0.62643737 -0.29730335
-0.7723015 -0.67425251 -0.29399395
-0.8454321 -0.73809868 -0.29374593
-0.94108564 -0.82160836 -0.29609489
-1.0479648 -0.91491848 -0.29570621
-1.1866549 -1.036001 -0.296702
-1.3485044 -1.1773025 -0.29420751
-1.5888716 -1.3871534 -0.29641515
-1.9077438 -1.6655426 -0.29598078
-11.18755 -9.7672129 -0.34529826
-0.65701842 -0.58834672 -0.2979733
-0.69172066 -0.61942196 -0.28981701
-0.76456267 -0.68465042 -0.29430655
-0.848243 -0.75958455 -0.29802227
-0.92791313 -0.83092749 -0.29521906
-1.0386138 -0.93005776 -0.29634878
-1.1666549 -1.044716 -0.2949672
-1.338724 -1.1988004 -0.29534376
-1.5724832 -1.408127 -0.29664218
-1.8832188 -1.6863844 -0.29544696
-11.071857 -9.9146252 -0.34555343
-0.6374281 -0.58543199 -0.29240876
-0.70214796 -0.64487261 -0.29756454
-0.75796044 -0.6961323 -0.29511598
-0.8356086 -0.76744658 -0.29695505
-0.92619562 -0.85064429 -0.2980569
-1.0164434 -0.93353039 -0.29335374
-1.1605928 -1.0659212 -0.29680455
-1.3331722 -1.2244232 -0.29749686
-1.5543263 -1.4275373 -0.29658452
-1.8648626 -1.7127426 -0.29592726
-10.944943 -10.052146 -0.34551558
-0.64016062 -0.60297614 -0.29712179
-0.69051939 -0.65040976 -0.29608384
-0.74491274 -0.70164359 -0.29345259
-0.82553738 -0.77758503 -0.29683214
-0.90218949 -0.84978473 -0.29375181
-1.0119706 -0.95318907 -0.29550353
-1.1463693 -1.0797811 -0.29662079
-1.3144466 -1.2380953 -0.29677367
-1.5303752 -1.4414816 -0.29545444
-1.8306611 -1.7243249 -0.29392222
-10.813715 -10.185587 -0.34539446
-0.62651098 -0.60518646 -0.29430017
-0.67656904 -0.65354073 -0.29360756
-0.735578 -0.71054119 -0.2932767
-0.80762982 -0.78014058 -0.29390219
-0.89683431 -0.86630887 -0.29553661
-0.99381626 -0.95998979 -0.29370892
-1.1321599 -1.0936247 -0.29648387
-1.3046468 -1.2602407 -0.29812038
-1.5127977 -1.4613068 -0.29559001
-1.8173152 -1.7554593 -0.29530513
-10.681155 -10.317601 -0.34528282
-0.62196779 -0.61612415 -0.29578704
-0.67874777 -0.67237067 -0.29820365
-0.72082406 -0.71405166 -0.29095614
-0.80400628 -0.79645234 -0.29620972
-0.88614285 -0.87781715 -0.29563251
-0.99182153 -0.982503 -0.29675224
-1.11507 -1.1045935 -0.29562753
-1.2700717 -1.2581389 -0.29381663
-1.4839391 -1.4699969 -0.2935448
-1.7932173 -1.7763693 -0.29500073
-10.569166 -10.469865 -0.34589705
-0.60223585 -0.6117925 -0.29004386
-0.66912723 -0.67974532 -0.29771388
-0.72465241 -0.7361517 -0.29621962
-0.79061025 -0.8031562 -0.29497701
-0.87223232 -0.88607347 -0.29469076
-0.97380728 -0.98926026 -0.29506609
-1.1041557 -1.121677 -0.29645506
-1.251085 -1.270938 -0.29310337
-1.4612974 -1.4844862 -0.29274046
-1.7757711 -1.8039503 -0.29584417
-10.429684 -10.595188 -0.34567115
-0.60780752 -0.63320625 -0.29654387
-0.65296942 -0.68025535 -0.29431269
-0.70543969 -0.73491818 -0.29212567
-0.77505171 -0.80743915 -0.29294235
-0.86469644 -0.90082991 -0.29595372
-0.95989072 -1.0000021 -0.29464146
-1.0830243 -1.1282811 -0.29457274
-1.2476434 -1.2997791 -0.29610804
-1.4619734 -1.5230654 -0.29669443
-1.7448859 -1.8178002 -0.29448882
-10.291506 -10.721561 -0.34553871
-0.59670019 -0.63751167 -0.29501793
-0.64280629 -0.68677121 -0.29360649
-0.69493222 -0.74246228 -0.29162294
-0.76951969 -0.82215124 -0.29474103
-0.85094213 -0.90914261 -0.29514098
-0.95593274 -1.021314 -0.29735059
-1.0747888 -1.1482993 -0.29624218
-1.2310809 -1.315281 -0.29608452
-1.4318084 -1.5297372 -0.29445857
-1.7227578 -1.8405863 -0.29464251
-10.161521 -10.856522 -0.34573701
-0.58783406 -0.64410669 -0.29462108
-0.63888478 -0.70004451 -0.29581824
-0.69182104 -0.7580483 -0.29429972
-0.7702629 -0.84399927 -0.29907262
-0.84229946 -0.92293179 -0.29615077
-0.94128132 -1.0313891 -0.29680946
-1.0516329 -1.1523044 -0.29383582
-1.222476 -1.3395021 -0.29804805
-1.4219184 -1.5580369 -0.29643592
-1.6954527 -1.8577564 -0.29395014
-10.014732 -10.973431 -0.34541669
-0.59108806 -0.66428083 -0.30042055
-0.63597155 -0.71472216 -0.29861283
-0.69124287 -0.77683759 -0.29819143
-0.75330669 -0.84658653 -0.29660463
-0.83369881 -0.9369334 -0.2972514
-0.91796517 -1.0316342 -0.29353029
-1.0247291 -1.1516185 -0.29034749
-1.1856627 -1.3324801 -0.29314032
-1.3976703 -1.5707399 -0.29548079
-1.680618 -1.8887243 -0.29547819
-9.87708 -11.100131 -0.34546253
-0.5688141 -0.65569037 -0.293273
-0.61988014 -0.7145558 -0.2952587
-0.68177283 -0.78590155 -0.29835162
-0.74112648 -0.85432041 -0.2960211
-0.82501823 -0.95102513 -0.29840252
-0.90896416 -1.0477923 -0.29484767
-1.0316406 -1.1892054 -0.29652524
-1.1785138 -1.3585109 -0.29557878
-1.3820632 -1.5931487 -0.29639894
-1.6483641 -1.9001224 -0.29399082
-9.7504187 -11.239622 -0.34595522
-0.57073361 -0.67488611 -0.29862061
-0.60437912 -0.71467155 -0.2921387
-0.67387992 -0.79685545 -0.29926494
-0.72555643 -0.85796237 -0.294094
-0.81382269 -0.9623363 -0.29871249
-0.89859962 -1.062584 -0.29580247
-1.012399 -1.1971505 -0.29530412
-1.1579221 -1.36923 -0.29471523
-1.3566376 -1.6042088 -0.29525501
-1.635373 -1.9338104 -0.29599342
-9.5981674 -11.349726 -0.34559664
-0.555354 -0.67372495 -0.29498914
-0.60627675 -0.73550159 -0.29750913
-0.65088767 -0.78962106 -0.29344663
-0.72189289 -0.87576073 -0.29705542
-0.79883689 -0.96910489 -0.2976675
-0.87835741 -1.0655749 -0.29353276
-0.99849719 -1.2113218 -0.29567486
-1.1416365 -1.3849705 -0.29498559
-1.3284092 -1.611553 -0.29350469
-1.6030959 -1.9447876 -0.29456049
-9.4511747 -11.465645 -0.34547511
-0.55240262 -0.68760437 -0.29799694
-0.59481221 -0.74039382 -0.29643485
-0.64853036 -0.80725956 -0.29694319
-0.70517725 -0.87777096 -0.29470193
-0.78419363 -0.97612673 -0.29676771
-0.87865233 -1.0937045 -0.29821011
-0.97696584 -1.2160804 -0.29381025
-1.131453 -1.4083787 -0.29691318
-1.3134893 -1.6349686 -0.29473361
-1.5786279 -1.9650005 -0.29458782
-1.9838018 -2.4693418 -0.29565644
-9.3038769 -11.581021 -0.3453941
-0.54334933 -0.69405603 -0.29780418
-0.59025842 -0.75397605 -0.29887328
-0.63528097 -0.81148636 -0.29553196
-0.69652462 -0.88971692 -0.29574451
-0.77616239 -0.99144351 -0.29842931
-0.85719204 -1.0949481 -0.29558268
-0.95951349 -1.22565 -0.2931799
-1.1034684 -1.409533 -0.29420388
-1.2960603 -1.6555434 -0.29547715
-1.550534 -1.9805995 -0.29397598
-1.9556533 -2.4980853 -0.29612595
-9.1626835 -11.704102 -0.3455964
-0.52961415 -0.69434869 -0.29504484
-0.57165188 -0.74946207 -0.29420722
-0.63002264 -0.82598883 -0.29790074
-0.68765676 -0.90154988 -0.296776
-0.750296 -0.98367274 -0.29322317
-0.84205198 -1.1039691 -0.29513216
-0.95218283 -1.2483557 -0.29571968
-1.0875343 -1.4258078 -0.2947191
-1.2789438 -1.6767545 -0.29636502
-1.5229589 -1.9966695 -0.29349148
-1.9167712 -2.5129757 -0.29500657
-9.0189114 -11.82421 -0.34576213
-0.52139813 -0.70172745 -0.29536697
-0.57186288 -0.76964575 -0.29927996
-0.61868078 -0.83265603 -0.29747197
-0.67783886 -0.9122743 -0.29747298
-0.74423289 -1.0016313 -0.29575941
-0.81368643 -1.0951058 -0.2900005
-0.93908376 -1.2638726 -0.29657072
-1.0768601 -1.4492998 -0.29674855
-1.2435704 -1.6736681 -0.2930285
-1.5040656 -2.0242574 -0.29473937
-1.8886878 -2.5419042 -0.29558718
-8.8583565 -11.922083 -0.34533492
-0.50646687 -0.69987053 -0.29187784
-0.55284339 -0.76395679 -0.29433742
-0.6021539 -0.83209741 -0.2945402
-0.65442824 -0.90433365 -0.29217342
-0.72503036 -1.0018965 -0.29311869
-0.80639315 -1.1143292 -0.29237896
-0.90955698 -1.256888 -0.29222104
-1.0415124 -1.4392331 -0.29197887
-1.2346157 -1.7060763 -0.29595721
-1.4772693 -2.0413918 -0.29450229
-1.8560977 -2.5648825 -0.29551795
-8.7166452 -12.045257 -0.345696
-0.49897781 -0.70812684 -0.29267749
-0.54129398 -0.76818007 -0.2933152
-0.59388065 -0.84280866 -0.29566112
-0.65178692 -0.92498672 -0.29617089
-0.72106534 -1.0233035 -0.29670164
-0.79565454 -1.1291572 -0.29361746
-0.90428251 -1.2833171 -0.29569483
-1.0392785 -1.4748973 -0.29653564
-1.2114283 -1.7192045 -0.29556492
-1.4609257 -2.0732801 -0.29642522
-1.828833 -2.5953975 -0.29635695
-8.5584202 -12.145725 -0.34545907
-0.49467871 -0.72114187 -0.29545876
-0.53780568 -0.78401226 -0.29675108
-0.58482176 -0.85255229 -0.29647237
-0.64167947 -0.93543935 -0.29690701
-0.70024657 -1.0208185 -0.29340121
-0.79030633 -1.1521074 -0.29697394
-0.88630009 -1.2920469 -0.29511139
-1.0167044 -1.4821502 -0.29539645
-1.1892515 -1.7336891 -0.29545712
-1.4208689 -2.0713406 -0.29356655
-1.7902181 -2.6097772 -0.29540145
-8.4113998 -12.262125 -0.3457298
-0.48205337 -0.72206157 -0.29332533
-0.52120024 -0.78069919 -0.29298973
-0.57385826 -0.85957497 -0.29637811
-0.61960369 -0.92809647 -0.29207683
-0.69248921 -1.0372708 -0.29560021
-0.76524961 -1.1462576 -0.29295897
-0.86393434 -1.2940762 -0.29306686
-0.99451548 -1.4896721 -0.29437634
-1.1699762 -1.7524925 -0.29612741
-1.4024494 -2.1007111 -0.29520288
-1.7622658 -2.6396754 -0.29625034
-8.2523327 -12.361065 -0.3455621
-0.47456205 -0.73059654 -0.29434162
-0.52288806 -0.80499524 -0.29961303
-0.55973589 -0.86172318 -0.29466519
-0.60858601 -0.93692875 -0.29242149
-0.6826818 -1.0510005 -0.29703954
-0.75597203 -1.1638321 -0.29499429
-0.85001206 -1.3086084 -0.29391062
-0.97867417 -1.506686 -0.29527977
-1.1464171 -1.7649292 -0.29576612
-1.3753359 -2.1173537 -0.29508451
-1.7256258 -2.6566308 -0.2956911
-8.0954704 -12.463118 -0.3455379
-0.46622396 -0.73793626 -0.29491004
-0.50239402 -0.79518598 -0.29358423
-0.54798013 -0.86733937 -0.29420277
-0.60167646 -0.95232964 -0.29484016
-0.66596681 -1.0540879 -0.29551861
-0.73745173 -1.1672338 -0.29347953
-0.8306694 -1.3147781 -0.29292381
-0.95915186 -1.5181394 -0.29513401
-1.1259116 -1.7820857 -0.29624182
-1.3536847 -2.1426034 -0.29620433
-1.6912761 -2.6769409 -0.29555786
-7.937839 -12.56396 -0.3455351
-0.45168856 -0.73527211 -0.29154918
-0.49588436 -0.80721533 -0.29569665
-0.53170216 -0.8655206 -0.29129171
-0.58565331 -0.95334393 -0.29284778
-0.64781094 -1.054526 -0.29333118
-0.72212595 -1.1754981 -0.29324788
-0.81461638 -1.3260568 -0.29312801
-0.93636709 -1.5242462 -0.29400569
-1.1000271 -1.7906568 -0.2953406
-1.3249779 -2.1568384 -0.29584229
-1.6578078 -2.6986291 -0.29562414
-7.7753925 -12.657016 -0.34537423
-0.44929144 -0.7524513 -0.29609424
-0.49123293 -0.82269281 -0.29907668
-0.53081554 -0.88898385 -0.2969152
-0.57741624 -0.96702838 -0.2947945
-0.63447136 -1.0625815 -0.29332632
-0.71040571 -1.1897527 -0.29454893
-0.80280948 -1.344506 -0.29494822
-0.91129124 -1.5261859 -0.29214326
-1.0800638 -1.808838 -0.29607263
-1.2905173 -2.1612952 -0.29420128
-1.624568 -2.7207468 -0.29578263
-0.43859357 -0.75600106 -0.29529437
-0.46755242 -0.8059172 -0.29081482
-0.51993406 -0.89620715 -0.29711747
-0.56844759 -0.97982967 -0.29649132
-0.62545282 -1.0780892 -0.29540968
-0.69582838 -1.1993951 -0.29474354
-0.78460264 -1.3524147 -0.29449248
-0.90011138 -1.5515164 -0.29479903
-1.0563965 -1.8209041 -0.29584685
-1.2622123 -2.1756675 -0.29397085
-1.5879169 -2.7370825 -0.29536134
-0.42324978 -0.75118732 -0.2913093
-0.47036505 -0.83480787 -0.299079
-0.50474507 -0.89582586 -0.29486057
-0.55016047 -0.97642946 -0.29334289
-0.6061542 -1.0758076 -0.2926698
-0.67988425 -1.2066643 -0.29440269
-0.76512444 -1.3579493 -0.29357639
-0.87714666 -1.5567673 -0.2936748
-1.0326444 -1.832746 -0.29563472
-1.244754 -2.2091999 -0.29636028
-1.5479741 -2.7473576 -0.29434335
-0.41827235 -0.76471061 -0.29448771
-0.46057141 -0.84204429 -0.29956999
-0.48827034 -0.89268517 -0.29177991
-0.54100353 -0.98909515 -0.29507795
-0.59567398 -1.089047 -0.2942076
-0.661888 -1.2101034 -0.29318503
-0.75113058 -1.3732619 -0.29481867
-0.8570596 -1.5669279 -0.29353234
-1.0068249 -1.8407376 -0.29485536
-1.2184731 -2.2276857 -0.29675832
-1.5195361 -2.7781072 -0.29556438
-0.41052195 -0.77351809 -0.2958653
-0.43729526 -0.82396519 -0.29115596
-0.48166969 -0.9075768 -0.29464152
-0.52451348 -0.98830444 -0.29284844
-0.58140224 -1.0954959 -0.29394871
-0.64857411 -1.2220632 -0.29408064
-0.7360639 -1.3869143 -0.29573631
-0.83092791 -1.5656599 -0.29131165
-0.98672622 -1.8592199 -0.29580218
-1.1881735 -2.2387929 -0.29622138
-1.4820911 -2.7926013 -0.29509747
-1.9815694 -3.7337339 -0.29550597
-0.39452979 -0.76654059 -0.29127312
-0.4351795 -0.84551978 -0.29681259
-0.46777284 -0.90884608 -0.29311809
-0.51563042 -1.0018296 -0.29490882
-0.56589669 -1.0994931 -0.29308596
-0.62928951 -1.2226604 -0.29229429
-0.71654952 -1.3921998 -0.29491597
-0.81392348 -1.5813897 -0.29230824
-0.96154821 -1.8682131 -0.2952832
-1.1633104 -2.2602212 -0.29709485
-1.4474657 -2.8123128 -0.29523095
-1.9353741 -3.7602806 -0.29565477
-0.3873713 -0.77650785 -0.29318377
-0.42197084 -0.84586459 -0.29504496
-0.4583964 -0.91888171 -0.29446974
-0.49752334 -0.99731386 -0.29171216
-0.55176783 -1.10605 -0.29295847
-0.61525351 -1.2333107 -0.29296502
-0.6973449 -1.3978676 -0.29423314
-0.80432808 -1.6123214 -0.29613012
-0.94020838 -1.8847013 -0.29599452
-1.1318679 -2.2688937 -0.29633787
-1.4108784 -2.8281863 -0.29500887
-1.8871578 -3.7829151 -0.29554257
-0.38221344 -0.79094642 -0.29679456
-0.41387051 -0.85645705 -0.29689834
-0.45174193 -0.93482757 -0.29773331
-0.4904314 -1.0148909 -0.29502368
-0.54464704 -1.1270839 -0.29668966
-0.60758471 -1.2573261 -0.29682884
-0.6788466 -1.4047943 -0.29386857
-0.78402501 -1.6224489 -0.29615346
-0.91644239 -1.8964713 -0.29600719
-1.0997238 -2.2757509 -0.29540139
-1.3721817 -2.839571 -0.29437071
-1.8358458 -3.7990704 -0.29497525
-0.370224 -0.79142052 -0.29519975
-0.40192434 -0.8591857 -0.29606631
-0.44132131 -0.94340384 -0.29867119
-0.48325348 -1.0330415 -0.29850733
-0.52696443 -1.1264814 -0.29476094
-0.58697212 -1.2547587 -0.29445443
-0.66352057 -1.4183948 -0.29494244
-0.75727266 -1.6188068 -0.29372475
-0.88847226 -1.8992697 -0.29467437
-1.0736077 -2.2950301 -0.29612559
-1.3411496 -2.8669488 -0.29543477
-1.7955569 -3.8383265 -0.29624423
-0.36535314 -0.80734086 -0.29939824
-0.39014584 -0.86212665 -0.2953634
-0.4280408 -0.94586527 -0.2977204
-0.46241662 -1.0218273 -0.29356107
-0.51285756 -1.1332895 -0.29482916
-0.57188553 -1.2637268 -0.2948457
-0.63968956 -1.4135571 -0.29223832
-0.74934572 -1.6558704 -0.29871398
-0.86647409 -1.9146954 -0.29535145
-1.0439131 -2.3067923 -0.29592371
-1.3074313 -2.8891027 -0.29599768
-1.7382873 -3.8411889 -0.29475239
-0.35109037 -0.8025769 -0.29596859
-0.38038406 -0.86954099 -0.29623908
-0.41502261 -0.9487232 -0.29695147
-0.44736028 -1.0226456 -0.29215461
-0.49783865 -1.138037 -0.29441002
-0.55087727 -1.2592809 -0.29216677
-0.63052315 -1.4413478 -0.29631883
-0.71576059 -1.6361967 -0.29351574
-0.83975589 -1.9196445 -0.29446036
-1.0101602 -2.309181 -0.29457501
-1.2719356 -2.907588 -0.29622713
-1.6932034 -3.8705876 -0.29534882
-0.33358973 -0.78949779 -0.28957334
-0.36459079 -0.86286712 -0.2923781
-0.40240777 -0.95236748 -0.29648262
-0.44167796 -1.0453073 -0.29701626
-0.48278174 -1.1425864 -0.29399094
-0.53773439 -1.2726414 -0.29367226
-0.61028963 -1.444356 -0.29533395
-0.69847393 -1.6530592 -0.29493952
-0.81084603 -1.9190073 -0.29277322
-0.97897041 -2.3169026 -0.29396415
-1.2324147 -2.9167223 -0.29555324
-1.6394045 -3.8799341 -0.29446343
-0.33349857 -0.81785488 -0.29841024
-0.35490921 -0.87036127 -0.2933799
-0.39158329 -0.9602989 -0.29739311
-0.42554137 -1.043576 -0.29497835
-0.46073297 -1.129878 -0.28920534
-0.52774197 -1.2942075 -0.29709178
-0.59859049 -1.4679528 -0.298594
-0.68044394 -1.668686 -0.29617542
-0.79670072 -1.9537883 -0.29652551
-0.95673257 -2.3462422 -0.29613465
-1.1992882 -2.9410732 -0.29646698
-1.5979973 -3.9188473 -0.29586607
-0.31793553 -0.80866432 -0.29357287
-0.34835973 -0.8860479 -0.2971653
-0.37592947 -0.9561711 -0.29462543
-0.41459027 -1.0545043 -0.29656819
-0.44931212 -1.1428188 -0.29104641
-0.50916702 -1.2950588 -0.29579195
-0.57135475 -1.4532324 -0.29411298
-0.66341859 -1.6873953 -0.29798979
-0.76982558 -1.95804 -0.29567611
-0.92032397 -2.3408306 -0.29396561
-1.1613736 -2.9539368 -0.29626599
-1.5493762 -3.9408157 -0.29602823
-0.30898061 -0.81591046 -0.29476762
-0.33381069 -0.88147807 -0.29419959
-0.3678965 -0.97148687 -0.29789361
-0.39798361 -1.0509365 -0.29413205
-0.44300166 -1.1698135 -0.29647711
-0.48860332 -1.2902316 -0.2932609
-0.5548833 -1.4652541 -0.29510847
-0.63528937 -1.6775786 -0.29482004
-0.74905354 -1.9779903 -0.29724082
-0.88960618 -2.3491409 -0.29357916
-1.1221473 -2.9632013 -0.29575455
-1.4955286 -3.9491713 -0.29521784
-0.29978454 -0.82275993 -0.2958549
-0.3301526 -0.90610522 -0.30100766
-0.35191786 -0.96583998 -0.29477987
-0.38619414 -1.0599115 -0.29525948
-0.42706975 -1.1720947 -0.29566887
-0.47529191 -1.3044406 -0.29510677
-0.53346395 -1.464094 -0.29349864
-0.61674756 -1.6926662 -0.29608327
-0.71693212 -1.9676231 -0.29430294
-0.86035305 -2.3612425 -0.29371434
-1.0874597 -2.9845376 -0.29649386
-1.4516982 -3.9841917 -0.29644573
-0.28764796 -0.82146233 -0.29406253
-0.30973479 -0.8845377 -0.2925241
-0.34050861 -0.97242129 -0.29545644
-0.37031856 -1.0575523 -0.29328004
-0.4128381 -1.1789792 -0.29607067
-0.45800316 -1.3079611 -0.29457512
-0.51719201 -1.4769921 -0.29475534
-0.58999586 -1.6849047 -0.29340279
-0.69645041 -1.9889166 -0.29615268
-0.83275843 -2.3781838 -0.29449394
-1.0451198 -2.9846432 -0.29517356
-1.3934493 -3.9793994 -0.29476023
-0.27946377 -0.83151078 -0.29637638
-0.30183166 -0.89806372 -0.29571691
-0.32965663 -0.98085362 -0.29673371
-0.36195442 -1.0769517 -0.29737234
-0.39280453 -1.1687427 -0.29223472
-0.44132361 -1.3131052 -0.29445875
-0.49662626 -1.4776517 -0.2936157
-0.57230777 -1.7028329 -0.29524639
-0.67074615 -1.9957244 -0.29588526
-0.80287778 -2.3888662 -0.29454148
-1.0074823 -2.9976423 -0.29518107
-0.2668409 -0.82834852 -0.29402828
-0.28780058 -0.89341313 -0.29296899
-0.31899294 -0.99024296 -0.29833537
-0.34206483 -1.0618645 -0.29199386
-0.38037235 -1.1807817 -0.29402405
-0.42662549 -1.3243644 -0.29575545
-0.47310668 -1.4686549 -0.29062119
-0.55015367 -1.7078303 -0.29488835
-0.64370233 -1.9982313 -0.29503179
-0.76854867 -2.3857892 -0.29294562
-0.97161931 -3.0161772 -0.29577798
-0.25834665 -0.83798987 -0.29627234
-0.27280492 -0.8848877 -0.28902391
-0.30039757 -0.97438902 -0.29239619
-0.3308239 -1.0730819 -0.29390961
-0.36692521 -1.1901823 -0.29519099
-0.40483439 -1.3131471 -0.29208881
-0.46262234 -1.5005918 -0.29576474
-0.52766258 -1.7115604 -0.2943618
-0.61523706 -1.9956228 -0.29347953
-0.73906201 -2.3972695 -0.29318929
-0.93123734 -3.0206218 -0.29504052
-0.24790287 -0.84161097 -0.29642543
-0.26696366 -0.90632087 -0.29490307
-0.2953448 -1.0026727 -0.2997438
-0.31385043 -1.0654979 -0.2907269
-0.35319123 -1.1990567 -0.29626548
-0.39155746 -1.3293071 -0.29456329
-0.44448555 -1.5089939 -0.29629412
-0.50851011 -1.7263523 -0.29578105
-0.58550918 -1.9877582 -0.2912156
-0.70912695 -2.4074309 -0.29331672
-0.8935734 -3.0336123 -0.29518691
-0.23733023 -0.84482193 -0.29648027
-0.25382137 -0.90352529 -0.29293025
-0.27619115 -0.98315477 -0.29284614
-0.30373132 -1.0811893 -0.29394153
-0.33405161 -1.1891201 -0.29274774
-0.37569711 -1.3373652 -0.29527715
-0.42160434 -1.5007806 -0.29361573
-0.48499832 -1.7264434 -0.29472694
-0.56794286 -2.0217004 -0.29511717
-0.68218124 -2.4283535 -0.2947959
-0.85892624 -3.0575109 -0.29643646
-0.2278568 -0.85216653 -0.29802722
-0.24306716 -0.90905207 -0.29370648
-0.26933125 -1.0072777 -0.29899758
-0.29304796 -1.0959764 -0.2969349
-0.32059041 -1.198983 -0.2941587
-0.3588466 -1.3420581 -0.2952922
-0.40493903 -1.5144402 -0.29526711
-0.46604648 -1.7429771 -0.29652414
-0.5411166 -2.0237336 -0.29439595
-0.64980578 -2.4302225 -0.29400614
-0.81710935 -3.0559249 -0.29526168
-0.2149574 -0.84649533 -0.29507381
-0.22993606 -0.90548086 -0.29159403
-0.25605935 -1.0083535 -0.29833615
-0.27610293 -1.0872844 -0.29361475
-0.30967891 -1.2195057 -0.29821339
-0.33933997 -1.3363099 -0.293064
-0.38808149 -1.5282524 -0.29698372
-0.44396412 -1.7483164 -0.29645789
-0.52069056 -2.0504625 -0.2973069
-0.62092662 -2.4451892 -0.29484752
-0.77889955 -3.0672812 -0.29538789
-0.20358923 -0.84625536 -0.29407319
-0.21775828 -0.90515155 -0.29058191
-0.24112174 -1.0022659 -0.29561332
-0.26096055 -1.0847296 -0.29201427
-0.29398832 -1.2220154 -0.29789823
-0.32391432 -1.3464082 -0.29436082
-0.36513695 -1.5177575 -0.29402748
-0.42126697 -1.7510722 -0.29600221
-0.48995849 -2.0366008 -0.29437912
-0.5889827 -2.4482126 -0.29429445
-0.74265987 -3.0869997 -0.29636273
-0.19623066 -0.86332715 -0.29912326
-0.21065301 -0.92677909 -0.29664996
-0.22946285 -1.0095339 -0.2968812
-0.24812028 -1.0916183 -0.29300442
-0.27657697 -1.216815 -0.29575804
-0.30701646 -1.3507351 -0.29443821
-0.34600571 -1.5222703 -0.29403433
-0.39761284 -1.7493187 -0.29483607
-0.46131653 -2.0295866 -0.29250237
-0.55729914 -2.4518671 -0.29386687
-0.70188278 -3.0879703 -0.29558396
-0.18058012 -0.84347427 -0.29143372
-0.19748005 -0.9224124 -0.29443294
-0.21533766 -1.0058237 -0.29496932
-0.23539808 -1.0995243 -0.29430753
-0.26064757 -1.2174624 -0.29509428
-0.28947449 -1.3521104 -0.29392013
-0.32691449 -1.5269895 -0.2941274
-0.3764635 -1.7584287 -0.29554906
-0.43664086 -2.0395119 -0.2931172
-0.52718848 -2.4624522 -0.29431656
-0.66281939 -3.0959725 -0.29552761
-0.17123193 -0.85208285 -0.29363984
-0.18671118 -0.92911059 -0.29579708
-0.20322803 -1.0113016 -0.29580182
-0.22268379 -1.1081172 -0.29583359
-0.24392805 -1.2138327 -0.29344672
-0.27636215 -1.375231 -0.29816595
-0.30868542 -1.5360779 -0.29510587
-0.3551341 -1.7672154 -0.29625079
-0.41173428 -2.0488687 -0.29369351
-0.49776092 -2.4769537 -0.29527724
-0.62689984 -3.1195736 -0.29700339
-0.16172558 -0.86074966 -0.29590127
-0.17399393 -0.92604524 -0.29410031
-0.19225584 -1.0232403 -0.29856208
-0.20463428 -1.0891219 -0.29005152
-0.22927417 -1.2202624 -0.29427981
-0.25710398 -1.3683807 -0.29595533
-0.28843021 -1.5351077 -0.29419842
-0.33308169 -1.7727556 -0.29645294
-0.3888998 -2.0698357 -0.29597357
-0.46623349 -2.4814274 -0.29508728
-0.58374625 -3.106864 -0.29507011
-0.15072948 -0.86188632 -0.29561612
-0.16043103 -0.91736066 -0.29067758
-0.17837636 -1.019974 -0.29693007
-0.19440174 -1.1116086 -0.29536474
-0.21600267 -1.2351249 -0.29718459
-0.23874958 -1.365194 -0.29459253
-0.26703879 -1.5269547 -0.29196835
-0.3102237 -1.7738903 -0.29596597
-0.36135009 -2.066236 -0.29478484
-0.43431988 -2.4834847 -0.29465821
-0.5419271 -3.0987937 -0.29363227
-0.13846587 -0.85507357 -0.29265821
-0.14888547 -0.91941822 -0.29071242
-0.16456988 -1.0162748 -0.29522651
-0.17995834 -1.1113037 -0.29465824
-0.19887832 -1.228141 -0.29487821
-0.22049591 -1.3616369 -0.29320255
-0.25103709 -1.550239 -0.29579264
-0.28758651 -1.7759441 -0.29568097
-0.33562872 -2.0726209 -0.2950694
-0.40212971 -2.4832871 -0.29401067
-0.5059104 -3.1241679 -0.29540956
-0.12940685 -0.86827904 -0.29659668
-0.13871625 -0.93074214 -0.29371738
-0.15181343 -1.0186201 -0.29532909
-0.16592774 -1.1133226 -0.29461619
-0.18590555 -1.2473674 -0.29890871
-0.20331272 -1.364164 -0.29317221
-0.22960337 -1.5405658 -0.29337206
-0.26490161 -1.777406 -0.29534557
-0.3098591 -2.0790565 -0.2954067
-0.37362656 -2.506916 -0.29622769
-0.46814272 -3.1410894 -0.29642871
-0.11697557 -0.85891116 -0.29287031
-0.12860544 -0.9443053 -0.29746291
-0.13944076 -1.0238653 -0.29631728
-0.1529444 -1.1230179 -0.29664868
-0.16659623 -1.2232585 -0.29260561
-0.1861666 -1.3669569 -0.29324538
-0.20969634 -1.5397278 -0.2926864
-0.24290159 -1.7835425 -0.29583356
-0.28321278 -2.0795338 -0.29494441
-0.33994958 -2.4961324 -0.2944243
-0.42719612 -3.1367536 -0.29548845
-0.10653658 -0.8634364 -0.29393259
-0.11629774 -0.94254667 -0.29642412
-0.12762235 -1.0343281 -0.2988565
-0.1390304 -1.1267858 -0.29715794
-0.15153295 -1.2281139 -0.29328734
-0.16941182 -1.373015 -0.29406404
-0.18867899 -1.5291678 -0.29020441
-0.21990481 -1.7822405 -0.29513493
-0.25675356 -2.0808849 -0.29465413
-0.30939502 -2.5075228 -0.2952849
-0.38688931 -3.1355832 -0.29489589
-0.096308641 -0.87060523 -0.2959367
-0.10452644 -0.94489199 -0.29672423
-0.1125278 -1.0172222 -0.29348129
-0.12361009 -1.1174033 -0.29424977
-0.13688253 -1.2373827 -0.29506579
-0.15175135 -1.3717929 -0.29336977
-0.17124318 -1.547994 -0.29334477
-0.19709328 -1.7816722 -0.29460648
-0.2299519 -2.0787058 -0.29391223
-0.2782414 -2.5152302 -0.29575646
-0.34939867 -3.1584735 -0.2966114
-0.084939077 -0.8676632 -0.29454976
-0.092024058 -0.94003719 -0.29481241
-0.099997029 -1.021482 -0.29432368
-0.11021154 -1.1258247 -0.29607847
-0.12132448 -1.2393446 -0.29514593
-0.1341503 -1.370362 -0.29267931
-0.15273392 -1.560196 -0.29526919
-0.17531548 -1.7908695 -0.29573879
-0.20319505 -2.0756626 -0.29309696
-0.24600726 -2.5129948 -0.29510596
-0.30812928 -3.1475787 -0.2952005
-0.075177006 -0.88239205 -0.29920474
-0.081374772 -0.9551385 -0.2992034
-0.087348267 -1.0252526 -0.29506978
-0.096185379 -1.1289784 -0.29656583
-0.10385763 -1.2190316 -0.289974
-0.11780427 -1.3827306 -0.29498073
-0.13203226 -1.5497321 -0.29295099
-0.15196685 -1.7837149 -0.29421797
-0.17739803 -2.0822141 -0.29368332
-0.21530242 -2.5271177 -0.29642257
-0.26892492 -3.1565132 -0.29569739
-0.063712887 -0.87847352 -0.29758039
-0.068301819 -0.94174576 -0.29471523
-0.074644968 -1.0292052 -0.29591337
-0.080929257 -1.115853 -0.29282707
-0.089663073 -1.2362748 -0.29378384
-0.099845625 -1.3766719 -0.29339677
-0.11300158 -1.5580662 -0.29423413
-0.1304388 -1.7984908 -0.29636079
-0.15254498 -2.1032908 -0.29636165
-0.18332869 -2.5277367 -0.2962009
-0.22944909 -3.163645 -0.29607135
-0.052111272 -0.87026292 -0.29455343
-0.056729063 -0.94738042 -0.29623157
-0.061493285 -1.0269433 -0.29501703
-0.066331416 -1.1077405 -0.29045597
-0.073810048 -1.2326344 -0.29267469
-0.083725333 -1.3982205 -0.29774091
-0.041393634 -0.87601721 -0.29630113
-0.044514824 -0.94207114 -0.2943728
-0.048795003 -1.032653 -0.29645726
-0.052598402 -1.1131446 -0.29167616
-0.05873638 -1.2430433 -0.29494715
-0.065501682 -1.386218 -0.29498604
-0.030301353 -0.87476903 -0.29572645
-0.033064727 -0.95454484 -0.29811677
-0.03564471 -1.0290263 -0.29526383
-0.039119858 -1.1293503 -0.29576996
-0.042541455 -1.2281282 -0.29125792
-0.046226796 -1.3345203 -0.28383842
-0.019172233 -0.86998457 -0.29400408
-0.020976456 -0.95185542 -0.29717079
-0.022667231 -1.0285782 -0.29502997
-0.025074324 -1.1378057 -0.29787806
-0.027215973 -1.234988 -0.29278025
-0.0083376113 -0.88297731 -0.29833576
-0.0089498051 -0.94781041 -0.29584929
-0.0098111583 -1.0390302 -0.29796889
-0.010512821 -1.1133384 -0.29141477
-0.011479233 -1.2156842 -0.28814679
0.00274346 -0.87115461 -0.29432949
0.0029898968 -0.94940782 -0.29633614
0.0032549605 -1.0335758 -0.29639295
0.0035186221 -1.1172985 -0.29243973
0.0037793999 -1.2001055 -0.28444299
0.013778781 -0.87528473 -0.29576007
0.014896227 -0.94626951 -0.29539174
0.016127678 -1.0244963 -0.29382423
0.017732786 -1.1264594 -0.29487252
0.018732466 -1.1899631 -0.28207263
0.024739273 -0.872949 -0.29505271
0.027050981 -0.95451993 -0.29804993
0.028977936 -1.0225143 -0.2933372
0.031978749 -1.1284009 -0.29546279
0.033894669 -1.1960061 -0.28358376
0.035706576 -0.87202567 -0.29486921
0.038587026 -0.94237196 -0.29438511
0.042297762 -1.0329956 -0.29647332
0.045981076 -1.1229494 -0.29416364
0.04902691 -1.1973348 -0.28402266
0.046763007 -0.8729893 -0.29537076
0.050245252 -0.9379971 -0.29319283
0.054974284 -1.0262805 -0.29472139
0.059317753 -1.107366 -0.29025409
0.064174712 -1.1980374 -0.2843585
0.057389349 -0.86686414 -0.29351959
0.062900424 -0.95010871 -0.29720262
0.068628088 -1.0366249 -0.29791659
0.074632227 -1.1273172 -0.29570645
0.079132564 -1.1952946 -0.28392148
0.06883166 -0.87281871 -0.29580584
0.073911361 -0.93723178 -0.29344249
0.080860347 -1.0253483 -0.29494503
0.088811554 -1.1261734 -0.29567635
0.095450856 -1.2103629 -0.28776339
0.080147631 -0.87550491 -0.29703471
0.086641267 -0.94643921 -0.29664335
0.094909824 -1.0367621 -0.29854837
0.10349858 -1.1305826 -0.29715258
0.1099154 -1.2006778 -0.28576714
0.091801293 -0.88053006 -0.29910806
0.09838824 -0.94371009 -0.29615277
0.10524981 -1.0095242 -0.29106346
0.11672248 -1.1195664 -0.29462016
0.12592229 -1.2078083 -0.28781882
0.10207734 -0.87243599 -0.29677171
0.11008709 -0.94089383 -0.29568058
0.11972953 -1.023306 -0.29544824
0.13009608 -1.111907 -0.29301238
0.13970272 -1.1940132 -0.28492808
0.1125301 -0.86704278 -0.29539573
0.12198396 -0.93988472 -0.29582271
0.13278426 -1.023101 -0.29584834
0.14486504 -1.116183 -0.29459658
0.15479606 -1.1927016 -0.28505763
0.12451626 -0.8731159 -0.29797536
0.13340838 -0.93546802 -0.29493797
0.14583601 -1.0226115 -0.29621434
0.15898718 -1.1148282 -0.29474404
0.17201339 -1.2061689 -0.28877115
0.13250823 -0.85223728 -0.29139629
0.14400896 -0.92620516 -0.29256606
0.15804493 -1.0164787 -0.29499099
0.17055936 -1.0969663 -0.29056635
0.18762568 -1.2067295 -0.28944805
0.14563157 -0.86477131 -0.29628542
0.15802383 -0.93835753 -0.29700971
0.16999087 -1.0094187 -0.29354006
0.18817051 -1.1173707 -0.29657528
0.20171955 -1.197826 -0.2878989
0.15501389 -0.85462874 -0.29345593
0.16731893 -0.92246932 -0.29262444
0.18211702 -1.0040548 -0.29262391
0.20093952 -1.1078278 -0.29469058
0.21525195 -1.1867356 -0.28586212
0.16638486 -0.85581082 -0.29455787
0.17878976 -0.91961616 -0.29241034
0.19603233 -1.0083044 -0.29455847
0.21389961 -1.1002058 -0.2933563
0.23669113 -1.2174355 -0.29395175
0.1754728 -0.84557849 -0.29177344
0.19387646 -0.93426305 -0.2978203
0.209886 -1.0114107 -0.29621455
0.22885397 -1.1028147 -0.29479694
0.24958368 -1.2027082 -0.29113159
0.18777335 -0.85085839 -0.29438785
0.20585755 -0.93280345 -0.29815769
0.22437224 -1.0166992 -0.29856718
0.24574195 -1.1135318 -0.29846531
0.26422733 -1.1972947 -0.29060355
0.1996734 -0.85356325 -0.29617015
0.21403848 -0.91497111 -0.29329607
0.23664089 -1.0115918 -0.29791877
0.25662598 -1.097024 -0.29488337
0.28011659 -1.1974416 -0.29147223
0.20971781 -0.84820229 -0.29520291
0.22391082 -0.90560585 -0.29117474
0.24527514 -0.99201369 -0.29303929
0.27027136 -1.0931108 -0.29472297
0.29698139 -1.2011392 -0.29325929
0.21981657 -0.84332865 -0.29444674
0.23811477 -0.91352993 -0.29466325
0.26156655 -1.003503 -0.29738256
0.28422129 -1.0904181 -0.29493856
0.31293452 -1.2005767 -0.29406074
0.22693533 -0.82779151 -0.28999671
0.24697629 -0.90089494 -0.29156777
0.27276859 -0.99497741 -0.29585052
0.29777318 -1.0861866 -0.29478484
0.32889488 -1.1997092 -0.29483926
0.24220358 -0.84177089 -0.29593903
0.26497316 -0.92090589 -0.29910031
0.28358653 -0.98559606 -0.29409951
0.31072214 -1.079905 -0.29411864
0.33997545 -1.181574 -0.29141137
0.25444165 -0.84415644 -0.2978805
0.2710461 -0.89924479 -0.29315031
0.30075777 -0.99781865 -0.2988531
0.32832986 -1.0892941 -0.29777819
0.3607142 -1.196735 -0.29624727
0.26449665 -0.83912897 -0.29725817
0.28557396 -0.90599775 -0.29650053
0.30624229 -0.97156906 -0.29212299
0.33738169 -1.0703604 -0.29374042
0.37486514 -1.1892785 -0.29554656
0.27519763 -0.83620703 -0.29742706
0.29551253 -0.89793521 -0.29505637
0.31894797 -0.96914548 -0.29257867
0.35046872 -1.0649234 -0.2934362
0.39346531 -1.1955715 -0.29831803
0.28122574 -0.81962192 -0.29276437
0.30706552 -0.89493102 -0.29531634
0.33744076 -0.98345852 -0.29815885
0.36493576 -1.0635917 -0.29431215
0.40565053 -1.1822534 -0.29624596
0.44694892 -1.302616 -0.29273203
0.51202565 -1.4922798 -0.29715729
0.57950622 -1.6889492 -0.29346621
0.68563467 -1.9982567 -0.29689506
0.81715512 -2.3815682 -0.2942704
1.0247917 -2.9867172 -0.29473501
1.3704888 -3.9942384 -0.29521468
0.29123521 -0.81520915 -0.29247487
0.31898728 -0.89289111 -0.29594523
0.34736934 -0.97233659 -0.29608962
0.37737897 -1.0563378 -0.29359657
0.41672939 -1.1664853 -0.29358646
0.46623766 -1.3050661 -0.29457864
0.52816486 -1.4784092 -0.29569617
0.60536975 -1.6945168 -0.2957347
0.70652807 -1.9776733 -0.29513529
0.85146463 -2.3833716 -0.29579458
1.0668286 -2.9862061 -0.29598677
1.4243524 -3.9869666 -0.29597941
0.307807 -0.8285169 -0.29861626
0.32993302 -0.88807297 -0.29570183
0.36228028 -0.97514135 -0.29830921
0.39288557 -1.0575209 -0.295277
0.43718693 -1.1767658 -0.2975359
0.48133126 -1.295588 -0.29378405
0.54222029 -1.4594817 -0.29325283
0.62431872 -1.6804641 -0.29463086
0.73054278 -1.9663849 -0.29480013
0.87209046 -2.3473854 -0.2926681
1.1034349 -2.9700899 -0.29574314
1.4741048 -3.9678133 -0.29591206
0.31181914 -0.80800319 -0.29261467
0.34666499 -0.89829773 -0.30053607
0.37410459 -0.96940076 -0.29797056
0.40775076 -1.0565866 -0.2964263
0.44059172 -1.141686 -0.29004601
0.50140786 -1.2992761 -0.29602861
0.56286693 -1.4585322 -0.29446286
0.65038574 -1.685316 -0.29689386
0.75409776 -1.9540602 -0.29435268
0.91115481 -2.3610351 -0.29577699
1.1354522 -2.9422472 -0.29437107
1.5189555 -3.9360023 -0.29494271
0.32306397 -0.8067494 -0.29361057
0.35779804 -0.89348662 -0.30041
0.38398799 -0.9588877 -0.29620185
0.41893768 -1.0461634 -0.29495868
0.46404022 -1.1587926 -0.29585302
0.51391482 -1.2833387 -0.29384854
0.58038312 -1.4493221 -0.29405558
0.67019564 -1.6736002 -0.29629314
0.7888431 -1.9698844 -0.29820907
0.93572778 -2.3366821 -0.29417893
1.1765857 -2.938148 -0.29541987
1.5737633 -3.9299724 -0.29595241
0.33321747 -0.80266863 -0.2936292
0.36350495 -0.87562639 -0.29592052
0.38813093 -0.93494654 -0.29029313
0.43412536 -1.04574 -0.29635707
0.47805959 -1.1515706 -0.29552263
0.53594244 -1.2910013 -0.29712477
0.59898078 -1.4428508 -0.29424959
0.69464236 -1.6732845 -0.29776224
0.8039037 -1.9364779 -0.29466096
0.96478963 -2.3240271 -0.29409188
1.2145836 -2.9257414 -0.29568678
1.6213236 -3.9055142 -0.29562458
0.34422213 -0.80055952 -0.29441994
0.3689473 -0.85806298 -0.29153189
0.40643334 -0.94524449 -0.29505622
0.45136243 -1.0497364 -0.29907665
0.49783653 -1.1578215 -0.29871187
0.54701287 -1.2721913 -0.2943576
0.61904877 -1.4397255 -0.29517856
0.70732397 -1.6450276 -0.29429555
0.83196974 -1.9349172 -0.2959941
1.0010736 -2.328203 -0.29619202
1.246539 -2.8990834 -0.2945556
1.6736498 -3.8924177 -0.29620501
0.35717046 -0.80266923 -0.29682636
0.39145112 -0.87970811 -0.30053684
0.41825444 -0.93994319 -0.29502204
0.45585471 -1.0244423 -0.29348236
0.50384444 -1.1322896 -0.29373834
0.56688684 -1.2739649 -0.29639614
0.63410014 -1.4250132 -0.29377595
0.72795421 -1.6359316 -0.29428482
0.85433394 -1.9199446 -0.29532596
1.0263599 -2.3065386 -0.2950567
1.2847272 -2.8871675 -0.29496524
1.7153684 -3.8549473 -0.29497394
0.36341295 -0.78977239 -0.29372612
0.39502171 -0.85846484 -0.29495543
0.43269765 -0.94034255 -0.29683402
0.47405449 -1.0302197 -0.29682401
0.51883757 -1.1275426 -0.29417843
0.5825026 -1.2659001 -0.29620287
0.65827745 -1.4305747 -0.29660782
0.75250179 -1.6353439 -0.2958602
0.87491477 -1.9013729 -0.29414058
1.0559721 -2.2948484 -0.29523885
1.3221902 -2.8733959 -0.29523584
1.7710648 -3.8488944 -0.29619378
0.38156769 -0.80246192 -0.30020866
0.40621513 -0.85429704 -0.29525751
0.44318241 -0.9320417 -0.29595187
0.48436177 -1.0186446 -0.29522291
0.53305924 -1.1210585 -0.29421467
0.59755063 -1.2566882 -0.29578459
0.67981666 -1.4296991 -0.29817751
0.77102536 -1.6215169 -0.29509181
0.90792692 -1.9094299 -0.29713207
1.0816866 -2.274858 -0.29439604
1.3630551 -2.8665943 -0.29627705
1.8117458 -3.8102202 -0.29494986
0.38439247 -0.78283113 -0.29465204
0.41614366 -0.84749371 -0.29469392
0.45237213 -0.92127448 -0.29431841
0.49899068 -1.0162151 -0.29631639
0.54369539 -1.1072581 -0.29236642
0.61208773 -1.2465419 -0.29518718
0.69219565 -1.409685 -0.2957978
0.79044914 -1.6097823 -0.29474431
0.92101467 -1.8756844 -0.29366231
1.115618 -2.2720022 -0.29582101
1.3923293 -2.8355362 -0.29485571
1.8661833 -3.8005593 -0.29599762
0.39010531 -0.76981181 -0.29157749
0.43034974 -0.84922791 -0.29715768
0.47177556 -0.93097526 -0.29929164
0.51242805 -1.0111966 -0.296711
0.56661183 -1.1181198 -0.29709479
0.61771256 -1.2189591 -0.29047436
0.7023688 -1.3860149 -0.29266369
0.81514186 -1.608555 -0.29637545
0.95362914 -1.8818378 -0.29648226
1.1443164 -2.2581296 -0.29586747
1.4279342 -2.8178048 -0.29485828
1.9195796 -3.7879901 -0.29687774
0.40628305 -0.77730501 -0.29632992
0.43811667 -0.83820939 -0.29520917
0.47666103 -0.91195285 -0.29508248
0.52627563 -1.006876 -0.29736418
0.5759238 -1.1018634 -0.29467893
0.64370865 -1.2315501 -0.29538289
0.72834605 -1.3934792 -0.29615295
0.82624894 -1.580788 -0.29315317
0.97736806 -1.8699108 -0.29651865
1.1743484 -2.2467756 -0.29629388
1.4683869 -2.8093331 -0.29588318
1.9569452 -3.7440479 -0.29534173
0.41195184 -0.76454413 -0.29341945
0.4505907 -0.83625424 -0.29649541
0.49176252 -0.91266531 -0.29729313
0.53408635 -0.99121439 -0.29470164
0.58784634 -1.0909878 -0.29372674
0.65362918 -1.2130747 -0.2929025
0.74368477 -1.3802094 -0.29529956
