# .PCD v0.7 - Point Cloud Data file format
VERSION 0.7
FIELDS x y z intensity
SIZE 4 4 4 4
TYPE F F F F
COUNT 1 1 1 1
WIDTH 1356
HEIGHT 1
VIEWPOINT 0 0 0 1 0 0 0
POINTS 1356
DATA ascii
-1.5615412 -0.059018862 -0.055788837 0
-1.5686185 -0.079076357 -0.056072816 0
-1.574993 -0.099293381 -0.056340914 0
-1.5535975 -0.1176011 -0.055624112 0
-1.5656241 -0.13835803 -0.056112636 0
-1.5629767 -0.1579812 -0.056084607 0
-1.556291 -0.177128 -0.055920299 0
-1.5479232 -0.19594823 -0.055703875 0
-1.5529908 -0.2164904 -0.0559799 0
-1.5574695 -0.23714299 -0.056244522 0
-1.5428764 -0.25483784 -0.055828985 0
-1.5496075 -0.27603674 -0.056193873 0
-1.5357506 -0.29356536 -0.055821005 0
-1.5520157 -0.31698078 -0.056552798 0
-1.5306046 -0.33273727 -0.055920858 0
-1.4427931 -0.31364796 0.49122012 0
-1.5260355 -0.3519235 -0.055911396 0
-1.4236755 -0.32831794 0.48608026 0
-1.5247751 -0.37191314 -0.05603236 0
-1.4088981 -0.34364915 0.48247406 0
-1.5161275 -0.39009339 -0.055890657 0
-1.3928146 -0.35836551 0.47847372 0
-1.5161748 -0.41052765 -0.056078523 0
-1.3935601 -0.3773278 0.48032394 0
-1.4984721 -0.42605606 -0.055617779 0
-1.3802661 -0.39244691 0.47740731 0
-1.5023675 -0.44768462 -0.055967163 0
-1.3544028 -0.40359318 0.47018224 0
-1.4896467 -0.46439445 -0.055706702 0
-1.3503048 -0.42095491 0.47056249 0
-1.4890076 -0.48484847 -0.055906691 0
-1.3298949 -0.43303841 0.46531329 0
-1.4832443 -0.5037145 -0.055924017 0
-1.3099792 -0.44487312 0.46026862 0
-1.4783578 -0.52290696 -0.055983599 0
-1.3053657 -0.46171826 0.4606539 0
-1.4742105 -0.54241949 -0.056080755 0
-1.2838895 -0.47239301 0.45513824 0
-1.4587606 -0.55768776 -0.055755746 0
-1.285435 -0.49142495 0.45784348 0
-1.4584179 -0.57870734 -0.056016736 0
-1.277669 -0.50698531 0.457315 0
-1.4457191 -0.59484541 -0.055812258 0
-1.2429178 -0.51140225 0.34290129 0
-1.2636604 -0.51993686 0.45460832 0
-1.4432218 -0.61517859 -0.056010466 0
-1.2290583 -0.52389061 0.34087068 0
-1.2772278 -0.54442298 0.46191889 0
-1.4433707 -0.63683546 -0.056322996 0
-1.160607 -0.51207614 0.32364887 0
-1.2541107 -0.55333132 0.4560422 0
-1.4290195 -0.65212107 -0.05607897 0
-1.1716197 -0.53465885 0.23226173 0
-1.1347865 -0.51785034 0.31824172 0
-1.4202051 -0.6698314 -0.056059629 0
-1.1553754 -0.54492599 0.23038349 0
-1.1232978 -0.52979678 0.31686559 0
-1.2042863 -0.56799453 0.44298619 0
-1.3978173 -0.68091786 -0.055509962 0
-1.1491078 -0.55976421 0.23052096 0
-1.1199319 -0.54555172 0.31782877 0
-1.1973372 -0.58325809 0.44309646 0
-1.4057393 -0.70681393 -0.056173559 0
-1.1448003 -0.57561225 0.23109257 0
-1.1511762 -0.57881808 0.32873806 0
-1.1767545 -0.59167904 0.43820196 0
-1.3915726 -0.7217837 -0.05596621 0
-1.156209 -0.59970486 0.23490132 0
-1.1486043 -0.59576041 0.33011973 0
-1.3772494 -0.73650753 -0.055758733 0
-1.2506117 -0.66878581 0.36182937 0
-1.3733071 -0.75678843 -0.0559805 0
-1.1252527 -0.62009311 0.32779345 0
-1.3680415 -0.77650166 -0.056159984 0
-1.115383 -0.63309246 0.32721469 0
-1.3548703 -0.79174536 -0.056024119 0
-1.1061929 -0.64642584 0.32688069 0
-1.3427589 -0.8075183 -0.055939347 0
-1.0990806 -0.66097313 0.32721251 0
-1.3378906 -0.82770556 -0.056166284 0
-1.3273393 -0.84447068 -0.056165293 0
-1.3088781 -0.85606527 -0.055835832 0
-1.2952734 -0.87064815 -0.055718739 0
-1.2948205 -0.89421719 -0.056179181 0
-2.1435006 -1.4803249 0.093001388 0
-1.2837503 -0.91065651 -0.056191947 0
-2.0299671 -1.4400018 0.088855132 0
-1.2704115 -0.92545843 -0.056113735 0
-2.0148866 -1.4677873 0.088997006 0
-1.2564216 -0.93970823 -0.056014024 0
-1.9829894 -1.483126 0.088406011 0
-1.2455698 -0.95628279 -0.056062631 0
-1.9720722 -1.5140529 0.088762231 0
-1.2362982 -0.97414994 -0.056192983 0
-1.9487834 -1.5355576 0.088577293 0
-1.2196652 -0.98618716 -0.055996973 0
-1.9290524 -1.5597777 0.088566184 0
-1.2097143 -1.0035925 -0.056115869 0
-1.8989716 -1.5754079 0.08808893 0
-1.1930639 -1.0154099 -0.055932187 0
-1.8774247 -1.5978656 0.088015795 0
-1.1874781 -1.0367196 -0.056277867 0
-1.8478785 -1.6132777 0.087576069 0
-1.1801416 -1.056793 -0.056556359 0
-1.8507624 -1.6573204 0.088694766 0
-1.1542163 -1.0600649 -0.055949207 0
-1.8116747 -1.6638933 0.08781869 0
-1.1398281 -1.0736197 -0.055902649 0
-1.8001719 -1.6956067 0.08828909 0
-1.1234016 -1.0851645 -0.055762779 0
-1.7822371 -1.7215751 0.088465676 0
-1.1097749 -1.0993482 -0.055769105 0
-1.0992661 -1.1167099 -0.055943217 0
-1.0856619 -1.1310289 -0.055971242 0
-1.0666469 -1.1396006 -0.055726331 0
-1.0541892 -1.1551056 -0.05583097 0
-1.0428995 -1.1720389 -0.056010246 0
-1.0344557 -1.1924504 -0.056358717 0
-1.0070906 -1.1908734 -0.055680405 0
-0.99666655 -1.2091011 -0.055941422 0
-0.98264533 -1.2231499 -0.056014489 0
-0.96787047 -1.2363249 -0.056055263 0
-0.94385958 -1.2374436 -0.055562694 0
-0.93624038 -1.2600459 -0.056043766 0
-0.91311401 -1.2618034 -0.055606119 0
-0.89386904 -1.2685387 -0.055402517 0
-0.88398939 -1.2886784 -0.055791523 0
-0.86280483 -1.2923844 -0.055477202 0
-0.85343957 -1.3138851 -0.055934399 0
-0.83445984 -1.3207777 -0.055776075 0
-0.81555426 -1.3275836 -0.055625394 0
-0.80496675 -1.3481188 -0.056056663 0
-0.78462881 -1.3524599 -0.055821911 0
-0.77605414 -1.3773475 -0.056441311 0
-0.75389564 -1.3783174 -0.056087594 0
-0.73216224 -1.3795625 -0.055758674 0
-0.7164802 -1.392065 -0.055894915 0
-0.70327175 -1.4097482 -0.056244902 0
-0.69145411 -1.4308841 -0.056736283 0
-0.66305375 -1.417397 -0.05586601 0
-0.64939624 -1.4350065 -0.056233317 0
-0.56407475 -1.2464669 0.45517865 0
-0.63084489 -1.4420832 -0.05619489 0
-0.54556954 -1.2471476 0.45288259 0
-0.60852408 -1.4401774 -0.0558176 0
-0.53988785 -1.277738 0.46148568 0
-0.59412837 -1.4570101 -0.056175582 0
-0.51708043 -1.2680618 0.45560312 0
-0.57353884 -1.4587876 -0.055961221 0
-0.50237358 -1.2777798 0.45678565 0
-0.55797148 -1.4734088 -0.056248125 0
-0.48378062 -1.2774966 0.4544706 0
-0.53704756 -1.4739292 -0.056005385 0
-0.47101039 -1.2926899 0.4577294 0
-0.51983714 -1.4845461 -0.056155618 0
-0.45981684 -1.3131406 0.46288386 0
-0.50406218 -1.4997762 -0.05648715 0
-0.44015983 -1.3096426 0.45966059 0
-0.48287347 -1.4989738 -0.05622346 0
-0.43299893 -1.3441494 0.46982089 0
-0.46313593 -1.5022577 -0.056123439 0
-0.41450658 -1.3445204 0.4680891 0
-0.44640023 -1.515494 -0.056403466 0
-0.4010736 -1.3616138 0.47224435 0
-0.42418683 -1.5099734 -0.055994764 0
-0.38635674 -1.3753101 0.051001005 0
-0.38626602 -1.3749872 0.15348901 0
-0.38325617 -1.364273 0.25556919 0
-0.3844105 -1.368382 0.36263233 0
-0.38980243 -1.3875757 0.47950825 0
-0.4032875 -1.5082636 -0.055738617 0
-0.3737945 -1.3979621 0.051662371 0
-0.3747361 -1.4014835 0.15590768 0
-0.37675548 -1.4090358 0.26304501 0
-0.37244794 -1.392926 0.36786467 0
-0.37244663 -1.3929211 0.47969672 0
-0.38737795 -1.5254818 -0.056190208 0
-0.36742273 -1.5272589 -0.056080796 0
-0.34730566 -1.5279896 -0.055942606 0
-0.32641515 -1.5246572 -0.055665702 0
-0.31352422 -1.5601566 -0.056813147 0
-0.2918939 -1.5535425 -0.056433976 0
-0.27098024 -1.5494922 -0.056158438 0
-0.25084955 -1.5490808 -0.056024607 0
-0.2323771 -1.5591767 -0.056279447 0
-0.21224916 -1.5584723 -0.056153096 0
-0.19238961 -1.5592408 -0.056089051 0
-0.15397669 -1.2479196 0.044890195 0
-0.15411465 -1.2490376 0.13525115 0
-0.17095564 -1.5453948 -0.055509146 0
-0.13667972 -1.2355494 0.044379786 0
-0.13506243 -1.2209294 0.13201284 0
-0.15166068 -1.5492327 -0.055573996 0
-0.11979501 -1.2237209 0.043897256 0
-0.11869447 -1.2124788 0.13092713 0
-0.13248593 -1.5550569 -0.055718664 0
-0.1015475 -1.1919165 0.042707112 0
-0.10271263 -1.2055922 0.13003352 0
-0.11378263 -1.5688354 -0.056156561 0
-0.085321359 -1.1764113 0.042109717 0
-0.084904209 -1.1706597 0.12614043 0
-0.093423948 -1.5601883 -0.055800505 0
-0.069303304 -1.1573714 0.041393664 0
-0.069544293 -1.1613959 0.12503797 0
-0.074296191 -1.5723369 -0.056197088 0
-0.053880941 -1.5554876 -0.055566221 0
-0.034241248 -1.5537761 -0.055485282 0
-0.014803578 -1.567742 -0.055972904 0
0.004944629 -1.5701108 -0.056055259 0
0.024502451 -1.5564961 -0.055575807 0
0.044449404 -1.56844 -0.056017812 0
0.063720971 -1.556193 -0.055604652 0
0.083380319 -1.5565749 -0.055651404 0
0.10371707 -1.5666428 -0.056053605 0
0.1227027 -1.5559294 -0.055721153 0
0.14277448 -1.5596191 -0.055913236 0
0.16300207 -1.5634663 -0.056120299 0
0.18154806 -1.5516574 -0.055774059 0
0.20145823 -1.5522329 -0.055881497 0
0.2218883 -1.555895 -0.056109473 0
0.24221407 -1.5578191 -0.056284394 0
0.25930607 -1.5397792 -0.05574616 0
0.27927947 -1.5397347 -0.055867441 0
0.29926017 -1.5392631 -0.055982623 0
0.31902018 -1.5373127 -0.056053352 0
0.33686748 -1.5264496 -0.055807497 0
0.35788003 -1.5298644 -0.056092661 0
0.37200749 -1.5045818 -0.055333037 0
0.3948397 -1.5148069 -0.055887494 0
0.41664273 -1.5197868 -0.056260329 0
0.43473238 -1.5108987 -0.056129504 0
0.45441741 -1.5076125 -0.056215536 0
0.47452557 -1.5054562 -0.056353476 0
0.49192697 -1.494754 -0.056180283 0
0.51077032 -1.4886211 -0.05618706 0
0.52780432 -1.4773999 -0.056009941 0
0.54017597 -1.453979 -0.055375509 0
0.56093186 -1.453518 -0.055622555 0
0.58203065 -1.4534363 -0.055895459 0
0.60202885 -1.450193 -0.056057833 0
0.6163922 -1.4335471 -0.055709992 0
0.63426089 -1.4253745 -0.055698354 0
0.65088403 -1.4145073 -0.055589568 0
0.67250139 -1.4143145 -0.05591036 0
0.68670791 -1.398509 -0.055622969 0
0.70488089 -1.3909721 -0.055671815 0
0.72618198 -1.389339 -0.055967998 0
0.74712908 -1.3866018 -0.05623227 0
0.7644769 -1.3769909 -0.056228444 0
0.7782349 -1.3611009 -0.055975311 0
0.80459249 -1.3669627 -0.056628548 0
0.81659466 -1.3482276 -0.056273937 0
0.83537757 -1.3408433 -0.056400314 0
0.85058939 -1.3277136 -0.056294106 0
0.86275816 -1.3100935 -0.056003213 0
0.88119644 -1.302098 -0.056131314 0
0.89704055 -1.2902077 -0.056101233 0
0.91501534 -1.281332 -0.056211848 0
0.9251616 -1.2616434 -0.055854756 0
0.94378555 -1.2536293 -0.056021657 0
0.96091658 -1.2434855 -0.05610463 0
0.97156465 -1.2250681 -0.055821221 0
0.99235022 -1.2194195 -0.05612877 0
1.0017996 -1.1998502 -0.055804241 0
1.0200737 -1.1909307 -0.055982381 0
1.0304155 -1.1727881 -0.055735055 0
1.0514286 -1.1667428 -0.056072518 0
1.068529 -1.1561091 -0.056203656 0
1.0783188 -1.1376235 -0.055960666 0
1.0930442 -1.1244568 -0.055985592 0
1.107033 -1.1105218 -0.055981409 0
1.1223783 -1.0979135 -0.056053836 0
1.1413975 -1.0887346 -0.056314543 0
1.1298039 -1.0508275 -0.055085313 0
1.1561897 -1.0485296 -0.05572363 0
1.1680919 -1.0328201 -0.055666041 0
1.1789234 -1.0162374 -0.055567984 0
1.1862059 -0.99675852 -0.055315249 0
1.2193929 -0.99872291 -0.056271922 0
1.2415054 -0.99098003 -0.056712002 0
1.2355679 -0.96102273 -0.055883553 0
1.2497889 -0.94707036 -0.055982929 0
1.2524616 -0.92450267 -0.055576775 0
1.2811069 -0.92095506 -0.056328822 0
1.2865121 -0.90048921 -0.056063466 0
1.2979728 -0.884372 -0.056073159 0
1.3050952 -0.86536622 -0.055905666 0
1.3075718 -0.84350038 -0.055552363 0
1.3270463 -0.83258951 -0.055929888 0
1.3259776 -0.80883193 -0.055451188 0
1.3482227 -0.79928476 -0.055956129 0
1.3645161 -0.78589505 -0.056217179 0
1.3697538 -0.76610732 -0.056031078 0
1.3828895 -0.75075305 -0.056177244 0
1.3814296 -0.72759128 -0.055741329 0
1.3948473 -0.7123695 -0.05591635 0
1.4061379 -0.69595373 -0.056013212 0
1.4223009 -0.68179429 -0.056310602 0
1.4209594 -0.65927869 -0.055924378 0
1.4316442 -0.64245504 -0.056022063 0
1.4385306 -0.62390548 -0.055979669 0
1.4443905 -0.60495508 -0.055906836 0
1.4549308 -0.58794802 -0.056023803 0
1.459673 -0.56859058 -0.055926278 0
1.4749374 -0.55325007 -0.056239743 0
1.4750025 -0.53218728 -0.055982258 0
1.4700508 -0.50957435 -0.055546384 0
1.5003816 -0.49901682 -0.056450531 0
1.49727 -0.47712973 -0.056102961 0
1.5088208 -0.45996547 -0.056314282 0
1.5041306 -0.43791431 -0.055928983 0
1.5159348 -0.42071965 -0.056166463 0
1.5042604 -0.39714971 -0.055544224 0
1.5262954 -0.38247633 -0.056175567 0
1.5368059 -0.36460787 -0.056388956 0
1.5297596 -0.34264943 -0.055967659 0
1.539332 -0.32449469 -0.056163929 0
1.5405196 -0.3045381 -0.056062892 0
1.5285316 -0.28221813 -0.055492893 0
1.5422817 -0.26472068 -0.055866644 0
1.5513426 -0.24620894 -0.05607811 0
1.5503 -0.22606997 -0.055933084 0
1.5565199 -0.20699686 -0.056059003 0
1.5597484 -0.1874716 -0.056085818 0
1.5594664 -0.16754699 -0.055995371 0
1.5576365 -0.1475367 -0.055858526 0
1.5655426 -0.12841874 -0.056079611 0
1.5719566 -0.10903785 -0.056255728 0
1.5634539 -0.08868327 -0.055907045 0
1.569363 -0.069207266 -0.056082737 0
1.5670769 -0.049346089 -0.055974398 0
1.5506063 -0.02929027 -0.055368517 0
1.5713825 -0.0098931957 -0.056101494 0
1.5663291 0.0098613808 -0.055921078 0
1.5699954 0.029656524 -0.056060858 0
1.5683799 0.04938712 -0.056020938 0
0.88433152 0.027846945 0.29435778 0
1.5759351 0.069497094 -0.056317598 0
0.92665011 0.0408643 0.30859071 0
1.5688523 0.088989474 -0.056100082 0
1.4935888 0.084720328 0.053408761 0
1.5064989 0.085452631 0.16216263 0
1.5098555 0.085643023 0.27273819 0
0.92367548 0.052393332 0.30779544 0
1.5614817 0.10831127 -0.055880859 0
1.47014 0.1019754 0.052612007 0
1.4719969 0.1021042 0.15857458 0
1.4796339 0.10263395 0.26749125 0
0.9390642 0.06513764 0.31317189 0
1.5577554 0.12777998 -0.055800665 0
1.4664814 0.12029294 0.052531123 0
1.4598792 0.11975136 0.15741915 0
1.4643598 0.1201189 0.26498237 0
0.97058195 0.079615161 0.32399151 0
1.5665314 0.14837921 -0.056177508 0
1.4576867 0.13806961 0.052274216 0
1.443216 0.13669899 0.1557956 0
1.4678956 0.1390366 0.26591793 0
0.98290855 0.093099445 0.32847157 0
1.5530304 0.16685551 -0.055764273 0
1.4360849 0.15429103 0.051565137 0
1.432709 0.15392834 0.15485834 0
1.4315636 0.15380529 0.25966644 0
0.99831092 0.10725719 0.33404362 0
1.5593957 0.1874292 -0.056073129 0
1.4098158 0.16945067 0.050694503 0
1.4112716 0.16962565 0.15275998 0
1.4140412 0.16995853 0.25685593 0
1.0095775 0.12134463 0.33829799 0
1.5507259 0.20622633 -0.055850331 0
1.4081134 0.18726072 0.050714053 0
1.4013917 0.18636684 0.15193254 0
1.3920225 0.18512085 0.25325966 0
0.99512976 0.13233928 0.33398864 0
1.5444005 0.22520967 -0.055720232 0
1.3835539 0.2017545 0.049917068 0
1.3839824 0.20181699 0.1503087 0
1.3805795 0.20132075 0.25161904 0
0.99965918 0.14577368 0.33609825 0
1.5584472 0.24733649 -0.056334928 0
1.3735837 0.21799736 0.049652461 0
1.3602695 0.21588431 0.14801684 0
1.3765433 0.21846706 0.25136489 0
0.99632657 0.15812401 0.33562064 0
1.5472915 0.26558056 -0.056048114 0
1.3968998 0.23976701 0.050600421 0
1.387683 0.238185 0.15131418 0
1.3885919 0.238341 0.25409293 0
1.0051847 0.17253214 0.33930951 0
1.5519515 0.28654224 -0.056343149 0
1.3995373 0.25840148 0.050809797 0
1.4105176 0.26042882 0.15414946 0
1.4227327 0.26268411 0.26092482 0
1.0091616 0.18632504 0.3414169 0
1.5327773 0.30300757 -0.055781133 0
1.432542 0.28319252 0.052133352 0
1.4275545 0.28220657 0.15638731 0
1.4402429 0.28471488 0.26477265 0
1.316975 0.26034662 0.34250498 0
0.99755782 0.19720253 0.3383044 0
1.5406431 0.32477108 -0.056211762 0
1.4593829 0.30764124 0.053246908 0
1.4491724 0.30548885 0.15916432 0
1.4381262 0.30316028 0.2650643 0
1.3106174 0.27628115 0.34172925 0
0.99991077 0.21078347 0.33997557 0
1.5381659 0.34453234 -0.056275211 0
1.4837056 0.33233383 0.054282732 0
1.4801035 0.33152696 0.1630071 0
1.4239017 0.3189384 0.2631619 0
1.2829237 0.28736088 0.33542532 0
1.0046797 0.22503726 0.34253335 0
1.5239711 0.36156279 -0.055918016 0
1.5055426 0.35719064 0.055241831 0
1.5026387 0.35650167 0.16597019 0
1.4264994 0.33843759 0.26440868 0
1.2801555 0.30371746 0.33567488 0
0.99733472 0.2366181 0.34101796 0
1.5328236 0.38411224 -0.056415837 0
1.4170382 0.35509744 0.26346293 0
1.2696776 0.31817016 0.3339515 0
1.0109507 0.25333542 0.34673694 0
0.76955956 0.19284493 0.47049716 0
1.5120876 0.39921623 -0.055833239 0
1.4194285 0.37475267 0.26476371 0
1.248264 0.3295624 0.32938462 0
1.0099674 0.26664817 0.34752381 0
0.79659092 0.21031323 0.41222349 0
0.78244078 0.20657736 0.47992486 0
1.5119255 0.41960692 -0.056017913 0
1.4014049 0.38893396 0.26229453 0
1.2351842 0.34280249 0.32704636 0
1.0002387 0.2775977 0.34535158 0
0.83395571 0.23144896 0.35833865 0
0.78776646 0.21863 0.40904918 0
0.79377264 0.22029689 0.48853821 0
1.5007267 0.4369233 -0.055802412 0
1.4049332 0.40903386 0.26389804 0
1.2197165 0.35510969 0.3241092 0
0.98369956 0.2863954 0.34085929 0
0.82571501 0.24039961 0.35607025 0
0.80312788 0.23382357 0.41852129 0
0.80802488 0.2352493 0.49909359 0
1.5007821 0.45751488 -0.056014251 0
1.3998919 0.42675838 0.26393953 0
1.2135137 0.36994085 0.32367313 0
0.99571115 0.30354351 0.34631839 0
0.84955776 0.2589885 0.36772904 0
0.81360638 0.2480287 0.42557561 0
0.83169281 0.25354236 0.51564372 0
1.4794762 0.47145945 -0.055436227 0
1.3976574 0.44538653 0.26455471 0
1.1888882 0.3788588 0.31835213 0
0.98769897 0.31474653 0.34488282 0
0.88029325 0.28051993 0.38253149 0
0.84324592 0.26871419 0.44281411 0
0.84333682 0.26874316 0.52491939 0
1.4848597 0.49385434 -0.055866536 0
1.3961891 0.4643631 0.26536256 0
1.1910343 0.39613 0.3202371 0
0.99711353 0.33163324 0.34960064 0
0.88137126 0.29313815 0.38457349 0
0.86576116 0.28794634 0.45650539 0
0.86602855 0.28803527 0.5412581 0
1.4865929 0.51530844 -0.056171432 0
1.3804915 0.47852975 0.26350343 0
1.1796013 0.4088937 0.31852221 0
0.97623056 0.33839783 0.34374556 0
0.88704157 0.30748162 0.38870627 0
0.88820672 0.3078855 0.47034764 0
0.89116037 0.30890936 0.55935198 0
1.4810935 0.53438491 -0.056213439 0
1.1679964 0.42141813 0.31679639 0
0.97410578 0.35146156 0.34452844 0
0.90049243 0.32490155 0.39636186 0
0.90383977 0.32610929 0.48076251 0
0.90351659 0.32599267 0.56963897 0
1.4637817 0.54906559 -0.055814374 0
1.1405252 0.42781186 0.3107819 0
0.97053325 0.36404774 0.34485891 0
0.92815495 0.34815159 0.41043496 0
0.92360646 0.34644547 0.49355799 0
0.93005037 0.34886256 0.58909059 0
1.4619663 0.56948388 -0.056014143 0
1.1299565 0.44015515 0.30938774 0
0.96923387 0.37754843 0.34605905 0
0.94064254 0.36641115 0.41796422 0
0.94882232 0.36959743 0.50947952 0
0.95267659 0.37109882 0.60633373 0
1.4578781 0.5891391 -0.056137294 0
1.1201167 0.45264727 0.30822977 0
0.98777384 0.39916652 0.35444516 0
0.96871954 0.39146656 0.43259597 0
0.983293 0.39735579 0.53063357 0
0.96417427 0.38962981 0.61672521 0
1.4499985 0.60730386 -0.056123897 0
1.1168963 0.46779042 0.30894002 0
1.0078189 0.42210552 0.36351648 0
0.98684615 0.41332147 0.44297975 0
0.99796474 0.41797826 0.54134852 0
0.99493831 0.4167107 0.63970882 0
1.437994 0.62367284 -0.055958793 0
1.0962832 0.47546932 0.30487025 0
1.0340039 0.44845811 0.37496841 0
1.0206922 0.44268471 0.46063843 0
1.0231297 0.44374189 0.5579862 0
1.0180646 0.4415451 0.6581009 0
1.4288704 0.64121032 -0.055913527 0
1.0937669 0.49083152 0.30586505 0
1.0838038 0.48636055 0.39521733 0
1.0467396 0.46972784 0.47502536 0
1.0341431 0.46407515 0.56713462 0
1.0322597 0.46322995 0.67099434 0
1.4076512 0.65310413 -0.055400614 0
1.0782689 0.50028151 0.30326873 0
1.0758779 0.49917218 0.39458793 0
1.0825703 0.50227726 0.49411699 0
1.0892168 0.50536096 0.60077983 0
1.4064314 0.67418712 -0.055682313 0
1.0641019 0.51008797 0.30106688 0
1.1137559 0.53389013 0.41091311 0
1.1072311 0.53076243 0.5083831 0
1.1058065 0.53007948 0.61356318 0
1.4026362 0.6942206 -0.055873722 0
1.0572344 0.52326745 0.30096424 0
1.1440437 0.56623286 0.42468455 0
1.1486994 0.56853718 0.53066826 0
1.131351 0.55995071 0.63159895 0
1.3909733 0.71039104 -0.055761054 0
1.6962085 0.86627918 0.34349504 0
1.0474316 0.53493905 0.30006742 0
1.1706623 0.59787488 0.43732578 0
1.1744248 0.59979641 0.54599857 0
1.1690879 0.59707075 0.65681159 0
1.3884922 0.73131114 -0.056026306 0
1.685253 0.88761348 0.34351268 0
1.0361953 0.54575831 0.29879355 0
1.2250366 0.64521998 0.46063709 0
1.2251626 0.64528638 0.57331914 0
1.2126906 0.63871741 0.68577248 0
1.3725882 0.74516052 -0.055758767 0
1.680745 0.91245496 0.34490845 0
1.0186713 0.55302364 0.29572502 0
1.2662003 0.68740398 0.47933224 0
1.2444749 0.67560947 0.58629096 0
1.3731443 0.76800364 -0.056169771 0
1.0146577 0.56750101 0.041505534 0
1.0238799 0.57265902 0.12607704 0
0.99801022 0.55819005 0.20622937 0
1.0140607 0.56716716 0.29643637 0
1.3165638 0.73635805 0.50186819 0
1.3250606 0.74111027 0.62860286 0
1.3532096 0.77938306 -0.055751361 0
1.0127228 0.58327919 0.041723523 0
1.0043613 0.57846332 0.12456064 0
1.0031909 0.57778925 0.20878682 0
1.0130339 0.5834583 0.29826024 0
1.3349351 0.76885778 0.51252115 0
1.3443686 0.77429104 0.64233691 0
1.3426183 0.79596227 -0.055723529 0
0.99655706 0.59080213 0.041360728 0
0.98952019 0.58663034 0.12362639 0
0.98989737 0.58685398 0.20754166 0
0.99714684 0.59115183 0.29575098 0
1.3529713 0.80209994 0.52328211 0
1.3765566 0.8160823 0.66257375 0
1.3347299 0.81417078 -0.055817202 0
0.98976022 0.60374302 0.041390881 0
0.9790386 0.59720296 0.12324663 0
0.98409855 0.60028946 0.20789421 0
0.99611485 0.60761929 0.29769063 0
1.4119666 0.86128432 0.55025041 0
1.4107519 0.86054343 0.68419439 0
1.3276445 0.83296478 -0.055955097 0
0.96628058 0.60624492 0.040725004 0
0.96820611 0.60745299 0.12283615 0
0.97557902 0.61207879 0.20770618 0
0.95986009 0.60221672 0.28909919 0
1.4490693 0.90914679 0.56912583 0
1.3148905 0.8482216 -0.055863298 0
0.9671458 0.62389529 0.041089319 0
0.96393698 0.62182534 0.12327817 0
0.96353948 0.62156886 0.20679289 0
0.97769594 0.63070107 0.29683962 0
1.4599997 0.94182998 0.57803088 0
1.3026117 0.86371952 -0.055799283 0
0.95588988 0.63381952 0.040946946 0
0.95513922 0.63332182 0.12316317 0
0.95092869 0.63052994 0.2057741 0
0.95981765 0.63642389 0.29382139 0
1.4902557 0.98814023 0.59488875 0
1.3053442 0.88939452 -0.056391608 0
0.9313131 0.6345489 0.040233251 0
0.94800907 0.64592469 0.12328279 0
0.94908959 0.64666092 0.20712177 0
0.94490957 0.64381289 0.29171634 0
1.5021555 1.0234916 0.60473573 0
1.2894266 0.90252918 -0.056190468 0
0.9328987 0.6529789 0.040653743 0
0.92334163 0.64628947 0.12112366 0
0.93309951 0.65311944 0.20541072 0
0.92708701 0.648911 0.28871384 0
1.5275142 1.0691777 0.62031543 0
1.2795604 0.91984332 -0.056260824 0
0.92805922 0.66715807 0.040805712 0
0.91956073 0.66104871 0.12170999 0
0.9219799 0.6627878 0.2047839 0
0.9154917 0.65812361 0.28766084 0
1.5416771 1.1082723 0.63168418 0
1.2657304 0.93429703 -0.056165565 0
0.91408801 0.67473274 0.040561773 0
0.89466733 0.66039741 0.11950637 0
0.91237634 0.67346931 0.20451824 0
0.90582991 0.66863704 0.28724775 0
1.5483539 1.1429152 0.64026606 0
1.2514757 0.94834858 -0.056058489 0
0.90295315 0.68424368 0.040446799 0
0.90670359 0.68708575 0.12226012 0
0.9059003 0.68647701 0.20498802 0
0.90282506 0.68414664 0.28900385 0
1.563099 1.1844919 0.65247935 0
1.2435896 0.96726197 -0.05624637 0
0.88946611 0.69182533 0.040229701 0
0.88279742 0.68663841 0.12019295 0
0.89315599 0.69469529 0.2040675 0
0.89246249 0.69415587 0.28846189 0
1.5861394 1.2336967 0.66852874 0
1.2306733 0.98233384 -0.056217197 0
0.88259768 0.70449692 0.040317088 0
0.87567049 0.69896752 0.1204114 0
0.87124825 0.69543767 0.2010469 0
0.87124634 0.69543618 0.28441232 0
1.5794942 1.2607656 0.67236596 0
1.2106359 0.99155062 -0.05586781 0
0.93316072 0.76428932 0.12962985 0
0.93366671 0.76470375 0.2176552 0
0.93561184 0.76629686 0.30854949 0
1.5933731 1.305025 0.685215 0
1.1924177 1.0019784 -0.055604924 0
1.641932 1.3797013 0.23048386 0
1.6132598 1.3556083 0.3800303 0
1.5935265 1.3390266 0.53103745 0
1.5970029 1.3419477 0.69398773 0
1.1805123 1.017607 -0.055642877 0
1.6087348 1.3867368 0.38304749 0
1.5994722 1.3787524 0.53876185 0
1.1788069 1.0422944 -0.056176674 0
1.6097697 1.4233493 0.38753077 0
1.6011519 1.4157294 0.54528928 0
1.1651448 1.0566509 -0.056155231 0
1.6086251 1.4588358 0.39164647 0
1.6002694 1.4512583 0.55116862 0
1.1448183 1.0647925 -0.055817366 0
1.6124305 1.4997172 0.39713928 0
1.5969822 1.4853489 0.55643433 0
1.1204458 1.0687498 -0.055280827 0
0.60948449 0.58136356 0.34873894 0
0.60789168 0.57984424 0.42033094 0
1.1233612 1.098875 -0.056102924 0
0.59812349 0.58508605 0.41863778 0
0.59069687 0.57782131 0.49004576 0
1.1088411 1.1123357 -0.056072842 0
0.58600897 0.58785576 0.41530675 0
0.57389623 0.57570487 0.48208377 0
1.0974317 1.1289704 -0.05621032 0
0.59626609 0.61340201 0.35418719 0
0.59443569 0.61151898 0.42670226 0
0.55846035 0.57450974 0.47515664 0
1.077934 1.1372176 -0.055940695 0
0.57944906 0.61131722 0.34874263 0
0.57415903 0.60573626 0.41758928 0
0.56595838 0.59708458 0.48789462 0
1.0718031 1.1596515 -0.056375872 0
1.5743546 1.7033938 0.41832125 0
1.575892 1.705057 0.59236002 0
0.53064114 0.57413417 0.46364444 0
1.0462806 1.1610304 -0.055797983 0
1.5700504 1.742244 0.42297333 0
1.5589107 1.7298827 0.59411788 0
0.52271247 0.5800404 0.4630619 0
1.0397612 1.1834251 -0.056240562 0
1.5519032 1.7663298 0.42404288 0
1.5639838 1.7800795 0.60454595 0
1.0185143 1.1891103 -0.055896804 0
1.5432611 1.8017495 0.42784685 0
1.5460043 1.8049523 0.60633355 0
0.99344307 1.1898416 -0.055338755 0
1.5357786 1.8393942 0.43215954 0
1.5320106 1.8348812 0.60985869 0
0.99602652 1.2239369 -0.056336708 0
1.5316616 1.8821359 0.43763545 0
1.5164325 1.863422 0.61294955 0
0.97626412 1.2309937 -0.056091227 0
1.5037253 1.8960816 0.43644068 0
1.5076463 1.9010257 0.61902493 0
0.9591282 1.2411712 -0.05600021 0
1.4892899 1.9272332 0.43925968 0
1.4964809 1.9365389 0.62440342 0
0.94068933 1.2495165 -0.055837866 0
1.4731908 1.9568377 0.44174403 0
1.471974 1.9552214 0.62440133 0
0.93476433 1.2747387 -0.056434501 0
1.4586989 1.9892285 0.44487429 0
1.4666339 2.0000496 0.63276923 0
0.90628421 1.2691056 -0.055675473 0
1.4417337 2.0189166 0.44741818 0
1.4414164 2.0184722 0.63280511 0
0.89701545 1.2901716 -0.056099661 0
1.4345593 2.0633175 0.45321879 0
1.4221785 2.0455103 0.63561696 0
0.87721157 1.2962098 -0.055877481 0
1.4063139 2.078037 0.45252633 0
1.4009502 2.0701113 0.63772911 0
0.85522026 1.2986473 -0.055513915 0
1.4418776 2.1894832 0.093594916 0
1.4506193 2.2027576 0.2834509 0
1.3826673 2.0995727 0.45338866 0
1.3774749 2.0916882 0.638982 0
0.84746569 1.3228378 -0.056087375 0
1.403496 2.1907642 0.092886835 0
1.4041382 2.1917665 0.2797392 0
1.3584801 2.1204972 0.4541772 0
1.3574041 2.1188178 0.64199728 0
0.82556558 1.3250943 -0.055737861 0
1.3742186 2.2057233 0.092780039 0
1.3694028 2.1979935 0.27831104 0
1.3443276 2.1577461 0.45849323 0
1.3343875 2.1417916 0.64381599 0
0.81018686 1.3376482 -0.05583236 0
1.3478974 2.2254281 0.092887573 0
1.3476238 2.2249763 0.27955675 0
1.3214101 2.1816964 0.46001023 0
1.3184224 2.1767638 0.64928657 0
0.79585701 1.3521215 -0.056013729 0
1.330302 2.2601171 0.093628854 0
1.3250228 2.251148 0.28072646 0
1.2970487 2.2036214 0.46115279 0
1.2956038 2.2011664 0.65164745 0
0.77488273 1.3552381 -0.055734202 0
1.2742397 2.2285929 0.46298403 0
1.2693939 2.220118 0.65247411 0
0.76443875 1.3769222 -0.056225639 0
1.2463802 2.2450049 0.46309635 0
1.2487576 2.2492871 0.65637332 0
0.73721951 1.3682106 -0.055486426 0
1.2222052 2.2682986 0.46468982 0
1.2236207 2.2709255 0.65813923 0
0.72924399 1.3951973 -0.056203991 0
1.1963295 2.28883 0.4657729 0
1.2017064 2.2991173 0.66187155 0
0.7054528 1.3921008 -0.055716988 0
1.1646605 2.2982752 0.46467367 0
1.1699262 2.3086662 0.66032714 0
0.68868381 1.4025329 -0.055783011 0
1.1441606 2.3301303 0.46816418 0
1.1413291 2.3243637 0.66065395 0
0.67725438 1.4243104 -0.056305517 0
1.1186386 2.3525703 0.46980539 0
1.1160408 2.3471072 0.66307133 0
0.65633219 1.4263473 -0.056054872 0
1.0869032 2.3620682 0.4689317 0
1.0847512 2.3573916 0.66206539 0
0.63850576 1.434914 -0.056071121 0
1.0535729 2.3676944 0.46737784 0
1.0570769 2.3755689 0.66337955 0
0.61411524 1.4282516 -0.055504199 0
1.0254008 2.3847809 0.46816471 0
1.0219307 2.3767104 0.66005242 0
0.60250914 1.45135 -0.056102552 0
0.99654406 2.4005184 0.46875358 0
0.99960113 2.4078822 0.66516101 0
0.58508539 1.4610645 -0.056188822 0
0.97083521 2.4243519 0.47098306 0
0.97050548 2.4235284 0.66605443 0
0.56739879 1.4702754 -0.056263819 0
0.93989241 2.4355018 0.47081259 0
0.93718272 2.4284801 0.66411936 0
0.54407293 1.4644684 -0.055774998 0
0.90513104 2.4363201 0.4687303 0
0.90659148 2.4402509 0.66416371 0
0.5281418 1.4783446 -0.056045756 0
0.87025607 2.4359715 0.46651793 0
0.87627655 2.4528236 0.66452974 0
0.50833124 1.4815124 -0.055918749 0
0.84232348 2.4549205 0.46807846 0
0.84405333 2.4599621 0.6635316 0
0.48919812 1.4864622 -0.055868637 0
0.81459141 2.4751923 0.46995062 0
0.81157017 2.466012 0.66235441 0
0.47492319 1.5067177 -0.056400694 0
0.7834298 2.4854705 0.4699918 0
0.7830382 2.4842281 0.66454607 0
0.45146394 1.4978137 -0.055850163 0
0.74852127 2.4833553 0.46777242 0
0.75037694 2.489512 0.66337931 0
0.43448186 1.510028 -0.056097157 0
0.72155291 2.5077345 0.47061577 0
0.71544063 2.4864914 0.6601215 0
0.41126922 1.500186 -0.055534732 0
0.55799037 2.0353804 0.075346865 0
0.6864866 2.5040958 0.46827358 0
0.68534309 2.4999247 0.66134423 0
0.39778483 1.5261059 -0.056304365 0
0.5219875 2.0026109 0.073884606 0
0.65000629 2.4937563 0.46477258 0
0.65185225 2.5008383 0.6593622 0
0.37597078 1.5206113 -0.055922542 0
0.48674262 1.9686273 0.072398938 0
0.61916059 2.5041909 0.46522731 0
0.61725187 2.4964712 0.65610945 0
0.3576912 1.5290573 -0.056063067 0
0.4553102 1.9463587 0.071363471 0
0.58478373 2.4998319 0.46301278 0
0.58561087 2.5033677 0.65593195 0
0.3384749 1.5337331 -0.056073789 0
0.42192394 1.9118662 0.069898464 0
0.55263919 2.5041771 0.46249202 0
0.55005997 2.4924898 0.6512152 0
0.3166014 1.5256571 -0.055628359 0
0.38954523 1.8771631 0.068444937 0
0.51898736 2.500926 0.46064809 0
0.51833302 2.4977729 0.65083867 0
0.29944548 1.5402162 -0.056017287 0
0.35793388 1.8410549 0.066958718 0
0.48320052 2.4853716 0.45662618 0
0.48479649 2.4935806 0.64810419 0
0.27899432 1.5381625 -0.055810396 0
0.32949865 1.816605 0.065913349 0
0.45203316 2.4921672 0.45679271 0
0.45283282 2.4965758 0.6473493 0
0.26068175 1.547948 -0.056041908 0
0.30055586 1.7847235 0.064614125 0
0.30261993 1.7969801 0.19583951 0
0.41863042 2.4858594 0.45463425 0
0.41808245 2.4826055 0.64231086 0
0.14601876 0.8670705 0.43993896 0
0.24115272 1.550993 -0.056037765 0
0.27357149 1.759497 0.063571066 0
0.27338189 1.7582775 0.19123127 0
0.38695258 2.4887164 0.45422965 0
0.3873536 2.4912956 0.64324629 0
0.13631852 0.87674344 0.44394073 0
0.22072741 1.5477546 -0.055815917 0
0.24651359 1.728569 0.062336534 0
0.24602458 1.7251401 0.18727544 0
0.35399508 2.4822359 0.45219743 0
0.35287508 2.4743826 0.63768154 0
0.12307109 0.86298233 0.43615347 0
0.20207435 1.55698 -0.056052402 0
0.22257616 1.7149462 0.061739292 0
0.22292003 1.7175957 0.18613696 0
0.3200548 2.4660177 0.44847316 0
0.32201937 2.4811547 0.63833123 0
0.1100824 0.84818333 0.4279395 0
0.18382455 1.5711143 -0.05647343 0
0.19771253 1.6898122 0.060740009 0
0.19492187 1.6659609 0.18026099 0
0.28787905 2.4604487 0.44676569 0
0.2881991 2.4631841 0.63272405 0
0.10249453 0.87600166 0.44128871 0
0.16340578 1.5673385 -0.056259293 0
0.17191769 1.6489823 0.059189875 0
0.17311656 1.6604815 0.179418 0
0.25612316 2.4566555 0.44545597 0
0.25466281 2.4426482 0.62657553 0
0.090934493 0.87221599 0.43877006 0
0.144022 1.5732465 -0.056401789 0
0.14924517 1.6303027 0.058447283 0
0.14975466 1.6358681 0.17654072 0
0.22424495 2.4495742 0.44362476 0
0.22294965 2.4354248 0.62395304 0
0.083341971 0.91039884 0.45741382 0
0.12349018 1.5659152 -0.056078766 0
0.12718396 1.612754 0.057756163 0
0.12736399 1.6150371 0.17410578 0
0.1914552 2.4277444 0.43919992 0
0.19083294 2.4198539 0.61929905 0
0.1035622 1.5643035 -0.055969905 0
0.1049208 1.584825 0.056704156 0
0.10505627 1.5868714 0.17091328 0
0.16006984 2.4178493 0.4370105 0
0.16086265 2.4298248 0.62128317 0
0.083956964 1.5673399 -0.056036279 0
0.086246267 1.6100775 0.057564251 0
0.085619815 1.5983826 0.17202333 0
0.12860446 2.400836 0.43360838 0
0.12872434 2.403074 0.61398011 0
0.064477585 1.5746709 -0.056264892 0
0.066726439 1.6295924 0.058227301 0
0.066556141 1.6254334 0.17483059 0
0.096998349 2.3688927 0.42758471 0
0.097378016 2.378165 0.60725445 0
0.044453096 1.5685703 -0.056022465 0
0.038141865 1.3458724 0.048068669 0
0.046656024 1.6463026 0.17699803 0
0.066932648 2.3617828 0.42611545 0
0.0671639 2.3699427 0.60489106 0
0.024645323 1.565572 -0.055899866 0
0.021036433 1.3363206 0.047714278 0
0.025995813 1.6513608 0.17749257 0
0.037053302 2.3537779 0.42455336 0
0.037083246 2.35568 0.60108382 0
0.0049751615 1.5798061 -0.056401394 0
0.0042646243 1.354183 0.048346318 0
0.0052788015 1.6762235 0.18014346 0
0.0073674996 2.3394659 0.4219217 0
0.0073695914 2.3401301 0.59704506 0
-0.014842502 1.5718641 -0.056120079 0
-0.012621849 1.3366905 0.047723703 0
-0.016239293 1.7197883 0.18483269 0
-0.021764223 2.3048944 0.41570324 0
-0.021898143 2.319077 0.59169716 0
-0.034415904 1.5617015 -0.055768296 0
-0.029894164 1.3565171 0.048441168 0
-0.038121242 1.7298399 0.18594982 0
-0.050716836 2.3013942 0.41515419 0
-0.050675157 2.2995028 0.58681923 0
-0.054140516 1.5629812 -0.055833913 0
-0.047379922 1.3678099 0.048861865 0
-0.060648937 1.7508727 0.18827792 0
-0.078518696 2.2667544 0.40905139 0
-0.078665465 2.2709913 0.57975012 0
-0.07444337 1.5754516 -0.056308411 0
-0.083900891 1.7756021 0.063462012 0
-0.084336184 1.7848142 0.19202675 0
-0.10622671 2.2480853 0.4058916 0
-0.10574381 2.2378657 0.57158828 0
-0.042845435 0.9067418 0.3758426 0
-0.093149811 1.5556102 -0.055636767 0
-0.10802357 1.8040032 0.064520605 0
-0.10787937 1.8015952 0.19396298 0
-0.13303323 2.2216668 0.4013924 0
-0.13261777 2.2147288 0.5660603 0
-0.052043673 0.86913401 0.3604973 0
-0.11280269 1.555324 -0.055672921 0
-0.13263777 1.8288101 0.065462373 0
-0.15931481 2.1966333 0.3972005 0
-0.15950404 2.1992424 0.56257093 0
-0.0637113 0.87845165 0.3646659 0
-0.065340348 0.900913 0.45194697 0
-0.13402466 1.5731181 -0.056365803 0
-0.15696493 1.8423798 0.066013619 0
-0.18634902 2.1872764 0.3959015 0
-0.18538487 2.1759598 0.55716813 0
-0.074300312 0.87210178 0.36238959 0
-0.07643313 0.89713585 0.45049927 0
-0.15243267 1.5571187 -0.05585688 0
-0.18536252 1.8935012 0.067923576 0
-0.21246469 2.1703532 0.39329144 0
-0.21160609 2.1615825 0.55412513 0
-0.086442746 0.88302338 0.36735108 0
-0.17256619 1.5599537 -0.056032088 0
-0.21027391 1.9008217 0.06827575 0
-0.23782723 2.1498966 0.39009622 0
-0.23567672 2.1304567 0.54686338 0
-0.09749943 0.88136959 0.36714473 0
-0.19187738 1.5550895 -0.055939719 0
-0.23747529 1.9246422 0.069233283 0
-0.25995028 2.1067932 0.38283873 0
-0.26149958 2.1193495 0.54481435 0
-0.10787448 0.87427944 0.36472818 0
-0.10657208 0.86372405 0.43543306 0
-0.21147236 1.5527686 -0.055947587 0
-0.26714656 1.9615648 0.070676871 0
-0.28464016 2.0900145 0.38041094 0
-0.28094462 2.0628791 0.53116506 0
-0.11955915 0.87788159 0.36682987 0
-0.11713243 0.86006302 0.43429655 0
-0.231401 1.5526274 -0.056043047 0
-0.29465094 1.9770145 0.071361564 0
-0.30975363 2.0783489 0.37896752 0
-0.30596271 2.052913 0.52954888 0
-0.30496326 2.046207 0.68828028 0
-0.1269079 0.85151178 0.35645056 0
-0.13039887 0.87493515 0.44260043 0
-0.2517125 1.55441 -0.056217343 0
-0.32685101 2.0184157 0.07299874 0
-0.33189628 2.0495718 0.37445271 0
-0.33213335 2.0510359 0.53010154 0
-0.33124009 2.0455198 0.68939745 0
-0.13884097 0.85738999 0.35961458 0
-0.13990951 0.86398858 0.43791944 0
-0.26937833 1.5403323 -0.055826459 0
-0.35962468 2.05637 0.074529275 0
-0.35395822 2.0239685 0.37055996 0
-0.35353929 2.0215731 0.52359581 0
-0.35196465 2.0125692 0.67973208 0
-0.15191607 0.8686713 0.44122753 0
-0.28870592 1.5365751 -0.055817619 0
-0.38695589 2.0594895 0.074813001 0
-0.3873432 2.0615509 0.22543019 0
-0.37647715 2.0037186 0.36769128 0
-0.37474665 1.9945084 0.51776707 0
-0.37347946 1.987764 0.67288929 0
-0.16158026 0.85997617 0.43780974 0
-0.30881667 1.536731 -0.055960104 0
-0.40476412 2.0141838 0.073346563 0
-0.40316114 2.0062072 0.21991606 0
-0.39648533 1.9729871 0.3629393 0
-0.39839378 1.9824837 0.51590693 0
-0.39558232 1.9684935 0.66799915 0
-0.1761227 0.87642032 0.44727498 0
-0.32389948 1.5129067 -0.055236682 0
-0.42535958 1.9868181 0.072539337 0
-0.42282853 1.9749957 0.21706118 0
-0.42145625 1.968586 0.36307719 0
-0.41592541 1.9427519 0.50689018 0
-0.41803923 1.9526254 0.66434807 0
-0.18029161 0.84212661 0.43089789 0
-0.34895346 1.5352392 -0.056208026 0
-0.44985864 1.9791769 0.072461426 0
-0.4499096 1.9794011 0.21815069 0
-0.44113111 1.9407797 0.35894474 0
-0.43491459 1.9134297 0.50062883 0
-0.43678787 1.9216714 0.65563583 0
-0.36901939 1.5338956 -0.056324493 0
-0.46999705 1.9536273 0.071737006 0
-0.47422239 1.9711909 0.2178867 0
-0.46181327 1.91961 0.35607675 0
-0.45827606 1.904907 0.49986917 0
-0.45557424 1.8936764 0.64799041 0
-0.38592798 1.5197719 -0.055979885 0
-0.50161982 1.9753627 0.072761297 0
-0.50194257 1.9766337 0.21916959 0
-0.48050365 1.892208 0.35208824 0
-0.47830236 1.8835393 0.49580321 0
-0.48047087 1.8920788 0.64946252 0
-0.40219089 1.5041623 -0.055587053 0
-0.52795303 1.9745028 0.072968714 0
-0.53379804 1.9963627 0.22208485 0
-0.50065899 1.8724252 0.3495526 0
-0.50028098 1.8710116 0.49412462 0
-0.49718261 1.8594239 0.64035183 0
-0.42633715 1.517628 -0.056278616 0
-0.52451921 1.8671255 0.34976852 0
-0.51703918 1.8404989 0.48774716 0
-0.52053171 1.8529313 0.64032245 0
-0.44313005 1.504392 -0.055990275 0
-0.54355502 1.845327 0.34693971 0
-0.53886122 1.829392 0.48656332 0
-0.53917235 1.8304483 0.63484877 0
-0.45908803 1.4891276 -0.055632908 0
-0.55857247 1.8118217 0.34193566 0
-0.55685174 1.8062403 0.48223245 0
-0.55881017 1.812593 0.63104659 0
-0.47786364 1.4834218 -0.055640135 0
-0.58705509 1.8223826 0.34529647 0
-0.57415795 1.7823462 0.47774553 0
-0.57518691 1.7855403 0.62410039 0
-0.49982971 1.4871831 -0.056012847 0
-0.60706967 1.8062627 0.34366336 0
-0.59624398 1.7740521 0.47749698 0
-0.59565639 1.7723038 0.62204623 0
-0.52050084 1.4864415 -0.056227315 0
-0.62723762 1.7912594 0.34228438 0
-0.613967 1.7533612 0.47397122 0
-0.61486161 1.7559161 0.61896282 0
-0.53991342 1.4817946 -0.056304246 0
-0.64999008 1.7839005 0.34241506 0
-0.62953943 1.7277735 0.46916005 0
-0.63063365 1.7307767 0.6128518 0
-0.5561235 1.468529 -0.056061834 0
-0.6735121 1.7785114 0.34298137 0
-0.64743066 1.7096395 0.46641272 0
-0.64462179 1.7022223 0.60556722 0
-0.57405412 1.4600983 -0.056011502 0
-0.69651586 1.771578 0.34330845 0
-0.66884243 1.7011908 0.46636853 0
-0.66834164 1.6999172 0.6076929 0
-0.58957416 1.4458417 -0.055744976 0
-0.72260487 1.7720793 0.34514156 0
-0.68183088 1.6720873 0.46070722 0
-0.69108295 1.6947767 0.60891789 0
-0.60809988 1.4391735 -0.05577869 0
-0.74338835 1.7593571 0.34445956 0
-0.71163827 1.6842149 0.46648076 0
-0.70605236 1.6709949 0.60351986 0
-0.62782705 1.4351846 -0.055926062 0
-0.76502103 1.748804 0.34425217 0
-0.71837109 1.6421643 0.45730311 0
-0.71581328 1.6363173 0.59420359 0
-0.65101635 1.4385866 -0.056373611 0
-0.78746504 1.7401048 0.34446439 0
-0.73814368 1.6311166 0.45677876 0
-0.74053049 1.6363909 0.59756917 0
-0.66826004 1.4285263 -0.056304667 0
-0.80950063 1.7304535 0.34454438 0
-0.75761694 1.6195428 0.45617306 0
-0.75516075 1.6142923 0.59292477 0
-0.68009573 1.4073793 -0.055804286 0
-0.82855487 1.7145983 0.34343764 0
-0.77222633 1.5980328 0.45281747 0
-0.76752722 1.5883087 0.58688444 0
-0.70332843 1.4098619 -0.056249432 0
-0.85025507 1.7043847 0.34350914 0
-0.78453684 1.5726486 0.4483884 0
-0.78844172 1.5804763 0.58761227 0
-0.72036117 1.3996055 -0.056197684 0
-0.8712182 1.692709 0.3433398 0
-0.8021028 1.5584232 0.44717675 0
-0.80265391 1.5594939 0.58352268 0
-0.73736161 1.3893594 -0.056154642 0
-0.89290416 1.6824374 0.34350973 0
-0.81224245 1.5304521 0.44205046 0
-0.82041419 1.5458497 0.58223671 0
-0.7542094 1.378891 -0.056110937 0
-0.91430092 1.6715798 0.34361634 0
-0.84317881 1.54155 0.44828716 0
-0.83399236 1.5247549 0.57820112 0
-0.77679145 1.378656 -0.056494936 0
-0.938191 1.6651094 0.34468743 0
-0.85256737 1.5131438 0.44311339 0
-0.86151153 1.529018 0.58388519 0
-0.78570873 1.3543212 -0.055898737 0
-0.95945096 1.6537997 0.3448199 0
-0.85988146 1.4821724 0.4371798 0
-0.86953139 1.4988059 0.57648367 0
-0.79968625 1.3392754 -0.055688936 0
-0.97354245 1.6304412 0.34247848 0
-0.87674201 1.4683245 0.43631706 0
-0.88915908 1.4891201 0.57701892 0
-0.82441026 1.3419997 -0.05622942 0
-0.99184471 1.6145544 0.34173778 0
-0.90177697 1.4679395 0.43954203 0
-0.90907937 1.4798265 0.57780766 0
-0.84563994 1.3384734 -0.056523364 0
-1.0085845 1.5963811 0.34055236 0
-0.91922843 1.4549488 0.4390834 0
-0.91121227 1.4422609 0.5675751 0
-0.85513347 1.3164929 -0.056045417 0
-1.0356792 1.5944463 0.34289452 0
-0.9268589 1.4269154 0.43411109 0
-0.9331513 1.4366026 0.56992739 0
-0.86373723 1.293781 -0.055537157 0
-1.0598352 1.5875137 0.34424642 0
-0.9474923 1.4192367 0.43537024 0
-0.94457102 1.4148608 0.56597584 0
-0.88419133 1.2889729 -0.055804271 0
-1.0765138 1.5693402 0.34321785 0
-0.96214372 1.4026117 0.43395248 0
-0.95955408 1.3988365 0.56435442 0
-0.90430665 1.2833513 -0.056049444 0
-1.0987071 1.5592356 0.34400645 0
-0.97545445 1.384321 0.43205959 0
-0.97616982 1.3853363 0.56382227 0
-0.9115153 1.2595942 -0.055508763 0
-1.1158632 1.5419761 0.3432714 0
-0.9906534 1.3689526 0.43112218 0
-0.99011946 1.3682147 0.56188375 0
-0.93520635 1.2586542 -0.055981871 0
-1.1409397 1.5355419 0.34501001 0
-1.0072738 1.3556466 0.43089208 0
-1.0045859 1.3520291 0.56038731 0
-0.95912975 1.2574635 -0.05646161 0
-1.1552249 1.5145534 0.34353545 0
-1.0219296 1.339797 0.42991039 0
-1.0234486 1.3417885 0.56143987 0
-0.97062367 1.2398418 -0.056214716 0
-0.58293855 0.74462599 0.033761516 0
-0.58527005 0.74760413 0.1020366 0
-0.58258432 0.74417347 0.17044608 0
-1.0355023 1.3227155 0.42857939 0
-1.048291 1.3390514 0.56577307 0
-0.98054862 1.22054 -0.055894971 0
-0.59429002 0.73974383 0.033876773 0
-0.59716111 0.7433176 0.10246973 0
-0.59341234 0.73865134 0.17087922 0
-1.0542142 1.3122355 0.4294509 0
-1.0434042 1.2987797 0.55426502 0
-0.49361178 0.61442435 0.46740678 0
-0.99445987 1.206424 -0.055817563 0
-0.60793984 0.73751915 0.034122765 0
-0.60677052 0.73610055 0.10252 0
-0.60593498 0.73508692 0.17180614 0
-1.0706224 1.2988203 0.42943853 0
-1.0719389 1.3004172 0.56067979 0
-1.0157129 1.2010691 -0.056157116 0
-0.61386716 0.72589111 0.10216656 0
-0.59983176 0.70929438 0.16752993 0
-1.0836254 1.2813749 0.42814815 0
-1.0825124 1.2800589 0.55773515 0
-1.0402231 1.1990987 -0.056672938 0
-0.61929059 0.71387625 0.10156503 0
-0.62460476 0.72000206 0.17190306 0
-1.0922017 1.2590163 0.42523906 0
-1.0988436 1.2666725 0.5578872 0
-1.0394787 1.1681944 -0.055826522 0
-0.63122505 0.7093879 0.10204923 0
-0.63154018 0.70974207 0.17133854 0
-1.1119258 1.2496125 0.4267582 0
-1.1066211 1.2436509 0.55384117 0
-1.1190562 1.2576259 0.69699723 0
-0.51726872 0.5813207 0.46147385 0
-1.056123 1.1572244 -0.055933382 0
-0.64001358 0.70128131 0.10203433 0
-0.63844365 0.69956112 0.17080802 0
-1.1357386 1.2444615 0.42984912 0
-1.121389 1.2287383 0.55344468 0
-1.1300991 1.2382821 0.69410831 0
-0.52506447 0.57532829 0.4619289 0
-1.0658619 1.1387619 -0.055685315 0
-0.64661425 0.69083965 0.10169171 0
-0.646254 0.69045472 0.17055799 0
-1.1460149 1.2243969 0.42786923 0
-1.1427915 1.2209531 0.55637556 0
-1.1317575 1.2091644 0.68572074 0
-0.55147374 0.58919191 0.47859755 0
-1.0804855 1.1256362 -0.055704378 0
-0.57645524 0.60054386 0.34465939 0
-0.57127929 0.5951516 0.41276261 0
-0.5632391 0.58677542 0.48235753 0
-1.1051205 1.1226573 -0.056241155 0
-0.58052504 0.58973718 0.41404453 0
-0.5645594 0.57351816 0.47726557 0
-1.1134042 1.1029432 -0.05595148 0
-0.58262455 0.57715058 0.410326 0
-0.59556496 0.5899694 0.49715725 0
-1.1341326 1.0955303 -0.056295436 0
-0.59989792 0.57947922 0.34533522 0
-0.60690588 0.58624864 0.42219409 0
-1.1447167 1.0782245 -0.056142416 0
-0.61449569 0.57880193 0.34951517 0
-0.6093452 0.57395065 0.41883013 0
-1.1628902 1.0680313 -0.056369662 0
-0.69397682 0.63736796 0.10126333 0
-0.69470453 0.63803631 0.1701124 0
-1.2285547 1.1283394 0.42558107 0
-1.2288311 1.1285932 0.55508584 0
-1.2430845 1.1416841 0.69881392 0
-1.1676626 1.0456183 -0.055958323 0
-0.70603162 0.63223708 0.10185257 0
-0.71104616 0.63672751 0.17213699 0
-1.2536879 1.1226522 0.42935628 0
-1.2461776 1.1159269 0.55652994 0
-1.2495446 1.118942 0.69446963 0
-1.1830714 1.0328723 -0.056069024 0
-0.71436876 0.62367475 0.10191428 0
-0.71637237 0.62542397 0.17150626 0
-1.2693915 1.1082336 0.429921 0
-1.25409 1.0948746 0.55386257 0
-1.2037208 1.02448 -0.056431793 0
-0.70955819 0.60390097 0.10013516 0
-0.72733516 0.61903083 0.172251 0
-1.2769101 1.086771 0.42779872 0
-1.2798264 1.0892531 0.55912697 0
-1.2069248 1.0012782 -0.055986468 0
-0.72356117 0.60027438 0.10103659 0
-0.72547519 0.60186231 0.17000221 0
-1.2835664 1.0648609 0.42550266 0
-1.2895408 1.0698173 0.55744141 0
-1.2157986 0.98306078 -0.055819452 0
-0.74296117 0.60073763 0.10268111 0
-0.73089987 0.59098518 0.16951609 0
-1.3130872 1.0617256 0.4308227 0
-1.3020215 1.0527781 0.55706179 0
-1.2222869 0.96310967 -0.055556133 0
-0.7393539 0.58257914 0.033605564 0
-0.7338329 0.57822883 0.10040528 0
-0.75635266 0.59597343 0.173665 0
-1.3244132 1.0435808 0.43019307 0
-1.3339458 1.051092 0.56501281 0
-1.2453138 0.9560861 -0.056051102 0
-0.74485254 0.57185841 0.033525534 0
-0.74999464 0.57580626 0.10161646 0
-0.74695075 0.57346934 0.16983472 0
-1.3362534 1.0259048 0.4298088 0
-1.3325915 1.0230933 0.55893809 0
-1.2491784 0.93429095 -0.055691108 0
-0.76195139 0.56988198 0.033969462 0
-0.75673467 0.56598026 0.10155599 0
-0.75322115 0.56335241 0.16963403 0
-1.3444217 1.0055257 0.4283295 0
-1.3530414 1.0119725 0.5621261 0
-1.2679317 0.92365187 -0.0560042 0
-0.77505642 0.56460643 0.034234036 0
-0.76648295 0.55836087 0.10191257 0
-0.77012509 0.56101406 0.17183639 0
-1.3729734 1.0001718 0.43337908 0
-1.3712704 0.99893123 0.56442881 0
-1.2897104 0.91488445 -0.056452833 0
-0.78336102 0.5556944 0.034289055 0
-0.77411449 0.54913521 0.10199979 0
-0.78326404 0.55562562 0.17319319 0
-1.3977474 0.99152291 0.43722329 0
-1.381216 0.97979599 0.56339949 0
-1.2956152 0.89476597 -0.056213662 0
-0.79083073 0.54615629 0.034312263 0
-0.79926991 0.55198449 0.10439022 0
-0.78920352 0.54503256 0.17297524 0
-1.3875884 0.95828366 0.43023679 0
-1.3862751 0.95737666 0.56050116 0
-1.300678 0.87428093 -0.055951227 0
-0.79607534 0.53510058 0.03424475 0
-0.80022693 0.53789115 0.10362237 0
-0.80195498 0.53905267 0.1742685 0
-1.4181561 0.95324665 0.4359583 0
-1.4030601 0.9430995 0.56244153 0
-1.3202668 0.86351407 -0.056321666 0
-0.79990047 0.52317101 0.034123201 0
-0.79693949 0.52123439 0.10233865 0
-0.80680233 0.52768511 0.17386414 0
-1.4331294 0.93733132 0.4368982 0
-1.426019 0.93268073 0.56689209 0
-1.3238776 0.84226829 -0.056018811 0
-0.81914181 0.5211488 0.034661327 0
-0.82614672 0.52560538 0.10523102 0
-0.81931412 0.52125841 0.17513205 0
-1.4398346 0.91604173 0.43539131 0
-1.4464064 0.9202227 0.57034504 0
-1.3437293 0.83131772 -0.056411397 0
-0.84007829 0.51972669 0.035267513 0
-0.82535052 0.51061517 0.10430234 0
-0.8174848 0.50574893 0.17336598 0
-1.4805595 0.91596973 0.44418308 0
-1.4647629 0.90619695 0.5730384 0
-1.3392273 0.80539441 -0.05579222 0
-0.83895677 0.504538 0.034950942 0
-0.83759636 0.50371987 0.10503998 0
-0.84352368 0.50728452 0.17751935 0
-1.4865458 0.89398992 0.44256666 0
-1.4663734 0.88185847 0.56927907 0
-1.3551168 0.79188949 -0.056034315 0
-0.90338773 0.52791256 0.03735524 0
-0.90743124 0.53027546 0.11295138 0
-0.90236187 0.52731305 0.1884895 0
-1.5035557 0.87863261 0.44430164 0
-1.4916195 0.87165743 0.57477337 0
-1.3787736 0.78259319 -0.056600552 0
-0.97834271 0.55530828 0.040162314 0
-0.97066927 0.55095279 0.11994979 0
-1.51402 0.8593592 0.31397018 0
-1.5177395 0.8614704 0.44525212 0
-1.5078663 0.85586637 0.57683527 0
-1.3848271 0.76313674 -0.056450095 0
-1.0513804 0.57938421 0.04285771 0
-1.0597633 0.58400381 0.13004045 0
-1.5266426 0.84128702 0.31436601 0
-1.5225341 0.83902299 0.44352409 0
-1.5265549 0.84123874 0.57988632 0
-1.3870672 0.74175775 -0.056156211 0
-1.1517684 0.61592776 0.046630003 0
-1.1469705 0.61336195 0.13978258 0
-1.5527966 0.83038437 0.31757328 0
-1.5533943 0.83070397 0.44943103 0
-1.5557353 0.83195591 0.58694488 0
-1.3946518 0.7233808 -0.056090046 0
-1.555446 0.80678189 0.31601235 0
-1.5725189 0.81563735 0.45195687 0
-1.5521878 0.80509192 0.58173549 0
-1.3811334 0.69444191 -0.055190302 0
-1.5778171 0.79333562 0.31850252 0
-1.5686715 0.78873712 0.44796097 0
-1.5633296 0.78605121 0.58215547 0
-1.414572 0.68907964 -0.056175329 0
-1.5912147 0.77512741 0.45157549 0
-1.4132167 0.66653532 -0.055783775 0
