# .PCD v0.7 - Point Cloud Data file format
VERSION 0.7
FIELDS x y z
SIZE 4 4 4
TYPE F F F
COUNT 1 1 1
WIDTH 1442
HEIGHT 1
VIEWPOINT 0 0 0 1 0 0 0
POINTS 1442
DATA ascii
0.45247877 -0.73994756 -0.29303551
0.4907223 -0.80248797 -0.29359666
0.53368479 -0.87274539 -0.29335523
0.58802617 -0.96161091 -0.29501715
0.64537084 -1.0553879 -0.29320315
0.72700942 -1.1888931 -0.29621789
0.81067425 -1.3257118 -0.29268461
0.94181412 -1.5401675 -0.29670447
1.0986396 -1.7966273 -0.29595408
1.3204021 -2.1592801 -0.29580614
1.6509337 -2.6998048 -0.29538241
2.5755775 -4.2118931 -0.34514055
3.8696685 -6.328146 -0.34532058
7.7536659 -12.679725 -0.34556043
0.47394264 -0.73283893 -0.29486358
0.51242572 -0.7923438 -0.29452321
0.56130987 -0.86793149 -0.29640466
0.61353099 -0.94867897 -0.29570621
0.67995125 -1.0513819 -0.29676342
0.75334316 -1.164865 -0.29487464
0.85508686 -1.3221873 -0.29657671
0.96654397 -1.4945291 -0.29251882
1.1381081 -1.7598121 -0.29452756
1.3680232 -2.1153207 -0.29442027
1.7249067 -2.6671557 -0.29647899
2.6848445 -4.1514697 -0.3456319
4.033164 -6.2363234 -0.34575453
8.0740385 -12.48457 -0.34568539
0.4896856 -0.7168467 -0.29330838
0.53012896 -0.7760514 -0.29334721
0.58217543 -0.85224187 -0.29597023
0.63297802 -0.9266113 -0.29371384
0.69197643 -1.0129787 -0.2907607
0.78149694 -1.144027 -0.29449889
0.88067418 -1.2892118 -0.29407218
1.0108219 -1.4797341 -0.29452264
1.1881698 -1.739352 -0.29602796
1.4197886 -2.0784168 -0.29417771
1.7871319 -2.6161678 -0.29573095
2.7884338 -4.0819654 -0.34559453
4.1839647 -6.1248722 -0.34532014
8.3778152 -12.264215 -0.34532881
0.50838858 -0.70533454 -0.29375455
0.55665398 -0.77229756 -0.29714429
0.60826725 -0.84390545 -0.29831168
0.66102433 -0.91710019 -0.2958931
0.73145074 -1.0148093 -0.29649073
0.81103295 -1.1252211 -0.2948333
0.90803689 -1.2598037 -0.29249859
1.0492644 -1.4557416 -0.29492435
1.2229271 -1.6966799 -0.29392493
1.4834831 -2.0581734 -0.29651749
1.854322 -2.5726726 -0.29601038
2.8919721 -4.0123005 -0.34576598
4.3348718 -6.0141687 -0.34513718
8.6835575 -12.047503 -0.34528792
0.52623445 -0.69256109 -0.29387259
0.57224935 -0.75311989 -0.2952286
0.62351853 -0.82059371 -0.29553995
0.68398064 -0.90016603 -0.29590496
0.75697124 -0.99622679 -0.29654902
0.84304661 -1.1095079 -0.296197
0.94670343 -1.2459276 -0.29473063
1.0878048 -1.4316268 -0.29550695
1.2721264 -1.6742069 -0.2954998
1.5323249 -2.0166461 -0.29601222
1.9116547 -2.5158706 -0.29493228
2.9924974 -3.9383347 -0.34579045
4.4813771 -5.8978038 -0.34484032
8.997427 -11.84124 -0.34577459
0.54415101 -0.67982543 -0.29420245
0.5988915 -0.74821448 -0.29913574
0.64673656 -0.80798888 -0.29678455
0.70561135 -0.88154304 -0.29554325
0.77723873 -0.97102946 -0.29479393
0.86768979 -1.0840329 -0.29514852
0.96741009 -1.2086166 -0.29158756
1.1204433 -1.3998061 -0.29468206
1.3186007 -1.6473705 -0.2965427
1.5775743 -1.9709145 -0.29505
1.9755734 -2.4681478 -0.29508901
3.0938456 -3.8652413 -0.34611854
4.6274538 -5.7812276 -0.34474316
9.2800646 -11.593885 -0.34528109
0.56122631 -0.66599333 -0.29425272
0.61052322 -0.72449273 -0.29571813
0.65478897 -0.77702183 -0.29138747
0.73061109 -0.86699802 -0.29675454
0.7988798 -0.9480108 -0.2938334
0.89965218 -1.0675949 -0.29676068
1.0047969 -1.1923676 -0.29369211
1.1577189 -1.3738363 -0.29527214
1.3470203 -1.5984755 -0.29376745
1.62755 -1.9313731 -0.29518598
2.381166 -2.8256705 -0.34490949
3.1939778 -3.7902141 -0.34650838
4.7703304 -5.6608324 -0.34463361
9.5776548 -11.365565 -0.34557045
0.58235472 -0.65669936 -0.29654595
0.62982219 -0.71022666 -0.29628912
0.68812007 -0.77596688 -0.29741004
0.74453479 -0.83958369 -0.29370952
0.82519782 -0.93054432 -0.29478118
0.92646325 -1.0447375 -0.29681227
1.039683 -1.1724111 -0.29514596
1.1757549 -1.3258542 -0.29124475
1.3880064 -1.5652022 -0.29399705
1.6818088 -1.896512 -0.29625109
2.4683516 -2.7834663 -0.34725171
3.2751682 -3.6932831 -0.34509397
4.9170623 -5.5447845 -0.3450141
9.8565483 -11.114856 -0.34540147
0.58700138 -0.62921572 -0.29073277
0.65090293 -0.69771278 -0.29782718
0.70577246 -0.7565282 -0.29669246
0.77302927 -0.8286218 -0.29660562
0.84002233 -0.90043271 -0.29186559
0.94300491 -1.0108213 -0.29384482
1.0706924 -1.1476915 -0.29563174
1.2179275 -1.3055151 -0.29343584
1.4287928 -1.5315448 -0.29435483
1.7267681 -1.850949 -0.29584742
2.5264215 -2.7081096 -0.34569544
3.3733449 -3.6159399 -0.34571239
5.0538874 -5.4173388 -0.34491104
10.135131 -10.864001 -0.34544516
0.61211222 -0.62380677 -0.29527783
0.66606671 -0.67879206 -0.29683205
0.71953952 -0.7332865 -0.29460591
0.793585 -0.8087467 -0.29656637
0.87934661 -0.89614677 -0.29757547
0.96502829 -0.98346543 -0.29287958
1.0940815 -1.1149842 -0.29422593
1.261958 -1.2860681 -0.29612944
1.4701812 -1.4982693 -0.2949971
1.7765442 -1.8104856 -0.29645225
2.5865088 -2.6359246 -0.34470433
3.4605587 -3.5266736 -0.3454183
5.1986246 -5.2979455 -0.34555322
10.411015 -10.609921 -0.34561116
0.61880988 -0.59959203 -0.29111594
0.68440288 -0.66314799 -0.29744992
0.74248439 -0.71942568 -0.2964716
0.80671406 -0.78166062 -0.29400653
0.88735259 -0.8597948 -0.29284796
0.99984038 -0.96878922 -0.29592976
1.1335245 -1.0983217 -0.29728374
1.2920127 -1.2518878 -0.29567352
1.5016515 -1.455016 -0.29384953
1.7996053 -1.7437165 -0.29286328
2.6522212 -2.5698533 -0.34470809
3.5544703 -3.444082 -0.3460055
5.3178239 -5.1526728 -0.34472233
10.676406 -10.344838 -0.34564376
0.63593155 -0.58580571 -0.29212213
0.69214654 -0.63758963 -0.29372802
0.76913983 -0.70851409 -0.29987922
0.8348335 -0.76902968 -0.29708624
0.91906524 -0.84662199 -0.29616767
1.0224385 -0.94184715 -0.29548845
1.1473904 -1.05695 -0.29383042
1.3286699 -1.2239405 -0.29689854
1.5356489 -1.4146048 -0.29342225
1.8564582 -1.7101271 -0.29499739
2.7251511 -2.5103471 -0.34584191
3.6326842 -3.3463461 -0.34528768
5.4493718 -5.0198374 -0.34492701
10.925095 -10.063949 -0.34536168
0.64748335 -0.56692433 -0.29076314
0.70532942 -0.61757326 -0.29261464
0.77626336 -0.67968172 -0.29587403
0.85019428 -0.74441427 -0.29577234
0.93518013 -0.81882632 -0.29460716
1.0582927 -0.92662132 -0.29899627
1.1812541 -1.0342841 -0.29572335
1.3520302 -1.1838124 -0.29534799
1.5702056 -1.3748428 -0.29330155
1.9151936 -1.6769077 -0.29751053
2.7862592 -2.4395964 -0.34567285
3.7260056 -3.2624209 -0.34622115
5.580265 -4.8859758 -0.34529659
11.18667 -9.7948399 -0.34570566
0.67246407 -0.55946124 -0.29554611
0.73229283 -0.60923618 -0.29732692
0.79771459 -0.66366428 -0.29757106
0.86011457 -0.71557844 -0.29284722
0.95446491 -0.79407382 -0.29427499
1.0675799 -0.88818061 -0.29519278
1.2050323 -1.0025352 -0.29524758
1.3771789 -1.1457537 -0.29443091
1.6114118 -1.3406254 -0.29458442
1.9453825 -1.6184747 -0.29576045
2.8645251 -2.3831618 -0.34780976
3.8016076 -3.1627743 -0.34571865
5.7047787 -4.7461309 -0.34547901
11.422487 -9.5030184 -0.34547108
0.67984748 -0.53716594 -0.29273939
0.73921418 -0.58407319 -0.29405814
0.80966377 -0.63973731 -0.29591116
0.87342983 -0.69012064 -0.29135755
0.96812141 -0.76493901 -0.29243997
1.0781915 -0.85190839 -0.29208872
1.2293913 -0.97137547 -0.29511499
1.4101716 -1.1142149 -0.29537824
1.6580726 -1.3100882 -0.29697523
1.9893634 -1.5718501 -0.29632118
2.8979583 -2.2897556 -0.34474245
3.8739643 -3.0609243 -0.34516329
5.8181372 -4.5970683 -0.34520757
11.653735 -9.2079325 -0.3453263
0.69646525 -0.52230227 -0.29412496
0.74291861 -0.55713916 -0.28984576
0.81188601 -0.60886008 -0.2910144
0.90202725 -0.67645997 -0.29510781
1.001212 -0.75084186 -0.29661679
1.1222781 -0.84163332 -0.29818249
1.2544239 -0.94073373 -0.29533044
1.4315757 -1.0735857 -0.29409227
1.6842536 -1.2630773 -0.2958605
2.358994 -1.7690873 -0.34461817
2.9738955 -2.2302222 -0.34696937
3.9477568 -2.9605529 -0.34497067
5.9428992 -4.4567761 -0.34582591
11.899355 -8.9237185 -0.34582052
0.71413946 -0.50791883 -0.29608092
0.76554286 -0.5444786 -0.29321772
0.82948881 -0.58995903 -0.29189384
0.91667563 -0.65196908 -0.29442298
1.0146695 -0.72166544 -0.29511362
1.1455487 -0.81475097 -0.29880661
1.2753674 -0.90708214 -0.29477739
1.4651399 -1.0420544 -0.29549038
1.7084903 -1.2151331 -0.29463679
2.4032505 -1.7092687 -0.34467149
3.0233922 -2.1503334 -0.34630191
4.0237966 -2.8618531 -0.34519365
6.0480943 -4.3015985 -0.3455196
12.105451 -8.6097841 -0.34538481
0.71557873 -0.48222569 -0.29153877
0.79417241 -0.53518963 -0.29891449
0.86014545 -0.57964867 -0.29743892
0.92677271 -0.62454849 -0.29251003
1.023105 -0.68946642 -0.29241279
1.1486434 -0.77406627 -0.29442409
1.3089793 -0.88211596 -0.29730564
1.4991589 -1.0102773 -0.29711422
1.7357388 -1.1697075 -0.29415101
2.4584594 -1.656746 -0.34648213
3.0737219 -2.0713689 -0.34596843
4.0981221 -2.7617083 -0.34548017
6.1517992 -4.1456733 -0.34535658
12.324198 -8.3052282 -0.34553534
0.7442537 -0.4746916 -0.29824528
0.80197984 -0.5115099 -0.29689944
0.86073387 -0.54898369 -0.29275781
0.94609123 -0.60342538 -0.29370695
1.0380002 -0.66204578 -0.29180136
1.1624231 -0.74140376 -0.29306641
1.3393251 -0.85423338 -0.29920584
1.5041318 -0.95934862 -0.29320771
1.7695404 -1.1286286 -0.294958
2.4973979 -1.5928626 -0.34619379
3.1207061 -1.990414 -0.34549236
4.1531315 -2.6489041 -0.34437186
6.2508993 -3.9868791 -0.34516105
12.527225 -7.9899755 -0.34546366
0.74598312 -0.44972724 -0.29429606
0.80776197 -0.48697153 -0.29439613
0.87552893 -0.52782589 -0.29316556
0.97763753 -0.5893836 -0.29878715
1.0661741 -0.64275926 -0.29506713
1.192441 -0.71888113 -0.29596582
1.3464413 -0.81172252 -0.29612449
1.5366877 -0.9264155 -0.29490215
1.8042696 -1.0877312 -0.29607651
2.5287802 -1.5245135 -0.3451004
3.1718323 -1.9121872 -0.3456994
4.2331886 -2.552042 -0.34555915
6.3552346 -3.8313494 -0.34547269
12.726022 -7.6720753 -0.34549597
0.75674146 -0.43056235 -0.29415953
0.83141613 -0.47304988 -0.29857063
0.89782304 -0.51083332 -0.29621914
0.98580313 -0.56089133 -0.29686171
1.0693663 -0.60843617 -0.2916078
1.204899 -0.68555003 -0.29466954
1.3540263 -0.77039886 -0.29342288
1.5604202 -0.88783056 -0.29506236
1.8292124 -1.0407649 -0.29576486
2.5827641 -1.4695123 -0.3472954
3.2251503 -1.8350102 -0.34635249
4.2896261 -2.4406638 -0.34502786
6.4332409 -3.6603138 -0.34458145
12.922528 -7.3525167 -0.3456828
0.76140404 -0.40813717 -0.2918748
0.83117956 -0.44553912 -0.29435375
0.91690582 -0.49149114 -0.29832742
0.98591644 -0.52848309 -0.29278591
1.0976478 -0.58837467 -0.29517645
1.2239724 -0.65608877 -0.29519045
1.3804833 -0.73998362 -0.29501498
1.5927125 -0.8537454 -0.29699951
1.8552766 -0.99448824 -0.29582658
2.6104515 -1.3992864 -0.34615928
3.2578108 -1.7462919 -0.34501684
4.3624129 -2.3383944 -0.34602508
6.5465837 -3.5091803 -0.34579831
13.092318 -7.0179057 -0.34537658
0.78055906 -0.39338234 -0.29531762
0.84831387 -0.42752907 -0.29650599
0.91554946 -0.46141413 -0.29400343
1.0120685 -0.51005727 -0.29663479
1.1130543 -0.56095159 -0.29541814
1.2283344 -0.61904997 -0.2923812
1.4071729 -0.70918012 -0.29679909
1.6072254 -0.81000155 -0.29579937
1.8906645 -0.95284778 -0.29753983
2.6451817 -1.3331056 -0.34619278
3.3031924 -1.6647266 -0.34526333
4.4286308 -2.2319195 -0.34669888
6.6269679 -3.3398266 -0.34548178
13.258199 -6.6818018 -0.34519383
0.78659254 -0.37184048 -0.29395604
0.84784222 -0.4007946 -0.29271224
0.933065 -0.44108137 -0.29595894
1.0142672 -0.47946751 -0.29363886
1.1331843 -0.53568244 -0.29707792
1.2561914 -0.59383065 -0.2953504
1.4282905 -0.67518592 -0.29756415
1.6188107 -0.76524919 -0.29428321
1.9044602 -0.90028232 -0.29604077
2.6865425 -1.2699907 -0.34730032
3.3585777 -1.5876772 -0.34675357
4.4691844 -2.1126866 -0.34558922
6.7215433 -3.177429 -0.34612125
13.435183 -6.3511214 -0.34551826
0.81045103 -0.35838801 -0.29939649
0.8622489 -0.38129342 -0.29426989
0.94848078 -0.41942587 -0.29739621
1.0143476 -0.44855267 -0.29029214
1.1340427 -0.50148284 -0.29389119
1.26723 -0.56037939 -0.29452664
1.4373436 -0.63560492 -0.2960138
1.6289442 -0.72033226 -0.29272714
1.9210621 -0.84950924 -0.2951946
2.7046759 -1.1960295 -0.34563211
3.3953288 -1.5014418 -0.34652513
4.5166798 -1.9973123 -0.34525385
6.786757 -3.0011587 -0.34546885
13.601474 -6.0146818 -0.34578073
0.81276184 -0.3351559 -0.29703063
0.88573027 -0.36524567 -0.29904234
0.96330231 -0.39723378 -0.29880476
1.0349659 -0.42678544 -0.29301682
1.1362327 -0.46854454 -0.29130134
1.2861087 -0.53034842 -0.29570919
1.4229212 -0.58676529 -0.28990135
1.6531172 -0.68169045 -0.29388568
1.9343326 -0.79765433 -0.29404658
2.7320938 -1.1266245 -0.34539214
3.4241705 -1.4120138 -0.34572142
4.5707145 -1.8848103 -0.34563789
6.8627133 -2.8299544 -0.34558946
13.741104 -5.6663737 -0.34558466
0.81859237 -0.31363553 -0.2961742
0.88078207 -0.3374629 -0.29440236
0.96301216 -0.36896855 -0.29573199
1.0572492 -0.40507451 -0.29633674
1.1703917 -0.44842395 -0.29706264
1.2873061 -0.49321851 -0.29302898
1.4634395 -0.56070226 -0.29517922
1.6736842 -0.64125544 -0.29457095
1.9669459 -0.7536158 -0.29601863
2.7605555 -1.0576794 -0.34550548
3.4620118 -1.3264354 -0.34605178
4.6022162 -1.7632933 -0.34454495
6.9274621 -2.6541882 -0.34536666
13.8771 -5.3168731 -0.34551999
0.81608427 -0.28928006 -0.29253197
0.89895207 -0.31865448 -0.29769269
0.95810276 -0.33962181 -0.29149926
1.0664773 -0.37803766 -0.29615465
1.1733515 -0.41592175 -0.29505551
1.326341 -0.47015244 -0.29911816
1.4622948 -0.5183444 -0.29221651
1.6936311 -0.60034692 -0.29532081
1.9725292 -0.69920886 -0.29410937
2.7856491 -0.98743814 -0.34541696
3.4896159 -1.2369756 -0.34558028
4.6528382 -1.6493068 -0.34510848
6.9860578 -2.4763706 -0.34506205
14.008615 -4.9656792 -0.34556395
0.83154279 -0.27134475 -0.29552418
0.89942789 -0.29349667 -0.29530317
0.96794343 -0.31585434 -0.29197484
1.0639547 -0.34718421 -0.29292753
1.184646 -0.38656759 -0.29534817
1.3086015 -0.42701611 -0.29259378
1.472742 -0.48057759 -0.29178745
1.7050012 -0.55636722 -0.294761
1.9912921 -0.6497882 -0.29436794
2.7953146 -0.91215265 -0.34365135
3.5155857 -1.1471878 -0.34517485
4.6874151 -1.5295732 -0.34469995
7.0507002 -2.3007481 -0.3452768
14.126089 -4.6095529 -0.34548187
0.83187652 -0.24841204 -0.29332122
0.90536767 -0.2703577 -0.29491907
0.97855043 -0.29221129 -0.29285645
1.0706409 -0.31971103 -0.29245365
1.1919447 -0.35593432 -0.29483426
1.3297321 -0.39707991 -0.29498366
1.4964017 -0.44685021 -0.2941469
1.7324224 -0.51732987 -0.29714966
2.360271 -0.7048158 -0.34617326
2.834203 -0.8463397 -0.34569609
3.5367274 -1.0561252 -0.34452376
4.7435684 -1.4165077 -0.34609005
7.1064901 -2.1221151 -0.34527606
14.234762 -4.2507343 -0.34540585
0.84644538 -0.22966813 -0.29631996
0.90080756 -0.24441837 -0.29133138
0.99600148 -0.27024755 -0.29594359
1.0840485 -0.2941376 -0.29399458
1.1991442 -0.3253668 -0.29449004
1.3341093 -0.3619872 -0.29383436
1.5079392 -0.4091529 -0.2942912
1.7482311 -0.47435188 -0.29771292
2.3634684 -0.64128584 -0.34415877
2.8613727 -0.7763834 -0.34650964
3.5677979 -0.96805948 -0.34506047
4.7734337 -1.2951877 -0.34577391
7.1625133 -1.9434226 -0.34550482
14.330355 -3.8882909 -0.34523419
0.85492027 -0.20895933 -0.29734585
0.92095947 -0.22510061 -0.29591709
1.0188299 -0.24902208 -0.3007634
1.1000324 -0.26886955 -0.29639465
1.2071863 -0.29506007 -0.2945424
1.3528917 -0.33067331 -0.29603872
1.5271775 -0.37327221 -0.29611287
1.741323 -0.42561355 -0.29461339
2.3880837 -0.58369458 -0.34548792
2.875879 -0.70292139 -0.34600773
3.5910797 -0.87773043 -0.34505972
4.8030763 -1.1739663 -0.34566477
7.2059531 -1.7612766 -0.34534597
14.442406 -3.5300078 -0.34567717
0.84226525 -0.18347639 -0.29124099
0.92774343 -0.20209669 -0.29636356
1.001559 -0.21817645 -0.29394576
1.0890114 -0.2372268 -0.29171899
1.22545 -0.26694813 -0.29726002
1.3633835 -0.29699513 -0.29659984
1.517373 -0.3305397 -0.29250109
1.7514247 -0.3815248 -0.2945995
2.401536 -0.52314299 -0.34541389
2.8767571 -0.62666368 -0.34410086
3.6254299 -0.78975213 -0.34633482
4.8380966 -1.0539156 -0.34616053
7.2570357 -1.5808496 -0.34577185
14.518008 -3.1625569 -0.3454662
0.84835321 -0.16249757 -0.29183504
0.92554539 -0.17728333 -0.2941384
1.0287799 -0.19705732 -0.3003794
1.0966755 -0.21006238 -0.29225871
1.2298402 -0.23556937 -0.29678822
1.3599927 -0.26049942 -0.29433814
1.5329094 -0.29362068 -0.29397386
1.7709842 -0.33922267 -0.29635504
2.4151256 -0.46260452 -0.34557912
2.9005952 -0.55559361 -0.34516498
3.6402011 -0.69726127 -0.3459546
4.8586326 -0.93064529 -0.34583911
7.271153 -1.3927509 -0.34465986
14.597762 -2.796124 -0.34557468
0.86516821 -0.14319016 -0.29628187
0.93730122 -0.15512858 -0.2965357
1.0211215 -0.16900131 -0.29680344
1.1050314 -0.18288887 -0.29316205
1.2222581 -0.20229052 -0.29363286
1.3553871 -0.22432414 -0.29202303
1.5460498 -0.25587988 -0.29516137
1.7617705 -0.29158285 -0.29348826
2.4337106 -0.40279266 -0.34667337
2.9088385 -0.48142898 -0.34459028
3.6501625 -0.60412228 -0.34534225
4.8690176 -0.80584961 -0.34502074
7.3141413 -1.2105311 -0.34513941
14.656308 -2.4257007 -0.34540132
0.86993682 -0.12151545 -0.2967701
0.92898059 -0.12976287 -0.2927739
1.0326757 -0.14424734 -0.29900843
1.1198967 -0.15643062 -0.29596409
1.2172036 -0.17002276 -0.29129493
1.3715967 -0.19158885 -0.29437986
1.543831 -0.21564706 -0.29360515
1.7801877 -0.2486621 -0.29541674
2.4371107 -0.34042314 -0.34582371
2.9162695 -0.40735349 -0.34414306
3.6769896 -0.51361322 -0.34654355
4.8952112 -0.68377817 -0.34554389
7.3544335 -1.0272899 -0.34570715
14.717034 -2.0557208 -0.34549966
0.86622518 -0.098786063 -0.29455954
0.93091106 -0.10616297 -0.29244474
1.0245519 -0.11684196 -0.29570812
1.1206692 -0.12780339 -0.29522178
1.2407345 -0.14149585 -0.29597729
1.3762308 -0.15694813 -0.29443052
1.5571787 -0.1775838 -0.29519722
1.7598931 -0.20070174 -0.29111558
2.4447491 -0.27880412 -0.34579894
2.9385891 -0.33512262 -0.34566873
3.650753 -0.41633925 -0.3429713
4.9163375 -0.56066906 -0.34592611
7.3784275 -0.84145075 -0.34572664
14.759806 -1.683238 -0.34539643
0.87763 -0.077712499 -0.297676
0.95002127 -0.084122613 -0.2976864
1.0292754 -0.091140419 -0.29631317
1.1092277 -0.098220043 -0.29146183
1.2414956 -0.10993212 -0.29540291
1.3753736 -0.12178677 -0.29349604
1.5703156 -0.13904852 -0.29692775
1.7805499 -0.15766437 -0.29378077
2.4607706 -0.21789664 -0.34717667
2.953932 -0.26156518 -0.34658661
3.6837676 -0.32619077 -0.34518951
4.9253726 -0.43613258 -0.34567726
7.3931546 -0.65465003 -0.34553245
14.787951 -1.3094456 -0.34517178
0.86164916 -0.054428615 -0.29169676
0.9308362 -0.058799017 -0.29111707
1.021209 -0.064507678 -0.29342881
1.1144843 -0.070399694 -0.29228312
1.1343756 -0.071656182 -0.26939854
1.384907 -0.087481745 -0.29496533
1.5594691 -0.09850847 -0.29431298
1.7984741 -0.11360592 -0.29617077
2.4426844 -0.15429938 -0.34396604
2.9465978 -0.18613055 -0.345065
3.7026324 -0.23388772 -0.34629381
4.9259644 -0.3111631 -0.34505773
7.4005575 -0.46747807 -0.34521708
14.819236 -0.93610078 -0.34524056
0.86843765 -0.03288649 -0.29362038
0.9508487 -0.036007278 -0.29699713
1.0323547 -0.039093796 -0.29625353
1.1166682 -0.042286627 -0.29248282
1.1387081 -0.043121248 -0.27008301
1.3871959 -0.052531123 -0.29507649
1.5647626 -0.059255317 -0.29493582
1.7972022 -0.068057477 -0.29558435
2.4455731 -0.092610352 -0.34393415
2.9365275 -0.1112021 -0.34344769
3.7021303 -0.14019437 -0.34580579
4.9280844 -0.18661949 -0.3447665
7.4181948 -0.28091642 -0.34559903
14.844266 -0.56213111 -0.3453832
0.87672335 -0.011062054 -0.29623306
0.94304824 -0.011898908 -0.29437312
1.0253651 -0.012937541 -0.29406035
1.1165514 -0.014088083 -0.29226601
1.1398405 -0.014381934 -0.27017945
1.147988 -0.014484735 -0.24403805
1.1474921 -0.014478478 -0.21614845
1.1341611 -0.014310275 -0.18641576
1.1344147 -0.014313474 -0.15943728
1.1345723 -0.014315462 -0.13261175
1.1423579 -0.014413698 -0.10663657
1.1355592 -0.014327914 -0.079392612
1.1332762 -0.014299109 -0.052763481
1.1313244 -0.014274483 -0.026305892
1.1280868 -0.014233632 3.2207623e-05
1.119176 -0.014121201 0.026087355
1.1392264 -0.014374186 0.053105708
1.1319028 -0.01428178 0.079201922
1.1359704 -0.014333103 0.10610574
1.1353307 -0.014325031 0.13276613
1.1442261 -0.014437269 0.16088286
1.0040708 -0.012668859 0.16509241
0.87730092 0.011069342 -0.2964282
0.95139956 0.012004281 -0.29697999
1.0320156 0.013021453 -0.29596764
1.125826 0.014205106 -0.29469371
1.1145566 0.014062913 -0.26418632
1.1412606 0.014399852 -0.24260794
1.138895 0.014370004 -0.21452907
1.1355097 0.01432729 -0.1866374
1.1374719 0.014352049 -0.15986696
1.1306956 0.014266548 -0.13215864
1.1302273 0.014260639 -0.1055042
1.1301446 0.014259596 -0.079014055
1.1340384 0.014308726 -0.052798972
1.1216254 0.014152105 -0.026080366
1.1245639 0.014189182 3.2107044e-05
1.1284206 0.014237843 0.026302841
1.1372408 0.014349132 0.053013142
1.1236534 0.014177694 0.078624703
1.1234456 0.014175072 0.10493586
1.1243868 0.014186947 0.13148634
1.1347744 0.014318013 0.15955392
1.0069648 0.012705375 0.16556826
0.87843657 0.033265136 -0.29700106
0.95627964 0.03621294 -0.29869351
1.0329697 0.039117083 -0.29642999
1.1204346 0.042429253 -0.29346931
1.1316559 0.04285419 -0.26841033
1.3820497 0.052336242 -0.29398179
1.5579213 0.058996249 -0.29364634
1.7944922 0.067954853 -0.29513863
2.4615171 0.093214132 -0.34617645
2.9531846 0.11183286 -0.3453958
3.6867085 0.13961038 -0.3443653
4.9308701 0.18672499 -0.34496137
7.4147673 0.28078663 -0.34543934
14.844723 0.56214839 -0.34539381
0.87598169 0.055333968 -0.29654878
0.94850498 0.059915118 -0.29664296
1.0282243 0.064950831 -0.29544458
1.1364294 0.071785919 -0.29803839
1.1422924 0.072156273 -0.27127868
1.3804591 0.087200776 -0.29401797
1.5565361 0.098323204 -0.29375944
1.7955999 0.11342438 -0.29569745
2.4813204 0.15673994 -0.34940654
2.9535849 0.18657191 -0.34588322
3.680125 0.23246597 -0.34418878
4.9309316 0.31147686 -0.34540567
7.4058337 0.46781135 -0.34546319
14.822277 0.93629289 -0.34531143
0.85319871 0.075549155 -0.28938934
0.94450945 0.083634548 -0.29595926
1.0311944 0.091310345 -0.29686564
1.1321915 0.10025346 -0.29749584
1.1219349 0.099345252 -0.26695451
1.366312 0.12098438 -0.29156238
1.5664426 0.13870557 -0.29619542
1.7959346 0.15902665 -0.29631919
2.4424679 0.21627599 -0.34459448
2.9278274 0.25925365 -0.34352374
3.6803424 0.32588747 -0.34486854
4.9241724 0.43602628 -0.34559301
7.3894324 0.65432048 -0.34535849
14.798778 1.3104042 -0.34542447
0.86986226 0.099200852 -0.29579636
0.94410473 0.10766761 -0.29658949
1.0138456 0.11562099 -0.29261804
1.1224412 0.12800546 -0.29568857
1.2328562 0.1405974 -0.29409793
1.376802 0.15701328 -0.29455271
1.541243 0.17576645 -0.29217625
1.7764261 0.20258722 -0.29385042
2.4537616 0.27983192 -0.34707373
2.9404263 0.33533216 -0.34588486
3.6712005 0.4186711 -0.34489223
4.9108896 0.56004781 -0.34554282
7.3716483 0.84067768 -0.34540898
14.781046 1.6856602 -0.34589347
0.88093543 0.12305177 -0.30052215
0.93472904 0.13056584 -0.29458556
1.02463 0.14312346 -0.29667875
1.1187264 0.15626714 -0.29565477
1.2414235 0.17340586 -0.2970911
1.3757836 0.19217369 -0.29527846
1.5421516 0.21541248 -0.29328576
1.7823101 0.24895857 -0.29576898
2.4344227 0.34004766 -0.34544227
2.9317906 0.40952152 -0.34597465
3.6590805 0.51111162 -0.34485567
4.894093 0.683622 -0.34546497
7.3465381 1.0261871 -0.34533602
14.714017 2.055299 -0.34542882
0.84282064 0.13949151 -0.28862882
0.93843615 0.15531641 -0.29689476
1.0157527 0.16811273 -0.29524291
1.1069492 0.18320626 -0.29367083
1.2400913 0.20524204 -0.2979171
1.3572612 0.22463429 -0.29242679
1.543503 0.25545835 -0.29467514
1.7643898 0.29201633 -0.29392457
2.4324672 0.40258691 -0.34649628
2.9116497 0.48189425 -0.34492332
3.6438446 0.60307658 -0.3447445
4.8741798 0.80670398 -0.34538656
7.3190837 1.2113491 -0.34537265
14.659349 2.426204 -0.34547299
0.86258066 0.16522276 -0.2967293
0.93608135 0.17930143 -0.29748672
1.0189736 0.19517899 -0.29751623
1.1195859 0.21445075 -0.29836422
1.2099946 0.23176806 -0.29199901
1.3475741 0.25812069 -0.29165041
1.3955327 0.26730692 -0.26762843
1.3883324 0.26592773 -0.23232238
1.3944072 0.2670913 -0.19952503
1.4020474 0.26855475 -0.16684082
1.391951 0.26662084 -0.13228714
1.4110516 0.27027947 -0.10043914
7.2865076 1.395692 -0.3453877
14.605009 2.7975123 -0.34574622
0.84349644 0.18374459 -0.29166675
0.93148589 0.20291194 -0.29755908
1.010947 0.22022149 -0.29670101
1.1024468 0.24015351 -0.29531798
1.2249454 0.26683822 -0.29713762
1.2309141 0.26813844 -0.26778156
1.2419029 0.27053219 -0.23939925
1.241426 0.2704283 -0.20881484
1.2279094 0.26748389 -0.17661071
1.2449403 0.27119383 -0.14891247
1.2322556 0.26843065 -0.11771652
1.324874 0.28860635 -0.09479329
7.2579799 1.5810553 -0.34581682
14.512525 3.1613624 -0.34533572
0.85605532 0.20923674 -0.29774061
0.92414767 0.22587985 -0.29694152
1.0067395 0.24606691 -0.29719421
1.1001718 0.26890361 -0.2964322
1.2098272 0.29570556 -0.29518676
1.2049062 0.29450276 -0.26365665
1.2059212 0.29475084 -0.23382269
1.2129887 0.2964783 -0.20522484
1.2004948 0.29342452 -0.1736775
1.2056381 0.29468164 -0.14505482
1.2056026 0.294673 -0.11584397
1.3055259 0.31909618 -0.093955256
7.2140074 1.7632452 -0.34573197
14.435013 3.5282011 -0.34550023
0.82983488 0.22516116 -0.29050502
0.91432387 0.24808578 -0.29570273
0.99633849 0.27033901 -0.29604372
1.0965806 0.29753795 -0.29739326
1.1882445 0.32240933 -0.29181325
1.1921606 0.32347193 -0.26257053
1.2187093 0.33067545 -0.23784477
1.2194908 0.33088747 -0.20767172
1.2004343 0.32571682 -0.17480241
1.1956867 0.32442865 -0.14479657
1.2112063 0.32863963 -0.11714212
1.3113345 0.35580766 -0.094989322
7.1699095 1.9454294 -0.34586161
14.344987 3.8922613 -0.34558669
0.83198482 0.24844438 -0.2933594
0.91171438 0.27225295 -0.29698649
0.99279922 0.2964662 -0.29712078
1.0829626 0.32339048 -0.29581943
1.1786771 0.3519724 -0.29155242
1.1922501 0.35602555 -0.26448509
1.2215285 0.36476856 -0.24011523
1.2018871 0.35890329 -0.20615086
1.1905451 0.35551637 -0.17461337
1.209955 0.36131251 -0.14758177
1.2055761 0.36000487 -0.11743896
1.3060167 0.38999811 -0.095286787
7.1134553 2.1241949 -0.34561446
14.241666 4.2527962 -0.3455734
0.8339709 0.27213711 -0.29638714
0.90506047 0.29533467 -0.29715246
0.96494567 0.31487611 -0.29107058
1.091367 0.35612926 -0.30047467
1.1894776 0.3881442 -0.29655275
1.2062854 0.39362884 -0.26971662
1.2119296 0.39547065 -0.24011391
1.1961417 0.39031884 -0.20678927
1.194453 0.38976777 -0.17657311
1.2044668 0.39303541 -0.14807516
1.2069284 0.39383864 -0.11850125
1.2998716 0.42416739 -0.095589072
7.0518246 2.301115 -0.34533188
14.114244 4.6056876 -0.34519219
0.82577467 0.29271504 -0.29600558
0.89861166 0.31853381 -0.29757994
0.97484779 0.34555748 -0.29659384
1.0659901 0.37786499 -0.29601935
1.1689389 0.41435757 -0.29394588
1.2115327 0.42945594 -0.27322641
1.2108721 0.42922178 -0.24197365
1.2086056 0.4284184 -0.21074624
1.2149066 0.4306519 -0.18114582
1.2012383 0.42580688 -0.14895204
1.2001979 0.42543808 -0.11885685
1.2703863 0.45031801 -0.094226599
6.9990187 2.4809649 -0.34570223
13.992815 4.9600787 -0.34517419
0.8059985 0.30881032 -0.29161763
0.87991744 0.33713162 -0.29411337
0.95800543 0.36705026 -0.29419446
1.0559212 0.40456572 -0.29596454
1.1729116 0.44938946 -0.29770222
1.2049823 0.46167701 -0.27428967
1.2112497 0.46407828 -0.24431196
1.1943804 0.45761499 -0.21021278
1.210047 0.46361747 -0.18210791
1.2001935 0.45984221 -0.15021376
1.2001185 0.45981348 -0.11996006
1.2625097 0.48371804 -0.094517805
6.9399214 2.6589618 -0.3459878
13.881142 5.3184214 -0.3456206
0.81124324 0.3345297 -0.29647565
0.8795079 0.36267978 -0.29694155
0.95293415 0.39295828 -0.29558867
1.0498434 0.43292046 -0.29722893
1.1556222 0.47654012 -0.29627231
1.207359 0.49787462 -0.27760261
1.2142725 0.50072557 -0.24739195
1.2132279 0.50029474 -0.21568362
1.2029994 0.49607688 -0.18287334
1.2163696 0.50159031 -0.15377383
1.2186023 0.50251096 -0.1230362
1.2565856 0.51817405 -0.09502314
6.8514662 2.8253164 -0.34502307
13.711102 5.6540017 -0.34483013
0.79060608 0.34961239 -0.29206535
0.86482716 0.38243356 -0.2951498
0.94903827 0.41967237 -0.297571
1.0306739 0.45577234 -0.29496452
1.1496807 0.50839806 -0.29794383
1.2059726 0.5332908 -0.28028932
1.1953883 0.52861035 -0.24618432
1.2130526 0.53642166 -0.21798994
1.2058275 0.53322667 -0.18529007
1.2052513 0.53297192 -0.15401977
1.2058201 0.53322339 -0.12306525
1.2265825 0.54240471 -0.093759663
6.7988043 3.0064862 -0.34608209
13.584397 6.0071301 -0.34534657
0.78433198 0.37077186 -0.29311126
0.86644077 0.40958658 -0.29913327
0.93060434 0.43991819 -0.29517844
1.0205116 0.48241943 -0.29544669
1.1186333 0.52880383 -0.29326317
1.2517442 0.59172839 -0.29430479
1.4137937 0.66833293 -0.29454395
1.626832 0.76904106 -0.29574141
1.9094368 0.90263492 -0.29681435
2.6744535 1.264276 -0.34573755
3.3493044 1.5832936 -0.34579617
4.4763727 2.1160848 -0.34614506
6.6975379 3.166081 -0.34488511
13.425373 6.3464837 -0.34526598
0.78034794 0.39327592 -0.29523775
0.85752475 0.43217111 -0.29972538
0.91662139 0.46195433 -0.29434764
1.0245062 0.51632559 -0.30028027
1.109485 0.55915278 -0.29447082
1.2269241 0.61833912 -0.29204547
1.3962209 0.70366055 -0.29448909
1.5967323 0.80471325 -0.29386818
1.86535 0.94008988 -0.293556
2.6316147 1.3262682 -0.34441718
3.303966 1.6651165 -0.34534422
4.4134431 2.2242653 -0.34550989
6.6123385 3.3324537 -0.34471911
13.271683 6.6885972 -0.34554487
0.75643164 0.4054718 -0.2899687
0.8309111 0.44539523 -0.29425871
0.89749092 0.48108414 -0.29201055
0.9930107 0.53228587 -0.2948927
1.1008544 0.59009355 -0.29603875
1.2281003 0.65830147 -0.296186
1.3675303 0.73304045 -0.29224691
1.588051 0.85124665 -0.29613024
1.8516862 0.99256372 -0.29525408
2.6099501 1.3990176 -0.34609279
3.2721732 1.7539907 -0.34653789
4.3656716 2.3401411 -0.34628356
6.5296969 3.5001285 -0.34490633
13.083117 7.0129738 -0.34513387
0.75991315 0.43236691 -0.29539239
0.82900369 0.47167727 -0.29770431
0.89901066 0.51150906 -0.29661098
0.98576897 0.56087184 -0.29685143
1.0782439 0.61348718 -0.29402861
1.1948843 0.67985201 -0.29222035
1.2204998 0.69442636 -0.26448715
1.2309141 0.70035183 -0.23275553
1.8380097 1.0457704 -0.2971873
2.5761905 1.4657722 -0.34641147
3.2216263 1.8330051 -0.34597406
4.297174 2.4449582 -0.34563497
6.4514933 3.6706989 -0.34555909
12.909246 7.3449593 -0.3453275
0.75332958 0.45415613 -0.29719427
0.81085044 0.48883349 -0.29552177
0.87364334 0.52668911 -0.29253417
0.97040063 0.58502072 -0.2965754
1.0610964 0.63969809 -0.29366186
1.1074551 0.66764617 -0.27487218
1.1602567 0.69947839 -0.25517672
1.2179826 0.73427927 -0.2337402
1.7976136 1.0837187 -0.29498428
2.5328722 1.5269804 -0.34565881
3.1591151 1.9045205 -0.34431335
4.2436829 2.5583684 -0.34641579
6.3615313 3.8351457 -0.345815
12.723001 7.6702542 -0.34541398
0.73716545 0.47017068 -0.29540482
0.80874687 0.51582593 -0.29940462
0.87278706 0.55667132 -0.29685742
0.95393509 0.6084283 -0.29614201
1.0459979 0.66714674 -0.29404962
1.1244649 0.71719372 -0.28349653
1.1429067 0.72895598 -0.25532588
1.1995989 0.76511484 -0.23384362
1.7728186 1.1307194 -0.29550442
2.4899676 1.5881236 -0.34516379
3.120307 1.9901595 -0.34544817
4.1747012 2.6626616 -0.34616038
6.2452087 3.9832497 -0.34484684
12.527327 7.9900403 -0.34546646
0.72198325 0.48654169 -0.29414809
0.78838408 0.53128892 -0.29673585
0.8565498 0.57722557 -0.29619554
0.93650794 0.631109 -0.29558268
1.0331373 0.69622719 -0.2952801
1.1170362 0.75276631 -0.28632244
1.1084268 0.74696445 -0.25175458
1.1054962 0.74498951 -0.21909527
1.1133188 0.75026113 -0.18867116
1.1113766 0.74895233 -0.15663148
1.1126993 0.7498436 -0.12524191
1.1092638 0.74752855 -0.093513235
1.1227891 0.75664318 -0.063032396
1.1075921 0.74640197 -0.031053722
1.1119237 0.74932098 3.8278864e-05
1.1220077 0.75611663 0.03153519
1.1157621 0.75190771 0.06271489
1.0549852 0.71095037 0.089010432
1.0855381 0.73153991 0.12226014
1.0798291 0.7276926 0.15226072
0.71958178 0.51178962 -0.29833731
0.77310359 0.54985607 -0.29611364
0.83792436 0.59595865 -0.29486227
0.91253978 0.64902753 -0.29309461
1.0082836 0.71712363 -0.29325631
1.1160252 0.79375291 -0.29110566
1.1416804 0.81199968 -0.26387814
1.4577885 1.0368259 -0.29400778
1.7185377 1.2222791 -0.29636952
2.4085841 1.7130622 -0.34543642
3.0117364 2.1420434 -0.34496683
4.0252409 2.8628805 -0.34531754
6.0483165 4.3017564 -0.34553227
12.109511 8.6126728 -0.34550071
1.0319827 0.73397911 0.088604428
1.009657 0.71810043 0.11571833
1.0124575 0.72009218 0.14527741
1.0625587 0.7557258 0.18331891
1.0986682 0.78140801 0.2216592
0.70629179 0.52967149 -0.29827482
0.74693668 0.56015241 -0.2914134
0.82491761 0.61863291 -0.2956855
0.86790663 0.65087175 -0.28394488
1.0022231 0.75160015 -0.29691634
1.1038719 0.82782996 -0.29329211
1.2563611 0.94218659 -0.29578653
1.4282396 1.0710839 -0.29340693
1.6955388 1.2715404 -0.29784289
2.3654821 1.773953 -0.345566
2.9586825 2.2188134 -0.34519443
3.9676397 2.9754636 -0.34670812
5.9293728 4.4466319 -0.34503877
11.885292 8.9131718 -0.34541181
0.99431044 0.74566615 0.057931475
0.99554461 0.74659169 0.087066039
0.98286605 0.73708367 0.11474339
0.97775477 0.7332505 0.14290793
0.9940179 0.74544674 0.17468418
1.0172727 0.76288629 0.20905551
1.0278294 0.77080309 0.24205901
0.68333995 0.53992546 -0.29424322
0.73702538 0.58234376 -0.29318744
0.80741823 0.63796306 -0.29509047
0.86911833 0.68671399 -0.28991932
0.97843969 0.77309173 -0.29555678
1.0815551 0.85456604 -0.29299992
1.2229972 0.96632332 -0.29358009
1.4036001 1.1090225 -0.29400176
1.648739 1.3027134 -0.29530352
1.9956391 1.5768086 -0.29725596
2.9114437 2.3004107 -0.34634668
3.8761952 3.0626872 -0.34536207
5.8288593 4.6055403 -0.34584376
11.662957 9.2152185 -0.34559959
0.97249615 0.7683956 0.11575997
0.97230381 0.76824361 0.14489906
0.95050687 0.75102127 0.1703146
0.98687208 0.77975446 0.20678657
0.97283161 0.76866066 0.23360121
0.6714834 0.55864537 -0.29511508
0.73106289 0.60821295 -0.29682752
0.79550695 0.66182762 -0.29674757
0.86178887 0.71697134 -0.29341725
0.89325798 0.74315232 -0.27540404
1.0670638 0.88775128 -0.29505008
1.2040522 1.0017197 -0.29500744
1.3822639 1.1499842 -0.29551804
1.6213924 1.3489288 -0.29640898
1.9434499 1.6168668 -0.2954666
2.842134 2.3645337 -0.34509107
3.7883742 3.1517646 -0.3445152
5.7056179 4.746829 -0.34552982
11.426055 9.5059872 -0.34557903
0.8906619 0.74099243 0.16289058
0.9278425 0.77192515 0.19843681
0.93831253 0.78063571 0.22997014
0.64968854 0.56885517 -0.29175341
0.71464527 0.6257301 -0.29647943
0.76743942 0.67195565 -0.29251078
0.85066968 0.74483049 -0.29593772
0.86404741 0.75654382 -0.27219841
0.86991143 0.76167822 -0.24577348
0.88144618 0.77177787 -0.22066733
0.87364125 0.76494396 -0.19084498
0.86986393 0.76163661 -0.16248345
0.87712771 0.76799661 -0.13625501
0.87257832 0.76401329 -0.10825505
0.8674888 0.75955701 -0.080607228
0.87811279 0.76885915 -0.054336011
0.86399138 0.75649476 -0.026700234
0.87684649 0.76775038 3.3272045e-05
0.88127536 0.77162826 0.027301282
0.86564618 0.75794363 0.053630438
0.86920494 0.76105964 0.080832981
0.86873543 0.76064855 0.10784479
0.8689543 0.76084012 0.13505219
0.87633133 0.76729935 0.16375934
0.64938486 0.59819859 -0.29830205
0.69812179 0.64309394 -0.29626378
0.75096148 0.69176865 -0.29279169
0.83032894 0.76488012 -0.29548323
0.87141699 0.80272949 -0.28081307
1.0210477 0.94056594 -0.2950865
1.1449151 1.0546697 -0.29319653
1.3150392 1.2113842 -0.29385266
1.5544301 1.4319057 -0.29701087
1.8477259 1.702083 -0.29360977
2.7206054 2.5061598 -0.34526503
3.6294022 3.3433228 -0.34497571
5.4580274 5.0278106 -0.34547487
10.910154 10.050186 -0.3448894
0.63047552 0.61089534 -0.29660398
0.68064749 0.65950918 -0.29581779
0.74015146 0.71716517 -0.29554006
0.80295366 0.77801704 -0.29263607
0.87930423 0.85199642 -0.29019183
1.0035433 0.972377 -0.29702571
1.0938102 1.0598407 -0.28686807
1.098464 1.0643499 -0.25138041
1.5022757 1.4556208 -0.29397166
1.8131236 1.756815 -0.29506323
2.6603737 2.5777528 -0.34576768
3.5474181 3.4372489 -0.345319
5.3329983 5.1673756 -0.34570596
10.661111 10.330017 -0.34514856
0.6041674 0.6157102 -0.29144531
0.66561228 0.67832893 -0.29662955
0.71245378 0.7260654 -0.29170474
0.78922862 0.80430704 -0.29493836
0.87286639 0.8895427 -0.29538253
0.97076166 0.9893083 -0.29461959
1.0761521 1.0967122 -0.28940427
1.0978866 1.118862 -0.25762865
1.4641286 1.4921012 -0.29378262
1.7777892 1.8117543 -0.29666001
2.5836794 2.6330414 -0.34432727
3.4702044 3.5365033 -0.3463811
5.2027202 5.3021197 -0.34582546
10.404256 10.603031 -0.34538677
0.59870791 0.64176416 -0.29653081
0.64908475 0.69576383 -0.29699528
0.7088967 0.75987715 -0.29800585
0.7658934 0.8209728 -0.29386765
0.84336102 0.90401155 -0.29302564
0.94934672 1.0176193 -0.29582095
1.0358325 1.1103247 -0.28600648
1.0975271 1.176456 -0.26442772
1.1013329 1.1805356 -0.22689269
1.7178192 1.8413565 -0.29431418
2.5283477 2.7101743 -0.34595898
3.3683324 3.6105666 -0.34519866
5.0661373 5.43047 -0.34574708
10.137616 10.866665 -0.34552982
0.5782758 0.65209973 -0.29446891
0.62952566 0.70989221 -0.29614958
0.69005072 0.778144 -0.29824448
0.74944288 0.84511834 -0.29564571
0.82266504 0.92768818 -0.29387641
0.91567808 1.0325755 -0.29335698
1.0059648 1.1343883 -0.28557399
1.0727832 1.2097369 -0.26573777
1.1140909 1.2563181 -0.23597832
1.6799479 1.8944135 -0.29592326
2.4533236 2.76652 -0.3451376
3.2772505 3.6956313 -0.3453134
4.9303036 5.5597162 -0.34594318
9.8552608 11.113403 -0.34535632
0.56122977 0.66599739 -0.29425454
0.60622942 0.71939737 -0.29363835
0.66525704 0.78944403 -0.29604584
0.7181924 0.85226107 -0.29171041
0.80221713 0.95197117 -0.2950609
0.88982534 1.0559337 -0.29351917
0.89356154 1.0603672 -0.26117912
1.0333705 1.2262751 -0.26355752
1.0951402 1.2995757 -0.23883572
1.0910736 1.29475 -0.19788618
2.3827848 2.8275917 -0.345144
3.1783562 3.7716763 -0.34481362
4.7801728 5.6725121 -0.34534469
9.572361 11.359282 -0.34537941
0.54999572 0.68712741 -0.29736248
0.59131265 0.73874599 -0.29535025
0.63829929 0.79744798 -0.29291272
0.70074981 0.87546939 -0.29350701
0.77517593 0.96845239 -0.29401156
0.87919897 1.0984117 -0.29906341
0.88476384 1.105364 -0.26667708
0.99225491 1.2396561 -0.26096785
1.0528032 1.3153009 -0.23676696
1.1007063 1.3751479 -0.20586251
1.1034774 1.3786099 -0.16482507
3.0928402 3.8639851 -0.34600607
4.6318483 5.7867179 -0.34507057
9.2799721 11.593768 -0.34527761
0.52513927 0.69111973 -0.29326102
0.57099807 0.75147313 -0.29458305
0.6186797 0.81422544 -0.29324639
0.68204033 0.89761251 -0.29506555
0.75745428 0.99686247 -0.29673824
0.83514863 1.0991137 -0.2934221
0.88205141 1.160841 -0.27460298
0.88408279 1.1635144 -0.24016497
1.01609 1.3372451 -0.2360256
1.0604725 1.3956555 -0.20486048
1.1003041 1.4480767 -0.16975617
2.9872253 3.931396 -0.34518123
4.4880195 5.9065456 -0.34535146
8.9815054 11.820286 -0.34516272
0.51343334 0.71233356 -0.29666948
0.55367881 0.76816988 -0.29555616
0.60037524 0.83295614 -0.29444119
0.65624851 0.9104743 -0.29375532
0.73495716 1.0196741 -0.29791203
0.81413174 1.1295203 -0.2959598
0.90345716 1.2534497 -0.29102334
0.89299399 1.2389332 -0.25100029
0.89268082 1.2384987 -0.21455175
1.01088 1.4024875 -0.20205395
1.0754849 1.4921197 -0.17168252
1.105762 1.534126 -0.13220559
4.3389754 6.0198622 -0.34546393
8.6938448 12.061776 -0.34569699
0.4912535 0.71914196 -0.29424751
0.53973532 0.7901141 -0.2986629
0.5824573 0.85265446 -0.29611352
0.63198519 0.92515796 -0.29325315
0.70403677 1.0306337 -0.29582834
0.77811569 1.1390772 -0.29322469
0.88128322 1.2901033 -0.29427552
0.89925641 1.3164141 -0.26201585
0.88922089 1.3017232 -0.22154598
0.89151514 1.3050817 -0.18472037
1.0319355 1.5106419 -0.17076258
1.0883762 1.5932651 -0.13489179
1.1076355 1.6214585 -0.091417789
8.3798151 12.267143 -0.34541127
0.47988978 0.74203473 -0.29856357
0.51491976 0.79620028 -0.2959567
0.55616868 0.85998183 -0.29368982
0.6032179 0.93273216 -0.29073557
0.67215908 1.0393332 -0.29336253
0.7518819 1.1626055 -0.29430264
0.84734136 1.3102107 -0.29389027
0.97166049 1.5024406 -0.29406732
0.90007716 1.391754 -0.23292823
0.88245887 1.3645116 -0.18991913
0.9693681 1.4988959 -0.16661613
1.0342371 1.5992004 -0.13314192
1.1030438 1.7055933 -0.094561592
1.1035749 1.7064145 -0.047248933
0.45648146 0.74649328 -0.29562771
0.49368668 0.80733567 -0.29537022
0.54311073 0.88815981 -0.29853645
0.59109682 0.96663249 -0.29655775
0.64824641 1.0600903 -0.29450956
0.72664148 1.1882913 -0.29606795
0.80915189 1.3232223 -0.29213497
0.92939967 1.5198658 -0.29279348
1.0960737 1.7924312 -0.29526287
0.90552181 1.4808179 -0.20286161
0.89475948 1.4632181 -0.16008894
0.98420954 1.6094975 -0.1318891
1.0435102 1.7064731 -0.09312053
1.0935608 1.788322 -0.04873712
0.43087754 0.74630028 -0.29115185
0.47687346 0.82596737 -0.29768857
0.51347721 0.88936687 -0.29449227
0.56659693 0.98137259 -0.29659823
0.62591726 1.0841184 -0.29670161
0.70150447 1.2150389 -0.29822594
0.77914804 1.3495213 -0.29350615
0.9040491 1.5658557 -0.29716292
1.0437897 1.8078932 -0.29337683
1.264444 2.1900768 -0.29555905
0.89697236 1.5535985 -0.16744716
0.89102644 1.5432999 -0.1245821
0.98769277 1.7107306 -0.091963246
1.0542315 1.8259789 -0.049022634
1.1004932 1.9061061 6.2834515e-05
0.4159863 0.76442391 -0.29403278
0.45037356 0.82761461 -0.29409179
0.49072203 0.90175962 -0.29440099
0.53654939 0.98597288 -0.29380223
0.59457827 1.0926077 -0.29482412
0.66135448 1.2153169 -0.29410356
0.74969071 1.3776451 -0.29541352
0.85792428 1.5765371 -0.29498678
1.0008552 1.8391896 -0.29426262
1.2012914 2.207515 -0.29372713
1.2927303 2.3755445 -0.25243971
0.90150273 1.6566178 -0.13185091
0.88973081 1.6349853 -0.086656682
0.99857134 1.8349926 -0.048572529
1.0746478 1.9747921 6.4184191e-05
1.097648 2.0170579 0.053523008
0.39956713 0.78053749 -0.29625744
0.42891714 0.83787155 -0.29379624
0.46705487 0.91237199 -0.29392359
0.51110476 0.99842155 -0.2935743
0.56562662 1.1049278 -0.29420269
0.63660717 1.2435852 -0.29696158
0.70898056 1.3849636 -0.29305243
0.81001502 1.5823301 -0.2921524
0.95802468 1.8714608 -0.29546311
1.1574332 2.2609968 -0.29686183
1.24421 2.4305117 -0.25486267
1.2416751 2.42556 -0.19049643
0.9025529 1.763099 -0.092210181
0.88918334 1.7369821 -0.045369681
1.0070812 1.9672904 6.3094158e-05
1.0792902 2.1083477 0.055204999
1.0953614 2.1397421 0.11204619
0.38356766 0.79832411 -0.29923874
0.41168192 0.8568387 -0.29670912
0.44230604 0.92057705 -0.29287729
0.48170942 1.0025878 -0.29113176
0.53750825 1.1187226 -0.29416987
0.59864682 1.2459711 -0.29382974
0.67295593 1.4006315 -0.29268062
0.77108902 1.6048771 -0.29262891
0.90760362 1.8890066 -0.29452291
1.0973011 2.2838264 -0.29612875
1.3666241 2.8443718 -0.29454923
1.8288612 3.8064315 -0.2952269
3.2072284 6.6752443 -0.34477234
0.89709347 1.8671318 -0.048162434
0.88557458 1.8431574 5.8377587e-05
1.0197016 2.1223176 0.054879431
1.1044683 2.2987437 0.11887465
0.35276881 0.78432655 -0.29056209
0.38526207 0.85657024 -0.29315567
0.43304393 0.96280575 -0.30273855
0.46614137 1.0363928 -0.29743701
0.50668603 1.1265376 -0.29276893
0.57210934 1.271996 -0.29646745
0.64173895 1.4268067 -0.29467186
0.73397958 1.6318893 -0.29408279
0.85890114 1.9096329 -0.29426527
1.0408626 2.3141959 -0.2965658
1.2915945 2.8716595 -0.29390568
1.7369704 3.8618834 -0.29603329
3.042908 6.7654324 -0.34535384
6.0939312 13.548907 -0.345415
0.89858955 1.9978739 6.2539628e-05
0.89662606 1.9935085 0.050947253
1.0939769 2.4322872 0.12431315
0.34163591 0.81386703 -0.29821637
0.36379921 0.86666584 -0.29337496
0.39899796 0.95051849 -0.29561442
0.42790455 1.0193816 -0.28936332
0.48624933 1.1583743 -0.29775855
0.53508639 1.2747172 -0.29386044
0.60645163 1.4447279 -0.29511794
0.69948608 1.6663606 -0.2970188
0.81388777 1.9388957 -0.29551503
0.97608036 2.3252811 -0.29473552
1.2231966 2.9139774 -0.29498315
1.6406596 3.9084845 -0.29633695
2.8778756 6.8558593 -0.34615186
5.7492299 13.696184 -0.3453604
1.0000044 2.3822746 7.3759002e-05
0.89841938 2.1402724 0.054101307
0.88821018 2.1159513 0.10696554
0.319529 0.81847894 -0.29685673
0.34528977 0.88446558 -0.29635593
0.37759596 0.96721846 -0.29774943
0.41299701 1.0578988 -0.29724333
0.45351192 1.1616784 -0.29557151
0.50174969 1.2852404 -0.2932736
0.52647036 1.3485628 -0.27267295
0.53469056 1.3696189 -0.241644
0.77216423 1.9779117 -0.29839626
0.92056715 2.3580482 -0.29584959
1.1531981 2.9539363 -0.29598761
1.5400983 3.944988 -0.29606318
2.6946006 6.9022651 -0.34495124
5.4044867 13.843684 -0.34553015
0.92936623 2.3805873 7.2957286e-05
0.90355247 2.3144648 0.057909612
0.89498663 2.2925234 0.11471318
0.29330623 0.81115276 -0.29142183
0.32073179 0.88699955 -0.29439887
0.34699142 0.95962179 -0.2926217
0.38665318 1.0693084 -0.2976124
0.42101565 1.1643394 -0.29345149
0.46947959 1.2983688 -0.29347205
0.48681816 1.3463194 -0.26964915
0.48987728 1.3547797 -0.2367691
0.52356529 1.4479455 -0.2163808
0.86287254 2.3863163 -0.29656944
1.0734349 2.9686372 -0.2946521
1.4402118 3.9829764 -0.29609191
2.522347 6.9756746 -0.34532845
5.0525818 13.973164 -0.345469
0.86179358 2.3833325 7.2351788e-05
0.89921021 2.48681 0.061634336
0.88961846 2.4602835 0.12194522
0.27161416 0.81489712 -0.29021177
0.29653862 0.88967556 -0.29270974
0.32705727 0.98123771 -0.29660156
0.35630819 1.0689963 -0.2949287
0.39105564 1.1732457 -0.29311526
0.43957624 1.3188173 -0.29549223
0.45940435 1.3783056 -0.27364609
0.46486148 1.394678 -0.24161454
0.66650307 1.9996434 -0.29621828
0.80037409 2.4012833 -0.2958248
1.0024378 3.0075154 -0.29590553
1.562978 4.6892486 -0.34555316
2.3459649 7.0383668 -0.34539086
4.6940761 14.083173 -0.34514982
0.79398239 2.382107 7.1683411e-05
0.89205456 2.6763432 0.065752871
0.88538337 2.6563284 0.13051312
0.25670999 0.84028924 -0.29685277
0.27435631 0.89805102 -0.29309377
0.30523416 0.99912345 -0.29958391
0.33344865 1.0914781 -0.29871425
0.35871327 1.1741768 -0.29099333
0.40339026 1.320418 -0.29347625
0.45905384 1.5026218 -0.29593304
0.52365696 1.7140872 -0.29456568
0.61864293 2.0250049 -0.29756749
0.7245726 2.3717446 -0.28984058
0.72961241 2.3882415 -0.23308994
0.72675544 2.3788898 -0.17389455
0.72518831 2.3737602 -0.11555158
0.72547925 2.3747125 -0.057732217
0.72792757 2.3827264 7.1126538e-05
0.87961304 2.8792388 0.070169866
0.8676511 2.8400838 0.13842154
0.23237054 0.83550918 -0.29299891
0.25297925 0.90960968 -0.29468846
0.27595547 0.99222273 -0.29533231
0.30223873 1.0867265 -0.29523218
0.33485287 1.2039937 -0.29619399
0.3713358 1.3351713 -0.29457846
0.42068163 1.5125986 -0.29571271
0.48042816 1.7274227 -0.29467976
0.56540978 2.0329816 -0.29654822
0.66333634 2.3850856 -0.28933281
0.66558546 2.3931723 -0.23185782
0.66142476 2.3782122 -0.17256977
0.66207558 2.3805523 -0.11503214
0.66394812 2.3872852 -0.057612136
0.66593474 2.3944283 7.0951537e-05
0.83522135 3.0031135 0.072651938
0.83354384 2.9970818 0.14500186
0.21138228 0.84176892 -0.29322979
0.23002785 0.9160195 -0.29479033
0.24965838 0.99419242 -0.29394946
0.27277458 1.086246 -0.29313794
0.30112404 1.1991396 -0.29303682
0.33703831 1.3421577 -0.2941494
0.38328308 1.5263141 -0.29640847
0.43940058 1.749786 -0.29650843
0.51304901 2.0430696 -0.2960366
0.5996061 2.3877583 -0.28772956
0.60003346 2.3894598 -0.2299577
0.60058385 2.3916519 -0.17239018
0.59758818 2.3797224 -0.11422685
0.59898794 2.3852963 -0.057181094
0.60300481 2.4012926 7.0681454e-05
0.78694636 3.1337864 0.075308725
0.78374535 3.1210396 0.14999427
0.19468898 0.86738467 -0.30034569
0.20641723 0.91963685 -0.29418415
0.22779985 1.0149013 -0.29827747
0.24625914 1.0971417 -0.29430726
0.27181524 1.2110002 -0.29416507
0.30224642 1.3465781 -0.29335293
0.34071782 1.5179771 -0.29302615
0.39276552 1.7498617 -0.29474759
0.46116716 2.0546069 -0.29592761
0.54924524 2.4470153 -0.29310638
0.55265009 2.4621847 -0.23553924
0.55098808 2.4547801 -0.17588209
0.55585241 2.4764519 -0.11815885
0.55109829 2.455271 -0.058506481
0.55117887 2.4556301 7.184851e-05
0.72996777 3.2521763 0.077686295
0.72529125 3.2313414 0.15436636
0.16743393 0.84522486 -0.29111651
0.18460302 0.93189627 -0.29652101
0.20078515 1.0135854 -0.29630703
0.2204017 1.112612 -0.29687044
0.2415345 1.2192926 -0.29460478
0.26846191 1.3552252 -0.29366708
0.30052575 1.517087 -0.29129738
0.34885898 1.7610785 -0.29505989
0.4078145 2.0586922 -0.29493961
0.49240443 2.4857116 -0.29615852
0.61348951 3.0969625 -0.2946887
0.66436261 3.3537755 -0.23901652
0.66875422 3.3759446 -0.16021995
0.66804814 3.3723803 -0.07993298
0.66802388 3.3722579 9.8143275e-05
0.6639176 3.3515289 0.079633944
0.14880855 0.8651911 -0.29660535
0.16299114 0.94765037 -0.30012926
0.17275359 1.0044104 -0.29225716
0.19153342 1.1135987 -0.29574966
0.20922004 1.2164308 -0.29254428
0.23235375 1.3509331 -0.29137346
0.26271999 1.527486 -0.29192793
0.3056542 1.7771108 -0.29635912
0.35664967 2.0736046 -0.29569227
0.42699826 2.48262 -0.2944124
0.53749198 3.1250441 -0.29597571
