# .PCD v0.7 - Point Cloud Data file format
VERSION 0.7
FIELDS x y z intensity
SIZE 4 4 4 4
TYPE F F F F
COUNT 1 1 1 1
WIDTH 1349
HEIGHT 1
VIEWPOINT 0 0 0 1 0 0 0
POINTS 1349
DATA ascii
-1.4652605 -0.58142257 -0.056279555 0
-0.88614595 -0.35162705 0.034036197 0
-0.88280886 -0.35030288 0.10207114 0
-0.88447762 -0.35096505 0.1716136 0
-1.6014199 -0.63545126 0.43956396 0
-1.6062707 -0.63737607 0.57493109 0
-1.4494256 -0.59637046 -0.055955347 0
-0.8656708 -0.35618284 0.033419386 0
-0.87565589 -0.36029124 0.1017606 0
-0.87037849 -0.35811985 0.1697395 0
-1.6457912 -0.67716569 0.45404768 0
-1.4463488 -0.61651146 -0.056131821 0
-0.86488479 -0.3686603 0.033565596 0
-0.86976647 -0.37074113 0.10161065 0
-0.87010485 -0.37088537 0.1705834 0
-1.6828527 -0.71732211 0.46672735 0
-1.4241953 -0.62837505 -0.055574737 0
-0.86041641 -0.37962782 0.033575039 0
-0.84666783 -0.37356177 0.099453807 0
-0.85518742 -0.37732074 0.16857697 0
-1.7206495 -0.75917476 0.47982329 0
-1.424225 -0.64993316 -0.055890821 0
-0.85749537 -0.39131084 0.033650666 0
-0.84483826 -0.38553488 0.09980125 0
-0.82705587 -0.37742004 0.16395544 0
-1.4182394 -0.66890419 -0.055982031 0
-0.83124906 -0.39205369 0.032811817 0
-0.83508784 -0.39386424 0.099227443 0
-0.84470993 -0.39840245 0.16843635 0
-1.4175124 -0.69051194 -0.056292094 0
-0.84113336 -0.40974078 0.033402994 0
-0.82386011 -0.40132648 0.098486014 0
-0.83088362 -0.40474784 0.16668244 0
-1.4059987 -0.70694435 -0.056183923 0
-0.82348496 -0.41405302 0.032906584 0
-0.82460034 -0.41461384 0.099190749 0
-0.82457441 -0.41460079 0.16645087 0
-1.3951477 -0.72363806 -0.056109995 0
-0.81939751 -0.42500678 0.032954495 0
-0.82070309 -0.42568395 0.099358864 0
-0.81503165 -0.42274228 0.16558599 0
-1.3849471 -0.74062401 -0.056070376 0
-0.8104521 -0.43340304 0.098770708 0
-0.79820395 -0.42685312 0.16324627 0
-1.3740964 -0.75722337 -0.056012675 0
-0.7915563 -0.43620297 0.032266431 0
-0.80618149 -0.44426247 0.098924175 0
-0.7941578 -0.43763658 0.16353285 0
-1.3622969 -0.77324104 -0.055924162 0
-0.79459971 -0.45101553 0.098192111 0
-0.79239482 -0.44976407 0.16432302 0
-1.3567456 -0.7928412 -0.056101665 0
-0.79132336 -0.46242553 0.032721356 0
-0.78591084 -0.45926258 0.097825281 0
-0.78313994 -0.45764339 0.16358587 0
-1.3461151 -0.80953664 -0.056079164 0
-0.77385575 -0.46538708 0.16285774 0
-1.3184303 -0.8156662 -0.05534932 0
-0.76431292 -0.47285333 0.16208969 0
-1.3168977 -0.83782768 -0.05572347 0
-0.74971002 -0.47697535 0.16025385 0
-1.3128791 -0.85868216 -0.056006514 0
-1.3109539 -0.88118809 -0.056393262 0
-0.74481606 -0.50064546 0.16185196 0
-1.2867492 -0.88864303 -0.055828989 0
-0.73672646 -0.50879133 0.16147348 0
-1.2836524 -0.91058707 -0.056187663 0
-1.2643151 -0.92101741 -0.055844463 0
-1.2567611 -0.93996221 -0.05602916 0
-1.2429988 -0.95430887 -0.055946909 0
-1.2336226 -0.97204161 -0.056071367 0
-1.2283683 -0.99322426 -0.056396548 0
-1.2050829 -0.99975014 -0.055901028 0
-1.196803 -1.0185922 -0.056107476 0
-1.1774939 -1.028003 -0.055804692 0
-1.1653914 -1.0435845 -0.055849481 0
-1.1562711 -1.061952 -0.056048807 0
-1.1535935 -1.0865856 -0.056577776 0
-1.1232424 -1.0850106 -0.05575487 0
-1.1029707 -1.0926079 -0.055427171 0
-1.1029356 -1.1204376 -0.056129958 0
-1.0780791 -1.1231292 -0.055580311 0
-1.082239 -1.1562591 -0.056540929 0
-1.0589226 -1.1602921 -0.05608166 0
-1.0383438 -1.166919 -0.055765573 0
-1.0223873 -1.1785389 -0.055701219 0
-0.61662275 -0.71080095 0.033594545 0
-1.0140725 -1.1991295 -0.056066424 0
-0.58728224 -0.69445467 0.03246988 0
-1.0008206 -1.2141404 -0.05617458 0
-0.57919353 -0.70264572 0.032509279 0
-0.98201919 -1.2223705 -0.055978794 0
-0.58261704 -0.72521389 0.033211369 0
-0.96977913 -1.238763 -0.056165803 0
-0.5886941 -0.75197786 0.034094851 0
-0.60526717 -0.77314776 0.10552292 0
-0.61431408 -0.78470391 0.17972921 0
-0.61098409 -0.78045034 0.25287744 0
-0.61198872 -0.78173363 0.3302964 0
-0.6123054 -0.78213811 0.41126463 0
-0.94964796 -1.2450324 -0.055903442 0
-0.58594674 -0.76820332 0.034493249 0
-0.59650433 -0.78204477 0.10570367 0
-0.59794581 -0.78393465 0.17781436 0
-0.59094447 -0.77475554 0.24860144 0
-0.59338975 -0.77796143 0.32551968 0
-0.59480286 -0.77981406 0.40607205 0
-0.59643257 -0.78195065 0.49206078 0
-0.94082612 -1.2662176 -0.056318272 0
-0.58055842 -0.78134871 0.034752484 0
-0.57292724 -0.77107829 0.10323808 0
-0.58489746 -0.78718841 0.1768678 0
-0.58622324 -0.7889728 0.25077489 0
-0.57676893 -0.77624863 0.32173854 0
-0.57944953 -0.77985632 0.40226266 0
-0.57520193 -0.77413964 0.4825494 0
-0.91562444 -1.2652724 -0.055758994 0
-0.58538097 -0.80891943 0.035648085 0
-0.58216393 -0.80447388 0.1067194 0
-0.584499 -0.80770069 0.17980859 0
-0.58017379 -0.80172384 0.25248569 0
-0.58314085 -0.80582386 0.3309271 0
-0.58887303 -0.81374496 0.41588512 0
-0.55611885 -0.76848304 0.47462073 0
-0.90773237 -1.2882129 -0.05626177 0
-2.0255311 -2.8745425 0.12554358 0
-0.54938126 -0.77965713 0.47721151 0
-0.88589996 -1.2914636 -0.055912107 0
-1.9845712 -2.8931048 0.12525292 0
-0.54011822 -0.7873835 0.47773987 0
-0.8716417 -1.305621 -0.056045402 0
-1.9547042 -2.9279265 0.12568487 0
-0.51771951 -0.77548546 0.4665283 0
-0.86111635 -1.3257036 -0.056437533 0
-1.9275457 -2.9674902 0.12633127 0
-0.50042778 -0.77041733 0.45965195 0
-0.84049445 -1.3303292 -0.056179434 0
-1.8949903 -2.9993784 0.12666291 0
-0.49291167 -0.78017735 0.46173531 0
-0.82443023 -1.3420321 -0.056230783 0
-1.85948 -3.026917 0.126827 0
-1.1909384 -1.9386449 0.24451753 0
-1.2163833 -1.980065 0.41910201 0
-0.47695118 -0.77639532 0.45590633 0
-0.80495197 -1.3480941 -0.056055635 0
-1.835623 -3.0742114 0.12783 0
-1.1692557 -1.9582123 0.24510905 0
-1.1865511 -1.9871776 0.41741189 0
-0.46188521 -0.77354276 0.45078024 0
-0.79718477 -1.3741025 -0.056715194 0
-1.7941006 -3.0924804 0.12764013 0
-1.1541148 -1.9893408 0.24716672 0
-0.45066994 -0.77681702 0.44934565 0
-0.77145988 -1.3691936 -0.056107182 0
-0.44535026 -0.79041147 0.45392939 0
-0.75185132 -1.3745798 -0.055935502 0
-0.43350613 -0.79256195 0.45199361 0
-0.7343291 -1.3836454 -0.055923697 0
-0.40841019 -0.769539 0.43589631 0
-0.7183944 -1.3957843 -0.056044251 0
-0.40773293 -0.79219323 0.44578496 0
-0.69865227 -1.4004883 -0.055875454 0
-0.62535602 -1.2535617 0.050013509 0
-0.40238345 -0.80660051 0.45100522 0
-0.68029022 -1.4077817 -0.055820245 0
-0.55910069 -1.156994 0.045876209 0
-0.66391045 -1.4192283 -0.055938192 0
-0.53654999 -1.1469723 0.045207355 0
-0.64875025 -1.433579 -0.056177378 0
-0.51718652 -1.1428555 0.044784855 0
-0.62645054 -1.4320379 -0.055803444 0
-0.49483186 -1.1311636 0.044079017 0
-0.61445898 -1.4542233 -0.056361981 0
-0.48467559 -1.1470685 0.044457447 0
-0.52138788 -1.2339544 0.14396431 0
-0.59028882 -1.4475943 -0.055812549 0
-0.47508886 -1.1650838 0.044920247 0
-0.49906549 -1.2238828 0.1420448 0
-0.56933922 -1.4481059 -0.055551458 0
-0.46614933 -1.1856439 0.045483034 0
-0.47742555 -1.2143248 0.14022665 0
-0.55947727 -1.4773852 -0.056399923 0
-0.44703788 -1.1804718 0.045065105 0
-0.46823025 -1.2364335 0.14208755 0
-0.33605906 -0.88741523 0.39288533 0
-0.53612185 -1.4713886 -0.055908848 0
-0.44663647 -1.2257956 0.046576969 0
-0.45628932 -1.2522879 0.14323787 0
-0.31789181 -0.87245542 0.38445944 0
-0.28343019 -0.7778753 0.4909859 0
-0.51597142 -1.4735063 -0.055738021 0
-0.43138275 -1.2319388 0.046600293 0
-0.43922946 -1.2543473 0.14282948 0
-0.29984155 -0.85628468 0.37564 0
-0.26730072 -0.7633549 0.47965825 0
-0.50003815 -1.4878033 -0.056036208 0
-0.41667065 -1.2397534 0.046693724 0
-0.42925793 -1.2772052 0.14480528 0
-0.80498642 -2.3951402 0.45570442 0
-0.28727353 -0.85474777 0.37334928 0
-0.26066968 -0.77559119 0.485246 0
-0.4809716 -1.4930699 -0.056002013 0
-0.41066885 -1.2748306 0.047816299 0
-0.41597158 -1.2912916 0.14579692 0
-0.77345133 -2.4010084 0.45493177 0
-0.27391729 -0.85031551 0.36987737 0
-0.25126663 -0.78000164 0.48598728 0
-0.462069 -1.4987969 -0.055994149 0
-0.38656816 -1.2538975 0.046844851 0
-0.39444119 -1.2794349 0.14388601 0
-0.74676222 -2.4222462 0.45713788 0
-0.26980937 -0.87517112 0.37918136 0
-0.23776105 -0.77121717 0.47861069 0
-0.44337592 -1.5052267 -0.05602134 0
-0.37168497 -1.2618417 0.046963062 0
-0.38108668 -1.2937596 0.14494582 0
-0.71993089 -2.4441094 0.4595167 0
-0.26700422 -0.90645856 0.39124936 0
-0.22866444 -0.77629799 0.47993883 0
-0.42270929 -1.5047139 -0.055799723 0
-0.35969535 -1.2804039 0.04748157 0
-0.36690074 -1.3060528 0.1457939 0
-0.69108933 -2.4600635 0.46084356 0
-0.25996539 -0.92539614 0.39797878 0
-0.22017825 -0.78376621 0.48280364 0
-0.40132526 -1.5009248 -0.055467416 0
-0.34534782 -1.2915738 0.04773074 0
-0.35523602 -1.3285549 0.14779474 0
-0.66689461 -2.4941335 0.46561581 0
-0.24951923 -0.9331823 0.39994439 0
-0.20856602 -0.78002053 0.4788405 0
-0.38890553 -1.5314975 -0.056411788 0
-0.64155859 -2.526437 0.47010097 0
-0.23932572 -0.94245696 0.40259582 0
-0.19875309 -0.78268325 0.47890073 0
-0.36440197 -1.5147024 -0.055619724 0
-0.61759609 -2.5671494 0.47619164 0
-0.19078118 -0.79301637 0.483715 0
-0.34795138 -1.5308305 -0.056046616 0
-0.58796036 -2.5867627 0.47841847 0
-0.18117468 -0.79708755 0.4847683 0
-0.32779634 -1.5311086 -0.055901244 0
-0.55819392 -2.607276 0.4808743 0
-0.17007101 -0.7943871 0.48178527 0
-0.30720258 -1.5286989 -0.055667616 0
-0.52842766 -2.6295571 0.48371816 0
-0.20828936 -1.0364878 0.43772262 0
-0.15904738 -0.79145026 0.47875154 0
-0.28955293 -1.5410832 -0.055981379 0
-0.49957991 -2.6589065 0.48792118 0
-0.19490793 -1.0373555 0.43701795 0
-0.14887273 -0.79234308 0.47811973 0
-0.26857015 -1.5357111 -0.055658966 0
-0.47246048 -2.7015765 0.49462035 0
-0.18232216 -1.0425364 0.4381986 0
-0.13827369 -0.79066283 0.47601742 0
-0.25261414 -1.5599779 -0.056418709 0
-0.16994591 -1.0494735 0.44018006 0
-0.12528065 -0.77365047 0.46478853 0
-0.23039258 -1.5458612 -0.055798817 0
-0.15610316 -1.0474029 0.43845233 0
-0.11609506 -0.77896106 0.46706372 0
-0.21215177 -1.5577571 -0.056127332 0
-0.37804452 -2.7758503 0.10001627 0
-0.3798995 -2.7894709 0.30254987 0
-0.14636034 -1.0746734 0.44906095 0
-0.10663281 -0.78296793 0.46862394 0
-0.19315951 -1.5654805 -0.056313507 0
-0.13345161 -1.0815719 0.45120555 0
-0.096411042 -0.7813729 0.46690565 0
-0.17246373 -1.5590276 -0.055998821 0
-0.087663785 -0.79245794 0.47283235 0
-0.15350774 -1.5681007 -0.056250829 0
-0.076123655 -0.77761257 0.46336597 0
-0.13302915 -1.5614331 -0.055947125 0
-0.11420852 -1.5747075 -0.056366757 0
-0.056869093 -0.78411126 0.46623698 0
-0.093551598 -1.56232 -0.055876747 0
-0.073915347 -1.5642772 -0.055909023 0
-0.12382574 -2.6205351 0.093660876 0
-0.036837004 -0.77958483 0.46284702 0
-0.05396812 -1.5580044 -0.055656124 0
-0.048157733 -1.3902644 0.049664002 0
-0.027182765 -0.7847386 0.46566671 0
-0.034706879 -1.5749053 -0.056239802 0
-0.029921494 -1.3577572 0.048485454 0
-0.017295904 -0.78484184 0.46556184 0
-0.01480764 -1.5681721 -0.055988263 0
-0.01270613 -1.3456161 0.048042372 0
-0.018883614 -1.9998295 0.21492986 0
-0.0074545103 -0.78945434 0.46820512 0
0.0049264599 -1.5643414 -0.055849284 0
0.0042589428 -1.3523788 0.048281912 0
0.0057199406 -1.8163022 0.1951977 0
0.0057159476 -1.8150343 0.32734069 0
0.0057057082 -1.8117828 0.46224609 0
0.0024625761 -0.78196311 0.4637439 0
0.024914833 -1.5826924 -0.056511164 0
0.021497762 -1.3656261 0.048760656 0
0.030561958 -1.941421 0.20866901 0
0.012322569 -0.78278017 0.46428367 0
0.044010311 -1.5529462 -0.055464439 0
0.038556974 -1.36052 0.048591819 0
0.054300055 -1.9160296 0.20599703 0
0.021967219 -0.7751345 0.45987645 0
0.064605966 -1.5778062 -0.056376923 0
0.078001112 -1.9049425 0.068065889 0
0.077357642 -1.8892276 0.20320411 0
0.031934951 -0.77991503 0.46291456 0
0.083679609 -1.5621623 -0.055851165 0
0.10028042 -1.8720723 0.066931218 0
0.10076937 -1.8812003 0.20246112 0
0.057809599 -1.0792111 0.35956201 0
0.056297749 -1.0509874 0.43577039 0
0.10359245 -1.5647603 -0.055986252 0
0.12340067 -1.8639628 0.066691548 0
0.12317215 -1.8605111 0.20038553 0
0.12324262 -1.8615756 0.33646765 0
0.071164086 -1.074931 0.35840616 0
0.069736294 -1.0533644 0.43708542 0
0.052365195 -0.79097444 0.47011262 0
0.12250586 -1.5534335 -0.055631768 0
0.14527264 -1.8421273 0.06597051 0
0.14437754 -1.830777 0.19736318 0
0.14475489 -1.835562 0.33206901 0
0.15090151 -1.9135041 0.48971188 0
0.084677204 -1.0737479 0.35833874 0
0.082551122 -1.0467881 0.43475351 0
0.061849382 -0.78428006 0.46655974 0
0.14267419 -1.5585235 -0.05587396 0
0.16534744 -1.8061982 0.064753242 0
0.16614006 -1.8148565 0.19585693 0
0.16656685 -1.8195186 0.32951993 0
0.1758661 -1.9211003 0.49218366 0
0.098815903 -1.0794307 0.36062193 0
0.097053103 -1.0601745 0.4407858 0
0.072536767 -0.7923665 0.4718762 0
0.16131334 -1.5472685 -0.055538882 0
0.18784913 -1.8017918 0.064674944 0
0.18638693 -1.7877667 0.1931714 0
0.18655975 -1.7894244 0.32446951 0
0.20156026 -1.9333047 0.49592134 0
0.11219663 -1.0761559 0.35997134 0
0.10830989 -1.0388755 0.43246311 0
0.082655206 -0.79280365 0.47271889 0
0.1812451 -1.5490682 -0.05568099 0
0.20824388 -1.7798216 0.063975386 0
0.20686761 -1.7680589 0.19130823 0
0.20709032 -1.7699624 0.32138792 0
0.23120946 -1.9761041 0.50760663 0
0.12376908 -1.0578313 0.35433507 0
0.11842573 -1.0121627 0.42193046 0
0.091184743 -0.77933902 0.46533823 0
0.20385486 -1.5706989 -0.056546286 0
0.22922811 -1.7661994 0.063584447 0
0.22740221 -1.7521309 0.18987955 0
0.22775878 -1.7548782 0.3191444 0
0.25936735 -1.9984218 0.51413763 0
0.12964524 -0.99891484 0.41705543 0
0.10203975 -0.78621477 0.47017363 0
0.21941459 -1.5385491 -0.055483941 0
0.24772859 -1.7370886 0.062643774 0
0.24618797 -1.7262857 0.1873998 0
0.24876951 -1.7443876 0.31778109 0
0.14714679 -1.0318027 0.43152577 0
0.11138019 -0.78100497 0.46785969 0
0.24013625 -1.5444555 -0.055801563 0
0.2675359 -1.7206784 0.062168542 0
0.26398864 -1.6978641 0.18466067 0
0.26687163 -1.7164061 0.31327096 0
0.1608973 -1.0348238 0.43360224 0
0.12099744 -0.77820468 0.46705785 0
0.25993413 -1.5435086 -0.055881184 0
0.28446057 -1.6891485 0.061153933 0
0.28372231 -1.6847646 0.18360998 0
0.28563765 -1.6961381 0.31020361 0
0.13117176 -0.77890795 0.46843415 0
0.28063056 -1.5471835 -0.056137715 0
0.30666316 -1.6907076 0.061345313 0
0.30508888 -1.6820281 0.18371587 0
0.30431339 -1.6777526 0.30751756 0
0.30345607 -1.673026 0.43380708 0
0.14047734 -0.77448529 0.46680117 0
0.29953113 -1.5406568 -0.05603331 0
0.33245125 -1.7099835 0.06219168 0
0.32139182 -1.6530986 0.18098378 0
0.32184812 -1.6554456 0.3041476 0
0.32166368 -1.6544968 0.43001872 0
0.15663245 -0.80564862 0.4867343 0
0.31861228 -1.5353472 -0.055981681 0
0.36284694 -1.7485077 0.063753918 0
0.33829039 -1.6301732 0.17892607 0
0.34089324 -1.6427159 0.3025735 0
0.34078705 -1.6422043 0.4279052 0
0.16480589 -0.7941761 0.48101878 0
0.33752736 -1.5294397 -0.05591682 0
0.39006379 -1.7674983 0.064620316 0
0.35701308 -1.6177353 0.17804021 0
0.3583996 -1.6240182 0.29993701 0
0.35826412 -1.6234041 0.42414838 0
0.17336304 -0.78556097 0.47708511 0
0.35519537 -1.5183882 -0.055671882 0
0.41685304 -1.7819623 0.065335855 0
0.37365782 -1.5973114 0.17629631 0
0.37251946 -1.5924451 0.29494882 0
0.37768441 -1.6145242 0.42303735 0
0.18540306 -0.79256046 0.48271564 0
0.3778275 -1.5281208 -0.056198716 0
0.45141318 -1.8257376 0.067143977 0
0.39468497 -1.5963007 0.17671928 0
0.39027432 -1.5784619 0.29324585 0
0.3909359 -1.5811377 0.4155463 0
0.19493614 -0.78841794 0.48164946 0
0.39325285 -1.5087188 -0.055662885 0
0.48163056 -1.8477809 0.068172291 0
0.40930039 -1.5702854 0.17439599 0
0.41159806 -1.5791005 0.29430404 0
0.407399 -1.5629908 0.41209263 0
0.2021063 -0.77538306 0.47520342 0
0.41923442 -1.5292405 -0.056610294 0
0.42975825 -1.5676283 0.17468806 0
0.4253577 -1.5515765 0.29014954 0
0.42544591 -1.5518981 0.41054794 0
0.21348318 -0.77872223 0.47885942 0
0.4346875 -1.5107428 -0.056123707 0
0.44562009 -1.5487386 0.17319466 0
0.44136429 -1.5339477 0.28786939 0
0.43946242 -1.5273378 0.40548241 0
0.22448404 -0.78018725 0.48146039 0
0.44866788 -1.4885373 -0.055504266 0
0.4600634 -1.5263439 0.17132455 0
0.45837337 -1.5207371 0.28645068 0
0.45563504 -1.5116522 0.40280938 0
0.47467655 -1.5059352 -0.056371406 0
0.47359499 -1.5025039 0.16930458 0
0.47334829 -1.5017213 0.28396904 0
0.47282836 -1.5000716 0.40127829 0
0.46853453 -1.4864494 0.51851815 0
0.49153122 -1.4935515 -0.056135088 0
0.49719918 -1.510774 0.1709284 0
0.48993793 -1.4887102 0.28265291 0
0.49102247 -1.4920057 0.4007428 0
0.48949039 -1.4873503 0.52094126 0
0.51165491 -1.4911991 -0.056284364 0
0.51041132 -1.4875747 0.16901742 0
0.50215125 -1.4635012 0.27904505 0
0.50437939 -1.469995 0.39650536 0
0.50771421 -1.4797142 0.52046466 0
0.52760011 -1.4768282 -0.055988267 0
0.54156989 -1.5159317 0.17300044 0
0.5253104 -1.470419 0.28160298 0
0.51976371 -1.4548932 0.39416605 0
0.51894575 -1.4526036 0.51318675 0
0.5417974 -1.4583433 -0.055541724 0
0.55948687 -1.5059576 0.1726525 0
0.53208238 -1.4321935 0.27554366 0
0.53511459 -1.4403554 0.39202189 0
0.5344165 -1.4384763 0.51053274 0
0.56782329 -1.4713755 -0.056305915 0
0.58758974 -1.5225953 0.17539431 0
0.55074811 -1.4271293 0.27588171 0
0.54926705 -1.4232914 0.38922918 0
0.54418528 -1.4101232 0.50286204 0
0.58604687 -1.4634655 -0.056281157 0
0.61659443 -1.5397483 0.17825052 0
0.56416589 -1.4088246 0.27369481 0
0.56677079 -1.4153296 0.38897276 0
0.56911224 -1.4211766 0.50931901 0
0.59843439 -1.4415346 -0.055723138 0
0.65371847 -1.5747052 0.18323576 0
0.58056623 -1.3984929 0.27308625 0
0.58269966 -1.403632 0.38774374 0
0.58184594 -1.4015757 0.50488013 0
0.62300944 -1.4489369 -0.056308065 0
0.68313289 -1.5887663 0.18585818 0
0.59243786 -1.3778363 0.2704879 0
0.59053165 -1.3734031 0.38141713 0
0.59332794 -1.3799064 0.49972612 0
0.35425243 -0.82388705 0.4487147 0
0.63942581 -1.4369817 -0.056151919 0
0.71540147 -1.6077218 0.18911448 0
0.6129269 -1.3774306 0.27190188 0
0.6059671 -1.3617899 0.38028091 0
0.61283004 -1.377213 0.50150555 0
0.37283772 -0.83787823 0.45885533 0
0.65687162 -1.4275196 -0.056100942 0
0.62842184 -1.3656923 0.27112529 0
0.61680579 -1.3404481 0.37646028 0
0.61584473 -1.3383595 0.49014229 0
0.37716511 -0.8196587 0.45144272 0
0.68024558 -1.4306011 -0.056554198 0
0.63880593 -1.3434508 0.26828545 0
0.63323092 -1.3317262 0.37622035 0
0.63072056 -1.3264468 0.48864943 0
0.37302545 -0.78449696 0.43462935 0
0.68951946 -1.4042348 -0.0558507 0
0.65623438 -1.3364484 0.268516 0
0.6497367 -1.3232156 0.37609759 0
0.64998019 -1.3237114 0.49061802 0
0.65252835 -1.3289009 0.61296493 0
0.38309428 -0.78018731 0.43487981 0
0.706155 -1.3934864 -0.055772446 0
0.66855818 -1.3192949 0.26673988 0
0.65873915 -1.2999187 0.37180412 0
0.66633779 -1.3149134 0.49042815 0
0.66378224 -1.3098704 0.6079942 0
0.40732649 -0.8037951 0.45086217 0
0.72580552 -1.3886187 -0.055938985 0
0.68660915 -1.3136277 0.26732093 0
0.67569619 -1.292749 0.37215754 0
0.67573458 -1.2928224 0.48532394 0
0.67220157 -1.2860631 0.60082495 0
0.42409706 -0.81138694 0.45807973 0
0.74284846 -1.3786573 -0.055910084 0
0.69559991 -1.2909685 0.26447132 0
0.6933099 -1.2867184 0.37290516 0
0.6945883 -1.289091 0.48716792 0
0.69652599 -1.2926872 0.60796899 0
0.43044439 -0.79886454 0.45403412 0
0.76102459 -1.3707726 -0.055974521 0
0.73067415 -1.3161049 0.2714842 0
0.70982814 -1.2785566 0.37310064 0
0.71226341 -1.282943 0.48819533 0
0.7053321 -1.2704582 0.60164386 0
0.44971806 -0.81004113 0.46356806 0
0.77307069 -1.352069 -0.055603873 0
0.75060207 -1.3127723 0.27272481 0
0.7219308 -1.2626274 0.37107563 0
0.72258157 -1.2637655 0.48432174 0
0.72267216 -1.263924 0.60281116 0
0.45034468 -0.78763437 0.45395452 0
0.7985667 -1.3567252 -0.056204442 0
0.78657335 -1.336349 0.27965835 0
0.7357536 -1.2500088 0.37006065 0
0.73075432 -1.2415153 0.47928312 0
0.73344523 -1.2460871 0.59866148 0
0.46417698 -0.78861368 0.45785141 0
0.81635481 -1.3478317 -0.056257412 0
0.81280887 -1.3419772 0.28295562 0
0.74818158 -1.2352751 0.36845872 0
0.74613404 -1.2318946 0.47915822 0
0.7412979 -1.22391 0.59244454 0
0.46872023 -0.77387428 0.45268485 0
0.82999337 -1.3322014 -0.056036804 0
0.84291333 -1.3529388 0.28748205 0
0.76079112 -1.2211266 0.36706689 0
0.74749255 -1.1997813 0.47029123 0
0.75260752 -1.2079912 0.58927959 0
0.48645201 -0.78079176 0.460278 0
0.84600782 -1.3205621 -0.055990886 0
0.87562102 -1.3667864 0.29274416 0
0.76763481 -1.198227 0.36306024 0
0.76850051 -1.1995784 0.47396734 0
0.76758313 -1.1981463 0.58914548 0
0.50480551 -0.78796792 0.46821848 0
0.86233193 -1.3094463 -0.055975549 0
0.9102754 -1.3822482 0.29848725 0
0.78544509 -1.1926942 0.36435169 0
0.78073603 -1.1855434 0.47226894 0
0.78438282 -1.191081 0.59048122 0
0.51352561 -0.77978587 0.46716198 0
0.88381231 -1.3059635 -0.056297943 0
0.93505144 -1.3816769 0.30088261 0
0.80313963 -1.1867576 0.36559865 0
0.79667449 -1.1772045 0.47290584 0
0.79723614 -1.1780343 0.58894342 0
0.53309923 -0.78773302 0.47590697 0
0.89345467 -1.2850502 -0.055876967 0
0.8170929 -1.1752195 0.3651849 0
0.81406683 -1.1708672 0.4744404 0
0.8104791 -1.1657069 0.58783615 0
0.55260628 -0.79481012 0.48434812 0
0.91151273 -1.2764273 -0.055996671 0
0.58229166 -0.81540596 0.035771739 0
0.58285171 -0.81619018 0.10778493 0
0.57851452 -0.81011671 0.17953239 0
0.58203363 -0.81504464 0.25552219 0
0.58429223 -0.81820744 0.33449596 0
0.58432692 -0.81825602 0.41630298 0
0.55932927 -0.78325087 0.48155794 0
0.92486852 -1.2612438 -0.055837065 0
0.57726359 -0.78721476 0.034851123 0
0.58051395 -0.7916472 0.10550079 0
0.58535779 -0.79825276 0.17852254 0
0.57846981 -0.78885961 0.24957685 0
0.58668512 -0.80006289 0.33007219 0
0.57307523 -0.78150302 0.40124381 0
0.57470316 -0.783723 0.48625898 0
0.94140673 -1.2504694 -0.055880453 0
0.57271528 -0.76073706 0.033995498 0
0.58372337 -0.77535909 0.10430142 0
0.57854688 -0.76848316 0.17348035 0
0.58898485 -0.78234792 0.24984334 0
0.58950287 -0.78303599 0.32608426 0
0.58809984 -0.78117228 0.40484408 0
0.58667225 -0.77927607 0.48804477 0
0.95939821 -1.2415206 -0.056015979 0
0.58384269 -0.75552857 0.034088574 0
0.60577673 -0.7839126 0.10646972 0
0.60691512 -0.78538573 0.17900702 0
0.60258561 -0.77978301 0.25142753 0
0.60079885 -0.77747089 0.32689133 0
0.59806097 -0.77392793 0.40496045 0
0.97595435 -1.2306031 -0.056073431 0
0.57021123 -0.71899241 0.032761473 0
0.88189894 -1.1120065 0.36209914 0
0.86478072 -1.0904218 0.46301484 0
0.86713582 -1.0933913 0.57778847 0
0.98893315 -1.2152205 -0.055935498 0
0.58392668 -0.71754062 0.033027742 0
0.89187825 -1.0959575 0.36050159 0
0.88737518 -1.0904241 0.46772343 0
0.8846277 -1.0870478 0.58027685 0
1.0094596 -1.2090245 -0.056230936 0
0.58397353 -0.69942206 0.032529663 0
0.90420204 -1.0829581 0.35994235 0
0.89110959 -1.0672773 0.46257141 0
0.90352374 -1.0821457 0.58368713 0
1.010512 -1.1797676 -0.055457629 0
0.60540903 -0.70681196 0.033225287 0
0.91894543 -1.0728641 0.36040485 0
0.91027182 -1.0627377 0.4655349 0
0.91462582 -1.067821 0.58212662 0
1.0372542 -1.1805718 -0.056104962 0
0.61480725 -0.69975519 0.033254851 0
0.9321959 -1.0609975 0.3603332 0
0.92113543 -1.0484087 0.46430227 0
0.9237116 -1.0513409 0.57943749 0
1.0506697 -1.1659008 -0.05603205 0
0.94558877 -1.0492952 0.36037418 0
0.93607056 -1.0387331 0.46520051 0
0.93296915 -1.0352916 0.57702118 0
1.0711335 -1.158927 -0.05634065 0
0.95258999 -1.0306673 0.35806784 0
0.94578701 -1.0233067 0.46358874 0
0.95108896 -1.0290433 0.58016765 0
1.0777428 -1.1370158 -0.055930767 0
0.95911366 -1.0118624 0.3557024 0
0.96843648 -1.021698 0.46834737 0
0.96048689 -1.0133111 0.57807106 0
1.0885969 -1.1198817 -0.055757806 0
0.99115455 -1.019639 0.36279479 0
0.96745509 -0.99525845 0.46177527 0
0.97432029 -1.002321 0.5787546 0
1.1031165 -1.106593 -0.055783354 0
0.99451762 -0.99765188 0.35939893 0
0.99340665 -0.99653739 0.46813554 0
0.98256397 -0.98566055 0.57623315 0
1.1094218 -1.0852395 -0.05540676 0
1.0048211 -0.9829188 0.35862112 0
0.99091136 -0.96931225 0.46117118 0
1.0049999 -0.98309368 0.58208477 0
1.1299497 -1.0778151 -0.055749729 0
1.0245564 -0.97728455 0.36124393 0
1.0166379 -0.96973133 0.46742424 0
1.0178812 -0.97091728 0.58241814 0
1.1439267 -1.0639632 -0.055773895 0
1.0349823 -0.96263427 0.36061746 0
1.0078969 -0.93744218 0.45794165 0
1.0243716 -0.95276535 0.57922119 0
1.1595002 -1.0515319 -0.05588318 0
1.0446162 -0.94734544 0.35978919 0
1.0358632 -0.93940747 0.46523672 0
1.040537 -0.94364607 0.58159673 0
1.1637589 -1.028989 -0.055459548 0
1.0585109 -0.93592936 0.3604871 0
1.0527433 -0.93082964 0.46751669 0
1.0384018 -0.91814893 0.57389563 0
1.1832041 -1.0199274 -0.055769753 0
1.3715781 -1.1823065 0.064648673 0
1.3725684 -1.1831602 0.19474825 0
1.3102279 -1.1294224 0.31197158 0
1.0763595 -0.92782688 0.36255801 0
1.0597765 -0.9135322 0.4654946 0
1.0583019 -0.91226107 0.57849926 0
1.2085598 -1.0155423 -0.056357659 0
1.3937877 -1.1711879 0.064995229 0
1.3920853 -1.1697574 0.195412 0
1.138813 -0.95693481 0.26826644 0
1.095637 -0.9206543 0.3651174 0
1.0621107 -0.8924824 0.46154693 0
1.0837024 -0.91062582 0.58606935 0
1.213869 -0.99419862 -0.056017004 0
1.0143199 -0.83076137 0.046808317 0
1.0086997 -0.82615817 0.14012332 0
0.99725723 -0.81678647 0.23247933 0
1.003226 -0.82167512 0.33084756 0
1.0886735 -0.89165938 0.46817368 0
1.0810723 -0.88543373 0.57857138 0
1.216848 -0.97129834 -0.055585653 0
0.89571506 -0.71496725 0.04091629 0
0.89910591 -0.7176739 0.12363395 0
0.91013509 -0.7264775 0.21002032 0
0.90784848 -0.72465229 0.29636082 0
1.0932517 -0.87264276 0.46538013 0
1.0938046 -0.87308401 0.57945573 0
1.2474692 -0.97027957 -0.056421842 0
0.87778229 -0.68273765 0.039701253 0
0.89098734 -0.69300848 0.12130801 0
0.88385653 -0.68746215 0.20194276 0
0.88669986 -0.68967372 0.28659928 0
1.1070468 -0.86105925 0.46659994 0
1.1078782 -0.8617059 0.58111703 0
1.2446948 -0.94321018 -0.055754747 0
0.89705324 -0.67977285 0.040182523 0
0.90263838 -0.6840052 0.12171197 0
0.9054482 -0.6861344 0.20488571 0
0.88496763 -0.67061454 0.2832875 0
1.1273415 -0.85428166 0.47058249 0
1.1183195 -0.84744495 0.58095032 0
1.2557821 -0.92695379 -0.055724122 0
0.89556313 -0.6610586 0.03973975 0
0.90304732 -0.66658306 0.12062573 0
0.91194105 -0.67314792 0.20442066 0
0.90785158 -0.67012936 0.28788885 0
1.1272206 -0.83205622 0.46612149 0
1.1385522 -0.84042066 0.58591688 0
1.262307 -0.9074403 -0.055502214 0
0.90731037 -0.65224224 0.039893407 0
0.91250032 -0.6559732 0.12077549 0
0.91627407 -0.65868598 0.20351656 0
0.90897918 -0.65344191 0.28561449 0
1.1501393 -0.82680577 0.47125614 0
1.1525177 -0.82851553 0.58768827 0
1.2734956 -0.89137828 -0.055496231 0
0.9251321 -0.64754266 0.040315293 0
0.91618294 -0.64127874 0.12018459 0
0.92547154 -0.6477803 0.20373152 0
0.92126781 -0.64483786 0.28690162 0
1.1646544 -0.81519538 0.47296003 0
1.1656058 -0.81586134 0.58907676 0
1.2921389 -0.88039708 -0.055821132 0
0.92480719 -0.63011611 0.039952192 0
0.93385631 -0.63628173 0.12144231 0
0.94542241 -0.64416224 0.20632146 0
0.9269827 -0.63159841 0.28618187 0
1.166126 -0.79453838 0.46945742 0
1.1741202 -0.79998517 0.58824217 0
1.3068599 -0.86653638 -0.055981264 0
0.95002508 -0.62993079 0.040695719 0
0.95120072 -0.6307103 0.1226553 0
0.94132823 -0.62416416 0.20369662 0
0.94867259 -0.62903398 0.29040965 0
1.2015719 -0.79672331 0.47965029 0
1.1919723 -0.79035807 0.59215301 0
1.3037603 -0.84104162 -0.055390432 0
0.95355612 -0.6151287 0.040511962 0
0.94994694 -0.61280048 0.12148897 0
0.9578622 -0.61790651 0.20557445 0
0.94167352 -0.60746336 0.2859028 0
1.2030209 -0.77605581 0.47629002 0
1.2010487 -0.77478349 0.59176838 0
1.3350753 -0.83762687 -0.056268279 0
0.96570021 -0.6058808 0.04070054 0
0.97057927 -0.60894191 0.12313724 0
0.9669407 -0.60665911 0.20586704 0
0.96211821 -0.60363346 0.28977931 0
1.2058372 -0.75654292 0.4735958 0
1.2147046 -0.76210636 0.59372139 0
1.3364667 -0.81523019 -0.055889834 0
0.96292377 -0.58737308 0.040268607 0
0.9719767 -0.59289527 0.12235763 0
0.98631805 -0.60164332 0.20836309 0
0.96936733 -0.59130359 0.28969711 0
1.232682 -0.75192261 0.48038232 0
1.2232584 -0.74617434 0.59326267 0
1.3544319 -0.80296582 -0.05621383 0
0.98495424 -0.58392346 0.040879168 0
0.98620623 -0.58466572 0.12321235 0
0.9775902 -0.57955778 0.20496133 0
0.98953474 -0.58663899 0.29349324 0
1.249392 -0.74069369 0.48322126 0
1.2334799 -0.73126024 0.59370708 0
1.3689924 -0.78847325 -0.056401603 0
0.99244291 -0.57159895 0.040888004 0
1.0066168 -0.57976246 0.12484039 0
1.0086339 -0.58092415 0.20991962 0
0.99053413 -0.5704996 0.29163584 0
1.2689881 -0.73087561 0.4872022 0
1.2543006 -0.72241628 0.59930259 0
1.3730693 -0.76796162 -0.056166697 0
1.0010098 -0.55986768 0.040947255 0
1.0167023 -0.56864458 0.12519321 0
1.0191354 -0.57000536 0.21059468 0
0.99989963 -0.55924678 0.29229671 0
1.2618912 -0.70577949 0.48102728 0
1.270995 -0.71087122 0.60295439 0
1.3706596 -0.74411362 -0.055680428 0
1.0117502 -0.54926622 0.041100416 0
1.0203189 -0.55391812 0.12476977 0
1.0080428 -0.54725355 0.20686214 0
1.0053328 -0.54578239 0.2918528 0
1.2749351 -0.692146 0.4826389 0
1.2797867 -0.69477981 0.60292691 0
1.3828247 -0.72832608 -0.055797622 0
1.3046125 -0.68713218 0.37619337 0
1.2890399 -0.6789301 0.48470354 0
1.2988099 -0.68407595 0.60778266 0
1.3924506 -0.71114552 -0.055820271 0
1.3184726 -0.6733638 0.37771505 0
1.2974039 -0.66260368 0.48467278 0
1.3130186 -0.67057836 0.61043185 0
1.3989019 -0.69237232 -0.055724967 0
1.3358791 -0.66117984 0.38028637 0
1.3274308 -0.65699846 0.49276036 0
1.3079681 -0.64736563 0.60424614 0
1.411155 -0.67645139 -0.055869322 0
1.3409718 -0.64280838 0.37940183 0
1.33162 -0.63832551 0.49129269 0
1.3335612 -0.63925606 0.61230218 0
1.4244071 -0.66087836 -0.056060072 0
1.3591025 -0.63057911 0.38225466 0
1.3531499 -0.62781727 0.49627993 0
1.3441976 -0.62366372 0.61353135 0
1.437072 -0.64489084 -0.056234464 0
1.3692034 -0.61443454 0.38288915 0
1.3648654 -0.61248785 0.49770859 0
1.3713585 -0.61540169 0.62234205 0
1.4322239 -0.62117022 -0.055734251 0
1.3803039 -0.59865201 0.38385481 0
1.3770232 -0.59722918 0.49936008 0
1.3759105 -0.5967465 0.62094849 0
1.4349009 -0.60098052 -0.05553953 0
1.4045811 -0.58828169 0.38851532 0
1.3908736 -0.58254051 0.50168282 0
1.374606 -0.57572722 0.61703908 0
1.4484088 -0.58531249 -0.05577267 0
1.406863 -0.56852353 0.38713562 0
1.3957788 -0.56404424 0.5008505 0
1.3971865 -0.56461316 0.62393415 0
1.4551023 -0.56681013 -0.055751156 0
1.4157212 -0.55146992 0.38763157 0
1.4135052 -0.55060667 0.50468343 0
1.409839 -0.5491786 0.62644655 0
1.4753517 -0.55340552 -0.056255542 0
1.441313 -0.54063755 0.39274359 0
1.4018017 -0.5258168 0.4981012 0
1.4184746 -0.53207088 0.62725687 0
1.4899418 -0.53757745 -0.05654927 0
1.4357526 -0.51802576 0.38942006 0
1.4305514 -0.51614916 0.50596732 0
1.4309573 -0.51629555 0.629852 0
1.4837018 -0.51430631 -0.056062188 0
1.4521047 -0.50335354 0.39210501 0
1.4339149 -0.49704826 0.50490314 0
1.4398943 -0.49912098 0.63096923 0
1.495265 -0.49731508 -0.056258027 0
1.4525666 -0.48311386 0.3905561 0
1.4460624 -0.48095062 0.50700778 0
1.4460549 -0.48094815 0.63096499 0
1.5006937 -0.47822076 -0.056231249 0
1.4610887 -0.46559995 0.39124006 0
1.4512694 -0.46247089 0.50675148 0
1.4568074 -0.46423566 0.63305575 0
1.4972129 -0.4564268 -0.055881038 0
1.4743453 -0.44945559 0.39324313 0
1.4708564 -0.448392 0.51157868 0
1.4730688 -0.44906646 0.63761437 0
1.5067289 -0.43867078 -0.056025594 0
1.4822631 -0.43154776 0.39387438 0
1.4816169 -0.43135965 0.51339138 0
1.4780916 -0.43033329 0.6373924 0
1.5181577 -0.42133656 -0.056248825 0
1.4839617 -0.41184607 0.39291653 0
1.4820427 -0.4113135 0.51170367 0
1.4899949 -0.41352049 0.64022917 0
1.5120944 -0.39921802 -0.055833492 0
1.5028483 -0.39677688 0.3965629 0
1.4926345 -0.39408028 0.51360667 0
1.4937923 -0.39438593 0.63967621 0
1.5173874 -0.38024408 -0.055847704 0
1.5085402 -0.37802702 0.39677727 0
1.514866 -0.37961221 0.51957035 0
1.5115268 -0.37877545 0.64517695 0
1.5308045 -0.36318403 -0.05616875 0
1.5248896 -0.3617807 0.3998476 0
1.5207022 -0.36078727 0.51997268 0
1.5071509 -0.3575722 0.64133644 0
1.543789 -0.34579185 -0.056480937 0
1.5235081 -0.34124914 0.39832702 0
1.521652 -0.3408334 0.51878875 0
1.5254762 -0.34168997 0.6472522 0
1.5317509 -0.32289657 -0.055887323 0
1.5327487 -0.32310691 0.39964756 0
1.5469116 -0.32609248 0.52595907 0
1.5487088 -0.32647136 0.65531343 0
1.5450903 -0.30544168 -0.056229234 0
1.5425107 -0.30493173 0.40115991 0
1.5406421 -0.30456233 0.52248204 0
1.5326105 -0.30297461 0.6468361 0
1.5412762 -0.28457123 -0.055955589 0
1.5397357 -0.2842868 0.39947554 0
1.5488757 -0.28597435 0.52401149 0
1.5592166 -0.28788364 0.65648311 0
1.5535944 -0.26666242 -0.056276426 0
1.5507972 -0.2661823 0.40144396 0
1.5421734 -0.26470208 0.52057505 0
1.5313843 -0.26285025 0.64332026 0
1.5471643 -0.24554582 -0.055927075 0
1.5685433 -0.24893881 0.40519419 0
1.5549108 -0.24677524 0.52378422 0
1.5615287 -0.24782555 0.65462071 0
1.5643771 -0.22812274 -0.056440968 0
1.5653661 -0.22826697 0.40359893 0
1.5653176 -0.22825989 0.52627993 0
1.5578583 -0.22717217 0.65183121 0
1.5500197 -0.20613243 -0.055824898 0
1.5600051 -0.20746034 0.40151131 0
1.5639307 -0.20798242 0.5248915 0
1.5599018 -0.20744662 0.65154159 0
1.5691831 -0.18860559 -0.056425069 0
1.5614557 -0.1876768 0.40124461 0
1.5750513 -0.18931091 0.5277819 0
1.5530975 -0.1866722 0.64766634 0
1.5616651 -0.16778322 -0.056074314 0
1.5815164 -0.16991602 0.4058176 0
1.5712749 -0.16881567 0.52576244 0
1.5736544 -0.16907133 0.65529913 0
1.5517441 -0.14697859 -0.05564722 0
1.5825933 -0.14990057 0.40557739 0
1.5781997 -0.14948443 0.52740788 0
1.5828377 -0.14992373 0.6582849 0
1.5629069 -0.12820254 -0.055985197 0
1.5932975 -0.13069543 0.40786651 0
1.5824568 -0.12980619 0.52824241 0
1.5850705 -0.13002059 0.65848041 0
1.5670898 -0.10870027 -0.056081556 0
1.6694999 -0.11580388 0.059746515 0
1.6658126 -0.11554811 0.17945388 0
1.6615714 -0.11525392 0.30038226 0
1.5940232 -0.11056849 0.40766355 0
1.6000137 -0.11098402 0.53359431 0
1.5958074 -0.11069225 0.66230923 0
1.5617201 -0.088584922 -0.055845048 0
1.6489807 -0.093534574 0.05896537 0
1.6545188 -0.093848713 0.1780958 0
1.6398935 -0.09301912 0.29622805 0
1.5832845 -0.089808114 0.40459588 0
1.5878443 -0.090066753 0.52911568 0
1.5894912 -0.090160169 0.65916437 0
1.5605038 -0.068816587 -0.055766143 0
1.6376368 -0.072218068 0.058522567 0
1.6378641 -0.072228096 0.17619118 0
1.6435732 -0.072479859 0.29670435 0
1.5956012 -0.070364341 0.40748459 0
1.6002165 -0.070567869 0.53290009 0
1.596135 -0.070387885 0.66149956 0
1.5669394 -0.049341761 -0.055969488 0
1.6184789 -0.050964702 0.057810426 0
1.615448 -0.050869264 0.17369713 0
1.6298906 -0.051324047 0.29409435 0
1.5962217 -0.050263837 0.40744913 0
1.6092672 -0.050674636 0.53565919 0
1.6023808 -0.050457783 0.66377205 0
1.5604089 -0.029475439 -0.055718549 0
1.6289663 -0.030770458 0.058166575 0
1.6285689 -0.03076295 0.17505237 0
1.6382139 -0.030945141 0.29550242 0
1.5934304 -0.0300992 0.40660763 0
1.6125692 -0.030460725 0.53658807 0
1.601604 -0.030253597 0.66323996 0
1.5573821 -0.0098050516 -0.055601653 0
1.6418439 -0.010336811 0.058617108 0
1.6549841 -0.010419539 0.17786351 0
1.643993 -0.010350342 0.29649788 0
1.6083759 -0.010126101 0.41035631 0
1.602662 -0.010090128 0.53320688 0
1.6096932 -0.010134394 0.66648406 0
1.582046 0.009960332 -0.056482203 0
1.6486847 0.01037988 0.058861341 0
1.6400592 0.010325574 0.17625952 0
1.6583674 0.010440839 0.2990903 0
1.6054558 0.010107717 0.40961128 0
1.6003506 0.010075575 0.53243786 0
1.6103121 0.010138291 0.6667403 0
1.5741091 0.02973423 -0.05620775 0
1.6733762 0.031609342 0.059752345 0
1.6687499 0.031521954 0.17937139 0
1.6669412 0.031487789 0.3006843 0
1.6077656 0.030369984 0.41026562 0
1.5998498 0.03022046 0.53235567 0
1.5918202 0.030068785 0.65918839 0
1.5579057 0.049057297 -0.055646811 0
1.6054145 0.050553314 0.40979564 0
1.6055064 0.050556205 0.53440738 0
1.6141585 0.050828658 0.66865093 0
1.5751274 0.069461472 -0.05628873 0
1.6121837 0.071095616 0.41171944 0
1.6114128 0.071061619 0.53662866 0
1.6025013 0.07066863 0.66413796 0
1.5620228 0.088602096 -0.05585587 0
1.6015428 0.090843774 0.40926167 0
1.601748 0.090855405 0.53374881 0
1.6149858 0.091606289 0.66973698 0
1.5727067 0.10908988 -0.056282572 0
1.6015471 0.11109038 0.40958777 0
1.5972296 0.11079089 0.53266579 0
1.6159345 0.11208835 0.67066258 0
1.5623797 0.1281593 -0.055966314 0
1.5980155 0.13108246 0.40907428 0
1.6020527 0.13141361 0.53478372 0
1.6020633 0.13141447 0.66553962 0
1.5606847 0.14782542 -0.055967841 0
1.600566 0.15160292 0.41018334 0
1.5995007 0.151502 0.53452629 0
1.606488 0.15216383 0.6681208 0
1.5580381 0.16739354 -0.055944085 0
1.5924238 0.17108789 0.40861642 0
1.598627 0.17175435 0.53491467 0
1.5894762 0.17077121 0.66188765 0
1.5500952 0.18631135 -0.055738702 0
1.6043512 0.19283256 0.41226739 0
1.5741408 0.18920147 0.52747679 0
1.5968295 0.19192851 0.66590333 0
1.5512431 0.20629512 -0.055868957 0
1.5922673 0.21175079 0.40981489 0
1.5908498 0.21156228 0.53392613 0
1.6011378 0.21293047 0.66876507 0
1.5445913 0.2252375 -0.055727117 0
1.6129097 0.23519993 0.41585711 0
1.5830182 0.23084106 0.53223103 0
1.572793 0.22934999 0.65808004 0
1.5585334 0.24735017 -0.056338042 0
1.5862377 0.25174704 0.40976509 0
1.5756428 0.25006557 0.53076798 0
1.5751739 0.24999113 0.66034102 0
1.5263962 0.26199403 -0.055291213 0
1.5956427 0.27387968 0.4130528 0
1.5852108 0.27208912 0.53510273 0
1.5861541 0.27225104 0.66632849 0
1.5540142 0.28692308 -0.056418035 0
1.5818228 0.29205748 0.41039482 0
1.5726192 0.29035819 0.53204435 0
1.5720068 0.29024512 0.66186821 0
1.540228 0.30448046 -0.056052282 0
1.57902 0.31214908 0.41065487 0
1.5736705 0.31109154 0.533683 0
1.5671518 0.30980289 0.66141415 0
1.5186385 0.32013246 -0.055408906 0
1.5748049 0.33197248 0.41061327 0
1.5688351 0.33071402 0.53341323 0
1.5747628 0.3319636 0.66633779 0
1.536819 0.34423062 -0.056225929 0
1.5502205 0.34723243 0.40531108 0
1.5734011 0.35242462 0.53643197 0
1.5602994 0.34948999 0.66202748 0
1.5311103 0.3632566 -0.056179971 0
1.5595788 0.37001073 0.40894359 0
1.5510262 0.36798164 0.53034133 0
1.5575167 0.36952153 0.66276854 0
1.5149635 0.37963668 -0.055758495 0
1.5505158 0.38854572 0.40781772 0
1.5574285 0.39027801 0.53416848 0
1.546717 0.38759381 0.6601975 0
1.5133927 0.39956078 -0.055881429 0
1.5415905 0.40700546 0.40678594 0
1.5362133 0.40558583 0.52860188 0
1.549029 0.40896937 0.66332984 0
1.5072179 0.41830039 -0.055843491 0
1.542254 0.42802402 0.40835088 0
1.5344484 0.42585772 0.52979773 0
1.549263 0.42996925 0.66569585 0
1.4952326 0.43532372 -0.055598121 0
1.5319401 0.4460108 0.40707481 0
1.5345309 0.44676507 0.53172648 0
1.5339737 0.44660285 0.6614902 0
1.4878341 0.45356765 -0.055530988 0
1.525635 0.46509132 0.40692332 0
1.5308679 0.46668658 0.53245133 0
1.5341616 0.46769065 0.66405815 0
1.4898683 0.47477105 -0.055825617 0
1.522796 0.485264 0.4077636 0
1.5159018 0.48306707 0.5293197 0
1.5039622 0.47926232 0.65354687 0
1.4888771 0.49519047 -0.056017682 0
1.5015215 0.49939594 0.40371874 0
1.498685 0.49845254 0.52545792 0
1.5134994 0.5033797 0.66039342 0
1.4808061 0.51330251 -0.055952772 0
1.4970831 0.51894474 0.40425032 0
1.4846152 0.51462287 0.5227555 0
1.4982181 0.51933813 0.65652698 0
1.4747276 0.5320881 -0.055971831 0
1.4851955 0.53586495 0.40283051 0
1.4872371 0.53660154 0.52601624 0
1.4804488 0.53415233 0.65163618 0
1.469498 0.55120975 -0.056032337 0
1.4686962 0.55090904 0.40020522 0
1.4697828 0.55131662 0.52225691 0
1.4758583 0.55359554 0.6526323 0
1.4644657 0.57045746 -0.056109905 0
1.4783945 0.57588321 0.40479183 0
1.4665118 0.57125455 0.52360916 0
1.4646821 0.57054174 0.65081543 0
1.451313 0.58648604 -0.055884495 0
1.4702719 0.5941475 0.40458429 0
1.4618119 0.59072876 0.52454537 0
1.4709139 0.5944069 0.65685827 0
1.4555209 0.60961682 -0.056337651 0
1.4583163 0.61078763 0.40337878 0
1.4581501 0.61071801 0.52594918 0
1.4537387 0.60887039 0.65256047 0
1.4481676 0.62808514 -0.056354687 0
1.4394554 0.62430662 0.40030456 0
1.4340868 0.62197822 0.52005345 0
1.4426106 0.62567508 0.65105027 0
1.4294858 0.64148647 -0.055937603 0
1.4244704 0.63923579 0.39834422 0
1.4293463 0.64142388 0.52122205 0
1.4463786 0.64906716 0.65638727 0
1.419441 0.65857422 -0.055864621 0
1.4199421 0.65880674 0.39936611 0
1.4214861 0.65952307 0.52134287 0
1.4164205 0.65717274 0.646496 0
1.4039081 0.67297757 -0.055582412 0
1.4084589 0.67515904 0.39849597 0
1.4089601 0.67539924 0.51982683 0
1.3979185 0.67010635 0.64185172 0
1.4012126 0.69351596 -0.055817012 0
1.3831331 0.68456769 0.39373821 0
1.3830484 0.68452585 0.51340634 0
1.3988069 0.69232535 0.64621121 0
1.3992109 0.71459806 -0.056091279 0
1.3815008 0.70555329 0.39577135 0
1.3729806 0.70120186 0.51290607 0
1.3830848 0.70636225 0.64300609 0
1.3863652 0.73019087 -0.055940483 0
1.3511575 0.71164721 0.38961497 0
1.3712077 0.72220749 0.5156002 0
1.3738265 0.7235868 0.64288688 0
1.385064 0.75193352 -0.056265574 0
1.3576127 0.73703063 0.39412129 0
1.3698997 0.7437011 0.51858866 0
1.3588885 0.73772323 0.64019299 0
1.373291 0.76808566 -0.056175768 0
1.4185343 0.79339039 0.058026493 0
1.4181436 0.79317182 0.17462531 0
1.406774 0.78681284 0.29069656 0
1.3497274 0.75490648 0.39456049 0
1.3549278 0.75781506 0.51649237 0
1.3456805 0.75264305 0.63838482 0
1.3465806 0.77556509 -0.055478252 0
1.3830049 0.79654372 0.056978907 0
1.3764317 0.79275787 0.17070474 0
1.3838238 0.79701531 0.28800514 0
1.3300523 0.76604557 0.39159772 0
1.3169979 0.75852686 0.50563455 0
1.3325157 0.7674644 0.63667363 0
1.3570242 0.80450267 -0.05632142 0
1.3673046 0.81059736 0.056748096 0
1.3650576 0.8092652 0.17054442 0
1.3523635 0.80173957 0.28353623 0
1.3192682 0.78211933 0.39129129 0
1.3130511 0.7784335 0.50784236 0
1.323374 0.78455341 0.63697553 0
1.3365273 0.81526726 -0.055892374 0
1.3509721 0.82407832 0.056496438 0
1.3547772 0.82639945 0.17054661 0
1.3538553 0.82583708 0.2860066 0
1.3062875 0.7968213 0.39038628 0
1.3118747 0.80022937 0.51124412 0
1.3018656 0.79412389 0.63138604 0
1.3225838 0.82978982 -0.055741813 0
1.3372297 0.83897865 0.056359082 0
1.3456073 0.8442347 0.17071697 0
1.336205 0.83833575 0.28448546 0
1.3028466 0.81740654 0.39240286 0
1.2934408 0.81150544 0.50800234 0
1.2851125 0.8062802 0.6281352 0
1.3226396 0.85322046 -0.056192521 0
1.3368893 0.86241281 0.056797922 0
1.3342876 0.86073446 0.17064241 0
1.3282897 0.85686535 0.28507486 0
1.2949427 0.83535355 0.39315936 0
1.2710323 0.81992918 0.50321651 0
1.271204 0.82003993 0.62633461 0
1.3055022 0.86563611 -0.055923101 0
1.3250815 0.87861848 0.056761809 0
1.3188399 0.87447989 0.17006159 0
1.3317667 0.88305128 0.2881847 0
1.260453 0.83576548 0.38585255 0
1.2493554 0.82840699 0.49872476 0
1.260124 0.83554733 0.6260097 0
1.2942557 0.88183939 -0.05591258 0
1.3393528 0.91256624 0.057860803 0
1.3172864 0.89753133 0.17130506 0
1.3235477 0.90179747 0.28884053 0
1.2628371 0.86043233 0.3898682 0
1.2383012 0.84371483 0.49851361 0
1.2373264 0.84305072 0.61990893 0
1.2805562 0.8963204 -0.055803921 0
1.3535396 0.94740486 0.05898438 0
1.349197 0.94436526 0.17698723 0
1.340161 0.93804049 0.29502043 0
1.2389826 0.86722106 0.38584447 0
1.2197078 0.85372984 0.49531689 0
1.2121409 0.84843338 0.61259478 0
1.2675868 0.91123575 -0.055734355 0
1.2207319 0.87755299 0.38357174 0
1.2113316 0.87079531 0.49632895 0
1.2179765 0.8755722 0.62106681 0
1.259364 0.92959774 -0.055883065 0
1.2116477 0.89437604 0.38422567 0
1.1989318 0.88498974 0.4957751 0
1.2018204 0.88712192 0.61847568 0
1.2469001 0.94488132 -0.055853531 0
1.1956019 0.90600836 0.38272482 0
1.1888078 0.90085989 0.49624017 0
1.1778524 0.89255804 0.61187679 0
1.2314587 0.95782655 -0.055697698 0
1.1710435 0.91083574 0.3785049 0
1.1760761 0.91475004 0.49569449 0
1.1578804 0.90059757 0.60734475 0
1.2223186 0.97566509 -0.055835553 0
1.1571382 0.92363751 0.37773976 0
1.1529505 0.92029482 0.49079299 0
1.1500994 0.918019 0.60927856 0
1.2064111 0.98809034 -0.055672843 0
1.1452193 0.93797231 0.37767464 0
1.1402925 0.93393707 0.49037197 0
1.1364442 0.93078518 0.6082055 0
1.1978126 1.0065116 -0.055856496 0
1.1317039 0.95096093 0.37713659 0
1.1236005 0.94415182 0.48826775 0
1.1216879 0.94254464 0.60661197 0
1.1847064 1.0212224 -0.055840567 0
1.1159457 0.9619503 0.3758921 0
1.0997081 0.9479534 0.48303407 0
1.0955156 0.94433945 0.59884131 0
1.1552708 1.0214839 -0.055055048 0
1.0938349 0.96716255 0.37251705 0
1.0921977 0.96571499 0.48503813 0
1.0820211 0.95671695 0.59800279 0
1.1658305 1.0572727 -0.056188278 0
1.0737497 0.97376609 0.3698234 0
1.0718503 0.97204363 0.48139963 0
1.065942 0.96668541 0.59579659 0
1.135177 1.0558251 -0.05534729 0
1.0543534 0.98065126 0.36736688 0
1.0563375 0.98249668 0.47995082 0
1.0427978 0.96990347 0.58964008 0
1.1347274 1.0823723 -0.055985451 0
1.0402079 0.99221379 0.36676243 0
1.040193 0.99219972 0.47825429 0
1.0327127 0.98506445 0.59090447 0
1.1218178 1.0973653 -0.056025844 0
1.0248911 1.0025513 0.36578411 0
1.0096731 0.98766506 0.46990296 0
1.0244172 1.0020877 0.59333104 0
1.1075319 1.1110222 -0.056006633 0
1.0032361 1.0063978 0.3625496 0
0.98708034 0.9901911 0.46515429 0
1.0128131 1.0160049 0.59397298 0
1.0743654 1.1052412 -0.055028867 0
0.98699194 1.0153568 0.36127111 0
0.98828161 1.0166835 0.47171596 0
0.99454194 1.0231237 0.59076643 0
1.0730593 1.1320747 -0.055687714 0
0.97879171 1.0326227 0.3630003 0
0.96300107 1.0159636 0.46571875 0
0.97360235 1.027148 0.58596468 0
1.0595189 1.1463604 -0.055729732 0
0.95952421 1.0381699 0.36067435 0
0.96167392 1.0404958 0.47137588 0
0.93615431 1.0128845 0.57105744 0
1.042756 1.1571192 -0.055610016 0
0.93567443 1.0382936 0.35659572 0
0.93996775 1.0430578 0.46713731 0
0.93536127 1.037946 0.57850063 0
1.0402312 1.1839601 -0.056265987 0
0.92250454 1.0499671 0.35658708 0
0.91579473 1.0423301 0.46161026 0
0.90436178 1.0293175 0.56729949 0
0.90744096 1.0328221 0.68788511 0
1.0251509 1.1968584 -0.056261025 0
0.90236449 1.0535059 0.35390189 0
0.89193583 1.0413306 0.45615742 0
0.89025408 1.0393671 0.56661487 0
0.88982099 1.0388615 0.68439049 0
0.99816209 1.1954936 -0.055601623 0
0.86776817 1.0393215 0.45045498 0
0.88354582 1.0582182 0.57078111 0
0.87568206 1.0487999 0.68361932 0
0.98844838 1.2146249 -0.05590808 0
0.8588497 1.0553714 0.45268804 0
0.85664594 1.0526633 0.56192201 0
0.86252248 1.0598845 0.68371087 0
0.97801995 1.2332077 -0.056192107 0
0.83769161 1.0562645 0.55816925 0
0.8442874 1.0645812 0.67982852 0
0.95559978 1.2366053 -0.055794198 0
0.82237858 1.0642087 0.55685091 0
0.82557136 1.0683404 0.67553699 0
0.93867701 1.2468436 -0.055718418 0
0.8109023 1.0771205 0.67457873 0
0.91673607 1.2501535 -0.055346083 0
0.78993469 1.0772344 0.66836739 0
0.90747792 1.2707771 -0.055748805 0
0.8985157 1.2923294 -0.05619349 0
0.88088727 1.3016412 -0.056111623 0
0.8658691 1.3148174 -0.05620515 0
0.84125471 1.3131428 -0.055676311 0
0.82048959 1.316947 -0.05539516 0
0.80469167 1.3285755 -0.055453669 0
0.78871143 1.3399816 -0.055510812 0
0.77770388 1.3601722 -0.055937119 0
0.76250464 1.3734386 -0.056083381 0
0.74858683 1.3893073 -0.056341987 0
0.72570884 1.3884338 -0.055931535 0
0.70408052 1.3893927 -0.055608604 0
0.68938893 1.4039689 -0.055840127 0
0.66677701 1.4022759 -0.055434451 0
0.65755898 1.4290133 -0.056159645 0
0.640468 1.4393237 -0.056243435 0
0.62139231 1.4451759 -0.056161903 0
0.59697908 1.4380291 -0.055587627 0
0.57626271 1.4390327 -0.055341534 0
0.5658918 1.4663705 -0.056114387 0
0.55102903 1.483192 -0.056488097 0
0.52557033 1.4711467 -0.055772875 0
0.51160043 1.4910405 -0.056278378 0
0.4850322 1.4738038 -0.055392873 0
0.4714658 1.495749 -0.055990107 0
0.45590255 1.5125396 -0.05639926 0
0.43274638 1.5039965 -0.055873089 0
0.41417545 1.5107869 -0.055927169 0
0.39548051 1.5172654 -0.055978201 0
0.37352785 1.5107309 -0.055559177 0
0.35618228 1.522607 -0.055826563 0
0.33665511 1.5254872 -0.055772312 0
0.32107803 1.5472293 -0.056414925 0
0.29883346 1.5370684 -0.055902798 0
0.2785905 1.5359361 -0.055729616 0
0.2606889 1.5479906 -0.056043446 0
0.24204129 1.5567079 -0.056244247 0
0.22305611 1.5640836 -0.056404781 0
0.20137943 1.5516257 -0.05585964 0
0.18314418 1.5652993 -0.056264412 0
0.16319291 1.5652966 -0.056186002 0
0.141891 1.5499682 -0.05556725 0
0.12298179 1.5594686 -0.055847894 0
0.10240435 1.5468142 -0.055344146 0
0.083618037 1.5610127 -0.055810068 0
0.064494483 1.5750836 -0.056279637 0
0.044490717 1.5698978 -0.056069881 0
0.024793835 1.5750062 -0.056236722 0
0.0049222559 1.5630065 -0.055801623 0
-0.014686592 1.5553528 -0.055530578 0
-0.034352377 1.5588188 -0.055665355 0
