# .PCD v0.7 - Point Cloud Data file format
VERSION 0.7
FIELDS x y z rgb
SIZE 4 4 4 4
TYPE F F F U
COUNT 1 1 1 1
WIDTH 1074
HEIGHT 1
VIEWPOINT 0 0 0 1 0 0 0
POINTS 1074
DATA ascii
0.09391807 0.98953843 -0.092778936 4288831266
-0.91127086 1.0018584 -0.094678499 4284623396
-0.8857215 1.0245532 -0.094680488 4284623396
-0.83159876 1.0662494 -0.094531514 4294901760
-0.80425429 1.0866526 -0.094510689 4294901760
-0.77041012 1.0978055 -0.093759693 4294901760
-0.7503798 1.1287988 -0.09475904 4294901760
-0.71533418 1.1373144 -0.093928382 4294901760
-0.6915589 1.1636634 -0.094632842 4294901760
-0.65659386 1.1711375 -0.0938631 4294901760
-0.63212591 1.1973513 -0.094655231 4294901760
-0.60185039 1.2131935 -0.094676636 4294901760
-0.56573641 1.2165689 -0.093795888 4294901760
-0.53173453 1.2232629 -0.093247592 4294901760
-0.50915694 1.2571682 -0.094822355 4294901760
-0.47815049 1.2719426 -0.094996236 4294901760
-0.44261974 1.2741423 -0.09429615 4294901760
1.1076355 1.6214585 -0.091417789 4294901760
1.0435102 1.7064731 -0.09312053 4294901760
1.1030438 1.7055933 -0.094561592 4294901760
0.98769277 1.7107306 -0.091963246 4294901760
0.9025529 1.763099 -0.092210181 4294901760
-1.5765375 -1.9623984 -0.089868575 4294901760
-1.5676465 -1.9017824 -0.08798968 4294901760
-1.5961492 -1.8874286 -0.088248499 4294901760
-1.5881087 -1.830664 -0.086522572 4294901760
-1.5930747 -1.7903407 -0.085558102 4294901760
-1.4702797 1.1921506 -0.088121764 4294901760
-1.4254121 1.2166446 -0.087245256 4294901760
-1.4136292 1.2696168 -0.088457204 4294901760
0.88973081 1.6349853 -0.086656682 4294901760
-0.21609549 3.8021235 -0.088543728 4294901760
-0.31664708 3.8525109 -0.089874648 4294901760
0.8674888 0.75955701 -0.080607228 4294901760
1.4587455 1.7030779 -0.08005701 4294901760
1.4646158 1.7541629 -0.08158496 4294901760
1.4556866 1.7887763 -0.082335755 4294901760
-1.8698212 -1.0304024 -0.076220043 4294901760
-1.8862466 -1.0087024 -0.076365776 4294901760
-1.8770623 -0.97359848 -0.075491615 4294901760
-1.8896 -0.95010191 -0.075508706 4294901760
1.1355592 -0.014327914 -0.079392612 4294901760
-1.1336157 -3.008151e-06 -0.079250425 4294901760
-1.1391181 3.022752e-06 -0.079635091 4294901760
1.1301446 0.014259596 -0.079014055 4294901760
-1.6102426 0.41517711 -0.077415973 4294901760
-1.6063743 0.4577015 -0.077760614 4294901760
-0.25452882 1.6005116 -0.075447589 4294901760
1.4589739 1.6189853 -0.077806845 4294901760
1.4570639 1.6583866 -0.078812413 4294901760
-1.8855397 -0.91850173 -0.074878342 4294901760
-1.8743863 -0.88404322 -0.073987477 4294901760
-1.883729 -0.85962397 -0.073923126 4294901760
-1.4038063 0.59972024 -0.071067728 4294901760
-1.3994704 0.64009082 -0.071643271 4294901760
-1.4003414 0.6837253 -0.072548173 4294901760
-1.9349645 -5.1346024e-06 -0.069080733 4294901760
-1.9273363 5.1143597e-06 -0.068808392 4294901760
-1.9371605 0.024398271 -0.069164611 4294901760
-1.3969394 0.43642342 -0.068133898 4294901760
-1.3754145 0.46810383 -0.06763874 4294901760
-1.3994989 0.51605541 -0.069441549 4294901760
-1.391228 0.5532679 -0.069701828 4294901760
-1.326485 -0.16825762 -0.062248867 4294901760
1.1227891 0.75664318 -0.063032396 4294901760
-1.4403518 2.2900248 -0.0629002 4294901760
-1.5266006 2.2964702 -0.064115122 4294901760
-1.407253 2.3679383 -0.064044289 4294901760
1.0793532 1.1103724 -0.055284347 4294901760
1.1451675 1.2081487 -0.059429854 4294901760
0.72547925 2.3747125 -0.057732217 4294901760
0.59898794 2.3852963 -0.057181094 4294901760
0.66394812 2.3872852 -0.057612136 4294901760
0.55109829 2.455271 -0.058506481 4294901760
-0.99650782 -1.0381494 -0.051374909 4294901760
1.1332762 -0.014299109 -0.052763481 4294901760
1.4211317 -0.0089472393 -0.050737243 4294901760
-1.1393088 -3.0232584e-06 -0.053040128 4294901760
-1.1344767 3.0104359e-06 -0.052815169 4294901760
1.4683257 0.0092443656 -0.052422158 4294901760
1.1340384 0.014308726 -0.052798972 4294901760
1.5270824 0.18354537 -0.054911204 4294901760
1.3956226 0.18559961 -0.050264191 4294901760
1.4357873 0.20937134 -0.051801592 4294901760
1.4582832 0.23143975 -0.052714188 4294901760
0.87811279 0.76885915 -0.054336011 4294901760
1.0118744 1.0409544 -0.05182809 4294901760
-0.95852011 -0.9737305 -0.048780452 4294901760
-0.8822065 -0.94254524 -0.04609035 4294901760
1.2991923 -0.20619091 -0.046963349 4294901760
1.2986985 -0.1893806 -0.046855584 4294901760
1.3041089 -0.17342947 -0.046968266 4294901760
1.2944536 -0.1555849 -0.04654628 4294901760
1.3020383 -0.13988927 -0.046751965 4294901760
1.3035022 -0.12346553 -0.046744995 4294901760
1.3155906 -0.10791562 -0.047126032 4294901760
1.2969487 -0.089962088 -0.046413999 4294901760
1.3151993 -0.074601606 -0.047029786 4294901760
1.3085762 -0.057706844 -0.046763264 4294901760
1.3465146 -0.042400748 -0.048096135 4294901760
1.3799468 -0.02606659 -0.049274672 4294901760
0.90185767 0.90469986 -0.045605924 4294901760
0.93920964 0.99086374 -0.048741423 4294901760
0.70998639 1.0491099 -0.045225412 4294901760
0.7115764 1.0805249 -0.046189729 4294901760
0.7099281 1.1081507 -0.046984792 4294901760
0.70827669 1.136837 -0.04781913 4294901760
0.6985929 1.1534024 -0.04814209 4294901760
1.1035749 1.7064145 -0.047248933 4294901760
0.88918334 1.7369821 -0.045369681 4294901760
1.0935608 1.788322 -0.04873712 4294901760
1.0542315 1.8259789 -0.049022634 4294901760
0.99857134 1.8349926 -0.048572529 4294901760
0.89709347 1.8671318 -0.048162434 4294901760
0.25386661 2.1078525 -0.049362678 4294901760
-0.86045814 -0.85237378 -0.043240279 4294901760
-0.77677757 -0.85113758 -0.041138958 4294901760
-1.1240387 -0.44602403 -0.043173477 4294901760
0.82488447 0.80690426 -0.041196395 4294901760
0.82723182 0.89503437 -0.043511644 4294901760
0.75819683 0.98115367 -0.044268519 4294901760
0.70583296 0.9884057 -0.043361213 4294901760
0.72578806 0.9897576 -0.043817986 4294901760
0.74429792 0.98865014 -0.044180378 4294901760
0.71727085 1.0316461 -0.04485837 4294901760
-1.4750669 1.1960323 -0.044153299 4294901760
-1.4279377 1.2188003 -0.043649457 4294901760
-1.4145521 1.2704456 -0.044206366 4294901760
-0.68394285 -0.76863354 -0.036732018 4294901760
-0.78666902 -0.75989318 -0.039048232 4294901760
-0.72129023 -0.67939323 -0.035375543 4294901760
-1.0176253 -0.38904065 -0.038894977 4294901760
-0.92505002 -0.34036195 -0.035190023 4294901760
0.96748608 0.17863034 -0.035124302 4294901760
1.0634664 0.18253575 -0.03852234 4294901760
0.92786807 0.32163361 -0.035059817 4294901760
0.91934109 0.37151238 -0.035400297 4294901760
0.91407382 0.38284218 -0.035380304 4294901760
-1.5926995 0.54205388 -0.039116859 4294901760
-1.6042731 0.59156442 -0.039755139 4294901760
-1.385641 0.59195983 -0.03503355 4294901760
-1.3955446 0.63829523 -0.035679895 4294901760
-1.400144 0.68362886 -0.036227088 4294901760
-0.81636584 0.69480437 -0.038272154 4294901760
-0.80770385 0.70516032 -0.038279317 4294901760
0.74530292 0.71091551 -0.036771934 4294901760
-1.3933381 0.72439915 -0.03651242 4294901760
0.6598143 0.75098091 -0.035689279 4294901760
-1.3897629 0.76769012 -0.036914717 4294901760
0.7310676 0.81124663 -0.038987719 4294901760
0.1889106 0.97167337 -0.035339523 4288831266
0.052493174 0.97996217 -0.035036072 4288831266
0.077154435 0.97835553 -0.035037 4288831266
0.15179974 0.97631222 -0.035274405 4288831266
0.17715657 0.97670656 -0.035438638 4288831266
0.10240728 0.98225939 -0.035257999 4288831266
0.0031047836 0.98588878 -0.035197675 4288831266
0.040489662 0.98883814 -0.035332378 4288831266
0.065487482 0.98918617 -0.035392527 4288831266
0.14090224 0.98801547 -0.035630316 4288831266
0.015585824 0.99007547 -0.035351351 4288831266
0.028170615 0.99402726 -0.035502303 4288831266
0.090662137 0.99036175 -0.035505038 4288831266
0.11622114 0.99332047 -0.035704736 4288831266
0.12892856 0.99339271 -0.03576285 4288831266
0.16686615 0.99086392 -0.035873234 4288831266
-0.0099876085 1.0577168 -0.037763536 4288831266
-0.25362456 1.5948254 -0.037546363 4294901760
-0.5685218 -0.72621047 -0.032926552 4294901760
-0.54862505 -0.71927279 -0.032296207 4294901760
-0.61984628 -0.71451682 -0.03377017 4294901760
0.67084831 -0.62395424 -0.032708235 4294901760
0.68723643 -0.62324351 -0.033121992 4294901760
-0.67307466 -0.6181708 -0.032626461 4294901760
-0.90076941 -0.31860933 -0.034111034 4294901760
-0.90174741 -0.3062363 -0.033999346 4294901760
-0.8899259 -0.28977636 -0.033413403 4294901760
-0.89242226 -0.27821094 -0.03337295 4294901760
-0.90070033 -0.26839617 -0.033553466 4294901760
-0.8973161 -0.25513119 -0.033305079 4294901760
-0.88614118 -0.23993634 -0.032775566 4294901760
-0.888708 -0.22866091 -0.03276141 4294901760
-0.89551324 -0.2184277 -0.032908276 4294901760
-0.91165161 -0.21023864 -0.033401392 4294901760
-0.90015817 -0.19568487 -0.032887407 4294901760
-0.91322935 -0.18651626 -0.033276517 4294901760
-0.91008615 -0.17396688 -0.033079538 4294901760
-1.3291085 -0.1685904 -0.031149976 4294901760
-0.91205394 -0.1624672 -0.033074081 4294901760
-0.90280676 -0.14911716 -0.032668065 4294901760
-0.90147007 -0.13725939 -0.032554574 4294901760
-0.90710217 -0.12645207 -0.032697871 4294901760
-0.9115597 -0.11539236 -0.032803569 4294901760
-0.90612334 -0.1031297 -0.032558624 4294901760
-0.92383695 -0.093378782 -0.033150226 4294901760
-0.91398424 -0.080771014 -0.032757584 4294901760
-0.90582174 -0.068567075 -0.032431521 4294901760
-0.91427374 -0.057639193 -0.032705553 4294901760
-0.93367869 -0.047068112 -0.033375863 4294901760
-0.90195644 -0.034089684 -0.032224 4294901760
-0.91174269 -0.022967771 -0.032560717 4294901760
0.92537093 0.18293224 -0.033676282 4294901760
0.91891176 0.19370869 -0.03352733 4294901760
0.93703425 0.20988542 -0.034282256 4294901760
0.93386453 0.22155976 -0.034265645 4294901760
0.92022687 0.23060085 -0.03386911 4294901760
0.91446817 0.24143478 -0.033766378 4294901760
0.9335525 0.25909019 -0.034588784 4294901760
0.9156487 0.266583 -0.034047108 4294901760
0.9155159 0.27909592 -0.034170143 4294901760
0.91581458 0.29183939 -0.034315731 4294901760
0.927921 0.30862027 -0.034912206 4294901760
0.90858573 0.32782164 -0.034484472 4294901760
0.90575886 0.3397508 -0.034536816 4294901760
0.90843141 0.35386387 -0.034805868 4294901760
-1.3822608 0.54970175 -0.034586295 4294901760
0.70060629 0.65163207 -0.034159131 4294901760
0.59456241 0.6941486 -0.032630015 4294901760
1.1075921 0.74640197 -0.031053722 4294901760
1.1313244 -0.014274483 -0.026305892 4294901760
-1.1455437 -3.0398032e-06 -0.026634403 4294901760
-1.1589127 3.0752788e-06 -0.026945235 4294901760
1.1216254 0.014152105 -0.026080366 4294901760
0.86399138 0.75649476 -0.026700234 4294901760
-1.3334416 -0.16914004 3.8372629e-05 4294901760
1.1280868 -0.014233632 3.2207623e-05 4294901760
-1.139473 -3.0236938e-06 3.2530115e-05 4294901760
-1.1385822 3.0213303e-06 3.2504686e-05 4294901760
1.1245639 0.014189182 3.2107044e-05 4294901760
-1.5975978 0.63533765 4.9083079e-05 4294901760
-1.3884759 0.63506216 4.3588156e-05 4294901760
-1.378536 0.67307866 4.3795462e-05 4294901760
-1.6044313 0.68542922 4.9808656e-05 4294901760
-1.3850901 0.72011101 4.4566899e-05 4294901760
1.1119237 0.74932098 3.8278864e-05 4294901760
-1.3913699 0.76857787 4.5378667e-05 4294901760
0.87684649 0.76775038 3.3272045e-05 4294901760
-1.3893143 0.8138538 4.5966914e-05 4294901760
-1.4009126 0.86885154 4.706121e-05 4294901760
-1.4747483 1.1957738 5.4202537e-05 4294901760
-1.4313369 1.2217017 5.3723183e-05 4294901760
-1.4130809 1.2691243 5.4222957e-05 4294901760
-0.25268823 1.5889376 4.5931632e-05 4294901760
0.88557458 1.8431574 5.8377587e-05 4294901760
1.1004932 1.9061061 6.2834515e-05 4294901760
1.0070812 1.9672904 6.3094158e-05 4294901760
1.0746478 1.9747921 6.4184191e-05 4294901760
0.89858955 1.9978739 6.2539628e-05 4294901760
0.25316566 2.1020324 6.0443304e-05 4294901760
-1.5287418 2.2996914 7.8835081e-05 4294901760
-1.4534628 2.3108699 7.7935918e-05 4294901760
-1.4078081 2.3688722 7.8668701e-05 4294901760
0.72792757 2.3827264 7.1126538e-05 4294901760
0.79398239 2.382107 7.1683411e-05 4294901760
0.86179358 2.3833325 7.2351788e-05 4294901760
0.92936623 2.3805873 7.2957286e-05 4294901760
1.0000044 2.3822746 7.3759002e-05 4294901760
0.66593474 2.3944283 7.0951537e-05 4294901760
0.60300481 2.4012926 7.0681454e-05 4294901760
0.55117887 2.4556301 7.184851e-05 4294901760
-1.2380227 3.2933018 0.0001004422 4294901760
-1.1670516 3.3595195 0.00010153108 4294901760
-0.21703789 3.8187046 0.0001091938 4294901760
-0.31644154 3.8500104 0.00011028222 4294901760
1.119176 -0.014121201 0.026087355 4294901760
-1.1293025 -2.9967057e-06 0.026321301 4294901760
-1.1469795 3.0436129e-06 0.026733307 4294901760
1.1284206 0.014237843 0.026302841 4294901760
0.88127536 0.77162826 0.027301282 4294901760
-0.47046399 -0.81093591 0.033470858 4294901760
-0.59544969 -0.74118733 0.033942878 4294901760
-0.62233537 -0.73590457 0.03440791 4294901760
-0.57564211 -0.73530567 0.03333893 4294901760
-0.56264496 -0.73765355 0.033121526 4294901760
-0.54898435 -0.73885453 0.032862447 4294901760
-0.53293568 -0.73644698 0.032454312 4294901760
-0.6353358 -0.73237211 0.034614064 4294901760
-0.60334975 -0.7319507 0.033865128 4294901760
0.67909408 -0.6477614 0.033505306 4294901760
0.70812076 -0.64218318 0.034128532 4294901760
0.68144882 -0.63381374 0.033225078 4294901760
-0.77454513 -0.47918367 0.032516353 4294901760
-0.91373867 -0.29753023 0.034307484 4294901760
-0.92121124 -0.28718582 0.03444954 4294901760
-0.91890711 -0.27382153 0.034231719 4294901760
-1.3171695 -0.16707602 0.030946018 4294901760
0.9448278 0.16217235 0.034224849 4294901760
0.94166648 0.17386317 0.034186929 4294901760
0.95110023 0.18801855 0.034612626 4294901760
0.95065606 0.20040046 0.034685548 4294901760
0.93760842 0.21001403 0.034303263 4294901760
0.93737209 0.22239193 0.034394346 4294901760
0.93097585 0.27104539 0.034617029 4294901760
0.79357916 0.49789199 0.033446305 4294901760
-0.81052756 0.5014447 0.034026939 4294901760
-0.81356841 0.51760292 0.034425493 4294901760
1.1220077 0.75611663 0.03153519 4294901760
0.44699737 0.78178006 0.032150727 4294901760
-0.52684557 -0.88233513 0.036688726 4294901760
-0.7700265 -0.74381721 0.038222142 4294901760
-0.78388262 -0.73834985 0.038445372 4294901760
-0.70569545 -0.73518467 0.036382094 4294901760
-0.68685275 -0.73383027 0.035884209 4294901760
-0.66953969 -0.73363394 0.035459526 4294901760
-0.65377927 -0.73473495 0.035112046 4294901760
-0.7344625 -0.72756195 0.036908668 4294901760
-0.7179442 -0.72933704 0.036537204 4294901760
-0.91185009 -0.59639114 0.038898893 4294901760
-0.83361274 -0.53035539 0.035273653 4294901760
-0.94259858 -0.32010949 0.035539594 4294901760
0.999659 0.15865289 0.036135789 4294901760
1.1022915 0.16073985 0.039769437 4294901760
0.95193422 0.23854643 0.035036106 4294901760
0.95326 0.25167647 0.035198752 4294901760
0.95955336 0.26630625 0.035552133 4294901760
0.95043349 0.28974056 0.035473384 4294901760
0.93832248 0.29901192 0.035159107 4294901760
0.93252915 0.31015292 0.035085585 4294901760
0.94338292 0.32701162 0.035646051 4294901760
0.92825997 0.3349202 0.035231188 4294901760
0.93823391 0.35193223 0.035775099 4294901760
0.93593627 0.36457792 0.035859697 4294901760
0.85875046 0.55397063 0.03648413 4294901760
-1.3736465 0.71416146 0.036084846 4294901760
-1.3856953 0.76544327 0.036897112 4294901760
-1.3849761 0.81131256 0.037411284 4294901760
0.49837974 0.84672242 0.03507679 4294901760
-1.3934773 0.86424023 0.038217958 4294901760
-1.4028876 0.91988319 0.039100349 4294901760
0.56103384 0.92628741 0.03866249 4294901760
-1.3973434 0.96752745 0.039613813 4294901760
0.053188946 0.99295115 0.035500459 4288831266
-0.0094287638 0.99853355 0.035650525 4288831266
0.040845428 0.99752665 0.035642833 4288831266
-0.02212977 1.0041897 0.035859574 4288831266
0.066531755 1.0049598 0.035956901 4288831266
0.12999676 1.0016232 0.036059152 4288831266
0.14281167 1.0014046 0.036113162 4288831266
0.15605697 1.0036929 0.036263674 4288831266
0.0031732365 1.0076252 0.035973698 4288831266
0.10489485 1.0061195 0.036114447 4288831266
0.16980647 1.0083237 0.036505349 4288831266
0.02866751 1.0115607 0.036128521 4288831266
0.079725809 1.0109618 0.036204699 4288831266
0.11835065 1.011521 0.036358945 4288831266
0.015987301 1.0155791 0.036261976 4288831266
0.093201265 1.0180984 0.036499407 4288831266
-0.25267151 1.5888325 0.037497181 4294901760
-0.59387743 -0.96673143 0.040505785 4294901760
1.1697388 0.15556002 0.042128846 4294901760
0.93509275 0.62002963 0.040056072 4294901760
1.0308552 0.70237178 0.044533528 4294901760
-1.5937704 0.72895992 0.040848054 4294901760
-1.6048479 0.78357685 0.041625589 4294901760
0.75556195 1.003612 0.04484899 4294901760
0.62847501 1.0087492 0.04243134 4294901760
0.73949236 1.0084462 0.044645354 4294901760
0.70436072 1.0130775 0.044050965 4294901760
0.72284395 1.0122269 0.044406243 4294901760
-1.3907567 1.0158201 0.040141132 4294901760
0.68943548 1.0187429 0.043916337 4294901760
0.68640423 1.0423011 0.044555757 4294901760
0.20918323 1.1532773 0.041845292 4294901760
0.22524676 1.1585705 0.04213693 4294901760
0.24233752 1.1677901 0.042579848 4294901760
-1.4720322 1.1935716 0.044170722 4294901760
0.26476893 1.199749 0.043863218 4294901760
0.28323144 1.2107569 0.044392545 4294901760
-1.4354422 1.2252058 0.043986671 4294901760
-1.4136107 1.2696002 0.044285495 4294901760
-1.0287329 -0.92120951 0.049300343 4294901760
-1.0065218 -0.92441809 0.048789896 4294901760
-1.037143 -0.90547061 0.049153075 4294901760
-1.094487 -0.75586462 0.047487184 4294901760
1.325194 -0.091921307 0.047424816 4294901760
1.3187336 -0.074802078 0.04715617 4294901760
1.3168161 -0.058070209 0.047057722 4294901760
1.3195677 -0.041552212 0.047133621 4294901760
1.3210177 -0.024953445 0.047170453 4294901760
1.2943286 -0.0081489049 0.046210118 4294901760
1.326571 0.0083518988 0.047361236 4294901760
1.3331044 0.025181757 0.047602035 4294901760
1.3177239 0.04149415 0.047067761 4294901760
1.3180276 0.058123637 0.047101017 4294901760
1.321871 0.074980043 0.047268357 4294901760
1.3159128 0.091277525 0.047092672 4294901760
1.3167176 0.10800807 0.047166407 4294901760
1.310601 0.12413792 0.04699957 4294901760
1.3109299 0.14084457 0.047071233 4294901760
1.3086684 0.15729341 0.047057416 4294901760
0.83558923 1.0007809 0.046545666 4294901760
0.78012335 1.0095279 0.045548733 4294901760
0.79757047 1.0056748 0.04582439 4294901760
0.81806332 1.0052522 0.046270851 4294901760
0.86291975 1.0074544 0.047357664 4294901760
0.88322949 1.0052654 0.047773778 4294901760
0.68677402 1.0720087 0.045452401 4294901760
0.67741907 1.0873082 0.045735784 4294901760
0.71615309 1.1178675 0.047396779 4294901760
0.68196714 1.1259527 0.046996363 4294901760
0.67654991 1.1494247 0.047616702 4294901760
0.67496395 1.1804843 0.048547447 4294901760
0.6720311 1.2104758 0.049428914 4294901760
0.25210571 2.0932319 0.049140729 4294901760
1.1392264 -0.014374186 0.053105708 4294901760
-1.1476027 -3.0452668e-06 0.053491913 4294901760
-1.1390692 3.0226224e-06 0.053094152 4294901760
1.1372408 0.014349132 0.053013142 4294901760
0.86564618 0.75794363 0.053630438 4294901760
1.1577035 0.81033015 0.050450262 4294901760
0.82765472 1.2567892 0.053724587 4294901760
-1.5732659 1.729661 0.05449634 4294901760
-1.5296828 1.7694516 0.054516252 4294901760
-1.4839035 1.8066957 0.054492485 4294901760
-1.4424541 1.8494686 0.054667108 4294901760
-1.3959153 1.8860638 0.05469 4294901760
0.89662606 1.9935085 0.050947253 4294901760
1.097648 2.0170579 0.053523008 4294901760
1.0197016 2.1223176 0.054879431 4294901760
0.89841938 2.1402724 0.054101307 4294901760
0.99431044 0.74566615 0.057931475 4294901760
1.0278919 1.1699157 0.05559855 4294901760
1.052627 1.1680727 0.056136433 4294901760
1.0126113 1.1822186 0.055572845 4294901760
0.9926157 1.1888508 0.055292666 4294901760
0.97290629 1.1955264 0.055028997 4294901760
-1.3968451 1.9904519 0.0566766 4294901760
1.0792902 2.1083477 0.055204999 4294901760
-1.4052899 2.1139822 0.059165258 4294901760
0.90355247 2.3144648 0.057909612 4294901760
-1.337737 -0.16968487 0.062854052 4294901760
1.1157621 0.75190771 0.06271489 4294901760
1.4496706 1.0985376 0.064936414 4294901760
-1.4036629 2.2316928 0.061448604 4294901760
-1.4043723 2.3630908 0.064070225 4294901760
0.89921021 2.48681 0.061634336 4294901760
1.4718828 1.0864682 0.065313384 4294901760
1.4591583 1.134931 0.065996334 4294901760
1.4388233 1.1484809 0.065725498 4294901760
1.4449444 1.183457 0.066680558 4294901760
-1.4050756 2.5061712 0.066966727 4294901760
-1.5771221 -1.308398 0.073159069 4294901760
-1.5824592 -1.2795322 0.07265348 4294901760
-1.5777898 -1.2432306 0.071714662 4294901760
-1.5742105 -1.2085958 0.070854627 4294901760
-0.04985844 1.5802389 0.07369455 4294901760
-0.13178807 1.6034098 0.07498996 4294901760
1.1319028 -0.01428178 0.079201922 4294901760
1.1236534 0.014177694 0.078624703 4294901760
-1.3878511 0.86075079 0.076121949 4294901760
-1.3805457 0.9052335 0.076949894 4294901760
-1.383033 0.95761883 0.078410737 4294901760
-0.25361404 1.5947592 0.075268827 4294901760
0.72996777 3.2521763 0.077686295 4294901760
-1.1474223 -3.0447882e-06 0.080281474 4294901760
-1.1507972 3.053744e-06 0.080517605 4294901760
0.86920494 0.76105964 0.080832981 4294901760
-1.3965751 1.02007 0.080612466 4294901760
-1.4004242 1.0781013 0.082379028 4294901760
-1.4053109 1.1394718 0.084331363 4294901760
0.25128251 1.7196798 0.081008725 4294901760
1.3305442 1.8144641 0.080328919 4294901760
1.3992351 1.8106968 0.081696548 4294901760
1.4400738 1.815822 0.082739405 4294901760
1.3030492 1.8247112 0.080049813 4294901760
1.3726313 1.8232646 0.081477277 4294901760
-1.2245339 3.2574196 0.081109911 4294901760
-1.1618016 3.3444066 0.082519472 4294901760
1.0549852 0.71095037 0.089010432 4294901760
1.0319827 0.73397911 0.088604428 4294901760
0.99554461 0.74659169 0.087066039 4294901760
-1.5962621 0.88175809 0.085001841 4294901760
-1.6053123 0.94038445 0.08672002 4294901760
-1.4090625 1.2026896 0.086350553 4294901760
-1.39696 1.2546457 0.087521575 4294901760
-1.3986471 1.3214149 0.089688212 4294901760
-0.21543612 3.7905219 0.088490449 4294901760
-0.31193364 3.7951643 0.088754356 4294901760
-1.3396282 -0.16992478 0.094480529 4294901760
-1.3909991 1.3822571 0.091405794 4294901760
-1.4001654 1.4634075 0.094405159 4294901760
-0.52301669 -0.76245296 0.099365875 4294901760
-0.50570375 -0.75748718 0.097881064 4294901760
-0.48832783 -0.75178921 0.096342564 4294901760
-0.52358615 -0.74304986 0.097688682 4294901760
0.86603606 0.32485074 0.099404536 4294901760
-0.53394592 0.73784298 0.097880319 4294901760
-0.52539158 0.74561203 0.098025531 4294901760
-1.4058081 1.5455564 0.097384699 4294901760
-1.3933104 1.6117038 0.099305205 4294901760
0.14383204 2.0693626 0.096689589 4294901760
0.19745511 2.0804241 0.09740825 4294901760
0.25279364 2.0989437 0.09854272 4294901760
0.093456522 2.1149297 0.098677039 4294901760
-0.55609912 -0.7684558 0.10194133 4294901760
-0.56434554 -0.75952846 0.10169171 4294901760
-0.57316488 -0.75144565 0.10156779 4294901760
-0.60130042 -0.74847001 0.10318001 4294901760
-0.58687562 -0.74965501 0.10231651 4294901760
-0.89166349 -0.34088513 0.10259049 4294901760
1.1234456 0.014175072 0.10493586 4294901760
0.95487428 0.16389675 0.10412034 4294901760
-0.65434766 0.71698761 0.10431954 4294901760
0.31177434 0.90865469 0.10324084 4294901760
-1.4029546 1.708138 0.10303245 4294901760
-0.64800835 -0.76626265 0.10784871 4294901760
-0.65945804 -0.76017857 0.10815259 4294901760
-0.6240834 -0.75710362 0.10544518 4294901760
-0.66916966 -0.75203109 0.10818368 4294901760
0.71760803 -0.6674453 0.10532235 4294901760
0.73112059 -0.66304135 0.10607178 4294901760
-1.5298775 -0.15494823 0.10758825 4294901760
1.1359704 -0.014333103 0.10610574 4294901760
-1.1385152 -3.0211525e-06 0.10633498 4294901760
-1.139788 3.0245299e-06 0.10645385 4294901760
0.96890801 0.14128943 0.10522915 4294901760
0.97520089 0.15477121 0.10611585 4294901760
0.96123654 0.17747647 0.10504945 4294901760
0.96633899 0.19103104 0.10586157 4294901760
0.97122729 0.20473693 0.10667104 4294901760
0.95453876 0.21380623 0.10512549 4294901760
0.97186935 0.23057643 0.10734539 4294901760
0.95922697 0.24037392 0.10627491 4294901760
0.96564037 0.2549451 0.10733264 4294901760
0.95486295 0.26500452 0.10649718 4294901760
0.94058335 0.27384251 0.1052808 4294901760
0.96534377 0.29428598 0.10845846 4294901760
0.96800709 0.30847138 0.10918544 4294901760
0.95035851 0.31608284 0.10763519 4294901760
0.95587391 0.33134148 0.10872378 4294901760
0.95291024 0.34381413 0.10887049 4294901760
0.91739798 0.35735664 0.10580803 4294901760
-0.84640425 0.52364033 0.10696296 4294901760
-0.84765327 0.53928816 0.10797043 4294901760
-0.7096262 0.72088701 0.10871132 4294901760
-0.6998902 0.72913682 0.10861775 4294901760
-0.68271625 0.72941083 0.1073694 4294901760
-0.6711871 0.75429833 0.10850984 4294901760
0.86873543 0.76064855 0.10784479 4294901760
0.11763377 1.005394 0.10878605 4288831266
0.066919558 1.0108176 0.10886966 4288831266
0.13164255 1.014304 0.10992078 4288831266
0.041604657 1.0160686 0.10928768 4288831266
0.054515593 1.0177175 0.10953019 4288831266
0.092944086 1.0152891 0.10956865 4288831266
0.106091 1.0175925 0.1099527 4288831266
-1.3857405 1.7767524 0.1050281 4294901760
-1.3949586 1.8847713 0.10929736 4294901760
0.88821018 2.1159513 0.10696554 4294901760
-0.74564087 -0.75747317 0.11422858 4294901760
-0.71092844 -0.7595526 0.11180627 4294901760
-0.69014287 -0.75620943 0.1100262 4294901760
-0.72130328 -0.75144476 0.11194091 4294901760
-0.97740942 -0.38784084 0.11300895 4294901760
1.0556463 0.14038721 0.11444838 4294901760
0.98863524 0.39951465 0.11459532 4294901760
0.98286605 0.73708367 0.11474339 4294901760
0.35177809 0.98467731 0.11237288 4294901760
0.29234883 1.0160491 0.11362427 4294901760
0.30713364 1.0189717 0.11437453 4294901760
0.33420289 1.0154985 0.11489312 4294901760
0.080545932 1.0213614 0.11010578 4288831266
0.17200674 1.0213891 0.1113136 4294901760
0.22560704 1.0222944 0.11250883 4294901760
0.23970258 1.0246799 0.11309459 4294901760
0.25232899 1.020543 0.11297972 4294901760
0.28021315 1.0221329 0.11390099 4294901760
0.14630903 1.0259283 0.11137135 4288831266
0.26785481 1.0276279 0.11412842 4294901760
0.16063786 1.0331552 0.11236656 4288831266
0.18738686 1.0331087 0.11283904 4294901760
0.20067593 1.032189 0.11300564 4294901760
0.2140215 1.0313392 0.11319868 4294901760
-0.13016744 1.5836921 0.11117952 4294901760
-0.25240907 1.5871823 0.11244556 4294901760
-0.050206363 1.591266 0.1113912 4294901760
-1.3962773 1.9896429 0.11329916 4294901760
1.0953614 2.1397421 0.11204619 4294901760
0.89498663 2.2925234 0.11471318 4294901760
-0.76615685 -0.75895852 0.11589827 4294901760
1.009657 0.71810043 0.11571833 4294901760
0.97249615 0.7683956 0.11575997 4294901760
-1.3906641 0.96290261 0.11834794 4294901760
0.34930497 1.0180364 0.11566872 4294901760
0.32292789 1.0245049 0.11544288 4294901760
0.3647595 1.0210141 0.11651969 4294901760
0.40108442 1.0393124 0.11972287 4294901760
0.38706127 1.0418438 0.11944355 4294901760
-1.3923465 2.0945115 0.1172324 4294901760
-1.0529346 -0.43323314 0.1223623 4294901760
1.0855381 0.73153991 0.12226014 4294901760
-1.3940085 1.0181953 0.12078106 4294901760
0.39446577 1.0617743 0.12172851 4294901760
0.42692965 1.0661209 0.12342055 4294901760
-1.3938309 1.0730255 0.12307294 4294901760
0.44469652 1.0712042 0.12464741 4294901760
-1.3771727 1.1166564 0.12405109 4294901760
0.24933371 1.7063429 0.12065518 4294901760
-1.3937564 2.2159424 0.12202128 4294901760
0.88961846 2.4602835 0.12194522 4294901760
-1.3356501 -0.16942017 0.12574652 4294901760
1.1100024 0.46490306 0.12933162 4294901760
0.47065327 1.0946012 0.1280494 4294901760
-1.397468 1.1927933 0.12855004 4294901760
-1.3921956 2.3426015 0.12702048 4294901760
1.1353307 -0.014325031 0.13276613 4294901760
-1.1342452 -3.0098213e-06 0.13262862 4294901760
-1.1451384 3.0387275e-06 0.13390239 4294901760
1.1243868 0.014186947 0.13148634 4294901760
0.67647064 1.027217 0.13218231 4294901760
0.69389474 1.0253321 0.13305359 4294901760
0.71381909 1.0266814 0.13438444 4294901760
0.66480511 1.0377167 0.13244569 4294901760
0.66135871 1.06153 0.13441145 4294901760
0.49612316 1.1149377 0.13114884 4294901760
0.51317972 1.115247 0.1319349 4294901760
-1.3921757 1.2503488 0.13092442 4294901760
-1.3886727 1.3119913 0.1336665 4294901760
-1.3929298 2.4845073 0.13276638 4294901760
-1.4724474 -0.22465453 0.13911499 4294901760
0.8689543 0.76084012 0.13505219 4294901760
0.75058281 1.0235703 0.13640858 4294901760
0.77059627 1.0235821 0.13769242 4294901760
0.73407924 1.0279601 0.13575096 4294901760
0.65738481 1.0853665 0.13637067 4294901760
0.65795535 1.1178335 0.13939795 4294901760
0.55611032 1.1325415 0.13559496 4294901760
0.54124552 1.1382748 0.13545465 4294901760
0.45339158 1.1748536 0.13533644 4294901760
-1.4010037 1.3921989 0.1381916 4294901760
-1.5321223 -0.15517558 0.14382912 4294901760
1.3336782 0.12632376 0.14397098 4294901760
1.3399035 0.14395744 0.14482719 4294901760
1.3277693 0.15958922 0.14372145 4294901760
1.228636 0.53287208 0.14392459 4294901760
0.97775477 0.7332505 0.14290793 4294901760
0.97230381 0.76824361 0.14489906 4294901760
0.85888439 1.0286814 0.1440196 4294901760
0.81686425 1.0300027 0.14127913 4294901760
0.84140915 1.0339401 0.14326112 4294901760
0.80509317 1.0418404 0.14150105 4294901760
0.65302616 1.142116 0.14138941 4294901760
0.5913952 1.1670258 0.14060408 4294901760
0.65128648 1.1731102 0.14419968 4294901760
0.61916327 1.1845896 0.14364813 4294901760
-1.3984253 1.4615887 0.14153084 4294901760
-1.3910214 1.5292999 0.14464186 4294901760
-1.010965 -0.95224184 0.14925528 4294901760
-0.98785132 -0.95422786 0.14760512 4294901760
-1.0215974 -0.93826395 0.14906889 4294901760
-1.026148 -0.91889477 0.14803275 4294901760
1.0124575 0.72009218 0.14527741 4294901760
0.64514768 1.1973338 0.1461671 4294901760
0.51838821 1.2945094 0.14986019 4294901760
-0.050382365 1.5968444 0.14921619 4294901760
-1.3863366 1.6036367 0.14831609 4294901760
0.25008827 2.0764811 0.14633466 4294901760
-1.0610188 -0.92631519 0.15136854 4294901760
-1.0776846 -0.91721135 0.15208636 4294901760
1.3101563 0.49144059 0.15038115 4294901760
1.3033378 0.50769287 0.15032038 4294901760
1.3349813 0.53947556 0.1547412 4294901760
1.0798291 0.7276926 0.15226072 4294901760
-0.25312087 1.591658 0.15052564 4294901760
-1.3929998 1.6960177 0.1535596 4294901760
-1.3305382 -0.16877174 0.15682802 4294901760
-1.1334246 -3.007644e-06 0.15935144 4294901760
1.1347744 0.014318013 0.15955392 4294901760
1.3369782 0.55996752 0.15577765 4294901760
1.339885 0.58112192 0.15695649 4294901760
0.24508356 1.6772565 0.15831584 4294901760
1.1442261 -0.014437269 0.16088286 4294901760
-1.1463811 3.0420254e-06 0.16117303 4294901760
0.89171779 0.11858685 0.16223599 4294901760
-0.82808566 0.32858846 0.16067198 4294901760
-0.8355304 0.34378147 0.1629435 4294901760
-0.82248497 0.35058722 0.16124755 4294901760
1.3678249 0.61381596 0.16112207 4294901760
1.3748586 0.61697239 0.1619506 4294901760
-0.64475149 0.63869381 0.16367419 4294901760
1.3843157 0.64227724 0.16400428 4294901760
-0.59007394 0.66314113 0.16008864 4294901760
-0.58852124 0.67840743 0.16197219 4294901760
-0.56547642 0.68600488 0.16033457 4294901760
-0.56046408 0.69763893 0.16139144 4294901760
-0.55980778 0.71507949 0.16378237 4294901760
-0.55130786 0.72279012 0.16394539 4294901760
-0.54301405 0.7308194 0.16420263 4294901760
-0.50552166 0.73694873 0.16117217 4294901760
-0.49312493 0.73864555 0.16017252 4294901760
-0.53552419 0.74002391 0.16474254 4294901760
0.8906619 0.74099243 0.16289058 4294901760
0.87633133 0.76729935 0.16375934 4294901760
-1.4411623 -0.14596304 0.16937894 4294901760
1.0040708 -0.012668859 0.16509241 4294901760
1.0069648 0.012705375 0.16556826 4294901760
-0.83781213 0.36965451 0.16515191 4294901760
-0.83239639 0.37985715 0.16501415 4294901760
-0.83390731 0.39330745 0.16628228 4294901760
-0.6705761 0.64775175 0.16814598 4294901760
1.404337 0.6731832 0.16736729 4294901760
1.4146044 0.70014411 0.1696282 4294901760
-0.5318107 0.75472176 0.16651054 4294901760
0.097560436 0.93577003 0.16967961 4294901760
1.0775856 1.13685 0.16834025 4294901760
1.0637519 1.1509405 0.16842988 4294901760
1.0189949 1.1597894 0.16591612 4294901760
1.0422857 1.1565973 0.16732375 4294901760
1.0006101 1.1682072 0.16530472 4294901760
0.99576247 1.1926196 0.16697162 4294901760
0.97964913 1.2038121 0.16679831 4294901760
0.97322243 1.2271583 0.16832174 4294901760
-1.4575328 -0.22237897 0.17240329 4294901760
-0.93865889 -0.13085115 0.17092286 4294901760
0.95756209 0.13963494 0.17452154 4294901760
1.4557436 0.67541742 0.17246656 4294901760
1.4595312 0.69964105 0.17394526 4294901760
1.4416463 0.73627049 0.17396882 4294901760
0.9940179 0.74544674 0.17468418 4294901760
0.95050687 0.75102127 0.1703146 4294901760
1.1256953 1.1580462 0.17356412 4294901760
0.98083186 1.2692571 0.17238842 4294901760
-0.62057078 -0.77245682 0.17869976 4294901760
-0.98404676 -0.14983267 0.17951697 4294901760
-1.0772836 -2.8586687e-06 0.17711619 4294901760
-0.94042194 -2.4954941e-06 0.177185 4294901760
-1.0670792 2.8315903e-06 0.17543848 4294901760
-0.93586618 2.4834048e-06 0.17632663 4294901760
1.4601504 0.72268665 0.17508972 4294901760
1.4627333 0.74703991 0.17651345 4294901760
1.4487575 0.76305258 0.17597249 4294901760
1.4545577 0.7661075 0.176677 4294901760
1.4507658 0.78760225 0.17740701 4294901760
1.4542609 0.81337237 0.17907266 4294901760
0.11520391 0.98462635 0.17878743 4294901760
-0.64291149 -0.77994484 0.18229043 4294901760
-0.65523475 -0.77480775 0.18300369 4294901760
1.0625587 0.7557258 0.18331891 4294901760
-1.5777311 -0.7932924 0.18978447 4294901760
-0.67371774 -0.77661616 0.18541989 4294901760
-1.5879337 -0.77352917 0.189825 4294901760
-0.70609564 -0.77368933 0.1889075 4294901760
-0.68645149 -0.77145284 0.18623613 4294901760
-1.5958182 -0.75265825 0.18961953 4294901760
1.0392317 0.16493335 0.1897698 4294901760
0.98205894 0.31294924 0.18588841 4294901760
0.97403246 0.32395664 0.1851266 4294901760
0.2995356 0.99376386 0.18718842 4294901760
-1.573058 -0.86686516 0.19302537 4294901760
-1.5782725 -0.84400803 0.19234584 4294901760
-1.5860362 -0.82264853 0.19201434 4294901760
-0.72574115 -0.77537841 0.19153608 4294901760
-0.733468 -0.76411778 0.19102079 4294901760
-1.0627152 -0.17552932 0.19425605 4294901760
0.31807277 1.0091019 0.19081683 4294901760
0.33624977 1.0217181 0.19398779 4294901760
0.2970365 1.032341 0.19373502 4294901760
0.13866471 1.0684096 0.19430234 4294901760
-1.5823218 -0.89812732 0.19553432 4294901760
0.9278425 0.77192515 0.19843681 4294901760
0.354693 1.0337394 0.19710259 4294901760
0.28624693 1.0441424 0.19525781 4294901760
-1.4323953 -0.14507511 0.20241487 4294901760
1.1069282 0.18999563 0.20255241 4294901760
0.38672605 1.0409415 0.20026958 4294901760
0.43285581 1.0426818 0.20360637 4294901760
0.44877425 1.043717 0.20489576 4294901760
0.37361351 1.0457977 0.20028289 4294901760
0.40707836 1.0548443 0.20391442 4294901760
0.42080507 1.0508267 0.20414592 4294901760
1.0172727 0.76288629 0.20905551 4294901760
0.98687208 0.77975446 0.20678657 4294901760
0.46720919 1.0499593 0.20725971 4294901760
0.48538136 1.0548353 0.20941213 4294901760
0.28763169 1.1035022 0.20566466 4294901760
0.27765322 1.1229666 0.20862418 4294901760
-1.1550221 -0.20574793 0.21158586 4294901760
0.56202132 1.0430591 0.21368392 4294901760
0.55043149 1.0530913 0.21430221 4294901760
0.50321966 1.0583041 0.21134201 4294901760
0.52273136 1.064564 0.21388963 4294901760
0.26771659 1.1444341 0.21196932 4294901760
0.16588029 1.1631632 0.21189742 4294901760
0.90220565 1.7803617 0.21449921 4294901760
0.82188529 1.7861288 0.21130091 4294901760
0.85023642 1.788103 0.21278417 4294901760
0.87970245 1.7915504 0.21449561 4294901760
0.79876482 1.7950642 0.21115136 4294901760
1.1969917 0.22100477 0.21952461 4294901760
0.58082646 1.0461962 0.21580784 4294901760
0.60101986 1.051159 0.2183754 4294901760
0.54185033 1.0692569 0.21618626 4294901760
0.93637508 1.7914826 0.21724243 4294901760
-0.5517053 0.68673635 0.2247459 4294901760
1.0986682 0.78140801 0.2216592 4294901760
0.65414947 1.0499587 0.22310269 4294901760
0.63696241 1.0516483 0.22173981 4294901760
0.62436146 1.0607592 0.22198552 4294901760
0.2663815 1.207056 0.22292903 4294901760
-0.88969237 0.1354661 0.22960514 4294901760
0.93831253 0.78063571 0.22997014 4294901760
0.70959973 1.0485386 0.22833632 4294901760
0.67445546 1.0527803 0.22548899 4294901760
0.69654346 1.0576974 0.22840267 4294901760
-1.2615825 -0.24115694 0.23164435 4294901760
0.97283161 0.76866066 0.23360121 4294901760
0.42850509 0.79526544 0.23047669 4294901760
0.29569086 0.86177999 0.23245002 4294901760
0.73248452 1.0535278 0.23141307 4294901760
0.75696528 1.0600083 0.23491164 4294901760
0.19648303 1.2636963 0.23064433 4294901760
-1.4240984 -0.14423478 0.23533382 4294901760
0.92108864 -0.13431625 0.23748462 4294901760
0.2880291 0.87519634 0.23507191 4294901760
0.78241658 1.066982 0.23862158 4294901760
-0.93986076 0.1310187 0.24210726 4294901760
1.3207703 0.26109689 0.24280894 4294901760
1.0278294 0.77080309 0.24205901 4294901760
0.46076253 0.82993466 0.24218649 4294901760
0.28723964 0.91128218 0.24377351 4294901760
0.81549382 1.0552994 0.24052641 4294901760
0.80588776 1.0704598 0.2416497 4294901760
-0.97467357 -0.96551609 0.24742696 4294901760
0.96053982 -0.12773928 0.24722201 4294901760
0.47711632 0.83445686 0.2452399 4294901760
0.27942467 0.92704219 0.24702859 4294901760
-0.97586739 -0.99135309 0.25087911 4294901760
-0.9990074 -0.96500427 0.25049967 4294901760
-1.0113826 -0.95263523 0.25057495 4294901760
-1.0264677 -0.94273698 0.25135127 4294901760
-0.98235023 0.12435358 0.2526291 4294901760
1.3040719 0.54618537 0.25498283 4294901760
0.27137953 0.94317108 0.25039598 4294901760
-0.159402 0.98436129 0.2544136 4294901760
-1.0704961 -0.95860767 0.25915614 4294901760
-1.3914387 -0.28418484 0.25612453 4294901760
1.3124563 0.53037304 0.25529608 4294901760
1.308501 0.56751037 0.25722572 4294901760
1.3147316 0.5899902 0.25989041 4294901760
1.2984258 0.60242712 0.2581462 4294901760
0.26693374 0.97369367 0.25758645 4294901760
0.15837219 -1.0185834 0.26299569 4294901760
1.0133343 -0.12179618 0.26039478 4294901760
1.3030403 0.6246255 0.26060674 4294901760
1.304229 0.64551491 0.26244935 4294901760
1.2958794 0.66182512 0.26242539 4294901760
1.2929159 0.68097168 0.26354086 4294901760
1.2738534 0.69155872 0.26140955 4294901760
1.2654971 0.70779622 0.26150301 4294901760
1.2678572 0.73022425 0.26386988 4294901760
1.2238828 0.78951353 0.26266724 4294901760
1.4644279 0.30870473 0.26991203 4294901760
1.4500382 0.34402218 0.26877171 4294901760
1.2676077 0.75149268 0.26576632 4294901760
1.2702116 0.77481526 0.26833656 4294901760
1.2519163 0.7854529 0.2665399 4294901760
1.2416302 0.82328469 0.2686798 4294901760
1.2286296 0.83712506 0.26812634 4294901760
1.2263639 0.85838878 0.2699694 4294901760
1.0621041 0.087122567 0.27188689 4294901760
-1.0522997 0.11976665 0.27020863 4294901760
1.4681592 0.32885161 0.27134147 4294901760
1.4664005 0.36746719 0.27264062 4294901760
1.4597137 0.38538864 0.27227807 4294901760
1.4504907 0.40255684 0.27148172 4294901760
1.4432213 0.42018113 0.27108994 4294901760
1.4438422 0.44015667 0.27222607 4294901760
1.4431192 0.45987368 0.27315992 4294901760
1.228981 0.88348305 0.27297291 4294901760
0.2672796 1.0254211 0.27035892 4294901760
-0.15686265 1.0524987 0.27149203 4294901760
1.0844754 -0.11651459 0.27827671 4294901760
1.2372385 0.91326576 0.27733931 4294901760
1.0803268 1.1113739 0.27952641 4294901760
1.0497363 1.135776 0.27892506 4294901760
1.0278614 1.140591 0.276907 4294901760
1.0198507 1.1607636 0.27866456 4294901760
1.006591 1.1751899 0.27906281 4294901760
-0.90868211 -1.2895607 0.28450942 4294901760
-0.94053274 -1.2658228 0.28440875 4294901760
-0.91086125 -1.2586904 0.28020695 4294901760
-1.1077055 0.11196368 0.28405112 4294901760
1.2567858 0.95237249 0.28438669 4294901760
1.0697712 1.1286058 0.28045014 4294901760
0.99910814 1.1966267 0.28114346 4294901760
-0.89624488 -1.3065444 0.28574389 4294901760
-1.5469941 -0.33630016 0.28551474 4294901760
1.2678373 0.98612177 0.28967434 4294901760
1.1461259 1.1211436 0.28915286 4294901760
1.1215087 1.1250432 0.28649363 4294901760
1.0118781 1.2434158 0.28911984 4294901760
0.28663948 1.5803123 0.28965756 4294901760
-0.90139258 -1.3501844 0.29278246 4294901760
-0.97655267 -1.2803057 0.29040271 4294901760
-1.5818636 -0.40700701 0.29457888 4294901760
-1.5794108 -0.38523951 0.29319552 4294901760
-1.5830166 -0.36506408 0.2929883 4294901760
1.1459899 -0.10854623 0.29368734 4294901760
0.27444497 0.83391994 0.29207867 4294901760
1.2705545 1.0141673 0.29318973 4294901760
-0.89108813 -1.3718456 0.29502302 4294901760
-1.0169137 -1.2989711 0.29751736 4294901760
-1.5770814 -0.49165207 0.29792532 4294901760
-1.5908642 -0.47405541 0.29937759 4294901760
-1.5805055 -0.44938037 0.29633987 4294901760
-1.5948396 -0.43182734 0.2979843 4294901760
-0.88986695 -1.4084756 0.30046692 4294901760
-1.5837013 -0.51568246 0.30037874 4294901760
-1.181165 0.10438243 0.30252746 4294901760
1.2885218 1.0553417 0.30037856 4294901760
1.2948962 1.0880901 0.30503443 4294901760
1.231083 -0.10098361 0.31514362 4294901760
0.36276975 1.7481357 0.32199088 4294901760
0.385739 1.7479012 0.32281676 4294901760
0.40835977 1.7456552 0.32332599 4294901760
0.34307602 1.7646327 0.32420805 4294901760
0.50319922 1.7488531 0.32819977 4294901760
0.43636483 1.7648746 0.32787752 4294901760
0.48315203 1.7623928 0.3295728 4294901760
0.46021023 1.7656016 0.32906312 4294901760
0.71693426 -0.70130706 0.33366197 4294901760
-0.73860252 0.67835349 0.33364052 4294901760
-0.71424603 0.68993527 0.3303836 4294901760
-0.70354575 0.71471006 0.33365545 4294901760
0.67416441 -0.76731378 0.3398155 4294901760
0.69335341 -0.75018287 0.3398554 4294901760
0.69669354 -0.73500985 0.33692926 4294901760
0.71388489 -0.71613473 0.33641297 4294901760
0.73430979 -0.70042956 0.33761698 4294901760
0.73785216 -0.68627429 0.33524585 4294901760
0.75276494 -0.6826703 0.33808896 4294901760
0.75963503 -0.67166501 0.33734915 4294901760
-0.75467944 0.67580026 0.33703202 4294901760
-0.7385512 0.69565153 0.33754754 4294901760
-0.72477907 0.71796948 0.33941081 4294901760
-0.69129366 0.73857486 0.33656088 4294901760
0.71497941 -0.73552698 0.3412663 4294901760
0.7759257 -0.66885149 0.34081641 4294901760
0.78582448 -0.66032153 0.34148502 4294901760
1.3304282 -0.092284381 0.34025046 4294901760
-1.0279014 -2.7276287e-06 0.34197682 4294901760
-1.0257326 2.7218737e-06 0.34125525 4294901760
-0.80452991 0.65052038 0.3442131 4294901760
-0.79712468 0.66130352 0.34458029 4294901760
-0.78321546 0.66659027 0.34216899 4294901760
-0.77521574 0.67679679 0.34237015 4294901760
-0.70804423 0.73763162 0.3401669 4294901760
-0.6893537 0.75534469 0.34022012 4294901760
-0.68008876 0.76430225 0.34037048 4294901760
-0.95827311 -0.97347957 0.34850976 4294901760
0.6834051 -0.79787201 0.34950981 4294901760
0.69460839 -0.77078885 0.34520069 4294901760
0.80612057 -0.66023922 0.34666449 4294901760
0.81395727 -0.6497075 0.34648883 4294901760
0.59166849 -0.59353316 0.3469891 4294901760
0.59987718 -0.58680153 0.34744221 4294901760
-0.82234007 0.64796865 0.34831452 4294901760
-0.68772012 0.79275715 0.3491582 4294901760
-0.66690594 0.8090536 0.34882653 4294901760
-0.90456891 -1.0427258 0.35218588 4294901760
-0.9300136 -1.0190427 0.35198727 4294901760
-0.93792385 -1.0020734 0.35017762 4294901760
-0.95252675 -0.99233043 0.35093656 4294901760
0.83566487 -0.64997876 0.35221741 4294901760
0.61359471 -0.58528411 0.35109076 4294901760
-1.0665498 -0.013433048 0.35486305 4294901760
-0.8401162 0.64499682 0.35237578 4294901760
-0.68187553 0.80631018 0.35131785 4294901760
-0.9076587 -1.0732963 0.35862246 4294901760
-0.92839062 -1.0433506 0.35631719 4294901760
-0.99052382 -0.98121744 0.35571706 4294901760
-1.0044683 -0.97027934 0.35630891 4294901760
0.66431457 -0.83764941 0.35568264 4294901760
0.67404783 -0.82828325 0.3552815 4294901760
0.6840117 -0.81923729 0.35506773 4294901760
0.85070676 -0.64465219 0.35510772 4294901760
0.86717236 -0.64010203 0.35858792 4294901760
-0.85615677 0.64034051 0.35569355 4294901760
-0.67054826 0.83466643 0.35620081 4294901760
-0.89508909 -1.1141641 0.36462873 4294901760
-0.89921731 -1.090881 0.36068603 4294901760
-1.0393976 -0.97902292 0.36429718 4294901760
-0.89450544 0.63453716 0.36486971 4294901760
-0.87575316 0.63796109 0.36046886 4294901760
-0.6724562 0.85897273 0.36293128 4294901760
-0.88621771 -1.1320245 0.36679265 4294901760
0.66856241 -0.88805073 0.36981615 4294901760
0.67616135 -0.87499458 0.36789563 4294901760
0.61225128 -0.6459235 0.36848474 4294901760
0.62283272 -0.64073205 0.36996797 4294901760
0.8966797 -0.64460015 0.36740401 4294901760
0.90422171 -0.6329065 0.36719966 4294901760
1.4398273 -0.081670843 0.36793655 4294901760
1.4489274 0.027369604 0.36973372 4294901760
-0.6715607 0.88044721 0.36840242 4294901760
-0.87610173 -1.1791078 0.37477925 4294901760
-0.88229948 -1.1567354 0.37117013 4294901760
0.9258312 -0.63081384 0.37271985 4294901760
1.4657658 -0.064638741 0.37432724 4294901760
1.4585162 -0.045927595 0.37229863 4294901760
1.4514034 -0.027416373 0.37036553 4294901760
1.4552791 -0.0091622258 0.37129566 4294901760
1.4538268 0.009153082 0.37092513 4294901760
1.452567 0.045740258 0.37078002 4294901760
1.4597865 0.064375058 0.37280026 4294901760
1.4484584 0.082160421 0.37014216 4294901760
1.4516287 0.10069138 0.37124687 4294901760
-0.67097175 0.90303218 0.37428764 4294901760
0.6719557 -0.91634643 0.37804589 4294901760
-0.92888474 0.64149791 0.37556833 4294901760
-0.66777617 0.92277873 0.37895685 4294901760
-0.88187897 -1.2186407 0.38378465 4294901760
0.66955173 -0.93759972 0.38330537 4294901760
0.96419513 -0.63932645 0.38489288 4294901760
-0.95518482 0.64204967 0.3829028 4294901760
1.205753 0.89002478 0.38235635 4294901760
1.1877511 0.9000591 0.38021168 4294901760
1.1905762 0.92602825 0.38481826 4294901760
1.1734571 0.93666339 0.38306695 4294901760
1.1598334 0.94994169 0.38249409 4294901760
1.1352984 0.97863239 0.38241079 4294901760
1.1240133 0.99384618 0.38279462 4294901760
-0.87327796 -1.2393168 0.38680241 4294901760
0.66887075 -0.9620325 0.38981971 4294901760
-1.5075523 0.075997911 0.38511324 4294901760
-0.97588986 0.63827598 0.38795012 4294901760
-0.66894156 0.94933176 0.38637146 4294901760
1.1581889 0.97321618 0.38596267 4294901760
1.1267527 1.0218337 0.38807884 4294901760
1.1157287 1.0377363 0.3887518 4294901760
1.1043308 1.0533782 0.38937125 4294901760
1.0854803 1.0618199 0.38740847 4294901760
1.0721959 1.0755749 0.3874703 4294901760
1.0434972 1.1008868 0.38699737 4294901760
1.0337753 1.1185068 0.38858446 4294901760
0.98951656 -0.63832641 0.39176112 4294901760
-0.66786253 0.97360897 0.39279824 4294901760
1.0704613 1.1012249 0.39182362 4294901760
0.14105831 1.5408721 0.39476964 4294901760
0.66684055 -0.98535556 0.39583641 4294901760
1.0181007 -0.63875687 0.39986178 4294901760
-1.5601786 -0.11809927 0.39919031 4294901760
-1.0198696 0.63095725 0.39898911 4294901760
-1.009352 0.64216298 0.39800635 4294901760
1.0400045 1.1540658 0.39635703 4294901760
0.10257825 1.549441 0.39617735 4294901760
0.12197288 1.5466751 0.3958315 4294901760
0.16183963 1.5523165 0.39819226 4294901760
0.57134223 -0.57314283 0.40491238 4294901760
-1.5852515 -0.079914846 0.404962 4294901760
-1.5723619 -0.059427835 0.40144628 4294901760
-1.5793543 -0.03978562 0.40307167 4294901760
-1.5830058 -0.019937739 0.40390748 4294901760
-1.5834891 4.2019306e-06 0.40399876 4294901760
-1.57601 0.019849628 0.4021225 4294901760
-0.67156965 1.0059355 0.40239662 4294901760
1.0349692 1.177971 0.40005946 4294901760
0.18269765 1.5614828 0.40110186 4294901760
-0.9143734 -0.81880289 0.40834966 4294901760
1.0415145 -0.63531256 0.4058834 4294901760
-1.5849117 -0.099918686 0.40516451 4294901760
-1.590826 -4.2213996e-06 0.40587065 4294901760
-1.5973207 0.040238213 0.40765694 4294901760
-1.6000755 0.060475275 0.40852195 4294901760
0.20508645 1.5801882 0.40653789 4294901760
0.67818797 -1.0298247 0.4102374 4294901760
-0.91123116 -0.83690047 0.41162008 4294901760
-0.93769211 -0.81864566 0.41412702 4294901760
0.58963418 -0.57678181 0.41269597 4294901760
-1.059848 0.63737917 0.41145673 4294901760
-0.67855942 1.044654 0.41443399 4294901760
1.0484828 1.2240983 0.41120863 4294901760
-0.89962775 -0.86900717 0.41613424 4294901760
-0.90823132 -0.8554756 0.41509816 4294901760
