# .PCD v0.7 - Point Cloud Data file format
VERSION 0.7
FIELDS x y z intensity
SIZE 4 4 4 4
TYPE F F F F
COUNT 1 1 1 1
WIDTH 1353
HEIGHT 1
VIEWPOINT 0 0 0 1 0 0 0
POINTS 1353
DATA ascii
-1.242115 0.17995013 0.70024884 0
-1.1318444 0.16574734 -0.049961507 0
-0.50535482 0.20524356 0.10699527 0
-0.50737894 0.20511596 0.17585012 0
-1.2480708 0.15842 0.43562952 0
-1.2266862 0.15976816 0.5591116 0
-1.1295927 0.14612471 -0.049929786 0
-0.51547652 0.19261083 0.10817441 0
-0.5132519 0.19277923 0.17706075 0
-1.2412599 0.13767193 0.43426228 0
-1.2358239 0.13808341 0.56264365 0
-1.1345744 0.12588212 -0.050166138 0
-0.50744063 0.18130347 0.10741302 0
-0.50572789 0.18145484 0.17587529 0
-1.2487425 0.11579283 0.43662134 0
-1.2367339 0.11685405 0.56352288 0
-1.1273446 0.10670317 -0.049973737 0
-0.5118224 0.16891839 0.10800736 0
-0.51050127 0.16905192 0.17694329 0
-1.2350601 0.095815606 0.43362665 0
-1.234069 0.095915787 0.56329709 0
-1.1368119 0.085757278 -0.050389688 0
-0.51246923 0.15681633 0.039955951 0
-0.5205099 0.15590118 0.10908512 0
-0.51507866 0.15651934 0.17800556 0
-1.2366651 0.074392565 0.4346177 0
-1.241393 0.073854469 0.56650394 0
-1.1320997 0.066307418 -0.050305527 0
-0.50807875 0.14530088 0.039849382 0
-0.50662947 0.14548434 0.10773763 0
-0.50790793 0.1453225 0.17696254 0
-1.2398907 0.052662406 0.4360964 0
-1.2424486 0.052338604 0.56770688 0
-1.1195977 0.04800025 -0.049949236 0
-0.4991079 0.13449791 0.039582748 0
-0.51230955 0.13265757 0.10852446 0
-0.51048392 0.13291207 0.17771815 0
-1.2315735 0.032390583 0.43467474 0
-1.2260503 0.033160526 0.56313992 0
-1.1112357 0.029313732 -0.049750093 0
-0.50401056 0.1217709 0.039821517 0
-0.51235181 0.12050084 0.10871749 0
-0.5182488 0.11960296 0.17945026 0
-1.2391537 0.0098367231 0.43741888 0
-1.2363876 0.01025789 0.56764269 0
-1.1056752 0.010303696 -0.049660407 0
-0.51870793 0.10725345 0.040420998 0
-0.50690359 0.1092032 0.10832952 0
-0.51104546 0.10851907 0.17848052 0
-1.2418205 -0.012183498 0.43897146 0
-1.2416801 -0.012160311 0.57055086 0
-1.1191159 -0.012029986 -0.05026824 0
-0.50528812 0.097313203 0.040008824 0
-0.5061729 0.097155593 0.10847117 0
-0.52256101 0.094236322 0.18096322 0
-1.2261213 -0.031091195 0.43583983 0
-1.2451178 -0.034475099 0.57293403 0
-1.1156076 -0.031563502 -0.050271694 0
-0.5161916 0.083017476 0.040484302 0
-0.51448244 0.083344184 0.10961886 0
-0.51316881 0.083595298 0.17964591 0
-1.2440188 -0.056109827 0.44148922 0
-1.2401218 -0.055364918 0.57256138 0
-1.1133343 -0.051354896 -0.050329104 0
-0.52073747 0.06967596 0.040735893 0
-0.51369971 0.071113355 0.10979126 0
-0.51492882 0.070862316 0.18040267 0
-1.2360178 -0.076411553 0.4404912 0
-1.2380743 -0.076831557 0.57327819 0
-1.1103035 -0.071026333 -0.050368097 0
-0.51322728 0.058771733 0.040553831 0
-0.50918859 0.05964971 0.10957101 0
-0.51621926 0.058121312 0.18110438 0
-1.2448298 -0.1002709 0.44394672 0
-1.2509273 -0.10159642 0.57916194 0
-1.09872 -0.088756807 -0.050102901 0
-0.50694102 0.047715057 0.040421106 0
-0.50798273 0.04747482 0.10973053 0
-0.51457226 0.045955185 0.18129413 0
-1.2394077 -0.12120119 0.44376403 0
-1.237865 -0.12084544 0.57632101 0
-1.0933248 -0.10780744 -0.050072491 0
-0.51134151 0.034146104 0.040685799 0
-0.50929761 0.034644637 0.11018634 0
-0.51367962 0.033575807 0.18165287 0
-1.2351356 -0.142397 0.44395187 0
-1.2470648 -0.14530669 0.58117783 0
-1.0846001 -0.12598248 -0.049928073 0
-0.55995208 0.0090072947 0.042587403 0
-0.55684739 0.0098061161 0.1157922 0
-0.54493886 0.012870152 0.18802918 0
-1.2388002 -0.16565754 0.44630137 0
-1.2403699 -0.16606142 0.58069569 0
-1.0840467 -0.14626776 -0.050093845 0
-0.62309635 -0.021458369 0.04504475 0
-0.62415564 -0.021745156 0.12365184 0
-1.2363131 -0.18749623 0.31781366 0
-1.2517197 -0.19166778 0.45118245 0
-1.2420194 -0.18904127 0.58317798 0
-1.0796387 -0.16558187 -0.050126608 0
-0.70779681 -0.059857171 0.048325207 0
-0.69049096 -0.054936629 0.13147527 0
-1.2372938 -0.21040748 0.31908914 0
-1.2359359 -0.21002136 0.44855437 0
-1.2395655 -0.21105336 0.58434975 0
-1.0660025 -0.18217348 -0.049824759 0
-0.77686799 -0.096015401 0.051053736 0
-0.77923989 -0.096722223 0.14188835 0
-1.2400134 -0.2340263 0.3207508 0
-1.2453923 -0.23562913 0.45269722 0
-1.2351773 -0.23258521 0.58495051 0
-1.0693552 -0.20384164 -0.050164845 0
-0.86759675 -0.14094381 0.054619901 0
-0.88241506 -0.14556341 0.15402547 0
-1.239809 -0.25698027 0.32192272 0
-1.2388772 -0.25668976 0.45267409 0
-1.2361358 -0.25583515 0.58751124 0
-1.0573097 -0.22075139 -0.049938396 0
-0.98631954 -0.19763567 0.059272982 0
-0.9776144 -0.19480114 0.16538036 0
-1.2377917 -0.27951965 0.32281032 0
-1.2401593 -0.28029057 0.45481402 0
-1.2319088 -0.27760407 0.58837026 0
-1.0540459 -0.24047808 -0.050050098 0
-1.1190112 -0.26254043 0.064499535 0
-1.1437114 -0.27092877 0.18490082 0
-1.2316173 -0.30078188 0.32296389 0
-1.2437196 -0.30489185 0.45765689 0
-1.0474945 -0.25912884 -0.050047189 0
-1.3028063 -0.34943458 0.20381923 0
-1.240392 -0.32735816 0.32602897 0
-1.2379804 -0.32650515 0.45807943 0
-1.0342356 -0.27531269 -0.049798012 0
-1.2460145 -0.35323444 0.19821662 0
-1.230558 -0.34754738 0.32559645 0
-1.2405596 -0.35122737 0.46083915 0
-1.0329237 -0.29587922 -0.050012041 0
-1.249565 -0.37870172 0.19953515 0
-1.2352046 -0.37321171 0.32800668 0
-1.2465041 -0.3775315 0.46461621 0
-1.012377 -0.30897906 -0.049498271 0
-1.2512196 -0.40375295 0.20067807 0
-1.25108 -0.40369752 0.33267027 0
-1.2326534 -0.39638576 0.46306941 0
-1.0106329 -0.32942674 -0.049714055 0
-1.2536609 -0.42942134 0.20195492 0
-1.2432982 -0.42515758 0.33281916 0
-1.237124 -0.42261717 0.46663448 0
-1.0133787 -0.35195711 -0.050115224 0
-1.2503446 -0.45296475 0.20260365 0
-1.244855 -0.45062479 0.33485255 0
-1.2386427 -0.44797674 0.46949145 0
-1.0093865 -0.37182727 -0.050266735 0
-1.250257 -0.47810271 0.20367 0
-1.2342396 -0.47103563 0.33456081 0
-1.2365518 -0.47205576 0.47144648 0
-0.99294436 -0.38613692 -0.049940336 0
-1.245943 -0.50159079 0.20428048 0
-1.2437475 -0.50058883 0.33830747 0
-1.2450058 -0.50116313 0.47645491 0
-0.98842299 -0.40581784 -0.050089635 0
-1.2322422 -0.52081382 0.20381431 0
-1.2429627 -0.52587008 0.34009811 0
-1.2377765 -0.52342403 0.47717214 0
-0.9794172 -0.42343494 -0.050071582 0
-1.4961177 -0.67513502 0.082590736 0
-1.2435774 -0.55211514 0.20636696 0
-1.2428113 -0.55174202 0.34209046 0
-1.2403375 -0.55053693 0.48075151 0
-0.96738887 -0.43952158 -0.049941473 0
-1.4452369 -0.67978632 0.081036352 0
-1.235521 -0.57433993 0.2066505 0
-1.2412152 -0.57720309 0.34386939 0
-1.2372543 -0.57521147 0.48283908 0
-0.96800077 -0.46206453 -0.050326988 0
-1.3945996 -0.68333369 0.079483919 0
-1.2367419 -0.60145575 0.20809281 0
-1.2214907 -0.59354526 0.34204185 0
-0.95272195 -0.47642156 -0.05008322 0
-1.3481643 -0.68789113 0.078092933 0
-1.2451527 -0.63280392 0.21046259 0
-1.2365782 -0.62821865 0.34736356 0
-0.93323529 -0.48826709 -0.049673576 0
-1.3136288 -0.69789058 0.077179663 0
-1.2390442 -0.65678924 0.21111551 0
-1.2332149 -0.65357697 0.34901249 0
-0.94517744 -0.51762307 -0.050557293 0
-1.2625159 -0.69774467 0.075584471 0
-1.2347556 -0.68198788 0.21203521 0
-1.2361668 -0.68278891 0.3520489 0
-0.92052555 -0.5263201 -0.049949598 0
-1.2616345 -0.72565383 0.076054506 0
-1.2423135 -0.71436328 0.21447563 0
-1.2350556 -0.71012199 0.35433555 0
-0.90935004 -0.54262513 -0.049903248 0
-1.2496947 -0.74730414 0.076082006 0
-1.2381362 -0.74035293 0.21551386 0
-1.2370937 -0.73972613 0.35737452 0
-0.90295196 -0.56185108 -0.050065689 0
-1.2501619 -0.77665752 0.076641984 0
-1.244769 -0.77332121 0.21796753 0
-1.2348206 -0.76716644 0.35960174 0
-0.90001225 -0.58341676 -0.050385978 0
-1.2469503 -0.80414325 0.077066377 0
-1.2353777 -0.79678065 0.2184525 0
-1.2392256 -0.79922873 0.36334789 0
-0.88299406 -0.59604818 -0.050119877 0
-1.2457254 -0.83329076 0.077593736 0
-1.2405787 -0.82992464 0.22085312 0
-1.2410237 -0.83021563 0.36664987 0
-0.87348759 -0.61350644 -0.050181456 0
-1.2472801 -0.86475974 0.078260876 0
-1.2454149 -0.86350602 0.22328076 0
-1.2431215 -0.8619644 0.3701295 0
-0.85658276 -0.62591189 -0.049932078 0
-1.2394679 -0.89033645 0.078544542 0
-1.2465581 -0.89523298 0.22530222 0
-1.2353256 -0.88747579 0.37155828 0
-0.85512018 -0.64905977 -0.050363198 0
-1.2375072 -0.92031449 0.079100929 0
-1.2337644 -0.91765946 0.22555788 0
-1.6100537 -1.1845884 0.45765322 0
-0.84124565 -0.66354609 -0.05026288 0
-1.2371145 -0.95192522 0.079748303 0
-1.2318635 -0.94810003 0.22730158 0
-1.5720636 -1.195926 0.45328352 0
-0.81720018 -0.67034084 -0.04971626 0
-1.2387937 -0.98566097 0.080511823 0
-1.2358525 -0.98346108 0.22990343 0
-0.81107235 -0.69040972 -0.049974635 0
-1.2391359 -1.0190542 0.081241608 0
-1.2459317 -1.0242717 0.23341577 0
-0.80046952 -0.70718849 -0.050043616 0
-1.1643479 -0.99390906 0.078582838 0
-1.1596875 -0.99023682 0.22385381 0
-1.1567274 -0.98790449 0.37090987 0
-0.791044 -0.72498572 -0.050177 0
-1.1459922 -1.0119869 0.0784733 0
-1.1533581 -1.0179427 0.22517973 0
-1.1400472 -1.00718 0.37072745 0
-0.7696656 -0.73299307 -0.049767666 0
-1.2499812 -1.1314681 0.084048398 0
-1.2480351 -1.1298536 0.24067235 0
-1.3367828 -1.2034798 0.42060989 0
-0.75570881 -0.74694186 -0.049706563 0
-1.2444879 -1.162939 0.084621072 0
-1.2488241 -1.1666296 0.24327993 0
-1.3273822 -1.2334899 0.42279381 0
-1.0257533 -0.97677523 0.49456769 0
-0.74778199 -0.76610214 -0.049938835 0
-1.2773976 -1.2284794 0.41537568 0
-0.99199212 -0.97930807 0.48846531 0
-0.73374975 -0.7800191 -0.049892653 0
-1.187566 -1.1864023 0.083641052 0
-1.1923928 -1.1907246 0.2404142 0
-1.1942663 -1.1924024 0.39983377 0
-0.973364 -0.99458879 0.48748729 0
-0.71898067 -0.79321939 -0.049818654 0
-0.92070901 -0.97849244 0.47477698 0
-0.71503782 -0.81654972 -0.050282858 0
-0.88717937 -0.97869211 0.4685477 0
-0.70056224 -0.83016521 -0.050244413 0
-0.85492396 -0.97927302 0.46269506 0
-0.6787442 -0.83647364 -0.04984507 0
-0.83423686 -0.99050528 0.460926 0
-0.66213012 -0.84767157 -0.049709447 0
-0.82357144 -1.0116746 0.46283007 0
-0.65498567 -0.86860114 -0.050067458 0
-0.64370334 -0.8854838 -0.050227813 0
-0.62181938 -0.89092261 -0.049840108 0
-0.61270642 -0.91030711 -0.050136417 0
-0.59955812 -0.92536348 -0.050230406 0
-0.58099186 -0.93412095 -0.050036661 0
-0.56287426 -0.94321269 -0.049871266 0
-0.54454958 -0.95186549 -0.049697932 0
-0.53587681 -0.97265393 -0.050087046 0
-0.52439976 -0.99022347 -0.050332837 0
-0.50324094 -0.99505883 -0.050016411 0
-0.4884572 -1.0083282 -0.050086331 0
-0.47486514 -1.0233798 -0.050241642 0
-0.45135128 -1.0241668 -0.049785487 0
-0.44048715 -1.0433278 -0.05013464 0
-0.42436355 -1.0548496 -0.050161589 0
-0.37891573 -0.98488194 0.50160265 0
-0.40612102 -1.063059 -0.050057046 0
-0.35120839 -0.97614378 0.49418208 0
-0.39019209 -1.0748997 -0.050115123 0
-0.33472073 -0.9846018 0.49366981 0
-0.37344152 -1.0854504 -0.050127503 0
-0.30934322 -0.97810179 0.48744601 0
-0.35036016 -1.0851122 -0.049699098 0
-0.28870976 -0.97884601 0.48417723 0
-0.33814269 -1.1034464 -0.050050832 0
-0.27664769 -0.9943046 0.48665014 0
-0.32281113 -1.1166106 -0.050196055 0
-0.2552709 -0.99312967 0.48285624 0
-0.30173886 -1.1191833 -0.049920056 0
-0.2273307 -0.9789812 0.47430295 0
-0.28241235 -1.1247292 -0.049775913 0
-0.20737876 -0.97894484 0.47121733 0
-0.26831669 -1.1405399 -0.05005195 0
-0.18801309 -0.97956687 0.46848956 0
-0.24857534 -1.1451223 -0.049888149 0
-0.16793503 -0.97824639 0.46515098 0
-0.22758813 -1.146776 -0.049619712 0
-0.14629669 -0.97300094 0.46048346 0
-0.21527143 -1.1671377 -0.050096292 0
-0.13054277 -0.97990817 0.46038017 0
-0.19249202 -1.1644288 -0.049677305 0
-0.11353238 -0.98393065 0.45930207 0
-0.17594297 -1.1757138 -0.049814053 0
-1.0036714 -3.1346762 0.13773844 0
-0.10291375 -1.0028775 0.46369758 0
-0.16162457 -1.1927327 -0.050179228 0
-0.91287065 -3.0350504 0.13321048 0
-0.076137319 -0.98308831 0.34971049 0
-0.087003067 -1.0097347 0.4637751 0
-0.14003457 -1.191969 -0.049867373 0
-0.87812948 -3.0693026 0.13388462 0
-0.051611111 -0.96706539 0.34358919 0
-0.066733554 -1.005529 0.45996913 0
-0.11919887 -1.192585 -0.04962007 0
-0.87095249 -3.1777053 0.13740304 0
-0.035946861 -0.97274536 0.14816615 0
-0.03103487 -0.95977455 0.24207352 0
-0.010243637 -0.90487212 0.32498559 0
-0.051517531 -1.0138621 0.46073306 0
-0.10460897 -1.2098421 -0.050016209 0
-0.0088399183 -0.94700366 0.1445583 0
-0.0084064435 -0.94581395 0.23829205 0
0.0029260383 -0.91471189 0.32616878 0
-0.085020736 -1.21368 -0.049909972 0
0.0064551099 -0.95244414 0.1445559 0
0.0089490581 -0.94532198 0.23715545 0
0.021841394 -0.90850407 0.32305366 0
-0.0061286525 -0.98838073 0.44759709 0
-0.066050723 -1.2191318 -0.049874276 0
0.023394542 -0.95299822 0.14402139 0
0.025418477 -0.94697624 0.23647366 0
0.025753098 -0.94598061 0.33177385 0
0.016700136 -0.97291666 0.44026572 0
-0.049195394 -1.2310762 -0.050091229 0
0.036801741 -0.96411735 0.14470606 0
0.035649672 -0.96769363 0.23944601 0
0.021018939 -1.0131114 0.34842062 0
0.023341523 -1.0059015 0.44999909 0
-0.028949333 -1.2325524 -0.049924195 0
0.023864137 -1.0612433 0.35991457 0
-0.0097406637 -1.2371446 -0.049883258 0
0.068126723 -0.9727909 0.3350482 0
0.0071537956 -1.2498795 -0.050153408 0
0.085666642 -0.97039813 0.33322412 0
0.026240664 -1.2551645 -0.050155219 0
0.10039915 -0.97781771 0.33405599 0
0.044280037 -1.2645926 -0.050318498 0
0.1186897 -0.97156984 0.33133644 0
0.064587668 -1.2650981 -0.050161995 0
0.086219296 -1.2592949 -0.049784344 0
0.10482766 -1.2663555 -0.049887333 0
0.12363194 -1.2728257 -0.049977105 0
0.1418771 -1.2826315 -0.050196443 0
-0.066813216 -2.3933408 0.10254406 0
0.1632344 -1.2755582 -0.049811888 0
0.0018960105 -2.1981072 0.095247947 0
0.18048005 -1.2921984 -0.050295483 0
0.0340202 -2.1966374 0.095005743 0
0.20246509 -1.279374 -0.04972247 0
0.065727666 -2.1968389 0.094838932 0
0.21959227 -1.2992473 -0.050338551 0
0.097693458 -2.1943083 0.094588362 0
0.23965752 -1.298883 -0.050233454 0
0.12850271 -2.199748 0.094639398 0
0.26017293 -1.2938036 -0.049968224 0
0.16085576 -2.1916051 0.094216421 0
0.27926639 -1.3013617 -0.050165925 0
0.19180018 -2.19484 0.094216727 0
0.29980147 -1.2936785 -0.049825929 0
0.22246407 -2.2014279 0.094351158 0
0.31882381 -1.3035805 -0.050124962 0
0.2543239 -2.1929059 0.093958423 0
0.33890334 -1.299409 -0.049929004 0
0.28419632 -2.2130213 0.094604559 0
0.35841906 -1.3043077 -0.050066378 0
0.31592852 -2.2035384 0.094205894 0
0.37861928 -1.2923343 -0.049609758 0
0.34714743 -2.2008941 0.094065972 0
0.39806339 -1.3001943 -0.049870599 0
0.37820846 -2.2011585 0.094043992 0
0.41776779 -1.3003047 -0.049863469 0
0.43749115 -1.3070331 -0.050101466 0
0.45728892 -1.3076262 -0.05012932 0
0.47706693 -1.3067181 -0.050112464 0
0.49636111 -1.2942066 -0.0496899 0
0.51592058 -1.2921628 -0.049649969 0
0.53583711 -1.2958906 -0.049825326 0
0.55640489 -1.306264 -0.050247829 0
0.57711834 -1.3149247 -0.050618697 0
0.59485948 -1.2925237 -0.04988445 0
0.61572289 -1.3012371 -0.050275553 0
0.63368946 -1.2854631 -0.049795181 0
0.65463591 -1.2929614 -0.050161351 0
0.67378426 -1.287194 -0.050058473 0
0.69208497 -1.2768111 -0.049796995 0
0.71279997 -1.2807548 -0.050063089 0
0.73152661 -1.2734716 -0.049930997 0
0.75160062 -1.273124 -0.050060034 0
0.77229756 -1.2751623 -0.050285883 0
0.78922445 -1.2603711 -0.04990489 0
0.80745149 -1.2519451 -0.049764622 0
0.82739812 -1.2504961 -0.049889762 0
0.84451509 -1.2383797 -0.049629718 0
0.86692703 -1.2453179 -0.050084602 0
0.88644147 -1.2415205 -0.050151408 0
0.90355456 -1.2299376 -0.049936228 0
0.91989881 -1.2164938 -0.049658298 0
0.94205683 -1.2205886 -0.050048899 0
0.9609285 -1.2146561 -0.050071672 0
0.98062873 -1.2108989 -0.050186425 0
0.99437797 -1.1914876 -0.049712162 0
0.92416275 -1.009542 0.4602887 0
1.0208442 -1.2047244 -0.050497711 0
0.93957204 -1.0017729 0.459759 0
1.037459 -1.192777 -0.05032672 0
0.95432979 -0.99253196 0.45876604 0
1.0487313 -1.1687022 -0.049691617 0
0.97134328 -0.98872036 0.45980111 0
1.0717741 -1.1721733 -0.050134871 0
0.98905057 -0.9862687 0.4614149 0
1.0910403 -1.1666814 -0.050239827 0
1.0048969 -0.97947389 0.46152899 0
1.1083845 -1.1569681 -0.050188098 0
1.0278537 -0.9876067 0.46721619 0
1.1237292 -1.1432583 -0.049985755 0
1.040094 -0.9729318 0.4645921 0
1.1455857 -1.1427071 -0.050316479 0
1.0620555 -0.97787338 0.46932492 0
1.1527421 -1.1135215 -0.049506932 0
1.084816 -0.98356444 0.47447383 0
1.176837 -1.116969 -0.050018921 0
1.0996968 -0.97380406 0.4739264 0
1.1899627 -1.0999085 -0.049709421 0
1.1328151 -0.9969731 0.057506129 0
1.1324984 -0.99640268 0.16097547 0
1.1327598 -0.99687344 0.26616791 0
1.1348077 -1.0005622 0.37512547 0
1.1330599 -0.99741405 0.48614454 0
1.2072983 -1.090644 -0.049725074 0
1.1444786 -0.98077506 0.057206709 0
1.1498128 -0.9901045 0.16129921 0
1.1404262 -0.97368747 0.26320347 0
1.1441469 -0.98019499 0.37176785 0
1.1528912 -0.99548835 0.48882517 0
1.2254006 -1.0826545 -0.049802665 0
1.1658332 -0.98145264 0.057610221 0
1.1587274 -0.9693802 0.15985344 0
1.1627131 -0.97615165 0.26560494 0
1.1699685 -0.98847824 0.37690187 0
1.1662929 -0.9822337 0.48724827 0
1.2404145 -1.0694542 -0.049672838 0
1.2585561 -1.0614415 -0.049768116 0
1.2796328 -1.0578798 -0.05006253 0
1.2917496 -1.0403292 -0.04977271 0
1.3087207 -1.030311 -0.049811665 0
1.3272886 -1.0225356 -0.049957737 0
1.348982 -1.0189544 -0.050299343 0
1.3590213 -0.99906784 -0.049934287 0
1.3711669 -0.98240191 -0.049715307 0
1.388849 -0.97314793 -0.04983547 0
1.4056005 -0.96257907 -0.049907025 0
1.210179 -0.71616763 0.050679088 0
1.2061321 -0.71106482 0.13979466 0
1.4290442 -0.96014887 -0.050363589 0
1.203951 -0.68355 0.049631994 0
1.2089016 -0.68963343 0.1381855 0
1.435513 -0.93688065 -0.04986947 0
1.2044233 -0.66010576 0.048996858 0
1.2094357 -0.66610903 0.13627115 0
1.4517169 -0.92550892 -0.049933031 0
1.2008862 -0.63266551 0.04816727 0
1.2031143 -0.63526672 0.1333015 0
1.4660885 -0.91197914 -0.049904387 0
1.2075051 -0.61766726 0.047917642 0
1.2099986 -0.62050539 0.13258798 0
1.4780638 -0.89581579 -0.049757492 0
1.2118659 -0.60042292 0.047561198 0
1.2082597 -0.59642118 0.13053007 0
1.493093 -0.88310462 -0.049783997 0
1.5050277 -0.86709708 -0.049657922 0
1.5267681 -0.86130005 -0.050046105 0
1.5413394 -0.84791929 -0.05007061 0
1.5564511 -0.83503848 -0.050130259 0
1.5638855 -0.81477207 -0.049818471 0
1.5842364 -0.80681545 -0.050152596 0
1.5975291 -0.7921353 -0.0501476 0
1.6067477 -0.7738536 -0.04995738 0
1.6161054 -0.75586468 -0.049786672 0
1.6446141 -0.75412136 -0.05052143 0
1.6436895 -0.72759724 -0.049891394 0
1.6496857 -0.70716196 -0.049599141 0
1.6626618 -0.69241279 -0.04963712 0
1.677563 -0.67908496 -0.049769338 0
1.6953269 -0.66775048 -0.050034843 0
1.7064576 -0.65141302 -0.050012603 0
1.7210511 -0.63751465 -0.050150469 0
1.7312359 -0.62049097 -0.05010429 0
1.7378398 -0.60112822 -0.049914327 0
1.751484 -0.58646286 -0.050035413 0
1.74216 -0.55728269 -0.049195331 0
1.7733517 -0.55350709 -0.050071437 0
1.775013 -0.53150254 -0.049717389 0
1.7884338 -0.51655555 -0.049861845 0
1.8021675 -0.50166327 -0.050025813 0
1.8152877 -0.48630264 -0.050171383 0
1.8162853 -0.46443757 -0.049834665 0
1.8274723 -0.44803962 -0.049919661 0
1.8364035 -0.43045476 -0.049922515 0
1.839578 -0.41010466 -0.049706232 0
1.860899 -0.39833865 -0.050215505 0
1.8686028 -0.3800647 -0.050194871 0
1.8707417 -0.35938975 -0.049966779 0
1.8736084 -0.33919057 -0.049778152 0
1.8917438 -0.32530168 -0.050188243 0
1.8889635 -0.30295172 -0.049801681 0
1.8954773 -0.28437588 -0.049782082 0
1.9092168 -0.2684184 -0.05004571 0
1.9133354 -0.24892591 -0.049952276 0
1.9275763 -0.23286615 -0.050249331 0
1.9349619 -0.21439864 -0.050295915 0
1.9465472 -0.19717373 -0.050507762 0
1.9371898 -0.17369269 -0.049948197 0
1.9404486 -0.15411936 -0.049868993 0
1.9486172 -0.13589685 -0.049980465 0
1.9448202 -0.11459155 -0.049659643 0
1.9585348 -0.097670294 -0.049992181 0
1.9637872 -0.078609981 -0.050021991 0
1.9617335 -0.0579849 -0.049793921 0
1.9681116 -0.039187413 -0.04988274 0
1.9797708 -0.021298122 -0.050171677 0
1.9841304 -0.0019459532 -0.050203744 0
1.9900596 0.017183173 -0.05030131 0
1.9833449 0.038228828 -0.049951211 0
1.9837463 0.058082167 -0.049867544 0
1.9954829 0.076516815 -0.050200596 0
1.9907798 0.09695714 -0.049951233 0
1.9978679 0.11610707 -0.050134264 0
1.9949356 0.13621165 -0.049966797 0
2.0029678 0.15544042 -0.050200932 0
2.0090711 0.17494716 -0.050374586 0
2.0048203 0.19503626 -0.050186902 0
2.0054173 0.21484341 -0.050181501 0
1.9991081 0.23478033 -0.049938392 0
2.0039082 0.25447899 -0.050100897 0
1.9949433 0.27420872 -0.049780827 0
1.9974387 0.29393226 -0.04987878 0
1.994549 0.31355849 -0.049793288 0
1.9949075 0.33327073 -0.049832657 0
1.9986371 0.35320511 -0.050001472 0
2.0013399 0.37319079 -0.050142676 0
2.0071297 0.39353275 -0.050403602 0
1.9997345 0.41281387 -0.0502012 0
1.9945725 0.4321945 -0.050087426 0
1.9816843 0.45056883 -0.049704418 0
1.9847053 0.47078952 -0.049902081 0
1.980307 0.49007234 -0.049841609 0
1.9865818 0.51100898 -0.050175589 0
1.9805954 0.5300833 -0.050075691 0
1.9727781 0.54875118 -0.049917806 0
1.9702157 0.56834751 -0.049959306 0
1.9716512 0.58881968 -0.050155781 0
1.9649894 0.60762346 -0.050065979 0
1.9589977 0.62652421 -0.050009165 0
1.9583337 0.64672208 -0.050157011 0
1.9485372 0.66461986 -0.049977507 0
1.9555718 0.68706065 -0.050429318 0
1.936679 0.70228809 -0.049929202 0
1.9306217 0.72106302 -0.049913373 0
1.9308763 0.74184078 -0.050142825 0
1.9181299 0.75846845 -0.049893916 0
1.9098681 0.7764681 -0.049821261 0
1.9011674 0.7942583 -0.049740206 0
1.9043918 0.81646383 -0.050121993 0
1.8923839 0.8330282 -0.049932729 0
1.8820478 0.85012764 -0.049814891 0
1.8884351 0.87414461 -0.050352041 0
1.8789173 0.8916797 -0.050284926 0
1.8613651 0.90556091 -0.049911652 0
1.8585532 0.9259944 -0.050123185 0
1.8482593 0.94301021 -0.050049931 0
1.8419425 0.96194041 -0.05014316 0
1.8314946 0.97883797 -0.050080907 0
1.8261003 0.99835128 -0.050230712 0
1.8068697 1.0104768 -0.04982942 0
1.8006378 1.0295519 -0.049963236 0
1.785111 1.0433859 -0.049724944 0
1.7801652 1.0633012 -0.049931228 0
1.7851826 1.0894679 -0.050566193 0
1.7575214 1.0956646 -0.049842756 0
1.7523158 1.1157435 -0.050070744 0
1.7407838 1.1318245 -0.050040439 0
1.7338809 1.1510372 -0.050218556 0
1.7161728 1.1628443 -0.049937885 0
1.7047684 1.1789429 -0.049938336 0
1.69159 1.1937362 -0.049869016 0
1.6856757 1.2139769 -0.05013274 0
1.6657418 1.2235525 -0.049776424 0
1.6506072 1.2366416 -0.049641237 0
1.6388328 1.2523636 -0.049667269 0
1.6338749 1.2738414 -0.050020635 0
1.6140198 1.2828109 -0.049688358 0
1.604092 1.3002496 -0.04983082 0
1.5911647 1.3151078 -0.049840868 0
1.5854487 1.3366872 -0.050211709 0
1.5679313 1.3473754 -0.050018087 0
1.5593994 1.3666667 -0.050277505 0
1.530041 1.3653294 -0.049499258 0
1.5350393 1.3985533 -0.05046976 0
1.5161672 1.4075934 -0.050236017 0
1.0287093 0.89332658 0.2943134 0
1.5011477 1.4205637 -0.050207663 0
1.0533137 0.93602383 0.31027848 0
1.4839501 1.4310919 -0.050071407 0
1.4405224 1.3829013 0.059755418 0
1.4422662 1.3848362 0.16809641 0
1.4414735 1.3839566 0.27780715 0
1.0498146 0.94934297 0.31276679 0
1.4693681 1.444456 -0.050081775 0
1.4172391 1.3851244 0.05926213 0
1.4138802 1.3813014 0.16578466 0
1.4214851 1.3899571 0.27621925 0
1.0597104 0.97819585 0.32212672 0
1.451059 1.453485 -0.049896926 0
1.3912995 1.3837161 0.058617283 0
1.3847865 1.3761122 0.16331446 0
1.3902605 1.382503 0.27151349 0
1.0595464 0.99639601 0.32666489 0
1.4395069 1.4704082 -0.050091945 0
1.3662121 1.3826236 0.05800914 0
1.3682628 1.3850795 0.16290362 0
1.3726909 1.3903831 0.27055255 0
1.0558176 1.0108656 0.32953966 0
1.4235588 1.4821526 -0.050053328 0
1.3453473 1.3860446 0.05762957 0
1.3438053 1.3841499 0.16115464 0
1.3491079 1.3906658 0.26788655 0
1.0539228 1.0279366 0.33352122 0
1.413341 1.5010835 -0.050351754 0
1.321166 1.3848579 0.057055846 0
1.3276603 1.3930467 0.16081335 0
1.3225638 1.3866204 0.26431948 0
1.055469 1.0498345 0.33952305 0
1.3899095 1.5032644 -0.049897388 0
1.3006901 1.3878088 0.056688167 0
1.2944524 1.379737 0.15748703 0
1.3017921 1.389235 0.26238149 0
1.0530641 1.0673655 0.34362242 0
1.3783406 1.5206748 -0.050141122 0
1.2739934 1.3820704 0.055947233 0
1.2771705 1.3862907 0.15692064 0
1.2754385 1.38399 0.25874686 0
1.036049 1.0660092 0.3398304 0
1.358785 1.5274898 -0.049920022 0
1.2511351 1.3806875 0.055420876 0
1.2482197 1.3767118 0.15423866 0
1.2565795 1.3881119 0.25731501 0
1.0326718 1.0827689 0.34363601 0
1.3421574 1.5381418 -0.049880087 0
1.2480947 1.4064221 0.056101564 0
1.2410541 1.3965628 0.15551551 0
1.2410291 1.396528 0.25690049 0
1.0226849 1.0907719 0.34384516 0
1.3243219 1.5470128 -0.049772199 0
1.2416567 1.4281158 0.056602288 0
1.2452904 1.4333423 0.15900891 0
1.2432812 1.4304526 0.26213586 0
1.0130987 1.0993824 0.3443498 0
1.308877 1.559286 -0.049821615 0
1.2504226 1.4729111 0.058098137 0
1.2434139 1.4625548 0.16148376 0
1.2443671 1.4639633 0.26723048 0
1.0075722 1.1140636 0.3473376 0
1.2990506 1.58016 -0.050246634 0
1.2473108 1.5015935 0.058888111 0
1.2467797 1.500787 0.16510192 0
1.2343284 1.4818797 0.26891261 0
1.171725 1.386817 0.34889153 0
0.98973644 1.1104681 0.34304789 0
1.2799976 1.5871934 -0.05008667 0
1.2450708 1.532675 0.059775136 0
1.2378967 1.5214767 0.16644657 0
1.2250451 1.5014163 0.27095544 0
1.1515616 1.3867135 0.34606704 0
0.98407108 1.1252717 0.34615144 0
1.2613395 1.5946534 -0.049956039 0
1.2433755 1.5658197 0.060743202 0
1.244252 1.5672265 0.17096807 0
1.2045506 1.5035028 0.26929933 0
1.1337113 1.3898005 0.34430036 0
0.97324276 1.1322364 0.34618616 0
1.246364 1.6080214 -0.05008284 0
1.1925508 1.5191737 0.27057466 0
1.1110321 1.3845835 0.34013742 0
0.96352971 1.1410514 0.34699357 0
0.83886516 0.93522573 0.47113368 0
1.2329403 1.6242083 -0.050333325 0
1.1719332 1.5205603 0.26888305 0
1.0847678 1.3724707 0.33404863 0
0.95868862 1.1582683 0.35108587 0
0.84097147 0.9582727 0.48350945 0
1.2081519 1.6208813 -0.049786475 0
1.1579918 1.5331532 0.26958579 0
1.0713583 1.3816348 0.33435419 0
0.94496435 1.1605769 0.3494589 0
0.84957933 0.99375248 0.35386798 0
0.83900714 0.97526211 0.41572282 0
0.83669859 0.97122467 0.48888192 0
1.1914734 1.6313736 -0.049820531 0
1.1457933 1.5490938 0.27101055 0
1.0514832 1.3792205 0.3313283 0
0.93728352 1.1735218 0.35195664 0
0.84944278 1.0153012 0.36161339 0
0.83596087 0.99101734 0.42184255 0
0.8356483 0.99045432 0.49851188 0
1.1804956 1.6525033 -0.050294291 0
1.1278372 1.5547742 0.27035528 0
1.0335224 1.3797348 0.32924438 0
0.91856891 1.1663918 0.34688759 0
0.8511225 1.0412176 0.3713614 0
0.83965743 1.0199394 0.43542621 0
0.83601171 1.0131733 0.51043624 0
1.1564 1.649264 -0.049788848 0
1.1159436 1.5718622 0.27207196 0
1.0174836 1.3834877 0.32817185 0
0.91095001 1.1796664 0.34960037 0
0.84586501 1.0551453 0.37543464 0
0.8391341 1.0422674 0.44517162 0
0.84264588 1.0489863 0.53104144 0
1.1371211 1.6547478 -0.049647946 0
1.0907564 1.5632545 0.2686128 0
1.0024791 1.3890529 0.32768238 0
0.90264964 1.1920551 0.3520014 0
0.84625399 1.0807672 0.38494089 0
0.84144002 1.0712676 0.45860124 0
0.83749348 1.0634795 0.53728557 0
1.1204114 1.6652457 -0.049717009 0
1.0822128 1.5874525 0.27183017 0
0.97819793 1.375622 0.3218506 0
0.89444393 1.2050536 0.35465252 0
0.85195673 1.1185266 0.39998481 0
0.8379764 1.0900551 0.46623933 0
0.84177542 1.0977919 0.55662835 0
1.1054021 1.6794403 -0.04994015 0
0.96445072 1.3830101 0.32202172 0
0.87448096 1.1937978 0.34839097 0
0.83930558 1.1198217 0.3981885 0
0.83921891 1.1196394 0.47983775 0
0.8385455 1.1182232 0.56670487 0
1.0865977 1.6857711 -0.04986041 0
0.94789046 1.3843312 0.32053673 0
0.86867088 1.2121705 0.35310858 0
0.83976936 1.1493615 0.4093484 0
0.8411814 1.1524302 0.49511498 0
0.84063607 1.151245 0.58496904 0
1.0701697 1.6973118 -0.04999397 0
0.92903268 1.3801347 0.3175776 0
0.85104585 1.2048748 0.3484796 0
0.84015203 1.1803931 0.42111933 0
0.83734959 1.1740953 0.50420046 0
0.83805031 1.1756699 0.59753382 0
1.0503896 1.7013032 -0.049841497 0
0.91748691 1.3922105 0.31921971 0
0.85174298 1.2393094 0.35906863 0
0.83791602 1.2071519 0.43089885 0
0.83900923 1.2096944 0.52085209 0
0.83848143 1.2084669 0.61545634 0
1.0309297 1.7057934 -0.049718749 0
0.89573866 1.3801391 0.31422302 0
0.84717584 1.2631589 0.36578628 0
0.8413803 1.2491984 0.44749346 0
0.84398514 1.2554731 0.54292035 0
0.83907616 1.2436481 0.63481295 0
1.0156878 1.720592 -0.050002508 0
0.88258982 1.3882221 0.31486589 0
0.85312742 1.3146492 0.38239667 0
0.84174454 1.2862241 0.46174583 0
0.84175944 1.2862613 0.55676436 0
0.8398878 1.2815875 0.65582937 0
0.99627805 1.7251554 -0.049900576 0
0.86372614 1.3816795 0.31155136 0
0.84919763 1.3440324 0.39101616 0
0.83944607 1.3187636 0.47393611 0
0.83677584 1.3118443 0.56776476 0
0.83949912 1.3189011 0.67633963 0
0.97831541 1.7334163 -0.049949273 0
0.84954399 1.3868054 0.31149295 0
0.84471613 1.3738104 0.39975315 0
0.83802748 1.3558066 0.48807147 0
0.84226537 1.3672137 0.59464604 0
0.83896214 1.3583226 0.69809091 0
0.96233445 1.7473359 -0.050220873 0
0.83122081 1.38033 0.30834022 0
0.83630329 1.3945566 0.40528014 0
0.84054279 1.4064236 0.50811923 0
0.84098369 1.4076577 0.6134398 0
0.9444344 1.7562622 -0.050310444 0
0.81838918 1.388908 0.30932385 0
0.83747214 1.4445246 0.42109889 0
0.83936566 1.4500433 0.52500379 0
0.83991814 1.4516535 0.63404 0
0.9224202 1.7528995 -0.04994626 0
1.0290315 2.0768454 0.350124 0
0.80052322 1.3825071 0.30632365 0
0.83686906 1.4929465 0.43630555 0
0.83911276 1.4997642 0.54448444 0
0.83664834 1.4922757 0.65278506 0
0.90406537 1.7603023 -0.049996886 0
1.0090144 2.0932584 0.35183457 0
0.78718805 1.3895032 0.30697942 0
0.83911735 1.5542514 0.45594865 0
0.84044969 1.5584784 0.56779337 0
0.83949721 1.5554565 0.68331188 0
0.88798511 1.7753861 -0.05034237 0
0.9841761 2.0945172 0.35073176 0
0.7682485 1.3781379 0.3027848 0
0.83915526 1.6133841 0.47475269 0
0.83951294 1.6145707 0.58987308 0
0.86888486 1.7808664 -0.050337378 0
0.95983118 2.0969477 0.3499116 0
0.75289935 1.3777626 0.30158639 0
0.83595431 1.6664175 0.49137703 0
0.84066582 1.6827922 0.61710364 0
0.8498264 1.7864981 -0.050346918 0
0.73844576 1.3802149 0.047306906 0
0.73801541 1.3786453 0.1301686 0
0.74240768 1.3946669 0.21736859 0
0.73903197 1.3823533 0.3017571 0
0.83821458 1.7441416 0.51647556 0
0.83735341 1.7410002 0.6399352 0
0.83155471 1.7951872 -0.050478105 0
0.72445142 1.3842841 0.04731819 0
0.7230894 1.3790587 0.12979716 0
0.72216821 1.3755245 0.21309046 0
0.72289586 1.3783164 0.29969862 0
0.83166939 1.7956271 0.53246099 0
0.83160698 1.7953876 0.66107512 0
0.80771816 1.7817678 -0.049804285 0
0.70884681 1.3818833 0.047097992 0
0.70798916 1.3784145 0.12933064 0
0.70912391 1.3830041 0.21381888 0
0.70711255 1.3748691 0.29785502 0
0.82580531 1.8549211 0.55110109 0
0.8273682 1.8612424 0.68707114 0
0.79100502 1.7967271 -0.050183974 0
0.6936776 1.380672 0.046929266 0
0.69502503 1.3864319 0.12984248 0
0.69580948 1.3897854 0.21444632 0
0.6929127 1.3774021 0.29763594 0
0.81822157 1.9130721 0.5693211 0
0.7699157 1.7931134 -0.049891286 0
0.67799956 1.3766133 0.046663906 0
0.677764 1.3755461 0.12829047 0
0.68063951 1.3885757 0.21362716 0
0.68125451 1.3913624 0.30044988 0
0.80415779 1.948275 0.5797047 0
0.75231504 1.805311 -0.050185561 0
0.6646626 1.3829261 0.046784606 0
0.6662308 1.3904831 0.12960075 0
0.66400176 1.3797417 0.21144105 0
0.66460484 1.3826478 0.29738641 0
0.79217452 1.9973881 0.59484798 0
0.73150885 1.8021243 -0.049927667 0
0.65012974 1.3835456 0.046704069 0
0.6485424 1.3753812 0.12763499 0
0.65142494 1.3902076 0.21284471 0
0.64776838 1.3714001 0.29372662 0
0.77717364 2.0370038 0.60678655 0
0.71501595 1.8217164 -0.050506387 0
0.63508135 1.3810176 0.046516154 0
0.63521516 1.3817556 0.12804379 0
0.63507509 1.3809832 0.21066518 0
0.63649166 1.388793 0.29755661 0
0.76106 2.0755682 0.6184063 0
0.69045734 1.7958906 -0.049447089 0
0.62151647 1.3865144 0.046626035 0
0.61931217 1.373425 0.12686743 0
0.6213522 1.3855387 0.2110481 0
0.62107235 1.383877 0.29564339 0
0.74461806 2.1175008 0.63120633 0
0.67230284 1.8064103 -0.049714223 0
0.60530645 1.3755177 0.046145968 0
0.60663313 1.3840504 0.12777685 0
0.61025608 1.4073514 0.21461159 0
0.60552442 1.3769194 0.29325694 0
0.72813451 2.1654961 0.64609241 0
0.65488189 1.8234305 -0.050223559 0
0.59156322 1.3794359 0.046211999 0
0.59299701 1.3894897 0.128139 0
0.5923562 1.3849967 0.21014801 0
0.59232277 1.384762 0.29473951 0
0.70688164 2.188056 0.65247381 0
0.63537258 1.8271754 -0.050262038 0
0.57692319 1.376824 0.04604907 0
0.57706064 1.3778826 0.12667187 0
0.57826984 1.3871999 0.21019889 0
0.57775581 1.3832392 0.29385296 0
0.68892419 2.23979 0.66872209 0
0.61387551 1.8141921 -0.049708009 0
0.5632236 1.3812798 0.046147056 0
0.56356406 1.3841894 0.12716693 0
0.56358761 1.3843908 0.20937181 0
0.56256264 1.3756305 0.29145163 0
0.66686791 2.2671084 0.67684382 0
0.59433562 1.8162429 -0.049704082 0
0.55195338 1.4097255 0.12975749 0
0.55150193 1.4053952 0.21289738 0
0.55128634 1.4033275 0.29815897 0
0.64535451 2.3056009 0.68878567 0
0.57612681 1.8328383 -0.050230414 0
0.55219948 1.5714643 0.14705966 0
0.55125153 1.5611092 0.24084274 0
0.55198669 1.5691401 0.34028006 0
0.62102801 2.3233235 0.69386542 0
0.55578673 1.8271697 -0.049967114 0
0.60138291 2.4053509 0.23680387 0
0.59888381 2.3736613 0.38758865 0
0.59811926 2.3639665 0.54333681 0
0.5360198 1.8273942 -0.049924057 0
0.5736469 2.3957498 0.39123264 0
0.57344264 2.3926647 0.55018419 0
0.51663488 1.834241 -0.050126694 0
0.54849225 2.4289665 0.39694145 0
0.54812419 2.4220953 0.55729347 0
0.49676055 1.8327065 -0.050038476 0
0.52226889 2.4556706 0.40152898 0
0.52166802 2.4409966 0.56179196 0
0.47677338 1.8251038 -0.049742505 0
0.4564285 1.1072154 0.35510755 0
0.45644867 1.1079267 0.42823374 0
0.45724446 1.833546 -0.050028473 0
0.44567385 1.0985347 0.35141611 0
0.44586867 1.1109096 0.42960924 0
0.43750665 1.8406981 -0.050277147 0
0.43515342 1.0934656 0.42083085 0
0.43514162 1.0897123 0.49546874 0
0.41769379 1.8368849 -0.050143234 0
0.4248372 1.0803767 0.41429815 0
0.42486173 1.0777822 0.48841271 0
0.39808732 1.8278524 -0.049831811 0
0.41394553 1.1082497 0.35548052 0
0.41395694 1.1077319 0.42806932 0
0.41455847 1.0804359 0.4900825 0
0.37817997 1.833761 -0.050062809 0
0.35243449 2.5770068 0.42333081 0
0.35265183 2.5707324 0.59477919 0
0.40520242 1.05365 0.47436038 0
0.3585951 1.8293258 -0.049933203 0
0.32276917 2.5875137 0.42544302 0
0.3223429 2.5965347 0.60167319 0
0.39530101 1.0525156 0.47392842 0
0.33795747 1.8439492 -0.050493952 0
0.29146907 2.6203101 0.43165138 0
0.29153687 2.6191778 0.60786241 0
0.38606051 1.0406246 0.46717954 0
0.31961548 1.8214093 -0.049734246 0
0.26120511 2.6267719 0.43317482 0
0.26134801 2.6248014 0.6098029 0
0.29955178 1.8253534 -0.049930934 0
0.35506019 1.1738219 0.038586155 0
0.23127201 2.6267889 0.43360227 0
0.22991668 2.6426971 0.61498505 0
0.28115821 1.8107806 -0.04947269 0
0.19769712 2.6633461 0.44071999 0
0.19809759 2.6592553 0.61993212 0
0.25928086 1.8306121 -0.05025788 0
0.16672431 2.6672993 0.44200835 0
0.16606872 2.6732256 0.62432462 0
0.34642598 1.0428425 0.47048646 0
0.24152118 1.8125229 -0.04969012 0
0.13587011 2.6687825 0.44292068 0
0.13403572 2.6836495 0.62791586 0
0.22159986 1.8132504 -0.049807418 0
0.10294603 2.6844845 0.44649327 0
0.10263644 2.6867578 0.62973332 0
0.20191848 1.8117858 -0.049854852 0
0.069225505 2.7021136 0.45049948 0
0.068560526 2.7065756 0.63596636 0
0.18289211 1.8060473 -0.049756769 0
0.037025288 2.7068243 0.45223117 0
0.038116738 2.7000842 0.6355232 0
0.16081519 1.8181356 -0.050313242 0
0.0029082762 2.7210634 0.45578536 0
0.0050465628 2.7088363 0.6391263 0
0.14242829 1.8084422 -0.050089881 0
-0.028928442 2.7204516 0.45670152 0
-0.028592421 2.7186632 0.64312494 0
0.12306716 1.8043804 -0.050079446 0
-0.088741139 2.8583791 0.10046083 0
-0.087775961 2.8535762 0.28982294 0
-0.062742874 2.7290068 0.45937994 0
-0.062190816 2.7262595 0.64666337 0
0.10644163 1.7875609 -0.04961209 0
-0.11323716 2.8136616 0.099075332 0
-0.1137823 2.8162081 0.28645858 0
-0.094199136 2.7247369 0.45977867 0
-0.09549953 2.7308109 0.64952713 0
0.085077778 1.7930613 -0.049968213 0
-0.14063425 2.7860932 0.098325007 0
-0.14187254 2.7915411 0.28452045 0
-0.1276222 2.7288461 0.46180135 0
-0.1262473 2.7227972 0.64922112 0
0.066745207 1.7848742 -0.049832687 0
-0.17680664 2.7972412 0.099006705 0
-0.1738223 2.7848363 0.28460094 0
-0.16171373 2.7345049 0.46419561 0
-0.16246434 2.7376249 0.65500951 0
0.045032486 1.7903738 -0.050209351 0
-0.21143098 2.8003187 0.099410065 0
-0.20854439 2.7889514 0.28592592 0
-0.19541134 2.7372339 0.46613207 0
-0.19675817 2.7425375 0.65832639 0
0.026530014 1.7828267 -0.050115231 0
-0.25298071 2.8281748 0.10074658 0
-0.25286663 2.8277483 0.29116213 0
-0.22837956 2.7361684 0.46744585 0
-0.22905035 2.738677 0.65945131 0
0.0071229502 1.7787334 -0.05015748 0
-0.26211172 2.7371254 0.46922073 0
-0.26139075 2.7345588 0.6606195 0
-0.0089690518 1.7632693 -0.049785763 0
-0.2952494 2.7351687 0.47053418 0
-0.29569459 2.7366803 0.66355968 0
-0.029494835 1.7630662 -0.049990304 0
-0.3242085 2.7190185 0.46925262 0
-0.33019501 2.7384367 0.66652906 0
-0.048893586 1.7588836 -0.050056085 0
-0.36292893 2.7337368 0.47388363 0
-0.35907161 2.7217627 0.6646865 0
-0.064644322 1.7436914 -0.049716666 0
-0.39441514 2.724885 0.47414234 0
-0.39146537 2.7161081 0.66589975 0
-0.085246339 1.7430683 -0.049934339 0
-0.42735088 2.7200475 0.47524491 0
-0.42158729 2.7035878 0.66537243 0
-0.10340817 1.7352906 -0.049890988 0
-0.45129669 2.6900723 0.47160688 0
-0.45435643 2.6984696 0.66695547 0
-0.12116899 1.7265315 -0.049818672 0
-0.48972422 2.6997581 0.47565794 0
-0.486494 2.6912282 0.66807902 0
-0.14059426 1.7221369 -0.049921982 0
-0.52290261 2.6945326 0.47693306 0
-0.52122957 2.6902771 0.6710434 0
-0.15857168 1.7139902 -0.049890578 0
-0.54697794 2.6664979 0.47385347 0
-0.55246365 2.679951 0.67156005 0
-0.17192473 1.6949481 -0.049445469 0
-0.57855177 2.6573012 0.47450486 0
-0.57976162 2.6601646 0.66956794 0
-0.19571711 1.7005454 -0.049964592 0
-0.61332405 2.6551762 0.47662997 0
-0.61102581 2.6499226 0.67031819 0
-0.21055479 1.6854594 -0.049687866 0
-0.63605618 2.6257131 0.47344193 0
-0.64154983 2.6378527 0.67067075 0
-0.23230906 1.685612 -0.050017476 0
-0.6725142 2.6266301 0.47634071 0
-0.67388451 2.6295593 0.67219704 0
-0.25143713 1.6797886 -0.050122969 0
-0.70120597 2.610533 0.47594097 0
-0.69775724 2.6033964 0.6687842 0
-0.26222974 1.6570826 -0.04956514 0
-0.72764003 2.590024 0.47472209 0
-0.72948062 2.5937135 0.67013413 0
-0.28726816 1.6629078 -0.050154727 0
-0.75444758 2.570601 0.47378281 0
-0.75618362 2.5739739 0.66872132 0
-0.30559009 1.6551841 -0.050213352 0
-0.78611887 2.560611 0.474832 0
-0.78647244 2.5612774 0.66943014 0
-0.31645668 1.6337372 -0.049723301 0
-0.81483412 2.5449009 0.47479421 0
-0.80963433 2.5353942 0.66641963 0
-0.33575863 1.6279594 -0.049877439 0
-0.6186378 2.1300159 0.082450844 0
-0.83453 2.5131829 0.47151709 0
-0.83150947 2.507822 0.66297829 0
-0.35551065 1.6227343 -0.050065525 0
-0.62078547 2.079987 0.080938332 0
-0.85708606 2.4872968 0.46948338 0
-0.86132741 2.4946077 0.6638276 0
-0.37064499 1.6095111 -0.049932756 0
-0.62655115 2.03809 0.079753667 0
-0.88797688 2.475913 0.47054005 0
-0.88385165 2.4690044 0.66111308 0
-0.38794559 1.5999869 -0.049961898 0
-0.61521137 1.9699371 0.07746271 0
-0.91122973 2.4518044 0.46899357 0
-0.91127837 2.4518838 0.66100204 0
-0.40538257 1.5906343 -0.050007686 0
-0.61647499 1.92475 0.076117299 0
-0.93262064 2.4251435 0.46695244 0
-0.93975842 2.4364409 0.66150028 0
-0.418378 1.574379 -0.049769294 0
-0.61657357 1.8795043 0.074759021 0
-0.96062183 2.4091728 0.4672513 0
-0.96205962 2.4113863 0.65918702 0
-0.43612927 1.5655444 -0.049854435 0
-0.61757088 1.8373235 0.073520891 0
-0.98250091 2.3839476 0.46562204 0
-0.98196602 2.3831463 0.65596294 0
-0.45265079 1.5548054 -0.0498675 0
-0.61467922 1.7910103 0.072093658 0
-0.99518764 2.3457148 0.46119386 0
-1.007031 2.3629801 0.65528601 0
-0.46881288 1.543535 -0.04986652 0
-0.61366642 1.7491047 0.070844628 0
-1.0259666 2.3342226 0.46266091 0
-1.0248141 2.3325868 0.65150923 0
-0.48374802 1.5305649 -0.049799554 0
-0.61469722 1.7115194 0.069773994 0
-0.62204087 1.7216674 0.19932097 0
-1.0435882 2.3041902 0.46009994 0
-1.0419489 2.3019252 0.6476835 0
-0.075774208 0.96679878 0.43982387 0
-0.50634146 1.5279758 -0.050202008 0
-0.6175741 1.6776791 0.068860441 0
-0.61692524 1.6768057 0.19510783 0
-1.0624197 2.2763777 0.45806327 0
-1.065694 2.2807844 0.64691633 0
-0.091533437 0.96970332 0.44565862 0
-0.52149385 1.5151578 -0.050161771 0
-0.62096655 1.6455712 0.06801749 0
-0.61812687 1.6418482 0.19218406 0
-1.0817312 2.249655 0.45630774 0
-1.0792419 2.2463913 0.64198488 0
-0.091532126 0.95145804 0.43836495 0
-0.53047818 1.4945019 -0.049774375 0
-0.61621213 1.6040157 0.066739753 0
-0.61694801 1.6049557 0.18896927 0
-1.0913674 2.2109628 0.45184869 0
-1.1005281 2.2226644 0.64051563 0
-0.11060639 0.95817196 0.44685876 0
-0.54391438 1.4798189 -0.049661718 0
-0.61966157 1.5741054 0.065979593 0
-0.61363924 1.5666091 0.18551934 0
-1.1174073 2.1936753 0.45232406 0
-1.115171 2.1908917 0.63648558 0
-0.12765874 0.96168369 0.45353717 0
-0.56549782 1.4751396 -0.050018523 0
-0.61870325 1.5396856 0.06500487 0
-0.62463844 1.5468857 0.18462136 0
-1.1252137 2.1541562 0.44768453 0
-1.1293395 2.1591611 0.63248807 0
-0.13006683 0.94689864 0.44855982 0
-0.57923257 1.4607848 -0.049939401 0
-0.61816323 1.5068198 0.064091809 0
-0.61295688 1.5006634 0.18000354 0
-1.1393788 2.1231513 0.4450295 0
-1.1510333 2.1369326 0.63168204 0
-0.14922591 0.95230663 0.45678082 0
-0.59739363 1.4516127 -0.050112482 0
-0.62169635 1.4796273 0.063436538 0
-0.61234927 1.4688524 0.17736456 0
-1.1593746 2.0994263 0.44412574 0
-1.1535486 2.0927105 0.62353045 0
-0.60906124 1.4349546 -0.049940649 0
-0.62725818 1.4554049 0.06291794 0
-0.63469195 1.4637592 0.17853822 0
-1.1727335 2.0684249 0.44151568 0
-1.1654043 2.0601881 0.61929345 0
-0.62371504 1.421744 -0.049940508 0
-0.65651762 1.4576867 0.063677765 0
-0.66146076 1.4631031 0.18041174 0
-1.1892761 2.0414455 0.43989831 0
-1.1818469 2.0333049 0.6170066 0
-0.64063287 1.4109476 -0.050067402 0
-0.50915873 1.2704812 0.055198614 0
-0.68763936 1.4611691 0.18216872 0
-1.1926868 2.0007594 0.43492708 0
-1.1901886 1.9980904 0.61185312 0
-0.65881872 1.4013385 -0.050265066 0
-0.5038994 1.2399454 0.054278214 0
-0.71890843 1.4639392 0.1846966 0
-1.2012544 1.966441 0.43149799 0
-1.2039592 1.9692589 0.60893136 0
-0.67079449 1.3852175 -0.050150387 0
-0.50829488 1.2201393 0.05388055 0
-0.7485311 1.4641876 0.18693477 0
-1.2065976 1.929523 0.42739534 0
-1.2111331 1.9341305 0.60378051 0
-0.67459488 1.3611075 -0.049636558 0
-0.52883571 1.2167177 0.054311778 0
-0.76946735 1.4550885 0.18783072 0
-1.2187289 1.9001291 0.42518553 0
-1.2166433 1.8980632 0.59825587 0
-0.68970799 1.3484246 -0.049705632 0
-0.53608114 1.2000268 0.054079995 0
-0.80413604 1.4589578 0.19078498 0
-1.2298995 1.8702296 0.4228549 0
-1.2253072 1.8657937 0.59407884 0
-0.70811248 1.3387707 -0.049943201 0
-0.56411064 1.2031333 0.05488066 0
-0.83737826 1.4605279 0.19348657 0
-1.2228829 1.8236401 0.41613963 0
-1.2237322 1.82444 0.58650565 0
-0.72711539 1.3294346 -0.050212976 0
-0.87205422 1.4625506 0.069238707 0
-0.8712045 1.4617702 0.19623943 0
-1.2261521 1.7877642 0.41216478 0
-1.229942 1.7912449 0.58189768 0
-0.23391177 0.87646246 0.38065469 0
-0.74393487 1.3178838 -0.050380755 0
-0.90029323 1.4578996 0.069873974 0
-0.90730274 1.4641764 0.19928692 0
-1.2291243 1.7523612 0.40827253 0
-1.2338067 1.7565542 0.57668227 0
-0.23445012 0.86165041 0.37669989 0
-0.74738657 1.2945011 -0.049920101 0
-0.93863893 1.4614726 0.070984073 0
-1.2368902 1.7218587 0.4056778 0
-1.2372106 1.7221386 0.57151657 0
-0.23243321 0.84492445 0.37148699 0
-0.75404727 1.274272 -0.049628668 0
-0.96903563 1.4572473 0.071707562 0
-1.2387365 1.6867882 0.4018003 0
-1.2365965 1.6849668 0.56520569 0
-0.23384942 0.83153445 0.36831135 0
-0.25130773 0.84639305 0.45530427 0
-0.77319443 1.2646648 -0.049931362 0
-1.0140736 1.4645009 0.073105194 0
-1.2481158 1.6586648 0.39983234 0
-1.2436912 1.6549941 0.56167197 0
-0.2608974 0.83965743 0.37904894 0
-0.79267204 1.2550462 -0.050251752 0
-1.0463865 1.4601927 0.073900223 0
-1.2479334 1.6231579 0.39574924 0
-1.2390445 1.6159706 0.5544461 0
-0.25410169 0.81957328 0.37160304 0
-0.7987262 1.2345589 -0.049964376 0
-1.0888727 1.4631819 0.075152285 0
-1.2471778 1.5879196 0.39167804 0
-1.2377355 1.5804794 0.54853606 0
-0.27029943 0.81818128 0.37648499 0
-0.80478597 1.2143275 -0.049691685 0
-1.1236963 1.4591701 0.076045722 0
-1.2473677 1.5541184 0.38796234 0
-1.2401534 1.5485797 0.5440262 0
-0.26367849 0.79889369 0.36941814 0
-0.25902647 0.79532212 0.44223687 0
-0.83359265 1.2113453 -0.050447073 0
-1.1711589 1.4638194 0.077496514 0
-1.2559097 1.5272065 0.38625878 0
-1.249248 1.5222241 0.54181433 0
-0.27046698 0.79016989 0.3694768 0
-0.28436339 0.80056334 0.45392469 0
-0.83688021 1.1891102 -0.050070059 0
-1.2094396 1.4605089 0.078525901 0
-1.248588 1.4890274 0.38110709 0
-1.2456207 1.4868659 0.53571224 0
-1.241241 1.4836754 0.69494617 0
-0.26082462 0.7694701 0.36117476 0
-0.27798057 0.7819677 0.44582957 0
-0.84706342 1.1720886 -0.05001054 0
-1.257075 1.4629394 0.07995744 0
-1.2531445 1.4601513 0.37873447 0
-1.2421072 1.4523216 0.52983987 0
-1.239916 1.4507674 0.68819755 0
-0.28160542 0.77096856 0.36852321 0
-0.27694821 0.76766485 0.44123289 0
-0.85587895 1.1541699 -0.049901538 0
-1.2968105 1.4586822 0.081032507 0
-1.2510329 1.4270676 0.37500095 0
-1.238425 1.4183605 0.52410156 0
-1.2386812 1.4185374 0.68171209 0
-0.28027338 0.75665045 0.43943569 0
-0.8600142 1.1331941 -0.049601872 0
-1.2671089 1.4068323 0.079113849 0
-1.2840065 1.4181904 0.22827803 0
-1.2588198 1.4012606 0.37354079 0
-1.2427154 1.3904357 0.52099442 0
-1.2396581 1.3883806 0.67633128 0
-0.28828955 0.74889606 0.44056565 0
-0.88091016 1.1234294 -0.05003098 0
-1.2704984 1.3782376 0.078650542 0
-1.2693874 1.377511 0.22455259 0
-1.2499491 1.3647975 0.36857328 0
-1.2394894 1.3579564 0.51572907 0
-1.241273 1.359123 0.67139977 0
-0.3030628 0.74549109 0.44578472 0
-0.90128803 1.1129726 -0.050439965 0
-1.2769654 1.3519834 0.07833644 0
-1.2718222 1.3487113 0.22309464 0
-1.2494719 1.3344917 0.36553806 0
-1.2438724 1.3309293 0.51293069 0
-1.2381803 1.3273078 0.66479719 0
-0.29922336 0.72993112 0.43995002 0
-0.90187609 1.0899296 -0.050020523 0
-1.2967778 1.3342414 0.078598984 0
-1.2902359 1.3301941 0.22371332 0
-1.2503688 1.3055297 0.36289907 0
-1.241869 1.3002712 0.50834066 0
-1.245665 1.3026197 0.66254127 0
-0.91329026 1.0737388 -0.050067395 0
-1.3062785 1.3100771 0.078439288 0
-1.3083856 1.3113443 0.22432359 0
-1.2443569 1.2728381 0.35890305 0
-1.2470212 1.2744404 0.50603086 0
-1.2403634 1.2704365 0.65545952 0
-0.91635847 1.0526291 -0.049777284 0
-1.3311822 1.2950397 0.078930318 0
-1.3304722 1.2946248 0.22544909 0
-1.2504175 1.2478431 0.35754442 0
-1.2378647 1.2405077 0.49960634 0
-1.241841 1.2428312 0.65119874 0
-0.93460488 1.0403662 -0.050123274 0
-1.3831637 1.2949686 0.08053723 0
-1.3752538 1.2904789 0.22939718 0
-1.2443973 1.2162046 0.35375571 0
-1.245153 1.2166336 0.49817765 0
-1.2353764 1.2110844 0.64406347 0
-0.94328129 1.0225474 -0.050083082 0
-1.2521845 1.1927747 0.35291871 0
-1.2420262 1.1871767 0.49381274 0
-1.2371159 1.1844708 0.64024639 0
-0.94290638 0.99991667 -0.049685832 0
-1.2515674 1.1649785 0.35042909 0
-1.240369 1.1589899 0.49000996 0
-1.2440158 1.1609401 0.63852865 0
-0.97035515 0.99202979 -0.050421678 0
-1.2658782 1.1453123 0.35105982 0
-1.2408104 1.1323102 0.48693749 0
-1.2335013 1.1285191 0.63040692 0
-0.96626794 0.96770203 -0.049896676 0
-1.2696582 1.1202484 0.34961095 0
-1.2353506 1.1029985 0.48229545 0
-1.2389704 1.1048185 0.62844092 0
-0.98182583 0.95335239 -0.050167236 0
-1.2773718 1.0973215 0.34902358 0
-1.2368313 1.0775731 0.4797565 0
-1.241697 1.0799433 0.62558287 0
-0.98515475 0.93302059 -0.049960632 0
-1.2990891 1.0810858 0.35128978 0
-1.2365346 1.0515825 0.47682181 0
-1.2303958 1.0486871 0.61769724 0
-0.99755585 0.91698545 -0.050121304 0
-1.29935 1.0547067 0.34933013 0
-1.2446098 1.0297265 0.47634384 0
-1.239755 1.0275111 0.61755669 0
-1.0060545 0.89910132 -0.050136715 0
-1.3104359 1.0333986 0.34958085 0
-1.239454 1.0020804 0.47225586 0
-1.2426555 1.003493 0.61516547 0
-1.0051793 0.87720621 -0.049797006 0
-1.3168508 1.0100573 0.34896722 0
