# .PCD v0.7 - Point Cloud Data file format
VERSION 0.7
FIELDS x y z intensity
SIZE 4 4 4 4
TYPE F F F F
COUNT 1 1 1 1
WIDTH 1352
HEIGHT 1
VIEWPOINT 0 0 0 1 0 0 0
POINTS 1352
DATA ascii
-1.1446737 0.26436788 -0.050308648 0
-0.39532447 0.26436988 0.4202151 0
-0.38612735 0.2643699 0.49151042 0
-1.1386442 0.24458319 -0.050097838 0
-0.39641565 0.25393146 0.42079398 0
-1.1371123 0.22483079 -0.050056476 0
-0.42044759 0.24288434 0.35928059 0
-0.40509421 0.24327111 0.42523628 0
-1.132459 0.20522243 -0.049912464 0
-0.5063343 0.22888698 0.10697247 0
-0.51127738 0.22870015 0.1763382 0
-1.2443074 0.20099509 0.43412355 0
-1.2414283 0.20110391 0.56331789 0
-1.2446402 0.20098251 0.70090967 0
-1.1284678 0.18567926 -0.049800847 0
-0.51720917 0.2164937 0.10819875 0
-0.50629956 0.21704367 0.17553394 0
-1.2446048 0.17982462 0.43443733 0
-1.2419101 0.17996046 0.563788 0
-1.2389842 0.18010795 0.69895095 0
-1.129949 0.16586684 -0.049893703 0
-0.51825196 0.20443048 0.10838407 0
-0.51652831 0.20453915 0.17750347 0
-1.2448343 0.15862405 0.43480211 0
-1.2355087 0.15921196 0.56205261 0
-1.1279682 0.14624767 -0.049871624 0
-0.52091366 0.19219926 0.10876039 0
-0.51202643 0.19287199 0.1768391 0
-1.2477491 0.13718073 0.43592262 0
-1.2376733 0.13794343 0.56326073 0
-1.1259371 0.12664543 -0.04985657 0
-0.50680512 0.18135963 0.10734445 0
-0.51017678 0.18106167 0.17668079 0
-1.2469407 0.11595205 0.43615988 0
-1.2369856 0.11683182 0.56360692 0
-1.1241447 0.10702661 -0.049858913 0
-0.51143265 0.16895778 0.10796525 0
-0.50444967 0.16966361 0.17584632 0
-1.2360389 0.095716663 0.43387768 0
-1.2456012 0.094750144 0.56715333 0
-1.1354158 0.085916169 -0.050339524 0
-0.50386393 0.15779573 0.039646745 0
-0.51345432 0.1567042 0.10832196 0
-0.51627475 0.15638322 0.17822267 0
-1.2552274 0.072279908 0.43938413 0
-1.2403781 0.073969968 0.56616414 0
-1.1218736 0.067601927 -0.049937528 0
-0.51369202 0.1445903 0.040051386 0
-0.50634629 0.14552018 0.10770695 0
-0.51640087 0.1442474 0.17850645 0
-1.2424386 0.052339856 0.43675166 0
-1.2448652 0.052032698 0.56851727 0
-1.1155986 0.048557747 -0.049805082 0
-0.50434101 0.13376841 0.039771382 0
-0.52378112 0.13105841 0.10976924 0
-0.51094788 0.1328474 0.17780262 0
-1.2430712 0.030787755 0.43763655 0
-1.2409856 0.031078506 0.56815684 0
-1.1148187 0.028768186 -0.049879484 0
-0.51523042 0.12006254 0.040226694 0
-0.50492531 0.12163161 0.10791016 0
-0.51449472 0.12017456 0.17876542 0
-1.2420751 0.0093919234 0.43817276 0
-1.2387556 0.009897341 0.5684396 0
-1.1102356 0.0095504718 -0.049825426 0
-0.50672174 0.10923322 0.039987277 0
-0.50794637 0.10903095 0.1084431 0
-0.50634462 0.10929552 0.17762123 0
-1.2338102 -0.010860424 0.43690011 0
-1.2402495 -0.011924009 0.57006848 0
-1.1059631 -0.0096870167 -0.049791276 0
-0.50523072 0.097323425 0.040006746 0
-0.51070839 0.096347667 0.10896625 0
-0.5076133 0.09689901 0.17822498 0
-1.2441006 -0.034293931 0.44049916 0
-1.2380297 -0.033212494 0.57053876 0
-1.113472 -0.03115524 -0.050194066 0
-0.5075947 0.084660806 0.040171824 0
-0.50871301 0.084447034 0.1089876 0
-0.51309139 0.083610095 0.1796317 0
-1.254894 -0.058188688 0.44431409 0
-1.2366168 -0.054694932 0.57137424 0
-1.1034606 -0.049338292 -0.049969319 0
-0.51211131 0.071437769 0.040421568 0
-0.514615 0.07092642 0.10989166 0
-0.52455324 0.068896644 0.18217425 0
-1.2314743 -0.075483568 0.43930802 0
-1.2353398 -0.076273061 0.57234967 0
-1.0977279 -0.068292506 -0.049908642 0
-0.51045322 0.059374783 0.04045248 0
-0.51326662 0.05876318 0.1100195 0
-0.51217586 0.059000302 0.18035813 0
-1.2335379 -0.097816177 0.44099855 0
-1.2448179 -0.10026831 0.57708192 0
-1.0953164 -0.087971903 -0.049978197 0
-0.5114069 0.046685163 0.040584728 0
-0.50644612 0.047829185 0.10956107 0
-0.51914483 0.044900689 0.18214042 0
-1.2339405 -0.11994041 0.44233254 0
-1.2408831 -0.12154148 0.57735145 0
-1.0980548 -0.10896114 -0.050246306 0
-0.50784528 0.034998883 0.040557321 0
-0.51502877 0.03324673 0.11082032 0
-0.50651145 0.035324205 0.18032221 0
-1.2435163 -0.14444117 0.44615275 0
-1.2379749 -0.14308955 0.57806498 0
-1.0914775 -0.12775202 -0.050181605 0
-0.5550524 0.010267963 0.042406783 0
-0.55626947 0.0099548297 0.11572806 0
-0.56575388 0.0075145257 0.19190542 0
-1.2361245 -0.1649691 0.44559652 0
-1.2420009 -0.16648109 0.58125603 0
-1.0980362 -0.1500556 -0.050611272 0
-0.61736512 -0.019906532 0.04483277 0
-0.61408484 -0.019018333 0.12253056 0
-1.2339139 -0.1868466 0.31736538 0
-1.2468385 -0.19034614 0.44989225 0
-1.2499161 -0.19117941 0.58589971 0
-1.0833876 -0.16664778 -0.050265752 0
-0.70223761 -0.058276545 0.048118867 0
-0.69952559 -0.05750544 0.1324847 0
-1.2345405 -0.20962463 0.31857288 0
-1.2405764 -0.2113408 0.44978523 0
-1.2420663 -0.21176441 0.58521473 0
-1.0776769 -0.1856523 -0.050259665 0
-0.78837454 -0.099444188 0.051482387 0
-0.77443218 -0.095289566 0.14134921 0
-1.2375842 -0.23330246 0.32029366 0
-1.2361791 -0.23288374 0.45024449 0
-1.2406362 -0.23421188 0.58684558 0
-1.0757989 -0.20585041 -0.050405808 0
-0.87002265 -0.14170007 0.054710619 0
-0.87548578 -0.14340322 0.15324543 0
-1.247224 -0.25929186 0.32332349 0
-1.2325184 -0.25470743 0.45097479 0
-1.2400172 -0.25704518 0.58886385 0
-1.0553985 -0.22012906 -0.049866635 0
-0.9886806 -0.19840448 0.059361629 0
-0.98366082 -0.19676994 0.16606373 0
-1.241917 -0.2808629 0.32359275 0
-1.2478759 -0.28280327 0.45688453 0
-1.2393817 -0.28003737 0.59098494 0
-1.0508755 -0.23940144 -0.049930565 0
-1.1127501 -0.26041415 0.06426347 0
-1.1296761 -0.26616231 0.18330784 0
-1.2375642 -0.30280146 0.32409656 0
-1.2369179 -0.30258194 0.4558242 0
-1.0439794 -0.25788549 -0.049914073 0
-1.2916118 -0.34547505 0.20254315 0
-1.237106 -0.32619587 0.32540035 0
-1.2389585 -0.32685116 0.45834413 0
-1.0392456 -0.27715614 -0.049988601 0
-1.254235 -0.35625908 0.19915798 0
-1.2339885 -0.34880957 0.32625568 0
-1.2376209 -0.35014614 0.46004027 0
-1.031503 -0.29533604 -0.049957737 0
-1.2437307 -0.37647125 0.19886388 0
-1.240173 -0.37511113 0.32896599 0
-1.2505813 -0.37909028 0.46572986 0
-1.021791 -0.31271455 -0.049859848 0
-1.2465507 -0.40190026 0.20013824 0
-1.2360725 -0.39774254 0.32975841 0
-1.2317628 -0.39603242 0.462825 0
-1.0134158 -0.33057174 -0.049821489 0
-1.2511184 -0.42837521 0.20165944 0
-1.2470393 -0.42669687 0.33354875 0
-1.2404189 -0.42397287 0.46754351 0
-1.0053242 -0.34852389 -0.049802635 0
-1.2509166 -0.45320848 0.20267047 0
-1.239766 -0.44845548 0.33385482 0
-1.235373 -0.446583 0.46858463 0
-1.0028865 -0.3689594 -0.050013095 0
-1.2514292 -0.47861996 0.20380768 0
-1.2458245 -0.47614703 0.33684447 0
-1.2410635 -0.47404638 0.47270465 0
-0.99446988 -0.3868331 -0.050000202 0
-1.2409985 -0.49933437 0.20369639 0
-1.2405431 -0.49912652 0.33767226 0
-1.2369455 -0.49748477 0.47419444 0
-0.98724627 -0.40526286 -0.050043188 0
-1.241257 -0.52506554 0.20488547 0
-1.2426294 -0.52571285 0.34003165 0
-1.2288526 -0.51921511 0.47465485 0
-0.97947991 -0.42346552 -0.050074074 0
-1.4974579 -0.67578787 0.082643956 0
-1.2386723 -0.54972571 0.2057806 0
-1.236871 -0.54884827 0.34089878 0
-1.2405235 -0.55062753 0.48080432 0
-0.97369051 -0.44268999 -0.050193284 0
-1.4468914 -0.68061823 0.081102461 0
-1.2313911 -0.57226342 0.20615371 0
-1.2338618 -0.5735057 0.34238499 0
-1.2361162 -0.5746392 0.48251405 0
-0.95370853 -0.45465139 -0.049752183 0
-1.3995516 -0.68590218 0.07968308 0
-1.2368132 -0.60149276 0.20810144 0
-1.2438627 -0.60514921 0.34658706 0
-0.94531095 -0.47245839 -0.049783181 0
-1.3421456 -0.68467253 0.077849261 0
-1.2446467 -0.63253331 0.21040091 0
-1.2436568 -0.6320039 0.34881121 0
-0.93151319 -0.48731813 -0.04960338 0
-1.2989538 -0.68980366 0.076581456 0
-1.2383746 -0.65642029 0.21103334 0
-1.2423478 -0.65860981 0.35089314 0
-0.93106902 -0.50961512 -0.049978122 0
-1.2657467 -0.69957846 0.075717099 0
-1.2474341 -0.68918425 0.21360195 0
-1.2349768 -0.68211341 0.35180211 0
-0.91851354 -0.52514434 -0.049866397 0
-1.2484045 -0.71792269 0.075507447 0
-1.2430232 -0.71477795 0.21456397 0
-1.2411671 -0.71369332 0.35561216 0
-0.91376603 -0.54528087 -0.050087217 0
-1.2484636 -0.74656385 0.076030724 0
-1.2437688 -0.74374038 0.21622023 0
-1.2477309 -0.74612314 0.35961312 0
-0.89639843 -0.5577966 -0.049790561 0
-1.2542181 -0.779167 0.076812267 0
-1.2476764 -0.77511984 0.21833493 0
-1.2358881 -0.76782686 0.35982811 0
-0.88619101 -0.57462353 -0.049801145 0
-1.2486305 -0.80521232 0.077137478 0
-1.2404833 -0.80002886 0.21910283 0
-1.2407038 -0.80016929 0.36366385 0
-0.88502359 -0.59737557 -0.050206453 0
-1.2497929 -0.83595115 0.07776726 0
-1.2389225 -0.82884139 0.22064045 0
-1.2413849 -0.83045202 0.36672771 0
-0.86935484 -0.6107285 -0.050003678 0
-1.2438523 -0.86245555 0.078113414 0
-1.2391173 -0.8592729 0.22246526 0
-1.2357708 -0.85702354 0.36853215 0
-0.85641015 -0.62579262 -0.049924582 0
-1.2433162 -0.89299423 0.078711517 0
-1.2393519 -0.89025646 0.22436105 0
-1.2411064 -0.89146811 0.37282529 0
-0.84786737 -0.64391482 -0.050045729 0
-1.2386262 -0.92110831 0.079149909 0
-1.2392024 -0.92151695 0.22627442 0
-1.6031154 -1.1796666 0.45611909 0
-0.83700037 -0.66045356 -0.050075367 0
-1.2453724 -0.95794088 0.080113046 0
-1.2469866 -0.95911676 0.22931238 0
-1.5685576 -1.193372 0.45250127 0
-0.82679462 -0.67751682 -0.050144006 0
-1.238636 -0.98554295 0.08050479 0
-1.247287 -0.99201328 0.23143798 0
-0.81377292 -0.69248307 -0.050096188 0
-1.2437444 -1.0225923 0.081449039 0
-1.2336204 -1.0148197 0.2317477 0
-0.80117428 -0.70774376 -0.050075646 0
-1.1601675 -0.99061507 0.078392826 0
-1.1538877 -0.98566681 0.22306027 0
-1.1576723 -0.98864895 0.37112683 0
-0.78478682 -0.7199263 -0.049889725 0
-1.1407691 -1.0077636 0.078233495 0
-1.1341494 -1.0024111 0.22252499 0
-1.1374303 -1.0050639 0.3701205 0
-0.77975512 -0.74136347 -0.0502357 0
-1.2443757 -1.1268178 0.08378838 0
-1.2375298 -1.1211383 0.23920542 0
-1.3400877 -1.2062215 0.4213843 0
-0.75760806 -0.74855834 -0.049795598 0
-1.2398272 -1.1589723 0.084402576 0
-1.2338657 -1.1538985 0.24116895 0
-1.3163207 -1.2240754 0.42017418 0
-1.0263063 -0.97724587 0.49475297 0
-0.75105989 -0.76896375 -0.050094184 0
-1.2798876 -1.2306532 0.41597179 0
-0.99091327 -0.9783662 0.48809993 0
-0.74065971 -0.7862069 -0.050223801 0
-1.1911958 -1.1896528 0.083815008 0
-1.1936359 -1.1918379 0.24059354 0
-1.2005726 -1.1980495 0.40136045 0
-0.97128856 -0.99273032 0.48677653 0
-0.71158671 -0.78642863 -0.049460243 0
-0.91688311 -0.97497851 0.47345167 0
-0.70936799 -0.81120914 -0.05000478 0
-0.8871572 -0.97867125 0.46853992 0
-0.68440437 -0.81455725 -0.049442373 0
-0.85292006 -0.9773373 0.46198422 0
-0.67234242 -0.83013207 -0.049523365 0
-0.83489692 -0.99115926 0.46116307 0
-0.67142344 -0.85711223 -0.050182391 0
-0.81432867 -1.0022852 0.45946863 0
-0.65327275 -0.86681658 -0.04997915 0
-0.63832951 -0.87974244 -0.049947061 0
-0.62380004 -0.89309281 -0.049945008 0
-0.60356545 -0.90003425 -0.049645491 0
-0.59092724 -0.91541451 -0.049760185 0
-0.57977152 -0.93267792 -0.049969196 0
-0.56272954 -0.94303709 -0.049863141 0
-0.54897112 -0.95736915 -0.04994997 0
-0.5382176 -0.97564393 -0.050222613 0
-0.51382804 -0.97636348 -0.049710505 0
-0.49968356 -0.99027103 -0.049803466 0
-0.48059523 -0.997464 -0.04960756 0
-0.47447258 -1.0228227 -0.050217308 0
-0.44994891 -1.0221224 -0.049696978 0
-0.44576967 -1.0512404 -0.050474297 0
-0.41686785 -1.0433098 -0.049670316 0
-0.37785327 -0.98324627 0.50095373 0
-0.40645784 -1.0635921 -0.050079558 0
-0.35908854 -0.98861629 0.49909043 0
-0.38737297 -1.0703106 -0.049922843 0
-0.33374828 -0.98301882 0.49305171 0
-0.37044907 -1.0804387 -0.04991911 0
-0.30828953 -0.97633702 0.48676223 0
-0.35335541 -1.0902752 -0.049912196 0
-0.29178882 -0.98415333 0.48621857 0
-0.33708578 -1.1015706 -0.049973965 0
-0.27832919 -0.99728888 0.48778975 0
-0.31592262 -1.1040167 -0.049683571 0
-0.24896444 -0.98159963 0.47848397 0
-0.30636567 -1.1279012 -0.050272416 0
-0.22730578 -0.97893423 0.47428524 0
-0.28658277 -1.1328319 -0.050101258 0
-0.20465125 -0.97364551 0.4692345 0
-0.27014732 -1.1442095 -0.050198358 0
-0.18842943 -0.98040134 0.46879983 0
-0.25147837 -1.1511297 -0.050126355 0
-0.16951425 -0.98151439 0.46635851 0
-0.23177941 -1.1557355 -0.049972851 0
-0.14950533 -0.97986001 0.46300277 0
-0.21922471 -1.1758735 -0.050438624 0
-0.133164 -0.98570043 0.46249536 0
-0.19374974 -1.1673039 -0.049789339 0
-0.11611725 -0.98983949 0.46144778 0
-0.18028016 -1.1859784 -0.050211884 0
-0.10196139 -1.0006235 0.4628835 0
-0.15985455 -1.188392 -0.050011873 0
-0.072471097 -0.97409743 0.34723327 0
-0.084010676 -1.0023965 0.46113849 0
-0.14392437 -1.2018627 -0.050246909 0
-0.056021407 -0.97828287 0.3466644 0
-0.067538872 -1.0075773 0.46070138 0
-0.12324388 -1.2032665 -0.050027844 0
-0.035059139 -0.97040123 0.14789678 0
-0.033098653 -0.96522433 0.2431245 0
-0.0092524718 -0.90225476 0.32427153 0
-0.050859556 -1.0121245 0.46011493 0
-0.10270537 -1.2046177 -0.0498177 0
-0.010072006 -0.95038503 0.14494506 0
-0.012941195 -0.95825952 0.24068096 0
0.0052095219 -0.90844494 0.324467 0
-0.087595895 -1.221034 -0.05018815 0
0.0055946275 -0.9549014 0.14483571 0
0.0086231697 -0.94625264 0.23733328 0
0.018942134 -0.91678375 0.32529181 0
-0.00095851556 -0.97361594 0.44239247 0
-0.067164496 -1.2224457 -0.049999088 0
0.022227453 -0.95647079 0.1444151 0
0.02301641 -0.95412332 0.2378335 0
0.02878751 -0.93695205 0.32934374 0
0.015405225 -0.97676951 0.441618 0
-0.048054829 -1.2275356 -0.049958427 0
0.036794826 -0.96413881 0.14470848 0
0.036915407 -0.96376449 0.23870154 0
0.018465536 -1.0210379 0.35054526 0
0.020876544 -1.0135535 0.4526737 0
-0.031348482 -1.2403345 -0.050214928 0
0.022466468 -1.0657768 0.36112496 0
-0.010463102 -1.2395972 -0.049974538 0
0.07045047 -0.96490198 0.33295 0
0.0098163653 -1.2404015 -0.049801938 0
0.084588125 -0.97423726 0.33424154 0
0.02821763 -1.2477709 -0.049881984 0
0.1015072 -0.97367364 0.33296156 0
0.045400128 -1.2601818 -0.050156023 0
0.12031831 -0.9651565 0.32964826 0
0.064496294 -1.265478 -0.050175942 0
0.082158968 -1.2771584 -0.050438363 0
0.10266589 -1.2764529 -0.050255992 0
0.12326311 -1.2746611 -0.050043941 0
0.14534281 -1.264186 -0.049526393 0
-0.06253694 -2.3705814 0.1017173 0
0.16154562 -1.2852148 -0.050161868 0
0.0027462409 -2.1932454 0.09507174 0
0.18238182 -1.2804543 -0.049870741 0
0.03367801 -2.1987507 0.095082164 0
0.19942662 -1.2997612 -0.050458357 0
0.065067008 -2.2012715 0.094998933 0
0.22009602 -1.2955484 -0.050205279 0
0.096909091 -2.2000675 0.094795883 0
0.24076463 -1.2899102 -0.049910683 0
0.12829618 -2.201422 0.094699614 0
0.25985959 -1.2966361 -0.050069965 0
0.15975438 -2.2015612 0.094574034 0
0.2793901 -1.3000979 -0.050120588 0
0.19051227 -2.2079959 0.094688661 0
0.2987248 -1.3063159 -0.050278731 0
0.22246496 -2.2014174 0.094350778 0
0.31883657 -1.3034048 -0.050118674 0
0.25305176 -2.2104461 0.094586276 0
0.33856446 -1.3050686 -0.050131422 0
0.2853179 -2.1942909 0.093934663 0
0.35854551 -1.3016316 -0.049970731 0
0.31628412 -2.1960127 0.093936913 0
0.37835199 -1.3000503 -0.049885396 0
0.3472417 -2.1981728 0.093968756 0
0.39805496 -1.3005773 -0.049884278 0
0.37814569 -2.2040064 0.094145693 0
0.41767395 -1.3102443 -0.05021834 0
0.43746254 -1.2979546 -0.049777351 0
0.45722565 -1.3036069 -0.049985807 0
0.47680131 -1.2973452 -0.049777705 0
0.49638772 -1.2948567 -0.049713124 0
0.51581526 -1.2901958 -0.049579646 0
0.53592825 -1.2972674 -0.049874589 0
0.5558182 -1.2988245 -0.049981408 0
0.57583594 -1.3009163 -0.050116483 0
0.59418195 -1.286025 -0.049651183 0
0.61459458 -1.2915934 -0.049928915 0
0.63347954 -1.2838454 -0.049736939 0
0.65440065 -1.2913117 -0.050101861 0
0.67310303 -1.2828128 -0.049900178 0
0.69337702 -1.2844836 -0.050074767 0
0.71089 -1.2702248 -0.049681023 0
0.72944242 -1.2627513 -0.049541105 0
0.75195867 -1.2748494 -0.050122947 0
0.77109361 -1.2697067 -0.050086427 0
0.78965425 -1.2622086 -0.049972262 0
0.80744922 -1.2519358 -0.049764279 0
0.82900524 -1.2566618 -0.050117236 0
0.84622586 -1.24462 -0.049860723 0
0.86588895 -1.2417102 -0.049950574 0
0.88630664 -1.2410731 -0.05013473 0
0.90306574 -1.2283866 -0.049878176 0
0.92454779 -1.2306203 -0.050189238 0
0.941688 -1.2195138 -0.05000833 0
0.95887357 -1.2089041 -0.049853608 0
0.97795302 -1.2036967 -0.049912125 0
0.99933171 -1.2043239 -0.050203376 0
0.92408627 -1.0093437 0.46021801 0
1.0131322 -1.1854662 -0.049757086 0
0.93886554 -1.0000087 0.45912677 0
1.033632 -1.1835585 -0.04997037 0
0.95999342 -1.0061746 0.46368051 0
1.0481087 -1.1672542 -0.049635343 0
0.97741318 -1.0028371 0.4649134 0
1.070542 -1.1694044 -0.050026674 0
0.98501766 -0.97720557 0.45811459 0
1.0890199 -1.1622909 -0.050067279 0
1.0060709 -0.98202544 0.46246341 0
1.1091326 -1.1585417 -0.050250303 0
1.0231144 -0.97763962 0.46354443 0
1.1221681 -1.140079 -0.0498593 0
1.0423002 -0.97742492 0.46625739 0
1.1420387 -1.1357079 -0.050036341 0
1.0686939 -0.99097329 0.47421086 0
1.155308 -1.1184305 -0.04970469 0
1.0860201 -0.98586828 0.4753387 0
1.1817105 -1.1260139 -0.050385728 0
1.0982414 -0.97110313 0.47290567 0
1.194633 -1.1083207 -0.050052933 0
1.1290023 -0.99010545 0.057225693 0
1.1298616 -0.99165326 0.16039167 0
1.1302873 -0.9924199 0.26524922 0
1.1311762 -0.994021 0.37321666 0
1.1298286 -0.99159378 0.48392978 0
1.2108268 -1.0968153 -0.049978867 0
1.1434556 -0.97898608 0.057133134 0
1.1475581 -0.98616093 0.16081101 0
1.1516603 -0.99333566 0.26728532 0
1.1454091 -0.98240262 0.37241668 0
1.1510447 -0.99225909 0.48758763 0
1.2261478 -1.0839239 -0.049855255 0
1.1624994 -0.97578877 0.057375584 0
1.1664771 -0.98254639 0.16149533 0
1.1670128 -0.98345667 0.26713365 0
1.1605487 -0.97247452 0.37216401 0
1.1598786 -0.97133595 0.48304126 0
1.2499141 -1.0851384 -0.05032748 0
1.2653825 -1.0723983 -0.050228994 0
1.2775447 -1.0546205 -0.04992434 0
1.2914878 -1.0399319 -0.049755722 0
1.308265 -1.0296375 -0.04978263 0
1.32866 -1.0245081 -0.050043508 0
1.3479182 -1.0174646 -0.050233986 0
1.3614314 -1.0023543 -0.050079785 0
1.3757524 -0.98849279 -0.049987491 0
1.3855608 -0.96889263 -0.049643479 0
1.4022113 -0.95830554 -0.049712297 0
1.2004075 -0.70384657 0.050117668 0
1.2048502 -0.70944846 0.13957295 0
1.4277662 -0.95857841 -0.0502913 0
1.2047056 -0.68447721 0.049674675 0
1.2112767 -0.69255191 0.13858987 0
1.4328225 -0.93365818 -0.049719594 0
1.2118993 -0.66905963 0.049413294 0
1.2026334 -0.65796191 0.13513052 0
1.4494174 -0.92282432 -0.049806833 0
1.1980832 -0.62939286 0.04801343 0
1.2018298 -0.63376707 0.13308929 0
1.4699723 -0.91639942 -0.050114453 0
1.2023944 -0.61185038 0.047641199 0
1.2073656 -0.61750853 0.13215926 0
1.4831331 -0.90144104 -0.050027832 0
1.2089903 -0.59723204 0.047407851 0
1.2053939 -0.5932411 0.13007003 0
1.4960988 -0.88635677 -0.049942095 0
1.5089052 -0.87118787 -0.049859151 0
1.5336521 -0.86838192 -0.050398704 0
1.5343198 -0.84087759 -0.049715634 0
1.5519031 -0.83058959 -0.049903128 0
1.5627989 -0.81373566 -0.04976486 0
1.5799664 -0.80284387 -0.049944405 0
1.5827632 -0.77874452 -0.049435951 0
1.605335 -0.77260441 -0.049890053 0
1.6190926 -0.7584396 -0.049927469 0
1.6290662 -0.74105662 -0.049796399 0
1.6425923 -0.72669858 -0.049840763 0
1.6593772 -0.71489781 -0.050041847 0
1.6654524 -0.69458336 -0.049763341 0
1.6834795 -0.68356842 -0.050034363 0
1.6845174 -0.65977138 -0.049555179 0
1.7060914 -0.65114975 -0.049996503 0
1.7182975 -0.63558728 -0.05003047 0
1.7274227 -0.61789286 -0.049939558 0
1.7462306 -0.6066919 -0.050273757 0
1.7505832 -0.58588177 -0.04999714 0
1.7571061 -0.56665987 -0.049825251 0
1.7624727 -0.54687107 -0.04961649 0
1.7849247 -0.53737867 -0.050128762 0
1.7905356 -0.51776606 -0.049948435 0
1.7934464 -0.49678549 -0.049669065 0
1.8202199 -0.48898032 -0.050371744 0
1.8171865 -0.46491227 -0.049871031 0
1.8265784 -0.44758311 -0.049883824 0
1.8410422 -0.43275061 -0.050107293 0
1.8497262 -0.4149693 -0.050108008 0
1.8598695 -0.39786097 -0.050174989 0
1.8650366 -0.37846443 -0.050055325 0
1.8706309 -0.35934165 -0.049962465 0
1.8787833 -0.34135798 -0.049978454 0
1.8787118 -0.32003543 -0.049686436 0
1.9041193 -0.30885538 -0.050382361 0
1.8999722 -0.28606191 -0.049953472 0
1.9037662 -0.26645181 -0.049838837 0
1.9052581 -0.24612598 -0.049647074 0
1.913926 -0.22832616 -0.049735747 0
1.9183869 -0.20911671 -0.049674846 0
1.9368436 -0.19421561 -0.050145596 0
1.9344168 -0.17288537 -0.049845088 0
1.9413021 -0.1543562 -0.049900614 0
1.9553555 -0.13767587 -0.050229274 0
1.961264 -0.11871222 -0.050264858 0
1.9560016 -0.097069271 -0.049899232 0
1.9746782 -0.08104945 -0.050420444 0
1.9510803 -0.055739176 -0.049405232 0
1.9637856 -0.038332235 -0.049725305 0
1.9593827 -0.01753379 -0.049431492 0
1.9845958 -0.0020258531 -0.050220605 0
1.9839516 0.018152568 -0.050080512 0
1.9904237 0.037196565 -0.050206605 0
1.9909955 0.057118107 -0.050128631 0
1.9860419 0.077651553 -0.049861114 0
1.9818683 0.097914569 -0.049631253 0
1.9944324 0.11643248 -0.050011065 0
2.0071373 0.13521077 -0.050403882 0
1.9839857 0.15675712 -0.049521614 0
1.998873 0.17552564 -0.050009906 0
2.0067916 0.19494933 -0.050257348 0
1.997345 0.21509761 -0.049893156 0
2.0119536 0.23453769 -0.050397076 0
1.9856656 0.25459382 -0.049449597 0
2.0080216 0.27429107 -0.050247755 0
1.9988859 0.29395962 -0.049930453 0
1.9988171 0.3136929 -0.049945742 0
1.9923295 0.33315703 -0.049740527 0
2.0016308 0.35337493 -0.050108522 0
1.9900521 0.37240782 -0.049738709 0
1.9851949 0.39173347 -0.049617875 0
1.9904919 0.41193843 -0.04986975 0
1.9971697 0.43247354 -0.050180681 0
1.9863282 0.45112699 -0.049871407 0
1.9801774 0.47018737 -0.049739007 0
1.9873785 0.4911035 -0.050096739 0
1.973788 0.50897855 -0.04971312 0
1.9690365 0.5280993 -0.049656991 0
1.9695415 0.54815358 -0.049800307 0
1.9704576 0.56839532 -0.049968112 0
1.9719959 0.58889234 -0.050168358 0
1.9569741 0.60582805 -0.049772728 0
1.9642857 0.62777883 -0.050203193 0
1.9534501 0.64549828 -0.049977269 0
1.949679 0.66492128 -0.050019667 0
1.9483366 0.68505263 -0.05016125 0
1.9333872 0.70132971 -0.0498068 0
1.9367889 0.72294307 -0.050143551 0
1.9290385 0.74125516 -0.050073963 0
1.9163167 0.75786543 -0.049825694 0
1.9147989 0.77817732 -0.050007574 0
1.9137284 0.79879028 -0.050216943 0
1.9052477 0.81678486 -0.05015463 0
1.8887655 0.83161873 -0.049794093 0
1.8760474 0.8477028 -0.049583834 0
1.8721033 0.86730433 -0.049719896 0
1.870518 0.88803685 -0.049958069 0
1.8640149 0.90675008 -0.050015345 0
1.857507 0.92550898 -0.050082009 0
1.8363175 0.93728584 -0.049577143 0
1.8423715 0.96215266 -0.050160248 0
1.8279334 0.97701925 -0.049938146 0
1.8182565 0.99421996 -0.049914207 0
1.8055708 1.0097717 -0.049776651 0
1.8061228 1.0326196 -0.050187603 0
1.7991579 1.0514762 -0.050303668 0
1.7798223 1.063098 -0.049916998 0
1.7793984 1.0859396 -0.05032431 0
1.7583426 1.0961798 -0.049877368 0
1.748683 1.1134001 -0.049916409 0
1.7438483 1.1338564 -0.050171711 0
1.7220976 1.1430088 -0.049709518 0
1.7156109 1.1624509 -0.049913395 0
1.7049547 1.1790768 -0.049946528 0
1.6909862 1.1932905 -0.049842227 0
1.6833916 1.2122459 -0.050030421 0
1.6661457 1.2238667 -0.049794696 0
1.6577392 1.2423345 -0.049967024 0
1.6414917 1.2545413 -0.049789973 0
1.6379906 1.2772998 -0.050212558 0
1.6148592 1.2835346 -0.049727932 0
1.6117635 1.3070326 -0.050196406 0
1.5888579 1.3130158 -0.04972969 0
1.5753367 1.327282 -0.049718678 0
1.5561205 1.3361095 -0.049435362 0
1.5536776 1.3610696 -0.049991746 0
1.5375836 1.3728958 -0.04988068 0
1.5277296 1.3910335 -0.050095357 0
1.5107419 1.4018698 -0.04995447 0
1.0290687 0.89370573 0.29448721 0
1.5061003 1.4259223 -0.050468169 0
1.0394433 0.9210164 0.30347964 0
1.4827255 1.4297329 -0.050006099 0
1.4465802 1.3896234 0.060078476 0
1.4382291 1.3803564 0.16744831 0
1.440156 1.3824947 0.27745223 0
1.0527612 0.95261264 0.31423116 0
1.4707057 1.4459785 -0.050154131 0
1.4126093 1.379855 0.059011709 0
1.4159813 1.3836929 0.16612677 0
1.4198378 1.3880823 0.27576914 0
1.0463823 0.96302629 0.31540868 0
1.4535604 1.4564053 -0.050034203 0
1.3950899 1.3881414 0.058825303 0
1.3851413 1.3765265 0.16337307 0
1.3883194 1.3802369 0.27097538 0
1.0540261 0.98995113 0.32384172 0
1.4394454 1.4703345 -0.050088521 0
1.3685423 1.3854144 0.058138937 0
1.3603421 1.3755931 0.16157547 0
1.3669317 1.3834853 0.26893193 0
1.0570371 1.0123262 0.33017272 0
1.4255701 1.484624 -0.050167087 0
1.3414898 1.3813045 0.057411384 0
1.3411787 1.3809222 0.16070743 0
1.3359329 1.374476 0.26412207 0
1.0592066 1.0344293 0.33630621 0
1.406991 1.4930766 -0.049986914 0
1.3199005 1.3832623 0.056983139 0
1.3194155 1.3826506 0.15938736 0
1.3189704 1.3820895 0.26327655 0
1.0533521 1.0471653 0.33838961 0
1.3828369 1.494112 -0.049484439 0
1.2934711 1.3784671 0.05626668 0
1.2933286 1.3782828 0.15728952 0
1.296735 1.3826909 0.26088995 0
1.046524 1.0589023 0.34006399 0
1.3691055 1.5084077 -0.049592935 0
1.2778121 1.3871429 0.056173909 0
1.2763913 1.3852556 0.15678139 0
1.2780241 1.3874245 0.25952214 0
1.0368608 1.0670875 0.34027952 0
1.3525244 1.5189521 -0.049542047 0
1.2558218 1.3870788 0.05570383 0
1.2551605 1.3861769 0.15550005 0
1.2497164 1.3787527 0.2552219 0
1.0346463 1.0854615 0.34474689 0
1.3389206 1.5336092 -0.049681239 0
1.2404236 1.39568 0.055630304 0
1.2507451 1.4101336 0.15730765 0
1.246015 1.4035099 0.25844774 0
1.0234191 1.0918 0.34426546 0
1.3260853 1.5495491 -0.049882483 0
1.2384986 1.4235736 0.056404781 0
1.2497832 1.4398042 0.15985473 0
1.2477641 1.4369003 0.26355213 0
1.0130948 1.0993768 0.34434754 0
1.315712 1.5693859 -0.050257001 0
1.244005 1.463428 0.057689335 0
1.2398065 1.4572242 0.16079204 0
1.2421592 1.4607008 0.26652002 0
1.0052811 1.1106783 0.34597763 0
1.2937707 1.5721425 -0.049903907 0
1.2467629 1.5007614 0.058852546 0
1.246461 1.500303 0.16503963 0
1.2380062 1.4874644 0.27011862 0
1.1679904 1.381146 0.34715909 0
0.99582309 1.1197107 0.3467297 0
1.2791837 1.5859231 -0.050032809 0
1.2477723 1.5368919 0.059953928 0
1.2438956 1.5308408 0.16764171 0
1.2207979 1.4947867 0.26953548 0
1.1485678 1.3820403 0.34465104 0
0.98252934 1.1228652 0.34520063 0
1.261426 1.594792 -0.049961872 0
1.2368869 1.555405 0.060305126 0
1.2450808 1.5685568 0.17113651 0
1.2082638 1.5094627 0.27056572 0
1.1275197 1.3798625 0.341313 0
0.97461259 1.1344351 0.34704798 0
1.2460973 1.6075811 -0.050064463 0
1.1944194 1.5222589 0.27122518 0
1.114277 1.389941 0.34173545 0
0.96772772 1.1479826 0.34968948 0
0.84235001 0.94097942 0.47512296 0
1.2260183 1.6124483 -0.049846146 0
1.1729172 1.5222322 0.26923293 0
1.1003399 1.398927 0.34188092 0
0.95512366 1.1522117 0.34874773 0
0.84319115 0.96204388 0.48610458 0
1.2072628 1.6193262 -0.049722522 0
1.1565654 1.5306586 0.26906753 0
1.0722282 1.3831563 0.33480135 0
0.94709814 1.1643089 0.35088915 0
0.84898156 0.99270701 0.35336936 0
0.83857691 0.97450978 0.41528919 0
0.8409034 0.97857863 0.49390575 0
1.1919065 1.6321537 -0.049852386 0
1.1448569 1.5474072 0.27066264 0
1.0511556 1.3786304 0.3311561 0
0.93985742 1.1781579 0.35372084 0
0.84794945 1.0126115 0.36033961 0
0.83996755 0.99823433 0.42597267 0
0.83790153 0.99451292 0.50126487 0
1.1771247 1.6462474 -0.050040588 0
1.1249324 1.5493833 0.2692509 0
1.0404623 1.3926145 0.33297709 0
0.9245168 1.1774305 0.35105929 0
0.85101587 1.0410197 0.37126833 0
0.84018958 1.0209271 0.43598753 0
0.83563221 1.0124691 0.50996172 0
1.1572419 1.6508749 -0.049853746 0
1.1079068 1.5564862 0.26894298 0
1.0189003 1.3861982 0.3289521 0
0.91328537 1.1841345 0.35127771 0
0.85321891 1.0692147 0.38200766 0
0.84531051 1.0540843 0.45184293 0
0.84006107 1.044041 0.52773225 0
1.1418059 1.6639928 -0.050017957 0
1.0965182 1.5746244 0.2709116 0
1.0020233 1.3881537 0.32742518 0
0.90006918 1.186963 0.35010216 0
0.85056567 1.0892755 0.38889015 0
0.84004313 1.068511 0.457055 0
0.83871371 1.0658876 0.53888655 0
1.1269789 1.6786207 -0.050248977 0
1.0773747 1.5775995 0.26985052 0
0.97906363 1.3773851 0.32235172 0
0.88793468 1.1917973 0.34973919 0
0.84520715 1.1047808 0.39364448 0
0.83936942 1.0928921 0.46782064 0
0.83785093 1.0897995 0.55134797 0
1.1074742 1.6837981 -0.050112423 0
0.96059334 1.3748978 0.31972992 0
0.8748759 1.1946284 0.34869692 0
0.83890074 1.1189703 0.39779815 0
0.83735353 1.1157165 0.47766435 0
0.83538938 1.1115856 0.5623461 0
1.0868027 1.6862167 -0.049877919 0
0.94579726 1.3797823 0.31925917 0
0.8670122 1.2085658 0.35178849 0
0.83832484 1.1462222 0.40791759 0
0.84218919 1.1546202 0.4963212 0
0.8394233 1.1486094 0.5832485 0
1.0721228 1.701701 -0.050165489 0
0.92980033 1.3818599 0.31805936 0
0.85178542 1.2065368 0.34908482 0
0.83965832 1.1792836 0.42061651 0
0.84182686 1.184157 0.50971067 0
0.84014678 1.1803814 0.60059208 0
1.0538167 1.7092733 -0.050151233 0
0.91415203 1.3844545 0.31706572 0
0.84926897 1.2335556 0.35698491 0
0.84171158 1.2159793 0.43487728 0
0.83733928 1.2058107 0.5187369 0
0.83832276 1.2080979 0.6152181 0
1.0354121 1.7165905 -0.050136119 0
0.89745939 1.3842841 0.31536806 0
0.84992552 1.2697824 0.3681722 0
0.84304506 1.2532085 0.44929117 0
0.83983207 1.245469 0.53750068 0
0.84074473 1.2476674 0.63739383 0
1.0140895 1.7166008 -0.049849018 0
0.87968481 1.3809679 0.31287223 0
0.84972429 1.3061509 0.37935105 0
0.84007221 1.2820479 0.45988324 0
0.8410399 1.2844644 0.55579591 0
0.84040499 1.282879 0.65665436 0
0.99767441 1.7287736 -0.050039038 0
0.86462164 1.3839999 0.31218597 0
0.84998453 1.3460714 0.39174327 0
0.84046841 1.3214127 0.47511178 0
0.84104657 1.3229109 0.57369983 0
0.83717048 1.3128669 0.67250383 0
0.97636592 1.7281691 -0.04974943 0
0.8452304 1.3751945 0.30833283 0
0.8455345 1.3760133 0.40053499 0
0.83741128 1.3541481 0.48733896 0
0.84037918 1.3621366 0.59193611 0
0.84020251 1.3616612 0.70020306 0
0.95778948 1.7346139 -0.049738567 0
0.83313227 1.3856804 0.30978978 0
0.83798182 1.399255 0.40694004 0
0.83795041 1.3991671 0.50492883 0
0.83979392 1.4043273 0.61167037 0
0.94152349 1.7477783 -0.049990229 0
0.81413776 1.3765175 0.3059817 0
0.84185463 1.4572973 0.4255915 0
0.83782274 1.4455465 0.52303541 0
0.84191501 1.4574732 0.6371184 0
0.92539603 1.7619418 -0.05028611 0
1.0300434 2.0799198 0.35070768 0
0.80075359 1.3832072 0.30651167 0
0.84201294 1.5085765 0.44177994 0
0.83922344 1.5001005 0.544631 0
0.84139371 1.5066949 0.66038018 0
0.90370649 1.7591637 -0.049954269 0
1.0046357 2.0793667 0.3492077 0
0.78403211 1.3794907 0.30430102 0
0.84090251 1.5599149 0.45792425 0
0.83834213 1.551792 0.56489074 0
0.8427695 1.5658381 0.68875813 0
0.88419235 1.7628028 -0.049873173 0
0.98234892 2.088455 0.34958988 0
0.76620501 1.3713585 0.30097827 0
0.84132189 1.6205723 0.47725046 0
0.83901793 1.6129285 0.58916289 0
0.8703326 1.7858981 -0.050524302 0
0.95793188 2.0903466 0.34867281 0
0.75468057 1.383953 0.30322984 0
0.83958256 1.6790273 0.49574244 0
0.83962655 1.6791801 0.61554742 0
0.84749293 1.7779862 -0.050031822 0
0.73867756 1.3810607 0.047338214 0
0.73858136 1.3807098 0.13039866 0
0.73848593 1.3803617 0.21469344 0
0.73887664 1.3817869 0.30160725 0
0.8378917 1.7429639 0.51606929 0
0.83669627 1.7386034 0.63890618 0
0.82837379 1.7829835 -0.050027862 0
0.72353268 1.3807595 0.047188152 0
0.72531968 1.3876152 0.13074745 0
0.72051525 1.3691829 0.21190856 0
0.72175527 1.3739405 0.29854488 0
0.83106458 1.7933068 0.53166324 0
0.82947087 1.7871925 0.65756869 0
0.80839097 1.784489 -0.049904358 0
0.70769471 1.3772237 0.046926629 0
0.710567 1.3888406 0.13048483 0
0.70890599 1.3821228 0.21365514 0
0.70753336 1.3765711 0.29830232 0
0.82417613 1.848332 0.54884291 0
0.82774591 1.8627698 0.68772262 0
0.78958458 1.7906549 -0.049961336 0
0.69222212 1.3744501 0.046701141 0
0.69589216 1.3901387 0.1302516 0
0.69498056 1.3862418 0.21378997 0
0.69486409 1.385744 0.29982167 0
0.81613135 1.904137 0.56626821 0
0.77153999 1.8004736 -0.050160374 0
0.67856187 1.3791614 0.046757065 0
0.67853087 1.3790209 0.12867293 0
0.67944962 1.3831841 0.21263139 0
0.67878789 1.3801855 0.29752967 0
0.80534661 1.9536619 0.58154005 0
0.74932408 1.7908977 -0.049660027 0
0.66592532 1.3890111 0.04700648 0
0.6639607 1.3795437 0.12840003 0
0.66514677 1.3852593 0.21245734 0
0.66535246 1.3862506 0.29832518 0
0.79235858 1.9982749 0.59514928 0
0.73088586 1.7989199 -0.049811129 0
0.64904219 1.3779517 0.04650062 0
0.64838791 1.3745865 0.12754796 0
0.6495586 1.3806083 0.21108106 0
0.64966619 1.3811613 0.29626366 0
0.77791929 2.0408392 0.60808641 0
0.71301991 1.8107116 -0.050107088 0
0.63427943 1.3765963 0.046355736 0
0.63655424 1.3891382 0.12885013 0
0.63447833 1.3776932 0.21006212 0
0.63579601 1.3849577 0.29656214 0
0.76373112 2.0902946 0.62338561 0
0.69175208 1.8035786 -0.049725428 0
0.6223048 1.3911954 0.04679551 0
0.62179416 1.3881633 0.12847365 0
0.61979359 1.3762839 0.2093555 0
0.62159562 1.3869843 0.29644731 0
0.74593979 2.1253493 0.63385433 0
0.67288822 1.8101752 -0.049850252 0
0.60724097 1.3879597 0.046595503 0
0.60628903 1.381837 0.12753613 0
0.60663706 1.3840756 0.21036339 0
0.60575789 1.3784209 0.29364464 0
0.72824037 2.1661768 0.64632165 0
0.65440911 1.8201156 -0.050104011 0
0.59267771 1.3872507 0.046493821 0
0.59228063 1.3844666 0.12759371 0
0.5931291 1.3904159 0.21113525 0
0.59155107 1.3793507 0.29334491 0
0.70852482 2.199578 0.65634596 0
0.63516599 1.8255836 -0.050204735 0
0.57760602 1.382085 0.046238467 0
0.57726514 1.3794585 0.12684265 0
0.57711607 1.3783098 0.20858213 0
0.57703483 1.3776838 0.29242373 0
0.68793827 2.2321937 0.66617358 0
0.61510438 1.8246952 -0.050085545 0
0.56389397 1.3870095 0.046353009 0
0.562989 1.3792747 0.12663513 0
0.56315565 1.3806989 0.20870145 0
0.56286824 1.3782426 0.2921226 0
0.66819954 2.2784894 0.68065608 0
0.59532553 1.8257378 -0.050044898 0
0.55180973 1.4083475 0.12960859 0
0.55213934 1.4115089 0.21400595 0
0.55269092 1.4167999 0.30161485 0
0.64497536 2.3019643 0.6875692 0
0.57578504 1.8291049 -0.050096564 0
0.55199647 1.5692466 0.14682034 0
0.55180848 1.5671932 0.24194455 0
0.55141491 1.5628941 0.33867985 0
0.62128425 2.3261223 0.69480044 0
0.55573142 1.826468 -0.049941983 0
0.60238934 2.4181128 0.23817962 0
0.59850794 2.3688948 0.38672632 0
0.59758818 2.3572316 0.54161328 0
0.5360117 1.8272713 -0.049919661 0
0.57415605 2.4034405 0.39262268 0
0.57274586 2.3821399 0.5474931 0
0.51655501 1.8327508 -0.050073415 0
0.54856789 2.430378 0.39719638 0
0.5481503 2.4225826 0.55741805 0
0.49603567 1.815003 -0.04940591 0
0.52259898 2.463732 0.40298405 0
0.52161384 2.4396725 0.56145382 0
0.47684211 1.827529 -0.049829118 0
0.45686659 1.1226737 0.3615104 0
0.45627713 1.1018744 0.42520428 0
0.45719215 1.8302244 -0.049909871 0
0.44607514 1.1240264 0.36197188 0
0.44605124 1.1225067 0.4354125 0
0.43750188 1.8391893 -0.050223283 0
0.43514895 1.0920407 0.42011794 0
0.43512619 1.0848117 0.49256244 0
0.41770321 1.8358879 -0.050107643 0
0.42468181 1.0968332 0.42253238 0
0.42486748 1.0771718 0.48805073 0
0.39785704 1.8383025 -0.050204985 0
0.41407606 1.1023262 0.35302734 0
0.41400224 1.1056768 0.42704079 0
0.41452533 1.0819392 0.49097425 0
0.37815285 1.8345433 -0.05009076 0
0.35185203 2.5938213 0.42636508 0
0.35253003 2.5742481 0.59567678 0
0.40518078 1.0542744 0.47473094 0
0.35842282 1.8329723 -0.050063532 0
0.32207239 2.6022601 0.42810547 0
0.32247853 2.5936644 0.60094005 0
0.39584035 1.0411013 0.46715167 0
0.33836529 1.837139 -0.050250381 0
0.29204577 2.6106789 0.42991132 0
0.29278639 2.5983105 0.60252899 0
0.38622296 1.0379114 0.46556759 0
0.31900206 1.829867 -0.050036989 0
0.26122981 2.6264315 0.43311325 0
0.26138169 2.6243372 0.60968417 0
0.29976034 1.8229054 -0.049843222 0
0.22948466 2.6477678 0.43739951 0
0.23106813 2.6291819 0.61152434 0
0.28050792 1.8174237 -0.049710989 0
0.19746011 2.6657672 0.44115871 0
0.19766408 2.6636837 0.62106729 0
0.26025274 1.8218265 -0.049942311 0
0.16601883 2.6736765 0.44316548 0
0.16695686 2.6651969 0.62226373 0
0.34669879 1.0403765 0.46901515 0
0.24146733 1.8129594 -0.049705822 0
0.13613273 2.6666541 0.44253394 0
0.13479985 2.6774566 0.62632382 0
0.22128803 1.8155402 -0.049889922 0
0.10146777 2.695339 0.44846889 0
0.10365273 2.6792955 0.62781191 0
0.201232 1.8163918 -0.050021108 0
0.070401922 2.6942203 0.4490602 0
0.068310872 2.7082505 0.63639843 0
0.18255769 1.8081125 -0.049831461 0
0.036735341 2.7086148 0.45255831 0
0.0369872 2.7070596 0.637326 0
0.16304176 1.8054039 -0.049851809 0
0.0017942057 2.7274337 0.45695168 0
0.0013232694 2.7301266 0.64464056 0
0.14324571 1.8040917 -0.049931843 0
-0.030128075 2.7268362 0.45787314 0
-0.029958768 2.7259352 0.64501274 0
0.12467973 1.796356 -0.049787235 0
-0.089439705 2.8618553 0.10058743 0
-0.088364556 2.8565052 0.290144 0
-0.061654106 2.7235889 0.45838332 0
-0.064076856 2.7356448 0.64910573 0
0.10485964 1.7949502 -0.049881876 0
-0.1136526 2.8156023 0.099146187 0
-0.11472358 2.8206046 0.2869418 0
-0.095755413 2.7320061 0.46111935 0
-0.096705452 2.7364435 0.6509968 0
0.08552666 1.7910863 -0.049895909 0
-0.1448666 2.8047135 0.099006727 0
-0.1438082 2.8000574 0.28545904 0
-0.12763895 2.7289197 0.461815 0
-0.12890853 2.7345052 0.65228438 0
0.067470953 1.7818575 -0.049721915 0
-0.17533512 2.7911248 0.098782107 0
-0.1720856 2.7776175 0.28380299 0
-0.16069742 2.7302804 0.46341199 0
-0.16165639 2.7342665 0.65412825 0
0.046891525 1.7830529 -0.049939696 0
-0.20743264 2.7845733 0.098830096 0
-0.20847006 2.7886586 0.28589347 0
-0.19434316 2.7330275 0.46534938 0
-0.19593371 2.739291 0.65747178 0
0.02914946 1.77303 -0.049753193 0
-0.25169706 2.823374 0.10056917 0
-0.25340247 2.8297522 0.29138505 0
-0.22986783 2.7417345 0.46848497 0
-0.22688271 2.7305703 0.65731037 0
0.0071304305 1.7787068 -0.050156493 0
-0.26501143 2.7474475 0.47115439 0
-0.26140189 2.7345984 0.66062999 0
-0.012086703 1.7738534 -0.050179686 0
-0.29366922 2.7298043 0.46952558 0
-0.29281723 2.7269118 0.66096157 0
-0.034113899 1.7780488 -0.050550044 0
-0.32714266 2.7285359 0.4710488 0
-0.3249858 2.7215397 0.66201788 0
-0.048101678 1.7564253 -0.04996388 0
-0.35944378 2.722918 0.47183374 0
-0.35890245 2.7212377 0.66454577 0
-0.064632013 1.7436548 -0.049715288 0
-0.18939455 2.1148705 0.075696655 0
-0.39555699 2.7282822 0.47478876 0
-0.39190537 2.7174175 0.66625214 0
-0.085899547 1.7449338 -0.0500049 0
-0.25430667 2.2258692 0.080197148 0
-0.42996061 2.7275002 0.47666904 0
-0.42614222 2.7165956 0.66888875 0
-0.1011451 1.7290797 -0.049654987 0
-0.28588897 2.23611 0.080920786 0
-0.232866 2.0905881 0.21488433 0
-0.46176827 2.7188115 0.47712329 0
-0.45670283 2.7049093 0.66870409 0
-0.12640055 1.7403464 -0.050346062 0
-0.24822576 2.0620444 0.074627042 0
-0.48588008 2.6896069 0.47370031 0
-0.48875785 2.6972063 0.66970992 0
-0.14292015 1.7280527 -0.050148927 0
-0.26885623 2.0483694 0.074436739 0
-0.52172482 2.6915369 0.47635254 0
-0.52311462 2.6950719 0.6723578 0
-0.16068353 1.7191693 -0.050090257 0
-0.40178746 2.3104403 0.084886931 0
-0.55490732 2.6859436 0.47764084 0
-0.54962724 2.6729951 0.66964352 0
-0.18072523 1.7157761 -0.05025271 0
-0.42988312 2.3054512 0.085107014 0
-0.58197486 2.6654027 0.47609103 0
-0.58281934 2.6674013 0.67157233 0
-0.19249512 1.6931801 -0.049677577 0
-0.39446902 2.1548834 0.079669163 0
-0.61207712 2.6523259 0.47606888 0
-0.60750139 2.6418657 0.66807455 0
-0.21317144 1.6912415 -0.049914449 0
-0.42106473 2.1506348 0.079916604 0
-0.64520562 2.6459312 0.47744423 0
-0.64644361 2.6486666 0.67369914 0
-0.23568942 1.6928381 -0.050302289 0
-0.48145539 2.2182071 0.083009452 0
-0.66960979 2.6204212 0.47510451 0
-0.66809368 2.6171803 0.66871029 0
-0.25079656 1.678463 -0.050070409 0
-0.69967985 2.6073749 0.47530839 0
-0.69715476 2.6021497 0.66843098 0
-0.26776439 1.668177 -0.050007779 0
-0.72856843 2.5918849 0.47509712 0
-0.72915328 2.5930572 0.66994697 0
-0.2861886 1.6608105 -0.050070513 0
-0.75329685 2.5683653 0.47332937 0
-0.75843763 2.5783534 0.66997796 0
-0.29930818 1.6433475 -0.049734946 0
-0.78015232 2.5493689 0.47253662 0
-0.78323019 2.5551684 0.6676656 0
-0.31601179 1.632924 -0.049690206 0
-0.80775654 2.5319612 0.47213429 0
-0.81561828 2.5463345 0.66960108 0
-0.33875859 1.6332837 -0.050095625 0
-0.61436844 2.1224384 0.082140341 0
-0.83560109 2.515084 0.4719106 0
-0.8376317 2.518688 0.66616029 0
-0.35707808 1.6254362 -0.050177041 0
-0.61766434 2.0746071 0.080716282 0
-0.86316669 2.4977779 0.47166872 0
-0.86406231 2.4993219 0.66521806 0
-0.36823249 1.6054707 -0.049764749 0
-0.62094176 2.0286958 0.079363033 0
-0.88203907 2.4659688 0.46845123 0
-0.88384271 2.4689894 0.66110861 0
-0.38860828 1.6010658 -0.050007101 0
-0.61281109 1.9660298 0.077298991 0
-0.91043079 2.4505041 0.46871829 0
-0.91605854 2.4596648 0.66333193 0
-0.4002378 1.5824913 -0.049663808 0
-0.62010837 1.9305009 0.076360159 0
-0.93739617 2.4327021 0.46856493 0
-0.93805623 2.4337468 0.66068721 0
-0.42340374 1.5821161 -0.05009868 0
-0.61297297 1.8739612 0.074523032 0
-0.95756471 2.4044664 0.46623918 0
-0.9616431 2.4107449 0.65899193 0
-0.44306254 1.5759296 -0.050300233 0
-0.61692691 1.8363588 0.073479481 0
-0.97937167 2.3792603 0.46460563 0
-0.97297132 2.3696733 0.65182984 0
-0.4583087 1.5630535 -0.050224591 0
-0.61722159 1.7947166 0.072254114 0
-1.0010272 2.3542278 0.46305564 0
-1.0030311 2.3571491 0.65348196 0
-0.47157103 1.5474492 -0.050037473 0
-0.61953056 1.7574267 0.07120809 0
-1.0232638 2.3303869 0.46181464 0
-1.0210317 2.3272192 0.64983392 0
-0.48880857 1.537558 -0.050107729 0
-0.61140931 1.7069761 0.069573775 0
-0.61885691 1.7172675 0.19873731 0
-1.0471066 2.3090525 0.46118236 0
-1.0413651 2.3011184 0.64742941 0
-0.074711636 0.96533042 0.43891698 0
-0.50011516 1.5195961 -0.049829297 0
-0.61920917 1.6798795 0.06895832 0
-0.6177882 1.6779672 0.19526334 0
-1.0648197 2.2796078 0.45878902 0
-1.0636277 2.2780035 0.64603245 0
-0.093656078 0.97256017 0.4474394 0
-0.52071786 1.5141405 -0.050116092 0
-0.61775601 1.6413621 0.067828491 0
-0.61723554 1.6406796 0.19202609 0
-1.0754189 2.2413793 0.45443061 0
-1.0782109 2.2450397 0.6415512 0
-0.094812468 0.95575875 0.4410713 0
-0.5274958 1.4906924 -0.049601648 0
-0.62205255 1.6114759 0.067078002 0
-0.61931396 1.6079777 0.18938173 0
-1.0940478 2.2143867 0.4526329 0
-1.0963362 2.2173097 0.63878065 0
-0.10447063 0.95033431 0.44187853 0
-0.54903448 1.4861921 -0.049953584 0
-0.62142229 1.576297 0.066079959 0
-0.61834717 1.5724692 0.18632717 0
-1.1152492 2.190989 0.45170262 0
-1.1103606 2.1849041 0.63452601 0
-0.12528397 0.95872772 0.45164001 0
-0.56979787 1.4803562 -0.050259881 0
-0.62628257 1.5488803 0.065430284 0
-0.62173021 1.5433576 0.18413 0
-1.1289847 2.1587307 0.44875374 0
-1.1306754 2.1607819 0.63302398 0
-0.13531436 0.95326465 0.45268762 0
-0.58098722 1.4628596 -0.050036408 0
-0.62529087 1.5152482 0.064485885 0
-0.61624086 1.5045468 0.18055011 0
-1.1396434 2.1234643 0.44510344 0
-1.146672 2.1317754 0.62995893 0
-0.14831378 0.95122802 0.45607406 0
-0.59500539 1.4488597 -0.049982369 0
-0.61648798 1.4736233 0.063152768 0
-0.61608398 1.4731576 0.17797706 0
-1.1657356 2.1067588 0.44587639 0
-1.1577967 2.0976074 0.62518442 0
-0.61725736 1.4441657 -0.05038083 0
-0.6299839 1.4584682 0.063064329 0
-0.63466537 1.4637293 0.17853391 0
-1.1689293 2.0641496 0.4404836 0
-1.1736897 2.0694995 0.62247342 0
-0.62477171 1.4229017 -0.049996473 0
-0.65483928 1.4558476 0.06358888 0
-0.65518951 1.4562315 0.17941195 0
-1.1813003 2.032706 0.43776447 0
-1.1801268 2.0314202 0.61635566 0
-0.63660872 1.4066483 -0.049857162 0
-0.51259869 1.2741565 0.055378333 0
-0.68464744 1.4579725 0.18169817 0
-1.1864841 1.9941324 0.43329009 0
-1.1962109 2.0045242 0.61410153 0
-0.6512444 1.3934476 -0.049874578 0
-0.50237995 1.2383624 0.054199878 0
-0.72226763 1.4674388 0.18521793 0
-1.2065697 1.9719785 0.43288228 0
-1.2051901 1.9705412 0.60938483 0
-0.66096485 1.3752319 -0.049650144 0
-0.51449883 1.2264416 0.054196279 0
-0.74664903 1.4622757 0.18664646 0
-1.2081697 1.9311202 0.42779952 0
-1.20988 1.9328575 0.60332471 0
-0.67972541 1.3661897 -0.049894374 0
-0.52127647 1.2092295 0.053931907 0
-0.77103412 1.4566406 0.18806773 0
-1.2225436 1.9039079 0.42615393 0
-1.2262769 1.9076061 0.60171545 0
-0.6970793 1.355545 -0.050071526 0
-0.54531831 1.2089494 0.054538503 0
-0.80865717 1.463325 0.19146052 0
-1.2243224 1.8648424 0.42145649 0
-1.2221689 1.8627621 0.59296554 0
-0.71206367 1.3424925 -0.050136991 0
-0.56088227 1.2000926 0.054722328 0
-0.83036542 1.4539225 0.19245122 0
-1.2312535 1.8315245 0.41821352 0
-1.2205437 1.8214368 0.58538812 0
-0.72541726 1.3278751 -0.050130662 0
-0.87061286 1.4612268 0.069168836 0
-0.86463583 1.4557374 0.19528094 0
-1.235859 1.7966793 0.41454169 0
-1.2261384 1.7877516 0.58058012 0
-0.24281193 0.88463664 0.38565803 0
-0.73324883 1.3083147 -0.049868643 0
-0.91135669 1.4678067 0.070404172 0
-0.90812933 1.4649167 0.19940618 0
-1.2337162 1.7564732 0.40938419 0
-1.2299562 1.7531061 0.57536358 0
-0.2416916 0.86813504 0.38072455 0
-0.73913813 1.2872998 -0.04952918 0
-0.93929076 1.4620416 0.071014963 0
-1.232587 1.718102 0.40464759 0
-1.2426357 1.7268749 0.57335395 0
-0.23005636 0.84284937 0.37018061 0
-0.76020765 1.279515 -0.049917474 0
-0.97144723 1.4592998 0.071820617 0
-1.2443151 1.6915362 0.40312147 0
-1.2287869 1.6783202 0.56258929 0
-0.2339393 0.83161092 0.36836022 0
-0.25468361 0.84926629 0.4575223 0
-0.77332914 1.2647766 -0.049937613 0
-1.0106416 1.4616536 0.07294599 0
-1.2373794 1.6497577 0.39731646 0
-1.2385973 1.6507682 0.55998331 0
-0.24536355 0.82677037 0.37069222 0
-0.7892257 1.2522596 -0.05009352 0
-1.0464391 1.4602351 0.073902637 0
-1.2490759 1.6240816 0.39601421 0
-1.2423135 1.6186138 0.55551863 0
-0.25091898 0.81699985 0.36990839 0
-0.80478787 1.2393353 -0.050239898 0
-1.0904227 1.4644033 0.075222738 0
-1.245479 1.586581 0.39128798 0
-1.2403022 1.5825019 0.54936981 0
-0.27130061 0.81897014 0.37701276 0
-0.8104682 1.21869 -0.049947444 0
-1.1228898 1.4585508 0.076009415 0
-1.2378078 1.5467788 0.38578868 0
-1.2295909 1.5404702 0.54062873 0
-0.2562694 0.79320538 0.3655507 0
-0.24902995 0.78764737 0.43593115 0
-0.8227495 1.2032355 -0.049963664 0
-1.167747 1.4612676 0.077344403 0
-1.2500842 1.5228494 0.38494679 0
-1.2433913 1.5178437 0.5399484 0
-0.27178353 0.79115456 0.37015751 0
-0.28069746 0.79782152 0.45163423 0
-0.84430313 1.1945175 -0.050397925 0
-1.2083925 1.4597462 0.078479655 0
-1.2477139 1.4883907 0.38091207 0
-1.2442166 1.4858431 0.53526896 0
-1.2446713 1.4861742 0.69635814 0
-0.25843632 0.7677303 0.35995141 0
-0.27331406 0.77856827 0.44294089 0
-0.84064543 1.1675359 -0.049729612 0
-1.2684888 1.4710361 0.080457047 0
-1.2486804 1.4569845 0.37774739 0
-1.2421011 1.4523174 0.52983791 0
-1.2418444 1.4521353 0.68898416 0
-0.27710634 0.76777709 0.36623937 0
-0.27482098 0.7661559 0.439928 0
-0.85373366 1.1526884 -0.049808461 0
-1.2997504 1.4607124 0.081160061 0
-1.2471467 1.4243838 0.3741492 0
-1.246838 1.4241705 0.52671003 0
-1.2399843 1.4194373 0.68223894 0
-0.28112406 0.75723791 0.43995294 0
-0.86654234 1.1375822 -0.049882691 0
-1.2794431 1.4151231 0.079644434 0
-1.2773699 1.4137294 0.22741863 0
-1.2547402 1.3985183 0.37265429 0
-1.2312561 1.382733 0.51747173 0
-1.234375 1.3848294 0.67421341 0
-0.28267139 0.74511969 0.43717864 0
-0.87934256 1.1224041 -0.049964104 0
-1.2816148 1.3855083 0.079124756 0
-1.2728779 1.379794 0.22500083 0
-1.2440146 1.3609161 0.36729443 0
-1.2452551 1.3617275 0.51748675 0
-1.2454518 1.361856 0.67306095 0
-0.29724699 0.7416873 0.44230768 0
-0.88986063 1.1057023 -0.049956422 0
-1.2751291 1.3508152 0.078258745 0
-1.2840143 1.3564681 0.22464763 0
-1.2556032 1.3383925 0.36684865 0
-1.2535908 1.3371122 0.5158695 0
-1.2412913 1.3292871 0.66602391 0
-0.30427539 0.73314524 0.44294596 0
-0.89891541 1.0880979 -0.049896229 0
-1.2922926 1.3314664 0.078410685 0
-1.2881582 1.3289087 0.22345077 0
-1.2512232 1.3060583 0.36308026 0
-1.2340342 1.2954241 0.50599015 0
-1.2469739 1.3034294 0.66305327 0
-0.90535653 1.0689676 -0.049736876 0
-1.3052938 1.3094848 0.078398265 0
-1.3033329 1.3083056 0.22368994 0
-1.239343 1.269823 0.3578479 0
-1.2413198 1.2710117 0.5043335 0
-1.2363033 1.2679949 0.65388334 0
-0.91389906 1.0511919 -0.049675588 0
-1.3409777 1.3007638 0.079335362 0
-1.3367339 1.2982839 0.22622851 0
-1.2582934 1.2524456 0.35918957 0
-1.239062 1.2412074 0.49996015 0
-1.2316278 1.236863 0.64726329 0
-0.92749894 1.0363328 -0.049831569 0
-1.3854122 1.2962449 0.080629528 0
-1.3770545 1.291501 0.2296197 0
-1.2496558 1.2191894 0.35484618 0
-1.2418509 1.2147592 0.49720889 0
-1.2444521 1.2162358 0.64753538 0
-0.94073391 1.0211436 -0.049979247 0
-1.2549438 1.1942953 0.35348693 0
-1.2406987 1.1864451 0.493426 0
-1.2455722 1.1891308 0.6434586 0
-0.95420742 1.0059601 -0.050143361 0
-1.2481157 1.1631325 0.34972313 0
-1.2396121 1.1585851 0.48979098 0
-1.2411346 1.1593994 0.63744169 0
