# .PCD v0.7 - Point Cloud Data file format
VERSION 0.7
FIELDS x y z intensity
SIZE 4 4 4 4
TYPE F F F F
COUNT 1 1 1 1
WIDTH 1356
HEIGHT 1
VIEWPOINT 0 0 0 1 0 0 0
POINTS 1356
DATA ascii
-1.2399836 -0.25703469 0.45296979 0
-1.232942 -0.25483951 0.58639824 0
-1.0551529 -0.22004907 -0.049857415 0
-0.98848641 -0.19834127 0.059354343 0
-0.98255265 -0.19640909 0.16593848 0
-1.2420191 -0.28089616 0.32361209 0
-1.2359389 -0.27891633 0.45368162 0
-1.2400275 -0.28024772 0.59121096 0
-1.0458831 -0.23770599 -0.04974233 0
-1.1241597 -0.26428893 0.06469366 0
-1.1288857 -0.26589391 0.18321814 0
-1.2323155 -0.30101904 0.32309687 0
-1.2363811 -0.30239967 0.45567957 0
-1.0413009 -0.25693807 -0.049812645 0
-1.2928261 -0.34590456 0.20268156 0
-1.2432762 -0.32837835 0.32658073 0
-1.2449565 -0.32897273 0.45996734 0
-1.0334588 -0.27502695 -0.049768467 0
-1.2590773 -0.35804072 0.19971249 0
-1.2376148 -0.35014388 0.32695255 0
-1.2335808 -0.3486596 0.45894194 0
-1.0343655 -0.29643044 -0.050067149 0
-1.2411048 -0.37546739 0.19856177 0
-1.2352624 -0.37323377 0.32801786 0
-1.2383131 -0.37440005 0.46237892 0
-1.0204791 -0.31219396 -0.04980946 0
-1.2514194 -0.40383223 0.20070116 0
-1.2401849 -0.39937434 0.33055633 0
-1.2411444 -0.39975503 0.46540007 0
-1.0151818 -0.33129838 -0.049889669 0
-1.2450249 -0.425868 0.20095131 0
-1.2456442 -0.42612281 0.33327669 0
-1.2345467 -0.42155674 0.46592346 0
-1.006049 -0.34883282 -0.049830765 0
-1.2452155 -0.45077839 0.20200445 0
-1.2487611 -0.45228973 0.33561832 0
-1.2310855 -0.44475546 0.46739551 0
-0.99952972 -0.36747834 -0.049882106 0
-1.2483383 -0.47725615 0.2034446 0
-1.2411612 -0.47408953 0.33592525 0
-1.2418263 -0.47438297 0.47291738 0
-0.98380661 -0.38196698 -0.049581744 0
-1.2449437 -0.50113481 0.20416245 0
-1.2439153 -0.50066543 0.33834076 0
-1.2331781 -0.4957656 0.47313792 0
-0.9924593 -0.40772161 -0.050248966 0
-1.2388989 -0.52395338 0.20460528 0
-1.2360822 -0.52262491 0.33872613 0
-1.2436194 -0.52617979 0.47882035 0
-0.97574687 -0.42164698 -0.049925826 0
-1.5058804 -0.67989069 0.082978427 0
-1.2361941 -0.54851854 0.20548435 0
-1.2375698 -0.54918873 0.34103897 0
-1.2378224 -0.54931176 0.48003778 0
-0.97302341 -0.44235465 -0.050166629 0
-1.4524058 -0.68339092 0.081322819 0
-1.2380924 -0.57563287 0.20695981 0
-1.2398695 -0.5765264 0.34359771 0
-1.2387564 -0.57596678 0.48326802 0
-0.96964574 -0.46291777 -0.050393149 0
-1.3950065 -0.68354475 0.079500288 0
-1.2411102 -0.6037215 0.20862165 0
-1.2513059 -0.60900986 0.34809926 0
-0.94654346 -0.47311756 -0.049833082 0
-1.3539571 -0.6909889 0.078327455 0
-1.2401989 -0.63015479 0.20985885 0
-1.2383429 -0.62916225 0.34772444 0
-0.9378444 -0.49080709 -0.049861461 0
-1.3052603 -0.69327897 0.076838531 0
-1.2390722 -0.65680474 0.21111895 0
-1.2378982 -0.65615779 0.3499769 0
-0.92624652 -0.50687784 -0.049780153 0
-1.2605901 -0.69665158 0.075505413 0
-1.2366589 -0.68306822 0.21227041 0
-1.2455938 -0.68813968 0.35400382 0
-0.9165647 -0.52400547 -0.049785811 0
-1.2458454 -0.71642721 0.075401627 0
-1.231029 -0.70776898 0.21307102 0
-1.2358935 -0.71061158 0.35451058 0
-0.91389632 -0.54535925 -0.050092649 0
-1.2531505 -0.74938232 0.076225974 0
-1.2401714 -0.74157697 0.2157691 0
-1.2438526 -0.74379081 0.35879695 0
-0.89807057 -0.55883116 -0.049860764 0
-1.2496086 -0.77631527 0.076618761 0
-1.22911 -0.76363355 0.21598864 0
-1.2371476 -0.76860601 0.3600952 0
-0.8970232 -0.58151507 -0.050259497 0
-1.2510208 -0.80673295 0.077238619 0
-1.2322276 -0.7947765 0.21805125 0
-1.239677 -0.7995159 0.36344436 0
-0.87988353 -0.59401381 -0.049987182 0
-1.2602688 -0.84280294 0.078214154 0
-1.2369686 -0.82756358 0.22038956 0
-1.2346745 -0.8260631 0.36528164 0
-0.86707366 -0.60919511 -0.049905546 0
-1.2424617 -0.86152095 0.078053601 0
-1.2404687 -0.86018127 0.22264026 0
-1.2394867 -0.85952121 0.36933964 0
-0.86293578 -0.63029939 -0.050207719 0
-1.2333306 -0.88609797 0.078278266 0
-1.2340509 -0.88659543 0.22366869 0
-1.2316737 -0.8849538 0.37075788 0
-0.85029173 -0.64563459 -0.050151847 0
-1.2332828 -0.91731781 0.078916021 0
-1.2430815 -0.92426866 0.22678553 0
-1.5962933 -1.1748272 0.45461062 0
-0.82976687 -0.65518409 -0.049755864 0
-1.2430946 -0.9562816 0.080012441 0
-1.2429345 -0.9561649 0.22877361 0
-1.5672016 -1.1923841 0.45219868 0
-0.82525051 -0.67636186 -0.050075162 0
-1.231123 -0.97992378 0.080169842 0
-1.240966 -0.98728555 0.23058969 0
-0.80533719 -0.68600655 -0.049716495 0
-1.2394292 -1.0192795 0.081254818 0
-1.2382673 -1.0183874 0.23237732 0
-0.80661297 -0.71202928 -0.050322853 0
-1.1561698 -0.98746496 0.078211121 0
-1.1599665 -0.99045664 0.22389197 0
-1.1593949 -0.99000615 0.37152234 0
-0.7877959 -0.72235942 -0.050027877 0
-1.1384737 -1.0059077 0.078128107 0
-1.1439586 -1.0103425 0.22388066 0
-1.1376126 -1.0052114 0.37016279 0
-0.77270758 -0.73551673 -0.049908776 0
-1.2362562 -1.1200818 0.083411738 0
-1.2414867 -1.124421 0.23975796 0
-1.3378208 -1.2043409 0.42085311 0
-0.76061928 -0.7511211 -0.049936768 0
-1.2466866 -1.1648103 0.084724151 0
-1.2402653 -1.1593451 0.24207208 0
-1.3242075 -1.2307879 0.42204195 0
-1.0331599 -0.9830789 0.49704909 0
-0.74318731 -0.76209062 -0.049721077 0
-1.2767928 -1.2279513 0.41523087 0
-0.99008667 -0.9776445 0.48781997 0
-0.73722279 -0.78312916 -0.050059088 0
-1.1948487 -1.1929238 0.08399006 0
-1.1935427 -1.1917543 0.24058008 0
-1.1914476 -1.1898782 0.39915138 0
-0.96875048 -0.99045748 0.48590726 0
-0.72098207 -0.79505759 -0.049915671 0
-0.92342937 -0.98099083 0.47571936 0
-0.7126869 -0.81433529 -0.050167553 0
-0.88563192 -0.97723454 0.46800533 0
-0.68311369 -0.81331056 -0.049378306 0
-0.85484016 -0.97919196 0.46266532 0
-0.68511367 -0.84278327 -0.050165154 0
-0.83859408 -0.99482161 0.46249077 0
-0.66983199 -0.85549563 -0.050101403 0
-0.8200134 -1.0080602 0.46153608 0
-0.65715992 -0.87086612 -0.050179549 0
-0.64278042 -0.88449782 -0.050179597 0
-0.62088752 -0.88990146 -0.049790755 0
-0.61685824 -0.91497308 -0.050359398 0
-0.59559262 -0.9207924 -0.050014362 0
-0.58431351 -0.93804878 -0.050220314 0
-0.5630827 -0.94346553 -0.049882967 0
-0.5458653 -0.95350319 -0.049772929 0
-0.53629738 -0.97319108 -0.050111402 0
-0.51619828 -0.97947091 -0.049850035 0
-0.50344282 -0.99533051 -0.050028495 0
-0.49716634 -1.0203631 -0.050616693 0
-0.46790737 -1.0135057 -0.049810395 0
-0.45991164 -1.0366461 -0.050325759 0
-0.43493694 -1.0350143 -0.049777772 0
-0.42208213 -1.0513372 -0.050012063 0
-0.37430441 -0.97778267 0.49878627 0
-0.4072147 -1.06479 -0.050130151 0
-0.35472316 -0.9817068 0.49637133 0
-0.39212406 -1.0780445 -0.050246898 0
-0.32485712 -0.9685455 0.48740053 0
-0.37231487 -1.0835634 -0.05004904 0
-0.3090387 -0.97759169 0.48724836 0
-0.35413766 -1.0916235 -0.049967848 0
-0.28707558 -0.97602922 0.48309383 0
-0.33383572 -1.0958024 -0.049737591 0
-0.26947886 -0.98158127 0.4817915 0
-0.32102495 -1.113345 -0.05006317 0
-0.2546252 -0.99194914 0.48240855 0
-0.30305201 -1.1216576 -0.050020061 0
-0.22863598 -0.9814406 0.47522926 0
-0.28534037 -1.1304181 -0.050004337 0
-0.20646288 -0.9771654 0.47055152 0
-0.26952422 -1.1429604 -0.050148521 0
-0.18629475 -0.97612232 0.46720889 0
-0.24848194 -1.1449289 -0.049880486 0
-0.16991957 -0.98235327 0.46666846 0
-0.23357798 -1.1595803 -0.050124388 0
-0.15353341 -0.98847073 0.46616548 0
-0.21219678 -1.1603435 -0.049830049 0
-0.13502409 -0.98981076 0.46399635 0
-0.19530119 -1.1708505 -0.049927544 0
-0.11316814 -0.98309797 0.45899969 0
-0.17406775 -1.1712757 -0.049642045 0
-0.10540207 -1.0087665 0.46582454 0
-0.1598642 -1.1884156 -0.050012786 0
-0.072170749 -0.97336084 0.34703031 0
-0.084468022 -1.0035179 0.46154141 0
-0.14193942 -1.1968141 -0.050053235 0
-0.057470307 -0.9819681 0.3476747 0
-0.065889344 -1.0033817 0.45920154 0
-0.12129678 -1.1981248 -0.049831554 0
-0.0301951 -0.95755702 0.14642075 0
-0.029799564 -0.95651251 0.24144445 0
-0.015124125 -0.91775984 0.32850152 0
-0.047580406 -1.0034655 0.45703444 0
-0.10488893 -1.2106104 -0.050045408 0
-0.0036115481 -0.93265432 0.14291699 0
-0.0092095565 -0.94801801 0.23871513 0
0.0036751197 -0.91265613 0.32561052 0
-0.083153918 -1.2083486 -0.049708303 0
0.0088367332 -0.94564265 0.14378142 0
0.011235194 -0.93879324 0.2359079 0
0.023082273 -0.90496045 0.32209572 0
-0.0042697624 -0.9830721 0.4457258 0
-0.065214798 -1.2166445 -0.049780596 0
0.022154795 -0.95668703 0.14443961 0
0.023209231 -0.95354968 0.23772433 0
0.023408907 -0.95295542 0.33365116 0
0.013289111 -0.98306566 0.44382787 0
-0.048187599 -1.2279478 -0.049973883 0
0.034131065 -0.97240788 0.14564213 0
0.038769498 -0.95800883 0.23761098 0
0.018848585 -1.0198488 0.35022652 0
0.021949248 -1.0102235 0.4515098 0
-0.030392064 -1.2372322 -0.050099026 0
0.025509493 -1.0559063 0.35848969 0
-0.012337996 -1.2459624 -0.050211437 0
0.064051345 -0.98662657 0.33872807 0
0.0071837171 -1.2497729 -0.050149459 0
0.083687022 -0.97744495 0.33509159 0
0.027546601 -1.2502805 -0.049974725 0
0.099133953 -0.98254949 0.33530563 0
0.045466855 -1.259919 -0.050146349 0
0.12004115 -0.96624798 0.32993558 0
0.065250322 -1.2623438 -0.050060857 0
0.084380314 -1.2673856 -0.05008056 0
0.10484181 -1.2662894 -0.049884919 0
0.1245959 -1.2680289 -0.049802426 0
0.14333321 -1.2748817 -0.049914923 0
-0.065442339 -2.3860447 0.10227902 0
0.16119458 -1.2872221 -0.050234623 0
0.0014410482 -2.2007089 0.095342234 0
0.18395318 -1.2707506 -0.049519792 0
0.034016326 -2.1966615 0.095006607 0
0.2022837 -1.2805911 -0.049766403 0
0.065086439 -2.2011411 0.094994225 0
0.22042567 -1.293128 -0.05011807 0
0.096656933 -2.2019188 0.094862588 0
0.24006717 -1.2955629 -0.050114021 0
0.12949158 -2.1917338 0.094351105 0
0.25974071 -1.2977108 -0.050108563 0
0.16061039 -2.1938231 0.094296083 0
0.27912658 -1.3027898 -0.050217152 0
0.19160612 -2.1968224 0.094287835 0
0.29868597 -1.3067718 -0.050295066 0
0.22262086 -2.1995878 0.09428522 0
0.31917974 -1.2986732 -0.049949303 0
0.25336635 -2.2061086 0.094431013 0
0.33876032 -1.3017976 -0.050014433 0
0.28533223 -2.1940513 0.093926094 0
0.35856476 -1.3012238 -0.049956154 0
0.31647509 -2.1919715 0.093792476 0
0.37799746 -1.3102853 -0.050251018 0
0.34695971 -2.2063131 0.094259545 0
0.39793846 -1.3058634 -0.050073043 0
0.37838268 -2.1932526 0.093761668 0
0.41772294 -1.3050559 -0.0500331 0
0.43747255 -1.3011334 -0.049890842 0
0.45740309 -1.3148791 -0.050388288 0
0.47666049 -1.2923763 -0.04960024 0
0.49679878 -1.304896 -0.050071843 0
0.51668996 -1.3065253 -0.05016347 0
0.53596079 -1.2977589 -0.049892176 0
0.55593437 -1.3002974 -0.05003415 0
0.57544053 -1.2965972 -0.049961645 0
0.59491205 -1.2930279 -0.049902547 0
0.61525434 -1.2972327 -0.050131619 0
0.63520265 -1.2971221 -0.050214913 0
0.65397209 -1.2883067 -0.049993493 0
0.67363948 -1.2862629 -0.050024826 0
0.69190943 -1.2757689 -0.049759261 0
0.71140844 -1.2730829 -0.049784727 0
0.73049718 -1.2681766 -0.049738418 0
0.75104982 -1.2704697 -0.049963251 0
0.77131104 -1.270692 -0.050122447 0
0.78767163 -1.2537332 -0.04966151 0
0.80843937 -1.2559406 -0.049911562 0
0.82585204 -1.2445645 -0.04967092 0
0.84744334 -1.2490611 -0.050025124 0
0.86743569 -1.2470857 -0.050150275 0
0.88518769 -1.2373608 -0.049996302 0
0.90472394 -1.2336476 -0.050075103 0
0.92524582 -1.2327411 -0.050268952 0
0.94302624 -1.2234139 -0.050155543 0
0.9587971 -1.2086902 -0.049845494 0
0.98042673 -1.2103552 -0.050165713 0
1.0002122 -1.2066057 -0.050290693 0
0.92346126 -1.0077242 0.45964047 0
1.0142968 -1.1883742 -0.049868923 0
0.94273859 -1.0096803 0.46259287 0
1.0335925 -1.1834633 -0.049966693 0
0.96273744 -1.0127845 0.46606153 0
1.0500398 -1.1717452 -0.049809873 0
0.96970779 -0.98491675 0.45842361 0
1.0737454 -1.1766032 -0.050307974 0
0.98568338 -0.97870153 0.45865938 0
1.0923448 -1.1695164 -0.050351243 0
1.0037485 -0.97697836 0.46061501 0
1.1073784 -1.1548522 -0.050104447 0
1.0208856 -0.97295231 0.46181765 0
1.1224656 -1.1406848 -0.049883399 0
1.0436058 -0.98008388 0.4672429 0
1.1398594 -1.1314074 -0.049864225 0
1.0657634 -0.98519045 0.47205397 0
1.1519719 -1.1120479 -0.04944757 0
1.0840024 -0.98200804 0.47388956 0
1.1778777 -1.1189005 -0.050097253 0
1.1016183 -0.97737032 0.47527418 0
1.1942601 -1.1076488 -0.050025497 0
1.1304098 -0.99264079 0.057329223 0
1.1273915 -0.98720378 0.15984474 0
1.1260494 -0.98478657 0.26367465 0
1.1274179 -0.98725146 0.37124121 0
1.1301792 -0.99222511 0.48416999 0
1.2114828 -1.0979626 -0.050026048 0
1.1428031 -0.97784477 0.0570862 0
1.1429149 -0.97804028 0.1598057 0
1.1383586 -0.97007149 0.26245224 0
1.1411327 -0.97492331 0.37021858 0
1.1486557 -0.98808068 0.48598629 0
1.2360574 -1.10076 -0.050552715 0
1.1669632 -0.98337239 0.057689752 0
1.1639289 -0.97821718 0.16095546 0
1.1634266 -0.977364 0.26585865 0
1.164764 -0.97963625 0.37428421 0
1.165193 -0.98036486 0.48652682 0
1.2469336 -1.0802176 -0.05012209 0
1.2666303 -1.0744011 -0.050313242 0
1.2805288 -1.0592784 -0.050121829 0
1.2919852 -1.040687 -0.049788002 0
1.3153685 -1.0401342 -0.050235126 0
1.3285948 -1.0244144 -0.050039433 0
1.3426818 -1.0101318 -0.0499123 0
1.3625183 -1.0038366 -0.05014541 0
1.3814164 -0.99601632 -0.050323699 0
1.3928009 -0.97826189 -0.050066207 0
1.4079545 -0.96554726 -0.050042272 0
1.2137893 -0.72072005 0.050886523 0
1.2038151 -0.70814329 0.13939394 0
1.4265366 -0.95706743 -0.050221752 0
1.2091093 -0.68988866 0.049923755 0
1.2066203 -0.68683016 0.13779707 0
1.4353981 -0.93674308 -0.049863074 0
1.2134652 -0.67093515 0.049500525 0
1.2024657 -0.65776104 0.13510239 0
1.4527304 -0.92669231 -0.049988657 0
1.2125316 -0.64626127 0.048806369 0
1.2054566 -0.63800138 0.13368846 0
1.4644314 -0.91009313 -0.049814753 0
1.20978 -0.62025642 0.048040688 0
1.2112346 -0.62191206 0.13278922 0
1.4737806 -0.89106292 -0.049529072 0
1.213364 -0.60208535 0.047641095 0
1.201423 -0.58883482 0.12943257 0
1.4920574 -0.88198417 -0.049729522 0
1.5142255 -0.87680084 -0.050135255 0
1.52509 -0.85957378 -0.049960151 0
1.5457175 -0.85231107 -0.050292 0
1.5425814 -0.82147115 -0.049437586 0
1.5655887 -0.81639677 -0.04990251 0
1.5808415 -0.80365795 -0.049987074 0
1.5972261 -0.79186064 -0.050133009 0
1.6112561 -0.77783984 -0.050172225 0
1.6233729 -0.76212925 -0.050129216 0
1.6360986 -0.74696583 -0.050124332 0
1.6467402 -0.73009586 -0.050032176 0
1.6611916 -0.71634603 -0.050124727 0
1.6736014 -0.7009216 -0.05013191 0
1.6842998 -0.68419003 -0.050071109 0
1.6911218 -0.66464651 -0.049848247 0
1.7001959 -0.64691162 -0.049737286 0
1.7215029 -0.63783091 -0.050170157 0
1.7292188 -0.61911666 -0.050017156 0
1.7425039 -0.60422087 -0.050114121 0
1.7585523 -0.59102249 -0.050335705 0
1.7636335 -0.57075518 -0.050100356 0
1.7774377 -0.55599946 -0.050242309 0
1.7743088 -0.53108513 -0.049688164 0
1.8042231 -0.52564943 -0.050512355 0
1.8022541 -0.50171167 -0.050029352 0
1.8197914 -0.48874769 -0.050354339 0
1.82043 -0.46662065 -0.050001912 0
1.8268188 -0.44770584 -0.049893461 0
1.8400252 -0.43224725 -0.050066784 0
1.8525286 -0.41631266 -0.050218958 0
1.8650278 -0.40025428 -0.050378006 0
1.8592803 -0.37588128 -0.049830075 0
1.8640006 -0.35646603 -0.049704451 0
1.8816721 -0.34256795 -0.050090272 0
1.884848 -0.3225151 -0.049922716 0
1.8831713 -0.30069551 -0.049579758 0
1.8978856 -0.28527918 -0.049873911 0
1.9121068 -0.26946113 -0.050155398 0
1.911082 -0.24814479 -0.049867131 0
1.9252172 -0.23208149 -0.050160564 0
1.9225596 -0.21044643 -0.049831197 0
1.9365447 -0.19412445 -0.050134435 0
1.9423945 -0.17520799 -0.050141726 0
1.9450457 -0.15539519 -0.050039317 0
1.9478333 -0.13568987 -0.049951516 0
1.9561913 -0.11744107 -0.050078157 0
1.9553576 -0.096916474 -0.049875602 0
1.9586456 -0.077458329 -0.049833883 0
1.9677213 -0.059247147 -0.050012395 0
1.9721732 -0.039990347 -0.050030548 0
1.9755641 -0.020521414 -0.050018955 0
1.9733558 -9.6570089e-05 -0.049813449 0
1.9772712 0.019212801 -0.049839031 0
1.9878453 0.037572566 -0.050113577 0
1.9991354 0.056035627 -0.050421789 0
1.9848241 0.077797942 -0.04981732 0
1.9826581 0.097829707 -0.049659614 0
1.9962988 0.11625571 -0.050077993 0
1.9944798 0.13624905 -0.049950466 0
1.9911863 0.15625766 -0.0497793 0
1.991978 0.17591673 -0.049763355 0
2.0033884 0.1950994 -0.050135735 0
1.9958643 0.21514423 -0.049840268 0
1.9975188 0.23481035 -0.049881641 0
2.0059586 0.25446606 -0.050174102 0
1.9932032 0.27419776 -0.049718704 0
2.0012329 0.29400393 -0.050014265 0
2.0119412 0.31410617 -0.050414521 0
2.0055451 0.33373985 -0.050212804 0
1.9829206 0.35231364 -0.049439471 0
1.9972166 0.37290478 -0.049995109 0
1.9952865 0.39256126 -0.049979363 0
1.9888798 0.41178572 -0.049811941 0
1.9874079 0.43142477 -0.049830168 0
1.9872985 0.45124361 -0.049906299 0
1.9861504 0.47098169 -0.049954128 0
1.9724436 0.48892564 -0.049557902 0
1.9904023 0.51161534 -0.050313696 0
1.9754344 0.52919751 -0.049888749 0
1.9686277 0.54798484 -0.049767129 0
1.9761581 0.5695222 -0.05017557 0
1.9666002 0.58775491 -0.049971487 0
1.964771 0.60757452 -0.050057985 0
1.9504353 0.62449282 -0.049694989 0
1.9540879 0.64565808 -0.050000738 0
1.9489417 0.66472661 -0.049992446 0
1.949724 0.68543768 -0.050212651 0
1.9442453 0.70449096 -0.050210547 0
1.9316283 0.72136986 -0.049950946 0
1.9334126 0.74264902 -0.050237861 0
1.919933 0.75906813 -0.049961753 0
1.9209595 0.78031278 -0.050240353 0
1.9033583 0.79504877 -0.049823359 0
1.8943846 0.81271011 -0.049740415 0
1.8819612 0.82896829 -0.049533397 0
1.8764718 0.84787428 -0.049600177 0
1.8804115 0.87078404 -0.050041474 0
1.8682882 0.88706976 -0.049871299 0
1.8717366 0.9102152 -0.050317507 0
1.8504701 0.92224413 -0.04980506 0
1.8552027 0.94633859 -0.050324831 0
1.8357674 0.95888406 -0.049897175 0
1.8270757 0.97658122 -0.049903762 0
1.818987 0.99460477 -0.049943686 0
1.8090332 1.0116513 -0.049917303 0
1.796941 1.0274842 -0.049812015 0
1.7883314 1.0452408 -0.049857628 0
1.7787193 1.062444 -0.049871217 0
1.7719147 1.0813746 -0.050011344 0
1.7656162 1.1007433 -0.050183922 0
1.7490803 1.1136564 -0.049933285 0
1.7424833 1.1329513 -0.050113238 0
1.7221236 1.1430265 -0.049710639 0
1.7165551 1.1631119 -0.049954545 0
1.7061425 1.1799307 -0.049998753 0
1.6929011 1.1947039 -0.049927197 0
1.6814791 1.2107967 -0.049944755 0
1.6692697 1.2262965 -0.049935989 0
1.6564325 1.2412914 -0.049907334 0
1.633126 1.2476895 -0.049403913 0
1.6300119 1.2705954 -0.049840499 0
1.6230168 1.2905666 -0.050112437 0
1.6158245 1.3106233 -0.050389931 0
1.5958164 1.3193263 -0.050065055 0
1.5774404 1.3292387 -0.04982125 0
1.5730807 1.3522872 -0.050272148 0
1.5552148 1.3625733 -0.05006852 0
1.5345461 1.3698487 -0.049727079 0
1.5286921 1.3920237 -0.050144657 0
1.5203571 1.4120138 -0.050453462 0
1.0275105 0.89206183 0.29373366 0
1.4938407 1.4126577 -0.049823321 0
1.0464054 0.92854917 0.30689225 0
1.4876961 1.4352486 -0.05027118 0
1.4428029 1.3854319 0.059877038 0
1.4437193 1.3864487 0.16832969 0
1.4388981 1.3810987 0.27711335 0
1.0474384 0.94670612 0.31158587 0
1.4705557 1.4458078 -0.050146013 0
1.4165925 1.3843884 0.059227154 0
1.4191663 1.387318 0.16664536 0
1.4101813 1.3770915 0.2731306 0
1.0504293 0.96763253 0.31744862 0
1.4512771 1.4537398 -0.049908899 0
1.3935394 1.3863313 0.058740217 0
1.3930191 1.3857237 0.16467451 0
1.389376 1.3814704 0.27126831 0
1.053913 0.98981899 0.32378384 0
1.4338642 1.4636501 -0.049777627 0
1.3695459 1.3866165 0.058194846 0
1.3703227 1.3875468 0.16324903 0
1.3697896 1.3869082 0.26973614 0
1.0548389 1.0096934 0.32903165 0
1.4223632 1.4806832 -0.049985699 0
1.338632 1.3777927 0.057249743 0
1.3478762 1.3891522 0.16184776 0
1.3404673 1.3800482 0.26541772 0
1.0575804 1.032431 0.33544907 0
1.4070913 1.4932029 -0.049992673 0
1.3209019 1.3845248 0.057040669 0
1.3208543 1.3844647 0.1596362 0
1.3250438 1.3897475 0.26503929 0
1.0542097 1.0482465 0.33884874 0
1.3937026 1.508173 -0.050118856 0
1.2952904 1.3808213 0.0563729 0
1.2919048 1.3764402 0.15703925 0
1.2943993 1.3796682 0.26020101 0
1.0478814 1.0606588 0.34080255 0
1.3721266 1.5124208 -0.04977227 0
1.2737088 1.3816925 0.055930346 0
1.2771151 1.3862171 0.15691075 0
1.2730062 1.3807591 0.25801751 0
1.0431353 1.0754218 0.34375021 0
1.3525387 1.5189716 -0.049542911 0
1.2466103 1.3745171 0.055147704 0
1.2544941 1.3852681 0.15537894 0
1.2555256 1.3866748 0.25699359 0
1.0315363 1.0812205 0.34299722 0
1.3464775 1.5441915 -0.050145488 0
1.2494919 1.4083788 0.056187406 0
1.2438089 1.4004204 0.15602495 0
1.2423925 1.3984371 0.25732359 0
1.0250714 1.0941138 0.34521136 0
1.3243545 1.5470599 -0.049774244 0
1.2467781 1.4354821 0.056922588 0
1.2431786 1.430305 0.15861134 0
1.250862 1.4413559 0.26453084 0
1.0128466 1.0990199 0.34420288 0
1.3111404 1.5626305 -0.049965791 0
1.2468791 1.467675 0.057872418 0
1.249903 1.4721432 0.16272801 0
1.2463729 1.4669271 0.26787591 0
1.0039117 1.1086547 0.34516475 0
1.2949381 1.5739152 -0.049979683 0
1.2447578 1.4977168 0.058722392 0
1.2446479 1.4975498 0.16468534 0
1.2383728 1.4880211 0.27023882 0
1.169926 1.3840852 0.34805697 0
0.99271572 1.1149921 0.34485006 0
1.2757006 1.5804862 -0.049802288 0
1.2487131 1.5383605 0.060016196 0
1.2434357 1.5301228 0.16755009 0
1.2203182 1.4940379 0.26937509 0
1.1519123 1.3872609 0.34623292 0
0.98129731 1.120942 0.34444076 0
1.2544954 1.583668 -0.049493954 0
1.2433157 1.5657238 0.060739163 0
1.2429091 1.565071 0.17069514 0
1.2082416 1.5094272 0.27055818 0
1.1300977 1.3840004 0.34255683 0
0.97604358 1.136732 0.34794831 0
1.242762 1.6020741 -0.049834609 0
1.1966823 1.5259951 0.27201295 0
1.1124787 1.3869718 0.34084982 0
0.96522236 1.143846 0.34808055 0
0.8412779 0.93920922 0.47389564 0
1.222427 1.6063468 -0.049593382 0
1.1785736 1.5318421 0.27124402 0
1.0910451 1.3831354 0.33720592 0
0.95631945 1.1542432 0.34953201 0
0.84347993 0.96253443 0.48644215 0
1.2133296 1.6299368 -0.050158884 0
1.1608859 1.538215 0.27063739 0
1.0743278 1.3868284 0.33588055 0
0.94539928 1.1613377 0.34975046 0
0.84673458 0.9887771 0.35149503 0
0.83919722 0.97559458 0.41591442 0
0.84218502 0.98082012 0.495437 0
1.19363 1.6352583 -0.049979158 0
1.1482251 1.5534741 0.27191409 0
1.0547359 1.3850794 0.333038 0
0.93423235 1.168026 0.34986532 0
0.8478688 1.0124662 0.3602708 0
0.83964807 0.99765885 0.42564335 0
0.83826345 0.99516481 0.50170702 0
1.1728841 1.6383772 -0.04972142 0
1.1291444 1.5572004 0.27085233 0
1.0383205 1.3886398 0.33182517 0
0.9226523 1.1739702 0.34975159 0
0.85054857 1.0401524 0.37086043 0
0.84040904 1.0213344 0.43621901 0
0.84342724 1.0269359 0.51970756 0
1.1605541 1.6572117 -0.050109014 0
1.1095145 1.5595621 0.26956889 0
1.0222293 1.3925673 0.33078566 0
0.909863 1.1775868 0.34881967 0
0.84889442 1.060941 0.37814236 0
0.84181112 1.0473891 0.44806316 0
0.84075779 1.045374 0.52862424 0
1.1425445 1.6654502 -0.050076295 0
1.0953205 1.5722609 0.27043372 0
0.99524575 1.3747791 0.32359979 0
0.89995116 1.1867301 0.35001534 0
0.85240763 1.0929103 0.39057732 0
0.83526331 1.0590787 0.45176432 0
0.84166062 1.0717028 0.5427528 0
1.1263971 1.677436 -0.050201856 0
1.0775727 1.5780028 0.26993155 0
0.98281199 1.3850187 0.32452142 0
0.89035314 1.1967225 0.35156468 0
0.84727645 1.108995 0.39558828 0
0.84048021 1.0951542 0.46908161 0
0.8420974 1.0984477 0.55706161 0
1.1053979 1.6794314 -0.049939804 0
0.96134144 1.3764712 0.32017443 0
0.8796224 1.2046106 0.35237426 0
0.83709222 1.1151668 0.39605445 0
0.83931547 1.1198425 0.47995028 0
0.84253246 1.126608 0.57221097 0
1.0874151 1.6875477 -0.049930226 0
0.94980842 1.3884994 0.32170734 0
0.86765921 1.2099719 0.35230342 0
0.83982271 1.1494775 0.40940124 0
0.84055543 1.1510698 0.49436572 0
0.8437953 1.1581106 0.58945107 0
1.0713717 1.700013 -0.050099529 0
0.9265818 1.3746269 0.31603953 0
0.85367888 1.2107921 0.35063434 0
0.84087712 1.1820226 0.42185777 0
0.8413831 1.1831597 0.50916445 0
0.83859116 1.1768855 0.59832281 0
1.0510224 1.7027749 -0.049898691 0
0.91215336 1.3798063 0.31577483 0
0.85114461 1.2379178 0.35856465 0
0.84162843 1.2157859 0.43479005 0
0.83827543 1.2079878 0.51992267 0
0.8393684 1.2105298 0.61678803 0
1.0355827 1.7170017 -0.050152011 0
0.89737356 1.3840774 0.31531093 0
0.85172081 1.2741071 0.36973006 0
0.8389315 1.2432996 0.44484907 0
0.8402878 1.2465668 0.53809541 0
0.84046006 1.2469817 0.63695347 0
1.0149868 1.7188413 -0.049935181 0
0.8815909 1.3857276 0.31418034 0
0.85194933 1.3117073 0.38134232 0
0.84062308 1.2834235 0.46049675 0
0.84120101 1.2848668 0.55601275 0
0.84065318 1.2834988 0.65705037 0
0.99270636 1.7159002 -0.049546402 0
0.86473083 1.3842828 0.31226331 0
0.85069084 1.3479016 0.39239591 0
0.83929557 1.3183736 0.47376299 0
0.83959526 1.3191502 0.57168293 0
0.83710629 1.3127005 0.67239809 0
0.98135269 1.7415917 -0.050260637 0
0.84501237 1.3746077 0.30817312 0
0.84910953 1.385636 0.40395021 0
0.84298658 1.369155 0.49396726 0
0.84143001 1.3649652 0.5934459 0
0.83877444 1.3578173 0.69777119 0
0.95967126 1.7398813 -0.049938262 0
0.83312023 1.3856467 0.30978066 0
0.83983201 1.404434 0.40876967 0
0.84331256 1.4141766 0.5115279 0
0.83816189 1.3997591 0.60924315 0
0.94228381 1.7499944 -0.05007387 0
0.81845158 1.3890899 0.3093729 0
0.83797884 1.4460014 0.42161834 0
0.83838767 1.447193 0.52375615 0
0.84079254 1.4542019 0.63538802 0
0.92392772 1.7574803 -0.050118424 0
1.0276717 2.0727136 0.34933949 0
0.79849535 1.3763453 0.30466861 0
0.83876562 1.4987093 0.43832394 0
0.84307277 1.5117968 0.54972923 0
0.84231138 1.5094833 0.66184896 0
0.90498519 1.7632205 -0.050106127 0
1.0055532 2.0822778 0.34975818 0
0.78596389 1.3856195 0.30594051 0
0.8412686 1.5610764 0.45832941 0
0.84117937 1.5607934 0.56879836 0
0.84243637 1.5647812 0.68820369 0
0.88560778 1.7674989 -0.050048273 0
0.9839204 2.0936687 0.35057193 0
0.76770496 1.3763349 0.3023043 0
0.84041643 1.6175683 0.4762066 0
0.8412084 1.6201957 0.59230554 0
0.86586118 1.7703578 -0.049946986 0
0.95801312 2.0906289 0.34872583 0
0.75272852 1.3771689 0.30142877 0
0.83855528 1.675457 0.49450642 0
0.83895713 1.6768537 0.61454505 0
0.84525931 1.7698387 -0.049730215 0
0.73730004 1.3760358 0.047152195 0
0.73833919 1.3798263 0.13030021 0
0.74099129 1.3895005 0.21640244 0
0.73910409 1.3826164 0.30182672 0
0.83556557 1.7344788 0.51314217 0
0.83478832 1.7316436 0.63591826 0
0.82975256 1.7882731 -0.050223015 0
0.71990871 1.3668561 0.046675198 0
0.72224683 1.3758264 0.12943818 0
0.7255215 1.3883897 0.2154882 0
0.72619325 1.3909667 0.30303395 0
0.82949001 1.7872658 0.52958626 0
0.83216023 1.7975101 0.66198331 0
0.81108731 1.7953942 -0.050305415 0
0.70734274 1.3758001 0.046874277 0
0.70786798 1.3779244 0.12927638 0
0.70940655 1.3841473 0.21403126 0
0.70825315 1.3794823 0.29906744 0
0.82320762 1.8444148 0.54750043 0
0.82309103 1.8439434 0.67969304 0
0.78908283 1.7885098 -0.049882691 0
0.69383925 1.3813629 0.046954602 0
0.69498277 1.3862512 0.12982254 0
0.69443607 1.3839144 0.21335888 0
0.69389868 1.3816172 0.29874036 0
0.81840658 1.9138631 0.56959134 0
0.77170062 1.8012016 -0.050186992 0
0.68057883 1.3883009 0.047091208 0
0.6771462 1.3727463 0.12798238 0
0.67682642 1.3712975 0.21043606 0
0.67737013 1.3737612 0.29585117 0
0.80783004 1.9649149 0.58537394 0
0.75161606 1.8019426 -0.050062746 0
0.66635615 1.3910872 0.047082178 0
0.66463435 1.3827901 0.12875636 0
0.66342556 1.3769652 0.21092963 0
0.66453719 1.382322 0.2973015 0
0.79139483 1.9936308 0.59357125 0
0.73084503 1.7987098 -0.049803484 0
0.64889395 1.3771896 0.0464729 0
0.6503191 1.3845199 0.12863551 0
0.65018815 1.3838462 0.21167594 0
0.65226209 1.3945137 0.29973406 0
0.77690721 2.0356333 0.60632205 0
0.71319276 1.8116647 -0.050141674 0
0.6351223 1.3812433 0.046524346 0
0.63625026 1.387462 0.12866706 0
0.63434935 1.3769821 0.20993178 0
0.63475353 1.3792104 0.29507187 0
0.76394552 2.0914769 0.62378538 0
0.69306612 1.8113817 -0.050007928 0
0.6215685 1.3868233 0.046637222 0
0.620224 1.3788395 0.12745751 0
0.61970842 1.3757778 0.20926295 0
0.61959469 1.3751028 0.29337326 0
0.74766189 2.1355753 0.63730431 0
0.67321056 1.8122485 -0.04992516 0
0.60672265 1.3846262 0.04647506 0
0.6060279 1.3801577 0.12735347 0
0.60747486 1.3894641 0.21134686 0
0.60751295 1.3897091 0.29655921 0
0.72739816 2.1607604 0.64449793 0
0.65488136 1.823427 -0.050223429 0
0.59237665 1.3851398 0.046417698 0
0.59164697 1.3800235 0.12711138 0
0.59215218 1.3835657 0.20988733 0
0.59146941 1.378778 0.29319733 0
0.70870906 2.2008703 0.65678018 0
0.63489437 1.8234907 -0.050129391 0
0.5778926 1.3842933 0.046317969 0
0.57828206 1.3872937 0.12769175 0
0.57753545 1.3815414 0.20916983 0
0.5784775 1.3887995 0.2952835 0
0.68771875 2.2305019 0.66560602 0
0.61506188 1.824332 -0.050072487 0
0.56399316 1.387857 0.04638347 0
0.56404877 1.3883322 0.12761518 0
0.56310737 1.3802862 0.20862649 0
0.56435621 1.3909596 0.29538926 0
0.66775894 2.2747238 0.67939472 0
0.59439409 1.8168037 -0.04972421 0
0.55323064 1.4219768 0.13108125 0
0.55185455 1.4087775 0.21351066 0
0.55111778 1.401711 0.2977443 0
0.64536321 2.3056843 0.68881357 0
0.57496452 1.820142 -0.049775239 0
0.5521906 1.571367 0.14704916 0
0.55162668 1.5652074 0.24158491 0
0.55209696 1.5703442 0.34058857 0
0.62126142 2.3258731 0.69471723 0
0.55587012 1.8282264 -0.050004959 0
0.60307556 2.4268146 0.2391177 0
0.59817058 2.3646169 0.38595238 0
0.59742874 2.3552103 0.54109597 0
0.53654927 1.8353916 -0.0502102 0
0.57419229 2.4039879 0.39272162 0
0.57361019 2.3951952 0.55083126 0
0.51662701 1.834094 -0.050121441 0
0.54850072 2.4291251 0.39697009 0
0.54800975 2.4199595 0.55674779 0
0.49690089 1.836134 -0.050160944 0
0.52213299 2.4523523 0.40093005 0
0.52180296 2.4442925 0.56263351 0
0.47670597 1.8227246 -0.049657527 0
0.45683932 1.1217117 0.36111197 0
0.45678583 1.1198237 0.43418869 0
0.45704511 1.8208824 -0.049576309 0
0.44573042 1.1021279 0.35290402 0
0.44583467 1.1087505 0.42852879 0
0.43744239 1.8202991 -0.049548876 0
0.43515012 1.0924159 0.42030573 0
0.43515378 1.0935794 0.49776211 0
0.41777191 1.8286152 -0.049847987 0
0.42479917 1.0844057 0.4163141 0
0.42483351 1.080768 0.49018347 0
0.3979041 1.8361673 -0.050128739 0
0.41410118 1.1011869 0.35255551 0
0.41412765 1.0999852 0.42419237 0
0.41450959 1.0826542 0.49139836 0
0.37860781 1.8214092 -0.049621571 0
0.35221228 2.5834215 0.42448837 0
0.35250843 2.5748715 0.59583592 0
0.40495953 1.0606618 0.47852123 0
0.35851535 1.8310136 -0.049993522 0
0.32216093 2.6003857 0.42776707 0
0.32237658 2.5958216 0.60149109 0
0.39551365 1.0480154 0.47125661 0
0.3386566 1.832274 -0.05007638 0
0.29258168 2.6017294 0.42829439 0
0.29146951 2.6203027 0.60814995 0
0.38592753 1.042845 0.46849874 0
0.31921569 1.8269218 -0.049931567 0
0.26095092 2.6302767 0.43380857 0
0.26128539 2.6256649 0.6100238 0
0.29945913 1.8264408 -0.049969897 0
0.35568359 1.1665047 0.03832398 0
0.22915778 2.6516049 0.43809399 0
0.22942121 2.6485126 0.61647415 0
0.27999583 1.8226546 -0.049898628 0
0.1981774 2.6584401 0.43983096 0
0.19784185 2.6618676 0.62060177 0
0.2602351 1.8219858 -0.049948037 0
0.16489999 2.6837904 0.44500065 0
0.16693385 2.665405 0.62231714 0
0.34676364 1.03979 0.46866521 0
0.24013515 1.8237561 -0.050094202 0
0.13503565 2.6755455 0.44414961 0
0.13479964 2.6774583 0.6263243 0
0.22196801 1.8105474 -0.04971002 0
0.10042287 2.7030113 0.4498654 0
0.10249974 2.6877615 0.62999183 0
0.20205367 1.8108788 -0.049822114 0
0.069594637 2.6996369 0.45004785 0
0.069683388 2.6990414 0.63402295 0
0.18315074 1.8044502 -0.049699008 0
0.037235096 2.7055287 0.45199445 0
0.037223741 2.7055988 0.63694847 0
0.16319425 1.8045321 -0.049820207 0
0.0030449794 2.7202816 0.45564222 0
0.0034020708 2.7182398 0.64156181 0
0.14345218 1.8029927 -0.049891923 0
-0.029997392 2.7261407 0.45774552 0
-0.03039865 2.7282763 0.64562052 0
0.12411644 1.7991589 -0.049889307 0
-0.087987855 2.8546305 0.10032433 0
-0.088398352 2.8566732 0.29016241 0
-0.062655374 2.7285712 0.45929986 0
-0.061822072 2.7244246 0.64618587 0
0.10419036 1.7980764 -0.049996011 0
-0.11429043 2.8185813 0.099254958 0
-0.1130165 2.8126309 0.28606546 0
-0.096371666 2.7348845 0.46165025 0
-0.096303597 2.7345665 0.65050703 0
0.084111318 1.7973132 -0.050123889 0
-0.14207478 2.7924309 0.09855704 0
-0.14268215 2.7951031 0.28491303 0
-0.12901707 2.7349827 0.46293634 0
-0.12812872 2.7310746 0.6513868 0
0.066291407 1.7867604 -0.049901951 0
-0.17208888 2.777631 0.098286621 0
-0.17480709 2.7889297 0.2850534 0
-0.16239043 2.7373178 0.46471739 0
-0.16234578 2.7371323 0.65488023 0
0.046418354 1.7849163 -0.05000833 0
-0.20974459 2.7936778 0.099165455 0
-0.2082385 2.7877469 0.28579238 0
-0.1983517 2.7488129 0.46828663 0
-0.19664331 2.7420852 0.6582073 0
0.028358417 1.7759886 -0.049862523 0
-0.25115436 2.8213444 0.10049416 0
-0.24965473 2.8157361 0.28982583 0
-0.23061927 2.7445447 0.46900958 0
-0.22793449 2.734504 0.65834922 0
0.009604292 1.7699007 -0.049829934 0
-0.2617467 2.735826 0.46897733 0
-0.26110047 2.7335258 0.66034573 0
-0.011037214 1.7702906 -0.050047081 0
-0.29474843 2.7334681 0.4702144 0
-0.29514676 2.7348204 0.66306508 0
-0.027803523 1.75758 -0.049785346 0
-0.32703304 2.7281804 0.47098169 0
-0.32927912 2.735466 0.6657359 0
-0.050313309 1.7632908 -0.050221391 0
-0.36134869 2.7288315 0.47295418 0
-0.35717207 2.7158661 0.66310591 0
-0.065134183 1.745149 -0.049771562 0
-0.38573796 2.6990669 0.097699665 0
-0.39225948 2.7184711 0.47292203 0
-0.39538914 2.727783 0.66904205 0
-0.087279752 1.7488755 -0.050154001 0
-0.41088206 2.6730158 0.09711127 0
-0.42499334 2.7133148 0.4739584 0
-0.42288208 2.7072854 0.666372 0
-0.1062863 1.7431898 -0.050191134 0
-0.44485003 2.6723795 0.097497858 0
-0.458381 2.7095151 0.47533888 0
-0.45600659 2.7029986 0.66818517 0
-0.12164415 1.7277864 -0.049866576 0
-0.47185546 2.6525729 0.097170763 0
-0.48945177 2.6990385 0.47551918 0
-0.4896875 2.699661 0.67037964 0
-0.14429565 1.7315513 -0.050283138 0
-0.49241954 2.6169994 0.096250214 0
-0.51605731 2.6771216 0.47355908 0
-0.51969963 2.6863859 0.66997659 0
-0.16145523 1.7210617 -0.050163221 0
-0.5736475 2.7319009 0.10113651 0
-0.55252481 2.6801009 0.47650287 0
-0.55095208 2.676244 0.67053866 0
-0.17833854 1.7101275 -0.050033785 0
-0.5365333 2.5578573 0.094889626 0
-0.58244574 2.666517 0.47630921 0
-0.58343291 2.6688535 0.67197454 0
-0.19774045 1.7051706 -0.050144825 0
-0.57611942 2.5701282 0.095850363 0
-0.61062145 2.6489983 0.47541386 0
-0.61693525 2.6634314 0.67408001 0
-0.21399213 1.693055 -0.049985517 0
-0.612293 2.5732024 0.096475676 0
-0.64306653 2.6412041 0.47650847 0
-0.64212346 2.6391203 0.67102575 0
-0.23016627 1.6810313 -0.049836934 0
-0.66760707 2.6161401 0.4742521 0
-0.67380559 2.6293905 0.67214954 0
-0.24879284 1.6743165 -0.049905997 0
-0.6999861 2.6080089 0.47543535 0
-0.70054269 2.6091604 0.67041755 0
-0.26855838 1.6697687 -0.05007128 0
-0.72887266 2.5924947 0.47522002 0
-0.728894 2.5925376 0.66979885 0
-0.28274035 1.6541107 -0.049801499 0
-0.75781357 2.5771408 0.47510937 0
-0.75795937 2.577424 0.66971129 0
-0.30125594 1.6470175 -0.049883276 0
-0.78995407 2.5678375 0.47630745 0
-0.78753161 2.563273 0.67000651 0
-0.3169083 1.634563 -0.049756903 0
-0.8092804 2.5347471 0.47270697 0
-0.81003118 2.5361197 0.66663069 0
-0.33526206 1.6270781 -0.049841326 0
-0.61818445 2.1292112 0.082417876 0
-0.83802283 2.519382 0.47280031 0
-0.83626842 2.5162685 0.66545177 0
-0.35376793 1.6197305 -0.04994154 0
-0.62073994 2.0799084 0.080935091 0
-0.85853362 2.4897919 0.4700036 0
-0.8649621 2.5008726 0.66567552 0
-0.37030864 1.6089478 -0.049909331 0
-0.61885905 2.0252078 0.079218 0
-0.88586366 2.472374 0.46979666 0
-0.88392401 2.4691257 0.66114908 0
-0.38460267 1.5945452 -0.049733892 0
-0.61745143 1.9735833 0.077615485 0
-0.91190684 2.4529068 0.46922687 0
-0.91751444 2.4620349 0.66404152 0
-0.40734023 1.593733 -0.050138541 0
-0.61608899 1.9241391 0.076091498 0
-0.93044162 2.4216945 0.46621671 0
-0.93936157 2.4358127 0.66131067 0
-0.42136842 1.5789827 -0.049965285 0
-0.62028646 1.8852205 0.075002365 0
-0.95803785 2.4051948 0.46639583 0
-0.95457172 2.3998585 0.65567994 0
-0.43577802 1.5650183 -0.049831852 0
-0.61740947 1.8370818 0.073510513 0
-0.980878 2.3815165 0.46509489 0
-0.98312414 2.384881 0.65649509 0
-0.45452911 1.5575436 -0.04998605 0
-0.61976206 1.79842 0.07241445 0
-1.0005162 2.3534827 0.46289271 0
-1.0063121 2.361932 0.65496176 0
-0.47297269 1.5494385 -0.050124347 0
-0.61851275 1.7559823 0.071144998 0
-1.0190904 2.3244641 0.46050793 0
-1.0249338 2.3327568 0.65156227 0
-0.4833318 1.5299897 -0.049774207 0
-0.61190116 1.7076557 0.069603726 0
-0.61730027 1.7151165 0.19845195 0
-1.0364368 2.2943079 0.45789999 0
-1.046181 2.3077734 0.64952523 0
-0.073710039 0.96394634 0.43806219 0
-0.49778485 1.5164598 -0.049689807 0
-0.62459624 1.6871299 0.069280796 0
-0.61489761 1.6740768 0.19474246 0
-1.0585983 2.2712345 0.45690772 0
-1.05685 2.2688816 0.64313298 0
-0.093477145 0.97231925 0.44728926 0
-0.51896888 1.5118475 -0.050013136 0
-0.6219039 1.6468 0.068072669 0
-0.61728132 1.6407397 0.19203423 0
-1.0807115 2.248318 0.45600447 0
-1.0802491 2.2477117 0.64240861 0
-0.092602327 0.95286113 0.43924788 0
-0.5356589 1.5011196 -0.050074421 0
-0.61826229 1.6066345 0.066858493 0
-0.62032604 1.6092707 0.18955819 0
-1.100225 2.2222772 0.45444015 0
-1.0984551 2.2200165 0.63965768 0
-0.1161771 0.96528774 0.45138034 0
-0.54838902 1.4853888 -0.049916793 0
-0.61488616 1.5681612 0.065707386 0
-0.61810601 1.5721691 0.18628579 0
-1.1087372 2.1828833 0.44982743 0
-1.1168746 2.1930122 0.63717961 0
-0.1314881 0.96645033 0.45659637 0
-0.55835968 1.46648 -0.049617872 0
-0.62395048 1.5460513 0.065299384 0
-0.6210829 1.5425724 0.18402064 0
-1.1267151 2.1559775 0.44811022 0
-1.126923 2.1562297 0.63151884 0
-0.13614835 0.95427638 0.45334363 0
-0.57996881 1.4616554 -0.049980104 0
-0.62071228 1.5098341 0.064232744 0
-0.61466193 1.5026796 0.18028732 0
-1.1385887 2.1222169 0.44480884 0
-1.1449399 2.1297274 0.62927455 0
-0.15206195 0.95566022 0.45897833 0
-0.59715211 1.4513342 -0.050099324 0
-0.61237371 1.4688807 0.062928617 0
-0.61073315 1.4669895 0.17709953 0
-1.1573586 2.0971024 0.44357091 0
-1.1603985 2.1006064 0.6261974 0
-0.60865688 1.4345002 -0.049918931 0
-0.64014888 1.4698918 0.063610248 0
-0.64208925 1.4720724 0.17973413 0
-1.168041 2.0631511 0.44024259 0
-1.1728185 2.0685205 0.6221391 0
-0.62334681 1.4213405 -0.049921006 0
-0.66601169 1.4680896 0.064180583 0
-0.64859962 1.4490107 0.17836136 0
-1.1863672 2.0382578 0.43912005 0
-1.1807526 2.0321059 0.61659247 0
-0.63576841 1.4057504 -0.049813263 0
-0.51218462 1.2737141 0.0553567 0
-0.68007386 1.4530861 0.18097891 0
-1.1917706 1.9997804 0.43468526 0
-1.190299 1.9982083 0.61189431 0
-0.65133846 1.3935456 -0.049879424 0
-0.51424897 1.2507275 0.054811787 0
-0.71890593 1.4639364 0.1846962 0
-1.2012354 1.9664214 0.43149307 0
-1.198854 1.9639404 0.60705042 0
-0.66722941 1.3815958 -0.049968954 0
-0.51485455 1.2268029 0.054214381 0
-0.74881232 1.4644734 0.18697786 0
-1.2139491 1.9369912 0.42928529 0
-1.2122027 1.9352171 0.60416949 0
-0.67875206 1.3652256 -0.049845465 0
-0.52681464 1.2147156 0.054210212 0
-0.77142918 1.457032 0.1881275 0
-1.225949 1.9072814 0.4270184 0
-1.2160238 1.8974494 0.59803337 0
-0.69852877 1.356945 -0.050143473 0
-0.53825682 1.2021283 0.054187987 0
-0.81622684 1.4706371 0.19259158 0
-1.227127 1.8675514 0.4221597 0
-1.2214415 1.8620596 0.59270757 0
-0.70830607 1.338953 -0.049952697 0
-0.55756152 1.1969646 0.054559462 0
-0.8397423 1.4627546 0.19383559 0
-1.2227041 1.8234717 0.41609535 0
-1.2214075 1.8222504 0.58569086 0
-0.71807194 1.321129 -0.049774606 0
-0.87990582 1.4697617 0.069619298 0
-0.86546624 1.4565001 0.19540212 0
-1.2276049 1.7890984 0.4125205 0
-1.2348564 1.7957584 0.5836001 0
-0.23603059 0.87840843 0.38184583 0
-0.73270667 1.3078293 -0.049842663 0
-0.90586269 1.4628869 0.070140876 0
-0.90196359 1.4593953 0.19851668 0
-1.2263579 1.7498839 0.40760279 0
-1.2339202 1.7566558 0.57672113 0
-0.23571898 0.86278671 0.37740511 0
-0.75019848 1.2969559 -0.050053358 0
-0.93307507 1.4566151 0.070720382 0
-1.2358967 1.7209915 0.40543997 0
-1.2373599 1.7222689 0.57156712 0
-0.23780902 0.84961778 0.37444168 0
-0.76682079 1.2851434 -0.050227504 0
-0.97641134 1.4635248 0.072053351 0
-1.2379749 1.6861399 0.40161994 0
-1.2316288 1.6807388 0.56354141 0
-0.23665024 0.83391821 0.36983413 0
-0.26142383 0.85500282 0.46195078 0
-0.78039038 1.2706347 -0.050265167 0
-1.0033896 1.4556372 0.072609589 0
-1.2483931 1.6588949 0.39989731 0
-1.2454556 1.6564579 0.56225681 0
-0.24637033 0.82760561 0.37123385 0
-0.78682232 1.2503164 -0.049983181 0
-1.056416 1.4683022 0.074360698 0
-1.258945 1.6320615 0.39830315 0
-1.2458286 1.621456 0.55667192 0
-0.25592154 0.8210448 0.37257203 0
-0.79929066 1.2350037 -0.049990032 0
-1.0843982 1.4596561 0.074948907 0
-1.2597424 1.5978199 0.39456296 0
-1.2305652 1.5748296 0.54620707 0
-0.26240903 0.81196398 0.37232581 0
-0.80656374 1.2156923 -0.0497717 0
-1.1296201 1.4637181 0.076312348 0
-1.2593341 1.5633055 0.39068314 0
-1.2330192 1.5431024 0.54173148 0
-0.25716877 0.7938959 0.36602017 0
-0.25284922 0.79057956 0.43834031 0
-0.82784259 1.2070447 -0.050190721 0
-1.1652393 1.459392 0.077232607 0
-1.2505956 1.523232 0.38506198 0
-1.2463585 1.520063 0.54089373 0
-0.26663494 0.78730381 0.36749551 0
-0.28045952 0.79764354 0.45148554 0
-0.83728051 1.1894017 -0.050087739 0
-1.2120377 1.4624016 0.078640655 0
-1.253659 1.4927216 0.38223857 0
-1.2458776 1.487053 0.5357933 0
-1.24076 1.483325 0.69474816 0
-0.26521701 0.77266985 0.36342478 0
-0.28001899 0.78345263 0.44709137 0
-0.84326661 1.1693953 -0.049844343 0
-1.2598585 1.464914 0.08007928 0
-1.2517303 1.459148 0.37842178 0
-1.2386358 1.4498593 0.528754 0
-1.2455112 1.4547365 0.69047987 0
-0.27899265 0.76911515 0.36719689 0
-0.28078103 0.77038378 0.44358414 0
-0.85738826 1.1552123 -0.049967021 0
-1.3014961 1.461918 0.081235804 0
-1.2463386 1.4238256 0.37397206 0
-1.243228 1.4216774 0.52559072 0
-1.2429096 1.4214575 0.68342173 0
-0.28356248 0.75892192 0.44143566 0
-0.86877 1.1390795 -0.049978517 0
-1.2733418 1.4110219 0.079381973 0
-1.2735071 1.4111331 0.22691844 0
-1.2559073 1.3993028 0.37290791 0
-1.2435982 1.391029 0.5212658 0
-1.2391974 1.3880709 0.67614657 0
-0.29071695 0.75052768 0.44202903 0
-0.8759197 1.1201653 -0.049818087 0
-1.268649 1.3770281 0.078571647 0
-1.2751054 1.3812509 0.22528687 0
-1.2519845 1.3661287 0.36901188 0
-1.243721 1.3607241 0.51701909 0
-1.2363845 1.3559257 0.66945642 0
-0.29741454 0.74179685 0.44240788 0
-0.89656472 1.1099676 -0.050240099 0
-1.2745701 1.3504596 0.07823509 0
-1.2808149 1.3544326 0.22424009 0
-1.2413913 1.3293507 0.36381081 0
-1.23684 1.3264552 0.51080424 0
-1.2345771 1.3250154 0.66337639 0
-0.29806119 0.72919166 0.43926081 0
-0.91115975 1.0956731 -0.05041026 0
-1.2865064 1.3278868 0.078167774 0
-1.2844403 1.3266085 0.2229809 0
-1.2407988 1.2996092 0.36086956 0
-1.2325566 1.29451 0.50554687 0
-1.2410532 1.2997665 0.66073704 0
-0.90874827 1.0710074 -0.04987818 0
-1.3068982 1.3104498 0.078465112 0
-1.3041106 1.3087734 0.22378747 0
-1.2413522 1.2710313 0.35827073 0
-1.2423047 1.2716039 0.50462669 0
-1.2445339 1.2729447 0.65707862 0
-0.92510128 1.0577382 -0.050138801 0
-1.3318355 1.2954214 0.078957327 0
-1.332184 1.2956251 0.22566214 0
-1.2456384 1.2450504 0.35654613 0
-1.2364831 1.2397003 0.49919808 0
-1.2437583 1.2439517 0.65193754 0
-0.9291141 1.0372497 -0.049897872 0
-1.3831651 1.2949694 0.080537289 0
-1.3814287 1.2939838 0.23016024 0
-1.2503155 1.2195638 0.354983 0
-1.2441047 1.2160386 0.49787012 0
-1.2343464 1.2104998 0.64366949 0
-0.93875206 1.0200515 -0.049898461 0
-1.2364994 1.184131 0.34968883 0
-1.2351562 1.1833909 0.49181145 0
-1.2465034 1.189644 0.64381236 0
-0.94622517 1.0016915 -0.049820196 0
-1.2496271 1.1639409 0.35003227 0
-1.2365884 1.1569681 0.48891616 0
-1.2414408 1.1595631 0.63755715 0
-0.9549365 0.98403245 -0.049801573 0
-1.2645509 1.144624 0.35079017 0
-1.2421412 1.1330004 0.48731995 0
-1.2434514 1.13368 0.63413602 0
-0.96930969 0.96923149 -0.050018229 0
-1.2628741 1.1168374 0.34824151 0
-1.2303759 1.1004971 0.48087484 0
-1.2382151 1.1044387 0.62815964 0
-0.97961152 0.95227373 -0.050079301 0
-1.2890229 1.1029972 0.35136089 0
-1.2356939 1.0770191 0.47943375 0
-1.2373476 1.0778246 0.62397325 0
-0.97494626 0.92820579 -0.049557671 0
-1.2887815 1.0762243 0.34923443 0
-1.2308879 1.0489192 0.475229 0
-1.2363294 1.0514857 0.6198799 0
-0.99250925 0.91468251 -0.049923263 0
-1.3048053 1.0571963 0.35041159 0
-1.2421833 1.0286192 0.47566336 0
-1.2352203 1.0254418 0.61589837 0
-1.0014328 0.89706206 -0.049956363 0
-1.3197402 1.0375038 0.35141492 0
-1.2386932 1.0017447 0.47204366 0
-1.2373621 1.0011575 0.6132406 0
-1.0164219 0.88199842 -0.050233327 0
-1.3253101 1.0136632 0.35062569 0
-1.2451147 0.97947955 0.47128639 0
-1.2352177 0.97526091 0.6091578 0
-1.0187669 0.86151761 -0.050028071 0
-1.3303014 0.98969942 0.34978634 0
-1.2371807 0.95138466 0.46665016 0
-1.2399843 0.95253819 0.60770005 0
-1.0110173 0.83718359 -0.049446043 0
-1.3351882 0.9658162 0.34898964 0
-1.2433902 0.92939037 0.46601653 0
-1.2383121 0.92737532 0.6040476 0
-1.0340886 0.82506871 -0.050056566 0
-1.3554457 0.94792432 0.35122272 0
-1.2385536 0.90323615 0.46244463 0
-1.2442225 0.90540344 0.60322654 0
-1.0434258 0.80743825 -0.050147619 0
-1.361935 0.92463022 0.35084304 0
-1.2386141 0.87925565 0.46031028 0
-1.2330046 0.87719172 0.59643561 0
-1.0434816 0.78645355 -0.049895223 0
-1.3586564 0.89793336 0.34865272 0
-1.2439748 0.8573696 0.45970166 0
-1.2426318 0.85689455 0.59715658 0
-1.0585731 0.77075964 -0.050220791 0
-1.3754342 0.87836665 0.35035592 0
-1.2302024 0.82904553 0.45401478 0
-1.2526945 0.83668387 0.59811747 0
-1.0522019 0.7478323 -0.049746618 0
-1.3927956 0.85873592 0.35220972 0
-1.2369771 0.80799854 0.45396021 0
-1.2430863 0.80998784 0.59228116 0
-1.0697315 0.73270303 -0.050178912 0
-1.3860116 0.83130276 0.34954175 0
-1.2397776 0.78571457 0.45291471 0
-1.2380072 0.78516269 0.58816338 0
-1.0747914 0.71353656 -0.050152171 0
-1.3835917 0.80555475 0.34777015 0
-1.2380973 0.76219946 0.45075515 0
-1.2309847 0.76008004 0.58349508 0
-1.0687786 0.69123816 -0.049723521 0
-1.3925388 0.78329194 0.34819707 0
-1.2367154 0.73898715 0.44876111 0
-1.2347159 0.73841864 0.58267242 0
-1.0783077 0.67345798 -0.049881581 0
-1.4021323 0.76113844 0.34879577 0
-1.2342279 0.71567577 0.44655904 0
-1.2390165 0.71697235 0.58214295 0
-1.0767606 0.65270954 -0.049639083 0
-1.4154133 0.73984349 0.35013127 0
-1.2445759 0.69588768 0.44782293 0
-1.2353981 0.69352633 0.57898772 0
-1.0927737 0.63641715 -0.050052237 0
-1.4218031 0.71667182 0.35023329 0
-1.2446152 0.67345333 0.44644132 0
-1.2491444 0.6745581 0.58188999 0
-1.0885078 0.61514586 -0.04972874 0
-1.4191911 0.69140571 0.34872302 0
-1.244287 0.65107059 0.44504157 0
-1.2271198 0.64711159 0.57265234 0
-1.0955126 0.59655505 -0.049827706 0
-1.4484378 0.67327726 0.35315555 0
-1.2385656 0.6276533 0.44231123 0
-1.2414173 0.62827319 0.57592416 0
-1.1083699 0.57908511 -0.050148215 0
-1.4360571 0.64601135 0.34995636 0
-1.2437193 0.60672861 0.44249663 0
-1.2300239 0.60393149 0.5705446 0
-1.1072598 0.55871189 -0.049968269 0
-1.4423038 0.62275702 0.35024819 0
-1.2364999 0.5834167 0.43953618 0
-1.2434467 0.58474463 0.57368761 0
-1.1130264 0.53968936 -0.050047416 0
-1.447641 0.59929538 0.35042652 0
-1.2353203 0.56147403 0.43822375 0
-1.2484646 0.56381541 0.57406503 0
-1.1104916 0.51923597 -0.049834691 0
-1.4497179 0.57526618 0.35006255 0
-1.238135 0.54031891 0.43801844 0
-1.2468269 0.54175454 0.57228637 0
-1.1116564 0.49949446 -0.049765285 0
-1.4554222 0.55183679 0.35041624 0
-1.2386961 0.51883775 0.43730077 0
-1.2384558 0.51880115 0.56833869 0
-1.1222103 0.4811081 -0.050043412 0
-1.4623833 0.52852893 0.35105199 0
-1.241101 0.49768174 0.43712905 0
-1.249164 0.4988057 0.57090408 0
-1.1257015 0.4616268 -0.050075278 0
-1.458246 0.50372285 0.34972256 0
-1.246592 0.47693005 0.43781981 0
-1.2395087 0.47603339 0.56672102 0
-1.1186321 0.44091776 -0.049736455 0
-0.51132822 0.37179795 0.039914951 0
-0.50432819 0.37100124 0.10733484 0
-0.50521564 0.37110227 0.17621531 0
-1.2432874 0.4551053 0.43631819 0
-1.2404909 0.45478702 0.56620193 0
-1.1229514 0.42159691 -0.049816091 0
-0.51394165 0.36003995 0.039962877 0
-0.50905675 0.35954621 0.10770861 0
-0.50648981 0.35928676 0.17621614 0
-1.2353418 0.43295702 0.43369889 0
-1.245663 0.43400025 0.56717402 0
-1.1225549 0.40179983 -0.049735352 0
-0.4653511 0.34372112 0.038180888 0
-0.50682038 0.34738585 0.10734611 0
-0.51374817 0.34799808 0.17732738 0
-1.2389517 0.41208607 0.43411365 0
-1.2456456 0.41267765 0.56649929 0
-1.1297163 0.3826288 -0.049934212 0
-0.50792867 0.33556196 0.10736091 0
-0.5045585 0.33530685 0.17548843 0
-1.2412431 0.39107093 0.43425798 0
-1.2336433 0.39049566 0.56191611 0
