# .PCD v0.7 - Point Cloud Data file format
VERSION 0.7
FIELDS x y z intensity
SIZE 4 4 4 4
TYPE F F F F
COUNT 1 1 1 1
WIDTH 1355
HEIGHT 1
VIEWPOINT 0 0 0 1 0 0 0
POINTS 1355
DATA ascii
-1.2375475 -0.27944013 0.45411327 0
-1.2340797 -0.27831092 0.58912987 0
-1.0563552 -0.24126236 -0.05013717 0
-1.1217467 -0.26346949 0.064602681 0
-1.1322184 -0.26702568 0.18359639 0
-1.2392243 -0.30336526 0.32441276 0
-1.2429525 -0.30463132 0.45745018 0
-1.0464543 -0.2587609 -0.050007798 0
-1.3014627 -0.34895936 0.20366608 0
-1.2401379 -0.32726827 0.32598037 0
-1.2449691 -0.32897714 0.45997074 0
-1.0373801 -0.27646974 -0.049917635 0
-1.2654819 -0.36039731 0.20044591 0
-1.2367558 -0.3498278 0.32678747 0
-1.2489495 -0.35431436 0.46311998 0
-1.0323317 -0.2956529 -0.049989413 0
-1.248036 -0.37811717 0.19935924 0
-1.2391232 -0.37470981 0.32876331 0
-1.2489135 -0.37845269 0.46527433 0
-1.0125993 -0.30906722 -0.049506806 0
-1.2533431 -0.40459552 0.20092358 0
-1.2358533 -0.39765552 0.32971585 0
-1.2432206 -0.40057889 0.46596995 0
-1.0196152 -0.33312252 -0.05006082 0
-1.2493799 -0.42765984 0.2014574 0
-1.2536777 -0.42942825 0.33484337 0
-1.2400281 -0.42381212 0.46743572 0
-1.0083414 -0.34980991 -0.049919728 0
-1.2411927 -0.44906369 0.20153448 0
-1.2374095 -0.44745103 0.33339283 0
-1.2424242 -0.44958863 0.47054023 0
-1.0050111 -0.3698968 -0.050096001 0
-1.2390407 -0.47315392 0.20235246 0
-1.2402968 -0.47370812 0.33575484 0
-1.2445905 -0.4756026 0.47368822 0
-0.99659073 -0.38780096 -0.050083436 0
-1.238928 -0.49838951 0.20345181 0
-1.2365448 -0.49730203 0.33687964 0
-1.2460613 -0.50164479 0.47675091 0
-0.98413539 -0.40379569 -0.049920395 0
-1.2434947 -0.52612102 0.20515136 0
-1.2338998 -0.5215956 0.33829096 0
-1.250429 -0.52939153 0.48074123 0
-0.97625005 -0.42189214 -0.049945809 0
-1.5006714 -0.6773532 0.082771569 0
-1.2429399 -0.55180466 0.20629077 0
-1.2350338 -0.54795337 0.34053022 0
-1.2392807 -0.55002213 0.48045164 0
-0.96935153 -0.4405084 -0.050019898 0
-1.4464589 -0.68040079 0.081085183 0
-1.2391148 -0.5761469 0.20708278 0
-1.2397166 -0.57644957 0.34356686 0
-1.2388027 -0.57598996 0.48328122 0
-0.96092153 -0.45839265 -0.050042279 0
-1.4029611 -0.68767071 0.079820208 0
-1.2444493 -0.60545337 0.2090259 0
-1.2411427 -0.60373837 0.34603444 0
-0.95630312 -0.47833666 -0.050228205 0
-1.3488424 -0.68825376 0.078120388 0
-1.2334403 -0.62654054 0.20903519 0
-1.2462564 -0.63339418 0.34934288 0
-0.94299495 -0.4936454 -0.050071411 0
-1.3097206 -0.69573694 0.077020355 0
-1.2346978 -0.65439415 0.21058218 0
-1.2285874 -0.6510269 0.34805962 0
-0.93284631 -0.51062393 -0.050051086 0
-1.2495407 -0.69037998 0.075051822 0
-1.2434695 -0.68693393 0.21311203 0
-1.2421665 -0.68619436 0.35329309 0
-0.92026889 -0.52617013 -0.04993898 0
-1.2509651 -0.719419 0.075613327 0
-1.2430074 -0.71476877 0.214562 0
-1.2372795 -0.71142155 0.35480011 0
-0.90429628 -0.53958589 -0.049692709 0
-1.2407913 -0.74194974 0.075711086 0
-1.2376577 -0.74006516 0.21545385 0
-1.2427992 -0.74315721 0.35857522 0
-0.89700043 -0.55816913 -0.049815837 0
-1.2487994 -0.77581471 0.076584786 0
-1.2423373 -0.77181679 0.21766022 0
-1.2430023 -0.77222818 0.36133686 0
-0.88974011 -0.57688147 -0.049951322 0
-1.2508101 -0.80659896 0.077229708 0
-1.2441201 -0.80234271 0.21956606 0
-1.2378918 -0.79838008 0.36306277 0
-0.88407946 -0.59675807 -0.050166175 0
-1.243579 -0.83188707 0.077502184 0
-1.2473457 -0.83435053 0.22172211 0
-1.2326264 -0.82472354 0.36484027 0
-0.86716688 -0.60925782 -0.049909558 0
-1.2413018 -0.86074132 0.078003712 0
-1.2445 -0.86289114 0.22316229 0
-1.238973 -0.85917598 0.36922804 0
-0.84943581 -0.62097609 -0.049621984 0
-1.24544 -0.89446098 0.078803666 0
-1.2352091 -0.88739532 0.22381997 0
-1.2386224 -0.88975257 0.37228087 0
-0.84663451 -0.64304036 -0.049991768 0
-1.2355459 -0.9189232 0.079015084 0
-1.2467594 -0.92687768 0.22727014 0
-1.6044208 -1.1805927 0.45640773 0
-0.83515441 -0.65910882 -0.049993832 0
-1.233259 -0.94911653 0.079577997 0
-1.2337793 -0.94949561 0.22755632 0
-1.5736388 -1.1970736 0.45363501 0
-0.82302785 -0.67469949 -0.049976069 0
-1.235186 -0.98296267 0.08035098 0
-1.2399133 -0.9864983 0.23044842 0
-0.80395997 -0.68494916 -0.049654506 0
-1.2373496 -1.0176828 0.081161216 0
-1.2438136 -1.0226456 0.23312879 0
-0.79208541 -0.70058215 -0.049662534 0
-1.1588894 -0.98960799 0.078334734 0
-1.1544814 -0.98613459 0.22314149 0
-1.1628906 -0.99276072 0.37232497 0
-0.78257513 -0.71813798 -0.049788181 0
-1.140304 -1.0073875 0.078212142 0
-1.1408447 -1.0078247 0.2234503 0
-1.1463538 -1.0122793 0.37219012 0
-0.77257943 -0.73541039 -0.049902834 0
-1.2396368 -1.1228863 0.083568551 0
-1.2370278 -1.1207218 0.23913532 0
-1.338176 -1.2046356 0.42093638 0
-0.75717103 -0.74818641 -0.049775112 0
-1.2354223 -1.1552233 0.084196068 0
-1.2395949 -1.1587746 0.24197747 0
-1.3151858 -1.2231095 0.41990539 0
-1.0367405 -0.98612648 0.49824873 0
-0.75073636 -0.76868135 -0.050078854 0
-1.2853976 -1.2354637 0.41729096 0
-0.99283302 -0.98004228 0.48875013 0
-0.73324478 -0.77956694 -0.04986845 0
-1.1943926 -1.1925154 0.0839682 0
-1.194294 -1.192427 0.24068846 0
-1.1912825 -1.1897304 0.39911142 0
-0.97396934 -0.99513096 0.48769462 0
-0.72365582 -0.79751319 -0.050045278 0
-0.9182272 -0.97621304 0.47391728 0
-0.7198416 -0.82107443 -0.050518457 0
-0.88872111 -0.98014432 0.46908805 0
-0.69619608 -0.8259477 -0.050027683 0
-0.85567129 -0.97999483 0.46296012 0
-0.68419015 -0.84186846 -0.050118744 0
-0.83672392 -0.9929691 0.46181917 0
-0.6674571 -0.85308307 -0.049980544 0
-0.82098031 -1.0090423 0.46188769 0
-0.6547401 -0.86834532 -0.0500548 0
-0.6345346 -0.87568802 -0.049748797 0
-0.61825478 -0.88701671 -0.049651325 0
-0.61074364 -0.90810126 -0.050031006 0
-0.5928961 -0.91768414 -0.049867451 0
-0.57248795 -0.92406505 -0.049566496 0
-0.56073219 -0.94061404 -0.049751036 0
-0.5419606 -0.94864279 -0.049550347 0
-0.53349483 -0.96961123 -0.049949091 0
-0.51612866 -0.97937971 -0.049845938 0
-0.50182647 -0.99315506 -0.049931739 0
-0.49152166 -1.0125629 -0.050272949 0
-0.47251141 -1.0200396 -0.050095756 0
-0.45741355 -1.0330044 -0.050168093 0
-0.43302214 -1.0321461 -0.049654651 0
-0.4209497 -1.0495939 -0.049937844 0
-0.38046741 -0.98727077 0.50255036 0
-0.40406543 -1.0598054 -0.04991965 0
-0.3548578 -0.98191994 0.49645519 0
-0.38443947 -1.0655353 -0.049722765 0
-0.3268472 -0.97178501 0.4886654 0
-0.37082916 -1.0810753 -0.049945578 0
-0.3155452 -0.98848838 0.49147075 0
-0.34943342 -1.0835149 -0.049633168 0
-0.29255211 -0.98546892 0.48672464 0
-0.3374688 -1.1022503 -0.050001822 0
-0.27392364 -0.98946995 0.48480392 0
-0.3189618 -1.1095731 -0.049909677 0
-0.25700206 -0.99629456 0.48405641 0
-0.29881209 -1.1136686 -0.049697161 0
-0.22986485 -0.98375601 0.47610137 0
-0.28685325 -1.1333575 -0.050122362 0
-0.20105948 -0.966667 0.46662328 0
-0.26161689 -1.1271099 -0.049516127 0
-0.18425943 -0.97204238 0.46569201 0
-0.24422599 -1.1361217 -0.04953127 0
-0.17291923 -0.98856074 0.46896213 0
-0.23187687 -1.1559439 -0.049981061 0
-0.15356238 -0.9885326 0.46618822 0
-0.21160223 -1.1590297 -0.049778569 0
-0.13123108 -0.98142928 0.46093562 0
-0.19255073 -1.1645629 -0.049682532 0
-0.11532851 -0.98803645 0.46079305 0
-0.17768545 -1.1798377 -0.049973883 0
-0.10305269 -1.0032064 0.46381634 0
-0.16069789 -1.1904603 -0.050091617 0
-0.074459389 -0.97897333 0.34857672 0
-0.084782556 -1.0042893 0.46181858 0
-0.1431057 -1.1997805 -0.050167028 0
-0.056212768 -0.9787696 0.34679782 0
-0.067554966 -1.0076182 0.46071601 0
-0.12189342 -1.1997004 -0.049891703 0
-0.031435803 -0.96083325 0.14679724 0
-0.032270774 -0.96303815 0.24270292 0
-0.010264857 -0.90492815 0.32500088 0
-0.049731925 -1.0091469 0.4590556 0
-0.10278155 -1.2048268 -0.049825646 0
-0.0095996987 -0.94908887 0.14479679 0
-0.0094790291 -0.94875759 0.23885709 0
0.0064339205 -0.90508455 0.32355455 0
-0.084198907 -1.2113329 -0.049821191 0
0.0092438925 -0.94448 0.14364904 0
0.0086499024 -0.94617623 0.23731869 0
0.019474702 -0.91526288 0.32488072 0
-0.0036450459 -0.98128814 0.44509694 0
-0.066269651 -1.2197832 -0.049898807 0
0.023752676 -0.95193261 0.14390057 0
0.024328696 -0.95021874 0.2370906 0
0.026407437 -0.94403368 0.3312498 0
0.012645351 -0.98498112 0.44450015 0
-0.048484638 -1.2288699 -0.050008472 0
0.0355822 -0.96790308 0.14513351 0
0.037389949 -0.9622913 0.23842241 0
0.023508059 -1.0053846 0.34634948 0
0.020007329 -1.0162518 0.45361683 0
-0.028943492 -1.2325335 -0.049923487 0
0.027148591 -1.0505896 0.35707024 0
-0.0093528759 -1.235828 -0.049834259 0
0.06690748 -0.9769302 0.33614916 0
0.0077411993 -1.2477884 -0.050075866 0
0.083747044 -0.9772312 0.33503497 0
0.028671281 -1.2460742 -0.049819283 0
0.098211601 -0.98599893 0.33621663 0
0.045386478 -1.2602355 -0.050158005 0
0.11924754 -0.96937317 0.33075821 0
0.066284493 -1.258045 -0.049903005 0
0.085444465 -1.2627038 -0.049909148 0
0.10294895 -1.2751307 -0.050207719 0
0.12259765 -1.2779725 -0.050164524 0
0.14222546 -1.2807775 -0.050129093 0
-0.064418539 -2.3805957 0.10208108 0
0.16145371 -1.2857404 -0.050180923 0
0.00098313554 -2.2033272 0.095437132 0
0.1829427 -1.2769907 -0.04974547 0
0.032737181 -2.2045605 0.095292293 0
0.20283833 -1.2768697 -0.049632076 0
0.065185383 -2.2004774 0.094970256 0
0.2207012 -1.2911048 -0.05004517 0
0.096468821 -2.2033002 0.09491235 0
0.24050504 -1.2920141 -0.049986366 0
0.12814815 -2.2026219 0.094742768 0
0.25947383 -1.3001233 -0.050195221 0
0.15921606 -2.2064276 0.094748825 0
0.27978903 -1.2960229 -0.049974408 0
0.19254877 -2.1871929 0.093942419 0
0.2992202 -1.300501 -0.050070379 0
0.22250722 -2.2009215 0.094333008 0
0.31931546 -1.2968019 -0.049882323 0
0.25352111 -2.2039745 0.094354622 0
0.33861461 -1.3042308 -0.050101455 0
0.28530031 -2.1945846 0.093945175 0
0.35863575 -1.2997218 -0.049902473 0
0.315911 -2.2039096 0.094219156 0
0.37799618 -1.3103222 -0.050252333 0
0.34747463 -2.1914485 0.093728542 0
0.39807701 -1.2995759 -0.049848516 0
0.37807193 -2.2073529 0.094265193 0
0.41775298 -1.3018742 -0.049919501 0
0.43745154 -1.2944586 -0.049652543 0
0.45739773 -1.3145379 -0.050376106 0
0.47670245 -1.2938563 -0.049653098 0
0.49677953 -1.3044261 -0.050055049 0
0.51606822 -1.2949188 -0.049748506 0
0.53638417 -1.3041539 -0.050120983 0
0.55582547 -1.2989162 -0.04998469 0
0.57572562 -1.2997116 -0.050073296 0
0.59544671 -1.298156 -0.050086621 0
0.6144799 -1.2906135 -0.049893692 0
0.63415813 -1.2890741 -0.049925175 0
0.65270448 -1.2794183 -0.049672958 0
0.6717757 -1.2742757 -0.049591728 0
0.69248211 -1.2791693 -0.049882371 0
0.71353525 -1.2848086 -0.050210178 0
0.73062313 -1.2688241 -0.049761973 0
0.75025487 -1.266639 -0.049823578 0
0.76992649 -1.2644181 -0.049893074 0
0.78756076 -1.2532593 -0.049644135 0
0.80828142 -1.2553018 -0.049888071 0
0.82621604 -1.245961 -0.049722441 0
0.84779114 -1.2503297 -0.050072089 0
0.86492938 -1.2383752 -0.049826678 0
0.88526922 -1.2376313 -0.05000639 0
0.904396 -1.2326071 -0.050036158 0
0.9218955 -1.222561 -0.049886335 0
0.94199723 -1.2204149 -0.050042342 0
0.96122962 -1.215499 -0.050103631 0
0.98095846 -1.2117864 -0.050220229 0
0.99971884 -1.2053272 -0.050241768 0
0.92865992 -1.0211953 0.46444437 0
1.0127665 -1.1845528 -0.049721964 0
0.94346094 -1.0114841 0.46323934 0
1.0334479 -1.1831148 -0.049953222 0
0.96111542 -1.0088773 0.46465406 0
1.050917 -1.1737854 -0.049889158 0
0.97406429 -0.9950487 0.46209285 0
1.0678225 -1.1632926 -0.049787849 0
0.98753089 -0.98285347 0.46017125 0
1.0886763 -1.1615442 -0.050037935 0
1.0073279 -0.98475701 0.46346378 0
1.1010172 -1.1414744 -0.049575601 0
1.0247099 -0.98099512 0.46478054 0
1.1211092 -1.1379226 -0.049773537 0
1.0398437 -0.97242206 0.46440315 0
1.1454744 -1.1424876 -0.050307695 0
1.0607374 -0.97527236 0.46835482 0
1.1615776 -1.1304256 -0.050187897 0
1.084734 -0.98340756 0.47441494 0
1.1776456 -1.1184697 -0.050079785 0
1.103945 -0.98168844 0.47690603 0
1.1946689 -1.1083853 -0.050055567 0
1.1273632 -0.98715299 0.057105135 0
1.1318828 -0.9952938 0.16083917 0
1.1315855 -0.99475831 0.2657316 0
1.1307139 -0.99318844 0.37297368 0
1.133285 -0.9978196 0.48629889 0
1.2104375 -1.0961344 -0.049950868 0
1.146132 -0.98366684 0.057325635 0
1.1456943 -0.98290128 0.16040748 0
1.1451545 -0.98195714 0.26492149 0
1.1401792 -0.97325557 0.36972842 0
1.1518165 -0.99360877 0.48810485 0
1.2298958 -1.0902917 -0.05011905 0
1.1666237 -0.98279554 0.057665855 0
1.1606444 -0.97263712 0.1602596 0
1.1664429 -0.98248833 0.26693103 0
1.1623214 -0.97548634 0.37305564 0
1.1636041 -0.97766548 0.48548475 0
1.2429794 -1.0736891 -0.049849596 0
1.2614568 -1.0660974 -0.049963955 0
1.2795703 -1.0577824 -0.050058398 0
1.2932642 -1.0426292 -0.049871027 0
1.3164458 -1.0417259 -0.050303742 0
1.3283948 -1.0241266 -0.050026923 0
1.3434517 -1.0112102 -0.049959604 0
1.3614328 -1.0023563 -0.050079875 0
1.3755904 -0.98827761 -0.04997788 0
1.3910432 -0.97598726 -0.049963575 0
1.4057579 -0.96277755 -0.04991607 0
1.2081907 -0.7136606 0.050564852 0
1.2031415 -0.70729387 0.13927743 0
1.4227399 -0.95240206 -0.050007008 0
1.2007699 -0.67964095 0.049452063 0
1.2117862 -0.693178 0.13867663 0
1.4377177 -0.93952113 -0.049992278 0
1.2071674 -0.66339225 0.049149707 0
1.2030166 -0.65842098 0.13519479 0
1.4533477 -0.92741293 -0.050022535 0
1.2103047 -0.6436615 0.048684161 0
1.2039163 -0.63620299 0.13343398 0
1.4669639 -0.91297549 -0.049951736 0
1.2061688 -0.61614633 0.04784536 0
1.2024012 -0.61185819 0.13135095 0
1.4912019 -0.91039473 -0.050458144 0
1.1994354 -0.58662909 0.046898283 0
1.2042269 -0.59194607 0.12988268 0
1.5010136 -0.89167446 -0.050200611 0
1.508571 -0.87083524 -0.049841803 0
1.528363 -0.86294085 -0.050127801 0
1.5336865 -0.84024233 -0.049683612 0
1.5573516 -0.83591932 -0.050175235 0
1.5646216 -0.81547421 -0.049854793 0
1.5756929 -0.79886919 -0.049736045 0
1.5990698 -0.79353267 -0.05022186 0
1.6047772 -0.77211136 -0.049863473 0
1.612569 -0.75281626 -0.04961998 0
1.6326334 -0.74405414 -0.049962744 0
1.6371316 -0.72222608 -0.049588762 0
1.6578404 -0.71367103 -0.049971644 0
1.665778 -0.69483662 -0.049778067 0
1.6799697 -0.68090868 -0.049877141 0
1.696075 -0.66830266 -0.050068036 0
1.6983206 -0.6455636 -0.049654834 0
1.7119159 -0.6311205 -0.049752377 0
1.7206784 -0.61329764 -0.049648203 0
1.7494364 -0.60881752 -0.050411083 0
1.7498323 -0.58539736 -0.049965236 0
1.7695808 -0.57448655 -0.050351016 0
1.7705015 -0.55176848 -0.049952246 0
1.777954 -0.53324616 -0.049839452 0
1.7934647 -0.51945311 -0.050069112 0
1.8020014 -0.50157034 -0.050019015 0
1.8136519 -0.48541459 -0.050104931 0
1.8263798 -0.46975437 -0.050241988 0
1.8337487 -0.45124504 -0.050171267 0
1.8426555 -0.43354908 -0.050171562 0
1.8483307 -0.41430035 -0.050052762 0
1.8434364 -0.39023653 -0.049528234 0
1.860477 -0.37641826 -0.049876899 0
1.8808537 -0.3637754 -0.050360281 0
1.8807325 -0.34217438 -0.050053906 0
1.8833754 -0.32192001 -0.049866013 0
1.9013188 -0.30776456 -0.050275065 0
1.9025371 -0.28702399 -0.050051276 0
1.9122643 -0.26951799 -0.05016138 0
1.9149288 -0.24947821 -0.050012484 0
1.9158298 -0.22895931 -0.049807373 0
1.9336621 -0.21398441 -0.050247211 0
1.9295436 -0.19199018 -0.049873132 0
1.9392847 -0.17430259 -0.050026089 0
1.9524508 -0.15745033 -0.050313685 0
1.9403645 -0.13371797 -0.049675733 0
1.9451244 -0.11466778 -0.049670838 0
1.9602044 -0.098066367 -0.05005344 0
1.9669348 -0.079315044 -0.050137151 0
1.9646634 -0.058602523 -0.049900822 0
1.9608841 -0.03775863 -0.049619712 0
1.960366 -0.017715346 -0.049467191 0
1.9727961 -5.17204e-07 -0.049793176 0
1.9850891 0.017972041 -0.050121631 0
1.9782058 0.038978223 -0.049765799 0
1.9848822 0.057931099 -0.049908455 0
1.9936906 0.076732241 -0.050136145 0
1.9976842 0.09621533 -0.050199155 0
1.9915659 0.11670399 -0.049908265 0
2.0016909 0.13565753 -0.050208777 0
1.9882433 0.15646179 -0.049673982 0
1.9919724 0.17591704 -0.049763154 0
1.9989461 0.1952953 -0.049976982 0
1.9981816 0.21507125 -0.04992304 0
1.9945537 0.23486637 -0.049775764 0
1.9941598 0.25454035 -0.049752858 0
1.9980981 0.27422857 -0.049893461 0
1.9971466 0.29392675 -0.049868349 0
1.9970541 0.31363738 -0.04988277 0
1.9923104 0.3331562 -0.049739849 0
1.9855775 0.35246435 -0.049534477 0
2.0002878 0.3731178 -0.050105017 0
1.9940929 0.39246336 -0.049936611 0
1.9864873 0.4115591 -0.04972614 0
1.9846078 0.43112391 -0.049729623 0
1.9821038 0.45061925 -0.049719505 0
1.9832247 0.47059262 -0.049848758 0
1.9841273 0.4906294 -0.049979437 0
1.9770908 0.50950271 -0.049832512 0
1.9848015 0.53080529 -0.050228056 0
1.9762278 0.54938811 -0.05004305 0
1.974041 0.56910372 -0.05009852 0
1.9645156 0.5873155 -0.049895428 0
1.9685711 0.60842568 -0.050197013 0
1.9591378 0.62655747 -0.050014306 0
1.9597052 0.64706576 -0.050207488 0
1.9454523 0.66380537 -0.049863603 0
1.9494278 0.68535548 -0.050201681 0
1.9345853 0.70167851 -0.04985135 0
1.926789 0.71989459 -0.049770325 0
1.9249779 0.73996121 -0.049921811 0
1.9163152 0.75786489 -0.049825639 0
1.9151195 0.77828842 -0.050019689 0
1.9168307 0.79990965 -0.050334692 0
1.899241 0.81453174 -0.049925592 0
1.8983673 0.83535892 -0.05016198 0
1.8806196 0.84955055 -0.049759902 0
1.8893406 0.87452382 -0.050387088 0
1.867975 0.88693392 -0.049859114 0
1.862321 0.90598989 -0.049949061 0
1.8449291 0.91967326 -0.049586985 0
1.8415954 0.93981582 -0.049786098 0
1.8393651 0.96066475 -0.050040491 0
1.8255198 0.97578657 -0.049841389 0
1.8202796 0.99528551 -0.04999584 0
1.8084977 1.0113606 -0.049895547 0
1.8012327 1.0298845 -0.049987569 0
1.7947626 1.0489448 -0.050122589 0
1.7760864 1.0608832 -0.049761944 0
1.7768486 1.0843842 -0.050217673 0
1.75984 1.0971193 -0.049940478 0
1.7490991 1.1136686 -0.049934085 0
1.7429453 1.1332577 -0.050133031 0
1.723289 1.1438205 -0.049760982 0
1.711428 1.1595231 -0.049731117 0
1.6983305 1.1743147 -0.049655266 0
1.6921465 1.194147 -0.049893718 0
1.6787378 1.2087194 -0.049821962 0
1.6751781 1.2308921 -0.050203219 0
1.656302 1.2411872 -0.049901374 0
1.6532854 1.2642007 -0.050334219 0
1.6376085 1.2769787 -0.050194744 0
1.6163443 1.2848147 -0.04979793 0
1.6063688 1.3022627 -0.049939319 0
1.5925108 1.3163286 -0.049905747 0
1.5874286 1.3385286 -0.050308239 0
1.56827 1.3476985 -0.050034795 0
1.5508043 1.3582588 -0.049848247 0
1.5326779 1.3679746 -0.049632605 0
1.5248839 1.388106 -0.049949598 0
1.5208164 1.4124984 -0.0504773 0
1.0288242 0.89344782 0.29436898 0
1.4939723 1.4128001 -0.049830243 0
1.04301 0.9248755 0.30522794 0
1.4787372 1.4253072 -0.049793404 0
1.4394109 1.3816677 0.059696138 0
1.4413881 1.3838619 0.16795546 0
1.4437579 1.3864915 0.27842259 0
1.055483 0.95563293 0.3155838 0
1.4656512 1.4402256 -0.049880728 0
1.4121499 1.3793319 0.058986854 0
1.4137863 1.3811945 0.16576935 0
1.413401 1.3807561 0.27401036 0
1.0554292 0.97332317 0.31996876 0
1.4570868 1.4605224 -0.050227735 0
1.3938433 1.3866861 0.058756892 0
1.391362 1.3837891 0.16440076 0
1.3901637 1.3823901 0.2714867 0
1.0544662 0.99046493 0.32406679 0
1.4379815 1.4685812 -0.050006971 0
1.3750333 1.3931886 0.058500513 0
1.3632486 1.3790741 0.16206284 0
1.3716174 1.3890975 0.2702505 0
1.0620914 1.0183796 0.33279631 0
1.417725 1.4749838 -0.049723357 0
1.3434078 1.3836613 0.057519868 0
1.333884 1.3719584 0.1594654 0
1.3377148 1.3766657 0.26463124 0
1.0658723 1.0426203 0.33981961 0
1.4073215 1.4934933 -0.050005902 0
1.3217645 1.3856125 0.05709023 0
1.3210794 1.3847487 0.15967515 0
1.3178988 1.380738 0.2629655 0
1.0604655 1.0561345 0.34219813 0
1.3860964 1.49833 -0.049674753 0
1.295405 1.3809698 0.056379598 0
1.2977678 1.3840272 0.15806973 0
1.2959447 1.3816681 0.2606568 0
1.052248 1.0663095 0.34317839 0
1.3719844 1.5122317 -0.049763821 0
1.2747542 1.3830811 0.055992391 0
1.2767141 1.3856844 0.15683909 0
1.272041 1.3794771 0.2577281 0
1.0421784 1.0741508 0.34322092 0
1.3628511 1.5330347 -0.050165504 0
1.2495357 1.3785063 0.055324316 0
1.2510606 1.3805858 0.15475495 0
1.2469193 1.3749384 0.25436884 0
1.0255269 1.0730253 0.33961624 0
1.3414959 1.5372156 -0.049839452 0
1.2387707 1.3933654 0.055528771 0
1.2441593 1.4009113 0.15608977 0
1.2424647 1.3985382 0.25734597 0
1.0261782 1.0956637 0.34584498 0
1.330694 1.5561777 -0.050170712 0
1.2423158 1.4290639 0.056643508 0
1.2503866 1.4406722 0.15996832 0
1.2506589 1.4410638 0.26446664 0
1.0106528 1.0958645 0.34292433 0
1.3124781 1.5646073 -0.050051004 0
1.2470154 1.4678763 0.057881095 0
1.2409945 1.4589795 0.16101982 0
1.2446799 1.4644254 0.26733112 0
1.0039185 1.1086649 0.34516877 0
1.2937713 1.5721434 -0.049903944 0
1.2476022 1.502036 0.058907028 0
1.2392036 1.4892826 0.16362152 0
1.2397152 1.4900596 0.27067903 0
1.1698036 1.3838992 0.3480002 0
0.98835087 1.1083642 0.34220976 0
1.2748483 1.5791558 -0.049745884 0
1.238506 1.5224278 0.059340656 0
1.2454041 1.5331954 0.16794224 0
1.226944 1.5043803 0.27159029 0
1.1505551 1.3851424 0.34559101 0
0.98383373 1.1249013 0.34600508 0
1.262639 1.5967392 -0.050043777 0
1.2457585 1.5696447 0.060904093 0
1.2438064 1.5665113 0.1708775 0
1.2091012 1.5108068 0.27085131 0
1.1314045 1.3860979 0.34318736 0
0.97039628 1.1276677 0.34439531 0
1.2476972 1.6102227 -0.050174717 0
1.1876808 1.5111334 0.26887935 0
1.1041116 1.3731574 0.33672923 0
0.96553719 1.144366 0.34828275 0
0.84088737 0.93856454 0.47344863 0
1.2275469 1.6150453 -0.049953729 0
1.1787224 1.532095 0.27129692 0
1.0899076 1.3812031 0.33663383 0
0.94948751 1.1426361 0.34505108 0
0.84208053 0.96015704 0.48480612 0
1.207387 1.6195434 -0.049731456 0
1.160037 1.5367304 0.27032894 0
1.0709689 1.3809538 0.33415401 0
0.94455779 1.1598659 0.34918639 0
0.85098004 0.99620229 0.35503638 0
0.83399767 0.96650076 0.4106732 0
0.83447671 0.96733856 0.48622718 0
1.194707 1.6371983 -0.050058376 0
1.1429286 1.5439339 0.26994616 0
1.0560608 1.3874657 0.33373439 0
0.93671477 1.1724974 0.35156682 0
0.85145527 1.0189261 0.36333004 0
0.83496392 0.98922169 0.42081496 0
0.84238738 1.0025929 0.50674564 0
1.18144 1.6542561 -0.050365373 0
1.1244578 1.5485026 0.26907048 0
1.0335004 1.379694 0.3292326 0
0.92278194 1.1742108 0.34984252 0
0.84601259 1.0317341 0.36690116 0
0.84385598 1.0277317 0.43985489 0
0.83798671 1.0168388 0.51290554 0
1.155709 1.6479419 -0.049735595 0
1.1095258 1.5595838 0.2695733 0
1.0186778 1.3857723 0.32882956 0
0.9113605 1.1804519 0.34989524 0
0.84246373 1.0486377 0.3723945 0
0.84242904 1.0485715 0.44873062 0
0.83713472 1.0384423 0.52398568 0
1.1419605 1.6642977 -0.050030164 0
1.0920742 1.5658549 0.26913854 0
0.99939352 1.382964 0.32594085 0
0.8967905 1.180493 0.34768906 0
0.84949762 1.0871679 0.38791186 0
0.84262377 1.0736034 0.45991147 0
0.83558214 1.0597079 0.53477794 0
1.1186816 1.6617228 -0.049576893 0
1.0762774 1.5753651 0.26940155 0
0.97973281 1.3787478 0.32273903 0
0.89245921 1.2010117 0.35315439 0
0.84901261 1.1125308 0.39721921 0
0.83621228 1.0864624 0.46423674 0
0.83789945 1.0898983 0.55141318 0
1.1089922 1.6869904 -0.05023862 0
0.96989304 1.3944557 0.32525516 0
0.87545598 1.1958483 0.34914634 0
0.83843625 1.1179934 0.39735031 0
0.84090149 1.123178 0.48179826 0
0.8345142 1.1097451 0.56113744 0
1.0892524 1.6915404 -0.050087135 0
0.94571495 1.3796034 0.31920892 0
0.8646909 1.2035211 0.34994099 0
0.83701324 1.1433718 0.40661854 0
0.83806264 1.1456523 0.49138197 0
0.8349846 1.1389631 0.57695121 0
1.0670886 1.6903877 -0.049723405 0
0.92815214 1.3781558 0.31702501 0
0.85397989 1.2114685 0.35088065 0
0.83671349 1.1726657 0.4176175 0
0.84283125 1.1864142 0.51094675 0
0.84222949 1.1850618 0.60363019 0
1.0534824 1.708496 -0.050121021 0
0.91504443 1.3865299 0.31764209 0
0.8498733 1.234961 0.35749388 0
0.83827394 1.2079844 0.43127406 0
0.84022671 1.212526 0.5223943 0
0.83412272 1.1983299 0.60891247 0
1.0337481 1.7125823 -0.049981181 0
0.89659715 1.3822072 0.31479427 0
0.85208434 1.2749827 0.37004545 0
0.84078473 1.2477638 0.44685033 0
0.83775872 1.2404746 0.53479505 0
0.83984572 1.2455018 0.6360032 0
1.0136371 1.7154708 -0.049805563 0
0.88319886 1.3897431 0.31528389 0
0.85212958 1.3121574 0.38150364 0
0.8398819 1.2815727 0.45967132 0
0.83985502 1.2815056 0.55420119 0
0.84151834 1.2856593 0.65843052 0
0.99992841 1.7346144 -0.050262552 0
0.86341137 1.3808638 0.31132832 0
0.84994525 1.3459696 0.39170697 0
0.84078676 1.3222376 0.47547784 0
0.83863699 1.316667 0.57035118 0
0.84224182 1.3260081 0.68085736 0
0.97785056 1.7321652 -0.049901623 0
0.8488248 1.3848697 0.3109661 0
0.84497046 1.374495 0.39999613 0
0.83899927 1.3584225 0.48922688 0
0.83998567 1.3610774 0.59137076 0
0.84061331 1.362767 0.70090264 0
0.95767647 1.7342975 -0.049726572 0
0.83331412 1.3861896 0.30992773 0
0.84461254 1.4178153 0.41349715 0
0.83591348 1.3934654 0.50242198 0
0.83994955 1.4047631 0.61190188 0
0.94284999 1.7516445 -0.050136153 0
0.8142705 1.3769044 0.30608606 0
0.84316099 1.4611045 0.42693061 0
0.83855331 1.4476757 0.52396744 0
0.83854014 1.4476373 0.63191551 0
0.92290694 1.7543786 -0.050001845 0
1.0289376 2.07656 0.35006979 0
0.7996856 1.379962 0.30564001 0
0.84166366 1.5075151 0.44140819 0
0.83963883 1.5013626 0.54518116 0
0.84273499 1.5107706 0.66252702 0
0.90357584 1.7587494 -0.049938757 0
1.0086914 2.0922339 0.35164082 0
0.78413814 1.3798271 0.30439103 0
0.83909184 1.5541705 0.45592043 0
0.84151846 1.5618693 0.56926543 0
0.84182781 1.5628505 0.68719083 0
0.88352519 1.7605895 -0.049790639 0
0.98105979 2.0841782 0.34878427 0
0.7718302 1.390021 0.30595124 0
0.83949637 1.6145158 0.47514594 0
0.84145206 1.6210042 0.59265512 0
0.86733437 1.7754779 -0.050137196 0
0.95976752 2.0967262 0.34987006 0
0.75678664 1.3912727 0.3051731 0
0.84051192 1.6822573 0.49686065 0
0.84026504 1.6813991 0.61650342 0
0.84669685 1.7750825 -0.049924329 0
0.73984516 1.3853197 0.047495872 0
0.73870409 1.3811574 0.13044854 0
0.73993665 1.3856534 0.215683 0
0.73959595 1.3844105 0.30230132 0
0.83846498 1.7450551 0.51679069 0
0.83491784 1.7321161 0.63612115 0
0.82738352 1.7791842 -0.049887691 0
0.7259391 1.3899915 0.047528762 0
0.7238068 1.381811 0.13010283 0
0.72698027 1.3939861 0.21653123 0
0.72532058 1.3876188 0.30215126 0
0.83077681 1.7922027 0.53128362 0
0.83090514 1.7926952 0.65992308 0
0.80945349 1.7887865 -0.050062407 0
0.70643091 1.3721122 0.046738643 0
0.7115919 1.3929859 0.13094376 0
0.70942813 1.3842345 0.21404749 0
0.71097732 1.3905001 0.30196306 0
0.82507229 1.8519566 0.55008513 0
0.82490706 1.8512882 0.68282562 0
0.79053515 1.7947184 -0.050110325 0
0.69392663 1.3817366 0.046968304 0
0.69491327 1.3859543 0.12978975 0
0.69456106 1.3844485 0.21345784 0
0.69317144 1.3785082 0.29792577 0
0.81725484 1.9089395 0.56790906 0
0.77158344 1.8006705 -0.050167575 0
0.67748529 1.3742831 0.046578713 0
0.68096548 1.3900529 0.12988703 0
0.67731762 1.3735231 0.21084712 0
0.67797023 1.3764805 0.29656163 0
0.8061915 1.9574902 0.58284438 0
0.7532692 1.8099087 -0.050353207 0
0.66502625 1.3846785 0.046848506 0
0.66392356 1.3793648 0.12838042 0
0.66330534 1.3763857 0.21082291 0
0.6655755 1.3873254 0.29860523 0
0.79090631 1.9912767 0.59277147 0
0.73375165 1.8136601 -0.050347228 0
0.65089649 1.3874897 0.046847511 0
0.65146381 1.3904076 0.12928009 0
0.65130222 1.3895764 0.21272874 0
0.65040165 1.3849444 0.2972469 0
0.77618539 2.0319209 0.6050638 0
0.71024424 1.7954087 -0.049551841 0
0.63297576 1.369409 0.04609495 0
0.63515157 1.3814049 0.12800547 0
0.63673323 1.3901249 0.21234074 0
0.63503486 1.3807614 0.29547405 0
0.76236337 2.0827541 0.62083602 0
0.69264549 1.808884 -0.049917504 0
0.62045991 1.3802406 0.046398897 0
0.62016791 1.3785064 0.12742123 0
0.62276947 1.3939546 0.21258727 0
0.620013 1.3775867 0.29401591 0
0.74649543 2.1286488 0.63496751 0
0.67435545 1.8196119 -0.050191201 0
0.60609359 1.3805802 0.04632888 0
0.60815668 1.3938493 0.12884259 0
0.60636979 1.3823566 0.21004964 0
0.60630602 1.3819466 0.29455495 0
0.7273702 2.1605804 0.64443737 0
0.65394175 1.8168381 -0.049985819 0
0.59087712 1.374625 0.046038505 0
0.59116054 1.3766122 0.12674107 0
0.5917719 1.3808992 0.20940155 0
0.59177178 1.3808986 0.29374385 0
0.70962822 2.2073152 0.65894604 0
0.63471431 1.8221034 -0.050079443 0
0.57765502 1.3824625 0.046252061 0
0.57710975 1.3782612 0.12671287 0
0.57843852 1.3884994 0.21043523 0
0.57741433 1.3806081 0.29317608 0
0.68780911 2.2311983 0.66583967 0
0.61582106 1.8308207 -0.050305724 0
0.56322509 1.3812927 0.046147518 0
0.56290454 1.3785526 0.12655701 0
0.56364918 1.384917 0.20946737 0
0.5635727 1.3842635 0.29366922 0
0.66701406 2.2683573 0.67726219 0
0.59475178 1.8202349 -0.049847372 0
0.55222869 1.4123662 0.13004282 0
0.55286318 1.4184521 0.21526495 0
0.55163652 1.4066864 0.29902059 0
0.64417684 2.2943048 0.68500715 0
0.57551789 1.8261868 -0.049991947 0
0.552728 1.5772375 0.1476827 0
0.55197072 1.5689653 0.24226549 0
0.55114418 1.5599366 0.33792216 0
0.62098396 2.3228424 0.69370466 0
0.55567807 1.8257914 -0.049917754 0
0.60275954 2.422807 0.23868568 0
0.59898806 2.3749828 0.38782769 0
0.59790009 2.361187 0.54262555 0
0.53541857 1.8183126 -0.049599126 0
0.57432449 2.4059851 0.39308262 0
0.5735622 2.3944712 0.55064613 0
0.516159 1.8253578 -0.049809098 0
0.54786539 2.4172642 0.39482793 0
0.54788291 2.4175911 0.55614269 0
0.4962208 1.8195243 -0.049567461 0
0.52154225 2.4379253 0.39832595 0
0.52215028 2.452774 0.56479925 0
0.47659099 1.8186675 -0.049512628 0
0.45627111 1.1016618 0.35280722 0
0.45649695 1.1096302 0.42908645 0
0.45728546 1.8361521 -0.050121527 0
0.44586393 1.1106083 0.35641569 0
0.44560069 1.0938863 0.42109072 0
0.43749273 1.8362811 -0.050119456 0
0.43515337 1.0934476 0.42082185 0
0.43513122 1.08641 0.49351034 0
0.41779754 1.8259001 -0.049751047 0
0.42471111 1.0937333 0.42098129 0
0.42479271 1.0850908 0.49274719 0
0.3980923 1.8276268 -0.049823761 0
0.41419533 1.0969144 0.35078612 0
0.41399822 1.1058584 0.42713171 0
0.41452906 1.0817713 0.49087459 0
0.37818977 1.833478 -0.050052702 0
0.35261282 2.5718579 0.42240164 0
0.35223979 2.5826275 0.59781587 0
0.40528166 1.0513626 0.47300306 0
0.3587459 1.8261348 -0.049819153 0
0.32264701 2.5900989 0.42590979 0
0.32230273 2.5973847 0.60189033 0
0.33860359 1.8331591 -0.050108042 0
0.29265764 2.600461 0.42806524 0
0.29253852 2.6024501 0.60358703 0
0.31885096 1.8319505 -0.050111569 0
0.26195019 2.6164985 0.43131715 0
0.26134902 2.6247876 0.60979933 0
0.29978722 1.8225899 -0.049831916 0
0.22942479 2.6484706 0.4375267 0
0.22934359 2.6494238 0.61670744 0
0.27974105 1.8252572 -0.049991988 0
0.19858822 2.6542435 0.43907049 0
0.19734798 2.6669128 0.62189507 0
0.26045805 1.8199705 -0.049875647 0
0.16636838 2.6705167 0.44259214 0
0.16622238 2.6718364 0.62396801 0
0.34625849 1.0443565 0.47138983 0
0.24074398 1.8188218 -0.049916707 0
0.13399996 2.6839395 0.44567496 0
0.13344158 2.6884649 0.62915373 0
0.2211159 1.8168041 -0.049935456 0
0.10257052 2.687242 0.44699514 0
0.10188664 2.6922634 0.63115096 0
0.20153452 1.814362 -0.049947843 0
0.069711611 2.6988521 0.44990474 0
0.070618197 2.6927691 0.63240498 0
0.1817082 1.8133584 -0.050021186 0
0.036834136 2.708005 0.45244685 0
0.036739275 2.7085905 0.63772172 0
0.16460033 1.796492 -0.049528811 0
0.002690898 2.7223063 0.4560129 0
0.0041474565 2.7139776 0.64045787 0
0.1457554 1.7907343 -0.049446624 0
-0.029707564 2.7245982 0.45746246 0
-0.029490782 2.7234445 0.64436615 0
0.12292825 1.8050716 -0.050104618 0
-0.088660911 2.8579798 0.1004463 0
-0.09005405 2.8649123 0.29106557 0
-0.063889638 2.7347133 0.4604297 0
-0.063868389 2.7346075 0.64883578 0
0.10472275 1.7955897 -0.049905218 0
-0.11186559 2.8072553 0.098841436 0
-0.11253567 2.8103852 0.28581864 0
-0.094901398 2.7280169 0.46038362 0
-0.098024026 2.7426026 0.65260369 0
0.081318989 1.8095982 -0.050573662 0
-0.14044155 2.7852454 0.098293968 0
-0.14396544 2.8007491 0.28553528 0
-0.12797303 2.7303896 0.46208683 0
-0.12792344 2.7301712 0.65115047 0
0.066251442 1.7869266 -0.049908053 0
-0.17476995 2.7887754 0.098695837 0
-0.17701985 2.7981277 0.28607011 0
-0.16345353 2.7417369 0.46553707 0
-0.16040809 2.7290781 0.6527667 0
0.049021259 1.7746661 -0.049630769 0
-0.20783927 2.7861745 0.098889075 0
-0.21255566 2.8047476 0.28767741 0
-0.19635887 2.7409651 0.46682638 0
-0.19785137 2.7468426 0.65945959 0
0.030531662 1.7678609 -0.04956216 0
-0.25228846 2.8255858 0.1006509 0
-0.25091624 2.8204539 0.29035065 0
-0.22760268 2.7332628 0.46690342 0
-0.22889788 2.738107 0.65930074 0
0.0095973182 1.7699255 -0.04983085 0
-0.26027697 2.7305944 0.46799728 0
-0.26128697 2.7341895 0.66052163 0
-0.010479582 1.7683975 -0.049976625 0
-0.29406881 2.7311609 0.46978062 0
-0.29458064 2.7328985 0.66255391 0
-0.02865429 1.7603396 -0.049888439 0
-0.32525599 2.7224162 0.46989384 0
-0.32476997 2.7208397 0.66183096 0
-0.047229931 1.7537192 -0.049862377 0
-0.35897815 2.7214725 0.47155988 0
-0.35666883 2.7143037 0.66268718 0
-0.067968026 1.7535808 -0.050089136 0
-0.39719474 2.7331553 0.47571591 0
-0.3947475 2.7258737 0.6685282 0
-0.085566953 1.7439841 -0.049968973 0
-0.42547828 2.7146997 0.47422305 0
-0.42408872 2.7107313 0.6673035 0
-0.10585089 1.7419947 -0.050145723 0
-0.45559478 2.7018683 0.47387108 0
-0.45691031 2.7054789 0.66885871 0
-0.12257583 1.7302467 -0.049960498 0
-0.48890579 2.6975968 0.47524112 0
-0.48642087 2.691035 0.66802633 0
-0.14103432 1.7232562 -0.049964923 0
-0.51419449 2.6723835 0.47264087 0
-0.51939142 2.6856019 0.66976172 0
-0.158556 1.7139518 -0.049889095 0
-0.5538888 2.6834459 0.47715434 0
-0.55008441 2.6741161 0.66995239 0
-0.17818595 1.7097664 -0.050019789 0
-0.58492386 2.6723819 0.47745746 0
-0.58300769 2.6678469 0.67169577 0
-0.19703223 1.7035517 -0.050081737 0
-0.61169815 2.6514595 0.47589836 0
-0.61318874 2.6548669 0.67169505 0
-0.21524324 1.6958196 -0.050093852 0
-0.63712907 2.6280839 0.47391126 0
-0.64222407 2.6393428 0.67108804 0
-0.23472591 1.6907784 -0.050221108 0
-0.67618978 2.6344869 0.47790509 0
-0.67262149 2.6268592 0.67143655 0
-0.2478245 1.6723126 -0.04982654 0
-0.69792926 2.6037524 0.47458276 0
-0.69796121 2.6038184 0.66890383 0
-0.27347475 1.6796238 -0.05046447 0
-0.72341335 2.5815513 0.47301444 0
-0.7282542 2.5912552 0.66943318 0
-0.2828036 1.6542336 -0.049806435 0
-0.7570281 2.5756147 0.47479978 0
-0.7529422 2.5676761 0.66691422 0
-0.30216163 1.6487241 -0.049952254 0
-0.786731 2.5617645 0.4750675 0
-0.7885648 2.5652199 0.67056882 0
-0.31898475 1.6383592 -0.049911384 0
-0.8152293 2.5456233 0.47494271 0
-0.81411588 2.5435877 0.66880238 0
-0.33651197 1.6292964 -0.049932234 0
-0.61604679 2.1254172 0.082262404 0
-0.83000219 2.505147 0.46985361 0
-0.84293592 2.5281019 0.66891712 0
-0.35553217 1.6227715 -0.05006706 0
-0.61581993 2.0714278 0.080585063 0
-0.862885 2.4972925 0.47156751 0
-0.86593699 2.5025532 0.66617119 0
-0.36785102 1.6048318 -0.049738187 0
-0.61696446 2.0220349 0.079086065 0
-0.89270365 2.4838293 0.47220284 0
-0.88355756 2.4685118 0.66096669 0
-0.3847751 1.5948259 -0.049745653 0
-0.61650932 1.9720498 0.077551231 0
-0.91258299 2.4540074 0.4694598 0
-0.91346872 2.4554493 0.66206962 0
-0.40601647 1.5916377 -0.050050057 0
-0.62029052 1.9307892 0.076372333 0
-0.93975139 2.4364297 0.46936017 0
-0.94100571 2.4384153 0.66209602 0
-0.41951156 1.5761241 -0.049843587 0
-0.62370849 1.8904887 0.075226642 0
-0.95752811 2.4044099 0.46622705 0
-0.9606657 2.4092402 0.65853411 0
-0.43836671 1.5688958 -0.049998302 0
-0.62017357 1.841222 0.073688239 0
-0.97757423 2.3765678 0.46402177 0
-0.97507286 2.3728211 0.65279555 0
-0.46474349 1.5724342 -0.050630711 0
-0.61793315 1.7957538 0.072299026 0
-0.99982476 2.3524749 0.46267229 0
-1.0008861 2.354022 0.65251452 0
-0.46741158 1.5415463 -0.049779665 0
-0.61621106 1.7527158 0.071002342 0
-1.0196236 2.3252208 0.46067491 0
-1.0232571 2.3303773 0.6508196 0
-0.48812854 1.5366182 -0.050066318 0
-0.61746478 1.715344 0.069942534 0
-0.62540925 1.7263221 0.19993845 0
-1.0445811 2.3055623 0.46040541 0
-1.047424 2.3094909 0.65006614 0
-0.074673727 0.96527803 0.43888465 0
-0.50540346 1.5267134 -0.050145857 0
-0.61028636 1.6678708 0.068424195 0
-0.61916399 1.6798189 0.19551125 0
-1.0632255 2.2774622 0.45830697 0
-1.0606496 2.2739954 0.64475846 0
-0.088752404 0.96596044 0.44332555 0
-0.51983607 1.5129844 -0.050064184 0
-0.62280989 1.647988 0.068126 0
-0.6207459 1.6452819 0.19264816 0
-1.0827912 2.2510448 0.45662296 0
-1.0792867 2.2464502 0.64200377 0
-0.094689026 0.95559692 0.44096944 0
-0.52919346 1.4928609 -0.04969997 0
-0.61498296 1.6024455 0.066668563 0
-0.62146974 1.6107316 0.18975759 0
-1.1034427 2.2263875 0.45538157 0
-1.096524 2.2175496 0.63885838 0
-0.11211564 0.96009976 0.44808376 0
-0.54478234 1.4808992 -0.049711194 0
-0.61291838 1.5657117 0.06559521 0
-0.62058961 1.5752605 0.18671197 0
-1.1059856 2.1794581 0.44903508 0
-1.1101235 2.1846089 0.6344294 0
-0.13141872 0.96636397 0.45654097 0
-0.55858105 1.4667486 -0.049630295 0
-0.62218356 1.5439076 0.06520021 0
-0.62114692 1.54265 0.18403144 0
-1.1320701 2.1624739 0.44962856 0
-1.132161 2.1625843 0.6336199 0
-0.14006926 0.95903301 0.45642793 0
-0.58540547 1.4680842 -0.050280686 0
-0.62196386 1.511314 0.064301938 0
-0.61267579 1.5003309 0.17995676 0
-1.1385021 2.1221147 0.44478467 0
-1.1439933 2.128608 0.62890053 0
-0.15179642 0.95534617 0.45877254 0
-0.59913051 1.4536148 -0.050207116 0
-0.62442887 1.4827771 0.063585408 0
-0.61407948 1.470847 0.17764832 0
-1.1599675 2.1001098 0.44428894 0
-1.1606194 2.1008611 0.62628341 0
-0.6090138 1.4349014 -0.049938098 0
-0.63762963 1.4670607 0.063474953 0
-0.63181627 1.4605274 0.17807332 0
-1.1634389 2.0579793 0.43899402 0
-1.1689142 2.0641327 0.62064058 0
-0.62784672 1.4262711 -0.050159324 0
-0.65547669 1.4565461 0.063622639 0
-0.65828264 1.4596206 0.17990507 0
-1.1796665 2.030916 0.43732741 0
-1.1871732 2.0391412 0.61902249 0
-0.6317718 1.4014803 -0.049604457 0
-0.49897295 1.2595987 0.054666467 0
-0.68400657 1.4572879 0.1815974 0
-1.1896639 1.9975297 0.4341293 0
-1.1954651 2.0037277 0.61382312 0
-0.65668523 1.3991158 -0.050155073 0
-0.50803065 1.2442493 0.0544912 0
-0.70808697 1.4526654 0.18301718 0
-1.1994079 1.9645175 0.4310171 0
-1.2005988 1.9657582 0.60769331 0
-0.66426516 1.3785845 -0.049818099 0
-0.51698714 1.2289695 0.054322913 0
-0.74470937 1.4603053 0.1863493 0
-1.2123201 1.9353364 0.42886651 0
-1.21823 1.9413401 0.60636151 0
-0.67986286 1.366326 -0.049901288 0
-0.52835238 1.2162389 0.054287486 0
-0.77608597 1.461645 0.18883194 0
-1.2175115 1.8989232 0.42487651 0
-1.2207214 1.9021028 0.59972036 0
-0.69049132 1.3491813 -0.04974452 0
-0.54264498 1.2063671 0.054405805 0
-0.81102753 1.4656148 0.19181471 0
-1.2252859 1.8657731 0.42169806 0
-1.2178218 1.8585629 0.59142357 0
-0.71307003 1.3434403 -0.050186343 0
-0.56240666 1.2015283 0.054797091 0
-0.84957278 1.4720142 0.19528693 0
-1.2290069 1.8294084 0.4176569 0
-1.2295827 1.8299507 0.58855617 0
-0.72194302 1.3246843 -0.049962252 0
-0.86532199 1.4563675 0.068912365 0
-0.87397897 1.4643184 0.19664428 0
-1.2336819 1.7946798 0.41400859 0
-1.2291113 1.7904819 0.58160996 0
-0.23324455 0.87584966 0.3802796 0
-0.72694468 1.3026694 -0.049566526 0
-0.89912939 1.4568574 0.069818199 0
-0.90628028 1.4632608 0.19913942 0
-1.2280453 1.751395 0.40801132 0
-1.2322942 1.7551998 0.57616431 0
-0.23677476 0.8637321 0.37799188 0
-0.74470246 1.2921576 -0.049792886 0
-0.93507099 1.4583576 0.070814975 0
-1.2332004 1.7186375 0.40479445 0
-1.2354822 1.7206296 0.5709312 0
-0.24124421 0.85261685 0.37632972 0
-0.76265955 1.2816018 -0.050032418 0
-0.97318089 1.4607753 0.071901895 0
-1.2417724 1.6893721 0.40251929 0
-1.2358766 1.6843541 0.56496453 0
-0.22820361 0.8267293 0.36524177 0
-0.25659913 0.8508966 0.45878083 0
-0.76042259 1.2540691 -0.049338907 0
-1.0097985 1.4609542 0.072906882 0
-1.2496207 1.6599133 0.40018502 0
-1.2360003 1.6486137 0.55912238 0
-0.24967755 0.83034933 0.37301302 0
-0.78607571 1.2497126 -0.049948897 0
-1.0465297 1.4603084 0.073906794 0
-1.248524 1.6236354 0.39588621 0
-1.2394955 1.6163353 0.55459404 0
-0.24819078 0.81479388 0.36845577 0
-0.78973103 1.2274711 -0.049555521 0
-1.0933434 1.4667046 0.075355493 0
-1.2483269 1.588825 0.39194191 0
-1.2369813 1.5798851 0.54829109 0
-0.27100348 0.81873602 0.37685612 0
-0.81065047 1.21883 -0.049955647 0
-1.1213813 1.4573927 0.075941525 0
-1.2447649 1.5521201 0.38737056 0
-1.2434801 1.5511338 0.54509622 0
-0.25574607 0.79280365 0.36527756 0
-0.25521833 0.79239845 0.43983471 0
-0.81586695 1.1980878 -0.049656823 0
-1.1746204 1.4664083 0.07765083 0
-1.2531885 1.5251713 0.38564593 0
-1.2419373 1.5167562 0.53948516 0
-0.26311827 0.78467363 0.3656773 0
-0.2804091 0.79760587 0.45145404 0
-0.83972502 1.1911825 -0.050195709 0
-1.2152191 1.4647193 0.078781188 0
-1.2517192 1.4913085 0.38180578 0
-1.2416673 1.483986 0.5344643 0
-1.2426547 1.4847052 0.69552809 0
-0.2589584 0.76811063 0.36021882 0
-0.27626789 0.78072011 0.44476938 0
-0.84625328 1.171514 -0.049975079 0
-1.2526287 1.4597853 0.079762824 0
-1.2472405 1.4559631 0.37742901 0
-1.2439073 1.4535986 0.53040296 0
-1.2340989 1.4466408 0.68582475 0
-0.27178365 0.76400131 0.3635374 0
-0.27739924 0.76798481 0.44150957 0
-0.85693634 1.1549002 -0.049947415 0
-1.295912 1.4580616 0.080993526 0
-1.2558261 1.4303778 0.37605155 0
-1.2418227 1.420707 0.52515501 0
-1.239795 1.4193066 0.6821624 0
-0.28992921 0.76331884 0.44530702 0
-0.87288988 1.1418488 -0.050155744 0
-1.278347 1.4143863 0.079597279 0
-1.2721089 1.4101932 0.22673739 0
-1.2515066 1.3963449 0.37195161 0
-1.2385651 1.387646 0.51971859 0
-1.2374022 1.3868643 0.67542696 0
-0.28724593 0.74819458 0.43993646 0
-0.88155663 1.1238521 -0.050058551 0
-1.2659857 1.3752861 0.078458034 0
-1.2721716 1.3793321 0.22491013 0
-1.2532212 1.3669376 0.3692784 0
-1.2418177 1.3594792 0.51643884 0
-1.2416726 1.3593843 0.67155862 0
-0.29858607 0.74256313 0.44310829 0
-0.88980663 1.1056679 -0.049954135 0
-0.33526498 0.75286126 0.038489155 0
-1.2745854 1.3504692 0.22344661 0
-1.2509627 1.3354403 0.36585674 0
-1.2430109 1.3303812 0.51267022 0
-1.2317604 1.3232235 0.66226572 0
-0.29810232 0.72921789 0.43928522 0
-0.89799821 1.0875305 -0.049857721 0
-1.2756532 1.3211722 0.22187045 0
-1.2493035 1.3048706 0.36267313 0
-1.2375396 1.2975928 0.50704181 0
-1.2342691 1.2955694 0.65808302 0
-0.9155519 1.075099 -0.050161619 0
-0.33870602 0.72819114 0.038130216 0
-1.2485397 1.2753537 0.50648296 0
-1.2326585 1.265803 0.65246832 0
-0.92430818 1.0572747 -0.050106008 0
-0.37010777 0.73341668 0.039189726 0
-1.2443283 1.2442847 0.50151634 0
-1.2448846 1.24461 0.65237159 0
-0.92241895 1.0334495 -0.049623027 0
-0.37091607 0.72041589 0.038983077 0
-1.2403376 1.2139004 0.49676499 0
-1.2413516 1.2144759 0.64634925 0
-0.94401586 1.0229521 -0.050113026 0
-0.3910138 0.71820921 0.039570853 0
-1.2403259 1.1862397 0.49331743 0
-1.2389216 1.1854658 0.64093232 0
-0.94727397 1.0022523 -0.049862657 0
-0.45296144 0.73791033 0.041850135 0
-1.2452818 1.1616172 0.49143136 0
-1.2348474 1.1560372 0.63506967 0
-0.95180047 0.98240584 -0.049675446 0
-0.49563724 0.74580222 0.043329496 0
-1.2369589 1.1303124 0.48583052 0
-1.2433858 1.133646 0.63411146 0
-0.97533369 0.97226042 -0.050258949 0
-0.50416148 0.73535222 0.043430831 0
-1.2386334 1.1046491 0.48323289 0
-1.2285542 1.0995811 0.62456214 0
-0.97383356 0.94945914 -0.049849849 0
-0.51357687 0.7252546 0.043572187 0
-1.2300563 1.0742728 0.47783381 0
-1.2447766 1.0814434 0.62672251 0
-0.97500658 0.92823428 -0.049560055 0
-0.54615742 0.72597009 0.044632129 0
-1.2336088 1.0502025 0.47599649 0
-1.2273272 1.0472398 0.61656851 0
-1.0025867 0.91928124 -0.050318733 0
-0.58616853 0.72925234 0.045977246 0
-1.2377149 1.0265801 0.47441021 0
-1.2370553 1.0262791 0.61656934 0
-1.0061482 0.89914262 -0.05014037 0
-1.2455764 1.0047817 0.47396311 0
-1.2347127 0.9999885 0.61227715 0
-1.0131487 0.88060319 -0.050106294 0
-1.2385154 0.97666657 0.46945614 0
-1.2461066 0.97990233 0.61309588 0
-1.0190177 0.86162078 -0.050037753 0
-1.3332026 0.99089313 0.35035214 0
-1.2455426 0.95482516 0.46895707 0
-1.2450856 0.95463711 0.60953522 0
-1.0209528 0.84112608 -0.049827658 0
-1.3335581 0.96516937 0.34867334 0
-1.2373241 0.92698324 0.46435148 0
-1.244751 0.92993027 0.60635221 0
-1.0355419 0.82562429 -0.050112113 0
-1.3499409 0.9458198 0.35015985 0
-1.2371979 0.90271783 0.46207431 0
-1.2425128 0.90474981 0.60261756 0
-1.030133 0.8025474 -0.049641948 0
-0.49123359 0.60426527 0.11178438 0
-1.3536999 0.92160028 0.34926051 0
-1.2331752 0.87725449 0.45883167 0
-1.2445812 0.88145125 0.60053951 0
-1.0462203 0.78742224 -0.049998935 0
-0.46344304 0.58128929 0.039929874 0
-0.48504514 0.58893013 0.11059943 0
-1.3646202 0.90004283 0.34979358 0
-1.2363752 0.85468155 0.45764503 0
-1.2402538 0.85605341 0.59631741 0
-1.0457274 0.76639718 -0.049736459 0
-0.46592104 0.56949311 0.03987553 0
-0.49789143 0.5803504 0.11160187 0
-1.3744285 0.87802517 0.35016438 0
-1.2341354 0.83038116 0.45507452 0
-1.2367038 0.83125341 0.59249908 0
-1.0531228 0.74813217 -0.049781192 0
-0.48954755 0.56462163 0.040621046 0
-1.3903861 0.85795134 0.3517527 0
-1.239182 0.80871648 0.45455179 0
-1.2290593 0.80542034 0.58737326 0
-1.0639269 0.73089349 -0.049961846 0
-0.54437917 0.5689255 0.042532884 0
-1.3879133 0.83189565 0.34990102 0
-1.2474251 0.78809869 0.45495847 0
-1.23994 0.78576523 0.58883691 0
-1.0725318 0.71286327 -0.050067995 0
-1.4035383 0.81149858 0.35152385 0
-1.2376404 0.76206332 0.4506335 0
-1.2319999 0.76038253 0.58384746 0
-1.0827978 0.69522417 -0.050243858 0
-1.3981439 0.78488559 0.34924799 0
-1.2413495 0.74030471 0.44999027 0
-1.234911 0.73847407 0.58273983 0
-1.0921757 0.67721295 -0.050394509 0
-1.4107859 0.76348156 0.35041264 0
-1.2461247 0.71889699 0.4497036 0
-1.236985 0.71642226 0.58144271 0
-1.0851246 0.65486157 -0.049947407 0
-1.4140209 0.7394852 0.34987199 0
-1.2434621 0.69560117 0.44752952 0
-1.2491114 0.69705468 0.58369863 0
-1.0745466 0.6319713 -0.04938243 0
-1.4289036 0.71840376 0.35155141 0
-1.2396717 0.67224759 0.4451431 0
-1.2410932 0.67259425 0.57913285 0
-1.0921978 0.61599684 -0.049863938 0
-1.4245498 0.69264156 0.34971485 0
-1.2393845 0.64994001 0.44375795 0
-1.2369519 0.64937901 0.57600927 0
-1.1042184 0.59844762 -0.050145771 0
-1.4299783 0.66926438 0.34974864 0
-1.2379365 0.62751651 0.44214696 0
-1.2521045 0.63059652 0.57956278 0
-1.1060606 0.57861346 -0.050064065 0
-1.4280077 0.64436734 0.34847468 0
-1.2371162 0.60538 0.44077718 0
-1.2441174 0.60680991 0.5753302 0
-1.1050161 0.55828303 -0.049886718 0
-1.4456936 0.62340498 0.35087064 0
-1.2434139 0.58473837 0.44133213 0
-1.248979 0.58580214 0.57556146 0
-1.11603 0.54022443 -0.050156336 0
-1.4468269 0.59915036 0.35027739 0
-1.2468359 0.56352532 0.441208 0
-1.2349519 0.56140834 0.56949866 0
-1.114432 0.51988679 -0.049977273 0
-1.4511913 0.57550955 0.35033187 0
-1.2373283 0.54018563 0.43780982 0
-1.2353138 0.53985292 0.56840414 0
-1.1257867 0.50164598 -0.050275564 0
-1.4535706 0.55155492 0.35007849 0
-1.2318112 0.51778942 0.43552396 0
-1.2395351 0.51896548 0.56870192 0
-1.1207991 0.48091137 -0.049992543 0
-1.4649501 0.5288868 0.35151941 0
-1.2354342 0.49689177 0.43566924 0
-1.2431355 0.49796534 0.56887901 0
-1.1253425 0.46158132 -0.050062358 0
-1.4636078 0.50440162 0.35069725 0
-1.2447555 0.47669756 0.4373475 0
-1.2431577 0.4764953 0.56794471 0
-1.1331272 0.4425675 -0.050257292 0
-0.51401418 0.37210366 0.040011462 0
-0.50432992 0.37100145 0.10733504 0
-0.50959456 0.37160063 0.17701013 0
-1.2348275 0.45414245 0.43414587 0
-1.2423449 0.45499802 0.56682265 0
-1.1379572 0.42311367 -0.050354552 0
-0.51577616 0.36022538 0.040028706 0
-0.50733143 0.35937181 0.10752225 0
-0.50214255 0.35884735 0.17542812 0
-1.2428602 0.43371695 0.43562683 0
-1.2321706 0.43263647 0.5626623 0
-1.1366543 0.4030458 -0.050240677 0
-0.50871271 0.34755307 0.10755026 0
-0.51078713 0.34773642 0.17679128 0
-1.2319924 0.41147107 0.4323312 0
-1.2383676 0.41203445 0.5640685 0
-1.1173403 0.38169199 -0.049491111 0
-0.50378191 0.33524808 0.10691398 0
-0.51264 0.33591861 0.17695008 0
-1.2454536 0.39138964 0.43533528 0
-1.230796 0.39028013 0.56096613 0
-1.1358224 0.36324757 -0.050103806 0
-0.51107913 0.32386145 0.10761168 0
-0.51899934 0.32436079 0.17794999 0
-1.2329198 0.36936897 0.43175635 0
-1.2323468 0.36933282 0.56099856 0
-1.2444553 0.37009621 0.70171583 0
-1.1359205 0.34344059 -0.050067253 0
-0.50311494 0.31153992 0.10668213 0
-0.50851279 0.31181204 0.17593358 0
-1.2371101 0.34854171 0.43252277 0
-1.2469472 0.34903759 0.56546593 0
-1.2392174 0.34864792 0.69904763 0
-0.35467291 0.30405676 0.47344926 0
-1.136263 0.3236655 -0.050048366 0
-0.5239979 0.30052477 0.10887212 0
-0.50628299 0.29985523 0.17543682 0
-1.2370718 0.32747558 0.43227616 0
-1.2432638 0.32770962 0.56392902 0
-1.2431103 0.3277038 0.70027584 0
-0.35776961 0.29424211 0.47502759 0
