# .PCD v0.7 - Point Cloud Data file format
VERSION 0.7
FIELDS x y z intensity
SIZE 4 4 4 4
TYPE F F F F
COUNT 1 1 1 1
WIDTH 1355
HEIGHT 1
VIEWPOINT 0 0 0 1 0 0 0
POINTS 1355
DATA ascii
-1.2376415 -0.076743163 0.44091395 0
-1.2410269 -0.077434607 0.5742808 0
-1.1004863 -0.068892159 -0.050009418 0
-0.51069653 0.059321899 0.040461369 0
-0.50420719 0.060732607 0.10902315 0
-0.50004029 0.061638448 0.17811838 0
-1.2493701 -0.10125793 0.44513217 0
-1.2365458 -0.098470069 0.5742656 0
-1.1010908 -0.089303561 -0.050189763 0
-0.51383996 0.04612406 0.040673874 0
-0.50894278 0.047253419 0.10983641 0
-0.50944376 0.04713789 0.18034492 0
-1.2356725 -0.12033982 0.44278604 0
-1.2353479 -0.12026498 0.57546163 0
-1.0832425 -0.10534824 -0.049701989 0
-0.51080078 0.034277994 0.040665928 0
-0.51379836 0.033546839 0.11068421 0
-0.51737827 0.032673646 0.18233947 0
-1.2373091 -0.14292715 0.44452265 0
-1.2377688 -0.14303924 0.57799441 0
-1.0739019 -0.12322987 -0.049533695 0
-0.55675924 0.0098288255 0.042469703 0
-0.55193239 0.011070718 0.11524678 0
-0.55685586 0.0098039405 0.1902484 0
-1.2452158 -0.16730823 0.44799149 0
-1.2441785 -0.16704135 0.58200407 0
-1.0737634 -0.14348336 -0.049713496 0
-0.61941314 -0.020461094 0.04490852 0
-0.62055624 -0.020770561 0.12325108 0
-1.2443645 -0.18967627 0.319318 0
-1.2375861 -0.18784092 0.4474467 0
-1.2413762 -0.18886711 0.58295625 0
-1.0695983 -0.1627271 -0.049753945 0
-0.68932521 -0.054605197 0.047639608 0
-0.69309044 -0.055675726 0.13176571 0
-1.2447754 -0.21253468 0.32049188 0
-1.2361213 -0.21007408 0.44860354 0
-1.2365353 -0.2101918 0.58330166 0
-1.070372 -0.18347551 -0.049987532 0
-0.77608645 -0.095782526 0.051024623 0
-0.77453494 -0.095320173 0.14136074 0
-1.2371987 -0.23318757 0.32022113 0
-1.2444117 -0.23533694 0.45243615 0
-1.2300452 -0.2310559 0.58316892 0
-1.0622007 -0.20161121 -0.049897291 0
-0.879197 -0.14456017 0.055053703 0
-0.86923587 -0.1414548 0.15254188 0
-1.2395004 -0.25688407 0.32186443 0
-1.2383444 -0.2565237 0.45253173 0
-1.2419661 -0.25765273 0.58954298 0
-1.0564002 -0.22045521 -0.049904246 0
-0.98600185 -0.19753225 0.059261058 0
-0.98972833 -0.19874565 0.16674951 0
-1.2403346 -0.28034768 0.32329261 0
-1.2473116 -0.28261951 0.45673314 0
-1.2390225 -0.27992043 0.59085929 0
-1.0539593 -0.24044864 -0.050046831 0
-1.1302311 -0.26635084 0.064922579 0
-1.1297907 -0.26620123 0.18332085 0
-1.2436428 -0.30486581 0.32525432 0
-1.2510008 -0.30736455 0.45961875 0
-1.0513 -0.26047483 -0.050191298 0
-1.3009729 -0.34878615 0.20361026 0
-1.2433542 -0.32840595 0.32659563 0
-1.2412287 -0.32765409 0.45895848 0
-1.0284045 -0.27316722 -0.049576193 0
-1.2611549 -0.35880515 0.1999504 0
-1.2484801 -0.35414162 0.3290405 0
-1.2388984 -0.35061613 0.46038756 0
-1.0294816 -0.29456332 -0.049880482 0
-1.2539055 -0.38036111 0.20003454 0
-1.2423599 -0.37594721 0.32938823 0
-1.2316951 -0.37187001 0.46057126 0
-1.0263726 -0.31453255 -0.050035827 0
-1.2452694 -0.40139189 0.19999009 0
-1.230522 -0.39554003 0.32868144 0
-1.2321947 -0.39620373 0.46294352 0
-1.0120732 -0.33001933 -0.049769659 0
-1.2438576 -0.42538771 0.20081566 0
-1.2390335 -0.42340282 0.33198747 0
-1.2449027 -0.42581776 0.46878052 0
-1.0079247 -0.34963235 -0.049903557 0
-1.2510527 -0.45326653 0.20268637 0
-1.238254 -0.44781098 0.33355838 0
-1.2367134 -0.44715431 0.46895635 0
-0.99806571 -0.36683235 -0.049824975 0
-1.2606056 -0.48266861 0.20488557 0
-1.2428706 -0.47484371 0.3362622 0
-1.2356561 -0.47166058 0.47119674 0
-1.0016718 -0.39011964 -0.050282829 0
-1.2383654 -0.4981328 0.20338535 0
-1.2406354 -0.49916866 0.33769053 0
-1.2428926 -0.50019872 0.47586226 0
-0.98333979 -0.40342042 -0.049888991 0
-1.2373457 -0.52322084 0.20442073 0
-1.2403656 -0.52464521 0.33958024 0
-1.2356893 -0.5224396 0.47658339 0
-0.97817028 -0.42282751 -0.050022062 0
-1.498554 -0.67632174 0.082687482 0
-1.2393428 -0.5500524 0.20586075 0
-1.2521789 -0.55630517 0.34396967 0
-1.2400416 -0.55039281 0.48066756 0
-0.95747197 -0.43453524 -0.049545188 0
-1.4444563 -0.67939383 0.081005156 0
-1.2313647 -0.57225019 0.20615055 0
-1.2424688 -0.57783335 0.34412244 0
-1.2256614 -0.56938249 0.47952852 0
-0.96455634 -0.46027794 -0.050188459 0
-1.3993973 -0.68582213 0.079676874 0
-1.246509 -0.60652179 0.20927528 0
-1.242305 -0.60434127 0.34627059 0
-0.94578004 -0.47270933 -0.049802177 0
-1.3541136 -0.69107264 0.078333795 0
-1.2360041 -0.62791163 0.20934765 0
-1.2358201 -0.62781316 0.34720847 0
-0.93842399 -0.49112645 -0.049885083 0
-1.3033202 -0.69220984 0.07675945 0
-1.2387918 -0.65665019 0.21108454 0
-1.2408761 -0.65779877 0.35059008 0
-0.92379892 -0.50548857 -0.049679674 0
-1.262081 -0.69749784 0.07556662 0
-1.2419864 -0.68609214 0.21292876 0
-1.2454377 -0.6880511 0.35397145 0
-0.92582154 -0.52941489 -0.050168581 0
-1.2585378 -0.72384423 0.075926453 0
-1.2420518 -0.71421039 0.21444306 0
-1.2376944 -0.71166402 0.35488677 0
-0.90570605 -0.54043365 -0.049751438 0
-1.2515199 -0.74840182 0.076158047 0
-1.2424802 -0.7429654 0.21605863 0
-1.2374624 -0.73994774 0.35745212 0
-0.89622259 -0.55768782 -0.049783181 0
-1.2422814 -0.77178222 0.076311156 0
-1.2337464 -0.76650184 0.21657456 0
-1.2360382 -0.76791972 0.35985994 0
-0.88095152 -0.57129008 -0.049579442 0
-1.2510843 -0.80677348 0.077241309 0
-1.2405204 -0.80005246 0.21910755 0
-1.2433233 -0.80183572 0.36422378 0
-0.88854957 -0.59968179 -0.050356872 0
-1.2507117 -0.83655208 0.07780645 0
-1.2478263 -0.83466488 0.22178383 0
-1.2376733 -0.82802445 0.36592788 0
-0.87585306 -0.61509645 -0.050283212 0
-1.2399304 -0.85981947 0.077944711 0
-1.2396451 -0.85962778 0.22253361 0
-1.2377484 -0.85835272 0.36896187 0
-0.86187685 -0.62956804 -0.050161771 0
-1.2348868 -0.88717276 0.078345783 0
-1.241407 -0.89167577 0.22462946 0
-1.2427783 -0.89262265 0.37319174 0
-0.83950496 -0.63798279 -0.049679693 0
-1.2393707 -0.9216364 0.079182506 0
-1.2364328 -0.91955227 0.22590947 0
-1.6072091 -1.1825706 0.45702428 0
-0.83490074 -0.65892404 -0.049982626 0
-1.2343925 -0.94994229 0.079628065 0
-1.2371324 -0.95193833 0.22800216 0
-1.5752901 -1.1982763 0.45400342 0
-0.82360697 -0.67513263 -0.050001889 0
-1.2330813 -0.98138851 0.080257155 0
-1.2411766 -0.98744315 0.23061796 0
-0.81753242 -0.69536936 -0.050265398 0
-1.2391925 -1.0190977 0.081244163 0
-1.2445695 -1.0232259 0.2332312 0
-0.79614127 -0.70377803 -0.049846884 0
-1.1475453 -0.98066932 0.077819116 0
-1.1593293 -0.98995453 0.22380479 0
-1.1497711 -0.98242313 0.36931264 0
-0.79292905 -0.72650987 -0.050263546 0
-1.1444041 -1.0107027 0.078400381 0
-1.1361119 -1.0039979 0.22279622 0
-1.137414 -1.0050508 0.37011671 0
-0.78186548 -0.74311429 -0.050333597 0
-1.2433542 -1.1259704 0.083740994 0
-1.2330278 -1.1174035 0.23857677 0
-1.3402966 -1.2063949 0.4214333 0
-0.75838459 -0.74921924 -0.049832005 0
-1.2476212 -1.1656058 0.084767967 0
-1.2392215 -1.1584567 0.24192476 0
-1.3268839 -1.2330657 0.42267579 0
-1.0288131 -0.97937948 0.4955928 0
-0.7507658 -0.7687071 -0.050080243 0
-1.2713051 -1.2231603 0.41391703 0
-0.98687732 -0.97484261 0.48673302 0
-0.73939466 -0.78507394 -0.050163172 0
-1.1957705 -1.1937493 0.084034242 0
-1.1992322 -1.1968492 0.24140085 0
-1.1918968 -1.1902804 0.3992601 0
-0.97181368 -0.9932006 0.48695636 0
-0.72744191 -0.8009904 -0.050228801 0
-0.9259187 -0.98327714 0.47658169 0
-0.7114743 -0.81319314 -0.050108083 0
-0.88367879 -0.9753949 0.4673208 0
-0.69095218 -0.82088226 -0.049767394 0
-0.85142028 -0.97588855 0.46145225 0
-0.68681371 -0.84446734 -0.050250586 0
-0.83265388 -0.98893732 0.46035755 0
-0.66575384 -0.85135275 -0.04989386 0
-0.81764531 -1.0056545 0.46067485 0
-0.65365982 -0.86721987 -0.049999103 0
-0.63730907 -0.87865227 -0.049893748 0
-0.6149714 -0.8834191 -0.049477436 0
-0.60318959 -0.89961189 -0.049625307 0
-0.60085511 -0.9268586 -0.050301071 0
-0.58055222 -0.9336012 -0.050012361 0
-0.57222664 -0.95455855 -0.050396204 0
-0.54940206 -0.95790559 -0.049974538 0
-0.53763872 -0.97490448 -0.050189085 0
-0.51665759 -0.98007315 -0.049877074 0
-0.50304037 -0.99478883 -0.050004404 0
-0.4878276 -1.0074581 -0.05004799 0
-0.47121966 -1.0182064 -0.050015692 0
-0.45509923 -1.0296305 -0.050022032 0
-0.43841261 -1.0402204 -0.050001252 0
-0.41998476 -1.0481083 -0.0498746 0
-0.3777442 -0.98307842 0.50088716 0
-0.3950032 -1.0454618 -0.049313921 0
-0.35376328 -0.98018759 0.49577343 0
-0.39383078 -1.0808228 -0.050363306 0
-0.3272326 -0.97241241 0.48891038 0
-0.37013143 -1.0799068 -0.049896993 0
-0.30668712 -0.97365338 0.4857223 0
-0.35241264 -1.0886501 -0.049845118 0
-0.28955305 -0.98029941 0.48473629 0
-0.33735347 -1.1020458 -0.049993433 0
-0.27100533 -0.98429054 0.48282605 0
-0.32725132 -1.1247284 -0.050526395 0
-0.25287545 -0.98875004 0.48119545 0
-0.30064958 -1.1171308 -0.049837101 0
-0.22711654 -0.97857767 0.47415093 0
-0.28738248 -1.1343858 -0.050163649 0
-0.20710398 -0.9784109 0.47101757 0
-0.26710987 -1.1381208 -0.049955435 0
-0.18522973 -0.9739874 0.46641517 0
-0.25023109 -1.1485486 -0.05002401 0
-0.16558661 -0.9733867 0.4633553 0
-0.22903676 -1.1498727 -0.049741767 0
-0.15068169 -0.98237461 0.4639264 0
-0.2163883 -1.1696057 -0.050193008 0
-0.13117965 -0.98131555 0.46089408 0
-0.20007469 -1.1817625 -0.05035276 0
-0.11639597 -0.99047667 0.46167916 0
-0.17821915 -1.1811007 -0.050022837 0
-0.10274203 -1.002471 0.46355078 0
-0.16167118 -1.1928471 -0.050183639 0
-0.071871534 -0.9726271 0.34682816 0
-0.083051696 -1.0000447 0.46029353 0
-0.14506538 -1.2047648 -0.05035824 0
-0.050629959 -0.96456975 0.34290507 0
-0.06944783 -1.0124328 0.46243712 0
-0.12439878 -1.2063162 -0.050144266 0
-0.029766006 -0.95642394 0.14629053 0
-0.032027349 -0.96239537 0.24257895 0
-0.013114436 -0.91245288 0.32705373 0
-0.050285533 -1.0106088 0.45957568 0
-0.10201325 -1.2027183 -0.049745522 0
-0.011447115 -0.95415908 0.14537673 0
-0.0076580183 -0.94375986 0.23789778 0
0.0051361485 -0.90864617 0.32452169 0
-0.088487998 -1.2235818 -0.050284524 0
0.00908144 -0.94494385 0.14370185 0
0.0070580407 -0.95072228 0.23818739 0
0.019562351 -0.91501254 0.32481304 0
-0.0036537482 -0.98131293 0.44510567 0
-0.067174003 -1.222474 -0.050000153 0
0.024104403 -0.95088607 0.14378193 0
0.023341076 -0.95315725 0.23764969 0
0.022492038 -0.95568353 0.33438542 0
0.016531901 -0.9734171 0.4404414 0
-0.048931077 -1.2302558 -0.050060451 0
0.035822317 -0.96715766 0.14504935 0
0.037470862 -0.96204013 0.23837483 0
0.021883504 -1.0104276 0.34770125 0
0.021359878 -1.0120531 0.45214927 0
-0.029540909 -1.2344713 -0.049995884 0
0.023672866 -1.0618637 0.36008021 0
-0.0099342894 -1.237802 -0.049907725 0
0.063297525 -0.98918563 0.33940873 0
0.0062283739 -1.2531736 -0.050275568 0
0.086305454 -0.96812409 0.33262148 0
0.028310942 -1.2474219 -0.049869087 0
0.10327615 -0.96705788 0.3312144 0
0.049035653 -1.2458652 -0.049628682 0
0.11803673 -0.9741413 0.33201331 0
0.068213537 -1.2500267 -0.049608573 0
0.084260091 -1.2679144 -0.05009992 0
0.10551982 -1.2631224 -0.049769294 0
0.12301613 -1.2758901 -0.050088692 0
0.14495604 -1.2662445 -0.049601171 0
-0.065871283 -2.3883276 0.10236195 0
0.16318806 -1.2758232 -0.049821492 0
0.0028128789 -2.1928644 0.095057935 0
0.18186767 -1.2836293 -0.049985569 0
0.032802954 -2.2041545 0.0952776 0
0.20018157 -1.2946957 -0.050275516 0
0.065004125 -2.2016935 0.095014155 0
0.21986498 -1.297245 -0.050266404 0
0.09758462 -2.1951075 0.094617158 0
0.24027961 -1.2938411 -0.050052088 0
0.12857722 -2.1991444 0.094617672 0
0.25964108 -1.2986115 -0.050140921 0
0.15953238 -2.2035682 0.094646119 0
0.27990469 -1.2948414 -0.049932025 0
0.19011518 -2.2120523 0.094834171 0
0.2992017 -1.3007182 -0.050078161 0
0.22380488 -2.1856904 0.09378726 0
0.31914449 -1.299159 -0.049966697 0
0.25317603 -2.2087324 0.094524935 0
0.33878484 -1.3013879 -0.049999777 0
0.28466472 -2.2051988 0.09432479 0
0.35830706 -1.3066773 -0.050151072 0
0.31545731 -2.213511 0.094562322 0
0.37826857 -1.3024583 -0.049971417 0
0.34732488 -2.1957712 0.093882963 0
0.39793095 -1.3062041 -0.050085209 0
0.37842572 -2.1912992 0.093691915 0
0.41765231 -1.3125347 -0.050300114 0
0.43749031 -1.3067727 -0.050092172 0
0.45710191 -1.2957462 -0.049705133 0
0.47699618 -1.3042214 -0.050023295 0
0.49682131 -1.3054461 -0.050091501 0
0.51623338 -1.2980022 -0.049858745 0
0.53616589 -1.3008568 -0.050003015 0
0.55550593 -1.2948644 -0.049839582 0
0.57610893 -1.3038983 -0.050223392 0
0.59526259 -1.2963902 -0.050023235 0
0.61460447 -1.2916781 -0.049931958 0
0.6355018 -1.299427 -0.05029789 0
0.6556893 -1.3003479 -0.050427727 0
0.67441136 -1.2912273 -0.050204195 0
0.69326848 -1.283839 -0.050051428 0
0.71371269 -1.285787 -0.05024568 0
0.73361099 -1.2841926 -0.050320916 0
0.75033945 -1.2670466 -0.049838439 0
0.76879388 -1.2592859 -0.049705438 0
0.78963882 -1.2621424 -0.049969837 0
0.80755764 -1.2523744 -0.04978041 0
0.82607526 -1.2454208 -0.04970251 0
0.84886211 -1.2542363 -0.050216705 0
0.86288786 -1.2312799 -0.049563088 0
0.88235444 -1.2279611 -0.049645808 0
0.90450972 -1.2329679 -0.050049659 0
0.92316455 -1.2264171 -0.050031267 0
0.94527811 -1.2299769 -0.050403256 0
0.95851147 -1.2078906 -0.049815182 0
0.97929853 -1.2073183 -0.050050057 0
0.99541652 -1.1941786 -0.049815144 0
0.92232901 -1.0047902 0.4585942 0
1.0182362 -1.1982116 -0.050247245 0
0.93804747 -0.99796575 0.45839462 0
1.0354459 -1.1879278 -0.050139274 0
0.96030217 -1.0069183 0.4639484 0
1.0519748 -1.1762457 -0.049984768 0
0.97077078 -0.98738891 0.45931891 0
1.069828 -1.1677998 -0.04996397 0
0.98885453 -0.9858281 0.46125445 0
1.0893204 -1.162944 -0.050092947 0
1.0015703 -0.97224468 0.45888144 0
1.1023344 -1.1442444 -0.049685106 0
1.0249436 -0.9814865 0.46496156 0
1.1179599 -1.1315088 -0.04951844 0
1.0404192 -0.97359425 0.46483758 0
1.1399804 -1.1316462 -0.04987378 0
1.066779 -0.9871946 0.47280148 0
1.1547806 -1.1174216 -0.049664043 0
1.0820527 -0.97827786 0.47248927 0
1.1807708 -1.1242698 -0.050315 0
1.0999414 -0.97425801 0.47409797 0
1.1944435 -1.1079793 -0.05003899 0
1.130393 -0.99261039 0.057327982 0
1.1336722 -0.99851698 0.16123536 0
1.1313305 -0.99429899 0.26563683 0
1.133476 -0.99816352 0.37442547 0
1.1288064 -0.98975247 0.48322913 0
1.2113847 -1.097791 -0.050018992 0
1.1427286 -0.97771448 0.057080839 0
1.1450887 -0.9818421 0.16027635 0
1.1436785 -0.97937578 0.26438522 0
1.14309 -0.97834653 0.37122461 0
1.1507939 -0.99182039 0.48741949 0
1.2264361 -1.0844139 -0.049875546 0
1.1678231 -0.9848333 0.05775027 0
1.1666673 -0.98286968 0.16153564 0
1.161036 -0.9733023 0.26500866 0
1.1640352 -0.97839791 0.37391764 0
1.1700581 -0.98863047 0.48971775 0
1.2506529 -1.0863583 -0.050378401 0
1.2625759 -1.0678934 -0.050039504 0
1.2792243 -1.0572423 -0.050035499 0
1.2936319 -1.0431877 -0.049894903 0
1.3096573 -1.031695 -0.049871325 0
1.3306098 -1.0273125 -0.050165448 0
1.3424942 -1.0098693 -0.049900781 0
1.3598866 -1.0002477 -0.049986526 0
1.3766018 -0.98962098 -0.050037913 0
1.3874472 -0.97133392 -0.049753625 0
1.4045306 -0.9612301 -0.049845558 0
1.2057555 -0.71059 0.050424937 0
1.2083199 -0.7138235 0.14017305 0
1.4207941 -0.95001107 -0.049896952 0
1.2106404 -0.69177008 0.050010357 0
1.2039413 -0.68353814 0.13734095 0
1.4354961 -0.93686038 -0.049868532 0
1.2086502 -0.66516829 0.049232312 0
1.210537 -0.66742796 0.1364558 0
1.4459239 -0.9187457 -0.049615111 0
1.2085261 -0.64158499 0.048586547 0
1.2114516 -0.64500058 0.13467887 0
1.4636186 -0.90916795 -0.049770787 0
1.200408 -0.60958964 0.047533762 0
1.2032597 -0.61283529 0.13149072 0
1.490253 -0.90934175 -0.050407536 0
1.2066956 -0.59468555 0.047285467 0
1.2059623 -0.59387189 0.13016129 0
1.4983667 -0.88881058 -0.05006139 0
1.5067647 -0.86892956 -0.049748063 0
1.5269496 -0.86148697 -0.050055411 0
1.5432292 -0.84981507 -0.050166175 0
1.5491333 -0.8278802 -0.049764797 0
1.571004 -0.82156223 -0.050169691 0
1.5802028 -0.80306381 -0.049955934 0
1.5946013 -0.78948015 -0.050006494 0
1.6115972 -0.77814144 -0.050188482 0
1.6231791 -0.76196223 -0.050120082 0
1.6392239 -0.74959201 -0.050270069 0
1.6435639 -0.7274943 -0.049885597 0
1.6536916 -0.71035951 -0.049782131 0
1.6665689 -0.69545174 -0.049813837 0
1.6877931 -0.6868372 -0.050227582 0
1.6889184 -0.66301996 -0.049750466 0
1.7039688 -0.64962387 -0.049903173 0
1.7195872 -0.63649005 -0.050086677 0
1.7283667 -0.61853611 -0.049980342 0
1.7423013 -0.60408658 -0.050105445 0
1.7495593 -0.58522123 -0.049953636 0
1.7525049 -0.5637731 -0.049631331 0
1.7711575 -0.55216867 -0.049979679 0
1.7738909 -0.53083736 -0.049670819 0
1.7950505 -0.52036649 -0.05013445 0
1.8063432 -0.5039987 -0.050196622 0
1.8191128 -0.48837927 -0.050326768 0
1.8162475 -0.46441767 -0.049833141 0
1.8277452 -0.44817898 -0.049930599 0
1.8487269 -0.43655404 -0.050413411 0
1.8506099 -0.41539291 -0.050142996 0
1.8593911 -0.39763907 -0.050156165 0
1.8645903 -0.3782641 -0.050037861 0
1.8709586 -0.35948381 -0.049975216 0
1.8778453 -0.34096512 -0.049942151 0
1.8912309 -0.32509449 -0.050168499 0
1.8931242 -0.30457249 -0.049961098 0
1.9049579 -0.28793201 -0.050143581 0
1.9150442 -0.27052096 -0.050266884 0
1.921039 -0.25159624 -0.050243359 0
1.9322181 -0.23440997 -0.050423972 0
1.9266199 -0.2117403 -0.049983338 0
1.9249194 -0.19058047 -0.04970054 0
1.9390852 -0.17424454 -0.050018679 0
1.9455454 -0.15553389 -0.050057836 0
1.9500908 -0.13628586 -0.050034869 0
1.9450396 -0.11464656 -0.04966772 0
1.9641405 -0.099000223 -0.050197866 0
1.9614093 -0.078077354 -0.049934994 0
1.9566485 -0.05691294 -0.049608391 0
1.9701365 -0.039587688 -0.049956426 0
1.9777144 -0.02091844 -0.050097018 0
1.9744931 -0.0002918051 -0.049854655 0
1.983165 0.018277396 -0.050052084 0
1.9868975 0.037710775 -0.050079383 0
1.9841565 0.058027629 -0.049882315 0
1.996122 0.076439999 -0.050223574 0
1.9890122 0.097147025 -0.049887773 0
1.9896129 0.11688898 -0.04983823 0
1.9848078 0.13704242 -0.049604006 0
2.0021701 0.15549576 -0.050172377 0
1.9974595 0.1756058 -0.049959365 0
2.0046611 0.19504328 -0.050181217 0
2.0058608 0.21482943 -0.050197341 0
2.00284 0.23470984 -0.050071653 0
2.0050347 0.2544719 -0.050141111 0
2.0010924 0.27424744 -0.05000037 0
2.0014267 0.2940076 -0.050021186 0
1.9979477 0.31366551 -0.049914684 0
2.0026548 0.33361238 -0.050109517 0
1.9957342 0.35304046 -0.049897667 0
2.0029538 0.37330273 -0.050200429 0
2.0032794 0.39321691 -0.050265685 0
2.0001798 0.41285604 -0.05021717 0
1.9886858 0.43156204 -0.049876053 0
1.9884161 0.45137793 -0.049946483 0
1.991611 0.47170788 -0.050150797 0
1.9903593 0.49153817 -0.050204281 0
1.9784876 0.50972438 -0.049883001 0
1.9879737 0.53134978 -0.050342966 0
1.9785666 0.54981995 -0.050127961 0
1.9788677 0.57005787 -0.050274171 0
1.9802226 0.59062654 -0.050468512 0
1.9592731 0.60634303 -0.049856838 0
1.9544884 0.62545443 -0.04984371 0
1.9501084 0.64466089 -0.049854275 0
1.9489064 0.66471732 -0.049991142 0
1.9403926 0.68284798 -0.049866922 0
1.9372073 0.70244193 -0.049948849 0
1.9245287 0.7192055 -0.049685959 0
1.9263295 0.74039191 -0.049972456 0
1.9187682 0.75868076 -0.049917929 0
1.9138306 0.77784169 -0.049970988 0
1.9049578 0.79562587 -0.049884066 0
1.9064471 0.81723475 -0.050200362 0
1.892146 0.83293557 -0.049923617 0
1.8856503 0.85158342 -0.04995361 0
1.8849436 0.87268227 -0.050216898 0
1.8697643 0.88770998 -0.049928743 0
1.8581674 0.90412593 -0.049786523 0
1.8586961 0.92606074 -0.05012881 0
1.8456964 0.9417817 -0.049948469 0
1.84084 0.96139467 -0.050099239 0
1.822883 0.97443992 -0.049735684 0
1.8110346 0.99041623 -0.0496228 0
1.8160753 1.0154744 -0.050203379 0
1.8061826 1.0326531 -0.050190054 0
1.7937195 1.048344 -0.050079614 0
1.7811575 1.0638894 -0.049972408 0
1.7769749 1.0844613 -0.050222959 0
1.7634161 1.0993629 -0.050091192 0
1.7530712 1.1162308 -0.050102841 0
1.7422017 1.1327646 -0.050101172 0
1.7282037 1.1471691 -0.049973298 0
1.7114754 1.1595563 -0.049733181 0
1.706791 1.1803968 -0.050027262 0
1.6978174 1.198333 -0.050145358 0
1.6811583 1.2105536 -0.049930386 0
1.6730245 1.2292171 -0.050105818 0
1.6688578 1.2512094 -0.050474923 0
1.6479645 1.2598428 -0.050088674 0
1.6359735 1.2756048 -0.050118495 0
1.6328675 1.2990577 -0.050576739 0
1.6041365 1.3002888 -0.049832936 0
1.5969208 1.3203279 -0.05011829 0
1.5782778 1.3300176 -0.049862076 0
1.5785254 1.3574808 -0.050540786 0
1.5492979 1.3567854 -0.049773019 0
1.5354508 1.3707564 -0.049772833 0
1.525456 1.3886945 -0.049978901 0
1.5094017 1.4004557 -0.049884912 0
1.0239257 0.8882798 0.29199994 0
1.5011044 1.4205168 -0.050205387 0
1.0448346 0.92684966 0.3061223 0
1.4826118 1.4296067 -0.050000031 0
1.4355577 1.3773921 0.059490651 0
1.431655 1.3730614 0.16639295 0
1.4452553 1.3881532 0.27882597 0
1.056579 0.9568491 0.31612846 0
1.4657248 1.4403094 -0.04988471 0
1.4194558 1.3876473 0.059382025 0
1.4205239 1.3888631 0.16686641 0
1.4090145 1.3757634 0.27281177 0
1.0519444 0.96935689 0.31821224 0
1.4512726 1.4537344 -0.049908649 0
1.3889515 1.3809749 0.058488429 0
1.3935421 1.3863343 0.16476092 0
1.3869188 1.3786017 0.27058709 0
1.0638367 1.001405 0.32885909 0
1.4389534 1.4697453 -0.050061114 0
1.366926 1.3834784 0.0580489 0
1.3694749 1.3865312 0.16310687 0
1.3693125 1.3863368 0.26960188 0
1.0575386 1.0129268 0.33043304 0
1.4192129 1.4768122 -0.049807522 0
1.3412621 1.3810248 0.057398513 0
1.3415653 1.3813971 0.16077323 0
1.3467196 1.3877311 0.26720417 0
1.0579458 1.0328802 0.33564171 0
1.4108602 1.4979552 -0.050209217 0
1.3206729 1.384236 0.057027508 0
1.3222579 1.3862346 0.15987897 0
1.3256607 1.3905253 0.26521835 0
1.0592376 1.0545863 0.34154075 0
1.3906848 1.5042678 -0.049942657 0
1.2917444 1.3762326 0.056165863 0
1.2979329 1.3842409 0.15809874 0
1.2947553 1.380129 0.26030603 0
1.047356 1.059979 0.34051672 0
1.3769394 1.5188136 -0.050057951 0
1.2687997 1.3751717 0.055638939 0
1.2794785 1.3893564 0.15733305 0
1.280377 1.3905498 0.26022768 0
1.0353575 1.0650907 0.33944795 0
1.358032 1.5264628 -0.049874555 0
1.2572628 1.3890438 0.055790827 0
1.2556835 1.3868901 0.15559509 0
1.2464957 1.3743608 0.25423968 0
1.0321833 1.0821027 0.34336117 0
1.3438629 1.5405301 -0.049984857 0
1.2462801 1.4038812 0.055990092 0
1.2402434 1.3954278 0.15536562 0
1.2471128 1.4050472 0.25878844 0
1.0176044 1.0836574 0.3409366 0
1.3308264 1.5563681 -0.05017899 0
1.2423147 1.4290625 0.056643445 0
1.2473338 1.4362812 0.15939359 0
1.2480162 1.4372629 0.26363179 0
1.0111446 1.0965719 0.34321097 0
1.3128053 1.5650908 -0.050071847 0
1.2431111 1.4621073 0.057632402 0
1.2499001 1.4721391 0.16272749 0
1.2429762 1.461908 0.26678291 0
1.0049868 1.1102433 0.34580287 0
1.2986906 1.5796134 -0.050223265 0
1.2487892 1.5038384 0.058984075 0
1.2459501 1.4995273 0.16493981 0
1.2346222 1.482326 0.26900899 0
1.1692959 1.3831283 0.34776467 0
0.99919385 1.1248292 0.34876868 0
1.2795389 1.5864774 -0.050056316 0
1.2428024 1.5291342 0.059625003 0
1.2447864 1.5322312 0.16781917 0
1.2258432 1.5026621 0.27122226 0
1.1493632 1.3832818 0.34502727 0
0.98079216 1.1201535 0.3441292 0
1.2581402 1.5895181 -0.049740031 0
1.2437234 1.566378 0.060766686 0
1.2455453 1.5693024 0.17123091 0
1.204559 1.5035163 0.26930219 0
1.1285735 1.381554 0.34182146 0
0.97851241 1.1406946 0.34950161 0
1.2471168 1.6092644 -0.050134718 0
1.1920478 1.5183433 0.27039957 0
1.1077536 1.3791707 0.33852288 0
0.9615398 1.1377661 0.34571567 0
0.84328973 0.94253087 0.47619867 0
1.2222346 1.6060199 -0.049579836 0
1.1715097 1.519841 0.26873252 0
1.0897301 1.3809015 0.33654454 0
0.95256317 1.1478615 0.34706837 0
0.84175009 0.9595955 0.48441973 0
1.217924 1.6379722 -0.05048934 0
1.1644437 1.5444374 0.27193004 0
1.0720541 1.382852 0.33471191 0
0.94704461 1.1642152 0.35085323 0
0.84862745 0.99208772 0.35307398 0
0.83883423 0.97495973 0.4155485 0
0.84303755 0.98231119 0.49645561 0
1.1970905 1.6414914 -0.050233684 0
1.1447161 1.5471536 0.27061033 0
1.0556576 1.3867395 0.33352247 0
0.93315411 1.1660838 0.34912628 0
0.85114831 1.0183734 0.36306822 0
0.84476101 1.0068684 0.43091375 0
0.83737403 0.99356276 0.50062037 0
1.1775839 1.6470995 -0.050075144 0
1.1241204 1.5478762 0.26894215 0
1.0331858 1.3791102 0.32906339 0
0.92526674 1.1788224 0.35158527 0
0.85050559 1.0400727 0.37082294 0
0.84035599 1.0212361 0.4361631 0
0.83686256 1.0147525 0.51150006 0
1.1613406 1.6587163 -0.050169628 0
1.1092583 1.5590721 0.26946917 0
1.0166681 1.3819275 0.32772267 0
0.91074294 1.1792703 0.34945166 0
0.84744102 1.0581604 0.3768433 0
0.84136879 1.0465429 0.44758537 0
0.84246027 1.0486312 0.5308038 0
1.1418792 1.6641372 -0.050023742 0
1.091655 1.5650277 0.26897129 0
1.0031906 1.390457 0.32808402 0
0.89465994 1.1762887 0.34612095 0
0.84928805 1.0867544 0.38771996 0
0.83919895 1.0668451 0.45612058 0
0.83738202 1.0632597 0.53713942 0
1.1267252 1.6781039 -0.050228424 0
1.0733991 1.5695031 0.26822379 0
0.9811281 1.3815894 0.32354671 0
0.88467091 1.1851505 0.34727564 0
0.84708422 1.1086036 0.39540777 0
0.83875221 1.0916351 0.46712002 0
0.83910924 1.0923623 0.55304104 0
1.1066664 1.6820991 -0.050045259 0
0.96259969 1.3791174 0.32092199 0
0.87581021 1.1965933 0.34942079 0
0.84009725 1.1214867 0.3989518 0
0.84220868 1.1259271 0.48332125 0
0.84087265 1.1231173 0.56991869 0
1.0883292 1.6895341 -0.05000829 0
0.94670957 1.381765 0.31981599 0
0.86350924 1.2009532 0.34900054 0
0.84142554 1.1529607 0.41098878 0
0.84013766 1.1501619 0.49386567 0
0.83950841 1.1487943 0.58336926 0
1.0676883 1.6917356 -0.049776077 0
0.92531037 1.3717695 0.31524163 0
0.85276729 1.2087433 0.34988832 0
0.83615935 1.1714205 0.41705313 0
0.84428036 1.1896707 0.51273018 0
0.84082943 1.1819154 0.60158783 0
1.0552473 1.7126007 -0.050280534 0
0.91100252 1.3771297 0.3150315 0
0.84624946 1.2265331 0.35444173 0
0.84053355 1.2132396 0.43364248 0
0.83996123 1.2119086 0.52205801 0
0.83739084 1.2059305 0.613819 0
1.0295556 1.7024831 -0.049590793 0
0.89907622 1.3881789 0.31644395 0
0.85254872 1.2761015 0.37044847 0
0.84270447 1.2523881 0.44892338 0
0.83736843 1.2395344 0.53428572 0
0.83829033 1.2417551 0.63359743 0
1.0149173 1.7186676 -0.049928505 0
0.88122964 1.3848255 0.31393242 0
0.84952748 1.3056595 0.37917492 0
0.84086472 1.2840271 0.46076593 0
0.84034359 1.2827257 0.5548588 0
0.83853072 1.2781986 0.65366441 0
0.99508572 1.7220656 -0.049782339 0
0.86330378 1.380585 0.31125206 0
0.84693474 1.3381686 0.38892508 0
0.83999741 1.3201923 0.47457016 0
0.83635074 1.3107429 0.56717402 0
0.83738083 1.3134121 0.67285037 0
0.97907722 1.735467 -0.050027374 0
0.84846121 1.383891 0.31069973 0
0.84790283 1.382388 0.40279746 0
0.8437131 1.3711106 0.49483097 0
0.84135759 1.3647703 0.59334183 0
0.83938688 1.3594657 0.69881409 0
0.95873541 1.7372617 -0.049838945 0
0.83115244 1.3801388 0.3082884 0
0.8394289 1.4033056 0.40837106 0
0.84021473 1.4055053 0.50771552 0
0.83706141 1.3966788 0.60760659 0
0.94196075 1.7490529 -0.050038334 0
0.82215893 1.3998948 0.31228733 0
0.84208924 1.457981 0.42583194 0
0.84138256 1.4559214 0.52757686 0
0.84034806 1.4529065 0.6347028 0
0.92405349 1.7578624 -0.050132789 0
1.0302359 2.0805049 0.35081881 0
0.7998541 1.380474 0.30577755 0
0.84087491 1.5051186 0.4405688 0
0.83980191 1.5018581 0.5453971 0
0.83840781 1.497622 0.65560114 0
0.9013499 1.7516873 -0.049674403 0
1.0054495 2.0819488 0.34969595 0
0.78265667 1.3751271 0.3031337 0
0.83894283 1.5536977 0.4557555 0
0.83971852 1.5561587 0.56678641 0
0.84169704 1.5624357 0.68697321 0
0.88665181 1.7709626 -0.050177429 0
0.98648846 2.1021888 0.35217682 0
0.76917785 1.3812213 0.30360639 0
0.83920288 1.6135422 0.47480762 0
0.83885789 1.6123976 0.58893335 0
0.86838287 1.7791218 -0.050272565 0
0.95936692 2.0953341 0.34960878 0
0.75469702 1.3840104 0.30324507 0
0.83990824 1.6801592 0.49613431 0
0.8385551 1.6754563 0.61394304 0
0.84778881 1.7790654 -0.050071776 0
0.74346554 1.3985257 0.047984742 0
0.73719835 1.3756649 0.12983648 0
0.73739249 1.3763729 0.21394755 0
0.74191821 1.3928815 0.30454227 0
0.83680189 1.7389885 0.51469785 0
0.83600992 1.7360996 0.63783127 0
0.82866341 1.7840947 -0.050068855 0
0.7248323 1.3857454 0.047372103 0
0.72436315 1.3839456 0.13033989 0
0.72508162 1.3867021 0.21517366 0
0.7234264 1.3803517 0.30023524 0
0.82901055 1.7854265 0.52895385 0
0.83299345 1.8007069 0.66335106 0
0.80862123 1.7854204 -0.049938615 0
0.70829546 1.3796533 0.047015984 0
0.70657474 1.3726939 0.12869732 0
0.70816326 1.3791188 0.21309708 0
0.70937914 1.3840363 0.3002643 0
0.82845527 1.8656389 0.55477417 0
0.8246699 1.850329 0.68241656 0
0.79030949 1.7937536 -0.050074954 0
0.69448572 1.3841265 0.04705593 0
0.69474024 1.3852146 0.12970811 0
0.6947608 1.3853025 0.21361601 0
0.69451416 1.3842483 0.29942974 0
0.81407505 1.8953466 0.56326467 0
0.7727198 1.8058197 -0.050355833 0
0.67933059 1.3826445 0.04688441 0
0.6810832 1.3905863 0.12994574 0
0.67861724 1.3794123 0.21193479 0
0.68014085 1.3863162 0.29913145 0
0.80545247 1.9541414 0.58170342 0
0.75260675 1.8067167 -0.050236817 0
0.6627931 1.3739173 0.046456128 0
0.66565239 1.3876958 0.1292948 0
0.66531736 1.3860813 0.21260875 0
0.66301721 1.3749973 0.29539293 0
0.79222202 1.9976169 0.5949257 0
0.73053014 1.7970902 -0.049744584 0
0.6524663 1.395564 0.047141172 0
0.65186238 1.3924576 0.12950455 0
0.64900553 1.3777633 0.21055835 0
0.64854747 1.3754075 0.29476818 0
0.77750909 2.0387292 0.60737133 0
0.71157724 1.802758 -0.049818501 0
0.63554156 1.3835549 0.046608221 0
0.63735694 1.3935635 0.12933348 0
0.63312072 1.3702081 0.2086902 0
0.63528305 1.3821298 0.29582885 0
0.7623778 2.0828335 0.6208629 0
0.69392842 1.816502 -0.050193302 0
0.61965007 1.3754315 0.046224795 0
0.6205833 1.380973 0.12769003 0
0.62228805 1.3910961 0.21206449 0
0.62025785 1.3790404 0.29439202 0
0.74817276 2.1386089 0.63832778 0
0.67245513 1.8073896 -0.049749609 0
0.60575914 1.3784293 0.046251163 0
0.60701382 1.3864986 0.12804312 0
0.60656631 1.3836205 0.21028031 0
0.60771543 1.391011 0.29689535 0
0.72694206 2.1578267 0.64351022 0
0.65593553 1.8308189 -0.050489999 0
0.59307432 1.3900321 0.046594124 0
0.59268498 1.3873019 0.12790149 0
0.59129512 1.3775561 0.20879255 0
0.59358126 1.3935864 0.29701367 0
0.70673436 2.1870236 0.65212685 0
0.63303202 1.8091418 -0.049612816 0
0.57850659 1.3890239 0.04648827 0
0.577645 1.3823851 0.1271598 0
0.57747531 1.3810778 0.20908551 0
0.57728529 1.3796136 0.29292023 0
0.689587 2.2448969 0.67043537 0
0.61548841 1.8279774 -0.050203525 0
0.56294137 1.3788674 0.046060342 0
0.56482655 1.3949796 0.12833445 0
0.56432843 1.3907225 0.21052153 0
0.56315237 1.3806708 0.29274637 0
0.66859066 2.2818325 0.68177587 0
0.59513152 1.8238773 -0.049978115 0
0.55159575 1.4062951 0.12938683 0
0.55196589 1.4098458 0.21370438 0
0.55249745 1.4149443 0.30113885 0
0.64530182 2.3050957 0.68861669 0
0.57554793 1.8265145 -0.050003696 0
0.55187225 1.5678898 0.1466739 0
0.55163115 1.565256 0.24159373 0
0.55299515 1.5801561 0.34310234 0
0.62132603 2.3265786 0.69495291 0
0.55583692 1.8278059 -0.049989898 0
0.60384035 2.4365122 0.24016315 0
0.59873515 2.3717759 0.3872475 0
0.59716022 2.3518054 0.54022455 0
0.53579944 1.8240658 -0.049804967 0
0.574054 2.4018993 0.39234412 0
0.5738976 2.3995371 0.55194139 0
0.5165295 1.8322737 -0.050056357 0
0.54872012 2.4332201 0.3977097 0
0.54829043 2.4251988 0.55808645 0
0.49660259 1.828849 -0.049900644 0
0.52166814 2.4409986 0.39888072 0
0.52232563 2.4570568 0.56589282 0
0.47699577 1.8329513 -0.050022781 0
0.45636782 1.1050744 0.35422075 0
0.45654029 1.1111598 0.42985204 0
0.45706141 1.8219184 -0.049613301 0
0.44586006 1.1103626 0.35631388 0
0.44591102 1.1136 0.43095553 0
0.43743464 1.8178418 -0.049461145 0
0.43511963 1.0827322 0.41546053 0
0.43513754 1.0884228 0.49470398 0
0.417779 1.8278624 -0.049821105 0
0.42469192 1.0957652 0.42199799 0
0.42488477 1.0753416 0.48696527 0
0.39816016 1.8245476 -0.049713802 0
0.41411743 1.1004493 0.3522501 0
0.4140515 1.1034403 0.42592147 0
0.4144074 1.0872908 0.49414873 0
0.37798211 1.8394724 -0.050266836 0
0.35253465 2.5741143 0.42280886 0
0.35243988 2.5768504 0.59634107 0
0.40483412 1.0642827 0.48066983 0
0.35816145 1.8385037 -0.050261233 0
0.32234964 2.5963919 0.427046 0
0.32264018 2.5902436 0.6000663 0
0.39575091 1.0429941 0.4682754 0
0.33834064 1.8375506 -0.050265104 0
0.29134288 2.6224172 0.43203211 0
0.2917105 2.6162782 0.60712135 0
0.31873947 1.8334879 -0.050166596 0
0.26155683 2.6219225 0.43229792 0
0.26020971 2.6404965 0.61381769 0
0.29914138 1.8301704 -0.05010353 0
0.35546228 1.1691023 0.038417049 0
0.22959706 2.6464486 0.43716073 0
0.22926372 2.6503613 0.61694747 0
0.27977949 1.8248645 -0.049977902 0
0.19694072 2.671073 0.44212016 0
0.19767269 2.6635957 0.62104475 0
0.26074255 1.8173987 -0.049783271 0
0.16544496 2.678864 0.44410676 0
0.16706176 2.6642487 0.6220203 0
0.34686473 1.0388763 0.46812004 0
0.24156186 1.8121932 -0.049678259 0
0.13424067 2.6819885 0.44532043 0
0.13463758 2.678772 0.62666196 0
0.22170508 1.8124779 -0.049779583 0
0.10254492 2.6874299 0.44702935 0
0.10191302 2.6920695 0.63110107 0
0.20178089 1.812709 -0.049888179 0
0.069378451 2.7010875 0.45031235 0
0.068967298 2.703846 0.63526231 0
0.1807508 1.8192707 -0.050235011 0
0.036695376 2.7088616 0.4526034 0
0.036947235 2.7073064 0.63738978 0
0.16228996 1.8097029 -0.050007615 0
0.0038488375 2.7156849 0.45480067 0
0.003498541 2.7176881 0.64141893 0
0.14057504 1.8183059 -0.050448187 0
-0.03091271 2.7310123 0.45863947 0
-0.029189302 2.7218399 0.64394963 0
0.12286706 1.8053761 -0.050115705 0
-0.087641552 2.8529072 0.10026158 0
-0.089658812 2.8629453 0.29084998 0
-0.062881187 2.7296951 0.45950657 0
-0.061729029 2.7239616 0.64606541 0
0.10601918 1.7895342 -0.049684133 0
-0.11232574 2.8094044 0.098919906 0
-0.1129116 2.8121412 0.28601164 0
-0.090619996 2.708019 0.45669529 0
-0.09555681 2.7310784 0.64959687 0
0.08595486 1.7892025 -0.049826939 0
-0.14059742 2.7859311 0.098319069 0
-0.141495 2.7898803 0.2843374 0
-0.12794019 2.7302451 0.46206012 0
-0.12957503 2.7374375 0.65305161 0
0.067419663 1.7820706 -0.049729742 0
-0.17278768 2.7805357 0.098393284 0
-0.17466791 2.7883513 0.28498948 0
-0.16162492 2.7341359 0.46412712 0
-0.16185428 2.7350891 0.65434408 0
0.045394525 1.7889481 -0.050156839 0
-0.21329828 2.807672 0.099680923 0
-0.20883907 2.7901118 0.28605458 0
-0.19552679 2.7376885 0.46621671 0
-0.19519408 2.7363782 0.65670502 0
0.026159363 1.7842128 -0.050166458 0
-0.2521804 2.8251817 0.10063598 0
-0.25435412 2.8333113 0.29178098 0
-0.22761168 2.7332966 0.46690971 0
-0.22654052 2.7292905 0.65697241 0
0.0086923707 1.7731467 -0.049950309 0
-0.26200396 2.7367418 0.4691489 0
-0.2613377 2.73437 0.66056943 0
-0.011038614 1.7702953 -0.050047256 0
-0.29331183 2.728591 0.46929747 0
-0.29410172 2.7312727 0.66212147 0
-0.028656883 1.7603481 -0.049888756 0
-0.32573801 2.7239797 0.47018892 0
-0.32752383 2.7297723 0.6642158 0
-0.045624569 1.7487357 -0.049675457 0
-0.36020881 2.7252929 0.47228372 0
-0.3587712 2.7208302 0.66443652 0
-0.065444633 1.7460726 -0.049806353 0
-0.39165378 2.7166686 0.47257912 0
-0.39085948 2.7143054 0.66541451 0
-0.088025585 1.7510054 -0.050234571 0
-0.42559129 2.7150226 0.47428471 0
-0.42134768 2.7029035 0.66518742 0
-0.10505958 1.7398231 -0.050063208 0
-0.45768845 2.7076144 0.47497404 0
-0.45495546 2.7001138 0.66740191 0
-0.12161608 1.7277123 -0.049863748 0
-0.48727804 2.6932986 0.47441223 0
-0.48767066 2.6943352 0.66892666 0
-0.14263351 1.7273237 -0.050120957 0
-0.51902151 2.6846611 0.47502011 0
-0.52008027 2.6873541 0.67024201 0
-0.15741439 1.7111521 -0.049781155 0
-0.55226433 2.6794622 0.47637844 0
-0.55331403 2.6820362 0.67213464 0
-0.17632253 1.7053564 -0.049848869 0
-0.58178675 2.6649575 0.47600386 0
-0.58442283 2.671196 0.6726234 0
-0.19572975 1.7005743 -0.049965713 0
-0.61240029 2.6530645 0.47621429 0
-0.60890937 2.6450844 0.66897088 0
-0.21928234 1.7047451 -0.050443612 0
-0.64225531 2.6394117 0.47615364 0
-0.64245784 2.6398592 0.6712327 0
-0.23096694 1.682743 -0.049904395 0
-0.67141199 2.6242735 0.47587153 0
-0.67134142 2.6241229 0.6706658 0
-0.25044137 1.6777279 -0.050041262 0
-0.69506025 2.5978153 0.47339359 0
-0.69916523 2.6063099 0.66960984 0
-0.26381576 1.6602618 -0.049691979 0
-0.72691202 2.5885646 0.47442794 0
-0.7288785 2.5925066 0.66978997 0
-0.28733188 1.6630317 -0.0501597 0
-0.75462079 2.5709374 0.47385108 0
-0.7581706 2.5778346 0.66982907 0
-0.30244243 1.6492531 -0.049973637 0
-0.78621233 2.5607872 0.47486797 0
-0.78381443 2.5562692 0.66798353 0
-0.32173634 1.6433898 -0.050116092 0
-0.8087703 2.5338147 0.47251529 0
-0.81184423 2.5394347 0.66759461 0
-0.34065062 1.6366417 -0.05023323 0
-0.6158452 2.1250594 0.082247742 0
-0.83500099 2.5140188 0.47169012 0
-0.84495938 2.5316932 0.66996878 0
-0.35404801 1.6202133 -0.04996147 0
-0.61672843 2.072994 0.080649696 0
-0.8620851 2.4959137 0.47128001 0
-0.85937595 2.4912438 0.66283542 0
-0.37508398 1.6169453 -0.050241876 0
-0.62268448 2.0316143 0.079484403 0
-0.88898361 2.4775991 0.47089419 0
-0.88685906 2.474041 0.66260976 0
-0.38571131 1.59635 -0.049809512 0
-0.62017846 1.9780226 0.077801488 0
-0.91736603 2.4617932 0.47110781 0
-0.90961444 2.4491751 0.660191 0
-0.39980632 1.5818083 -0.049634967 0
-0.61485553 1.9221867 0.07600905 0
-0.93727517 2.4325104 0.46852407 0
-0.93829179 2.4341197 0.66079974 0
-0.43015724 1.5925133 -0.050541308 0
-0.62144327 1.8870015 0.075078182 0
-0.96172643 2.4108732 0.46761703 0
-0.96186268 2.411083 0.65909475 0
-0.43208176 1.5594816 -0.049594183 0
-0.61938202 1.8400364 0.073637344 0
-0.98340702 2.3853047 0.46591634 0
-0.98302412 2.3847311 0.65644908 0
-0.4509939 1.55239 -0.049762931 0
-0.6202724 1.7991639 0.072446659 0
-0.99881911 2.3510089 0.46235165 0
-0.99763584 2.3492839 0.65104854 0
-0.47078973 1.5463405 -0.049989045 0
-0.62659299 1.7674494 0.071645819 0
-1.0168735 2.3213179 0.45981383 0
-1.0248731 2.3326707 0.65153539 0
-0.48693383 1.5349673 -0.049993563 0
-0.61828434 1.7164763 0.069992438 0
-0.61943257 1.7180631 0.19884284 0
-1.0362717 2.29408 0.45784923 0
-1.0459255 2.3074203 0.64941406 0
-0.077032939 0.96853811 0.44089809 0
-0.50330418 1.523888 -0.050020196 0
-0.61217487 1.6704124 0.068537243 0
-0.61803615 1.6783009 0.195308 0
-1.0692972 2.2856338 0.460143 0
-1.0636683 2.2780581 0.6460498 0
-0.088455632 0.96556103 0.44307658 0
-0.51405656 1.5054072 -0.04972396 0
-0.61465371 1.6372947 0.067645863 0
-0.61433041 1.636871 0.1915113 0
-1.0803812 2.247885 0.45590624 0
-1.0774087 2.243988 0.64121372 0
-0.095191255 0.95625532 0.44138378 0
-0.53701866 1.5028566 -0.050153177 0
-0.61472058 1.6021103 0.066653363 0
-0.62134635 1.610574 0.18973608 0
-1.0992086 2.2209787 0.45414278 0
-1.0971094 2.2182975 0.63910073 0
-0.10629304 0.95266223 0.44335774 0
-0.55718166 1.4963334 -0.050418004 0
-0.61791134 1.5719268 0.065879829 0
-0.62048101 1.5751253 0.18669333 0
-1.1164339 2.1924636 0.45204374 0
-1.1157432 2.1916039 0.63671869 0
-0.12912376 0.96350729 0.45470753 0
-0.57009172 1.4807127 -0.050276369 0
-0.62119067 1.542703 0.065144479 0
-0.61439872 1.5344634 0.18289125 0
-1.1300787 2.160058 0.44906393 0
-1.1313897 2.1616485 0.6333105 0
-0.1393844 0.95820218 0.45588923 0
-0.58111882 1.4630153 -0.050043687 0
-0.61924422 1.508098 0.06415157 0
-0.6089716 1.4959508 0.17934027 0
-1.147355 2.1325831 0.44725722 0
-1.1457263 2.1306572 0.62958527 0
-0.15197565 0.95555812 0.45891142 0
-0.59720457 1.4513947 -0.050102182 0
-0.62382329 1.4820789 0.063552409 0
-0.62628078 1.4849118 0.17964937 0
-1.1578397 2.0976567 0.44370329 0
-1.1533059 2.0924306 0.62343597 0
-0.60451365 1.4298439 -0.049696412 0
-0.63359916 1.4625311 0.063258491 0
-0.63018 1.4586885 0.17780878 0
-1.1691121 2.0643549 0.44053316 0
-1.1753573 2.0713737 0.62311345 0
-0.62027645 1.4179761 -0.049758397 0
-0.65808737 1.4594066 0.063760899 0
-0.64877546 1.4492033 0.17838937 0
-1.1770086 2.0280037 0.4366163 0
-1.1774836 2.0285239 0.61535519 0
-0.64176095 1.4121528 -0.050126337 0
-0.5095697 1.2709203 0.055220086 0
-0.68747818 1.4609969 0.18214336 0
-1.191267 1.9992424 0.43455237 0
-1.1921151 2.0001485 0.61257237 0
-0.64690411 1.388926 -0.049650814 0
-0.50928378 1.2455548 0.054555804 0
-0.71118855 1.4558967 0.18349855 0
-1.197562 1.9625944 0.43053636 0
-1.2020657 1.9672863 0.60823369 0
-0.66691458 1.3812761 -0.049952935 0
-0.50982535 1.221694 0.053958438 0
-0.74267352 1.4582372 0.18603742 0
-1.2102381 1.9332215 0.42833129 0
-1.2033622 1.9262364 0.60095435 0
-0.68512464 1.3715383 -0.050165705 0
-0.52322662 1.2111614 0.054029908 0
-0.76771581 1.4533535 0.18756576 0
-1.2158829 1.8973099 0.42446306 0
-1.2222923 1.903659 0.60028452 0
-0.69249439 1.3511162 -0.049843945 0
-0.53865314 1.2025112 0.05420766 0
-0.81175923 1.4663215 0.19192404 0
-1.2247123 1.8652189 0.42155421 0
-1.2243049 1.8648255 0.5937233 0
-0.71414852 1.3444561 -0.050239239 0
-0.57297027 1.2114784 0.055315178 0
-0.83846474 1.4615513 0.19364697 0
-1.2222871 1.8230788 0.41599202 0
-1.2218093 1.8226289 0.5858317 0
-0.72412705 1.3266902 -0.050068121 0
-0.86672771 1.4576586 0.068980508 0
-0.87329292 1.4636883 0.19654417 0
-1.2357087 1.7965412 0.41450489 0
-1.2305011 1.7917583 0.58209133 0
-0.23237701 0.87505287 0.37979192 0
-0.74018621 1.314527 -0.050201107 0
-0.91460657 1.4707168 0.070559911 0
-0.9188329 1.4745015 0.20095026 0
-1.2272447 1.7506781 0.40781751 0
-1.231069 1.7541026 0.57574469 0
-0.2355652 0.86264896 0.37731966 0
-0.74879539 1.2957311 -0.049986865 0
-0.94291854 1.4652089 0.071186893 0
-1.2350296 1.7202344 0.40523237 0
-1.2395425 1.7241744 0.57230633 0
-0.23576351 0.84783196 0.37331742 0
-0.75559187 1.2755866 -0.049701083 0
-0.96276438 1.4519099 0.071413562 0
-1.2423733 1.6898835 0.40266159 0
-1.2437464 1.6910522 0.56760114 0
-0.23425157 0.8318767 0.36852998 0
-0.26208317 0.855564 0.46238396 0
-0.78098524 1.2711282 -0.05029276 0
-1.0074922 1.4590409 0.072799899 0
-1.2443334 1.6555269 0.39894602 0
-1.2402701 1.652156 0.56053787 0
-0.24541266 0.82681113 0.37071863 0
-0.79021132 1.2530565 -0.050138772 0
-1.0473429 1.460966 0.073944137 0
-1.2541659 1.6281973 0.39719474 0
-1.2440072 1.6199832 0.55607432 0
-0.2472439 0.81402826 0.3679516 0
-0.79373348 1.2306249 -0.049737446 0
-1.0884197 1.4628249 0.075131699 0
-1.2453593 1.5864867 0.3912605 0
-1.2394676 1.5818443 0.54909873 0
-0.27090114 0.81865543 0.37680218 0
-0.81202114 1.2198822 -0.050017338 0
-1.1389359 1.4708701 0.076731645 0
-1.2476975 1.5543716 0.38803732 0
-1.244747 1.5521064 0.54550374 0
-0.26081294 0.79669368 0.36792237 0
-0.24748726 0.7864629 0.43495801 0
-0.82670128 1.2061911 -0.050139841 0
-1.1696465 1.4626882 0.077429086 0
-1.2460037 1.5197977 0.38402784 0
-1.239427 1.5148786 0.53868532 0
-0.26507556 0.78613752 0.36668926 0
-0.27955854 0.79696971 0.45092261 0
-0.8268131 1.1817765 -0.049625397 0
-1.2114617 1.461982 0.078615218 0
-1.247288 1.4880804 0.38081703 0
-1.2476311 1.4883304 0.53634679 0
-1.2402841 1.4829783 0.69455236 0
-0.25313556 0.76386887 0.35723609 0
-0.27685905 0.7811507 0.4451353 0
-0.8444196 1.1702132 -0.049894817 0
-1.2595538 1.4646978 0.080065951 0
-1.246946 1.4557542 0.37736386 0
-1.2335924 1.4462816 0.52717638 0
-1.2372403 1.4488693 0.68710613 0
-0.27403063 0.76559526 0.36467806 0
-0.2787928 0.76897341 0.44236448 0
-0.85982084 1.1568923 -0.050072569 0
-1.3063773 1.465289 0.081447586 0
-1.2570549 1.4312265 0.37632084 0
-1.2448612 1.4228054 0.52609718 0
-1.2357618 1.4165212 0.68053168 0
-0.28539902 0.76019025 0.44255239 0
-0.86718237 1.1380123 -0.049910221 0
-1.2724108 1.4103961 0.079341918 0
-1.276141 1.4129035 0.22725953 0
-1.2408761 1.3891993 0.36964154 0
-1.242655 1.390395 0.52097589 0
-1.2374002 1.3868629 0.67542613 0
-0.28824824 0.74886829 0.44054076 0
-0.88251328 1.1244779 -0.050099365 0
-1.2691822 1.3773768 0.078594394 0
-1.2662376 1.375451 0.22414811 0
-1.2559466 1.3687202 0.36986572 0
-1.2414411 1.3592329 0.51632404 0
-1.2331187 1.3537896 0.66815811 0
-0.29533678 0.74043792 0.44116566 0
-0.89733922 1.1104603 -0.050272875 0
-1.2751132 1.350805 0.078258075 0
-1.271078 1.3482379 0.22299986 0
-1.2403255 1.3286726 0.36358297 0
-1.2390646 1.3278705 0.51147687 0
-1.2537392 1.3372067 0.67093241 0
-0.30356431 0.7326929 0.44252428 0
-0.89886463 1.0880665 -0.049894094 0
-1.2868354 1.3280903 0.078181587 0
-1.2935811 1.3322637 0.22413607 0
-1.2519537 1.3065103 0.36323518 0
-1.2343403 1.2956134 0.50608194 0
-1.2459352 1.3027868 0.66264695 0
-0.91829956 1.0767514 -0.050276082 0
-1.3111577 1.3130114 0.078642555 0
-1.3027585 1.3079602 0.22361791 0
-1.242192 1.2715364 0.35844746 0
-1.2418102 1.2713066 0.50447953 0
-1.2359986 1.2678117 0.65376502 0
-0.92769623 1.0592545 -0.050246101 0
-1.3338387 1.296592 0.079040162 0
-1.3346342 1.2970568 0.22596712 0
-1.2384082 1.2408253 0.35503587 0
-1.24213 1.2430001 0.50086671 0
-1.2421118 1.2429895 0.65130311 0
-0.92872751 1.0370302 -0.049882002 0
-1.3771398 1.2915494 0.080289938 0
-1.3890911 1.298333 0.23110712 0
-1.2472579 1.2178284 0.35434893 0
-1.2399521 1.2136816 0.49665186 0
-1.2398839 1.2136428 0.64578784 0
-0.94046426 1.020995 -0.049968254 0
-1.2424355 1.1874022 0.3509112 0
-1.2370646 1.1844425 0.49236736 0
-1.2403823 1.1862708 0.64148718 0
-0.94547641 1.001291 -0.049789883 0
-1.2559224 1.1673074 0.35131976 0
-1.2456627 1.1618208 0.49154156 0
-1.2423564 1.1600528 0.63790262 0
-0.9512738 0.98213267 -0.049654264 0
-1.2579013 1.1411749 0.3494392 0
-1.2316353 1.1275512 0.48430046 0
-1.2387898 1.1312621 0.63238895 0
-0.97412491 0.97165263 -0.050210644 0
-1.2665529 1.1186872 0.34898412 0
-1.2429627 1.1068258 0.48446921 0
-1.2469144 1.1088127 0.6313991 0
-0.9738102 0.94944775 -0.049848918 0
-1.2799499 1.0985775 0.34954077 0
-1.2400128 1.0791229 0.4806594 0
-1.2499683 1.0839726 0.62864381 0
-0.99060178 0.93558961 -0.050175641 0
-1.3012594 1.0821095 0.35172254 0
-1.2495126 1.0577034 0.48048273 0
-1.2372792 1.0519336 0.62022924 0
-0.98779404 0.91253072 -0.049738225 0
-1.3006731 1.0553106 0.34959245 0
-1.2328626 1.0243658 0.47304943 0
-1.2388253 1.0270867 0.61721665 0
-0.99814868 0.89561313 -0.049828216 0
-1.3027667 1.0300149 0.3480691 0
-1.235188 1.0001982 0.47106621 0
-1.2358792 1.0005032 0.61270136 0
-1.0108715 0.87963253 -0.050017919 0
-1.2627877 0.98701274 0.071794614 0
-1.3244673 1.0133039 0.35046044 0
-1.2420076 0.97815514 0.47042465 0
-1.240731 0.97761101 0.61115175 0
-1.0327184 0.86725801 -0.050566673 0
-1.2683377 0.96420431 0.071662799 0
-1.3267901 0.98825473 0.3491016 0
-1.2356417 0.95075142 0.46622556 0
-1.2321556 0.94931698 0.60488361 0
-1.025421 0.84289908 -0.049999278 0
-1.2319773 0.92486167 0.069932953 0
-1.3379065 0.96689487 0.34951705 0
-1.2337201 0.9255532 0.46336222 0
-1.2428435 0.92917341 0.6056695 0
-1.0327795 0.82456821 -0.050006527 0
-1.2245855 0.89789617 0.069337606 0
-1.3440186 0.94355571 0.34901637 0
-1.2319735 0.9007206 0.46064734 0
-1.2423571 0.90469027 0.60256207 0
-1.0351858 0.80440646 -0.049834162 0
-1.4152848 0.9442597 0.076293588 0
-1.3600043 0.92391986 0.35047203 0
-1.2406787 0.88001531 0.46087155 0
-1.2418119 0.88043225 0.59955776 0
-1.0510255 0.78912187 -0.050180901 0
-1.157253 0.82669538 0.066203609 0
-1.3655015 0.90035456 0.34996217 0
-1.2419299 0.85664624 0.45914826 0
-1.2362078 0.85462236 0.59488964 0
-1.0671024 0.77365625 -0.050542381 0
-1.1732016 0.80968785 0.066542722 0
-1.3803514 0.88003659 0.35129252 0
-1.2378951 0.83165801 0.45608753 0
-1.2449143 0.83404171 0.59538388 0
-1.0567037 0.74929821 -0.049915642 0
-1.1663939 0.78501534 0.066034101 0
-1.3801076 0.85460448 0.34980321 0
-1.2407806 0.809237 0.45498073 0
-1.2450528 0.81062818 0.59296924 0
-1.0677156 0.73207462 -0.050103527 0
-1.1626689 0.76167613 0.065654397 0
-1.1846088 0.76851583 0.18804358 0
-1.3867348 0.83152819 0.34967837 0
-1.2313471 0.78308636 0.45066172 0
-1.2402372 0.78585786 0.5889405 0
-1.0622604 0.70980251 -0.049685359 0
-1.3421867 0.79321665 0.07211335 0
-1.1828954 0.74575007 0.18715398 0
-1.400085 0.81046951 0.35087395 0
-1.2386721 0.76237077 0.45090818 0
-1.2445574 0.76412445 0.58820683 0
-1.0789794 0.69413853 -0.050102137 0
-1.3000861 0.75700516 0.070308805 0
-1.1995429 0.72841799 0.18835108 0
-1.4025503 0.78613847 0.3500742 0
-1.2404482 0.74004847 0.44975123 0
-1.2368313 0.73902011 0.58340406 0
-1.0833578 0.67482537 -0.050068367 0
-1.3028568 0.73425806 0.070186935 0
-1.2315177 0.71494192 0.19127499 0
-1.4148077 0.76457047 0.3511641 0
-1.2314982 0.71493667 0.44583753 0
-1.2414278 0.71762526 0.58297408 0
-1.0948639 0.65736747 -0.050306439 0
-1.2879031 0.7070356 0.069422647 0
-1.4059678 0.73741323 0.34837234 0
-1.2389745 0.6944465 0.4463473 0
-1.2487515 0.69696212 0.58357501 0
-1.1013122 0.6384998 -0.050366011 0
-1.4154742 0.71512812 0.34905842 0
-1.2296925 0.66981345 0.44252244 0
-1.2474582 0.67414677 0.58131254 0
-1.0949138 0.61662322 -0.049963448 0
-1.4377401 0.69568336 0.3521561 0
-1.2359643 0.64915127 0.44286245 0
