# .PCD v0.7 - Point Cloud Data file format
VERSION 0.7
FIELDS x y z intensity
SIZE 4 4 4 4
TYPE F F F F
COUNT 1 1 1 1
WIDTH 1354
HEIGHT 1
VIEWPOINT 0 0 0 1 0 0 0
POINTS 1354
DATA ascii
-1.131945 0.14594664 -0.050014008 0
-0.51272535 0.19281909 0.1078779 0
-0.5046947 0.19342697 0.17551306 0
-1.2329997 0.1382972 0.43214881 0
-1.2427187 0.13756151 0.56494409 0
-1.1340085 0.12593214 -0.050145853 0
-0.51458716 0.18067192 0.10818404 0
-0.50833458 0.18122448 0.17634724 0
-1.2318529 0.11728539 0.4322955 0
-1.2475861 0.11589501 0.56714743 0
-1.1362078 0.10580731 -0.050291777 0
-0.51742202 0.1683524 0.10861219 0
-0.51101279 0.16900022 0.17703602 0
-1.2415723 0.095157377 0.4352966 0
-1.2316812 0.096157126 0.56249863 0
-1.1301302 0.086517744 -0.050149605 0
-0.50826949 0.1572943 0.039805047 0
-0.5212006 0.15582258 0.10915982 0
-0.5036661 0.15781824 0.17593405 0
-1.2422974 0.073751517 0.43606398 0
-1.2462084 0.073306389 0.56811637 0
-1.1178625 0.068109699 -0.04979318 0
-0.50843954 0.14525519 0.039862368 0
-0.52247244 0.14347883 0.10945383 0
-0.50839055 0.14526139 0.17705028 0
-1.2464669 0.051829938 0.43778759 0
-1.236649 0.053072739 0.56576204 0
-1.1104109 0.049280901 -0.049618088 0
-0.52145165 0.13138315 0.040388159 0
-0.51643145 0.13208297 0.10897174 0
-0.50659293 0.13345449 0.17700961 0
-1.2509375 0.029691193 0.4396629 0
-1.2354751 0.031846676 0.56630582 0
-1.1191884 0.028102834 -0.050037287 0
-0.5071376 0.12129476 0.039934441 0
-0.51227826 0.12051203 0.1087095 0
-0.50521332 0.12158776 0.17707224 0
-1.2467847 0.00867482 0.43938819 0
-1.2391597 0.0098357992 0.56857562 0
-1.1154063 0.0086964266 -0.050012529 0
-0.52265561 0.10660142 0.040563844 0
-0.5111956 0.10849427 0.10879703 0
-0.51270556 0.10824487 0.17878398 0
-1.2414989 -0.01213039 0.43888834 0
-1.240799 -0.012014757 0.57025373 0
-1.1126629 -0.01088051 -0.050034236 0
-0.52318364 0.094125412 0.040657777 0
-0.51327217 0.095890976 0.10924613 0
-0.50418621 0.097509481 0.17759718 0
-1.2476132 -0.034919631 0.44140944 0
-1.2294987 -0.031692844 0.56765586 0
-1.1069214 -0.029903095 -0.049955972 0
-0.51163757 0.083888002 0.040318772 0
-0.52177382 0.081950404 0.11041665 0
-0.51299143 0.083629198 0.17961335 0
-1.2437986 -0.056067746 0.44143203 0
-1.2423476 -0.055790376 0.57331532 0
-1.1087927 -0.050427329 -0.050163615 0
-0.51793712 0.070247911 0.04063385 0
-0.50885338 0.07210315 0.10925968 0
-0.50614625 0.072656043 0.17878605 0
-1.2373134 -0.076676168 0.44082853 0
-1.2453043 -0.078308202 0.57573324 0
-1.1009831 -0.069000162 -0.050027572 0
-0.51066852 0.059327979 0.040460344 0
-0.50753772 0.060008589 0.10938944 0
-0.50718635 0.060084973 0.17943726 0
-1.2375262 -0.098683186 0.44203982 0
-1.2430165 -0.099876709 0.57646865 0
-1.094503 -0.087784328 -0.049948394 0
-0.50335288 0.048542533 0.040289644 0
-0.50746518 0.047594164 0.10967346 0
-0.50278902 0.048672561 0.17911325 0
-1.2426195 -0.1219419 0.44460499 0
-1.2481316 -0.12321306 0.5798263 0
-1.0922616 -0.1075481 -0.050033417 0
-0.51044273 0.034365315 0.040652774 0
-0.51341015 0.033641536 0.11064127 0
-0.5073185 0.03512736 0.18047202 0
-1.2491182 -0.14580755 0.44762388 0
-1.2415107 -0.143952 0.57927585 0
-1.0844225 -0.12593679 -0.049921528 0
-0.55001932 0.011562963 0.042221244 0
-0.55788541 0.0095390575 0.11590736 0
-0.55169618 0.011131515 0.18928756 0
-1.2400174 -0.16597073 0.44662204 0
-1.2396024 -0.16586398 0.58043206 0
-1.0882632 -0.14740942 -0.0502498 0
-0.61048961 -0.01804487 0.044578467 0
-0.61601794 -0.019541752 0.12274579 0
-1.2434949 -0.18944077 0.31915551 0
-1.2340792 -0.18689136 0.44651973 0
-1.2357987 -0.18735693 0.58103389 0
-1.0773623 -0.16493462 -0.050042115 0
-0.67760682 -0.051273327 0.047204662 0
-0.6892339 -0.054579239 0.13133483 0
-1.2477561 -0.21338217 0.32105076 0
-1.2401329 -0.21121471 0.4496676 0
-1.2453874 -0.2127087 0.58636343 0
-1.0845478 -0.18769969 -0.050515618 0
-0.78295791 -0.097830124 0.051280603 0
-0.77290368 -0.094834097 0.14117782 0
-1.2445866 -0.23538904 0.3216114 0
-1.2436116 -0.2350985 0.45222312 0
-1.2433054 -0.2350073 0.58777225 0
-1.0634745 -0.20200832 -0.049944926 0
-0.87101388 -0.14200909 0.054747686 0
-0.87093925 -0.14198582 0.15273362 0
-1.2412293 -0.25742301 0.32219103 0
-1.2460335 -0.25892076 0.4545866 0
-1.2430222 -0.25798193 0.58991098 0
-1.0629445 -0.22258617 -0.050149962 0
-0.9860301 -0.19754143 0.059262116 0
-0.98522258 -0.19727848 0.16624025 0
-1.2450981 -0.28189877 0.32419613 0
-1.2464486 -0.28233853 0.45650157 0
-1.2388917 -0.27987781 0.59081352 0
-1.04656 -0.23793583 -0.049767852 0
-1.1335739 -0.26748601 0.065048613 0
-1.1328628 -0.26724455 0.18366954 0
-1.2376989 -0.30284718 0.32412222 0
-1.2301612 -0.3002874 0.45400369 0
-1.0462855 -0.25870118 -0.050001401 0
-1.2975814 -0.34758654 0.20322365 0
-1.239399 -0.32700691 0.32583901 0
-1.2386498 -0.32674196 0.4582606 0
-1.0287639 -0.27329949 -0.049589865 0
-1.2581561 -0.35770181 0.199607 0
-1.2332875 -0.34855166 0.32612094 0
-1.2357184 -0.34944609 0.45952305 0
-1.0381693 -0.29788461 -0.050212536 0
-1.2447437 -0.3768585 0.19898044 0
-1.2479557 -0.37808648 0.33046865 0
-1.2355833 -0.37335649 0.46163332 0
-1.0227968 -0.31311366 -0.049898483 0
-1.247722 -0.40236512 0.20027368 0
-1.2444694 -0.40107444 0.33138761 0
-1.2450454 -0.40130302 0.46647087 0
-1.0227773 -0.33442363 -0.050182894 0
-1.2389264 -0.42335877 0.20024259 0
-1.2480087 -0.42709574 0.33373779 0
-1.231781 -0.42041877 0.46516046 0
-1.0171888 -0.35358122 -0.050263092 0
-1.2437625 -0.45015904 0.20183469 0
-1.2444358 -0.45044604 0.33477035 0
-1.2400057 -0.4485577 0.46986946 0
-1.0021681 -0.36864236 -0.049985055 0
-1.2458903 -0.47617605 0.20315705 0
-1.2408218 -0.47393981 0.33585832 0
-1.234946 -0.4713473 0.47099873 0
-0.99387276 -0.38656065 -0.049976774 0
-1.2322414 -0.49533811 0.20266192 0
-1.2343534 -0.49630192 0.33644521 0
-1.2414608 -0.49954531 0.47546071 0
-0.98626196 -0.40479866 -0.050004337 0
-1.2396407 -0.52430326 0.20469342 0
-1.2445028 -0.52659643 0.3404052 0
-1.2481008 -0.52829337 0.48008445 0
-0.97327244 -0.42044166 -0.049827565 0
-1.4996344 -0.67684805 0.08273039 0
-1.2394518 -0.55010545 0.20587377 0
-1.2467573 -0.55366421 0.34288204 0
-1.2389344 -0.54985344 0.48035333 0
-0.96928394 -0.44047442 -0.0500172 0
-1.4430926 -0.6787082 0.080950662 0
-1.2411194 -0.57715487 0.20732392 0
-1.2391634 -0.5761714 0.3434552 0
-1.2372986 -0.57523376 0.48285171 0
-0.96309364 -0.4595193 -0.050129633 0
-1.3978492 -0.6850192 0.079614617 0
-1.2382443 -0.60223502 0.20827469 0
-1.2392789 -0.60277164 0.34565577 0
-0.95253372 -0.47632095 -0.050075602 0
-1.3511078 -0.68946528 0.078212105 0
-1.2411544 -0.63066584 0.20997532 0
-1.2355354 -0.62766087 0.34715024 0
-0.9387325 -0.4912965 -0.049897663 0
-1.2991145 -0.68989223 0.076588012 0
-1.2367024 -0.6554988 0.21082816 0
-1.2411127 -0.65792912 0.35063881 0
-0.9191066 -0.50282526 -0.049487051 0
-1.2623551 -0.69765341 0.07557787 0
-1.2434113 -0.68690091 0.21310484 0
-1.2376286 -0.68361861 0.35235202 0
-0.92256725 -0.52751321 -0.05003402 0
-1.2510672 -0.71947867 0.075617544 0
-1.2430259 -0.71477956 0.21456429 0
-1.2454432 -0.71619219 0.35650536 0
-0.91182673 -0.54411459 -0.050006423 0
-1.2513812 -0.74831837 0.076152265 0
-1.2287581 -0.73471308 0.21433778 0
-1.246228 -0.74521929 0.35929683 0
-0.91524947 -0.56945908 -0.050581951 0
-1.2485716 -0.77567369 0.076575227 0
-1.2452964 -0.77364749 0.21803416 0
-1.2325133 -0.76573902 0.35911241 0
-0.88815629 -0.57587385 -0.049884304 0
-1.2485074 -0.80513388 0.07713227 0
-1.2382965 -0.79863769 0.21882428 0
-1.238726 -0.79891092 0.36324108 0
-0.87938058 -0.59368479 -0.049965724 0
-1.2545886 -0.83908778 0.077971838 0
-1.2401254 -0.82962817 0.22079492 0
-1.225966 -0.82036728 0.36340499 0
-0.87295842 -0.61315072 -0.050158694 0
-1.2379494 -0.8584879 0.077859491 0
-1.2447673 -0.86307079 0.22319689 0
-1.2372025 -0.85798579 0.36884326 0
-0.8612361 -0.62912554 -0.050133973 0
-1.2374822 -0.88896519 0.078458391 0
-1.2370278 -0.88865131 0.2240575 0
-1.2391343 -0.89010614 0.37239304 0
-0.84847999 -0.6443494 -0.050072543 0
-1.2421682 -0.92362088 0.079304948 0
-1.2419857 -0.9234913 0.22664113 0
-1.6075851 -1.1828372 0.45710739 0
-0.83795762 -0.66115087 -0.050117645 0
-1.2423327 -0.95572644 0.079978779 0
-1.2410761 -0.95481116 0.22852652 0
-1.5641582 -1.1901671 0.45151961 0
-0.82648528 -0.67728537 -0.050130211 0
-1.246238 -0.99122864 0.080843702 0
-1.2415149 -0.98769611 0.23066334 0
-0.80940235 -0.68912756 -0.049899466 0
-1.2409177 -1.0204222 0.081321813 0
-1.2519765 -1.0289125 0.23423478 0
-0.80200517 -0.70839846 -0.05011341 0
-1.1587242 -0.98947781 0.078327224 0
-1.1549067 -0.98646981 0.22319968 0
-1.1550082 -0.98654968 0.37051511 0
-0.7939204 -0.72731149 -0.050309066 0
-1.1435353 -1.0100002 0.078360498 0
-1.1483135 -1.0138638 0.22448254 0
-1.141283 -1.0081792 0.37101406 0
-0.77272344 -0.73552996 -0.049909517 0
-1.2373546 -1.120993 0.083462685 0
-1.2413213 -1.1242838 0.23973486 0
-1.3334068 -1.2006789 0.41981879 0
-0.76177311 -0.75210315 -0.049990863 0
-1.2374297 -1.1569318 0.084290184 0
-1.2361758 -1.1558646 0.24149495 0
-1.3197174 -1.2269664 0.42097861 0
-1.0274787 -0.97824377 0.49514577 0
-0.75089896 -0.76882333 -0.050086558 0
-1.2800959 -1.2308351 0.41602167 0
-0.99685538 -0.98355395 0.49011242 0
-0.73576331 -0.78182214 -0.049989145 0
-1.1941898 -1.1923338 0.083958484 0
-1.1955698 -1.1935695 0.2408725 0
-1.1942155 -1.1923569 0.39982149 0
-0.96771467 -0.98952991 0.48555252 0
-0.72706616 -0.80064529 -0.050210588 0
-0.92560399 -0.98298806 0.47647265 0
-0.71086323 -0.81261748 -0.050078113 0
-0.89334142 -0.98449618 0.47070742 0
-0.69601381 -0.82577163 -0.050018638 0
-0.85645068 -0.98074764 0.4632366 0
-0.68143129 -0.83913547 -0.049980104 0
-0.83121753 -0.98751432 0.4598417 0
-0.66722977 -0.85285205 -0.049968969 0
-0.80863357 -0.99649972 0.45739737 0
-0.65002692 -0.86343509 -0.04981181 0
-0.64085913 -0.88244516 -0.050079219 0
-0.62989616 -0.89977258 -0.050267864 0
-0.61557126 -0.91352671 -0.050290279 0
-0.59221458 -0.91689843 -0.049830317 0
-0.58218646 -0.93553358 -0.050102714 0
-0.56145185 -0.94148713 -0.049791429 0
-0.54836303 -0.95661217 -0.04991531 0
-0.53448707 -0.97087866 -0.050006554 0
-0.5238837 -0.98954695 -0.050302457 0
-0.50104558 -0.99210411 -0.049884997 0
-0.48041707 -0.99721783 -0.049596708 0
-0.46961993 -1.0159361 -0.049916543 0
-0.45322657 -1.0269006 -0.04990384 0
-0.43848568 -1.0403298 -0.05000595 0
-0.4207353 -1.0492638 -0.049923789 0
-0.37999535 -0.98654395 0.502262 0
-0.40847987 -1.0667926 -0.050214715 0
-0.3454107 -0.96696717 0.49057078 0
-0.3899256 -1.0744659 -0.050096948 0
-0.32450074 -0.96796542 0.48717403 0
-0.37065339 -1.0807809 -0.049933337 0
-0.30795741 -0.9757809 0.4865467 0
-0.35315585 -1.0899312 -0.049897999 0
-0.29257071 -0.98550099 0.48673695 0
-0.33489847 -1.0976886 -0.049814884 0
-0.27539533 -0.99208194 0.48580134 0
-0.31808925 -1.1079779 -0.049844764 0
-0.25764185 -0.99746436 0.48450002 0
-0.30000883 -1.1159234 -0.0497883 0
-0.22613163 -0.97672182 0.47345197 0
-0.28336722 -1.1265844 -0.049850404 0
-0.20610531 -0.97647065 0.47029158 0
-0.26374763 -1.131381 -0.049686536 0
-0.18661268 -0.97675961 0.46744585 0
-0.25320232 -1.1546972 -0.050267808 0
-0.16862305 -0.97967023 0.46567708 0
-0.23158874 -1.1553279 -0.049956784 0
-0.14769383 -0.97598761 0.46158046 0
-0.21310414 -1.1623485 -0.049908619 0
-0.12924542 -0.97704142 0.45933327 0
-0.19222058 -1.1638082 -0.049653124 0
-0.11296375 -0.98263067 0.45883 0
-0.17756267 -1.1795471 -0.049962617 0
-0.10050614 -0.99717945 0.46163958 0
-0.16033067 -1.1895597 -0.050056893 0
-0.073946312 -0.97771508 0.34823006 0
-0.083411947 -1.000928 0.46061093 0
-0.14434351 -1.2029288 -0.050287802 0
-0.054907128 -0.97544867 0.34588745 0
-0.069717124 -1.0131177 0.46268198 0
-0.11968161 -1.1938598 -0.049668737 0
-0.029862119 -0.95667773 0.1463197 0
-0.032759115 -0.96432763 0.24295159 0
-0.013165576 -0.91258794 0.32709056 0
-0.04980056 -1.0093282 0.45912009 0
-0.10515185 -1.2113321 -0.050072826 0
-0.0033956005 -0.93206161 0.14284921 0
-0.0091717076 -0.94791418 0.2386952 0
0.0078364778 -0.90123516 0.32250929 0
-0.082372501 -1.206117 -0.049623888 0
0.0066822632 -0.9517954 0.14448203 0
0.0099673141 -0.9424141 0.23659979 0
0.020664351 -0.91186553 0.3239623 0
-0.0042915777 -0.98313445 0.44574776 0
-0.067260131 -1.2227303 -0.050009806 0
0.021173464 -0.95960683 0.14477065 0
0.024884211 -0.9485659 0.23677613 0
0.02643727 -0.94394487 0.33122593 0
0.014335977 -0.97995085 0.4427346 0
-0.051259592 -1.2374842 -0.050331574 0
0.038809225 -0.95788556 0.14400244 0
0.03703694 -0.96338719 0.23863004 0
0.020154016 -1.0157964 0.34914032 0
0.017992841 -1.0225053 0.45580265 0
-0.029219193 -1.2334278 -0.049956899 0
0.024582135 -1.0589143 0.35929278 0
-0.012996716 -1.2481987 -0.050294667 0
0.068527058 -0.97143179 0.33468673 0
0.0071125193 -1.2500263 -0.050158858 0
0.084689721 -0.97387558 0.33414569 0
0.027003216 -1.2523128 -0.05004983 0
0.1020797 -0.97153264 0.33239612 0
0.047734573 -1.2509887 -0.049817406 0
0.11753266 -0.97612625 0.33253583 0
0.064472631 -1.2655764 -0.05017956 0
0.085876688 -1.2608021 -0.04983953 0
0.10344307 -1.2728227 -0.050123453 0
0.12653427 -1.2583832 -0.04945118 0
0.14180593 -1.2830104 -0.050210204 0
-0.064544246 -2.3812647 0.10210539 0
0.16124986 -1.2869059 -0.050223161 0
0.0017034875 -2.1992083 0.095287845 0
0.18450408 -1.2673486 -0.049396757 0
0.033673838 -2.1987765 0.095083103 0
0.20080169 -1.2905349 -0.050125327 0
0.066192761 -2.1937182 0.094726287 0
0.22082095 -1.2902255 -0.05001349 0
0.096541032 -2.20277 0.094893247 0
0.24032465 -1.2934761 -0.050038956 0
0.12758945 -2.20715 0.094905652 0
0.26032203 -1.2924558 -0.04991981 0
0.16033266 -2.1963336 0.094386265 0
0.27939257 -1.3000728 -0.050119687 0
0.19124107 -2.2005513 0.094421603 0
0.3006627 -1.2835699 -0.04946373 0
0.22322145 -2.1925383 0.09403263 0
0.31922475 -1.2980527 -0.049927093 0
0.25412476 -2.1956513 0.094056696 0
0.33907759 -1.2964989 -0.049824923 0
0.28494266 -2.2005575 0.094158791 0
0.35839632 -1.3047885 -0.050083563 0
0.31588379 -2.2044849 0.094239727 0
0.37873015 -1.2891335 -0.049495418 0
0.34709281 -2.202471 0.094122298 0
0.39780474 -1.3119308 -0.050289709 0
0.37835976 -2.1942925 0.093798809 0
0.41770327 -1.3071387 -0.050107464 0
0.43748957 -1.3065324 -0.050083593 0
0.45726976 -1.3064092 -0.050085865 0
0.4769423 -1.3023199 -0.049955383 0
0.49666563 -1.3016437 -0.049955633 0
0.51691294 -1.3106885 -0.05031231 0
0.53596425 -1.2978109 -0.049894035 0
0.55566239 -1.2968489 -0.049910653 0
0.57558769 -1.2982045 -0.050019268 0
0.59449816 -1.2890579 -0.049760047 0
0.61525917 -1.2972736 -0.050133087 0
0.6351909 -1.2970315 -0.050211653 0
0.6541428 -1.2895038 -0.050036661 0
0.67355716 -1.2857333 -0.050005697 0
0.69467014 -1.2921623 -0.050352767 0
0.71200657 -1.2763807 -0.049904384 0
0.73194849 -1.2756416 -0.050009917 0
0.75036675 -1.2671782 -0.049843237 0
0.76881659 -1.2593888 -0.049709201 0
0.78743941 -1.2527406 -0.049625114 0
0.80841005 -1.2558218 -0.049907196 0
0.82649845 -1.2470446 -0.049762417 0
0.84617507 -1.2444348 -0.049853869 0
0.86505651 -1.238817 -0.049843092 0
0.88378495 -1.232707 -0.049822774 0
0.90370625 -1.2304188 -0.049954243 0
0.92170894 -1.221994 -0.049865026 0
0.94089758 -1.2172101 -0.049921378 0
0.95984864 -1.2116336 -0.049957085 0
0.97863519 -1.205533 -0.04998206 0
0.99711168 -1.1985712 -0.049983237 0
0.92264605 -1.0056118 0.45888719 0
1.0153893 -1.1911023 -0.049973842 0
0.94529229 -1.0160574 0.46487829 0
1.0331515 -1.1824012 -0.049925637 0
0.96033084 -1.0069873 0.46397325 0
1.0532029 -1.1791017 -0.050095759 0
0.96940291 -0.98420769 0.45816684 0
1.0718126 -1.1722598 -0.05013825 0
0.99388641 -0.99713629 0.46537229 0
1.0908589 -1.1662875 -0.050224349 0
1.0072168 -0.98451561 0.46337539 0
1.1023411 -1.1442583 -0.049685653 0
1.0264893 -0.98473722 0.46615911 0
1.1247581 -1.1453538 -0.050069097 0
1.0453457 -0.98362714 0.46855617 0
1.1438236 -1.13923 -0.050177313 0
1.0597525 -0.97332889 0.46762997 0
1.1559182 -1.1195982 -0.049751725 0
1.0818197 -0.9778319 0.47232184 0
1.1768752 -1.1170402 -0.050021809 0
1.1031888 -0.98028475 0.47637558 0
1.188154 -1.0966505 -0.049576383 0
1.1282936 -0.98882884 0.057173569 0
1.1302617 -0.99237365 0.16048023 0
1.1324089 -0.99624139 0.26603752 0
1.1269255 -0.98636454 0.37098238 0
1.1272612 -0.98696917 0.48216999 0
1.2099891 -1.0953501 -0.049918611 0
1.1465459 -0.98439068 0.0573554 0
1.1453539 -0.98230594 0.16033378 0
1.1537348 -0.99696392 0.26803911 0
1.138965 -0.9711321 0.36910439 0
1.1482145 -0.98730904 0.48569056 0
1.2341994 -1.0976033 -0.050421946 0
1.1655353 -0.9809466 0.057589259 0
1.1711786 -0.99053413 0.16249143 0
1.1648972 -0.97986239 0.2663815 0
1.1669644 -0.98337454 0.37539095 0
1.1653121 -0.98056716 0.48660493 0
1.2416215 -1.0714471 -0.04975602 0
1.2606061 -1.0647317 -0.049906515 0
1.2707535 -1.0440198 -0.049474876 0
1.2992699 -1.051749 -0.050260875 0
1.316583 -1.0419286 -0.050312482 0
1.3207389 -1.0131153 -0.049548123 0
1.3514258 -1.0223765 -0.050449468 0
1.3575169 -0.99701625 -0.04984346 0
1.3793396 -0.99325758 -0.050200418 0
1.3910733 -0.97602624 -0.049965337 0
1.4142262 -0.97345549 -0.050402615 0
1.2085028 -0.71405405 0.050582781 0
1.206067 -0.7109828 0.13978341 0
1.4169143 -0.94524354 -0.04967751 0
1.207096 -0.68741465 0.049809881 0
1.2088404 -0.68955809 0.13817506 0
1.4398733 -0.94210297 -0.050112359 0
1.208208 -0.66463858 0.049207672 0
1.2076337 -0.66395086 0.135969 0
1.4525039 -0.9264279 -0.04997623 0
1.2105871 -0.64399123 0.048699662 0
1.2079437 -0.64090502 0.13409933 0
1.4696959 -0.91608495 -0.050099507 0
1.2035711 -0.61318976 0.047704853 0
1.197191 -0.60592818 0.13050261 0
1.4907794 -0.909926 -0.050435614 0
1.2069095 -0.59492296 0.047296878 0
1.2000427 -0.58730304 0.12921096 0
1.4920818 -0.88201052 -0.049730808 0
1.5115225 -0.87394911 -0.049994975 0
1.5246389 -0.85910982 -0.049937055 0
1.5350845 -0.84164459 -0.049754303 0
1.5569894 -0.83556515 -0.050157148 0
1.5671064 -0.81784433 -0.049977388 0
1.5766947 -0.79980093 -0.049784891 0
1.5938586 -0.78880662 -0.049970701 0
1.6017195 -0.76940769 -0.049717758 0
1.6249336 -0.76347464 -0.050202783 0
1.6371917 -0.74788433 -0.050175305 0
1.6414844 -0.72579116 -0.049789634 0
1.654613 -0.71109492 -0.049824219 0
1.672492 -0.7000587 -0.050081734 0
1.6811039 -0.68176824 -0.04992795 0
1.6898857 -0.66373402 -0.049793396 0
1.701516 -0.64786059 -0.049795326 0
1.720154 -0.63688678 -0.050111379 0
1.731608 -0.62074459 -0.050120372 0
1.7426885 -0.60434324 -0.05012203 0
1.7490871 -0.58491665 -0.049933575 0
1.7670003 -0.57286751 -0.050242256 0
1.769852 -0.55137235 -0.049925085 0
1.7847487 -0.53727436 -0.05012146 0
1.7958288 -0.52081472 -0.050166514 0
1.8039185 -0.50264257 -0.050097436 0
1.8092829 -0.48304275 -0.049927451 0
1.8263153 -0.46972033 -0.05023938 0
1.831548 -0.45012107 -0.050083041 0
1.8466288 -0.43551567 -0.050329838 0
1.8465368 -0.41344038 -0.049981732 0
1.8605884 -0.39819458 -0.050203286 0
1.8702339 -0.3807967 -0.050258704 0
1.8708466 -0.35943523 -0.049970862 0
1.8803445 -0.34201184 -0.050038882 0
1.8861074 -0.32302406 -0.049971215 0
1.9026661 -0.30828938 -0.05032669 0
1.9020685 -0.28684822 -0.050033405 0
1.9044132 -0.26668528 -0.049863398 0
1.9190809 -0.25091746 -0.050169371 0
1.9126033 -0.22788619 -0.049685977 0
1.9141575 -0.20776896 -0.049516369 0
1.9292012 -0.19188581 -0.049860355 0
1.9312052 -0.1719503 -0.049725667 0
1.9350606 -0.152624 -0.049669363 0
1.9524575 -0.13691075 -0.050122268 0
1.9566575 -0.11755786 -0.050095316 0
1.9575176 -0.097428955 -0.049954858 0
1.9629716 -0.078427322 -0.049992152 0
1.9662089 -0.058928322 -0.049957216 0
1.9704682 -0.039653283 -0.0499685 0
1.9743114 -0.020290118 -0.049973473 0
1.9749454 -0.00036944015 -0.049871035 0
1.9814688 0.0185466 -0.049990766 0
1.9857737 0.037874643 -0.050038841 0
1.9908795 0.057133529 -0.050124452 0
1.992637 0.076858871 -0.050098263 0
1.9855192 0.097522326 -0.049762346 0
2.0028179 0.11563823 -0.05031177 0
1.9784966 0.13756013 -0.049377926 0
1.9925072 0.15616603 -0.049826574 0
2.0063264 0.17510284 -0.050276436 0
2.0087225 0.19486417 -0.050326351 0
2.0050423 0.21485521 -0.050168101 0
2.0023193 0.23471968 -0.05005306 0
1.9962447 0.25452724 -0.049827293 0
1.9997672 0.27423909 -0.049953055 0
2.0005851 0.29399171 -0.049991131 0
1.99911 0.31370214 -0.049956203 0
2.0015895 0.33356541 -0.050071448 0
1.9972891 0.35312867 -0.049953271 0
1.9915756 0.3725135 -0.049793236 0
1.9967183 0.39267871 -0.050030652 0
1.9831415 0.41124222 -0.049606159 0
1.9928894 0.43201369 -0.05002699 0
1.9893835 0.45149422 -0.04998127 0
1.9832603 0.47059733 -0.049850039 0
1.9863578 0.49095467 -0.050059915 0
1.9884808 0.5113104 -0.050244238 0
1.9776102 0.52957094 -0.049967561 0
1.9673901 0.54775637 -0.049722198 0
1.9669826 0.56770837 -0.04984165 0
1.9691737 0.58829743 -0.050065387 0
1.9548801 0.60535902 -0.049696118 0
1.9623359 0.62731624 -0.050131653 0
1.9485106 0.64426047 -0.049795471 0
1.9545056 0.66619557 -0.050197888 0
1.9363756 0.68173313 -0.049718089 0
1.9336804 0.70141506 -0.049817704 0
1.9296618 0.72077036 -0.049877543 0
1.9299289 0.74153894 -0.050107326 0
1.9216877 0.75965178 -0.050027773 0
1.913767 0.77781963 -0.049968585 0
1.9071031 0.79639989 -0.049965486 0
1.9048877 0.81664979 -0.050140902 0
1.8915404 0.83269966 -0.049900416 0
1.8815663 0.84993303 -0.04979635 0
1.8729001 0.86763805 -0.049750742 0
1.8650085 0.88564736 -0.049743675 0
1.8663424 0.90779454 -0.050106421 0
1.8478078 0.92100888 -0.049700279 0
1.8417681 0.93989867 -0.049792942 0
1.8435396 0.96273082 -0.050206777 0
1.8310416 0.97860664 -0.050062742 0
1.8196461 0.99495184 -0.049970277 0
1.8159231 1.0153918 -0.050197192 0
1.803823 1.0313333 -0.050093528 0
1.7942117 1.0486275 -0.050099891 0
1.7880974 1.0680038 -0.050260443 0
1.7714529 1.081093 -0.049992032 0
1.7595959 1.096966 -0.049930185 0
1.7468995 1.1122496 -0.049840637 0
1.7386173 1.1303879 -0.049947631 0
1.7242519 1.1444765 -0.049802579 0
1.714671 1.161793 -0.049872436 0
1.708351 1.1815183 -0.050095856 0
1.6948941 1.1961751 -0.050015636 0
1.6848217 1.2133296 -0.050094482 0
1.6614803 1.220238 -0.049583685 0
1.652572 1.23821 -0.04973099 0
1.6422023 1.2551233 -0.049822763 0
1.6405865 1.2794811 -0.050333608 0
1.6208402 1.2886902 -0.050009839 0
1.6110384 1.3063916 -0.050161857 0
1.5993634 1.322543 -0.050236013 0
1.5833083 1.3346964 -0.050107349 0
1.5726377 1.3518647 -0.050250292 0
1.5489734 1.356468 -0.04975681 0
1.5442597 1.379593 -0.050218284 0
1.526596 1.3898672 -0.050037291 0
1.5073444 1.3982853 -0.049778145 0
1.5005628 1.4199308 -0.0501769 0
1.0443021 0.92627358 0.30586132 0
1.4801358 1.4268591 -0.049867991 0
1.4501401 1.3935738 0.060268328 0
1.4407505 1.3831544 0.16785309 0
1.438907 1.3811086 0.27711576 0
1.0491186 0.94857061 0.3124209 0
1.4680949 1.443007 -0.050012913 0
1.4175589 1.3854885 0.059279431 0
1.4161826 1.383922 0.16615954 0
1.4099524 1.3768309 0.27306804 0
1.051098 0.9683935 0.31778562 0
1.4481367 1.4500732 -0.049736548 0
1.394359 1.3872881 0.058785196 0
1.3921413 1.384699 0.16452952 0
1.3872725 1.3790146 0.27068514 0
1.0632657 1.0007384 0.32856706 0
1.4350395 1.4650577 -0.049843095 0
1.3643836 1.3804334 0.057907283 0
1.3666074 1.3830969 0.16262604 0
1.3632777 1.3791089 0.26790372 0
1.061554 1.017736 0.33251739 0
1.419596 1.4772829 -0.049829185 0
1.344244 1.384689 0.057567168 0
1.3436518 1.3839611 0.16112849 0
1.3507854 1.3927271 0.26836583 0
1.0552118 1.0295204 0.33420059 0
1.4039366 1.4892253 -0.049811427 0
1.326833 1.3920035 0.057381444 0
1.3222414 1.386214 0.15987612 0
1.3199972 1.3833841 0.26357457 0
1.059906 1.0554291 0.34189862 0
1.3966867 1.5120344 -0.050293081 0
1.2996867 1.3865104 0.056629583 0
1.2955793 1.3811953 0.15768509 0
1.2987677 1.3853213 0.26148945 0
1.050172 1.063623 0.34204882 0
1.3821195 1.5256944 -0.050365433 0
1.2766736 1.3856306 0.056106325 0
1.273396 1.381277 0.1562462 0
1.276225 1.3850347 0.25898269 0
1.0435202 1.0759332 0.34396318 0
1.3628062 1.5329734 -0.050162792 0
1.2532946 1.3836324 0.055551253 0
1.2512907 1.3808997 0.15479676 0
1.253785 1.3843012 0.25646275 0
1.0286319 1.0772597 0.34136313 0
1.3462787 1.543913 -0.050133269 0
1.2417734 1.39757 0.055713225 0
1.2516685 1.4114267 0.15747841 0
1.2475123 1.4056067 0.25891244 0
1.0176353 1.0837008 0.34095433 0
1.3221589 1.5439018 -0.049636927 0
1.2471792 1.436059 0.056947671 0
1.2409765 1.4271377 0.15819676 0
1.2416723 1.4281385 0.26162755 0
1.0176719 1.1059601 0.34701508 0
1.3156047 1.5692272 -0.050250165 0
1.2455751 1.4657482 0.057789352 0
1.2454253 1.4655268 0.16186944 0
1.2435999 1.4628296 0.2669836 0
1.0038441 1.108555 0.34512466 0
1.2905025 1.5671799 -0.04969177 0
1.249068 1.5042619 0.05900218 0
1.2438272 1.4963037 0.16452499 0
1.2369093 1.4857988 0.26975894 0
1.1728648 1.3885477 0.34942022 0
0.9904384 1.1115341 0.34347251 0
1.2810074 1.5887697 -0.050153505 0
1.2502354 1.5407367 0.060116947 0
1.2448051 1.5322603 0.1678229 0
1.2227899 1.497896 0.27020141 0
1.1507398 1.3854307 0.34567836 0
0.984227 1.1255151 0.34624761 0
1.2558608 1.5858595 -0.04958614 0
1.242949 1.5651351 0.060714405 0
1.2498392 1.5761944 0.17210358 0
1.2054437 1.5049365 0.26960394 0
1.1307448 1.3850391 0.3428691 0
0.9738782 1.1332563 0.34658596 0
1.2425673 1.601753 -0.049821198 0
1.1915987 1.5176018 0.27024323 0
1.1112143 1.3848842 0.34022713 0
0.97028553 1.1522056 0.3513321 0
0.83467436 0.92830658 0.46633631 0
1.2275584 1.6150646 -0.049954534 0
1.1721578 1.5209419 0.26896289 0
1.0957345 1.3911024 0.3395645 0
0.9609015 1.162028 0.35253727 0
0.83982319 0.95632178 0.48216692 0
1.2124107 1.6283298 -0.05009279 0
1.159925 1.5365343 0.27028823 0
1.0755445 1.3889563 0.33650592 0
0.94397706 1.1588503 0.34879717 0
0.85436416 1.002121 0.35785922 0
0.83985621 0.97674721 0.41657874 0
0.84405482 0.98409039 0.49767104 0
1.1939836 1.635895 -0.050005157 0
1.1468413 1.5509815 0.27139995 0
1.0541105 1.3839529 0.33270928 0
0.93391931 1.1674621 0.34965074 0
0.8507672 1.0176868 0.36274314 0
0.8419795 1.0018582 0.42804655 0
0.83956879 0.99751604 0.50330192 0
1.1751193 1.6425254 -0.049889646 0
1.1244898 1.5485617 0.26908258 0
1.0334982 1.3796898 0.32923135 0
0.92725617 1.1825145 0.35298064 0
0.8492735 1.037786 0.36974749 0
0.83799762 1.0168591 0.43367544 0
0.83890074 1.0185351 0.51404828 0
1.1626641 1.6612486 -0.050271634 0
1.1086063 1.5578247 0.26921535 0
1.0179641 1.384407 0.32843649 0
0.90958017 1.1770457 0.34861654 0
0.85791379 1.078197 0.386204 0
0.83616126 1.0365798 0.4419606 0
0.84088844 1.0456239 0.52879149 0
1.1391182 1.6586888 -0.049805675 0
1.0945634 1.5707668 0.27013165 0
1.0036687 1.3914003 0.32835379 0
0.90227288 1.1913116 0.35172412 0
0.85233533 1.0927677 0.39051113 0
0.84478039 1.0778592 0.4622986 0
0.83990568 1.0682397 0.54045033 0
1.1246526 1.6738831 -0.050060548 0
1.0749092 1.5725787 0.26884174 0
0.98761547 1.3948013 0.32730192 0
0.88445938 1.1847196 0.34711596 0
0.84555489 1.105489 0.39397115 0
0.84401393 1.1023507 0.473093 0
0.84236693 1.0989966 0.55742431 0
1.106957 1.6827102 -0.050069418 0
0.96800715 1.3904895 0.32413468 0
0.87642497 1.1978861 0.34989706 0
0.84400004 1.1296945 0.40271476 0
0.84021544 1.1217352 0.48099884 0
0.8379485 1.1169676 0.5658803 0
1.0888627 1.6906934 -0.05005385 0
0.94581538 1.3798217 0.31927019 0
0.86399096 1.2020001 0.34938395 0
0.83828813 1.1461424 0.40788123 0
0.83952183 1.1488235 0.49312854 0
0.84284002 1.1560346 0.58809584 0
1.0698841 1.6966701 -0.049968895 0
0.9301489 1.3826431 0.31827807 0
0.85744309 1.2192514 0.35371476 0
0.83725315 1.1738786 0.41816708 0
0.83689511 1.1730739 0.50364107 0
0.84244448 1.1855448 0.60394377 0
1.0500336 1.700475 -0.049809311 0
0.91693997 1.3909385 0.31886643 0
0.85084212 1.2372143 0.35830989 0
0.84218514 1.2170807 0.43537363 0
0.83915937 1.2100437 0.52104235 0
0.83848512 1.2084756 0.61546195 0
1.0373027 1.7211448 -0.050312169 0
0.89709133 1.3833977 0.31512314 0
0.85176504 1.2742136 0.36976841 0
0.84047031 1.2470064 0.44651079 0
0.83939213 1.2444092 0.53692663 0
0.83483297 1.2334268 0.62824965 0
1.0140322 1.716458 -0.049843524 0
0.88222563 1.3873127 0.31461596 0
0.84453321 1.2931879 0.37470534 0
0.83902937 1.2794437 0.45872176 0
0.84208119 1.2870648 0.55719739 0
0.83871782 1.2786658 0.65396285 0
1.0023142 1.7407967 -0.050499134 0
0.86275506 1.3791631 0.31086323 0
0.85094661 1.3485644 0.39263228 0
0.84125775 1.3234582 0.47601953 0
0.83584535 1.3094332 0.5664717 0
0.8375482 1.3138458 0.6731261 0
0.97700983 1.7299021 -0.049815439 0
0.85093164 1.3905405 0.31250954 0
0.84144443 1.3650039 0.39662763 0
0.84063005 1.362812 0.49116567 0
0.83904034 1.3585329 0.59001261 0
0.8408106 1.3632979 0.70123857 0
0.9573673 1.7334321 -0.049693763 0
0.82908624 1.3743551 0.30672148 0
0.83908683 1.4023482 0.40803277 0
0.83860356 1.4009954 0.50573266 0
0.84073067 1.4069495 0.61306357 0
0.94061154 1.7451206 -0.049889915 0
0.8161487 1.3823782 0.30756256 0
0.84239566 1.4588741 0.42614609 0
0.83599681 1.4402249 0.520706 0
0.83972323 1.4510853 0.63373941 0
0.92340833 1.7559019 -0.050059102 0
1.0300548 2.0799546 0.35071433 0
0.80059779 1.3827336 0.30638447 0
0.83952522 1.5010175 0.43913239 0
0.839077 1.4996555 0.54443705 0
0.84305745 1.5117502 0.66304302 0
0.90345675 1.7583714 -0.049924608 0
1.0076379 2.0888913 0.35100874 0
0.78116918 1.3704079 0.30187133 0
0.83982724 1.5565035 0.45673427 0
0.84110904 1.5605702 0.56870151 0
0.83772981 1.5498495 0.68037039 0
0.88398558 1.7621169 -0.049847595 0
0.98392129 2.0936718 0.3505725 0
0.77009237 1.3842555 0.30441493 0
0.84124899 1.6203305 0.47716641 0
0.8394177 1.6142548 0.58973646 0
0.86630958 1.7719163 -0.050004881 0
0.96056134 2.0994852 0.35038784 0
0.75158966 1.3732108 0.30037794 0
0.83979589 1.6797688 0.49599916 0
0.84126073 1.6848596 0.61799437 0
0.84865522 1.7822258 -0.050188769 0
0.73791379 1.3782747 0.047235075 0
0.73807812 1.3788741 0.1301941 0
0.74060333 1.3880852 0.2161378 0
0.73826724 1.3795638 0.30101913 0
0.8338998 1.7284025 0.51104605 0
0.8360886 1.7363868 0.63795459 0
0.82956183 1.7875414 -0.050196022 0
0.72496003 1.3862355 0.047390182 0
0.72514993 1.3869641 0.13067514 0
0.72304004 1.3788694 0.21371387 0
0.72417605 1.3832277 0.30099353 0
0.83256119 1.7990487 0.53363729 0
0.83113462 1.7935754 0.66029972 0
0.80722946 1.7797914 -0.049731597 0
0.70951784 1.3845973 0.047197804 0
0.71015292 1.3871659 0.13029946 0
0.7107417 1.3895472 0.21503447 0
0.70999765 1.3865379 0.30092177 0
0.82454878 1.8498393 0.54935944 0
0.82621998 1.8565983 0.68509036 0
0.78816539 1.7845882 -0.049738903 0
0.69338942 1.3794399 0.046884097 0
0.69280833 1.3769561 0.12879662 0
0.69589007 1.3901298 0.2145101 0
0.69373959 1.3809369 0.29856211 0
0.81664306 1.9063243 0.56701553 0
0.77167684 1.8010937 -0.05018305 0
0.6782406 1.3777055 0.046703834 0
0.67957979 1.3837739 0.129196 0
0.68011647 1.3862057 0.21318944 0
0.67956871 1.3837237 0.29845411 0
0.80532295 1.9535546 0.58150345 0
0.7510792 1.7993555 -0.049968418 0
0.66408587 1.3801469 0.04668327 0
0.66288936 1.3743813 0.12783341 0
0.66402876 1.3798717 0.21146499 0
0.66432011 1.3812757 0.29702887 0
0.79517651 2.0118542 0.59976327 0
0.73013365 1.795051 -0.049670417 0
0.65312487 1.3989513 0.047264367 0
0.64891696 1.3773077 0.1278459 0
0.64903325 1.377906 0.21058457 0
0.65034258 1.3846405 0.2971679 0
0.7773307 2.0378118 0.60706031 0
0.71230847 1.8067895 -0.049964778 0
0.63445771 1.3775795 0.046391401 0
0.63345683 1.3720611 0.12698492 0
0.63620001 1.3871852 0.21180195 0
0.6360563 1.386393 0.29693428 0
0.76258534 2.0839775 0.62124968 0
0.69140637 1.8015257 -0.049651105 0
0.62120557 1.3846682 0.046559196 0
0.62278795 1.3940645 0.12911677 0
0.61917228 1.3725942 0.2086807 0
0.62140268 1.3858387 0.29615092 0
0.74494523 2.1194439 0.63186193 0
0.6738857 1.8165904 -0.050082039 0
0.60544962 1.3764384 0.046179235 0
0.60642672 1.3827229 0.12763247 0
0.6062786 1.3817701 0.20994261 0
0.60702866 1.3865944 0.295755 0
0.72731096 2.1601992 0.64430904 0
0.65301549 1.8103435 -0.049751606 0
0.59136927 1.3780761 0.046162963 0
0.59172922 1.3805999 0.12717396 0
0.59197229 1.3823044 0.20965755 0
0.59243697 1.3855629 0.2949459 0
0.70860708 2.200155 0.6565398 0
0.63490176 1.8235478 -0.050131444 0
0.57786238 1.3840601 0.046309575 0
0.57888764 1.3919599 0.12819743 0
0.5782609 1.3871307 0.21018632 0
0.57956749 1.3971982 0.29744425 0
0.68791533 2.2320168 0.66611427 0
0.61609948 1.8332001 -0.050391249 0
0.5635224 1.3838336 0.046238855 0
0.56311935 1.3803889 0.1267557 0
0.56378192 1.3860518 0.2096734 0
0.56428319 1.3903359 0.29522905 0
0.66686618 2.2670934 0.67683887 0
0.59441775 1.8170307 -0.049732354 0
0.55198151 1.4099952 0.12978663 0
0.55283827 1.4182131 0.2152216 0
0.55232251 1.4132663 0.30070841 0
0.64489949 2.3012362 0.68732566 0
0.5759154 1.830529 -0.050147619 0
0.55211681 1.5705612 0.1469622 0
0.55101335 1.5585076 0.24037156 0
0.55273038 1.5772637 0.34236133 0
0.62159896 2.32956 0.69594896 0
0.55566746 1.8256572 -0.049912952 0
0.60327506 2.4293447 0.23939045 0
0.59864455 2.3706274 0.38703975 0
0.59784144 2.3604431 0.54243517 0
0.53588617 1.8253757 -0.049851835 0
0.57425302 2.4049053 0.39288744 0
0.57298744 2.3857889 0.54842615 0
0.51601589 1.8226863 -0.049713586 0
0.54831278 2.4256165 0.39633641 0
0.54794425 2.418736 0.55643517 0
0.49692497 1.8367219 -0.050181951 0
0.52188987 2.4464147 0.3998583 0
0.52220738 2.4541683 0.56515527 0
0.47668412 1.8219545 -0.049630024 0
0.45652905 1.1107634 0.35657716 0
0.45650962 1.1100771 0.42931017 0
0.45729354 1.8366646 -0.050139822 0
0.44582489 1.1081293 0.35538909 0
0.44578987 1.1059048 0.42710486 0
0.43750492 1.8401496 -0.050257571 0
0.43515 1.0923737 0.4202846 0
0.43511772 1.082126 0.49096972 0
0.41776827 1.8289995 -0.049861707 0
0.42472377 1.0923889 0.42030859 0
0.42492956 1.0705972 0.48415145 0
0.39802569 1.8306491 -0.049931686 0
0.4140228 1.1047425 0.35402808 0
0.41395473 1.1078314 0.42811909 0
0.4146249 1.0774215 0.48829439 0
0.37821865 1.8326436 -0.050022893 0
0.35262641 2.5714655 0.42233083 0
0.35218567 2.5841897 0.59821469 0
0.40499854 1.0595359 0.47785303 0
0.35862425 1.8287092 -0.049911167 0
0.32251582 2.592875 0.42641103 0
0.32226691 2.5981433 0.6020841 0
0.39526668 1.0532422 0.47435981 0
0.3383323 1.8376896 -0.050270073 0
0.29207611 2.6101723 0.42981979 0
0.29153377 2.6192296 0.60787565 0
0.38622224 1.0379235 0.46557474 0
0.31939337 1.8244721 -0.049843874 0
0.26168144 2.6202044 0.43198729 0
0.26093236 2.6305325 0.61126888 0
0.30049235 1.8143133 -0.04953536 0
0.22987047 2.6432395 0.43657988 0
0.22994737 2.6423368 0.61489278 0
0.27916551 1.8311366 -0.050202895 0
0.19797008 2.6605577 0.44021472 0
0.19778362 2.6624625 0.6207543 0
0.25946325 1.8289633 -0.050198659 0
0.19096614 2.4481592 0.084439598 0
0.16752572 2.6600547 0.44069383 0
0.1680501 2.6553142 0.61972696 0
0.34607601 1.0460061 0.47237408 0
0.23996527 1.825133 -0.05014373 0
0.16893567 2.4007995 0.082851619 0
0.13500328 2.675808 0.44419733 0
0.13454513 2.6795208 0.62685448 0
0.22127327 1.8156486 -0.049893823 0
0.14340489 2.3874092 0.082494847 0
0.10186051 2.6924551 0.44794402 0
0.10344623 2.6808119 0.62820238 0
0.2010043 1.8179196 -0.050076257 0
0.11615334 2.3872428 0.082626328 0
0.069385126 2.7010427 0.45030418 0
0.069391564 2.7009995 0.63452798 0
0.18185176 1.8124719 -0.049989123 0
0.08972083 2.3814116 0.082565598 0
0.035782829 2.7144969 0.45363295 0
0.036025062 2.713001 0.6388616 0
0.16297041 1.805812 -0.049866598 0
0.064910576 2.3665278 0.082188688 0
0.003317164 2.7187252 0.45535728 0
0.003791617 2.7160122 0.64098489 0
0.14474224 1.7961267 -0.049642507 0
0.027645009 2.4193516 0.084281765 0
-0.029005004 2.7208591 0.45677629 0
-0.029951466 2.7258964 0.64500266 0
0.12359197 1.8017688 -0.049984347 0
-0.016431255 2.4985514 0.0873577 0
-0.090063944 2.8649616 0.29107097 0
-0.061683074 2.7237329 0.45840982 0
-0.0626394 2.7284918 0.64724427 0
0.10293607 1.8039351 -0.050209913 0
-0.064732864 2.5871024 0.090803586 0
-0.1111178 2.8037622 0.28509074 0
-0.096575394 2.735836 0.46182573 0
-0.094985798 2.7284112 0.64890099 0
0.083984807 1.7978698 -0.050144266 0
-0.14588375 2.8091886 0.099170573 0
-0.14140768 2.7894959 0.28429508 0
-0.13092424 2.7433734 0.46448818 0
-0.12689783 2.7256591 0.64996994 0
0.063923016 1.7966051 -0.050263446 0
-0.17423023 2.7865319 0.098613463 0
-0.17446257 2.7874978 0.28489512 0
-0.16136546 2.7330573 0.46392709 0
-0.16216262 2.7363708 0.65468043 0
0.045288995 1.7893637 -0.050172146 0
-0.2100413 2.7948461 0.099208489 0
-0.2098334 2.7940273 0.28648874 0
-0.19468923 2.73439 0.46560296 0
-0.19331272 2.7289696 0.65475488 0
0.027012037 1.7810239 -0.050048608 0
-0.25325626 2.8292055 0.10078467 0
-0.25233901 2.8257749 0.29094258 0
-0.23005302 2.7424271 0.46861425 0
-0.23022307 2.743063 0.6606096 0
0.0075165494 1.7773323 -0.050105523 0
-0.26105672 2.7333698 0.46851724 0
-0.26197255 2.73663 0.66116834 0
-0.010347379 1.7679485 -0.049959917 0
-0.29460472 2.73298 0.47012269 0
-0.29522467 2.7350848 0.66313541 0
-0.026591642 1.7536491 -0.049638487 0
-0.32700068 2.7280755 0.47096187 0
-0.32545358 2.723057 0.66242296 0
-0.046434477 1.7512498 -0.049769759 0
-0.35689372 2.7150018 0.47033381 0
-0.3617264 2.7300038 0.66689545 0
-0.068368748 1.7547729 -0.050134037 0
-0.39670175 2.7316885 0.47543681 0
-0.39535415 2.7276788 0.66901404 0
-0.084375337 1.7405809 -0.049840245 0
-0.4244194 2.7116756 0.47364518 0
-0.4251942 2.7138884 0.66815686 0
-0.10251255 1.7328328 -0.049797591 0
-0.45692027 2.7055061 0.47456935 0
-0.45496207 2.7001319 0.6674068 0
-0.12304915 1.7314965 -0.050008208 0
-0.48905134 2.6979811 0.47531527 0
-0.4879719 2.6951306 0.66914368 0
-0.13955672 1.7194978 -0.049820747 0
-0.51979291 2.6866231 0.4754003 0
-0.52009183 2.6873834 0.67025006 0
-0.15994872 1.7173673 -0.05002078 0
-0.55094951 2.6762376 0.47575042 0
-0.5482251 2.6695566 0.66869611 0
-0.17849953 1.7105085 -0.050048552 0
-0.58196974 2.6653905 0.47608861 0
-0.5830766 2.6680102 0.67174095 0
-0.19639589 1.7020971 -0.050025053 0
-0.60948849 2.6464083 0.474904 0
-0.6155268 2.6602116 0.67318338 0
-0.21378429 1.6925957 -0.04996752 0
-0.64040136 2.6353149 0.47534266 0
-0.63985538 2.6341085 0.66962224 0
-0.23277237 1.6866025 -0.050056513 0
-0.66512525 2.6108346 0.47319573 0
-0.67249429 2.6265872 0.67135996 0
-0.24848212 1.6736734 -0.049880497 0
-0.7035135 2.6153083 0.47689745 0
-0.69809318 2.6040916 0.66898125 0
-0.27190286 1.6764728 -0.050338756 0
-0.73119771 2.5971556 0.47615942 0
-0.72791922 2.5905836 0.66924173 0
-0.28536558 1.6592113 -0.050006304 0
-0.75682962 2.5752292 0.47472161 0
-0.75580847 2.573245 0.66851217 0
-0.30649102 1.6568816 -0.050281961 0
-0.78502452 2.5585492 0.47441101 0
-0.78604484 2.5604718 0.66919738 0
-0.31913954 1.6386422 -0.049922902 0
-0.81351745 2.5424936 0.47429937 0
-0.8090471 2.5343206 0.66610748 0
-0.33682352 1.6298494 -0.049954891 0
-0.62051439 2.1333463 0.082587324 0
-0.83625746 2.5162489 0.47215176 0
-0.83779514 2.5189781 0.66624528 0
-0.35250717 1.6175573 -0.049851846 0
-0.61907268 2.0770345 0.08081647 0
-0.86614621 2.5029137 0.47273952 0
-0.86187077 2.4955442 0.66410381 0
-0.37596446 1.6184199 -0.050303195 0
-0.61622119 2.0207901 0.079034306 0
-0.89173615 2.482209 0.47186249 0
-0.88726878 2.4747272 0.6628136 0
-0.38900506 1.6017116 -0.050034162 0
-0.61320281 1.9666674 0.077325709 0
-0.91317153 2.4549656 0.46966264 0
-0.91333222 2.4552271 0.6620031 0
-0.40333629 1.5873955 -0.049870912 0
-0.61731434 1.9260786 0.076173402 0
-0.93490636 2.4287612 0.46772426 0
-0.94295847 2.4415059 0.66302884 0
-0.42259312 1.5808682 -0.050045554 0
-0.62173104 1.8874444 0.075097039 0
-0.96583164 2.4171934 0.4689762 0
-0.95666003 2.4030735 0.65665805 0
-0.44614345 1.5805445 -0.050498333 0
-0.61860466 1.8388721 0.073587358 0
-0.98541093 2.3883064 0.46656722 0
-0.98164165 2.3826604 0.65581387 0
-0.45681161 1.5608711 -0.050130103 0
-0.61544669 1.792129 0.072142094 0
-0.9964062 2.3474913 0.46158236 0
-1.0041125 2.3587255 0.65396971 0
-0.47031808 1.5456711 -0.049959812 0
-0.62023771 1.7584304 0.071251921 0
-1.022794 2.32972 0.46166757 0
-1.016307 2.3205142 0.6477412 0
-0.48684222 1.5348407 -0.049987983 0
-0.62119639 1.7205005 0.070169784 0
-0.62223279 1.7219325 0.19935615 0
-1.0419741 2.3019598 0.4596034 0
-1.0386568 2.2973759 0.64625078 0
-0.077938333 0.96978927 0.44167081 0
-0.49860018 1.5175571 -0.049738612 0
-0.62398517 1.6863074 0.069244213 0
-0.62166703 1.6831875 0.19596228 0
-1.0648792 2.2796879 0.45880702 0
-1.068807 2.2849741 0.64824802 0
-0.091078714 0.9690913 0.44527715 0
-0.51284689 1.5038213 -0.049652748 0
-0.62244058 1.6475037 0.06810426 0
-0.61447155 1.6370559 0.19153631 0
-1.0822281 2.2503064 0.45645547 0
-1.0812705 2.2490509 0.6428383 0
-0.098790064 0.9609735 0.44435281 0
-0.5297516 1.4935739 -0.049732294 0
-0.61395073 1.6011269 0.066608779 0
-0.61908805 1.6076893 0.18934235 0
-1.0974697 2.2187576 0.45363405 0
-1.102074 2.2246392 0.64115548 0
-0.10859056 0.95559698 0.44522256 0
-0.54953611 1.4868165 -0.049982179 0
-0.6199863 1.5745096 0.065998107 0
-0.61517024 1.5685147 0.18578203 0
-1.1170977 2.19329 0.45223492 0
-1.1138284 2.1892207 0.6359387 0
-0.12790658 0.9619922 0.45373517 0
-0.56226271 1.471215 -0.049836941 0
-0.61316407 1.5329658 0.064693965 0
-0.6153723 1.5356445 0.18305576 0
-1.1311389 2.1613443 0.44936457 0
-1.1344353 2.1653433 0.63453209 0
-0.13942756 0.95825458 0.45592317 0
-0.58121884 1.4631336 -0.050049216 0
-0.61876452 1.5075308 0.064125054 0
-0.61689627 1.5053216 0.18065919 0
-1.1442252 2.1288822 0.44638309 0
-1.1387678 2.1224289 0.62683594 0
-0.15329893 0.95712292 0.45993677 0
-0.59496117 1.4488087 -0.049979959 0
-0.61894596 1.4764568 0.063286684 0
-0.62262654 1.4806994 0.17905006 0
-1.1670774 2.1083055 0.44624567 0
-1.1541314 2.0933824 0.62375736 0
-0.61238122 1.4386858 -0.050118953 0
-0.63781393 1.4672678 0.063484848 0
-0.62958229 1.4580168 0.17771214 0
-1.1777329 2.0740433 0.44287205 0
-1.1728746 2.0685835 0.62216055 0
-0.62537742 1.4235655 -0.050028551 0
-0.6639806 1.4658641 0.064073011 0
-0.6567235 1.4579122 0.17965649 0
-1.1842291 2.0359154 0.43854806 0
-1.1790994 2.0302947 0.6159668 0
-0.64036953 1.4106662 -0.050053641 0
-0.50919706 1.2705221 0.055200618 0
-0.68657589 1.4600328 0.18200146 0
-1.1934264 2.0015495 0.43512228 0
-1.1960689 2.0043728 0.61404854 0
-0.65430331 1.3966343 -0.050032277 0
-0.50720137 1.2433854 0.054448448 0
-0.71485364 1.4597149 0.18406732 0
-1.2075872 1.9730386 0.43314728 0
-1.2013694 1.966561 0.60797721 0
-0.66274953 1.3770449 -0.049740966 0
-0.5119229 1.2238249 0.054065187 0
-0.74225914 1.4578162 0.18597394 0
-1.2110342 1.9340301 0.42853594 0
-1.215719 1.9387892 0.60544831 0
-0.68208432 1.3685265 -0.050012916 0
-0.52380192 1.2117312 0.054058816 0
-0.7708391 1.4564474 0.18803822 0
-1.2213541 1.9027297 0.425852 0
-1.2199385 1.9013274 0.59943926 0
-0.69516981 1.3537004 -0.04997674 0
-0.5525102 1.2158966 0.05489549 0
-0.81714404 1.471523 0.19272864 0
-1.2251707 1.8656617 0.42166919 0
-1.2223856 1.8629715 0.59304243 0
-0.70918596 1.3397819 -0.049995851 0
-0.56404799 1.2030743 0.054877587 0
-0.83585608 1.4590942 0.19326183 0
-1.2324011 1.8326055 0.41849783 0
-1.2236874 1.8243979 0.58648998 0
-0.72252762 1.3252212 -0.049990587 0
-0.86638272 1.4573418 0.068963788 0
-0.87110317 1.4616772 0.19622464 0
-1.2354572 1.7963102 0.41444328 0
-1.2328191 1.7938873 0.58289438 0
-0.24008586 0.88213289 0.3841255 0
-0.74164891 1.3158368 -0.050271206 0
-0.9056226 1.462672 0.07012938 0
-0.89400029 1.4522643 0.19736789 0
-1.2399775 1.76208 0.41089997 0
-1.2333561 1.7561506 0.57652795 0
-0.23094733 0.85851377 0.37475312 0
-0.75380218 1.3001021 -0.050224151 0
-0.94447851 1.4665709 0.071260832 0
-1.2288461 1.714836 0.40375197 0
-1.2380989 1.7229141 0.5718174 0
-0.23585619 0.84791291 0.37336835 0
-0.76215482 1.2811723 -0.050008759 0
-0.9728967 1.4605335 0.071888573 0
-1.240411 1.6882133 0.40219685 0
-1.2383413 1.6864519 0.5657903 0
-0.23112805 0.82921827 0.36683175 0
-0.25274062 0.84761262 0.45624572 0
-0.77881193 1.2693251 -0.050191946 0
-1.0115796 1.4624318 0.072989501 0
-1.2413913 1.6530861 0.39825657 0
-1.2357655 1.6484188 0.55904454 0
-0.25090486 0.83136749 0.37367326 0
-0.78404331 1.2480693 -0.04985559 0
-1.0414846 1.4562292 0.073675171 0
-1.2512187 1.6258142 0.3965112 0
-1.2435309 1.619598 0.55591804 0
-0.24645169 0.81338775 0.36752981 0
-0.80230856 1.2373817 -0.050127205 0
-1.089766 1.4638858 0.075192891 0
-1.2482588 1.5887713 0.39192626 0
-1.2379839 1.5806752 0.54861677 0
-0.26875824 0.81696689 0.37567261 0
-0.81046796 1.2186898 -0.049947429 0
-1.1295412 1.4636574 0.076308794 0
-1.2479005 1.5545274 0.38808349 0
-1.2354276 1.5449514 0.5425061 0
-0.26514405 0.80001891 0.37018317 0
-0.24760409 0.78655261 0.43503171 0
-0.82475579 1.204736 -0.050053105 0
-1.1734874 1.4655609 0.077600323 0
-1.2428309 1.5174246 0.38331327 0
-1.239573 1.5149879 0.53873187 0
-0.25361097 0.77756292 0.36076176 0
-0.28261626 0.79925662 0.45283309 0
-0.83237338 1.185827 -0.04987099 0
-1.2078427 1.4593457 0.078455366 0
-1.2487612 1.4891536 0.38114575 0
-1.2446806 1.4861811 0.53541547 0
-1.242196 1.4843711 0.69533932 0
-0.26439649 0.77207208 0.36300445 0
-0.27660519 0.78096581 0.44497818 0
-0.84920335 1.1736068 -0.050104208 0
-1.2458576 1.4549822 0.07946644 0
-1.2454833 1.4547166 0.37704045 0
-1.2365737 1.4483964 0.52810895 0
-1.2450163 1.4543854 0.69027793 0
-0.2790435 0.76915121 0.36722273 0
-0.28700197 0.77479672 0.44740033 0
-0.86004531 1.1570473 -0.050082307 0
-1.3101093 1.4678664 0.08160951 0
-1.2409505 1.4201045 0.37279111 0
-1.2444071 1.4224917 0.52595627 0
-1.2425274 1.4211936 0.68326718 0
-0.28341061 0.75881702 0.44134331 0
-0.87047517 1.1402256 -0.050051872 0
-1.2790246 1.4148417 0.079626426 0
-1.266138 1.4061797 0.2259642 0
-1.2489108 1.3946 0.37138754 0
-1.2420611 1.3899958 0.52079332 0
-1.2423352 1.3901801 0.6774044 0
-0.28989303 0.74997389 0.44153231 0
-0.87840617 1.1217916 -0.049924158 0
-1.2749003 1.3811167 0.078838326 0
-1.2735393 1.3802266 0.22508577 0
-1.2481213 1.3636019 0.36817938 0
-1.2440337 1.3609285 0.5171144 0
-1.2410678 1.3589888 0.67131817 0
-0.30547643 0.74706972 0.44722769 0
-0.89696956 1.1102251 -0.050257228 0
-1.2745394 1.35044 0.078233793 0
-1.2744693 1.3503953 0.22343181 0
-1.258106 1.3399849 0.36738366 0
-1.2539226 1.3373233 0.51596981 0
-1.2462099 1.3324164 0.66796339 0
-0.30819422 0.73563844 0.44526988 0
-0.90303826 1.0906487 -0.050069313 0
-1.287936 1.3287712 0.078227788 0
-1.2928201 1.3317928 0.22403991 0
-1.2489711 1.3046651 0.36260265 0
-1.2387958 1.2983699 0.50741863 0
-1.2382671 1.2980428 0.65964705 0
-0.91517377 1.0748717 -0.050145864 0
-1.3106291 1.3126935 0.078620538 0
-1.3162745 1.3160886 0.22531292 0
-1.2448157 1.2731142 0.35899964 0
-1.2474265 1.2746842 0.50615156 0
-1.2308599 1.2647213 0.65177006 0
-0.92251813 1.0562286 -0.05003199 0
-1.3343446 1.2968876 0.079061076 0
-1.3370954 1.2984951 0.22627349 0
-1.2529867 1.2493445 0.35808107 0
-1.2373275 1.2401937 0.49944755 0
-1.238134 1.2406651 0.64977032 0
-0.93143392 1.0385664 -0.049993102 0
-1.3822117 1.2944283 0.080498151 0
-1.3802921 1.2933387 0.23001978 0
-1.2518326 1.220425 0.3552976 0
-1.2414181 1.2145137 0.49708194 0
-1.2466023 1.2174562 0.64835793 0
-0.95109355 1.0268525 -0.050401539 0
-1.2495745 1.1913364 0.35238129 0
-1.2362831 1.1840118 0.49213973 0
-1.2435628 1.1880234 0.64269537 0
-0.95014524 1.0037879 -0.049978904 0
-1.2561125 1.1674089 0.35135862 0
-1.2311326 1.1540506 0.48733768 0
-1.246546 1.1622932 0.63948327 0
-0.95931435 0.98630315 -0.049977638 0
-1.2635257 1.1440922 0.35058188 0
-1.2350804 1.129338 0.48529062 0
-1.2320087 1.1277449 0.62984753 0
-0.97181416 0.97049075 -0.050118305 0
-1.2750109 1.1229398 0.35069147 0
-1.240047 1.1053598 0.48363656 0
-1.2439337 1.107314 0.63028914 0
-0.9767561 0.95088279 -0.049965907 0
-1.2879521 1.1024755 0.35114607 0
-1.2405815 1.0793999 0.4808208 0
-1.2424254 1.0802982 0.62585241 0
-0.99428439 0.93732649 -0.050321005 0
-1.2823433 1.0731878 0.34795064 0
-1.2352091 1.0509572 0.47644791 0
-1.2435079 1.0548713 0.62252039 0
-0.99439657 0.91554374 -0.049997326 0
-1.2977527 1.0539778 0.34901348 0
-1.2310742 1.0235497 0.47254789 0
-1.2475822 1.031083 0.62041909 0
-1.0033993 0.89792973 -0.0500331 0
-1.3001981 1.0288815 0.34756276 0
-1.2398709 1.0022644 0.47237208 0
-1.2346565 0.99996364 0.61225671 0
-1.0052699 0.87724483 -0.049800526 0
-1.3308424 1.0160214 0.35171029 0
-1.244032 0.97901803 0.47098613 0
-1.2423996 0.97832221 0.61175519 0
-1.0306867 0.86642206 -0.050488237 0
-1.3254665 0.98771012 0.34884349 0
-1.2357234 0.95078504 0.4662481 0
-1.2446533 0.95445931 0.60937977 0
