# .PCD v0.7 - Point Cloud Data file format
VERSION 0.7
FIELDS x y z intensity
SIZE 4 4 4 4
TYPE F F F F
COUNT 1 1 1 1
WIDTH 1352
HEIGHT 1
VIEWPOINT 0 0 0 1 0 0 0
POINTS 1352
DATA ascii
-1.1334996 0.18542559 -0.049980719 0
-0.5080775 0.21695404 0.10721613 0
-0.51376176 0.21666749 0.17688145 0
-1.2294068 0.18059076 0.43055493 0
-1.2449983 0.17980477 0.56481677 0
-1.2373197 0.18019187 0.6982609 0
-1.1312149 0.16578704 -0.049938984 0
-0.51918256 0.20437181 0.10848428 0
-0.51056725 0.20491496 0.17642628 0
-1.2421756 0.15879168 0.43412244 0
-1.2337333 0.1593239 0.56146073 0
-1.1340032 0.14579085 -0.050087698 0
-0.51385665 0.19273345 0.10799982 0
-0.51882941 0.19235703 0.17806953 0
-1.2400503 0.1377635 0.43395278 0
-1.2410629 0.13768685 0.56439167 0
-1.1265903 0.1265877 -0.049879983 0
-0.50299835 0.18169606 0.10693375 0
-0.49900085 0.18204932 0.17465736 0
-1.2402622 0.11654226 0.43444929 0
-1.2425909 0.11633646 0.56547904 0
-1.1293815 0.1064973 -0.050046828 0
-0.51228791 0.16887133 0.10805764 0
-0.52039909 0.16805148 0.17873745 0
-1.2386494 0.095452808 0.43454707 0
-1.2323917 0.096085317 0.56273627 0
-1.1291851 0.086625315 -0.050115645 0
-0.51747096 0.15624706 0.04013567 0
-0.52126962 0.15581472 0.1091673 0
-0.51242656 0.15682119 0.17752418 0
-1.2305783 0.075085334 0.43305475 0
-1.2404056 0.073966853 0.56617332 0
-1.1238494 0.067351811 -0.050008629 0
-0.51938301 0.14386991 0.04025618 0
-0.51150054 0.14486773 0.10826529 0
-0.50531524 0.1456507 0.17649122 0
-1.2510035 0.051255647 0.43895429 0
-1.2358047 0.053179625 0.56547886 0
-1.1172173 0.048332084 -0.049863432 0
-0.51526737 0.13224526 0.040165238 0
-0.52360284 0.13108326 0.10974989 0
-0.51739877 0.13194813 0.17897728 0
-1.2497071 0.029862721 0.43934593 0
-1.2378665 0.031513322 0.56710911 0
-1.1243379 0.027318779 -0.050223246 0
-0.50625724 0.12142881 0.03990265 0
-0.5057584 0.12150476 0.10800074 0
-0.51802975 0.1196363 0.17941031 0
-1.2343228 0.010572304 0.4361721 0
-1.2369889 0.010166337 0.56784505 0
-1.1163833 0.0085350471 -0.050047882 0
-0.51347506 0.10811777 0.040231649 0
-0.51887316 0.10722617 0.1096333 0
-0.51123655 0.10848751 0.17851545 0
-1.2414303 -0.012119035 0.43887058 0
-1.2475784 -0.013134549 0.57253975 0
-1.1194479 -0.012089114 -0.05028028 0
-0.51006675 0.096461959 0.040182117 0
-0.50861245 0.096721031 0.10873747 0
-0.51507699 0.095569469 0.17959224 0
-1.2424265 -0.033995729 0.44006532 0
-1.2452931 -0.034506362 0.57299328 0
-1.1047666 -0.029491168 -0.049877647 0
-0.52020079 0.082251094 0.040630028 0
-0.52045226 0.082203023 0.11027206 0
-0.51590246 0.083072744 0.18014784 0
-1.2481284 -0.056895386 0.44255671 0
-1.2354549 -0.054472815 0.57098061 0
-1.1128634 -0.051258724 -0.050311945 0
-0.51642942 0.070555829 0.040578913 0
-0.52088898 0.069645025 0.11057984 0
-0.49517614 0.074896567 0.17676675 0
-1.2414582 -0.077522673 0.44190782 0
-1.2432215 -0.077882834 0.57502604 0
-1.0941607 -0.06751702 -0.049778312 0
-0.51761985 0.057816837 0.040714316 0
-0.50768358 0.05997688 0.10940548 0
-0.50966805 0.059545476 0.17989528 0
-1.2461529 -0.10055853 0.44429219 0
-1.2342538 -0.097971804 0.57348526 0
-1.1014593 -0.089388527 -0.05020326 0
-0.50250477 0.048738111 0.040258572 0
-0.51351637 0.0461987 0.11034083 0
-0.51251483 0.046429653 0.18091333 0
-1.239204 -0.12115426 0.44371068 0
-1.2413069 -0.1216392 0.57749617 0
-1.0921878 -0.10753012 -0.050030708 0
-0.50880498 0.034764785 0.040592588 0
-0.49988353 0.036940847 0.10914496 0
-0.51012248 0.034443427 0.18099254 0
-1.2340604 -0.14213474 0.4436695 0
-1.2410326 -0.14383538 0.57911211 0
-1.0954171 -0.12876569 -0.050326835 0
-0.5451715 0.01281028 0.042042535 0
-0.54544276 0.012740483 0.11452661 0
-0.55651438 0.0098917978 0.19018482 0
-1.2444968 -0.16712324 0.4478021 0
-1.2395849 -0.16585945 0.58042604 0
-1.0922602 -0.1484917 -0.050397638 0
-0.62854934 -0.022934835 0.045246437 0
-0.61556017 -0.019417804 0.12269482 0
-1.2403735 -0.18859561 0.31857231 0
-1.243578 -0.18946327 0.44903043 0
-1.242187 -0.18908666 0.58323574 0
-1.069249 -0.1626278 -0.049740981 0
-0.68823123 -0.054294121 0.047598999 0
-0.68157256 -0.052400898 0.13047884 0
-1.2336103 -0.20936014 0.31839848 0
-1.2329918 -0.2091843 0.44777346 0
-1.2381026 -0.21063741 0.58384377 0
-1.0803472 -0.18644799 -0.050359137 0
-0.77389145 -0.095128424 0.050942853 0
-0.78240418 -0.097665109 0.14224319 0
-1.2449942 -0.23551051 0.32168812 0
-1.2444218 -0.23533995 0.45243886 0
-1.2407578 -0.23424812 0.58688778 0
-1.0630697 -0.20188211 -0.049929786 0
-0.86617637 -0.14050104 0.054566786 0
-0.86630666 -0.14054163 0.15221213 0
-1.2412944 -0.25744334 0.32220334 0
-1.2430536 -0.2579917 0.45379019 0
-1.2475022 -0.25937858 0.59147221 0
-1.0609012 -0.22192083 -0.050073244 0
-0.99455845 -0.20031844 0.059582327 0
-0.98250687 -0.19639419 0.16593331 0
-1.2369519 -0.27924618 0.32265103 0
-1.2330139 -0.27796391 0.4528968 0
-1.2409925 -0.28056189 0.59154856 0
-1.0460645 -0.23776756 -0.049749169 0
-1.1333829 -0.26742116 0.065041408 0
-1.1233026 -0.26399788 0.18258446 0
-1.2504759 -0.30718634 0.32655579 0
-1.2357908 -0.30219921 0.45552054 0
-1.0502822 -0.26011488 -0.050152756 0
-1.2952076 -0.34674689 0.20295304 0
-1.2427367 -0.32818756 0.32647753 0
-1.2428945 -0.32824335 0.4594093 0
-1.0375378 -0.27652773 -0.049923632 0
-1.2543623 -0.35630593 0.19917256 0
-1.2455312 -0.35305658 0.32847384 0
-1.2393861 -0.3507956 0.46052015 0
-1.0357234 -0.2969496 -0.05011905 0
-1.2557063 -0.3810496 0.20024174 0
-1.2363033 -0.37363175 0.32821885 0
-1.237609 -0.37413093 0.4621866 0
-1.034458 -0.31774089 -0.050346386 0
-1.2482789 -0.40258607 0.20033805 0
-1.2400109 -0.39930525 0.33052254 0
-1.2376993 -0.398388 0.46445444 0
-1.0266508 -0.33601734 -0.050332427 0
-1.2507117 -0.4282079 0.20161217 0
-1.239235 -0.42348579 0.33202678 0
-1.2368323 -0.42249718 0.46655405 0
-1.0063614 -0.34896597 -0.049842887 0
-1.252093 -0.45370993 0.20280789 0
-1.2362207 -0.44694433 0.33315977 0
-1.2399625 -0.44853923 0.46985745 0
-0.99985325 -0.36762109 -0.049894731 0
-1.2453218 -0.47592524 0.20309027 0
-1.2614115 -0.48302427 0.33991703 0
-1.2420546 -0.4744837 0.47298104 0
-0.99305308 -0.38618657 -0.049944606 0
-1.2445323 -0.50094706 0.20411386 0
-1.2354482 -0.49680153 0.33666226 0
-1.2365849 -0.49732026 0.47409332 0
-0.9888078 -0.40599939 -0.05010483 0
-1.2468944 -0.52772439 0.20555532 0
-1.2411337 -0.52500743 0.33973339 0
-1.2382674 -0.52365559 0.47731063 0
-0.97450006 -0.42103967 -0.049876314 0
-1.4956713 -0.67491752 0.082573004 0
-1.241114 -0.55091518 0.20607249 0
-1.2401941 -0.55046707 0.34156543 0
-1.2387915 -0.54978377 0.48031276 0
-0.97209823 -0.44188944 -0.050129656 0
-1.4460659 -0.68020314 0.081069477 0
-1.2485683 -0.58090019 0.20821995 0
-1.2346017 -0.57387775 0.34253436 0
-1.2503401 -0.5817911 0.48657596 0
-0.95766401 -0.45670298 -0.049911264 0
-1.3988998 -0.6855641 0.079656869 0
-1.2402283 -0.60326409 0.2085149 0
-1.2373015 -0.60174602 0.34525403 0
-0.95306766 -0.47660646 -0.05009722 0
-1.3499696 -0.6888566 0.078166023 0
-1.2320749 -0.62581038 0.20886879 0
-1.2400479 -0.63007408 0.34807315 0
-0.94428611 -0.4943569 -0.050124045 0
-1.2986118 -0.68961519 0.076567516 0
-1.2488704 -0.66220421 0.21232125 0
-1.2335472 -0.65376008 0.34908092 0
-0.92320764 -0.50515294 -0.0496554 0
-1.2641227 -0.69865674 0.075650431 0
-1.2306952 -0.67968327 0.21153346 0
-1.2528402 -0.69225276 0.35550654 0
-0.92844641 -0.53094882 -0.050277125 0
-1.2501454 -0.71894002 0.075579427 0
-1.2318897 -0.70827198 0.21317814 0
-1.2348684 -0.71001256 0.35429645 0
-0.90232825 -0.53840232 -0.049610719 0
-1.2478888 -0.74621803 0.07600677 0
-1.2494596 -0.74716276 0.21693389 0
-1.2419761 -0.74266225 0.35840204 0
-0.90364969 -0.56228268 -0.050094977 0
-1.2566183 -0.78065187 0.076913029 0
-1.2468106 -0.77458423 0.21822551 0
-1.2347001 -0.76709193 0.35957617 0
-0.89479375 -0.58009672 -0.050165161 0
-1.2440231 -0.80228096 0.076942518 0
-1.2376989 -0.79825741 0.21874815 0
-1.2429372 -0.80159014 0.36414126 0
-0.87081003 -0.58807927 -0.049600113 0
-1.2472806 -0.83430797 0.077660084 0
-1.2379754 -0.82822198 0.22051883 0
-1.2425238 -0.83119684 0.36697313 0
-0.87004757 -0.61119413 -0.050033476 0
-1.2399716 -0.85984725 0.077946484 0
-1.241279 -0.86072594 0.22274518 0
-1.2287542 -0.85230714 0.3670074 0
-0.85014272 -0.62146431 -0.049652658 0
-1.2350454 -0.88728231 0.078352667 0
-1.2465858 -0.89525229 0.22530586 0
-1.2394381 -0.89031595 0.37245965 0
-0.8490591 -0.64476025 -0.050097894 0
-1.2502263 -0.92933697 0.079657666 0
-1.2349911 -0.91852957 0.22571951 0
-1.604046 -1.1803268 0.45632488 0
-0.83596051 -0.65969598 -0.050029434 0
-1.24516 -0.95778614 0.080103666 0
-1.2448349 -0.95754927 0.22902627 0
-1.5667865 -1.1920818 0.45210606 0
-0.819332 -0.67193532 -0.049811304 0
-1.2384676 -0.98541695 0.08049728 0
-1.2443866 -0.9898439 0.23104873 0
-0.81361032 -0.6923582 -0.050088864 0
-1.2350355 -1.0159062 0.081057057 0
-1.2413374 -1.0207444 0.23279329 0
-0.7999115 -0.70674878 -0.050018251 0
-1.1552576 -0.98674625 0.078169659 0
-1.1530976 -0.9850443 0.22295216 0
-1.1620343 -0.99208587 0.37212834 0
-0.776039 -0.71285313 -0.049488097 0
-1.1431749 -1.0097089 0.07834395 0
-1.1421682 -1.0088948 0.22363321 0
-1.1408894 -1.0078609 0.37092277 0
-0.77375567 -0.73638624 -0.049957398 0
-1.2355498 -1.1194957 0.083378971 0
-1.2356373 -1.1195683 0.23894115 0
-1.3367263 -1.2034329 0.42059666 0
-0.75596738 -0.74716192 -0.049718685 0
-1.2392939 -1.1585184 0.084377579 0
-1.2524749 -1.1697367 0.24379514 0
-1.313015 -1.2212621 0.4193913 0
-1.0355327 -0.98509842 0.49784407 0
-0.74786723 -0.76617652 -0.049942877 0
-1.2832811 -1.2336159 0.41678423 0
-0.9902854 -0.97781807 0.48788726 0
-0.7285099 -0.77532691 -0.049641538 0
-1.1914937 -1.1899196 0.083829284 0
-1.1874403 -1.1862898 0.23969974 0
-1.1999834 -1.1975219 0.40121782 0
-0.97562134 -0.99661022 0.48826039 0
-0.71742404 -0.79178971 -0.049743198 0
-0.92619741 -0.98353308 0.47667822 0
-0.7009604 -0.80328983 -0.049592428 0
-0.89049625 -0.98181623 0.4697102 0
-0.69572532 -0.82549292 -0.050004318 0
-0.85569119 -0.98001415 0.46296722 0
-0.67962694 -0.83734804 -0.04988943 0
-0.83199716 -0.98828667 0.46012169 0
-0.66182208 -0.84735852 -0.049693767 0
-0.81857717 -1.0066011 0.46101373 0
-0.63921952 -0.85217613 -0.049254637 0
-0.6362555 -0.8775267 -0.049838711 0
-0.61559916 -0.88410681 -0.049510676 0
-0.60278523 -0.89915735 -0.049603585 0
-0.59081769 -0.91528815 -0.049754217 0
-0.58471584 -0.93852454 -0.050242558 0
-0.56340694 -0.94385892 -0.049901165 0
-0.55769485 -0.96822804 -0.050447259 0
-0.53751898 -0.97475153 -0.050182153 0
-0.51765454 -0.98138016 -0.049935762 0
-0.50605023 -0.99883968 -0.050184574 0
-0.48991579 -1.0103438 -0.050175156 0
-0.47331971 -1.0211867 -0.050145853 0
-0.45432931 -1.0285082 -0.049973436 0
-0.4335016 -1.0328642 -0.049685478 0
-0.42724645 -1.0592879 -0.050350532 0
-0.37673759 -0.98152858 0.50027233 0
-0.40661347 -1.0638385 -0.050089963 0
-0.35527027 -0.98257273 0.49671212 0
-0.38667375 -1.0691724 -0.049875155 0
-0.33354878 -0.98269409 0.49292493 0
-0.36817956 -1.0766379 -0.049761064 0
-0.30848783 -0.97666913 0.48689091 0
-0.35145897 -1.0870062 -0.049777273 0
-0.28673851 -0.97544807 0.48287031 0
-0.33716053 -1.1017032 -0.0499794 0
-0.27881503 -0.99815124 0.48811904 0
-0.31683069 -1.1056769 -0.049751129 0
-0.2544589 -0.99164504 0.48229328 0
-0.30436432 -1.1241302 -0.050120004 0
-0.22835065 -0.98090297 0.47502676 0
-0.28964764 -1.1387868 -0.050340362 0
-0.21407731 -0.99195963 0.47608715 0
-0.26777679 -1.1394576 -0.05000877 0
-0.18537594 -0.97428054 0.46652415 0
-0.24581273 -1.1394053 -0.049661469 0
-0.1656682 -0.97355551 0.46341768 0
-0.231618 -1.1553906 -0.049959254 0
-0.14803632 -0.97671968 0.46184936 0
-0.2157966 -1.1682982 -0.05014177 0
-0.13122679 -0.98141974 0.46093211 0
-0.19841929 -1.1779783 -0.050205298 0
-0.11770208 -0.99346238 0.46276337 0
-0.17702629 -1.1782776 -0.049913418 0
-0.10275842 -1.00251 0.46356484 0
-0.1627108 -1.1953965 -0.050281938 0
-0.068777636 -0.96503967 0.34473762 0
-0.084728613 -1.0041569 0.46177104 0
-0.1425605 -1.1983938 -0.050113834 0
-0.0549867 -0.97565109 0.34594291 0
-0.071536317 -1.0177448 0.46433607 0
-0.12067659 -1.1964871 -0.049769036 0
-0.029403789 -0.95546752 0.14618061 0
-0.036898658 -0.97525877 0.24505962 0
-0.011784894 -0.90894204 0.32609591 0
-0.050665632 -1.0116125 0.45993274 0
-0.10247476 -1.2039847 -0.049793646 0
-0.011413408 -0.95406657 0.14536615 0
-0.011085762 -0.95316738 0.23970354 0
0.0071355267 -0.90315896 0.32303166 0
-0.084417298 -1.2119567 -0.049844783 0
0.010649281 -0.94046646 0.14319202 0
0.011228876 -0.93881124 0.23591135 0
0.018980907 -0.916673 0.32526189 0
-0.00040410296 -0.97203261 0.44183436 0
-0.0655507 -1.217644 -0.049818236 0
0.022261398 -0.9563697 0.14440365 0
0.0231023 -0.95386773 0.23778486 0
0.023241 -0.95345503 0.33378562 0
0.015244829 -0.9772467 0.44178551 0
-0.047403648 -1.2255142 -0.049882606 0
0.035504028 -0.96814567 0.1451609 0
0.039501026 -0.95573801 0.23718071 0
0.021156983 -1.0126829 0.34830576 0
0.021100955 -1.0128568 0.45243022 0
-0.031772509 -1.2417099 -0.050266314 0
0.025371509 -1.0563538 0.3586092 0
-0.011161847 -1.2419693 -0.050062824 0
0.064368173 -0.98555094 0.338442 0
0.010579037 -1.2376866 -0.049701262 0
0.082446083 -0.98186225 0.33626223 0
0.027303355 -1.2511902 -0.050008345 0
0.10005017 -0.97912282 0.33440068 0
0.047486678 -1.251965 -0.049853366 0
0.11859162 -0.97195607 0.33143812 0
0.061969176 -1.2759824 -0.050561663 0
0.082994893 -1.2734808 -0.050303716 0
0.10500725 -1.2655166 -0.049856707 0
0.12185375 -1.2816743 -0.050299324 0
0.14292966 -1.2770296 -0.049992949 0
-0.066598967 -2.3922005 0.10250264 0
0.16189794 -1.2832003 -0.050088856 0
0.00073571666 -2.204742 0.095488407 0
0.1816972 -1.284682 -0.050023638 0
0.033957168 -2.1970267 0.095019817 0
0.20107982 -1.2886688 -0.05005797 0
0.064119235 -2.2076309 0.095228471 0
0.22329256 -1.2720773 -0.049359594 0
0.097279742 -2.197346 0.094697818 0
0.24172188 -1.2821521 -0.049631607 0
0.12751539 -2.2077498 0.094927236 0
0.25997561 -1.2955872 -0.050032288 0
0.1606978 -2.193033 0.094267704 0
0.28019711 -1.2918544 -0.049824875 0
0.19183947 -2.1944385 0.094202325 0
0.29883942 -1.3049705 -0.050230525 0
0.22238329 -2.2023761 0.094385132 0
0.31959513 -1.2929456 -0.049744286 0
0.25400552 -2.1972957 0.094115555 0
0.33913985 -1.2954595 -0.049787749 0
0.28494453 -2.200526 0.094157666 0
0.35858122 -1.3008757 -0.049943712 0
0.31568444 -2.2087038 0.094390504 0
0.378144 -1.3060551 -0.050099902 0
0.34695724 -2.2063851 0.094262123 0
0.39809021 -1.2989771 -0.049827132 0
0.37838784 -2.1930182 0.093753308 0
0.41771656 -1.3057293 -0.050057139 0
0.43746626 -1.2991307 -0.049819343 0
0.45715716 -1.299256 -0.049830455 0
0.47689247 -1.3005618 -0.049892589 0
0.49654201 -1.2986251 -0.049847774 0
0.51602161 -1.2940489 -0.049717404 0
0.5360623 -1.2992923 -0.049947038 0
0.55577618 -1.2982913 -0.049962308 0
0.57550317 -1.2972816 -0.04998618 0
0.59527504 -1.2965094 -0.050027516 0
0.61525851 -1.2972682 -0.050132889 0
0.63475841 -1.293699 -0.05009168 0
0.65331542 -1.2837021 -0.049827442 0
0.67397875 -1.288445 -0.050103668 0
0.69331348 -1.2841061 -0.050061103 0
0.71216488 -1.2772534 -0.049936045 0
0.73070627 -1.2692519 -0.04977753 0
0.60806984 -0.63846385 0.03883592 0
0.7511909 -1.2711495 -0.049988039 0
0.61936635 -0.6359058 0.038825843 0
0.77039635 -1.2665472 -0.049970914 0
0.6420725 -0.68507278 0.040712018 0
0.79200262 -1.2722474 -0.050340336 0
0.66461062 -0.72767246 0.04237343 0
0.80764008 -1.2527077 -0.049792666 0
0.82776958 -1.2519211 -0.049942333 0
0.84609896 -1.2441573 -0.049843594 0
0.86756778 -1.2475449 -0.050167333 0
0.88461465 -1.2354597 -0.049925417 0
0.90461326 -1.2332963 -0.050061956 0
0.92377639 -1.2282761 -0.050101139 0
0.93951666 -1.2131853 -0.049769469 0
0.95848006 -1.2078027 -0.049811848 0
0.97415018 -1.1934607 -0.049522281 0
0.99506193 -1.1932598 -0.049779981 0
0.75670248 -0.57560956 0.1027611 0
0.9286769 -1.0212393 0.46446007 0
1.0176879 -1.1968426 -0.050194599 0
0.94099742 -1.0053324 0.46103466 0
1.0298907 -1.1745461 -0.049621996 0
0.96279609 -1.0129257 0.46611241 0
1.0538473 -1.1806004 -0.050154001 0
0.97189587 -0.99000543 0.46026647 0
1.0682435 -1.1642389 -0.049824823 0
0.98456639 -0.97619134 0.45774528 0
1.0848614 -1.1532534 -0.049712114 0
1.0071348 -0.98433751 0.46331018 0
1.105727 -1.1513792 -0.049967155 0
1.0259507 -0.98360461 0.46574184 0
1.1251817 -1.1462164 -0.050103404 0
1.0425783 -0.97799116 0.46646729 0
1.1388808 -1.1294763 -0.049786933 0
1.0647404 -0.98317164 0.47130105 0
1.1567901 -1.1212661 -0.049818918 0
1.0837135 -0.98145527 0.47368208 0
1.1773175 -1.1178608 -0.05005509 0
1.1045648 -0.98283857 0.47734073 0
1.1913638 -1.1024321 -0.049812477 0
1.1288942 -0.98991078 0.057217743 0
1.1309416 -0.9935984 0.16063078 0
1.1304394 -0.99269396 0.26530576 0
1.1313485 -0.99433142 0.3733072 0
1.1308886 -0.99350291 0.48465624 0
1.2129431 -1.1005166 -0.050131083 0
1.1457218 -0.98294932 0.057296127 0
1.1422968 -0.97695929 0.15967187 0
1.1466027 -0.98449022 0.26544771 0
1.1455371 -0.9826265 0.37248248 0
1.1521689 -0.99422508 0.48834106 0
1.2249146 -1.0818288 -0.049768459 0
1.162614 -0.9759832 0.057383642 0
1.1608849 -0.97304553 0.16031052 0
1.1687473 -0.98640341 0.26775035 0
1.1735744 -0.99460465 0.37871557 0
1.1685683 -0.9860993 0.48874056 0
1.2433228 -1.0742561 -0.049873259 0
1.2657169 -1.0729351 -0.050251573 0
1.2845542 -1.0655619 -0.050388247 0
1.297735 -1.0494181 -0.050161235 0
1.3054205 -1.0254345 -0.049601447 0
1.3274339 -1.0227448 -0.049966834 0
1.3369634 -1.0021243 -0.049561009 0
1.3559678 -0.99490362 -0.049749937 0
1.3762103 -0.98910099 -0.050014675 0
1.3887625 -0.97303599 -0.049830418 0
1.4087397 -0.9665373 -0.050087381 0
1.2090793 -0.71478105 0.050615907 0
1.2082464 -0.71373069 0.14016032 0
1.4223356 -0.95190531 -0.049984146 0
1.1997751 -0.67841846 0.049395796 0
1.2088218 -0.68953532 0.1381719 0
1.4385916 -0.94056791 -0.050040964 0
1.2084377 -0.66491371 0.049220473 0
1.2142872 -0.67191964 0.13708466 0
1.4516989 -0.92548794 -0.049932048 0
1.2105384 -0.64393431 0.048696987 0
1.2038802 -0.63616097 0.13342804 0
1.4704962 -0.91699582 -0.050142795 0
1.2060753 -0.61603999 0.047840308 0
1.20353 -0.61314297 0.13153474 0
1.4856442 -0.90422755 -0.050161753 0
1.2018676 -0.58932799 0.04702799 0
1.2079668 -0.59609616 0.13048306 0
1.4992549 -0.88977164 -0.050108109 0
1.5113493 -0.87376648 -0.04998599 0
1.5247422 -0.85921615 -0.049942344 0
1.5366479 -0.84321302 -0.049833365 0
1.5515596 -0.83025354 -0.04988597 0
1.5737401 -0.82417208 -0.050304685 0
1.5766064 -0.7997188 -0.049780581 0
1.6010553 -0.79533321 -0.050317556 0
1.6124471 -0.77889293 -0.050228983 0
1.6230512 -0.76185185 -0.050114051 0
1.6244106 -0.73714453 -0.049579296 0
1.6405972 -0.72506452 -0.049748693 0
1.6588305 -0.71446139 -0.050016873 0
1.6659517 -0.69497168 -0.049785923 0
1.6783592 -0.67968827 -0.049805 0
1.6936983 -0.66654831 -0.049962576 0
1.7024032 -0.64849842 -0.049834337 0
1.7126429 -0.63162941 -0.049784057 0
1.725449 -0.61654806 -0.049854293 0
1.7404872 -0.60288364 -0.050027732 0
1.7592292 -0.59145916 -0.050364465 0
1.7608386 -0.56900167 -0.049982563 0
1.7646027 -0.54817027 -0.049705561 0
1.7849619 -0.53740078 -0.050130311 0
1.788341 -0.51650214 -0.049858022 0
1.79483 -0.49755928 -0.049725659 0
1.808646 -0.48269692 -0.049901571 0
1.8242054 -0.46860912 -0.05015425 0
1.8257416 -0.44715574 -0.049850281 0
1.8292326 -0.42690554 -0.049636859 0
1.8503691 -0.41527745 -0.050133459 0
1.8582737 -0.39712062 -0.050112188 0
1.8619355 -0.37707278 -0.049933974 0
1.8682055 -0.35828981 -0.049868084 0
1.8841184 -0.34359249 -0.050184958 0
1.8846542 -0.32243678 -0.04991525 0
1.895404 -0.30546054 -0.050048444 0
1.8984776 -0.28550121 -0.049896479 0
1.9113586 -0.26919118 -0.050127 0
1.9158658 -0.24980299 -0.050047886 0
1.9180745 -0.22970591 -0.049891833 0
1.9248567 -0.21117844 -0.049917269 0
1.9353095 -0.19374795 -0.050088339 0
1.9326071 -0.17235847 -0.049777795 0
1.9394351 -0.15383808 -0.049831443 0
1.9462571 -0.13527374 -0.04989332 0
1.9560798 -0.11741314 -0.05007406 0
1.9529612 -0.096347935 -0.04978767 0
1.9637231 -0.078595616 -0.050019644 0
1.9751667 -0.060816627 -0.050284047 0
1.9730572 -0.040165078 -0.05006272 0
1.9680761 -0.019138884 -0.049747106 0
1.984898 -0.0020777092 -0.050231546 0
1.9850404 0.01797976 -0.050119873 0
2.0026636 0.035411689 -0.050648212 0
1.9773531 0.058932383 -0.049637288 0
1.9956757 0.076493643 -0.050207525 0
1.9919295 0.096833609 -0.04999252 0
2.0063102 0.11530743 -0.050437018 0
1.9942583 0.13626722 -0.049942531 0
2.0056016 0.15525775 -0.050295189 0
1.9901719 0.17601918 -0.04969877 0
2.0033691 0.19510026 -0.050135043 0
1.9965464 0.21512274 -0.049864635 0
1.9968268 0.23482342 -0.049856931 0
1.9914058 0.2545577 -0.049654536 0
1.9995601 0.27423778 -0.049945656 0
2.001919 0.2940169 -0.05003877 0
1.9997959 0.31372371 -0.0499807 0
1.9976046 0.33338967 -0.049929041 0
2.0005081 0.35331127 -0.050068378 0
2.0048988 0.37343764 -0.050270028 0
2.0035946 0.39324278 -0.050276976 0
1.9875705 0.41166171 -0.049764983 0
1.9910105 0.43181181 -0.049959522 0
1.9894916 0.45150721 -0.049985155 0
1.9782382 0.46992949 -0.049669169 0
1.9880288 0.49119833 -0.050120201 0
1.9870393 0.51108164 -0.050192129 0
1.9812522 0.53019607 -0.050099488 0
1.9662807 0.54755151 -0.049681924 0
1.9735532 0.56900728 -0.050080765 0
1.9582714 0.58599919 -0.049667604 0
1.9674307 0.60817021 -0.050155293 0
1.9521077 0.62488955 -0.049756352 0
1.9594349 0.64699799 -0.050197538 0
1.9472301 0.66427475 -0.049929246 0
1.9530652 0.68636501 -0.050336447 0
1.9332772 0.7012977 -0.049802717 0
1.9255009 0.71950191 -0.049722247 0
1.9239545 0.73963505 -0.049883462 0
1.9225826 0.75994939 -0.050061446 0
1.9129192 0.77752572 -0.049936548 0
1.9001036 0.79387444 -0.049699828 0
1.8957946 0.81323898 -0.049794182 0
1.8908514 0.83243126 -0.049874015 0
1.8905339 0.85355693 -0.050141659 0
1.8725461 0.86748976 -0.049737036 0
1.8728286 0.88903898 -0.050047986 0
1.8696969 0.90929985 -0.050237685 0
1.8580818 0.92577571 -0.050104637 0
1.8351433 0.93672293 -0.049530655 0
1.8391409 0.96055371 -0.050031558 0
1.8264837 0.97627884 -0.049880028 0
1.8221843 0.99628872 -0.0500727 0
1.8095168 1.0119138 -0.049936946 0
1.7973018 1.0276859 -0.049826771 0
1.7897428 1.0460536 -0.049915772 0
1.7897298 1.0689715 -0.050328195 0
1.758711 1.0733205 -0.049459178 0
1.75854 1.0963036 -0.049885686 0
1.7595923 1.1204375 -0.050379891 0
1.7378515 1.1298802 -0.049914829 0
1.7228053 1.1434909 -0.049740084 0
1.7201716 1.1656432 -0.050112143 0
1.7036281 1.178123 -0.049888194 0
1.6829873 1.1873862 -0.049487289 0
1.6857116 1.214004 -0.050134346 0
1.6745197 1.2303799 -0.050173439 0
1.6495464 1.2357949 -0.049592774 0
1.6546798 1.2653428 -0.05039857 0
1.6374975 1.2768855 -0.050189566 0
1.6249368 1.2922215 -0.050202936 0
1.6062095 1.3021218 -0.049931727 0
1.5856296 1.310088 -0.049574096 0
1.5868534 1.3379936 -0.050280191 0
1.5606894 1.3404677 -0.049660791 0
1.5560842 1.3634237 -0.050111938 0
1.5337778 1.369078 -0.049688227 0
1.5297668 1.3931292 -0.050199702 0
1.5175309 1.4090321 -0.05030679 0
1.0217848 0.8860212 0.2909646 0
1.5010893 1.4205005 -0.050204594 0
1.0485193 0.93083632 0.30792838 0
1.4810697 1.4278954 -0.049917791 0
1.4441184 1.3868916 0.059947189 0
1.4432549 1.3859334 0.16825514 0
1.442572 1.3851756 0.27810311 0
1.051568 0.95128858 0.31363815 0
1.4708605 1.4461547 -0.050162502 0
1.417357 1.3852586 0.059268504 0
1.4172772 1.3851678 0.16633777 0
1.4154239 1.3830583 0.27456307 0
1.0460931 0.96269703 0.31526285 0
1.4444603 1.445781 -0.049534783 0
1.3853787 1.3768036 0.058292348 0
1.3944583 1.3874041 0.16491228 0
1.3931218 1.3858436 0.27230677 0
1.0586693 0.995372 0.32621637 0
1.4353358 1.4654125 -0.049859598 0
1.3678007 1.3845261 0.058097631 0
1.3682454 1.3850588 0.1629007 0
1.3646528 1.3807559 0.26829067 0
1.055635 1.0106468 0.32944486 0
1.4141545 1.4705963 -0.049521409 0
1.3469633 1.3880304 0.057720974 0
1.3401177 1.3796184 0.16052677 0
1.3438606 1.3842179 0.26638725 0
1.0660274 1.0428109 0.33990139 0
1.4082475 1.4946609 -0.050059106 0
1.3165728 1.3790661 0.056791939 0
1.3232479 1.387483 0.1600502 0
1.3156267 1.3778733 0.26230606 0
1.0567304 1.051425 0.3401984 0
1.3949761 1.5098209 -0.050193209 0
1.3075851 1.3967315 0.057090752 0
1.2973665 1.383508 0.1579992 0
1.2946671 1.3800149 0.26028001 0
1.0463952 1.0587356 0.33999392 0
1.3750733 1.5163348 -0.04994718 0
1.2691195 1.3755965 0.055657927 0
1.2765726 1.3854964 0.1568138 0
1.2735996 1.3815476 0.25819546 0
1.0428063 1.0749848 0.34356821 0
1.3652904 1.5363612 -0.050312772 0
1.2559501 1.3872536 0.055711575 0
1.2542008 1.3848683 0.15532565 0
1.2541622 1.3848155 0.25657779 0
1.032835 1.0829914 0.34372783 0
1.3454534 1.5427573 -0.050082568 0
1.243369 1.3998046 0.055811256 0
1.2454574 1.402729 0.15632981 0
1.2397039 1.3946722 0.25648919 0
1.0205469 1.087778 0.34262118 0
1.3276659 1.5518225 -0.049981337 0
1.2384478 1.4235008 0.056401607 0
1.2422693 1.428997 0.15844014 0
1.2398375 1.4254996 0.2610479 0
1.0151776 1.1023725 0.34556139 0
1.3128505 1.5651574 -0.050074723 0
1.2392043 1.4563344 0.057383537 0
1.2400711 1.4576151 0.16084276 0
1.2474232 1.4684789 0.26821384 0
1.0042068 1.1090908 0.34533986 0
1.2946087 1.5734152 -0.049958307 0
1.2414705 1.492725 0.058509007 0
1.2441977 1.4968662 0.16459738 0
1.2426931 1.4945815 0.27165547 0
1.1678133 1.380877 0.34707692 0
0.99725258 1.1218814 0.34759441 0
1.2796791 1.5866961 -0.050065592 0
1.24175 1.5274916 0.059555359 0
1.2477862 1.5369135 0.1684168 0
1.2217838 1.4963254 0.26986507 0
1.1476636 1.3806288 0.34422341 0
0.98819548 1.1317096 0.34869516 0
1.2562931 1.5865535 -0.049615327 0
1.2431563 1.565468 0.060728405 0
1.2422537 1.564019 0.17056192 0
1.2108111 1.5135514 0.27143452 0
1.1323735 1.3876532 0.34365487 0
0.97314829 1.1320847 0.34612671 0
1.2469732 1.609027 -0.050124817 0
1.1940911 1.5217168 0.27111086 0
1.1137202 1.3890216 0.34146124 0
0.96627825 1.1455895 0.34875867 0
0.8401227 0.93730205 0.47257325 0
1.2273128 1.6146475 -0.049937248 0
1.1771743 1.5294648 0.2707465 0
1.0879499 1.3778769 0.3356491 0
0.95957619 1.1597762 0.351668 0
0.83768469 0.95268863 0.47966674 0
1.2137854 1.6307341 -0.050191671 0
1.1617639 1.5397505 0.27095637 0
1.0709573 1.3809335 0.33414808 0
0.94708788 1.164291 0.35088226 0
0.84892964 0.99261624 0.35332608 0
0.84371734 0.98350006 0.42047077 0
0.83689433 0.97156698 0.48911577 0
1.1861778 1.6218354 -0.049431041 0
1.1434109 1.5448027 0.27012536 0
1.0525322 1.38111 0.33187971 0
0.93439406 1.1683172 0.34997615 0
0.84953517 1.0154676 0.36169222 0
0.83674401 0.99242795 0.42264983 0
0.84356236 1.0047094 0.50818121 0
1.1735731 1.6396559 -0.04977328 0
1.1296809 1.5581961 0.27105629 0
1.0369283 1.3860558 0.33107629 0
0.9223159 1.1733458 0.34951562 0
0.85010731 1.0393335 0.37047526 0
0.84126049 1.0229146 0.43711713 0
0.84012854 1.0208138 0.51558334 0
1.1607155 1.6575204 -0.050121453 0
1.1133492 1.5668988 0.2710619 0
1.0187484 1.3859075 0.32886845 0
0.90772343 1.1734934 0.34728301 0
0.84894043 1.0610291 0.37818351 0
0.84032464 1.0445453 0.44645756 0
0.83948809 1.0429448 0.5269987 0
1.145111 1.6705146 -0.050278988 0
1.0970687 1.5757105 0.27113122 0
1.0013844 1.3868927 0.32706454 0
0.90050882 1.1878304 0.35042575 0
0.85184169 1.0917937 0.39005899 0
0.84073412 1.0698745 0.45781985 0
0.84206915 1.0725089 0.54328871 0
1.1236005 1.6717404 -0.049975328 0
1.0759983 1.5747964 0.26928732 0
0.98222023 1.3838136 0.32417887 0
0.8872202 1.1903421 0.34919989 0
0.8505649 1.1156921 0.39867741 0
0.84347445 1.1012521 0.4724806 0
0.84029359 1.0947741 0.55463457 0
1.1057488 1.6801692 -0.049968969 0
0.96552813 1.385276 0.32266182 0
0.87961948 1.2046045 0.35237202 0
0.8452639 1.1323525 0.40393335 0
0.84077293 1.1229076 0.48164845 0
0.83909798 1.1193851 0.56746781 0
1.0874273 1.6875739 -0.049931258 0
0.94608855 1.3804152 0.31943694 0
0.86535835 1.2049717 0.35047221 0
0.84113872 1.1523373 0.4107047 0
0.83972299 1.1492606 0.49336934 0
0.83898723 1.1476617 0.5826298 0
1.0699295 1.6967722 -0.049972884 0
0.93297738 1.3889996 0.32005313 0
0.85152948 1.2059617 0.3488754 0
0.83840108 1.1764582 0.41933614 0
0.84103161 1.1823698 0.50873196 0
0.8402338 1.1805769 0.60071903 0
1.0552238 1.712546 -0.05027841 0
0.91694635 1.3909533 0.31887057 0
0.85108465 1.2377783 0.35851413 0
0.84064692 1.2135031 0.43376127 0
0.83734703 1.2058287 0.51874667 0
0.84049851 1.213158 0.61848468 0
1.0336726 1.7124003 -0.049974147 0
0.89648563 1.3819385 0.31472006 0
0.84503549 1.2580032 0.36392906 0
0.84133947 1.2491001 0.44744936 0
0.84450531 1.256726 0.54359913 0
0.84279639 1.2526095 0.64056724 0
1.0135499 1.7152534 -0.0497972 0
0.87811476 1.3770471 0.31179467 0
0.84854639 1.3032095 0.37829691 0
0.83968586 1.2810832 0.45945299 0
0.84198153 1.2868158 0.55706322 0
0.84082013 1.2839156 0.65731663 0
0.99609172 1.7246724 -0.049882095 0
0.86451167 1.3837149 0.31210801 0
0.84798402 1.3408875 0.38989466 0
0.84037268 1.3211646 0.47500169 0
0.84437066 1.3315245 0.57831931 0
0.84213054 1.3257197 0.68067408 0
0.97847265 1.7338398 -0.0499654 0
0.84422243 1.3724815 0.30759442 0
0.84731662 1.38081 0.40223742 0
0.84320974 1.3697556 0.49423254 0
0.84011763 1.3614328 0.59156042 0
0.84174663 1.3658175 0.70283258 0
0.96257168 1.748 -0.050246049 0
0.83152193 1.381173 0.3085686 0
0.83678895 1.3959161 0.40576044 0
0.84119987 1.4082628 0.50892788 0
0.83748072 1.3978524 0.60823017 0
0.93741345 1.7357999 -0.049538109 0
0.81784439 1.3873204 0.30889562 0
0.84092897 1.4545994 0.42464253 0
0.84016746 1.4523801 0.52602667 0
0.83975005 1.4511635 0.63378078 0
0.92605376 1.7639405 -0.050361227 0
1.0274169 2.0719395 0.3491925 0
0.80081666 1.3833988 0.30656314 0
0.83770615 1.4954901 0.43719646 0
0.84076571 1.5047866 0.5466736 0
0.84024626 1.5032083 0.65854365 0
0.90372002 1.7592068 -0.049955882 0
1.0096012 2.09512 0.35218659 0
0.78252155 1.3746984 0.30301902 0
0.83906209 1.5540761 0.4558875 0
0.84343708 1.5679561 0.57190782 0
0.84001315 1.5570935 0.6841706 0
0.88544172 1.766948 -0.050027732 0
0.98428017 2.0948625 0.35079679 0
0.76554632 1.3691732 0.30039594 0
0.84240156 1.6241543 0.47849509 0
0.8411305 1.6199374 0.59219384 0
0.86540121 1.7687591 -0.049887598 0
0.96112019 2.1014273 0.35075232 0
0.75383753 1.381023 0.30245197 0
0.83885562 1.6765009 0.49486783 0
0.8395744 1.6789989 0.61546934 0
0.84628117 1.7735661 -0.049868196 0
0.73941988 1.3837683 0.047438443 0
0.73850363 1.380426 0.13036704 0
0.74040031 1.3873447 0.21599929 0
0.7371875 1.3756254 0.29997724 0
0.83597064 1.7359564 0.51365191 0
0.83665705 1.7384603 0.63884473 0
0.82730073 1.7788668 -0.049875975 0
0.72355282 1.3808366 0.047191001 0
0.72509277 1.3867447 0.13065077 0
0.72251081 1.3768389 0.21333544 0
0.72578382 1.389396 0.30261984 0
0.8319903 1.7968582 0.53288424 0
0.83316928 1.8013815 0.66363966 0
0.80797172 1.7827933 -0.049841996 0
0.70939606 1.3841047 0.047179688 0
0.70806354 1.3787155 0.12936395 0
0.70580375 1.3695757 0.21132417 0
0.70900458 1.3825215 0.29986617 0
0.82385802 1.8470454 0.54840195 0
0.82658243 1.8580643 0.68571568 0
0.79035956 1.7939677 -0.050082803 0
0.69521093 1.3872268 0.0471696 0
0.69578385 1.3896759 0.13020051 0
0.69277638 1.3768194 0.21204479 0
0.69415122 1.3826966 0.29902321 0
0.81761938 1.910498 0.56844157 0
0.77283198 1.8063279 -0.050374411 0
0.67789716 1.3761493 0.046646941 0
0.67967677 1.3842133 0.12924437 0
0.67911839 1.3816831 0.21235417 0
0.67903495 1.3813051 0.29782218 0
0.80746502 1.9632608 0.58481038 0
0.75311893 1.8091847 -0.050326806 0
0.66417187 1.3805615 0.046698391 0
0.66479051 1.3835425 0.12883894 0
0.66514617 1.3852563 0.21245678 0
0.66518879 1.3854618 0.29811963 0
0.79201293 1.9966094 0.59458339 0
0.73329955 1.8113348 -0.050262656 0
0.65087283 1.3873681 0.046843089 0
0.65090293 1.3875227 0.12896426 0
0.64883101 1.3768657 0.21039346 0
0.6512621 1.3893703 0.29839724 0
0.78070444 2.0551648 0.61294168 0
0.71257967 1.8082845 -0.050019026 0
0.63623828 1.3873961 0.046747591 0
0.636154 1.3869313 0.12860909 0
0.63512832 1.3812767 0.21071897 0
0.63507318 1.3809725 0.2955288 0
0.7622453 2.0821033 0.6206159 0
0.6940093 1.8169823 -0.050210696 0
0.62149662 1.3863965 0.04662177 0
0.61951041 1.3746021 0.12699573 0
0.62063897 1.3813038 0.21027358 0
0.62020171 1.3787071 0.29430577 0
0.74671054 2.1299262 0.63539845 0
0.6743812 1.8197773 -0.050197177 0
0.60609454 1.3805861 0.046329096 0
0.60643756 1.3827926 0.12764005 0
0.60709476 1.3870194 0.21090068 0
0.6056866 1.3779627 0.29352632 0
0.72782809 2.1635253 0.6454289 0
0.65359074 1.814377 -0.049897064 0
0.59227347 1.3844163 0.046391606 0
0.59353685 1.3932751 0.12854995 0
0.59131765 1.377714 0.2088213 0
0.5928272 1.3882991 0.29565105 0
0.70684028 2.1877661 0.65237635 0
0.6344946 1.8204106 -0.050018504 0
0.57646459 1.3732904 0.045921855 0
0.57758838 1.3819489 0.12711254 0
0.57799202 1.3850591 0.20980957 0
0.57803279 1.3853732 0.294402 0
0.68805563 2.2330976 0.66647685 0
0.61451089 1.8196228 -0.049903214 0
0.56274199 1.3771635 0.045999099 0
0.56172913 1.3685068 0.12547004 0
0.56322151 1.3812619 0.20880368 0
0.56283224 1.3779346 0.29204348 0
0.66713494 2.2693903 0.67760825 0
0.5958178 1.8304601 -0.050214402 0
0.55160642 1.4063978 0.12939791 0
0.55292368 1.4190325 0.21537016 0
0.55328196 1.4224693 0.30306911 0
0.6455161 2.3071508 0.68930417 0
0.57621771 1.8338313 -0.050266013 0
0.55211651 1.5705578 0.14696184 0
0.55141181 1.56286 0.2411598 0
0.55213946 1.5708086 0.34070754 0
0.62209558 2.3349855 0.69776148 0
0.55632079 1.8339413 -0.050209623 0
0.60239738 2.4182153 0.23819067 0
0.59945494 2.3809032 0.38889876 0
0.59757191 2.3570254 0.54156041 0
0.53558403 1.8208123 -0.049688559 0
0.57386786 2.3990874 0.3918359 0
0.57294679 2.3851748 0.54826909 0
0.5166961 1.8353839 -0.050167557 0
0.54838663 2.4269946 0.39658529 0
0.54820794 2.4236591 0.557693 0
0.4968574 1.835072 -0.050123002 0
0.5218659 2.4458294 0.39975265 0
0.52193701 2.447566 0.56346941 0
0.47758201 1.8536371 -0.050761588 0
0.45618168 1.0985053 0.35149977 0
0.45638824 1.105794 0.42716622 0
0.45731044 1.8377368 -0.050178111 0
0.44586176 1.1104696 0.3563582 0
0.44599381 1.1188591 0.43358716 0
0.43746069 1.8261144 -0.04975649 0
0.43514672 1.0913354 0.41976506 0
0.43517002 1.0987388 0.50082189 0
0.41772994 1.833059 -0.050006639 0
0.42474142 1.0905212 0.41937405 0
0.42487001 1.0769017 0.48789048 0
0.39782012 1.8399774 -0.050264794 0
0.41408098 1.1021034 0.35293511 0
0.41392669 1.1091044 0.42875615 0
0.41468987 1.0744739 0.48654586 0
0.37832293 1.8296335 -0.049915366 0
0.35248461 2.5755594 0.4230696 0
0.35234773 2.5795107 0.59702021 0
0.40502077 1.0588942 0.47747231 0
0.35836431 1.8342102 -0.050107777 0
0.32207879 2.6021237 0.42808089 0
0.32207152 2.6022778 0.60314006 0
0.39562494 1.0456601 0.46985826 0
0.33779335 1.8466904 -0.05059199 0
0.2916683 2.6169829 0.43105027 0
0.29166406 2.6170533 0.60731947 0
0.38603264 1.0410895 0.4674558 0
0.31974408 1.8196363 -0.049670778 0
0.26197198 2.6161981 0.43126285 0
0.26166302 2.6204581 0.60869187 0
0.29956946 1.8251457 -0.049923494 0
0.22888848 2.6547656 0.43866611 0
0.22966619 2.6456373 0.61573786 0
0.28112829 1.8110865 -0.049483661 0
0.19833183 2.6568625 0.43954509 0
0.19735132 2.6668785 0.62188631 0
0.25994417 1.8246158 -0.050042503 0
0.1668938 2.6657672 0.44173032 0
0.16628511 2.6712694 0.62382245 0
0.34623089 1.044606 0.47153869 0
0.24008283 1.8241802 -0.050109457 0
0.13264309 2.6949363 0.44767326 0
0.134351 2.6810944 0.62725902 0
0.22018252 1.8236576 -0.050182395 0
0.10262607 2.6868341 0.4469209 0
0.10285948 2.6851201 0.62931168 0
0.20143171 1.8150519 -0.049972743 0
0.069926426 2.6974108 0.44964194 0
0.070838019 2.6912942 0.63202453 0
0.18011348 1.8232063 -0.05037735 0
0.036500111 2.7100675 0.4528237 0
0.036550149 2.7097585 0.63802356 0
0.16235943 1.8093055 -0.049993213 0
0.0033647285 2.7184532 0.45530748 0
0.0012792216 2.7303784 0.64470577 0
0.14183758 1.811586 -0.050204083 0
-0.028836412 2.7199619 0.45661163 0
-0.028923852 2.7204273 0.64358288 0
0.12417443 1.7988703 -0.049878798 0
-0.087991372 2.8546479 0.10032497 0
-0.090061203 2.864948 0.29106948 0
-0.061956808 2.725095 0.45866039 0
-0.061183766 2.7212484 0.64535928 0
0.1031176 1.8030872 -0.05017896 0
-0.11174293 2.8066823 0.098820522 0
-0.11404349 2.8174281 0.28659269 0
-0.096419409 2.7351077 0.46169138 0
-0.096929505 2.7374902 0.65126979 0
0.082444355 1.8046471 -0.050392397 0
-0.14388527 2.8003962 0.098848663 0
-0.14233895 2.7935932 0.28474662 0
-0.12682278 2.7253289 0.46115085 0
-0.1306354 2.7421029 0.65427226 0
0.063003168 1.8004286 -0.050403845 0
-0.17375876 2.7845721 0.098541498 0
-0.17630412 2.7951524 0.28574124 0
-0.16111024 2.7319963 0.46373028 0
-0.16175164 2.7346625 0.65423214 0
0.045542553 1.7883651 -0.050135367 0
-0.2096969 2.7934899 0.099158533 0
-0.21042402 2.7963531 0.28674665 0
-0.19635834 2.7409632 0.46682602 0
-0.19574715 2.7385564 0.65727836 0
0.024651723 1.7898513 -0.050374832 0
-0.25069284 2.8196185 0.10043038 0
-0.24974634 2.8160784 0.28986391 0
-0.22845913 2.7364659 0.4675014 0
-0.22730751 2.7321589 0.65772992 0
0.0070682331 1.7789282 -0.050164703 0
-0.25856316 2.7244935 0.46685442 0
-0.26078641 2.7324078 0.66004944 0
-0.0093027186 1.764402 -0.049827922 0
-0.29292542 2.7272789 0.46905082 0
-0.29382437 2.7303309 0.66187102 0
-0.031015886 1.7679999 -0.050174624 0
-0.32588798 2.7244661 0.47028071 0
-0.32873851 2.7337124 0.66526771 0
-0.049867555 1.7619071 -0.05016949 0
-0.35950941 2.7231216 0.47187233 0
-0.36231315 2.7318254 0.66738373 0
-0.064312831 1.7427051 -0.049679521 0
-0.39340079 2.7218668 0.47356814 0
-0.3915785 2.7164447 0.66599029 0
-0.086842731 1.7476274 -0.050106786 0
-0.42533261 2.7142837 0.47414353 0
-0.42305714 2.7077854 0.66650707 0
-0.10595722 1.7422866 -0.050156813 0
-0.45397711 2.6974287 0.47301888 0
-0.45736653 2.7067311 0.66919869 0
-0.12240823 1.7298039 -0.049943596 0
-0.48476857 2.6866717 0.47313431 0
-0.48733068 2.6934376 0.6686818 0
-0.1380011 1.7155412 -0.049668964 0
-0.51987255 2.6868258 0.47543958 0
-0.51999569 2.6871388 0.670183 0
-0.15902807 1.7151095 -0.049933728 0
-0.54650337 2.6653342 0.47362682 0
-0.55130816 2.6771171 0.67077929 0
-0.181264 1.7170511 -0.050302129 0
-0.58277166 2.6672883 0.47646022 0
-0.58283412 2.6674361 0.67158198 0
-0.19364287 1.6958038 -0.049779821 0
-0.61192203 2.6519713 0.47599909 0
-0.61892033 2.6679692 0.67534369 0
-0.21509381 1.6954894 -0.05008091 0
-0.641734 2.6382599 0.47592559 0
-0.63884449 2.6318748 0.66899669 0
-0.23093356 1.6826717 -0.049901586 0
-0.66721714 2.6153064 0.47408614 0
-0.66778433 2.616519 0.66852403 0
-0.24575289 1.6680257 -0.049656559 0
-0.6985296 2.6049948 0.47483164 0
-0.69811893 2.6041446 0.66899627 0
-0.27188683 1.6764406 -0.050337471 0
-0.72863674 2.5920219 0.47512475 0
-0.7260493 2.5868351 0.66817302 0
-0.28664261 1.6616925 -0.050105929 0
-0.75594819 2.5735164 0.4743742 0
-0.75853741 2.5785472 0.67003357 0
-0.30238569 1.6491463 -0.049969316 0
-0.78618205 2.5607302 0.47485629 0
-0.78527236 2.5590162 0.66877699 0
-0.31946516 1.6392375 -0.049947128 0
-0.81202853 2.5397713 0.47373977 0
-0.80736792 2.5312507 0.66521472 0
-0.33802313 1.6319784 -0.050042134 0
-0.62002206 2.1324725 0.082551517 0
-0.83392775 2.512114 0.47129583 0
-0.83529425 2.5145395 0.66494542 0
-0.35726219 1.6257535 -0.05019014 0
-0.61946511 2.0777109 0.080844395 0
-0.86291575 2.4973454 0.47157851 0
-0.85769427 2.4883451 0.66198045 0
-0.37270302 1.6129577 -0.050076071 0
-0.61850333 2.0246119 0.079193234 0
-0.88690543 2.4741187 0.47016314 0
-0.89012623 2.4795127 0.66423565 0
-0.39106721 1.6050684 -0.050174814 0
-0.61583304 1.9709488 0.077505104 0
-0.90693915 2.4448202 0.46751526 0
-0.91146505 2.4521875 0.66109294 0
-0.40348387 1.5876292 -0.049880777 0
-0.61475587 1.922029 0.076002389 0
-0.94466615 2.4442089 0.47101966 0
-0.9316541 2.4236135 0.65762913 0
-0.41540837 1.5698072 -0.049574662 0
-0.61774814 1.8813127 0.074836001 0
-0.96076441 2.4093924 0.46729854 0
-0.95361006 2.3983781 0.65522951 0
-0.43623418 1.5657015 -0.049861178 0
-0.61940694 1.8400736 0.073638938 0
-0.98067784 2.3812168 0.46502987 0
-0.97232234 2.3687012 0.6515317 0
-0.45045251 1.5516008 -0.049728759 0
-0.61823308 1.7961911 0.07231795 0
-0.99732387 2.348829 0.46187493 0
-1.0038646 2.3583643 0.65385795 0
-0.47837484 1.5571049 -0.050459176 0
-0.62046731 1.7587562 0.071266152 0
-1.0170699 2.3215969 0.45987535 0
-1.0246111 2.332299 0.65141934 0
-0.48093998 1.5266845 -0.049628552 0
-0.62060499 1.7196833 0.070133768 0
-0.62164235 1.7211168 0.19924793 0
-1.0464103 2.3080902 0.46096814 0
-1.0430821 2.3034911 0.64817661 0
-0.076150253 0.96731842 0.44014478 0
-0.50648886 1.5281742 -0.050210834 0
-0.61427033 1.6732326 0.068662673 0
-0.62046266 1.6815666 0.19574524 0
-1.0657178 2.2808166 0.45906061 0
-1.0613053 2.2748778 0.6450389 0
-0.093920365 0.97291583 0.4476611 0
-0.51648355 1.5085891 -0.049866829 0
-0.61738849 1.6408801 0.067806855 0
-0.61643457 1.6396296 0.19188417 0
-1.077378 2.2439477 0.45501319 0
-1.074546 2.2402346 0.6400094 0
-0.096294537 0.9577018 0.442294 0
-0.53812706 1.5042725 -0.050217368 0
-0.61869264 1.6071842 0.066883415 0
-0.61889255 1.6074395 0.18930827 0
-1.0966483 2.2177086 0.45339376 0
-1.0975311 2.2188361 0.63927519 0
-0.10502388 0.95104104 0.44232759 0
-0.54916894 1.4863596 -0.04996125 0
-0.62203562 1.5770606 0.066114925 0
-0.61798656 1.5720204 0.1862653 0
-1.1125124 2.1875825 0.4509145 0
-1.11408 2.1895337 0.63604116 0
-0.12706353 0.9609428 0.45306167 0
-0.56080991 1.4694525 -0.049755398 0
-0.61575139 1.5361044 0.064839184 0
-0.61929679 1.5404056 0.18371885 0
-1.1253155 2.1542797 0.4477134 0
-1.1292403 2.1590409 0.63244832 0
-0.1374156 0.95581371 0.45434049 0
-0.57908046 1.4606049 -0.049930986 0
-0.61864054 1.5073843 0.064118199 0
-0.61649728 1.5048498 0.18059278 0
-1.1489477 2.1344664 0.44770205 0
-1.1476395 2.1329195 0.63034117 0
-0.14609279 0.94860172 0.45435312 0
-0.59716654 1.4513508 -0.05010011 0
-0.61971653 1.477345 0.063328668 0
-0.61510468 1.4720287 0.17781645 0
-1.1607159 2.1009724 0.44449487 0
-1.1606454 2.1008911 0.62629354 0
-0.61022031 1.4362572 -0.050002895 0
-0.62671328 1.4547925 0.062888674 0
-0.63931167 1.468951 0.17928509 0
-1.1707271 2.06617 0.44097134 0
-1.1635571 2.0581121 0.61858451 0
-0.62768126 1.4260899 -0.050150562 0
-0.66531754 1.4673289 0.064143814 0
-0.6597259 1.461202 0.18013516 0
-1.1858258 2.0376649 0.43897521 0
-1.1820893 2.0335708 0.61709839 0
-0.63564062 1.4056139 -0.049806584 0
-0.51347852 1.2750964 0.055424299 0
-0.68710077 1.4605936 0.18208401 0
-1.1898384 1.9977162 0.43417537 0
-1.1889325 1.9967484 0.61138415 0
-0.65320063 1.3954856 -0.049975429 0
-0.5126633 1.2490755 0.054730035 0
-0.70865357 1.4532558 0.18310513 0
-1.19856 1.9636341 0.4307963 0
-1.2088022 1.9743043 0.61071563 0
-0.65700901 1.3712133 -0.049448825 0
-0.51020902 1.2220837 0.053977963 0
-0.74404216 1.4596275 0.1862471 0
-1.205043 1.9279437 0.42699569 0
-1.2126201 1.9356412 0.6043213 0
-0.67980576 1.3662694 -0.049898416 0
-0.52866703 1.2165506 0.0543033 0
-0.77350414 1.4590874 0.18844138 0
-1.2232108 1.9045689 0.42632329 0
-1.2094842 1.8909713 0.59568489 0
-0.69917262 1.3575671 -0.050175432 0
-0.54616398 1.2097663 0.054580476 0
-0.80661225 1.4613498 0.19115499 0
-1.2191714 1.8598667 0.42016488 0
-1.2218117 1.862417 0.59283882 0
-0.71127295 1.3417475 -0.050098207 0
-0.56519043 1.2041504 0.054933619 0
-0.83200681 1.4554684 0.19269355 0
-1.2270838 1.8275969 0.41718045 0
-1.2198505 1.8207837 0.58514518 0
-0.72676885 1.3291163 -0.050196175 0
-0.86906517 1.4598054 0.069093816 0
-0.87027586 1.4609174 0.19610393 0
-1.229731 1.791051 0.41304111 0
-1.2367147 1.7974652 0.58424383 0
-0.23838998 0.88057542 0.38317218 0
-0.73705411 1.3117222 -0.050051004 0
-0.9040153 1.4612327 0.070052348 0
-0.91161358 1.4680367 0.19990879 0
-1.2399656 1.7620692 0.41089708 0
-1.2395976 1.7617397 0.57866549 0
-0.23409916 0.86133611 0.37650484 0
-0.7512852 1.2979047 -0.050104864 0
-0.93542659 1.4586681 0.070831835 0
-1.2359642 1.7210504 0.40545613 0
-1.2353158 1.7204843 0.57087481 0
-0.23055817 0.84328747 0.3704564 0
-0.76285875 1.2817713 -0.050041758 0
-0.97688234 1.4639257 0.072075427 0
-1.2438917 1.6911758 0.40302119 0
-1.2419451 1.6895192 0.56699771 0
-0.2436036 0.83983618 0.37361461 0
-0.26309091 0.85642171 0.46304607 0
-0.77435768 1.2656299 -0.049985327 0
-1.0139154 1.4643697 0.073097855 0
-1.2407714 1.6525718 0.39811131 0
-1.2475295 1.6581784 0.56294435 0
-0.25332266 0.83337331 0.37497395 0
-0.78528035 1.2490696 -0.049912386 0
-1.0509603 1.463891 0.074110217 0
-1.2517846 1.6262718 0.39664245 0
-1.2399939 1.6167383 0.5547576 0
-0.25008899 0.8163287 0.36946648 0
-0.7985847 1.2344475 -0.049957946 0
-1.0819342 1.4577147 0.074836917 0
-1.2499887 1.5901344 0.39232343 0
-1.2378083 1.5805368 0.54855973 0
-0.26987481 0.81784666 0.37626117 0
-0.80746126 1.2163814 -0.049812101 0
-1.1199083 1.4562619 0.075875223 0
-1.2494982 1.5557542 0.38844678 0
-1.2489067 1.5553 0.54684168 0
-0.26586264 0.80057061 0.37055826 0
-0.25345767 0.79104674 0.4387241 0
-0.81824839 1.199869 -0.049762994 0
-1.1632279 1.4578875 0.077142932 0
-1.2519867 1.5242724 0.38537529 0
-1.2336643 1.5105686 0.53684938 0
-0.262725 0.78437948 0.36547396 0
-0.27953112 0.79694921 0.45090547 0
-0.83254385 1.1859512 -0.049878523 0
-1.2077234 1.4592588 0.078450099 0
-1.2437834 1.4855274 0.38003504 0
-1.238938 1.4819977 0.53360277 0
-1.2324737 1.4772887 0.69133753 0
-0.26889819 0.77535146 0.36531046 0
-0.27469015 0.77957076 0.44379273 0
-0.85894847 1.1805196 -0.050530765 0
-1.257718 1.4633956 0.079985589 0
-1.2579298 1.4635459 0.3797926 0
-1.2364162 1.4482847 0.52805966 0
-1.2353764 1.4475471 0.68634588 0
-0.28698808 0.77478689 0.37125564 0
-0.28497344 0.77335775 0.44615597 0
-0.86506891 1.1605166 -0.050300267 0
-1.3009245 1.4615233 0.081211008 0
-1.2508223 1.4269222 0.37495482 0
-1.2366029 1.4171021 0.52353656 0
-1.2439404 1.4221694 0.68383849 0
-0.27949095 0.75611007 0.43895993 0
-0.86585832 1.1371223 -0.049853265 0
-1.2741549 1.4115684 0.079416946 0
-1.2734714 1.411109 0.22691381 0
-1.2452439 1.3921353 0.37059072 0
-1.2374182 1.386875 0.51936603 0
-1.2361875 1.3860477 0.67493999 0
-0.28963912 0.74980319 0.44137928 0
-0.87467122 1.1193488 -0.049764831 0
-1.2730209 1.3798875 0.078758143 0
-1.262888 1.3732601 0.22371797 0
-1.2577859 1.3699231 0.37026209 0
-1.2368333 1.3562192 0.51491934 0
-1.2378418 1.3568788 0.67003572 0
-0.29588085 0.74079376 0.44149092 0
-0.88544023 1.10289 -0.049769375 0
-1.2782904 1.3528265 0.078392513 0
-1.2667053 1.3454559 0.22244287 0
-1.2501677 1.3349345 0.3656868 0
-1.2403913 1.3287145 0.51187807 0
-1.241474 1.3294034 0.66609597 0
-0.29366112 0.72639233 0.4366515 0
-0.90206575 1.0900469 -0.050028481 0
-1.2938396 1.3324236 0.078475632 0
-1.2861574 1.3276708 0.22319791 0
-1.2481197 1.3041383 0.36242208 0
-1.2331685 1.2948885 0.50573039 0
-1.2395359 1.2988278 0.66014344 0
-0.91102779 1.0723783 -0.049973141 0
-1.3124311 1.3137772 0.07869561 0
-1.3058151 1.3097984 0.22400123 0
-1.2522073 1.2775593 0.36055517 0
-1.2386187 1.2693874 0.50352937 0
-1.2402297 1.2703562 0.65540767 0
-0.92061317 1.0551155 -0.049953215 0
-1.3410373 1.3007987 0.079337828 0
-1.3340254 1.2967011 0.22589135 0
-1.2425494 1.2432452 0.35590088 0
-1.2434348 1.2437626 0.50125229 0
-1.2457563 1.2451192 0.6527074 0
-0.92818141 1.0367203 -0.049859583 0
-1.3762772 1.2910599 0.080254532 0
-1.365467 1.284924 0.22818778 0
-1.257666 1.223736 0.3565073 0
-1.2309554 1.208575 0.49401256 0
-1.2480644 1.2182862 0.64891726 0
-0.94300628 1.0223958 -0.050071876 0
-1.2519006 1.1926181 0.35286024 0
-1.2381265 1.1850277 0.49267671 0
-1.2323742 1.1818578 0.6384452 0
-0.95119333 1.0043483 -0.050021335 0
-1.2521728 1.1653022 0.35055289 0
-1.2329862 1.1550418 0.48787397 0
-1.2434503 1.1606377 0.63831532 0
-0.96494937 0.98922592 -0.05020427 0
-1.2620786 1.1433415 0.35028788 0
-1.2345535 1.1290648 0.48513916 0
-1.2336264 1.1285839 0.63045382 0
-0.96815765 0.96865219 -0.049972191 0
-1.2716489 1.1212494 0.35001281 0
-1.2391813 1.1049246 0.48338935 0
-1.2375574 1.104108 0.62791479 0
-0.97799802 0.95148772 -0.050015222 0
-1.2917162 1.1043092 0.3519012 0
-1.2366161 1.0774683 0.47969544 0
-1.2327782 1.0755987 0.62228227 0
-0.98023295 0.93069923 -0.049766351 0
-1.2987307 1.0809169 0.35121831 0
-1.2326339 1.0497427 0.47572151 0
-1.2371305 1.0518636 0.62017459 0
-0.98816633 0.91270065 -0.049752835 0
-1.3123178 1.0606245 0.35190088 0
-1.2310319 1.0235304 0.47253603 0
-1.2421649 1.0286108 0.61843795 0
