# .PCD v0.7 - Point Cloud Data file format
VERSION 0.7
FIELDS x y z intensity
SIZE 4 4 4 4
TYPE F F F F
COUNT 1 1 1 1
WIDTH 1350
HEIGHT 1
VIEWPOINT 0 0 0 1 0 0 0
POINTS 1350
DATA ascii
-1.1298846 0.18560784 -0.049851496 0
-0.5185979 0.21642369 0.10834819 0
-0.50519305 0.21709946 0.17533413 0
-1.2369914 0.18020841 0.43249246 0
-1.2344934 0.18033436 0.56131732 0
-1.2325231 0.18043368 0.69627243 0
-1.1414427 0.16514224 -0.05030486 0
-0.51794297 0.20444997 0.10835078 0
-0.51009667 0.20494463 0.17634124 0
-1.2418102 0.1588147 0.43402907 0
-1.2392032 0.15897904 0.56328422 0
-1.1358584 0.14565042 -0.050154123 0
-0.50751466 0.19321351 0.1073163 0
-0.5249477 0.19189391 0.17917611 0
-1.2430046 0.13753988 0.43470865 0
-1.2426709 0.13756512 0.56492817 0
-1.1371523 0.12565431 -0.050258528 0
-0.51372486 0.18074812 0.108091 0
-0.50681472 0.18135878 0.17607208 0
-1.2434359 0.11626179 0.43526217 0
-1.2403131 0.11653776 0.56471831 0
-1.1209482 0.10734972 -0.049744211 0
-0.50827122 0.16927733 0.10762377 0
-0.50559539 0.1695478 0.17605402 0
-1.2389588 0.09542153 0.4346264 0
-1.2365786 0.095662124 0.56413627 0
-1.1298801 0.08654622 -0.050140616 0
-0.50650561 0.15749507 0.039741665 0
-0.50310057 0.15788262 0.10720207 0
-0.51786721 0.15620196 0.17851172 0
-1.2404557 0.073961131 0.43559107 0
-1.2487309 0.073019303 0.56896102 0
-1.1293455 0.066656061 -0.050206415 0
-0.51127583 0.14489616 0.039964434 0
-0.51043898 0.1450021 0.1081503 0
-0.51747763 0.14411108 0.17870221 0
-1.245973 0.051892448 0.4376606 0
-1.2394189 0.052722115 0.56669086 0
-1.1257237 0.047146264 -0.05017006 0
-0.50900042 0.13311888 0.039939336 0
-0.50361192 0.13387005 0.10758071 0
-0.51863497 0.1317758 0.17920238 0
-1.2351487 0.031892184 0.43559569 0
-1.2435677 0.030718554 0.56902421 0
-1.1088984 0.029669616 -0.049665686 0
-0.51224774 0.1205167 0.040118981 0
-0.51406407 0.12024013 0.10890362 0
-0.51415968 0.12022557 0.17870429 0
-1.2487055 0.00838234 0.43988389 0
-1.2431767 0.0092241662 0.56992745 0
-1.1094576 0.0096789496 -0.049797274 0
-0.52249783 0.10662747 0.040558137 0
-0.50784546 0.10904761 0.10843211 0
-0.51351911 0.10811051 0.17893268 0
-1.2399268 -0.011870722 0.43848178 0
-1.2428843 -0.012359212 0.57095689 0
-1.114765 -0.011254947 -0.050110467 0
-0.51015621 0.09644603 0.040185358 0
-0.51746958 0.095143266 0.10970433 0
-0.51220953 0.096080266 0.17906696 0
-1.2457135 -0.034581225 0.44091713 0
-1.2343024 -0.032548558 0.56927919 0
-1.0979699 -0.028191965 -0.049630601 0
-0.50565994 0.085030653 0.040101498 0
-0.50561816 0.08503864 0.10864898 0
-0.51875484 0.082527511 0.18067159 0
-1.2365905 -0.054689866 0.43955973 0
-1.2322795 -0.053865831 0.5699051 0
-1.0933607 -0.047275525 -0.049601302 0
-0.51374578 0.071103938 0.040481128 0
-0.50865078 0.072144531 0.10923745 0
-0.50719774 0.072441287 0.17897961 0
-1.2323811 -0.075668789 0.43954417 0
-1.2427042 -0.077777155 0.57485032 0
-1.1076378 -0.070446827 -0.050270699 0
-0.51654422 0.058050666 0.040675014 0
-0.51129228 0.059192378 0.10980237 0
-0.51413155 0.058575157 0.18071908 0
-1.2449877 -0.10030524 0.44398797 0
-1.2452264 -0.10035712 0.57722104 0
-1.1022061 -0.089560755 -0.050230622 0
-0.5182178 0.045114476 0.04083427 0
-0.51480603 0.045901287 0.11048308 0
-0.51521647 0.04580662 0.18141335 0
-1.2439568 -0.1222503 0.44495511 0
-1.2365767 -0.12054835 0.57588118 0
-1.0873686 -0.10635466 -0.049853615 0
-0.51262319 0.033833478 0.040732902 0
-0.51342255 0.033638511 0.11064263 0
-0.51341927 0.033639316 0.18160453 0
-1.2363678 -0.14269756 0.44427547 0
-1.2457036 -0.14497469 0.58071166 0
-1.0828298 -0.12552701 -0.049862813 0
-0.54537821 0.012757112 0.042050153 0
-0.55506265 0.01026534 0.11559413 0
-0.56472582 0.0077790213 0.19171397 0
-1.2359879 -0.16493396 0.44556051 0
-1.2299651 -0.16338427 0.57712132 0
-1.0782542 -0.14469935 -0.049879599 0
-0.61950874 -0.020486962 0.044912055 0
-0.6242404 -0.021768134 0.12366128 0
-1.2394427 -0.1883436 0.31839842 0
-1.2317092 -0.18624966 0.44589332 0
-1.2519106 -0.19171946 0.58658719 0
-1.0811918 -0.16602345 -0.05018425 0
-0.69550753 -0.056362998 0.047869071 0
-0.68668079 -0.053853285 0.13104956 0
-1.2515364 -0.21445702 0.32175955 0
-1.2403394 -0.21127342 0.44972238 0
-1.2345896 -0.20963858 0.58262867 0
-1.0743673 -0.18466605 -0.050136369 0
-0.76946783 -0.093810238 0.050778061 0
-0.771626 -0.094453372 0.14103454 0
-1.2414509 -0.23445468 0.32102132 0
-1.2412926 -0.23440747 0.45160577 0
-1.2463862 -0.2359253 0.58884174 0
-1.0758386 -0.20586281 -0.05040729 0
-0.86656511 -0.14062221 0.054581322 0
-0.86694515 -0.14074068 0.15228401 0
-1.2472472 -0.25929907 0.32332787 0
-1.2335924 -0.25504223 0.45126179 0
-1.2357798 -0.25572416 0.58738714 0
-1.0587488 -0.22121997 -0.049992431 0
-0.99194443 -0.19946726 0.059484176 0
-0.98605955 -0.19755103 0.16633485 0
-1.2454386 -0.28200963 0.32426068 0
-1.2472872 -0.28261158 0.45672655 0
-1.2375429 -0.27943864 0.59034157 0
-1.0484107 -0.23856436 -0.049837627 0
-1.1301725 -0.26633093 0.064920366 0
-1.129577 -0.26612869 0.18329661 0
-1.2491634 -0.30674061 0.32630581 0
-1.2285023 -0.29972401 0.45355669 0
-1.0409582 -0.25681683 -0.049799662 0
-1.2917161 -0.34551194 0.20255503 0
-1.2371587 -0.32621452 0.32541046 0
-1.2411815 -0.3276374 0.45894572 0
-1.0321094 -0.27453044 -0.049717132 0
-1.2550551 -0.35656086 0.19925189 0
-1.2379307 -0.35026005 0.32701322 0
-1.2491354 -0.35438272 0.46317053 0
-1.0289137 -0.29434624 -0.049858775 0
-1.2506534 -0.37911782 0.19966038 0
-1.240025 -0.37505463 0.32893744 0
-1.2398907 -0.37500319 0.46280983 0
-1.0241611 -0.31365499 -0.049950883 0
-1.2531189 -0.40450659 0.20089766 0
-1.2489929 -0.40286943 0.33226532 0
-1.2343581 -0.39706221 0.46353734 0
-1.0126103 -0.33024034 -0.049790397 0
-1.2524248 -0.42891273 0.20181125 0
-1.2380214 -0.42298642 0.33179009 0
-1.2409689 -0.42419919 0.46769527 0
-1.0122765 -0.35148731 -0.050072446 0
-1.2507157 -0.45312288 0.202647 0
-1.2431295 -0.44988921 0.33451423 0
-1.2312338 -0.44481865 0.46743667 0
-1.0112112 -0.37263229 -0.050337937 0
-1.2543787 -0.47992125 0.20415413 0
-1.2427243 -0.47477922 0.33623335 0
-1.2390013 -0.47313657 0.47212958 0
-0.99236465 -0.38587239 -0.04991759 0
-1.2360604 -0.49708089 0.20311305 0
-1.239068 -0.49845341 0.33737984 0
-1.239696 -0.49873999 0.47496581 0
-0.98372364 -0.40360144 -0.049904142 0
-1.2406811 -0.52479392 0.20481703 0
-1.2385383 -0.52378327 0.33921584 0
-1.2431234 -0.52594584 0.47868043 0
-0.97082973 -0.41925171 -0.049730558 0
-1.4930447 -0.67363805 0.082468703 0
-1.242586 -0.55163223 0.20624845 0
-1.2348515 -0.54786456 0.34049365 0
-1.2439902 -0.55231625 0.48178813 0
-0.97193587 -0.44180778 -0.05012317 0
-1.4462796 -0.68031067 0.081078015 0
-1.2397336 -0.57645804 0.20715721 0
-1.2281284 -0.57062298 0.34122765 0
-1.2391506 -0.57616496 0.48338059 0
-0.96237946 -0.45914885 -0.050100911 0
-1.3974816 -0.68482852 0.079599828 0
-1.2329552 -0.59949166 0.20763437 0
-1.2389612 -0.60260689 0.34559122 0
-0.95171332 -0.4758822 -0.050042387 0
-1.3489329 -0.68830216 0.078124046 0
-1.2401503 -0.6301288 0.20985293 0
-1.2407913 -0.63047165 0.34822521 0
-0.94263744 -0.49344841 -0.050056841 0
-1.3046988 -0.69296956 0.076815642 0
-1.2314428 -0.65260041 0.21018277 0
-1.2420126 -0.65842509 0.35082415 0
-0.93136954 -0.50978565 -0.04999046 0
-1.2693741 -0.70163739 0.075866006 0
-1.2472894 -0.68910211 0.21358407 0
-1.2415795 -0.68586117 0.35317138 0
-0.92125273 -0.52674502 -0.049979661 0
-1.2489853 -0.71826208 0.07553146 0
-1.2329608 -0.70889783 0.21331146 0
-1.2450941 -0.71598816 0.35643244 0
-0.91095638 -0.5435912 -0.049970169 0
-1.2565475 -0.75142533 0.07636749 0
-1.2403965 -0.74171227 0.21579732 0
-1.2382543 -0.74042398 0.35761878 0
-0.90667725 -0.56415576 -0.05022208 0
-1.2420123 -0.77161568 0.076299854 0
-1.2430387 -0.77225071 0.21774885 0
-1.2383295 -0.76933736 0.36034587 0
-0.88812923 -0.57585663 -0.049883157 0
-1.250755 -0.80656391 0.077227369 0
-1.2351953 -0.79666454 0.21842925 0
-1.2348149 -0.79642254 0.36240506 0
-0.87678552 -0.59198755 -0.049855024 0
-1.2501218 -0.83616632 0.07778129 0
-1.2354715 -0.82658428 0.22019729 0
-1.2434421 -0.83179742 0.36717102 0
-0.86123204 -0.6052686 -0.04965426 0
-1.2401757 -0.85998434 0.077955268 0
-1.240508 -0.86020774 0.22264534 0
-1.2442651 -0.86273307 0.37037799 0
-0.86293519 -0.63029891 -0.050207689 0
-1.2458519 -0.89474541 0.078821532 0
-1.2400632 -0.89074761 0.22445396 0
-1.2422045 -0.89222652 0.37306598 0
-0.83915317 -0.63773322 -0.049664292 0
-1.2499104 -0.92911297 0.079643838 0
-1.23893 -0.92132372 0.22623852 0
-1.6078027 -1.1829916 0.45715553 0
-0.83165538 -0.65655988 -0.049839281 0
-1.2333461 -0.94918007 0.079581849 0
-1.2392155 -0.95345575 0.22827913 0
-1.5685111 -1.1933382 0.4524909 0
-0.83948839 -0.68701071 -0.050709914 0
-1.235674 -0.98332757 0.080372736 0
-1.2441181 -0.98964316 0.23101272 0
-0.80647266 -0.68687826 -0.049767602 0
-1.2516187 -1.0286379 0.081803463 0
-1.2447846 -1.023391 0.23326033 0
-0.79671288 -0.7042284 -0.049872868 0
-1.1596329 -0.99019378 0.078368522 0
-1.1600116 -0.99049228 0.22389816 0
-1.1665665 -0.99565715 0.37316898 0
-0.78165317 -0.71739262 -0.049745858 0
-1.1396202 -1.0068346 0.078180745 0
-1.1333269 -1.0017461 0.2224113 0
-1.1434153 -1.0099033 0.3715086 0
-0.77298748 -0.73574895 -0.049921766 0
-1.2460709 -1.1282241 0.083867013 0
-1.2402332 -1.1233811 0.23958291 0
-1.3308225 -1.1985351 0.41921321 0
-0.76289034 -0.75305408 -0.050043244 0
-1.2411413 -1.1600908 0.084464185 0
-1.231251 -1.1516732 0.24079995 0
-1.3285636 -1.2344953 0.42307359 0
-1.0301808 -0.98054343 0.49605101 0
-0.7490046 -0.76716954 -0.049996778 0
-1.2837223 -1.234001 0.41688985 0
-0.98932123 -0.97697622 0.48756072 0
-0.73379552 -0.78005999 -0.04989484 0
-1.1912991 -1.1897453 0.083819956 0
-1.1863896 -1.1853489 0.23954816 0
-1.1980312 -1.1957737 0.40074518 0
-0.97292364 -0.99419445 0.48733646 0
-0.72510743 -0.7988463 -0.050115641 0
-0.91958284 -0.97745806 0.4743869 0
-0.70437288 -0.80650419 -0.049759794 0
-0.88284576 -0.97461027 0.46702883 0
-0.69122005 -0.82114106 -0.049780689 0
-0.85542369 -0.9797557 0.46287233 0
-0.68609595 -0.84375626 -0.050214514 0
-0.8295927 -0.98590487 0.4592582 0
-0.66493011 -0.8505159 -0.049851939 0
-0.81372297 -1.0016698 0.4592483 0
-0.65606558 -0.86972612 -0.050123133 0
-0.63178217 -0.87274736 -0.049605001 0
-0.62639415 -0.89593524 -0.050082393 0
-0.6086185 -0.9057129 -0.049916867 0
-0.58622193 -0.90999061 -0.049503837 0
-0.58552301 -0.93947893 -0.050287187 0
-0.56813633 -0.94959635 -0.050166618 0
-0.55584043 -0.96591967 -0.05034155 0
-0.532471 -0.96830338 -0.049889792 0
-0.52298534 -0.98836905 -0.050249573 0
-0.49750304 -0.98733634 -0.049672935 0
-0.48657656 -1.0057294 -0.049971808 0
-0.47425199 -1.0225097 -0.050203636 0
-0.45937735 -1.0358672 -0.050292037 0
-0.43652588 -1.0373943 -0.049879935 0
-0.42059761 -1.0490519 -0.049914766 0
-0.37568164 -0.97990292 0.49962741 0
-0.40264106 -1.0575509 -0.049824443 0
-0.35141671 -0.97647339 0.49431184 0
-0.39035171 -1.0751595 -0.050126012 0
-0.34082794 -0.99454325 0.49755153 0
-0.36947393 -1.0788056 -0.049851201 0
-0.31151038 -0.98173112 0.48885238 0
-0.35257524 -1.0889305 -0.049856693 0
-0.2919901 -0.98450023 0.48635203 0
-0.34120232 -1.1088767 -0.050273355 0
-0.27909362 -0.99864572 0.48830786 0
-0.31944263 -1.1104522 -0.049945451 0
-0.25997692 -1.0017333 0.48611885 0
-0.30141461 -1.1185724 -0.049895361 0
-0.22597648 -0.97642952 0.47334188 0
-0.284226 -1.128253 -0.049917404 0
-0.20389582 -0.97217768 0.46868527 0
-0.26861405 -1.1411359 -0.050075728 0
-0.1836331 -0.97078687 0.46522525 0
-0.25057799 -1.1492664 -0.050052471 0
-0.16668995 -0.97566992 0.46419898 0
-0.22996987 -1.1518673 -0.049820386 0
-0.15026249 -0.98147851 0.46359724 0
-0.21208043 -1.1600864 -0.049819972 0
-0.13500418 -0.9897669 0.46398029 0
-0.1930864 -1.1657875 -0.049730249 0
-0.11459 -0.98634833 0.46018001 0
-0.17778046 -1.1800625 -0.049982596 0
-0.10671099 -1.0118642 0.46694335 0
-0.16048528 -1.1899388 -0.050071511 0
-0.074314013 -0.97861689 0.34847853 0
-0.081610575 -0.99651057 0.45902371 0
-0.1424519 -1.1981175 -0.050103236 0
-0.05271621 -0.96987623 0.34435979 0
-0.069021061 -1.0113473 0.4620491 0
-0.12227996 -1.200721 -0.049930666 0
-0.030315472 -0.95787495 0.14645727 0
-0.030303491 -0.95784324 0.24170108 0
-0.010857625 -0.90649348 0.32542789 0
-0.052129611 -1.0154784 0.46130803 0
-0.10235645 -1.20366 -0.049781311 0
-0.008580042 -0.94629031 0.1444767 0
-0.0075442628 -0.94344765 0.23783785 0
0.0037595795 -0.91242415 0.32554755 0
-0.087051407 -1.2194791 -0.050129328 0
0.0074491366 -0.94960541 0.14423265 0
0.0081937779 -0.94747883 0.2375676 0
0.019882904 -0.91409713 0.32456556 0
-0.0019768907 -0.97652417 0.44341764 0
-0.06758137 -1.2236861 -0.050045807 0
0.024200724 -0.95059949 0.14374943 0
0.025642442 -0.94630986 0.2363469 0
0.02392854 -0.9514094 0.33323503 0
0.014430301 -0.97967023 0.4426361 0
-0.049680337 -1.2325816 -0.05014769 0
0.036508873 -0.96502644 0.14480871 0
0.033752069 -0.97358435 0.24056216 0
0.020680385 -1.0141624 0.34870231 0
0.019102888 -1.0190594 0.45459819 0
-0.032990381 -1.2456603 -0.050413895 0
0.023828523 -1.0613588 0.35994542 0
-0.0062952773 -1.2254478 -0.049447928 0
0.069982395 -0.96649116 0.33337265 0
0.0095403064 -1.2413841 -0.049838379 0
0.087731138 -0.96304911 0.33127657 0
0.026725994 -1.2533494 -0.050088145 0
0.10103919 -0.97542399 0.33342382 0
0.047471955 -1.252023 -0.0498555 0
0.11908205 -0.97002476 0.33092976 0
0.063709155 -1.2687498 -0.050296087 0
0.084113643 -1.2685589 -0.050123516 0
0.10513355 -1.2649267 -0.049835164 0
0.12408815 -1.2705555 -0.049894433 0
0.14350791 -1.2739519 -0.049881145 0
-0.065533444 -2.3865297 0.10229664 0
0.16151153 -1.2854098 -0.050168939 0
0.0023760365 -2.1953626 0.095148467 0
0.18107642 -1.2885156 -0.050162282 0
0.033698902 -2.1986217 0.095077507 0
0.20041601 -1.2931226 -0.050218735 0
0.065422699 -2.198885 0.094912782 0
0.22053985 -1.2922896 -0.050087858 0
0.097071305 -2.1988766 0.09475296 0
0.23949385 -1.3002094 -0.050281167 0
0.12910809 -2.1948419 0.094462909 0
0.25874248 -1.3067344 -0.050432686 0
0.16087221 -2.1914563 0.094211072 0
0.27951685 -1.2988034 -0.050074153 0
0.19157937 -2.1970954 0.094297633 0
0.29909071 -1.3020208 -0.050124835 0
0.22166979 -2.2107508 0.094685197 0
0.31851026 -1.3079038 -0.050279714 0
0.25334275 -2.206434 0.094442658 0
0.33895728 -1.2985085 -0.049896799 0
0.28541836 -2.1926134 0.093874671 0
0.35824969 -1.307892 -0.050194483 0
0.31606773 -2.2005923 0.094100595 0
0.37825149 -1.3029517 -0.049989041 0
0.3474094 -2.193331 0.093795791 0
0.39791089 -1.3071145 -0.050117716 0
0.37840912 -2.1920524 0.093718812 0
0.41783053 -1.2936603 -0.049626242 0
0.43748721 -1.3057884 -0.050057031 0
0.45717549 -1.3004221 -0.049872089 0
0.47717291 -1.3104577 -0.050246026 0
0.49654877 -1.2987902 -0.049853675 0
0.51701164 -1.312531 -0.050378188 0
0.53557563 -1.2919407 -0.049684003 0
0.55621171 -1.3038144 -0.050160103 0
0.57546628 -1.2968785 -0.049971726 0
0.59504104 -1.2942648 -0.049946945 0
0.61456907 -1.2913759 -0.049921092 0
0.63352656 -1.2842079 -0.049749993 0
0.65487009 -1.2946036 -0.050220575 0
0.67369705 -1.286633 -0.0500382 0
0.6936363 -1.2860233 -0.050130509 0
0.71071637 -1.2692673 -0.049646281 0
0.73286313 -1.2803459 -0.050181016 0
0.75167418 -1.2734783 -0.050072949 0
0.76918292 -1.2610488 -0.049769893 0
0.78782588 -1.2543925 -0.049685683 0
0.80844045 -1.2559448 -0.049911719 0
0.8276456 -1.2514455 -0.049924787 0
0.84661072 -1.246024 -0.049912702 0
0.86737841 -1.2468867 -0.050142881 0
0.88606185 -1.2402611 -0.050104447 0
0.9052552 -1.235333 -0.05013819 0
0.92101252 -1.219878 -0.049785491 0
0.94256926 -1.222082 -0.050105266 0
0.9612937 -1.2156785 -0.05011043 0
0.97979772 -1.208662 -0.050101232 0
0.99815148 -1.2012657 -0.050086346 0
0.92311209 -1.0068195 0.45931783 0
1.0137074 -1.1869025 -0.049812324 0
0.94027728 -1.003534 0.46039015 0
1.0339246 -1.1842632 -0.049997613 0
0.96007562 -1.0063726 0.46375182 0
1.0510494 -1.1740931 -0.04990112 0
0.96881568 -0.98284191 0.45767221 0
1.0694069 -1.1668534 -0.049926989 0
0.98663986 -0.98085111 0.45944211 0
1.0862237 -1.1562141 -0.049828466 0
1.0066148 -0.9832074 0.46289629 0
1.1019133 -1.1433589 -0.049650103 0
1.0277923 -0.9874776 0.4671686 0
1.1222401 -1.1402256 -0.049865134 0
1.0410856 -0.97495121 0.46534055 0
1.1444677 -1.1405011 -0.05022819 0
1.0644588 -0.98261613 0.47109383 0
1.1624134 -1.1320245 -0.050252307 0
1.0803092 -0.97494203 0.471237 0
1.174147 -1.1119766 -0.049816467 0
1.1051867 -0.98399287 0.47777691 0
1.1908988 -1.1015944 -0.049778268 0
1.1270123 -0.98652095 0.057079323 0
1.1327564 -0.99686724 0.16103257 0
1.1360449 -1.0027906 0.26738849 0
1.1349784 -1.0008696 0.37521517 0
1.1230402 -0.97936636 0.4792769 0
1.2138538 -1.1021096 -0.050196595 0
1.1478044 -0.98659176 0.057445921 0
1.1457245 -0.98295432 0.16041404 0
1.1446584 -0.98108965 0.26474127 0
1.1403207 -0.97350305 0.36980113 0
1.1470233 -0.98522586 0.48489219 0
1.2301462 -1.0907172 -0.050136674 0
1.16643 -0.98246664 0.057652224 0
1.1682953 -0.98563558 0.16188055 0
1.1661073 -0.98191839 0.26681173 0
1.1654991 -0.98088497 0.37465394 0
1.1646008 -0.97935885 0.48613846 0
1.2337748 -1.0584918 -0.049215276 0
1.2600557 -1.0638484 -0.049869355 0
1.277492 -1.0545382 -0.049920853 0
1.2965959 -1.0476884 -0.050087295 0
1.3113334 -1.0341717 -0.049978092 0
1.3189121 -1.0104879 -0.049433876 0
1.3388793 -1.0048072 -0.049678709 0
1.3583826 -0.99819666 -0.049895722 0
1.380487 -0.99478155 -0.050268523 0
1.3941256 -0.979976 -0.050143547 0
1.3988532 -0.95407122 -0.049519356 0
1.2061603 -0.7111004 0.050448194 0
1.2066721 -0.71174568 0.13988805 0
1.420671 -0.94985968 -0.049889985 0
1.2055466 -0.68551075 0.049722247 0
1.2157016 -0.69798934 0.13934328 0
1.4355835 -0.93696493 -0.049873393 0
1.2009304 -0.65592223 0.048802283 0
1.2085032 -0.66499221 0.13611479 0
1.4539951 -0.92816883 -0.050058063 0
1.2027518 -0.63484341 0.048269648 0
1.2067981 -0.63956749 0.13391007 0
1.4609963 -0.9061833 -0.049628943 0
1.1991643 -0.60817397 0.047466487 0
1.209233 -0.61963403 0.13246334 0
1.4773951 -0.89507359 -0.049721826 0
1.2038888 -0.59157085 0.047135781 0
1.2079657 -0.59609503 0.1304829 0
1.5048925 -0.89587122 -0.050404634 0
1.5165375 -0.87923998 -0.050255239 0
1.5218095 -0.85619897 -0.049792126 0
1.5378045 -0.84437317 -0.049891848 0
1.550669 -0.82938236 -0.04984149 0
1.5617115 -0.81269854 -0.04971122 0
1.5839388 -0.80653864 -0.050138086 0
1.5968899 -0.7915557 -0.0501168 0
1.6017863 -0.7694667 -0.049720939 0
1.6177237 -0.75725967 -0.049862947 0
1.6335273 -0.74480516 -0.050004426 0
1.6345339 -0.72009844 -0.049468882 0
1.654062 -0.71065515 -0.049799051 0
1.6812876 -0.7069 -0.050479554 0
1.6852573 -0.6849156 -0.050113995 0
1.6998489 -0.67108834 -0.050235499 0
1.7051998 -0.65050882 -0.049957305 0
1.7158172 -0.63385117 -0.049922384 0
1.7377386 -0.62492162 -0.050385214 0
1.7385732 -0.60161459 -0.049945746 0
1.7447053 -0.58208996 -0.049747415 0
1.7603711 -0.56870836 -0.04996286 0
1.7684124 -0.55049413 -0.049864877 0
1.7860035 -0.53801823 -0.050173536 0
1.7856779 -0.51496828 -0.049748302 0
1.805133 -0.50332183 -0.050147112 0
1.8037734 -0.48005173 -0.049703635 0
1.8210703 -0.46695784 -0.050027747 0
1.8197871 -0.44411466 -0.049611576 0
1.8395997 -0.43203667 -0.050049834 0
1.8522233 -0.41616628 -0.050206874 0
1.850489 -0.39350876 -0.049805805 0
1.8598088 -0.37611845 -0.049850754 0
1.8738017 -0.36071691 -0.050085858 0
1.8727171 -0.33881727 -0.049743656 0
1.8872403 -0.32348183 -0.050014835 0
1.9037734 -0.30872068 -0.050369114 0
1.8960773 -0.28460088 -0.049804959 0
1.9112972 -0.269169 -0.050124671 0
1.9154751 -0.24966757 -0.050033126 0
1.9235349 -0.23152198 -0.050097272 0
1.9247901 -0.21115722 -0.049914777 0
1.9287608 -0.19175152 -0.049843915 0
1.9437943 -0.17561553 -0.050193775 0
1.9421834 -0.15460081 -0.04993327 0
1.9452556 -0.13500933 -0.049856339 0
1.945576 -0.11478094 -0.04968746 0
1.9699754 -0.10038454 -0.050411958 0
1.9616542 -0.07813222 -0.049943954 0
1.9637568 -0.058411401 -0.049867742 0
1.973878 -0.040327352 -0.050092589 0
1.9813114 -0.021582585 -0.050227609 0
1.979936 -0.0012260185 -0.050051812 0
1.9755429 0.019487087 -0.049776554 0
1.9852556 0.037950192 -0.050020147 0
1.9765552 0.059038494 -0.049608555 0
1.9968913 0.076347537 -0.050251234 0
2.0022199 0.095728017 -0.050362013 0
1.9873736 0.11710108 -0.049757924 0
1.9948559 0.13621821 -0.049963936 0
1.99575 0.1559411 -0.04994262 0
2.0058346 0.17513074 -0.050258853 0
1.9886299 0.19575024 -0.04960832 0
2.0029073 0.21492244 -0.05009184 0
2.0047529 0.23467371 -0.050139952 0
1.9962634 0.25452712 -0.049827959 0
2.0021207 0.2742539 -0.050037079 0
1.9933861 0.29385573 -0.049734075 0
2.0002019 0.3137365 -0.049995206 0
2.0149775 0.3341558 -0.05054988 0
1.9981613 0.35317814 -0.049984459 0
1.9953184 0.37277311 -0.049927179 0
1.9862288 0.39181828 -0.049654908 0
2.0003467 0.41287187 -0.050223157 0
1.9911046 0.43182191 -0.049962897 0
1.9894165 0.45149818 -0.049982458 0
1.9968797 0.47240853 -0.050340552 0
1.9845148 0.49068591 -0.049993418 0
1.9898924 0.51153439 -0.05029526 0
1.9854589 0.53091812 -0.050251864 0
1.9745405 0.54907656 -0.049981792 0
1.9685097 0.56801027 -0.049897224 0
1.9685552 0.58816707 -0.050042819 0
1.9555407 0.60550702 -0.049720284 0
1.9552512 0.62563539 -0.049871702 0
1.9483974 0.64423209 -0.049791303 0
1.9495511 0.66488755 -0.050014947 0
1.9449894 0.68412369 -0.050037235 0
1.9347169 0.70171684 -0.049856246 0
1.9316896 0.72138852 -0.04995323 0
1.9229307 0.73930883 -0.049845107 0
1.9204776 0.75924927 -0.049982246 0
1.9204346 0.78013086 -0.050220523 0
1.9063513 0.79612869 -0.049936958 0
1.8975801 0.81390876 -0.049862262 0
1.8926965 0.83314997 -0.049944706 0
1.8912536 0.8538478 -0.050169371 0
1.8853052 0.87283367 -0.050230891 0
1.8709141 0.88820863 -0.049973488 0
1.856451 0.90335578 -0.04971936 0
1.8595415 0.92645293 -0.050162081 0
1.8394054 0.938766 -0.049699396 0
1.8431391 0.96253258 -0.050190825 0
1.8329992 0.97960639 -0.050141219 0
1.8166877 0.99339372 -0.049850907 0
1.8207659 1.0180209 -0.05039392 0
1.8030112 1.0308793 -0.050060321 0
1.7947527 1.0489391 -0.050122175 0
1.7801164 1.0632722 -0.049929202 0
1.775346 1.0834677 -0.050154839 0
1.7695466 1.1032093 -0.050349575 0
1.7520908 1.1155984 -0.050061189 0
1.7503109 1.1381415 -0.050448544 0
1.7298341 1.14828 -0.050043732 0
1.7152039 1.162166 -0.049895659 0
1.7108698 1.1833289 -0.050206602 0
1.6859481 1.1895717 -0.049618669 0
1.6819296 1.211138 -0.049964931 0
1.6758146 1.2313873 -0.050232016 0
1.6583569 1.2428274 -0.049995236 0
1.6459426 1.2581867 -0.04999537 0
1.6359767 1.2756075 -0.050118644 0
1.6184021 1.2865885 -0.049894921 0
1.6076928 1.3034334 -0.050002418 0
1.5866318 1.3109969 -0.049622398 0
1.5784148 1.3301449 -0.049868755 0
1.562425 1.3421232 -0.049746417 0
1.5484272 1.3559338 -0.049729537 0
1.5430213 1.3783506 -0.050155658 0
1.523876 1.3870691 -0.049897972 0
1.5130354 1.4042895 -0.050073493 0
1.4944949 1.4133656 -0.049857736 0
1.0419233 0.92369974 0.30469528 0
1.4850247 1.4322844 -0.050128717 0
1.4444844 1.3872976 0.059966702 0
1.4417105 1.3842196 0.16800719 0
1.4370584 1.3790574 0.27661777 0
1.054498 0.95453995 0.31509429 0
1.4709992 1.4463125 -0.050170008 0
1.4118735 1.3790174 0.0589719 0
1.4164891 1.3842708 0.16620944 0
1.4149697 1.3825414 0.27443898 0
1.0525353 0.97002941 0.31851009 0
1.4507121 1.4530799 -0.049877886 0
1.3913195 1.3837395 0.058618382 0
1.3978978 1.3914196 0.16548051 0
1.3890004 1.3810319 0.27116418 0
1.0575968 0.99411988 0.32566786 0
1.4293621 1.4582578 -0.049526837 0
1.3592343 1.3742661 0.057620447 0
1.3698133 1.3869367 0.16316362 0
1.365732 1.3820484 0.26859432 0
1.054196 1.0089234 0.32869789 0
1.4227417 1.4811484 -0.050007105 0
1.3378936 1.3768854 0.057207979 0
1.3440326 1.3844292 0.16119336 0
1.3417931 1.3816773 0.26579651 0
1.0549312 1.0291756 0.33405271 0
1.408203 1.4946047 -0.050056547 0
1.3209107 1.384536 0.057041179 0
1.323392 1.3876648 0.16007513 0
1.319653 1.3829502 0.26347467 0
1.0531397 1.0468973 0.33827582 0
1.3867424 1.4991658 -0.049712464 0
1.2962954 1.3821219 0.05643158 0
1.2874143 1.3706292 0.15625003 0
1.2959286 1.3816473 0.2606521 0
1.0547394 1.0695333 0.34453389 0
1.3821738 1.5257664 -0.050368655 0
1.2685825 1.3748832 0.05562605 0
1.2780808 1.3874998 0.1570833 0
1.2716217 1.3789202 0.25760236 0
1.0403764 1.0717573 0.34222415 0
1.3598285 1.5289127 -0.049983017 0
1.2535238 1.3839449 0.055565089 0
1.2504975 1.3798178 0.1546526 0
1.2458737 1.3735125 0.25404996 0
1.0284448 1.0770044 0.34125784 0
1.3482051 1.5466107 -0.050251614 0
1.2497364 1.4087211 0.056202419 0
1.2473056 1.4053172 0.1566716 0
1.2460593 1.4035718 0.25846151 0
1.0238543 1.0924093 0.34451455 0
1.3326656 1.5590136 -0.050294019 0
1.2437998 1.4311984 0.05673632 0
1.2406876 1.4267222 0.15814237 0
1.2446864 1.4324737 0.2625798 0
1.0150871 1.1022425 0.34550869 0
1.3131917 1.5656615 -0.050096456 0
1.2426541 1.4614321 0.057603292 0
1.2423999 1.4610565 0.16128933 0
1.2450264 1.4649373 0.26744258 0
0.99849701 1.1006536 0.34195054 0
1.292757 1.5706034 -0.049838111 0
1.2435579 1.4958948 0.058644507 0
1.2414951 1.4927624 0.16406929 0
1.2408837 1.491834 0.2710622 0
1.1693937 1.3832768 0.34781003 0
0.99533069 1.118963 0.34643185 0
1.283227 1.5922343 -0.050300404 0
1.2407727 1.525966 0.059490677 0
1.2431386 1.5296589 0.16749087 0
1.2202424 1.4939195 0.26934975 0
1.150643 1.3852795 0.34563255 0
0.97975212 1.11853 0.34348774 0
1.265236 1.6009074 -0.050219104 0
1.2452916 1.5688952 0.06087257 0
1.2476505 1.5726813 0.17165877 0
1.2084932 1.5098311 0.27064401 0
1.1253835 1.3764337 0.34028235 0
0.97879076 1.1411414 0.34967676 0
1.2441185 1.604314 -0.049928091 0
1.1901699 1.5152428 0.26974583 0
1.1112334 1.3849157 0.34023651 0
0.96946889 1.1508573 0.35080764 0
0.83898944 0.93543088 0.47127593 0
1.2274003 1.6147962 -0.04994341 0
1.1796682 1.5337017 0.27163315 0
1.0940521 1.3882442 0.33871832 0
0.9558599 1.1534624 0.34923059 0
0.84182894 0.95972949 0.48451194 0
1.2085418 1.6215631 -0.049814515 0
1.1586215 1.5342548 0.26981464 0
1.0743511 1.3868692 0.33589253 0
0.94907373 1.1677642 0.35221332 0
0.84765196 0.9903816 0.35226029 0
0.83782852 0.9732008 0.41453478 0
0.83764923 0.97288722 0.49001768 0
1.200987 1.6485097 -0.050520271 0
1.1410518 1.5405533 0.26924881 0
1.0481359 1.3731914 0.32956892 0
0.93707764 1.1731509 0.35181552 0
0.84886283 1.0142567 0.36111873 0
0.83933389 0.9970929 0.42531946 0
0.83814788 0.99495667 0.50156581 0
1.1767098 1.6454773 -0.050009359 0
1.126394 1.5520959 0.26980659 0
1.0372461 1.3866457 0.33124727 0
0.9224999 1.1736873 0.34964469 0
0.85233259 1.0434635 0.37241766 0
0.8430388 1.026215 0.43899289 0
0.84099531 1.0224226 0.51666701 0
1.1571949 1.6507847 -0.049850114 0
1.1092305 1.559019 0.26945835 0
1.0150536 1.3788385 0.32683343 0
0.91205066 1.1817722 0.35039091 0
0.85085464 1.0646914 0.37989444 0
0.83869523 1.0414279 0.44469756 0
0.83626562 1.0367795 0.52287298 0
1.1406734 1.6617579 -0.049928512 0
1.0996239 1.5807532 0.27215075 0
1.0030701 1.3902191 0.32801598 0
0.89790571 1.1826937 0.34850985 0
0.84853762 1.0852735 0.38703257 0
0.83503765 1.0586334 0.45151457 0
0.83889574 1.0662467 0.53912538 0
1.1206126 1.6656555 -0.049733311 0
1.0794806 1.5818884 0.27071223 0
0.97855115 1.3763413 0.32205504 0
0.8891353 1.1942424 0.35064545 0
0.84377801 1.1018703 0.39230198 0
0.84213293 1.09852 0.47095776 0
0.83995211 1.0940788 0.55417514 0
1.103786 1.6760415 -0.049805786 0
0.9638077 1.3816578 0.32163969 0
0.87880355 1.2028885 0.35173988 0
0.83812267 1.117334 0.397048 0
0.83839232 1.117901 0.47887465 0
0.84007049 1.1214304 0.56881088 0
1.0913426 1.6960827 -0.050265651 0
0.95062321 1.3902701 0.32220462 0
0.86585832 1.2060581 0.3508701 0
0.83701539 1.1433765 0.40662062 0
0.83844811 1.14649 0.49184334 0
0.84025455 1.1504159 0.58442777 0
1.0693184 1.6953989 -0.049919222 0
0.93258041 1.3881075 0.31980401 0
0.85554874 1.2149942 0.35216454 0
0.84381199 1.1886182 0.42484677 0
0.84223169 1.1850667 0.51020885 0
0.83865935 1.1770386 0.59842223 0
1.0499127 1.7001941 -0.049798395 0
0.90847576 1.3712531 0.31339949 0
0.85060203 1.236656 0.35810766 0
0.84208804 1.2168549 0.43527186 0
0.84146082 1.215396 0.52395743 0
0.84349591 1.2201291 0.62298489 0
1.0317489 1.7077665 -0.049795024 0
0.89422798 1.3765001 0.31321776 0
0.84563464 1.2594465 0.36444896 0
0.83834481 1.2418864 0.44421551 0
0.83974797 1.2452663 0.53739089 0
0.84136105 1.2491519 0.63834709 0
1.0114299 1.7099594 -0.049593605 0
0.8778162 1.3763015 0.31158978 0
0.85264236 1.3134379 0.38196254 0
0.84155113 1.2857411 0.46153039 0
0.83938718 1.2803373 0.55357152 0
0.8385092 1.2781448 0.65363008 0
0.99944717 1.7333673 -0.050214827 0
0.86224335 1.3778371 0.31050059 0
0.8496505 1.3452058 0.39143461 0
0.83783847 1.3145978 0.47208732 0
0.84261453 1.3269738 0.5758788 0
0.83616143 1.3102523 0.67084181 0
0.9775008 1.7312238 -0.049865771 0
0.84780627 1.3821281 0.31021994 0
0.84526479 1.3752872 0.40027729 0
0.84149683 1.365145 0.49219611 0
0.83944041 1.3596098 0.59058744 0
0.84069639 1.3629905 0.70104408 0
0.9617126 1.7455952 -0.050154883 0
0.83397847 1.3880492 0.31043154 0
0.84312207 1.4136435 0.41202328 0
0.83865207 1.4011313 0.50579238 0
0.84279615 1.4127311 0.61613536 0
0.94471389 1.7570767 -0.050341189 0
0.81601727 1.3819953 0.30745926 0
0.84173363 1.4569446 0.42546743 0
0.83858681 1.4477733 0.52401018 0
0.84208572 1.4579709 0.63738167 0
0.9233135 1.7556139 -0.050048273 0
0.83980381 1.501864 0.4394289 0
0.8410728 1.5057199 0.5470804 0
0.84203857 1.5086544 0.6614123 0
0.90488076 1.7628893 -0.050093725 0
0.84111828 1.5605994 0.45816305 0
0.8370195 1.5475959 0.56306916 0
0.83815819 1.5512085 0.68108332 0
0.88638836 1.7700887 -0.050144844 0
0.83915764 1.6133921 0.47475547 0
0.84063864 1.6183056 0.59148812 0
0.86652339 1.7726592 -0.050032482 0
0.83963627 1.6792139 0.49580702 0
0.83922601 1.677788 0.61494762 0
0.84688401 1.7757651 -0.049949598 0
0.83630866 1.7371894 0.51407725 0
0.83796585 1.7432344 0.64089435 0
0.82919019 1.7861156 -0.050143417 0
0.72505736 1.386609 0.30188501 0
0.83075428 1.7921163 0.53125393 0
0.83223265 1.7977881 0.66210222 0
0.80917227 1.7876489 -0.050020572 0
0.70955503 1.3847476 0.30045125 0
0.82422411 1.8485261 0.54890943 0
0.82428783 1.8487839 0.68175751 0
0.78919834 1.7890038 -0.0499008 0
0.69459057 1.3845748 0.29951531 0
0.81796736 1.9119854 0.56894976 0
0.76829565 1.7857726 -0.049622905 0
0.68067968 1.3887578 0.29976934 0
0.80590194 1.9561781 0.58239728 0
0.75129169 1.8003794 -0.050005745 0
0.79233479 1.9981602 0.59511036 0
0.73033351 1.7960789 -0.0497078 0
0.77866262 2.0446625 0.60938221 0
0.71262974 1.8085606 -0.050029039 0
0.76196808 2.0805745 0.62009907 0
0.69489676 1.8222522 -0.050401483 0
0.74584311 2.1247754 0.63366067 0
0.67469203 1.8217765 -0.05026941 0
0.72632688 2.1538701 0.64217812 0
0.65401894 1.8173794 -0.050005339 0
0.70836461 2.1984546 0.65596837 0
0.63209534 1.8019245 -0.049352989 0
0.57742882 1.3807198 0.046189319 0
0.68767279 2.2301481 0.66548735 0
0.6158163 1.8307797 -0.050304249 0
0.56399763 1.387895 0.046384837 0
0.56329393 1.3818808 0.29305714 0
0.66725701 2.2704339 0.67795783 0
0.59497583 1.8223838 -0.049924504 0
0.55264515 1.4163611 0.13047448 0
0.55160546 1.4063884 0.21307747 0
0.55187428 1.4089669 0.29960555 0
0.64479113 2.3001969 0.68697804 0
0.57568383 1.8279995 -0.050056934 0
0.55246663 1.5743828 0.14737462 0
0.55343711 1.5849837 0.24516647 0
0.55292702 1.5794114 0.34291157 0
0.62212193 2.3352726 0.69785744 0
0.55632395 1.8339813 -0.050211053 0
0.60215694 2.4151664 0.23786199 0
0.59893757 2.3743429 0.38771194 0
0.59755939 2.3568668 0.54151988 0
0.53565258 1.8218473 -0.049725592 0
0.57409 2.4024432 0.39244241 0
0.57382756 2.3984795 0.55167103 0
0.51627469 1.8275174 -0.049886309 0
0.54870653 2.4329669 0.39766395 0
0.54829407 2.4252672 0.55810392 0
0.49699315 1.8383869 -0.050241444 0
0.52203453 2.4499476 0.40049601 0
0.52192461 2.4472635 0.56339216 0
0.47712284 1.8374348 -0.050182912 0
0.45639595 1.1060665 0.35463163 0
0.45660955 1.1136036 0.43107525 0
0.4572252 1.8323238 -0.049984831 0
0.44592994 1.1148013 0.35815191 0
0.44567513 1.0986152 0.42345712 0
0.43746614 1.8278432 -0.04981821 0
0.43514079 1.0894516 0.4188225 0
0.43514583 1.0910527 0.49626362 0
0.41758487 1.8484211 -0.050555114 0
0.42478141 1.0862874 0.41725561 0
0.42476082 1.0884688 0.49475068 0
0.39812702 1.8260512 -0.049767494 0
0.41409746 1.1013559 0.35262555 0
0.41396192 1.1075058 0.42795613 0
0.41463023 1.0771796 0.48815081 0
0.37803197 1.8380333 -0.050215431 0
0.35208541 2.5870836 0.42514923 0
0.3525939 2.5724041 0.59520602 0
0.4048689 1.0632784 0.48007396 0
0.35883522 1.8242447 -0.049751598 0
0.32247627 2.5937119 0.42656213 0
0.32254952 2.5921621 0.60055637 0
0.39569816 1.0441107 0.46893832 0
0.33915833 1.823895 -0.049776707 0
0.29190183 2.6130826 0.43034562 0
0.29206434 2.6103692 0.60561103 0
0.3191447 1.8279005 -0.0499666 0
0.26075086 2.6330349 0.43430734 0
0.26150966 2.6225729 0.60923278 0
0.29941544 1.8269539 -0.049988277 0
0.2296114 2.6462803 0.43713027 0
0.22983256 2.6436844 0.61523783 0
0.28126651 1.8096745 -0.049433008 0
0.19835329 2.6566432 0.43950537 0
0.19829109 2.6572788 0.61942542 0
0.25891885 1.8338845 -0.050375424 0
0.1673813 2.66136 0.44093066 0
0.1658241 2.6754367 0.62489218 0
0.24015988 1.8235557 -0.050086994 0
0.13440596 2.6806488 0.445077 0
0.13445203 2.6802757 0.62704849 0
0.22172742 1.8123139 -0.049773674 0
0.10163911 2.6940808 0.44823995 0
0.10203104 2.6912031 0.63087791 0
0.20138521 1.8153638 -0.049984004 0
0.070078239 2.6963921 0.44945619 0
0.069193617 2.7023275 0.63487059 0
0.18121965 1.8163753 -0.050130293 0
0.03600283 2.7131383 0.45338476 0
0.036211446 2.7118502 0.63856411 0
0.159714 1.8244325 -0.050541461 0
0.0045148297 2.7118769 0.45410344 0
0.0031139122 2.7198875 0.64198858 0
0.14309634 1.8048866 -0.049960721 0
-0.029770417 2.7249329 0.45752385 0
-0.030196471 2.7272005 0.64534122 0
0.12264036 1.8065041 -0.050156783 0
-0.090801373 2.8686314 0.10083417 0
-0.089194015 2.8606327 0.29059646 0
-0.061441019 2.7225285 0.45818827 0
-0.062024608 2.7254324 0.64644814 0
0.10607035 1.7892951 -0.049675405 0
-0.11227597 2.8091722 0.09891142 0
-0.11272515 2.8112702 0.28591591 0
-0.093778268 2.7227709 0.45941606 0
-0.093122974 2.7197099 0.64663076 0
0.086359426 1.7874225 -0.049761768 0
-0.14236374 2.7937021 0.098603584 0
-0.14455165 2.803328 0.2858195 0
-0.12856884 2.733011 0.46257165 0
-0.12849374 2.7326803 0.65180695 0
0.069128916 1.7749659 -0.049468853 0
-0.17164005 2.7757654 0.098218113 0
-0.17595525 2.7937024 0.28558096 0
-0.16209133 2.7360744 0.46448675 0
-0.16257335 2.7380781 0.65512848 0
0.044926777 1.7907901 -0.050224688 0
-0.20936556 2.7921851 0.099110469 0
-0.20901997 2.7908242 0.28613359 0
-0.19760652 2.7458782 0.4677406 0
-0.195691 2.7383351 0.65722018 0
0.028088318 1.7769986 -0.049899854 0
-0.25144356 2.8224261 0.10053413 0
-0.25215518 2.8250875 0.29086611 0
-0.2287593 2.7375886 0.46771097 0
-0.2283019 2.735878 0.65871209 0
0.013166295 1.757221 -0.049359731 0
-0.26323277 2.7411158 0.46996829 0
-0.26116103 2.733741 0.66040277 0
-0.011478228 1.7717878 -0.050102804 0
-0.2959941 2.7376971 0.47100949 0
-0.29201162 2.7241769 0.66023421 0
-0.032962635 1.7743145 -0.050410531 0
-0.32784224 2.7308052 0.47147703 0
-0.32473665 2.7207317 0.66180211 0
-0.048390701 1.7573225 -0.049997535 0
-0.35878736 2.7208803 0.47144765 0
-0.3580597 2.7186215 0.66384453 0
-0.067470267 1.7520996 -0.05003335 0
-0.39379531 2.7230406 0.47379148 0
-0.39301181 2.7207093 0.66713822 0
-0.0876614 1.7499654 -0.050195228 0
-0.42517567 2.7138355 0.47405791 0
-0.42644376 2.7174568 0.6691215 0
-0.10300578 1.7341864 -0.049849026 0
-0.46242261 2.7206075 0.47746801 0
-0.45408148 2.697715 0.66675055 0
-0.12071361 1.7253292 -0.049772769 0
-0.48912126 2.6981657 0.47535086 0
-0.48795968 2.6950984 0.66913491 0
-0.14242055 1.7267821 -0.050100181 0
-0.52001941 2.6871994 0.47551197 0
-0.51828486 2.6827874 0.66899014 0
-0.16168024 1.7216134 -0.050184496 0
-0.54869378 2.6707058 0.474673 0
-0.54961228 2.6729584 0.66963339 0
-0.17561395 1.7036793 -0.049783874 0
-0.57956135 2.6596906 0.4749727 0
-0.58031976 2.6614857 0.66993386 0
-0.19532849 1.699657 -0.049929969 0
-0.61237037 2.6529963 0.47620085 0
-0.61192429 2.6519766 0.67089015 0
-0.21471293 1.6946478 -0.05004793 0
-0.64316165 2.6414146 0.4765501 0
-0.64689708 2.6496689 0.67397976 0
-0.23160107 1.6840985 -0.049957823 0
-0.67086685 2.6231084 0.47563955 0
-0.6737988 2.6293759 0.67214543 0
-0.25101298 1.6789109 -0.050088167 0
-0.69897425 2.6059148 0.47501591 0
-0.70229614 2.6127892 0.67144573 0
-0.2703737 1.6734076 -0.050216462 0
-0.72880316 2.5923555 0.47519195 0
-0.72516346 2.5850594 0.66766667 0
-0.28345144 1.6554923 -0.049856979 0
-0.75329459 2.5683608 0.47332844 0
-0.75725055 2.5760469 0.66931611 0
-0.30157584 1.6476203 -0.049907643 0
-0.78051937 2.5500603 0.4726778 0
-0.78592551 2.5602467 0.66913241 0
-0.31720257 1.635101 -0.049778797 0
-0.80789101 2.532207 0.47218484 0
-0.80909669 2.5344114 0.66613382 0
-0.33250642 1.6221873 -0.049640913 0
-0.6182704 2.1293635 0.082424119 0
-0.83333158 2.5110559 0.47107679 0
-0.83116019 2.5072021 0.6627968 0
-0.35085684 1.6147126 -0.049734432 0
-0.62237668 2.0827296 0.081051536 0
-0.85730517 2.4876745 0.46956211 0
-0.85986114 2.4920802 0.66308212 0
-0.36493129 1.5999421 -0.049534861 0
-0.62020278 2.0274582 0.079311579 0
-0.88233161 2.4664588 0.46855414 0
-0.8922056 2.482995 0.66527045 0
-0.3854903 1.5959902 -0.049794439 0
-0.620139 1.9779583 0.077798799 0
-0.91336846 2.455286 0.46973047 0
-0.91257596 2.4539959 0.66163445 0
-0.40444326 1.5891477 -0.049944904 0
-0.62008178 1.9304589 0.076358378 0
-0.93652344 2.4313207 0.46827024 0
-0.93277752 2.4253917 0.65816575 0
-0.41432655 1.5681417 -0.049503762 0
-0.62207246 1.8879702 0.075119421 0
-0.96417332 2.4146402 0.46842715 0
-0.96067476 2.4092543 0.6585384 0
-0.4399364 1.5712471 -0.050099228 0
-0.61824203 1.8383288 0.073564045 0
-0.98085308 2.3814793 0.46508679 0
-0.98275089 2.3843219 0.65632355 0
-0.45208669 1.5539831 -0.049831897 0
-0.61778462 1.7955374 0.072289653 0
-1.00506 2.3601067 0.46434137 0
-1.0016809 2.3551807 0.65287298 0
-0.46460372 1.5375617 -0.049605634 0
-0.62563097 1.7660842 0.071586192 0
-1.022387 2.3291426 0.46154013 0
-1.0238284 2.3311882 0.65107262 0
-0.4889555 1.537761 -0.050116677 0
-0.61968744 1.7184153 0.070077889 0
-0.61881363 1.7172079 0.19872938 0
-1.0434662 2.3040218 0.46006244 0
-1.0466362 2.3084023 0.64972335 0
-0.078536645 0.9706161 0.44218147 0
-0.49944538 1.5186946 -0.049789205 0
-0.61913443 1.6797791 0.068953849 0
-0.62329316 1.6853762 0.19625531 0
-1.0624353 2.2763987 0.45806798 0
-1.0619369 2.2757277 0.64530909 0
-0.09051235 0.96832907 0.44480202 0
-0.52138102 1.5150099 -0.050155129 0
-0.61657178 1.6398094 0.067758776 0
-0.62567914 1.6517496 0.19352235 0
-1.0814021 2.2492232 0.45620984 0
-1.0808641 2.248518 0.64266729 0
-0.095081344 0.95611125 0.44129309 0
-0.53014433 1.4940755 -0.049755041 0
-0.61860442 1.6070715 0.066878304 0
-0.62193942 1.6113316 0.18983948 0
-1.0943342 2.2147527 0.45271671 0
-1.0995399 2.2214019 0.64010662 0
-0.10736163 0.95402718 0.4442251 0
-0.54461896 1.480696 -0.049701884 0
-0.61508524 1.568409 0.065718725 0
-0.62217426 1.5772331 0.1869839 0
-1.1119556 2.1868894 0.45075423 0
-1.11892 2.1955583 0.63801277 0
-0.13043489 0.96513927 0.45575497 0
-0.56963849 1.4801629 -0.050250933 0
-0.61887467 1.5398934 0.065014489 0
-0.6168375 1.5374221 0.18330333 0
-1.1275126 2.156945 0.44833633 0
-1.1293699 2.159198 0.63250029 0
-0.13460632 0.95240563 0.45213065 0
-0.58092296 1.4627836 -0.050032854 0
-0.61191154 1.4994272 0.063746162 0
-0.61902595 1.5078399 0.18101363 0
-1.146693 2.1318004 0.44707233 0
-1.1380984 2.1216371 0.62657136 0
-0.15024681 0.9535138 0.45757183 0
-0.59511614 1.4489874 -0.049988404 0
-0.61567152 1.4726821 0.063108288 0
-0.61937976 1.4769567 0.17851758 0
-1.157854 2.0976734 0.44370723 0
-1.1548121 2.0941668 0.62402236 0
-0.60977018 1.4357513 -0.049978722 0
-0.63658297 1.4658844 0.063418739 0
-0.63543403 1.4645932 0.17865819 0
-1.1678619 2.0629501 0.44019401 0
-1.1665369 2.061461 0.61972815 0
-0.62005126 1.4177294 -0.049746469 0
-0.6626811 1.4644402 0.06400419 0
-0.6630801 1.4648774 0.1806699 0
-1.1796029 2.0308461 0.43731034 0
-1.184778 2.0365167 0.61811596 0
-0.64157093 1.4119498 -0.050116409 0
-0.50352681 1.2644641 0.054904379 0
-0.68567061 1.4590657 0.18185909 0
-1.1888388 1.9966482 0.43391153 0
-1.1932904 2.001404 0.61301112 0
-0.65979791 1.4023587 -0.050315551 0
-0.51019961 1.246509 0.054603022 0
-0.7170639 1.4620175 0.18441033 0
-1.1965647 1.9615555 0.43027663 0
-1.1977024 1.9627407 0.60662615 0
-0.67152405 1.3859586 -0.050187513 0
-0.51356143 1.2254894 0.054148573 0
-0.74448383 1.4600762 0.18631475 0
-1.2050668 1.927968 0.42700183 0
-1.2157537 1.9388244 0.60546088 0
-0.6758033 1.3623044 -0.04969728 0
-0.52042836 1.2083893 0.053889282 0
-0.78411531 1.4695989 0.19004655 0
-1.2272325 1.9085526 0.4273442 0
-1.2157623 1.8971903 0.59793943 0
-0.69259858 1.3512168 -0.049849112 0
-0.53813493 1.2020105 0.054181937 0
-0.80391359 1.458743 0.19075173 0
-1.2267929 1.8672287 0.42207596 0
-1.2181878 1.8589165 0.59155339 0
-0.7048744 1.3357207 -0.049784392 0
-0.56859386 1.2073562 0.055100542 0
-0.83699691 1.4601688 0.19343027 0
-1.231427 1.8316878 0.41825646 0
-1.2304335 1.830752 0.58885437 0
-0.72555757 1.328004 -0.050137464 0
-0.87156951 1.4621055 0.069215208 0
-0.86881781 1.4595782 0.19589116 0
-1.23757 1.7982507 0.41496068 0
-1.2321489 1.7932718 0.58266222 0
-0.23680325 0.87911808 0.38228017 0
-0.73835933 1.312891 -0.050113555 0
-0.90053546 1.4581165 0.069885582 0
-0.90491593 1.4620391 0.19894259 0
-1.2373589 1.7597351 0.41026604 0
-1.2385526 1.7608039 0.57830757 0
-0.23779328 0.86464417 0.37855795 0
-0.75123167 1.297858 -0.050102327 0
-0.93140674 1.4551586 0.070641316 0
-1.238079 1.7228966 0.40596241 0
-1.243497 1.7276268 0.57364565 0
-0.24353512 0.85461688 0.37758887 0
-0.76772547 1.2859133 -0.050269917 0
-0.96871805 1.456977 0.071692675 0
-1.2402899 1.6881104 0.40216818 0
-1.2332152 1.6820891 0.56407291 0
-0.23729356 0.83446568 0.37018389 0
-0.25178027 0.84679526 0.45561475 0
-0.76802206 1.2603737 -0.049691427 0
-1.0057877 1.4576268 0.072720833 0
-1.2499633 1.6601975 0.40026528 0
-1.2345351 1.6473981 0.55863667 0
-0.25463837 0.83446491 0.37568179 0
-0.79052317 1.2533088 -0.050153092 0
-1.0446155 1.4587607 0.073818915 0
-1.2626072 1.6350226 0.39915252 0
-1.2451922 1.6209414 0.55646312 0
-0.25194049 0.81782579 0.37045231 0
-0.78229773 1.221614 -0.04921766 0
-1.0959787 1.4687812 0.075475283 0
-1.2466631 1.587514 0.39155987 0
-1.2374989 1.5802931 0.54845923 0
-0.26968271 0.81769532 0.37615991 0
-0.80809903 1.2168711 -0.049840808 0
-1.1263009 1.4611697 0.076162957 0
-1.2506071 1.5566055 0.38869891 0
-1.2404441 1.5488029 0.54411972 0
-0.26656854 0.80111253 0.37092674 0
-0.24449398 0.78416485 0.43306988 0
-0.83102143 1.2094222 -0.050332442 0
-1.1681861 1.4615959 0.077363983 0
-1.2493794 1.5223223 0.38478807 0
-1.2427045 1.5173301 0.5397296 0
-0.26635665 0.78709567 0.36735162 0
-0.28469288 0.8008098 0.45413056 0
-0.84180236 1.1926957 -0.050287466 0
-1.2124046 1.4626689 0.078656867 0
-1.2464125 1.4874427 0.38062167 0
-1.2370622 1.4806312 0.53301072 0
-1.2386185 1.481765 0.69386673 0
-0.26005578 0.76891005 0.36078095 0
-0.2726025 0.77804995 0.44250044 0
-0.84398401 1.1699042 -0.049875747 0
-1.256543 1.4625621 0.079934157 0
-1.244725 1.4541787 0.37687278 0
-1.2481436 1.4566038 0.53172809 0
-1.2426068 1.4526761 0.68929511 0
-0.28470045 0.77316409 0.37009436 0
-0.27964163 0.76957548 0.44288516 0
-0.86221123 1.1585431 -0.050176281 0
-1.2986889 1.4599793 0.081114009 0
-1.2546107 1.4295385 0.37578514 0
-1.2370027 1.4173782 0.52366048 0
-1.2342563 1.4154814 0.679923 0
-0.28044432 0.75676852 0.43953964 0
-0.87320638 1.1420615 -0.05016936 0
-1.2636284 1.4044927 0.078964129 0
-1.2807873 1.4160266 0.22786118 0
-1.2500994 1.395399 0.37164581 0
-1.2314615 1.382871 0.51753485 0
-1.2431256 1.3907113 0.6777212 0
-0.28900832 0.74937922 0.44099897 0
-0.88512254 1.1261845 -0.050210677 0
-1.2781432 1.3832377 0.078976661 0
-1.2757642 1.3816818 0.22537147 0
-1.2410423 1.3589721 0.36665389 0
-1.2411454 1.3590394 0.51623386 0
-1.2463583 1.3624489 0.67342132 0
-0.2972337 0.7416786 0.44229975 0
-0.89047301 1.106092 -0.049982335 0
-1.2793568 1.3535049 0.078437634 0
-1.2835735 1.3561877 0.22459148 0
-1.2457435 1.3321197 0.36474112 0
-1.2398198 1.3283509 0.51170522 0
-1.2497859 1.3346915 0.66937351 0
-0.29954445 0.73013538 0.4401404 0
-0.89297366 1.084422 -0.049646787 0
-1.2857317 1.3274075 0.078135245 0
-1.2938333 1.3324196 0.22416794 0
-1.2440042 1.3015922 0.36154932 0
-1.2391813 1.2986084 0.50753427 0
-1.2230977 1.288658 0.65371257 0
-0.90898561 1.0711502 -0.049888067 0
-1.3056602 1.3097053 0.078413531 0
-1.3112733 1.3130809 0.22468573 0
-1.249567 1.2759715 0.35999954 0
-1.2412344 1.2709605 0.5043081 0
-1.2365148 1.2681221 0.65396541 0
-0.91439736 1.051483 -0.049696192 0
-1.3315989 1.2952831 0.078947544 0
-1.3379275 1.2989814 0.22637707 0
-1.2499144 1.2475492 0.35743931 0
-1.240328 1.2419471 0.5003342 0
-1.2304312 1.2361637 0.64680219 0
-0.92885995 1.0371053 -0.049887437 0
-1.3910458 1.2994425 0.080860801 0
-1.3890858 1.2983299 0.23110645 0
-1.2569222 1.2233138 0.35635304 0
-1.2468121 1.2175753 0.49866438 0
-1.2362632 1.2115878 0.64440274 0
-0.93689322 1.0190271 -0.049822688 0
-1.2524381 1.1929144 0.35297093 0
-1.2392696 1.1856576 0.49300972 0
-1.2449418 1.1887834 0.64321917 0
-0.94708705 1.0021524 -0.049855091 0
-1.2513704 1.1648731 0.3503888 0
-1.232842 1.1549647 0.48783225 0
-1.237816 1.1576246 0.63618964 0
-0.96685469 0.99021417 -0.050280895 0
-1.2602189 1.1423769 0.34991002 0
-1.2443547 1.1341485 0.48795617 0
-1.2420027 1.1329286 0.63359308 0
-0.95713198 0.96310848 -0.049531605 0
-1.268253 1.1195419 0.3493273 0
-1.2340661 1.1023526 0.48192865 0
-1.2305551 1.1005871 0.6253072 0
-0.98293889 0.95389456 -0.050211433 0
-1.2863916 1.1017153 0.35083303 0
-1.2441183 1.0811229 0.48182452 0
-1.247771 1.0829021 0.62783062 0
-0.982512 0.93177414 -0.049856316 0
-1.2961113 1.0796814 0.350696 0
-1.2485533 1.057251 0.48021209 0
-1.2340888 1.0504289 0.61905569 0
-0.99370575 0.91522849 -0.049970217 0
-1.3004242 1.055197 0.34954309 0
-1.2462063 1.030455 0.47679153 0
-1.2344348 1.0250832 0.61561108 0
-1.004442 0.89838976 -0.050073788 0
-1.3240728 1.0394155 0.35226899 0
-1.2428765 1.0035905 0.47321025 0
-1.2447381 1.0044118 0.61592275 0
-1.0093256 0.8789736 -0.049957927 0
-1.3235286 1.0129038 0.35027644 0
-1.2456748 0.97971833 0.47144175 0
-1.2541422 0.98332757 0.61600202 0
-1.0218712 0.86279488 -0.050147913 0
-1.3334875 0.99101037 0.35040769 0
-1.2408289 0.95288569 0.46765661 0
-1.2455425 0.9548251 0.60969961 0
-1.0204053 0.84090883 -0.049806632 0
-1.3435923 0.96915102 0.35062027 0
-1.247131 0.93087471 0.46704331 0
-1.2437503 0.92953324 0.60599405 0
-1.0383816 0.82670993 -0.050220646 0
-1.3502895 0.94595307 0.35022715 0
-1.2394737 0.90358794 0.46269593 0
-1.2424686 0.90473288 0.60260183 0
-1.0469062 0.80871892 -0.050280023 0
-1.3477194 0.9193998 0.34811124 0
-1.2423866 0.88064373 0.46133584 0
-1.2355431 0.87812573 0.59733552 0
-1.0383936 0.78465384 -0.049702544 0
-1.3658854 0.90049034 0.35003561 0
-1.2428652 0.85697711 0.45940137 0
-1.2316869 0.85302329 0.59329426 0
-1.0595402 0.77108806 -0.050257251 0
-1.3748094 0.87815452 0.35023695 0
-1.2385917 0.83189452 0.45627519 0
-1.2423859 0.83318305 0.59449553 0
-1.0562195 0.7491405 -0.049897462 0
-1.3799329 0.85454762 0.34977007 0
-1.2480311 0.81159794 0.4569262 0
-1.2345841 0.80721933 0.58930635 0
-1.0616766 0.73019195 -0.049877692 0
-1.3871672 0.83166301 0.34976006 0
-1.235821 0.78448111 0.45185736 0
-1.236062 0.78455627 0.58748549 0
-1.0613092 0.70951909 -0.049649924 0
-1.396883 0.80951536 0.35027137 0
-1.240455 0.76290202 0.45138282 0
-1.2439799 0.76395237 0.58800638 0
-1.0723115 0.69224268 -0.049854647 0
-1.405471 0.78696889 0.35062179 0
-1.2360593 0.73880059 0.44858709 0
-1.2485795 0.74236041 0.58746755 0
-1.0726944 0.67193806 -0.04967396 0
-1.3994423 0.76041007 0.34829319 0
-1.2318857 0.71504158 0.44593996 0
-1.2418876 0.71774971 0.58313251 0
-1.0860249 0.65509319 -0.049980596 0
-1.4119885 0.73896229 0.3494935 0
-1.2469113 0.69648862 0.44843817 0
-1.2333716 0.69300491 0.57829154 0
-1.0976849 0.63761503 -0.050232712 0
-1.4245105 0.71733218 0.35073587 0
-1.2313049 0.67020679 0.44294587 0
