# .PCD v0.7 - Point Cloud Data file format
VERSION 0.7
FIELDS x y z intensity
SIZE 4 4 4 4
TYPE F F F F
COUNT 1 1 1 1
WIDTH 1355
HEIGHT 1
VIEWPOINT 0 0 0 1 0 0 0
POINTS 1355
DATA ascii
-0.50742102 0.035102356 0.18049106 0
-1.2419792 -0.14406626 0.4457491 0
-1.2438461 -0.14452161 0.58007556 0
-1.0802341 -0.1248591 -0.049767122 0
-0.55853784 0.009371181 0.042535271 0
-0.55926889 0.0091830688 0.11606091 0
-0.55411881 0.010508169 0.18973871 0
-1.2478352 -0.16798221 0.44868156 0
-1.2325032 -0.16403733 0.57799321 0
-1.0876654 -0.1472476 -0.050227694 0
-0.61907923 -0.020370644 0.044896167 0
-0.62040019 -0.020728331 0.12323372 0
-1.2495627 -0.19108377 0.32028925 0
-1.2407259 -0.18869106 0.44827658 0
-1.2378961 -0.18792482 0.58175677 0
-1.0799068 -0.1656581 -0.050136559 0
-0.69813621 -0.05711038 0.047966637 0
-0.6928072 -0.055595201 0.13173406 0
-1.2283257 -0.20785756 0.31740761 0
-1.2283583 -0.20786683 0.44654444 0
-1.2454827 -0.21273579 0.5863964 0
-1.071697 -0.18387036 -0.050036896 0
-0.77802765 -0.096360989 0.051096939 0
-0.7842226 -0.098206975 0.14244711 0
-1.2444533 -0.23534934 0.32158634 0
-1.2414801 -0.23446338 0.45165572 0
-1.2344738 -0.23237558 0.58470631 0
-1.0595812 -0.20079459 -0.049799331 0
-0.8769263 -0.14385231 0.054968789 0
-0.86988807 -0.14165811 0.15261529 0
-1.2436005 -0.25816223 0.32263896 0
-1.2451385 -0.25864175 0.4543474 0
-1.2370349 -0.25611547 0.58782452 0
-1.0578908 -0.22094058 -0.049960211 0
-0.99354112 -0.19998716 0.059544127 0
-0.98571777 -0.19743975 0.16629623 0
-1.2362829 -0.27902839 0.32252416 0
-1.2375232 -0.27943221 0.45410672 0
-1.2428424 -0.28116426 0.59219581 0
-1.0466652 -0.23797159 -0.049771819 0
-1.1170079 -0.2618601 0.064424001 0
-1.1210988 -0.26324943 0.18233433 0
-1.2400545 -0.30364719 0.32457089 0
-1.235752 -0.30218604 0.45551008 0
-1.0479339 -0.25928423 -0.050063826 0
-1.2911682 -0.34531811 0.20249256 0
-1.2322292 -0.32447097 0.32446745 0
-1.2340955 -0.32513103 0.45702809 0
-1.0384101 -0.2768487 -0.049956817 0
-1.257208 -0.35735294 0.19949841 0
-1.2277175 -0.34650227 0.32505059 0
-1.2424468 -0.35192171 0.4613522 0
-1.0319533 -0.29550824 -0.049974952 0
-1.2486497 -0.37835184 0.19942985 0
-1.2387173 -0.37455466 0.32868493 0
-1.2421492 -0.37586668 0.46342674 0
-1.0116351 -0.30868462 -0.049469769 0
-1.2534547 -0.40463981 0.2009365 0
-1.2391007 -0.39894411 0.33034596 0
-1.2485313 -0.40268627 0.4674277 0
-1.0206132 -0.33353314 -0.050099347 0
-1.2543513 -0.42970541 0.20203513 0
-1.2398233 -0.42372778 0.33214149 0
-1.2346872 -0.42161456 0.46596226 0
-1.008184 -0.3497428 -0.049913615 0
-1.2451509 -0.45075092 0.20199689 0
-1.2374704 -0.44747701 0.33340478 0
-1.2429694 -0.44982103 0.47069144 0
-1.0010548 -0.36815116 -0.049941614 0
-1.260576 -0.48265561 0.2048821 0
-1.2471548 -0.47673401 0.3371067 0
-1.2369161 -0.47221652 0.47154808 0
-0.99113703 -0.38531217 -0.049869414 0
-1.2344968 -0.49636742 0.20292835 0
-1.227541 -0.49319312 0.33509472 0
-1.2433219 -0.50039464 0.47598264 0
-0.97900259 -0.40137485 -0.049717788 0
-1.239725 -0.52434301 0.20470344 0
-1.2353443 -0.52227688 0.338579 0
-1.2433673 -0.52606094 0.47874925 0
-0.97665584 -0.42208984 -0.049961925 0
-1.4963958 -0.67527044 0.082601778 0
-1.240093 -0.55041784 0.20595044 0
-1.243183 -0.55192304 0.34216502 0
-1.2391368 -0.54995209 0.48041081 0
-0.95914066 -0.43537429 -0.04961187 0
-1.4529532 -0.68366617 0.081344694 0
-1.2429448 -0.57807273 0.20754351 0
-1.2453564 -0.57928532 0.34470534 0
-1.238259 -0.57571661 0.48312595 0
-0.95649183 -0.45609501 -0.049864121 0
-1.4074407 -0.68999416 0.080000363 0
-1.242072 -0.60422033 0.20873809 0
-1.2358376 -0.60098666 0.34495661 0
-0.95337462 -0.47677061 -0.050109647 0
-1.345624 -0.68653268 0.077990085 0
-1.2349291 -0.62733668 0.20921662 0
-1.236299 -0.62806934 0.34730646 0
-0.93635702 -0.48998746 -0.049800832 0
-1.3031414 -0.69211131 0.076752156 0
-1.2519963 -0.66392678 0.21270482 0
-1.2304713 -0.65206504 0.34844753 0
-0.93332767 -0.51089716 -0.050070845 0
-1.263288 -0.69818294 0.075616166 0
-1.2448701 -0.68772894 0.2132851 0
-1.2370987 -0.6833179 0.35224217 0
-0.91820323 -0.52496296 -0.049853563 0
-1.2485799 -0.71802515 0.075514697 0
-1.2376519 -0.71163923 0.2138954 0
-1.2362394 -0.71081376 0.35458285 0
-0.90389788 -0.53934628 -0.049676109 0
-1.2509167 -0.74803907 0.076132916 0
-1.2428861 -0.74320954 0.21610953 0
-1.2344635 -0.73814422 0.35682097 0
-0.89636445 -0.55777562 -0.049789138 0
-1.242415 -0.77186483 0.076316759 0
-1.2380377 -0.76915675 0.21711686 0
-1.23884 -0.76965314 0.36045414 0
-0.89097476 -0.577667 -0.050003566 0
-1.2479869 -0.80480283 0.077110238 0
-1.2413012 -0.80054921 0.219207 0
-1.2388897 -0.79901499 0.36327606 0
-0.876243 -0.59163266 -0.049831878 0
-1.2476348 -0.83453971 0.077675194 0
-1.225932 -0.8203451 0.21897228 0
-1.239884 -0.82947034 0.36640429 0
-0.86902618 -0.61050761 -0.04998954 0
-1.2424998 -0.86154658 0.07805524 0
-1.2371562 -0.85795468 0.22221132 0
-1.2383505 -0.85875756 0.36909276 0
-0.84175181 -0.61566943 -0.049288593 0
-1.2382427 -0.88949043 0.07849139 0
-1.2426766 -0.89255255 0.22479528 0
-1.2442067 -0.89360911 0.37350482 0
-0.84926724 -0.64490789 -0.050107006 0
-1.240458 -0.92240769 0.079230092 0
-1.2391529 -0.92148191 0.22626789 0
-1.5954682 -1.1742419 0.45442817 0
-0.83591449 -0.65966243 -0.0500274 0
-1.242739 -0.95602244 0.079996727 0
-1.2379169 -0.9525097 0.22810645 0
-1.560831 -1.1877433 0.4507772 0
-0.82013237 -0.67253393 -0.049846984 0
-1.2417272 -0.98785502 0.080642603 0
-1.2384605 -0.9854117 0.23025344 0
-0.81648731 -0.69456708 -0.050218362 0
-1.2329022 -1.0142684 0.080961034 0
-1.246882 -1.0250013 0.23354451 0
-0.80494022 -0.71071112 -0.050246816 0
-1.1573226 -0.98837334 0.078263514 0
-1.1480792 -0.98108989 0.22226551 0
-1.1708139 -0.99900395 0.37414426 0
-0.78695631 -0.72168046 -0.049989328 0
-1.1378877 -1.0054338 0.07810121 0
-1.1368455 -1.004591 0.22289759 0
-1.1397457 -1.0069361 0.3706575 0
-0.7745676 -0.73705977 -0.049995061 0
-1.2321239 -1.1166536 0.083220042 0
-1.2333002 -1.1176294 0.23861481 0
-1.3366375 -1.2033591 0.42057583 0
-0.76173866 -0.75207394 -0.04998925 0
-1.2467116 -1.1648315 0.084725328 0
-1.2350295 -1.154889 0.24133319 0
-1.3287632 -1.2346653 0.42312089 0
-1.033749 -0.98358029 0.49724644 0
-0.74136829 -0.76050264 -0.049634874 0
-1.2815533 -1.2321074 0.41637057 0
-0.99437249 -0.98138624 0.48927149 0
-0.73937619 -0.78505737 -0.050162286 0
-1.1941248 -1.1922756 0.08395537 0
-1.1871238 -1.1860063 0.23965408 0
-1.1964989 -1.1944016 0.40037426 0
-0.96808088 -0.98985785 0.48567796 0
-0.72380149 -0.79764694 -0.050052337 0
-0.91888511 -0.97681719 0.47414517 0
-0.71753752 -0.8189041 -0.050405454 0
-0.88962376 -0.98099452 0.46940443 0
-0.70268667 -0.8322174 -0.050349861 0
-0.85492337 -0.97927231 0.46269482 0
-0.68184161 -0.83954197 -0.050000723 0
-0.83503175 -0.99129277 0.4612115 0
-0.66959274 -0.85525256 -0.050089229 0
-0.82329917 -1.011398 0.46273103 0
-0.66594791 -0.88002139 -0.050632611 0
-0.6407578 -0.88233691 -0.050073929 0
-0.62767959 -0.89734381 -0.050150473 0
-0.61128438 -0.90870899 -0.050060045 0
-0.60176659 -0.92790931 -0.050350726 0
-0.58118713 -0.93435186 -0.050047461 0
-0.56739736 -0.94869989 -0.050125141 0
-0.55282503 -0.96216637 -0.050169662 0
-0.5287559 -0.9635579 -0.04967463 0
-0.51237506 -0.97445852 -0.049624972 0
-0.50147432 -0.99268121 -0.049910661 0
-0.48448479 -1.0028389 -0.049844425 0
-0.47295707 -1.0206721 -0.050123379 0
-0.4532522 -1.026938 -0.04990546 0
-0.43693119 -1.0380014 -0.049905997 0
-0.42420137 -1.0545999 -0.050150957 0
-0.37810552 -0.98363453 0.50110781 0
-0.40740108 -1.0650851 -0.050142609 0
-0.35478973 -0.9818123 0.49641281 0
-0.38310391 -1.0633613 -0.04963167 0
-0.33501083 -0.98507398 0.49385417 0
-0.37593329 -1.0896235 -0.050301023 0
-0.30433732 -0.96971804 0.48419741 0
-0.35409975 -1.0915582 -0.049965151 0
-0.29310441 -0.98642093 0.4870908 0
-0.33714062 -1.1016679 -0.049977951 0
-0.27496773 -0.99132305 0.48551157 0
-0.3179844 -1.1077862 -0.049836963 0
-0.25462037 -0.99194032 0.48240522 0
-0.30452794 -1.1244385 -0.050132461 0
-0.2301649 -0.98432142 0.47631431 0
-0.28591508 -1.1315348 -0.050049175 0
-0.20538248 -0.97506624 0.46976605 0
-0.26675576 -1.137411 -0.049927112 0
-0.18815185 -0.97984499 0.46859297 0
-0.25052816 -1.1491634 -0.050048389 0
-0.16802789 -0.97843868 0.465222 0
-0.22564752 -1.1426276 -0.049456205 0
-0.15079822 -0.98262376 0.46401787 0
-0.21509446 -1.1667467 -0.05008097 0
-0.13017698 -0.97909993 0.460085 0
-0.19620945 -1.1729267 -0.05000845 0
-0.11767085 -0.99339098 0.46273744 0
-0.17983873 -1.1849337 -0.05017139 0
-0.10308559 -1.0032841 0.46384445 0
-0.15953703 -1.1876134 -0.049981851 0
-0.075974897 -0.98268992 0.34960076 0
-0.082789794 -0.99940246 0.46006277 0
-0.14070202 -1.1936668 -0.049932502 0
-0.046477303 -0.95400769 0.34000951 0
-0.06855692 -1.0101668 0.46162707 0
-0.12223847 -1.2006115 -0.049926486 0
-0.028685434 -0.95357054 0.14596263 0
-0.033346131 -0.96587771 0.24325052 0
-0.01010154 -0.90449697 0.32488322 0
-0.052507177 -1.0164754 0.46166274 0
-0.10356535 -1.2069778 -0.049907379 0
-0.0066097216 -0.94088286 0.14385819 0
-0.011582179 -0.95452982 0.23996504 0
0.0055928989 -0.90739268 0.32418129 0
-0.082072452 -1.2052603 -0.049591482 0
0.010635721 -0.94050521 0.14319643 0
0.0078765322 -0.94838482 0.23774073 0
0.02088015 -0.91124922 0.32379574 0
-0.0037887825 -0.98169857 0.4452416 0
-0.068568006 -1.2266216 -0.05015637 0
-0.16813989 -1.5228859 0.073314779 0
0.021368789 -0.95902556 0.14470476 0
0.021648126 -0.95819455 0.23860809 0
0.021543341 -0.95850629 0.33514518 0
0.012512045 -0.98537773 0.44463935 0
-0.045334592 -1.2190913 -0.049641695 0
-0.16156097 -1.5798903 0.075174525 0
0.036339566 -0.96555203 0.14486805 0
0.038437352 -0.95903987 0.23780635 0
0.021618353 -1.0112507 0.34792185 0
0.020517366 -1.0146685 0.45306343 0
-0.02705176 -1.2263974 -0.049694248 0
-0.1002533 -1.4638387 0.070564903 0
0.023032324 -1.0639414 0.36063492 0
-0.012957169 -1.2480644 -0.050289668 0
0.067177638 -0.976013 0.33590519 0
0.0080191363 -1.2467991 -0.05003918 0
-0.051703766 -1.4593941 0.069922894 0
0.087223485 -0.96485621 0.33175549 0
0.028995948 -1.2448601 -0.049774412 0
-0.035394982 -1.485677 0.07067392 0
0.1011547 -0.97499198 0.33330974 0
0.044518963 -1.2636518 -0.050283842 0
-0.016197247 -1.5027503 0.071090892 0
0.11583857 -0.98279756 0.33429191 0
0.067090198 -1.254696 -0.04978003 0
0.011191474 -1.4870491 0.070312016 0
0.084271565 -1.2678639 -0.050098073 0
-0.0023204817 -1.6488303 0.076045975 0
0.1026061 -1.2767322 -0.050266188 0
0.058533475 -1.4825916 0.069782175 0
0.12162624 -1.2828064 -0.050340548 0
0.081973955 -1.4801239 0.069525868 0
0.14390276 -1.2718503 -0.04980481 0
-0.065532908 -2.3865266 0.10229653 0
0.091860369 -1.5488348 0.20427383 0
0.16199474 -1.2826467 -0.050068792 0
0.12040491 -1.5204614 0.070687942 0
0.11671858 -1.5415403 0.20302567 0
0.18330701 -1.2747411 -0.04966411 0
0.12803681 -1.6160532 0.074008122 0
0.20192342 -1.2830085 -0.049853656 0
0.066058233 -2.1946208 0.094758868 0
0.22175449 -1.2833709 -0.049766511 0
0.097013071 -2.1993041 0.094768368 0
0.23982467 -1.2975283 -0.050184723 0
0.12841399 -2.2004671 0.094665259 0
0.26005846 -1.2948385 -0.050005395 0
0.16093464 -2.190892 0.094190799 0
0.27963039 -1.2976433 -0.050032537 0
0.19189161 -2.1939058 0.094183221 0
0.30005494 -1.2907034 -0.049719326 0
0.22320242 -2.1927617 0.094040632 0
0.31935453 -1.2962633 -0.04986304 0
0.2537384 -2.2009788 0.094247393 0
0.33908147 -1.2964345 -0.049822621 0
0.28529602 -2.1946564 0.093947731 0
0.35843319 -1.3040082 -0.050055675 0
0.31657439 -2.1898701 0.093717366 0
0.37802082 -1.3096106 -0.050226916 0
0.3467989 -2.2109563 0.094425417 0
0.3979446 -1.3055844 -0.050063081 0
0.37818727 -2.2021191 0.094078295 0
0.41766885 -1.3107837 -0.0502376 0
0.43749464 -1.3081403 -0.050140999 0
0.45733508 -1.31056 -0.050234072 0
0.47704738 -1.3060275 -0.050087802 0
0.49683499 -1.3057799 -0.050103426 0
0.51676285 -1.3078856 -0.050212104 0
0.53613698 -1.3004204 -0.049987402 0
0.55706 -1.3145714 -0.050545331 0
0.57519954 -1.2939645 -0.049867257 0
0.59469616 -1.2909571 -0.04982822 0
0.61464 -1.2919816 -0.049942866 0
0.63444829 -1.2913096 -0.050005656 0
0.65397501 -1.2883273 -0.049994238 0
0.67252201 -1.2790757 -0.049765158 0
0.6940949 -1.2887462 -0.050229091 0
0.71113694 -1.2715861 -0.049730416 0
0.73238575 -1.2778904 -0.05009171 0
0.74960148 -1.2634904 -0.049708776 0
0.77031273 -1.2661682 -0.049957059 0
0.79135936 -1.2694974 -0.050239507 0
0.80796129 -1.2540069 -0.049840447 0
0.82794219 -1.2525835 -0.049966771 0
0.84716415 -1.2480427 -0.049987428 0
0.86512506 -1.2390553 -0.049851947 0
0.88516831 -1.2372966 -0.04999391 0
0.90157068 -1.2236437 -0.049700629 0
0.92236173 -1.2239777 -0.04993958 0
0.94085795 -1.2170945 -0.04991702 0
0.9614563 -1.2161335 -0.050127681 0
0.98081678 -1.211405 -0.050205704 0
0.99802119 -1.2009281 -0.050073426 0
0.92214888 -1.0043235 0.45842776 0
1.0158688 -1.1922997 -0.05001989 0
0.93967694 -1.0020348 0.4598529 0
1.0312327 -1.1777788 -0.04974696 0
0.96171427 -1.0103198 0.46517372 0
1.0475026 -1.1658447 -0.049580567 0
0.97421014 -0.99538785 0.46221566 0
1.0685029 -1.1648219 -0.049847603 0
0.98776323 -0.98337561 0.46036142 0
1.0894272 -1.1631761 -0.050102066 0
1.0040084 -0.97754318 0.46082187 0
1.1086559 -1.1575389 -0.050210658 0
1.0252885 -0.98221177 0.46522874 0
1.1211791 -1.1380649 -0.049779192 0
1.0410408 -0.97486001 0.46530676 0
1.1443197 -1.140209 -0.050216492 0
1.0696968 -0.99295229 0.47494897 0
1.1601765 -1.127745 -0.050079912 0
1.0798398 -0.97404402 0.47089991 0
1.1752696 -1.1140602 -0.04990096 0
1.1004024 -0.97511369 0.47442132 0
1.1941988 -1.1075386 -0.050020993 0
1.1332265 -0.9977141 0.05753639 0
1.1313729 -0.99437529 0.16072626 0
1.1291327 -0.99034029 0.26482025 0
1.1357235 -1.0022117 0.37560681 0
1.1273983 -0.98721606 0.48226392 0
1.2059026 -1.0882032 -0.049624693 0
1.1377118 -0.9689402 0.056719996 0
1.1456642 -0.98284858 0.16040096 0
1.1375771 -0.96870476 0.26216832 0
1.1448454 -0.98141652 0.37212688 0
1.1505818 -0.99144953 0.48727736 0
1.2333063 -1.0960859 -0.050359081 0
1.1625651 -0.97590023 0.057380199 0
1.1618679 -0.97471565 0.1605188 0
1.1685472 -0.98606342 0.26767918 0
1.1664138 -0.98243898 0.37511396 0
1.1569772 -0.96640652 0.48113826 0
1.2479911 -1.0819635 -0.050194964 0
1.2617 -1.0664877 -0.049980376 0
1.2791357 -1.057104 -0.050029635 0
1.2961855 -1.0470653 -0.05006066 0
1.3105083 -1.0329522 -0.049925525 0
1.3279517 -1.0234892 -0.049999207 0
1.3445156 -1.0127 -0.05002496 0
1.355566 -0.99435574 -0.049725678 0
1.3775916 -0.99093562 -0.050096661 0
1.3982892 -0.98536402 -0.050386649 0
1.4065497 -0.96377605 -0.049961563 0
1.2037168 -0.70801926 0.050307803 0
1.2086743 -0.71427029 0.14023434 0
1.4190255 -0.94783777 -0.04979692 0
1.2057171 -0.68572021 0.049731888 0
1.2117105 -0.69308496 0.13866374 0
1.4412596 -0.94376332 -0.050189581 0
1.2055995 -0.66151446 0.049062375 0
1.2125186 -0.66980141 0.1367881 0
1.4564033 -0.93098027 -0.050190225 0
1.2078447 -0.64078945 0.048549153 0
1.2081418 -0.64113623 0.13413206 0
1.468496 -0.91471928 -0.050034605 0
1.2085346 -0.61883909 0.047973331 0
1.2065108 -0.61653554 0.13202007 0
1.4839929 -0.90239519 -0.050073691 0
1.1968925 -0.58380729 0.046762671 0
1.2098858 -0.59822571 0.13079116 0
1.500167 -0.89075834 -0.050156079 0
1.5072805 -0.86947376 -0.049774833 0
1.5218257 -0.85621566 -0.049792957 0
1.5394903 -0.84606439 -0.049977101 0
1.5558987 -0.83449811 -0.050102677 0
1.5786217 -0.82882839 -0.050545536 0
1.5704298 -0.79397386 -0.049479432 0
1.5938606 -0.78880841 -0.049970798 0
1.6041265 -0.77153581 -0.04983246 0
1.6191186 -0.75846201 -0.049928695 0
1.6285402 -0.74061447 -0.049771864 0
1.6410186 -0.72540975 -0.049768142 0
1.6536485 -0.71032506 -0.04978016 0
1.670535 -0.69853657 -0.049993221 0
1.6840225 -0.68397993 -0.050058685 0
1.6843762 -0.65966719 -0.049548913 0
1.7033154 -0.64915413 -0.049874444 0
1.7178063 -0.63524354 -0.050009072 0
1.7344754 -0.62269813 -0.050244238 0
1.740297 -0.60275751 -0.050019585 0
1.7511841 -0.58626944 -0.050022669 0
1.7731471 -0.57672399 -0.050501317 0
1.7771664 -0.555834 -0.050230965 0
1.7827219 -0.53607273 -0.050037336 0
1.7889298 -0.51684129 -0.049882282 0
1.8021984 -0.50168055 -0.050027076 0
1.8055015 -0.48098984 -0.049773835 0
1.8173019 -0.46497306 -0.049875688 0
1.8285182 -0.44857374 -0.049961586 0
1.8336939 -0.4291136 -0.049814574 0
1.8452474 -0.41282234 -0.049930688 0
1.8655763 -0.40050879 -0.05039959 0
1.8609246 -0.37661913 -0.049894419 0
1.8626349 -0.35587373 -0.049651306 0
1.8791171 -0.34149781 -0.049991373 0
1.8899043 -0.32455835 -0.050117414 0
1.8860093 -0.301801 -0.049688496 0
1.9016178 -0.28667912 -0.050016217 0
1.9135001 -0.26996383 -0.050208282 0
1.9152004 -0.24957238 -0.050022744 0
1.9223613 -0.23113163 -0.050053116 0
1.9295679 -0.21267976 -0.050093804 0
1.9404935 -0.19532828 -0.050281819 0
1.9425416 -0.17525084 -0.050147198 0
1.9464087 -0.15577348 -0.050089821 0
1.9421679 -0.13419409 -0.049742322 0
1.9476888 -0.11531041 -0.049765222 0
1.9620181 -0.098496713 -0.050119992 0
1.9649928 -0.078880019 -0.050066099 0
1.9747025 -0.060718756 -0.050267108 0
1.9827501 -0.042081218 -0.050415464 0
1.967029 -0.018945556 -0.049709089 0
1.9733356 -9.311302e-05 -0.049812723 0
1.9898833 0.017211173 -0.050294932 0
1.9914317 0.03704958 -0.050242972 0
1.9966509 0.056366015 -0.050332312 0
1.9874175 0.077486224 -0.049910575 0
1.9955077 0.096449174 -0.050121002 0
1.9983976 0.11605691 -0.050153255 0
1.9977087 0.13598418 -0.050066128 0
1.9963915 0.15589659 -0.049965583 0
1.9955977 0.17571142 -0.049892787 0
1.9975657 0.19535618 -0.049927656 0
1.996362 0.21512856 -0.049858049 0
1.9915895 0.23492235 -0.049669921 0
1.9981632 0.25451514 -0.049895786 0
2.0053282 0.27427411 -0.050151594 0
2.0038159 0.29405272 -0.050106492 0
2.0041459 0.31386068 -0.050136078 0
1.993086 0.33319041 -0.049767561 0
1.9957408 0.35304084 -0.049897902 0
1.9991871 0.37304145 -0.050065629 0
1.9836515 0.39160687 -0.049562585 0
1.995931 0.41245359 -0.050064802 0
1.9899724 0.43170026 -0.049922246 0
1.9895279 0.45151159 -0.049986463 0
1.9868505 0.47107479 -0.049979344 0
1.9869773 0.49104503 -0.050082266 0
1.9860951 0.51093179 -0.050157998 0
1.978804 0.52977586 -0.050010804 0
1.9751247 0.54918444 -0.050003003 0
1.9774052 0.56976873 -0.050220951 0
1.9682336 0.58809924 -0.050031085 0
1.9511107 0.60451478 -0.049558211 0
1.951243 0.62468445 -0.049724627 0
1.9664733 0.64876181 -0.050456591 0
1.9485397 0.66462052 -0.049977601 0
1.9476211 0.68485409 -0.050134741 0
1.9316564 0.70082581 -0.049742442 0
1.9306163 0.72106135 -0.049913172 0
1.930436 0.74170047 -0.050126329 0
1.9194242 0.75889891 -0.049942609 0
1.9080119 0.77582467 -0.049751125 0
1.8980678 0.79313993 -0.049622566 0
1.8969923 0.81368828 -0.049839851 0
1.8932424 0.83336264 -0.049965624 0
1.8851264 0.85137171 -0.049933437 0
1.8833762 0.87202579 -0.050156232 0
1.8728995 0.8890698 -0.05005075 0
1.8595732 0.90475684 -0.049841538 0
1.8459182 0.92013222 -0.049625915 0
1.8519796 0.94479358 -0.050197221 0
1.83138 0.95671254 -0.049722403 0
1.8274848 0.97679013 -0.049920164 0
1.8222665 0.99633199 -0.050076015 0
1.8029178 1.0083314 -0.049668882 0
1.8058985 1.0324942 -0.050178431 0
1.7942889 1.048672 -0.050103068 0
1.7856354 1.0665441 -0.050158259 0
1.7750038 1.083259 -0.05014053 0
1.7556436 1.0944865 -0.049763616 0
1.7456524 1.1114452 -0.049787655 0
1.7384027 1.1302456 -0.04993844 0
1.7232518 1.1437953 -0.049759377 0
1.7269372 1.1703788 -0.050406974 0
1.7056086 1.1795468 -0.049975276 0
1.6940771 1.1955721 -0.049979385 0
1.6904818 1.2176188 -0.050348021 0
1.674445 1.230322 -0.050170068 0
1.6601819 1.2442843 -0.050078608 0
1.6451011 1.2574974 -0.049956534 0
1.6288379 1.2696089 -0.049785748 0
1.618847 1.286972 -0.049915891 0
1.6054479 1.3014485 -0.049895436 0
1.5880657 1.3122973 -0.049691509 0
1.5822787 1.3337388 -0.050057147 0
1.5687064 1.3481148 -0.050056331 0
1.5557106 1.3630582 -0.050093278 0
1.5422513 1.3775783 -0.050116722 0
1.5222908 1.3854383 -0.049816784 0
1.5097164 1.4007878 -0.049901247 0
1.0209559 0.8851468 0.29056379 0
1.5007427 1.4201254 -0.050186358 0
1.0443089 0.9262808 0.3058646 0
1.4951555 1.4435261 -0.050668985 0
1.4455075 1.3884331 0.06002127 0
1.4444568 1.3872671 0.16844808 0
1.4382405 1.3803691 0.2769362 0
1.0545542 0.95460236 0.31512225 0
1.4649616 1.4394408 -0.049843434 0
1.4190724 1.3872111 0.059361294 0
1.4100747 1.3769702 0.16516504 0
1.4138764 1.3812971 0.27414024 0
1.0604212 0.97900492 0.32248503 0
1.4484742 1.4504672 -0.04975507 0
1.3891293 1.3811824 0.058498181 0
1.3917283 1.3842167 0.16446127 0
1.3929894 1.385689 0.27227005 0
1.0563016 0.99260765 0.32500544 0
1.4382513 1.4689044 -0.050022002 0
1.3703302 1.3875557 0.058238529 0
1.3674253 1.3840766 0.16276319 0
1.366767 1.3832881 0.26888561 0
1.0557607 1.0107974 0.32951012 0
1.4243435 1.4831167 -0.050097708 0
1.3447136 1.3852659 0.057593729 0
1.3424777 1.3825184 0.16092859 0
1.3391075 1.3783771 0.26502916 0
1.0597137 1.0350525 0.33657351 0
1.4044479 1.48987 -0.049840804 0
1.3237019 1.3880554 0.057201542 0
1.3168365 1.3793986 0.15894131 0
1.3177662 1.380571 0.26292703 0
1.0538892 1.0478424 0.33867717 0
1.3938617 1.5083787 -0.050128143 0
1.3010494 1.3882738 0.056709144 0
1.2994893 1.3862549 0.15837228 0
1.2948222 1.3802155 0.26032573 0
1.0507103 1.0643196 0.34234172 0
1.3760899 1.5176852 -0.050007522 0
1.2760363 1.3847841 0.056068499 0
1.2732768 1.3811185 0.15622489 0
1.2692494 1.375769 0.25689101 0
1.0416344 1.0734283 0.34292001 0
1.3541877 1.5212204 -0.04964247 0
1.2514144 1.3810683 0.05543774 0
1.2577822 1.3897521 0.1559765 0
1.254284 1.3849816 0.25661492 0
1.0288037 1.0774939 0.34145981 0
1.3448787 1.5419526 -0.050047267 0
1.2462636 1.4038579 0.055989075 0
1.2452848 1.4024873 0.15629789 0
1.245158 1.4023097 0.25818178 0
1.0213665 1.0889257 0.34309039 0
1.3285885 1.5531495 -0.050039034 0
1.246587 1.4352072 0.056910634 0
1.2456138 1.4338075 0.15906979 0
1.2433879 1.4306061 0.2621696 0
1.0102742 1.09532 0.34270367 0
1.3132205 1.5657043 -0.050098296 0
1.2461774 1.4666382 0.057827722 0
1.2436323 1.4628774 0.16152562 0
1.2413558 1.4595134 0.26626149 0
1.0010052 1.1043599 0.3434394 0
1.2919527 1.569382 -0.049785897 0
1.2462152 1.4999298 0.058816995 0
1.246513 1.5003821 0.16504979 0
1.242254 1.4939148 0.27151152 0
1.1724482 1.3879149 0.34922689 0
0.99732912 1.1219976 0.34764072 0
1.2806319 1.5881835 -0.050128654 0
1.2431595 1.5296916 0.05964864 0
1.2503165 1.5408633 0.1689209 0
1.2221504 1.4968978 0.26998764 0
1.1471102 1.379765 0.34396169 0
0.98434955 1.1257063 0.34632319 0
1.2639397 1.5988269 -0.050131589 0
1.2459671 1.5699794 0.060918171 0
1.2464038 1.5706804 0.17140539 0
1.2106009 1.5132139 0.27136278 0
1.1323541 1.3876221 0.34364554 0
0.97699219 1.1382545 0.34854516 0
1.2462655 1.6078588 -0.050076049 0
1.1896923 1.5144541 0.26957956 0
1.1091436 1.3814654 0.33920738 0
0.96420532 1.142167 0.34742746 0
0.84411836 0.94389898 0.47714725 0
1.2273452 1.6147027 -0.049939536 0
1.1766174 1.5285186 0.27054846 0
1.0914899 1.3838911 0.33742961 0
0.95485419 1.1517538 0.34857097 0
0.83852142 0.95411021 0.48064503 0
1.212167 1.6279036 -0.050075267 0
1.1537774 1.5257823 0.26805452 0
1.0677499 1.3753239 0.33249944 0
0.94672424 1.1636549 0.35063851 0
0.84735739 0.98986644 0.3520146 0
0.83861506 0.97457647 0.41532764 0
0.84065211 0.9781391 0.49360549 0
1.1865853 1.6225692 -0.049461011 0
1.1406693 1.5398644 0.26910672 0
1.0474854 1.3720196 0.32922697 0
0.93691194 1.1728524 0.35170195 0
0.84878731 1.0141206 0.3610543 0
0.84024996 0.998743 0.42626378 0
0.83858085 0.99573654 0.50209486 0
1.1757858 1.6437625 -0.049939811 0
1.1260402 1.5514393 0.2696721 0
1.0383749 1.3887405 0.33185437 0
0.92333013 1.1752281 0.35022697 0
0.84939003 1.0380024 0.36984921 0
0.84115314 1.0227154 0.43700391 0
0.83634174 1.0137858 0.51084882 0
1.1595949 1.6553764 -0.050035082 0
1.1104515 1.5613549 0.2699337 0
1.0134416 1.3757545 0.32594559 0
0.90996045 1.1777732 0.34888968 0
0.85111248 1.0651847 0.3801249 0
0.84103233 1.0458993 0.44722196 0
0.83833116 1.0407313 0.52551746 0
1.1405866 1.6615866 -0.049921658 0
1.0937681 1.5691977 0.2698144 0
1.0016903 1.3874964 0.32723719 0
0.9049927 1.1966788 0.35372591 0
0.85542661 1.0988679 0.39334258 0
0.8388291 1.0661153 0.45571122 0
0.83880973 1.066077 0.53901249 0
1.1253563 1.6753161 -0.050117545 0
1.0763465 1.5755057 0.26942983 0
0.98298097 1.3853629 0.32461923 0
0.89136237 1.1987778 0.35232645 0
0.8450042 1.1043675 0.39345384 0
0.83786851 1.0898354 0.46611685 0
0.84086472 1.0959373 0.55540299 0
1.1052113 1.6790389 -0.04992428 0
0.96905243 1.3926879 0.32475573 0
0.87773263 1.2006363 0.35091019 0
0.83979321 1.1208471 0.39865863 0
0.83606797 1.1130128 0.47616649 0
0.84252137 1.1265846 0.57219565 0
1.0885689 1.6900551 -0.050028767 0
0.94548452 1.3791026 0.31906825 0
0.8626349 1.199053 0.34830466 0
0.83798629 1.1454864 0.40758225 0
0.8392238 1.1481758 0.49277186 0
0.84143418 1.1529795 0.58610135 0
1.0721369 1.7017328 -0.050166726 0
0.93130618 1.3852439 0.31900433 0
0.84992796 1.2023627 0.34756482 0
0.83961582 1.1791881 0.42057326 0
0.84080124 1.1818521 0.50844836 0
0.83855826 1.1768115 0.59827483 0
1.0542051 1.7101768 -0.05018634 0
0.91155261 1.378409 0.3153868 0
0.85170186 1.2392137 0.35903394 0
0.83757859 1.2063671 0.43054515 0
0.84055382 1.2132868 0.52280861 0
0.84268594 1.2182454 0.62176883 0
1.0338639 1.7128613 -0.049991969 0
0.89435345 1.3768024 0.31330127 0
0.85259795 1.27622 0.37049115 0
0.84159362 1.2497122 0.44772381 0
0.83927476 1.2441264 0.53677344 0
0.83773321 1.2404132 0.63273573 0
1.0157344 1.7207086 -0.050006993 0
0.88051158 1.3830324 0.31343964 0
0.84700751 1.2993667 0.37691975 0
0.83804649 1.2769893 0.45762712 0
0.83988768 1.2815871 0.55424517 0
0.83624494 1.2724906 0.65001798 0
0.99623168 1.7250351 -0.049895976 0
0.86503875 1.3850807 0.31248152 0
0.85104376 1.3488162 0.39272207 0
0.83869272 1.3168114 0.47306976 0
0.84109956 1.3230481 0.57377344 0
0.84326273 1.3286536 0.68253905 0
0.98377085 1.7481006 -0.050508536 0
0.85237247 1.3944187 0.31356508 0
0.84446651 1.3731384 0.39951468 0
0.83740199 1.3541231 0.4873279 0
0.83982396 1.3606423 0.59113854 0
0.84072948 1.3630797 0.70110047 0
0.96002543 1.7408726 -0.049975846 0
0.82978398 1.3763081 0.30725059 0
0.83479333 1.39033 0.40378693 0
0.83996654 1.4048105 0.50741005 0
0.84215742 1.4109432 0.61518544 0
0.94292754 1.7518704 -0.05014468 0
0.81540829 1.3802204 0.30698049 0
0.83865231 1.4479643 0.42230874 0
0.84075105 1.4540809 0.52677119 0
0.83873457 1.448204 0.63221526 0
0.92299187 1.7546366 -0.050011545 0
1.0300443 2.0799227 0.35070825 0
0.80366051 1.3920401 0.30888414 0
0.83811885 1.4967439 0.43763563 0
0.83964431 1.5013793 0.54518843 0
0.84244877 1.5099008 0.66206884 0
0.90372252 1.7592146 -0.049956176 0
1.0082833 2.0909388 0.35139593 0
0.78325272 1.3770181 0.30363956 0
0.83875668 1.5531073 0.45554951 0
0.83743572 1.5489165 0.56364244 0
0.84115714 1.5607227 0.68607461 0
0.88494831 1.7653109 -0.049966689 0
0.98166507 2.0861864 0.34916252 0
0.76710379 1.3743403 0.3017728 0
0.8418228 1.6222341 0.47782788 0
0.83801478 1.6096004 0.58772373 0
0.86631757 1.7719439 -0.050005909 0
0.95821482 2.0913298 0.34885734 0
0.75350887 1.3798809 0.30214876 0
0.8424592 1.6890249 0.49920356 0
0.83954829 1.6789082 0.6154303 0
0.84849608 1.7816453 -0.050167277 0
0.74161696 1.3917828 0.047735129 0
0.74125743 1.3904712 0.13148642 0
0.73810267 1.3789637 0.21443202 0
0.73969084 1.3847567 0.3023929 0
0.83535832 1.7337229 0.5128814 0
0.83467758 1.7312396 0.63574481 0
0.82760954 1.7800515 -0.049919683 0
0.72502589 1.3864881 0.047399506 0
0.72604907 1.3904135 0.13105823 0
0.72281408 1.3780026 0.21355231 0
0.72603005 1.3903407 0.30286893 0
0.83103061 1.7931764 0.53161836 0
0.83067662 1.7918183 0.65954787 0
0.80869097 1.7857023 -0.049948983 0
0.70791847 1.3781286 0.046959907 0
0.71078485 1.3897219 0.13058241 0
0.70869797 1.3812814 0.21349885 0
0.7092824 1.3836451 0.30016148 0
0.82307142 1.8438641 0.54731166 0
0.82666612 1.8584028 0.68586004 0
0.79044592 1.7943369 -0.05009634 0
0.69432098 1.3834224 0.04703011 0
0.69323486 1.3787795 0.12899788 0
0.69530022 1.3876085 0.21404311 0
0.69306952 1.3780725 0.2978116 0
0.81608748 1.9039495 0.56620407 0
0.76918757 1.7898141 -0.049770664 0
0.67958367 1.3837914 0.046926342 0
0.6788913 1.3806542 0.12885267 0
0.6792419 1.3822427 0.21245754 0
0.67976284 1.3846034 0.29868391 0
0.80286396 1.9424121 0.57770723 0
0.7522341 1.8049207 -0.050171331 0
0.66538697 1.3864168 0.046911888 0
0.6652537 1.3857746 0.12908393 0
0.66437596 1.3815449 0.21177319 0
0.66219878 1.3710533 0.29436526 0
0.79046756 1.9891626 0.59205306 0
0.73245078 1.806969 -0.050103873 0
0.65033025 1.384577 0.046741579 0
0.6517663 1.3919634 0.12945044 0
0.65011191 1.3834542 0.21160392 0
0.65023428 1.3840836 0.29702321 0
0.77805173 2.0415204 0.60831726 0
0.71136689 1.8015983 -0.049776424 0
0.63409507 1.3755802 0.046318863 0
0.63432002 1.3768204 0.12750475 0
0.63798356 1.3970184 0.21360427 0
0.63584918 1.3852509 0.29663816 0
0.76345134 2.0887523 0.62286413 0
0.69460636 1.8205278 -0.050339058 0
0.62161666 1.387109 0.046647567 0
0.62207007 1.3898015 0.12865219 0
0.62138087 1.385709 0.21107925 0
0.6205073 1.3805217 0.29477525 0
0.74716961 2.132652 0.63631809 0
0.67431957 1.8193812 -0.050182868 0
0.60690993 1.3858304 0.046518572 0
0.6072188 1.3878173 0.12818652 0
0.60839117 1.3953571 0.21242245 0
0.60527325 1.3753041 0.29283988 0
0.72784227 2.1636164 0.64545959 0
0.65217787 1.8044696 -0.049539778 0
0.59227866 1.3844529 0.046392925 0
0.59152907 1.3791965 0.12702161 0
0.59150666 1.3790395 0.20906278 0
0.59223109 1.3841193 0.29457387 0
0.70855045 2.1997581 0.6564064 0
0.63483495 1.8230331 -0.050112914 0
0.57755917 1.3817239 0.04622547 0
0.57730752 1.3797849 0.12687801 0
0.57852733 1.3891839 0.2105597 0
0.57703173 1.3776602 0.29241765 0
0.68836623 2.2354908 0.66727978 0
0.61575776 1.8302796 -0.050286271 0
0.56307381 1.3799993 0.04610103 0
0.56391799 1.3872143 0.12749423 0
0.56256735 1.3756707 0.20778842 0
0.56344688 1.3831882 0.29339299 0
0.66844833 2.2806158 0.68136835 0
0.59500855 1.8226976 -0.049935773 0
0.55102772 1.4008467 0.12879813 0
0.5512315 1.4028015 0.21242706 0
0.55233979 1.4134319 0.30075088 0
0.64502728 2.3024621 0.68773574 0
0.57523024 1.8230443 -0.04987929 0
0.55221081 1.5715883 0.14707303 0
0.55289525 1.5790644 0.24409446 0
0.55283415 1.5783974 0.34265175 0
0.62139463 2.3273282 0.6952033 0
0.55576861 1.8269396 -0.049958874 0
0.60210043 2.4144497 0.23778473 0
0.59852022 2.3690507 0.38675454 0
0.59756416 2.3569274 0.54153538 0
0.53628939 1.831466 -0.050069742 0
0.57374549 2.397239 0.39150181 0
0.57283837 2.3835371 0.54785031 0
0.51622373 1.8265656 -0.049852282 0
0.54812026 2.4220223 0.39568728 0
0.5483765 2.426806 0.55849707 0
0.49673718 1.8321353 -0.050018072 0
0.5221383 2.452482 0.40095347 0
0.52165055 2.4405701 0.561683 0
0.47701585 1.8336596 -0.050048083 0
0.45661575 1.1138222 0.35784411 0
0.45625013 1.1009213 0.42472723 0
0.45722431 1.832266 -0.049982768 0
0.44586805 1.1108692 0.35652363 0
0.44591907 1.11411 0.43121076 0
0.43746883 1.8286976 -0.049848713 0
0.43516597 1.0974476 0.42282328 0
0.43510753 1.0788878 0.48904926 0
0.41775045 1.8308864 -0.049929075 0
0.42465591 1.0995762 0.42390484 0
0.42486233 1.0777185 0.48837495 0
0.39799818 1.8318981 -0.049976286 0
0.41401401 1.1051422 0.3541936 0
0.41394785 1.1081442 0.42827559 0
0.4146339 1.0770134 0.48805228 0
0.37831128 1.8299696 -0.049927372 0
0.35222921 2.5829325 0.42440015 0
0.35239628 2.578109 0.5966624 0
0.40481201 1.0649208 0.48104849 0
0.35831866 1.8351765 -0.050142311 0
0.32262421 2.5905814 0.4259969 0
0.32231814 2.5970588 0.60180706 0
0.39542869 1.0498136 0.47232419 0
0.33887565 1.8286158 -0.049945544 0
0.29234919 2.6056118 0.42899585 0
0.2918286 2.614306 0.60661721 0
0.38586596 1.0438733 0.46910965 0
0.31812909 1.8419036 -0.050467838 0
0.26186237 2.6177096 0.43153614 0
0.26033011 2.6388364 0.61339301 0
0.29839224 1.8389635 -0.050418593 0
0.35595283 1.1633444 0.038210742 0
0.23042384 2.6367445 0.43540424 0
0.23098156 2.6301982 0.61178458 0
0.27994519 1.823172 -0.049917188 0
0.19744921 2.6658788 0.44117892 0
0.19759715 2.6643674 0.62124258 0
0.26009962 1.8232105 -0.049992021 0
0.16737486 2.6614184 0.44094127 0
0.16526695 2.6804733 0.626185 0
0.34619227 1.0449551 0.47174707 0
0.24071495 1.8190571 -0.049925167 0
0.1333582 2.6891406 0.44662008 0
0.1352623 2.6737087 0.62536037 0
0.22156614 1.8134981 -0.04981634 0
0.10249119 2.6878245 0.44710118 0
0.10147794 2.6952643 0.63192368 0
0.20145351 1.8149055 -0.049967464 0
0.070892766 2.6909268 0.44845966 0
0.070832327 2.6913326 0.63203442 0
0.18167542 1.8135608 -0.050028507 0
0.037209943 2.7056839 0.45202285 0
0.0367174 2.7087257 0.63775659 0
0.16036941 1.8206847 -0.050405629 0
0.0029880868 2.7206068 0.45570177 0
0.0010427998 2.7317302 0.64505595 0
0.14151977 1.8132776 -0.050265528 0
-0.028777523 2.7196484 0.45655414 0
-0.031655207 2.7349641 0.64735663 0
0.1246215 1.7966456 -0.049797785 0
-0.089671627 2.8630095 0.10062946 0
-0.089798227 2.8636394 0.29092604 0
-0.062643602 2.7285128 0.45928907 0
-0.062624916 2.7284198 0.64722556 0
0.1028956 1.8041241 -0.050216816 0
-0.11260803 2.8107231 0.098968051 0
-0.11307462 2.8129025 0.28609529 0
-0.097390011 2.739641 0.46252751 0
-0.097686604 2.7410264 0.65219247 0
0.084109738 1.7973201 -0.050124139 0
-0.14444591 2.8028629 0.098938964 0
-0.14253272 2.7944458 0.28484058 0
-0.12506296 2.7175865 0.45971891 0
-0.12987979 2.7387786 0.65340251 0
0.067113146 1.7833447 -0.049776528 0
-0.17546649 2.7916708 0.098802164 0
-0.17573674 2.7927942 0.28548056 0
-0.1630692 2.740139 0.46524072 0
-0.16246016 2.7376075 0.65500498 0
0.047619209 1.7801874 -0.049834143 0
-0.21201678 2.8026254 0.099495038 0
-0.21006329 2.7949328 0.28658915 0
-0.19810154 2.7478275 0.46810329 0
-0.1958272 2.7388716 0.65736133 0
0.027215438 1.7802632 -0.050020497 0
-0.2496338 2.8156576 0.100284 0
-0.25208437 2.8248227 0.29083666 0
-0.22808374 2.7350621 0.46723932 0
-0.22737093 2.7323961 0.65779257 0
0.0074516996 1.7775632 -0.050114084 0
-0.2589168 2.7257524 0.46709025 0
-0.25752348 2.7207928 0.65697134 0
-0.011251492 1.771018 -0.050074156 0
-0.2936359 2.729691 0.46950433 0
-0.29653162 2.7395217 0.66431546 0
-0.02514152 1.7489455 -0.049462762 0
-0.32707816 2.7283266 0.47100928 0
-0.32629263 2.7257788 0.6631496 0
-0.04755564 1.7547302 -0.049900301 0
-0.36169589 2.7299092 0.47315839 0
-0.3620736 2.7310817 0.66718441 0
-0.06928952 1.7575127 -0.050237227 0
-0.39025289 2.7125006 0.47178608 0
-0.39344436 2.7219965 0.66748464 0
-0.082103267 1.7340925 -0.049594808 0
-0.42436755 2.7115276 0.47361693 0
-0.4276123 2.720794 0.67002362 0
-0.10478713 1.7390752 -0.050034788 0
-0.45546055 2.7014999 0.47380039 0
-0.45593077 2.7027905 0.66812873 0
-0.12157841 1.7276127 -0.049859948 0
-0.4878372 2.6947751 0.47469699 0
-0.4875291 2.6939616 0.66882473 0
-0.13647373 1.7116565 -0.049519937 0
-0.51816016 2.6824701 0.47459555 0
-0.52160609 2.6912348 0.67130595 0
-0.16178705 1.7218754 -0.050194595 0
-0.5498904 2.6736403 0.47524458 0
-0.54810601 2.6692646 0.66861564 0
-0.1770298 1.7070302 -0.049913742 0
-0.58099544 2.6630845 0.47563717 0
-0.58645844 2.6760137 0.67395771 0
-0.20082898 1.7122309 -0.050419949 0
-0.61283326 2.6540544 0.47640914 0
-0.61048019 2.6486754 0.66997087 0
-0.21093167 1.6862922 -0.0497205 0
-0.64431894 2.6439719 0.47705635 0
-0.6383388 2.6307573 0.66868371 0
-0.23073615 1.6822497 -0.049884949 0
-0.67403471 2.6298802 0.47698784 0
-0.66986251 2.6209614 0.66977537 0
-0.2442701 1.6649573 -0.049534891 0
-0.70270705 2.6136394 0.47656319 0
-0.70384061 2.6159852 0.67235136 0
-0.26510477 1.6628456 -0.049795073 0
-0.72580695 2.5863495 0.47398147 0
-0.72777736 2.5902991 0.66916066 0
-0.28783131 1.6640021 -0.050198667 0
-0.75499141 2.5716577 0.47399715 0
-0.75346935 2.5687003 0.66720808 0
-0.29779601 1.6404983 -0.049619783 0
-0.78608298 2.5605435 0.4748182 0
-0.78654158 2.5614076 0.66946775 0
-0.32074434 1.6415762 -0.05004229 0
-0.81191218 2.5395586 0.47369605 0
-0.80747759 2.5314512 0.66527301 0
-0.33304131 1.6231366 -0.049679816 0
-0.6181066 2.1290729 0.082412206 0
-0.83963442 2.5222425 0.47339246 0
-0.83881366 2.5207856 0.66677457 0
-0.35347837 1.6192313 -0.049920939 0
-0.61495245 2.0699327 0.080523349 0
-0.86971509 2.5090654 0.47402218 0
-0.86071718 2.4935558 0.6635173 0
-0.37169325 1.6112666 -0.050005753 0
-0.61757529 2.0230577 0.079128601 0
-0.89117038 2.4812615 0.4716635 0
-0.88823056 2.4763379 0.66329223 0
-0.38259232 1.5912727 -0.049596775 0
-0.61386383 1.9677434 0.077370793 0
-0.91147995 2.4522116 0.46907976 0
-0.91229367 2.4535365 0.66149688 0
-0.40730333 1.5936745 -0.050136074 0
-0.61472774 1.9219846 0.076000512 0
-0.93867862 2.434732 0.46899796 0
-0.93446457 2.428062 0.65897155 0
-0.42607355 1.5862265 -0.050273661 0
-0.612818 1.8737228 0.074512884 0
-0.95883918 2.4064283 0.4666611 0
-0.9579612 2.4050765 0.65726739 0
-0.44012702 1.5715326 -0.050111484 0
-0.62138891 1.8430424 0.073766381 0
-0.97696579 2.3756564 0.46382415 0
-0.98530102 2.3881419 0.65749532 0
-0.45376194 1.5564253 -0.049937632 0
-0.61630344 1.793378 0.072196163 0
-0.99421966 2.3443038 0.46088526 0
-1.0015609 2.3550057 0.65281886 0
-0.46561688 1.5389994 -0.049668431 0
-0.61883271 1.7564365 0.071164839 0
-1.0205426 2.326525 0.46096265 0
-1.0246843 2.3324027 0.65145171 0
-0.49209893 1.5421047 -0.050308101 0
-0.6150465 1.7120022 0.069795273 0
-0.61558557 1.7127471 0.19813763 0
-1.044795 2.3058579 0.46047121 0
-1.0408118 2.3003538 0.6471886 0
-0.080344215 0.97311389 0.44372413 0
-0.50397974 1.5247972 -0.050060634 0
-0.61879814 1.6793264 0.068933718 0
-0.61500704 1.674224 0.19476219 0
-1.0593257 2.2722135 0.45712766 0
-1.0633059 2.2775705 0.64589477 0
-0.089972153 0.96760207 0.44434884 0
-0.51772118 1.5102117 -0.049939685 0
-0.61585033 1.6388637 0.067716308 0
-0.60985982 1.6310097 0.1907191 0
-1.0774827 2.2440848 0.45504433 0
-1.0831094 2.2514617 0.64361185 0
-0.096999422 0.95862591 0.4428755 0
-0.53716546 1.5030441 -0.050161675 0
-0.62259531 1.6121694 0.067109443 0
-0.61391675 1.6010836 0.18844078 0
-1.0962795 2.2172375 0.45328584 0
-1.0998982 2.2218597 0.64025491 0
-0.11403622 0.96255308 0.44964266 0
-0.54733068 1.4840714 -0.049856462 0
-0.6158427 1.5693519 0.065761909 0
-0.61492169 1.5682055 0.18573938 0
-1.1055818 2.1789556 0.44891879 0
-1.1096605 2.1840327 0.63424087 0
-0.12676348 0.96056932 0.45282197 0
-0.56970131 1.480239 -0.05025446 0
-0.6148535 1.5350151 0.064788781 0
-0.61796927 1.5387951 0.18349455 0
-1.1258774 2.1549611 0.4478727 0
-1.1343981 2.165298 0.63451719 0
-0.13530709 0.95325583 0.4526819 0
-0.57539725 1.4562495 -0.049727347 0
-0.61926496 1.5081226 0.064152725 0
-0.62273932 1.512231 0.18163165 0
-1.1489657 2.1344879 0.44770712 0
-1.143452 2.1279678 0.62868667 0
-0.15605415 0.96038097 0.46207166 0
-0.58923161 1.4422041 -0.049667805 0
-0.61352551 1.4702084 0.062991373 0
-0.62097859 1.4787998 0.1787798 0
-1.1602379 2.1004214 0.44436333 0
-1.1542877 2.0935624 0.62381822 0
-0.60823917 1.4340308 -0.049896497 0
-0.63146222 1.4601295 0.063143723 0
-0.63417768 1.4631813 0.17845508 0
-1.1719185 2.0675089 0.44129455 0
-1.1690344 2.0642676 0.62068671 0
-0.62536144 1.423548 -0.050027706 0
-0.6637255 1.4655845 0.064059503 0
-0.65808845 1.4594078 0.17987409 0
-1.1792649 2.0304759 0.43721992 0
-1.1822264 2.0337207 0.61715025 0
-0.63498521 1.4049137 -0.049772341 0
-0.51006609 1.2714506 0.055246018 0
-0.68932366 1.4629686 0.18243361 0
-1.2011088 2.0097573 0.43714982 0
-1.1807369 1.9879922 0.60832429 0
-0.65273964 1.3950053 -0.049951661 0
-0.50418621 1.2402443 0.054292999 0
-0.70659018 1.4511062 0.1827849 0
-1.1987679 1.9638507 0.43085045 0
-1.1982472 1.9633082 0.60682684 0
-0.66734791 1.3817163 -0.049974982 0
-0.50665092 1.2184691 0.053796887 0
-0.75195074 1.4676616 0.18745865 0
-1.2181304 1.9412389 0.43036026 0
-1.2051191 1.9280212 0.60159326 0
-0.68360913 1.370037 -0.050089542 0
-0.53412205 1.2219543 0.054577429 0
-0.77541602 1.4609814 0.1887306 0
-1.2186874 1.900088 0.42517501 0
-1.2190156 1.900413 0.5991078 0
-0.69695652 1.3554263 -0.050065428 0
-0.54333663 1.2070352 0.054440133 0
-0.79856408 1.4535755 0.1899524 0
-1.2242759 1.8647975 0.42144483 0
-1.2261566 1.8666141 0.59438008 0
-0.71226108 1.3426783 -0.050146669 0
-0.56191772 1.2010678 0.054773111 0
-0.83191597 1.4553829 0.19268014 0
-1.2212528 1.8221046 0.41573578 0
-1.227095 1.8276075 0.58768427 0
-0.72978604 1.3318875 -0.050342433 0
-0.87432683 1.4646378 0.069348864 0
-0.87194622 1.4624515 0.19634765 0
-1.2247428 1.7864698 0.41181967 0
-1.2292165 1.7905785 0.58164638 0
-0.24138375 0.88332492 0.38485518 0
-0.73276162 1.3078784 -0.049845293 0
-0.90088224 1.4584271 0.069902197 0
-0.9122659 1.4686209 0.20000291 0
-1.2407427 1.7627652 0.41108522 0
-1.2327404 1.7555993 0.57631707 0
-0.23621751 0.86323309 0.37768221 0
-0.7502526 1.2970031 -0.050055925 0
-0.94065762 1.463235 0.071079746 0
-1.237089 1.7220324 0.40572542 0
-1.237339 1.7222506 0.57156003 0
-0.22779424 0.84087449 0.36893731 0
-0.76406109 1.2827946 -0.050098125 0
-0.97527182 1.4625549 0.071999922 0
-1.2343371 1.683044 0.40075842 0
-1.2378731 1.6860534 0.56563342 0
-0.23635043 0.83366299 0.36967111 0
-0.26050621 0.85422182 0.46134785 0
-0.77163899 1.2633743 -0.049859211 0
-1.0156529 1.465811 0.073178455 0
-1.254679 1.6641097 0.40137032 0
-1.2397906 1.6517581 0.56037885 0
-0.2437584 0.82543874 0.3698287 0
-0.79174042 1.254293 -0.050208975 0
-1.0505637 1.4635702 0.074092008 0
-1.2416787 1.6181005 0.39429864 0
-1.2392881 1.6161675 0.55452597 0
-0.25241154 0.81820673 0.37070313 0
-0.79112184 1.228567 -0.049618736 0
-1.08425 1.4595394 0.074942179 0
-1.249298 1.5895902 0.39216483 0
-1.2397206 1.5820436 0.54918087 0
-0.26680142 0.81542498 0.37464112 0
-0.81019521 1.2184805 -0.049935155 0
-1.1246274 1.4598849 0.076087624 0
-1.2482781 1.5548173 0.38816935 0
-1.2341557 1.5439749 0.54209697 0
-0.25600094 0.79299927 0.36541057 0
-0.2510252 0.78917921 0.43718973 0
-0.81820047 1.199833 -0.049760852 0
-1.1647185 1.4590024 0.077209383 0
-1.262342 1.5320174 0.38770741 0
-1.2404414 1.5156374 0.53900856 0
-0.2680524 0.78836399 0.36822838 0
-0.27430111 0.79303753 0.44763777 0
-0.83535111 1.1879961 -0.050002515 0
-1.2173065 1.4662398 0.078873381 0
-1.2496914 1.4898313 0.38135329 0
-1.2430327 1.4849806 0.5348953 0
-1.2392548 1.4822285 0.69412869 0
-0.26729393 0.7741828 0.36448866 0
-0.27710778 0.7813319 0.44528928 0
-0.84086883 1.1676944 -0.049739394 0
-1.2498369 1.457805 0.079640627 0
-1.2533066 1.4602662 0.37877032 0
-1.2393924 1.4503959 0.52899069 0
-1.2445885 1.4540819 0.69010347 0
-0.27763438 0.76815164 0.36650741 0
-0.27803761 0.76843762 0.44190118 0
-0.86019158 1.1571482 -0.050088651 0
-1.2913438 1.4549067 0.080795318 0
-1.2435168 1.4218769 0.3733536 0
-1.2443643 1.4224622 0.52594304 0
-1.2430389 1.4215468 0.683474 0
-0.28436613 0.75947696 0.44192436 0
-0.87625945 1.1441137 -0.050300691 0
-1.2794869 1.4151524 0.079646312 0
-1.2804111 1.4157737 0.22781247 0
-1.2554389 1.398988 0.37280613 0
-1.2466272 1.3930651 0.52219695 0
-1.2393004 1.3881401 0.67618781 0
-0.28617787 0.74747664 0.43929258 0
-0.87123036 1.1170983 -0.049618039 0
-1.2733693 1.3801154 0.078773007 0
-1.2646497 1.3744123 0.2239442 0
-1.2506081 1.3652285 0.36871529 0
-1.2317227 1.3528765 0.51336133 0
-1.2378408 1.3568782 0.67003536 0
-0.29153526 0.73795158 0.43889293 0
-0.89261591 1.1074553 -0.050073005 0
-1.2837234 1.3562829 0.078622408 0
-1.2860498 1.3577631 0.22490689 0
-1.2573373 1.3394959 0.36721936 0
-1.2395312 1.3281673 0.51161796 0
-1.2382201 1.3273332 0.66481292 0
-0.30030066 0.73061651 0.44058886 0
-0.89827609 1.0877024 -0.049869388 0
-1.2967788 1.334242 0.078599021 0
-1.291571 1.3310201 0.22388205 0
-1.2518164 1.3064253 0.36320606 0
-1.2433338 1.3011774 0.50878006 0
-1.2462717 1.302995 0.66277862 0
-0.91551518 1.0750769 -0.050160088 0
-1.3107911 1.3127909 0.078627281 0
-1.3119287 1.313475 0.22476791 0
-1.2537829 1.2785069 0.36088675 0
-1.2273939 1.2626368 0.50018758 0
-1.2424994 1.2717211 0.6562888 0
-0.92374527 1.0569458 -0.050082732 0
-1.3341957 1.2968006 0.079054922 0
-1.328294 1.2933519 0.22517794 0
-1.2507923 1.2480621 0.35762268 0
-1.2437187 1.2439286 0.50133622 0
-1.2363622 1.2396297 0.64908761 0
-0.92440879 1.0345789 -0.049704712 0
-1.3831514 1.2949617 0.080536723 0
-1.3769017 1.2914144 0.22960082 0
-1.2464137 1.2173492 0.35417384 0
-1.2411741 1.2143753 0.49701038 0
-1.245153 1.2166336 0.64780354 0
-0.94681895 1.0244968 -0.050227292 0
-1.2484149 1.1906973 0.35214248 0
-1.2373927 1.1846232 0.49246293 0
-1.2399591 1.1860375 0.64132643 0
-0.95325685 1.0054518 -0.050104875 0
-1.249455 1.1638488 0.34999704 0
-1.2454011 1.1616809 0.4914659 0
-1.240952 1.1593016 0.63737279 0
-0.96281731 0.98812008 -0.050118521 0
-1.2629097 1.1437726 0.35045671 0
-1.2396334 1.1316997 0.48659921 0
-1.2393669 1.1315614 0.63260525 0
-0.96782792 0.96848643 -0.049959015 0
-1.2710764 1.1209615 0.34989727 0
-1.2378707 1.1042656 0.48301509 0
-1.2407984 1.1057376 0.6291216 0
-0.97190595 0.94852012 -0.049773298 0
-1.2842621 1.1006781 0.35040584 0
-1.251236 1.0845901 0.48384446 0
-1.2349607 1.0766618 0.62308991 0
-0.97677302 0.92906737 -0.049629781 0
-1.2924032 1.0779325 0.3499566 0
-1.2389872 1.0527391 0.47751367 0
-1.2387118 1.0526093 0.62075621 0
-0.99433351 0.91551501 -0.049994852 0
-1.3041788 1.0569103 0.35028738 0
-1.2301751 1.0231394 0.47229576 0
-1.2465582 1.0306157 0.62004459 0
-0.99665427 0.89495373 -0.049769897 0
-1.3132157 1.0346252 0.35012883 0
-1.241792 1.003112 0.47290778 0
-1.2367063 1.0008681 0.61300212 0
-1.0184531 0.88286424 -0.050312161 0
-1.3150879 1.009306 0.34862164 0
-1.2363453 0.97574157 0.46885428 0
-1.239167 0.97694433 0.61058611 0
-1.0227072 0.86313885 -0.050180189 0
-1.3283447 0.98889434 0.34940478 0
-1.2425681 0.9536013 0.46813646 0
-1.2444971 0.954395 0.6093235 0
-1.0271307 0.8435775 -0.050064947 0
-1.3428949 0.96887428 0.35048497 0
-1.2467072 0.93070656 0.46692699 0
-1.2409161 0.92840862 0.60497963 0
-1.0372555 0.8262794 -0.050177608 0
-1.3461758 0.9443804 0.34943289 0
-1.2261455 0.89849252 0.45905545 0
-1.2376683 0.90289772 0.60089201 0
-1.0396838 0.80606151 -0.050005272 0
-1.3545606 0.9219169 0.34942591 0
-1.2351357 0.87797582 0.45936465 0
-1.2394835 0.87957555 0.59873235 0
-1.0498496 0.78870595 -0.050136372 0
-1.3622994 0.89922196 0.34934962 0
-1.2297467 0.852337 0.45585123 0
-1.2438465 0.85732418 0.59758526 0
-1.057606 0.77043122 -0.050184324 0
-1.3777118 0.87914014 0.35078973 0
-1.2296736 0.82886595 0.45387229 0
-1.2353791 0.83080351 0.59203362 0
-1.0574365 0.74953681 -0.049943157 0
-1.3782263 0.85399193 0.34944639 0
-1.2323669 0.8064974 0.45272321 0
-1.2399988 0.80898243 0.59120089 0
-1.0570011 0.72873437 -0.049702849 0
-1.3826077 0.83024156 0.34889871 0
-1.2346399 0.78411293 0.45154172 0
-1.2481164 0.78831416 0.59168625 0
-1.0685534 0.71167773 -0.049919792 0
-1.3912376 0.80783314 0.34920901 0
-1.2419629 0.76335138 0.45178422 0
-1.240557 0.76293242 0.5868181 0
-1.084272 0.69564337 -0.050298579 0
-1.3972687 0.78463674 0.3490839 0
-1.2352921 0.73858243 0.44838357 0
-1.2417133 0.74040818 0.58509266 0
-1.0792164 0.67370403 -0.049915187 0
-1.4074804 0.76258653 0.34979504 0
-1.2286745 0.71417207 0.44509116 0
-1.2381213 0.71672994 0.58183438 0
-1.0765245 0.65264881 -0.049630374 0
-1.4123198 0.73904753 0.34955519 0
-1.2414988 0.69509602 0.44701234 0
-1.244279 0.69581139 0.58203864 0
-1.0924046 0.63632715 -0.050038677 0
-1.4217027 0.71664739 0.35021469 0
-1.2452831 0.67361623 0.44661674 0
-1.239753 0.67226738 0.5786739 0
-1.0934776 0.616292 -0.049910825 0
-1.4270995 0.6932295 0.35018674 0
-1.2534966 0.65319443 0.4474529 0
-1.2485788 0.65206033 0.579979 0
-1.1011659 0.59778404 -0.050034251 0
-1.4394866 0.67133141 0.35150352 0
-1.2335366 0.62656003 0.4409982 0
-1.2305949 0.62592053 0.57223952 0
-1.1067189 0.57874793 -0.050088052 0
-1.4343803 0.64566886 0.3496477 0
-1.2337413 0.60469073 0.43989837 0
-1.2409961 0.60617244 0.57427037 0
-1.1055632 0.55838758 -0.0499066 0
-1.4475365 0.62375724 0.35120901 0
-1.230737 0.58231509 0.43803924 0
-1.2453581 0.58510995 0.57433504 0
-1.1159822 0.54021591 -0.0501546 0
-1.454302 0.60048193 0.35164672 0
-1.2378498 0.56192458 0.43887925 0
-1.2418518 0.56263745 0.57183033 0
-1.1051638 0.51835597 -0.049641907 0
-1.4460871 0.5746665 0.34939888 0
-1.2426534 0.54106522 0.43918684 0
-1.2372252 0.54016858 0.56904864 0
