# .PCD v0.7 - Point Cloud Data file format
VERSION 0.7
FIELDS x y z intensity
SIZE 4 4 4 4
TYPE F F F F
COUNT 1 1 1 1
WIDTH 1355
HEIGHT 1
VIEWPOINT 0 0 0 1 0 0 0
POINTS 1355
DATA ascii
-1.2431655 -0.1893516 0.44892141 0
-1.2333245 -0.18668701 0.58018106 0
-1.0800195 -0.16569014 -0.050140742 0
-0.70162356 -0.058101933 0.048096076 0
-0.69036424 -0.054900628 0.13146111 0
-1.2298841 -0.20830069 0.31769982 0
-1.2468088 -0.21311282 0.45143831 0
-1.2404189 -0.21129601 0.58464491 0
-1.0694554 -0.18320237 -0.04995339 0
-0.77550817 -0.095610179 0.05100308 0
-0.77593756 -0.09573815 0.14151803 0
-1.2451476 -0.23555623 0.32171696 0
-1.23664 -0.23302107 0.45036718 0
-1.2381349 -0.23346652 0.58597726 0
-1.0652502 -0.2025619 -0.050011329 0
-0.87153864 -0.14217268 0.054767311 0
-0.88662279 -0.14687516 0.15449913 0
-1.2336808 -0.25506982 0.32076505 0
-1.2403141 -0.25713769 0.45305809 0
-1.2428436 -0.25792632 0.58984882 0
-1.0627205 -0.22251324 -0.050141554 0
-0.99349153 -0.19997101 0.059542265 0
-0.98652613 -0.19770293 0.16638759 0
-1.2396978 -0.28014031 0.32317185 0
-1.2285469 -0.27650937 0.45169821 0
-1.259786 -0.28668138 0.59812415 0
-1.0471212 -0.23812644 -0.049789011 0
-1.1274399 -0.26540288 0.064817332 0
-1.1348205 -0.26790938 0.18389173 0
-1.2420626 -0.30432913 0.32495335 0
-1.2376109 -0.30281731 0.45601094 0
-1.046679 -0.25884035 -0.050016306 0
-1.3019512 -0.34913215 0.20372178 0
-1.239866 -0.32717219 0.32592836 0
-1.2370299 -0.32616898 0.45782223 0
-1.0296987 -0.2736434 -0.049625423 0
-1.2484844 -0.35414323 0.19849946 0
-1.2451746 -0.35292545 0.32840532 0
-1.2458268 -0.35316536 0.46227106 0
-1.0338272 -0.29622462 -0.050046574 0
-1.2527506 -0.37991962 0.19990169 0
-1.250067 -0.37889364 0.33087629 0
-1.2436153 -0.37642714 0.46382719 0
-1.0219954 -0.31279567 -0.049867705 0
-1.2379829 -0.39850053 0.19914763 0
-1.2413881 -0.39985177 0.33078977 0
-1.2406222 -0.39954779 0.46525672 0
-1.0199115 -0.33324441 -0.05007226 0
-1.253172 -0.42922023 0.2018981 0
-1.2392528 -0.42349306 0.33203024 0
-1.233693 -0.42120549 0.46568796 0
-1.0023751 -0.34726676 -0.049688179 0
-1.2536743 -0.454384 0.20299263 0
-1.2390888 -0.44816682 0.33372205 0
-1.2393099 -0.44826111 0.46967649 0
-0.99928355 -0.36736974 -0.049872499 0
-1.2443769 -0.47550836 0.20297928 0
-1.2433609 -0.47506008 0.33635885 0
-1.2387993 -0.47304741 0.47207326 0
-0.99706519 -0.38801745 -0.050102051 0
-1.2311177 -0.49482539 0.20252918 0
-1.241924 -0.49975672 0.33794603 0
-1.2356259 -0.49688259 0.47382435 0
-0.99347746 -0.40820178 -0.05028915 0
-1.2416271 -0.52524012 0.20492944 0
-1.2432516 -0.52600634 0.34015569 0
-1.2472306 -0.52788299 0.479839 0
-0.97159374 -0.41962394 -0.0497609 0
-1.5012454 -0.67763281 0.082794361 0
-1.2415391 -0.55112231 0.20612331 0
-1.2378075 -0.54930454 0.34108666 0
-1.2459141 -0.55325341 0.48233414 0
-0.96928537 -0.44047508 -0.050017253 0
-1.4469135 -0.68062931 0.081103347 0
-1.2373492 -0.57525915 0.20687041 0
-1.2437767 -0.57849097 0.34438646 0
-1.2400472 -0.57661581 0.48363665 0
-0.96023452 -0.45803633 -0.050014649 0
-1.3954442 -0.68377173 0.079517886 0
-1.2486984 -0.60765737 0.20954032 0
-1.2460239 -0.60627019 0.34702614 0
-0.95119357 -0.47560427 -0.050021343 0
-1.3494164 -0.68856072 0.078143626 0
-1.2433349 -0.63183182 0.21024105 0
-1.2380241 -0.62899184 0.34765926 0
-0.94352913 -0.49393973 -0.050093189 0
-1.3059016 -0.69363242 0.076864675 0
-1.2308626 -0.65228069 0.21011157 0
-1.2471001 -0.66122866 0.35187173 0
-0.93120313 -0.50969124 -0.049983628 0
-1.2635894 -0.69835401 0.075628541 0
-1.2335294 -0.68129194 0.21188369 0
-1.2366229 -0.68304777 0.3521435 0
-0.91911352 -0.52549499 -0.049891207 0
-1.2554072 -0.72201484 0.075797006 0
-1.2422863 -0.71434736 0.21447223 0
-1.2383387 -0.71204048 0.35502133 0
-0.91275585 -0.54467332 -0.050045133 0
-1.2600195 -0.7535134 0.076512143 0
-1.2354866 -0.73875958 0.21518159 0
-1.2375568 -0.7400046 0.357472 0
-0.90509081 -0.56317425 -0.050155476 0
-1.2541127 -0.77910179 0.076807842 0
-1.2438823 -0.77277261 0.21785545 0
-1.2417012 -0.77142328 0.36106092 0
-0.88288903 -0.57252276 -0.04966142 0
-1.2459915 -0.80353326 0.077025808 0
-1.2412616 -0.80052406 0.21920197 0
-1.2314476 -0.79428023 0.36168528 0
-0.87492514 -0.59077072 -0.049775656 0
-1.2518051 -0.83726722 0.077853099 0
-1.2424228 -0.8311308 0.22108994 0
-1.2418973 -0.83078712 0.36683816 0
-0.86947787 -0.61081117 -0.050008971 0
-1.2338651 -0.85574251 0.077683806 0
-1.2358568 -0.85708135 0.22204307 0
-1.2405721 -0.86025077 0.3695755 0
-0.85353255 -0.62380534 -0.049799733 0
-1.239468 -0.89033657 0.07854455 0
-1.2472206 -0.89569062 0.22538877 0
-1.2306243 -0.884229 0.37052786 0
-0.85117042 -0.646258 -0.050190311 0
-1.240363 -0.92234021 0.079225935 0
-1.2410581 -0.92283338 0.22651893 0
-1.6059505 -1.1816778 0.45674598 0
-0.83802474 -0.66119975 -0.050120611 0
-1.239787 -0.95387203 0.079866342 0
-1.2400781 -0.9540841 0.22839381 0
-1.5706092 -1.1948665 0.452959 0
-0.81574786 -0.6692546 -0.049651515 0
-1.23831 -0.98529917 0.080490261 0
-1.2401153 -0.98664933 0.23047552 0
-0.8132149 -0.69205463 -0.050071068 0
-1.2477049 -1.0256331 0.081627302 0
-1.2307214 -1.012594 0.23135492 0
-0.79869926 -0.70579356 -0.049963154 0
-1.1577926 -0.98874372 0.078284882 0
-1.1668637 -0.99589139 0.22483568 0
-1.1608176 -0.99112731 0.371849 0
-0.79405653 -0.72742158 -0.050315317 0
-1.1575215 -1.021309 0.079002626 0
-1.1326352 -1.0011867 0.22231571 0
-1.1369064 -1.0046403 0.36999899 0
-0.77117288 -0.73424357 -0.049837589 0
-1.2415782 -1.1244969 0.083658606 0
-1.2364035 -1.120204 0.23904815 0
-1.3305243 -1.1982877 0.41914332 0
-0.75788474 -0.7487939 -0.049808573 0
-1.2390634 -1.1583222 0.084366769 0
-1.2324193 -1.1526674 0.24096482 0
-1.3202039 -1.2273805 0.42109382 0
-1.0294728 -0.97994095 0.49581385 0
-0.75368202 -0.77125305 -0.050218455 0
-1.283306 -1.2336376 0.41679019 0
-0.99525523 -0.98215693 0.4895705 0
-0.73543942 -0.78153211 -0.049973622 0
-1.195804 -1.1937793 0.084035844 0
-1.1972519 -1.1950759 0.24111517 0
-1.1938733 -1.1920503 0.39973861 0
-0.97148132 -0.99290293 0.48684251 0
-0.72705472 -0.8006348 -0.050210036 0
-0.92967618 -0.98672813 0.47788331 0
-0.70912611 -0.81098133 -0.049992915 0
-0.89079928 -0.98210186 0.46981645 0
-0.6904093 -0.82035786 -0.049740441 0
-0.85332453 -0.97772795 0.46212772 0
-0.68515003 -0.84281915 -0.050166976 0
-0.84250808 -0.99869889 0.46389636 0
-0.66839361 -0.85403436 -0.050028201 0
-0.81759727 -1.0056056 0.46065733 0
-0.65444529 -0.86803812 -0.050039597 0
-0.63922393 -0.88069814 -0.049993794 0
-0.62217021 -0.89130706 -0.049858689 0
-0.61032414 -0.90762979 -0.050008472 0
-0.59629238 -0.92159909 -0.050052486 0
-0.58316028 -0.93668514 -0.050156556 0
-0.5657022 -0.94664341 -0.050029993 0
-0.54830784 -0.95654351 -0.049912162 0
-0.53818893 -0.97560722 -0.050220951 0
-0.52510512 -0.99114817 -0.050374359 0
-0.49934071 -0.98980957 -0.049782939 0
-0.48549211 -1.0042309 -0.049905766 0
-0.46810126 -1.013781 -0.049822416 0
-0.44996375 -1.0221441 -0.049697913 0
-0.43821591 -1.0399257 -0.049988601 0
-0.42836791 -1.0610143 -0.050424032 0
-0.36948925 -0.97036976 0.49584541 0
-0.40686947 -1.0642437 -0.050107073 0
-0.35269785 -0.97850126 0.49510983 0
-0.38572174 -1.0676227 -0.04981022 0
-0.33403361 -0.98348325 0.49323305 0
-0.3674053 -1.0753411 -0.049707144 0
-0.31360805 -0.98524421 0.49021363 0
-0.35406643 -1.0915008 -0.049962778 0
-0.2903406 -0.98165709 0.48525846 0
-0.33504009 -1.0979398 -0.049825184 0
-0.27929205 -0.99899787 0.48844233 0
-0.32006335 -1.111587 -0.04999163 0
-0.25502396 -0.99267823 0.48268503 0
-0.29750019 -1.1111966 -0.049597252 0
-0.2263111 -0.9770599 0.47357932 0
-0.28208357 -1.1240904 -0.049750265 0
-0.20685865 -0.9779343 0.47083923 0
-0.26987517 -1.143664 -0.050176591 0
-0.18208314 -0.96767992 0.46407005 0
-0.24558659 -1.1389374 -0.049642909 0
-0.16779979 -0.97796661 0.4650476 0
-0.23274507 -1.1577998 -0.050054215 0
-0.14635475 -0.97312504 0.46052906 0
-0.21498705 -1.1665093 -0.050071668 0
-0.12959541 -0.97781485 0.45961571 0
-0.19565637 -1.1716623 -0.049959179 0
-0.11331327 -0.98342973 0.45912018 0
-0.17563148 -1.1749766 -0.04978548 0
-0.10272326 -1.0024266 0.46353474 0
-0.15698798 -1.1813623 -0.049740836 0
-0.068955079 -0.96547478 0.34485751 0
-0.084967032 -1.0047418 0.46198115 0
-0.14102496 -1.1944882 -0.049964011 0
-0.056341156 -0.97909623 0.34688735 0
-0.068716183 -1.0105718 0.46177188 0
-0.12077142 -1.1967375 -0.049778596 0
-0.028507305 -0.95310014 0.14590856 0
-0.030005051 -0.95705515 0.2415491 0
-0.01437409 -0.91577917 0.32796118 0
-0.050388113 -1.0108796 0.45967203 0
-0.10335369 -1.2063971 -0.04988531 0
-0.01094423 -0.95277888 0.14521886 0
-0.0095502269 -0.94895309 0.2388946 0
0.0031612383 -0.91406637 0.32599348 0
-0.083888307 -1.2104459 -0.049787637 0
0.011730568 -0.93737847 0.14284042 0
0.0052016838 -0.95602363 0.23920038 0
0.020871418 -0.91127414 0.32380247 0
-0.0051379041 -0.9855513 0.44659972 0
-0.067000076 -1.2219565 -0.049980663 0
0.018293308 -0.96817642 0.14574224 0
0.023061471 -0.95398921 0.23780797 0
0.025191443 -0.94765168 0.33222362 0
0.0151753 -0.97745365 0.44185811 0
-0.049641714 -1.2324618 -0.050143193 0
0.033723161 -0.973674 0.14578509 0
0.036940351 -0.963687 0.23868687 0
0.021945016 -1.0102366 0.34765005 0
0.021491991 -1.0116429 0.45200592 0
-0.031385854 -1.2404557 -0.050219458 0
0.025578963 -1.055681 0.35842952 0
-0.011382712 -1.2427192 -0.050090734 0
0.065724775 -0.98094541 0.33721706 0
0.0073045059 -1.2493429 -0.050133511 0
0.085398391 -0.97135299 0.33347717 0
0.026786285 -1.253124 -0.050079811 0
0.10016795 -0.97868246 0.33428437 0
0.045238689 -1.2608175 -0.050179441 0
0.11466433 -0.98742169 0.33550912 0
0.06663622 -1.256583 -0.04984932 0
0.083631232 -1.2706811 -0.050201215 0
0.10520859 -1.2645762 -0.049822368 0
0.12395103 -1.2712377 -0.049919277 0
0.14542036 -1.2637733 -0.049511403 0
-0.064815179 -2.3827069 0.10215777 0
0.16350202 -1.2740278 -0.049756423 0
0.0016674565 -2.1994143 0.09529531 0
0.18152253 -1.2857608 -0.050062653 0
0.032206431 -2.2078383 0.095410831 0
0.20371589 -1.2709814 -0.049419537 0
0.06472294 -2.2035801 0.095082261 0
0.22133151 -1.2864767 -0.049878418 0
0.09686254 -2.2004094 0.094808199 0
0.23976676 -1.2979976 -0.050201602 0
0.12893872 -2.1962144 0.094512284 0
0.26066548 -1.2893511 -0.049808294 0
0.15939079 -2.2048481 0.094692089 0
0.28050026 -1.2887574 -0.049713787 0
0.19073798 -2.2056904 0.094605953 0
0.29915082 -1.3013153 -0.050099559 0
0.22297163 -2.1954706 0.094137691 0
0.31884465 -1.3032937 -0.050114699 0
0.25393632 -2.1982498 0.094149701 0
0.33827859 -1.3098425 -0.050302159 0
0.28522936 -2.1957695 0.093987547 0
0.35828942 -1.3070512 -0.050164431 0
0.31626448 -2.1964285 0.093951784 0
0.37846777 -1.296708 -0.049765997 0
0.34695119 -2.2065594 0.094268344 0
0.39798075 -1.3039446 -0.050004523 0
0.37806988 -2.2074461 0.094268516 0
0.41774073 -1.3031701 -0.049965769 0
0.43748739 -1.3058456 -0.050059076 0
0.45718038 -1.3007323 -0.049883164 0
0.47711292 -1.3083409 -0.050170425 0
0.49668223 -1.3020494 -0.049970128 0
0.51585996 -1.2910304 -0.049609482 0
0.53620368 -1.301428 -0.050023451 0
0.55594522 -1.3004346 -0.050039064 0
0.57577044 -1.3002011 -0.050090842 0
0.59476328 -1.2916007 -0.049851321 0
0.61593413 -1.3030425 -0.050340448 0
0.63411367 -1.2887313 -0.049912836 0
0.65429479 -1.2905697 -0.050075099 0
0.6739217 -1.2880781 -0.050090414 0
0.69318146 -1.2833221 -0.050032716 0
0.71259987 -1.2796515 -0.05002306 0
0.73210323 -1.2764374 -0.050038867 0
0.7512477 -1.2714231 -0.049998015 0
0.77019584 -1.2656386 -0.049937695 0
0.78964061 -1.26215 -0.049970113 0
0.80958396 -1.2605698 -0.050081808 0
0.82744998 -1.2506951 -0.049897101 0
0.84858161 -1.2532133 -0.050178833 0
0.86436838 -1.2364254 -0.049754243 0
0.88912004 -1.2504072 -0.050482772 0
0.90365171 -1.2302457 -0.049947765 0
0.9222216 -1.2235518 -0.049923573 0
0.94125766 -1.2182595 -0.04996099 0
0.95876944 -1.2086127 -0.049842555 0
0.97517073 -1.1962078 -0.049626905 0
0.99876893 -1.2028656 -0.050147574 0
0.92483556 -1.0112854 0.46091044 0
1.0185415 -1.198974 -0.050276566 0
0.94156098 -1.0067396 0.46153897 0
1.0324693 -1.1807575 -0.049862102 0
0.9591276 -1.0040889 0.46292919 0
1.0533372 -1.1794143 -0.050107904 0
0.97545755 -0.99828905 0.46326631 0
1.074167 -1.1775509 -0.050345007 0
0.98956144 -0.98741668 0.46183294 0
1.0881784 -1.1604621 -0.049995415 0
1.0074607 -0.98504585 0.46356955 0
1.1036053 -1.1469172 -0.049790766 0
1.0236882 -0.97884625 0.46398893 0
1.120558 -1.1368002 -0.049728889 0
1.0424155 -0.97765964 0.46634442 0
1.1382071 -1.1281466 -0.049733717 0
1.0629276 -0.97959441 0.46996683 0
1.1612672 -1.1298316 -0.050163969 0
1.0766926 -0.96802264 0.46863949 0
1.1794142 -1.121752 -0.050212897 0
1.1060024 -0.98550683 0.47834906 0
1.1990163 -1.1162161 -0.050375331 0
1.1295733 -0.99113399 0.057267696 0
1.1293813 -0.99078816 0.16028532 0
1.1312697 -0.99418956 0.26561427 0
1.1330383 -0.99737507 0.37419543 0
1.1278955 -0.98811167 0.48260474 0
1.2120895 -1.0990237 -0.05006969 0
1.1408722 -0.97446769 0.056947321 0
1.1377476 -0.9690029 0.15868692 0
1.1386484 -0.97057825 0.26255754 0
1.150471 -0.99125558 0.37501848 0
1.1488671 -0.98845047 0.486128 0
1.2273673 -1.0859959 -0.049941089 0
1.1572187 -0.96681708 0.057003919 0
1.1606154 -0.97258788 0.16025347 0
1.1610214 -0.97327763 0.26500347 0
1.1612868 -0.9737286 0.37253529 0
1.1630768 -0.97676963 0.48513889 0
1.2447042 -1.0765369 -0.049968459 0
1.262748 -1.0681698 -0.050051127 0
1.2790905 -1.0570333 -0.05002664 0
1.2893779 -1.036728 -0.049618766 0
1.3123833 -1.035723 -0.050044965 0
1.3253037 -1.0196807 -0.049833599 0
1.3462825 -1.0151742 -0.0501335 0
1.3570325 -0.99635571 -0.049814221 0
1.3722976 -0.98390371 -0.049782421 0
1.39598 -0.9823758 -0.050251819 0
1.4158201 -0.97546524 -0.05049419 0
1.2042292 -0.70866555 0.050337248 0
1.2078942 -0.71328676 0.14009944 0
1.4232433 -0.95302063 -0.050035484 0
1.2050979 -0.68495935 0.049696866 0
1.2069738 -0.6872645 0.13785726 0
1.4369887 -0.93864805 -0.049951673 0
1.2097201 -0.66644967 0.049291909 0
1.2050151 -0.6608144 0.13552989 0
1.455856 -0.93034118 -0.050160185 0
1.2064899 -0.63920772 0.048474804 0
1.2070354 -0.63984466 0.13394929 0
1.469065 -0.91536683 -0.05006538 0
1.2120001 -0.62278342 0.04816078 0
1.2089673 -0.6193316 0.13242008 0
1.481239 -0.89933914 -0.049926817 0
1.2138383 -0.60261172 0.047666393 0
1.210883 -0.59933227 0.13095123 0
1.5042017 -0.89512378 -0.050368302 0
1.5114073 -0.87382752 -0.049988996 0
1.5218552 -0.85624617 -0.049794476 0
1.5363669 -0.84293121 -0.049819157 0
1.5546275 -0.83325475 -0.050039195 0
1.5661048 -0.81688899 -0.049927972 0
1.5793282 -0.80225033 -0.049913287 0
1.591084 -0.78629047 -0.049836978 0
1.5986321 -0.7666778 -0.049570624 0
1.6278225 -0.76596481 -0.050338946 0
1.6314973 -0.74309939 -0.049909763 0
1.6487371 -0.73173136 -0.050124325 0
1.651956 -0.70897412 -0.049702846 0
1.6687719 -0.69716525 -0.049913477 0
1.6877202 -0.68678188 -0.050224315 0
1.6929976 -0.66603106 -0.049931481 0
1.6906204 -0.64002812 -0.049316265 0
1.71478 -0.63312525 -0.049877189 0
1.7282079 -0.61842787 -0.04997348 0
1.7402802 -0.60274631 -0.050018862 0
1.755483 -0.5890426 -0.050205309 0
1.7590483 -0.56787848 -0.049907114 0
1.767509 -0.54994309 -0.049827099 0
1.7788163 -0.53375739 -0.049875244 0
1.8009028 -0.52373713 -0.050375558 0
1.7972127 -0.49889198 -0.049823131 0
1.8109969 -0.48397323 -0.049997076 0
1.8206986 -0.4667621 -0.050012749 0
1.828053 -0.44833615 -0.049942937 0
1.840282 -0.43237433 -0.05007701 0
1.8489593 -0.41460165 -0.050077647 0
1.8550713 -0.3956348 -0.049986146 0
1.867883 -0.37974176 -0.050166707 0
1.8694011 -0.35880831 -0.04991461 0
1.8753159 -0.33990571 -0.049844246 0
1.8927226 -0.32569727 -0.050225936 0
1.8883076 -0.30269626 -0.04977655 0
1.9071398 -0.28875044 -0.050226774 0
1.900027 -0.26510271 -0.049696926 0
1.9137779 -0.24907927 -0.049968999 0
1.9278688 -0.23296343 -0.050260335 0
1.9274617 -0.21200858 -0.050014883 0
1.9313504 -0.19254096 -0.049940567 0
1.9441525 -0.17571981 -0.050207093 0
1.950946 -0.15703271 -0.050257932 0
1.9502101 -0.13631739 -0.050039276 0
1.9517498 -0.11632807 -0.049914688 0
1.9598837 -0.097990312 -0.050041676 0
1.9587069 -0.077472068 -0.049836125 0
1.9747171 -0.060721856 -0.050267641 0
1.9872385 -0.042968523 -0.05057881 0
1.9742171 -0.020272713 -0.049970049 0
1.9701033 0.00046168701 -0.049695637 0
1.9750073 0.019572098 -0.049757194 0
1.9877385 0.037588138 -0.050109725 0
1.9862958 0.057743121 -0.049959365 0
1.9888268 0.077316843 -0.04996125 0
1.9885769 0.097193815 -0.049872138 0
1.9890692 0.11694048 -0.049818732 0
1.9972984 0.13601784 -0.050051432 0
1.9915203 0.15623447 -0.049791254 0
1.9977748 0.17558792 -0.049970638 0
2.0019095 0.19516462 -0.050082881 0
1.9953183 0.21516141 -0.049820766 0
2.009506 0.23458391 -0.05030968 0
1.9976512 0.25451836 -0.049877506 0
1.9985832 0.27423164 -0.04991078 0
1.9988694 0.29395929 -0.049929868 0
1.9964557 0.31361854 -0.049861394 0
1.9977561 0.33339635 -0.049934454 0
1.9927913 0.35287353 -0.049792435 0
1.9954427 0.37278175 -0.049931627 0
2.0047472 0.39333731 -0.050318256 0
1.9875631 0.411661 -0.049764719 0
1.9953641 0.43227956 -0.050115842 0
1.9862859 0.45112193 -0.049869884 0
1.9793831 0.47008172 -0.0497104 0
1.9829813 0.4904623 -0.049938094 0
1.9760071 0.50933075 -0.049793337 0
1.9762336 0.52933466 -0.049917698 0
1.9827617 0.55059445 -0.050280262 0
1.9707474 0.5684526 -0.049978659 0
1.973182 0.58914238 -0.050211631 0
1.9633545 0.60725719 -0.050006159 0
1.9504899 0.62450576 -0.049696993 0
1.9547501 0.64582402 -0.050025117 0
1.9584231 0.66722989 -0.050342545 0
1.9376651 0.68209094 -0.049765863 0
1.9363669 0.70219725 -0.049917597 0
1.9196135 0.7177071 -0.049502507 0
1.9174582 0.73756492 -0.049640048 0
1.9197369 0.75900292 -0.049954373 0
1.913944 0.77788097 -0.049975272 0
1.9071163 0.79640466 -0.049965989 0
1.8952025 0.81301689 -0.049771603 0
1.881295 0.82870871 -0.049507868 0
1.8909601 0.85372919 -0.050158069 0
1.8821889 0.87152851 -0.050110273 0
1.8701938 0.88789624 -0.049945455 0
1.8617098 0.90571564 -0.049925141 0
1.8544781 0.92410368 -0.0499628 0
1.8541173 0.94581831 -0.050281856 0
1.8320829 0.9570604 -0.049750399 0
1.8377302 0.98202258 -0.050330874 0
1.8205185 0.99541134 -0.050005481 0
1.8155631 1.0151963 -0.050182566 0
1.7978524 1.0279939 -0.049849294 0
1.7899135 1.046152 -0.049922809 0
1.7778422 1.061924 -0.04983481 0
1.7622408 1.0754737 -0.049606785 0
1.7667209 1.1014364 -0.050230481 0
1.7532684 1.116358 -0.050111219 0
1.7304074 1.1249441 -0.049595948 0
1.7366917 1.1529524 -0.050339986 0
1.7152197 1.1621771 -0.049896348 0
1.7031276 1.1777633 -0.049866188 0
1.6915749 1.1937251 -0.049868353 0
1.6878027 1.2155886 -0.050228015 0
1.6706975 1.227407 -0.050000563 0
1.6476867 1.2343105 -0.049507827 0
1.6458149 1.2580822 -0.049989473 0
1.6324301 1.2726274 -0.04995326 0
1.6211094 1.2889222 -0.050022524 0
1.6034142 1.2996502 -0.049798518 0
1.5923659 1.316197 -0.049898759 0
1.5807045 1.3322744 -0.049980387 0
1.5698543 1.3492097 -0.050112963 0
1.5527741 1.3601857 -0.049946625 0
1.5340648 1.3693659 -0.049702741 0
1.5250294 1.3882557 -0.049957052 0
1.5167733 1.4082329 -0.050267477 0
1.0257515 0.89020604 0.29288295 0
1.4930432 1.4117949 -0.049781375 0
1.0435483 0.92545795 0.30549181 0
1.488772 1.4364426 -0.050328556 0
1.4405848 1.3829705 0.059758741 0
1.4373537 1.379385 0.16730778 0
1.4411083 1.3835515 0.2777088 0
1.0505579 0.95016766 0.31313616 0
1.4656607 1.4402363 -0.049881242 0
1.4145186 1.382028 0.059114978 0
1.4138069 1.3812181 0.16577272 0
1.4160446 1.3837649 0.27473268 0
1.0604254 0.97900969 0.32248715 0
1.4557691 1.458984 -0.05015542 0
1.3938969 1.3867487 0.058759838 0
1.3945469 1.3875074 0.16492692 0
1.3908809 1.3832275 0.27168551 0
1.0541714 0.99012083 0.32391605 0
1.4447213 1.4766536 -0.050382409 0
1.3691812 1.3861794 0.058174524 0
1.3645464 1.3806286 0.16228046 0
1.3671285 1.383721 0.2689873 0
1.0532113 1.0077441 0.32818678 0
1.4260495 1.4852132 -0.050194204 0
1.3338207 1.3718805 0.056977611 0
1.3463773 1.3873103 0.16159254 0
1.3434004 1.3836522 0.26625574 0
1.0619166 1.0377594 0.33773461 0
1.4151868 1.5034108 -0.050457805 0
1.3193948 1.3826245 0.056954078 0
1.3189762 1.3820966 0.15931138 0
1.3150201 1.3771083 0.26212999 0
1.0636055 1.060094 0.34387943 0
1.3927277 1.5069114 -0.050061934 0
1.29635 1.3821926 0.26077637 0
1.046997 1.0595143 0.34032133 0
1.3850601 1.5296003 -0.050539978 0
1.2722075 1.3796982 0.25777802 0
1.0423545 1.0743848 0.34331831 0
1.354975 1.5222939 -0.049689997 0
1.2559417 1.3872423 0.25712052 0
1.0292011 1.078036 0.34168342 0
1.3386221 1.5331912 -0.049662903 0
1.2455622 1.4028758 0.25830725 0
1.0261976 1.0956907 0.34585604 0
1.3264493 1.5500727 -0.049905252 0
0.95264459 1.0124317 0.038527373 0
1.2437928 1.4311883 0.26229748 0
1.0227399 1.1132493 0.3499687 0
1.3147148 1.5679123 -0.050193481 0
0.95314449 1.0336386 0.03916182 0
1.2436888 1.462961 0.26701221 0
1.0053343 1.1107568 0.34600914 0
1.2909983 1.5679327 -0.049723946 0
0.93899345 1.0334152 0.038874663 0
1.2380658 1.4875551 0.27013817 0
1.170258 1.3845892 0.34821096 0
0.99106681 1.1124883 0.34385264 0
1.2782446 1.5844573 -0.04997066 0
1.2433876 1.5300477 0.059663735 0
1.150429 1.3849455 0.34553134 0
0.98284847 1.1233633 0.34539741 0
1.2553525 1.5850435 -0.049551819 0
1.2461295 1.5702401 0.060929138 0
1.125479 1.376587 0.3403284 0
0.98080981 1.1443821 0.35094705 0
1.2413334 1.5997157 -0.049736165 0
1.1091599 1.3814924 0.33921543 0
0.96757007 1.1477222 0.34958825 0
0.83793485 0.93368977 0.47006869 0
1.2230715 1.6074418 -0.049638744 0
1.0881174 1.3781614 0.33573335 0
0.95680892 1.1550748 0.34985304 0
0.83503467 0.9481864 0.47656855 0
1.2166839 1.6358033 -0.050400145 0
1.0712979 1.3815293 0.33432317 0
0.94015872 1.1521722 0.3462379 0
0.85012907 0.9947139 0.35432652 0
0.84003097 0.97705275 0.41675484 0
0.83706218 0.97186053 0.48931631 0
1.189274 1.6274121 -0.049658764 0
1.0516936 1.3795993 0.33143887 0
0.93556309 1.1704228 0.35077742 0
0.84961766 1.0156163 0.36176258 0
0.83605582 0.99118841 0.42194048 0
0.83914185 0.99674708 0.50278032 0
1.1711053 1.6350758 -0.049587537 0
1.0356166 1.3836216 0.33037084 0
0.92640418 1.1809334 0.35238305 0
0.84595585 1.0316287 0.36685163 0
0.84026307 1.0210634 0.43606505 0
0.84122235 1.0228438 0.51695085 0
1.1585349 1.6533486 -0.049953394 0
1.0156031 1.37989 0.3271361 0
0.91046041 1.1787298 0.34924874 0
0.85132384 1.0655891 0.38031384 0
0.83584785 1.0359803 0.44162211 0
0.83805734 1.0402074 0.52516687 0
1.1396692 1.6597761 -0.049849194 0
1.0944318 1.5705072 0.2700792 0
1.0016515 1.3874199 0.32721534 0
0.90257168 1.1919012 0.35194403 0
0.85182935 1.0917692 0.39004767 0
0.8404299 1.0692742 0.45748314 0
0.84019297 1.0688066 0.54082721 0
1.1263919 1.6774253 -0.050201431 0
1.0747684 1.572292 0.26878414 0
0.98635244 1.3922291 0.32657081 0
0.88320988 1.182175 0.34617281 0
0.84585708 1.1061045 0.39425501 0
0.8419435 1.0981343 0.4707427 0
0.83736771 1.0888155 0.5506978 0
1.1086789 1.6863315 -0.050212573 0
0.96589786 1.3860536 0.32288152 0
0.87702024 1.199138 0.35035825 0
0.83925509 1.1197155 0.3981398 0
0.84064704 1.1226429 0.48150179 0
0.83960974 1.1204613 0.5681746 0
1.0874227 1.687564 -0.049930867 0
0.94863427 1.3859477 0.32099068 0
0.863015 1.1998791 0.34860718 0
0.84350002 1.157469 0.41304353 0
0.84025693 1.150421 0.49400839 0
0.84379882 1.1581184 0.58945614 0
1.0721221 1.7016995 -0.050165426 0
0.93214655 1.3871324 0.31953171 0
0.85430282 1.2121943 0.35114497 0
0.84213942 1.1848595 0.42314339 0
0.84046191 1.1810895 0.50803077 0
0.83977449 1.1795448 0.60004902 0
1.052835 1.7069905 -0.050062511 0
0.91480303 1.3859686 0.3174862 0
0.85224694 1.2404815 0.35949308 0
0.84210974 1.2169052 0.43529457 0
0.83828306 1.2080057 0.51993233 0
0.83599019 1.202673 0.61171609 0
1.0345241 1.7144517 -0.05005344 0
0.89744967 1.3842608 0.31536159 0
0.85050613 1.2711811 0.36867604 0
0.84132266 1.2490596 0.44743121 0
0.83850217 1.2422655 0.53576523 0
0.83954179 1.2447698 0.63553315 0
1.0148066 1.7183915 -0.049917884 0
0.87860256 1.3782653 0.31212947 0
0.85234165 1.312687 0.38169345 0
0.83954185 1.2807237 0.45929259 0
0.83646542 1.2730411 0.54963911 0
0.84206074 1.2870138 0.6592958 0
0.9965902 1.7259642 -0.049931526 0
0.86490315 1.3847294 0.31238544 0
0.84838784 1.341934 0.39026785 0
0.84179896 1.3248605 0.47664186 0
0.84058678 1.3217195 0.57306087 0
0.84049082 1.3214707 0.67797315 0
0.9784922 1.7338922 -0.049967397 0
0.84802425 1.3827147 0.31037959 0
0.84812963 1.3829983 0.40301409 0
0.83719671 1.3535705 0.48708379 0
0.84303874 1.3692954 0.59575707 0
0.83637065 1.351347 0.69367772 0
0.96074158 1.7428772 -0.050051838 0
0.83289415 1.3850141 0.30960923 0
0.84343243 1.4145122 0.41233018 0
0.83983541 1.4044436 0.5072487 0
0.83995706 1.404784 0.61191297 0
0.94188911 1.748844 -0.050030451 0
0.81489718 1.3787308 0.3065787 0
0.84080327 1.4542331 0.42451367 0
0.83986402 1.4514958 0.52563959 0
0.84037411 1.4529823 0.63474286 0
0.9226765 1.7536782 -0.049975526 0
1.0272233 2.0713511 0.34908077 0
0.80112427 1.3843335 0.30681419 0
0.84004307 1.502591 0.43968353 0
0.84139818 1.5067086 0.54751134 0
0.83757895 1.4951035 0.65427452 0
0.90419477 1.7607129 -0.050012257 0
1.0082386 2.0907967 0.35136908 0
0.78268051 1.3752028 0.30315396 0
0.84107697 1.5604686 0.45811737 0
0.8402794 1.5579381 0.56755888 0
0.84008986 1.5573368 0.68429834 0
0.8849628 1.7653589 -0.049968481 0
0.98360044 2.092607 0.35037196 0
0.77130204 1.3882687 0.30548432 0
0.8415854 1.6214466 0.47755426 0
0.83918381 1.6134788 0.58940089 0
0.86337179 1.761706 -0.049625576 0
0.96095383 2.1008492 0.35064381 0
0.75707865 1.3922876 0.30544251 0
0.83762264 1.6722157 0.4933843 0
0.84129202 1.6849685 0.61804122 0
0.84822458 1.780655 -0.050130617 0
0.74211699 1.3936065 0.047802642 0
0.74147964 1.3912818 0.13157675 0
0.74409848 1.4008346 0.21852194 0
0.73982525 1.385247 0.3025226 0
0.83767068 1.7421577 0.51579112 0
0.83480918 1.7317197 0.63595098 0
0.83018994 1.7899511 -0.050284926 0
0.72297865 1.378634 0.047109731 0
0.72328693 1.3798167 0.12988134 0
0.72448879 1.3844275 0.21474977 0
0.72397494 1.3824562 0.30079013 0
0.83175302 1.795948 0.53257132 0
0.82893807 1.7851485 0.65669411 0
0.80996233 1.7908443 -0.050138086 0
0.70778775 1.3776001 0.046940468 0
0.70915657 1.3831362 0.12985334 0
0.70912427 1.3830055 0.21381916 0
0.70834535 1.3798553 0.29916546 0
0.82287294 1.8430612 0.54703653 0
0.82344621 1.8453799 0.68030572 0
0.791031 1.7968382 -0.05018805 0
0.6972689 1.3960242 0.047492158 0
0.69374979 1.3809807 0.12924081 0
0.69571924 1.3893995 0.21437484 0
0.69232208 1.3748775 0.29697442 0
0.81778461 1.9112042 0.56868285 0
0.77082908 1.7972522 -0.050042603 0
0.68086708 1.389607 0.047138959 0
0.68010825 1.3861685 0.12945955 0
0.67934412 1.3827059 0.21254307 0
0.68036312 1.3873234 0.29939458 0
0.80312169 1.9435799 0.57810509 0
0.75107902 1.7993547 -0.049968384 0
0.66431141 1.3812337 0.0467229 0
0.66304368 1.3751249 0.12791502 0
0.6674546 1.3963804 0.21450576 0
0.66598964 1.389321 0.29912522 0
0.79139638 1.9936383 0.59357381 0
0.73137587 1.8014402 -0.049902789 0
0.65153331 1.3907652 0.046966642 0
0.64951211 1.3803688 0.12818104 0
0.64813966 1.3733097 0.20974015 0
0.64918035 1.3786626 0.29561421 0
0.77803558 2.0414371 0.60828912 0
0.71202397 1.8052208 -0.049907863 0
0.63421398 1.3762358 0.046342652 0
0.634368 1.3770849 0.12753361 0
0.63555837 1.3836476 0.21115351 0
0.63559347 1.383841 0.29627258 0
0.76181066 2.0797067 0.61980557 0
0.69294441 1.8106588 -0.049981758 0
0.61976784 1.3761308 0.046250112 0
0.62042493 1.3800328 0.12758756 0
0.62205267 1.3896983 0.21180883 0
0.62010252 1.3781183 0.29415345 0
0.74440283 2.1162229 0.63077521 0
0.67300153 1.8109039 -0.049876582 0
0.60628897 1.3818367 0.046374276 0
0.60464168 1.3712423 0.12638383 0
0.60690302 1.3857861 0.21067557 0
0.60726362 1.3881054 0.29614514 0
0.72798663 2.1645451 0.64577222 0
0.65447843 1.8206016 -0.050121538 0
0.59283453 1.3883505 0.046533484 0
0.59229952 1.3845991 0.12760809 0
0.59314191 1.3905059 0.21115166 0
0.59244996 1.3856537 0.29496929 0
0.70740217 2.1917059 0.65370041 0
0.63412392 1.8175544 -0.049915679 0
0.57783246 1.3838298 0.046301279 0
0.57834327 1.3877653 0.12774286 0
0.5789994 1.3928208 0.21122113 0
0.57816499 1.3863919 0.29466408 0
0.68769181 2.2302945 0.66553646 0
0.61516023 1.8251723 -0.050102692 0
0.56474489 1.3942816 0.046614405 0
0.56235003 1.3738133 0.12604421 0
0.56382847 1.3864493 0.2097456 0
0.56282681 1.3778882 0.29203159 0
0.66717231 2.2697098 0.6777153 0
0.59499985 1.8226143 -0.049932778 0
0.5515455 1.4058136 0.12933481 0
0.552239 1.4124652 0.21417935 0
0.55222303 1.4123122 0.30046368 0
0.64479083 2.3001943 0.68697715 0
0.57565618 1.8276968 -0.050046083 0
0.55255318 1.5753281 0.14747663 0
0.5510366 1.5587614 0.24041753 0
0.55157167 1.5646061 0.33911845 0
0.62187886 2.332618 0.69697052 0
0.55617416 1.832082 -0.050143033 0
0.60375804 2.4354692 0.24005069 0
0.59938878 2.3800645 0.38874701 0
0.59853274 2.3692091 0.54467857 0
0.53658503 1.8359323 -0.050229542 0
0.57388192 2.3993001 0.39187434 0
0.57327145 2.3900793 0.54952312 0
0.5164538 1.8308614 -0.050005864 0
0.5488137 2.434968 0.39802539 0
0.54765749 2.4133825 0.55506736 0
0.49655136 1.8275977 -0.049855936 0
0.52169049 2.4415455 0.3989794 0
0.52189672 2.4465816 0.56321806 0
0.47710356 1.8367549 -0.050158631 0
0.45666176 1.1154455 0.35851645 0
0.45648855 1.1093339 0.42893809 0
0.45725232 1.8340467 -0.050046351 0
0.44573849 1.1026407 0.35311636 0
0.44582736 1.1082855 0.42829618 0
0.43746433 1.8272674 -0.049797654 0
0.43512806 1.0854102 0.41680044 0
0.43511054 1.0798447 0.48961675 0
0.41772124 1.8339795 -0.050039504 0
0.42467457 1.0976014 0.42291674 0
0.42476884 1.0876192 0.49424675 0
0.39814967 1.8250239 -0.049730808 0
0.41388929 1.1108019 0.35653746 0
0.41405445 1.1033072 0.42585489 0
0.41448402 1.0838138 0.49208623 0
0.37809166 1.83631 -0.050153866 0
0.35294005 2.5624111 0.42069691 0
0.35207945 2.5872557 0.59899741 0
0.40522572 1.0529771 0.47396106 0
0.35876012 1.825834 -0.049808405 0
0.32231772 2.5970678 0.42716804 0
0.32184485 2.6070755 0.60436553 0
0.39546704 1.0490016 0.47184208 0
0.33841169 1.8363638 -0.050222654 0
0.29162425 2.6177185 0.43118316 0
0.29221594 2.6078372 0.6049639 0
0.31916562 1.827612 -0.049956273 0
0.26046216 2.6370158 0.43502712 0
0.26052898 2.6360943 0.61269164 0
0.29866681 1.8357408 -0.050303124 0
0.35497302 1.174845 0.038622815 0
0.2302237 2.6390934 0.43582943 0
0.22866747 2.6573598 0.61873949 0
0.27997845 1.8228322 -0.049904998 0
0.19789506 2.661324 0.4403536 0
0.19816351 2.6585817 0.6197595 0
0.25966358 1.8271523 -0.050133612 0
0.16635005 2.6706824 0.44262221 0
0.16652767 2.6690767 0.6232596 0
0.34635854 1.043452 0.47085023 0
0.24070477 1.8191396 -0.049928136 0
0.13334171 2.6892741 0.44664434 0
0.13465185 2.6786561 0.62663221 0
0.22042862 1.8218507 -0.050117288 0
0.10112141 2.6978822 0.44893181 0
0.10231127 2.6891456 0.63034815 0
0.20135686 1.8155541 -0.04999087 0
0.068773821 2.7051444 0.4510521 0
0.070930406 2.6906743 0.63186461 0
0.18118693 1.8165773 -0.050137602 0
0.036159828 2.7121687 0.45320761 0
0.035806343 2.7143519 0.6392107 0
0.16404904 1.7996441 -0.049643055 0
0.0021124647 2.7256138 0.45661846 0
0.003537284 2.7174666 0.64136159 0
0.14310499 1.8048407 -0.049959052 0
-0.032985017 2.7420418 0.46066341 0
-0.02973081 2.7247219 0.64469779 0
0.12496604 1.7949311 -0.049735349 0
-0.088492349 2.857141 0.10041575 0
-0.088408068 2.8567216 0.29016772 0
-0.062125102 2.7259324 0.45881444 0
-0.061820641 2.7244174 0.64618403 0
0.10347627 1.8014119 -0.050117791 0
-0.11596538 2.826405 0.099540606 0
-0.11167599 2.8063698 0.28537732 0
-0.09300442 2.7191565 0.45874941 0
-0.09467335 2.7269516 0.64852017 0
0.083257779 1.8010683 -0.050261371 0
-0.14334513 2.7980199 0.098761663 0
-0.14145578 2.7897077 0.28431839 0
-0.12703241 2.7262514 0.46132147 0
-0.13024797 2.7403982 0.65382624 0
0.066392198 1.7863415 -0.049886566 0
-0.17608501 2.7942419 0.098896563 0
-0.17444302 2.7874165 0.28488615 0
-0.16295792 2.7396767 0.46515495 0
-0.1607758 2.7306063 0.65316772 0
0.047266617 1.7815758 -0.049885288 0
-0.20906515 2.791002 0.099066891 0
-0.21187444 2.8020649 0.28737998 0
-0.19589068 2.7391214 0.46648332 0
-0.19444533 2.7334297 0.65592891 0
0.028803067 1.7743256 -0.049801067 0
-0.2541545 2.8325646 0.10090881 0
-0.25205398 2.8247089 0.290824 0
-0.23003335 2.7423534 0.46860051 0
-0.22995962 2.7420778 0.66034943 0
0.0089794863 1.7721246 -0.049912408 0
-0.25993931 2.7293923 0.4677721 0
-0.2616716 2.7355587 0.66088444 0
-0.0089738797 1.7632856 -0.049786374 0
-0.29442239 2.7323613 0.47000635 0
-0.28937781 2.7152352 0.65785599 0
-0.031275108 1.7688407 -0.050206035 0
-0.32566518 2.7237434 0.4701443 0
-0.32767683 2.7302687 0.6643483 0
-0.045276806 1.7476561 -0.049634967 0
-0.35867232 2.7205231 0.47137997 0
-0.3602789 2.7255104 0.66569102 0
-0.06682907 1.7501918 -0.049961496 0
-0.39397895 2.723587 0.47389543 0
-0.3947047 2.7257464 0.66849393 0
-0.090888456 1.7591811 -0.050543834 0
-0.42219073 2.7053111 0.47242901 0
-0.42693228 2.718852 0.66949868 0
-0.10184605 1.7310035 -0.049728084 0
-0.45653504 2.7044489 0.4743664 0
-0.45628285 2.7037568 0.66839111 0
-0.12333681 1.7322561 -0.050037209 0
-0.49003619 2.7005818 0.47581679 0
-0.48856133 2.6966872 0.66956836 0
-0.14196016 1.725611 -0.050055258 0
-0.51584715 2.6765871 0.47345546 0
-0.51930553 2.6853836 0.66970181 0
-0.15882458 1.7146105 -0.04991449 0
-0.55282974 2.6808486 0.47664851 0
-0.54925257 2.6720762 0.66939038 0
-0.17615189 1.7049525 -0.049833216 0
-0.5835979 2.6692438 0.47684309 0
-0.58304358 2.667932 0.67171931 0
-0.19571717 1.7005454 -0.049964592 0
-0.61280847 2.6539977 0.47639799 0
-0.61017597 2.6479797 0.66977715 0
-0.21258302 1.6899413 -0.049863499 0
-0.64006495 2.6345716 0.47519547 0
-0.6391499 2.6325495 0.66918564 0
-0.23380162 1.6888026 -0.050143231 0
-0.67271578 2.6270607 0.47642645 0
-0.67176366 2.6250255 0.67092001 0
-0.25474685 1.6866376 -0.050394543 0
-0.69778371 2.603451 0.47452241 0
-0.70036137 2.6087852 0.67031121 0
-0.26506883 1.6627736 -0.049792197 0
-0.73114312 2.5970459 0.47613731 0
-0.7264626 2.5876637 0.66840917 0
-0.28374088 1.6560547 -0.049879558 0
-0.75833201 2.5781481 0.47531366 0
-0.75628459 2.5741701 0.66877759 0
-0.30114663 1.6468115 -0.04987495 0
-0.78289866 2.5545435 0.47359315 0
-0.78556073 2.5595596 0.66893393 0
-0.31464988 1.6304339 -0.049588881 0
-0.80806577 2.5325267 0.47225052 0
-0.80875254 2.5337822 0.66595089 0
-0.33640438 1.6291054 -0.049924407 0
-0.61755288 2.1280901 0.082371935 0
-0.83210862 2.5088856 0.47062752 0
-0.83395851 2.5121689 0.66425121 0
-0.34930772 1.6120424 -0.049624227 0
-0.6195817 2.0779119 0.080852687 0
-0.86225402 2.4962049 0.47134072 0
-0.8621285 2.4959886 0.66423488 0
-0.36671156 1.6029235 -0.049658835 0
-0.62405229 2.033905 0.079579651 0
-0.88828087 2.4764223 0.47064698 0
-0.88802481 2.4759934 0.66318989 0
-0.38581085 1.596512 -0.049816299 0
-0.61751413 1.9736854 0.077619761 0
-0.91573536 2.4591389 0.47054598 0
-0.91681111 2.4608901 0.66369873 0
-0.40887463 1.5961616 -0.050241102 0
-0.6204499 1.9310416 0.076382987 0
-0.93366253 2.4267924 0.46730426 0
-0.93443787 2.4280198 0.65895885 0
-0.42118108 1.5786943 -0.049953006 0
-0.62150657 1.8870989 0.075082332 0
-0.96351945 2.4136338 0.46821067 0
-0.95768893 2.4046576 0.6571399 0
-0.44265568 1.5753202 -0.050274074 0
-0.61891639 1.8393389 0.0736074 0
-0.98210514 2.3833547 0.4654935 0
-0.96914864 2.3639474 0.65007335 0
-0.45203483 1.5539075 -0.049828626 0
-0.61410487 1.7901731 0.072057411 0
-0.99709046 2.3484888 0.46180052 0
-1.000362 2.3532581 0.65227813 0
-0.47439885 1.5514624 -0.050212741 0
-0.62211084 1.7610886 0.071368016 0
-1.02634 2.3347526 0.46277782 0
-1.0205638 2.326555 0.64962661 0
-0.49169308 1.541544 -0.050283387 0
-0.61661887 1.7141749 0.069891021 0
-0.61284089 1.7089543 0.19763449 0
-1.0375332 2.2958231 0.45823729 0
-1.0441167 2.3049207 0.64862692 0
-0.074942127 0.96564889 0.43911368 0
-0.50237286 1.5226346 -0.049964447 0
-0.61857033 1.6790198 0.068920076 0
-0.61811411 1.6784059 0.19532207 0
-1.063794 2.2782273 0.45847887 0
-1.0626061 2.2766285 0.64559543 0
-0.090565994 0.96840125 0.44484702 0
-0.513726 1.5049739 -0.0497045 0
-0.62193131 1.646836 0.068074279 0
-0.62057459 1.6450573 0.1926178 0
-1.0805482 2.2481039 0.45595592 0
-1.0781869 2.2450082 0.64154106 0
-0.092884019 0.95323038 0.43948027 0
-0.53341061 1.4982477 -0.049944211 0
-0.61631489 1.604147 0.066745706 0
-0.6137197 1.6008319 0.18840642 0
-1.1032013 2.226079 0.45531091 0
-1.1024425 2.2251098 0.64130795 0
-0.10536827 0.95148093 0.4426071 0
-0.55567414 1.4944569 -0.050332069 0
-0.62037408 1.5749923 0.066020213 0
-0.61387753 1.5669057 0.18556023 0
-1.1140705 2.1895218 0.45136321 0
-1.1186341 2.1952026 0.63789636 0
-0.12485142 0.95818931 0.45129442 0
-0.5638029 1.4730834 -0.04992339 0
-0.6126014 1.5322831 0.064662382 0
-0.61614382 1.5365806 0.18318611 0
-1.126894 2.1561944 0.44816095 0
-1.12752 2.1569538 0.63175827 0
-0.13537653 0.95334011 0.45273656 0
-0.58372903 1.4661018 -0.050187998 0
-0.61608768 1.5043656 0.063977055 0
-0.62408388 1.5138209 0.18185541 0
-1.1425122 2.1268566 0.44590467 0
-1.1364931 2.1197391 0.62593716 0
-0.14855959 0.95151871 0.45626453 0
-0.59554756 1.4494846 -0.050011907 0
-0.62257624 1.4806414 0.063484468 0
-0.62328672 1.4814606 0.17915834 0
-1.1584169 2.0983222 0.44386214 0
-1.1643637 2.1051774 0.62774128 0
-0.61635566 1.4431523 -0.050332405 0
-0.63503635 1.4641463 0.063335672 0
-0.63485706 1.4639447 0.17856492 0
-1.1689991 2.0642281 0.44050252 0
-1.1734143 2.06919 0.62236774 0
-0.62267292 1.420602 -0.049885314 0
-0.66307926 1.4648764 0.064025275 0
-0.65520692 1.4562504 0.1794147 0
-1.1763825 2.0273175 0.43644881 0
-1.1893736 2.0415523 0.61985528 0
-0.64396477 1.4145074 -0.050241474 0
-0.50167519 1.2624857 0.054807641 0
-0.68438196 1.4576889 0.18165644 0
-1.1947122 2.0029233 0.43546164 0
-1.1951182 2.0033569 0.61369359 0
-0.65145087 1.3936628 -0.049885225 0
-0.50528687 1.2413908 0.054349743 0
-0.71464884 1.4595015 0.18403554 0
-1.1953795 1.9603208 0.429968 0
-1.2008877 1.9660591 0.60779971 0
-0.66725433 1.3816211 -0.049970221 0
-0.50661373 1.2184314 0.053794995 0
-0.74258411 1.4581463 0.18602373 0
-1.2110268 1.9340225 0.42853403 0
-1.2173615 1.9404578 0.60604566 0
-0.67834258 1.3648199 -0.04982489 0
-0.51896328 1.206938 0.053815659 0
-0.77257395 1.458166 0.18830067 0
-1.2166313 1.8980511 0.42465305 0
-1.2147683 1.8962057 0.59758252 0
-0.69697416 1.3554435 -0.050066307 0
-0.55128801 1.214716 0.05483482 0
-0.80818903 1.4628729 0.19139057 0
-1.225787 1.8662571 0.42182371 0
-1.2216467 1.8622577 0.59278035 0
-0.71123767 1.3417144 -0.050096478 0
-0.55971301 1.1989912 0.054664981 0
-0.83743286 1.4605793 0.19349462 0
-1.2217392 1.8225628 0.41585627 0
-1.2248968 1.825537 0.58691382 0
-0.72653103 1.328898 -0.050184648 0
-0.8728044 1.4632396 0.069275066 0
-0.86531126 1.4563577 0.19537951 0
-1.2249821 1.7866896 0.41187826 0
-1.2314647 1.7926433 0.58242518 0
-0.23574395 0.87814516 0.38168469 0
-0.74853659 1.3220046 -0.050601285 0
-0.89644969 1.4544578 0.069689773 0
-0.90154362 1.4590193 0.19845611 0
-1.2325835 1.7554588 0.40910998 0
-1.2372358 1.7596248 0.57785666 0
-0.23771544 0.86457443 0.37851468 0
-0.75268364 1.2991257 -0.050171141 0
-0.94258034 1.4649136 0.071170866 0
-1.2344923 1.7197653 0.40510374 0
-1.2348545 1.7200814 0.57071853 0
-0.2368746 0.84880197 0.3739281 0
-0.76454389 1.2832056 -0.050120763 0
-0.97104287 1.4589556 0.071801662 0
-1.2365057 1.6848897 0.40127203 0
-1.2377703 1.685966 0.56559902 0
-0.23235162 0.83025962 0.36749697 0
-0.25880337 0.85277259 0.46022907 0
-0.77616394 1.2671283 -0.050069112 0
-1.0040952 1.4562227 0.072642319 0
-1.2522842 1.662123 0.40080914 0
-1.2462213 1.6570932 0.56251067 0
-0.25197655 0.83225662 0.37424982 0
-0.77683306 1.2422394 -0.049524557 0
-1.04749 1.461085 0.073950887 0
-1.248992 1.6240138 0.39599475 0
-1.2349961 1.6126971 0.55311781 0
-0.25177395 0.81769115 0.37036362 0
-0.7945292 1.2312518 -0.049773607 0
-1.0842477 1.4595377 0.074942075 0
-1.2499022 1.5900663 0.39230359 0
-1.2399373 1.5822144 0.54925126 0
-0.27090174 0.81865591 0.3768025 0
-0.81105947 1.219144 -0.049974054 0
-1.1326694 1.4660591 0.076449595 0
-1.2572476 1.5617036 0.39020872 0
-1.2301582 1.5409058 0.54081124 0
-0.26072139 0.79662341 0.36787459 0
-0.2546531 0.79196447 0.43947816 0
-0.81859124 1.2001255 -0.049778279 0
-1.1638919 1.4583842 0.07717254 0
-1.2508335 1.5234098 0.38511556 0
-1.2378336 1.513687 0.53817773 0
-0.27611411 0.79439354 0.37239653 0
-0.2811622 0.79816908 0.45192456 0
-0.8359282 1.1884166 -0.050028007 0
-1.2096698 1.4606767 0.078536071 0
-1.2551794 1.4938291 0.38257781 0
-1.2443117 1.4859123 0.535299 0
-1.2404089 1.4830692 0.69460368 0
-0.27198046 0.77759683 0.36688933 0
-0.27983803 0.78332084 0.44697937 0
-0.84128022 1.1679863 -0.049757402 0
-1.26248 1.4667736 0.080194034 0
-1.2530229 1.460065 0.37870762 0
-1.2390677 1.4501656 0.52888906 0
-1.234247 1.4467459 0.68588513 0
-0.2789346 0.76907396 0.36716744 0
-0.28158152 0.77095163 0.4440752 0
-0.85327864 1.1523741 -0.049788717 0
-1.302236 1.462429 0.081267908 0
-1.2437712 1.4220526 0.37340936 0
-1.250898 1.4269744 0.52796888 0
-1.2354201 1.4162852 0.68039352 0
-0.27650672 0.75404918 0.43714535 0
-0.87394106 1.1425554 -0.050200962 0
-1.2818859 1.416765 0.07974951 0
-1.2784548 1.4144586 0.22755912 0
-1.2445283 1.3916543 0.37043521 0
-1.2428277 1.3905112 0.52102894 0
-1.2350438 1.3852789 0.67448151 0
-0.29191726 0.75133455 0.44275269 0
-0.87778795 1.1213872 -0.049897786 0
-1.2682534 1.3767693 0.078554772 0
-1.2673078 1.3761508 0.22428553 0
-1.2512873 1.3656728 0.36886168 0
-1.2408632 1.3588549 0.51614785 0
-1.2409098 1.3588854 0.67125541 0
-0.29974133 0.74331868 0.44379893 0
-0.8913089 1.1066236 -0.050017703 0
-1.2833005 1.356014 0.078604512 0
-1.2752582 1.3508973 0.2235323 0
-1.2498125 1.3347085 0.36561087 0
-1.2399899 1.3284591 0.51175666 0
-1.2400315 1.3284856 0.66552716 0
-0.30087775 0.73098361 0.44093108 0
-0.89667237 1.0867102 -0.049802065 0
-1.2773936 1.3222491 0.077785201 0
-1.2899252 1.330002 0.22367407 0
-1.2406352 1.2995079 0.36083481 0
-1.2347676 1.2958778 0.50621015 0
-1.239825 1.2990067 0.66025656 0
-0.90474999 1.0686029 -0.049711607 0
-1.3081192 1.311184 0.078515969 0
-1.3036556 1.3084997 0.22373042 0
-1.2508314 1.2767318 0.36026561 0
-1.238053 1.2690471 0.50336093 0
-1.2362002 1.2679329 0.65384328 0
-0.92202425 1.05594 -0.050011564 0
-1.334761 1.2971309 0.079078302 0
-1.3417896 1.3012383 0.2268578 0
-1.2452877 1.2448454 0.35647288 0
-1.2452742 1.2448375 0.50179583 0
-1.2348136 1.2387247 0.64849085 0
-0.92676485 1.0359162 -0.049801428 0
-1.3812811 1.2939001 0.080459952 0
-1.3816969 1.294136 0.23019339 0
-1.2530481 1.2211149 0.35554963 0
-1.2361691 1.2115344 0.49554208 0
-1.2419219 1.2147996 0.64656746 0
-0.94870925 1.0255386 -0.05030435 0
-1.2524981 1.1929475 0.35298333 0
-1.2359055 1.1838038 0.49202976 0
-1.230215 1.1806679 0.63762492 0
-0.94842267 1.0028666 -0.049909163 0
-1.2503858 1.1643466 0.35018742 0
-1.2364334 1.1568853 0.48887131 0
-1.2418476 1.1597806 0.63771069 0
-0.964903 0.9892019 -0.050202403 0
-1.2604152 1.1424788 0.34994993 0
-1.2429273 1.1334081 0.48754588 0
-1.2381059 1.1309074 0.63213265 0
-0.97283852 0.9710058 -0.050159238 0
-1.2782062 1.1245464 0.35133648 0
-1.2367271 1.1036905 0.48268852 0
-1.2481226 1.1094202 0.63184905 0
-0.97784841 0.95141488 -0.050009284 0
-1.2856131 1.1013361 0.35067686 0
-1.242566 1.0803666 0.48138395 0
-1.2422101 1.0801933 0.62577271 0
-0.99181068 0.93615979 -0.050223362 0
-1.3012432 1.0821018 0.35171929 0
-1.2475266 1.0567667 0.47992253 0
-1.2450535 1.0556003 0.62308896 0
-0.98323178 0.91044879 -0.049559187 0
-1.2974092 1.0538211 0.34894538 0
-1.242937 1.0289631 0.47587469 0
-1.2425497 1.0287864 0.61857867 0
-0.99877799 0.89589077 -0.04985277 0
-1.3144805 1.0351832 0.35037816 0
-1.2409714 1.0027499 0.47267899 0
-1.2392155 1.0019752 0.61391455 0
-1.0080199 0.87841707 -0.049907256 0
-1.3278874 1.0147618 0.35113096 0
-1.2412984 0.97785282 0.47022799 0
-1.2422825 0.97827232 0.61171281 0
-1.0270172 0.86491227 -0.050346576 0
-1.3227969 0.98661172 0.34832287 0
-1.2391161 0.95218092 0.4671841 0
-1.2467272 0.95531261 0.61012584 0
-1.0289643 0.8443051 -0.050135374 0
-1.3358033 0.96606028 0.34910896 0
-1.2291481 0.92373902 0.4621073 0
-1.2327814 0.92518073 0.60206795 0
-1.0316914 0.82415223 -0.049964942 0
-1.3475039 0.94488811 0.3496893 0
-1.2332661 0.90121478 0.46100041 0
-1.24666 0.90633523 0.60409468 0
-1.0360622 0.80472898 -0.049867503 0
-1.3570343 0.92282706 0.34990129 0
-1.2404236 0.8799215 0.4608022 0
-1.2425189 0.88069242 0.59980839 0
-1.0504692 0.78892511 -0.050159834 0
-1.3635997 0.89968181 0.34959835 0
-1.2467262 0.85834277 0.46044624 0
-1.2426425 0.85689837 0.5971604 0
-1.0449344 0.76612794 -0.04970656 0
-1.3764535 0.87871283 0.35055009 0
-1.2428548 0.83334231 0.4574239 0
-1.2353907 0.83080745 0.59203768 0
-1.0672706 0.75273901 -0.050312392 0
-1.3747567 0.85286212 0.34878829 0
-1.23445 0.80717564 0.45328212 0
-1.239333 0.80876565 0.59096795 0
-1.0558356 0.72837108 -0.049659263 0
-1.3952053 0.83416885 0.35127851 0
-1.2401663 0.78583574 0.45301861 0
-1.2476799 0.78817815 0.5915342 0
-1.0766019 0.7140761 -0.050219614 0
-1.3912791 0.80784547 0.34921682 0
-1.239562 0.76263595 0.45114508 0
-1.2439299 0.76393747 0.58798897 0
-1.0730658 0.69245714 -0.049882647 0
-1.3927606 0.783355 0.34823865 0
-1.242956 0.74076152 0.45041642 0
-1.2282571 0.73658222 0.58043844 0
-1.079823 0.67386824 -0.049937628 0
-1.3905014 0.75798923 0.34662265 0
-1.2358006 0.71610159 0.44697472 0
-1.2480004 0.71940488 0.58523947 0
-1.083825 0.65452719 -0.0498995 0
-1.4164758 0.74011689 0.35032916 0
-1.2418373 0.6951831 0.44710147 0
-1.2413193 0.69504982 0.58102185 0
-1.0735159 0.63171995 -0.049344555 0
-1.4246475 0.71736562 0.35076132 0
-1.2361801 0.6713959 0.44422618 0
-1.2392505 0.67214483 0.57850182 0
-1.0966611 0.61702615 -0.050027467 0
-1.4290147 0.69367117 0.3505412 0
-1.2408372 0.65027505 0.44413832 0
-1.2445155 0.65112329 0.5785917 0
-1.0887115 0.59507662 -0.049579229 0
-1.4391985 0.67126876 0.35145035 0
-1.2383908 0.62761527 0.44226557 0
-1.2416474 0.6283232 0.57600248 0
-1.1056861 0.57853699 -0.050050415 0
-1.4395036 0.64671522 0.35059077 0
-1.2404823 0.60606754 0.44165373 0
-1.2494702 0.60790318 0.57714784 0
-1.1164917 0.5604766 -0.050303824 0
-1.4435439 0.62299407 0.35047591 0
-1.2452184 0.58508325 0.4418008 0
-1.2355002 0.58322561 0.57099599 0
-1.1065484 0.53853542 -0.049812507 0
-1.4525236 0.60016513 0.35132095 0
-1.249624 0.56402194 0.44193053 0
-1.2386894 0.56207412 0.57076168 0
-1.1157454 0.52010375 -0.0500248 0
-1.4433235 0.57420999 0.3488937 0
-1.2439009 0.54127127 0.43950945 0
-1.2470535 0.54179198 0.57236278 0
-1.1205766 0.50085264 -0.050087418 0
-1.4537195 0.55157757 0.35010567 0
-1.2432299 0.51952803 0.43847078 0
-1.2437736 0.51961082 0.57012826 0
-1.1054469 0.47877124 -0.049439151 0
-1.4452447 0.5261398 0.34793118 0
-1.234688 0.49678773 0.43547705 0
-1.2371066 0.49712488 0.56685382 0
-1.1220821 0.46116862 -0.04994503 0
-1.465111 0.50459188 0.35097054 0
-1.2301091 0.47484353 0.43358091 0
-1.2348528 0.47544402 0.56515962 0
-1.1231811 0.44143549 -0.049899913 0
-0.5109095 0.3717503 0.039899904 0
-0.51352745 0.37204826 0.10832987 0
-0.50544494 0.37112835 0.17625692 0
-1.2418295 0.45493937 0.43594381 0
-1.2470114 0.45552912 0.56838524 0
-1.1347501 0.42278948 -0.05023947 0
-0.5091759 0.35955825 0.039791867 0
-0.50981957 0.35962331 0.10779101 0
-0.51249045 0.35989329 0.17730387 0
-1.2384816 0.43327439 0.43450403 0
-1.241936 0.43362355 0.56592774 0
-1.1278532 0.40226802 -0.049925242 0
-0.46915907 0.34405762 0.038317367 0
-0.51046938 0.34770831 0.10773978 0
-0.50873035 0.34755465 0.1764189 0
-1.2402065 0.41219696 0.43443504 0
-1.2402145 0.41219768 0.56468534 0
-1.1298902 0.38264197 -0.049940441 0
-0.51383483 0.33600903 0.10799747 0
-0.51273239 0.33592558 0.17696679 0
-1.247604 0.39155242 0.43588549 0
-1.237471 0.3907854 0.5631932 0
-1.1238816 0.3624948 -0.04967666 0
-0.51609606 0.32417774 0.10815192 0
-0.50995898 0.32379085 0.17631635 0
-1.2355193 0.36953285 0.43242088 0
-1.2336774 0.36941671 0.56144214 0
-1.2393553 0.36977467 0.69960004 0
-1.1368127 0.34348556 -0.050099146 0
-0.50699168 0.31173536 0.10709929 0
-0.51021791 0.31189799 0.1762415 0
-1.2319086 0.34827948 0.43119401 0
-1.2376281 0.34856781 0.5623616 0
-1.2409084 0.34873319 0.69974864 0
