# .PCD v0.7 - Point Cloud Data file format
VERSION 0.7
FIELDS x y z intensity
SIZE 4 4 4 4
TYPE F F F F
COUNT 1 1 1 1
WIDTH 1352
HEIGHT 1
VIEWPOINT 0 0 0 1 0 0 0
POINTS 1352
DATA ascii
-1.2403672 0.09527918 0.43498757 0
-1.2424351 0.095070161 0.56609464 0
-1.1270344 0.086870097 -0.050038368 0
-0.50815451 0.15730742 0.039800916 0
-0.5126695 0.15679353 0.10823708 0
-0.51197886 0.15687214 0.17744292 0
-1.2435101 0.073613487 0.43637538 0
-1.242733 0.073701955 0.56695265 0
-1.1169546 0.068224616 -0.049760509 0
-0.51392263 0.14456113 0.040059682 0
-0.50822228 0.14528272 0.10791016 0
-0.5097611 0.14508791 0.17729943 0
-1.2350873 0.053270448 0.43486115 0
-1.2305193 0.053848702 0.5637064 0
-1.124018 0.047384057 -0.050108574 0
-0.51670843 0.13204436 0.040217184 0
-0.50730169 0.13335569 0.10798107 0
-0.50323236 0.13392296 0.17639768 0
-1.2373835 0.031580646 0.43617141 0
-1.2416806 0.030981619 0.56839031 0
-1.1129979 0.029045422 -0.049813729 0
-0.51609391 0.11993106 0.040257879 0
-0.50801229 0.12116159 0.10824576 0
-0.51105344 0.12069853 0.17813763 0
-1.2382085 0.0099806385 0.43717492 0
-1.2286992 0.011428555 0.56505531 0
-1.1252232 0.0070749712 -0.05036775 0
-0.50777459 0.10905933 0.040025376 0
-0.51767886 0.10742343 0.10950322 0
-0.51249588 0.1082795 0.17874564 0
-1.2371067 -0.011404912 0.43775252 0
-1.2489119 -0.013354789 0.5729894 0
-1.1086518 -0.01016597 -0.049888778 0
-0.50610507 0.097167678 0.040038452 0
-0.49964827 0.098317839 0.10775892 0
-0.50351584 0.097628899 0.17747438 0
-1.2516497 -0.035638701 0.4424555 0
-1.2461803 -0.034664374 0.57329309 0
-1.1018165 -0.028927248 -0.049770419 0
-0.50194252 0.085741244 0.039966382 0
-0.51028675 0.084146209 0.10915979 0
-0.5142985 0.083379351 0.17985335 0
-1.2364082 -0.054655056 0.4395124 0
-1.2442552 -0.056155037 0.57396144 0
-1.1001076 -0.048653495 -0.049847145 0
-0.49780673 0.07435929 0.039900336 0
-0.51131034 0.071601339 0.10952917 0
-0.51609647 0.070623837 0.1806176 0
-1.2446657 -0.078177787 0.44274309 0
-1.2441697 -0.078076489 0.57534796 0
-1.093044 -0.06727428 -0.049737517 0
-0.50434315 0.060703058 0.040229246 0
-0.51585424 0.058200661 0.11030409 0
-0.51838875 0.057649691 0.18150479 0
-1.2381259 -0.098813571 0.44219643 0
-1.2438495 -0.10005782 0.57675225 0
-1.0843904 -0.085452206 -0.049577884 0
-0.50755453 0.04757357 0.040443584 0
-0.50465733 0.048241708 0.10936376 0
-0.51158637 0.046643768 0.18074149 0
-1.2417783 -0.12174792 0.44438472 0
-1.2490642 -0.12342811 0.5801447 0
-1.0892897 -0.10682321 -0.04992421 0
-0.5121066 0.033959482 0.040713917 0
-0.51540118 0.033155892 0.11086152 0
-0.5195874 0.03213482 0.18274957 0
-1.2353305 -0.14244454 0.44400305 0
-1.2409657 -0.14381905 0.57908916 0
-1.0882047 -0.12690996 -0.050060958 0
-0.54931444 0.01174434 0.042195257 0
-0.55774981 0.0095739262 0.11589233 0
-0.56242937 0.0083699124 0.19128631 0
-1.2496313 -0.16844432 0.44915473 0
-1.2426889 -0.16665809 0.5814923 0
-1.075078 -0.14383931 -0.049762122 0
-0.6192888 -0.020427417 0.044903919 0
-0.62197196 -0.021153908 0.1234087 0
-1.2416035 -0.18892868 0.31880212 0
-1.2378843 -0.18792163 0.44752547 0
-1.23493 -0.18712173 0.58073443 0
-1.0695592 -0.16271599 -0.049752496 0
-0.69278681 -0.055589419 0.04776809 0
-0.69062662 -0.054975223 0.13149042 0
-1.2402124 -0.2112373 0.31963634 0
-1.2388762 -0.21085741 0.44933426 0
-1.237718 -0.21052809 0.58371079 0
-1.0632769 -0.1813613 -0.049723227 0
-0.77065873 -0.094165124 0.050822426 0
-0.78149104 -0.097393014 0.14214081 0
-1.2439878 -0.23521061 0.32149872 0
-1.2386564 -0.23362194 0.45090398 0
-1.2450293 -0.23552097 0.58837068 0
-1.0646913 -0.20238765 -0.049990427 0
-0.87891459 -0.14447214 0.055043142 0
-0.87086618 -0.14196305 0.1527254 0
-1.240198 -0.25710157 0.32199621 0
-1.2394162 -0.25685784 0.45281819 0
-1.2449754 -0.25859091 0.59059173 0
-1.0625619 -0.2224616 -0.050135598 0
-0.97998095 -0.19557171 0.059034992 0
-0.99021864 -0.1989053 0.16680492 0
-1.2492428 -0.28324834 0.32498223 0
-1.2387592 -0.27983466 0.45443836 0
-1.2419317 -0.28086773 0.59187716 0
-1.046685 -0.23797826 -0.049772561 0
-1.13616 -0.26836428 0.065146118 0
-1.1320827 -0.2669796 0.18358099 0
-1.2542565 -0.30847022 0.32727584 0
-1.2398804 -0.30358806 0.45662245 0
-1.0458162 -0.25853518 -0.049983632 0
-1.2923793 -0.34574649 0.20263064 0
-1.2561641 -0.33293691 0.32904613 0
-1.2355704 -0.32565275 0.45742726 0
-1.0293964 -0.27353218 -0.049613923 0
-1.248419 -0.35411921 0.19849198 0
-1.2415729 -0.3516002 0.32771316 0
-1.244045 -0.35250983 0.46178669 0
-1.022521 -0.29190227 -0.049614437 0
-1.2536753 -0.38027313 0.20000806 0
-1.2373726 -0.37404057 0.32842529 0
-1.245193 -0.37703028 0.4642581 0
-1.0168144 -0.31073979 -0.049668703 0
-1.2486467 -0.40273204 0.20038059 0
-1.2409893 -0.39969352 0.33071241 0
-1.2366861 -0.39798597 0.46417636 0
-1.0114461 -0.3297613 -0.049745448 0
-1.2389227 -0.42335722 0.20024216 0
-1.242939 -0.42500976 0.33274913 0
-1.2454073 -0.42602536 0.46891972 0
-1.0016561 -0.34696028 -0.049660277 0
-1.2500665 -0.45284614 0.20257115 0
-1.2435982 -0.45008901 0.33460611 0
-1.2429427 -0.44980958 0.47068402 0
-1.0074825 -0.37098721 -0.050192438 0
-1.2492579 -0.47766194 0.20355263 0
-1.2467051 -0.47653553 0.33701804 0
-1.2336857 -0.47079125 0.47064731 0
-0.99717474 -0.38806745 -0.050106354 0
-1.2392379 -0.49853095 0.20348841 0
-1.234907 -0.49655458 0.33655497 0
-1.2405519 -0.49913058 0.47520581 0
-0.98669136 -0.40500113 -0.050021283 0
-1.2360088 -0.52259028 0.20426185 0
-1.2399491 -0.52444869 0.33949718 0
-1.240351 -0.52463824 0.47789833 0
-0.97840917 -0.42294392 -0.050031554 0
-1.5013006 -0.67765969 0.082796551 0
-1.2402871 -0.55051237 0.20597363 0
-1.2348197 -0.547849 0.34048724 0
-1.2382962 -0.54954249 0.48017222 0
-0.97077703 -0.44122514 -0.050076865 0
-1.4542485 -0.68431747 0.081396453 0
-1.2435191 -0.57836145 0.20761257 0
-1.2394758 -0.57632852 0.34351829 0
-1.2331917 -0.57316881 0.48167893 0
-0.95417809 -0.45489493 -0.049771067 0
-1.3996364 -0.68594617 0.079686485 0
-1.2366389 -0.60140228 0.20808034 0
-1.2374581 -0.60182726 0.34528586 0
-0.95721185 -0.47882262 -0.050264999 0
-1.348635 -0.68814284 0.078111984 0
-1.2417204 -0.63096845 0.21004429 0
-1.2454433 -0.63295937 0.34917662 0
-0.9403044 -0.49216267 -0.049961735 0
-1.3000789 -0.69042367 0.076627322 0
-1.2467062 -0.66101164 0.21205571 0
-1.2365439 -0.65541142 0.34969801 0
-0.92132962 -0.50408703 -0.049578309 0
-1.2653656 -0.69936216 0.075701453 0
-1.2461572 -0.68845946 0.21344416 0
-1.2326714 -0.68080491 0.35132402 0
-0.93007338 -0.53189951 -0.050344396 0
-1.2479693 -0.71766829 0.075489447 0
-1.232151 -0.70842463 0.21321067 0
-1.2301607 -0.70726156 0.35331309 0
-0.90828681 -0.54198575 -0.049858954 0
-1.2457799 -0.74494976 0.075918913 0
-1.241032 -0.74209458 0.21587703 0
-1.2347443 -0.73831314 0.3568801 0
-0.90080833 -0.56052494 -0.049975697 0
-1.2422591 -0.77176839 0.076310217 0
-1.2420954 -0.77166706 0.21762964 0
-1.2541893 -0.77914923 0.3637093 0
-0.88570786 -0.57431608 -0.049780697 0
-1.2516018 -0.80710262 0.077263206 0
-1.2381483 -0.79854339 0.21880542 0
-1.2363211 -0.79738086 0.36272702 0
-0.88469565 -0.59716111 -0.050192464 0
-1.2433449 -0.83173388 0.077492185 0
-1.2368944 -0.82751495 0.22038001 0
-1.2399296 -0.82950002 0.36641407 0
-0.85964549 -0.60420215 -0.049586013 0
-1.2400523 -0.85990137 0.077949956 0
-1.2421025 -0.86127955 0.22285183 0
-1.2466351 -0.86432618 0.37089303 0
-0.85664821 -0.62595707 -0.049934912 0
-1.2433239 -0.89299959 0.078711852 0
-1.2358365 -0.88782865 0.22390191 0
-1.2389792 -0.88999909 0.37235907 0
-0.85048294 -0.64577025 -0.050160218 0
-1.2317539 -0.91623324 0.0788491 0
-1.23502 -0.91855007 0.22572333 0
-1.5970408 -1.1753576 0.4547759 0
-0.8319937 -0.65680635 -0.049854223 0
-1.2385235 -0.95295161 0.07981053 0
-1.2426093 -0.95592803 0.22873037 0
-1.5701388 -1.1945238 0.45285407 0
-0.81808519 -0.67100275 -0.049755715 0
-1.245034 -0.99032813 0.080790028 0
-1.2437084 -0.98933667 0.23095772 0
-0.81046951 -0.68994689 -0.0499475 0
-1.2351375 -1.0159844 0.081061646 0
-1.2393368 -1.0192086 0.23252223 0
-0.79884171 -0.7059058 -0.049969625 0
-1.162443 -0.99240798 0.078496255 0
-1.1615189 -0.99167985 0.22410437 0
-1.1569695 -0.9880951 0.37096545 0
-0.78402317 -0.71930891 -0.049854666 0
-1.1381632 -1.0056566 0.078113854 0
-1.1318855 -1.0005807 0.22221211 0
-1.1429039 -1.0094898 0.37138999 0
-0.76919138 -0.73259974 -0.049745675 0
-1.2430707 -1.1257352 0.083727844 0
-1.2394096 -1.1226978 0.23946792 0
-1.3316187 -1.1991956 0.41939977 0
-0.76878405 -0.75807017 -0.050319541 0
-1.2443992 -1.1628635 0.084616914 0
-1.2426991 -1.1614166 0.24241556 0
-1.3091626 -1.2179832 0.41847897 0
-1.0270023 -0.97783834 0.49498618 0
-0.74516606 -0.76381832 -0.049814861 0
-1.2860966 -1.2360739 0.41745827 0
-0.9959476 -0.98276132 0.48980495 0
-0.73455942 -0.78074414 -0.049931452 0
-1.1986511 -1.1963289 0.084172286 0
-1.1961011 -1.1940453 0.24094915 0
-1.1918775 -1.1902632 0.39925545 0
-0.96558619 -0.98762387 0.48482355 0
-0.71709323 -0.79148585 -0.04972716 0
-0.91973555 -0.97759825 0.47443977 0
-0.71207964 -0.81376332 -0.050137773 0
-0.88348114 -0.9752087 0.46725151 0
-0.70473814 -0.83419901 -0.050451692 0
-0.85832715 -0.98256022 0.46390224 0
-0.67739177 -0.83513385 -0.049777105 0
-0.83585036 -0.99210364 0.46150544 0
-0.66627312 -0.85188025 -0.049920283 0
-0.81240582 -1.0003318 0.45876929 0
-0.65812194 -0.87186831 -0.050229143 0
-0.6395092 -0.88100284 -0.050008692 0
-0.62546563 -0.89491791 -0.050033223 0
-0.60817528 -0.90521485 -0.04989307 0
-0.58910751 -0.91331679 -0.049661044 0
-0.57738459 -0.92985541 -0.049837228 0
-0.56629735 -0.94736546 -0.050063401 0
-0.55407256 -0.96371919 -0.050240774 0
-0.53701591 -0.97410887 -0.050153013 0
-0.51766825 -0.98139817 -0.04993657 0
-0.50434756 -0.99654812 -0.050082654 0
-0.48258322 -1.0002111 -0.049728625 0
-0.46836185 -1.0141507 -0.049838565 0
-0.4510687 -1.0237548 -0.049767651 0
-0.43847972 -1.0403209 -0.050005566 0
-0.42165512 -1.0506799 -0.049984075 0
-0.37921941 -0.98534948 0.50178814 0
-0.39691031 -1.0484803 -0.049441393 0
-0.35476798 -0.98177785 0.49639925 0
-0.39505398 -1.082814 -0.050446734 0
-0.33173674 -0.97974437 0.49177322 0
-0.37133932 -1.0819297 -0.049981106 0
-0.31455141 -0.98682421 0.49082586 0
-0.35036421 -1.0851194 -0.049699388 0
-0.29190218 -0.98434871 0.48629373 0
-0.3367976 -1.1010592 -0.049953006 0
-0.27295059 -0.98774296 0.48414445 0
-0.31648213 -1.1050396 -0.049725197 0
-0.25458699 -0.99187928 0.48238209 0
-0.29739928 -1.1110065 -0.049589571 0
-0.22677667 -0.97793728 0.47390974 0
-0.28539813 -1.1305304 -0.050008845 0
-0.20765473 -0.97948092 0.47141796 0
-0.26881719 -1.1415431 -0.050091978 0
-0.18869115 -0.9809261 0.46899492 0
-0.2545523 -1.1574908 -0.05037858 0
-0.17380954 -0.99040312 0.46964291 0
-0.22957535 -1.151024 -0.049787149 0
-0.14882149 -0.97839814 0.46246585 0
-0.21365608 -1.1635681 -0.049956415 0
-0.13121249 -0.98138815 0.46092057 0
-0.19531848 -1.1708899 -0.049929079 0
-0.10998966 -0.97583216 0.4563612 0
-0.17650433 -1.1770424 -0.049865544 0
-0.099920824 -0.99579436 0.46113929 0
-0.1627899 -1.1955906 -0.050289415 0
-0.073748901 -0.97723097 0.34809664 0
-0.087728098 -1.0115128 0.46441391 0
-0.14233591 -1.1978225 -0.050091919 0
-0.053929642 -0.97296256 0.34520587 0
-0.065949902 -1.0035357 0.45925662 0
-0.12156661 -1.1988374 -0.049858756 0
-0.028999133 -0.95439893 0.14605783 0
-0.031103862 -0.95995671 0.24210866 0
-0.016052945 -0.92021257 0.32917064 0
-0.051959321 -1.0150287 0.46114805 0
-0.10287257 -1.2050766 -0.049835134 0
-0.0078098015 -0.94417638 0.14423491 0
-0.009510709 -0.94884461 0.23887378 0
0.0055011078 -0.90764469 0.32424971 0
-0.083084062 -1.2081492 -0.049700759 0
0.0072881444 -0.9500652 0.14428501 0
0.0092686582 -0.94440919 0.23698103 0
0.018112915 -0.91915184 0.32593197 0
2.3262339e-05 -0.97081214 0.44140413 0
-0.067661598 -1.2239248 -0.050054796 0
0.028045611 -0.93915957 0.14245242 0
0.025430011 -0.94694191 0.23646715 0
0.02956857 -0.93462819 0.32871825 0
0.014182406 -0.98040789 0.442895 0
-0.047141597 -1.2247007 -0.049852092 0
0.031790897 -0.97967237 0.14646234 0
0.04037185 -0.9530347 0.2366685 0
0.019501196 -1.017823 0.34968349 0
0.018847929 -1.0198509 0.45487481 0
-0.031072928 -1.2394407 -0.050181534 0
0.02674176 -1.0519092 0.35742256 0
-0.013416005 -1.2496221 -0.050347645 0
0.068141326 -0.97274143 0.33503506 0
0.0074649616 -1.2487718 -0.050112333 0
0.084058687 -0.97612196 0.33474097 0
0.026338356 -1.2547992 -0.050141722 0
0.10102208 -0.97548801 0.33344072 0
0.047269836 -1.2528189 -0.049884818 0
0.11687158 -0.97872967 0.33322111 0
0.065379784 -1.2618055 -0.050041094 0
0.084160373 -1.2683532 -0.050115984 0
0.10283963 -1.2756413 -0.050226361 0
0.12234713 -1.2792192 -0.050209921 0
0.14243342 -1.2796706 -0.050088886 0
-0.065232769 -2.3849294 0.10223851 0
0.16305818 -1.2765659 -0.049848408 0
0.0010743903 -2.2028053 0.095418222 0
0.18281378 -1.2777869 -0.049774267 0
0.033024326 -2.2027874 0.095228158 0
0.20124462 -1.287563 -0.050018054 0
0.066297904 -2.1930127 0.094700821 0
0.21967152 -1.2986655 -0.050317585 0
0.097208902 -2.1978662 0.094716556 0
0.24098024 -1.2881628 -0.049847826 0
0.1289234 -2.1963389 0.094516754 0
0.26062238 -1.2897408 -0.049822289 0
0.15995945 -2.1997075 0.094507448 0
0.27908841 -1.30318 -0.050231148 0
0.19166571 -2.1962135 0.094266005 0
0.29958886 -1.296174 -0.049915344 0
0.22274485 -2.1981323 0.094233066 0
0.31977311 -1.2904916 -0.049656443 0
0.25425899 -2.1938007 0.093990445 0
0.33833599 -1.308884 -0.050267879 0
0.28520617 -2.1961567 0.094001397 0
0.35782915 -1.3167918 -0.050512571 0
0.31632262 -2.1951983 0.093907811 0
0.37831038 -1.3012519 -0.049928319 0
0.34721628 -2.1989064 0.09399496 0
0.39784738 -1.3099965 -0.050220635 0
0.37854442 -2.1859128 0.093499571 0
0.41780752 -1.2960964 -0.04971322 0
0.43750787 -1.3123434 -0.050291054 0
0.4573386 -1.3107824 -0.050242018 0
0.47681677 -1.2978903 -0.049797177 0
0.49691731 -1.3077903 -0.050175257 0
0.51603198 -1.2942423 -0.049724318 0
0.53565997 -1.2932146 -0.049729578 0
0.55561244 -1.2962148 -0.049887948 0
0.57570398 -1.2994753 -0.050064825 0
0.5948981 -1.2928944 -0.049897756 0
0.61524296 -1.2971352 -0.050128113 0
0.63411897 -1.2887722 -0.049914312 0
0.65396124 -1.2882305 -0.049990747 0
0.67200005 -1.2757188 -0.04964387 0
0.69294792 -1.2819357 -0.049982522 0
0.71467406 -1.2910872 -0.050437991 0
0.73117447 -1.2716602 -0.049865119 0
0.75131273 -1.2717366 -0.050009444 0
0.77092522 -1.2689437 -0.050058529 0
0.79094952 -1.2677455 -0.050175276 0
0.8066169 -1.2485696 -0.04964048 0
0.82681322 -1.2482522 -0.049806967 0
0.84623736 -1.244662 -0.04986228 0
0.86532784 -1.23976 -0.049878124 0
0.88341451 -1.2314781 -0.049776945 0
0.90392053 -1.2310987 -0.049979694 0
0.92446595 -1.2303715 -0.050179891 0
0.94218117 -1.220951 -0.050062578 0
0.96148759 -1.2162211 -0.050131004 0
0.97926337 -1.2072238 -0.050046459 0
0.99744016 -1.1994224 -0.050015811 0
0.92728293 -1.0176271 0.46317193 0
1.0187663 -1.1995354 -0.050298154 0
0.93786728 -0.99751586 0.45823339 0
1.0367279 -1.191016 -0.050258644 0
0.95603234 -0.99663311 0.4602434 0
1.0546443 -1.1824542 -0.050226044 0
0.97262621 -0.99170417 0.46088162 0
1.0678881 -1.1634403 -0.049793616 0
0.99047893 -0.98947853 0.46258378 0
1.0829456 -1.1490902 -0.049548499 0
1.0035341 -0.97651237 0.46044439 0
1.1044819 -1.1487609 -0.049863651 0
1.0259397 -0.98358148 0.46573335 0
1.1213623 -1.1384382 -0.049794041 0
1.0450833 -0.98309284 0.46835813 0
1.1363637 -1.1245092 -0.049588133 0
1.0625606 -0.97887021 0.4696967 0
1.1578208 -1.1232381 -0.049898356 0
1.0839665 -0.98193926 0.47386375 0
1.1783942 -1.1198591 -0.05013613 0
1.1027216 -0.97941786 0.47604796 0
1.1963379 -1.1113915 -0.050178327 0
1.1320555 -0.99560493 0.057450265 0
1.1325979 -0.99658185 0.1609975 0
1.1313945 -0.99441415 0.26566061 0
1.1288395 -0.9898122 0.37198845 0
1.1304539 -0.99272007 0.48435837 0
1.2120733 -1.0989954 -0.050068527 0
1.1450676 -0.98180526 0.057249073 0
1.1464736 -0.98426443 0.16057624 0
1.1432748 -0.97866982 0.26423854 0
1.1462049 -0.98379451 0.37282574 0
1.1507249 -0.99169976 0.48737323 0
1.2292801 -1.0892457 -0.050075714 0
1.1638943 -0.97815841 0.057473753 0
1.1643118 -0.97886783 0.1610366 0
1.1687438 -0.98639756 0.2677491 0
1.1625009 -0.97579104 0.37314585 0
1.165068 -0.98015267 0.48644489 0
1.2472378 -1.0807199 -0.050143056 0
1.2706929 -1.0809221 -0.050587531 0
1.2728609 -1.0473094 -0.049614355 0
1.296953 -1.0482306 -0.050110478 0
1.3083204 -1.0297195 -0.049786165 0
1.3280171 -1.0235834 -0.050003298 0
1.3468595 -1.0159822 -0.05016895 0
1.3612312 -1.0020813 -0.0500677 0
1.3776927 -0.99106997 -0.050102662 0
1.3982439 -0.98530537 -0.050384 0
1.4088967 -0.96673542 -0.050096408 0
1.2038442 -0.70818001 0.050315123 0
1.2028645 -0.70694464 0.13922952 0
1.4248927 -0.95504743 -0.050128773 0
1.2041359 -0.68377709 0.049642447 0
1.2077113 -0.68817085 0.13798285 0
1.4407225 -0.94311994 -0.050159659 0
1.2064776 -0.66256618 0.049111288 0
1.2044163 -0.6600973 0.13542949 0
1.4533234 -0.92738456 -0.050021198 0
1.2045312 -0.63692093 0.048367307 0
1.2021906 -0.63418835 0.13314891 0
1.4654183 -0.91121644 -0.049868137 0
1.20601 -0.61596555 0.047836769 0
1.2040997 -0.61379129 0.13162749 0
1.4877157 -0.90652627 -0.050272226 0
1.2058278 -0.59372264 0.047239192 0
1.2053189 -0.59315795 0.13005799 0
1.4939121 -0.88399082 -0.049827076 0
1.5047709 -0.86682612 -0.049644593 0
1.5185522 -0.85284811 -0.049625289 0
1.5338413 -0.84039754 -0.049691439 0
1.5588379 -0.8373732 -0.050249461 0
1.5736253 -0.82406253 -0.050299019 0
1.5863768 -0.80880612 -0.050256953 0
1.5972203 -0.79185539 -0.050132722 0
1.6056286 -0.77286404 -0.049904045 0
1.624858 -0.76340944 -0.050199218 0
1.6429271 -0.75270373 -0.050442755 0
1.6460121 -0.72949952 -0.049998574 0
1.6549995 -0.71140343 -0.049841873 0
1.6644814 -0.69382805 -0.049719419 0
1.6801213 -0.6810236 -0.049883932 0
1.6924661 -0.6656388 -0.0499079 0
1.7118278 -0.65527344 -0.050248723 0
1.7280395 -0.64240617 -0.050455011 0
1.7239178 -0.6155048 -0.049788147 0
1.7443891 -0.60547084 -0.050194874 0
1.7563366 -0.58959317 -0.050241571 0
1.7597617 -0.568326 -0.049937177 0
1.7701318 -0.551543 -0.049936786 0
1.7803905 -0.53469056 -0.049940575 0
1.7754455 -0.50907487 -0.049326733 0
1.8091028 -0.50554216 -0.050309502 0
1.8056524 -0.4810718 -0.049779966 0
1.8125477 -0.46246901 -0.049683854 0
1.8172373 -0.44281241 -0.049509361 0
1.8378098 -0.43115082 -0.049978536 0
1.8574588 -0.41867599 -0.050414152 0
1.8569614 -0.3965117 -0.050060537 0
1.8680072 -0.37979749 -0.050171569 0
1.8674645 -0.35796836 -0.049839247 0
1.8838502 -0.3434802 -0.050174579 0
1.8828547 -0.3217096 -0.049845964 0
1.8927242 -0.30441663 -0.049945768 0
1.8941511 -0.28387842 -0.049731512 0
1.9051614 -0.26695517 -0.049891792 0
1.9162686 -0.24994265 -0.050063107 0
1.9210291 -0.23068859 -0.050002996 0
1.9154657 -0.20818584 -0.04956539 0
1.930196 -0.19218908 -0.049897484 0
1.9394053 -0.1743377 -0.050030574 0
1.9466366 -0.15583672 -0.050098263 0
1.959522 -0.13877587 -0.050383117 0
1.954838 -0.11710194 -0.05002835 0
1.9712821 -0.10069457 -0.05045991 0
1.9614201 -0.078079768 -0.049935386 0
1.9701014 -0.05974884 -0.050099231 0
1.9606694 -0.037716221 -0.0496119 0
1.9796885 -0.021282922 -0.050168689 0
1.9853687 -0.0021585033 -0.050248601 0
1.9855409 0.017900337 -0.050137963 0
1.974064 0.039582197 -0.049616363 0
1.996394 0.056400198 -0.050323058 0
1.9896184 0.077221699 -0.049989715 0
1.9842695 0.097656585 -0.049717471 0
1.9973286 0.11615815 -0.050114926 0
1.9892435 0.13667858 -0.049762897 0
1.9945109 0.15602705 -0.049898278 0
2.0065165 0.17509207 -0.050283227 0
1.9943402 0.19549842 -0.049812384 0
1.9996787 0.21502411 -0.049976517 0
1.9978006 0.23480503 -0.049891703 0
1.9988534 0.25451079 -0.049920432 0
2.00968 0.2743015 -0.050306965 0
2.0010118 0.29399976 -0.050006371 0
2.00104 0.3137629 -0.050025143 0
2.0058827 0.33375472 -0.050224867 0
1.99116 0.352781 -0.049734101 0
2.0089276 0.3737171 -0.050414216 0
1.9931504 0.39238605 -0.049902845 0
1.9888227 0.41178033 -0.049809888 0
1.9910619 0.43181732 -0.049961369 0
1.9844582 0.45090222 -0.049804166 0
2.0038643 0.47333741 -0.050592106 0
1.9901545 0.49150831 -0.050196894 0
1.9741867 0.50904179 -0.049727529 0
1.980112 0.53000033 -0.050058182 0
1.9610492 0.54658562 -0.049491994 0
1.9736087 0.56901824 -0.050082792 0
1.9690791 0.58827752 -0.050061937 0
1.9549788 0.60538119 -0.049699731 0
1.9588641 0.62649256 -0.050004262 0
1.9538091 0.64558822 -0.049990483 0
1.9439306 0.66340363 -0.049807414 0
1.9456066 0.684295 -0.050060101 0
1.9377147 0.70258963 -0.049967714 0
1.9253161 0.71944553 -0.049715348 0
1.9303728 0.74168038 -0.050123964 0
1.9206614 0.75931042 -0.049989164 0
1.9046201 0.7746489 -0.04962296 0
1.8993033 0.79358572 -0.049669456 0
1.9031837 0.81601065 -0.05007593 0
1.8990804 0.83563673 -0.050189305 0
1.8902476 0.85344124 -0.050130632 0
1.884735 0.87259489 -0.050208826 0
1.8594971 0.88325697 -0.049529199 0
1.8607866 0.90530133 -0.049889017 0
1.8473293 0.92078686 -0.049681447 0
1.8346504 0.93648666 -0.049511142 0
1.8508717 0.96635973 -0.050498851 0
1.8340142 0.98012477 -0.05018191 0
1.8262305 0.99841982 -0.050235964 0
1.8048952 1.0094049 -0.049749207 0
1.7923633 1.0249238 -0.04962476 0
1.7876184 1.0448301 -0.04982825 0
1.7831334 1.0650609 -0.050054416 0
1.7704629 1.080489 -0.049950629 0
1.7674181 1.1018738 -0.050259866 0
1.7496204 1.1140047 -0.049956232 0
1.7276272 1.1231008 -0.049476855 0
1.7300011 1.1483938 -0.050050952 0
1.7098124 1.1583923 -0.049660712 0
1.7066132 1.180269 -0.050019447 0
1.6816194 1.1863763 -0.049426582 0
1.6854012 1.2137687 -0.050120439 0
1.6677272 1.2250968 -0.049866226 0
1.6652403 1.2483219 -0.050309677 0
1.6420763 1.25502 -0.049816944 0
1.6293632 1.2700503 -0.049810246 0
1.6233065 1.2908162 -0.050126087 0
1.6151785 1.3100522 -0.050359149 0
1.6004096 1.3234918 -0.050286435 0
1.5791669 1.3308444 -0.049905423 0
1.5573076 1.3372419 -0.049493935 0
1.562708 1.3699032 -0.050442748 0
1.5508112 1.386165 -0.050549585 0
1.5332906 1.3967543 -0.050380193 0
1.5072759 1.3982131 -0.049774595 0
1.0222058 0.88646549 0.29116824 0
1.5072626 1.4271797 -0.050529301 0
1.0419474 0.92372584 0.30470711 0
1.4870806 1.4345657 -0.050238356 0
1.439512 1.38178 0.059701532 0
1.4436996 1.3864269 0.16832653 0
1.4407055 1.3831044 0.27760029 0
1.0448545 0.94383883 0.31030175 0
1.4672436 1.4420381 -0.049966864 0
1.4133955 1.3807498 0.059054229 0
1.4129883 1.3802862 0.16563943 0
1.411268 1.3783283 0.27342752 0
1.0579784 0.97622466 0.32125375 0
1.4488591 1.4509165 -0.049776193 0
1.3884153 1.3803489 0.058459003 0
1.381229 1.371959 0.16272676 0
1.3912649 1.3836757 0.27179199 0
1.0564541 0.99278575 0.32508343 0
1.4388613 1.469635 -0.050055984 0
1.3700484 1.3872182 0.058222838 0
1.3669386 1.3834937 0.16268158 0
1.3680069 1.3847733 0.26923451 0
1.0579373 1.0134043 0.33063996 0
1.4254615 1.4844908 -0.050160952 0
1.3384598 1.3775812 0.057240009 0
1.3442742 1.384726 0.16123447 0
1.3426448 1.3827239 0.26603988 0
1.0550961 1.0293784 0.33413967 0
1.4086002 1.4951056 -0.050079372 0
1.3214297 1.3851904 0.057070993 0
1.3244238 1.3889657 0.16025358 0
1.3158038 1.3780966 0.26235747 0
1.0657489 1.0627967 0.34502703 0
1.3866518 1.4990487 -0.049707182 0
1.2987045 1.3852395 0.056572244 0
1.2963083 1.3821386 0.15781322 0
1.2895472 1.3733894 0.25876993 0
1.0543246 1.0689968 0.34430829 0
1.3712571 1.5112658 -0.049720656 0
1.2744616 1.3826925 0.055975027 0
1.2674913 1.3734337 0.15519114 0
1.2780579 1.3874694 0.2595323 0
1.0470858 1.0806693 0.3459354 0
1.3629687 1.5331949 -0.050172601 0
1.2467564 1.3747163 0.055156525 0
1.2510993 1.3806387 0.154762 0
1.250599 1.3799564 0.25549108 0
1.0304917 1.0797958 0.34240946 0
1.3476243 1.5457975 -0.050215937 0
1.2547697 1.4157693 0.056511626 0
1.2446681 1.4016238 0.15618387 0
1.2497685 1.408766 0.25961259 0
1.0167333 1.0824376 0.34043795 0
1.3263859 1.5499815 -0.049901281 0
1.2457004 1.4339319 0.056855183 0
1.2487079 1.4382577 0.15965228 0
1.248548 1.4380279 0.26379982 0
1.0102412 1.0952725 0.34268445 0
1.3107069 1.56199 -0.04993818 0
1.2486449 1.4702842 0.057984896 0
1.2384689 1.4552478 0.16053556 0
1.241631 1.4599202 0.26635003 0
1.0018286 1.1055765 0.34392816 0
1.29682 1.5767729 -0.050101846 0
1.2468009 1.5008192 0.058855012 0
1.2383004 1.4879113 0.16344507 0
1.2349906 1.4828854 0.26912978 0
1.1690308 1.3827257 0.34764168 0
0.99542034 1.1190991 0.34648609 0
1.280389 1.5878043 -0.050112575 0
1.2463353 1.5346488 0.059858821 0
1.2439686 1.5309546 0.16765626 0
1.2234261 1.4988892 0.27041417 0
1.1498762 1.3840827 0.34526992 0
0.9840253 1.1252003 0.34612322 0
1.2633789 1.5979265 -0.050093722 0
1.2413577 1.5625809 0.060606968 0
1.2466573 1.5710872 0.17145692 0
1.2074816 1.5082073 0.27029896 0
1.1278596 1.3804082 0.34147704 0
0.98234594 1.1468477 0.35191348 0
1.2362031 1.5912453 -0.04938262 0
1.1886001 1.512651 0.26919934 0
1.1137754 1.3891127 0.34148839 0
0.96518451 1.1437837 0.34805626 0
0.8395226 0.93631119 0.47188628 0
1.2300885 1.6193633 -0.05013261 0
1.1729491 1.5222863 0.26924425 0
1.0959866 1.3915308 0.33969131 0
0.95840257 1.1577823 0.35089827 0
0.84316665 0.96200222 0.48607591 0
1.2084516 1.6214056 -0.049808037 0
1.1627953 1.5415546 0.27133113 0
1.0746577 1.3874054 0.33605009 0
0.94782722 1.165584 0.35137779 0
0.84965444 0.99388391 0.35393065 0
0.83499432 0.96824384 0.41167781 0
0.83930588 0.97578466 0.49199706 0
1.197843 1.6428467 -0.050289024 0
1.1432626 1.5445355 0.27007025 0
1.0520902 1.3803139 0.33164737 0
0.92994744 1.1603079 0.34692839 0
0.85328645 1.0222247 0.36489204 0
0.83953118 0.99744827 0.42552286 0
0.84178442 1.0015069 0.50600892 0
1.1772246 1.6464329 -0.050048109 0
1.1314059 1.5613976 0.27171215 0
1.0336879 1.380042 0.32933342 0
0.92359406 1.1757179 0.3504121 0
0.85058755 1.0402248 0.37089446 0
0.84266579 1.0255227 0.43859944 0
0.83844423 1.0176879 0.5134775 0
1.1583153 1.6529284 -0.049936466 0
1.1130569 1.5663396 0.27094811 0
1.020658 1.3895611 0.32992023 0
0.91285497 1.1833111 0.3509686 0
0.85249692 1.0678334 0.38136235 0
0.84028333 1.0444663 0.44641295 0
0.83899498 1.0420012 0.52636731 0
1.1349745 1.6505119 -0.0494784 0
1.0952477 1.5721174 0.27040473 0
0.99749029 1.3792082 0.32486662 0
0.89404947 1.1750841 0.34567165 0
0.85118598 1.0904996 0.38945839 0
0.83774626 1.0639784 0.45451266 0
0.84296042 1.0742679 0.54445815 0
1.1233299 1.6711893 -0.049953409 0
1.0758018 1.5743966 0.269207 0
0.98714924 1.3938518 0.32703203 0
0.88591665 1.1876874 0.34821594 0
0.84737778 1.1092013 0.39568347 0
0.83724087 1.0885571 0.46540436 0
0.84621751 1.1068385 0.56260526 0
1.1074445 1.6837356 -0.050109953 0
0.96370959 1.3814515 0.32158136 0
0.87670851 1.1984825 0.35011673 0
0.84243035 1.1263933 0.40120134 0
0.83641571 1.1137441 0.47657162 0
0.84149432 1.1244248 0.57077724 0
1.088585 1.6900899 -0.050030138 0
0.94880992 1.3863294 0.32109791 0
0.86764824 1.2099481 0.35229468 0
0.83896959 1.1476234 0.40855622 0
0.83785385 1.1451987 0.49113211 0
0.8415367 1.1532023 0.58624685 0
1.0701842 1.6973445 -0.049995251 0
0.92958796 1.3813826 0.31792608 0
0.8550545 1.2138834 0.35176006 0
0.84166741 1.1837987 0.42266265 0
0.84013468 1.1803542 0.50762808 0
0.84320647 1.1872574 0.60505533 0
1.0497934 1.6999165 -0.049787607 0
0.91403019 1.3841712 0.31698704 0
0.85121727 1.2380867 0.35862583 0
0.84014088 1.2123263 0.43323085 0
0.83259457 1.1947758 0.51272696 0
0.84164476 1.215824 0.6202057 0
1.0342145 1.7137058 -0.05002461 0
0.8992784 1.3886659 0.31657845 0
0.84897017 1.2674813 0.36734328 0
0.84015602 1.2462493 0.4461714 0
0.84091347 1.2480739 0.53891194 0
0.83699822 1.2386427 0.63159883 0
1.0145084 1.7176466 -0.049889237 0
0.87768513 1.3759742 0.31149983 0
0.84776193 1.3012506 0.37759486 0
0.84154904 1.2857358 0.46152806 0
0.84506083 1.2945054 0.56120765 0
0.84060377 1.2833754 0.65697151 0
0.99553549 1.7232312 -0.049826942 0
0.86415297 1.3827854 0.31185383 0
0.84599787 1.3357409 0.38805935 0
0.83971357 1.3194567 0.4742437 0
0.8402161 1.3207589 0.57254577 0
0.83906829 1.3177847 0.67562997 0
0.97848219 1.7338653 -0.049966373 0
0.84632742 1.3781475 0.30913651 0
0.84337324 1.3701957 0.39847025 0
0.83573771 1.3496433 0.48534924 0
0.83868241 1.3575696 0.5894984 0
0.83749217 1.3543658 0.69558764 0
0.95990151 1.7405257 -0.049962688 0
0.83194441 1.3823555 0.30888894 0
0.83953899 1.4036138 0.40847993 0
0.83947676 1.4034396 0.50680727 0
0.84061903 1.4066371 0.61289752 0
0.94564843 1.7598003 -0.050443988 0
0.81819898 1.3883537 0.30917433 0
0.84000814 1.4519157 0.4236986 0
0.83624619 1.4409516 0.52102411 0
0.84095144 1.4546649 0.63563293 0
0.92297649 1.7545898 -0.050009787 0
1.0300472 2.0799313 0.35070989 0
0.80005997 1.3810995 0.30594558 0
0.84238398 1.509704 0.44217485 0
0.83976376 1.5017421 0.54534656 0
0.83944976 1.5007881 0.65726888 0
0.90172482 1.7528768 -0.049718931 0
1.0057073 2.0827661 0.34985054 0
0.78442454 1.3807358 0.30463406 0
0.83639944 1.5456287 0.45294079 0
0.84119385 1.5608393 0.56881833 0
0.83902067 1.5539447 0.68251878 0
0.88649887 1.7704552 -0.050158512 0
0.98325121 2.0914488 0.35015377 0
0.76988077 1.3835534 0.30422783 0
0.84315127 1.6266415 0.47935936 0
0.8399806 1.6161224 0.59054404 0
0.86652064 1.7726498 -0.050032131 0
0.96150798 2.1027751 0.35100523 0
0.75408322 1.3818771 0.3026787 0
0.8389191 1.6767216 0.49494421 0
0.83582324 1.6659619 0.60985255 0
0.84686297 1.7756883 -0.049946759 0
0.7374264 1.3764969 0.047169264 0
0.73836154 1.3799078 0.1303093 0
0.74218327 1.3938484 0.21721552 0
0.73822969 1.379427 0.30098292 0
0.8353833 1.7338139 0.51291281 0
0.83545285 1.7340678 0.63695896 0
0.82702905 1.7778245 -0.049837522 0
0.72644973 1.3919508 0.047601048 0
0.72369957 1.3813998 0.13005716 0
0.7236588 1.3812433 0.21415631 0
0.72692025 1.3937559 0.30376935 0
0.83267909 1.7995009 0.53379279 0
0.83243227 1.7985538 0.66242981 0
0.807724 1.7817914 -0.049805153 0
0.70840496 1.3800962 0.047032267 0
0.70902866 1.3826188 0.12979607 0
0.70738727 1.3759803 0.212514 0
0.70635319 1.3717978 0.29704785 0
0.82436955 1.8491143 0.54911101 0
0.82642597 1.8574315 0.68544579 0
0.79147631 1.7987417 -0.050257843 0
0.69500118 1.3863301 0.047136724 0
0.6959644 1.3904476 0.1302857 0
0.69694138 1.3946239 0.21534249 0
0.69479007 1.3854276 0.29973876 0
0.8158676 1.9030094 0.56588292 0
0.77013803 1.7941209 -0.049928118 0
0.6793201 1.382597 0.04688267 0
0.68033898 1.3872141 0.12957461 0
0.68050301 1.3879572 0.21351293 0
0.67864758 1.3795497 0.29736355 0
0.80570114 1.9552683 0.58208728 0
0.75284165 1.8078485 -0.050278082 0
0.66420305 1.3807116 0.04670386 0
0.66400212 1.3797433 0.12842195 0
0.66515309 1.3852897 0.21246292 0
0.66356659 1.3776445 0.29608271 0
0.79554689 2.0136387 0.60036969 0
0.73271161 1.8083109 -0.050152674 0
0.65018642 1.3838373 0.046714678 0
0.65011603 1.3834752 0.12852113 0
0.65007633 1.3832711 0.21157028 0
0.64988953 1.3823104 0.29656231 0
0.77487075 2.0251589 0.602772 0
0.71211135 1.8057026 -0.049925338 0
0.63468647 1.3788406 0.046437163 0
0.63449526 1.3777863 0.12761025 0
0.63493067 1.3801869 0.21051921 0
0.63477397 1.379323 0.29510108 0
0.76383716 2.0908792 0.62358326 0
0.69308048 1.8114669 -0.050011016 0
0.62006253 1.3778807 0.046313465 0
0.62018162 1.378588 0.12743011 0
0.62193632 1.3890076 0.21168251 0
0.62028193 1.3791835 0.29442906 0
0.74568892 2.1238596 0.63335174 0
0.67384589 1.8163345 -0.050072789 0
0.60630935 1.3819681 0.046379022 0
0.60599399 1.3799396 0.12732975 0
0.60544258 1.3763931 0.2089612 0
0.60730237 1.3883547 0.29620951 0
0.72662246 2.1557713 0.64281815 0
0.65549421 1.8277241 -0.050378397 0
0.59158075 1.3795589 0.046216436 0
0.59212959 1.3834075 0.12747873 0
0.59170443 1.3804263 0.20931542 0
0.5922541 1.3842804 0.29461539 0
0.70841867 2.1988337 0.65609574 0
0.63338047 1.8118262 -0.049709458 0
0.57843292 1.3884562 0.046467837 0
0.58002949 1.4007577 0.12915085 0
0.5779286 1.3845702 0.20972067 0
0.57813239 1.3861408 0.29459947 0
0.68894982 2.2399874 0.66878831 0
0.61489493 1.8229047 -0.050021183 0
0.56330234 1.3819528 0.046171244 0
0.56381243 1.3863124 0.12739664 0
0.56365031 1.3849268 0.20946914 0
0.56346411 1.3833352 0.29343078 0
0.66821057 2.2785838 0.68068767 0
0.59490156 1.8216711 -0.049898926 0
0.5523445 1.4134767 0.13016282 0
0.55164325 1.4067509 0.2131432 0
0.55108362 1.4013833 0.29766026 0
0.64450765 2.297478 0.68606859 0
0.57543272 1.8252561 -0.049958583 0
0.55136114 1.5623069 0.1460714 0
0.55164301 1.5653859 0.24161726 0
0.55237544 1.5733862 0.3413679 0
0.6214543 2.3279798 0.69542098 0
0.55588496 1.8284152 -0.050011717 0
0.60168976 2.4092417 0.23722328 0
0.59992421 2.3868539 0.38997531 0
0.59826303 2.3657892 0.54380333 0
0.53591084 1.825748 -0.049865156 0
0.57330245 2.390547 0.39029229 0
0.57290441 2.3845348 0.54810548 0
0.51648021 1.8313543 -0.050023485 0
0.54865146 2.4319389 0.39747828 0
0.54752702 2.4109473 0.55444521 0
0.49704352 1.8396174 -0.05028541 0
0.5220961 2.4514508 0.40076733 0
0.52196997 2.4483714 0.56367505 0
0.47705233 1.8349468 -0.050094053 0
0.45653659 1.1110293 0.35668725 0
0.45648724 1.1092871 0.42891473 0
0.45706272 1.8220007 -0.04961624 0
0.44585779 1.110218 0.35625404 0
0.44579861 1.106459 0.42738217 0
0.4374432 1.8205516 -0.049557891 0
0.43513742 1.0883815 0.4182871 0
0.43512753 1.0852437 0.49281862 0
0.4177767 1.8281062 -0.049829811 0
0.42477909 1.0865316 0.41737783 0
0.42488238 1.0755949 0.48711547 0
0.39805788 1.8291888 -0.049879536 0
0.41399708 1.1059107 0.35451186 0
0.4139798 1.1066952 0.42755044 0
0.41454563 1.0810184 0.49042803 0
0.37813208 1.8351438 -0.050112206 0
0.35234749 2.5795174 0.42378387 0
0.35228214 2.5814042 0.5975036 0
0.40489724 1.0624603 0.47958845 0
0.35819501 1.8377932 -0.050235841 0
0.32278317 2.5872173 0.4253895 0
0.32259679 2.5911617 0.60030091 0
0.39553922 1.0474745 0.47093543 0
0.33891758 1.8279153 -0.049920496 0
0.29231933 2.6061103 0.42908594 0
0.29191619 2.6128428 0.60624331 0
0.31889361 1.8313626 -0.050090525 0
0.26114127 2.6276519 0.43333396 0
0.26116362 2.6273439 0.61045325 0
0.29970637 1.8235389 -0.04986592 0
0.2296754 2.6455293 0.43699431 0
0.23023939 2.6389093 0.6140151 0
0.27894157 1.8334241 -0.050284952 0
0.19862628 2.6538546 0.43900004 0
0.19756743 2.6646709 0.62132043 0
0.26062721 1.8184414 -0.049820721 0
0.16642563 2.6699991 0.44249824 0
0.16630943 2.6710496 0.62376601 0
0.34710777 1.0366793 0.46680915 0
0.24059004 1.8200696 -0.049961586 0
0.13352422 2.6877952 0.44637558 0
0.13462038 2.6789112 0.62669778 0
0.22052424 1.8211484 -0.050091989 0
0.10392861 2.6772699 0.44518012 0
0.10252558 2.6875718 0.62994295 0
0.20162922 1.8137267 -0.04992491 0
0.069728181 2.698741 0.44988447 0
0.067585334 2.7131188 0.63765419 0
0.18254939 1.8081638 -0.049833313 0
0.037679985 2.7027812 0.45149252 0
0.036581114 2.7095673 0.63797414 0
0.16253521 1.8083005 -0.049956791 0
0.0030769275 2.720099 0.45560879 0
0.0021862851 2.7251916 0.6433624 0
0.1418484 1.8115286 -0.050201993 0
-0.030860139 2.7307327 0.45858815 0
-0.026923997 2.7097833 0.64081979 0
0.12219562 1.8087174 -0.050237376 0
-0.088941529 2.8593762 0.10049715 0
-0.090817466 2.8687112 0.291482 0
-0.062168524 2.7261486 0.45885417 0
-0.063399598 2.7322748 0.6482287 0
0.10464893 1.7959344 -0.04991781 0
-0.11358143 2.8152699 0.099134058 0
-0.1113493 2.8048437 0.2852096 0
-0.093397632 2.720993 0.45908818 0
-0.094911769 2.7280655 0.6488108 0
0.086632207 1.7862223 -0.049717832 0
-0.14010389 2.7837601 0.098239578 0
-0.14241917 2.7939463 0.28478554 0
-0.12920184 2.7357957 0.46308669 0
-0.12755366 2.7285445 0.65072489 0
0.06490849 1.7925088 -0.05011303 0
-0.17527319 2.7908673 0.09877266 0
-0.17499353 2.7897048 0.28513908 0
-0.16392078 2.7436788 0.46589732 0
-0.15956689 2.7255814 0.65184915 0
0.043307766 1.7971656 -0.050459526 0
-0.21244605 2.804316 0.099557303 0
-0.20962055 2.7931893 0.28639582 0
-0.19747098 2.7453444 0.46764126 0
-0.19700904 2.7435255 0.65858644 0
0.025850968 1.7853662 -0.050209079 0
-0.25083047 2.8201332 0.1004494 0
-0.25000852 2.817059 0.28997299 0
-0.2308913 2.7455621 0.46919951 0
-0.23004074 2.7423811 0.66042954 0
0.0089996029 1.7720531 -0.049909756 0
-0.26212996 2.7371902 0.46923292 0
-0.26316094 2.7408602 0.66228944 0
-0.0093409847 1.764532 -0.049832758 0
-0.29586494 2.7372584 0.47092706 0
-0.2945866 2.7329187 0.66255921 0
-0.028988792 1.7614247 -0.049928978 0
-0.32617891 2.7254097 0.47045881 0
-0.32518148 2.7221746 0.66218734 0
-0.047570482 1.7547764 -0.049902029 0
-0.35973448 2.7238204 0.47200474 0
-0.35927778 2.7224028 0.66485804 0
-0.066425994 1.7489926 -0.049916327 0
-0.39385384 2.7232146 0.47382459 0
-0.39171642 2.716855 0.6661008 0
-0.087493137 1.7494848 -0.050177053 0
-0.42669487 2.718174 0.47488695 0
-0.42713416 2.7194285 0.66965449 0
-0.1109813 1.7560753 -0.050680745 0
-0.45717221 2.7061977 0.47470209 0
-0.45735067 2.7066875 0.66918689 0
-0.12159498 1.7276566 -0.049861621 0
-0.48435789 2.6855874 0.47292516 0
-0.48791987 2.6949935 0.66910625 0
-0.14113785 1.7235196 -0.049975026 0
-0.51918513 2.6850772 0.47510076 0
-0.51754993 2.680918 0.66847765 0
-0.15558381 1.7066629 -0.049608067 0
-0.55180478 2.678335 0.47615895 0
-0.5492785 2.6721399 0.66940784 0
-0.17537768 1.7031201 -0.049762197 0
-0.58297336 2.6677659 0.47655371 0
-0.58418071 2.6706231 0.67246467 0
-0.19165285 1.6912547 -0.04960255 0
-0.61234891 2.6529472 0.47619116 0
-0.61232245 2.6528869 0.67114365 0
-0.21466263 1.6945367 -0.050043575 0
-0.64300096 2.6410594 0.4764798 0
-0.64236331 2.6396503 0.67117411 0
-0.23398562 1.6891959 -0.050158735 0
-0.66871774 2.6185141 0.4747248 0
-0.66860521 2.6182737 0.66901833 0
-0.24795701 1.6725868 -0.04983741 0
-0.69995821 2.6079509 0.47542378 0
-0.69634438 2.6004727 0.66795576 0
-0.26633596 1.6653137 -0.049893539 0
-0.72388363 2.582494 0.47320443 0
-0.72915399 2.5930588 0.66994745 0
-0.28217888 1.6530199 -0.0497577 0
-0.75379741 2.5693378 0.47352663 0
-0.75662446 2.5748305 0.66896713 0
-0.30611753 1.6561779 -0.050253518 0
-0.78410614 2.5568187 0.47405767 0
-0.78541684 2.5592885 0.66885567 0
-0.31818557 1.636898 -0.049851928 0
-0.80697143 2.5305259 0.47183922 0
-0.81386101 2.5431218 0.6686669 0
-0.34133887 1.6378633 -0.050283287 0
-0.61968422 2.1318729 0.082526945 0
-0.84178436 2.5260582 0.47418234 0
-0.83879054 2.5207448 0.66676259 0
-0.35525471 1.6222932 -0.050047319 0
-0.61889434 2.0767272 0.080803789 0
-0.8641386 2.4994533 0.47201803 0
-0.86384153 2.4989412 0.66510582 0
-0.37393367 1.6150187 -0.050161771 0
-0.62226725 2.0309155 0.079455346 0
-0.88765562 2.4753752 0.47042704 0
-0.88617086 2.4728885 0.66226727 0
-0.39236993 1.6071891 -0.050263666 0
-0.62232435 1.9815156 0.077947848 0
-0.91464186 2.4573588 0.47016922 0
-0.91294563 2.4545977 0.66181463 0
-0.39852172 1.5797751 -0.049549103 0
-0.61591685 1.9238667 0.076079994 0
-0.93984318 2.4365752 0.46939117 0
-0.9380399 2.4337208 0.6606794 0
-0.42190975 1.5798161 -0.050000761 0
-0.61689937 1.8800061 0.074780375 0
-0.95923555 2.4070385 0.46679235 0
-0.95470321 2.4000609 0.65574151 0
-0.43707222 1.5669568 -0.049915064 0
-0.61917508 1.8397263 0.07362403 0
-0.98358393 2.3855698 0.46597382 0
-0.97894287 2.378618 0.6545738 0
-0.45928395 1.5644752 -0.05028614 0
-0.62094831 1.8001493 0.072489314 0
-1.0013657 2.3547211 0.46316355 0
-1.0078055 2.364109 0.6556353 0
-0.47075444 1.5462904 -0.049986862 0
-0.61950707 1.7573935 0.071206629 0
-1.0194987 2.3250434 0.46063578 0
-1.0251616 2.3330801 0.65166318 0
-0.4821887 1.5284102 -0.049704596 0
-0.61404157 1.7106135 0.069734074 0
-0.61542714 1.7125281 0.19810858 0
-1.0450419 2.3061993 0.46054718 0
-1.0401314 2.2994134 0.64689255 0
-0.076983467 0.96846974 0.44085586 0
-0.50638735 1.5280375 -0.050204758 0
-0.61529052 1.6746056 0.068723746 0
-0.62851393 1.6924025 0.19719604 0
-1.0670959 2.2826712 0.45947734 0
-1.0638089 2.2782474 0.64610994 0
-0.098446146 0.97900689 0.45145786 0
-0.51745552 1.5098634 -0.049924046 0
-0.62038922 1.6448143 0.067983501 0
-0.62141752 1.6461624 0.19276717 0
-1.0796341 2.2469056 0.45568407 0
-1.0859575 2.2551959 0.64481008 0
-0.10509051 0.96923375 0.44955072 0
-0.53738225 1.5033209 -0.050174233 0
-0.6181438 1.6064831 0.066851623 0
-0.62088251 1.6099814 0.18965521 0
-1.0939542 2.214267 0.45260552 0
-1.0957706 2.2165873 0.63854659 0
-0.1071188 0.95371699 0.44402796 0
-0.55215347 1.4900745 -0.050131381 0
-0.61234403 1.5649968 0.065562464 0
-0.61631525 1.5699401 0.18597852 0
-1.1116364 2.1864922 0.45066229 0
-1.1119043 2.1868255 0.63515484 0
-0.12943842 0.9638989 0.45495889 0
-0.56142473 1.4701984 -0.049789906 0
-0.61551678 1.5358199 0.064826012 0
-0.61861396 1.5395772 0.18360348 0
-1.1314489 2.1617203 0.44945243 0
-1.1252393 2.154187 0.63084346 0
-0.13910635 0.95786488 0.45567048 0
-0.57974637 1.4613923 -0.049967803 0
-0.6223743 1.5117993 0.064324632 0
-0.61882305 1.5076001 0.18097986 0
-1.1434374 2.1279507 0.44616306 0
-1.1420778 2.1263428 0.62814367 0
-0.14661236 0.94921613 0.45475572 0
-0.59509313 1.4489608 -0.049987152 0
-0.61917329 1.4767188 0.063299075 0
-0.62584138 1.4844053 0.17957731 0
-1.1595578 2.0996375 0.44417617 0
-1.157674 2.0974658 0.62513661 0
-0.60700691 1.4326459 -0.049830317 0
-0.63300645 1.4618649 0.063226655 0
-0.63653553 1.4658309 0.17883626 0
-1.1681778 2.0633051 0.44027972 0
-1.1694738 2.0647616 0.62085533 0
-0.62053859 1.4182634 -0.049772277 0
-0.65486991 1.4558811 0.063590497 0
-0.65377963 1.4546865 0.17918716 0
-1.184365 2.0360641 0.43858442 0
-1.1727777 2.0233676 0.61357415 0
-0.64192355 1.4123265 -0.050134826 0
-0.51389819 1.2755448 0.055446222 0
-0.68433237 1.4576359 0.18164863 0
-1.1825228 1.9899002 0.43224463 0
-1.192014 2.0000405 0.61253464 0
-0.64575565 1.3877295 -0.049591601 0
-0.50070095 1.2366134 0.054113317 0
-0.71667767 1.4616152 0.18435042 0
-1.1974133 1.9624395 0.43049765 0
-1.1933529 1.9582095 0.60502374 0
-0.66792083 1.3822982 -0.05000414 0
-0.52479929 1.2369056 0.054720484 0
-0.74334788 1.4589223 0.18614073 0
-1.2102163 1.9331992 0.42832568 0
-1.2097415 1.9327168 0.60327441 0
-0.68423176 1.3706537 -0.050120831 0
-0.52381372 1.2117429 0.054059409 0
-0.76981175 1.4554297 0.18788283 0
-1.2212934 1.9026695 0.42583659 0
-1.2209642 1.9023434 0.59980756 0
-0.70136499 1.3596848 -0.050284255 0
-0.54128605 1.2050544 0.054338351 0
-0.80962098 1.464256 0.19160452 0
-1.2168744 1.8576478 0.41958889 0
-1.2260526 1.8665137 0.59434325 0
-0.70873642 1.3393584 -0.049973805 0
-0.56509376 1.2040594 0.05492888 0
-0.83404326 1.4573866 0.19299421 0
-1.2349195 1.8349776 0.4191218 0
-1.2230784 1.8238242 0.58627647 0
-0.71929109 1.3222487 -0.049833704 0
-0.86848426 1.4592718 0.069065653 0
-0.880566 1.470368 0.19760543 0
-1.231846 1.7929935 0.41355902 0
-1.2299159 1.7912209 0.58188868 0
-0.23339237 0.87598544 0.38036272 0
-0.73356307 1.308596 -0.049883701 0
-0.90017223 1.4577912 0.069868177 0
-0.89863098 1.456411 0.19803593 0
-1.2352477 1.7578447 0.40975496 0
-1.2366639 1.7591127 0.5776608 0
-0.23284759 0.86021537 0.37580925 0
-0.74523413 1.2926219 -0.049818087 0
-0.9487828 1.4703287 0.071464822 0
-1.2407025 1.7251871 0.40659052 0
-1.2379061 1.7227457 0.57175207 0
-0.23056145 0.84329033 0.37045825 0
-0.75833786 1.2779237 -0.049829815 0
-0.96916187 1.4573548 0.071713485 0
-1.2402583 1.6880835 0.40216073 0
-1.2469351 1.693766 0.56866944 0
-0.24556859 0.84150851 0.37468293 0
-0.24932702 0.84470731 0.45400292 0
-0.7738837 1.2652366 -0.049963336 0
-1.0028733 1.4552089 0.072585635 0
-1.2517732 1.6616991 0.40068942 0
-1.2414629 1.6531456 0.56093329 0
-0.25100249 0.8314485 0.37372577 0
-0.78216517 1.2465507 -0.049769361 0
-1.0503392 1.4633887 0.074081697 0
-1.2524637 1.6268209 0.39679998 0
-1.233272 1.611303 0.5525521 0
-0.25117165 0.81720412 0.37004295 0
-0.79973185 1.2353513 -0.050010085 0
-1.0899109 1.464 0.075199477 0
-1.2501917 1.5902944 0.39237005 0
-1.2396803 1.5820119 0.54916781 0
-0.27576137 0.82248509 0.37936413 0
-0.81691885 1.2236425 -0.050237782 0
-1.1227567 1.4584486 0.076003432 0
-1.2458135 1.5529251 0.38760898 0
-1.2468745 1.5537397 0.546188 0
-0.26569974 0.8004455 0.37047324 0
-0.24297257 0.78299677 0.43211016 0
-0.81779861 1.1995326 -0.049742941 0
-1.1628748 1.4576235 0.077127196 0
-1.2464906 1.5201617 0.38413748 0
-1.2407511 1.515869 0.5391072 0
-0.26258314 0.78427339 0.36540061 0
-0.28047329 0.79765385 0.45149416 0
-0.83000457 1.1841013 -0.049766362 0
-1.2121656 1.4624949 0.07864631 0
-1.2439506 1.4856493 0.38007239 0
-1.2320195 1.4769578 0.53141904 0
-1.2448707 1.4863195 0.69644022 0
-0.26456916 0.7721979 0.36309293 0
-0.27887797 0.78262144 0.44638509 0
-0.83395481 1.1627898 -0.049436752 0
-1.2527384 1.4598632 0.079767622 0
-1.2446446 1.4541217 0.37685502 0
-1.2391099 1.4501956 0.52890229 0
-1.2476925 1.4562837 0.69136953 0
-0.28108811 0.77060163 0.36826062 0
-0.27976573 0.76966351 0.44296128 0
-0.85305059 1.1522167 -0.049778823 0
-1.3035398 1.4633293 0.081324473 0
-1.2562879 1.4306967 0.37615275 0
-1.2446982 1.4226928 0.52604657 0
-1.2379849 1.4180565 0.68143052 0
-0.28125858 0.75733083 0.44003475 0
-0.86116862 1.13397 -0.04965153 0
-1.2725235 1.4104719 0.079346769 0
-1.2726196 1.4105364 0.22680353 0
-1.2569883 1.4000295 0.37314281 0
-1.2414494 1.3895847 0.52060521 0
-1.2351689 1.3853631 0.6745317 0
-0.28552258 0.74703616 0.43889752 0
-0.88342333 1.1250731 -0.05013819 0
-1.2647989 1.3745099 0.078407407 0
-1.2737046 1.3803346 0.22510698 0
-1.2410345 1.3589669 0.36665222 0
-1.2415559 1.359308 0.51635903 0
-1.2436528 1.3606795 0.67234582 0
-0.29021609 0.73708874 0.43810424 0
-0.89742923 1.1105175 -0.050276678 0
-1.2753893 1.3509808 0.07826975 0
-1.2748859 1.3506604 0.22348487 0
-1.2512791 1.3356415 0.36592436 0
-1.2362262 1.3260647 0.51061863 0
-1.2302332 1.3222518 0.66166353 0
-0.29981607 0.73030818 0.44030148 0
-0.90165865 1.0897951 -0.050011393 0
-1.2819209 1.3250499 0.077975266 0
-1.2884732 1.3291036 0.22349058 0
-1.2610476 1.3121364 0.36516374 0
-1.2409482 1.2997016 0.50806439 0
-1.236077 1.2966878 0.65879023 0
-0.90733755 1.070159 -0.04981941 0
-1.3057342 1.3097497 0.078416608 0
-1.3061298 1.3099877 0.2240407 0
-1.250838 1.2767359 0.36026701 0
-1.2444676 1.2729048 0.50527066 0
-1.233596 1.2663667 0.65283227 0
-0.92436349 1.057307 -0.050108295 0
-1.3235869 1.2906011 0.078616247 0
-1.3374612 1.2987089 0.22631903 0
-1.250958 1.2481589 0.35765731 0
-1.2392322 1.2413068 0.50001043 0
-1.2398109 1.241645 0.65041649 0
-0.936517 1.0414516 -0.05020177 0
-1.3847862 1.2958896 0.080603838 0
-1.3891258 1.2983527 0.23111141 0
-1.2416651 1.2146538 0.35318911 0
-1.2338213 1.2102017 0.49485332 0
-1.2464361 1.2173619 0.64829439 0
-0.94597971 1.0240344 -0.050193079 0
-1.2487307 1.1908714 0.35220751 0
-1.2549185 1.1942812 0.49756834 0
-1.2343965 1.1829722 0.63921338 0
-0.94669116 1.0019407 -0.049839061 0
-1.252326 1.1653842 0.35058424 0
-1.2477939 1.1629605 0.49215814 0
-1.239159 1.1583428 0.63669628 0
-0.96339619 0.98842037 -0.050141804 0
-1.2637498 1.1442084 0.35062742 0
-1.2404745 1.1321359 0.48684093 0
-1.2439497 1.1339384 0.63432282 0
-0.9723146 0.97074234 -0.050138302 0
-1.2772617 1.1240716 0.35114583 0
-1.2393299 1.1049993 0.48343179 0
-1.2487508 1.1097361 0.63208294 0
-0.98242033 0.95364201 -0.050190844 0
-1.2777219 1.0974921 0.34909382 0
-1.2407827 1.0794979 0.48087791 0
-1.2401141 1.0791723 0.62499708 0
-0.9906193 0.9355979 -0.05017633 0
-1.2902451 1.0769147 0.34952626 0
-1.2406814 1.0535382 0.47799155 0
-1.2372277 1.0519093 0.62021029 0
-0.98746336 0.9123798 -0.049725246 0
-1.3001846 1.0550876 0.34949559 0
-1.249207 1.0318245 0.47763309 0
-1.2469027 1.0307729 0.62017059 0
-1.0029116 0.89771461 -0.050014071 0
-1.310236 1.0333104 0.34954146 0
-1.2451265 1.0045832 0.47383767 0
-1.240967 1.002748 0.61455148 0
-1.0105594 0.8794995 -0.050005808 0
-1.3251749 1.0136055 0.35059917 0
-1.2414367 0.97791177 0.47026634 0
-1.241882 0.97810161 0.61156797 0
-1.0138096 0.85947788 -0.049836691 0
-1.4084114 1.0218381 0.07707037 0
-1.3289738 0.98915321 0.34952745 0
-1.2479274 0.95580643 0.46961501 0
-1.2285275 0.9478243 0.60357845 0
-1.0253861 0.84288526 -0.049997937 0
-1.3664783 0.97823232 0.075099036 0
-1.3326279 0.9648003 0.34849286 0
-1.2438977 0.92959172 0.46615583 0
-1.2391201 0.92769593 0.60433674 0
-1.0228984 0.82079065 -0.049628861 0
-1.3334575 0.93951815 0.073498838 0
-1.343061 0.94318962 0.3488315 0
-1.2414256 0.90433413 0.46322909 0
-1.2417861 0.90447199 0.60235876 0
-1.0452298 0.80810207 -0.050216246 0
-1.5217841 0.98344493 0.080344945 0
-1.3588291 0.92348748 0.35024619 0
-1.2368103 0.87859201 0.45981991 0
-1.2436044 0.88109177 0.6001932 0
-1.0459669 0.78733259 -0.049989339 0
-1.3371639 0.89033133 0.073016614 0
