# .PCD v0.7 - Point Cloud Data file format
VERSION 0.7
FIELDS x y z intensity
SIZE 4 4 4 4
TYPE F F F F
COUNT 1 1 1 1
WIDTH 1352
HEIGHT 1
VIEWPOINT 0 0 0 1 0 0 0
POINTS 1352
DATA ascii
-1.1410302 0.20489848 -0.050218683 0
-0.51012743 0.22874361 0.1073804 0
-0.5110234 0.22870976 0.17629236 0
-1.2363974 0.20129405 0.43210399 0
-1.2439251 0.20100954 0.5641492 0
-1.2487866 0.2008258 0.70262766 0
-1.1292126 0.18564171 -0.049827471 0
-0.51332456 0.21668953 0.10778075 0
-0.50387138 0.21716608 0.17509545 0
-1.2406548 0.18002374 0.43342829 0
-1.2409312 0.18000981 0.5634619 0
-1.2403736 0.18003792 0.69952691 0
-1.1204044 0.16646856 -0.049552273 0
-0.50353187 0.20535849 0.10679895 0
-0.51321083 0.20474829 0.17690398 0
-1.2408876 0.15887286 0.43379319 0
-1.2381496 0.15904547 0.56293297 0
-1.13722 0.14554735 -0.050202873 0
-0.51484251 0.19265883 0.10810608 0
-0.50911278 0.19309254 0.17631213 0
-1.2516259 0.13688727 0.43691453 0
-1.2414848 0.13765492 0.5645324 0
-1.1296862 0.1263141 -0.049990945 0
-0.5102753 0.18105297 0.10771885 0
-0.50697482 0.18134464 0.17610106 0
-1.2382779 0.1167176 0.4339411 0
-1.2318519 0.11728548 0.56189233 0
-1.1225368 0.10718914 -0.049801216 0
-0.50845683 0.16925856 0.10764382 0
-0.50811929 0.16929269 0.17651151 0
-1.2362255 0.095697813 0.43392551 0
-1.2434089 0.094971724 0.56642032 0
-1.1224034 0.087397166 -0.049871966 0
-0.51213998 0.1568538 0.03994412 0
-0.51233912 0.15683113 0.10820134 0
-0.50800562 0.15732434 0.17672172 0
-1.2436007 0.07360319 0.43639863 0
-1.2454032 0.073398046 0.56784672 0
-1.1334741 0.066133432 -0.050354987 0
-0.51320803 0.14465156 0.040033966 0
-0.51222724 0.14477573 0.108344 0
-0.51159871 0.14485529 0.17763348 0
-1.2420939 0.052383486 0.43666303 0
-1.2519177 0.051139925 0.57088232 0
-1.1246874 0.047290731 -0.050132703 0
-0.51698458 0.13200587 0.040227138 0
-0.50166428 0.13414155 0.10736937 0
-0.52450079 0.1309581 0.18027051 0
-1.242808 0.030824471 0.43756872 0
-1.2340196 0.03204957 0.56581694 0
-1.1174883 0.028361712 -0.049975887 0
-0.51110059 0.12069135 0.04007756 0
-0.50691491 0.12132867 0.10812645 0
-0.51291442 0.12041517 0.17847712 0
-1.2337414 0.010660817 0.43602207 0
-1.2455604 0.0088612335 0.57072961 0
-1.1231331 0.0074201715 -0.050292123 0
-0.50708383 0.10917341 0.040000379 0
-0.51363325 0.10809164 0.10906256 0
-0.51601589 0.10769811 0.17938907 0
-1.2420423 -0.012220125 0.43902883 0
-1.2482738 -0.013249378 0.57277423 0
-1.1120903 -0.010778497 -0.050013471 0
-0.50790048 0.096847855 0.040103558 0
-0.52036482 0.094627537 0.11002037 0
-0.51281571 0.095972277 0.179178 0
-1.2421553 -0.033947419 0.43999502 0
-1.2375911 -0.033134382 0.57039052 0
-1.0982701 -0.028249335 -0.049641516 0
-0.51051998 0.084101625 0.040278152 0
-0.51350504 0.08353103 0.10951192 0
-0.50723493 0.084729575 0.17855637 0
-1.2363648 -0.054646742 0.43950111 0
-1.2388356 -0.055119019 0.57212573 0
-1.0946654 -0.047541987 -0.04964884 0
-0.5159753 0.070648588 0.040562365 0
-0.51636523 0.070568942 0.11008362 0
-0.50983661 0.071902342 0.17946534 0
-1.2351527 -0.076234885 0.44026592 0
-1.2367322 -0.076557465 0.57282251 0
-1.0973157 -0.06820289 -0.04989358 0
-0.50807822 0.059891094 0.040365711 0
-0.50485516 0.060591746 0.1090944 0
-0.51161039 0.059123237 0.18025376 0
-1.251285 -0.10167418 0.44563213 0
-1.243041 -0.099882074 0.57647699 0
-1.0968096 -0.088316269 -0.050032906 0
-0.5060553 0.047919307 0.040388655 0
-0.50720793 0.0476535 0.10964508 0
-0.52360308 0.043872569 0.18296556 0
-1.2482173 -0.12323285 0.44607064 0
-1.240255 -0.12139661 0.57713699 0
-1.0919921 -0.10748238 -0.050023519 0
-0.52329719 0.031229947 0.041125149 0
-0.51853937 0.032390449 0.11120865 0
-0.51672411 0.032833207 0.18221804 0
-1.2436774 -0.14448045 0.44619504 0
-1.244069 -0.14457597 0.58015186 0
-1.0862318 -0.12640233 -0.049988225 0
-0.55675364 0.009830256 0.042469498 0
-0.5501284 0.011534889 0.11504659 0
-0.55934948 0.0091623561 0.19071276 0
-1.2341173 -0.16445263 0.4450677 0
-1.2402126 -0.16602091 0.58064163 0
-1.0693662 -0.14229278 -0.049550861 0
-0.62641931 -0.022358101 0.045167655 0
-0.62607265 -0.022264224 0.12386527 0
-1.241941 -0.18902005 0.31886518 0
-1.2417322 -0.18896355 0.44854259 0
-1.2276993 -0.1851639 0.57824218 0
-1.0574297 -0.15926723 -0.049302291 0
-0.68880105 -0.054456156 0.047620151 0
-0.69796932 -0.057062965 0.13231082 0
-1.24009 -0.21120252 0.3196134 0
-1.2361087 -0.21007051 0.4486002 0
-1.2380089 -0.21061076 0.58381134 0
-1.0734755 -0.18440033 -0.05010315 0
-0.76914442 -0.093713887 0.050766014 0
-0.76779056 -0.093310453 0.14060444 0
-1.2383577 -0.23353292 0.32043922 0
-1.2560217 -0.23879658 0.45552698 0
-1.2385484 -0.23358975 0.58612078 0
-1.055825 -0.19962363 -0.049658868 0
-0.87599611 -0.1435623 0.054934002 0
-0.8669256 -0.1407346 0.15228181 0
-1.2344651 -0.25531432 0.32091323 0
-1.2413299 -0.25745437 0.45332956 0
-1.2288718 -0.25357065 0.58497983 0
-1.0667516 -0.22382583 -0.050292902 0
-0.98374236 -0.19679649 0.059176218 0
-0.98578072 -0.19746022 0.16630334 0
-1.2389874 -0.27990898 0.32303712 0
-1.2404393 -0.28038177 0.45488918 0
-1.2399917 -0.28023598 0.59119838 0
-1.0547756 -0.24072586 -0.05007761 0
-1.1322812 -0.26704702 0.064999871 0
-1.1180112 -0.26220092 0.18198392 0
-1.2290385 -0.2999061 0.32247272 0
-1.2241133 -0.29823354 0.45237413 0
-1.0403816 -0.25661287 -0.049777824 0
-1.2945282 -0.34650663 0.2028756 0
-1.2404101 -0.32736459 0.32603243 0
-1.2464285 -0.32949337 0.46036568 0
-1.0329363 -0.27483466 -0.049748588 0
-1.2555798 -0.35675392 0.19931197 0
-1.2301136 -0.34738389 0.32551104 0
-1.2431271 -0.35217205 0.46153712 0
-1.0327997 -0.29583183 -0.050007302 0
-1.2422516 -0.37590584 0.19869372 0
-1.2403756 -0.37518862 0.32900512 0
-1.2449702 -0.37694511 0.46419725 0
-1.0300088 -0.3159754 -0.050175488 0
-1.2537239 -0.40474662 0.20096761 0
-1.2363689 -0.39786014 0.32981592 0
-1.2434992 -0.40068945 0.46604642 0
-1.0071983 -0.32801357 -0.049581461 0
-1.2579365 -0.43118057 0.20245178 0
-1.2313237 -0.4202306 0.33048391 0
-1.2320228 -0.42051825 0.46522716 0
-1.0133201 -0.35193208 -0.050112944 0
-1.2492352 -0.45249179 0.20247404 0
-1.2365497 -0.44708458 0.3332243 0
-1.2472931 -0.451664 0.47189057 0
-1.0015162 -0.36835477 -0.049959619 0
-1.2458389 -0.4761534 0.20315102 0
-1.2424374 -0.47465256 0.33617678 0
-1.2434431 -0.47509637 0.47336826 0
-0.9908812 -0.3851954 -0.049859371 0
-1.2553973 -0.50590515 0.20539734 0
-1.2311673 -0.49484798 0.33581361 0
-1.239759 -0.49876872 0.47498345 0
-0.99710429 -0.40991238 -0.050432313 0
-1.234441 -0.52185088 0.20407559 0
-1.2350223 -0.52212501 0.33851478 0
-1.2391429 -0.52406847 0.4775576 0
-0.97491586 -0.42124221 -0.049892828 0
-1.4967887 -0.67546189 0.08261738 0
-1.2382319 -0.54951125 0.20572796 0
-1.2389345 -0.5498535 0.34131274 0
-1.2576113 -0.5589515 0.48565373 0
-0.97470522 -0.44320026 -0.050233833 0
-1.4483478 -0.68135047 0.081160657 0
-1.2402884 -0.57673699 0.20722395 0
-1.2428507 -0.57802534 0.34419951 0
-1.2370263 -0.57509685 0.48277396 0
-0.95539546 -0.45552638 -0.049820028 0
-1.3951789 -0.68363416 0.079507217 0
-1.239624 -0.60295069 0.20844173 0
-1.2415419 -0.60394543 0.34611553 0
-0.95259714 -0.47635487 -0.050078169 0
-1.3484854 -0.68806285 0.078105927 0
-1.2355366 -0.62766153 0.20929065 0
-1.2332968 -0.62646377 0.34669241 0
-0.94193506 -0.49306133 -0.050028209 0
-1.3102738 -0.69604176 0.0770429 0
-1.2388538 -0.65668434 0.21109214 0
-1.2405812 -0.65763628 0.35052937 0
-0.92840993 -0.50810581 -0.049868964 0
-1.2579933 -0.69517767 0.075398818 0
-1.2373024 -0.68343347 0.21234994 0
-1.2414962 -0.6858139 0.35315409 0
-0.92159927 -0.52694756 -0.049993992 0
-1.244125 -0.71542186 0.075330488 0
-1.2324644 -0.70860779 0.21324967 0
-1.2436994 -0.71517318 0.35614112 0
-0.9040525 -0.53943926 -0.04968255 0
-1.2517242 -0.74852473 0.076166555 0
-1.2487392 -0.74672955 0.21684356 0
-1.2455873 -0.74483401 0.359162 0
-0.90056157 -0.56037223 -0.049965337 0
-1.2465479 -0.77442175 0.076490268 0
-1.2342483 -0.76681238 0.21663798 0
-1.2408942 -0.77092391 0.36088976 0
-0.89270425 -0.5787673 -0.050076742 0
-1.2456814 -0.80333596 0.077012688 0
-1.2296693 -0.79314893 0.21772538 0
-1.2455292 -0.80323917 0.36469528 0
-0.88652301 -0.59835625 -0.050270416 0
-1.2493206 -0.83564228 0.077747114 0
-1.2352473 -0.82643765 0.2201685 0
-1.2309076 -0.82359928 0.36446989 0
-0.86951971 -0.61083931 -0.050010767 0
-1.2414892 -0.8608672 0.078011766 0
-1.238809 -0.85906571 0.22242534 0
-1.2384834 -0.85884684 0.36912161 0
-0.85158074 -0.62245744 -0.04971505 0
-1.2424656 -0.89240676 0.078674614 0
-1.2516267 -0.89873356 0.22596423 0
-1.2408407 -0.89128453 0.37276706 0
-0.84466791 -0.64164525 -0.049905684 0
-1.2424607 -0.92382842 0.079317756 0
-1.235361 -0.91879195 0.22576825 0
-1.6032914 -1.1797916 0.45615801 0
-0.82946491 -0.65496421 -0.049742527 0
-1.2353829 -0.95066375 0.079671815 0
-1.2402726 -0.95422584 0.22841969 0
-1.5682739 -1.1931653 0.45243797 0
-0.82297051 -0.67465663 -0.049973514 0
-1.2413831 -0.98759753 0.080627263 0
-1.2403212 -0.98680335 0.23050314 0
-0.8066653 -0.6870262 -0.049776275 0
-1.2387918 -1.0187901 0.081226125 0
-1.2394409 -1.0192884 0.23253633 0
-0.79360044 -0.70177591 -0.049731396 0
-1.1585133 -0.98931164 0.078317635 0
-1.1628536 -0.99273163 0.224287 0
-1.1640365 -0.99366361 0.3725881 0
-0.79568267 -0.7287364 -0.050389972 0
-1.1360923 -1.0039821 0.078018777 0
-1.1427902 -1.0093977 0.22371918 0
-1.1382357 -1.0057151 0.3703073 0
-0.77472627 -0.7371915 -0.050002422 0
-1.2338109 -1.1180531 0.083298303 0
-1.2505419 -1.1319333 0.24102239 0
-1.3397692 -1.2059574 0.42130971 0
-0.76359677 -0.75365525 -0.050076358 0
-1.2425059 -1.1612521 0.084528163 0
-1.238494 -1.1578376 0.24182211 0
-1.3207563 -1.2278507 0.42122465 0
-1.0193717 -0.97134393 0.4924297 0
-0.74935269 -0.7674734 -0.050013278 0
-1.2879524 -1.2376941 0.41790259 0
-0.98519468 -0.97337359 0.48616314 0
-0.73872447 -0.78447384 -0.050131056 0
-1.1944906 -1.1926032 0.083972901 0
-1.1935993 -1.1918051 0.24058826 0
-1.1969782 -1.1948308 0.40049028 0
-0.97255301 -0.99386257 0.48720956 0
-0.715711 -0.79021639 -0.049660161 0
-0.92477787 -0.98222929 0.47618648 0
-0.7129128 -0.81454808 -0.050178636 0
-0.89433074 -0.98542804 0.47105414 0
-0.69517267 -0.8249591 -0.049976885 0
-0.8553921 -0.97972518 0.46286112 0
-0.68096411 -0.83867258 -0.049956623 0
-0.83172584 -0.98801786 0.46002424 0
-0.66884875 -0.85449678 -0.050051369 0
-0.82030368 -1.008355 0.46164164 0
-0.65156996 -0.86504263 -0.04989136 0
-0.63814998 -0.87955064 -0.049937684 0
-0.62855256 -0.89830035 -0.050196707 0
-0.61427081 -0.91206521 -0.050220434 0
-0.5933733 -0.91823405 -0.049893446 0
-0.583426 -0.93699938 -0.050171245 0
-0.5582419 -0.93759292 -0.049611259 0
-0.54530269 -0.95280284 -0.049740858 0
-0.53348672 -0.96960086 -0.049948618 0
-0.52207744 -0.98717886 -0.050196126 0
-0.50392693 -0.99598199 -0.050057475 0
-0.48225862 -0.99976259 -0.049708858 0
-0.47153425 -1.0186528 -0.05003519 0
-0.45797408 -1.0338216 -0.050203472 0
-0.43785101 -1.0393792 -0.049965143 0
-0.42950577 -1.0627661 -0.050498608 0
-0.3807863 -0.98776168 0.50274509 0
-0.40741491 -1.065107 -0.050143532 0
-0.35195202 -0.97732061 0.49464524 0
-0.38602144 -1.0681106 -0.049830664 0
-0.3279888 -0.97364336 0.48939103 0
-0.36865658 -1.0774367 -0.049794283 0
-0.30897975 -0.97749299 0.48721012 0
-0.35833246 -1.0988541 -0.050266281 0
-0.28975117 -0.98064107 0.48486769 0
-0.34221268 -1.1106699 -0.050346833 0
-0.27416056 -0.98989052 0.48496452 0
-0.3227061 -1.1164186 -0.05018824 0
-0.2530818 -0.98912734 0.48133853 0
-0.30379713 -1.1230615 -0.050076805 0
-0.22755076 -0.97939581 0.47445911 0
-0.28605747 -1.1318114 -0.05006028 0
-0.20877065 -0.9816491 0.47222924 0
-0.26567322 -1.1352409 -0.049840532 0
-0.18666865 -0.97687179 0.46748757 0
-0.25444889 -1.1572767 -0.050370093 0
-0.16916002 -0.98078138 0.46608767 0
-0.22892202 -1.1496274 -0.0497321 0
-0.1468025 -0.97408217 0.46088061 0
-0.21245433 -1.1609126 -0.049852353 0
-0.13440712 -0.98844749 0.46349847 0
-0.19685449 -1.1744012 -0.050065905 0
-0.11723407 -0.99239248 0.46237487 0
-0.18250056 -1.1912334 -0.050415553 0
-0.10471745 -1.0071461 0.46523932 0
-0.16094144 -1.1910574 -0.050114639 0
-0.070647493 -0.96962529 0.34600109 0
-0.083466783 -1.0010626 0.46065927 0
-0.13969298 -1.1911002 -0.049834043 0
-0.054119244 -0.97344476 0.34533808 0
-0.068663791 -1.0104386 0.46172422 0
-0.12018724 -1.195195 -0.049719706 0
-0.032373443 -0.96330923 0.14708178 0
-0.027294708 -0.94989806 0.24016887 0
-0.012525899 -0.91089875 0.32662973 0
-0.051649705 -1.0142111 0.46085718 0
-0.10571195 -1.2128692 -0.050131232 0
-0.009810878 -0.94966835 0.14486308 0
-0.0096240472 -0.94915563 0.23893349 0
0.0049108132 -0.90926474 0.32468963 0
-0.08569856 -1.2156156 -0.049983189 0
0.010923998 -0.93968195 0.14310269 0
0.0062029823 -0.95316416 0.23865399 0
0.019976841 -0.91382891 0.32449305 0
-0.004161878 -0.98276407 0.4456172 0
-0.066225901 -1.219653 -0.049893904 0
-0.18551083 -1.574571 0.075261436 0
0.022176491 -0.95662242 0.14443229 0
0.022554712 -0.95549709 0.23809487 0
0.024686651 -0.94915372 0.33262789 0
0.014007824 -0.98092729 0.4430773 0
-0.048405781 -1.2286251 -0.049999289 0
-0.18799765 -1.6619571 0.078252688 0
0.037339613 -0.96244758 0.14451753 0
0.036124721 -0.96621889 0.2391666 0
0.019999253 -1.0162768 0.34926906 0
0.020584093 -1.0144613 0.45299101 0
-0.030564232 -1.2377906 -0.050119892 0
-0.11601134 -1.5149523 0.07247448 0
0.022940623 -1.0642389 0.36071435 0
-0.0071261958 -1.2282687 -0.049552917 0
0.064968035 -0.98351437 0.33790034 0
0.0062380298 -1.2531393 -0.050274294 0
-0.074095801 -1.5391028 0.072878756 0
0.08534877 -0.97152954 0.33352399 0
0.029247897 -1.2439177 -0.049739588 0
-0.051642701 -1.5464422 0.072919525 0
0.099650338 -0.9806183 0.33479559 0
0.045273945 -1.2606786 -0.050174329 0
-0.032155022 -1.5655915 0.073405609 0
0.11741658 -0.97658342 0.33265617 0
0.063264444 -1.2705984 -0.050363965 0
-0.0013224317 -1.5390654 0.072222047 0
0.087993488 -1.2514892 -0.049498562 0
-0.018050296 -1.7180344 0.078579672 0
0.10284792 -1.2756027 -0.050224949 0
0.046729758 -1.5377258 0.071795143 0
0.12039851 -1.2889159 -0.050563026 0
0.14175729 -1.2832692 -0.050219607 0
0.088922843 -1.5644692 0.072434478 0
0.078927115 -1.6176693 0.21180086 0
0.16205768 -1.2822868 -0.05005575 0
0.10630469 -1.6010879 0.073610097 0
0.18030031 -1.2933084 -0.050335623 0
0.035392269 -2.1881645 0.094699308 0
0.20029344 -1.2939451 -0.050248422 0
0.065759733 -2.1966236 0.094831161 0
0.22060435 -1.291816 -0.050070792 0
0.096457526 -2.2033832 0.094915345 0
0.24141528 -1.2846371 -0.049720999 0
0.1289136 -2.196418 0.094519608 0
0.25933677 -1.3013624 -0.050239723 0
0.16107477 -2.1896253 0.094145305 0
0.28020015 -1.2918233 -0.049823761 0
0.19138251 -2.1991065 0.094369769 0
0.29932597 -1.2992595 -0.050025899 0
0.22276768 -2.1978645 0.094223469 0
0.31931412 -1.2968204 -0.049882986 0
0.25395563 -2.1979833 0.094140165 0
0.33857363 -1.3049154 -0.050125938 0
0.28487641 -2.201664 0.094198361 0
0.35903841 -1.2911998 -0.049597885 0
0.31595889 -2.2028956 0.094182923 0
0.37814218 -1.3061079 -0.050101787 0
0.34748438 -2.1911671 0.093718491 0
0.39807874 -1.2994974 -0.049845714 0
0.37828925 -2.1974921 0.093913063 0
0.41780108 -1.2967802 -0.049737636 0
0.43746924 -1.3000804 -0.04985325 0
0.45710489 -1.2959356 -0.049711902 0
0.47702795 -1.305342 -0.050063316 0
0.49655187 -1.2988659 -0.04985638 0
0.51648206 -1.3026444 -0.050024714 0
0.5361287 -1.3002945 -0.049982898 0
0.55631876 -1.3051716 -0.050208706 0
0.57553554 -1.2976351 -0.049998853 0
0.59631544 -1.3064886 -0.050385721 0
0.61427224 -1.2888389 -0.0498299 0
0.63577139 -1.3015039 -0.05037266 0
0.65333188 -1.2838173 -0.049831595 0
0.67255032 -1.2792577 -0.04977173 0
0.69306511 -1.2826314 -0.050007712 0
0.71179813 -1.2752316 -0.049862687 0
0.73066097 -1.269019 -0.049769063 0
0.74810803 -1.2562937 -0.049446367 0
0.77340394 -1.2801754 -0.050469168 0
0.78848076 -1.257192 -0.04978833 0
0.8074379 -1.2518899 -0.049762595 0
0.83002317 -1.2605672 -0.050261322 0
0.84450048 -1.2383265 -0.049627747 0
0.87043685 -1.2575161 -0.050537758 0
0.88537532 -1.2379835 -0.050019518 0
0.8989982 -1.2154822 -0.049395125 0
0.92305428 -1.226082 -0.050018672 0
0.93933046 -1.2126428 -0.049748987 0
0.96158129 -1.2164835 -0.050140951 0
0.97622228 -1.1990381 -0.0497347 0
0.99784642 -1.2004751 -0.050056092 0
0.92506653 -1.0118839 0.46112385 0
1.0165111 -1.1939036 -0.05008157 0
0.93932354 -1.0011523 0.45953661 0
1.0298401 -1.1744244 -0.04961729 0
0.95413303 -0.99205786 0.45859531 0
1.0514178 -1.1749501 -0.049934421 0
0.97538888 -0.99812931 0.46320847 0
1.0688671 -1.1656402 -0.049879581 0
0.98571491 -0.97877246 0.45868519 0
1.0899301 -1.1642687 -0.050145011 0
1.0013868 -0.97184569 0.45873532 0
1.1055895 -1.1510903 -0.049955733 0
1.0301334 -0.99240106 0.46898237 0
1.1250383 -1.1459242 -0.050091784 0
1.0434422 -0.97975069 0.46711943 0
1.1419567 -1.135546 -0.050029866 0
1.0551 -0.96414798 0.46420568 0
1.1589365 -1.1253726 -0.049984343 0
1.0883423 -0.99031121 0.47700655 0
1.1804919 -1.1237524 -0.050294016 0
1.1055199 -0.98461121 0.47801059 0
1.1969123 -1.112426 -0.050220571 0
1.1306551 -0.99308223 0.057347249 0
1.1338323 -0.99880534 0.16127081 0
1.1307807 -0.99330872 0.26543257 0
1.1331177 -0.99751812 0.37423715 0
1.1292192 -0.99049598 0.48351204 0
1.2118355 -1.0985795 -0.050051421 0
1.1442138 -0.98031193 0.057187662 0
1.1512586 -0.99263316 0.16161224 0
1.1469097 -0.98502702 0.26555923 0
1.1410086 -0.97470635 0.3701548 0
1.1479118 -0.98677963 0.48548764 0
1.2251754 -1.0822719 -0.049786817 0
1.1619793 -0.97490507 0.057338979 0
1.1653808 -0.9806841 0.16126309 0
1.1653606 -0.98064965 0.26654622 0
1.162546 -0.97586781 0.37316862 0
1.1670237 -0.98347515 0.48772755 0
1.2403947 -1.0694216 -0.049671479 0
1.2582123 -1.0608896 -0.049744904 0
1.2803985 -1.059075 -0.050113205 0
1.2936701 -1.0432456 -0.049897376 0
1.3206909 -1.0479985 -0.050574146 0
1.3321196 -1.029484 -0.050259873 0
1.3459502 -1.0147089 -0.050113093 0
1.3505508 -0.98751658 -0.049422897 0
1.3721821 -0.9837504 -0.049775567 0
1.3939741 -0.9797799 -0.0501347 0
1.4035227 -0.95995921 -0.049787644 0
1.2131988 -0.71997541 0.050852593 0
1.2045541 -0.70907509 0.13952175 0
1.4270658 -0.95771784 -0.050251689 0
1.2068563 -0.68712002 0.04979632 0
1.2104222 -0.69150186 0.13844438 0
1.437363 -0.93909639 -0.049972527 0
1.2105387 -0.66743016 0.04933751 0
1.2065723 -0.66267949 0.135791 0
1.4502277 -0.92377037 -0.049851306 0
1.210618 -0.64402723 0.048701353 0
1.2115967 -0.64516991 0.13470283 0
1.4601351 -0.90520316 -0.049582366 0
1.2036316 -0.61325866 0.047708128 0
1.1973221 -0.60607737 0.13052396 0
1.4820385 -0.90022641 -0.049969461 0
1.2022346 -0.58973533 0.047047567 0
1.2120233 -0.60059756 0.13113427 0
1.4895824 -0.87930626 -0.049599338 0
1.5179272 -0.88070601 -0.050327357 0
1.5268338 -0.86136776 -0.050049473 0
1.5337869 -0.84034294 -0.049688686 0
1.5560559 -0.83465189 -0.050110526 0
1.5697126 -0.82033044 -0.050105978 0
1.5754067 -0.79860288 -0.049722087 0
1.5925926 -0.78765863 -0.049909689 0
1.6040971 -0.77150995 -0.049831063 0
1.6152601 -0.75513595 -0.049746826 0
1.6387789 -0.74921805 -0.05024932 0
1.6517199 -0.73417437 -0.050261978 0
1.6559025 -0.71212423 -0.04988312 0
1.6672182 -0.69595671 -0.0498432 0
1.6778104 -0.67927247 -0.049780421 0
1.690681 -0.66432112 -0.049828686 0
1.7152424 -0.6577282 -0.050398864 0
1.712799 -0.6317386 -0.049790859 0
1.7342538 -0.62254715 -0.050234664 0
1.7322043 -0.59739155 -0.049672924 0
1.7475431 -0.5839206 -0.04986798 0
1.7616072 -0.56948382 -0.050014954 0
1.771301 -0.55225623 -0.049985681 0
1.7690923 -0.52799255 -0.049471661 0
1.7863549 -0.51535821 -0.049776193 0
1.7897828 -0.49473634 -0.0495192 0
1.8053778 -0.48092267 -0.049768809 0
1.8167915 -0.46470425 -0.049855094 0
1.8422816 -0.45560291 -0.050513331 0
1.8324825 -0.42851409 -0.049766321 0
1.851287 -0.41571745 -0.050169803 0
1.8549043 -0.39555731 -0.049979575 0
1.8501039 -0.37176332 -0.049470987 0
1.8712592 -0.35961422 -0.049986918 0
1.8823076 -0.34283409 -0.05011487 0
1.8886381 -0.3240467 -0.050068658 0
1.8904542 -0.30353239 -0.049858794 0
1.9019593 -0.28680727 -0.050029241 0
1.9142001 -0.27021638 -0.050234847 0
1.906684 -0.24662028 -0.049700949 0
1.9136941 -0.22824903 -0.049727023 0
1.9141769 -0.20777516 -0.049517099 0
1.930373 -0.19224302 -0.049904086 0
1.9389123 -0.17419417 -0.050012246 0
1.9384489 -0.15356438 -0.049794905 0
1.9496677 -0.13617419 -0.050019253 0
1.9601642 -0.11843661 -0.050224379 0
1.9572065 -0.097355135 -0.04994344 0
1.9666889 -0.079259939 -0.050128154 0
1.9691143 -0.05954076 -0.050063215 0
1.9703108 -0.039622169 -0.04996277 0
1.9761261 -0.020625185 -0.050039355 0
1.9748425 -0.00035176738 -0.04986731 0
1.9799581 0.018786374 -0.049936153 0
1.9846708 0.038035486 -0.049999047 0
1.9874243 0.057593051 -0.050000008 0
1.9949864 0.076576494 -0.050182741 0
1.9867098 0.097394399 -0.049805097 0
1.9900415 0.11684839 -0.049853601 0
1.9870307 0.13686009 -0.049683634 0
1.9974128 0.15582575 -0.050002128 0
1.9949484 0.17574824 -0.049869567 0
1.9900891 0.19568589 -0.049660467 0
1.9997734 0.21502113 -0.049979899 0
1.9994776 0.23477335 -0.049951583 0
2.0056245 0.25446817 -0.050162174 0
1.9926713 0.27419442 -0.049699713 0
1.9937848 0.29386324 -0.049748305 0
2.0053124 0.31389743 -0.050177749 0
2.0014446 0.33355901 -0.05006627 0
2.0060699 0.35362673 -0.050267261 0
2.0029588 0.37330309 -0.050200611 0
2.004369 0.39330629 -0.050304711 0
1.9939313 0.4122642 -0.049993087 0
1.9820385 0.43084785 -0.049637366 0
2.0010853 0.45290071 -0.050402045 0
1.9855746 0.4709051 -0.049933389 0
1.9909397 0.49162284 -0.050225224 0
1.9788316 0.50977898 -0.049895436 0
1.9832468 0.53053844 -0.05017174 0
1.972809 0.5487569 -0.049918931 0
1.9572105 0.56577653 -0.049486022 0
1.9659761 0.58762336 -0.049948718 0
1.9738754 0.60961378 -0.050391078 0
1.9618323 0.62719673 -0.050113175 0
1.9557878 0.64608407 -0.050063308 0
1.9431283 0.6631918 -0.049777787 0
1.9445992 0.68401539 -0.050022773 0
1.9415854 0.70371658 -0.050111644 0
1.930665 0.72107619 -0.04991499 0
1.9314504 0.74202371 -0.050164334 0
1.9182507 0.75850862 -0.049898461 0
1.9160125 0.77859801 -0.050053433 0
1.9165573 0.79981101 -0.050324313 0
1.9078974 0.81777871 -0.05025566 0
1.9010394 0.83639979 -0.050264359 0
1.8925287 0.85436302 -0.05021847 0
1.8827978 0.87178349 -0.050133839 0
1.8726103 0.88894427 -0.050039493 0
1.8650162 0.90719938 -0.050054528 0
1.8535464 0.92367142 -0.049926132 0
1.8498057 0.94375151 -0.050111156 0
1.8360738 0.95903563 -0.049909376 0
1.8346744 0.9804619 -0.050208371 0
1.8199824 0.99512899 -0.049983848 0
1.805828 1.0099113 -0.049787097 0
1.8089722 1.0342133 -0.050304167 0
1.7950829 1.0491292 -0.05013578 0
1.7836497 1.065367 -0.050075848 0
1.7806046 1.0866754 -0.05037475 0
1.761106 1.0979136 -0.049993835 0
1.7578981 1.1193447 -0.050307915 0
1.7388072 1.1305138 -0.049955767 0
1.7296883 1.1481806 -0.050037432 0
1.7135391 1.1610008 -0.049823117 0
1.7014141 1.1765316 -0.049790852 0
1.6872865 1.1905596 -0.049678057 0
1.6833563 1.2122191 -0.050028842 0
1.6708992 1.227564 -0.05000969 0
1.6571009 1.241825 -0.049937867 0
1.6519864 1.2631367 -0.050274275 0
1.6244134 1.265891 -0.049579427 0
1.6210061 1.2888333 -0.050017659 0
1.6051941 1.3012241 -0.04988334 0
1.5917826 1.3156681 -0.049870644 0
1.5765463 1.328407 -0.049777657 0
1.5669092 1.3464005 -0.049967658 0
1.5525318 1.3599489 -0.049934529 0
1.5432312 1.3785613 -0.050166275 0
1.5344926 1.3979908 -0.050441757 0
1.5116816 1.402861 -0.050003231 0
1.0294104 0.89406621 0.29465246 0
1.5029931 1.4225603 -0.050304733 0
1.0482782 0.93057555 0.30781025 0
1.4811822 1.4280204 -0.049923792 0
1.4422669 1.3848372 0.05984845 0
1.4458376 1.3887994 0.16866976 0
1.4393828 1.3816366 0.27724394 0
1.0551409 0.95525336 0.3154138 0
1.466802 1.4415354 -0.049942974 0
1.4132371 1.3805695 0.059045661 0
1.4034387 1.3694172 0.16408452 0
1.4125152 1.3797477 0.27376831 0
1.0561042 0.97409135 0.32030898 0
1.4567995 1.4601871 -0.050211973 0
1.3912593 1.3836693 0.058615081 0
1.3885467 1.3805023 0.16393566 0
1.3961266 1.3893517 0.27313983 0
1.0517015 0.98723722 0.32265288 0
1.4291551 1.45801 -0.049515311 0
1.3769364 1.395468 0.058606528 0
1.3624823 1.3781563 0.16193433 0
1.3672696 1.38389 0.26902702 0
1.0586747 1.0142875 0.33102277 0
1.4219019 1.4801165 -0.049959611 0
1.3438214 1.3841696 0.057543263 0
1.3394477 1.3787951 0.1604127 0
1.3433812 1.3836287 0.26625028 0
1.0597626 1.0351125 0.33659926 0
1.4085149 1.4949981 -0.050074469 0
1.3120264 1.3733335 0.056530725 0
1.3220832 1.3860145 0.15984876 0
1.3183671 1.3813287 0.26310143 0
1.0555338 1.0499161 0.33955768 0
1.3931836 1.5075014 -0.050088551 0
1.2992862 1.3859923 0.056606207 0
1.2962382 1.3820479 0.1578009 0
1.2967021 1.3826482 0.26088023 0
1.0469297 1.0594274 0.34028476 0
1.3718216 1.5120156 -0.049754165 0
1.282515 1.3933897 0.056453064 0
1.2690511 1.3755057 0.15546985 0
1.2696255 1.3762686 0.25700378 0
1.0462866 1.0796078 0.34549341 0
1.3608031 1.5302418 -0.050041862 0
1.2572547 1.3890327 0.055790335 0
1.2478677 1.3762317 0.15417467 0
1.2537919 1.3843105 0.25646484 0
1.0259701 1.0736299 0.33986562 0
1.344147 1.5409279 -0.05000231 0
1.2426274 1.398766 0.055765696 0
1.2499579 1.4090313 0.15716209 0
1.2473872 1.4054314 0.25887358 0
1.02534 1.0944898 0.34536511 0
1.3279692 1.5522587 -0.050000302 0
1.2456136 1.4338073 0.056849759 0
1.2403535 1.4262415 0.15807948 0
1.2421304 1.4287974 0.2617723 0
1.0172527 1.1053572 0.34677079 0
1.3151008 1.5684826 -0.050218064 0
1.2428141 1.4616684 0.057613481 0
1.2472885 1.46828 0.16222671 0
1.2387503 1.4556636 0.26542309 0
1.0019428 1.1057454 0.34399599 0
1.2948326 1.573755 -0.049972836 0
1.2481633 1.502888 0.058943447 0
1.2501975 1.505977 0.16576976 0
1.2339494 1.4813043 0.26878837 0
1.1687137 1.3822441 0.34749457 0
0.99747348 1.1222168 0.34772804 0
1.2792213 1.5859816 -0.050035298 0
1.2499191 1.5402428 0.060096003 0
1.2460984 1.5342791 0.16808055 0
1.2244148 1.5004324 0.27074468 0
1.1520708 1.3875082 0.34630784 0
0.98414236 1.1253829 0.3461954 0
1.2588977 1.5907339 -0.049791172 0
1.2459214 1.5699061 0.060915086 0
1.2383859 1.557811 0.16977587 0
1.2130848 1.5172008 0.27220997 0
1.126758 1.3786398 0.34094548 0
0.96970087 1.1265515 0.34395778 0
1.2479967 1.6107169 -0.050195348 0
1.1907527 1.5162051 0.26994872 0
1.1096516 1.3823042 0.33945754 0
0.96515852 1.1437408 0.3480396 0
0.83915597 0.9357059 0.4714666 0
1.226122 1.6126245 -0.049853448 0
1.1703449 1.5178621 0.26831838 0
1.0925189 1.3856394 0.33794719 0
0.95927262 1.1592605 0.35146889 0
0.84501612 0.96514434 0.48823819 0
1.2080467 1.6206973 -0.049778905 0
1.1590253 1.534961 0.26996136 0
1.0775268 1.3924234 0.33752486 0
0.94372159 1.1584034 0.34862593 0
0.8495366 0.99367768 0.3538323 0
0.84163243 0.97985375 0.41836917 0
0.84119117 0.97908193 0.49424955 0
1.1895384 1.6278882 -0.049678206 0
1.1401531 1.5389345 0.26891488 0
1.05124 1.3787824 0.33120045 0
0.93557686 1.1704477 0.35078686 0
0.85179687 1.0195416 0.36362144 0
0.84264469 1.0030564 0.42873222 0
0.84176731 1.001476 0.50598806 0
1.180631 1.6527548 -0.050304487 0
1.1273184 1.5538113 0.27015802 0
1.0357022 1.3837804 0.33041689 0
0.92009676 1.1692274 0.34795916 0
0.85002571 1.0391821 0.37040406 0
0.84021056 1.0209661 0.43600968 0
0.83983815 1.0202749 0.51522022 0
1.1591794 1.6545815 -0.050003067 0
1.1084095 1.557448 0.26913866 0
1.0195453 1.3874322 0.32930738 0
0.90779829 1.1736366 0.34733677 0
0.85258174 1.0679957 0.38143814 0
0.83972943 1.0434065 0.4458147 0
0.83951622 1.0429986 0.52703464 0
1.1380284 1.6565381 -0.049719598 0
1.0898222 1.5614108 0.26824003 0
1.0003189 1.3847901 0.32646313 0
0.90326333 1.1932662 0.35245308 0
0.85043979 1.0890272 0.38877487 0
0.83795112 1.0643827 0.45473939 0
0.83816928 1.0648133 0.53817225 0
1.1246886 1.6739565 -0.050063469 0
1.0822576 1.587544 0.27184853 0
0.98072934 1.3807774 0.32331589 0
0.8888219 1.193604 0.35040888 0
0.84810245 1.1106772 0.39636421 0
0.84007442 1.0943278 0.46862096 0
0.83875018 1.0916309 0.55255795 0
1.1035987 1.6756475 -0.049790215 0
0.96513712 1.3844537 0.32242954 0
0.87858534 1.2024295 0.35157079 0
0.83946961 1.1201667 0.39834669 0
0.83856022 1.1182541 0.47907028 0
0.83879066 1.1187388 0.56704342 0
1.0904652 1.694176 -0.050190713 0
0.9471913 1.3828118 0.32010999 0
0.86677086 1.2080413 0.35159642 0
0.83883053 1.1473212 0.40841848 0
0.83992225 1.1496937 0.49360782 0
0.84000582 1.1498753 0.58407485 0
1.0695755 1.6959767 -0.049941801 0
0.92956799 1.3813376 0.31791353 0
0.85242921 1.2079836 0.3496117 0
0.8366133 1.1724406 0.41751546 0
0.84003192 1.1801233 0.5075016 0
0.84076369 1.1817677 0.60149199 0
1.0505656 1.7017125 -0.0498574 0
0.91375315 1.3835269 0.3168081 0
0.84714842 1.2286237 0.35519886 0
0.84384775 1.2209475 0.43711632 0
0.84150636 1.215502 0.52401519 0
0.8420487 1.2167634 0.62081212 0
1.0331933 1.711246 -0.049929529 0
0.90008414 1.3906068 0.31711462 0
0.84718651 1.2631847 0.36579552 0
0.84134126 1.2491044 0.44745132 0
0.83773303 1.2404127 0.53476149 0
0.84204167 1.2507915 0.63939989 0
1.0168778 1.7235636 -0.050116789 0
0.87940317 1.3802645 0.31267893 0
0.85136628 1.3102514 0.38082051 0
0.83903235 1.2794513 0.45872512 0
0.84108764 1.2845837 0.55586016 0
0.84171402 1.286148 0.65874273 0
0.99417996 1.7197187 -0.049692526 0
0.86578572 1.3870163 0.31301084 0
0.84851271 1.3422576 0.39038324 0
0.83417046 1.3050931 0.46786916 0
0.83897746 1.3175492 0.57082433 0
0.84057355 1.3216852 0.67810941 0
0.97872877 1.734529 -0.049991652 0
0.84824133 1.3832991 0.31053865 0
0.84467673 1.3737043 0.39971551 0
0.84005398 1.3612614 0.49048078 0
0.84046483 1.3623672 0.5920592 0
0.83976287 1.3604778 0.69945437 0
0.96198106 1.7463467 -0.050183374 0
0.83108622 1.3799533 0.30823815 0
0.84093201 1.407513 0.40985745 0
0.84255505 1.4120562 0.51059574 0
0.84113497 1.4080812 0.61366481 0
0.94307083 1.7522881 -0.050160445 0
0.81837392 1.3888636 0.30931187 0
0.83985358 1.4514654 0.42354017 0
0.84014988 1.4523288 0.52600425 0
0.84229863 1.4585912 0.63770986 0
0.92252469 1.7532171 -0.049958192 0
1.0296507 2.0787268 0.35048118 0
0.79817456 1.3753706 0.30440682 0
0.84113955 1.5059227 0.44085044 0
0.8402999 1.5033714 0.54605669 0
0.84181023 1.5079606 0.6610468 0
0.90059227 1.7492838 -0.049584433 0
1.0045553 2.0791118 0.34915951 0
0.78604931 1.3858905 0.30601299 0
0.8411507 1.5607024 0.45819893 0
0.83996499 1.5569407 0.56712592 0
0.83754802 1.5492727 0.68006778 0
0.88606632 1.7690202 -0.050105002 0
0.98298013 2.0905492 0.34998435 0
0.77048522 1.3855587 0.30476218 0
0.83985329 1.6156999 0.47555739 0
0.83916968 1.613432 0.58938068 0
0.86487299 1.7669234 -0.049819399 0
0.96015298 2.0980659 0.35012147 0
0.75543028 1.3865588 0.30392161 0
0.84039503 1.681851 0.49671999 0
0.84018695 1.6811279 0.61638659 0
0.84679556 1.7754424 -0.049937654 0
0.74007446 1.3861561 0.047526833 0
0.73586529 1.3708023 0.12929462 0
0.74205691 1.3933876 0.21712933 0
0.73681378 1.3742622 0.29961663 0
0.83782893 1.7427349 0.51599026 0
0.83630264 1.7371675 0.63828975 0
0.82821542 1.7823758 -0.05000544 0
0.7242974 1.3836932 0.04729639 0
0.72263187 1.3773035 0.12960222 0
0.72374368 1.3815689 0.21421698 0
0.72672778 1.3930174 0.30357465 0
0.83244246 1.798593 0.5334807 0
0.83055729 1.7913605 0.659352 0
0.80971336 1.7898374 -0.050101053 0
0.70854467 1.3806612 0.04705305 0
0.70636916 1.3718625 0.12860529 0
0.70978796 1.3856899 0.21431784 0
0.71124959 1.3916014 0.3022525 0
0.82311517 1.8440409 0.54737228 0
0.82475132 1.8506583 0.68255693 0
0.79059249 1.7949635 -0.050119314 0
0.69437695 1.3836615 0.047038879 0
0.69557357 1.3887769 0.13010131 0
0.69525146 1.3873999 0.21400447 0
0.69354355 1.3800991 0.29834259 0
0.81757075 1.91029 0.56837052 0
0.77002764 1.7936208 -0.049909838 0
0.67914337 1.3817964 0.046853401 0
0.678949 1.3809155 0.12888142 0
0.68081963 1.3893921 0.21377793 0
0.67788571 1.3760974 0.29646158 0
0.80620718 1.9575614 0.58286858 0
0.75056058 1.7968564 -0.04987729 0
0.66498744 1.3844916 0.046841688 0
0.66346312 1.377146 0.12813687 0
0.66365558 1.3780735 0.21113378 0
0.66336751 1.3766853 0.29583278 0
0.7922098 1.997558 0.59490567 0
0.73265588 1.8080243 -0.050142251 0
0.64996177 1.3826817 0.046672646 0
0.64965361 1.3810968 0.12826075 0
0.64852327 1.3752826 0.21010262 0
0.64999884 1.3828726 0.29670843 0
0.77876991 2.0452144 0.60956931 0
0.71086407 1.7988262 -0.049675841 0
0.63515019 1.3813972 0.04652993 0
0.63455933 1.3781399 0.12764886 0
0.63591462 1.3856117 0.21151352 0
0.635795 1.3849523 0.29656073 0
0.76300192 2.0862746 0.62202638 0
0.69078583 1.7978412 -0.04951771 0
0.62089187 1.3828055 0.046491761 0
0.62053072 1.380661 0.12765603 0
0.62164444 1.3872741 0.21136549 0
0.62260908 1.3930022 0.29800427 0
0.74674571 2.1301351 0.63546896 0
0.6746105 1.821252 -0.050250459 0
0.60623795 1.3815086 0.046362422 0
0.60679638 1.3851002 0.12789103 0
0.60744202 1.3892527 0.21130829 0
0.60599238 1.3799291 0.29403403 0
0.72774279 2.1629767 0.64524424 0
0.65295154 1.8098948 -0.049735427 0
0.59167731 1.3802361 0.046240855 0
0.59099889 1.3754789 0.12661803 0
0.58997262 1.3682827 0.20710316 0
0.59436792 1.3991026 0.29843527 0
0.70844758 2.1990368 0.65616399 0
0.63504416 1.824645 -0.050170943 0
0.57748401 1.3811446 0.046204615 0
0.57822913 1.386886 0.12764755 0
0.57878 1.3911304 0.21091372 0
0.57644373 1.3731296 0.29125208 0
0.68878019 2.2386801 0.66834974 0
0.61510485 1.8246993 -0.05008569 0
0.56332922 1.3821822 0.046179496 0
0.56341338 1.3829017 0.1270276 0
0.56359553 1.3844585 0.20938411 0
0.5642578 1.390119 0.29517332 0
0.66767156 2.2739773 0.67914468 0
0.59435517 1.8164306 -0.049710818 0
0.55105096 1.4010699 0.12882224 0
0.55270666 1.4169509 0.21499273 0
0.55171674 1.4074556 0.29921791 0
0.64475203 2.2998219 0.68685263 0
0.57540852 1.8249919 -0.049949113 0
0.55153042 1.5641553 0.14627089 0
0.55189228 1.5681083 0.24211028 0
0.55211961 1.5705916 0.34065193 0
0.62119651 2.3251636 0.69448018 0
0.55457145 1.8117591 -0.049415227 0
0.60252589 2.4198446 0.23836632 0
0.59953523 2.3819218 0.389083 0
0.59714222 2.351577 0.54016608 0
0.53599858 1.8270742 -0.049912609 0
0.57390571 2.3996594 0.39193928 0
0.57283878 2.383544 0.5478521 0
0.51616675 1.8255016 -0.049814239 0
0.54835421 2.4263897 0.39647609 0
0.54777235 2.4155273 0.55561537 0
0.49661723 1.8292063 -0.049913414 0
0.52161098 2.4396036 0.39862889 0
0.52188993 2.4464152 0.56317556 0
0.47668132 1.8218549 -0.04962647 0
0.45645118 1.1080153 0.35543889 0
0.45643619 1.1074859 0.42801309 0
0.45717138 1.8289047 -0.049862754 0
0.44586354 1.1105839 0.35640556 0
0.44588411 1.1118904 0.43010005 0
0.43743464 1.8178388 -0.049461037 0
0.4351289 1.085676 0.41693342 0
0.43514618 1.0911655 0.49633059 0
0.41786367 1.8188964 -0.049500994 0
0.42470017 1.0948901 0.42156008 0
0.4248535 1.0786502 0.48892748 0
0.39801162 1.831287 -0.049954463 0
0.41386458 1.1119223 0.35700142 0
0.41386494 1.1119066 0.43015859 0
0.41476154 1.0712208 0.4846161 0
0.37843919 1.8262775 -0.049795479 0
0.35277057 2.5673041 0.4215799 0
0.35271999 2.5687647 0.59427691 0
0.40478417 1.0657246 0.48152551 0
0.35845774 1.8322328 -0.050037105 0
0.32216737 2.6002495 0.42774248 0
0.3224394 2.5944924 0.60115159 0
0.39514402 1.055838 0.47590098 0
0.33917281 1.823653 -0.049768049 0
0.29165819 2.6171515 0.43108073 0
0.29211223 2.6095693 0.60540658 0
0.31779915 1.846453 -0.050630685 0
0.26117206 2.6272275 0.43325722 0
0.26115185 2.6275063 0.61049479 0
0.29989547 1.8213195 -0.049786396 0
0.35569322 1.1663917 0.038319927 0
0.22992602 2.6425874 0.43646187 0
0.22958058 2.6466422 0.61599517 0
0.27924776 1.8302962 -0.050172746 0
0.19677612 2.6727543 0.44242486 0
0.19802584 2.6599882 0.62011999 0
0.25985777 1.8253969 -0.050070558 0
0.16733967 2.6617365 0.440999 0
0.16639991 2.6702316 0.62355602 0
0.34664929 1.0408239 0.46928209 0
0.23905547 1.8325065 -0.050408974 0
0.13353918 2.6876738 0.44635355 0
0.13294457 2.692493 0.63018924 0
0.21966483 1.8274587 -0.050319355 0
0.10174076 2.6933343 0.44810405 0
0.10201325 2.6913338 0.63091159 0
0.2020188 1.8111128 -0.049830556 0
0.068872944 2.7044792 0.4509308 0
0.069798395 2.6982698 0.63382393 0
0.18275161 1.806915 -0.049788151 0
0.034858927 2.7202022 0.45467532 0
0.03826116 2.6991923 0.63529271 0
0.16305627 1.805321 -0.049848799 0
0.002872275 2.7212691 0.45582306 0
0.0018398331 2.7271729 0.64387554 0
0.14192592 1.811116 -0.050187007 0
-0.031132353 2.7321813 0.45885399 0
-0.027620507 2.7134905 0.6417821 0
0.12540074 1.7927681 -0.049656585 0
-0.090023652 2.8647611 0.10069324 0
-0.090346947 2.8663697 0.29122534 0
-0.064856306 2.7395234 0.46131456 0
-0.062431708 2.7274582 0.64697534 0
0.10177673 1.8093503 -0.050407626 0
-0.11474968 2.8207266 0.099333286 0
-0.11343808 2.8146002 0.28628188 0
-0.09373875 2.7225862 0.459382 0
-0.094089642 2.7242253 0.64780885 0
0.085456297 1.7913959 -0.049907245 0
-0.14479907 2.8044167 0.098995857 0
-0.14305092 2.7967255 0.28509182 0
-0.13048728 2.741451 0.46413267 0
-0.12924279 2.7359757 0.65266919 0
0.065160438 1.7914616 -0.050074577 0
-0.17321558 2.7823143 0.098458596 0
-0.17426659 2.7866831 0.28480509 0
-0.16142274 2.7332954 0.46397126 0
-0.1622398 2.7366917 0.65476465 0
0.045409635 1.7888886 -0.050154649 0
-0.20835419 2.7882023 0.098963767 0
-0.20781006 2.7860596 0.28560528 0
-0.19595851 2.7393885 0.46653301 0
-0.19573756 2.7385185 0.65726846 0
0.02658038 1.7826383 -0.050108269 0
-0.25308609 2.8285689 0.10076115 0
-0.25168377 2.8233242 0.29066998 0
-0.22962053 2.7408097 0.46831226 0
-0.22582985 2.7266326 0.65627044 0
0.011919813 1.7616581 -0.04952427 0
-0.25888532 2.7256403 0.46706924 0
-0.26585037 2.7504337 0.66482645 0
-0.0073751644 1.757858 -0.04958437 0
-0.29550081 2.7360222 0.47069466 0
-0.29623461 2.7385135 0.6640473 0
-0.030290289 1.7656462 -0.050086692 0
-0.3282373 2.7320867 0.47171888 0
-0.3249135 2.7213054 0.66195524 0
-0.048153177 1.7565852 -0.049969878 0
-0.3607828 2.7270749 0.47262135 0
-0.35634768 2.7133067 0.66241992 0
-0.068101242 1.7539771 -0.050104059 0
-0.39199972 2.7176981 0.47277495 0
-0.39380628 2.7230732 0.66777444 0
-0.089549676 1.7553577 -0.050399207 0
-0.42236364 2.7058048 0.47252336 0
-0.42334616 2.7086108 0.66673023 0
-0.10216285 1.731873 -0.049761124 0
-0.45741624 2.7068675 0.47483066 0
-0.45793885 2.7083015 0.66962522 0
-0.11863746 1.7198467 -0.049563479 0
-0.48743623 2.693716 0.47449279 0
-0.48598331 2.6898794 0.66771108 0
-0.13655229 1.7118562 -0.049527604 0
-0.52048105 2.6883733 0.47573948 0
-0.51880556 2.6841118 0.66935319 0
-0.16058065 1.7189169 -0.050080527 0
-0.55137402 2.6772788 0.47595319 0
-0.54982382 2.6734772 0.66977632 0
-0.18092604 1.7162513 -0.050271127 0
-0.57987857 2.6604414 0.47511965 0
-0.58531654 2.6733112 0.67320919 0
-0.19550343 1.7000569 -0.049945556 0
-0.6117264 2.6515241 0.47591102 0
-0.61212456 2.6524343 0.67101765 0
-0.2151875 1.6956966 -0.050089028 0
-0.64257395 2.640116 0.47629303 0
-0.64339817 2.641937 0.6718145 0
-0.23217912 1.6853342 -0.050006527 0
-0.67103219 2.6234617 0.47570989 0
-0.67271972 2.6270692 0.67149574 0
-0.25251561 1.6820204 -0.050211467 0
-0.69852293 2.6049807 0.47482884 0
-0.70357728 2.6154404 0.67219698 0
-0.26710296 1.6668512 -0.04995488 0
-0.72666168 2.5880628 0.47432679 0
-0.72970879 2.5941708 0.67026454 0
-0.28298843 1.6545928 -0.049820855 0
-0.75645471 2.5745008 0.47457385 0
-0.75369906 2.5691469 0.66733623 0
-0.30461329 1.6533436 -0.050138962 0
-0.78370094 2.5560553 0.47390181 0
-0.78560817 2.559649 0.66895974 0
-0.32197773 1.6438313 -0.050134055 0
-0.81209493 2.5398929 0.47376475 0
-0.80990553 2.5358901 0.66656387 0
-0.33612162 1.6286036 -0.04990384 0
-0.62100577 2.1342185 0.082623057 0
-0.83541048 2.5147457 0.47184059 0
-0.83389449 2.5120552 0.66421789 0
-0.3544988 1.6209903 -0.049993541 0
-0.61770356 2.0746746 0.080719076 0
-0.86300731 2.4975033 0.47161144 0
-0.86172688 2.495296 0.66403067 0
-0.3684606 1.6058527 -0.049780637 0
-0.62036002 2.0277214 0.079322524 0
-0.88832939 2.4765036 0.47066405 0
-0.88668334 2.4737468 0.66252232 0
-0.38728577 1.5989128 -0.049916897 0
-0.61941767 1.9767841 0.077749595 0
-0.91428077 2.4567709 0.47004479 0
-0.90855336 2.4474478 0.65967375 0
-0.40926796 1.5967842 -0.050267391 0
-0.62150681 1.9327143 0.076453626 0
-0.93504691 2.4289837 0.46777168 0
-0.93522465 2.429265 0.65933466 0
-0.42568547 1.585629 -0.050248224 0
-0.61552262 1.8778864 0.074690141 0
-0.95820963 2.4054589 0.46645266 0
-0.96242654 2.4119511 0.65935886 0
-0.43345582 1.5615399 -0.049682535 0
-0.61872268 1.8390487 0.073594943 0
-0.9839431 2.3861079 0.4660905 0
-0.9808445 2.3814664 0.6554476 0
-0.45317781 1.5555738 -0.049900766 0
-0.6200341 1.7988167 0.072431624 0
-0.99765253 2.3493083 0.46197972 0
-1.0026078 2.3565319 0.65329099 0
-0.46933079 1.54427 -0.049898621 0
-0.62022722 1.7584153 0.071251266 0
-1.021234 2.3275061 0.46117911 0
-1.0208281 2.32693 0.64974368 0
-0.48867899 1.5373788 -0.050099835 0
-0.61538923 1.7124758 0.069816142 0
-0.61839318 1.7166269 0.19865231 0
-1.0439947 2.3047521 0.46022502 0
-1.0420736 2.3020973 0.64773774 0
-0.075923994 0.96700573 0.43995166 0
-0.50142062 1.521353 -0.049907446 0
-0.61491382 1.6740987 0.068701193 0
-0.61681128 1.6766523 0.1950873 0
-1.0659196 2.2810881 0.45912164 0
-1.0580956 2.2705579 0.64366585 0
-0.089326337 0.96673286 0.44380704 0
-0.51554525 1.5073589 -0.049811594 0
-0.61609244 1.6391809 0.067730553 0
-0.6209228 1.6455139 0.19267951 0
-1.0806857 2.2482843 0.45599681 0
-1.074868 2.2406569 0.64014488 0
-0.09033592 0.94988978 0.43737811 0
-0.53865719 1.5049496 -0.050248072 0
-0.61314201 1.600094 0.066561945 0
-0.61940587 1.6080952 0.18939775 0
-1.0960981 2.2170057 0.45323277 0
-1.094982 2.21558 0.63822019 0
-0.11049516 0.95802987 0.44676849 0
-0.55430573 1.4927535 -0.050254066 0
-0.60973036 1.5617435 0.065413482 0
-0.61859965 1.5727836 0.18637051 0
-1.1195606 2.1963558 0.45294413 0
-1.1112273 2.1859827 0.63487905 0
-0.12500681 0.95838273 0.45141858 0
-0.56413966 1.473492 -0.049942292 0
-0.62450218 1.5467204 0.065330349 0
-0.61306345 1.5328436 0.18266566 0
-1.1280279 2.1575701 0.44848245 0
-1.1298429 2.1597719 0.63269001 0
-0.13360991 0.95119685 0.45134684 0
-0.57979083 1.461445 -0.049970262 0
-0.62465036 1.5144907 0.064450473 0
-0.61949313 1.5083923 0.18109137 0
-1.1513103 2.1372602 0.44836193 0
-1.1511906 2.1371188 0.63174427 0
-0.14872517 0.95171452 0.45639282 0
-0.59401119 1.4477136 -0.049928203 0
-0.6206094 1.4783742 0.063377313 0
-0.61797512 1.4753376 0.17828721 0
-1.1588017 2.0987659 0.44396806 0
-1.1603706 2.1005743 0.62618655 0
-0.6072948 1.4329696 -0.049845781 0
-0.63113081 1.4597571 0.063125923 0
-0.64258027 1.4726242 0.1798135 0
-1.1685834 2.0637608 0.44038975 0
-1.1651835 2.0599401 0.61920875 0
-0.6210779 1.4188542 -0.049800836 0
-0.65456462 1.4555466 0.063574329 0
-0.65660846 1.4577862 0.17963815 0
-1.1776937 2.0287542 0.43679959 0
-1.1837389 2.0353782 0.61772275 0
-0.63400006 1.403861 -0.049720872 0
-0.50587666 1.2669747 0.055027146 0
-0.6881007 1.4616619 0.18224126 0
-1.1926713 2.0007427 0.43492299 0
-1.1924756 2.0005336 0.61270696 0
-0.65319836 1.3954833 -0.04997531 0
-0.50158942 1.2375389 0.054159123 0
-0.71920669 1.4642498 0.1847429 0
-1.2066995 1.9721137 0.4329161 0
-1.200599 1.9657583 0.60769331 0
-0.67203891 1.3864816 -0.050213717 0
-0.51874232 1.2307525 0.054412238 0
-0.74327409 1.4588473 0.18612942 0
-1.2179828 1.9410889 0.43032229 0
-1.208138 1.931088 0.60269117 0
-0.67582977 1.3623308 -0.049698614 0
-0.53797394 1.22577 0.054770995 0
-0.77409327 1.459671 0.1885305 0
-1.2217293 1.9031013 0.42594722 0
-1.219842 1.9012316 0.59940457 0
-0.69129491 1.3499575 -0.049784407 0
-0.54001206 1.2038238 0.05427511 0
-0.80778575 1.4624833 0.19133031 0
-1.2229905 1.8635558 0.42112249 0
-1.2233372 1.8638906 0.59337997 0
-0.69814372 1.329381 -0.04945429 0
-0.56695038 1.2058082 0.055019937 0
-0.84100616 1.4639452 0.19402219 0
-1.2250085 1.8256422 0.4166663 0
-1.2288115 1.8292242 0.58828586 0
-0.72986531 1.3319603 -0.050346278 0
-0.87157845 1.4621136 0.06921564 0
-0.86903417 1.4597769 0.19592273 0
-1.2328533 1.7939187 0.41380569 0
-1.2266408 1.788213 0.58075416 0
-0.23612471 0.87849486 0.38189873 0
-0.73417616 1.3091451 -0.049913086 0
-0.90758049 1.4644252 0.070223205 0
-0.89888322 1.4566369 0.19807231 0
-1.2304294 1.7535299 0.40858847 0
-1.2346554 1.7573141 0.5769729 0
-0.23748769 0.86437052 0.37838811 0
-0.7532624 1.2996309 -0.050198566 0
-0.93800998 1.4609236 0.070954271 0
-1.2372177 1.7221447 0.40575621 0
-1.2402349 1.7247789 0.57254082 0
-0.23847903 0.85020274 0.37480992 0
-0.75382113 1.2740794 -0.049618065 0
-0.97403598 1.4615031 0.071941987 0
-1.2384555 1.6865491 0.40173376 0
-1.2365937 1.6849645 0.5652048 0
-0.23972799 0.83653766 0.37150747 0
-0.26365089 0.85689825 0.46341398 0
-0.77253246 1.2641156 -0.049900655 0
-1.0140002 1.46444 0.073101789 0
-1.2506083 1.6607327 0.40041643 0
-1.234416 1.6472993 0.55859721 0
-0.25235713 0.83257234 0.37445456 0
-0.78891218 1.2520062 -0.050079126 0
-1.043817 1.4581151 0.073782258 0
-1.2477375 1.6229995 0.39570385 0
-1.2318339 1.6101403 0.55208033 0
-0.25627267 0.8213287 0.37275895 0
-0.80339396 1.2382369 -0.050176539 0
-1.0881419 1.4626061 0.075119071 0
-1.2552651 1.594292 0.39353496 0
-1.2438276 1.5852797 0.55051488 0
-0.2706883 0.81848764 0.37668997 0
-0.82201552 1.2275554 -0.050467182 0
-1.1181098 1.4548811 0.07579428 0
-1.2589281 1.5629939 0.39059085 0
-1.2359419 1.5453463 0.54267156 0
-0.2627967 0.7982167 0.36895788 0
-0.24920787 0.78778392 0.43604335 0
-0.81609023 1.1982548 -0.049666777 0
-1.1723762 1.4647298 0.077550776 0
-1.2490691 1.5220903 0.38471818 0
-1.2397426 1.5151148 0.53878593 0
-0.26676935 0.78740436 0.36756501 0
-0.27976328 0.79712284 0.45105055 0
-0.83186173 1.1854542 -0.049848393 0
-1.2072544 1.4589171 0.078429386 0
-1.2538747 1.4928787 0.3822867 0
-1.2367486 1.4804028 0.53291172 0
-1.2383446 1.4815655 0.69375402 0
-0.26935071 0.77568108 0.36554223 0
-0.28141862 0.78447223 0.44795781 0
-0.85033 1.1744059 -0.05015352 0
-1.2576814 1.4633696 0.079983987 0
-1.2539585 1.4607286 0.37891448 0
-1.2467004 1.45558 0.53127664 0
-1.2422363 1.4524133 0.68914402 0
-0.27865714 0.76887715 0.3670266 0
-0.27471745 0.76608247 0.43986446 0
-0.84645689 1.147663 -0.049492735 0
-1.3045524 1.4640288 0.081368409 0
-1.2595553 1.4329532 0.37686887 0
-1.2379664 1.4180437 0.52395934 0
-1.2391354 1.418851 0.68189573 0
-0.28912038 0.76276028 0.44481522 0
-0.85671508 1.1309766 -0.049459957 0
-1.2617749 1.4032469 0.0788844 0
-1.2720946 1.4101835 0.22673555 0
-1.2510647 1.3960477 0.37185556 0
-1.2448405 1.3918641 0.52164769 0
-1.2473689 1.3935636 0.67942226 0
-0.2904672 0.75035983 0.44187847 0
-0.87874854 1.1220156 -0.049938764 0
-1.2654035 1.3749053 0.078433193 0
-1.2714299 1.3788469 0.22481488 0
-1.2500515 1.3648645 0.36859533 0
-1.2493995 1.3644381 0.51875019 0
-1.2340498 1.3543986 0.66852832 0
-0.29517436 0.74033171 0.44106856 0
-0.89182079 1.1069494 -0.050039366 0
-1.2854749 1.3573973 0.078696519 0
-1.2771919 1.3521276 0.22377861 0
-1.2557005 1.3384544 0.36686945 0
-1.2421079 1.3298067 0.51239717 0
-1.2324574 1.3236669 0.66254056 0
-0.29601651 0.72789085 0.4380483 0
-0.90752923 1.0934271 -0.05025785 0
-1.285802 1.327451 0.078138202 0
-1.2842903 1.3265158 0.22296196 0
-1.2462099 1.3029567 0.36201707 0
-1.2353921 1.2962642 0.50639755 0
-1.2400076 1.2991197 0.66032803 0
-0.91746378 1.0762488 -0.050241269 0
-1.3153281 1.3155195 0.078816295 0
-1.3132867 1.3142917 0.22493821 0
-1.2395458 1.2699449 0.35789058 0
-1.2381265 1.2690914 0.5033828 0
-1.2367021 1.2682346 0.65403813 0
-0.91841078 1.0538284 -0.049862146 0
-1.3383009 1.2991996 0.079224676 0
-1.3308371 1.294838 0.2254945 0
-1.2441829 1.2441999 0.35624212 0
-1.2352756 1.2389947 0.49884126 0
-1.2439126 1.2440418 0.65199697 0
-0.92936754 1.0373935 -0.049908273 0
-1.3735576 1.2895162 0.080142885 0
-1.3814684 1.2940063 0.23016514 0
-1.2456661 1.2169249 0.35401884 0
-1.2296484 1.2078332 0.49362913 0
-1.235062 1.2109059 0.64394319 0
-0.93526363 1.0181291 -0.049756262 0
-1.2485917 1.1907947 0.35217887 0
-1.2349012 1.1832503 0.49173719 0
-1.2483004 1.1906343 0.64449501 0
-0.95688391 1.0073915 -0.050251719 0
-1.2433228 1.1605695 0.34874293 0
-1.2356007 1.15644 0.48863038 0
-1.2402866 1.1589458 0.63712174 0
-0.95759606 0.98541188 -0.049908534 0
-1.2656764 1.1452076 0.35101882 0
-1.2402054 1.1319964 0.48676363 0
-1.237726 1.1307104 0.63199025 0
-0.96742964 0.96828616 -0.049943101 0
-1.2851568 1.1280413 0.35273954 0
-1.2302301 1.1004238 0.48083317 0
-1.2388817 1.1047739 0.62840796 0
-0.97454238 0.94980443 -0.049877994 0
