# .PCD v0.7 - Point Cloud Data file format
VERSION 0.7
FIELDS x y z intensity
SIZE 4 4 4 4
TYPE F F F F
COUNT 1 1 1 1
WIDTH 1357
HEIGHT 1
VIEWPOINT 0 0 0 1 0 0 0
POINTS 1357
DATA ascii
-1.2354699 -0.27876368 0.32236996 0
-1.2327173 -0.27786735 0.4528172 0
-1.2396609 -0.28012827 0.59108263 0
-1.0555406 -0.24098568 -0.050106455 0
-1.1255672 -0.26476696 0.06474673 0
-1.122386 -0.26368657 0.18248044 0
-1.2330647 -0.30127344 0.32323956 0
-1.2404056 -0.3037664 0.45676395 0
-1.0399874 -0.25647351 -0.049762905 0
-1.2911721 -0.34531954 0.20249303 0
-1.2431332 -0.32832775 0.32655334 0
-1.2408048 -0.32750419 0.4588438 0
-1.0248919 -0.27187476 -0.049442563 0
-1.2508659 -0.35501948 0.19877218 0
-1.2421819 -0.35182425 0.3278302 0
-1.2461717 -0.35329226 0.46236482 0
-1.0311775 -0.29521164 -0.049945299 0
-1.2535751 -0.38023481 0.19999653 0
-1.2408485 -0.3753694 0.32909641 0
-1.2395666 -0.37487927 0.46272129 0
-1.0171885 -0.31088832 -0.049683079 0
-1.240221 -0.39938864 0.1994064 0
-1.2521123 -0.40410712 0.33287054 0
-1.2305142 -0.39553693 0.46248224 0
-1.0115346 -0.32979777 -0.049748868 0
-1.2501544 -0.42797861 0.20154741 0
-1.2492586 -0.42761001 0.33398154 0
-1.239985 -0.42379436 0.4674238 0
-1.0065413 -0.34904262 -0.049849868 0
-1.2551672 -0.4550204 0.20316705 0
-1.2446489 -0.45053688 0.3348121 0
-1.2377664 -0.44760314 0.46924838 0
-0.99324715 -0.36470637 -0.049636949 0
-1.2539788 -0.47974488 0.20410718 0
-1.2380105 -0.47269943 0.33530417 0
-1.2391163 -0.4731873 0.47216165 0
-0.99539852 -0.38725689 -0.050036646 0
-1.2362067 -0.49714765 0.20313032 0
-1.2423515 -0.49995181 0.33803076 0
-1.2386132 -0.49824592 0.47466215 0
-0.98133421 -0.40247449 -0.049809821 0
-1.2291038 -0.5193336 0.2034414 0
-1.2442065 -0.52645671 0.34034613 0
-1.240294 -0.52461141 0.4778823 0
-0.97310877 -0.42036197 -0.049821064 0
-1.5029491 -0.67846274 0.08286202 0
-1.2460047 -0.55329758 0.20665713 0
-1.2364104 -0.54862392 0.34080637 0
-1.2341654 -0.54753029 0.47899994 0
-0.96652496 -0.43908712 -0.049906947 0
-1.4547985 -0.68459398 0.081418432 0
-1.2393146 -0.57624739 0.20710681 0
-1.2387022 -0.57593948 0.34336209 0
-1.237991 -0.57558191 0.48304945 0
-0.96384442 -0.45990869 -0.050159827 0
-1.4076073 -0.69008052 0.080007061 0
-1.2432164 -0.60481393 0.20887664 0
-1.2417449 -0.6040507 0.34615678 0
-0.94914198 -0.47450712 -0.049938284 0
-1.3569152 -0.69257087 0.078447223 0
-1.2383864 -0.62918556 0.20963797 0
-1.2495492 -0.63515502 0.35001633 0
-0.9440366 -0.49421939 -0.050113872 0
-1.3018382 -0.6913932 0.076699041 0
-1.2458328 -0.66053027 0.21194853 0
-1.2384189 -0.65644473 0.3500841 0
-0.94509208 -0.51757461 -0.050553787 0
-1.2663049 -0.69989532 0.075740017 0
-1.2371173 -0.68332839 0.21232705 0
-1.2400379 -0.68498617 0.35285169 0
-0.91835833 -0.52505362 -0.049859978 0
-1.2531081 -0.72067136 0.075701945 0
-1.2375664 -0.71158916 0.21388473 0
-1.2536228 -0.72097206 0.35821396 0
-0.90863621 -0.54219586 -0.049873512 0
-1.2399306 -0.74143213 0.075675234 0
-1.2420158 -0.74268621 0.21600039 0
-1.2444136 -0.74412817 0.358915 0
-0.90658414 -0.56409812 -0.050218169 0
-1.2442154 -0.77297872 0.076392345 0
-1.2377307 -0.76896685 0.21707806 0
-1.2453374 -0.77367288 0.36183205 0
-0.88838816 -0.57602131 -0.049894113 0
-1.2643045 -0.8151843 0.077800713 0
-1.2328645 -0.79518169 0.21813238 0
-1.2364904 -0.79748851 0.3627632 0
-0.87496436 -0.59079635 -0.049777329 0
-1.2538599 -0.83861119 0.077940747 0
-1.2410549 -0.83023614 0.22091429 0
-1.243457 -0.8318072 0.36717424 0
-0.86588371 -0.60839528 -0.049854361 0
-1.2382963 -0.85872108 0.077874422 0
-1.2449468 -0.86319143 0.22322014 0
-1.2390988 -0.8592605 0.36925533 0
-0.86499572 -0.63172197 -0.050297093 0
-1.2377861 -0.889175 0.078471571 0
-1.2376827 -0.88910371 0.22414304 0
-1.2336096 -0.88629073 0.37118217 0
-0.84052074 -0.63870335 -0.049724154 0
-1.2339061 -0.91775995 0.078943305 0
-1.2352492 -0.91871268 0.22575352 0
-1.6009492 -1.1781299 0.45564008 0
-0.84538841 -0.66656393 -0.050445862 0
-1.2448381 -0.95755166 0.08008945 0
-1.2494788 -0.96093231 0.22964375 0
-1.5660294 -1.1915302 0.45193714 0
-0.82386935 -0.67532891 -0.050013587 0
-1.2422129 -0.98821825 0.080664262 0
-1.2472923 -0.99201721 0.2314387 0
-0.80579519 -0.68635815 -0.049737111 0
-1.2416437 -1.0209795 0.081354484 0
-1.2428768 -1.0219263 0.23300184 0
-0.79997706 -0.7068004 -0.050021227 0
-1.1630316 -0.99287182 0.078523003 0
-1.162147 -0.9921748 0.22419032 0
-1.1572603 -0.98832422 0.37103221 0
-0.78628361 -0.72113657 -0.049958445 0
-1.1379882 -1.005515 0.078105822 0
-1.1402018 -1.0073049 0.22336146 0
-1.1403724 -1.0074428 0.37080285 0
-0.77014244 -0.73338866 -0.04978979 0
-1.2420821 -1.124915 0.083681986 0
-1.2419631 -1.1248163 0.23982449 0
-1.3394912 -1.2057267 0.42124456 0
-0.76459813 -0.75450748 -0.0501233 0
-1.2447453 -1.1631581 0.084633142 0
-1.2319666 -1.1522822 0.24090095 0
-1.31092 -1.219479 0.41889516 0
-1.0249624 -0.97610217 0.49430275 0
-0.74831927 -0.7665711 -0.049964298 0
-1.2854555 -1.2355142 0.41730478 0
-0.99195361 -0.97927445 0.48845229 0
-0.73935962 -0.78504258 -0.050161492 0
-1.1935784 -1.1917863 0.083929189 0
-1.193784 -1.1919705 0.24061489 0
-1.1913942 -1.1898304 0.39913845 0
-0.96425605 -0.98643273 0.48436803 0
-0.72796166 -0.80146772 -0.050253995 0
-0.92395103 -0.98146993 0.47590005 0
-0.71503639 -0.81654829 -0.050282784 0
-0.88495994 -0.97660166 0.4677698 0
-0.6934303 -0.8232761 -0.049890403 0
-0.86345434 -0.98751289 0.46572098 0
-0.67576027 -0.83351773 -0.049695119 0
-0.83128202 -0.98757833 0.45986488 0
-0.66890001 -0.85454875 -0.050053973 0
-0.82129061 -1.0093576 0.46200055 0
-0.65808117 -0.87182587 -0.050227042 0
-0.63541055 -0.87662393 -0.049794566 0
-0.62815154 -0.89786094 -0.050175469 0
-0.59932768 -0.89527172 -0.049417898 0
-0.5946635 -0.91972142 -0.049963742 0
-0.58974814 -0.94447511 -0.050520785 0
-0.56638074 -0.94746655 -0.05006808 0
-0.54361469 -0.95070165 -0.049644638 0
-0.53103572 -0.96647006 -0.049806666 0
-0.50976348 -0.97103459 -0.049471237 0
-0.50435984 -0.99656469 -0.050083388 0
-0.48892969 -1.0089811 -0.050115105 0
-0.4722988 -1.0197378 -0.050082579 0
-0.45381308 -1.0277556 -0.049940858 0
-0.43836278 -1.0401458 -0.049998045 0
-0.42126155 -1.050074 -0.049958281 0
-0.37633383 -0.98090702 0.50002575 0
-0.40830147 -1.0665102 -0.050202787 0
-0.35123312 -0.97618288 0.49419746 0
-0.38761526 -1.0707051 -0.049939368 0
-0.32987422 -0.97671252 0.49058938 0
-0.37439269 -1.0870433 -0.050193738 0
-0.30695033 -0.97409421 0.48589313 0
-0.3571732 -1.0968559 -0.050183807 0
-0.2883448 -0.97821695 0.4839353 0
-0.33385557 -1.0958376 -0.049739033 0
-0.27585804 -0.99290317 0.48611495 0
-0.31610227 -1.1043452 -0.049696937 0
-0.25627553 -0.99496633 0.48355272 0
-0.29881781 -1.1136793 -0.0496976 0
-0.23172624 -0.98726338 0.47742239 0
-0.28379565 -1.1274168 -0.049883828 0
-0.20509042 -0.97449869 0.46955374 0
-0.26534361 -1.1345801 -0.049814172 0
-0.19096942 -0.985493 0.47069287 0
-0.25194079 -1.1520866 -0.050164297 0
-0.17125072 -0.98510784 0.4676863 0
-0.22634156 -1.1441112 -0.049514681 0
-0.14627178 -0.97294754 0.46046388 0
-0.21695502 -1.1708581 -0.050242085 0
-0.13467617 -0.98904198 0.46371561 0
-0.19775476 -1.1764592 -0.050146103 0
-0.11751427 -0.99303299 0.46260744 0
-0.17591693 -1.1756521 -0.049811661 0
-0.10246171 -1.0018077 0.4633112 0
-0.16016962 -1.1891646 -0.050041661 0
-0.074154571 -0.97822577 0.34837076 0
-0.086385623 -1.0082207 0.46323109 0
-0.14331521 -1.2003133 -0.050187472 0
-0.052998707 -0.9705947 0.34455675 0
-0.069301918 -1.0120616 0.46230444 0
-0.1261393 -1.2109123 -0.050319724 0
-0.03163521 -0.9613598 0.14685775 0
-0.032402977 -0.96338731 0.24277024 0
-0.013245774 -0.91279966 0.32714835 0
-0.053983435 -1.0203737 0.46304956 0
-0.10489912 -1.2106384 -0.05004647 0
-0.0041338936 -0.93408793 0.14308096 0
-0.0082787406 -0.94546348 0.23822479 0
0.0039399429 -0.91192919 0.32541314 0
-0.089029029 -1.2251267 -0.050342966 0
0.0094397832 -0.94392055 0.14358534 0
0.0085035134 -0.9465943 0.23739858 0
0.019211071 -0.9160158 0.32508421 0
-0.0055928067 -0.98685044 0.44705766 0
-0.068193927 -1.2255087 -0.050114449 0
0.02526425 -0.94743508 0.14339067 0
0.023074316 -0.95395106 0.2378007 0
0.029109793 -0.93599313 0.32908568 0
0.012268441 -0.98610252 0.44489375 0
-0.046941265 -1.2240789 -0.049828768 0
0.03671132 -0.96439797 0.14473775 0
0.034886971 -0.97006124 0.23989461 0
0.021923201 -1.0103043 0.3476682 0
0.021177577 -1.012619 0.45234707 0
-0.026807828 -1.2256061 -0.049664684 0
0.023226665 -1.063311 0.3604666 0
-0.0093013477 -1.2356532 -0.049827751 0
0.066698298 -0.97764033 0.33633801 0
0.010823803 -1.2368153 -0.049668953 0
0.08456777 -0.97430974 0.33426073 0
0.026280003 -1.2550174 -0.050149783 0
0.099261776 -0.98207146 0.33517936 0
0.047737405 -1.2509778 -0.049817 0
0.11707754 -0.97791857 0.3330076 0
0.064669535 -1.2647579 -0.0501495 0
0.086268499 -1.2590784 -0.04977642 0
0.10159181 -1.2814698 -0.05043916 0
0.12240486 -1.2789319 -0.05019946 0
0.14159463 -1.284135 -0.050251059 0
-0.064465448 -2.3808453 0.10209015 0
0.16246678 -1.2799476 -0.04997097 0
0.0014042722 -2.2009189 0.095349856 0
0.18086906 -1.2897962 -0.050208602 0
0.032744333 -2.2045164 0.095290698 0
0.20252082 -1.279 -0.049708974 0
0.065417066 -2.1989229 0.094914153 0
0.2203747 -1.2935022 -0.050131552 0
0.096430287 -2.2035832 0.09492255 0
0.2407013 -1.2904235 -0.049929149 0
0.12887619 -2.1967211 0.094530508 0
0.26068524 -1.2891725 -0.049801882 0
0.15985627 -2.2006402 0.094540946 0
0.28061089 -1.2876275 -0.049673248 0
0.19164982 -2.1963758 0.094271824 0
0.29930431 -1.2995138 -0.050035007 0
0.22209948 -2.2057076 0.09450449 0
0.31802601 -1.314581 -0.050518729 0
0.25394982 -2.1980636 0.09414304 0
0.33886698 -1.3000165 -0.04995073 0
0.28537422 -2.1933501 0.093901016 0
0.35767487 -1.3200568 -0.050629269 0
0.31630737 -2.1955209 0.093919337 0
0.37819371 -1.3046198 -0.050048627 0
0.34711826 -2.2017362 0.09409605 0
0.39818105 -1.2948548 -0.049679924 0
0.37829894 -2.1970527 0.093897372 0
0.4177514 -1.3020409 -0.049925458 0
0.43748581 -1.3053464 -0.050041251 0
0.45714706 -1.2986144 -0.049807545 0
0.47689769 -1.3007463 -0.049899179 0
0.49672636 -1.3031269 -0.050008632 0
0.51615947 -1.2966217 -0.049809389 0
0.53570271 -1.2938603 -0.049752682 0
0.55599898 -1.3011162 -0.050063476 0
0.57464671 -1.2879261 -0.049650777 0
0.59548634 -1.2985359 -0.050100263 0
0.61502475 -1.2952702 -0.050061073 0
0.63398707 -1.287756 -0.049877726 0
0.65339911 -1.284289 -0.049848605 0
0.6740461 -1.2888781 -0.050119318 0
0.69105625 -1.2707027 -0.049575843 0
0.71370506 -1.285745 -0.050244156 0
0.73385096 -1.285427 -0.050365813 0
0.75093222 -1.2699029 -0.04994259 0
0.77093756 -1.2689996 -0.050060574 0
0.79024953 -1.2647531 -0.050065555 0
0.80722231 -1.2510182 -0.049730532 0
0.82715815 -1.2495755 -0.049855795 0
0.847368 -1.2487862 -0.05001495 0
0.86553919 -1.2404945 -0.049905412 0
0.88265234 -1.2289494 -0.049682662 0
0.90598279 -1.2376412 -0.050224595 0
0.92128688 -1.2207116 -0.049816824 0
0.94266146 -1.2223507 -0.05011541 0
0.95924932 -1.2099559 -0.049893484 0
0.9821403 -1.2149676 -0.050341383 0
0.9965207 -1.1970398 -0.049924634 0
0.92758697 -1.018415 0.46345291 0
1.013319 -1.1859324 -0.049775019 0
0.94208324 -1.0080438 0.46200636 0
1.0336623 -1.1836314 -0.049973194 0
0.96218252 -1.0114478 0.46558005 0
1.0532798 -1.1792805 -0.050102707 0
0.97464889 -0.99640816 0.46258518 0
1.0680312 -1.1637617 -0.049806178 0
0.99109066 -0.99085337 0.4630844 0
1.0936167 -1.1722808 -0.05045988 0
1.0020126 -0.97320598 0.45923349 0
1.106181 -1.152334 -0.0500049 0
1.0254258 -0.98250073 0.46533519 0
1.1219341 -1.1396023 -0.049840342 0
1.0455941 -0.98413283 0.46874362 0
1.1381664 -1.1280664 -0.049730502 0
1.0639828 -0.98167676 0.47074348 0
1.1582173 -1.1239966 -0.049928911 0
1.082194 -0.97854799 0.47259068 0
1.1761057 -1.115612 -0.049963895 0
1.1036582 -0.98115617 0.4767049 0
1.1982729 -1.114877 -0.050320651 0
1.1326178 -0.99661773 0.057491619 0
1.1308275 -0.99339312 0.16060553 0
1.1256728 -0.98410815 0.26353469 0
1.1337352 -0.99863023 0.37456167 0
1.1205447 -0.97487134 0.47756642 0
1.2096608 -1.094776 -0.049895003 0
1.1457896 -0.98306805 0.057301007 0
1.1467665 -0.98477668 0.16063964 0
1.1389915 -0.97117847 0.26268223 0
1.1390866 -0.97134465 0.36916682 0
1.155049 -0.99926227 0.49027151 0
1.2278874 -1.0868795 -0.049977694 0
1.1656796 -0.98119158 0.057599403 0
1.1657292 -0.98127598 0.1613369 0
1.1646426 -0.97942978 0.26629093 0
1.1653079 -0.98056012 0.37455773 0
1.1624199 -0.97565347 0.48470801 0
1.2456735 -1.078137 -0.050035253 0
1.2609032 -1.0652088 -0.049926579 0
1.2795415 -1.0577372 -0.050056487 0
1.2965791 -1.047663 -0.050086211 0
1.3098115 -1.0319227 -0.049881145 0
1.3278564 -1.0233524 -0.049993254 0
1.3440033 -1.0119826 -0.049993489 0
1.3549917 -0.99357265 -0.049691007 0
1.3733482 -0.98529929 -0.049844783 0
1.3957186 -0.9820376 -0.05023656 0
1.4081607 -0.96580738 -0.050054122 0
1.2039766 -0.70834696 0.050322734 0
1.2063093 -0.71128833 0.13982531 0
1.4141361 -0.9418295 -0.049520362 0
1.2104369 -0.69152004 0.04999885 0
1.2071704 -0.68750602 0.13789073 0
1.4414378 -0.94397682 -0.050199509 0
1.2017074 -0.65685278 0.048845563 0
1.2117192 -0.66884398 0.13665405 0
1.4493066 -0.92269486 -0.049800754 0
1.2038614 -0.63613886 0.048330542 0
1.2036469 -0.63588852 0.13338949 0
1.4661117 -0.91200548 -0.049905635 0
1.1988124 -0.60777342 0.04744745 0
1.1998116 -0.60891074 0.13092931 0
1.4872001 -0.90595406 -0.050244726 0
1.2063161 -0.59426451 0.047265235 0
1.212213 -0.60080808 0.13116473 0
1.4851108 -0.87446815 -0.049364138 0
1.5156167 -0.87826842 -0.050207451 0
1.5201964 -0.85453969 -0.04970951 0
1.5435004 -0.85008723 -0.050179891 0
1.5519664 -0.83065158 -0.049906291 0
1.5612887 -0.81229514 -0.049690355 0
1.5806909 -0.80351764 -0.049979728 0
1.5892836 -0.78465766 -0.049750205 0
1.5977944 -0.76593715 -0.049530704 0
1.6199565 -0.7591843 -0.04996819 0
1.6406088 -0.75075561 -0.050334647 0
1.6357523 -0.7210964 -0.049525112 0
1.6530545 -0.70985091 -0.049753025 0
1.6731604 -0.70057863 -0.050111964 0
1.6841152 -0.68405014 -0.050062835 0
1.6930047 -0.66603637 -0.049931798 0
1.7071584 -0.6519168 -0.050043419 0
1.7107072 -0.63027447 -0.049699701 0
1.7259617 -0.61689734 -0.04987644 0
1.7471086 -0.60727406 -0.050311368 0
1.7473465 -0.58379382 -0.049859632 0
1.7614853 -0.5694074 -0.050009817 0
1.7652458 -0.54856253 -0.049732454 0
1.776017 -0.53209776 -0.049759056 0
1.7811794 -0.51237738 -0.049562968 0
1.7959058 -0.49816105 -0.04976967 0
1.809256 -0.48302808 -0.049926352 0
1.8225421 -0.46773306 -0.050087135 0
1.828764 -0.44869927 -0.049971435 0
1.8389558 -0.43171796 -0.050024182 0
1.8447647 -0.41259095 -0.049911581 0
1.8542439 -0.39525089 -0.049953584 0
1.8641959 -0.37808719 -0.050022431 0
1.8671657 -0.35783878 -0.049827617 0
1.8850199 -0.34397009 -0.050219849 0
1.8909636 -0.32498643 -0.050158203 0
1.8980554 -0.30649337 -0.050150033 0
1.9072585 -0.28879496 -0.0502313 0
1.9056505 -0.26713166 -0.049910355 0
1.9130893 -0.24884056 -0.049942974 0
1.9274077 -0.23281007 -0.050242987 0
1.9345275 -0.21426021 -0.050279636 0
1.9395442 -0.1950389 -0.050246391 0
1.9394926 -0.17436312 -0.050033823 0
1.953723 -0.1578034 -0.050360817 0
1.9530023 -0.13705458 -0.050142381 0
1.9496474 -0.11580122 -0.04983731 0
1.9523005 -0.096191205 -0.049763434 0
1.9655585 -0.079006769 -0.050086796 0
1.9779495 -0.061403256 -0.050385576 0
1.9699354 -0.039547961 -0.04994911 0
1.9773548 -0.02085204 -0.050083961 0
1.9822195 -0.0016179787 -0.050134528 0
1.9721457 0.020026255 -0.04965375 0
1.9850746 0.037976582 -0.05001362 0
1.9992205 0.056024317 -0.050424855 0
1.9923462 0.076893829 -0.050087802 0
1.9935783 0.096656464 -0.050051723 0
1.9959829 0.11628563 -0.050066661 0
1.9972112 0.136025 -0.05004831 0
2.0018201 0.15552005 -0.050159853 0
1.9931675 0.17584926 -0.049805891 0
2.0003433 0.19523369 -0.050026909 0
2.0012434 0.21497484 -0.050032403 0
2.0010996 0.23474272 -0.050009508 0
2.0039721 0.25447857 -0.05010318 0
2.0034676 0.2742624 -0.050085165 0
1.9913357 0.29381698 -0.049660858 0
1.9997085 0.31372097 -0.049977582 0
1.9987609 0.33344066 -0.049970362 0
2.0111496 0.35391489 -0.050448906 0
1.9948734 0.37274224 -0.049911253 0
1.9857057 0.39177537 -0.04963617 0
1.992794 0.41215646 -0.049952306 0
1.9836756 0.43102375 -0.049696147 0
1.9961122 0.45230296 -0.050223224 0
1.9870548 0.47110197 -0.049986701 0
1.9930713 0.49193364 -0.050302129 0
1.9829738 0.51043642 -0.05004517 0
1.9670173 0.52775276 -0.049583852 0
1.9721273 0.54863101 -0.04989418 0
1.973334 0.56896394 -0.050072789 0
1.9729701 0.58909774 -0.050203901 0
1.9619532 0.60694331 -0.049954891 0
1.95951 0.6266458 -0.050027963 0
1.954266 0.64570272 -0.050007299 0
1.9460726 0.66396916 -0.049886502 0
1.9459532 0.6843912 -0.050072946 0
1.9279934 0.69975936 -0.049606241 0
1.930356 0.72098196 -0.049903456 0
1.9273986 0.74073255 -0.050012514 0
1.9244143 0.76055861 -0.050130356 0
1.9078254 0.77576005 -0.049744077 0
1.9154305 0.7994045 -0.050281551 0
1.8960335 0.81332862 -0.049803287 0
1.8990694 0.8356325 -0.050188884 0
1.8843111 0.85104227 -0.049902044 0
1.8896459 0.87465173 -0.050398905 0
1.8796446 0.89199519 -0.050313231 0
1.8599631 0.90493178 -0.049856793 0
1.8551821 0.92443031 -0.049990505 0
1.8398385 0.93897367 -0.049716543 0
1.8365339 0.95926344 -0.049927708 0
1.8331382 0.97967738 -0.050146792 0
1.8242542 0.99737889 -0.050156213 0
1.8012617 1.0074323 -0.049601603 0
1.7979599 1.028054 -0.049853694 0
1.7884182 1.0452907 -0.0498612 0
1.7832454 1.0651273 -0.050059065 0
1.764659 1.0769488 -0.049707916 0
1.7681023 1.102303 -0.0502887 0
1.755549 1.1178292 -0.05020811 0
1.7357261 1.1284709 -0.049823787 0
1.7156873 1.138641 -0.049432583 0
1.7152954 1.1622301 -0.049899649 0
1.705232 1.1792761 -0.049958721 0
1.6921256 1.1941315 -0.049892787 0
1.679701 1.2094492 -0.049865104 0
1.6656266 1.2234629 -0.049771219 0
1.6551608 1.2402763 -0.049849238 0
1.6397128 1.2530843 -0.049707882 0
1.6324787 1.2726682 -0.049955528 0
1.6183776 1.2865673 -0.049893763 0
1.6082554 1.3039308 -0.050029226 0
1.6003878 1.3234721 -0.050285384 0
1.576174 1.3280609 -0.049759503 0
1.5736341 1.3528152 -0.050299454 0
1.5497502 1.3572279 -0.049795609 0
1.5380131 1.3733268 -0.049902402 0
1.5260043 1.3892585 -0.050006986 0
1.5163987 1.4078376 -0.050248034 0
1.499228 1.4184866 -0.050106689 0
1.0449462 0.92697036 0.30617699 0
1.4822807 1.4292394 -0.049982376 0
1.4479903 1.3911881 0.060153678 0
1.4420818 1.3846316 0.1680668 0
1.4379802 1.3800802 0.27686608 0
1.0594018 0.95998156 0.31753135 0
1.4626997 1.4368663 -0.049721081 0
1.4185416 1.3866068 0.059332579 0
1.420638 1.388993 0.16688499 0
1.4176896 1.3856372 0.27518216 0
1.0557855 0.97372878 0.32014841 0
1.4482945 1.4502574 -0.04974521 0
1.3855295 1.3769796 0.058300622 0
1.3898399 1.382012 0.1641493 0
1.382955 1.373974 0.26948819 0
1.0576656 0.99420023 0.32570305 0
1.4312668 1.4605392 -0.049632944 0
1.3664089 1.3828592 0.058020104 0
1.3698025 1.3869237 0.1631618 0
1.3741157 1.3920896 0.27095351 0
1.0562234 1.0113517 0.32975033 0
1.4264196 1.4856679 -0.050215136 0
1.3443693 1.384843 0.057574257 0
1.3438828 1.384245 0.16116783 0
1.3388153 1.378018 0.26494569 0
1.0591172 1.0343195 0.33625913 0
1.4045311 1.4899749 -0.049845584 0
1.3223476 1.3863478 0.057123736 0
1.3159732 1.3783102 0.15879202 0
1.3205973 1.3841408 0.26374874 0
1.0599992 1.0555468 0.34194857 0
1.3872743 1.4998542 -0.049743522 0
1.2921054 1.3766998 0.056186941 0
1.3001473 1.3871064 0.15848793 0
1.2956457 1.3812811 0.26056862 0
1.0481869 1.0610542 0.34096879 0
1.3757315 1.5172091 -0.049986251 0
1.2785033 1.3880609 0.056214932 0
1.2708066 1.3778374 0.1557835 0
1.2740573 1.3821553 0.25833267 0
1.047322 1.0809832 0.34606612 0
1.3628711 1.5330617 -0.050166704 0
1.2526405 1.3827404 0.055511761 0
1.2447102 1.3719258 0.15360084 0
1.2572191 1.3889841 0.25751007 0
1.0283985 1.0769414 0.34123182 0
1.3449796 1.542094 -0.05005347 0
1.2458096 1.4032222 0.055961184 0
1.240134 1.3952744 0.15534537 0
1.2498732 1.4089125 0.25964507 0
1.0176605 1.0837361 0.34096879 0
1.3279872 1.5522847 -0.050001431 0
1.2424905 1.4293153 0.056654438 0
1.2517885 1.4426886 0.16023226 0
1.2453566 1.4334376 0.26279154 0
1.0165893 1.104403 0.34638414 0
1.3116577 1.5633949 -0.049998742 0
1.2438933 1.4632632 0.057682227 0
1.2471669 1.4681003 0.16220339 0
1.2456337 1.4658349 0.26763806 0
1.0028311 1.1070579 0.34452328 0
1.2932379 1.5713335 -0.049869321 0
1.2431479 1.495272 0.058617886 0
1.2434008 1.4956561 0.16444166 0
1.2431602 1.4952909 0.27180868 0
1.1658716 1.3779285 0.34617621 0
0.993761 1.1165794 0.34548238 0
1.2804023 1.5878252 -0.050113458 0
1.2471615 1.5359385 0.059913501 0
1.2432787 1.5298778 0.16751881 0
1.2224072 1.4972987 0.27007353 0
1.1532588 1.3893627 0.34686974 0
0.98598003 1.1282514 0.34732878 0
1.2573941 1.5883206 -0.049689662 0
1.2501833 1.5767467 0.061202828 0
1.2471216 1.5718325 0.17155129 0
1.2034754 1.5017771 0.26893261 0
1.1303202 1.3843575 0.34266418 0
0.97111857 1.128827 0.34484974 0
1.2406088 1.5985193 -0.049686231 0
1.1944284 1.5222739 0.27122834 0
1.1111212 1.3847306 0.34018129 0
0.96400464 1.1418357 0.34729859 0
0.84634221 0.94757062 0.47969294 0
1.2294905 1.6183474 -0.050090525 0
1.1717943 1.5203245 0.2688337 0
1.0901096 1.3815461 0.3367354 0
0.95615149 1.1539578 0.34942183 0
0.83816981 0.95351285 0.48023397 0
1.2141773 1.6314193 -0.050219849 0
1.1607435 1.5379658 0.2705856 0
1.0727476 1.3840648 0.33506835 0
0.94375086 1.1584547 0.34864557 0
0.85067636 0.99567115 0.35478306 0
0.83432764 0.96707791 0.41100582 0
0.8368876 0.97155511 0.48910767 0
1.1897234 1.6282215 -0.049691815 0
1.1467898 1.5508888 0.27138081 0
1.0467186 1.3706384 0.32882392 0
0.9333275 1.166396 0.3492451 0
0.85133612 1.0187116 0.36322841 0
0.83882231 0.99617147 0.42479217 0
0.84140277 1.0008194 0.50554264 0
1.1721456 1.6370065 -0.049665835 0
1.1263349 1.5519862 0.26978412 0
1.0333786 1.3794678 0.32916704 0
0.92265809 1.173981 0.34975564 0
0.84739268 1.0342953 0.36810577 0
0.83862185 1.0180175 0.43433392 0
0.84187025 1.0240463 0.51776087 0
1.1601552 1.6564484 -0.050078269 0
1.1119822 1.5642835 0.27052969 0
1.0185732 1.3855722 0.32877195 0
0.90657538 1.1712968 0.34645844 0
0.85344452 1.0696464 0.38220933 0
0.84717506 1.0576515 0.45385692 0
0.84266651 1.0490258 0.53106791 0
1.1441183 1.6685557 -0.050200585 0
1.0944573 1.5705575 0.27008933 0
0.99806422 1.3803408 0.32519057 0
0.90089393 1.1885905 0.3507092 0
0.84300768 1.074361 0.3819674 0
0.83487976 1.0583218 0.45133975 0
0.84553039 1.0793393 0.54782987 0
1.1179031 1.6601375 -0.049513847 0
1.0788933 1.5806924 0.27047193 0
0.98230392 1.383984 0.32422733 0
0.89178562 1.1996398 0.35264596 0
0.84739304 1.1092324 0.39569783 0
0.83905846 1.0922588 0.46746767 0
0.83837211 1.090861 0.55204916 0
1.1020131 1.672313 -0.049658395 0
0.96542072 1.3850501 0.32259801 0
0.87391686 1.1926115 0.34795392 0
0.84199077 1.1254689 0.40077749 0
0.83874738 1.1186478 0.4792884 0
0.84017706 1.1216544 0.56895804 0
1.0892205 1.6914711 -0.050084416 0
0.94806296 1.384706 0.32064196 0
0.86497492 1.2041384 0.35016704 0
0.83880895 1.1472743 0.40839711 0
0.84154052 1.1532106 0.49554482 0
0.83981895 1.1494691 0.58380979 0
1.0735654 1.7049431 -0.050292175 0
0.93097526 1.3845001 0.31879666 0
0.85204703 1.2071247 0.34929889 0
0.83773857 1.1749693 0.41866142 0
0.84078962 1.181826 0.50843406 0
0.83746821 1.1743617 0.59668469 0
1.0539067 1.7094828 -0.050159372 0
0.91598016 1.3887062 0.31824651 0
0.85193264 1.2397505 0.35922837 0
0.84385073 1.2209544 0.43711945 0
0.84390867 1.2210891 0.52705806 0
0.84065104 1.2135128 0.61871374 0
1.0323951 1.7093233 -0.049855202 0
0.89630932 1.3815138 0.31460276 0
0.84735894 1.2636 0.36594516 0
0.83920729 1.243964 0.44514686 0
0.84273529 1.2524624 0.54128933 0
0.83906931 1.2436316 0.63480234 0
1.0152574 1.719517 -0.049961168 0
0.88335222 1.390126 0.31538916 0
0.84710103 1.2996002 0.3770034 0
0.84220141 1.287365 0.46225461 0
0.84175724 1.2862557 0.55676138 0
0.84045094 1.2829938 0.65672773 0
1.0019784 1.7399266 -0.050465833 0
0.8648417 1.3845701 0.3123419 0
0.85050195 1.3474121 0.39222139 0
0.83949465 1.3188894 0.47399196 0
0.83660185 1.3113934 0.56752294 0
0.83953786 1.3190014 0.6764034 0
0.97875756 1.7346065 -0.049994603 0
0.84605116 1.3774039 0.30893415 0
0.84601146 1.377297 0.40099061 0
0.84331542 1.3700401 0.49435818 0
0.84010094 1.3613878 0.5915364 0
0.8390466 1.3585498 0.69823468 0
0.9601655 1.7412647 -0.049990706 0
0.83176929 1.3818654 0.3087562 0
0.83939493 1.4032105 0.40833747 0
0.83925736 1.4028255 0.50653726 0
0.84101313 1.4077401 0.61348361 0
0.94074231 1.7455016 -0.049904294 0
0.81643039 1.3831993 0.30778402 0
0.84120566 1.4554058 0.42492619 0
0.842058 1.45789 0.52843851 0
0.83988768 1.4515647 0.63399297 0
0.92232978 1.7526248 -0.049935929 0
1.0300192 2.0798464 0.35069376 0
0.80014968 1.381372 0.30601877 0
0.83985549 1.5020211 0.43948388 0
0.84002799 1.5025451 0.54569662 0
0.83953851 1.5010579 0.65741092 0
0.90851545 1.7744205 -0.050525371 0
1.0039091 2.0770619 0.34877187 0
0.78567982 1.3847183 0.30569941 0
0.83768785 1.5497162 0.45436665 0
0.84085584 1.5597669 0.56835276 0
0.83939737 1.5551399 0.68314576 0
0.88447469 1.7637396 -0.049908102 0
0.98323148 2.0913832 0.35014144 0
0.76893252 1.3804073 0.30338952 0
0.83829546 1.6105317 0.47376153 0
0.84084272 1.6189826 0.5917809 0
0.86772782 1.7768452 -0.05018799 0
0.95924985 2.0949271 0.34953243 0
0.75544518 1.3866105 0.30393535 0
0.84080833 1.6832874 0.49721724 0
0.83942926 1.6784946 0.61525208 0
0.84649622 1.7743506 -0.049897239 0
0.73855269 1.380605 0.047321342 0
0.73939484 1.383677 0.13072932 0
0.74169528 1.3920683 0.21688263 0
0.73890758 1.3818996 0.30163705 0
0.83824027 1.7442353 0.51650786 0
0.83669966 1.7386155 0.63891143 0
0.82539296 1.7715476 -0.04960594 0
0.72262871 1.3772912 0.047060195 0
0.72414368 1.3831035 0.13024637 0
0.72329289 1.3798394 0.21389465 0
0.72380543 1.3818059 0.30061865 0
0.83126575 1.7940785 0.53192854 0
0.82948327 1.78724 0.65758902 0
0.81215751 1.7997229 -0.050464608 0
0.7113362 1.3919517 0.047468271 0
0.70834142 1.3798393 0.12948836 0
0.7078349 1.3777906 0.21285033 0
0.71029025 1.3877213 0.30123276 0
0.82400584 1.8476433 0.54860681 0
0.82676876 1.8588178 0.68603706 0
0.79120588 1.7975857 -0.050215457 0
0.69319999 1.3786304 0.046854414 0
0.69528991 1.3875643 0.12996745 0
0.69153672 1.3715202 0.21106327 0
0.69549567 1.3884438 0.30052909 0
0.81767428 1.9107327 0.5685218 0
0.77119195 1.7988966 -0.050102718 0
0.67992026 1.3853167 0.046982106 0
0.67805958 1.3768853 0.12843788 0
0.67876041 1.3800609 0.21205458 0
0.68125796 1.3913782 0.30045399 0
0.80686009 1.9605198 0.58387649 0
0.75088298 1.7984101 -0.04993394 0
0.66543555 1.3866509 0.046920419 0
0.66686851 1.3935562 0.12993804 0
0.66433758 1.3813601 0.21173912 0
0.66342807 1.3769771 0.29590881 0
0.79185736 1.9958597 0.59432864 0
0.73299468 1.8097668 -0.050205626 0
0.65135223 1.3898339 0.046932772 0
0.64995879 1.3826665 0.12843259 0
0.64852136 1.3752731 0.21010084 0
0.65014601 1.3836293 0.29690513 0
0.77730733 2.0376916 0.6070196 0
0.7141217 1.8167862 -0.050327498 0
0.63374078 1.3736269 0.046247993 0
0.63359404 1.3728178 0.12706757 0
0.63438171 1.3771603 0.20996444 0
0.634857 1.3797809 0.29521981 0
0.76263094 2.084229 0.62133473 0
0.69159365 1.8026379 -0.049691372 0
0.62048823 1.3804084 0.046404973 0
0.61993885 1.3771461 0.12727298 0
0.62052566 1.3806306 0.21015048 0
0.6204828 1.3803763 0.29473767 0
0.7454111 2.1222098 0.6327951 0
0.67352647 1.8142803 -0.04999857 0
0.60830051 1.3947741 0.046841707 0
0.60663009 1.3840309 0.12777473 0
0.60714281 1.3873284 0.21095707 0
0.60688066 1.3856425 0.29550922 0
0.72824794 2.1662259 0.64633811 0
0.65466845 1.8219337 -0.05016958 0
0.59268826 1.3873247 0.046496488 0
0.59243315 1.385536 0.12770981 0
0.59257686 1.3865436 0.21042983 0
0.59258223 1.3865811 0.29520831 0
0.7090373 2.2031717 0.65755355 0
0.63451707 1.8205837 -0.050024737 0
0.57720691 1.37901 0.046127763 0
0.57685876 1.3763273 0.1265033 0
0.57741237 1.3805928 0.20899734 0
0.57842857 1.3884227 0.29518655 0
0.68739432 2.2280023 0.6647675 0
0.61490506 1.8229916 -0.050024308 0
0.56312996 1.3804791 0.046118278 0
0.56326079 1.3815975 0.12688647 0
0.56317914 1.3808994 0.20873787 0
0.56343782 1.3831108 0.29337311 0
0.66755956 2.2730196 0.67882389 0
0.59553939 1.8277892 -0.050118532 0
0.55223042 1.4123827 0.13004459 0
0.55219358 1.4120297 0.21410038 0
0.55175555 1.4078281 0.29931346 0
0.64495862 2.3018034 0.68751544 0
0.57515788 1.8222537 -0.049850948 0
0.55298102 1.5800017 0.147981 0
0.55219829 1.5714512 0.24271569 0
0.55202317 1.5695384 0.3403821 0
0.62145633 2.3280017 0.69542837 0
0.55637133 1.834582 -0.050232563 0
0.6022923 2.4168828 0.23804702 0
0.59953946 2.3819754 0.38909271 0
0.59744757 2.3554492 0.54115707 0
0.53626901 1.8311585 -0.050058741 0
0.57395762 2.4004433 0.39208096 0
0.57358205 2.3947711 0.55072278 0
0.51629579 1.8279111 -0.049900383 0
0.54933864 2.4447675 0.3997952 0
0.54825407 2.4245205 0.55791312 0
0.49654564 1.8274577 -0.049850933 0
0.5224216 2.4593999 0.40220213 0
0.52206904 2.4507902 0.56429261 0
0.47690657 1.8298032 -0.049910348 0
0.45656398 1.1119957 0.35708758 0
0.45604977 1.0938509 0.42118824 0
0.45709589 1.8241088 -0.049691513 0
0.4457036 1.1004242 0.35219851 0
0.44584417 1.1093527 0.42883015 0
0.43747315 1.8300644 -0.049897511 0
0.43512622 1.0848206 0.41650546 0
0.43513173 1.0865738 0.49360746 0
0.41777414 1.828378 -0.049839515 0
0.42472243 1.0925332 0.4203808 0
0.42491204 1.0724534 0.48525232 0
0.39799324 1.8321214 -0.049984258 0
0.41413453 1.099673 0.35192862 0
0.41423649 1.0950463 0.42172062 0
0.41444993 1.0853617 0.49300444 0
0.37838355 1.8278838 -0.049852863 0
0.35235816 2.5792096 0.42372832 0
0.35279682 2.566546 0.59371054 0
0.40492785 1.0615766 0.47906408 0
0.35906053 1.819476 -0.049581159 0
0.32267395 2.589529 0.42580688 0
0.3228035 2.586787 0.5991835 0
0.39548939 1.0485286 0.47156128 0
0.3386299 1.83272 -0.050092336 0
0.29246145 2.6037371 0.42865711 0
0.29236761 2.6053042 0.60431647 0
0.38591564 1.0430439 0.46861681 0
0.31924602 1.8265035 -0.049916591 0
0.26096997 2.6300139 0.43376106 0
0.26146945 2.6231272 0.60937458 0
0.30051762 1.8140167 -0.049524732 0
0.22941142 2.6486275 0.4375551 0
0.23002103 2.6414723 0.61467141 0
0.27897128 1.8331205 -0.050274063 0
0.19789638 2.6613107 0.44035116 0
0.19818583 2.658354 0.61970103 0
0.26094913 1.8155311 -0.04971619 0
0.16622441 2.6718183 0.4428283 0
0.16612186 2.672745 0.62420124 0
0.346333 1.0436832 0.47098812 0
0.24073184 1.8189203 -0.049920246 0
0.13460548 2.6790318 0.44478318 0
0.13344015 2.6884763 0.62915665 0
0.22101159 1.81757 -0.049963053 0
0.10178728 2.6929927 0.44804189 0
0.10253023 2.6875377 0.62993413 0
0.20307323 1.8040378 -0.049575184 0
0.068542644 2.7066953 0.45133489 0
0.06939061 2.7010059 0.63452971 0
0.18042423 1.8212873 -0.050307944 0
0.037203208 2.7057257 0.45203045 0
0.035132393 2.7185135 0.64028633 0
0.16234051 1.8094139 -0.04999714 0
0.0026328133 2.7226384 0.45607373 0
0.0034071074 2.7182109 0.64155442 0
0.14297907 1.8055108 -0.049983393 0
-0.029572768 2.7238808 0.45733079 0
-0.030042036 2.7263784 0.64512783 0
0.12466122 1.796448 -0.049790587 0
-0.090051427 2.8648992 0.10069827 0
-0.090868011 2.868963 0.2915096 0
-0.060206965 2.7163875 0.45705861 0
-0.061551228 2.7230768 0.64583516 0
0.10466959 1.7958381 -0.049914289 0
-0.11231984 2.8093772 0.098918907 0
-0.11486556 2.8212678 0.28701469 0
-0.095228747 2.7295458 0.46066561 0
-0.096156552 2.7338798 0.65032786 0
0.084058002 1.7975478 -0.050132476 0
-0.14316644 2.7972338 0.098732881 0
-0.14306809 2.7968011 0.28510016 0
-0.12651707 2.723984 0.46090212 0
-0.12973846 2.7381566 0.65323979 0
0.066846326 1.7844539 -0.049817249 0
-0.17549719 2.7917984 0.098806843 0
-0.17645581 2.795783 0.28581095 0
-0.15913583 2.7237895 0.46220797 0
-0.16038384 2.728977 0.65274018 0
0.0438831 1.7949001 -0.050376076 0
-0.20903118 2.7908683 0.099061966 0
-0.21097459 2.7985213 0.28698704 0
-0.19526328 2.7366507 0.46602359 0
-0.19815703 2.7480462 0.65977639 0
0.02743675 1.7794355 -0.049989909 0
-0.25064993 2.819458 0.10042445 0
-0.25108111 2.8210704 0.29041925 0
-0.23078354 2.7451591 0.46912426 0
-0.22922702 2.7393377 0.65962577 0
0.0092488099 1.7711661 -0.049876858 0
-0.25796771 2.722374 0.46645734 0
-0.26000112 2.7296124 0.65930867 0
-0.009102745 1.7637231 -0.049802657 0
-0.29427326 2.7318549 0.46991113 0
-0.29696929 2.7410078 0.6647107 0
-0.030451847 1.7661704 -0.050106272 0
-0.32551128 2.7232442 0.47005013 0
-0.32615435 2.7253301 0.66302979 0
-0.050484225 1.7638214 -0.050241292 0
-0.35804343 2.7185709 0.47101009 0
-0.3599723 2.7245588 0.66543597 0
-0.066028908 1.7478111 -0.049871828 0
0.13895492 1.1379063 0.1050384 0
-0.39108133 2.7149656 0.47225508 0
-0.39176184 2.7169902 0.66613716 0
-0.085807934 1.7446722 -0.049995005 0
0.11462273 1.1722842 0.1794892 0
-0.42517108 2.7138224 0.66813904 0
-0.10860933 1.7495654 -0.050433386 0
0.11005478 1.1494408 0.17588663 0
-0.45934337 2.7121563 0.67067194 0
-0.12259836 1.7303061 -0.049962766 0
0.10105391 1.1397182 0.17480823 0
-0.48658067 2.691457 0.66814142 0
-0.14226939 1.7263975 -0.050085425 0
0.096725777 1.1185168 0.17152198 0
-0.51689559 2.6792538 0.66802144 0
-0.16037185 1.7184049 -0.050060786 0
0.096367076 1.0887914 0.1665692 0
-0.55278641 2.6807425 0.67177814 0
-0.17724241 1.7075334 -0.049933244 0
0.029296951 1.2187222 0.11734313 0
-0.58378017 2.6696751 0.67220211 0
-0.19610776 1.7014383 -0.049999386 0
0.010851966 1.2283376 0.1190755 0
-0.61551046 2.6601744 0.67317301 0
-0.21332552 1.691582 -0.04992779 0
-0.64222336 2.6393411 0.67108756 0
-0.23370047 1.6885865 -0.050134715 0
-0.67145765 2.6243713 0.67073578 0
-0.24994697 1.6767048 -0.050000694 0
-0.69374919 2.5951023 0.66643399 0
-0.26953679 1.6717299 -0.05014953 0
0.00054665073 1.1303322 0.040549319 0
-0.73155034 2.5978625 0.67131704 0
-0.285411 1.6592996 -0.050009847 0
-0.011279 1.1266824 0.040623933 0
-0.75818157 2.5778558 0.66983521 0
-0.3053751 1.654779 -0.050196975 0
-0.018521173 1.11428 0.040351279 0
-0.78607249 2.5605237 0.66921246 0
-0.31804752 1.6366457 -0.049841657 0
-0.80816257 2.5327036 0.6656372 0
-0.33556658 1.6276184 -0.049863473 0
-0.025622321 1.0775268 0.039321672 0
-0.83302474 2.5105114 0.47096404 0
-0.83254445 2.5096591 0.66351622 0
-0.35483569 1.6215709 -0.05001751 0
-0.026699705 1.0559649 0.038672488 0
-0.86597621 2.5026209 0.47267845 0
-0.85832655 2.4894352 0.6623019 0
-0.36889642 1.6065826 -0.049810987 0
-0.89029598 2.4797971 0.47135589 0
-0.88785434 2.475708 0.66310507 0
-0.38668942 1.5979421 -0.049876221 0
-0.91147435 2.4522026 0.46907786 0
-0.90782535 2.4462628 0.65931898 0
-0.40078026 1.5833499 -0.049700066 0
-0.93814182 2.4338822 0.4688167 0
-0.93522358 2.4292634 0.65933418 0
-0.41714877 1.5724865 -0.04968873 0
-0.95989394 2.4080522 0.46701035 0
-0.95872927 2.4062591 0.65762717 0
-0.43645626 1.5660342 -0.049875461 0
-0.98454666 2.3870118 0.46628651 0
-0.97706604 2.3758066 0.65371138 0
-0.45080584 1.5521159 -0.049751062 0
-1.0035934 2.3579688 0.4638738 0
-1.005141 2.360225 0.65443361 0
-0.46963328 1.5446993 -0.04991737 0
-1.0269268 2.3355851 0.46296152 0
-1.0206909 2.3267355 0.64968294 0
-0.48268098 1.5290904 -0.049734574 0
-0.6146915 1.7115116 0.069773652 0
-0.61910188 1.7176062 0.19878224 0
-1.0451248 2.3063135 0.46057266 0
-1.0413783 2.3011365 0.64743513 0
-0.076947585 0.96842015 0.44082522 0
-0.50826424 1.5305636 -0.050317109 0
-0.61884081 1.6793838 0.068936266 0
-0.61795211 1.6781877 0.19529286 0
-1.0624261 2.2763863 0.45806524 0
-1.0644636 2.2791286 0.64639002 0
-0.089148715 0.96649384 0.44365805 0
-0.51718205 1.5095049 -0.049907949 0
-0.61698425 1.6403502 0.067783058 0
-0.62088001 1.6454576 0.19267192 0
-1.0801548 2.2475882 0.45583892 0
-1.0773969 2.2439723 0.64120871 0
-0.093063369 0.95346558 0.43962827 0
-0.53412342 1.4991583 -0.049985491 0
-0.61654258 1.6044377 0.066758886 0
-0.61466897 1.6020443 0.18857193 0
-1.0963563 2.2173355 0.45330831 0
-1.1009717 2.2232308 0.64069921 0
-0.10762669 0.95436573 0.44444022 0
-0.54969031 1.4870085 -0.049990971 0
-0.61688697 1.5706517 0.065821432 0
-0.6178695 1.5718747 0.18624522 0
-1.1203904 2.1973886 0.45318305 0
-1.1173021 2.1935444 0.63735372 0
-0.1290796 0.96345228 0.45467225 0
-0.57667053 1.4886937 -0.050645631 0
-0.61463141 1.5347458 0.064776324 0
-0.62338102 1.5453603 0.1844089 0
-1.1294757 2.1593266 0.44889295 0
-1.1225762 2.1509564 0.62977535 0
-0.14071919 0.95982146 0.45693916 0
-0.57924807 1.460803 -0.049940251 0
-0.61666942 1.5050534 0.064009219 0
-0.6139816 1.5018752 0.1801741 0
-1.1477803 2.133086 0.44737601 0
-1.138193 2.1217492 0.62660879 0
-0.15436234 0.9583804 0.46076074 0
-0.58927274 1.4422514 -0.049670041 0
-0.61543858 1.4724137 0.063095599 0
-0.62237191 1.4804059 0.17900829 0
-1.1575531 2.0973265 0.44362441 0
-1.1596876 2.099787 0.62592065 0
-0.6066376 1.4322308 -0.04981048 0
-0.63687789 1.4662158 0.063434578 0
-0.62684739 1.4549432 0.17727 0
-1.1696819 2.0649955 0.44068778 0
-1.1658977 2.0607426 0.61948287 0
-0.63320351 1.4321407 -0.050443027 0
-0.65763569 1.4589117 0.063736975 0
-0.65400565 1.4549341 0.17922319 0
-1.1763372 2.0272679 0.43643668 0
-1.1882575 2.0403292 0.61943287 0
-0.63616145 1.4061702 -0.049833793 0
-0.51132667 1.2727973 0.055311877 0
-0.69182289 1.4656388 0.18282664 0
-1.1927108 2.0007849 0.43493342 0
-1.1910833 1.9990462 0.61218715 0
-0.6583308 1.4008301 -0.050239913 0
-0.49817896 1.2339859 0.053983297 0
-0.71555781 1.4604485 0.18417661 0
-1.2002447 1.9653893 0.43123505 0
-1.1946263 1.9595361 0.60549289 0
-0.67001593 1.3844266 -0.050110765 0
-0.5202021 1.2322354 0.054486528 0
-0.74395669 1.4595407 0.186234 0
-1.2120473 1.9350593 0.42879638 0
-1.2084671 1.9314224 0.60281092 0
-0.68675292 1.3731512 -0.050247528 0
-0.53401983 1.2218531 0.054572292 0
-0.77734721 1.4628944 0.18902273 0
-1.2155381 1.8969684 0.42437556 0
-1.2239956 1.9053463 0.60089624 0
-0.69730914 1.355767 -0.050082937 0
-0.53761709 1.2015103 0.054156233 0
-0.80402303 1.4588486 0.19076808 0
-1.2224759 1.8630587 0.42099348 0
-1.2302672 1.8705847 0.59583819 0
-0.69435561 1.3258129 -0.049268499 0
-0.56082869 1.200042 0.054719701 0
-0.84307265 1.4658916 0.19432728 0
-1.2405947 1.8403231 0.42052785 0
-1.2286388 1.8290616 0.58822536 0
-0.71931136 1.3222672 -0.049834684 0
-0.87456536 1.4648569 0.069360428 0
-0.87654924 1.466679 0.19701932 0
-1.2298247 1.7911371 0.41306406 0
-1.2352329 1.7961043 0.58373058 0
-0.24203558 0.88392359 0.38522157 0
-0.74204206 1.3161888 -0.050290044 0
-0.90538466 1.4624588 0.070117973 0
-0.89933825 1.4570444 0.19813795 0
-1.2361681 1.7586688 0.40997776 0
-1.2301745 1.7533017 0.57543838 0
-0.23562302 0.86270076 0.37735179 0
-0.74681151 1.293999 -0.049892839 0
-0.93793988 1.4608623 0.07095094 0
-1.2398674 1.7244581 0.40639061 0
-1.2366177 1.7216209 0.57131577 0
-0.24099721 0.8524012 0.37619397 0
-0.7550745 1.2751461 -0.049676824 0
-0.97372484 1.4612384 0.071927398 0
-1.2399079 1.6877851 0.4020777 0
-1.2411311 1.6888262 0.56672496 0
-0.23175754 0.82975405 0.367174 0
-0.25905842 0.85298961 0.46039662 0
-0.77027714 1.2622446 -0.049796037 0
-1.0065259 1.4582392 0.072755069 0
-1.2530745 1.6627787 0.40099436 0
-1.2349108 1.6477098 0.55876124 0
-0.25102919 0.83147067 0.37374017 0
-0.78080249 1.2454488 -0.049706798 0
-1.0524902 1.4651281 0.074180461 0
-1.2443079 1.6202264 0.3949084 0
-1.238122 1.6152246 0.55414337 0
-0.2555185 0.82071888 0.37235743 0
-0.79182863 1.229124 -0.049650863 0
-1.0849808 1.4601153 0.074975394 0
-1.2466711 1.5875204 0.39156172 0
-1.2426522 1.5843536 0.55013311 0
-0.26604491 0.81482893 0.37424237 0
-0.82924891 1.2331089 -0.050792757 0
-1.1205076 1.4567219 0.075902201 0
-1.2503926 1.5564407 0.38865012 0
-1.23663 1.5458746 0.54289287 0
-0.2545076 0.79185283 0.36463109 0
-0.25217378 0.79006106 0.43791425 0
-0.82596266 1.2056386 -0.050106913 0
-1.1657829 1.4597986 0.077256843 0
-1.243276 1.5177574 0.38341352 0
-1.2421618 1.5169241 0.53955668 0
-0.26033074 0.78258878 0.36423606 0
-0.27541006 0.79386693 0.44833061 0
-0.83202541 1.1855736 -0.049855623 0
-1.2076596 1.4592123 0.078447282 0
-1.2457315 1.4869466 0.38046974 0
-1.2390779 1.4820997 0.533647 0
-1.2398812 1.4826849 0.69438648 0
-0.26303506 0.77108032 0.36230707 0
-0.27539062 0.78008103 0.44422635 0
-0.83981323 1.1669456 -0.049693186 0
-1.2531252 1.4601376 0.079784557 0
-1.2421463 1.4523494 0.3763026 0
-1.2434444 1.4532703 0.53025818 0
-1.2420698 1.4522952 0.68907613 0
-0.27611929 0.76707685 0.3657383 0
-0.28220409 0.77139324 0.44445711 0
-0.86978769 1.1637754 -0.050505001 0
-1.3077488 1.4662362 0.081507094 0
-1.2503587 1.426602 0.37485319 0
-1.2454485 1.423211 0.52627921 0
-1.2435595 1.4219064 0.68368447 0
-0.27748591 0.7547254 0.43774074 0
-0.86951697 1.1395816 -0.050010648 0
-1.268154 1.4075348 0.079158813 0
-1.2751775 1.4122558 0.22713473 0
-1.2498053 1.3952012 0.37158191 0
-1.2428739 1.3905421 0.52104318 0
-1.2427199 1.3904387 0.6775586 0
-0.29477972 0.75325859 0.44447836 0
-0.88263404 1.1245569 -0.050104517 0
-1.270553 1.3782734 0.078652866 0
-1.2680653 1.3766464 0.22438282 0
-1.2526822 1.366585 0.36916226 0
-1.237906 1.3569207 0.51524633 0
-1.2348703 1.3549353 0.66885448 0
-0.29459155 0.73995048 0.44072011 0
-0.89192152 1.1070135 -0.050043628 0
-1.2841036 1.3565249 0.078638494 0
-1.2696949 1.3473579 0.22282368 0
-1.2550759 1.3380572 0.36673597 0
-1.2397492 1.3283061 0.51168394 0
-1.234395 1.3248997 0.66330463 0
-0.30483717 0.73350269 0.44327909 0
-0.90893984 1.0942997 -0.050317068 0
-1.2907025 1.3304827 0.078343928 0
-1.2881408 1.3288978 0.22344854 0
-1.2420459 1.3003807 0.36113402 0
-1.2360094 1.2966461 0.50658268 0
-1.2468101 1.303328 0.6629892 0
-0.91973794 1.0776165 -0.050336007 0
-1.3061665 1.3100097 0.078434624 0
-1.309543 1.3120403 0.22446874 0
-1.248088 1.275082 0.35968825 0
-1.233299 1.2661881 0.50194561 0
-1.2497959 1.2761092 0.65912145 0
-0.92647374 1.0585402 -0.050195552 0
-1.336512 1.2981542 0.079150707 0
-1.3394339 1.2998617 0.22656457 0
-1.2488174 1.2469082 0.35721022 0
-1.2422707 1.2430824 0.50090832 0
-1.244578 1.2444308 0.65225345 0
-0.93928742 1.0430241 -0.050315499 0
-1.3809664 1.2937214 0.080447026 0
-1.3861868 1.2966845 0.23074822 0
-1.2462 1.2172279 0.35412952 0
-1.2403021 1.2138803 0.49675456 0
-1.2321008 1.2092252 0.6428104 0
-0.94088948 1.0212293 -0.049985588 0
-1.2470284 1.1899333 0.35185698 0
-1.2438042 1.1881565 0.49433067 0
-1.2441767 1.1883619 0.64292854 0
-0.95946741 1.008773 -0.050356314 0
-1.2468107 1.1624347 0.34945625 0
-1.2297723 1.1533232 0.48694414 0
-1.2424606 1.1601084 0.6379419 0
-0.96650267 0.9900316 -0.050266739 0
-1.2519168 1.1380708 0.34822333 0
-1.2396747 1.131721 0.48661104 0
-1.2450289 1.1344982 0.6347273 0
-0.97320235 0.97118866 -0.050173774 0
-1.266752 1.1187872 0.3490243 0
-1.2455354 1.1081194 0.48520386 0
-1.2383132 1.104488 0.62819624 0
-0.98221517 0.95354205 -0.050182696 0
-1.289924 1.1034361 0.35154167 0
-1.2482532 1.083137 0.48299798 0
-1.2376795 1.0779862 0.6240961 0
-0.98355877 0.93226784 -0.049897633 0
-1.3083372 1.0854477 0.35313389 0
-1.2360483 1.0513531 0.47668466 0
-1.231046 1.0489937 0.61793637 0
-0.98641229 0.91190022 -0.049684003 0
-1.304728 1.057161 0.35039628 0
-1.2466 1.0306348 0.47690198 0
-1.2416817 1.0283903 0.61826122 0
-1.0096915 0.90070593 -0.050278634 0
-1.3079801 1.0323151 0.34909678 0
-1.2423058 1.0033387 0.47305107 0
-1.2391757 1.0019577 0.61390007 0
-1.0081658 0.87847924 -0.049912915 0
-1.3156654 1.009552 0.34873483 0
-1.2461778 0.97993273 0.47158125 0
-1.2426775 0.9784407 0.61185569 0
-1.0187935 0.86152852 -0.050029095 0
-1.3380191 0.99287492 0.35129145 0
-1.2331502 0.94972628 0.4655382 0
-1.2347596 0.95038843 0.60582042 0
-1.0245657 0.8425597 -0.049966425 0
-1.3459818 0.97009921 0.3510839 0
-1.2369338 0.92682838 0.46424434 0
-1.2353649 0.92620581 0.60299265 0
-1.0374629 0.82635874 -0.050185539 0
-1.3486509 0.94532669 0.3499108 0
-1.2447416 0.90560186 0.46413481 0
-1.2390511 0.90342635 0.60138458 0
-1.048911 0.80945653 -0.050356284 0
-1.356529 0.92264116 0.34980416 0
-1.2267627 0.8748951 0.45708841 0
-1.240214 0.87984437 0.59899133 0
-1.0365173 0.7839902 -0.049631495 0
-1.3620987 0.89915091 0.3493112 0
-1.2424445 0.85682827 0.45928752 0
-1.2375432 0.85509467 0.59536088 0
-1.0563047 0.76998931 -0.050135262 0
-1.3687665 0.87610233 0.34908599 0
-1.2405169 0.83254832 0.45679393 0
-1.2305641 0.82916832 0.59034187 0
-1.0693372 0.75341189 -0.050389986 0
-1.3815185 0.85506386 0.3500708 0
-1.2386609 0.80854684 0.45441201 0
-1.2448528 0.81056303 0.5928992 0
-1.0682733 0.73224849 -0.050124381 0
-1.3884734 0.83207023 0.35000679 0
-1.2354239 0.78435737 0.45175123 0
-1.2537197 0.790061 0.59363896 0
-1.0610778 0.70945013 -0.049641307 0
-1.404796 0.81187332 0.35176048 0
-1.246015 0.76455879 0.45286295 0
-1.2403249 0.76286322 0.58673751 0
-1.0780853 0.69388431 -0.050068952 0
-1.410109 0.78828764 0.35149145 0
-1.2327952 0.73787254 0.4477213 0
-1.2340887 0.73824024 0.5824554 0
-1.0851792 0.67531854 -0.050135735 0
-1.4079314 0.76270866 0.34987932 0
-1.2359819 0.7161507 0.44702268 0
-1.234744 0.71581548 0.58067036 0
-1.0819172 0.65403628 -0.04982917 0
-1.4159282 0.73997599 0.35022718 0
-1.241791 0.69517118 0.44708928 0
-1.2520989 0.69782341 0.58472496 0
-1.0878638 0.63521957 -0.049871814 0
-1.4317207 0.71909088 0.35207435 0
-1.2393736 0.67217487 0.44506481 0
-1.2368671 0.67156345 0.57768559 0
-1.0956694 0.61679745 -0.049991131 0
-1.4211855 0.69186568 0.34909216 0
-1.2446313 0.65114999 0.44513172 0
-1.2404972 0.65019661 0.57721972 0
-1.1034049 0.59827077 -0.050116051 0
-1.4249547 0.6681723 0.34882149 0
-1.2332339 0.62649423 0.44091919 0
-1.235908 0.62707555 0.57404846 0
-1.1173159 0.58091223 -0.050474189 0
-1.4394013 0.64669436 0.3505719 0
-1.251357 0.60828853 0.44448546 0
-1.2395219 0.60587132 0.57376975 0
-1.1166385 0.56050467 -0.050309166 0
-1.436253 0.62160039 0.34913719 0
-1.2363616 0.58339024 0.43950027 0
-1.2405794 0.58419651 0.57271636 0
-1.1069022 0.53859848 -0.049825337 0
-1.434221 0.59690481 0.34796813 0
-1.2448663 0.56317449 0.44069758 0
-1.236582 0.56169879 0.57004958 0
-1.11623 0.52018374 -0.050042331 0
-1.4590071 0.57680047 0.35176054 0
-1.2361386 0.53998917 0.43750221 0
-1.2404337 0.54069859 0.57013059 0
-1.1123956 0.49960703 -0.049791981 0
-1.4503349 0.55106223 0.34948823 0
-1.2378238 0.51870489 0.43707564 0
-1.2396109 0.51897705 0.56872743 0
-1.1244333 0.48141798 -0.050123543 0
-1.4483414 0.52657145 0.34849507 0
-1.2368429 0.49708813 0.43603212 0
-1.2406904 0.49762449 0.56805772 0
-1.1200007 0.46090513 -0.049870126 0
-1.4558363 0.50341785 0.3492845 0
-1.2365066 0.47565335 0.43522614 0
-1.2254094 0.47424859 0.56199282 0
-1.1258246 0.44173637 -0.049994893 0
-0.51231229 0.37190995 0.039950311 0
-0.50982231 0.37162656 0.10792911 0
-0.51029438 0.37168029 0.17713717 0
-1.2392311 0.45464364 0.4352766 0
-1.2379295 0.45449549 0.56534421 0
-1.1317888 0.42249018 -0.05013321 0
-0.51761723 0.36041147 0.04009477 0
-0.49974352 0.35860485 0.10670263 0
-0.50764734 0.35940376 0.17642596 0
-1.2439137 0.43382344 0.43589699 0
-1.2378187 0.43320739 0.564551 0
-1.1226034 0.40180409 -0.049737092 0
-0.47932595 0.3449561 0.038681753 0
-0.51444441 0.34805959 0.10816865 0
-0.50867087 0.34754938 0.17640814 0
-1.2438902 0.41252252 0.43537855 0
-1.2460071 0.41270959 0.56661999 0
-1.1244292 0.38222858 -0.049744919 0
-0.50430429 0.3352876 0.10697031 0
-0.51654923 0.33621451 0.17765713 0
-1.2381821 0.39083922 0.43347478 0
-1.2480218 0.39158407 0.56671351 0
-1.1291451 0.36282662 -0.049864948 0
-0.5043059 0.32343444 0.1068823 0
-0.52207565 0.32455471 0.17850593 0
-1.2425162 0.36997396 0.43420953 0
-1.242067 0.36994562 0.56423885 0
-1.2446909 0.37011105 0.70181352 0
-1.1358212 0.34343559 -0.050063707 0
-0.51334631 0.31205571 0.10778309 0
-0.51168543 0.31197199 0.1765065 0
-1.2503031 0.34920678 0.43589303 0
-1.2307926 0.34822324 0.56008458 0
-1.2352068 0.34844574 0.69738501 0
-0.35029578 0.30383608 0.47085014 0
-1.1332667 0.32355225 -0.04994132 0
-0.5173471 0.30027339 0.10815686 0
-0.5064199 0.29986039 0.17546153 0
-1.2472981 0.32786208 0.43488711 0
-1.2276019 0.32711765 0.55871469 0
-1.2355524 0.32741815 0.69714433 0
-0.36646616 0.2945708 0.48018876 0
-1.1318179 0.30377999 -0.049867399 0
-0.41133446 0.28563023 0.35550624 0
-0.40981841 0.28559205 0.42760071 0
-0.38114834 0.28486982 0.48871073 0
-1.1500249 0.28430429 -0.050504178 0
-0.39663845 0.2748155 0.42090547 0
-0.38072163 0.27461502 0.48834282 0
