# .PCD v0.7 - Point Cloud Data file format
VERSION 0.7
FIELDS x y z intensity
SIZE 4 4 4 4
TYPE F F F F
COUNT 1 1 1 1
WIDTH 1356
HEIGHT 1
VIEWPOINT 0 0 0 1 0 0 0
POINTS 1356
DATA ascii
-1.2438051 -0.25822601 0.59018385 0
-1.0587119 -0.22120796 -0.049991045 0
-0.98347652 -0.19670992 0.059166238 0
-0.98351812 -0.19672348 0.1660476 0
-1.2441145 -0.28157851 0.32400957 0
-1.2462676 -0.28227952 0.45645297 0
-1.2391715 -0.27996895 0.59091145 0
-1.0661747 -0.24459706 -0.0505074 0
-1.1358094 -0.26824519 0.065132894 0
-1.122525 -0.26373377 0.18249622 0
-1.2427348 -0.30455741 0.32508138 0
-1.2481326 -0.30639055 0.45884594 0
-1.0428766 -0.25749543 -0.049872313 0
-1.2945899 -0.34652844 0.20288263 0
-1.2487923 -0.33032945 0.32763594 0
-1.2405665 -0.32741991 0.45877928 0
-1.0371224 -0.27637491 -0.049907833 0
-1.2542374 -0.35625997 0.19915825 0
-1.2377418 -0.35019061 0.32697695 0
-1.2238165 -0.34506693 0.45628747 0
-1.0273285 -0.29374018 -0.049798183 0
-1.246217 -0.37742177 0.19914994 0
-1.2376566 -0.37414911 0.32848012 0
-1.243914 -0.37654135 0.46390876 0
-1.0222462 -0.31289515 -0.049877338 0
-1.2463218 -0.40180948 0.20011178 0
-1.2385951 -0.39874348 0.33024785 0
-1.2487794 -0.40278468 0.46749577 0
-1.0191656 -0.33293757 -0.050043464 0
-1.2459621 -0.42625365 0.20106022 0
-1.2353567 -0.42188999 0.33127043 0
-1.241004 -0.42421362 0.46770492 0
-1.0103583 -0.35066971 -0.049998008 0
-1.2478765 -0.45191267 0.20231532 0
-1.2446711 -0.45054635 0.33481646 0
-1.250172 -0.45289114 0.47268903 0
-1.0008088 -0.36804268 -0.049932018 0
-1.250595 -0.47825184 0.20370969 0
-1.239038 -0.47315273 0.33550671 0
-1.2425121 -0.47468558 0.47310862 0
-0.98930275 -0.38447514 -0.049797434 0
-1.2496814 -0.50329673 0.20472209 0
-1.2336493 -0.49598059 0.33630562 0
-1.2391337 -0.49848339 0.47480813 0
-0.98277056 -0.4031519 -0.04986652 0
-1.2482044 -0.52834225 0.20571098 0
-1.2594678 -0.53365463 0.34338924 0
-1.2388623 -0.52393615 0.47747844 0
-0.98108268 -0.42424622 -0.050137721 0
-1.5054369 -0.67967463 0.082960814 0
-1.2366521 -0.5487417 0.20553911 0
-1.2445743 -0.5526008 0.34244412 0
-1.2399784 -0.55036205 0.48064965 0
-0.96235788 -0.4369919 -0.04974043 0
-1.4326202 -0.6734426 0.080532186 0
-1.2340252 -0.57358789 0.20647056 0
-1.229125 -0.57112402 0.34142882 0
-1.2346178 -0.57388586 0.48208618 0
-0.95716953 -0.45644656 -0.049891379 0
-1.3870471 -0.6794163 0.079180174 0
-1.2329704 -0.59949952 0.20763621 0
-1.2458615 -0.60618597 0.34699315 0
-0.94309771 -0.47127488 -0.049693581 0
-1.3527428 -0.69033957 0.078278296 0
-1.2421812 -0.63121486 0.21010044 0
-1.2351013 -0.62742877 0.34706149 0
-0.93930292 -0.49161085 -0.049920917 0
-1.3103219 -0.69606835 0.077044867 0
-1.2515297 -0.66366965 0.21264757 0
-1.2448692 -0.65999931 0.35141236 0
-0.93716025 -0.51307249 -0.050228175 0
-1.256263 -0.69419551 0.075327776 0
-1.2418497 -0.68601453 0.21291186 0
-1.2329814 -0.68098086 0.35138834 0
-0.92442298 -0.52859765 -0.050110754 0
-1.2494023 -0.71850574 0.075548701 0
-1.2397325 -0.71285504 0.21415436 0
-1.2419384 -0.71414405 0.35577327 0
-0.90895164 -0.54238558 -0.049886651 0
-1.2493001 -0.7470668 0.07606557 0
-1.2414708 -0.74235839 0.21593204 0
-1.2356693 -0.73886937 0.35707474 0
-0.90291488 -0.56182808 -0.050064132 0
-1.2444016 -0.77309388 0.076400161 0
-1.2485706 -0.77567309 0.21844792 0
-1.2361407 -0.76798314 0.35988167 0
-0.88614023 -0.57459116 -0.049798992 0
-1.2410191 -0.8003698 0.076815404 0
-1.2413739 -0.80059546 0.21921626 0
-1.2421197 -0.80106992 0.36396649 0
-0.87485123 -0.59072238 -0.049772505 0
-1.2516229 -0.83714801 0.07784532 0
-1.2387809 -0.82874876 0.22062226 0
-1.2387031 -0.82869798 0.36614978 0
-0.86489546 -0.60773098 -0.049811848 0
-1.2498653 -0.86649746 0.078372084 0
-1.2393063 -0.85939997 0.22248974 0
-1.2379507 -0.85848874 0.36900586 0
-0.85873806 -0.62740034 -0.050025586 0
-1.2424989 -0.89242977 0.078676052 0
-1.231985 -0.88516873 0.22339888 0
-1.2389007 -0.88994473 0.37234184 0
-0.84835613 -0.6442616 -0.050067123 0
-1.2389041 -0.92130536 0.079162076 0
-1.2291116 -0.91435879 0.2249448 0
-1.5984172 -1.1763338 0.45508021 0
-0.83216155 -0.6569286 -0.049861636 0
-1.2471135 -0.95920914 0.080189951 0
-1.2412243 -0.95491904 0.22854622 0
-1.5681199 -1.193053 0.45240355 0
-0.82480419 -0.67602807 -0.050055265 0
-1.2333552 -0.98159331 0.080269359 0
-1.2454187 -0.9906159 0.23118725 0
-0.8083235 -0.6882993 -0.049850911 0
-1.2354873 -1.0162531 0.081077397 0
-1.234466 -1.0154688 0.23186228 0
-0.8052038 -0.7109189 -0.0502588 0
-1.1612033 -0.99143118 0.078439899 0
-1.1569425 -0.98807389 0.22347823 0
-1.1653879 -0.99472851 0.3728984 0
-0.78208506 -0.71774179 -0.049765684 0
-1.1400325 -1.0071681 0.078199677 0
-1.1395506 -1.0067784 0.22327144 0
-1.1463248 -1.0122558 0.37218338 0
-0.77775323 -0.73970264 -0.050142836 0
-1.2366625 -1.1204188 0.083430581 0
-1.2380438 -1.1215647 0.23927718 0
-1.3332617 -1.2005585 0.41978478 0
-0.75753689 -0.74849778 -0.049792264 0
-1.2407341 -1.1597441 0.084445097 0
-1.2367556 -1.1563581 0.24157679 0
-1.3123415 -1.2206887 0.41923177 0
-1.0342664 -0.98402065 0.4974198 0
-0.74255919 -0.76154226 -0.049691312 0
-1.2770674 -1.228191 0.41529661 0
-0.98700261 -0.97495192 0.48677543 0
-0.74237263 -0.78774065 -0.050305884 0
-1.1945763 -1.1926799 0.083977006 0
-1.1974465 -1.1952502 0.24114324 0
-1.1897837 -1.1883882 0.39874858 0
-0.96393442 -0.98614484 0.48425788 0
-0.72578621 -0.79946977 -0.050148547 0
-0.92054534 -0.978342 0.4747203 0
-0.70418966 -0.80633157 -0.049750809 0
-0.88196993 -0.97378522 0.46672183 0
-0.69449115 -0.82430083 -0.04994306 0
-0.85286844 -0.97728735 0.46196589 0
-0.68443644 -0.84211236 -0.05013112 0
-0.83846486 -0.99469358 0.46244437 0
-0.67100286 -0.85668498 -0.050160989 0
-0.8226887 -1.0107778 0.46250901 0
-0.65520704 -0.86883169 -0.050078869 0
-0.63783276 -0.87921172 -0.049921107 0
-0.61764407 -0.88634759 -0.049618978 0
-0.60963082 -0.90685052 -0.049971234 0
-0.5951829 -0.92032021 -0.049992044 0
-0.57745171 -0.92993468 -0.049840935 0
-0.56331617 -0.94374877 -0.049896069 0
-0.54400343 -0.95118564 -0.049666796 0
-0.53950036 -0.97728246 -0.050296906 0
-0.51546645 -0.97851151 -0.049806952 0
-0.49960196 -0.99016124 -0.049798578 0
-0.49331188 -1.0150367 -0.050381966 0
-0.47116303 -1.018126 -0.050012182 0
-0.46318394 -1.0414165 -0.050532285 0
-0.43682587 -1.0378437 -0.049899228 0
-0.4135766 -1.0382428 -0.049454611 0
-0.38058335 -0.98744923 0.50262117 0
-0.39625138 -1.0474373 -0.049397349 0
-0.35082382 -0.97553498 0.49394253 0
-0.38623488 -1.068458 -0.049845219 0
-0.32776845 -0.97328466 0.48925096 0
-0.37135351 -1.0819534 -0.049982093 0
-0.30900103 -0.97752863 0.48722395 0
-0.35472053 -1.0926282 -0.050009314 0
-0.28861648 -0.9786852 0.48411539 0
-0.33714134 -1.1016692 -0.049978003 0
-0.27742863 -0.99569064 0.4871794 0
-0.32132882 -1.1139005 -0.050085776 0
-0.25539821 -0.99336237 0.48294446 0
-0.29764414 -1.1114678 -0.049608216 0
-0.22915126 -0.98241144 0.47559494 0
-0.28903687 -1.1376001 -0.050292712 0
-0.21029653 -0.98461384 0.47333857 0
-0.26800185 -1.1399088 -0.050026767 0
-0.18869855 -0.98094076 0.4690004 0
-0.25197828 -1.1521642 -0.050167374 0
-0.16607131 -0.97438973 0.46372592 0
-0.22980799 -1.1515213 -0.049806751 0
-0.15109809 -0.98326474 0.46425334 0
-0.21434595 -1.1650926 -0.05001615 0
-0.12958474 -0.97779125 0.45960709 0
-0.19669886 -1.1740454 -0.050052043 0
-0.11520399 -0.98775178 0.46068963 0
-0.17672099 -1.1775551 -0.049885418 0
-0.10328652 -1.0037597 0.46401623 0
-0.16072823 -1.1905346 -0.050094482 0
-0.075714424 -0.98205119 0.34942478 0
-0.083355859 -1.0007905 0.46056148 0
-0.14098056 -1.1943752 -0.049959674 0
-0.057361647 -0.98169178 0.34759891 0
-0.06699799 -1.0062016 0.46020958 0
-0.12757833 -1.2147123 -0.05046479 0
-0.028497024 -0.95307297 0.14590545 0
-0.033548966 -0.96641344 0.24335381 0
-0.010262532 -0.90492207 0.32499918 0
-0.052472219 -1.0163831 0.4616299 0
-0.1050957 -1.2111779 -0.05006697 0
-0.009593768 -0.94907254 0.14479494 0
-0.0096148383 -0.94913048 0.23892865 0
0.0086943377 -0.89888078 0.32186997 0
-0.089638248 -1.2268666 -0.050408781 0
0.010699587 -0.94032282 0.14317566 0
0.0085657705 -0.94641656 0.23736462 0
0.017560946 -0.92072815 0.32635808 0
-0.0012992753 -0.97458905 0.44273549 0
-0.07232447 -1.2377985 -0.050577331 0
0.020158337 -0.96262711 0.14511308 0
0.026871042 -0.94265431 0.23565139 0
0.02519642 -0.9476369 0.33221966 0
0.012312459 -0.98597163 0.44484779 0
-0.04788284 -1.2270018 -0.049938403 0
0.037574396 -0.96171874 0.14443524 0
0.036944702 -0.96367353 0.2386843 0
0.018988507 -1.0194144 0.35011011 0
0.022855567 -1.00741 0.45052642 0
-0.026978208 -1.2261587 -0.049685333 0
0.023604022 -1.0620871 0.36013985 0
-0.0092819761 -1.2355875 -0.049825303 0
0.065459177 -0.98184699 0.33745685 0
0.0085940231 -1.2447526 -0.049963292 0
0.085763559 -0.97005314 0.33313268 0
0.027697073 -1.2497177 -0.04995393 0
0.1004235 -0.97772664 0.33403194 0
0.043689862 -1.2669168 -0.050404105 0
0.1189781 -0.97043413 0.33103749 0
0.063557938 -1.2693784 -0.050319169 0
0.083634123 -1.2706685 -0.050200753 0
0.10425724 -1.2690198 -0.049984608 0
0.12392603 -1.2713622 -0.049923811 0
0.14158927 -1.2841635 -0.050252091 0
-0.06292744 -2.3726597 0.1017928 0
0.16381823 -1.2722199 -0.049690895 0
0.041217163 -1.9732649 0.087098956 0
0.18258089 -1.2792251 -0.049826279 0
0.073854014 -1.9506502 0.086109281 0
0.20066851 -1.2914284 -0.050157581 0
0.07674329 -2.1229274 0.092171051 0
0.22062843 -1.2916392 -0.050064426 0
0.096391574 -2.2038677 0.094932795 0
0.24150318 -1.2839246 -0.049695369 0
0.15809084 -1.9599483 0.08601331 0
0.25929081 -1.3017777 -0.050254647 0
0.18589599 -1.9652479 0.086085871 0
0.28094447 -1.2842201 -0.049551021 0
0.21500348 -1.9578154 0.085714191 0
0.30014664 -1.2896271 -0.049680762 0
0.24415679 -1.9468091 0.085228004 0
0.31900275 -1.3011132 -0.05003665 0
0.25395423 -2.1980028 0.094140865 0
0.33873075 -1.3022914 -0.050032094 0
0.29989287 -1.9508877 0.085229293 0
0.35861665 -1.3001257 -0.049916908 0
0.32470459 -2.0178094 0.087567732 0
0.37840477 -1.2985269 -0.049830977 0
0.34719864 -2.1994164 0.094013177 0
0.39841691 -1.2841527 -0.049297757 0
0.37823084 -2.2001424 0.094007708 0
0.41765231 -1.3125343 -0.050300103 0
0.43747079 -1.3005761 -0.049870946 0
0.45724335 -1.3047317 -0.05002597 0
0.477063 -1.3065789 -0.050107494 0
0.49648327 -1.2971901 -0.049796499 0
0.51622051 -1.2977617 -0.049850147 0
0.53635073 -1.3036484 -0.050102897 0
0.55608296 -1.3021812 -0.050101615 0
0.57548261 -1.2970569 -0.049978126 0
0.59363973 -1.2808239 -0.04946449 0
0.61506206 -1.2955892 -0.05007254 0
0.63398057 -1.2877059 -0.049875919 0
0.65361923 -1.2858323 -0.049904257 0
0.67106789 -1.2697234 -0.049427252 0
0.69369978 -1.2864001 -0.050144151 0
0.71319067 -1.2829088 -0.050141245 0
0.73158067 -1.2737495 -0.049941108 0
0.74974948 -1.2642034 -0.049734775 0
0.77049267 -1.2669836 -0.049986869 0
0.78779674 -1.2542681 -0.049681123 0
0.81003261 -1.2623844 -0.050148543 0
0.82677907 -1.2481211 -0.049802136 0
0.84625 -1.2447083 -0.04986399 0
0.86417645 -1.2357583 -0.049729466 0
0.88376057 -1.2326262 -0.04981976 0
0.8999539 -1.2185143 -0.049508624 0
0.92009008 -1.2170751 -0.049680147 0
0.94214177 -1.2208362 -0.050058246 0
0.96068454 -1.2139733 -0.050045785 0
0.97568691 -1.1975971 -0.049679819 0
0.99847937 -1.2021153 -0.05011886 0
0.92522037 -1.0122825 0.46126601 0
1.0168386 -1.1947213 -0.050113019 0
0.93771195 -0.99712795 0.45809436 0
1.0318218 -1.179198 -0.049801819 0
0.95939893 -1.0047425 0.4631646 0
1.0537442 -1.1803608 -0.050144687 0
0.96985263 -0.98525351 0.45854557 0
1.0723068 -1.1733704 -0.050181646 0
0.98516536 -0.97753745 0.45823547 0
1.0903862 -1.1652602 -0.05018397 0
1.0062127 -0.98233348 0.46257624 0
1.1041604 -1.1480846 -0.049836915 0
1.0218737 -0.97503036 0.46258318 0
1.126951 -1.1498196 -0.050246716 0
1.0430025 -0.97885507 0.46678746 0
1.1366796 -1.1251324 -0.049613077 0
1.0589497 -0.97174472 0.46703908 0
1.1582702 -1.1240978 -0.04993299 0
1.0856034 -0.985071 0.47503939 0
1.177214 -1.1176689 -0.050047304 0
1.0996611 -0.97373801 0.47390145 0
1.1918296 -1.1032711 -0.049846735 0
1.1298896 -0.99170357 0.057290949 0
1.1322712 -0.9959932 0.16092515 0
1.1368055 -1.0041608 0.26767111 0
1.1343349 -0.99971074 0.37487698 0
1.1309403 -0.99359626 0.48469177 0
1.207664 -1.0912837 -0.049751379 0
1.147612 -0.98625535 0.057432085 0
1.1408074 -0.97435433 0.1593494 0
1.1389631 -0.97112876 0.26267192 0
1.1435478 -0.97914726 0.37145993 0
1.1531386 -0.99592119 0.48899105 0
1.2265499 -1.0846071 -0.049883556 0
1.1527977 -0.95930594 0.05669276 0
1.1639831 -0.97830945 0.16096696 0
1.158367 -0.96876806 0.26405975 0
1.1644976 -0.9791835 0.37415019 0
1.1605263 -0.97243649 0.48346609 0
1.2443045 -1.075877 -0.049940918 0
1.2612298 -1.065733 -0.049948629 0
1.2732437 -1.0479069 -0.049639683 0
1.2934549 -1.0429188 -0.049883407 0
1.3176417 -1.043493 -0.050379921 0
1.3266593 -1.0216305 -0.04991838 0
1.3464899 -1.0154647 -0.050146248 0
1.3540524 -0.99229175 -0.0496343 0
1.3680556 -0.97826904 -0.049530622 0
1.3885288 -0.97273356 -0.049816772 0
1.4053895 -0.96231312 -0.049894903 0
1.2100887 -0.7160539 0.050673906 0
1.2058947 -0.71076554 0.13975361 0
1.4194715 -0.94838589 -0.049822148 0
1.2095262 -0.69040084 0.049947333 0
1.2132581 -0.69498676 0.13892725 0
1.4433428 -0.94625825 -0.05030562 0
1.2054355 -0.661318 0.049053237 0
1.2038542 -0.65942413 0.13533524 0
1.4520546 -0.92590326 -0.049951568 0
1.202449 -0.63448989 0.04825303 0
1.2098147 -0.64308929 0.13440841 0
1.4637113 -0.90927345 -0.049775798 0
1.2015045 -0.61083752 0.047593068 0
1.2047533 -0.61453521 0.13173391 0
1.4878006 -0.90662044 -0.050276753 0
1.1992478 -0.58642095 0.046888281 0
1.2035539 -0.59119928 0.12977463 0
1.4963722 -0.88665253 -0.049956478 0
1.512498 -0.87497824 -0.050045602 0
1.5213171 -0.85569257 -0.049766913 0
1.539688 -0.84626263 -0.049987096 0
1.5582793 -0.83682686 -0.050221566 0
1.5743617 -0.82476491 -0.050335351 0
1.5878645 -0.8101899 -0.050329491 0
1.590884 -0.78610903 -0.049827337 0
1.6098748 -0.77661854 -0.050106402 0
1.6244398 -0.76304895 -0.050179508 0
1.6364074 -0.74722522 -0.050138731 0
1.6418895 -0.72612292 -0.049808327 0
1.6624012 -0.71731156 -0.050179984 0
1.666458 -0.69536549 -0.049808823 0
1.6751302 -0.67724144 -0.049660362 0
1.7012707 -0.67213786 -0.05029859 0
1.7002478 -0.64694893 -0.049739566 0
1.7227094 -0.63867539 -0.050222736 0
1.7200233 -0.61285126 -0.049619902 0
1.7344979 -0.59891236 -0.049771175 0
1.7465267 -0.58326495 -0.049824797 0
1.7543019 -0.56490046 -0.049707063 0
1.7746822 -0.55431867 -0.050127078 0
1.7760245 -0.53210223 -0.049759369 0
1.7899439 -0.51742536 -0.049924064 0
1.8023984 -0.50179237 -0.050035253 0
1.8143255 -0.48578027 -0.050132293 0
1.8229268 -0.46793565 -0.050102655 0
1.8300986 -0.4493809 -0.050024945 0
1.8350987 -0.42980894 -0.049870536 0
1.8500952 -0.41514614 -0.050122619 0
1.862757 -0.39920071 -0.050288633 0
1.8590527 -0.37577906 -0.049821164 0
1.8725945 -0.36019334 -0.050038878 0
1.8776275 -0.34087387 -0.049933717 0
1.8849486 -0.32255575 -0.04992659 0
1.8923644 -0.3042765 -0.049931984 0
1.902954 -0.28718033 -0.050067168 0
1.9128853 -0.26974198 -0.050184947 0
1.9068142 -0.2466654 -0.04970587 0
1.9183964 -0.22981293 -0.04990394 0
1.9259762 -0.21153517 -0.049959216 0
1.9298614 -0.19208707 -0.049884994 0
1.9437845 -0.17561267 -0.05019341 0
1.9477462 -0.15614463 -0.050139371 0
1.941638 -0.1340542 -0.049722757 0
1.94526 -0.11470179 -0.049675833 0
1.9649063 -0.099181928 -0.050225966 0
1.9610499 -0.077996857 -0.049921844 0
1.9699039 -0.059707236 -0.05009203 0
1.9746848 -0.040486824 -0.050121948 0
1.9814843 -0.021614473 -0.050233882 0
1.9779299 -0.00088171224 -0.049979147 0
1.9774798 0.019179676 -0.049846571 0
1.9935539 0.036740128 -0.050319538 0
1.990695 0.057158086 -0.050117806 0
1.9847449 0.077807449 -0.049814474 0
1.982512 0.097845413 -0.049654368 0
1.9918549 0.11667662 -0.049918629 0
1.9878892 0.13678966 -0.049714386 0
1.9935862 0.15609118 -0.04986519 0
2.0021949 0.17533721 -0.050128695 0
2.0025818 0.19513498 -0.050106905 0
1.998078 0.21507452 -0.049919341 0
1.9950035 0.23485787 -0.049791824 0
2.0005372 0.25450021 -0.04998054 0
2.0043755 0.27426809 -0.050117578 0
1.9886655 0.29376656 -0.049565509 0
2.0103254 0.31405529 -0.050356805 0
1.9977324 0.3333953 -0.049933609 0
1.9988072 0.35321477 -0.050007556 0
1.9914602 0.37250549 -0.049789105 0
1.9987271 0.39284348 -0.050102614 0
2.0069394 0.41349632 -0.050459575 0
1.9850433 0.4311707 -0.049745258 0
1.9891313 0.45146391 -0.049972203 0
1.9876548 0.47118175 -0.050008312 0
1.9856288 0.49084836 -0.050033614 0
1.9862781 0.51096082 -0.050164614 0
1.983441 0.53057176 -0.050178774 0
1.9781961 0.54975152 -0.050114509 0
1.9597585 0.56628025 -0.049578749 0
1.9606748 0.58650583 -0.049755294 0
1.9677768 0.60824776 -0.050167955 0
1.9679629 0.6286512 -0.050338116 0
1.955479 0.6460067 -0.050051942 0
1.9504043 0.66511279 -0.050046448 0
1.9475452 0.68483299 -0.050131924 0
1.9389249 0.70294201 -0.050012715 0
1.9154587 0.7164405 -0.049347438 0
1.918568 0.73791856 -0.04968163 0
1.917879 0.758385 -0.049884476 0
1.919032 0.77964467 -0.050167523 0
1.911499 0.79798597 -0.050132334 0
1.9061973 0.81714106 -0.050190836 0
1.903074 0.83719242 -0.050342318 0
1.8885759 0.85276568 -0.050066266 0
1.8765941 0.86918521 -0.049893718 0
1.8672895 0.88663661 -0.049832437 0
1.8648422 0.9071213 -0.050047714 0
1.8580695 0.92576998 -0.050104149 0
1.847542 0.94266641 -0.050021533 0
1.8395725 0.96076733 -0.05004875 0
1.8213737 0.97366911 -0.049675178 0
1.8239198 0.99720275 -0.05014272 0
1.8140565 1.0143784 -0.050121363 0
1.7958937 1.0268984 -0.049769171 0
1.7914579 1.0470414 -0.049986437 0
1.7868631 1.0672719 -0.050209213 0
1.7661382 1.0778511 -0.049769774 0
1.7506644 1.0913625 -0.049553759 0
1.7461377 1.1117581 -0.049808271 0
1.7420285 1.1326498 -0.050093759 0
1.7301565 1.1484996 -0.050057661 0
1.721022 1.1662384 -0.050149202 0
1.7050345 1.179134 -0.04995003 0
1.7009326 1.2006325 -0.050283588 0
1.6826298 1.2116686 -0.049996298 0
1.6705438 1.2272875 -0.049993616 0
1.6502346 1.2363441 -0.049624208 0
1.6483207 1.2601345 -0.050105114 0
1.6278734 1.2687985 -0.049740773 0
1.6198797 1.2878623 -0.04996457 0
1.6115099 1.3068085 -0.050184324 0
1.5981243 1.3214192 -0.050176289 0
1.5810244 1.3325722 -0.049995992 0
1.5713109 1.3505991 -0.050184827 0
1.5578196 1.3651212 -0.050198607 0
1.5402588 1.3755795 -0.050015964 0
1.5292088 1.3925551 -0.050171122 0
1.511106 1.4022539 -0.049973365 0
1.0226593 0.88694382 0.29138753 0
1.493461 1.4122471 -0.049803354 0
1.0525292 0.93517494 0.30989391 0
1.4831376 1.4301902 -0.050028075 0
1.4455683 1.3885005 0.060024511 0
1.4451046 1.3879859 0.16855207 0
1.4386598 1.3808342 0.27704915 0
1.0567473 0.95703602 0.31621215 0
1.467949 1.4428409 -0.050005022 0
1.411657 1.3787709 0.058960192 0
1.4151012 1.3826911 0.16598345 0
1.4191538 1.3873037 0.27558222 0
1.0526658 0.97017801 0.31857589 0
1.4537866 1.4566694 -0.050046619 0
1.3945446 1.3875048 0.058795378 0
1.3915324 1.383988 0.1644289 0
1.3923446 1.3849363 0.27209133 0
1.053193 0.98897845 0.32341564 0
1.4366565 1.4669943 -0.049933165 0
1.3655341 1.3818115 0.057971369 0
1.3681083 1.3848945 0.16287772 0
1.3740093 1.3919621 0.2709235 0
1.0571024 1.0124044 0.33020663 0
1.4252497 1.4842303 -0.050148968 0
1.3435442 1.383829 0.057527587 0
1.3471473 1.3882565 0.16172366 0
1.345789 1.3865874 0.26693821 0
1.0507005 1.0239769 0.33182275 0
1.4125271 1.5000571 -0.05030499 0
1.3222244 1.3861924 0.057116654 0
1.3207369 1.3843167 0.1596159 0
1.3222857 1.3862696 0.26423874 0
1.0563973 1.051005 0.34002006 0
1.3919976 1.5059664 -0.050019298 0
1.298355 1.3847871 0.056551833 0
1.305445 1.393962 0.15941906 0
1.2990519 1.3856889 0.26157326 0
1.047866 1.0606389 0.34079418 0
1.3769608 1.5188419 -0.050059214 0
1.2773414 1.3865176 0.056145966 0
1.274241 1.3823993 0.15639718 0
1.2760875 1.3848521 0.25894144 0
1.045987 1.0792098 0.34532765 0
1.3556503 1.5232149 -0.049730767 0
1.2532605 1.3835859 0.055549193 0
1.2568914 1.3885373 0.15581462 0
1.2468932 1.3749027 0.25436088 0
1.0361578 1.0875227 0.34559727 0
1.3423363 1.5383924 -0.049891081 0
1.2435255 1.4000237 0.055820867 0
1.2464272 1.4040871 0.15650916 0
1.2486429 1.4071898 0.25926328 0
1.0164213 1.0820007 0.34025937 0
1.3305962 1.5560372 -0.050164599 0
1.2459822 1.4343374 0.056872811 0
1.2411703 1.4274164 0.15823326 0
1.2490073 1.4386884 0.26394492 0
1.0123376 1.0982877 0.34390619 0
1.3127223 1.5649681 -0.050066561 0
1.250059 1.4723737 0.05807497 0
1.2426128 1.4613711 0.16133015 0
1.2453029 1.4653461 0.26753163 0
1.0095277 1.1169531 0.34849837 0
1.2905194 1.5672055 -0.049692858 0
1.2449574 1.4980199 0.058735352 0
1.2378019 1.4871542 0.16334765 0
1.2322946 1.4787914 0.2682457 0
1.1664257 1.3787699 0.34643322 0
1.0021552 1.1293261 0.35056007 0
1.2755067 1.5801835 -0.049789455 0
1.2405804 1.5256659 0.059477951 0
1.2435225 1.5302582 0.16756737 0
1.2235016 1.4990069 0.27043939 0
1.1450377 1.3765298 0.34298143 0
0.98430997 1.1256446 0.34629878 0
1.2633175 1.5978281 -0.050089579 0
1.2438743 1.5666202 0.060776878 0
1.2391164 1.5589837 0.16992435 0
1.202672 1.5004876 0.26865861 0
1.1360003 1.3934743 0.34540468 0
0.97787035 1.1396641 0.34909767 0
1.2472513 1.6094863 -0.050143983 0
1.1931098 1.5200967 0.27076927 0
1.1097577 1.3824793 0.33950981 0
0.96782291 1.1481397 0.34975061 0
0.83774924 0.93338335 0.46985623 0
1.2245193 1.6099014 -0.049740639 0
1.1821649 1.5379436 0.27252087 0
1.0872256 1.3766462 0.33528477 0
0.95749187 1.1562351 0.35030094 0
0.84435534 0.96402174 0.48746568 0
1.2104901 1.6249708 -0.049954657 0
1.164382 1.5443295 0.27190766 0
1.0664139 1.3729874 0.33181277 0
0.94691062 1.163981 0.35076344 0
0.8535381 1.0006763 0.35717016 0
0.84389704 0.98381442 0.42065194 0
0.84112769 0.97897089 0.49417371 0
1.1972703 1.6418153 -0.050246906 0
1.1442147 1.5462505 0.27042404 0
1.0543168 1.3843246 0.33281773 0
0.93217355 1.1643176 0.34845421 0
0.84756005 1.0119101 0.36000744 0
0.84380823 1.0051522 0.42993161 0
0.84238392 1.0025867 0.5067414 0
1.1801238 1.6518134 -0.050266311 0
1.1278168 1.5547364 0.27034754 0
1.0374273 1.386982 0.33134469 0
0.92236084 1.1734294 0.34954718 0
0.84694368 1.033462 0.36771384 0
0.84001225 1.0205981 0.43580049 0
0.84007961 1.020723 0.51552212 0
1.1568905 1.6502024 -0.049826652 0
1.1107638 1.5619524 0.27005529 0
1.0193603 1.3870783 0.32920548 0
0.91115409 1.1800569 0.34974697 0
0.84986234 1.0627928 0.37900746 0
0.83593887 1.0361544 0.44172037 0
0.83964229 1.0432398 0.52719605 0
1.1440263 1.6683742 -0.050193321 0
1.0968648 1.5753086 0.27104992 0
1.0039674 1.3919899 0.32852244 0
0.89911819 1.1850864 0.34940225 0
0.85024011 1.0886331 0.38859197 0
0.84197819 1.0723295 0.4591969 0
0.83890569 1.0662663 0.53913838 0
1.122553 1.6696072 -0.049890481 0
1.0756402 1.5740674 0.26914081 0
0.98623478 1.3919894 0.32650268 0
0.88856214 1.1930751 0.35021281 0
0.84675837 1.10794 0.39510164 0
0.84116769 1.0965543 0.46986204 0
0.83811361 1.0903345 0.55170137 0
1.1047174 1.6780002 -0.049883224 0
0.9652859 1.3847666 0.32251793 0
0.87790745 1.201004 0.35104564 0
0.84023023 1.1217662 0.39908001 0
0.84553343 1.1329192 0.4871951 0
0.84132355 1.1240656 0.57054144 0
1.0927136 1.6990622 -0.050382745 0
0.94789368 1.3843381 0.32053867 0
0.86694103 1.2084112 0.35173187 0
0.84272969 1.1557949 0.4122805 0
0.8372696 1.143929 0.4904328 0
0.84042907 1.1507951 0.58467537 0
1.0687262 1.6940678 -0.049867209 0
0.93060994 1.3836793 0.31856743 0
0.85348821 1.2103636 0.35047832 0
0.84332454 1.1875228 0.42435032 0
0.84043205 1.1810224 0.50799406 0
0.84347296 1.1878563 0.60544413 0
1.0553206 1.7127713 -0.050287165 0
0.91286772 1.3814677 0.31623623 0
0.84911382 1.2331947 0.3568542 0
0.84283149 1.2185838 0.4360511 0
0.84041178 1.2129564 0.52262872 0
0.84158576 1.2156867 0.62011701 0
1.0303336 1.7043574 -0.049663246 0
0.89564031 1.3799022 0.31415758 0
0.84848845 1.2663209 0.36692527 0
0.83705693 1.2387841 0.44282475 0
0.83731145 1.2393972 0.5342114 0
0.84254521 1.2520045 0.64017874 0
1.0117688 1.7108055 -0.049626146 0
0.88011283 1.3820367 0.31316596 0
0.85099971 1.3093358 0.38049245 0
0.84100157 1.2843688 0.46091831 0
0.84021145 1.2823957 0.55468094 0
0.83972692 1.2811856 0.65557265 0
0.99747169 1.7282484 -0.050018936 0
0.86371899 1.3816609 0.3115463 0
0.85032862 1.3469629 0.3920612 0
0.84213388 1.3257284 0.47702706 0
0.83931786 1.3184314 0.57129741 0
0.84003997 1.3203025 0.67723048 0
0.97891438 1.7350286 -0.050010681 0
0.84565198 1.3763294 0.30864173 0
0.84263164 1.3681996 0.39776179 0
0.83818996 1.3562441 0.48826471 0
0.84060562 1.3627462 0.59226149 0
0.83863437 1.3574404 0.69753271 0
0.96047163 1.7421215 -0.050023187 0
0.83215308 1.3829396 0.30904722 0
0.83994764 1.4047576 0.40888402 0
0.84069002 1.4068357 0.50830042 0
0.83819216 1.3998439 0.60928828 0
0.94255984 1.7507988 -0.050104231 0
0.81445801 1.3774509 0.3062335 0
0.84275031 1.4599078 0.42650968 0
0.83962077 1.4507868 0.52532929 0
0.8391335 1.4493667 0.63283032 0
0.92365474 1.7566507 -0.050087243 0
1.0321856 2.0864291 0.35194361 0
0.79985583 1.3804792 0.30577895 0
0.84040821 1.5037004 0.44007209 0
0.84172422 1.5076993 0.54794317 0
0.83966142 1.5014312 0.65760761 0
0.90202117 1.7538171 -0.049754132 0
1.0050451 2.0806653 0.34945327 0
0.78432912 1.3804331 0.30455309 0
0.84176308 1.5626453 0.45887667 0
0.83937192 1.5550592 0.56630909 0
0.84047639 1.5585631 0.68494165 0
0.88656515 1.7706751 -0.050166707 0
0.98270494 2.0896361 0.34981236 0
0.76869339 1.3796141 0.30317813 0
0.83646286 1.6044515 0.47164881 0
0.84171575 1.621879 0.59303343 0
0.86568904 1.7697595 -0.049924761 0
0.95901924 2.0941257 0.34938204 0
0.75453442 1.3834453 0.30309504 0
0.84014148 1.6809697 0.4964149 0
0.8400957 1.6808107 0.61624992 0
0.84871364 1.7824389 -0.050196655 0
0.73888493 1.381817 0.047366209 0
0.73781002 1.3778961 0.13008511 0
0.73634636 1.372557 0.21323396 0
0.73986858 1.3854052 0.30256444 0
0.83509755 1.7327715 0.51255322 0
0.83374399 1.7278341 0.63428283 0
0.8282879 1.7826539 -0.050015699 0
0.72683609 1.3934329 0.047655728 0
0.72245729 1.3766338 0.12952784 0
0.7253902 1.3878858 0.2153943 0
0.72198731 1.3748305 0.29877955 0
0.83124566 1.7940015 0.53190207 0
0.82891208 1.7850485 0.65665132 0
0.80886245 1.7863959 -0.04997449 0
0.70768523 1.3771853 0.046925217 0
0.70805091 1.3786643 0.12935828 0
0.70990187 1.3861504 0.21440341 0
0.70941776 1.3841926 0.30030537 0
0.8251403 1.8522315 0.5501793 0
0.82503301 1.8517977 0.68304294 0
0.79169357 1.7996705 -0.050291896 0
0.69379491 1.3811734 0.046947651 0
0.6949057 1.3859217 0.12978616 0
0.69521976 1.3872644 0.21397936 0
0.6930396 1.3779446 0.29777807 0
0.81791276 1.9117522 0.56887007 0
0.77302796 1.807216 -0.050406884 0
0.67836219 1.3782567 0.046723988 0
0.6797626 1.3846023 0.12928717 0
0.68051267 1.3880011 0.21352102 0
0.67985052 1.3850006 0.29878771 0
0.80549216 1.9543214 0.5817647 0
0.75107783 1.7993488 -0.049968168 0
0.66814619 1.399713 0.04739669 0
0.66771263 1.3976239 0.1303845 0
0.66322321 1.37599 0.21075001 0
0.66493845 1.3842554 0.29780531 0
0.79242396 1.9985901 0.59525639 0
0.73360419 1.8129017 -0.050319642 0
0.65061808 1.3860575 0.046795424 0
0.65114141 1.3887494 0.12909855 0
0.6496467 1.3810614 0.21116431 0
0.65231061 1.3947634 0.29979897 0
0.77804309 2.041476 0.60830224 0
0.71179688 1.8039689 -0.049862441 0
0.63546538 1.383135 0.046592981 0
0.63561511 1.3839606 0.12828462 0
0.63546032 1.3831068 0.21105441 0
0.63673484 1.3901339 0.29790425 0
0.76185399 2.0799456 0.61988634 0
0.69257343 1.8084558 -0.049902 0
0.62132359 1.3853689 0.046584565 0
0.6201908 1.3786424 0.12743604 0
0.62091142 1.3829215 0.21056943 0
0.62102038 1.3835686 0.29556358 0
0.7453379 2.1217754 0.63264853 0
0.67337263 1.8132908 -0.049962822 0
0.60839111 1.395357 0.04686277 0
0.60798782 1.3927633 0.12872447 0
0.6057837 1.3785871 0.20936164 0
0.60577041 1.3785015 0.29366544 0
0.72616607 2.1528358 0.64182985 0
0.65441501 1.8201569 -0.050105505 0
0.59227479 1.3844256 0.046391942 0
0.59330773 1.3916688 0.12837556 0
0.59282249 1.3882662 0.21074364 0
0.59136271 1.3780299 0.29300454 0
0.70807666 2.1964355 0.65528983 0
0.63352615 1.8129488 -0.049749874 0
0.57959318 1.3973958 0.046789669 0
0.57673633 1.3753839 0.12640107 0
0.57827401 1.3872319 0.21020474 0
0.57769924 1.3828032 0.29374081 0
0.68971503 2.2458835 0.67076635 0
0.61490315 1.8229752 -0.050023716 0
0.56426227 1.3901571 0.046466149 0
0.56298012 1.3791988 0.12662692 0
0.5641095 1.3888515 0.21018177 0
0.56301868 1.379528 0.29245281 0
0.66864032 2.2822568 0.68191808 0
0.59555101 1.8279008 -0.050122537 0
0.55198753 1.410053 0.12979287 0
0.55256677 1.4156088 0.21474937 0
0.55137479 1.404176 0.29837665 0
0.64430386 2.2955229 0.68541467 0
0.5761559 1.8331558 -0.050241794 0
0.55149341 1.5637513 0.14622729 0
0.55276495 1.5776412 0.24383675 0
0.55207169 1.5700684 0.34051788 0
0.62167907 2.3304355 0.69624138 0
0.5557059 1.8261443 -0.049930394 0
0.60301489 2.4260454 0.23903479 0
0.59950674 2.3815606 0.38901767 0
0.59848672 2.3686261 0.54452938 0
0.53567922 1.8222497 -0.049739987 0
0.57419467 2.4040244 0.39272818 0
0.57354766 2.3942511 0.5505898 0
0.51615989 1.8253745 -0.049809694 0
0.54853922 2.4298434 0.39709985 0
0.54809505 2.4215512 0.55715448 0
0.49653661 1.8272374 -0.049843058 0
0.52161825 2.4397805 0.39866084 0
0.52184701 2.4453678 0.56290805 0
0.47686628 1.8283814 -0.049859568 0
0.45656812 1.1121413 0.35714784 0
0.45632929 1.1037142 0.42612526 0
0.45725399 1.8341526 -0.050050132 0
0.4458608 1.1104095 0.35633332 0
0.44592848 1.1147094 0.43151066 0
0.43749923 1.8383491 -0.050193284 0
0.43510702 1.078734 0.41346005 0
0.43513143 1.0864753 0.49354905 0
0.41772282 1.8338103 -0.050033469 0
0.42463797 1.1014763 0.42485556 0
0.42487273 1.076615 0.48772043 0
0.39804825 1.829626 -0.049895149 0
0.41416141 1.0984528 0.42342547 0
0.41449773 1.0831915 0.49171704 0
0.3781755 1.8338901 -0.050067421 0
0.35255718 2.5734642 0.42269152 0
0.35251695 2.5746257 0.59577316 0
0.40495485 1.0607969 0.47860134 0
0.35850629 1.8312055 -0.050000384 0
0.32179144 2.6082056 0.42917892 0
0.32253566 2.5924551 0.60063124 0
0.39552021 1.0478764 0.47117403 0
0.33863661 1.8326077 -0.050088316 0
0.29199672 2.6114984 0.4300594 0
0.29194197 2.6124125 0.60613328 0
0.38617867 1.0386509 0.46600696 0
0.31976739 1.8193148 -0.049659271 0
0.26084131 2.631788 0.43408182 0
0.26126185 2.6259894 0.61010677 0
0.29943362 1.8267404 -0.049980633 0
0.35571525 1.1661332 0.038310662 0
0.22913297 2.651896 0.43814668 0
0.2294443 2.6482418 0.61640477 0
0.27912945 1.8315048 -0.050216101 0
0.19819635 2.6582465 0.43979588 0
0.19809921 2.6592388 0.61992788 0
0.26051554 1.8194507 -0.049856979 0
0.16709279 2.6639681 0.44140393 0
0.16717757 2.6632018 0.62175161 0
0.34661981 1.0410903 0.46944097 0
0.23954004 1.8285792 -0.0502677 0
0.13491441 2.6765282 0.44432822 0
0.13414966 2.6827264 0.62767851 0
0.22163203 1.8130144 -0.04979891 0
0.10295792 2.6843975 0.44647738 0
0.10161065 2.6942899 0.63167274 0
0.20206048 1.8108331 -0.049820464 0
0.068939224 2.7040346 0.45084971 0
0.069922939 2.6974342 0.63360834 0
0.18232657 1.8095398 -0.049883079 0
0.03811799 2.7000763 0.45099837 0
0.034561858 2.7220368 0.64119697 0
0.16515873 1.793299 -0.049413085 0
0.003532307 2.717495 0.45513204 0
0.0025846825 2.7229137 0.64277244 0
0.14258511 1.8076075 -0.050059561 0
-0.031464055 2.7339468 0.45917794 0
-0.029452724 2.723242 0.64431357 0
0.12557013 1.7919252 -0.049625888 0
-0.089806452 2.8636804 0.10065389 0
-0.088833407 2.8588383 0.29039976 0
-0.06228976 2.7267518 0.45896515 0
-0.062124476 2.7259295 0.64657748 0
0.10704993 1.7847197 -0.049508352 0
-0.1135021 2.8148992 0.09912052 0
-0.1141202 2.8177865 0.28663206 0
-0.095836952 2.7323868 0.46118957 0
-0.095217898 2.7294953 0.64918387 0
0.087170616 1.7838537 -0.049631108 0
-0.14374347 2.7997725 0.09882582 0
-0.14285506 2.7958639 0.28499687 0
-0.12825121 2.7316134 0.46231318 0
-0.13006945 2.7396128 0.65362078 0
0.067376599 1.7822497 -0.049736317 0
-0.1749294 2.7894382 0.098720178 0
-0.17229386 2.7784832 0.28389868 0
-0.16205437 2.7359209 0.46445826 0
-0.16133858 2.7329457 0.65378159 0
0.046414241 1.7849325 -0.050008927 0
-0.20867611 2.7894702 0.099010468 0
-0.20821305 2.7876465 0.28578126 0
-0.19688781 2.743048 0.46721396 0
-0.19511534 2.7360682 0.65662342 0
0.029244112 1.7726761 -0.04974011 0
-0.25441784 2.8335495 0.1009452 0
-0.2516529 2.823209 0.29065713 0
-0.23149289 2.747812 0.46961954 0
-0.22722615 2.7318547 0.65764958 0
0.0049309894 1.7865362 -0.050446831 0
-0.26071793 2.7321639 0.46829128 0
-0.26198399 2.7366707 0.66117918 0
-0.012783302 1.7762183 -0.0502677 0
-0.29546154 2.735889 0.4706696 0
-0.2957986 2.7370334 0.66365361 0
-0.028767211 1.7607059 -0.049902126 0
-0.32806182 2.7315173 0.47161147 0
-0.32707107 2.7283037 0.66382372 0
-0.04586558 1.7494838 -0.04970352 0
-0.35992563 2.7244136 0.47211716 0
-0.36042458 2.7259626 0.66581225 0
-0.064530596 1.743353 -0.049703922 0
-0.39301544 2.7207201 0.47334996 0
-0.39416975 2.7241547 0.66806549 0
-0.084379867 1.7405939 -0.049840737 0
-0.42059708 2.7007601 0.47155938 0
-0.42587805 2.7158413 0.66868484 0
-0.10277845 1.7335625 -0.049825318 0
-0.45701182 2.7057574 0.47461757 0
-0.45333052 2.6956542 0.66619086 0
-0.12772323 1.743839 -0.050479393 0
-0.48620516 2.6904655 0.4738659 0
-0.48588192 2.6896119 0.66763806 0
-0.1428947 1.727988 -0.050146442 0
-0.51415563 2.6722848 0.47262174 0
-0.5222773 2.6929421 0.67177397 0
-0.15754093 1.7114625 -0.04979312 0
-0.54940939 2.6724608 0.47501484 0
-0.55151075 2.677614 0.67091614 0
-0.17628045 1.7052566 -0.049845006 0
-0.58060789 2.6621673 0.47545761 0
-0.58331859 2.6685829 0.67189956 0
-0.19265826 1.6935531 -0.049692113 0
-0.61151743 2.6510465 0.47581702 0
-0.61214888 2.6524899 0.67103308 0
-0.21256728 1.6899064 -0.049862131 0
-0.63915968 2.6325712 0.47479951 0
-0.63992012 2.6342514 0.66966224 0
-0.23545386 1.6923347 -0.050282445 0
-0.67074311 2.622844 0.47558689 0
-0.67305624 2.6277888 0.67169833 0
-0.2536599 1.6843884 -0.050305355 0
-0.70011723 2.6082799 0.47548968 0
-0.69978273 2.6075878 0.66997188 0
-0.26833624 1.6693233 -0.050053511 0
-0.72783792 2.5904205 0.47480199 0
-0.72545695 2.5856478 0.6678344 0
-0.2866028 1.6616151 -0.050102822 0
-0.75733304 2.5762072 0.47491997 0
-0.75215364 2.566144 0.66647458 0
-0.30352956 1.6513016 -0.050056428 0
-0.78025472 2.5495617 0.47257599 0
-0.7846539 2.5578508 0.6684404 0
-0.31697518 1.6346852 -0.04976188 0
-0.8160578 2.547138 0.47525409 0
-0.80989194 2.5358653 0.66655666 0
-0.34319896 1.6411645 -0.050418567 0
-0.61691189 2.1269526 0.082325317 0
-0.83713937 2.5178142 0.47247577 0
-0.83682621 2.5172584 0.66574162 0
-0.34859818 1.6108193 -0.049573742 0
-0.6157974 2.071389 0.080583461 0
-0.86167753 2.4952111 0.47113353 0
-0.86353862 2.4984193 0.6649518 0
-0.36956799 1.6077074 -0.049857754 0
-0.61424148 2.0174744 0.078896441 0
-0.88421452 2.4696121 0.46921653 0
-0.89569175 2.4888337 0.66700542 0
-0.3876102 1.5994409 -0.049939025 0
-0.62072408 1.9789107 0.077838697 0
-0.90817082 2.446825 0.46793965 0
-0.9093262 2.4487059 0.66005045 0
-0.40421879 1.5887923 -0.049929898 0
-0.6139245 1.9207132 0.075946823 0
-0.94128537 2.4388578 0.46987814 0
-0.93246841 2.4249024 0.65801805 0
-0.41973472 1.5764676 -0.049858209 0
-0.61639535 1.8792301 0.074747346 0
-0.95867181 2.4061706 0.46660569 0
-0.95306051 2.397532 0.65497214 0
-0.43360162 1.5617583 -0.049691912 0
-0.61994934 1.8408862 0.073673822 0
-0.9811722 2.3819573 0.46519044 0
-0.97984946 2.379976 0.65499038 0
-0.44914627 1.5496966 -0.049646318 0
-0.61493421 1.791382 0.072109744 0
-1.0071931 2.3632164 0.46502149 0
-0.99325824 2.3429022 0.64907408 0
-0.47410637 1.5510473 -0.050194614 0
-0.61920643 1.7569667 0.071187995 0
-1.0282804 2.3375061 0.46338534 0
-1.0185134 2.3236454 0.64871848 0
-0.48609781 1.533812 -0.04994265 0
-0.61795127 1.7160162 0.069972165 0
-0.62294817 1.7229211 0.1994873 0
-1.0438269 2.3045204 0.46017343 0
-1.0476354 2.3097832 0.65015823 0
-0.075420573 0.96631002 0.43952203 0
-0.50194395 1.5220573 -0.049938768 0
-0.62447989 1.6869733 0.069273829 0
-0.61452258 1.6735721 0.19467488 0
-1.0636427 2.2780237 0.45843312 0
-1.0629672 2.2771146 0.64574987 0
-0.092219725 0.97062695 0.44623438 0
-0.51946002 1.5124913 -0.050042048 0
-0.62517035 1.6510825 0.068264954 0
-0.61686754 1.6401972 0.19196089 0
-1.0786368 2.2455981 0.4553875 0
-1.0800581 2.2474613 0.64232826 0
-0.092628792 0.95289588 0.43926975 0
-0.52836025 1.4917966 -0.049651716 0
-0.61585557 1.6035602 0.0667191 0
-0.62111139 1.6102738 0.18969512 0
-1.0878445 2.2064626 0.450818 0
-1.0987805 2.220432 0.63979232 0
-0.11156006 0.9593901 0.44763282 0
-0.54888856 1.4860106 -0.049945269 0
-0.61211646 1.5647136 0.065549493 0
-0.61900043 1.5732824 0.18643928 0
-1.1133165 2.1885834 0.45114607 0
-1.1131424 2.1883667 0.63565922 0
-0.1286958 0.96297455 0.45436564 0
-0.56919026 1.4796191 -0.050225779 0
-0.61476135 1.5349034 0.06478361 0
-0.62257588 1.5443836 0.18427289 0
-1.1237831 2.1524205 0.44727889 0
-1.1266154 2.1558564 0.63139546 0
-0.14270695 0.96223289 0.45850277 0
-0.57909179 1.4606184 -0.049931616 0
-0.61447561 1.5024593 0.063887924 0
-0.6196816 1.5086154 0.18112275 0
-1.1458068 2.1307526 0.44682485 0
-1.1448176 2.1295826 0.62922621 0
-0.14908041 0.95213455 0.45666808 0
-0.59330618 1.4469008 -0.049889792 0
-0.61936128 1.4769355 0.063309319 0
-0.62472701 1.4831207 0.17939454 0
-1.1561559 2.095716 0.4432399 0
-1.1675888 2.1088951 0.62899691 0
-0.60307944 1.4282321 -0.049619384 0
-0.63170147 1.4603983 0.063156568 0
-0.62303901 1.4506633 0.17665431 0
-1.167204 2.0622106 0.44001549 0
-1.1743222 2.0702102 0.62271619 0
-0.62817979 1.4266361 -0.050176963 0
-0.66421723 1.4661233 0.064085543 0
-0.66607046 1.468154 0.18114664 0
-1.1820792 2.0335596 0.43797284 0
-1.183726 2.0353639 0.6177178 0
-0.63443732 1.4043283 -0.049743719 0
-0.50262523 1.2635008 0.054857276 0
-0.68384767 1.4571182 0.18157241 0
-1.1958916 2.0041833 0.4357729 0
-1.1838144 1.9912801 0.60947329 0
-0.64726353 1.3893003 -0.04966934 0
-0.50810468 1.2443265 0.054495018 0
-0.71898735 1.4640214 0.18470885 0
-1.2048125 1.970148 0.43242466 0
-1.2069227 1.9723462 0.61002314 0
-0.67032671 1.3847423 -0.050126579 0
-0.51301986 1.2249391 0.05412101 0
-0.73888826 1.4543918 0.18545753 0
-1.2090076 1.9319713 0.42801493 0
-1.2188789 1.9419992 0.60659748 0
-0.67626429 1.3627611 -0.049720448 0
-0.52409905 1.2120255 0.054073747 0
-0.77728593 1.4628336 0.18901345 0
-1.2154891 1.8969197 0.42436311 0
-1.2088799 1.8903728 0.59546787 0
-0.69705296 1.3555197 -0.050070222 0
-0.54293013 1.2066426 0.054419961 0
-0.80264282 1.4575154 0.19056185 0
-1.2226793 1.8632551 0.42104447 0
-1.225336 1.8658215 0.59408903 0
-0.70610034 1.3368754 -0.049844515 0
-0.5637722 1.2028146 0.05486406 0
-0.83972347 1.4627368 0.1938328 0
-1.2354391 1.8354669 0.41925052 0
-1.2282197 1.8286669 0.58807844 0
-0.72244525 1.3251455 -0.049986593 0
-0.8664552 1.4574083 0.068967298 0
-0.86488664 1.4559677 0.19531755 0
-1.2307084 1.7919488 0.41328046 0
-1.2295873 1.7909192 0.58177483 0
-0.23796929 0.880189 0.3829357 0
-0.73824644 1.3127899 -0.050108146 0
-0.90663123 1.4635751 0.070177712 0
-0.90118039 1.458694 0.1984037 0
-1.2306257 1.7537056 0.408636 0
-1.2352062 1.7578074 0.57716155 0
-0.23745878 0.8643446 0.37837204 0
-0.74759877 1.2946863 -0.049930152 0
-0.94796348 1.4696133 0.071425989 0
-1.2316386 1.717274 0.40442052 0
-1.2365667 1.7215763 0.57129848 0
-0.24016769 0.851677 0.37573805 0
-0.7611587 1.2803245 -0.049962059 0
-0.96820855 1.4565434 0.071668789 0
-1.2369289 1.6852498 0.40137222 0
-1.2372824 1.6855507 0.56543553 0
-0.23554964 0.83298147 0.36923572 0
-0.25632352 0.85066199 0.45859978 0
-0.77202547 1.263695 -0.049877137 0
-1.012821 1.4634616 0.073047087 0
-1.2551315 1.6644852 0.40147635 0
-1.2427797 1.654238 0.56136978 0
-0.24568994 0.82704115 0.37086779 0
-0.79202652 1.2545244 -0.050222114 0
-1.0426986 1.4572108 0.073730908 0
-1.24772 1.6229854 0.39569977 0
-1.242115 1.6184533 0.55545348 0
-0.25260693 0.81836468 0.37080717 0
-0.80335879 1.2382092 -0.05017494 0
-1.0921021 1.4657265 0.075299069 0
-1.2521659 1.5918499 0.39282334 0
-1.2374246 1.5802345 0.54843509 0
-0.26821226 0.81653666 0.37538478 0
-0.80549014 1.2148681 -0.049723379 0
-1.1251214 1.4602641 0.076109856 0
-1.2473301 1.5540895 0.38795379 0
-1.2413404 1.5494909 0.54440796 0
-0.26592511 0.80061853 0.37059087 0
-0.24505951 0.78459907 0.43342659 0
-0.83108819 1.2094722 -0.050335418 0
-1.1677759 1.461289 0.077345692 0
-1.2553452 1.5267843 0.38613164 0
-1.2433815 1.5178363 0.53994524 0
-0.26378429 0.78517175 0.36602166 0
-0.28584027 0.80166793 0.45484746 0
-0.83197677 1.1855381 -0.049853474 0
-1.2015653 1.4547728 0.0781781 0
-1.2529134 1.4921783 0.38207221 0
-1.2464774 1.4874899 0.53598261 0
-1.2358994 1.4797843 0.69274759 0
-0.26073068 0.76940167 0.36112666 0
-0.27802765 0.78200203 0.44585872 0
-0.8516953 1.1753745 -0.050213289 0
-1.2586563 1.4640611 0.080026664 0
-1.2499924 1.4579153 0.37803751 0
-1.2386059 1.4498379 0.52874464 0
-1.2349348 1.4472338 0.68616569 0
-0.28138602 0.77081293 0.36841187 0
-0.27816284 0.76852649 0.44197804 0
-0.85347772 1.1525116 -0.049797352 0
-1.3039516 1.4636139 0.08134234 0
-1.2494941 1.4260048 0.37466368 0
-1.2391045 1.4188298 0.5243122 0
-1.2364459 1.4169936 0.68080831 0
-0.28612417 0.76069105 0.44299331 0
-0.86774433 1.1383901 -0.049934398 0
-1.282784 1.4173687 0.079788148 0
-1.2810315 1.4161907 0.22789279 0
-1.2504398 1.3956277 0.37171978 0
-1.2383469 1.3874992 0.51965147 0
-1.2413101 1.3894911 0.67699349 0
-0.2816996 0.74446648 0.43659279 0
-0.8806814 1.1232797 -0.050021216 0
-1.2732146 1.3800142 0.078766413 0
-1.2700909 1.3779712 0.22464293 0
-1.2473528 1.3630995 0.36801377 0
-1.2397556 1.3581306 0.51581025 0
-1.2447522 1.3613985 0.67278284 0
-0.29743493 0.7418102 0.44242007 0
-0.89301944 1.1077119 -0.050090082 0
-1.2776321 1.3524076 0.078364655 0
-1.2778262 1.3525312 0.22385941 0
-1.2537227 1.3371961 0.36644667 0
-1.2383955 1.3274448 0.51127458 0
-1.2479478 1.3335221 0.66864872 0
-0.30696696 0.73485768 0.44454208 0
-0.89955235 1.088492 -0.049922969 0
-1.2902505 1.3302032 0.078324951 0
-1.2947367 1.3329786 0.22428212 0
-1.2495962 1.3050518 0.36273524 0
-1.2352678 1.2961873 0.50636017 0
-1.2436516 1.3013741 0.66175359 0
-0.91400468 1.0741686 -0.050097164 0
-1.3052646 1.3094673 0.07839705 0
-1.2977738 1.3049625 0.22299281 0
-1.2560484 1.2798693 0.36136356 0
-1.2466351 1.2742083 0.50591594 0
-1.2459085 1.2737713 0.65761226 0
-0.91857719 1.0539256 -0.049869031 0
-1.3332818 1.2962666 0.079017133 0
-1.3395545 1.2999321 0.22657958 0
-1.2490761 1.2470593 0.35726425 0
-1.2447101 1.2445079 0.50162917 0
-1.2365717 1.2397521 0.64916825 0
-0.91846001 1.0312023 -0.049460504 0
-1.3774221 1.2917097 0.080301523 0
-1.377216 1.2915927 0.22963966 0
-1.2425758 1.2151707 0.35337794 0
-1.2400761 1.2137519 0.49668825 0
-1.237884 1.2125077 0.64502281 0
-0.93851745 1.0199221 -0.049888898 0
-1.2500027 1.1915723 0.35246944 0
-1.2425735 1.1874783 0.49397215 0
-1.2376673 1.1847746 0.64045584 0
-0.95029867 1.0038699 -0.049985114 0
-1.248724 1.1634579 0.34984756 0
-1.2356318 1.1564566 0.48863941 0
-1.2423464 1.1600474 0.63789886 0
-0.96041381 0.98687345 -0.050021857 0
-1.2589281 1.1417074 0.34964782 0
-1.2366167 1.1301349 0.48573217 0
-1.2375106 1.1305985 0.63190955 0
-0.97072458 0.96994293 -0.050074767 0
-1.2614485 1.1161206 0.34795374 0
-1.2377704 1.1042151 0.48298645 0
-1.242702 1.1066947 0.62983054 0
-0.97946155 0.95220071 -0.050073344 0
-1.2754606 1.0963906 0.34864017 0
-1.2421428 1.0801605 0.48126388 0
-1.2459617 1.0820208 0.62716109 0
-0.99109662 0.93582296 -0.050195172 0
-1.2851228 1.0744988 0.34850487 0
-1.2449445 1.0555489 0.47919413 0
-1.2413336 1.0538458 0.62172061 0
-0.99727762 0.91685849 -0.050110389 0
-1.3137047 1.0612574 0.3521758 0
-1.244467 1.0296614 0.47630379 0
-1.2433312 1.0291431 0.61886448 0
-1.0036474 0.89803928 -0.050042789 0
-1.3113085 1.0337837 0.34975287 0
-1.2465421 1.0052078 0.47423241 0
-1.2458614 1.0049075 0.61633128 0
-1.0138749 0.88091272 -0.05013448 0
-1.3162795 1.0098138 0.34885523 0
-1.2406927 0.97759467 0.47005999 0
-1.2448488 0.97936624 0.61264098 0
-1.0173489 0.8609342 -0.049973331 0
-1.3230048 0.9866972 0.3483634 0
-1.2373308 0.95144635 0.46669155 0
-1.2458892 0.95496774 0.6098243 0
-1.0215287 0.84135461 -0.049849778 0
-1.3346704 0.9656108 0.34888917 0
-1.2487328 0.93151027 0.46748295 0
-1.2431639 0.92930055 0.60578418 0
-1.0293038 0.82323945 -0.049873684 0
-1.3561755 0.94820333 0.35136363 0
-1.2462282 0.90617019 0.46454087 0
-1.2594652 0.91123074 0.60865563 0
-1.0359491 0.80468732 -0.049863201 0
-1.3518521 0.92092031 0.34890541 0
-1.2457395 0.88187736 0.46224734 0
-1.2375747 0.87887323 0.59805572 0
-1.0461164 0.78738546 -0.049994998 0
-1.362735 0.89937603 0.34943295 0
-1.2472208 0.85851771 0.46058008 0
-1.2418233 0.85660857 0.59687126 0
-1.0510861 0.76821703 -0.049938504 0
-1.3668621 0.87545556 0.34872323 0
-1.2412609 0.83280098 0.45699441 0
-1.2357688 0.8309359 0.5921706 0
-1.0642244 0.75174707 -0.050198015 0
-1.3858812 0.85648447 0.35089827 0
-1.2385175 0.80850017 0.45437354 0
-1.2394481 0.80880314 0.59100819 0
-1.0630645 0.73062462 -0.049929593 0
-1.3866609 0.83150518 0.34966442 0
-1.2394687 0.78561831 0.45283219 0
-1.2432302 0.78679097 0.58998352 0
-1.0653523 0.71072388 -0.049800538 0
-1.4017113 0.81095415 0.35118002 0
-1.2401938 0.76282424 0.45131329 0
-1.2424604 0.76349962 0.58747888 0
-1.0812677 0.69478917 -0.050187074 0
-1.4080647 0.78770638 0.35110813 0
-1.2480483 0.74220937 0.45176712 0
-1.2455418 0.74149674 0.58641684 0
-1.0905907 0.6767838 -0.050335888 0
-1.4125538 0.76396024 0.35074297 0
-1.2340971 0.71564031 0.44652447 0
-1.2421377 0.71781743 0.58321875 0
-1.1019722 0.65919638 -0.05056848 0
-1.4130667 0.73923975 0.34969431 0
-1.2440368 0.69574904 0.44768092 0
-1.2396564 0.69462198 0.58045059 0
-1.0858532 0.63472915 -0.049797926 0
-1.4282585 0.7182464 0.35143167 0
-1.2423334 0.6728968 0.44584212 0
-1.2361977 0.67140019 0.57745636 0
-1.097958 0.61732519 -0.05007498 0
-1.4269314 0.69319075 0.35015562 0
-1.2410885 0.65033299 0.44420409 0
-1.2420156 0.65054679 0.57773817 0
-1.1106018 0.59983528 -0.050378989 0
-1.4250844 0.66820049 0.34884542 0
-1.2456931 0.62920272 0.44417211 0
-1.2346357 0.62679893 0.57361525 0
-1.1055987 0.57851911 -0.05004723 0
-1.4357114 0.64594072 0.34989274 0
-1.256218 0.6092813 0.44575125 0
-1.2388959 0.60574353 0.5735572 0
-1.1145701 0.56010932 -0.050233983 0
-1.4319466 0.62077719 0.3483465 0
-1.2428898 0.58463812 0.44119596 0
-1.2418753 0.58444422 0.57315534 0
-1.1160897 0.54023504 -0.050158504 0
-1.4453592 0.59888893 0.35000852 0
-1.2492585 0.56395686 0.44183579 0
-1.2438495 0.56299335 0.57250547 0
-1.1074673 0.51873642 -0.049725257 0
-1.444505 0.57440513 0.34910965 0
-1.2455395 0.54154193 0.43993315 0
-1.2310034 0.53914094 0.56695062 0
-1.1322505 0.50263017 -0.050508995 0
-1.4620024 0.55283874 0.35161668 0
-1.2384716 0.51880354 0.43724281 0
-1.2333204 0.5180192 0.56661052 0
-1.1223481 0.48112729 -0.050048377 0
-1.4565794 0.52771991 0.34999517 0
-1.243727 0.4980478 0.43780547 0
-1.2509128 0.49904951 0.57149148 0
-1.1264074 0.46171615 -0.05010068 0
-1.4705944 0.50528604 0.35196733 0
-1.22912 0.4747183 0.43332654 0
-1.243008 0.47647637 0.56789446 0
-1.1165482 0.44068056 -0.049661577 0
-0.51291013 0.37197798 0.039971791 0
-0.51713288 0.37245861 0.10871985 0
-0.50682276 0.37128517 0.17650701 0
-1.2341617 0.45406666 0.43397489 0
-1.2409282 0.45483679 0.56634831 0
-1.1288712 0.42219529 -0.050028518 0
-0.50999105 0.35964066 0.039821118 0
-0.51046604 0.35968864 0.10786084 0
-0.51081127 0.35972354 0.17699948 0
-1.2356513 0.43298829 0.43377823 0
-1.2349454 0.43291694 0.56359017 0
-1.1275272 0.40223923 -0.049913563 0
-0.46748704 0.34390986 0.038257442 0
-0.50230259 0.34698659 0.10685869 0
-0.51000512 0.34766731 0.1766497 0
-1.2426299 0.41241112 0.43505573 0
-1.2419209 0.41234848 0.56525528 0
-1.1284641 0.38253403 -0.049889382 0
-0.51919502 0.33641478 0.10857518 0
-0.51865149 0.33637363 0.17803735 0
-1.2423493 0.39115468 0.43454102 0
-1.246116 0.3914398 0.56607759 0
-1.13368 0.36311251 -0.050027169 0
-0.51795226 0.32429478 0.10835179 0
-0.51199472 0.32391918 0.17668422 0
-1.234802 0.36948764 0.43223751 0
-1.2406518 0.36985642 0.56376708 0
-1.2377194 0.36967155 0.69892132 0
-1.1320349 0.3432447 -0.04992836 0
-0.51456171 0.31211698 0.10791387 0
-0.51420069 0.31209877 0.17696069 0
-1.2428795 0.34883255 0.43399659 0
-1.2361586 0.34849373 0.56187207 0
