# .PCD v0.7 - Point Cloud Data file format
VERSION 0.7
FIELDS x y z intensity
SIZE 4 4 4 4
TYPE F F F F
COUNT 1 1 1 1
WIDTH 1353
HEIGHT 1
VIEWPOINT 0 0 0 1 0 0 0
POINTS 1353
DATA ascii
-1.2305464 0.053845275 0.43369335 0
-1.2345353 0.05334032 0.56505316 0
-1.1225505 0.04758862 -0.050055675 0
-0.51225609 0.13266502 0.040056694 0
-0.51439935 0.13236625 0.10875123 0
-0.51103812 0.13283482 0.17781904 0
-1.2390976 0.031341705 0.43661293 0
-1.2360796 0.031762425 0.56650889 0
-1.1157856 0.028620962 -0.049914401 0
-0.51072937 0.12074787 0.040064152 0
-0.50867355 0.1210609 0.10831764 0
-0.51957053 0.1194017 0.17969137 0
-1.2420564 0.0093947547 0.43816793 0
-1.2475913 0.0085520046 0.57141304 0
-1.1205781 0.0078422027 -0.050199665 0
-0.50755423 0.10909573 0.0400174 0
-0.50939739 0.10879128 0.10860116 0
-0.5052194 0.10948137 0.17741556 0
-1.2498766 -0.013514112 0.44105467 0
-1.2510452 -0.013707171 0.57370877 0
-1.1215098 -0.012456427 -0.050355051 0
-0.521074 0.094501205 0.040581275 0
-0.50662786 0.097074546 0.10852083 0
-0.50745183 0.096927769 0.1781954 0
-1.2410414 -0.033748996 0.43970636 0
-1.2409006 -0.033723902 0.57150894 0
-1.108023 -0.030113649 -0.049996011 0
-0.52175432 0.081954144 0.040686492 0
-0.49858469 0.086383112 0.10787941 0
-0.50093055 0.085934691 0.1773988 0
-1.2396504 -0.055274796 0.44035453 0
-1.252197 -0.057673138 0.57665151 0
-1.1151832 -0.051732522 -0.050396476 0
-0.51218861 0.071421973 0.040424384 0
-0.50561839 0.072763853 0.10890484 0
-0.5060513 0.072675444 0.17876856 0
-1.2314479 -0.075478204 0.43930116 0
-1.2325106 -0.075695224 0.57138896 0
-1.1092626 -0.070800014 -0.050330061 0
-0.49921465 0.061817933 0.040041875 0
-0.51986665 0.057328407 0.11074537 0
-0.51651663 0.058056671 0.18115926 0
-1.2491257 -0.10120479 0.44506836 0
-1.2401129 -0.099245496 0.57548004 0
-1.1018094 -0.089469261 -0.05021609 0
-0.51722127 0.045344297 0.040797759 0
-0.50911599 0.047213484 0.10985552 0
-0.51352513 0.046196673 0.18110031 0
-1.2440913 -0.12228132 0.44499034 0
-1.2502073 -0.12369175 0.58053499 0
-1.0889316 -0.10673586 -0.049911048 0
-0.50735182 0.035119224 0.04053919 0
-0.50886625 0.034749839 0.11013862 0
-0.51778901 0.032573465 0.18241572 0
-1.2385074 -0.14321943 0.44483733 0
-1.2467747 -0.14523591 0.58107847 0
-1.0954052 -0.12876259 -0.050326392 0
-0.54489672 0.012881001 0.042032402 0
-0.55940914 0.0091470079 0.11607645 0
-0.55297518 0.010802438 0.18952572 0
-1.2357998 -0.16488557 0.44551095 0
-1.2461181 -0.16754039 0.58267033 0
-1.0806836 -0.14535715 -0.049969457 0
-0.61921573 -0.020407598 0.044901215 0
-0.62551403 -0.022113007 0.12380309 0
-1.2391797 -0.18827237 0.31834924 0
-1.2462034 -0.19017418 0.44972441 0
-1.245189 -0.18989949 0.58427042 0
-1.070425 -0.16296215 -0.049784631 0
-0.69300497 -0.055651467 0.047776185 0
-0.69487953 -0.056184452 0.13196561 0
-1.2438836 -0.21228112 0.32032469 0
-1.2306621 -0.20852189 0.44715551 0
-1.2447697 -0.21253307 0.58614981 0
-1.0676892 -0.18267609 -0.049887594 0
-0.76991773 -0.093944319 0.050794821 0
-0.78135598 -0.097352751 0.14212565 0
-1.2336298 -0.23212408 0.3195495 0
-1.2404929 -0.2341692 0.45139292 0
-1.2328588 -0.23189433 0.58414567 0
-1.0717536 -0.20458932 -0.050254531 0
-0.87444925 -0.14308007 0.054876156 0
-0.87248206 -0.14246683 0.15290731 0
-1.2455577 -0.25877234 0.32300869 0
-1.2434208 -0.25810626 0.45388836 0
-1.2395418 -0.25689694 0.58869815 0
-1.0584539 -0.22112395 -0.049981356 0
-0.99528646 -0.20055549 0.059609659 0
-0.99834204 -0.20155044 0.16772306 0
-1.2289557 -0.27664247 0.32113442 0
-1.2340233 -0.27829263 0.45316765 0
-1.2504503 -0.28364155 0.59485769 0
-1.0484921 -0.23859195 -0.049840696 0
-1.1306682 -0.26649925 0.064939052 0
-1.1273023 -0.26535615 0.18303843 0
-1.2466342 -0.30588171 0.32582408 0
-1.2418147 -0.30424497 0.45714363 0
-1.0407085 -0.25672856 -0.049790211 0
-1.2934091 -0.34611073 0.20274803 0
-1.2449985 -0.32898751 0.32691017 0
-1.2504574 -0.3309184 0.461456 0
-1.0500369 -0.28112665 -0.050399113 0
-1.2504123 -0.35485259 0.19872023 0
-1.2403878 -0.35116419 0.32748544 0
-1.2448869 -0.35281953 0.46201554 0
-1.0398009 -0.29850838 -0.050274894 0
-1.2451279 -0.37700543 0.19902463 0
-1.2394348 -0.37482896 0.32882348 0
-1.2304552 -0.37139598 0.46023259 0
-1.0356883 -0.31822905 -0.050393637 0
-1.2433366 -0.4006249 0.19976662 0
-1.2552985 -0.40537146 0.33348879 0
-1.2421863 -0.40016851 0.46568608 0
-1.0255555 -0.33556667 -0.050290145 0
-1.2531099 -0.4291946 0.20189087 0
-1.2370692 -0.42259464 0.33160442 0
-1.2440889 -0.4254829 0.46855602 0
-1.0048844 -0.34833637 -0.049785566 0
-1.2443254 -0.45039895 0.20190045 0
-1.2419361 -0.44938055 0.33428028 0
-1.2357804 -0.44675663 0.46869758 0
-1.0028592 -0.36894736 -0.05001203 0
-1.2509612 -0.47841343 0.2037527 0
-1.2364056 -0.47199133 0.33498782 0
-1.2372141 -0.472348 0.47163123 0
-0.99911046 -0.38895074 -0.050182313 0
-1.2315118 -0.49500522 0.20257573 0
-1.2315927 -0.49504212 0.33589792 0
-1.2352651 -0.49671802 0.4737232 0
-0.99042964 -0.4067643 -0.050168846 0
-1.2329217 -0.52113426 0.20389505 0
-1.2447406 -0.5267086 0.34045261 0
-1.2410254 -0.52495641 0.47808865 0
-0.9840194 -0.42567679 -0.050254345 0
-1.4965843 -0.67536229 0.082609266 0
-1.2345591 -0.54772204 0.20528889 0
-1.2326739 -0.54680371 0.34005678 0
-1.2352462 -0.54805678 0.47930667 0
-0.97297931 -0.44233242 -0.050164863 0
-1.4439472 -0.67913789 0.080984816 0
-1.2423362 -0.57776666 0.20747028 0
-1.2445626 -0.57888615 0.3445451 0
-1.2375389 -0.57535458 0.48292035 0
-0.96085858 -0.45835999 -0.050039746 0
-1.4079722 -0.69026983 0.080021739 0
-1.2343214 -0.60020024 0.20779976 0
-1.2464195 -0.60647541 0.34710652 0
-0.95478559 -0.4775252 -0.050166771 0
-1.353687 -0.69084454 0.078316525 0
-1.2433378 -0.63183337 0.21024141 0
-1.2465364 -0.63354391 0.34940016 0
-0.93883693 -0.49135402 -0.049901918 0
-1.3100927 -0.69594198 0.077035524 0
-1.250277 -0.66297936 0.21249385 0
-1.2409959 -0.65786475 0.35061476 0
-0.92760801 -0.50765067 -0.049836043 0
-1.2725666 -0.70344943 0.075997062 0
-1.2365253 -0.6829924 0.2122539 0
-1.2440141 -0.6872431 0.35367626 0
-0.9223634 -0.52739412 -0.05002559 0
-1.2547801 -0.7216484 0.075771078 0
-1.2325435 -0.70865393 0.2132595 0
-1.2311598 -0.70784539 0.35352179 0
-0.90669096 -0.541026 -0.049792469 0
-1.2487991 -0.74676555 0.076044694 0
-1.2436205 -0.74365121 0.21620163 0
-1.2361441 -0.73915499 0.35717469 0
-0.89803314 -0.55880797 -0.049859192 0
-1.2473576 -0.77492267 0.076524258 0
-1.2358606 -0.76780993 0.21684174 0
-1.2426465 -0.77200812 0.36126137 0
-0.88360095 -0.5729757 -0.049691547 0
-1.2498872 -0.80601186 0.077190652 0
-1.2463454 -0.80375844 0.21984951 0
-1.2423841 -0.80123824 0.364023 0
-0.88382387 -0.59659094 -0.050155275 0
-1.2557443 -0.83984369 0.078021139 0
-1.2348166 -0.82615596 0.22011319 0
-1.2462226 -0.83361608 0.36777022 0
-0.87029099 -0.61135775 -0.050043944 0
-1.2431324 -0.8619718 0.07808245 0
-1.2357905 -0.85703677 0.22203448 0
-1.2408378 -0.86042935 0.36963323 0
-0.85009027 -0.62142807 -0.049650379 0
-1.2423217 -0.89230746 0.078668371 0
-1.2388332 -0.88989812 0.22429329 0
-1.2456445 -0.89460212 0.37381995 0
-0.84376109 -0.64100194 -0.049865991 0
-1.239329 -0.92160684 0.079180673 0
-1.238331 -0.92089874 0.22615957 0
-1.6081306 -1.1832242 0.457228 0
-0.83377612 -0.65810472 -0.049932949 0
-1.2406236 -0.95448142 0.07990329 0
-1.2428957 -0.95613664 0.22876845 0
-1.5763932 -1.1990801 0.45424962 0
-0.81051278 -0.66533917 -0.049418122 0
-1.2364539 -0.98391098 0.080407508 0
-1.2502116 -0.99420065 0.23183046 0
-0.81031835 -0.68983084 -0.049940698 0
-1.240172 -1.0198498 0.081288248 0
-1.2329057 -1.014271 0.23165087 0
-0.79485321 -0.70276308 -0.049788337 0
-1.1586246 -0.98939925 0.078322701 0
-1.1532345 -0.98515207 0.22297089 0
-1.1591604 -0.98982149 0.37146851 0
-0.79447818 -0.72776252 -0.050334673 0
-1.1428317 -1.0094314 0.078328192 0
-1.13605 -1.0039479 0.22278766 0
-1.1433866 -1.0098801 0.37150195 0
-0.77173734 -0.73471183 -0.049863771 0
-1.238009 -1.1215359 0.083493046 0
-1.2423179 -1.1251106 0.23987402 0
-1.3426423 -1.2083409 0.42198294 0
-0.7652663 -0.75507623 -0.050154626 0
-1.2329444 -1.1531143 0.084079899 0
-1.2387691 -1.1580718 0.24186093 0
-1.3195406 -1.2268159 0.4209367 0
-1.0262923 -0.97723407 0.49474829 0
-0.74241495 -0.76141649 -0.04968448 0
-1.2826258 -1.2330438 0.41662735 0
-0.99509943 -0.9820208 0.48951769 0
-0.73799098 -0.78381699 -0.050095901 0
-1.1837802 -1.1830122 0.083459623 0
-1.1977055 -1.1954821 0.24118061 0
-1.2008226 -1.1982733 0.40142098 0
-0.97406912 -0.99522024 0.48772877 0
-0.7188977 -0.79314321 -0.049814634 0
-0.92971206 -0.98676103 0.47789574 0
-0.71427977 -0.81583565 -0.050245676 0
-0.88238072 -0.97417229 0.46686584 0
-0.69939578 -0.82903856 -0.050186511 0
-0.84845567 -0.97302479 0.46040061 0
-0.68872571 -0.84636134 -0.050346669 0
-0.83286965 -0.98915106 0.46043503 0
-0.67104077 -0.85672349 -0.050162915 0
-0.81879735 -1.0068247 0.46109378 0
-0.64866114 -0.86201233 -0.049741395 0
-0.64165223 -0.8832925 -0.050120655 0
-0.62704456 -0.89664799 -0.050116844 0
-0.61459672 -0.91243142 -0.050237939 0
-0.59521174 -0.92035335 -0.049993608 0
-0.57367206 -0.92546529 -0.049631961 0
-0.56286943 -0.94320685 -0.049870994 0
-0.54498488 -0.95240718 -0.049722742 0
-0.52961868 -0.96465987 -0.049724594 0
-0.52458477 -0.99046606 -0.050343726 0
-0.50085193 -0.9918434 -0.0498734 0
-0.4905588 -1.0112323 -0.050214313 0
-0.46965599 -1.0159873 -0.049918775 0
-0.45718944 -1.0326777 -0.050153952 0
-0.44439805 -1.0491859 -0.050386105 0
-0.42228222 -1.0516454 -0.050025176 0
-0.37472218 -0.9784258 0.49904141 0
-0.40847623 -1.0667868 -0.050214473 0
-0.34977126 -0.97386903 0.49328688 0
-0.38614994 -1.0683198 -0.04983943 0
-0.32761651 -0.9730373 0.4891544 0
-0.36989444 -1.0795099 -0.049880486 0
-0.3088693 -0.97730809 0.48713848 0
-0.35881746 -1.0996901 -0.050300784 0
-0.28981328 -0.98074812 0.48490885 0
-0.33118272 -1.0910938 -0.04954464 0
-0.27269554 -0.98729032 0.4839716 0
-0.32340443 -1.1176955 -0.0502402 0
-0.25663906 -0.99563092 0.48380476 0
-0.30358368 -1.1226593 -0.050060548 0
-0.2265739 -0.97755522 0.47376585 0
-0.2852217 -1.1301875 -0.049995076 0
-0.20608898 -0.97643894 0.47027969 0
-0.26966947 -1.1432517 -0.050160136 0
-0.53490007 -1.6749215 0.083372235 0
-0.18505724 -0.97364169 0.46628663 0
-0.24644543 -1.1407146 -0.049713381 0
-0.50234002 -1.6702588 0.082710445 0
-0.17017104 -0.98287362 0.46686071 0
-0.23101135 -1.1540936 -0.049908135 0
-0.15286668 -0.98704547 0.46564198 0
-0.2184508 -1.1741633 -0.050371606 0
-0.51714104 -1.8341956 0.088236161 0
-0.13706906 -0.99432975 0.46564654 0
-0.19750376 -1.1758853 -0.05012374 0
-0.4177559 -1.6793721 0.081743531 0
-0.11846562 -0.99520785 0.46339718 0
-0.17844094 -1.1816256 -0.050043177 0
-0.40223223 -1.7112664 0.082570702 0
-0.099815324 -0.99554449 0.46104911 0
-0.15987934 -1.1884528 -0.050014216 0
-0.38384193 -1.7376873 0.083190165 0
-0.076986745 -0.98517126 0.35028443 0
-0.084994927 -1.0048101 0.4620057 0
-0.13591827 -1.1814994 -0.049465742 0
-0.35101616 -1.7285978 0.082453229 0
-0.052509442 -0.96935028 0.3442156 0
-0.070103422 -1.0141002 0.46303323 0
-0.11930723 -1.1928711 -0.049630992 0
-0.035808399 -0.97237986 0.14812414 0
-0.035014912 -0.9702844 0.24410033 0
-0.011737449 -0.90881675 0.32606176 0
-0.051468119 -1.0137316 0.46068662 0
-0.10328294 -1.2062027 -0.049877927 0
-0.36343926 -1.920203 0.089008033 0
-0.010001613 -0.95019192 0.14492296 0
-0.009546442 -0.9489426 0.2388926 0
0.00028292998 -0.9219659 0.32813853 0
-0.085399047 -1.2147604 -0.049950838 0
-0.32889044 -1.9101207 0.088254087 0
0.0090634394 -0.94499534 0.14370772 0
0.0087241698 -0.94596416 0.23727816 0
0.02012475 -0.91340655 0.32437888 0
-0.0045368508 -0.9838348 0.44599468 0
-0.065621212 -1.2178538 -0.049826141 0
-0.26983136 -1.8254566 0.084710725 0
0.024861978 -0.94863206 0.14352636 0
0.023202019 -0.95357114 0.23772843 0
0.025164502 -0.94773191 0.3322452 0
0.012606489 -0.98509675 0.44454071 0
-0.046248779 -1.2219292 -0.049748138 0
0.038777098 -0.95798522 0.1440137 0
0.038154647 -0.95991749 0.23797263 0
0.022587525 -1.0082421 0.34711543 0
0.024681496 -1.0017419 0.44854519 0
-0.029215945 -1.2334173 -0.049956504 0
0.024034457 -1.0606908 0.35976708 0
-0.010233952 -1.2388192 -0.049945585 0
0.06834887 -0.97203678 0.33484763 0
0.0072916015 -1.2493888 -0.050135218 0
0.085742965 -0.97012645 0.33315212 0
0.026443617 -1.2544055 -0.050127171 0
0.099363253 -0.9816919 0.33507916 0
0.046580806 -1.2555324 -0.049984764 0
0.11584939 -0.98275489 0.33428067 0
0.06530194 -1.2621292 -0.050052978 0
0.084675893 -1.2660851 -0.050032947 0
0.10262816 -1.2766292 -0.050262429 0
0.12310649 -1.2754403 -0.050072316 0
0.14388777 -1.2719302 -0.049807709 0
-0.064775154 -2.3824937 0.10215003 0
0.16203468 -1.2824183 -0.050060518 0
0.00063367351 -2.2053254 0.095509551 0
0.18227948 -1.2810863 -0.049893599 0
0.033160672 -2.2019455 0.095197715 0
0.20089738 -1.2898928 -0.050102152 0
0.06506522 -2.2012837 0.094999366 0
0.22044186 -1.293009 -0.050113782 0
0.098081544 -2.1914587 0.094485693 0
0.24045238 -1.292441 -0.050001722 0
0.12918244 -2.1942391 0.094441228 0
0.25954315 -1.2994968 -0.050172716 0
0.15950908 -2.2037787 0.094653681 0
0.27989522 -1.2949382 -0.049935501 0
0.19135045 -2.199434 0.094381526 0
0.29817986 -1.3127121 -0.050507911 0
0.22249463 -2.2010694 0.094338305 0
0.31925711 -1.2976063 -0.049911119 0
0.2540229 -2.1970561 0.09410698 0
0.33898968 -1.2979676 -0.049877446 0
0.28499594 -2.1996677 0.094126962 0
0.35900778 -1.2918482 -0.04962106 0
0.31573945 -2.2075398 0.094348907 0
0.37818506 -1.3048693 -0.050057542 0
0.34703884 -2.2040291 0.094177954 0
0.3978928 -1.3079357 -0.050147045 0
0.37820014 -2.2015347 0.094057426 0
0.41784281 -1.2923596 -0.049579807 0
0.43750572 -1.3116626 -0.05026675 0
0.45725802 -1.305663 -0.050059225 0
0.47716108 -1.3100401 -0.050231114 0
0.49659312 -1.2998729 -0.049892362 0
0.51647359 -1.3024861 -0.050019052 0
0.53614438 -1.3005321 -0.049991399 0
0.55600983 -1.3012544 -0.050068423 0
0.576451 -1.3076353 -0.050357368 0
0.59380883 -1.2824461 -0.04952272 0
0.61392474 -1.2858689 -0.049723141 0
0.63529027 -1.2977973 -0.05023922 0
0.65523124 -1.2971358 -0.050311893 0
0.67473352 -1.2932991 -0.050279047 0
0.69363135 -1.2859937 -0.05012944 0
0.71201462 -1.276425 -0.049905993 0
0.7324633 -1.2782892 -0.050106216 0
0.75200582 -1.2750765 -0.050131224 0
0.77162957 -1.2721355 -0.050175223 0
0.79249066 -1.2743336 -0.050416823 0
0.8114329 -1.2680479 -0.050356824 0
0.82878304 -1.2558094 -0.050085787 0
0.84830391 -1.2522001 -0.050141331 0
0.86669099 -1.2444977 -0.050054129 0
0.88535821 -1.2379266 -0.050017402 0
0.90136623 -1.222995 -0.049676351 0
0.92336226 -1.2270178 -0.050053839 0
0.94185573 -1.2200025 -0.050026778 0
0.9586423 -1.2082567 -0.049829066 0
0.98004711 -1.2093333 -0.050126798 0
0.99606168 -1.1958504 -0.049879119 0
0.92179281 -1.0034009 0.45809874 0
1.0144483 -1.1887525 -0.049883477 0
0.94237804 -1.0087799 0.4622702 0
1.0356346 -1.1883825 -0.05015685 0
0.9578793 -1.0010819 0.46184599 0
1.0509006 -1.1737473 -0.049887676 0
0.97104591 -0.98802871 0.45955062 0
1.0686542 -1.1651618 -0.049860887 0
0.98677355 -0.98115152 0.45955148 0
1.0894967 -1.1633272 -0.050108008 0
1.0094411 -0.98934966 0.46514574 0
1.1035584 -1.1468186 -0.049786869 0
1.0229681 -0.9773317 0.46343097 0
1.1172496 -1.1300623 -0.049460907 0
1.0406271 -0.97401768 0.46499452 0
1.1367892 -1.1253488 -0.049621735 0
1.0632125 -0.98015672 0.47017655 0
1.1586579 -1.1248397 -0.049962875 0
1.0777252 -0.96999842 0.46938115 0
1.1790744 -1.1211215 -0.050187327 0
1.1023518 -0.97873145 0.47578856 0
1.1924493 -1.1043874 -0.049892318 0
1.1310266 -0.9937517 0.057374585 0
1.126684 -0.98592943 0.1596881 0
1.132418 -0.99625772 0.26604089 0
1.1350802 -1.001053 0.3752687 0
1.1361994 -1.0030687 0.48829633 0
1.2141296 -1.1025918 -0.050216421 0
1.1401026 -0.97312182 0.05689197 0
1.1432759 -0.97867161 0.15988386 0
1.1433288 -0.97876412 0.26425815 0
1.1480858 -0.98708409 0.37379253 0
1.1509129 -0.99202853 0.48749924 0
1.2299656 -1.0904102 -0.050123956 0
1.1645041 -0.97919446 0.057516672 0
1.1629299 -0.97652 0.1607438 0
1.1623402 -0.97551817 0.26547235 0
1.1619031 -0.97477561 0.37284523 0
1.1623142 -0.97547394 0.48463869 0
1.2387955 -1.0667812 -0.049561266 0
1.2582827 -1.0610027 -0.049749658 0
1.2757316 -1.0517902 -0.049804341 0
1.2988939 -1.051178 -0.050236467 0
1.3143476 -1.0386255 -0.05017009 0
1.3309112 -1.0277458 -0.050184295 0
1.3405834 -1.0071936 -0.049783397 0
1.3611819 -1.002014 -0.050064724 0
1.3716356 -0.9830243 -0.04974312 0
1.3986781 -0.98586732 -0.050409354 0
1.404494 -0.96118397 -0.049843453 0
1.2051193 -0.70978773 0.050388381 0
1.2127743 -0.71944004 0.14094344 0
1.4190854 -0.94791144 -0.049800307 0
1.2048181 -0.68461555 0.049681041 0
1.2099701 -0.6909464 0.13836741 0
1.4363384 -0.93786913 -0.049915448 0
1.203159 -0.65859145 0.048926424 0
1.2082376 -0.66467422 0.13607027 0
1.4563596 -0.93092936 -0.050187834 0
1.2096912 -0.64294511 0.048650485 0
1.2057008 -0.63828641 0.1337288 0
1.4660541 -0.91194004 -0.049902525 0
1.2127759 -0.62366635 0.048202738 0
1.2066817 -0.61673015 0.13204791 0
1.4821846 -0.90038854 -0.049977254 0
1.2054753 -0.5933314 0.04722039 0
1.2123777 -0.60099077 0.13119115 0
1.4965224 -0.88681513 -0.04996438 0
1.5148499 -0.87745947 -0.050167654 0
1.5261697 -0.86068457 -0.050015461 0
1.5415901 -0.84817082 -0.050083287 0
1.5559156 -0.83451468 -0.050103523 0
1.5653106 -0.81613153 -0.04988879 0
1.5801052 -0.80297297 -0.049951173 0
1.5921042 -0.78721565 -0.049886145 0
1.6027173 -0.77028996 -0.049765307 0
1.6308002 -0.76853162 -0.050479304 0
1.6343329 -0.74548215 -0.050041992 0
1.6451085 -0.72875941 -0.049956877 0
1.6638203 -0.71844429 -0.050244804 0
1.6644233 -0.69378293 -0.049716797 0
1.680855 -0.68157965 -0.0499168 0
1.693724 -0.66656727 -0.049963716 0
1.7104484 -0.65428191 -0.050188076 0
1.7199055 -0.63671279 -0.050100546 0
1.7275949 -0.61801016 -0.049946997 0
1.7301998 -0.59606242 -0.04958706 0
1.7492045 -0.58499241 -0.049938567 0
1.7651111 -0.57168216 -0.050162632 0
1.7703227 -0.55165946 -0.04994477 0
1.775535 -0.53181201 -0.049739055 0
1.7816035 -0.51262164 -0.04958044 0
1.7975909 -0.49910346 -0.049838595 0
1.8076825 -0.48217389 -0.049862433 0
1.8205159 -0.46666583 -0.050005376 0
1.8331143 -0.45092103 -0.050145835 0
1.8433237 -0.43387982 -0.050198175 0
1.8514471 -0.41579422 -0.050176144 0
1.8511591 -0.39381966 -0.049832176 0
1.8550596 -0.37398723 -0.049664915 0
1.8699448 -0.3590441 -0.049935769 0
1.8690258 -0.33727124 -0.049600776 0
1.8915571 -0.32522628 -0.050181057 0
1.8934598 -0.30470321 -0.049973954 0
1.902113 -0.28686491 -0.050035104 0
1.905035 -0.26690963 -0.049886998 0
1.9065428 -0.24657129 -0.049695615 0
1.9240288 -0.23168622 -0.050115854 0
1.924688 -0.21112467 -0.049910951 0
1.9341342 -0.19338964 -0.050044473 0
1.938962 -0.17420866 -0.050014094 0
1.9415118 -0.15441443 -0.049908385 0
1.9457318 -0.13513504 -0.049873918 0
1.9593664 -0.11823673 -0.05019502 0
1.9613999 -0.098350026 -0.050097309 0
1.9633559 -0.078513391 -0.050006211 0
1.9572297 -0.057035487 -0.049629599 0
1.9721305 -0.039981883 -0.050028995 0
1.9711702 -0.019710165 -0.049859434 0
1.9726009 3.2980606e-05 -0.049786109 0
1.9878898 0.017527569 -0.05022287 0
1.9863678 0.037788007 -0.050060272 0
1.9800347 0.058575753 -0.04973387 0
1.9861983 0.077632748 -0.049866736 0
1.9817823 0.097923808 -0.049628168 0
2.0026445 0.11565464 -0.05030556 0
2.0001454 0.1357843 -0.050153419 0
2.0006609 0.15560044 -0.050118376 0
2.0023372 0.17532913 -0.050133787 0
2.0027132 0.19512919 -0.050111599 0
2.0027306 0.21492802 -0.050085526 0
2.0044985 0.23467851 -0.050130866 0
2.0027387 0.25448635 -0.050059147 0
1.9968457 0.27422071 -0.04984875 0
2.0019639 0.29401776 -0.050040368 0
1.9996684 0.31371972 -0.049976148 0
1.986599 0.33290434 -0.049535744 0
1.9861811 0.35249859 -0.049556062 0
1.9972984 0.37291044 -0.049998034 0
1.9964368 0.39265564 -0.050020572 0
1.9977505 0.41262594 -0.050130051 0
2.005142 0.43333009 -0.050466944 0
1.9855919 0.45103851 -0.049844932 0
1.9852222 0.47085825 -0.0499207 0
1.973662 0.48910335 -0.049601864 0
1.9836831 0.51054895 -0.050070807 0
1.9813535 0.53021348 -0.050103158 0
1.971702 0.54855251 -0.049878743 0
1.9670707 0.56772578 -0.049844857 0
1.9709909 0.58868051 -0.050131686 0
1.9563323 0.60568434 -0.049749251 0
1.9513223 0.62470329 -0.04972754 0
1.9512891 0.64495677 -0.04989773 0
1.9579383 0.66710192 -0.050324641 0
1.9492947 0.68531853 -0.050196748 0
1.9247152 0.69880491 -0.049484346 0
1.9411854 0.72428334 -0.050307643 0
1.9214795 0.73884636 -0.049790725 0
1.922931 0.76006526 -0.050074551 0
1.9054613 0.77494055 -0.049654752 0
1.9120008 0.79816699 -0.050151374 0
1.9009993 0.81519127 -0.049992636 0
1.9027699 0.83707392 -0.050330665 0
1.8814821 0.84989905 -0.049793109 0
1.8769675 0.86934161 -0.049908172 0
1.8742383 0.8896504 -0.050102845 0
1.8674854 0.90830743 -0.050151147 0
1.8507211 0.9223606 -0.049814943 0
1.8413768 0.93971103 -0.049777448 0
1.8406456 0.96129841 -0.050091494 0
1.8252426 0.97564507 -0.04983028 0
1.8267537 0.99869543 -0.050257076 0
1.8156967 1.0152689 -0.050187998 0
1.8056556 1.0323583 -0.050168492 0
1.801563 1.0528615 -0.050402761 0
1.7827206 1.0648161 -0.05003728 0
1.7740377 1.0826696 -0.050100125 0
1.7559633 1.094687 -0.049777087 0
1.7482045 1.1130915 -0.04989608 0
1.7406788 1.1317548 -0.050035939 0
1.7266856 1.1461349 -0.049907722 0
1.7101769 1.1586474 -0.049676593 0
1.7011349 1.1763308 -0.049778573 0
1.7006923 1.2004551 -0.050272927 0
1.688368 1.2160169 -0.050253332 0
1.6710383 1.2276722 -0.050015982 0
1.6549617 1.2401174 -0.049840145 0
1.6485459 1.2603189 -0.050115503 0
1.6257194 1.2669885 -0.049640331 0
1.6188822 1.2870024 -0.049917549 0
1.6046227 1.3007188 -0.049856108 0
1.5858769 1.3103124 -0.049586017 0
1.5842675 1.3355885 -0.050154109 0
1.5700401 1.3493869 -0.050122134 0
1.5526137 1.360029 -0.049938623 0
1.5388482 1.3741643 -0.049944628 0
1.5296668 1.3930262 -0.050194576 0
1.5144932 1.4058274 -0.050149146 0
1.0233953 0.88772029 0.29174349 0
1.4964646 1.4154968 -0.04996134 0
1.0474528 0.92968243 0.30740565 0
1.4865639 1.4339924 -0.050210804 0
1.437485 1.3795307 0.059593432 0
1.4388812 1.38108 0.16755299 0
1.4412463 1.3837044 0.27774593 0
1.0527527 0.95260328 0.31422696 0
1.4759139 1.4519063 -0.050435841 0
1.4157953 1.3834813 0.059184037 0
1.4089354 1.3756734 0.16497953 0
1.4227984 1.3914518 0.2765781 0
1.053051 0.97061634 0.31877002 0
1.4497061 1.4519055 -0.049822677 0
1.3944798 1.387429 0.058791816 0
1.3959171 1.3891071 0.16515326 0
1.3905306 1.3828185 0.27158841 0
1.0551482 0.99126124 0.32441562 0
1.4381611 1.4687964 -0.050016981 0
1.3651735 1.3813796 0.057951283 0
1.369851 1.3869817 0.16316994 0
1.3643807 1.3804301 0.26821411 0
1.0558977 1.0109614 0.32958123 0
1.4260037 1.4851569 -0.050191615 0
1.3393807 1.3787128 0.057292093 0
1.3418226 1.3817136 0.16081707 0
1.3424225 1.3824507 0.26597634 0
1.0588355 1.0339733 0.33611059 0
1.4041566 1.4895025 -0.049824063 0
1.3214335 1.3851953 0.057071216 0
1.3233315 1.3875884 0.16006465 0
1.3157555 1.3780357 0.26234347 0
1.0622406 1.0583729 0.34314859 0
1.3884666 1.5013973 -0.049813144 0
1.3022134 1.3897803 0.056777116 0
1.297884 1.3841777 0.15809014 0
1.2864364 1.3693638 0.25785241 0
1.053907 1.0684564 0.34408107 0
1.3811691 1.5244318 -0.050309014 0
1.2732577 1.3810934 0.055903569 0
1.278495 1.3880498 0.15715729 0
1.2756695 1.3842968 0.25881609 0
1.0438287 1.0763431 0.34413382 0
1.3596457 1.5286635 -0.049971987 0
1.2541605 1.3848132 0.055603527 0
1.2575912 1.3894917 0.15594181 0
1.2495675 1.3785497 0.25517648 0
1.0280129 1.0764155 0.34101489 0
1.3472378 1.5452561 -0.050192188 0
1.2504232 1.4096829 0.056244615 0
1.2455056 1.4027965 0.15633872 0
1.2479419 1.4062082 0.25904572 0
1.0255014 1.094716 0.34545752 0
1.327517 1.5516084 -0.049972028 0
1.245023 1.4329578 0.056812823 0
1.2468274 1.4355528 0.15929826 0
1.246362 1.4348836 0.26310918 0
1.0073206 1.0910718 0.34098232 0
1.3055177 1.5543221 -0.049607631 0
1.2422764 1.460874 0.057579234 0
1.2464781 1.4670825 0.1620713 0
1.2482545 1.4697074 0.26848137 0
1.0057001 1.1112974 0.34622633 0
1.2928351 1.5707219 -0.049843173 0
1.2454802 1.4988136 0.058769278 0
1.2473342 1.501629 0.16521026 0
1.2408005 1.4917076 0.2710349 0
1.1709684 1.3856679 0.34854048 0
0.99333066 1.1159259 0.34522203 0
1.2725021 1.5754935 -0.049590603 0
1.2495925 1.5397333 0.0600744 0
1.2448138 1.5322738 0.16782463 0
1.2149063 1.4855902 0.26756576 0
1.1508732 1.3856388 0.34574142 0
0.97975647 1.1185368 0.34349045 0
1.2645425 1.5997944 -0.050172284 0
1.2470292 1.5716841 0.060989879 0
1.2405139 1.5612267 0.17020838 0
1.2062031 1.5061553 0.26986292 0
1.1313771 1.3860539 0.34317413 0
0.97900617 1.1414871 0.34981224 0
1.2466121 1.608431 -0.050099935 0
1.1905274 1.5158331 0.26987031 0
1.1118659 1.3859601 0.34054804 0
0.96869683 1.1495826 0.35031182 0
0.83566827 0.92994756 0.46747407 0
1.2238958 1.6088421 -0.049696758 0
1.1755151 1.5266458 0.27015656 0
1.0857327 1.37411 0.33453393 0
0.95591462 1.1535554 0.34926647 0
0.84146607 0.959113 0.48408771 0
1.2063572 1.6177425 -0.049657393 0
1.1608306 1.5381182 0.27061725 0
1.0732012 1.384858 0.33530146 0
0.94484544 1.160369 0.34937921 0
0.84069002 0.97820538 0.41741917 0
0.83757466 0.9727568 0.4899286 0
1.1911079 1.6307154 -0.049793649 0
1.1401244 1.538883 0.26890427 0
1.0520532 1.3802474 0.33162796 0
0.93612957 1.1714432 0.35116568 0
0.84527051 1.0077862 0.35805449 0
0.83813298 0.99492985 0.42408159 0
0.83952528 0.99743772 0.50324881 0
1.1779536 1.6477855 -0.050102968 0
1.1269104 1.5530542 0.27000293 0
1.0359348 1.384212 0.33054197 0
0.92390341 1.1762922 0.35062909 0
0.85068905 1.0404133 0.37098306 0
0.84302735 1.0261939 0.43898085 0
0.84336197 1.0268148 0.5196259 0
1.1608945 1.6578629 -0.050135251 0
1.1132928 1.5667909 0.27103993 0
1.0190246 1.386436 0.32902062 0
0.9082014 1.1744077 0.3476263 0
0.84940004 1.0619084 0.37859428 0
0.83772844 1.0395782 0.44365335 0
0.83940881 1.042793 0.52689713 0
1.1418406 1.6640612 -0.050020698 0
1.0899403 1.5616438 0.26828715 0
1.0011355 1.3864015 0.32692406 0
0.90299469 1.192736 0.35225534 0
0.85078949 1.0897173 0.38909522 0
0.83885014 1.0661569 0.45573455 0
0.83692372 1.0623553 0.53653806 0
1.1212013 1.6668543 -0.049780991 0
1.0748752 1.5725095 0.26882783 0
0.98482364 1.3891156 0.32568586 0
0.89042449 1.1968677 0.35161853 0
0.84839141 1.1112657 0.39663565 0
0.84001654 1.09421 0.4685553 0
0.84347457 1.1012523 0.5589146 0
1.107409 1.6836607 -0.050106995 0
0.96503729 1.3842437 0.3223702 0
0.87800968 1.201219 0.35112482 0
0.83635831 1.1136234 0.39534685 0
0.83898598 1.1191494 0.47956634 0
0.83684617 1.1146494 0.564358 0
1.0886625 1.6902583 -0.050036751 0
0.94981104 1.3885051 0.32170892 0
0.86419177 1.2024364 0.34954375 0
0.84338003 1.1572082 0.41292465 0
0.84057969 1.1511225 0.49439472 0
0.83910108 1.1479092 0.58279133 0
1.0698268 1.6965414 -0.049963869 0
0.92764646 1.3770194 0.31670767 0
0.85277492 1.2087605 0.34989458 0
0.84090561 1.1820866 0.42188677 0
0.83887094 1.1775142 0.50607276 0
0.83820695 1.1760219 0.59776235 0
1.0547653 1.7114798 -0.050236974 0
0.91171843 1.3787947 0.31549391 0
0.8477183 1.2299491 0.35567886 0
0.84043086 1.2130007 0.43353483 0
0.84203255 1.2167258 0.52468163 0
0.84266019 1.2181854 0.62173009 0
1.0329401 1.710636 -0.049905945 0
0.89787668 1.3852894 0.31564575 0
0.85473198 1.2813605 0.37234288 0
0.84299397 1.2530855 0.44923601 0
0.84129781 1.2489997 0.53941345 0
0.83863509 1.2425857 0.63413072 0
1.0173911 1.7248455 -0.050166085 0
0.87898624 1.3792233 0.31239277 0
0.85229838 1.312579 0.38165471 0
0.84054571 1.2832304 0.46041062 0
0.84032959 1.2826908 0.55483997 0
0.83669531 1.2736152 0.65073645 0
1.0001643 1.7352256 -0.050285939 0
0.86627382 1.3882812 0.31335676 0
0.84977317 1.3455237 0.39154795 0
0.83767629 1.3141775 0.47190082 0
0.83995336 1.3200781 0.57218063 0
0.84208494 1.3256016 0.68059897 0
0.97970277 1.7371508 -0.050091501 0
0.85268992 1.3952733 0.31379768 0
0.84349012 1.3705103 0.39858192 0
0.8396402 1.3601476 0.4899888 0
0.84136969 1.3648028 0.59335917 0
0.84093171 1.363624 0.7014448 0
0.95668024 1.7315089 -0.049620852 0
0.83511972 1.3912436 0.31129697 0
0.84042442 1.4060923 0.40935552 0
0.84177375 1.4098692 0.50963414 0
0.84036779 1.4059337 0.61252391 0
0.94171095 1.7483248 -0.050010853 0
0.81711721 1.385201 0.30832392 0
0.84076458 1.4541204 0.42447406 0
0.83944368 1.4502708 0.52510333 0
0.83976853 1.4512174 0.63380927 0
0.92682838 1.7662941 -0.050449692 0
1.0289916 2.0767241 0.35010093 0
0.80064893 1.3828892 0.30642626 0
0.83806193 1.4965711 0.43757507 0
0.83881789 1.4988682 0.54409385 0
0.83797657 1.4963117 0.65491092 0
0.90099746 1.7505692 -0.049632553 0
1.0063899 2.0849319 0.35026008 0
0.78509957 1.3828773 0.30520695 0
0.84134048 1.5613046 0.45840898 0
0.83899951 1.5538776 0.56579614 0
0.83778042 1.5500101 0.68045461 0
0.88636988 1.7700273 -0.050142556 0
0.98468697 2.0962119 0.351051 0
0.76986343 1.3834958 0.30421248 0
0.83906847 1.6130961 0.47465262 0
0.83768642 1.6085111 0.58725268 0
0.86900073 1.7812692 -0.050352339 0
0.96028417 2.0985219 0.35020706 0
0.75703472 1.3921348 0.30540198 0
0.83990252 1.6801393 0.49612743 0
0.8411603 1.6845107 0.61784399 0
0.84770572 1.7787623 -0.050060555 0
0.73990595 1.3855416 0.047504086 0
0.73807651 1.3788681 0.13019343 0
0.73972321 1.3848748 0.21553741 0
0.74073499 1.3885655 0.30340049 0
0.83822829 1.7441915 0.51649278 0
0.8344599 1.7304457 0.63540399 0
0.82556385 1.7722031 -0.049630128 0
0.72493297 1.3861315 0.047386352 0
0.72443163 1.3842082 0.13036907 0
0.72552705 1.3884108 0.21549213 0
0.72577226 1.3893517 0.30260816 0
0.82974231 1.7882339 0.52991909 0
0.83128351 1.7941467 0.66054416 0
0.80925083 1.7879667 -0.050032262 0
0.70832962 1.3797916 0.047021069 0
0.7091279 1.3830202 0.12984051 0
0.70700336 1.3744274 0.21222551 0
0.70916414 1.3831667 0.30003574 0
0.82533699 1.8530271 0.55045193 0
0.8254742 1.853582 0.68380392 0
0.7879287 1.7835763 -0.049701799 0
0.69247794 1.3755437 0.04674124 0
0.69362485 1.3804466 0.12918186 0
0.69564998 1.3891034 0.21431999 0
0.69588768 1.3901196 0.30096817 0
0.81521523 1.9002206 0.56493002 0
0.76823807 1.7855116 -0.04961336 0
0.67888439 1.3806229 0.046810497 0
0.68044817 1.3877088 0.12962905 0
0.68165791 1.3931905 0.21447946 0
0.68059462 1.3883724 0.29966867 0
0.80332345 1.9444941 0.57841659 0
0.75130558 1.8004465 -0.050008193 0
0.66547 1.386817 0.046926476 0
0.66522628 1.3856424 0.12906943 0
0.66477942 1.3834893 0.21213131 0
0.66469711 1.3830924 0.29750225 0
0.79307765 2.00174 0.59632665 0
0.7327022 1.8082623 -0.050150909 0
0.65054971 1.3857058 0.046782631 0
0.65053558 1.3856333 0.1287574 0
0.65107626 1.3884144 0.21251525 0
0.64905447 1.378015 0.29544592 0
0.77798504 2.0411773 0.60820103 0
0.71183181 1.8041613 -0.049869418 0
0.63422048 1.3762716 0.046343949 0
0.63506752 1.3809415 0.12795487 0
0.63355511 1.3726032 0.20912917 0
0.63598061 1.3859756 0.29682606 0
0.76285791 2.0854805 0.62175786 0
0.69197977 1.8049307 -0.049774379 0
0.62288719 1.3946538 0.046920717 0
0.62009722 1.3780868 0.1273755 0
0.62138486 1.3857327 0.21108356 0
0.62063843 1.3813004 0.29497674 0
0.74692744 2.1312141 0.63583297 0
0.67308176 1.8114201 -0.049895227 0
0.60583043 1.3788879 0.046267733 0
0.60703164 1.3866132 0.12805559 0
0.60577118 1.3785068 0.20934698 0
0.60734296 1.3886156 0.29627687 0
0.72735178 2.1604621 0.64439756 0
0.65444791 1.8203876 -0.050113823 0
0.59155953 1.37941 0.046211064 0
0.59188151 1.381668 0.12728989 0
0.5918628 1.3815367 0.2095177 0
0.59264338 1.3870101 0.29531887 0
0.70847958 2.199261 0.65623939 0
0.63555932 1.8286142 -0.050313842 0
0.57665581 1.3747636 0.045974892 0
0.5772267 1.3791623 0.12681055 0
0.57716656 1.3786988 0.20865288 0
0.57940686 1.3959607 0.29712585 0
0.68843269 2.2360029 0.66745162 0
0.61433977 1.8181598 -0.049850632 0
0.56341368 1.3829043 0.04620545 0
0.56243575 1.3745459 0.12612349 0
0.56398189 1.3877608 0.20998372 0
0.56314975 1.3806487 0.29274067 0
0.66792065 2.2761061 0.67985779 0
0.59577012 1.8300025 -0.050197978 0
0.55229962 1.4130464 0.13011631 0
0.55183125 1.4085538 0.21347012 0
0.55224293 1.4125026 0.30051255 0
0.64497185 2.3019304 0.68755794 0
0.57562518 1.8273584 -0.050033953 0
0.55103928 1.5587903 0.1456919 0
0.55192173 1.5684302 0.24216858 0
0.55160767 1.5649997 0.3392193 0
0.62164032 2.3300121 0.6961 0
0.5567072 1.8388418 -0.050385114 0
0.60238373 2.4180422 0.23817201 0
0.59940481 2.3802676 0.38878375 0
0.59832054 2.366519 0.54399008 0
0.535788 1.8238927 -0.049798775 0
0.57416385 2.4035592 0.39264414 0
0.5735451 2.3942125 0.55057997 0
0.51600456 1.8224742 -0.049706005 0
0.54823226 2.4241135 0.39606497 0
0.54812276 2.4220691 0.5572868 0
0.49639761 1.8238425 -0.049721759 0
0.52142853 2.4351475 0.39782459 0
0.5221529 2.4528389 0.56481582 0
0.47688365 1.8289942 -0.049881451 0
0.45643604 1.1074806 0.3552174 0
0.45636415 1.1049442 0.42674091 0
0.45720533 1.8310609 -0.049939737 0
0.4456926 1.0997245 0.3519088 0
0.44580555 1.1069 0.4276028 0
0.43748212 1.8329098 -0.049999095 0
0.43513232 1.086767 0.41747925 0
0.43512803 1.0853987 0.4929105 0
0.41768065 1.8382767 -0.05019293 0
0.42464748 1.1004705 0.42435235 0
0.42482945 1.0811996 0.49043953 0
0.3979255 1.8351963 -0.050094064 0
0.41395187 1.1079611 0.35536098 0
0.41410425 1.1010469 0.42472368 0
0.41464669 1.0764334 0.48770824 0
0.37821466 1.8327594 -0.050027028 0
0.35223407 2.582792 0.42437479 0
0.35227326 2.5816607 0.59756911 0
0.40491557 1.0619309 0.47927433 0
0.35879532 1.8250892 -0.049781784 0
0.3223891 2.595557 0.42689523 0
0.32224828 2.598537 0.60218465 0
0.39541459 1.0501119 0.47250128 0
0.33900478 1.8264591 -0.049868409 0
0.29146779 2.6203315 0.43165526 0
0.2922 2.6081033 0.60503191 0
0.31883779 1.8321321 -0.050118066 0
0.26129034 2.6255968 0.43296233 0
0.26094913 2.6303015 0.61120975 0
0.29939413 1.8272039 -0.049997237 0
0.22970729 2.645155 0.43692654 0
0.22919168 2.6512067 0.61716402 0
0.27838838 1.8390749 -0.050487656 0
0.19779633 2.6623328 0.44053638 0
0.19728702 2.6675353 0.6220547 0
0.25917867 1.8315357 -0.050291058 0
0.16634203 2.6707549 0.44263536 0
0.16561516 2.6773257 0.625377 0
0.34581393 1.0483752 0.47378767 0
0.24105263 1.8163203 -0.049826723 0
0.13517363 2.6744273 0.44394645 0
0.13386084 2.6850669 0.62828022 0
0.2201791 1.8236827 -0.0501833 0
0.10402034 2.6765964 0.44505751 0
0.10276653 2.6858027 0.6294874 0
0.20175862 1.8128583 -0.049893569 0
0.06969218 2.6989825 0.44992852 0
0.070172861 2.6957572 0.63317579 0
0.18039922 1.8214418 -0.050313532 0
0.036815211 2.7081215 0.45246819 0
0.036598995 2.7094569 0.63794559 0
0.16281737 1.806687 -0.049898308 0
0.0025288032 2.7232332 0.45618263 0
0.0027122365 2.7221842 0.64258349 0
0.14346404 1.8029296 -0.049889628 0
-0.028727962 2.7193844 0.45650572 0
-0.029697133 2.7245426 0.64465123 0
0.12567459 1.7914052 -0.049606957 0
-0.089361027 2.8614638 0.10057317 0
-0.088683918 2.8580942 0.29031819 0
-0.062445179 2.7275252 0.45910743 0
-0.062165275 2.7261324 0.64663029 0
0.10599898 1.7896285 -0.049687576 0
-0.11349858 2.8148828 0.099119924 0
-0.1144581 2.8193645 0.28680551 0
-0.096510842 2.7355344 0.46177012 0
-0.097734585 2.7412505 0.65225095 0
0.085890993 1.7894834 -0.049837224 0
-0.14173026 2.7909153 0.098501548 0
-0.14134194 2.7892067 0.28426319 0
-0.12874933 2.7338049 0.46271849 0
-0.12836005 2.7320921 0.65165305 0
0.064832345 1.7928253 -0.050124649 0
-0.17239566 2.7789061 0.098333441 0
-0.17633887 2.7952969 0.28575721 0
-0.16271056 2.7386484 0.46496421 0
-0.16272999 2.7387292 0.65529931 0
0.04467161 1.7917949 -0.050261699 0
-0.20966662 2.7933705 0.099154137 0
-0.20671488 2.7817466 0.28512707 0
-0.19589163 2.7391253 0.46648401 0
-0.19689836 2.7430897 0.6584717 0
0.027100222 1.7806941 -0.050036419 0
-0.25082344 2.8201067 0.10044842 0
-0.25288326 2.8278103 0.29116902 0
-0.22517432 2.7241809 0.46520796 0
-0.22919495 2.739218 0.65959418 0
0.011375355 1.7635962 -0.049596142 0
-0.25994843 2.7294247 0.46777821 0
-0.26064056 2.7318885 0.65991181 0
-0.011950893 1.7733924 -0.050162528 0
-0.29425484 2.7317924 0.46989939 0
-0.29474854 2.7334685 0.66270548 0
-0.033071831 1.7746687 -0.050423764 0
-0.32639062 2.7260966 0.47058845 0
-0.32783532 2.7307827 0.66448557 0
-0.053605154 1.7735096 -0.050604679 0
-0.35897911 2.7214756 0.47156042 0
-0.36289459 2.7336304 0.66786754 0
-0.06860365 1.7554719 -0.050160367 0
-0.39370966 2.7227859 0.47374299 0
-0.39482325 2.7260993 0.66858888 0
-0.082548693 1.7353646 -0.049642924 0
-0.42347991 2.7089927 0.47313252 0
-0.42398244 2.710428 0.66722143 0
-0.10465701 1.7387183 -0.050021224 0
-0.45379853 2.6969385 0.47292483 0
-0.45736229 2.7067192 0.66919553 0
-0.11996199 1.7233443 -0.049696997 0
-0.48362589 2.6836545 0.47255242 0
-0.48652869 2.6913197 0.66810399 0
-0.14190568 1.7254725 -0.050049942 0
-0.52136159 2.690613 0.47617349 0
-0.51886004 2.6842504 0.66939116 0
-0.1561249 1.7079898 -0.04965923 0
-0.55027229 2.6745768 0.47542697 0
-0.55131346 2.6771302 0.67078286 0
-0.18033458 1.7148515 -0.050216876 0
-0.58489704 2.6723185 0.47744507 0
-0.5839144 2.6699929 0.67229015 0
-0.19404586 1.696725 -0.049815714 0
-0.61433434 2.657486 0.47708464 0
-0.60987043 2.6472814 0.66958266 0
-0.21122862 1.6869483 -0.049746215 0
-0.63707721 2.6279695 0.47388858 0
-0.64266264 2.640312 0.67135942 0
-0.22674747 1.6737231 -0.049548883 0
-0.6695863 2.6203709 0.4750945 0
-0.67003465 2.6213293 0.66987896 0
-0.24668176 1.6699479 -0.049732774 0
-0.70042956 2.6089263 0.47561917 0
-0.69949138 2.6069849 0.66980106 0
-0.26761514 1.6678779 -0.049995843 0
-0.72900784 2.5927658 0.47527468 0
-0.7251215 2.5849755 0.66764277 0
-0.28938442 1.6670196 -0.050319824 0
-0.75597703 2.5735726 0.47438556 0
-0.76114762 2.5836186 0.67148876 0
-0.29843998 1.6417116 -0.049668822 0
-0.78104126 2.5510437 0.47287858 0
-0.78747833 2.5631728 0.66997761 0
-0.32180113 1.6435083 -0.050120916 0
-0.81126189 2.5383699 0.47345167 0
-0.81105673 2.5379949 0.66717589 0
-0.3372063 1.6305287 -0.049982727 0
-0.61672533 2.1266215 0.082311749 0
-0.83297002 2.5104144 0.47094396 0
-0.84166038 2.5258381 0.66825414 0
-0.35599512 1.6235694 -0.050099991 0
-0.61935639 2.0775237 0.080836661 0
-0.85820806 2.4892309 0.46988663 0
-0.85940099 2.491287 0.66284811 0
-0.36387038 1.5981653 -0.049460981 0
-0.61674225 2.0216625 0.07907059 0
-0.88057148 2.463511 0.46793494 0
-0.88900769 2.4776394 0.663679 0
-0.38912106 1.6019005 -0.050042074 0
-0.613428 1.9670339 0.077341065 0
-0.91536117 2.4585297 0.47041705 0
-0.91479731 2.457612 0.66271722 0
-0.40076756 1.5833298 -0.049699217 0
-0.61454093 1.9216888 0.075988024 0
-0.93114853 2.4228132 0.46645537 0
-0.94035828 2.4373906 0.66178679 0
-0.42394823 1.5829544 -0.050134365 0
-0.62381279 1.8906493 0.075233482 0
-0.95413411 2.3991849 0.46510336 0
-0.95572984 2.4016414 0.65622234 0
-0.43765527 1.5678302 -0.049952555 0
-0.62129283 1.8428986 0.073760204 0
-0.97437906 2.3717821 0.46298397 0
-0.98515069 2.3879166 0.65742624 0
-0.45170182 1.5534221 -0.049807608 0
-0.62295914 1.8030808 0.072616234 0
-1.0047566 2.3596644 0.46424466 0
-1.0023578 2.3561676 0.65317827 0
-0.47033131 1.5456899 -0.049960636 0
-0.61707461 1.7539414 0.071055867 0
-1.0231687 2.3302517 0.46178484 0
-1.0221034 2.3287399 0.65030855 0
-0.49450797 1.5454338 -0.050454807 0
-0.61407864 1.7106647 0.069736332 0
-0.61384404 1.7103405 0.19781837 0
-1.0411658 2.300843 0.45935479 0
-1.037141 2.2952812 0.64559114 0
-0.078137591 0.97006464 0.44184089 0
-0.50087959 1.5206249 -0.049875058 0
-0.61105084 1.6688998 0.068469964 0
-0.61798501 1.678232 0.19529879 0
-1.0601782 2.273361 0.45738548 0
-1.0602968 2.2735205 0.64460754 0
-0.094488695 0.97368068 0.44813788 0
-0.52128482 1.5148838 -0.050149467 0
-0.61590648 1.6389372 0.067719616 0
-0.612432 1.634382 0.19117489 0
-1.0794747 2.2466965 0.45563668 0
-1.0851804 2.2541771 0.64448315 0
-0.096658424 0.95817888 0.4425942 0
-0.5304206 1.4944284 -0.049771041 0
-0.61382878 1.6009712 0.066601716 0
-0.61735392 1.6054741 0.18904004 0
-1.0957682 2.2165842 0.45313627 0
-1.1024685 2.225143 0.64131874 0
-0.10894431 0.95604885 0.44550973 0
-0.54645002 1.4829751 -0.04980626 0
-0.62080133 1.5755241 0.066044562 0
-0.61617661 1.5697674 0.18595472 0
-1.1173249 2.193573 0.45230037 0
-1.116083 2.1920271 0.63685715 0
-0.12374921 0.95681733 0.45041391 0
-0.56972921 1.4802729 -0.050256025 0
-0.61862981 1.5395964 0.065000743 0
-0.61234438 1.5319713 0.18254417 0
-1.1257676 2.1548281 0.44784158 0
-1.134842 2.1658366 0.63469529 0
-0.14231397 0.96175623 0.45819369 0
-0.58406043 1.4664937 -0.050206322 0
-0.61945868 1.5083518 0.064163439 0
-0.61529565 1.5034289 0.18039279 0
-1.1351902 2.1181984 0.44385967 0
-1.1467721 2.1318939 0.62999845 0
-0.14741798 0.95016873 0.45537993 0
-0.58751643 1.4402269 -0.04957436 0
-0.61216676 1.4686421 0.062917344 0
-0.6135428 1.4702283 0.1775603 0
-1.1553234 2.0947561 0.44301075 0
-1.1630683 2.1036839 0.62723684 0
-0.61060977 1.4366949 -0.050023809 0
-0.63567114 1.4648596 0.063369766 0
-0.63074386 1.4593222 0.17789994 0
-1.1695484 2.0648453 0.44065157 0
-1.166678 2.0616193 0.61978227 0
-0.62622082 1.4244896 -0.050073218 0
-0.65701783 1.4582347 0.063704252 0
-0.65869975 1.4600776 0.17997156 0
-1.1818925 2.033355 0.43792292 0
-1.1732297 2.0238628 0.61374521 0
-0.63867807 1.408859 -0.04996527 0
-0.50926578 1.2705956 0.055204205 0
-0.68749154 1.4610111 0.18214546 0
-1.1929085 2.0009964 0.43498564 0
-1.191002 1.9989593 0.61215675 0
-0.65192986 1.3941618 -0.049909916 0
-0.49430984 1.2299552 0.053783823 0
-0.71226263 1.4570156 0.18366522 0
-1.1950725 1.960001 0.42988804 0
-1.2010622 1.9662409 0.60786402 0
-0.66652274 1.380878 -0.049932994 0
-0.5145303 1.2264736 0.054197881 0
-0.74955261 1.4652255 0.18709128 0
-1.2062151 1.9291346 0.42729706 0
-1.206653 1.9295794 0.6021511 0
-0.68177819 1.3682233 -0.049997538 0
-0.5268141 1.2147151 0.054210186 0
-0.77425051 1.4598267 0.18855427 0
-1.2196027 1.9009947 0.42540738 0
-1.2244463 1.9057928 0.60105807 0
-0.69233942 1.3509665 -0.049836252 0
-0.53592265 1.1998736 0.054072123 0
-0.80814373 1.4628291 0.19138381 0
-1.225796 1.8662658 0.42182595 0
-1.2286835 1.8690549 0.59527642 0
-0.710585 1.3410996 -0.050064471 0
-0.56562614 1.2045608 0.054954987 0
-0.84198797 1.4648699 0.19416714 0
-1.2300882 1.8304268 0.41792479 0
-1.2275422 1.8280287 0.58784103 0
-0.72243953 1.3251402 -0.049986321 0
-0.86540771 1.4564463 0.068916522 0
-0.87182581 1.4623408 0.1963301 0
-1.2282257 1.7896686 0.41267252 0
-1.2292925 1.7906483 0.58167273 0
-0.24078114 0.88277149 0.38451639 0
-0.73979211 1.3141741 -0.050182223 0
-0.90807772 1.4648705 0.070247032 0
-0.900895 1.4584384 0.19836253 0
-1.2360255 1.758541 0.40994322 0
-1.2343143 1.7570088 0.57685614 0
-0.23747994 0.86436355 0.37838382 0
-0.74411261 1.2916427 -0.049764935 0
-0.93929613 1.4620464 0.071015216 0
-1.2441852 1.7282276 0.4074243 0
-1.2386304 1.7233782 0.5719974 0
-0.22781368 0.84089142 0.36894801 0
-0.75753701 1.2772421 -0.049792271 0
-0.96995044 1.4580259 0.071750447 0
-1.2415265 1.6891629 0.40246105 0
-1.2470628 1.6938747 0.56871223 0
-0.23233522 0.83024573 0.36748809 0
-0.25388253 0.84858447 0.45699596 0
-0.76650608 1.2591161 -0.049621105 0
-1.0175269 1.4673657 0.073265381 0
-1.2463311 1.6571842 0.39941415 0
-1.2381195 1.6503718 0.55982488 0
-0.24326266 0.82502747 0.369562 0
-0.78892934 1.25202 -0.050079916 0
-1.0441873 1.4584146 0.07379926 0
-1.2470248 1.6224232 0.39553851 0
-1.2470529 1.6224459 0.55707365 0
-0.24641837 0.81336075 0.36751205 0
-0.8004303 1.2359017 -0.050041832 0
-1.0949041 1.4679344 0.07542643 0
-1.2488325 1.5892234 0.39205799 0
-1.2478886 1.5884796 0.55183399 0
-0.27115464 0.81885511 0.37693578 0
-0.81434 1.2216625 -0.05012171 0
-1.1305588 1.4644388 0.0763546 0
-1.2591797 1.563187 0.39064804 0
-1.2478036 1.554453 0.54648685 0
-0.25657529 0.79344022 0.36571038 0
-0.24460746 0.78425199 0.43314144 0
-0.83361351 1.2113609 -0.050448004 0
-1.1683632 1.4617283 0.077371873 0
-1.2512236 1.5237017 0.38520342 0
-1.2384615 1.5141566 0.53837776 0
-0.26893198 0.78902185 0.36868316 0
-0.28353655 0.79994494 0.45340809 0
-0.8261292 1.1812783 -0.049595188 0
-1.214847 1.4644481 0.078764752 0
-1.2518845 1.4914289 0.38184261 0
-1.2398707 1.4826772 0.53389722 0
-1.2318556 1.4768384 0.69108307 0
-0.26481903 0.77237993 0.3632209 0
-0.27231288 0.77783895 0.44232112 0
-0.85190117 1.1755205 -0.0502223 0
-1.2508699 1.4585377 0.079685837 0
-1.2540262 1.4607767 0.37892944 0
-1.2366223 1.448431 0.52812415 0
-1.2427878 1.4528046 0.68936896 0
-0.27596718 0.76696897 0.36566108 0
-0.27831674 0.76863569 0.44207242 0
-0.85824656 1.155805 -0.050004259 0
-1.2973789 1.4590747 0.081057169 0
-1.2532032 1.4285665 0.37547663 0
-1.2411343 1.4202315 0.52494156 0
-1.2426273 1.4212626 0.68330759 0
-0.28530872 0.7601279 0.44249749 0
-0.87053359 1.1402649 -0.050054379 0
-1.2697159 1.4085847 0.079225995 0
-1.2679048 1.4073672 0.226193 0
-1.2565261 1.3997189 0.37304237 0
-1.243209 1.3907675 0.52114618 0
-1.2376692 1.3870437 0.67553395 0
-0.28048718 0.74365151 0.43586186 0
-0.87932062 1.1223898 -0.049963173 0
-1.2493479 1.3644043 0.077748276 0
-1.2629197 1.3732808 0.22372204 0
-1.2466083 1.3626125 0.36785334 0
-1.233078 1.353763 0.51377445 0
-1.2458827 1.3621379 0.67323226 0
-0.29215729 0.73835838 0.4392648 0
-0.89225674 1.1072267 -0.05005781 0
-1.2808856 1.3544775 0.07850232 0
-1.2782531 1.3528026 0.22391377 0
-1.2531298 1.3368189 0.36631998 0
-1.2444675 1.3313079 0.5131107 0
-1.2393439 1.3280481 0.66525602 0
-0.30379808 0.73284161 0.44266289 0
-0.9080801 1.0937678 -0.050280973 0
-1.2947087 1.3329612 0.078512117 0
-1.2847497 1.3268 0.22302002 0
-1.2513173 1.3061166 0.36310023 0
-1.2302375 1.2930752 0.5048511 0
-1.2383343 1.2980844 0.65967339 0
-0.91190374 1.0729051 -0.050009638 0
-1.30064 1.3066862 0.078204386 0
-1.310474 1.3126003 0.2245855 0
-1.2551836 1.2793492 0.36118156 0
-1.2315171 1.2651165 0.50141507 0
-1.245671 1.2736285 0.65752012 0
-0.92057049 1.0550905 -0.049951453 0
-1.3338521 1.2965999 0.079040714 0
-1.3285844 1.2935215 0.22521409 0
-1.2515411 1.2484998 0.35777915 0
-1.2441437 1.244177 0.5014618 0
-1.2406214 1.2421186 0.65072882 0
-0.92569709 1.0353101 -0.0497576 0
-1.36248 1.2832286 0.079688139 0
-1.3781922 1.2921468 0.22976029 0
-1.2487341 1.2186662 0.35465503 0
-1.2428858 1.2153468 0.49751255 0
-1.2319586 1.2091445 0.64275599 0
-0.93691921 1.0190413 -0.049823742 0
-1.2444879 1.1885333 0.35133383 0
-1.2321969 1.1817601 0.49094939 0
-1.2424814 1.1874275 0.64228451 0
-0.9490211 1.0031867 -0.049933393 0
-1.245082 1.1615102 0.34910271 0
-1.2400079 1.1587968 0.48990548 0
-1.2339375 1.1555506 0.63472635 0
-0.95881188 0.98604256 -0.049957432 0
-1.2651583 1.1449389 0.35091358 0
-1.2373551 1.130518 0.48594439 0
-1.2362084 1.1299232 0.63142151 0
-0.96779442 0.96846956 -0.049957674 0
-1.2785118 1.1247001 0.35139817 0
-1.2355386 1.1030929 0.4823491 0
-1.2460042 1.108355 0.63106018 0
-0.98191178 0.95339423 -0.050170649 0
-1.2835225 1.1003177 0.35025749 0
-1.2491722 1.0835847 0.48325875 0
-1.2340939 1.0762397 0.62276918 0
-0.97911394 0.93017149 -0.049722183 0
-1.2939008 1.0786389 0.35025525 0
-1.2394959 1.0529791 0.47765714 0
-1.2411296 1.0537497 0.62164563 0
-0.99555969 0.91607451 -0.050042972 0
-1.2989293 1.0545148 0.34924674 0
-1.2378435 1.0266387 0.47444627 0
-1.2406381 1.027914 0.61787957 0
-1.0022194 0.8974092 -0.049987063 0
-1.310315 1.0333453 0.34955704 0
-1.2367585 1.0008911 0.47150412 0
-1.2387522 1.0017709 0.61374611 0
-1.0191207 0.88314879 -0.050338067 0
-1.3207341 1.0117127 0.34972858 0
-1.2509609 0.9819715 0.47290781 0
-1.2363306 0.97573531 0.60956031 0
-1.0129296 0.85911584 -0.049802721 0
-1.3265461 0.98815429 0.34905401 0
-1.2414137 0.95312631 0.46781796 0
-1.2355909 0.9507305 0.60611951 0
-1.0258788 0.84308076 -0.050016861 0
-1.3412936 0.96823883 0.35017425 0
-1.2367387 0.92675096 0.46419078 0
-1.2298424 0.92401451 0.60101599 0
-1.0341047 0.82507485 -0.05005718 0
-1.3476193 0.94493228 0.3497116 0
-1.2320961 0.90076745 0.46068081 0
-1.2321075 0.9007718 0.5989114 0
-1.0390397 0.80582446 -0.049980767 0
-1.3555712 0.92228872 0.3496201 0
-1.2310494 0.87647235 0.45825377 0
-1.2428166 0.88080192 0.5999139 0
-1.0378978 0.78447855 -0.049683772 0
-1.3756424 0.90394145 0.3519021 0
-1.241845 0.85661626 0.45912531 0
-1.2435557 0.85722131 0.59748262 0
-1.055118 0.76958627 -0.050090518 0
-1.3813671 0.88038152 0.35148594 0
-1.237296 0.83145452 0.45592609 0
-1.242027 0.83306116 0.59436941 0
-1.0558923 0.74903399 -0.049885184 0
-1.3767281 0.85350406 0.34916222 0
