# .PCD v0.7 - Point Cloud Data file format
VERSION 0.7
FIELDS x y z intensity
SIZE 4 4 4 4
TYPE F F F F
COUNT 1 1 1 1
WIDTH 1356
HEIGHT 1
VIEWPOINT 0 0 0 1 0 0 0
POINTS 1356
DATA ascii
-1.2591789 -0.38237712 0.20064127 0
-1.255703 -0.38104829 0.33196449 0
-1.2357242 -0.37341037 0.4616718 0
-1.0385672 -0.31937143 -0.050504215 0
-1.2637591 -0.40872869 0.2021279 0
-1.2390906 -0.39894006 0.33034399 0
-1.2392274 -0.39899442 0.46487391 0
-1.0146585 -0.33108309 -0.049869463 0
-1.2586778 -0.43148556 0.20253794 0
-1.250367 -0.42806605 0.3341977 0
-1.2402472 -0.42390224 0.46749619 0
-1.0121211 -0.35142103 -0.050066415 0
-1.2500365 -0.45283338 0.20256765 0
-1.2413887 -0.44914719 0.33417293 0
-1.235873 -0.44679609 0.46872327 0
-1.0046575 -0.36974075 -0.050082199 0
-1.2484051 -0.47728565 0.20345245 0
-1.2403762 -0.47374323 0.33577049 0
-1.2447513 -0.47567353 0.47373307 0
-0.9969492 -0.38796452 -0.050097503 0
-1.2404655 -0.49909118 0.20363344 0
-1.2417947 -0.49969772 0.3379204 0
-1.2364602 -0.49726334 0.47405833 0
-0.98040605 -0.40203676 -0.049773186 0
-1.2317988 -0.52060461 0.20376161 0
-1.2380049 -0.52353179 0.33910951 0
-1.2359811 -0.52257723 0.47666568 0
-0.9740386 -0.42081484 -0.049857989 0
-1.5069439 -0.68040878 0.083020665 0
-1.2435228 -0.55208856 0.20636043 0
-1.2348484 -0.54786301 0.34049302 0
-1.2419287 -0.55131209 0.48120311 0
-0.96084607 -0.43623176 -0.049680017 0
-1.4424071 -0.6783635 0.080923274 0
-1.235549 -0.57435399 0.20665385 0
-1.2386006 -0.57588845 0.34334159 0
-1.2466964 -0.57995898 0.48553541 0
-0.9476099 -0.45148811 -0.04950691 0
-1.3902968 -0.68110192 0.079310872 0
-1.2384181 -0.6023252 0.20829575 0
-1.2406489 -0.60348219 0.34593409 0
-0.94932497 -0.47460499 -0.049945693 0
-1.3543004 -0.69117254 0.078341357 0
-1.2465622 -0.63355774 0.21063437 0
-1.245648 -0.6330688 0.34921846 0
-0.93493438 -0.48920342 -0.049742837 0
-1.3077099 -0.69462895 0.076938391 0
-1.2425607 -0.65872711 0.21154702 0
-1.2417302 -0.65826946 0.35076597 0
-0.93834162 -0.51374304 -0.050276671 0
-1.2616332 -0.69724363 0.075548232 0
-1.2394649 -0.68466091 0.21261716 0
-1.2394563 -0.68465602 0.35273105 0
-0.92239749 -0.52741396 -0.050026998 0
-1.247404 -0.71733803 0.075466074 0
-1.2391206 -0.71249747 0.2140782 0
-1.2409575 -0.71357089 0.35556838 0
-0.90459299 -0.53976434 -0.04970507 0
-1.2497981 -0.74736625 0.076086313 0
-1.2431682 -0.74337918 0.2161449 0
-1.2392966 -0.7410509 0.35783812 0
-0.89637363 -0.55778134 -0.049789526 0
-1.2466222 -0.77446765 0.076493382 0
-1.2457025 -0.77389866 0.21808548 0
-1.2401586 -0.77046889 0.36073375 0
-0.88933265 -0.57662225 -0.049934078 0
-1.2528094 -0.80787092 0.077314302 0
-1.2356597 -0.79696006 0.21848843 0
-1.2342657 -0.79607314 0.36228767 0
-0.8815937 -0.59513223 -0.050060134 0
-1.2383459 -0.82846433 0.077278934 0
-1.2418319 -0.83074433 0.22101407 0
-1.2398748 -0.82946426 0.3664023 0
-0.87316656 -0.61329061 -0.050167643 0
-1.2405041 -0.86020511 0.077969395 0
-1.2403911 -0.86012918 0.22263022 0
-1.2366557 -0.85761827 0.36872447 0
-0.85416973 -0.62424541 -0.049827378 0
-1.242379 -0.89234692 0.078670852 0
-1.2337404 -0.88638109 0.22362815 0
-1.2374343 -0.88893205 0.37202045 0
-0.84503412 -0.64190507 -0.049921717 0
-1.2346201 -0.91826648 0.07897456 0
-1.243258 -0.92439395 0.22680879 0
-1.6023959 -1.1791562 0.45595998 0
-0.84408653 -0.66561556 -0.050388359 0
-1.2410736 -0.95480937 0.079923175 0
-1.2394814 -0.95364946 0.22831449 0
-1.5637395 -1.1898621 0.45142618 0
-0.82147217 -0.673536 -0.049906719 0
-1.2347153 -0.98261064 0.080329999 0
-1.2410222 -0.98732764 0.23059723 0
-0.81095803 -0.69032192 -0.049969487 0
-1.2425917 -1.0217074 0.081397161 0
-1.2438751 -1.0226928 0.23313712 0
-0.79192734 -0.70045763 -0.049655352 0
-1.161528 -0.991687 0.078454658 0
-1.1604091 -0.99080545 0.22395253 0
-1.1546693 -0.98628265 0.37043729 0
-0.78544891 -0.72046173 -0.049920123 0
-1.1501821 -1.0153747 0.078665659 0
-1.1437862 -1.0102031 0.22385685 0
-1.1309061 -0.9997887 0.36860734 0
-0.76872694 -0.73221439 -0.049724128 0
-1.2399476 -1.1231441 0.083582968 0
-1.2371838 -1.1208513 0.2391571 0
-1.3429693 -1.2086121 0.42205957 0
-0.76514876 -0.75497621 -0.050149117 0
-1.2414343 -1.1603401 0.084477916 0
-1.2392935 -1.1585181 0.24193494 0
-1.3185856 -1.2260032 0.42071056 0
-1.026101 -0.97707123 0.49468419 0
-0.74408293 -0.76287264 -0.04976353 0
-1.2863078 -1.2362583 0.41750884 0
-0.98653555 -0.97454423 0.48661727 0
-0.73502827 -0.78116399 -0.049953923 0
-1.1897832 -1.1883878 0.083747305 0
-1.1876719 -1.1864972 0.23973316 0
-1.1936235 -1.1918267 0.39967814 0
-0.97138906 -0.99282032 0.48681092 0
-0.71801341 -0.79233092 -0.049771767 0
-0.91500425 -0.97325295 0.47280082 0
-0.71273339 -0.81437904 -0.050169833 0
-0.89033115 -0.98166078 0.46965232 0
-0.68781602 -0.8178528 -0.049611721 0
-0.85465872 -0.97901672 0.46260098 0
-0.68125939 -0.83896512 -0.049971461 0
-0.83440006 -0.99066705 0.46098462 0
-0.66630244 -0.85191005 -0.049921777 0
-0.8233974 -1.0114977 0.46276677 0
-0.65652251 -0.87020212 -0.050146692 0
-0.64234471 -0.88403231 -0.050156835 0
-0.6227684 -0.89196247 -0.049890373 0
-0.60687661 -0.90375537 -0.049823321 0
-0.59044182 -0.91485494 -0.049733739 0
-0.57879865 -0.93152744 -0.049915407 0
-0.5594396 -0.93904597 -0.049678482 0
-0.54954797 -0.95808715 -0.049982857 0
-1.7498027 -2.4521067 0.13040189 0
-0.53247142 -0.96830398 -0.049889818 0
-1.6966852 -2.4554312 0.12931651 0
-0.51708126 -0.98062855 -0.049902014 0
-1.6847686 -2.5115206 0.13064089 0
-0.49924034 -0.98967451 -0.04977693 0
-1.6766878 -2.5743506 0.13225946 0
-0.4877128 -1.0072995 -0.050040998 0
-1.6704289 -2.6416576 0.13406514 0
-0.46963549 -1.0159582 -0.049917504 0
-0.45236498 -1.0256447 -0.049849465 0
-0.43997449 -1.0425599 -0.050101679 0
-0.42403102 -1.0543376 -0.050139792 0
-0.37423813 -0.97768062 0.49874577 0
-0.40734428 -1.0649952 -0.050138813 0
-0.35304248 -0.97904664 0.49532446 0
-0.38957983 -1.073903 -0.050073367 0
-0.32980263 -0.97659606 0.4905439 0
-0.36946809 -1.0787958 -0.049850795 0
-0.31189305 -0.98237199 0.48910069 0
-0.35088456 -1.0860162 -0.049736407 0
-0.28721648 -0.97627193 0.4831872 0
-0.33933955 -1.1055706 -0.050137877 0
-0.27210015 -0.98623365 0.48356807 0
-0.32255018 -1.1161336 -0.050176643 0
-0.25519919 -0.99299854 0.48280653 0
-0.30177957 -1.11926 -0.049923152 0
-0.22912987 -0.98237115 0.47557977 0
-0.28366953 -1.1271718 -0.049873989 0
-0.20542796 -0.97515458 0.46979916 0
-0.26610285 -1.1361022 -0.049874898 0
-0.18678881 -0.97711271 0.46757713 0
-0.24926396 -1.1465472 -0.04994465 0
-0.16890003 -0.9802435 0.46588889 0
-0.22952636 -1.1509192 -0.049783017 0
-0.14963229 -0.98013133 0.46310243 0
-0.21699519 -1.1709468 -0.050245561 0
-0.12828846 -0.97492677 0.45856106 0
-0.1958238 -1.1720451 -0.049974095 0
-0.11658157 -0.99090093 0.46183324 0
-0.17567261 -1.1750739 -0.049789254 0
-0.10267623 -1.0023154 0.46349457 0
-0.16062887 -1.1902909 -0.050085086 0
-0.075140253 -0.98064309 0.34903678 0
-0.086899832 -1.0094815 0.46368414 0
-0.14238097 -1.1979371 -0.050096318 0
-0.053031459 -0.97067803 0.34457958 0
-0.066315338 -1.0044653 0.45958892 0
-0.12517346 -1.2083617 -0.050222356 0
-0.031174792 -0.96014398 0.14671804 0
-0.032281324 -0.96306604 0.24270828 0
-0.013235552 -0.91277272 0.32714099 0
-0.050549552 -1.0113059 0.4598237 0
-0.10147698 -1.2012463 -0.049689595 0
-0.013536615 -0.95989376 0.14603268 0
-0.0084214043 -0.94585496 0.23829994 0
0.0045957728 -0.91012937 0.32492441 0
-0.085615173 -1.2153776 -0.049974184 0
0.010521935 -0.94083005 0.14323343 0
0.0075670048 -0.94926876 0.23790964 0
0.023311334 -0.90430623 0.32191887 0
-0.0045756833 -0.98394579 0.44603378 0
-0.070512131 -1.2324061 -0.050374232 0
0.026427226 -0.94397491 0.14299835 0
0.022253113 -0.95639437 0.23826559 0
0.02297421 -0.95424885 0.33399928 0
0.015417384 -0.97673339 0.4416053 0
-0.048843101 -1.2299826 -0.050050206 0
0.034839734 -0.97020799 0.14539374 0
0.037266299 -0.96267515 0.23849514 0
0.022098945 -1.0097588 0.34752199 0
0.021990495 -1.0100955 0.45146504 0
-0.031409606 -1.2405328 -0.050222334 0
0.023078041 -1.0637931 0.36059532 0
-0.011787279 -1.2440927 -0.050141852 0
0.065977022 -0.98008901 0.33698928 0
0.0099728871 -1.2398443 -0.049781274 0
0.084651664 -0.97401112 0.33418161 0
0.02697085 -1.2524337 -0.050054301 0
0.10391517 -0.9646681 0.33058324 0
0.050106123 -1.2416497 -0.049473409 0
0.11926292 -0.96931249 0.33074224 0
0.062577829 -1.2734525 -0.050468769 0
0.085656568 -1.2617705 -0.049874984 0
0.10474776 -1.2667288 -0.049900956 0
0.12402387 -1.2708755 -0.049906082 0
0.14183109 -1.2828765 -0.050205342 0
-0.06483306 -2.382802 0.10216123 0
0.16211827 -1.2819402 -0.050043192 0
0.0029852556 -2.191879 0.095022209 0
0.18134244 -1.2868729 -0.050102871 0
0.033880994 -2.1974974 0.095036834 0
0.20263524 -1.2782323 -0.049681261 0
0.06527032 -2.1999075 0.094949692 0
0.22051989 -1.2924362 -0.05009314 0
0.096981958 -2.1995325 0.094776601 0
0.24109522 -1.2872311 -0.04981431 0
0.12926994 -2.1935301 0.094415724 0
0.25969627 -1.2981125 -0.050122995 0
0.16189016 -2.1822543 0.093880542 0
0.27962744 -1.2976735 -0.050033618 0
0.19036053 -2.2095461 0.094744265 0
0.2990683 -1.302284 -0.050134264 0
0.22314671 -2.1934156 0.094064064 0
0.3195118 -1.2940947 -0.049785417 0
0.25302956 -2.210752 0.094597228 0
0.33878368 -1.3014073 -0.05000047 0
0.28440636 -2.2095137 0.094479114 0
0.35852084 -1.3021535 -0.049989387 0
0.31587154 -2.2047443 0.094248995 0
0.37797171 -1.3110285 -0.050277565 0
0.3470324 -2.2042153 0.094184607 0
0.39787519 -1.3087349 -0.050175581 0
0.37822556 -2.2003815 0.094016246 0
0.41782451 -1.2942975 -0.049648993 0
0.4374947 -1.3081664 -0.050141931 0
0.45735186 -1.3116249 -0.050272096 0
0.47705716 -1.3063731 -0.050100148 0
0.4966639 -1.301602 -0.049954142 0
0.51659 -1.3046596 -0.050096765 0
0.53616738 -1.3008795 -0.050003827 0
0.55499071 -1.288331 -0.049605612 0
0.57498932 -1.2916679 -0.049784929 0
0.59542954 -1.2979913 -0.050080709 0
0.6146124 -1.2917461 -0.049934402 0
0.63483828 -1.2943146 -0.050113842 0
0.65272141 -1.2795371 -0.049677238 0
0.67353535 -1.2855933 -0.050000634 0
0.69211638 -1.2769977 -0.049803749 0
0.7140736 -1.2877767 -0.050317876 0
0.73340464 -1.283131 -0.050282311 0
0.75047547 -1.2677021 -0.04986234 0
0.77029836 -1.2661033 -0.049954683 0
0.79087168 -1.2674127 -0.050163072 0
0.80926436 -1.2592773 -0.050034273 0
0.83141381 -1.2659023 -0.050458156 0
0.84762049 -1.2497072 -0.050049044 0
0.8646217 -1.2373058 -0.049786948 0
0.88684249 -1.242851 -0.050201021 0
0.90409911 -1.2316651 -0.050000895 0
0.92547327 -1.2334323 -0.050294932 0
0.93926013 -1.2124376 -0.049741246 0
0.95952076 -1.2107157 -0.049922284 0
0.97851586 -1.2052118 -0.04996983 0
0.99611062 -1.1959772 -0.049883973 0
0.92890018 -1.0218179 0.46466643 0
1.0183254 -1.1984345 -0.050255816 0
0.94084388 -1.0049489 0.46089724 0
1.0355963 -1.18829 -0.05015327 0
0.9564693 -0.99768561 0.46062255 0
1.0520959 -1.1765274 -0.049995713 0
0.97414327 -0.9952324 0.46215937 0
1.0735562 -1.1761782 -0.050291367 0
0.99168569 -0.99219066 0.46357134 0
1.0830011 -1.1492108 -0.049553238 0
1.0011805 -0.97139758 0.4585712 0
1.1030242 -1.1456952 -0.04974246 0
1.0289515 -0.98991555 0.46806675 0
1.121829 -1.1393884 -0.049831837 0
1.040285 -0.9733209 0.46473628 0
1.1359662 -1.1237247 -0.049556732 0
1.0603992 -0.97460514 0.46810594 0
1.1623751 -1.1319513 -0.050249357 0
1.0834702 -0.98098987 0.47350737 0
1.1772941 -1.1178175 -0.050053336 0
1.1045524 -0.98281568 0.47733206 0
1.1891241 -1.098398 -0.049647745 0
1.1291959 -0.99045414 0.057239931 0
1.1345365 -1.0000737 0.16142672 0
1.1269209 -0.98635644 0.26399845 0
1.127652 -0.98767322 0.37136427 0
1.1300642 -0.99201816 0.48409128 0
1.211979 -1.0988306 -0.050061744 0
1.140757 -0.97426623 0.056939032 0
1.1411017 -0.97486919 0.15941314 0
1.1432283 -0.9785884 0.26422161 0
1.1444552 -0.98073429 0.37192637 0
1.1476647 -0.98634738 0.48532203 0
1.2289016 -1.0886027 -0.050049074 0
1.1662819 -0.98221499 0.057641804 0
1.1612688 -0.97369784 0.16039188 0
1.1649323 -0.979922 0.26639396 0
1.1624877 -0.97576886 0.37313932 0
1.1658961 -0.98155934 0.48698798 0
1.2479912 -1.0819637 -0.050194971 0
1.2637066 -1.0697085 -0.05011585 0
1.2774882 -1.0545324 -0.049920604 0
1.289174 -1.0364182 -0.049605526 0
1.3127177 -1.036217 -0.050066262 0
1.3223736 -1.0154663 -0.049650352 0
1.3413675 -1.0082915 -0.049831562 0
1.3525572 -0.99025267 -0.049544025 0
1.3701439 -0.98104292 -0.049654577 0
1.3930836 -0.97862762 -0.05008271 0
1.4044496 -0.96112794 -0.049840901 0
1.2061177 -0.71104681 0.05044575 0
1.2060664 -0.71098197 0.13978329 0
1.4209561 -0.95021015 -0.049906116 0
1.2012812 -0.68026918 0.049480982 0
1.2100598 -0.69105661 0.13838269 0
1.4362677 -0.93778461 -0.049911514 0
1.2158022 -0.67373419 0.049630705 0
1.2133666 -0.67081714 0.1369303 0
1.4536893 -0.9278118 -0.050041284 0
1.2007064 -0.63245541 0.048157394 0
1.2123146 -0.64600807 0.13482143 0
1.4673635 -0.91343039 -0.04997335 0
1.2104625 -0.62103331 0.048077606 0
1.2073727 -0.61751658 0.13216043 0
1.4809431 -0.89901084 -0.049911041 0
1.20833 -0.59649932 0.047372635 0
1.2064296 -0.59439033 0.1302363 0
1.4983312 -0.88877207 -0.050059516 0
1.5122006 -0.87466449 -0.050030168 0
1.5243295 -0.85879153 -0.049921207 0
1.5479982 -0.85459906 -0.050407335 0
1.5552002 -0.83381492 -0.050067794 0
1.5588924 -0.81000942 -0.049572125 0
1.5743496 -0.79761976 -0.049670551 0
1.5905687 -0.78582305 -0.049812138 0
1.5950881 -0.76354414 -0.04940173 0
1.6246845 -0.76325971 -0.050191034 0
1.6355779 -0.74652833 -0.050100055 0
1.6341915 -0.719818 -0.049453083 0
1.6561731 -0.7123403 -0.049895484 0
1.6692605 -0.69754529 -0.049935576 0
1.6832883 -0.68342352 -0.050025795 0
1.693372 -0.66630745 -0.049948096 0
1.7036591 -0.64940125 -0.049889557 0
1.7208922 -0.63740343 -0.050143544 0
1.7281957 -0.61841953 -0.049972951 0
1.7300832 -0.59598511 -0.049582064 0
1.7510159 -0.5861609 -0.05001552 0
1.7610455 -0.56913143 -0.049991284 0
1.76695 -0.54960209 -0.049803726 0
1.780761 -0.53491026 -0.049955953 0
1.7806505 -0.51207274 -0.049541175 0
1.8052114 -0.50336576 -0.050150327 0
1.8067771 -0.48168239 -0.049825653 0
1.8130825 -0.4627507 -0.049705435 0
1.8294778 -0.44906387 -0.050000057 0
1.8291578 -0.42686859 -0.049633883 0
1.847194 -0.41375539 -0.050007753 0
1.8527657 -0.39456508 -0.049895406 0
1.860782 -0.37655517 -0.049888838 0
1.8712479 -0.35960928 -0.049986474 0
1.8895947 -0.34588608 -0.050396919 0
1.8949871 -0.32661238 -0.050313134 0
1.882467 -0.30042115 -0.049552772 0
1.9036393 -0.28743747 -0.050093301 0
1.9079521 -0.26796207 -0.04999771 0
1.9200146 -0.25124118 -0.050204653 0
1.9246737 -0.23190074 -0.05014012 0
1.9277645 -0.21210508 -0.050026227 0
1.9295005 -0.19197704 -0.049871523 0
1.9375523 -0.17379822 -0.049961675 0
1.9378662 -0.15340267 -0.049773313 0
1.9388839 -0.13332708 -0.049621064 0
1.958268 -0.11796147 -0.050154593 0
1.9484477 -0.095277108 -0.049622063 0
1.9717771 -0.08039964 -0.050314307 0
1.9594678 -0.057507258 -0.049711253 0
1.9685398 -0.039272051 -0.049898319 0
1.9825244 -0.021806519 -0.050271645 0
1.9771674 -0.00075079064 -0.04995152 0
1.9846513 0.018041525 -0.050105806 0
1.9816697 0.038473118 -0.049890772 0
1.9799649 0.058585066 -0.049731351 0
1.9965696 0.076386206 -0.050239671 0
1.9909165 0.096942432 -0.049956147 0
1.9884634 0.11699786 -0.049797006 0
1.9953946 0.13617401 -0.049983237 0
2.0031586 0.1554272 -0.050207753 0
2.0019574 0.17535067 -0.050120208 0
2.0051389 0.19502221 -0.05019829 0
1.9932323 0.2152271 -0.049746256 0
1.9966385 0.23482698 -0.049850207 0
2.0003169 0.25450158 -0.049972679 0
2.0087705 0.27429578 -0.050274488 0
2.0036082 0.29404882 -0.050099082 0
1.9968337 0.31363043 -0.049874894 0
1.9842367 0.33280018 -0.049451329 0
1.9988555 0.35321751 -0.05000928 0
1.9932773 0.37263152 -0.04985413 0
2.0056846 0.3934142 -0.050351836 0
1.9887494 0.41177338 -0.049807262 0
1.9904255 0.43174896 -0.049938515 0
1.9947971 0.45214489 -0.050175935 0
1.9888363 0.47133887 -0.050050866 0
1.9881253 0.49121243 -0.050123684 0
1.9823205 0.5103327 -0.050021552 0
1.9806542 0.53009343 -0.050077826 0
1.9788972 0.54988098 -0.05013996 0
1.9706655 0.56843638 -0.049975678 0
1.9601231 0.58638954 -0.049735166 0
1.9661884 0.60789198 -0.050109845 0
1.9713523 0.62945539 -0.050462484 0
1.9604515 0.64725274 -0.050234955 0
1.9479516 0.66446519 -0.049955882 0
1.9493842 0.68534338 -0.050200064 0
1.9423723 0.7039457 -0.050140902 0
1.9362289 0.7227723 -0.050122648 0
1.9276187 0.74080276 -0.050020766 0
1.9186277 0.75863403 -0.049912643 0
1.9167293 0.77884644 -0.050080515 0
1.9060819 0.79603148 -0.049926732 0
1.9030076 0.81594461 -0.050069217 0
1.8824645 0.82916427 -0.049552675 0
1.8795743 0.84912807 -0.049719647 0
1.8746883 0.86838698 -0.04981995 0
1.8808738 0.8925283 -0.050361063 0
1.8713101 0.91002381 -0.050300814 0
1.8584924 0.92596614 -0.05012079 0
1.862615 0.94989175 -0.050618291 0
1.8266648 0.95437878 -0.049534574 0
1.8166833 0.9712736 -0.049487151 0
1.8184836 0.99433959 -0.049923372 0
1.8053187 1.0096349 -0.04976641 0
1.7994342 1.0288786 -0.049913999 0
1.7927225 1.0477698 -0.050038531 0
1.7860758 1.0668052 -0.050176539 0
1.767295 1.0785567 -0.049818151 0
1.7587689 1.0964472 -0.049895335 0
1.7519636 1.1155163 -0.050055783 0
1.7393413 1.130868 -0.049978644 0
1.7267246 1.1461613 -0.049909402 0
1.7125026 1.1602752 -0.049777944 0
1.6996454 1.1752599 -0.049713079 0
1.6914241 1.1936138 -0.049861662 0
1.6754137 1.2062004 -0.049673062 0
1.6668017 1.2243769 -0.049824364 0
1.64841 1.2348878 -0.049540862 0
1.6392721 1.2527233 -0.049687546 0
1.6353753 1.2751021 -0.0500906 0
1.6270477 1.294041 -0.050302424 0
1.6060038 1.30194 -0.049921922 0
1.5943384 1.3179859 -0.049993828 0
1.5850427 1.3363096 -0.050191905 0
1.5728382 1.3520559 -0.050260186 0
1.5519066 1.3593372 -0.049903303 0
1.5432301 1.3785601 -0.050166212 0
1.5244663 1.3876764 -0.049928207 0
1.511066 1.4022115 -0.049971282 0
1.0269831 0.89150548 0.29347861 0
1.4929379 1.4116811 -0.049775839 0
1.0432297 0.92511326 0.30533564 0
1.4819531 1.4288758 -0.049964905 0
1.4441193 1.3868927 0.059947241 0
1.4352621 1.377064 0.166972 0
1.4352309 1.3770293 0.27612537 0
1.0504462 0.95004368 0.31308061 0
1.461772 1.4358104 -0.049670905 0
1.4080088 1.3746189 0.058762867 0
1.4099448 1.3768222 0.16514388 0
1.4179215 1.3859012 0.27524555 0
1.0537541 0.97141659 0.31912443 0
1.4556876 1.4588889 -0.05015095 0
1.3949218 1.3879451 0.058816075 0
1.3862464 1.3778167 0.16355564 0
1.3964593 1.3897402 0.27323207 0
1.0581936 0.99481654 0.32597303 0
1.4351711 1.4652153 -0.049850427 0
1.3692341 1.386243 0.058177479 0
1.3682369 1.3850485 0.16289927 0
1.3675019 1.3841683 0.26909238 0
1.0591451 1.0148509 0.33126694 0
1.4251511 1.4841092 -0.050143391 0
1.3422678 1.3822604 0.057455391 0
1.346458 1.3874094 0.16160628 0
1.3447322 1.3852888 0.26663628 0
1.0655131 1.0421789 0.33963031 0
1.4046133 1.4900784 -0.049850304 0
1.3210548 1.3847177 0.057049453 0
1.3166066 1.3791088 0.15890156 0
1.3225167 1.3865609 0.2643058 0
1.0532956 1.0470939 0.33835933 0
1.3919792 1.5059427 -0.050018232 0
1.2968179 1.3827981 0.056462087 0
1.2984333 1.3848884 0.15818669 0
1.2958094 1.381493 0.2606169 0
1.0480423 1.060867 0.34089008 0
1.3764769 1.5181992 -0.050030496 0
1.2757664 1.3844255 0.056052472 0
1.2668903 1.3726354 0.15508373 0
1.2807441 1.3910375 0.26033777 0
1.0401188 1.0714151 0.34208164 0
1.3583405 1.5268835 -0.049893182 0
1.2549615 1.3859055 0.055651885 0
1.2525808 1.3826588 0.1550312 0
1.251164 1.3807268 0.25566339 0
1.0293503 1.0782393 0.34176728 0
1.3452528 1.5424764 -0.050070245 0
1.2515897 1.4113163 0.056316271 0
1.2469236 1.4047822 0.15660095 0
1.2451946 1.4023609 0.25819314 0
1.0182378 1.0845444 0.34129924 0
1.3314201 1.5572221 -0.050216123 0
1.2409379 1.4270823 0.056557342 0
1.2397103 1.4253166 0.1579584 0
1.2452958 1.4333501 0.26277232 0
1.0091754 1.0937397 0.34206334 0
1.3121217 1.5640807 -0.050028302 0
1.2488134 1.4705333 0.057995629 0
1.2470577 1.4679389 0.16218244 0
1.2488257 1.4705515 0.26866516 0
0.99933147 1.1018867 0.34244588 0
1.2993872 1.5806713 -0.050268486 0
1.2423853 1.494114 0.058568384 0
1.2350689 1.4830042 0.16281362 0
1.2399697 1.4904461 0.27076247 0
1.1740777 1.3903894 0.34998286 0
0.996472 1.1206961 0.34712222 0
1.2779813 1.5840461 -0.04995323 0
1.2502724 1.5407944 0.060119387 0
1.2495883 1.5397265 0.16877581 0
1.2190444 1.4920497 0.26894927 0
1.1491706 1.3829813 0.34493619 0
0.98704064 1.129907 0.34798291 0
1.2627721 1.5969527 -0.050052755 0
1.243497 1.5660146 0.060751401 0
1.2451975 1.5687442 0.17116024 0
1.2058002 1.5055085 0.2697255 0
1.1284052 1.3812838 0.34174022 0
0.97641069 1.1373211 0.34817928 0
1.2391315 1.5960802 -0.049584422 0
1.1884446 1.5123944 0.26914525 0
1.1128275 1.3875477 0.3410216 0
0.96149379 1.1376902 0.34568614 0
0.83830416 0.93429959 0.47049153 0
1.2302979 1.619719 -0.050147347 0
1.1764283 1.5281973 0.27048126 0
1.0867655 1.3758646 0.33505341 0
0.95708174 1.1555382 0.35003194 0
0.83568203 0.94928622 0.47732538 0
1.2126682 1.6287801 -0.050111316 0
1.1588757 1.5346992 0.26990697 0
1.0722907 1.3832655 0.33483341 0
0.94054723 1.1528517 0.34649828 0
0.85374141 1.0010319 0.35733974 0
0.83711225 0.97194803 0.41381273 0
0.84162605 0.97984254 0.49476916 0
1.1994797 1.6457949 -0.05040941 0
1.1386952 1.5363086 0.26837325 0
1.0565424 1.3883332 0.33398753 0
0.93490469 1.169237 0.35032615 0
0.84960383 1.0155914 0.36175081 0
0.84030074 0.99883437 0.42631608 0
0.83432013 0.98806208 0.49688917 0
1.1725817 1.6378158 -0.049698655 0
1.1269413 1.5531117 0.2700147 0
1.0364887 1.38524 0.33083987 0
0.92619395 1.1805432 0.35223562 0
0.84750205 1.0344983 0.36820123 0
0.84250534 1.0252249 0.43843019 0
0.84246868 1.0251569 0.51850903 0
1.1610831 1.6582237 -0.050149787 0
1.1072735 1.5552746 0.2686964 0
1.0125649 1.3740771 0.32546273 0
0.90836906 1.1747286 0.34774673 0
0.85276049 1.0683377 0.38159794 0
0.83805937 1.0402113 0.44401076 0
0.83869112 1.04142 0.52597833 0
1.1418767 1.6641324 -0.050023548 0
1.0925974 1.5668871 0.26934728 0
1.0042076 1.3924639 0.32865804 0
0.8978793 1.1826416 0.34849042 0
0.85126048 1.0906466 0.38952661 0
0.836959 1.0624249 0.45364124 0
0.8421514 1.0726714 0.54339671 0
1.1260947 1.67682 -0.050177358 0
1.0785626 1.5800189 0.2703366 0
0.98579633 1.3910965 0.32624888 0
0.88595617 1.1877679 0.34824577 0
0.84460568 1.1035559 0.39307949 0
0.8456524 1.1056875 0.47495294 0
0.84045923 1.0951115 0.55485743 0
1.1033422 1.675108 -0.049768887 0
0.96655321 1.3874319 0.32327086 0
0.87210864 1.1888087 0.34655303 0
0.83952343 1.1202798 0.39839855 0
0.83918917 1.1195769 0.47980312 0
0.83802038 1.1171188 0.56597966 0
1.0920197 1.6975541 -0.050323475 0
0.9476108 1.3837235 0.32036602 0
0.86482191 1.2038059 0.35004526 0
0.84036005 1.1506451 0.40993342 0
0.84225798 1.1547698 0.49640357 0
0.83924365 1.148219 0.58299363 0
1.0680947 1.6926488 -0.049811758 0
0.927481 1.3766476 0.31660384 0
0.85545278 1.2147785 0.35208601 0
0.84153378 1.1834984 0.4225266 0
0.84161121 1.1836723 0.50944519 0
0.83957916 1.1791058 0.59976405 0
1.0533589 1.7082089 -0.050109863 0
0.91520667 1.3869073 0.31774694 0
0.84584308 1.2255878 0.35409945 0
0.83787429 1.2070549 0.4308551 0
0.8386544 1.2088692 0.52040267 0
0.83786017 1.2070221 0.61452365 0
1.0356429 1.7171465 -0.050157614 0
0.8952564 1.3789775 0.31390214 0
0.85347819 1.2783405 0.37125498 0
0.84156513 1.2496436 0.44769302 0
0.83733737 1.2394598 0.53424525 0
0.84038758 1.2468072 0.63684142 0
1.0172209 1.7244203 -0.050149739 0
0.880126 1.3820696 0.31317502 0
0.84845597 1.3029838 0.37821597 0
0.84363687 1.2909495 0.46385336 0
0.84253341 1.2881941 0.55780602 0
0.83460283 1.2683898 0.64739829 0
0.99411482 1.7195499 -0.049686067 0
0.86465085 1.3840755 0.31220663 0
0.85109121 1.3489391 0.39276588 0
0.83763677 1.3140751 0.47185537 0
0.83834153 1.3159015 0.56994063 0
0.83543444 1.3083684 0.6696443 0
0.97667229 1.7289937 -0.049780834 0
0.84859478 1.3842505 0.3107976 0
0.84496397 1.3744774 0.3999899 0
0.83890903 1.3581795 0.48911953 0
0.84102815 1.3638836 0.59286857 0
0.83849996 1.3570784 0.69730377 0
0.96009558 1.741069 -0.049983285 0
0.83374876 1.387406 0.31025729 0
0.83766675 1.3983731 0.40662846 0
0.83863211 1.4010752 0.50576776 0
0.83929366 1.4029272 0.61092645 0
0.93933398 1.7413971 -0.049749371 0
0.8151598 1.3794961 0.30678514 0
0.8404361 1.4531631 0.42413732 0
0.84078103 1.4541682 0.52680939 0
0.83965248 1.4508792 0.63363039 0
0.92213863 1.7520438 -0.049914099 0
1.0282822 2.0745685 0.34969169 0
0.79886115 1.3774569 0.30496716 0
0.84151685 1.5070691 0.44125196 0
0.83927864 1.5002682 0.54470408 0
0.83771658 1.4955217 0.65449482 0
0.9038192 1.7595215 -0.049967658 0
1.0073795 2.0880716 0.35085377 0
0.7829082 1.3759251 0.30334717 0
0.84143418 1.5616018 0.45851266 0
0.84004074 1.557181 0.56723022 0
0.84001601 1.5571024 0.68417537 0
0.88336706 1.760065 -0.049771082 0
0.98167932 2.0862336 0.34917143 0
0.77104765 1.3874248 0.30525944 0
0.84081137 1.6188785 0.47666186 0
0.84065419 1.6183572 0.59151047 0
0.86463726 1.7661041 -0.049788959 0
0.9602766 2.0984957 0.35020211 0
0.75490874 1.3847461 0.30344036 0
0.8407141 1.6829599 0.49710387 0
0.83940327 1.6784042 0.6152131 0
0.84595257 1.7723675 -0.049823824 0
0.73822057 1.3793936 0.047276501 0
0.74040401 1.3873582 0.13113952 0
0.73889989 1.3818716 0.2149758 0
0.74095595 1.3893715 0.30361372 0
0.83680463 1.7389985 0.51470131 0
0.83693957 1.7394906 0.63928711 0
0.82855874 1.7836931 -0.050054036 0
0.72512674 1.3868752 0.047413785 0
0.72596771 1.3901014 0.13102357 0
0.7235412 1.380792 0.21407218 0
0.72239643 1.3764002 0.29919341 0
0.83355755 1.8028711 0.53495157 0
0.82980853 1.7884878 0.6581229 0
0.80765885 1.7815279 -0.049795464 0
0.70915025 1.3831105 0.047143124 0
0.70931011 1.3837571 0.12992209 0
0.70858502 1.3808247 0.213414 0
0.70701504 1.3744748 0.29775137 0
0.82288867 1.843125 0.54705834 0
0.82470059 1.8504533 0.68246955 0
0.78819489 1.7847143 -0.049743529 0
0.69363487 1.3804892 0.046922568 0
0.69489932 1.3858947 0.12978318 0
0.69376743 1.3810558 0.21282946 0
0.69510359 1.3867679 0.30008993 0
0.81781232 1.9113227 0.56872338 0
0.77225834 1.8037287 -0.050279383 0
0.68035895 1.3873043 0.047054775 0
0.67822814 1.3776492 0.12852193 0
0.67903727 1.3813156 0.21228631 0
0.67875147 1.3800205 0.29748654 0
0.80374974 1.9464258 0.57907468 0
0.75134254 1.8006246 -0.050014686 0
0.6667822 1.3931401 0.047157031 0
0.66499013 1.3845043 0.12894452 0
0.66393018 1.3793968 0.21137752 0
0.66375518 1.3785534 0.29631951 0
0.790838 1.9909475 0.59265959 0
0.73202586 1.8047835 -0.050024383 0
0.65062928 1.3861152 0.046797525 0
0.64970171 1.3813443 0.12828784 0
0.65547538 1.4110414 0.21667239 0
0.64948535 1.3802315 0.29602197 0
0.77854156 2.04404 0.60917121 0
0.71075428 1.7982206 -0.049653865 0
0.63521266 1.3817415 0.046542421 0
0.63530689 1.382261 0.12809899 0
0.63646823 1.3886638 0.21207294 0
0.63441956 1.3773689 0.29459438 0
0.76339543 2.0884438 0.62275982 0
0.69315541 1.8119119 -0.050027125 0
0.62048632 1.3803971 0.046404567 0
0.62109441 1.3840082 0.12802082 0
0.62085992 1.3826157 0.2105135 0
0.61977673 1.3761835 0.29365286 0
0.74573791 2.1241505 0.63344985 0
0.67252845 1.8078613 -0.049766652 0
0.60720217 1.3877103 0.046586491 0
0.60699874 1.3864019 0.12803259 0
0.60627329 1.3817362 0.2099364 0
0.6068995 1.3857636 0.29554051 0
0.72538054 2.1477838 0.64012885 0
0.6533336 1.8125737 -0.049832035 0
0.59272826 1.3876052 0.046506606 0
0.59215885 1.3836126 0.12750101 0
0.59279835 1.388097 0.21071281 0
0.59079123 1.3740227 0.29197183 0
0.70662504 2.1862566 0.65186912 0
0.63453311 1.8207076 -0.050029192 0
0.57826072 1.3871294 0.046420071 0
0.57746994 1.3810368 0.12701367 0
0.57823813 1.3869553 0.2101544 0
0.57739383 1.3804502 0.29313546 0
0.68988425 2.2471869 0.67120367 0
0.61502719 1.824035 -0.050061818 0
0.5626381 1.3762754 0.045967173 0
0.56302798 1.3796077 0.12667118 0
0.56526268 1.3987072 0.21197137 0
0.56325388 1.3815384 0.2929692 0
0.66719055 2.269866 0.67776752 0
0.59475428 1.820259 -0.049848232 0
0.55104363 1.4009997 0.12881465 0
0.55199236 1.4100997 0.21375042 0
0.55351317 1.4246864 0.30363786 0
0.64512551 2.3034043 0.68805099 0
0.57573521 1.8285607 -0.050077058 0
0.55082017 1.5563971 0.14543362 0
0.5527938 1.5779567 0.24389385 0
0.55199921 1.5692766 0.34031501 0
0.62185264 2.3323309 0.69687468 0
0.55589145 1.8284971 -0.050014649 0
0.60263717 2.4212554 0.2385184 0
0.59877288 2.3722544 0.38733408 0
0.59772044 2.3589094 0.54204261 0
0.53502285 1.8123356 -0.049385268 0
0.57366121 2.3959663 0.39127177 0
0.57345289 2.3928201 0.55022395 0
0.51662749 1.8341029 -0.050121754 0
0.5488562 2.4357612 0.39816865 0
0.54826933 2.4248049 0.55798578 0
0.49657354 1.8281389 -0.049875278 0
0.52254111 2.4623191 0.40272903 0
0.52196747 2.4483097 0.56365931 0
0.47703499 1.8343345 -0.050072182 0
0.45653179 1.1108596 0.356617 0
0.45610523 1.0958079 0.42216778 0
0.45721492 1.8316708 -0.049961515 0
0.44576466 1.1043032 0.35380477 0
0.44591016 1.1135452 0.43092811 0
0.43747044 1.8292003 -0.049866661 0
0.43510851 1.079203 0.41369471 0
0.43517023 1.0987972 0.50085652 0
0.41769862 1.8363731 -0.050124962 0
0.42470574 1.0942997 0.42126468 0
0.42494181 1.0692993 0.48338175 0
0.39795598 1.8338124 -0.050044645 0
0.41389072 1.1107364 0.35651031 0
0.41399753 1.10589 0.42714748 0
0.4143253 1.0910164 0.49635875 0
0.37860805 1.8214027 -0.049621336 0
0.35238415 2.5784593 0.42359293 0
0.35208482 2.5871007 0.59895784 0
0.40505764 1.0578294 0.47684047 0
0.35887012 1.8235061 -0.049725201 0
0.32298923 2.5828562 0.42460215 0
0.32248199 2.5935912 0.60092139 0
0.39545289 1.0493015 0.47202018 0
0.33929402 1.8216289 -0.049695659 0
0.29208198 2.6100745 0.42980212 0
0.29247341 2.6035376 0.60386497 0
0.38607645 1.0403579 0.46702114 0
0.31867579 1.8343658 -0.050198022 0
0.26178285 2.6188061 0.43173441 0
0.26054546 2.6358674 0.61263353 0
0.29972374 1.8233352 -0.049858619 0
0.22973892 2.6447835 0.43685934 0
0.23037657 2.6372991 0.61360282 0
0.27848002 1.8381389 -0.050454084 0
0.19669345 2.6735988 0.4425779 0
0.19707036 2.6697485 0.62262207 0
0.26019886 1.8223135 -0.049959805 0
0.16636856 2.6705151 0.44259182 0
0.16601653 2.6736972 0.62444568 0
0.3451325 1.0545353 0.47746322 0
0.24003191 1.8245928 -0.050124299 0
0.13315274 2.6908057 0.44692266 0
0.13417016 2.68256 0.62763572 0
0.22038183 1.8221941 -0.050129667 0
0.1035258 2.6802275 0.44571844 0
0.10124324 2.6969874 0.63236737 0
0.20137042 1.8154632 -0.049987588 0
0.070199296 2.6955798 0.44930807 0
0.069777414 2.6984105 0.63386023 0
0.18319133 1.8041996 -0.049689945 0
0.036994949 2.7070117 0.45226541 0
0.036148325 2.71224 0.6386649 0
0.16293736 1.8060009 -0.049873445 0
0.0033738778 2.718401 0.45529789 0
0.0022820698 2.7246439 0.6432206 0
0.14300664 1.8053641 -0.049978066 0
-0.029218657 2.7219963 0.45698497 0
-0.028675986 2.7191079 0.64324039 0
0.12300588 1.8046854 -0.050090551 0
-0.090222433 2.8657503 0.10072926 0
-0.090541258 2.8673368 0.29133135 0
-0.061916545 2.7248948 0.45862353 0
-0.062027082 2.7254448 0.64645135 0
0.10483314 1.7950741 -0.049886398 0
-0.11352916 2.8150256 0.099125132 0
-0.11502947 2.8220334 0.28709882 0
-0.094915166 2.7280815 0.46039551 0
-0.095296815 2.7298639 0.64928001 0
0.085761413 1.7900535 -0.049858097 0
-0.14451416 2.8031631 0.098949961 0
-0.14419653 2.8017657 0.2856473 0
-0.13010682 2.7397771 0.46382305 0
-0.12721659 2.7270615 0.65033686 0
0.066598162 1.7854855 -0.049855132 0
-0.17306419 2.7816851 0.098435484 0
-0.17586733 2.7933369 0.28554055 0
-0.16067638 2.7301929 0.46339574 0
-0.16093279 2.7312589 0.65333903 0
0.049858406 1.7713695 -0.049509339 0
-0.20906021 2.7909825 0.099066176 0
-0.21054502 2.7968297 0.28679949 0
-0.19537474 2.7370896 0.46610525 0
-0.19720878 2.744312 0.65879351 0
0.025921928 1.7851008 -0.050199274 0
-0.25208002 2.8248065 0.1006221 0
-0.25113726 2.8212805 0.29044262 0
-0.2299896 2.7421899 0.46856996 0
-0.22888102 2.7380438 0.65928406 0
0.010239618 1.767639 -0.049746063 0
-0.26213634 2.7372129 0.46923715 0
-0.26171595 2.7357166 0.66092634 0
-0.0079660844 1.7598642 -0.049659036 0
-0.29544663 2.7358384 0.47066006 0
-0.29312742 2.7279649 0.66124171 0
-0.029848618 1.7642136 -0.050033171 0
-0.32673556 2.7272155 0.4707996 0
-0.32590067 2.7245073 0.66281015 0
-0.04747273 1.7544729 -0.049890649 0
-0.35856164 2.7201796 0.47131485 0
-0.36033595 2.7256875 0.66573852 0
-0.067460254 1.7520698 -0.050032228 0
-0.39336407 2.7217577 0.47354734 0
-0.39597303 2.7295201 0.66950965 0
-0.08575727 1.7445276 -0.049989536 0
-0.42306286 2.7078018 0.47290495 0
-0.42046225 2.7003751 0.66450393 0
-0.10403521 1.7370117 -0.049956378 0
-0.45681494 2.7052171 0.47451389 0
-0.45406365 2.6976662 0.66673726 0
-0.12136067 1.7270377 -0.049837995 0
-0.48792535 2.6950078 0.47474188 0
-0.48777795 2.6946187 0.66900396 0
-0.14165194 1.7248271 -0.05002518 0
-0.52062207 2.6887321 0.47580901 0
-0.52293998 2.6946278 0.67223603 0
-0.15924264 1.7156357 -0.049954019 0
-0.55404305 2.6838241 0.47722802 0
-0.54527742 2.6623278 0.66670436 0
-0.17831679 1.710076 -0.050031792 0
-0.57976139 2.6601641 0.47506538 0
-0.58010519 2.6609776 0.66979313 0
-0.195049 1.6990181 -0.049905073 0
-0.61052001 2.6487665 0.4753682 0
-0.61388564 2.65646 0.67213869 0
-0.21338202 1.6917068 -0.049932685 0
-0.63958192 2.6335044 0.47498423 0
-0.64010692 2.6346643 0.66977787 0
-0.23071487 1.6822041 -0.049883157 0
-0.66524339 2.6110871 0.47324601 0
-0.67142141 2.6242938 0.67071396 0
-0.2520231 1.6810012 -0.050171051 0
-0.70220959 2.6126099 0.47635698 0
-0.69903469 2.6060398 0.66953325 0
-0.27026236 1.6731844 -0.050207555 0
-0.73101676 2.5967929 0.47608629 0
-0.73068619 2.5961301 0.6708231 0
-0.2879771 1.6642853 -0.05021004 0
-0.76030624 2.581984 0.47609168 0
-0.75946403 2.5803475 0.67055017 0
-0.30330825 1.6508845 -0.050039575 0
-0.78281498 2.5543859 0.47356096 0
-0.7849437 2.5583968 0.66859812 0
-0.31742823 1.6355135 -0.049795587 0
-0.80970907 2.5355308 0.47286808 0
-0.81135249 2.5385356 0.66733319 0
-0.33599734 1.628383 -0.049894806 0
-0.61788476 2.1286793 0.082396075 0
-0.83949482 2.5219948 0.47334117 0
-0.83794475 2.5192435 0.66632301 0
-0.35331821 1.6189553 -0.049909547 0
-0.61832988 2.0757542 0.080763631 0
-0.85975015 2.4918888 0.47044083 0
-0.86598039 2.5026278 0.66619325 0
-0.37522906 1.6171882 -0.050251979 0
-0.6178956 2.0235941 0.079150908 0
-0.88818944 2.476269 0.47061482 0
-0.88491225 2.4707806 0.66164088 0
-0.38801539 1.6001006 -0.049966659 0
-0.620157 1.9779876 0.077800028 0
-0.9129957 2.4546793 0.46960205 0
-0.91571379 2.4591038 0.6631639 0
-0.40900236 1.5963638 -0.05024964 0
-0.62434387 1.937205 0.076643266 0
-0.93830621 2.4341426 0.46887222 0
-0.94305432 2.4416578 0.66307461 0
-0.42580664 1.5858154 -0.050256163 0
-0.62333548 1.8899146 0.075202197 0
-0.95463228 2.3999517 0.46526828 0
-0.95968831 2.4077356 0.65807635 0
-0.43833911 1.5688545 -0.049996521 0
-0.61264372 1.8299431 0.073204078 0
-0.98037624 2.380765 0.46493191 0
-0.97941351 2.379323 0.65479004 0
-0.44759774 1.5474391 -0.049548589 0
-0.622666 1.8026533 0.072597727 0
-0.99765587 2.349313 0.46198079 0
-1.0031031 2.357254 0.65351444 0
-0.47445875 1.5515473 -0.050216451 0
-0.61676741 1.7535053 0.071036823 0
-1.023391 2.3305674 0.46185446 0
-1.0199524 2.3256874 0.64935583 0
-0.48547906 1.5329571 -0.049904972 0
-0.61523259 1.7122592 0.069806598 0
-0.6198498 1.7186397 0.19891933 0
-1.0376251 2.2959502 0.45826554 0
-1.0431184 2.3035412 0.64819241 0
-0.077313736 0.96892619 0.44113776 0
-0.49609613 1.5141871 -0.049588718 0
-0.62646282 1.689642 0.069392525 0
-0.61283231 1.6712973 0.19437033 0
-1.0638809 2.2783442 0.45850515 0
-1.063835 2.2782826 0.64612114 0
-0.090281799 0.96801883 0.44460863 0
-0.5152517 1.5069741 -0.049794313 0
-0.61580229 1.6388005 0.067713477 0
-0.6237613 1.6492352 0.19318251 0
-1.0805657 2.2481267 0.45596111 0
-1.0837731 2.252332 0.6438911 0
-0.094461933 0.9552992 0.4407821 0
-0.53312564 1.4978838 -0.049927708 0
-0.62148678 1.6107533 0.067045242 0
-0.61822534 1.6065872 0.18919194 0
-1.0993612 2.2211738 0.45418742 0
-1.1004537 2.2225695 0.64048487 0
-0.10175391 0.94686407 0.43967345 0
-0.5550859 1.4937247 -0.050298538 0
-0.62194717 1.5769503 0.066109881 0
-0.6175257 1.5714467 0.18618621 0
-1.1089284 2.1831212 0.44988248 0
-1.1157668 2.1916335 0.63672835 0
-0.11777182 0.94937694 0.44563863 0
-0.57124436 1.482111 -0.05034107 0
-0.61519587 1.5354306 0.064807996 0
-0.61668396 1.5372359 0.18327738 0
-1.1283923 2.1580122 0.44858581 0
-1.1176517 2.1449823 0.62780005 0
-0.14286061 0.96241939 0.45862368 0
-0.59032047 1.4738961 -0.050552428 0
-0.62401819 1.5137433 0.064415522 0
-0.6197989 1.508754 0.18114229 0
-1.1457646 2.1307025 0.44681305 0
-1.1416065 2.1257856 0.62795746 0
-0.15577354 0.96004909 0.46185419 0
-0.59774721 1.4520202 -0.050131742 0
-0.61237025 1.4688767 0.062928438 0
-0.61400068 1.4707562 0.1776354 0
-1.1602046 2.100383 0.44435418 0
-1.1563621 2.0959535 0.62462586 0
-0.60839128 1.4342018 -0.049904671 0
-0.63099384 1.4596032 0.06311857 0
-0.63629282 1.4655583 0.17879704 0
-1.1769274 2.0731382 0.44265354 0
-1.171502 2.0670409 0.62163377 0
-0.62581277 1.4240425 -0.050051607 0
-0.66301632 1.4648075 0.064021945 0
-0.66197944 1.4636713 0.18049443 0
-1.1823275 2.0338316 0.4380393 0
-1.1773005 2.0283234 0.61528593 0
-0.6449101 1.4155173 -0.050290864 0
-0.50158024 1.2623843 0.054802679 0
-0.68748391 1.4610031 0.18214427 0
-1.1888759 1.9966878 0.43392131 0
-1.1959975 2.0042963 0.61402184 0
-0.65860224 1.4011129 -0.050253905 0
-0.51319897 1.2496336 0.054757651 0
-0.71877372 1.4637989 0.18467571 0
-1.2011806 1.9663643 0.4314788 0
-1.2030107 1.9682708 0.6085819 0
-0.66642404 1.3807777 -0.049927969 0
-0.51608229 1.2280502 0.054276861 0
-0.75021172 1.4658949 0.18719223 0
-1.2085931 1.9315503 0.42790839 0
-1.2061067 1.9290243 0.60195243 0
-0.68050778 1.3669648 -0.049933698 0
-0.52983797 1.2177105 0.054362141 0
-0.77351832 1.4591014 0.18844351 0
-1.2145218 1.8959615 0.42411754 0
-1.2278551 1.9091696 0.60228223 0
-0.70002759 1.358393 -0.050217871 0
-0.54647779 1.2100694 0.054596055 0
-0.80631852 1.4610661 0.19111109 0
-1.2267753 1.8672117 0.42207152 0
-1.219108 1.8598055 0.59187979 0
-0.70665419 1.3373971 -0.049871683 0
-0.55973691 1.1990137 0.054666154 0
-0.83560646 1.4588591 0.19322498 0
-1.2256973 1.826291 0.41683692 0
-1.2312353 1.8315073 0.58913541 0
-0.7244736 1.3270084 -0.050084919 0
-0.87772 1.4677542 0.069513343 0
-0.87643671 1.4665756 0.19700289 0
-1.2296529 1.7909793 0.41302198 0
-1.2256942 1.7873436 0.58042622 0
-0.23911704 0.88124311 0.38358092 0
-0.7312026 1.3064823 -0.049770582 0
-0.90087843 1.4584236 0.069902018 0
-0.89732766 1.4552439 0.19784792 0
-1.236557 1.759017 0.41007191 0
-1.2341385 1.7568513 0.57679594 0
-0.24187715 0.86830121 0.3808277 0
-0.74734211 1.2944622 -0.049917985 0
-0.93513715 1.4584154 0.070818111 0
-1.239185 1.7238623 0.4062272 0
-1.2336342 1.7190162 0.57030529 0
-0.22730125 0.84044403 0.36866635 0
-0.75688708 1.2766888 -0.049761798 0
-0.97814286 1.4649985 0.072134517 0
-1.247792 1.6944953 0.40394488 0
-1.2383008 1.6864173 0.56577671 0
-0.23528416 0.83275551 0.36909139 0
-0.24924047 0.84463364 0.45394602 0
-0.77129471 1.2630887 -0.049843237 0
-1.0062354 1.4579982 0.072741598 0
-1.2550284 1.6643995 0.40145218 0
-1.2355683 1.6482552 0.55897915 0
-0.2398956 0.82223409 0.36775061 0
-0.78847289 1.2516509 -0.050058957 0
-1.0544654 1.4667251 0.074271142 0
-1.2466099 1.6220878 0.39544234 0
-1.2424475 1.6187222 0.55556262 0
-0.24990745 0.81618196 0.3693698 0
-0.79185808 1.2291472 -0.0496522 0
-1.0803776 1.4564881 0.074766167 0
-1.2556006 1.5945565 0.393612 0
-1.237172 1.5800354 0.54835308 0
-0.26404899 0.8132562 0.37319025 0
-0.81290555 1.2205613 -0.050057143 0
-1.1280099 1.4624819 0.076239876 0
-1.2484486 1.5549482 0.38820809 0
-1.2421823 1.5501373 0.54467875 0
-0.26115084 0.79695314 0.36809877 0
-0.25514936 0.79234552 0.43979123 0
-0.81924391 1.2006136 -0.049807377 0
-1.1586294 1.4544482 0.076937921 0
-1.2607313 1.5308127 0.38734469 0
-1.2455928 1.5194904 0.54064977 0
-0.26249427 0.78420693 0.36535466 0
-0.27520132 0.79371083 0.44820023 0
-0.84378767 1.194142 -0.05037516 0
-1.2115271 1.4620297 0.078618109 0
-1.2562852 1.4946346 0.38282454 0
-1.2392228 1.4822053 0.53369272 0
-1.228765 1.474587 0.68981093 0
-0.25507849 0.76528418 0.35823134 0
-0.28062356 0.78389305 0.44746563 0
-0.84158218 1.1682005 -0.049770616 0
-1.2657229 1.469074 0.080335982 0
-1.2495222 1.4575816 0.37793353 0
-1.2425103 1.4526078 0.52996594 0
-1.231708 1.4449449 0.6848495 0
-0.27752745 0.76807576 0.36645314 0
-0.28514767 0.77348137 0.44626281 0
-0.85828006 1.1558282 -0.050005719 0
-1.2989544 1.4601628 0.081125528 0
-1.2488989 1.4255937 0.37453324 0
-1.2385824 1.4184692 0.52415031 0
-1.2473813 1.4245458 0.68522972 0
-0.28371286 0.75902581 0.44152713 0
-0.87059653 1.1403072 -0.050057091 0
-1.2741936 1.4115945 0.079418615 0
-1.2806686 1.4159467 0.22784579 0
-1.2494189 1.3949416 0.37149793 0
-1.2309264 1.3825114 0.51737034 0
-1.2283566 1.380784 0.67180085 0
-0.28909206 0.74943548 0.44104946 0
-0.88551092 1.1264385 -0.050227243 0
-1.2692968 1.3774518 0.078599282 0
-1.2811594 1.3852105 0.22606429 0
-1.2501556 1.3649325 0.36861777 0
-1.2425894 1.3599839 0.5166741 0
-1.2438214 1.3607897 0.67241287 0
-0.29648584 0.74118948 0.44185263 0
-0.89232445 1.1072698 -0.050060675 0
-1.2718277 1.3487148 0.078119047 0
-1.2760122 1.351377 0.22362836 0
-1.2474459 1.3332027 0.365105 0
-1.2381319 1.3272771 0.51119483 0
-1.2358582 1.3258305 0.66388154 0
-0.29989666 0.73035944 0.44034928 0
-0.90070069 1.0892024 -0.049971174 0
-1.2901731 1.3301553 0.078321703 0
-1.2892871 1.3296071 0.22359343 0
-1.2541924 1.3078953 0.36370996 0
-1.2365698 1.2969928 0.50675082 0
-1.2426212 1.3007365 0.66135049 0
-0.91364074 1.0739497 -0.050081998 0
-1.3052032 1.3094304 0.078394488 0
-1.3068179 1.3104014 0.22412699 0
-1.2466756 1.2742326 0.35939103 0
-1.2322465 1.2655553 0.50163227 0
-1.2418065 1.2713045 0.65601981 0
-0.92046177 1.055027 -0.049946956 0
-1.3306364 1.2947206 0.078907743 0
-1.336888 1.2983739 0.22624767 0
-1.2518251 1.2486657 0.35783842 0
-1.2375193 1.2403058 0.49950427 0
-1.2372451 1.2401456 0.64942777 0
-0.92022431 1.0322038 -0.049532931 0
-1.3835343 1.295179 0.080552444 0
-1.3637325 1.2839395 0.22797343 0
-1.2498683 1.2193099 0.35489023 0
-1.2446495 1.2163478 0.49802995 0
-1.2333226 1.2099187 0.64327782 0
-0.9443742 1.0231496 -0.050127637 0
-1.2514549 1.1923727 0.35276851 0
-1.2462106 1.1894826 0.49503165 0
-1.2360376 1.1838766 0.63983679 0
-0.94700098 1.0021063 -0.049851604 0
-1.2576002 1.1682045 0.3516629 0
-1.2317964 1.1544056 0.48752975 0
-1.2416676 1.1596843 0.63764274 0
-0.9591006 0.98619235 -0.049969044 0
-1.2659283 1.1453383 0.35106999 0
-1.245865 1.1349318 0.48839021 0
-1.2404399 1.132118 0.63300735 0
-0.96917057 0.96916151 -0.050012667 0
-1.2729493 1.1219033 0.35027531 0
-1.237862 1.1042612 0.48301262 0
-1.2405615 1.1056185 0.62903345 0
-0.96733928 0.94629562 -0.049591947 0
-1.2743435 1.0958464 0.34841609 0
-1.2380263 1.0781552 0.48009562 0
-1.2454042 1.0817492 0.62695479 0
-0.99147999 0.9360038 -0.050210308 0
-1.2925522 1.0780028 0.34998631 0
-1.2439641 1.0550865 0.47891757 0
-1.2310904 1.0490147 0.61795276 0
-0.99119055 0.91408068 -0.049871512 0
-1.3078586 1.0585896 0.35101688 0
-1.2420572 1.0285617 0.47562799 0
-1.2305933 1.0233302 0.61420625 0
-1.0038784 0.89814115 -0.050051797 0
-1.3052626 1.0311161 0.34856108 0
-1.2386218 1.0017133 0.47202379 0
-1.2368844 1.0009466 0.61306685 0
-1.0133746 0.88069946 -0.05011506 0
-1.3189198 1.0109392 0.34937286 0
-1.2363415 0.9757399 0.46885321 0
-1.2341145 0.97479069 0.60875881 0
-1.0112281 0.85841572 -0.049737033 0
-1.333012 0.99081469 0.35031497 0
-1.2469873 0.9554196 0.46935564 0
-1.2450264 0.95461273 0.60951394 0
-1.0301473 0.84477448 -0.050180811 0
-1.3382212 0.96701974 0.34957811 0
-1.2512094 0.93249303 0.46816278 0
-1.2431675 0.92930198 0.60578543 0
-1.0391115 0.82698894 -0.050248545 0
-1.3442736 0.94365317 0.3490656 0
-1.2377168 0.90291625 0.46221605 0
-1.2405008 0.90398055 0.60190094 0
-1.0397102 0.80607116 -0.050006274 0
-1.3570123 0.92281902 0.34989706 0
-1.238144 0.87908274 0.46018249 0
-1.2462571 0.88206786 0.60113358 0
-1.0493186 0.78851813 -0.050116263 0
-1.3686357 0.90146315 0.35056174 0
-1.2410346 0.85632962 0.45890597 0
-1.2323447 0.85325593 0.59352636 0
-1.0539156 0.76917797 -0.050045185 0
-1.3905497 0.88349992 0.35323489 0
-1.2455949 0.8342728 0.45816216 0
-1.2461792 0.83447129 0.59582829 0
-1.058049 0.74973625 -0.049966156 0
-1.3853391 0.85630792 0.35079545 0
-1.2291974 0.80546528 0.45187277 0
-1.2396163 0.80885792 0.59106708 0
-1.0641041 0.73094875 -0.04996847 0
-1.3751239 0.82790852 0.34748495 0
-1.2383382 0.78526586 0.45253006 0
-1.2433969 0.78684288 0.59004158 0
-1.0750811 0.71362293 -0.050162964 0
-1.39326 0.80843574 0.34958959 0
-1.2395021 0.76261806 0.45112911 0
-1.2384644 0.76230884 0.58609164 0
-1.0811718 0.69476187 -0.050183509 0
-1.3971229 0.78459531 0.34905657 0
-1.2391502 0.7396794 0.44940692 0
-1.2387563 0.7395674 0.58406985 0
-1.0788083 0.67359352 -0.049900092 0
-1.4029384 0.76135671 0.34894639 0
-1.2372967 0.71650666 0.44737017 0
-1.2387791 0.71690804 0.58206111 0
-1.0868928 0.65531653 -0.050012596 0
-1.4084467 0.738051 0.34883395 0
-1.231576 0.69254291 0.44439822 0
-1.2349494 0.69341087 0.57883358 0
-1.0919267 0.63621056 -0.050021116 0
-1.4199528 0.71622056 0.34988981 0
-1.2333536 0.67070645 0.44348389 0
-1.241668 0.6727345 0.57932967 0
-1.0883232 0.6151033 -0.049721979 0
-1.4331156 0.69461691 0.35130021 0
-1.2464077 0.65155965 0.44559684 0
-1.2387366 0.64979059 0.57661861 0
-1.094715 0.59638166 -0.049798567 0
-1.4288442 0.66901785 0.34953934 0
-1.2420175 0.62840366 0.44321248 0
-1.2402484 0.62801909 0.57552618 0
-1.1078751 0.57898408 -0.050130181 0
-1.4344645 0.64568603 0.3496632 0
-1.2392616 0.60581821 0.44133583 0
-1.239979 0.60596472 0.57392502 0
-1.1062568 0.5585202 -0.049931813 0
-1.4348266 0.6213277 0.34887531 0
-1.2289013 0.58196419 0.43756241 0
-1.2317994 0.58251816 0.56974244 0
-1.1107413 0.53928232 -0.049964551 0
-1.44121 0.59814984 0.34924844 0
-1.2390174 0.5621326 0.43918183 0
-1.2383702 0.56201726 0.5706538 0
-1.1157477 0.52010411 -0.050024882 0
-1.4435885 0.5742538 0.34894213 0
-1.2284325 0.53871632 0.43550947 0
-1.2407284 0.54074723 0.57022995 0
-1.1155862 0.5000928 -0.0499072 0
-1.4474012 0.55061555 0.34895301 0
-1.2248458 0.51672888 0.43372637 0
-1.2451357 0.51981825 0.57058668 0
-1.1259216 0.48162544 -0.05017719 0
-1.4550817 0.52751112 0.34972242 0
-1.2395371 0.49746373 0.43672618 0
-1.2375867 0.49719182 0.56701517 0
-1.1214978 0.46109465 -0.049924001 0
-1.4499527 0.50267303 0.34821492 0
-1.2454154 0.47678113 0.43751723 0
-1.2402894 0.47613221 0.56698281 0
-1.1298991 0.44220009 -0.050141305 0
-0.50865394 0.37149358 0.039818861 0
-0.50734562 0.37134466 0.10766122 0
-0.50454217 0.37102559 0.17609306 0
-1.2383335 0.45454147 0.43504611 0
-1.2435267 0.45513254 0.56721842 0
-1.1178187 0.42107812 -0.04963192 0
-0.51017499 0.35965922 0.039827719 0
-0.51000798 0.35964236 0.10781135 0
-0.51358163 0.36000356 0.17750166 0
-1.2297386 0.43239066 0.43226206 0
-1.2367935 0.43310374 0.56420815 0
-1.132939 0.40271747 -0.05010752 0
-0.46826822 0.34397891 0.038285438 0
-0.50949192 0.34762195 0.10763433 0
-0.51330858 0.34795922 0.17724779 0
-1.2388526 0.41207734 0.43408832 0
-1.2363764 0.4118585 0.56340349 0
-1.1314486 0.38275993 -0.049996238 0
-0.51139373 0.33582425 0.10773437 0
-0.50403351 0.33526713 0.17539348 0
-1.2356433 0.39064705 0.43282518 0
-1.2374605 0.39078462 0.56318974 0
-1.1301094 0.36288741 -0.049899444 0
-0.50822419 0.32368147 0.10730426 0
-0.5149982 0.32410854 0.17722698 0
-1.2376381 0.36966643 0.43296251 0
-1.2327586 0.36935881 0.56113589 0
-1.2407156 0.36986044 0.70016432 0
-1.1315788 0.34322172 -0.049912054 0
-0.51077682 0.31192619 0.10750659 0
-0.50766104 0.3117691 0.17577979 0
-1.2437994 0.34887892 0.43423161 0
-1.2358927 0.34848034 0.56178349 0
-1.2379173 0.34858239 0.69850862 0
-0.3426922 0.30345279 0.46633512 0
-1.1352524 0.32362729 -0.050012261 0
-0.5125379 0.30009162 0.10763964 0
-0.5179314 0.30029547 0.17753911 0
-1.2437692 0.32772872 0.43398613 0
-1.2473477 0.32786396 0.56528866 0
-1.231889 0.32727969 0.6956265 0
-0.35269564 0.29405034 0.4720163 0
-1.1370378 0.30391148 -0.050053813 0
-0.40791684 0.28554413 0.35409075 0
-0.40302974 0.28542101 0.42420301 0
-0.38174105 0.28488475 0.48906234 0
-1.1307751 0.28406185 -0.049816877 0
-0.39620745 0.27481005 0.42068976 0
-0.37802064 0.27458102 0.48674089 0
