# .PCD v0.7 - Point Cloud Data file format
VERSION 0.7
FIELDS x y z intensity
SIZE 4 4 4 4
TYPE F F F F
COUNT 1 1 1 1
WIDTH 1352
HEIGHT 1
VIEWPOINT 0 0 0 1 0 0 0
POINTS 1352
DATA ascii
-0.61207497 -0.018474143 0.044637103 0
-0.61762679 -0.019977372 0.12292492 0
-1.2411926 -0.1888174 0.31872535 0
-1.2345688 -0.18702392 0.44664913 0
-1.2381445 -0.18799208 0.58184236 0
-1.0824194 -0.16637246 -0.050229814 0
-0.68925393 -0.054584902 0.04763696 0
-0.69095325 -0.055068087 0.13152693 0
-1.237061 -0.21034129 0.31904548 0
-1.2327237 -0.20910804 0.44770235 0
-1.2376295 -0.21050291 0.58368015 0
-1.069629 -0.18325411 -0.049959857 0
-0.78669488 -0.098943688 0.051419817 0
-0.77842939 -0.096480675 0.14179745 0
-1.2420998 -0.23464803 0.32114342 0
-1.2432653 -0.23499532 0.45213094 0
-1.2378784 -0.23339011 0.58588821 0
-1.0579413 -0.20028336 -0.049738005 0
-0.87028122 -0.14178072 0.05472029 0
-0.86400568 -0.13982432 0.15195312 0
-1.2360812 -0.25581816 0.32121852 0
-1.2472787 -0.2593089 0.45491934 0
-1.2378377 -0.25636569 0.58810425 0
-1.0614353 -0.22209479 -0.050093301 0
-0.99206328 -0.19950597 0.059488639 0
-0.98578858 -0.19746278 0.16630423 0
-1.2390609 -0.27993295 0.32305104 0
-1.2384681 -0.27973989 0.45436025 0
-1.232402 -0.27776465 0.58854288 0
-1.0576718 -0.24170946 -0.050186805 0
-1.1235811 -0.26409242 0.064671844 0
-1.1235812 -0.26409248 0.18261608 0
-1.229061 -0.29991379 0.32247701 0
-1.2246482 -0.29841515 0.45251825 0
-1.0519105 -0.26069078 -0.050214414 0
-1.2946819 -0.34656098 0.20289312 0
-1.2441428 -0.32868484 0.32674649 0
-1.2312376 -0.32412019 0.45625469 0
-1.0388707 -0.27701816 -0.049974337 0
-1.2512168 -0.35514858 0.19881235 0
-1.2387339 -0.35055563 0.3271676 0
-1.2374713 -0.35009107 0.45999962 0
-1.0319802 -0.29551849 -0.049975976 0
-1.2515286 -0.37945238 0.19976108 0
-1.2341992 -0.37282732 0.32781258 0
-1.2430962 -0.37622872 0.46368539 0
-1.0247277 -0.31387982 -0.04997265 0
-1.2547898 -0.40516964 0.20109086 0
-1.2393832 -0.39905623 0.33040076 0
-1.2458528 -0.40162334 0.46669245 0
-1.0148025 -0.33114234 -0.049875025 0
-1.2453191 -0.42598906 0.20098551 0
-1.235498 -0.42194816 0.33129796 0
-1.2418759 -0.42457238 0.46794549 0
-1.0074575 -0.34943315 -0.049885422 0
-1.2533054 -0.45422676 0.20294955 0
-1.2415228 -0.44920436 0.33419925 0
-1.2457333 -0.45099911 0.47145796 0
-1.0021408 -0.36863032 -0.049983993 0
-1.2492416 -0.47765473 0.20355071 0
-1.2377756 -0.47259572 0.33525786 0
-1.2445319 -0.47557673 0.47367185 0
-1.0018632 -0.39020696 -0.050290342 0
-1.2417154 -0.49966154 0.20378108 0
-1.2366418 -0.49734619 0.33689886 0
-1.2347571 -0.49648616 0.47358072 0
-0.98327577 -0.40339026 -0.049886461 0
-1.2207558 -0.5153963 0.20244947 0
-1.239638 -0.52430195 0.33943513 0
-1.2448343 -0.52675277 0.47916305 0
-0.98491013 -0.42611071 -0.05028972 0
-1.4961519 -0.67515165 0.082592092 0
-1.247474 -0.55401331 0.20683277 0
-1.2382103 -0.54950076 0.34116745 0
-1.235806 -0.54832953 0.47946554 0
-0.97275126 -0.4422178 -0.050155751 0
-1.4551845 -0.68478805 0.081433855 0
-1.2385058 -0.57584071 0.20700952 0
-1.2464457 -0.57983291 0.34492522 0
-1.2454263 -0.57932037 0.48517272 0
-0.95870936 -0.4572452 -0.049953304 0
-1.3996797 -0.68596864 0.079688236 0
-1.2340499 -0.60005945 0.20776691 0
-1.2448119 -0.60564148 0.34677988 0
-0.94838262 -0.47410104 -0.049907539 0
-1.3488121 -0.68823755 0.078119159 0
-1.2397776 -0.62992954 0.20980752 0
-1.2486252 -0.6346609 0.34982735 0
-0.94094455 -0.49251547 -0.04998783 0
-1.3140407 -0.69811755 0.077196449 0
-1.2412918 -0.65802783 0.2113913 0
-1.2367274 -0.65551257 0.3497358 0
-0.93417311 -0.51137704 -0.050105549 0
-1.2698818 -0.70192558 0.075886853 0
-1.2398227 -0.68486398 0.21266137 0
-1.2466946 -0.68876445 0.35423207 0
-0.91817474 -0.52494633 -0.049852386 0
-1.2452393 -0.71607298 0.075376555 0
-1.2477579 -0.71754479 0.21515332 0
-1.2384124 -0.71208358 0.35503674 0
-0.90410304 -0.53946966 -0.049684659 0
-1.2511925 -0.74820489 0.076144405 0
-1.2462595 -0.74523824 0.21653257 0
-1.2450479 -0.74450964 0.35904849 0
-0.90093172 -0.56060123 -0.049980875 0
-1.2497907 -0.77642792 0.076626398 0
-1.2457045 -0.77389997 0.21808574 0
-1.2395755 -0.77010816 0.3606101 0
-0.89849234 -0.58244979 -0.050321665 0
-1.2549367 -0.80922431 0.07740432 0
-1.2378939 -0.79838151 0.21877301 0
-1.2316703 -0.79442185 0.36173287 0
-0.87017643 -0.58766484 -0.049573082 0
-1.2371472 -0.82768041 0.077227801 0
-1.235652 -0.8267023 0.22022046 0
-1.240176 -0.82966131 0.36646718 0
-0.87131143 -0.61204368 -0.050087843 0
-1.2343142 -0.85604447 0.077703126 0
-1.2457031 -0.86369973 0.22331807 0
-1.2427636 -0.86172384 0.37005171 0
-0.85510862 -0.62489384 -0.049868118 0
-1.2352732 -0.88743967 0.078362554 0
-1.2349252 -0.88719922 0.22378288 0
-1.2366644 -0.8884005 0.37185174 0
-0.84880555 -0.64458042 -0.050086796 0
-1.2337248 -0.91763133 0.07893537 0
-1.2350736 -0.9185881 0.22573039 0
-1.6028014 -1.1794438 0.45604965 0
-0.83640218 -0.66001773 -0.050048944 0
-1.2335716 -0.94934434 0.079591811 0
-1.2415502 -0.95515651 0.22858955 0
-1.5654112 -1.19108 0.45179921 0
-0.81880283 -0.67153955 -0.049787711 0
-1.2384843 -0.98542947 0.080498025 0
-1.240026 -0.98658258 0.23046353 0
-0.80944192 -0.6891579 -0.049901247 0
-1.2361079 -1.0167295 0.081105322 0
-1.2402605 -1.0199177 0.23264737 0
-0.79924154 -0.70622087 -0.0499878 0
-1.1531936 -0.98511988 0.078075841 0
-1.1585205 -0.98931724 0.22369413 0
-1.1553916 -0.98685175 0.37060314 0
-0.78613436 -0.72101593 -0.049951594 0
-1.1413624 -1.0082433 0.078260735 0
-1.1379204 -1.0054601 0.22304615 0
-1.1433284 -1.009833 0.37148845 0
-0.77216125 -0.73506349 -0.049883436 0
-1.2426509 -1.1253868 0.083708368 0
-1.2469057 -1.1289166 0.24051465 0
-1.339888 -1.2060558 0.42133752 0
-0.75853574 -0.74934787 -0.049839091 0
-1.2439613 -1.1624908 0.084596388 0
-1.2385718 -1.1579038 0.24183308 0
-1.316775 -1.2244622 0.42028177 0
-1.0291908 -0.97970086 0.49571934 0
-0.74317861 -0.76208311 -0.049720667 0
-1.2902013 -1.2396574 0.41844097 0
-0.99048209 -0.97798973 0.4879539 0
-0.73969495 -0.78534287 -0.050177563 0
-1.1948241 -1.1929017 0.083988883 0
-1.1982714 -1.1959888 0.24126224 0
-1.19937 -1.1969726 0.40106931 0
-0.97133732 -0.99277395 0.48679319 0
-0.72425127 -0.79806012 -0.050074141 0
-0.9139334 -0.97226948 0.47242987 0
-0.7168951 -0.818299 -0.050373945 0
-0.8945061 -0.98559326 0.47111562 0
-0.70418656 -0.83366627 -0.050424315 0
-0.85975027 -0.98393506 0.46440709 0
-0.68518245 -0.84285134 -0.050168607 0
-0.82672524 -0.98306423 0.45822844 0
-0.67070353 -0.856381 -0.050145756 0
-0.82319725 -1.0112945 0.46269396 0
-0.65750957 -0.87123042 -0.050197575 0
-0.64589417 -0.88782448 -0.050342269 0
-0.61842394 -0.88720208 -0.04966028 0
-0.60642338 -0.90324599 -0.04979898 0
-0.6000253 -0.92590207 -0.050255857 0
-0.5805372 -0.9335832 -0.050011523 0
-0.57168925 -0.9539066 -0.050366037 0
-0.54723674 -0.95521027 -0.049851108 0
-0.53157192 -0.96715492 -0.04983772 0
-0.52460784 -0.99049622 -0.050345086 0
-0.5020318 -0.99343151 -0.049944032 0
-0.48761898 -1.0071698 -0.050035287 0
-0.47391224 -1.0220275 -0.050182577 0
-0.45577198 -1.0306113 -0.050064489 0
-0.44103163 -1.0441433 -0.05016965 0
-0.42197454 -1.0511717 -0.050005008 0
-0.38183945 -0.98938304 0.50338829 0
-0.40353459 -1.0589652 -0.04988417 0
-0.35584623 -0.98348445 0.49707088 0
-0.39275014 -1.0790638 -0.050289601 0
-0.3366794 -0.98779017 0.49491471 0
-0.36693925 -1.0745606 -0.049674693 0
-0.31273937 -0.98378938 0.48964995 0
-0.35630435 -1.0953583 -0.050121993 0
-0.293257 -0.98668391 0.48719195 0
-0.3411513 -1.1087861 -0.050269645 0
-0.27728981 -0.99544436 0.48708534 0
-0.31825119 -1.1082739 -0.049856812 0
-0.25998825 -1.001754 0.48612672 0
-0.29873145 -1.1135166 -0.049691021 0
-0.23257203 -0.98885697 0.47802261 0
-0.28071481 -1.121431 -0.049643483 0
-0.21448459 -0.99275082 0.47638321 0
-0.26679009 -1.1374798 -0.049929857 0
-0.18991007 -0.98336941 0.46990335 0
-0.24840494 -1.1447695 -0.049874164 0
-0.16449024 -0.97111791 0.46251696 0
-0.23103954 -1.1541539 -0.049910512 0
-0.14635141 -0.97311777 0.46052641 0
-0.21676321 -1.1704342 -0.050225474 0
-0.12873532 -0.97591418 0.45892164 0
-0.19965984 -1.180814 -0.050315805 0
-0.11445393 -0.98603719 0.46006703 0
-0.17729981 -1.1789249 -0.049938511 0
-0.10034819 -0.99680561 0.46150458 0
-0.15469278 -1.1757336 -0.049523819 0
-0.072915271 -0.97518665 0.34753338 0
-0.083732024 -1.001713 0.46089295 0
-0.14333142 -1.2003547 -0.050189056 0
-0.051411435 -0.96655744 0.34344998 0
-0.063584045 -0.99751836 0.45710546 0
-0.12265153 -1.2017022 -0.049968127 0
-0.028479887 -0.95302778 0.14590026 0
-0.029824032 -0.95657712 0.24145691 0
-0.01368968 -0.91397196 0.32746813 0
-0.05087252 -1.0121589 0.46012709 0
-0.10204233 -1.202798 -0.049748555 0
-0.010946555 -0.95278531 0.14521959 0
-0.01023878 -0.9508428 0.23925734 0
0.0035030113 -0.91312844 0.32573879 0
-0.087898031 -1.2218968 -0.050220788 0
0.0068273707 -0.95138103 0.14443484 0
0.011892216 -0.93691689 0.23554936 0
0.022296237 -0.90720516 0.32270253 0
-0.0055757598 -0.9868018 0.4470405 0
-0.066257194 -1.2197461 -0.049897414 0
0.025333004 -0.94723052 0.14336747 0
0.023928123 -0.95141059 0.23731735 0
0.025102483 -0.94791645 0.33229488 0
0.012791323 -0.98454684 0.44434771 0
-0.047018453 -1.2243184 -0.049837753 0
0.036000207 -0.96660548 0.144987 0
0.039044932 -0.95715386 0.23744899 0
0.020131605 -1.0158659 0.34915894 0
0.021100985 -1.0128567 0.45243016 0
-0.03308861 -1.2459788 -0.050425798 0
0.024992274 -1.0575839 0.35893762 0
-0.012697143 -1.2471817 -0.050256815 0
0.065287396 -0.98243028 0.337612 0
0.010520952 -1.2378933 -0.049708929 0
0.083744124 -0.97724169 0.33503771 0
0.027674066 -1.2498038 -0.049957108 0
0.10200457 -0.97181362 0.33247033 0
0.047732785 -1.2509959 -0.04981767 0
0.11782517 -0.97497445 0.33223262 0
0.064443275 -1.2656984 -0.050184038 0
0.085041627 -1.2644761 -0.049974039 0
0.10381834 -1.2710699 -0.050059456 0
0.1235119 -1.273423 -0.049998853 0
0.14197277 -1.2821225 -0.05017795 0
-0.065199181 -2.3847504 0.10223201 0
0.16210203 -1.2820332 -0.050046559 0
0.0013974176 -2.2009583 0.095351271 0
0.181486 -1.2859863 -0.050070811 0
0.033727542 -2.1984448 0.095071107 0
0.20157318 -1.2853584 -0.049938481 0
0.064998046 -2.2017343 0.095015638 0
0.22024527 -1.2944525 -0.050165791 0
0.096052602 -2.2063565 0.09502247 0
0.24054316 -1.2917051 -0.04997525 0
0.12938918 -2.1925638 0.09438096 0
0.26076812 -1.2884233 -0.049774967 0
0.15974541 -2.2016423 0.094576947 0
0.28036782 -1.2901105 -0.04976232 0
0.19135831 -2.1993537 0.094378643 0
0.30024046 -1.2885258 -0.049641304 0
0.22240008 -2.202179 0.094378069 0
0.31879508 -1.3039768 -0.050139148 0
0.25420415 -2.194557 0.094017521 0
0.3380869 -1.3130437 -0.050416652 0
0.28404385 -2.2155678 0.094695635 0
0.35878718 -1.2965168 -0.049787924 0
0.31618193 -2.1981752 0.094014205 0
0.37813035 -1.3064487 -0.050113965 0
0.34730065 -2.1964707 0.093907952 0
0.39792228 -1.3065982 -0.050099283 0
0.37819272 -2.2018719 0.094069466 0
0.41770047 -1.3074347 -0.050118029 0
0.43748268 -1.3043461 -0.050005537 0
0.45732254 -1.3097628 -0.050205611 0
0.47705045 -1.3061361 -0.05009168 0
0.49649939 -1.2975839 -0.04981057 0
0.51650143 -1.3030062 -0.050037649 0
0.53657705 -1.307067 -0.050225213 0
0.55562085 -1.296322 -0.049891781 0
0.57552958 -1.2975701 -0.049996525 0
0.59473425 -1.2913226 -0.049841337 0
0.61455733 -1.2912755 -0.049917486 0
0.63554132 -1.2997313 -0.050308842 0
0.65478289 -1.2939922 -0.050198521 0
0.67387348 -1.2877678 -0.0500792 0
0.69176596 -1.2749169 -0.049728416 0
0.71317518 -1.2828233 -0.050138146 0
0.73109436 -1.2712481 -0.049850132 0
0.75095963 -1.2700351 -0.049947407 0
0.76994807 -1.264516 -0.049896654 0
0.79216534 -1.2729428 -0.050365832 0
0.81004858 -1.2624489 -0.050150912 0
0.82974797 -1.2595112 -0.050222363 0
0.84959853 -1.2569225 -0.050316148 0
0.86677802 -1.2448001 -0.050065361 0
0.88647437 -1.2416297 -0.050155479 0
0.90503895 -1.2346469 -0.050112512 0
0.92417443 -1.2294856 -0.050146598 0
0.94116277 -1.2179829 -0.049950548 0
0.95768905 -1.2055885 -0.049727906 0
0.97679532 -1.2005805 -0.049793445 0
0.99955535 -1.2049034 -0.050225552 0
0.92743099 -1.0180107 0.46330875 0
1.0140212 -1.1876858 -0.049842451 0
0.94031221 -1.0036212 0.46042141 0
1.0289674 -1.1723222 -0.049536027 0
0.95593208 -0.99639148 0.46015635 0
1.050262 -1.172262 -0.049829956 0
0.97590595 -0.99933177 0.46364394 0
1.0695925 -1.1672707 -0.049943291 0
0.99297839 -0.99509567 0.4646292 0
1.0898455 -1.1640853 -0.050137799 0
1.0099983 -0.99056047 0.46558917 0
1.1099136 -1.1601839 -0.05031522 0
1.0227988 -0.97697586 0.46329987 0
1.1221488 -1.1400398 -0.049857739 0
1.0525542 -0.99830753 0.47399732 0
1.1384629 -1.1286516 -0.049753927 0
1.0627718 -0.97928697 0.46985215 0
1.1590079 -1.1255091 -0.049989842 0
1.085466 -0.98480827 0.47494075 0
1.1773614 -1.1179423 -0.050058398 0
1.0991507 -0.97279054 0.47354341 0
1.1904043 -1.1007038 -0.049741901 0
1.1276338 -0.98764032 0.057125036 0
1.1268339 -0.98619956 0.1597213 0
1.1328787 -0.99708754 0.26621205 0
1.1307249 -0.99320823 0.37297946 0
1.1258094 -0.98435432 0.48117498 0
1.2125502 -1.0998296 -0.050102826 0
1.1349418 -0.96409565 0.056520768 0
1.1474588 -0.98598748 0.16078953 0
1.1468725 -0.98496217 0.26554576 0
1.1403039 -0.97347373 0.36979255 0
1.1480571 -0.98703378 0.48558506 0
1.2279038 -1.0869075 -0.049978849 0
1.1598829 -0.97134322 0.057191424 0
1.1630328 -0.97669476 0.16076559 0
1.1649283 -0.9799152 0.26639256 0
1.1615877 -0.97423977 0.37268659 0
1.1624062 -0.97563034 0.48469907 0
1.246452 -1.0794225 -0.050088905 0
1.2604927 -1.0645499 -0.049898863 0
1.2806647 -1.0594906 -0.050130825 0
1.294412 -1.0443721 -0.049945533 0
1.319568 -1.0463395 -0.050502628 0
1.3220009 -1.0149304 -0.049627043 0
1.3439318 -1.0118824 -0.049989093 0
1.3559437 -0.99487084 -0.04974848 0
1.3717591 -0.98318833 -0.049750447 0
1.3934914 -0.97915536 -0.050106518 0
1.4119328 -0.97056371 -0.050270848 0
1.2117748 -0.71817982 0.050770774 0
1.2053839 -0.71012145 0.13966526 0
1.425029 -0.95521504 -0.050136488 0
1.2077639 -0.68823534 0.049847659 0
1.2033832 -0.68285227 0.13724591 0
1.4315774 -0.93216711 -0.049650248 0
1.2082137 -0.66464537 0.049207993 0
1.2093856 -0.66604912 0.13626276 0
1.4494398 -0.92285043 -0.049808063 0
1.2089951 -0.64213246 0.048612285 0
1.2065519 -0.63928008 0.13386939 0
1.4650183 -0.91076106 -0.049846493 0
1.2122262 -0.62304074 0.048173007 0
1.2152835 -0.62652051 0.1334485 0
1.4797779 -0.89771789 -0.049848903 0
1.2074822 -0.59555852 0.047327422 0
1.2037835 -0.59145415 0.12981151 0
1.4997109 -0.89026493 -0.050132092 0
1.5141741 -0.87674659 -0.050132588 0
1.522123 -0.85652155 -0.049808186 0
1.5366377 -0.84320265 -0.049832843 0
1.5509024 -0.82961076 -0.04985315 0
1.5676183 -0.81833273 -0.050002646 0
1.5771253 -0.80020148 -0.049805887 0
1.5950876 -0.78992122 -0.050029937 0
1.6039571 -0.77138609 -0.049824391 0
1.6216638 -0.76065606 -0.05004866 0
1.6411102 -0.75117701 -0.050358031 0
1.647781 -0.73094833 -0.05008021 0
1.6500663 -0.70746565 -0.049616519 0
1.6758078 -0.70263773 -0.050231703 0
1.6851555 -0.68483841 -0.050109435 0
1.6959056 -0.66817755 -0.050060518 0
1.7001698 -0.64689285 -0.049736138 0
1.710844 -0.63037026 -0.049705669 0
1.7326852 -0.6214785 -0.050166905 0
1.7249399 -0.59257478 -0.049361743 0
1.74748 -0.58387995 -0.049865302 0
1.7647684 -0.57146716 -0.050148185 0
1.7590107 -0.54475921 -0.04947171 0
1.7769984 -0.53267956 -0.049799789 0
1.8003504 -0.52341896 -0.050352804 0
1.8057275 -0.5036543 -0.050171435 0
1.8146275 -0.48594424 -0.050144564 0
1.8197185 -0.46624586 -0.049973201 0
1.8291621 -0.44890258 -0.049987398 0
1.8297131 -0.42714337 -0.049656 0
1.8504436 -0.41531315 -0.05013641 0
1.853736 -0.39501527 -0.049933594 0
1.8721757 -0.38166812 -0.050334685 0
1.8803865 -0.36357281 -0.050342102 0
1.8908526 -0.34641299 -0.050445613 0
1.8787504 -0.32005104 -0.049687926 0
1.8970848 -0.3061153 -0.050112844 0
1.9034975 -0.28738424 -0.050087895 0
1.9027369 -0.26608041 -0.049799774 0
1.9049677 -0.24602537 -0.049636099 0
1.916154 -0.22906716 -0.049819574 0
1.9306583 -0.21302722 -0.050134659 0
1.9380133 -0.19457217 -0.050189249 0
1.928516 -0.17116739 -0.049625672 0
1.939405 -0.15382974 -0.049830329 0
1.9347169 -0.13222693 -0.049467202 0
1.9545925 -0.1170404 -0.050019313 0
1.9461937 -0.094742365 -0.049539357 0
1.9637148 -0.078593798 -0.050019346 0
1.9706899 -0.059872907 -0.050120704 0
1.9742048 -0.040391933 -0.05010448 0
1.9808327 -0.021494191 -0.05021023 0
1.979581 -0.0011650728 -0.050038952 0
1.9793831 0.018877629 -0.04991537 0
1.990846 0.037134979 -0.050221846 0
1.9871361 0.057631377 -0.04998963 0
1.9891188 0.077281736 -0.049971752 0
1.9992867 0.096043162 -0.050256692 0
1.9910729 0.11675069 -0.049890585 0
1.9890373 0.13669549 -0.04975551 0
1.9931974 0.15611815 -0.049851276 0
2.0002608 0.17544691 -0.050059538 0
2.007561 0.1949154 -0.050284844 0
2.0020654 0.21494895 -0.05006177 0
2.0087371 0.23459844 -0.050282221 0
1.9828227 0.25461173 -0.049348097 0
1.9980838 0.27422848 -0.049892951 0
2.0020263 0.29401892 -0.050042599 0
1.9900377 0.31341645 -0.049632147 0
1.9957089 0.33330607 -0.049861297 0
2.0000627 0.353286 -0.050052453 0
1.9987037 0.37300792 -0.050048329 0
1.9973599 0.39273134 -0.050053634 0
1.9892478 0.41182059 -0.049825132 0
1.9962307 0.43237266 -0.050146963 0
1.9958657 0.45227334 -0.050214361 0
1.9940128 0.4720273 -0.050237302 0
1.9864732 0.49097151 -0.050064076 0
1.9942269 0.51222235 -0.050451949 0
1.978068 0.52964956 -0.049984146 0
1.9905323 0.55202919 -0.050562371 0
1.9749371 0.56928086 -0.050131131 0
1.9614154 0.58666199 -0.049782321 0
1.9590718 0.60629791 -0.049849473 0
1.9604481 0.62686837 -0.050062384 0
1.9446781 0.64330006 -0.049654409 0
1.9519935 0.66553235 -0.050105132 0
1.9480201 0.68496484 -0.050149523 0
1.9467982 0.70523423 -0.050305471 0
1.9287905 0.72050476 -0.049845025 0
1.9300315 0.74157161 -0.050111171 0
1.9214991 0.75958908 -0.05002068 0
1.9151407 0.77829581 -0.050020494 0
1.9079257 0.79669672 -0.049996711 0
1.9026185 0.81579864 -0.050054379 0
1.9024427 0.83694649 -0.050318129 0
1.8879464 0.85251129 -0.050042022 0
1.8774722 0.86955297 -0.049927708 0
1.8657926 0.8859874 -0.049774185 0
1.8628345 0.90622032 -0.049969152 0
1.8549416 0.92431873 -0.049981046 0
1.8457092 0.94178784 -0.049948972 0
1.8311875 0.95661724 -0.049714733 0
1.8272278 0.97665888 -0.04990986 0
1.8127213 0.99130458 -0.049690858 0
1.8153288 1.0150691 -0.050173052 0
1.807217 1.0332315 -0.050232362 0
1.7840434 1.0427711 -0.049680963 0
1.7732836 1.0592215 -0.049645614 0
1.777174 1.0845827 -0.050231282 0
1.7589493 1.0965605 -0.049902938 0
1.7497841 1.1141104 -0.049963191 0
1.7408501 1.1318685 -0.050043281 0
1.7330115 1.1504449 -0.050181001 0
1.7108951 1.1591501 -0.049707893 0
1.7128093 1.1847233 -0.050291881 0
1.6966976 1.1975064 -0.050095666 0
1.6827328 1.2117467 -0.050000913 0
1.6652414 1.2231634 -0.049753796 0
1.6598321 1.2440051 -0.050062627 0
1.6499503 1.2614691 -0.050180312 0
1.6238602 1.2654263 -0.049553633 0
1.6124644 1.2814703 -0.049615052 0
1.6080712 1.3037679 -0.050020449 0
1.5908414 1.3148147 -0.049825288 0
1.5866312 1.3377869 -0.050269354 0
1.5723996 1.3516376 -0.050238546 0
1.5584404 1.3657286 -0.050229616 0
1.5408686 1.3761913 -0.050046805 0
1.5244395 1.3876487 -0.049926836 0
1.5103353 1.4014407 -0.049933363 0
1.0238098 0.88815767 0.29194397 0
1.4989005 1.4181323 -0.050089467 0
1.0487918 0.93113118 0.30806196 0
1.4796183 1.4262849 -0.049840391 0
1.4420146 1.3845571 0.27795294 0
1.0566123 0.95688605 0.316145 0
1.4679222 1.4428104 -0.05000357 0
1.4102567 1.3771772 0.27315119 0
1.0602499 0.97881001 0.32239869 0
1.4526978 1.4553983 -0.049986865 0
1.3936355 1.3864434 0.2724492 0
1.0530403 0.98880017 0.32333753 0
1.4362429 1.4664991 -0.049910132 0
1.3700951 1.3872741 0.26982209 0
1.0597025 1.0155184 0.33155629 0
1.4269264 1.4862907 -0.050243802 0
1.3415009 1.3813182 0.26571304 0
1.0632099 1.0393487 0.33841631 0
1.4102764 1.4972192 -0.050175678 0
1.0514828 1.0448081 0.33738872 0
1.3924727 1.5065813 -0.050047044 0
1.0473751 1.0600036 0.34052706 0
1.3767812 1.5186033 -0.050048556 0
1.0384051 1.0691388 0.34113368 0
1.3594793 1.5284365 -0.049961939 0
1.0311558 1.0807015 0.34278309 0
1.3443556 1.5412199 -0.050015125 0
1.0237849 1.0923122 0.34447485 0
1.3233784 1.5456558 -0.049713198 0
1.0200617 1.1093974 0.34840789 0
1.3093771 1.560025 -0.04985347 0
1.0092285 1.116511 0.34832072 0
1.2870606 1.5619534 -0.049468346 0
0.9288556 1.0180209 0.10297955 0
1.1686054 1.3820798 0.34744439 0
0.99143791 1.1130519 0.34407714 0
1.2732639 1.5766827 -0.049641024 0
1.149786 1.3839418 0.34522721 0
0.98210692 1.1222057 0.34494007 0
1.2580775 1.5894176 -0.049735803 0
1.1290036 1.3822443 0.34202898 0
0.97836924 1.1404648 0.34941152 0
1.2414289 1.5998733 -0.049742743 0
1.1107061 1.3840452 0.33997688 0
0.97165972 1.1544745 0.35221457 0
0.84376663 0.94331825 0.47674459 0
1.2290256 1.6175575 -0.050057802 0
1.0898964 1.381184 0.33662817 0
0.95780432 1.1567659 0.35050589 0
0.84295666 0.96164548 0.48583043 0
1.2095751 1.6233703 -0.049888838 0
1.0709907 1.3809919 0.33416528 0
0.94649994 1.1632626 0.35048816 0
0.84780085 0.99064207 0.35238451 0
0.83710444 0.97193438 0.41380486 0
0.83892769 0.97512323 0.4915452 0
1.1919191 1.6321765 -0.049853314 0
1.054266 1.3842329 0.332791 0
0.93402189 1.1676469 0.34972107 0
0.85411292 1.0237132 0.36559701 0
0.84188551 1.001689 0.4279497 0
0.8408556 0.99983394 0.50487417 0
1.1786562 1.6490896 -0.050155852 0
1.0390083 1.3899161 0.33219507 0
0.92087096 1.1706642 0.34850219 0
0.85412639 1.0467925 0.37398335 0
0.83910853 1.0189208 0.43484727 0
0.8384425 1.0176847 0.51347536 0
1.1582317 1.6527684 -0.049930021 0
1.0100553 1.3692758 0.3240805 0
0.91109061 1.1799355 0.3497014 0
0.84397745 1.0515338 0.37374747 0
0.8382811 1.0406355 0.44425026 0
0.84148502 1.0467653 0.52955526 0
1.144246 1.6688077 -0.050210673 0
0.84984475 1.087853 0.10521354 0
0.99955505 1.3832828 0.32603204 0
0.89966077 1.186157 0.34980157 0
0.8497231 1.0876129 0.38811842 0
0.83936542 1.0671736 0.45630488 0
0.83900708 1.0664665 0.53927141 0
1.1228626 1.6702375 -0.049915552 0
0.83261698 1.0791404 0.10354916 0
0.98505604 1.3895888 0.32582036 0
0.88413608 1.1840613 0.34687194 0
0.85036701 1.1152891 0.39849147 0
0.83741087 1.0889034 0.46559736 0
0.84060681 1.095412 0.55505604 0
1.1044821 1.6775054 -0.049863659 0
0.96182001 1.3774775 0.32045874 0
0.87192744 1.1884276 0.34641263 0
0.84172624 1.1249125 0.40052241 0
0.83912373 1.1194392 0.47972685 0
0.83806539 1.1172135 0.56604183 0
1.0883416 1.689561 -0.050009347 0
0.94457191 1.3771194 0.31851128 0
0.86867255 1.2121741 0.35310993 0
0.83782113 1.1451274 0.40741867 0
0.83967656 1.1491598 0.49331379 0
0.84303892 1.1564668 0.58837801 0
1.0656551 1.6871663 -0.04959752 0
0.93053252 1.3835052 0.31851882 0
0.85234249 1.2077887 0.34954071 0
0.84280866 1.1863635 0.42382497 0
0.83980531 1.1796139 0.50722271 0
0.84102857 1.182363 0.60187835 0
1.0500795 1.7005817 -0.049813461 0
0.9139331 1.3839453 0.3169243 0
0.84980321 1.2347981 0.35743487 0
0.83913058 1.2099767 0.43217191 0
0.84159404 1.215706 0.52412623 0
0.8368845 1.2047529 0.61305881 0
1.0324688 1.7095007 -0.049862061 0
0.89584339 1.3803915 0.31429273 0
0.85229552 1.2754915 0.37022874 0
0.83766097 1.2402391 0.44347703 0
0.8388539 1.2431127 0.53622419 0
0.83895457 1.2433553 0.63462484 0
1.0165998 1.7228693 -0.050090089 0
0.87919343 1.3797408 0.31253499 0
0.85110277 1.3095933 0.38058469 0
0.84336376 1.2902676 0.4635492 0
0.8412652 1.2850271 0.55609918 0
0.83954126 1.280722 0.65527648 0
0.99500734 1.7218626 -0.049774569 0
0.86573929 1.386896 0.31297794 0
0.84761739 1.3399376 0.38955587 0
0.84300375 1.3279824 0.47802737 0
0.84206313 1.325545 0.57511252 0
0.83843595 1.3161461 0.67458838 0
0.98074281 1.7399502 -0.050198119 0
0.85338092 1.3971332 0.3143039 0
0.84447443 1.3731598 0.39952224 0
0.84023225 1.3617413 0.49069273 0
0.84006858 1.3613007 0.59148997 0
0.83947009 1.3596898 0.69895583 0
0.96005249 1.7409484 -0.049978714 0
0.83280796 1.3847728 0.30954388 0
0.83989859 1.4046203 0.40883553 0
0.83766234 1.3983607 0.5045743 0
0.84048063 1.4062496 0.6126917 0
0.93890512 1.7401472 -0.049702194 0
0.81442201 1.377346 0.30620518 0
0.83857596 1.4477417 0.42223045 0
0.84128648 1.4556414 0.5274542 0
0.84297013 1.4605484 0.63874513 0
0.92225522 1.7523981 -0.049927413 0
1.0286885 2.075803 0.34992608 0
0.80049026 1.3824069 0.30629674 0
0.84031689 1.5034229 0.4399749 0
0.83904749 1.4995658 0.54439795 0
0.84180385 1.5079411 0.66103661 0
0.90259695 1.7556437 -0.049822506 0
1.0064006 2.0849657 0.35026646 0
0.78343034 1.3775816 0.3037903 0
0.84043622 1.5584357 0.45740825 0
0.84342283 1.5679108 0.57188821 0
0.83838934 1.5519419 0.68146807 0
0.88679701 1.7714444 -0.050195396 0
0.98195356 2.0871432 0.34934279 0
0.7672773 1.374916 0.30192623 0
0.83937293 1.6141063 0.47500363 0
0.83953017 1.614628 0.58989781 0
0.86585116 1.770323 -0.049945693 0
0.96051043 2.0993083 0.35035464 0
0.75477403 1.3842778 0.30331609 0
0.84200621 1.6874506 0.49865857 0
0.83976406 1.6796581 0.61575329 0
0.84616566 1.7731448 -0.049852602 0
0.73875982 1.3813607 0.047349315 0
0.73452318 1.3659067 0.12874909 0
0.74061042 1.3881111 0.21614261 0
0.74025601 1.3868183 0.30293828 0
0.83787513 1.7429034 0.51604837 0
0.83597589 1.7359756 0.63777804 0
0.82723409 1.7786111 -0.049866542 0
0.72165549 1.3735576 0.046922445 0
0.72400963 1.3825892 0.13018925 0
0.72358787 1.3809711 0.21410556 0
0.72515607 1.3869874 0.30198482 0
0.83144307 1.7947588 0.53216243 0
0.83216459 1.797527 0.66199046 0
0.80791408 1.7825603 -0.049833432 0
0.71034241 1.3879322 0.047320448 0
0.70623416 1.3713164 0.12854484 0
0.71039605 1.3881493 0.21477476 0
0.71287656 1.3981817 0.30398193 0
0.82272983 1.8424826 0.54683822 0
0.82620829 1.8565512 0.68507028 0
0.7886551 1.7866815 -0.049815655 0
0.6946038 1.3846313 0.047074437 0
0.6935181 1.3799902 0.1291315 0
0.69435376 1.3835623 0.21329369 0
0.69358379 1.380271 0.29838762 0
0.81761813 1.9104925 0.56843972 0
0.7693302 1.7904605 -0.04979429 0
0.67937994 1.3828684 0.046892595 0
0.67844343 1.3786248 0.12862931 0
0.68133062 1.3917073 0.21420553 0
0.67898661 1.381086 0.29776493 0
0.80587876 1.9560732 0.58236158 0
0.74960208 1.7922373 -0.049708873 0
0.66429543 1.3811567 0.046720095 0
0.66518855 1.3854607 0.12904948 0
0.66349959 1.3773218 0.21099533 0
0.66644216 1.3915015 0.29969344 0
0.79390347 2.0057194 0.59767878 0
0.73090154 1.7990006 -0.049814064 0
0.65185785 1.3924344 0.047027349 0
0.65055144 1.385715 0.12876636 0
0.65074915 1.3867317 0.2122061 0
0.64903504 1.377915 0.2954199 0
0.77741688 2.038255 0.60721058 0
0.71322304 1.8118315 -0.05014772 0
0.63651961 1.3889471 0.046803869 0
0.63696265 1.3913898 0.12909606 0
0.63528675 1.3821503 0.21087907 0
0.63546878 1.3831538 0.29609439 0
0.7633208 2.0880322 0.6226207 0
0.69322675 1.8123355 -0.050042462 0
0.62179428 1.388164 0.046685759 0
0.62133527 1.3854383 0.12817667 0
0.61820132 1.3668287 0.20762625 0
0.6211037 1.3840631 0.29569155 0
0.74536377 2.1219289 0.63270032 0
0.67204797 1.8047709 -0.049654998 0
0.60557508 1.3772453 0.046208389 0
0.60669351 1.3844385 0.12781906 0
0.60493279 1.3731142 0.20836277 0
0.60613811 1.3808665 0.29427609 0
0.7265954 2.1555972 0.64275956 0
0.6530565 1.8106308 -0.04976197 0
0.59395701 1.3962215 0.046817333 0
0.59085065 1.3744394 0.12650518 0
0.59344828 1.3926543 0.21154304 0
0.59333539 1.3918624 0.29656938 0
0.71019328 2.2112775 0.66027766 0
0.63482404 1.8229491 -0.050109889 0
0.5776605 1.3825048 0.046253581 0
0.57773024 1.3830423 0.12723102 0
0.57702607 1.3776163 0.20845601 0
0.57836783 1.3879545 0.29506609 0
0.6867227 2.2228277 0.66303146 0
0.61404681 1.8156563 -0.049760643 0
0.56323403 1.3813691 0.046150263 0
0.56182581 1.3693331 0.12555943 0
0.5632875 1.3818259 0.2089061 0
0.56347609 1.3834375 0.29345706 0
0.66753823 2.2728376 0.67876297 0
0.59592897 1.8315262 -0.050252669 0
0.5509758 1.4003487 0.1287443 0
0.55208158 1.4109551 0.21390551 0
0.55166996 1.4070073 0.2991029 0
0.64470899 2.2994094 0.68671465 0
0.57522935 1.8230348 -0.049878951 0
0.55143636 1.5631285 0.14616007 0
0.55234128 1.5730134 0.24299861 0
0.55236101 1.5732288 0.34132761 0
0.62194067 2.333293 0.69719607 0
0.5553863 1.8220919 -0.049785271 0
0.60216838 2.4153109 0.23787758 0
0.59970421 2.384064 0.38947055 0
0.59829968 2.3662546 0.54392242 0
0.53618574 1.8299003 -0.050013721 0
0.57387012 2.3991215 0.39184207 0
0.57301307 2.3861759 0.54852509 0
0.51631653 1.8282987 -0.049914245 0
0.54829383 2.4252627 0.39627251 0
0.54847187 2.4285858 0.55895174 0
0.49668872 1.8309524 -0.049975801 0
0.52177846 2.4436941 0.39936721 0
0.52173257 2.4425735 0.56219459 0
0.4768019 1.8261102 -0.04977845 0
0.45647562 1.1088778 0.35579613 0
0.45663899 1.1146427 0.43159541 0
0.45716739 1.8286511 -0.049853697 0
0.44595826 1.1166005 0.35889694 0
0.44595632 1.1164776 0.43239546 0
0.43744329 1.8205814 -0.049558956 0
0.43512422 1.0841856 0.41618773 0
0.43512872 1.0856221 0.49304304 0
0.41778845 1.8268615 -0.049785372 0
0.42467758 1.0972821 0.42275694 0
0.42491481 1.0721589 0.48507768 0
0.39793751 1.8346514 -0.050074603 0
0.41410151 1.1011722 0.35254946 0
0.41411096 1.1007434 0.42457181 0
0.41453639 1.0814376 0.49067667 0
0.37868246 1.8192545 -0.049544603 0
0.35267439 2.5700803 0.42208087 0
0.35221934 2.5832174 0.59796649 0
0.40511644 1.0561322 0.47583333 0
0.35863116 1.8285632 -0.049905948 0
0.32205376 2.6026537 0.42817655 0
0.32189271 2.6060619 0.60410661 0
0.39534423 1.0516013 0.47338554 0
0.3390151 1.826287 -0.049862258 0
0.29176345 2.6153939 0.43076319 0
0.29203448 2.6108675 0.6057384 0
0.31928164 1.8260123 -0.049899008 0
0.26087824 2.6312788 0.43398976 0
0.26145571 2.6233168 0.6094231 0
0.29969764 1.8236414 -0.049869593 0
0.35522202 1.1719223 0.038518094 0
0.22957551 2.6467016 0.43720651 0
0.22983374 2.6436708 0.61523432 0
0.27899453 1.8328831 -0.050265543 0
0.19888633 2.6511981 0.43851864 0
0.19793637 2.6609023 0.62035429 0
0.26071873 1.8176138 -0.049790997 0
0.1676365 2.6590531 0.44051209 0
0.16683041 2.6663401 0.62255716 0
0.34691447 1.0384268 0.46785176 0
0.24100274 1.8167247 -0.049841266 0
0.13364907 2.6867833 0.4461917 0
0.13378008 2.6857214 0.62844849 0
0.22211787 1.8094469 -0.049670372 0
0.10147269 2.6953027 0.44846234 0
0.10231589 2.6891115 0.63033938 0
0.20154062 1.8143212 -0.049946368 0
0.068810776 2.7048965 0.45100689 0
0.068709895 2.7055731 0.6357078 0
0.18199636 1.8115789 -0.049956825 0
0.03538008 2.716984 0.45408735 0
0.036297038 2.7113216 0.6384275 0
0.16137247 1.8149493 -0.050197758 0
0.0032009946 2.7193894 0.45547891 0
0.0025636719 2.7230337 0.64280349 0
0.14231984 1.8090193 -0.050110843 0
-0.028158529 2.7163539 0.45594954 0
-0.027903033 2.7149942 0.64217246 0
0.12551437 1.7922026 -0.049635991 0
-0.089114085 2.860235 0.10052842 0
-0.089244798 2.8608854 0.29062417 0
-0.062535271 2.7279737 0.45918992 0
-0.063508794 2.7328181 0.64837009 0
0.10365908 1.800558 -0.050086614 0
-0.1137106 2.8158731 0.099156082 0
-0.11248095 2.8101294 0.28579053 0
-0.094595149 2.7265863 0.46011978 0
-0.094316676 2.7252858 0.64808553 0
0.084262952 1.7966461 -0.050099466 0
-0.14116241 2.7884169 0.098410077 0
-0.1405092 2.7855432 0.28385943 0
-0.12845148 2.7324944 0.46247613 0
-0.12873884 2.7337587 0.65208912 0
0.065418854 1.7903875 -0.050035134 0
-0.17617454 2.7946138 0.098910227 0
-0.17491163 2.7893643 0.28510144 0
-0.16154046 2.7337847 0.46406201 0
-0.16179009 2.7348223 0.65427405 0
0.047107115 1.782204 -0.049908426 0
-0.20786013 2.7862568 0.098892108 0
-0.21110101 2.7990191 0.28704226 0
-0.19526972 2.736676 0.4660283 0
-0.19490536 2.7352412 0.65640575 0
0.026913481 1.7813926 -0.050062232 0
-0.25332332 2.8294561 0.10079394 0
-0.25247723 2.8262918 0.2910001 0
-0.23068435 2.7447882 0.46905503 0
-0.22742118 2.7325842 0.65784222 0
0.0086032022 1.7734642 -0.049962077 0
-0.26132631 2.7343297 0.46869701 0
-0.26027685 2.7305939 0.65956873 0
-0.008892728 1.7630101 -0.049776118 0
-0.29424012 2.7317424 0.46989 0
-0.29373115 2.7300146 0.66178679 0
-0.029173357 1.7620233 -0.049951345 0
-0.32553238 2.7233126 0.470063 0
-0.32404584 2.7184908 0.66120386 0
-0.048256859 1.756907 -0.049981948 0
-0.35934389 2.7226079 0.471775 0
-0.35917598 2.7220867 0.66477334 0
-0.065133855 1.7451479 -0.049771525 0
-0.39590722 2.7293243 0.47498703 0
-0.39329255 2.7215447 0.66736299 0
-0.086191013 1.7457663 -0.050036389 0
-0.42684084 2.7185907 0.47496659 0
-0.42395753 2.7103567 0.66720223 0
-0.10456277 1.7384596 -0.050011396 0
-0.45595562 2.7028587 0.47406116 0
-0.45689625 2.7054403 0.66884822 0
-0.12360562 1.7329659 -0.05006431 0
-0.48411894 2.6849563 0.47280347 0
-0.48456973 2.6861467 0.66669279 0
-0.14488675 1.7330548 -0.050340809 0
-0.52250522 2.6935217 0.4767372 0
-0.52006996 2.6873279 0.67023486 0
-0.15886129 1.7147005 -0.049917962 0
-0.54853272 2.6703107 0.47459608 0
-0.5539782 2.683665 0.6725834 0
-0.17431732 1.7006105 -0.049664933 0
-0.58516252 2.6729469 0.47756806 0
-0.57948935 2.6595201 0.66938943 0
-0.19812371 1.7060468 -0.050178967 0
-0.61426961 2.6573379 0.47705549 0
-0.61071479 2.6492116 0.67012024 0
-0.21871133 1.7034832 -0.050394166 0
-0.63927484 2.6328256 0.47484988 0
-0.63832963 2.6307371 0.66867805 0
-0.23017021 1.6810398 -0.049837269 0
-0.6729008 2.6274562 0.47650522 0
-0.66789341 2.6167521 0.66858971 0
-0.24899913 1.6747434 -0.049922921 0
-0.69834924 2.6046214 0.47475684 0
-0.70151472 2.611172 0.67098755 0
-0.26639718 1.6654364 -0.049898434 0
-0.72779739 2.5903394 0.47478563 0
-0.72792709 2.5905993 0.6692462 0
-0.28491479 1.6583354 -0.049971133 0
-0.75607133 2.573756 0.47442275 0
-0.75737512 2.5762889 0.66938561 0
-0.31099033 1.6653594 -0.050624613 0
-0.78616107 2.5606906 0.47484821 0
-0.78777874 2.5637388 0.67014104 0
-0.32172185 1.6433634 -0.050115015 0
-0.81102145 2.5379303 0.47336134 0
-0.81571686 2.5465147 0.66965353 0
-0.33644038 1.6291693 -0.049927026 0
-0.61796677 2.1288247 0.082402043 0
-0.83723319 2.5179806 0.47251022 0
-0.83101559 2.5069456 0.66272163 0
-0.35160989 1.6160107 -0.049788009 0
-0.61849117 2.0760324 0.080775112 0
-0.85796428 2.4888108 0.46979901 0
-0.86197174 2.4957182 0.66415519 0
-0.37505949 1.6169043 -0.050240174 0
-0.61696994 2.0220439 0.079086453 0
-0.88712049 2.4744787 0.47023878 0
-0.88723469 2.4746702 0.66279668 0
-0.39108902 1.605104 -0.0501763 0
-0.62263024 1.9820137 0.077968717 0
-0.90823793 2.4469342 0.46796274 0
-0.91409779 2.4564731 0.66237622 0
-0.40272111 1.5864218 -0.049829796 0
-0.61867571 1.9282334 0.076264396 0
-0.93500113 2.4289112 0.46775624 0
-0.93878984 2.4349082 0.66103762 0
-0.4199633 1.5768195 -0.049873192 0
-0.6224128 1.888494 0.07514172 0
-0.95381188 2.3986888 0.4649967 0
-0.95688176 2.4034147 0.65676188 0
-0.43531829 1.5643296 -0.049802288 0
-0.61817002 1.8382208 0.073559411 0
-0.97848785 2.3779364 0.46431851 0
-0.98394632 2.3861125 0.65687287 0
-0.45762938 1.5620632 -0.050181717 0
-0.6184231 1.7964681 0.072329946 0
-1.004844 2.3597918 0.4642725 0
-1.0020381 2.3557014 0.65303409 0
-0.47467738 1.5518577 -0.050230004 0
-0.61917853 1.7569271 0.071186267 0
-1.0213984 2.3277395 0.46123058 0
-1.0218745 2.3284152 0.65020722 0
-0.48530763 1.5327201 -0.04989453 0
-0.62191486 1.7214932 0.070213534 0
-0.62582767 1.7269002 0.20001516 0
-1.040895 2.3004687 0.45927146 0
-1.0389792 2.2978213 0.64639103 0
-0.080157593 0.97285599 0.44356483 0
-0.50322068 1.5237757 -0.050015196 0
-0.61353219 1.6722392 0.068618491 0
-0.62564445 1.6885406 0.19667898 0
-1.0575366 2.2698059 0.45658669 0
-1.0651349 2.2800319 0.64667714 0
-0.089519158 0.96699244 0.44396883 0
-0.51371998 1.5049659 -0.049704146 0
-0.61295497 1.6350677 0.067545868 0
-0.61725032 1.640699 0.19202872 0
-1.082337 2.2504492 0.45648786 0
-1.0881766 2.258105 0.64574361 0
-0.095182374 0.95624369 0.44137645 0
-0.53046894 1.4944901 -0.049773842 0
-0.61432159 1.6016008 0.066630259 0
-0.6204139 1.6093829 0.18957351 0
-1.0999339 2.2219052 0.45435497 0
-1.0937372 2.21399 0.63770497 0
-0.10437734 0.95021516 0.44180283 0
-0.54708701 1.483768 -0.04984257 0
-0.61773682 1.5717095 0.065869875 0
-0.61611164 1.5696865 0.18594356 0
-1.1076151 2.1814866 0.44950429 0
-1.1088573 2.1830328 0.63391364 0
-0.12671299 0.9605065 0.45278162 0
-0.56618464 1.4759728 -0.050057072 0
-0.62558675 1.5480362 0.065391228 0
-0.61944008 1.5405794 0.18374306 0
-1.1368511 2.1682739 0.45098415 0
-1.1268077 2.1560898 0.63147259 0
-0.14111163 0.96029758 0.45724791 0
-0.58128893 1.4632164 -0.050053094 0
-0.62109911 1.5102915 0.064254127 0
-0.61586976 1.5041078 0.18048835 0
-1.140775 2.1248024 0.44541946 0
-1.138718 2.12237 0.62681621 0
-0.15316708 0.956967 0.45983464 0
-0.59602487 1.4500349 -0.050037913 0
-0.61371446 1.4704262 0.06300167 0
-0.6147505 1.4716204 0.17775837 0
-1.15759 2.0973692 0.4436346 0
-1.1645008 2.1053355 0.62779462 0
-0.60600019 1.4315145 -0.049776249 0
-0.62375331 1.4514661 0.062729709 0
-0.63669574 1.466011 0.17886217 0
-1.1788681 2.0753191 0.44318002 0
-1.1719053 2.0674939 0.62178856 0
-0.63253069 1.4314034 -0.050407391 0
-0.66686177 1.469021 0.064225599 0
-0.65991056 1.4614044 0.18016461 0
-1.1811247 2.0325136 0.4377175 0
-1.1760978 2.0270054 0.61483073 0
-0.63541186 1.4053694 -0.049794629 0
-0.51065564 1.2720804 0.055276819 0
-0.6813854 1.4544873 0.18118517 0
-1.195287 2.0035374 0.43561333 0
-1.1931113 2.0012128 0.6129443 0
-0.65309572 1.3953763 -0.04997002 0
-0.51216584 1.2485573 0.05470439 0
-0.71655333 1.4614856 0.1843311 0
-1.2012708 1.9664583 0.43150228 0
-1.2033936 1.9686698 0.60872298 0
-0.66921294 1.3836108 -0.050069895 0
-0.51513934 1.2270923 0.054228876 0
-0.74242949 1.4579893 0.18600005 0
-1.2124847 1.9355036 0.42890885 0
-1.2171643 1.9402574 0.60597396 0
-0.68248534 1.3689238 -0.050033074 0
-0.52183121 1.209779 0.053959783 0
-0.775962 1.4615221 0.18881318 0
-1.2197059 1.9010969 0.42543358 0
-1.2216545 1.9030272 0.60005546 0
-0.69609988 1.3545989 -0.050022911 0
-0.53940141 1.203234 0.054244805 0
-0.80752409 1.4622306 0.19129121 0
-1.2264458 1.8668935 0.4219889 0
-1.2245756 1.865087 0.59381932 0
-0.70584655 1.3366363 -0.049832068 0
-0.55887198 1.198199 0.054623734 0
-0.84151387 1.4644233 0.19409713 0
-1.2327044 1.832891 0.41857296 0
-1.215117 1.8163253 0.58348614 0
-0.72258151 1.3252707 -0.049993202 0
-0.86398721 1.4551417 0.068847671 0
-0.87642002 1.4665602 0.19700046 0
-1.2269043 1.7884549 0.41234893 0
-1.2367109 1.7974616 0.58424252 0
-0.23489811 0.87736833 0.38120919 0
-0.7349869 1.3098711 -0.049951937 0
-0.89995217 1.4575942 0.069857627 0
-0.91279292 1.4690928 0.20007895 0
-1.2348113 1.7574538 0.40964928 0
-1.2371988 1.7595917 0.57784396 0
-0.23606463 0.86309618 0.37759721 0
-0.74625814 1.2935158 -0.049866617 0
-0.94867229 1.4702321 0.071459584 0
-1.2441071 1.7281595 0.40740561 0
-1.241462 1.7258502 0.57295644 0
-0.23501654 0.84717983 0.37290686 0
-0.76283991 1.2817553 -0.050040878 0
-0.97372127 1.4612353 0.071927235 0
-1.2414582 1.6891047 0.40244487 0
-1.2392498 1.6872251 0.5660947 0
-0.23372997 0.8314327 0.36824638 0
-0.25435811 0.84898925 0.45730844 0
-0.78187644 1.2718675 -0.0503341 0
-1.0047387 1.4567565 0.072672166 0
-1.246124 1.6570125 0.3993656 0
-1.2429698 1.6543956 0.56143278 0
-0.24920811 0.82995987 0.37276044 0
-0.7885505 1.2517138 -0.050062522 0
-1.0469626 1.4606586 0.07392668 0
-1.2511162 1.6257313 0.39648744 0
-1.2395487 1.6163782 0.5546115 0
-0.25172168 0.81764889 0.37033582 0
-0.79855251 1.2344221 -0.049956482 0
-1.0776087 1.4543065 0.074640311 0
-1.2516179 1.5914181 0.39269754 0
-1.2459095 1.5869201 0.55119115 0
-0.27162051 0.81922221 0.37718138 0
-0.80446649 1.2140822 -0.049677309 0
-1.1209036 1.457026 0.075920023 0
-1.2571086 1.5615969 0.39017713 0
-1.2490338 1.5553975 0.54688257 0
-0.26591092 0.80060768 0.37058344 0
-0.24632217 0.78556842 0.43422309 0
-0.82078409 1.2017654 -0.049876038 0
-1.1604693 1.4558243 0.077019945 0
-1.2537237 1.5255716 0.38576648 0
-1.233374 1.5103515 0.53675687 0
-0.268022 0.78834122 0.36821267 0
-0.27603757 0.79433626 0.44872269 0
-0.83856833 1.1903399 -0.050144624 0
-1.2129633 1.4630759 0.078681543 0
-1.2514797 1.491134 0.38175231 0
-1.2422299 1.4843959 0.53464192 0
-1.2398739 1.4826795 0.6943835 0
-0.26397771 0.77176702 0.36278996 0
-0.28440267 0.78664601 0.44980499 0
-0.84331346 1.1694286 -0.049846396 0
-1.2521868 1.4594719 0.079743482 0
-1.2368013 1.4485579 0.37512073 0
-1.2393695 1.4503797 0.52898353 0
-1.2358866 1.447909 0.68655396 0
-0.27528572 0.76648557 0.36531517 0
-0.28395081 0.7726323 0.4455286 0
-0.86129177 1.1579081 -0.050136387 0
-1.2985547 1.4598867 0.081108183 0
-1.2496747 1.4261296 0.37470326 0
-1.2478805 1.4248904 0.52703327 0
-1.2431295 1.4216094 0.6835106 0
-0.2925272 0.76511306 0.44688675 0
-0.87513423 1.1433574 -0.050252292 0
-1.276571 1.4131925 0.079520881 0
-1.2696513 1.4085412 0.22641915 0
-1.2566736 1.3998179 0.37307444 0
-1.2405707 1.3889941 0.52033514 0
-1.2456555 1.3924119 0.67873544 0
-0.28545696 0.74699205 0.43885794 0
-0.88675451 1.1272517 -0.050280292 0
-1.2827413 1.386245 0.079172812 0
-1.2708694 1.3784803 0.2247429 0
-1.2485961 1.3639126 0.36828169 0
-1.2521729 1.3662519 0.51959568 0
-1.2410681 1.358989 0.67131835 0
-0.2970829 0.74157995 0.44220957 0
-0.89749742 1.1105609 -0.050279565 0
-1.2785623 1.3529994 0.078404017 0
-1.2775102 1.3523301 0.22381915 0
-1.2553715 1.338245 0.36679912 0
-1.2409049 1.3290412 0.5120334 0
-1.2421405 1.3298274 0.66635883 0
-0.29291582 0.72591817 0.43620953 0
-0.89866245 1.0879414 -0.049885612 0
-1.2891003 1.3294915 0.078276664 0
-1.2946355 1.332916 0.22426932 0
-1.2437617 1.3014421 0.36149788 0
-1.2407601 1.2995852 0.50800794 0
-1.2403163 1.2993106 0.66044873 0
-0.91450644 1.0744703 -0.050118063 0
-1.3083427 1.3113185 0.078525282 0
-1.3009754 1.3068879 0.2233943 0
-1.2499105 1.2761781 0.36007181 0
-1.250221 1.2763648 0.50698352 0
-1.2363347 1.2680137 0.6538955 0
-0.92227781 1.0560882 -0.050022051 0
-1.3371404 1.2985215 0.079176694 0
-1.3215431 1.2894069 0.22433764 0
-1.2588878 1.2527928 0.35931373 0
-1.2437519 1.243948 0.50134599 0
-1.231087 1.236547 0.64705485 0
-0.92296767 1.0337609 -0.049645551 0
-1.3817807 1.2941837 0.080480456 0
-1.3829408 1.2948421 0.2303471 0
-1.2510762 1.2199956 0.35514075 0
-1.2405413 1.214016 0.49682474 0
-1.2389855 1.213133 0.64544415 0
-0.94136262 1.0214901 -0.050004877 0
-1.2504649 1.1918271 0.35256463 0
-1.2383467 1.1851491 0.49274087 0
-1.2386574 1.1853203 0.64083195 0
-0.94737959 1.0023088 -0.049866933 0
-1.2439291 1.1608938 0.34886694 0
-1.2392162 1.1583735 0.48967645 0
-1.2433432 1.1605804 0.63827497 0
-0.95789182 0.9855653 -0.049920429 0
-1.2639188 1.1442961 0.35066175 0
-1.236737 1.1301973 0.48576674 0
-1.2398605 1.1318175 0.63279027 0
-0.97835243 0.97377819 -0.050379574 0
-1.2746471 1.122757 0.35061803 0
-1.2380362 1.1043487 0.48306233 0
-1.2435663 1.1071293 0.63015234 0
-0.96535277 0.94532794 -0.049513061 0
-1.2873436 1.1021792 0.35102403 0
-1.2428071 1.0804842 0.48145241 0
-1.239465 1.0788561 0.62475687 0
-0.99480474 0.93757188 -0.050341543 0
-1.2963848 1.0798104 0.35075054 0
-1.2404394 1.0534241 0.4779233 0
-1.2380303 1.0522878 0.62050551 0
-0.99389756 0.91531605 -0.049977742 0
-1.3062191 1.0578414 0.35069185 0
-1.2458488 1.0302919 0.47669128 0
-1.2389007 1.0271212 0.61724424 0
-1.0018084 0.89722782 -0.049971025 0
-1.3127927 1.0344385 0.35004541 0
-1.2444314 1.0042765 0.47364384 0
-1.2385339 1.0016745 0.61366671 0
-1.0071956 0.87806565 -0.049875259 0
-1.316515 1.0099143 0.34890142 0
-1.2454994 0.97964352 0.47139311 0
-1.2418691 0.97809613 0.61156332 0
-1.0170712 0.86081994 -0.04996261 0
-1.3304101 0.98974413 0.34980756 0
-1.2390227 0.95214254 0.46715835 0
-1.2328348 0.94959652 0.60512799 0
-1.0259212 0.84309757 -0.050018489 0
-1.3342323 0.96543694 0.34880415 0
-1.2391961 0.92772609 0.4648653 0
-1.2474748 0.93101108 0.60732716 0
-1.0323738 0.82441312 -0.049991023 0
-1.351011 0.94622892 0.35036647 0
-1.2369757 0.90263295 0.46201363 0
-1.2369812 0.90263504 0.60064733 0
-1.0319251 0.80320674 -0.049710117 0
-1.3573184 0.92293161 0.34995589 0
-1.2329506 0.87717181 0.4587706 0
-1.2362076 0.87837023 0.59757107 0
-1.0324571 0.78255409 -0.049477741 0
-1.362119 0.89915812 0.34931508 0
-1.2312042 0.85285252 0.45624566 0
-1.2474526 0.85859972 0.59885782 0
-1.0547289 0.76945412 -0.050075851 0
-1.3694195 0.87632406 0.34921035 0
-1.2436781 0.83362192 0.45764571 0
-1.2366565 0.83123738 0.59248251 0
-1.0530734 0.74811608 -0.049779337 0
-1.3773875 0.85371876 0.3492873 0
-1.2289131 0.80537271 0.45179647 0
-1.2405351 0.80915713 0.59138852 0
-1.0642591 0.73099703 -0.049974266 0
-1.3877767 0.83185303 0.34987521 0
-1.2316328 0.78317547 0.4507381 0
-1.2375625 0.78502405 0.5880084 0
-1.0699587 0.71209651 -0.049972143 0
-1.4089969 0.81312519 0.35255107 0
-1.2355217 0.76143193 0.45006946 0
-1.2335548 0.76084584 0.5843873 0
-1.0734235 0.69255883 -0.049895924 0
-1.4043179 0.786641 0.3504056 0
-1.2464119 0.7417441 0.45133305 0
-1.2430725 0.7407946 0.58556277 0
-1.0753905 0.6726681 -0.049773682 0
-1.404832 0.76186943 0.34930021 0
-1.2331889 0.71539444 0.44628441 0
-1.2423362 0.71787119 0.58328718 0
-1.0926487 0.65679747 -0.050224777 0
-1.4079171 0.7379148 0.34873533 0
-1.2471061 0.69653875 0.44848949 0
-1.2389567 0.69444191 0.58021021 0
-1.0916836 0.63615125 -0.050012179 0
-1.4285775 0.71832424 0.35149089 0
-1.2282698 0.6694665 0.44214883 0
-1.2403011 0.67240107 0.57886159 0
-1.1030371 0.61849654 -0.050261069 0
-1.424284 0.69258022 0.34966561 0
-1.2396396 0.64999884 0.44382477 0
-1.2362113 0.64920825 0.57575643 0
-1.0989937 0.59731179 -0.049954884 0
-1.4427058 0.67203116 0.35209763 0
-1.2454046 0.62914002 0.44409683 0
-1.2389133 0.62772888 0.57507163 0
-1.1004519 0.57746798 -0.049859695 0
-1.4382715 0.64646363 0.35036397 0
-1.2451875 0.60702848 0.44287896 0
-1.2356026 0.60507089 0.5724389 0
-1.1104444 0.55932063 -0.050084021 0
-1.4439899 0.6230793 0.3505578 0
-1.2477651 0.5855701 0.44246233 0
-1.2263709 0.5814805 0.5679037 0
-1.1072668 0.53866339 -0.049838554 0
-1.4419271 0.59827757 0.34937978 0
-1.2440958 0.56303722 0.44049788 0
-1.2316997 0.56082904 0.56839961 0
-1.111095 0.51933563 -0.049856521 0
-1.4547181 0.57609206 0.35097656 0
-1.2352356 0.53983998 0.43726867 0
-1.2421063 0.54097486 0.57069457 0
-1.1224731 0.50114143 -0.050155908 0
-1.4496866 0.55096352 0.34936994 0
-1.2439557 0.5196386 0.43865812 0
-1.2277063 0.51716441 0.56472123 0
-1.1173377 0.48042884 -0.049867772 0
-1.4650246 0.52889717 0.35153297 0
-1.23827 0.49728706 0.43639976 0
-1.2442282 0.49811766 0.56924605 0
-1.1251204 0.46155322 -0.050054368 0
-1.4561378 0.503456 0.34933931 0
-1.2432351 0.4765051 0.4369565 0
-1.2465334 0.47692263 0.56907672 0
-1.1250209 0.44164488 -0.049966015 0
-0.50156605 0.37068689 0.039564181 0
-0.51104486 0.3717657 0.10806135 0
-0.50781673 0.3713983 0.17668743 0
-1.2418839 0.45494556 0.43595779 0
-1.23816 0.45452175 0.5654214 0
-1.1268135 0.4219873 -0.049954679 0
-0.51532674 0.36017996 0.040012579 0
-0.51689947 0.36033893 0.10855576 0
-0.51303363 0.35994819 0.17740233 0
-1.2309872 0.43251687 0.43258223 0
-1.2538742 0.43483022 0.56991976 0
-1.134427 0.40284899 -0.050160851 0
-0.46737635 0.34390008 0.038253475 0
-0.51085734 0.34774262 0.10778163 0
-0.51680726 0.34826842 0.17788124 0
-1.2327783 0.41154054 0.43253249 0
-1.2426715 0.41241482 0.56550598 0
-1.1211113 0.38197744 -0.049626127 0
-0.51308703 0.33595243 0.10791688 0
-0.50806463 0.33557227 0.17612256 0
-1.2493892 0.39168757 0.43634227 0
-1.2401996 0.39099193 0.5641036 0
-1.127762 0.36273941 -0.049815468 0
-0.51063365 0.32383338 0.1075637 0
-0.51822829 0.32431218 0.17781067 0
-1.2310373 0.36925027 0.4312751 0
-1.2392874 0.36977038 0.56331223 0
-1.2320331 0.36931306 0.69656235 0
-1.1341013 0.34334889 -0.050002228 0
-0.50360817 0.3115648 0.10673521 0
-0.50553602 0.31166199 0.17539605 0
-1.2428656 0.34883183 0.43399304 0
-1.2458411 0.34898186 0.56509751 0
-1.2438591 0.34888193 0.70097184 0
-0.34639889 0.30363965 0.46853617 0
-1.1407286 0.32383427 -0.050207905 0
-0.50676805 0.29987356 0.1070191 0
-0.51683915 0.3002542 0.17734197 0
-1.2373935 0.32748774 0.43235832 0
-1.2402487 0.32759565 0.56292516 0
-1.2487592 0.32791731 0.70261627 0
-0.35924798 0.29429799 0.47590497 0
-1.1397501 0.30397978 -0.050150678 0
-0.40643561 0.28550681 0.3534773 0
-0.4134056 0.28568241 0.42939609 0
-0.36938405 0.28457347 0.48173174 0
-1.1416554 0.28419888 -0.05020535 0
-0.40324724 0.27489874 0.42421234 0
-0.37754649 0.27457502 0.48645967 0
-1.137838 0.26437622 -0.050064605 0
-0.38806534 0.26437426 0.41658306 0
-0.38959813 0.26437426 0.49356878 0
