# .PCD v0.7 - Point Cloud Data file format
VERSION 0.7
FIELDS x y z intensity
SIZE 4 4 4 4
TYPE F F F F
COUNT 1 1 1 1
WIDTH 1354
HEIGHT 1
VIEWPOINT 0 0 0 1 0 0 0
POINTS 1354
DATA ascii
-0.50740725 0.084696643 0.040165011 0
-0.50975645 0.084247582 0.10910178 0
-0.50768793 0.084642984 0.17863955 0
-1.2505666 -0.057361495 0.44319004 0
-1.2329332 -0.053990763 0.57012647 0
-1.1069607 -0.050053161 -0.050096858 0
-0.5154233 0.07076133 0.040542252 0
-0.51417035 0.071017228 0.10984289 0
-0.5162583 0.070590787 0.18064739 0
-1.242721 -0.077780582 0.44223666 0
-1.242395 -0.077714033 0.57474536 0
-1.1029475 -0.0694272 -0.050099339 0
-0.52032894 0.057227913 0.04081329 0
-0.51726121 0.0578948 0.11045881 0
-0.51329923 0.058756102 0.18056546 0
-1.2366409 -0.098490722 0.4418087 0
-1.2372321 -0.09861926 0.57449925 0
-1.0947038 -0.087830611 -0.049955752 0
-0.5144484 0.04598375 0.040696166 0
-0.51905173 0.044922177 0.11095133 0
-0.51831675 0.045091663 0.18198717 0
-1.2379408 -0.12086294 0.44337997 0
-1.2454807 -0.12260173 0.5789212 0
-1.0892488 -0.10681323 -0.049922705 0
-0.50720239 0.035155673 0.040533699 0
-0.50779504 0.035011131 0.11002013 0
-0.51644367 0.032901619 0.18216598 0
-1.2405154 -0.1437092 0.44536465 0
-1.2368599 -0.1428176 0.57768321 0
-1.0880709 -0.1268755 -0.050056022 0
-0.5551911 0.010232289 0.042411897 0
-0.56855726 0.0067932201 0.11709164 0
-0.56133509 0.0086514549 0.19108254 0
-1.2329443 -0.16415085 0.44475868 0
-1.2356398 -0.16484438 0.57907075 0
-1.0880457 -0.14735053 -0.050241757 0
-0.61405838 -0.019011181 0.044710461 0
-0.61417925 -0.019043904 0.12254107 0
-1.2469058 -0.19036435 0.31979281 0
-1.2500579 -0.19121785 0.45074323 0
-1.2457247 -0.19004454 0.58445507 0
-1.0789729 -0.16539256 -0.050101899 0
-0.69331241 -0.055738848 0.047787596 0
-0.69423866 -0.056002211 0.13189399 0
-1.2417251 -0.21166737 0.31991997 0
-1.244059 -0.21233098 0.45070896 0
-1.250219 -0.21408243 0.58803457 0
-1.0700791 -0.18338825 -0.049976625 0
-0.77769029 -0.096260436 0.051084369 0
-0.76402533 -0.092188455 0.1401822 0
-1.236364 -0.23293884 0.32006404 0
-1.244525 -0.23537068 0.45246631 0
-1.2545429 -0.23835592 0.59167331 0
-1.0638527 -0.20212619 -0.049959067 0
-0.87680316 -0.14381389 0.054964181 0
-0.86980033 -0.14163075 0.15260541 0
-1.2393477 -0.25683644 0.32183558 0
-1.2386738 -0.25662634 0.45261973 0
-1.2407916 -0.25728658 0.58913368 0
-1.0530391 -0.21936078 -0.049778052 0
-0.98579526 -0.19746496 0.059253298 0
-0.98594499 -0.19751371 0.1663219 0
-1.2371849 -0.27932206 0.32269523 0
-1.2470365 -0.28252992 0.45665929 0
-1.2338841 -0.27824727 0.58906138 0
-1.0550709 -0.24082617 -0.050088745 0
-1.137053 -0.26866755 0.065179788 0
-1.1291046 -0.26596823 0.18324299 0
-1.2410417 -0.30398247 0.32475889 0
-1.2454761 -0.30548838 0.45813018 0
-1.0446693 -0.25812951 -0.049940199 0
-1.2906443 -0.34513286 0.20243286 0
-1.2365791 -0.32600948 0.32529956 0
-1.2333274 -0.32485941 0.45682025 0
-1.0398555 -0.2773805 -0.050011799 0
-1.2578472 -0.35758814 0.19957161 0
-1.2455773 -0.35307363 0.32848269 0
-1.238714 -0.3505483 0.4603374 0
-1.0322175 -0.29560927 -0.049985047 0
-1.2579359 -0.38190195 0.20049827 0
-1.241349 -0.37556073 0.32919306 0
-1.2510244 -0.37925962 0.46585089 0
-1.0215058 -0.31260142 -0.049848899 0
-1.2514462 -0.40384284 0.20070426 0
-1.2357537 -0.39761594 0.32969651 0
-1.242193 -0.40017113 0.46568793 0
-1.013869 -0.33075824 -0.049838986 0
-1.2514741 -0.4285216 0.20170079 0
-1.2438662 -0.42539129 0.33292994 0
-1.2449517 -0.4258379 0.46879405 0
-1.0154544 -0.35284188 -0.05019578 0
-1.2490296 -0.45240417 0.20245002 0
-1.2387621 -0.44802764 0.33365804 0
-1.2392664 -0.44824252 0.46966439 0
-1.0018264 -0.36849168 -0.04997173 0
-1.251676 -0.4787288 0.20383666 0
-1.2352855 -0.47149709 0.33476701 0
-1.2430718 -0.47493252 0.47326469 0
-1.0050366 -0.39165512 -0.050414875 0
-1.2352077 -0.49669173 0.20301232 0
-1.2350528 -0.4966211 0.33658385 0
-1.2453139 -0.50130367 0.47654128 0
-0.98664021 -0.40497699 -0.050019264 0
-1.2365394 -0.5228405 0.2043249 0
-1.2518501 -0.53006178 0.34187028 0
-1.2362429 -0.52270067 0.47673953 0
-0.97623968 -0.42188713 -0.049945399 0
-1.5065924 -0.68023753 0.083006702 0
-1.2343003 -0.54759604 0.20525797 0
-1.2446929 -0.55265856 0.3424679 0
-1.2408984 -0.55081016 0.48091069 0
-0.96804559 -0.43985173 -0.04996771 0
-1.4456348 -0.67998642 0.081052251 0
-1.2450161 -0.57911414 0.20779265 0
-1.2379214 -0.57554692 0.3432045 0
-1.2416338 -0.5774135 0.48408967 0
-0.961555 -0.45872119 -0.050067753 0
-1.4063203 -0.68941307 0.07995531 0
-1.2475493 -0.60706133 0.20940122 0
-1.2356448 -0.60088676 0.34491748 0
-0.9521966 -0.47614065 -0.050061952 0
-1.3568368 -0.6925289 0.078444041 0
-1.2332942 -0.6264624 0.20901738 0
-1.2379807 -0.6289686 0.34765038 0
-0.93711233 -0.49040362 -0.049831618 0
-1.2999358 -0.69034481 0.076621488 0
-1.2396423 -0.65711886 0.2111889 0
-1.2357184 -0.65495658 0.34952801 0
-0.93086028 -0.50949663 -0.04996955 0
-1.2560558 -0.69407797 0.075319275 0
-1.2413605 -0.68573689 0.21285142 0
-1.2438231 -0.68713462 0.35363662 0
-0.92597735 -0.52950597 -0.050175026 0
-1.2497848 -0.71872932 0.075564519 0
-1.23787 -0.71176666 0.21392253 0
-1.2413768 -0.71381593 0.35565597 0
-0.91209388 -0.54427528 -0.050017558 0
-1.2550251 -0.7505098 0.076304071 0
-1.2352266 -0.73860317 0.21514899 0
-1.2348956 -0.7384041 0.35691193 0
-0.90848351 -0.56527323 -0.050297908 0
-1.2524179 -0.77805334 0.076736696 0
-1.2460445 -0.77411026 0.21812871 0
-1.2455184 -0.77378482 0.36187044 0
-0.89016402 -0.57715118 -0.049969256 0
-1.245418 -0.80316848 0.077001542 0
-1.2444104 -0.80252737 0.21960305 0
-1.2433156 -0.80183083 0.36422211 0
-0.87866163 -0.59321457 -0.049935058 0
-1.2521291 -0.83747917 0.077866919 0
-1.2368797 -0.82750541 0.22037813 0
-1.2414645 -0.830504 0.36674488 0
-0.8694669 -0.61080378 -0.050008494 0
-1.2370833 -0.85790569 0.077822238 0
-1.2403005 -0.86006826 0.22261849 0
-1.2403635 -0.86011058 0.36953014 0
-0.8551693 -0.62493575 -0.049870748 0
-1.2406558 -0.89115685 0.078596085 0
-1.2417798 -0.89193314 0.22467816 0
-1.2452979 -0.89436275 0.37374398 0
-0.84409142 -0.64123636 -0.049880452 0
-1.2434236 -0.92451137 0.079359904 0
-1.2393076 -0.9215917 0.22628827 0
-1.6043643 -1.1805526 0.45639524 0
-0.8327738 -0.65737456 -0.049888678 0
-1.2443924 -0.95722693 0.080069765 0
-1.244719 -0.95746487 0.22901088 0
-1.5721685 -1.1960024 0.45330691 0
-0.81670272 -0.66996878 -0.049694084 0
-1.2442636 -0.98975199 0.080755681 0
-1.2365788 -0.98400432 0.23000091 0
-0.81286156 -0.69178331 -0.050055165 0
-1.2319056 -1.0135032 0.080916181 0
-1.2416444 -1.0209801 0.23283488 0
-0.79732394 -0.70470989 -0.049900644 0
-1.1585755 -0.98936063 0.078320466 0
-1.1520176 -0.98419327 0.22280438 0
-1.1619985 -0.99205774 0.37212014 0
-0.78799462 -0.72252011 -0.050037 0
-1.1398165 -1.0069933 0.07818976 0
-1.141897 -1.0086756 0.22359574 0
-1.1371886 -1.0048685 0.37006444 0
-0.76913106 -0.73254967 -0.049742874 0
-1.2407588 -1.1238171 0.0836206 0
-1.2412776 -1.1242476 0.23972875 0
-1.3353039 -1.2022529 0.42026335 0
-0.76187003 -0.75218576 -0.049995407 0
-1.2362932 -1.1559645 0.084236905 0
-1.237105 -1.1566554 0.24162608 0
-1.3243226 -1.2308859 0.42206922 0
-1.024734 -0.97590774 0.49422622 0
-0.75642014 -0.77364355 -0.050348219 0
-1.2811022 -1.2317137 0.4162626 0
-0.99422717 -0.98125929 0.48922229 0
-0.72879207 -0.77557963 -0.049655065 0
-1.1910795 -1.1895486 0.083809435 0
-1.191563 -1.1899816 0.24029449 0
-1.1957821 -1.1937597 0.40020072 0
-0.96937037 -0.99101263 0.4861196 0
-0.72158861 -0.79561454 -0.049945071 0
-0.9182266 -0.97621244 0.47391704 0
-0.70355844 -0.80573696 -0.049719848 0
-0.89324033 -0.98440105 0.47067198 0
-0.69448006 -0.82428998 -0.049942505 0
-0.85232627 -0.97676367 0.4617736 0
-0.68040299 -0.83811682 -0.04992843 0
-0.83667767 -0.9929232 0.46180254 0
-0.66910088 -0.85475284 -0.050064195 0
-0.81326222 -1.0012019 0.45908076 0
-0.65122628 -0.86468464 -0.049873643 0
-0.62911117 -0.86989373 -0.049465459 0
-0.62269998 -0.89188749 -0.049886748 0
-0.61113894 -0.90854555 -0.050052237 0
-0.59267187 -0.91742557 -0.049855236 0
-0.57550991 -0.92763859 -0.049733575 0
-0.56037354 -0.94017893 -0.049730904 0
-1.0154502 -1.4922529 0.087273687 0
-0.54697001 -0.95487827 -0.049835905 0
-1.0677891 -1.6031688 0.091524549 0
-0.53003806 -0.9651956 -0.049748883 0
-1.0553766 -1.6362453 0.092174433 0
-0.51840413 -0.98236293 -0.049979892 0
-0.92680109 -1.5177901 0.086021215 0
-0.49892062 -0.98924416 -0.049757794 0
-0.90607262 -1.5372126 0.08613009 0
-0.47992265 -0.99653465 -0.0495666 0
-0.88416064 -1.5551382 0.08618357 0
-0.46667987 -1.0117637 -0.049734313 0
-0.8503623 -1.5562685 0.085515164 0
-0.45976782 -1.0364364 -0.05031668 0
-0.91974151 -1.7069855 0.091347158 0
-0.43799263 -1.0395913 -0.049974248 0
-0.42097718 -1.0496361 -0.049939644 0
-0.77886999 -1.6006184 0.085395925 0
-0.38121992 -0.98842925 0.50300997 0
-0.40912068 -1.0678068 -0.050257549 0
-0.7733134 -1.6442488 0.086600527 0
-0.35365355 -0.98001391 0.4957051 0
-0.38683057 -1.0694276 -0.049885847 0
-0.33163232 -0.97957438 0.49170682 0
-0.37317121 -1.0849977 -0.050108679 0
-0.30513197 -0.97104901 0.48471314 0
-0.35027581 -1.0849669 -0.049693096 0
-0.28869605 -0.97882229 0.48416814 0
-0.33438075 -1.0967697 -0.049777228 0
-0.27596498 -0.99309295 0.48618743 0
-0.32015669 -1.1117576 -0.049998574 0
-0.25517499 -0.99295431 0.48278975 0
-0.30345207 -1.1224114 -0.050050527 0
-0.23206259 -0.9878971 0.47766107 0
-0.28407693 -1.1279633 -0.049905773 0
-0.20782442 -0.97981066 0.47154135 0
-0.26622045 -1.1363379 -0.049884301 0
-0.18265153 -0.9688192 0.46449366 0
-0.25408447 -1.1565228 -0.050340194 0
-0.16631587 -0.97489589 0.46391293 0
-0.22974814 -1.1513933 -0.049801704 0
-0.15385826 -0.98916513 0.46642053 0
-0.21411975 -1.1645927 -0.049996562 0
-0.13240744 -0.98402876 0.46188486 0
-0.19529249 -1.1708305 -0.049926765 0
-0.1068045 -0.9685511 0.4537172 0
-0.17516382 -1.1738697 -0.049742583 0
-0.10138126 -0.99925059 0.46238765 0
-0.161855 -1.1932979 -0.050201021 0
-0.070803955 -0.97000903 0.3461068 0
-0.082233205 -0.99803752 0.45957235 0
-0.14122315 -1.1949922 -0.049983345 0
-0.051521495 -0.96683747 0.34352672 0
-0.069077805 -1.0114917 0.46210071 0
-0.11936213 -1.1930161 -0.049636528 0
-0.033062175 -0.965128 0.14729078 0
-0.036975637 -0.97546214 0.24509883 0
-0.013615532 -0.9137761 0.32741472 0
-0.048123464 -1.0048995 0.4575446 0
-0.10495652 -1.210796 -0.05005246 0
-0.010118289 -0.95051211 0.14495958 0
-0.0084312093 -0.9458819 0.23830509 0
0.002515869 -0.91583759 0.32647443 0
-0.085986629 -1.2164383 -0.05001431 0
0.0081010628 -0.94774359 0.14402066 0
0.010244237 -0.94162315 0.23644868 0
0.01972075 -0.91456026 0.32469076 0
-0.0050708191 -0.98535973 0.44653219 0
-0.063991979 -1.2130063 -0.049643561 0
0.028041231 -0.93917257 0.14245389 0
0.020011501 -0.96306413 0.23953459 0
0.023544954 -0.95255071 0.33354223 0
0.015018778 -0.97791928 0.44202158 0
-0.052247569 -1.2405511 -0.050446611 0
0.035969928 -0.96669954 0.14499761 0
0.037241533 -0.96275204 0.23850971 0
0.018995749 -1.019392 0.35010406 0
0.020111101 -1.0159297 0.45350426 0
-0.026747568 -1.2254107 -0.049657382 0
0.02198072 -1.0673524 0.36154562 0
-0.010958834 -1.2412802 -0.050037179 0
0.069236979 -0.96902174 0.33404574 0
0.0079875756 -1.2469114 -0.050043348 0
0.082158044 -0.98288769 0.33653396 0
0.029538618 -1.2428305 -0.049699411 0
0.10266478 -0.96934444 0.33181822 0
0.044446871 -1.2639357 -0.050294299 0
0.11702617 -0.97812074 0.33306086 0
0.067475334 -1.253095 -0.049721245 0
0.083342776 -1.2719502 -0.05024768 0
0.10358422 -1.2721634 -0.05009938 0
0.12294589 -1.2762396 -0.050101418 0
0.1445982 -1.268149 -0.049670354 0
-0.064312354 -2.3800306 0.10206056 0
0.1635675 -1.2736535 -0.049742855 0
0.00017006858 -2.2079763 0.095605634 0
0.18049686 -1.2920947 -0.050291728 0
0.032712504 -2.2047131 0.095297806 0
0.20069245 -1.2912679 -0.050151788 0
0.064800337 -2.2030609 0.095063515 0
0.22169828 -1.2837836 -0.049781378 0
0.097226813 -2.1977346 0.094711818 0
0.23943681 -1.3006718 -0.050297797 0
0.12872113 -2.197978 0.094575718 0
0.25973153 -1.2977937 -0.050111543 0
0.16037531 -2.1959484 0.094372422 0
0.28072914 -1.2864196 -0.049629919 0
0.19189151 -2.193907 0.094183259 0
0.2999354 -1.2921064 -0.049769595 0
0.22264135 -2.1993473 0.0942766 0
0.31826496 -1.3112862 -0.05040079 0
0.25372082 -2.2012212 0.094256066 0
0.33771706 -1.3192202 -0.050637554 0
0.28518853 -2.1964512 0.094011925 0
0.35837999 -1.3051341 -0.050095912 0
0.31608108 -2.2003098 0.094090499 0
0.37817737 -1.305091 -0.050065462 0
0.34721014 -2.1990838 0.094001293 0
0.39788368 -1.3083484 -0.050161783 0
0.37813672 -2.2044137 0.094160229 0
0.41772422 -1.3049196 -0.050028235 0
0.43748909 -1.3063833 -0.050078269 0
0.45725545 -1.3055012 -0.050053447 0
0.47681025 -1.2976599 -0.049788948 0
0.4964512 -1.2964075 -0.049768537 0
0.5162164 -1.2976843 -0.049847379 0
0.53638411 -1.3041526 -0.050120939 0
0.5554601 -1.2942836 -0.049818784 0
0.57635647 -1.3066025 -0.050320338 0
0.59610879 -1.3045067 -0.050314579 0
0.61514342 -1.2962847 -0.050097536 0
0.6348263 -1.2942225 -0.050110523 0
0.65520126 -1.2969257 -0.050304316 0
0.67310864 -1.2828488 -0.049901478 0
0.69309074 -1.2827835 -0.050013218 0
0.71396583 -1.2871825 -0.05029631 0
0.72989124 -1.2650597 -0.049625061 0
0.75069988 -1.2687835 -0.049901769 0
0.77055454 -1.267264 -0.049997121 0
0.78946197 -1.2613865 -0.049942121 0
0.81120062 -1.2671083 -0.050322272 0
0.82679534 -1.2481834 -0.049804434 0
0.84975421 -1.2574905 -0.050337173 0
0.86498106 -1.2385548 -0.049833354 0
0.88438344 -1.2346926 -0.04989681 0
0.90352255 -1.2298361 -0.049932431 0
0.92053342 -1.2184222 -0.049730778 0
0.94067669 -1.2165663 -0.049897082 0
0.96085471 -1.2144496 -0.050063845 0
0.97768092 -1.2029644 -0.049884237 0
0.99739575 -1.1993073 -0.050011408 0
0.92564714 -1.0133884 0.46166039 0
1.0131184 -1.1854316 -0.049755756 0
0.94116133 -1.0057417 0.46118134 0
1.0349262 -1.1866759 -0.050090879 0
0.95716411 -0.99935931 0.46122545 0
1.0528271 -1.1782278 -0.050061796 0
0.96714753 -0.97896236 0.45626727 0
1.0703963 -1.169077 -0.050013881 0
0.9879356 -0.98376304 0.46050248 0
1.0901648 -1.1647791 -0.050165065 0
1.0086255 -0.98757702 0.46449652 0
1.1043093 -1.1483977 -0.049849294 0
1.0270919 -0.98600453 0.46662596 0
1.1206882 -1.1370653 -0.049739439 0
1.0455717 -0.98408729 0.46872672 0
1.1415629 -1.134769 -0.049998764 0
1.0665731 -0.98678845 0.47264999 0
1.1584117 -1.1243685 -0.049943898 0
1.08096 -0.97618741 0.47170451 0
1.1749002 -1.1133745 -0.049873151 0
1.1030847 -0.98009187 0.47630265 0
1.1965835 -1.1118338 -0.050196387 0
1.1346886 -1.0003475 0.057643924 0
1.1349171 -1.0007591 0.16151099 0
1.1291153 -0.99030894 0.26481378 0
1.1356938 -1.0021582 0.37559122 0
1.1294848 -0.99097449 0.48369411 0
1.2150908 -1.104273 -0.050285563 0
1.1412514 -0.97513109 0.056974597 0
1.1462761 -0.98391896 0.16053347 0
1.1451403 -0.98193246 0.26491633 0
1.1448236 -0.9813785 0.3721157 0
1.1518868 -0.99373192 0.48815203 0
1.2235518 -1.0795134 -0.04967254 0
1.1626865 -0.97610646 0.057388749 0
1.1640074 -0.97835058 0.16097209 0
1.1684345 -0.98587197 0.26763913 0
1.1637822 -0.97796816 0.37379038 0
1.1649234 -0.97990698 0.48635006 0
1.2433772 -1.0743458 -0.049877007 0
1.2629673 -1.0685219 -0.050065938 0
1.2750312 -1.050697 -0.049757984 0
1.2958946 -1.0466235 -0.050041772 0
1.307804 -1.0289564 -0.049753271 0
1.3313162 -1.0283285 -0.05020963 0
1.3460448 -1.0148413 -0.050118905 0
1.3575586 -0.99707311 -0.049845979 0
1.3733931 -0.98535877 -0.049847443 0
1.3942957 -0.98019618 -0.050153479 0
1.4066333 -0.96388131 -0.049966361 0
1.2097491 -0.71562558 0.050654389 0
1.2098747 -0.71578401 0.14044197 0
1.4214352 -0.95079893 -0.049933217 0
1.2089782 -0.68972754 0.049916338 0
1.2061458 -0.68624699 0.13771628 0
1.4379635 -0.93981558 -0.050005976 0
1.2087766 -0.66531968 0.049239352 0
1.2044744 -0.66016698 0.13543923 0
1.4516683 -0.92545217 -0.049930364 0
1.2089645 -0.6420967 0.048610605 0
1.2108612 -0.64431119 0.13458131 0
1.4676335 -0.9137376 -0.049987949 0
1.2097399 -0.62021083 0.04803852 0
1.2051268 -0.61496031 0.13179472 0
1.4837236 -0.90209633 -0.05005933 0
1.202875 -0.59044594 0.047081716 0
1.2071315 -0.59516931 0.13034898 0
1.5004596 -0.89107496 -0.050171468 0
1.5094501 -0.87176269 -0.049887422 0
1.5306256 -0.86526853 -0.050243691 0
1.5328393 -0.83939248 -0.049640771 0
1.5577948 -0.83635288 -0.05019737 0
1.5683476 -0.81902832 -0.050038625 0
1.5771564 -0.80023044 -0.049807403 0
1.5995922 -0.79400629 -0.050247036 0
1.6110618 -0.77766806 -0.050162967 0
1.6203384 -0.75951356 -0.049986191 0
1.6271491 -0.73944563 -0.049706995 0
1.6496614 -0.73248839 -0.050166979 0
1.656721 -0.7127775 -0.049920507 0
1.6685766 -0.69701338 -0.049904644 0
1.6893499 -0.68801695 -0.05029732 0
1.6959016 -0.66817474 -0.050060347 0
1.7043321 -0.64988506 -0.049919147 0
1.7248123 -0.64014727 -0.050314371 0
1.7222048 -0.61433768 -0.049714144 0
1.7445586 -0.60558319 -0.050202135 0
1.7522254 -0.58694112 -0.050066907 0
1.7617284 -0.56955987 -0.050020065 0
1.7698224 -0.55135423 -0.049923845 0
1.7736245 -0.53067946 -0.049659766 0
1.7940348 -0.51978153 -0.050092604 0
1.7924467 -0.49622634 -0.049628172 0
1.8130827 -0.4851056 -0.050081808 0
1.8198799 -0.46633086 -0.049979709 0
1.8225347 -0.44551793 -0.049721722 0
1.8318021 -0.42817733 -0.049739219 0
1.8537023 -0.41687527 -0.050265428 0
1.8510679 -0.39377734 -0.049828585 0
1.8628768 -0.3774952 -0.049970809 0
1.8791324 -0.36302885 -0.050293297 0
1.8865635 -0.34461662 -0.050279599 0
1.8827847 -0.32168129 -0.049843267 0
1.9046797 -0.30907372 -0.050403837 0
1.9015734 -0.28666249 -0.050014526 0
1.9152442 -0.27059314 -0.050274476 0
1.9045439 -0.24587844 -0.049620084 0
1.9133782 -0.22814395 -0.049715139 0
1.9361737 -0.21478476 -0.050341316 0
1.9300075 -0.19213159 -0.049890447 0
1.9378535 -0.17388593 -0.049972873 0
1.950191 -0.15682317 -0.050229955 0
1.9439982 -0.13467737 -0.04980991 0
1.9574208 -0.11774916 -0.050123412 0
1.9583342 -0.0976227 -0.049984824 0
1.9597739 -0.077711053 -0.049875159 0
1.967121 -0.059120577 -0.04999049 0
1.9766943 -0.040884089 -0.050195083 0
1.9718623 -0.019837957 -0.049884561 0
1.975371 -0.00044245584 -0.04988645 0
1.9937196 0.016602326 -0.050433606 0
1.9810872 0.038558055 -0.049869753 0
1.9877454 0.057550345 -0.050011571 0
1.9868151 0.077558629 -0.049888916 0
1.9948825 0.096516348 -0.05009855 0
1.9923176 0.1166328 -0.049935222 0
1.9915676 0.13648793 -0.04984615 0
1.9998285 0.15565819 -0.050088581 0
2.0080998 0.17500226 -0.050339852 0
1.9992559 0.19528164 -0.04998805 0
1.9953361 0.21516086 -0.049821399 0
1.9939998 0.23487683 -0.049755987 0
2.0031431 0.25448379 -0.050073579 0
1.9940369 0.274203 -0.049748473 0
2.0115635 0.29419908 -0.050383151 0
2.0040174 0.31385666 -0.050131489 0
1.9856547 0.3328627 -0.049502 0
1.9932342 0.35289866 -0.049808268 0
1.9959915 0.37281978 -0.049951263 0
2.0031173 0.39320362 -0.050259877 0
1.9870054 0.41160819 -0.049744722 0
1.9954371 0.4322874 -0.050118465 0
1.9855405 0.45103234 -0.049843084 0
1.97396 0.46936053 -0.049515083 0
1.9896543 0.49143538 -0.050178848 0
1.9784882 0.5097245 -0.049883027 0
1.975981 0.52929133 -0.049908545 0
1.9713086 0.54847986 -0.04986446 0
1.9814984 0.57057792 -0.050369911 0
1.9703649 0.58854854 -0.05010885 0
1.9648473 0.60759157 -0.050060775 0
1.9591885 0.62656951 -0.050016165 0
1.9586244 0.64679492 -0.05016771 0
1.9518163 0.66548556 -0.050098587 0
1.951144 0.68583179 -0.050265267 0
1.9232117 0.69836724 -0.049428441 0
1.9355117 0.72255367 -0.050095882 0
1.9335326 0.74268728 -0.050242361 0
1.9148903 0.75739098 -0.049772024 0
1.9161561 0.77864772 -0.050058857 0
1.9112812 0.79790741 -0.050124064 0
1.9062974 0.81717861 -0.050194655 0
1.8891442 0.83176625 -0.049808607 0
1.8803085 0.84942478 -0.049747918 0
1.8780361 0.86978918 -0.049949534 0
1.8684461 0.88713825 -0.049877446 0
1.8643779 0.90691298 -0.05002955 0
1.8532766 0.92354625 -0.049915515 0
1.8442713 0.94109857 -0.049892042 0
1.8349596 0.95848423 -0.049864996 0
1.8265269 0.9763009 -0.04988176 0
1.8172525 0.99369121 -0.049873699 0
1.8083366 1.0112731 -0.049889006 0
1.807124 1.0331795 -0.050228562 0
1.7942394 1.0486435 -0.050101031 0
1.7741748 1.0597498 -0.049682602 0
1.7730995 1.0820974 -0.050060894 0
1.754462 1.0937451 -0.049713816 0
1.7554482 1.1177642 -0.05020383 0
1.731711 1.1258086 -0.049651794 0
1.7320572 1.1497947 -0.050139774 0
1.7091203 1.1579078 -0.049630553 0
1.7168167 1.1876041 -0.050468083 0
1.7007316 1.200484 -0.05027467 0
1.6816953 1.2109605 -0.049954444 0
1.6671675 1.2246615 -0.049840908 0
1.6558101 1.2407947 -0.049878903 0
1.6460736 1.258294 -0.050001416 0
1.6336814 1.2736789 -0.050011616 0
1.6170825 1.2854511 -0.049832724 0
1.6108906 1.3062608 -0.050154813 0
1.5957865 1.3192992 -0.050063618 0
1.5815483 1.3330594 -0.050021533 0
1.5715758 1.3508518 -0.050197899 0
1.5446403 1.3522294 -0.049540412 0
1.5360405 1.3713479 -0.04980265 0
1.5253524 1.3885878 -0.049973592 0
1.5033002 1.3940188 -0.049568269 0
1.0245907 0.88898152 0.29232162 0
1.4950168 1.4139303 -0.049885187 0
1.0457399 0.92782915 0.30656603 0
1.4817489 1.4286492 -0.049954019 0
1.4353176 1.3771256 0.059477847 0
1.4516593 1.3952596 0.16960435 0
1.441895 1.3844244 0.27792075 0
1.0572988 0.95764792 0.31648621 0
1.4656619 1.4402378 -0.049881309 0
1.4139458 1.381376 0.059083994 0
1.4125068 1.3797383 0.16556104 0
1.4122645 1.3794625 0.27369979 0
1.0554168 0.97330904 0.31996253 0
1.4475625 1.4494028 -0.049705032 0
1.3879809 1.3798418 0.058435161 0
1.3887222 1.3807071 0.16396464 0
1.3873931 1.3791554 0.27071857 0
1.0507751 0.98615557 0.32217905 0
1.4334593 1.463165 -0.049755067 0
1.3680718 1.3848509 0.058112729 0
1.37704 1.395592 0.16437541 0
1.3658465 1.3821856 0.26862657 0
1.0555902 1.0105932 0.32942161 0
1.417488 1.4746926 -0.049709953 0
1.3421158 1.3820738 0.057446796 0
1.3424479 1.3824818 0.16092351 0
1.3414594 1.3812671 0.26570114 0
1.0579773 1.0329188 0.33565831 0
1.4080848 1.4944557 -0.050049756 0
1.3245329 1.3891032 0.057249285 0
1.3228674 1.3870033 0.15998439 0
1.3195033 1.3827614 0.26343122 0
1.0522702 1.045801 0.33781034 0
1.3928813 1.5071101 -0.0500709 0
1.297244 1.3833494 0.056486964 0
1.2993355 1.3860559 0.15834527 0
1.2950588 1.3805218 0.26039556 0
1.0445628 1.0563644 0.33899695 0
1.3755292 1.5169404 -0.04997424 0
1.2743433 1.3825352 0.055968001 0
1.274829 1.3831805 0.15650226 0
1.2665164 1.3721387 0.25607151 0
1.0478016 1.0816201 0.34633139 0
1.3583953 1.5269582 -0.049896494 0
1.252648 1.3827505 0.055512212 0
1.2565686 1.388097 0.15575594 0
1.2468927 1.374902 0.25436074 0
1.0241213 1.0711086 0.33882549 0
1.3457627 1.5431906 -0.050101578 0
1.2458974 1.4033453 0.055966586 0
1.2464427 1.4041086 0.15651201 0
1.2424904 1.3985741 0.25735393 0
1.0244066 1.0931827 0.34483072 0
1.3285578 1.5531054 -0.05003712 0
1.2417578 1.4282613 0.05660861 0
1.2417862 1.4283023 0.15834922 0
1.2403816 1.4262822 0.2612198 0
1.0128331 1.0990005 0.34419501 0
1.3129472 1.5653005 -0.050080884 0
1.2454536 1.4655687 0.057781614 0
1.2474289 1.4684875 0.16225363 0
1.2424864 1.461184 0.26662529 0
1.002775 1.1069751 0.34448999 0
1.2989479 1.5800042 -0.050239973 0
1.2421427 1.4937457 0.058552638 0
1.2439919 1.4965537 0.16455714 0
1.235567 1.4837605 0.26931876 0
1.1673113 1.3801148 0.34684408 0
0.9921729 1.1141679 0.34452173 0
1.2834086 1.5925177 -0.050312422 0
1.2471076 1.5358543 0.059909936 0
1.2411854 1.5266103 0.16710179 0
1.2179809 1.4903896 0.26859367 0
1.1498315 1.3840129 0.34524879 0
0.98441911 1.1258149 0.34636611 0
1.2644117 1.5995845 -0.050163455 0
1.2440547 1.5669098 0.060789052 0
1.24622 1.5703853 0.17136805 0
1.2066207 1.5068256 0.27000535 0
1.1292214 1.382594 0.34213409 0
0.97940218 1.1421227 0.35006142 0
1.2519213 1.6171967 -0.050465807 0
1.193678 1.5210348 0.27096707 0
1.113291 1.3883131 0.34124985 0
0.96729594 1.1472696 0.34941217 0
0.83866829 0.9349007 0.47090831 0
1.2254583 1.6114968 -0.049806729 0
1.1798987 1.5340933 0.2717151 0
1.0917263 1.3842927 0.33754852 0
0.95493507 1.1518912 0.34862402 0
0.83917361 0.95521826 0.48140752 0
1.208488 1.621469 -0.049810644 0
1.1580585 1.53327 0.26961005 0
1.0753438 1.3886055 0.33640283 0
0.94498277 1.1606091 0.34947124 0
0.84697193 0.98919225 0.35169303 0
0.83648711 0.97085476 0.41318259 0
0.83925623 0.97569776 0.4919377 0
1.1968257 1.6410143 -0.050214205 0
1.1450113 1.5476851 0.27071998 0
1.0547293 1.3850676 0.33303455 0
0.9323315 1.164602 0.34856245 0
0.85334533 1.0223308 0.36494228 0
0.83700317 0.99289483 0.42291701 0
0.83673424 0.99241036 0.49983868 0
1.1789622 1.6496575 -0.050178882 0
1.126949 1.5531257 0.27001756 0
1.0368134 1.3858427 0.33101454 0
0.92821217 1.1842887 0.35365114 0
0.84912205 1.0375049 0.36961529 0
0.83956683 1.0197713 0.43533066 0
0.83869445 1.0181524 0.51379037 0
1.1581196 1.6525538 -0.049921378 0
1.1057429 1.5523463 0.2681005 0
1.0201011 1.3884956 0.32961351 0
0.90998191 1.1778142 0.34890509 0
0.8505103 1.0640326 0.37958664 0
0.83999616 1.0439168 0.44610277 0
0.83787233 1.0398536 0.52493006 0
1.1393337 1.6591142 -0.049822703 0
1.0948331 1.5712993 0.27023932 0
0.99874818 1.3816906 0.32557663 0
0.89886308 1.1845829 0.34921449 0
0.84947944 1.087132 0.38789526 0
0.83943379 1.0673085 0.45638055 0
0.83407348 1.0567309 0.53279871 0
1.1258138 1.6762481 -0.050154611 0
1.0768613 1.5765542 0.26964048 0
0.98581845 1.3911415 0.3262617 0
0.88768452 1.1912878 0.34955037 0
0.84678495 1.1079941 0.39512661 0
0.84041995 1.0950315 0.46901321 0
0.8415094 1.0972502 0.55627048 0
1.1044835 1.6775082 -0.049863774 0
0.96373934 1.3815141 0.32159907 0
0.88034564 1.2061317 0.35293463 0
0.84129745 1.1240108 0.40010902 0
0.84185874 1.1251911 0.48291352 0
0.8423298 1.1261818 0.57193112 0
1.0867499 1.6861019 -0.049873408 0
0.94929361 1.3873805 0.3213931 0
0.86554843 1.2053847 0.35062349 0
0.8414064 1.1529191 0.41096982 0
0.84295845 1.156292 0.49724197 0
0.8400026 1.1498682 0.58407032 0
1.0721817 1.7018334 -0.050170656 0
0.92895281 1.3799552 0.31752747 0
0.85480249 1.213317 0.35155383 0
0.83906907 1.1779594 0.42001647 0
0.83937085 1.1786376 0.506688 0
0.84266663 1.1860441 0.60426784 0
1.0543259 1.7104578 -0.050197262 0
0.91406852 1.3842603 0.3170118 0
0.85515827 1.2472523 0.36194512 0
0.84195828 1.2165531 0.43513581 0
0.84086376 1.2140075 0.52320123 0
0.83949679 1.2108283 0.61698073 0
1.0323379 1.7091854 -0.049849868 0
0.89892429 1.387813 0.31634283 0
0.85187024 1.2744671 0.36985973 0
0.84263396 1.2522184 0.44884729 0
0.84475172 1.2573197 0.5439207 0
0.83996755 1.2457954 0.63619173 0
1.0168861 1.7235844 -0.05011759 0
0.8814314 1.3853294 0.31407091 0
0.85059893 1.3083351 0.38013378 0
0.83845979 1.2780215 0.45808744 0
0.83868831 1.2785921 0.5526309 0
0.84081942 1.2839139 0.65731555 0
0.99972701 1.7340925 -0.050242577 0
0.86506099 1.3851384 0.31249729 0
0.84903312 1.3436061 0.3908641 0
0.83698225 1.3123791 0.47110268 0
0.83962464 1.3192263 0.57172376 0
0.8399967 1.3201903 0.67715919 0
0.9793914 1.7363125 -0.050059579 0
0.84506625 1.3747529 0.30821261 0
0.84860659 1.3842822 0.40346971 0
0.84078056 1.3632171 0.49134457 0
0.83890551 1.3581702 0.58981895 0
0.84361601 1.3708493 0.70601588 0
0.96044046 1.7420343 -0.050019883 0
0.83116704 1.3801795 0.30829945 0
0.83880919 1.4015709 0.40775821 0
0.84053469 1.406401 0.50810927 0
0.84171528 1.4097056 0.61452788 0
0.9419148 1.7489188 -0.050033275 0
0.81573206 1.3811641 0.30723503 0
0.8408041 1.4542354 0.42451453 0
0.83654052 1.4418095 0.52139962 0
0.83760655 1.4449164 0.63047618 0
0.92233163 1.7526304 -0.049936142 0
1.0292099 2.0773873 0.35022685 0
0.8009693 1.3838626 0.30668771 0
0.84267622 1.510592 0.44248587 0
0.84000909 1.5024878 0.54567158 0
0.83603126 1.4904008 0.65179747 0
0.90177447 1.7530344 -0.049724828 0
1.0054054 2.0818088 0.34966952 0
0.785366 1.3837225 0.30543303 0
0.83754784 1.5492722 0.45421174 0
0.83967352 1.5560158 0.56672442 0
0.84112895 1.5606333 0.68602765 0
0.88308799 1.7591391 -0.049736556 0
0.98042911 2.0820858 0.34839016 0
0.76680338 1.3733437 0.30150726 0
0.84064925 1.6183408 0.47647503 0
0.84158516 1.6214459 0.5928461 0
0.86687517 1.773882 -0.050077908 0
0.96183503 2.1039119 0.35121858 0
0.75516546 1.3856384 0.30367726 0
0.84203601 1.6875542 0.49869442 0
0.83832991 1.6746737 0.61360586 0
0.84686434 1.7756934 -0.049946945 0
0.73843259 1.3801671 0.047305133 0
0.74066883 1.3883241 0.13124715 0
0.73931557 1.3833878 0.21525934 0
0.73777139 1.3777552 0.30054066 0
0.838624 1.745635 0.51699072 0
0.83198571 1.7214206 0.63152939 0
0.83007091 1.7894944 -0.050268076 0
0.72402453 1.3826464 0.04725777 0
0.72381938 1.3818592 0.13010819 0
0.72660357 1.3925409 0.21626189 0
0.7247622 1.3854764 0.30158642 0
0.82954609 1.7874811 0.52966028 0
0.82844174 1.7832441 0.65587926 0
0.80798417 1.7828438 -0.049843855 0
0.70973963 1.3854945 0.047230795 0
0.70891583 1.3821625 0.12974556 0
0.70922178 1.3834 0.21389244 0
0.70753479 1.3765769 0.29830384 0
0.82692754 1.8594601 0.55265665 0
0.82341349 1.8452475 0.68024921 0
0.79002631 1.7925432 -0.05003057 0
0.6929239 1.3774501 0.046811137 0
0.69351554 1.3799791 0.12913027 0
0.69486552 1.3857501 0.21369888 0
0.69397753 1.3819542 0.29882866 0
0.81962651 1.9190781 0.57137316 0
0.77092916 1.7977058 -0.050059184 0
0.68068892 1.3887998 0.047109447 0
0.67920613 1.3820808 0.12900966 0
0.6785683 1.3791906 0.21189384 0
0.67948163 1.3833289 0.29835096 0
0.80616206 1.9573568 0.5827989 0
0.7511853 1.7998667 -0.049987052 0
0.6639874 1.3796723 0.04666597 0
0.66533601 1.3861712 0.12912747 0
0.66211802 1.3706641 0.20976904 0
0.66479605 1.3835691 0.2976265 0
0.79200119 1.9965528 0.59456414 0
0.73052418 1.7970597 -0.04974347 0
0.65039599 1.3849154 0.046753883 0
0.6482811 1.374037 0.12748784 0
0.65103835 1.3882191 0.21247937 0
0.65041202 1.3849978 0.29726079 0
0.77896839 2.0462353 0.60991532 0
0.71362376 1.8140409 -0.050227884 0
0.63603574 1.3862796 0.046707079 0
0.63558656 1.3838029 0.12826741 0
0.63597709 1.3859562 0.21157666 0
0.63683265 1.390673 0.29804406 0
0.76537162 2.099339 0.62644374 0
0.69313383 1.8117837 -0.050022483 0
0.62158453 1.3869185 0.046640672 0
0.61972606 1.3758829 0.12713529 0
0.62275404 1.3938632 0.21257056 0
0.61916435 1.3725471 0.29271206 0
0.74493504 2.1193831 0.63184142 0
0.67300647 1.8109357 -0.049877729 0
0.60553765 1.3770047 0.046199698 0
0.60643166 1.3827544 0.1276359 0
0.60663199 1.3840429 0.21035741 0
0.60658735 1.3837557 0.29502204 0
0.72709042 2.1587811 0.64383155 0
0.6538862 1.8164487 -0.049971774 0
0.59119123 1.3768277 0.046117943 0
0.5909431 1.3750876 0.12657554 0
0.59251928 1.3861401 0.21035632 0
0.59263188 1.3869294 0.29529804 0
0.70889866 2.2021995 0.65722686 0
0.63500667 1.8243563 -0.05016055 0
0.5774079 1.3805586 0.046183515 0
0.57815111 1.3862847 0.1275824 0
0.57650602 1.3736094 0.20772733 0
0.57704765 1.3777826 0.29244915 0
0.6885367 2.2368042 0.66772038 0
0.61410284 1.8161353 -0.049777858 0
0.5640046 1.3879545 0.046386976 0
0.56281209 1.3777626 0.12647153 0
0.56292421 1.378721 0.20834231 0
0.56380481 1.3862472 0.29417878 0
0.66759485 2.2733216 0.67892504 0
0.59471107 1.8198441 -0.049833346 0
0.5511359 1.4018848 0.12891029 0
0.55146658 1.4050564 0.21283592 0
0.55252975 1.4152541 0.30121833 0
0.64471591 2.2994757 0.68673676 0
0.5758974 1.830332 -0.05014056 0
0.5521757 1.5712048 0.14703165 0
0.55124038 1.5609875 0.24082069 0
0.55242419 1.5739189 0.3415044 0
0.62136823 2.3270395 0.69510686 0
0.55638546 1.8347614 -0.050238989 0
0.60318524 2.4282053 0.23926763 0
0.59843075 2.3679159 0.38654923 0
0.59738976 2.3547161 0.54096943 0
0.53592187 1.825915 -0.049871132 0
0.57420105 2.4041207 0.39274561 0
0.57392144 2.3998976 0.55203354 0
0.51611859 1.8246031 -0.049782112 0
0.54857814 2.4305699 0.39723104 0
0.54800081 2.4197919 0.55670494 0
0.49663582 1.8296601 -0.049929626 0
0.5219599 2.4481249 0.40016699 0
0.52220988 2.4542303 0.56517106 0
0.47679153 1.8257439 -0.049765367 0
0.4563207 1.103411 0.35353175 0
0.45649269 1.1094799 0.42901117 0
0.45730203 1.8372045 -0.050159097 0
0.44587025 1.1110108 0.35658231 0
0.44578931 1.1058691 0.42708695 0
0.43749648 1.8374714 -0.05016195 0
0.43512508 1.084462 0.41632602 0
0.43512696 1.0850643 0.49271223 0
0.41769937 1.8362942 -0.050122149 0
0.42475554 1.0890253 0.41862556 0
0.42497379 1.0659122 0.48137295 0
0.39776203 1.8426133 -0.050358929 0
0.41397923 1.1067199 0.35484692 0
0.41396919 1.1071758 0.427791 0
0.41429618 1.0923386 0.49714303 0
0.37831649 1.8298198 -0.049922019 0
0.35221255 2.5834136 0.42448696 0
0.35268372 2.5698113 0.59454411 0
0.40465063 1.0695802 0.48381338 0
0.35875052 1.8260368 -0.049815651 0
0.32268393 2.5893173 0.42576867 0
0.32250881 2.5930233 0.60077631 0
0.3954649 1.0490474 0.47186926 0
0.33787283 1.845363 -0.050544515 0
0.29192293 2.6127305 0.430282 0
0.29238427 2.605026 0.60424536 0
0.31864434 1.8347995 -0.050213549 0
0.2614454 2.6234586 0.4325757 0
0.26227474 2.6120238 0.6065343 0
0.29969901 1.8236252 -0.049869012 0
0.35582197 1.1648804 0.038265776 0
0.22939569 2.6488123 0.43758854 0
0.22998741 2.6418669 0.61477244 0
0.27945861 1.8281423 -0.050095484 0
0.19859992 2.6541238 0.43904883 0
0.19739039 2.6664793 0.62178403 0
0.25898913 1.8332492 -0.050352607 0
0.16590934 2.6746664 0.4433451 0
0.16640489 2.6701865 0.62354451 0
0.34674677 1.0399427 0.46875632 0
0.24026617 1.8226943 -0.050056003 0
0.13484682 2.6770761 0.44442776 0
0.13546549 2.6720619 0.62493706 0
0.22060716 1.8205396 -0.050070051 0
0.10214616 2.6903579 0.44756228 0
0.10213675 2.6904271 0.63067812 0
0.20277317 1.8060511 -0.049647857 0
0.06992124 2.6974454 0.44964826 0
0.070880994 2.6910059 0.63195014 0
0.18258363 1.8079523 -0.049825665 0
0.036412075 2.7106111 0.452923 0
0.035303101 2.7174594 0.64001393 0
0.16073211 1.8186108 -0.050330468 0
0.0031537877 2.7196596 0.45552832 0
0.0017158256 2.7278819 0.64405918 0
0.14300631 1.8053658 -0.049978126 0
-0.027498377 2.7128403 0.45530483 0
-0.02926336 2.7222342 0.64405197 0
0.1240084 1.7996966 -0.049908884 0
-0.089064792 2.8599894 0.10051948 0
-0.08920683 2.8606963 0.29060343 0
-0.063188449 2.7312241 0.45978782 0
-0.062404975 2.7273252 0.64694071 0
0.10345508 1.8015108 -0.050121404 0
-0.11269017 2.8111069 0.098982066 0
-0.1138301 2.8164315 0.28648314 0
-0.095208839 2.7294528 0.46064845 0
-0.095924452 2.7327955 0.65004492 0
0.083987549 1.7978578 -0.050143827 0
-0.14439161 2.8026237 0.098930217 0
-0.14312316 2.7970433 0.28512686 0
-0.12876351 2.7338672 0.46273002 0
-0.12973537 2.738143 0.65323621 0
0.064158395 1.7956268 -0.050227519 0
-0.17539026 2.7913537 0.098790519 0
-0.17399396 2.7855499 0.2846798 0
-0.16151603 2.7336831 0.46404317 0
-0.16299964 2.73985 0.6555934 0
0.048016176 1.7786241 -0.049776562 0
-0.20922513 2.7916319 0.099090099 0
-0.20978756 2.7938471 0.28646877 0
-0.19644912 2.7413206 0.46689251 0
-0.19627006 2.7406156 0.6578204 0
0.027278053 1.7800291 -0.050011843 0
-0.2524243 2.8260939 0.10066968 0
-0.25274795 2.8273044 0.29111275 0
-0.2285694 2.7368784 0.46757838 0
-0.23086275 2.7454553 0.66124141 0
0.0082978774 1.774551 -0.050002385 0
-0.26130116 2.7342401 0.46868023 0
-0.26119816 2.7338734 0.66043788 0
-0.011318667 1.7712461 -0.050082643 0
-0.29194075 2.7239361 0.46842232 0
-0.29302257 2.7276089 0.66114706 0
-0.028488738 1.7598027 -0.049868383 0
-0.32627785 2.7257307 0.47051939 0
-0.32745761 2.7295575 0.6641584 0
-0.051595256 1.7672704 -0.050370656 0
-0.36028117 2.7255175 0.47232625 0
-0.36083227 2.7272282 0.66615146 0
-0.065774217 1.7470533 -0.049843289 0
-0.39214152 2.7181201 0.47285524 0
-0.39408934 2.7239153 0.66800112 0
-0.08592613 1.7450098 -0.050007772 0
-0.42454833 2.712044 0.47371557 0
-0.42272931 2.7068491 0.66625404 0
-0.10151638 1.7300986 -0.049693704 0
-0.45837623 2.709502 0.47533634 0
-0.45471138 2.6994438 0.66721994 0
-0.12258698 1.730276 -0.049961619 0
-0.48735827 2.6935103 0.47445309 0
-0.48941642 2.6989453 0.67018437 0
-0.14131673 1.7239745 -0.049992476 0
-0.51807499 2.6822536 0.47455356 0
-0.51688206 2.6792195 0.66801202 0
-0.1577533 1.7119832 -0.049813196 0
-0.55461651 2.6852305 0.47750193 0
-0.551835 2.6784091 0.67113525 0
-0.18103571 1.7165108 -0.050281189 0
-0.58652353 2.6761677 0.47819868 0
-0.57982337 2.6603107 0.66960841 0
-0.19354035 1.6955694 -0.049770687 0
-0.61308229 2.6546235 0.47652116 0
-0.61480427 2.6585598 0.67272347 0
-0.21443386 1.6940311 -0.050023768 0
-0.63966644 2.6336908 0.47502115 0
-0.64282656 2.6406739 0.67146081 0
-0.2327394 1.6865319 -0.050053734 0
-0.67249513 2.6265891 0.47633255 0
-0.67085469 2.6230824 0.67037272 0
-0.25151116 1.6799418 -0.050129045 0
-0.69808173 2.6040678 0.47464594 0
-0.69900429 2.6059768 0.66951549 0
-0.26931578 1.6712868 -0.05013185 0
-0.72761214 2.589968 0.47471079 0
-0.73165441 2.5980711 0.67137653 0
-0.28536409 1.6592084 -0.050006188 0
-0.7561667 2.573941 0.4744603 0
-0.75887108 2.5791955 0.6702196 0
-0.3058781 1.6557268 -0.050235283 0
-0.78021133 2.54948 0.4725593 0
-0.78831804 2.564755 0.67043459 0
-0.3187902 1.6380035 -0.049896907 0
-0.81594431 2.5469306 0.47521141 0
-0.81116581 2.5381942 0.66723394 0
-0.33406842 1.6249596 -0.049754515 0
-0.61967647 2.1318591 0.082526386 0
-0.83038795 2.5058317 0.46999532 0
-0.83251441 2.5096056 0.66350061 0
-0.35253173 1.6175996 -0.049853593 0
-0.62204218 2.0821531 0.081027746 0
-0.86027002 2.492785 0.47062767 0
-0.86331379 2.4980316 0.66483748 0
-0.37071288 1.6096247 -0.049937483 0
-0.6184988 2.0246043 0.079192914 0
-0.8904624 2.4800758 0.47141442 0
-0.88943648 2.4783576 0.66389239 0
-0.38885564 1.6014683 -0.050023969 0
-0.62042177 1.9784186 0.077818081 0
-0.90742445 2.44561 0.46768248 0
-0.91101873 2.4514608 0.66087544 0
-0.40352237 1.5876901 -0.049883351 0
-0.62248409 1.9342612 0.076518953 0
-0.93055928 2.4218807 0.46625644 0
-0.93899786 2.4352374 0.66113698 0
-0.42736989 1.588222 -0.05035862 0
-0.61594498 1.8785368 0.074717827 0
-0.95622349 2.4024014 0.4657951 0
-0.95476019 2.4001486 0.65576822 0
-0.4389298 1.5697392 -0.050034504 0
-0.61607456 1.8350822 0.073424675 0
-0.97445059 2.3718891 0.46300718 0
-0.98327923 2.3851135 0.65656638 0
-0.45537847 1.5587819 -0.050039656 0
-0.62425768 1.8049738 0.072698191 0
-1.0039386 2.3584719 0.46398386 0
-0.99809444 2.3499525 0.65125537 0
-0.47264129 1.5489682 -0.050103806 0
-0.6162914 1.7528298 0.071007319 0
-1.0272118 2.3359895 0.46305075 0
-1.0189581 2.3242762 0.64891541 0
-0.48712993 1.5352383 -0.050005507 0
-0.61765301 1.7156041 0.069954 0
-0.61586571 1.7131342 0.19818898 0
-1.034905 2.2921913 0.45742878 0
-1.0448016 2.3058672 0.64892495 0
-0.077434912 0.96909362 0.44124117 0
-0.498748 1.5177561 -0.04974746 0
-0.61998177 1.6809195 0.069004565 0
-0.62152171 1.682992 0.1959361 0
-1.0607593 2.274143 0.45756122 0
-1.0575129 2.269774 0.64341664 0
-0.09126319 0.96933961 0.44543192 0
-0.51429337 1.5057176 -0.049737897 0
-0.61678219 1.6400852 0.067771159 0
-0.62153101 1.6463113 0.19278729 0
-1.0741189 2.2396748 0.45404398 0
-1.0866897 2.2561557 0.64511806 0
-0.094834104 0.95578706 0.44108912 0
-0.53871417 1.5050224 -0.050251372 0
-0.62467301 1.6148233 0.06722977 0
-0.62017548 1.6090783 0.18953194 0
-1.0980831 2.2195411 0.45381349 0
-1.0949221 2.2155035 0.6381954 0
-0.11267622 0.96081591 0.44853881 0
-0.54899442 1.4861423 -0.049951304 0
-0.62233114 1.5774283 0.066131771 0
-0.61727321 1.5711325 0.18614289 0
-1.113867 2.1892688 0.45130461 0
-1.1156018 2.1914279 0.63666111 0
-0.12794973 0.96204591 0.45376962 0
-0.56683552 1.4767624 -0.050093606 0
-0.62201905 1.5437081 0.065190978 0
-0.61117601 1.5305538 0.18234675 0
-1.1261107 2.1552441 0.44793883 0
-1.1319441 2.1623209 0.63353282 0
-0.13562883 0.95364618 0.45293501 0
-0.56959319 1.4493862 -0.04940645 0
-0.61391282 1.5017939 0.06385681 0
-0.6182282 1.5068966 0.18088086 0
-1.147035 2.1322048 0.44716784 0
-1.1529016 2.139142 0.63242024 0
-0.15348227 0.9573397 0.46007884 0
-0.59055901 1.4437342 -0.049740124 0
-0.62428343 1.4826094 0.063577481 0
-0.62329888 1.4814745 0.17916033 0
-1.1571567 2.0968695 0.44351533 0
-1.160321 2.1005173 0.62616724 0
-0.61461627 1.4411975 -0.050238989 0
-0.6367358 1.4660561 0.063426949 0
-0.63515735 1.4642823 0.17861347 0
-1.1695642 2.0648632 0.44065586 0
-1.1752965 2.0713053 0.62309015 0
-0.62703407 1.4253807 -0.050116286 0
-0.66442096 1.4663465 0.064096332 0
-0.66209805 1.4638013 0.18051334 0
-1.180539 2.0318718 0.4375608 0
-1.1764816 2.027426 0.61497599 0
-0.63576293 1.4057446 -0.049812976 0
-0.50339252 1.2643206 0.054897361 0
-0.6843574 1.4576626 0.18165256 0
-1.1943241 2.0025086 0.43535921 0
-1.1892295 1.9970657 0.61149502 0
-0.6599946 1.4025635 -0.050325688 0
-0.50417817 1.2402358 0.054292586 0
-0.70872951 1.4533348 0.1831169 0
-1.2038214 1.9691154 0.43216655 0
-1.202937 1.968194 0.60855472 0
-0.66180766 1.376088 -0.049693033 0
-0.50375181 1.2155241 0.053649347 0
-0.74501956 1.4606205 0.18639684 0
-1.2069705 1.9299018 0.42749122 0
-1.2138026 1.9368423 0.60475135 0
-0.68984604 1.3762152 -0.050402962 0
-0.52801949 1.2159091 0.054270759 0
-0.77697694 1.4625276 0.18896672 0
-1.2175592 1.8989705 0.42488861 0
-1.2133014 1.8947526 0.59705573 0
-0.69146919 1.3501258 -0.049793053 0
-0.54140669 1.205171 0.054344341 0
-0.80729222 1.4620066 0.19125657 0
-1.2163815 1.8571718 0.4194653 0
-1.2254789 1.8659595 0.5941397 0
-0.71329212 1.3436494 -0.050197233 0
-0.56218702 1.2013215 0.054786317 0
-0.83658826 1.4597838 0.19336994 0
-1.23015 1.830485 0.41794011 0
-1.2293475 1.8297291 0.58847374 0
-0.73125839 1.3332397 -0.050413802 0
-0.86871421 1.459483 0.069076806 0
-0.86456835 1.4556754 0.1952711 0
-1.2306051 1.7918539 0.41325518 0
-1.2406678 1.8010957 0.58561319 0
-0.24187095 0.88377237 0.38512903 0
-0.74173617 1.315915 -0.050275385 0
-0.90669203 1.4636296 0.070180625 0
-0.9076103 1.4644518 0.19933128 0
-1.2312136 1.7542322 0.40877834 0
-1.2357937 1.7583334 0.57736278 0
-0.23352171 0.86081904 0.3761839 0
-0.75051284 1.2972304 -0.050068256 0
-0.93801141 1.4609247 0.07095433 0
-1.2377837 1.7226388 0.40589172 0
-1.2346054 1.7198641 0.57063425 0
-0.238674 0.85037291 0.37491706 0
-0.76068485 1.2799212 -0.049939845 0
-0.97013998 1.4581872 0.071759336 0
-1.2401135 1.6879601 0.4021264 0
-1.2368761 1.6852049 0.56529945 0
-0.23235346 0.83026123 0.36749801 0
-0.25083381 0.84598976 0.45499292 0
-0.77443135 1.2656909 -0.049988739 0
-1.0101572 1.4612517 0.072923519 0
-1.2465038 1.6573275 0.39945459 0
-1.2346393 1.6474847 0.55867124 0
-0.24590959 0.82722336 0.37098595 0
-0.78771746 1.2510401 -0.050024278 0
-1.0503211 1.463374 0.07408087 0
-1.2504314 1.6251777 0.39632863 0
-1.2334808 1.6114719 0.55262065 0
-0.25523031 0.82048589 0.37220398 0
-0.79404342 1.2308691 -0.049751528 0
-1.0855143 1.4605356 0.074999638 0
-1.2506979 1.5906932 0.39248627 0
-1.2433828 1.5849292 0.55037045 0
-0.27484113 0.82175994 0.37887907 0
-0.8152225 1.2223401 -0.050161429 0
-1.1255528 1.4605954 0.07612928 0
-1.2572808 1.5617292 0.39021632 0
-1.2388924 1.5476115 0.54362059 0
-0.26337636 0.79866177 0.36926046 0
-0.25670207 0.79353756 0.44077066 0
-0.82259655 1.2031211 -0.049956847 0
-1.1663027 1.4601872 0.077280015 0
-1.2522109 1.5244401 0.38542575 0
-1.2376658 1.5135615 0.53812426 0
-0.2709288 0.7905153 0.36971557 0
-0.26882863 0.78894454 0.44421852 0
-0.83304119 1.1863135 -0.049900491 0
-1.2078998 1.4593873 0.078457892 0
-1.2472129 1.4880258 0.38080028 0
-1.2365825 1.4802818 0.53285933 0
-1.235635 1.4795916 0.69263875 0
-0.26484901 0.77240175 0.36323628 0
-0.27417588 0.77919614 0.44347438 0
-0.85140634 1.1751695 -0.050200637 0
-1.2491748 1.4573354 0.079611644 0
-1.2496598 1.4576793 0.37796393 0
-1.2411395 1.4516354 0.5295372 0
-1.2503569 1.4581739 0.69245642 0
-0.28508228 0.77343494 0.37028819 0
-0.27446651 0.76590443 0.43971053 0
-0.84849298 1.1490691 -0.049581077 0
-1.3103102 1.4680052 0.081618227 0
-1.2473905 1.4245522 0.37420264 0
-1.2326365 1.4143628 0.52230674 0
-1.2294532 1.4121644 0.67798102 0
-0.28276849 0.75837356 0.44095287 0
-0.86831212 1.1387717 -0.049958821 0
-1.2704771 1.4090962 0.07925874 0
-1.2797729 1.4153447 0.22772981 0
-1.2513505 1.3962399 0.37191769 0
-1.2418193 1.3898333 0.52071893 0
-1.2413946 1.3895478 0.67702734 0
-0.29994708 0.75673193 0.4475936 0
-0.87691474 1.1208161 -0.049860533 0
-1.2736515 1.3802999 0.078785047 0
-1.27203 1.3792393 0.22489193 0
-1.2546852 1.3678951 0.36959389 0
-1.2381601 1.357087 0.51532382 0
-1.2447481 1.3613958 0.67278123 0
-0.29415548 0.73966527 0.4404594 0
-0.88578999 1.1031125 -0.049784176 0
-1.2693601 1.3471448 0.078014627 0
-1.2777939 1.3525106 0.22385529 0
-1.2430317 1.3303945 0.36416146 0
-1.2383848 1.327438 0.51127136 0
-1.2373495 1.3267794 0.6644696 0
-0.30301011 0.73234028 0.44219562 0
-0.8944968 1.0853642 -0.049710728 0
-1.2894036 1.3296791 0.078289397 0
-1.2874901 1.3284954 0.22336632 0
-1.2564831 1.3093125 0.36419573 0
-1.2443948 1.3018337 0.50909841 0
-1.235965 1.2966186 0.65874642 0
-0.90307271 1.0675942 -0.049641732 0
-1.314025 1.3147358 0.07876201 0
-1.3167967 1.3164026 0.22537838 0
-1.2450738 1.2732694 0.35905394 0
-1.2343258 1.2668056 0.50225127 0
-1.2329818 1.2659974 0.65259385 0
-0.92848825 1.0597174 -0.050278854 0
-1.342695 1.3017673 0.079406373 0
-1.3316308 1.2953018 0.2255933 0
-1.2532278 1.2494854 0.35813147 0
-1.2315722 1.2368305 0.49774688 0
-1.2458174 1.245155 0.652731 0
-0.92478466 1.0347922 -0.049720142 0
-1.3712111 1.2881843 0.080046557 0
-1.3850827 1.2960579 0.23061179 0
-1.2499752 1.2193707 0.3549124 0
-1.2380358 1.2125939 0.4960897 0
-1.2403517 1.2139084 0.64596677 0
-0.93557799 1.0183023 -0.049769074 0
-1.2530354 1.1932435 0.35309395 0
-1.2371438 1.1844862 0.49239045 0
-1.2469193 1.1898731 0.64397037 0
-0.94625092 1.0017053 -0.049821239 0
-1.250101 1.1641942 0.35012919 0
-1.2423465 1.1600474 0.49058211 0
-1.2320703 1.154552 0.63402188 0
-0.95238054 0.98270673 -0.049698774 0
-1.2552269 1.1397877 0.34889582 0
-1.2334894 1.1285129 0.48483336 0
-1.2365757 1.1301137 0.63155919 0
-0.97224605 0.97070783 -0.05013556 0
-1.2685595 1.119696 0.34938917 0
-1.2414194 1.1060499 0.48402849 0
-1.2363901 1.1035211 0.62748009 0
-0.97568166 0.9503594 -0.049923237 0
-1.276481 1.0968876 0.34884489 0
-1.2427504 1.0804565 0.48143631 0
-1.2349241 1.0766441 0.62307638 0
-0.98031449 0.93073767 -0.049769573 0
-1.2932621 1.0783377 0.35012788 0
-1.2469233 1.0564822 0.47975233 0
-1.232278 1.0495747 0.61838955 0
-0.9972508 0.91684628 -0.050109334 0
-1.293757 1.0521544 0.34822136 0
-1.2390271 1.0271789 0.47477821 0
-1.2445472 1.0296979 0.61930913 0
-1.0017357 0.89719576 -0.049968187 0
-1.3140663 1.0350004 0.3502965 0
-1.2385175 1.0016673 0.4719947 0
-1.2339009 0.99963033 0.61198199 0
-1.0131509 0.88060415 -0.050106384 0
-1.3211284 1.0118806 0.34980583 0
-1.2378271 0.9763732 0.46926525 0
-1.2311071 0.97350878 0.6076712 0
-1.0154524 0.86015385 -0.049900111 0
-1.3422835 0.99462944 0.35212308 0
-1.2359009 0.95085806 0.46629706 0
-1.2451349 0.95465744 0.60955298 0
-1.0221237 0.8415907 -0.049872629 0
-1.3365011 0.9663372 0.34924439 0
-1.2407621 0.92834747 0.46529514 0
-1.2379082 0.92721504 0.603903 0
-1.0316565 0.82413888 -0.049963605 0
-1.3386092 0.94148767 0.34797195 0
-1.2376634 0.90289581 0.46220145 0
-1.2359878 0.9022553 0.60029352 0
-1.0445306 0.80784482 -0.050189652 0
-1.3492942 0.91997921 0.34841385 0
-1.2355961 0.87814522 0.45948979 0
-1.240003 0.8797667 0.59891653 0
-1.0461963 0.78741378 -0.049998026 0
-1.3566586 0.89722669 0.34827054 0
-1.245145 0.85778344 0.46001831 0
-1.2335473 0.85368133 0.59395075 0
-1.0583903 0.77069759 -0.050213899 0
-1.3631572 0.87419736 0.3480176 0
-1.2425363 0.83323413 0.45733806 0
-1.2373464 0.83147168 0.59272492 0
-1.0683784 0.75309968 -0.050353985 0
-1.3943108 0.85922933 0.35249713 0
-1.2436138 0.81015956 0.45574093 0
-1.2397486 0.80890095 0.59111333 0
-1.0736709 0.73393118 -0.050326228 0
-1.3852839 0.83107591 0.34940431 0
-1.2339737 0.78390527 0.45136368 0
-1.2373381 0.78495407 0.5879302 0
-1.0743539 0.71340621 -0.050135873 0
-1.3964807 0.80939549 0.35019568 0
-1.220073 0.75682843 0.44595674 0
-1.233402 0.7608003 0.58433419 0
-1.0700308 0.69159418 -0.049769998 0
-1.3935591 0.78358203 0.34838837 0
-1.246105 0.74165684 0.45125163 0
-1.2404776 0.74005681 0.58466524 0
-1.0959368 0.6782313 -0.050533623 0
-1.4065757 0.76234156 0.34962597 0
-1.2273442 0.71381187 0.44473955 0
-1.2406083 0.71740335 0.58269161 0
-1.0834744 0.65443701 -0.049886577 0
-1.4170623 0.74026775 0.35043836 0
-1.2374523 0.69405484 0.44594628 0
-1.2419223 0.69520497 0.58122897 0
-1.0878167 0.63520807 -0.049870081 0
-1.4232591 0.71702701 0.35050359 0
-1.2405865 0.67247069 0.44538334 0
-1.2327515 0.67055964 0.57627624 0
