# .PCD v0.7 - Point Cloud Data file format
VERSION 0.7
FIELDS x y z intensity
SIZE 4 4 4 4
TYPE F F F F
COUNT 1 1 1 1
WIDTH 1350
HEIGHT 1
VIEWPOINT 0 0 0 1 0 0 0
POINTS 1350
DATA ascii
-0.51043528 0.12079266 0.10850915 0
-0.51318812 0.12037349 0.17852706 0
-1.2466313 0.008698185 0.43934858 0
-1.243131 0.0092311399 0.56991208 0
-1.1123977 0.0091933506 -0.049903661 0
-0.51416725 0.10800344 0.040256694 0
-0.51067108 0.10858091 0.1087399 0
-0.51261014 0.10826064 0.17876653 0
-1.2397758 -0.011845778 0.43844274 0
-1.2347876 -0.011021863 0.5682267 0
-1.1108714 -0.010561387 -0.049969271 0
-0.51378471 0.095799677 0.040316939 0
-0.50743419 0.096930914 0.10860885 0
-0.51446444 0.09567859 0.17948002 0
-1.2405462 -0.033660781 0.43957806 0
-1.2367673 -0.032987636 0.57011217 0
-1.1049701 -0.02953006 -0.049885042 0
-0.51833969 0.08260686 0.04056238 0
-0.50812656 0.084559135 0.10892344 0
-0.50811625 0.084561102 0.17871819 0
-1.2510139 -0.057446968 0.44330621 0
-1.2413296 -0.055595797 0.57297051 0
-1.095906 -0.047795366 -0.049694046 0
-0.51340133 0.071174286 0.040468574 0
-0.51296443 0.071263514 0.1097106 0
-0.50532228 0.072824337 0.17863438 0
-1.2383988 -0.076897837 0.44111118 0
-1.2384857 -0.07691557 0.5734179 0
-1.0913163 -0.066898681 -0.049674392 0
-0.51458317 0.058476973 0.040603369 0
-0.50865996 0.059764627 0.10951287 0
-0.50615227 0.060309771 0.17924641 0
-1.2499865 -0.10139195 0.44529313 0
-1.2478337 -0.10092393 0.57810873 0
-1.0895876 -0.086650766 -0.049768303 0
-0.5105499 0.046882797 0.040553331 0
-0.51037616 0.046922866 0.1099945 0
-0.51779455 0.045212094 0.1818905 0
-1.2369113 -0.1206255 0.44311041 0
-1.2395636 -0.12123717 0.57690096 0
-1.0868926 -0.10623855 -0.049836121 0
-0.50350267 0.036058102 0.040397737 0
-0.51203853 0.033976082 0.11048954 0
-0.52034664 0.031949628 0.18289052 0
-1.2441914 -0.14460583 0.44633004 0
-1.2385256 -0.14322387 0.57825357 0
-1.0804273 -0.12490884 -0.049774248 0
-0.56215715 0.0084399479 0.042668693 0
-0.55280316 0.010846694 0.1153434 0
-0.56202143 0.0084748762 0.19121034 0
-1.2376657 -0.16536562 0.44600248 0
-1.2358339 -0.16489433 0.57913744 0
-1.0808469 -0.14540137 -0.049975496 0
-0.6139071 -0.018970232 0.044704869 0
-0.6167984 -0.01975311 0.1228327 0
-1.2338395 -0.18682645 0.31735149 0
-1.2361727 -0.1874582 0.44707307 0
-1.2404201 -0.18860824 0.5826267 0
-1.0774299 -0.16495384 -0.050044626 0
-0.69059598 -0.054966521 0.047686774 0
-0.69512188 -0.056253325 0.13199268 0
-1.2406344 -0.21135731 0.31971547 0
-1.2495525 -0.21389292 0.45216608 0
-1.2372113 -0.21038403 0.58353549 0
-1.0643245 -0.18167345 -0.049762249 0
-0.77569926 -0.095667131 0.051010199 0
-0.77219498 -0.094622917 0.14109835 0
-1.2357066 -0.23274295 0.31994033 0
-1.2422786 -0.23470129 0.45186827 0
-1.2296625 -0.23094191 0.58303607 0
-1.0612 -0.20129927 -0.04985987 0
-0.87020051 -0.14175554 0.054717273 0
-0.87233388 -0.1424206 0.15289062 0
-1.2290782 -0.25363496 0.31989557 0
-1.2422132 -0.2577298 0.45356563 0
-1.2414851 -0.25750276 0.58937532 0
-1.0599782 -0.22162034 -0.050038591 0
-0.98838484 -0.19830815 0.059350524 0
-0.98493981 -0.1971864 0.16620828 0
-1.2430594 -0.28123489 0.32380944 0
-1.2392864 -0.28000638 0.45457983 0
-1.2419373 -0.28086951 0.59187913 0
-1.0544386 -0.24061142 -0.050064903 0
-1.1181203 -0.26223794 0.064465955 0
-1.1190836 -0.26256505 0.18210563 0
-1.241227 -0.30404541 0.3247942 0
-1.2396982 -0.30352613 0.45657334 0
-1.0388559 -0.25607327 -0.049720053 0
-1.2887262 -0.34445438 0.2022142 0
-1.2311412 -0.3240861 0.32425931 0
-1.2470125 -0.3296999 0.46052372 0
-1.0412943 -0.2779099 -0.050066538 0
-1.250859 -0.35501692 0.19877137 0
-1.2307266 -0.34760943 0.32562885 0
-1.2480203 -0.35397246 0.46286738 0
-1.0350045 -0.2966747 -0.050091572 0
-1.2575629 -0.38175932 0.20045534 0
-1.2415364 -0.37563238 0.32922924 0
-1.2395707 -0.37488088 0.46272245 0
-1.0199014 -0.31196478 -0.049787275 0
-1.2460071 -0.40168455 0.20007539 0
-1.2336303 -0.39677343 0.32928455 0
-1.2362771 -0.39782366 0.46406409 0
-1.0219563 -0.33408579 -0.050151199 0
-1.2577679 -0.43111119 0.20243219 0
-1.2301185 -0.41973475 0.33024889 0
-1.2393597 -0.42353705 0.4672513 0
-1.0129515 -0.35177502 -0.050098643 0
-1.2559237 -0.4553428 0.20325543 0
-1.2329526 -0.44555131 0.33251908 0
-1.2431799 -0.44991073 0.47074983 0
-1.0074866 -0.37098899 -0.050192598 0
-1.2404805 -0.47378919 0.20252159 0
-1.2305037 -0.46938726 0.3338244 0
-1.2406957 -0.47388414 0.4726021 0
-0.99250734 -0.38593748 -0.049923185 0
-1.2344085 -0.49632707 0.20291792 0
-1.2395707 -0.49868283 0.3374795 0
-1.2516999 -0.50421786 0.47833219 0
-0.99000263 -0.40656289 -0.050151989 0
-1.2368568 -0.52299029 0.20436263 0
-1.242522 -0.52566218 0.34001023 0
-1.2394651 -0.52422041 0.47764847 0
-0.97664857 -0.42208627 -0.049961638 0
-1.4893098 -0.67181861 0.082320377 0
-1.2476087 -0.55407894 0.20684887 0
-1.2420951 -0.55139309 0.34194678 0
-1.2396498 -0.55020189 0.48055637 0
-0.97549379 -0.44359675 -0.050265342 0
-1.4534162 -0.68389899 0.081363201 0
-1.2424105 -0.57780409 0.20747924 0
-1.2405781 -0.57688266 0.34374076 0
-1.2338393 -0.57349437 0.48186386 0
-0.95790112 -0.45682606 -0.049920805 0
-1.3913395 -0.68164277 0.079352811 0
-1.2354198 -0.60076994 0.20793274 0
-1.2386582 -0.60244972 0.34552968 0
-0.9473933 -0.47357199 -0.049867488 0
-1.349746 -0.68873698 0.07815697 0
-1.2364427 -0.62814605 0.20940109 0
-1.2313943 -0.62544638 0.34630334 0
-0.93895316 -0.49141803 -0.049906656 0
-1.2971693 -0.68882036 0.076508723 0
-1.23961 -0.65710109 0.21118493 0
-1.2348565 -0.65448159 0.34935054 0
-0.92913973 -0.50852007 -0.049898922 0
-1.2555156 -0.6937713 0.075297095 0
-1.2427373 -0.68651831 0.21302155 0
-1.2294906 -0.67899948 0.35066441 0
-0.91697776 -0.52424687 -0.049802892 0
-1.2418431 -0.71408838 0.075236127 0
-1.2390498 -0.71245605 0.21406938 0
-1.2400789 -0.71305746 0.35538486 0
-0.91231596 -0.5444088 -0.050026808 0
-1.2489362 -0.74684793 0.076050408 0
-1.2383322 -0.74047083 0.21553844 0
-1.2376176 -0.74004108 0.35748479 0
-0.90109265 -0.56070077 -0.049987629 0
-1.2502332 -0.77670163 0.076644979 0
-1.239266 -0.76991671 0.21727209 0
-1.2456236 -0.7738499 0.36189273 0
-0.89308512 -0.57900965 -0.050092865 0
-1.2432837 -0.80181056 0.076911233 0
-1.230639 -0.79376584 0.2178489 0
-1.2460546 -0.80357343 0.36480761 0
-0.88034916 -0.59431827 -0.050007045 0
-1.258706 -0.84178072 0.078147486 0
-1.2441684 -0.83227247 0.2213141 0
-1.2377434 -0.82807022 0.36594298 0
-0.8699069 -0.6110996 -0.050027426 0
-1.2437488 -0.86238617 0.078108966 0
-1.2376245 -0.85826951 0.22227196 0
-1.2404737 -0.86018473 0.36955413 0
-0.858652 -0.62734091 -0.050021853 0
-1.2377317 -0.88913745 0.078469217 0
-1.2378188 -0.88919765 0.22416082 0
-1.2355435 -0.88762635 0.37160605 0
-0.85369539 -0.64804912 -0.050300833 0
-1.2291671 -0.91439825 0.078735873 0
-1.2418071 -0.9233647 0.22661762 0
-1.5973223 -1.1755573 0.45483816 0
-0.82869077 -0.65440017 -0.049708329 0
-1.2437036 -0.95672518 0.080039337 0
-1.2430098 -0.95621985 0.22878362 0
-1.5600238 -1.1871552 0.45059711 0
-0.82636952 -0.67719889 -0.050125051 0
-1.2378848 -0.98498112 0.0804713 0
-1.2362685 -0.98377222 0.22995926 0
-0.81623006 -0.69436949 -0.05020678 0
-1.2376689 -1.0179279 0.081175581 0
-1.2369444 -1.0173718 0.23219807 0
-0.79728603 -0.70467997 -0.049898915 0
-1.1601676 -0.99061507 0.078392826 0
-1.1595613 -0.9901374 0.22383654 0
-1.1608967 -0.99118954 0.37186715 0
-0.79306161 -0.72661716 -0.050269637 0
-1.141905 -1.008682 0.078285649 0
-1.1393876 -1.0066466 0.22324894 0
-1.1439738 -1.0103549 0.37163812 0
-0.77553225 -0.73786014 -0.050039809 0
-1.2375439 -1.1211501 0.08347147 0
-1.2415545 -1.1244773 0.23976742 0
-1.3403699 -1.2064556 0.42145047 0
-0.76466131 -0.75456136 -0.050126266 0
-1.2334442 -1.1535398 0.084103331 0
-1.2421739 -1.1609696 0.24234143 0
-1.3165754 -1.2242923 0.4202345 0
-1.0359401 -0.9854452 0.49798056 0
-0.74716377 -0.76556236 -0.04990954 0
-1.2742096 -1.2256961 0.41461241 0
-0.98910189 -0.97678477 0.48748645 0
-0.73917067 -0.78487343 -0.05015244 0
-1.1991869 -1.1968087 0.084197968 0
-1.1979868 -1.195734 0.24122119 0
-1.1845343 -1.1836874 0.39747775 0
-0.96863055 -0.99035007 0.48586619 0
-0.72062695 -0.79473144 -0.049898461 0
-0.91558862 -0.97378963 0.47300324 0
-0.71091485 -0.81266612 -0.050080642 0
-0.88638794 -0.97794658 0.4682703 0
-0.6918726 -0.82177132 -0.049813081 0
-0.85961759 -0.98380691 0.46436003 0
-0.68196583 -0.839665 -0.050006967 0
-0.83207011 -0.98835903 0.46014792 0
-0.66383469 -0.84940308 -0.04979619 0
-0.82583714 -1.0139762 0.46365404 0
-0.65031123 -0.86373132 -0.049826466 0
-0.63692605 -0.87824303 -0.049873739 0
-0.62186873 -0.89097673 -0.049842723 0
-0.61289895 -0.91052347 -0.050146759 0
-0.59458184 -0.91962725 -0.049959291 0
-0.58257437 -0.9359923 -0.050124161 0
-0.5654462 -0.94633287 -0.050015625 0
-0.55060643 -0.95940465 -0.050043192 0
-0.53728777 -0.97445613 -0.05016876 0
-0.5190382 -0.98319417 -0.050017212 0
-0.5088945 -1.0026675 -0.050354835 0
-0.48809189 -1.0078233 -0.050064083 0
-0.47307187 -1.0208349 -0.050130494 0
-0.4545911 -1.0288898 -0.049989961 0
-0.442788 -1.0467743 -0.050282583 0
-0.41749805 -1.0442801 -0.049711622 0
-0.37847286 -0.98420018 0.50133216 0
-0.40335095 -1.0586746 -0.049871895 0
-0.35039467 -0.97485572 0.4936752 0
-0.38460988 -1.0658128 -0.049734388 0
-0.33190721 -0.98002189 0.49188152 0
-0.37501162 -1.0880799 -0.05023684 0
-0.30902195 -0.97756368 0.48723751 0
-0.35522592 -1.0934994 -0.05004527 0
-0.28866166 -0.97876304 0.48414534 0
-0.33775842 -1.1027644 -0.050022881 0
-0.27639514 -0.99385637 0.48647898 0
-0.32052821 -1.1124369 -0.050026216 0
-0.25499249 -0.99262065 0.48266321 0
-0.30461186 -1.1245966 -0.05013885 0
-0.22641899 -0.97726327 0.47365591 0
-0.28247523 -1.1248513 -0.04978082 0
-0.20585479 -0.97598392 0.47010943 0
-0.26478618 -1.1334628 -0.049769592 0
-0.18636604 -0.97626513 0.46726203 0
-0.24996932 -1.1480069 -0.05000253 0
-0.16697891 -0.97626787 0.46441993 0
-0.23319872 -1.1587696 -0.050092436 0
-0.14805903 -0.9767682 0.46186715 0
-0.20984007 -1.1551359 -0.049625978 0
-0.13740326 -0.99506825 0.46591622 0
-0.19359966 -1.1669607 -0.049775966 0
-0.11443038 -0.98598343 0.46004748 0
-0.17596324 -1.1757617 -0.049815908 0
-0.10663493 -1.0116843 0.46687838 0
-0.1611429 -1.1915516 -0.050133687 0
-0.071492448 -0.97169739 0.34657198 0
-0.083767131 -1.0017992 0.46092391 0
-0.14092089 -1.1942235 -0.049953856 0
-0.052945241 -0.97045869 0.34451947 0
-0.064392909 -0.99957567 0.45784092 0
-0.12016864 -1.1951457 -0.049717829 0
-0.032133773 -0.96267635 0.14700904 0
-0.033544049 -0.96640044 0.24335131 0
-0.011955304 -0.90939206 0.32621869 0
-0.054222718 -1.0210055 0.46327433 0
-0.1060551 -1.213811 -0.050167024 0
-0.0064787106 -0.94052321 0.14381705 0
-0.011719657 -0.954907 0.24003746 0
0.0089312065 -0.89823061 0.32169345 0
-0.086473659 -1.2178292 -0.050066926 0
0.0098729599 -0.94268352 0.14344448 0
0.0059234365 -0.9539625 0.23880653 0
0.019347684 -0.91562563 0.32497874 0
-0.0027585162 -0.97875637 0.44420448 0
-0.068901613 -1.2276143 -0.050193753 0
0.022507416 -0.95563775 0.14432065 0
0.023962783 -0.95130748 0.23729774 0
0.023059027 -0.9539966 0.33393139 0
0.01273139 -0.98472518 0.44441029 0
-0.049690798 -1.2326142 -0.050148908 0
0.039264277 -0.95647293 0.14384295 0
0.036897466 -0.96382016 0.23871209 0
0.020969855 -1.0132638 0.34846145 0
0.019278513 -1.0185143 0.45440763 0
-0.030304981 -1.2369497 -0.050088473 0
0.025132285 -1.0571299 0.35881636 0
-0.012160553 -1.2453599 -0.050189015 0
0.066747978 -0.97747165 0.33629316 0
0.0084896851 -1.2451241 -0.049977064 0
0.085695133 -0.97029668 0.33319727 0
0.028735625 -1.2458336 -0.049810391 0
0.098731652 -0.98405403 0.33570296 0
0.049534783 -1.2438997 -0.049556285 0
0.11973436 -0.96745604 0.33025357 0
0.064200535 -1.2667074 -0.050221089 0
0.08620967 -1.2593372 -0.049785893 0
0.10598539 -1.2609478 -0.049689896 0
0.12311526 -1.2753968 -0.050070733 0
0.14287834 -1.2773027 -0.050002869 0
-0.064838722 -2.3828321 0.10216232 0
0.16325785 -1.275424 -0.049807023 0
0.001109557 -2.2026043 0.095410936 0
0.1820213 -1.2826806 -0.049951255 0
0.035127982 -2.1897967 0.094758332 0
0.2021495 -1.2814915 -0.049798902 0
0.064771488 -2.2032545 0.095070504 0
0.22067316 -1.2913108 -0.050052591 0
0.096557334 -2.2026503 0.09488894 0
0.23968656 -1.2986475 -0.050224982 0
0.12782817 -2.2052152 0.094836056 0
0.26010349 -1.2944313 -0.049990769 0
0.16003318 -2.1990409 0.094483502 0
0.27992123 -1.2946725 -0.049925964 0
0.19179335 -2.1949096 0.09421923 0
0.29950422 -1.2971673 -0.049950931 0
0.22178426 -2.2094073 0.094637059 0
0.31895468 -1.3017764 -0.050060384 0
0.25406474 -2.1964791 0.094086327 0
0.33833987 -1.3088192 -0.050265558 0
0.28481579 -2.2026761 0.094234563 0
0.35870871 -1.2981777 -0.049847286 0
0.31628311 -2.1960342 0.093937688 0
0.37829745 -1.301625 -0.049941648 0
0.3470546 -2.2035742 0.094161704 0
0.39790943 -1.3071805 -0.050120078 0
0.37818095 -2.2024066 0.094088562 0
0.4178206 -1.2947133 -0.049663842 0
0.43751201 -1.313663 -0.050338168 0
0.45718187 -1.3008255 -0.049886495 0
0.47688046 -1.3001374 -0.049877435 0
0.49692315 -1.3079331 -0.050180361 0
0.51601905 -1.294001 -0.049715694 0
0.53659195 -1.3072923 -0.050233275 0
0.55472618 -1.2849768 -0.04948549 0
0.57659048 -1.309159 -0.050411992 0
0.59457749 -1.2898189 -0.049787361 0
0.61503822 -1.2953856 -0.050065219 0
0.63401055 -1.2879372 -0.049884245 0
0.65363777 -1.2859622 -0.049908947 0
0.67303348 -1.2823653 -0.04988401 0
0.69212335 -1.2770393 -0.049805254 0
0.71375078 -1.285997 -0.050253298 0
0.72892135 -1.2600712 -0.049443629 0
0.75281638 -1.2789824 -0.050273642 0
0.7709989 -1.2692775 -0.050070733 0
0.78769898 -1.25385 -0.049665794 0
0.80846447 -1.256042 -0.049915291 0
0.83088773 -1.2638841 -0.050383698 0
0.84740698 -1.2489285 -0.050020218 0
0.86699075 -1.2455393 -0.050092824 0
0.88805842 -1.2468851 -0.050351441 0
0.90370488 -1.2304144 -0.049954075 0
0.91920501 -1.2143856 -0.049579065 0
0.94701689 -1.2350445 -0.050594531 0
0.95635331 -1.2018496 -0.049586162 0
0.97962797 -1.2082051 -0.050083831 0
1.000367 -1.2070069 -0.050306052 0
0.92608696 -1.014528 0.46206677 0
1.0174279 -1.1961931 -0.050169621 0
0.94015235 -1.003222 0.46027836 0
1.0344534 -1.185537 -0.050046854 0
0.96013004 -1.0065037 0.46379903 0
1.0512995 -1.1746749 -0.049923722 0
0.97145492 -0.98898 0.4598951 0
1.0682465 -1.1642457 -0.049825091 0
0.98700994 -0.98168272 0.45974496 0
1.0876613 -1.1593381 -0.04995124 0
1.0030476 -0.97545511 0.4600572 0
1.1023492 -1.1442755 -0.049686335 0
1.0209006 -0.9729839 0.4618293 0
1.1246459 -1.1451254 -0.050060011 0
1.0465908 -0.98616284 0.46949601 0
1.1443715 -1.1403112 -0.050220586 0
1.0634012 -0.98052925 0.47031546 0
1.1635467 -1.1341929 -0.050339662 0
1.0853847 -0.9846527 0.47488236 0
1.1740652 -1.111825 -0.049810313 0
1.10331 -0.98050982 0.47646064 0
1.1863737 -1.0934439 -0.049445443 0
1.1262382 -0.98512667 0.057022389 0
1.1302332 -0.9923225 0.16047394 0
1.1308534 -0.99343961 0.26545957 0
1.1279457 -0.98820215 0.37151861 0
1.1274387 -0.98728901 0.4822917 0
1.2172364 -1.1080254 -0.050439887 0
1.1519006 -0.993756 0.057740547 0
1.1413505 -0.97530431 0.15946701 0
1.142239 -0.97685808 0.26386216 0
1.1458985 -0.98325855 0.37266821 0
1.1469071 -0.98502249 0.48481429 0
1.2303344 -1.0910369 -0.050149921 0
1.1654049 -0.98072487 0.057580072 0
1.1646026 -0.97936195 0.16109821 0
1.1630365 -0.9767012 0.26571992 0
1.1652001 -0.98037702 0.37450352 0
1.1665155 -0.9826116 0.48739418 0
1.2407743 -1.0700483 -0.049697638 0
1.2557207 -1.0568906 -0.049576689 0
1.2771254 -1.0539658 -0.049896583 0
1.2991482 -1.0515641 -0.050252974 0
1.3125744 -1.0360054 -0.050057143 0
1.3348311 -1.033384 -0.050429452 0
1.3480603 -1.0176637 -0.050242718 0
1.3641293 -1.0060335 -0.050242674 0
1.3770324 -0.99019295 -0.050063472 0
1.387758 -0.97173601 -0.049771767 0
1.4092317 -0.96715778 -0.050115656 0
1.2014197 -0.70512295 0.050175827 0
1.212772 -0.71943718 0.14094305 0
1.4290937 -0.96020967 -0.050366387 0
1.2046396 -0.68439603 0.049670935 0
1.2081492 -0.68870878 0.13805738 0
1.4399563 -0.94220239 -0.050116986 0
1.2089405 -0.6655159 0.049248479 0
1.2085966 -0.66510409 0.13613045 0
1.4422213 -0.91442281 -0.049411904 0
1.2140704 -0.648058 0.048890829 0
1.2014778 -0.63335603 0.13303113 0
1.4726362 -0.91943151 -0.050258547 0
1.2115474 -0.62226808 0.048136286 0
1.2094187 -0.61984521 0.13249354 0
1.4783355 -0.89611727 -0.049771979 0
1.2084346 -0.59661531 0.047378212 0
1.2146099 -0.60346782 0.13154951 0
1.4975001 -0.88787299 -0.050015803 0
1.5079379 -0.87016732 -0.049808949 0
1.5298827 -0.86450416 -0.050205633 0
1.5375328 -0.84410077 -0.049878117 0
1.5527564 -0.8314243 -0.049945742 0
1.562807 -0.81374341 -0.049765263 0
1.5798422 -0.80272835 -0.049938351 0
1.5887865 -0.78420693 -0.049726248 0
1.6012996 -0.76903647 -0.049697749 0
1.6178151 -0.75733846 -0.049867257 0
1.6309921 -0.74267477 -0.049886201 0
1.6502396 -0.73296195 -0.050193664 0
1.6648501 -0.71926624 -0.050291847 0
1.6736302 -0.70094407 -0.050133217 0
1.6770079 -0.67866439 -0.049744476 0
1.7023619 -0.67294341 -0.050347019 0
1.703783 -0.6494903 -0.049895003 0
1.7130117 -0.63188756 -0.049800131 0
1.7227515 -0.61471015 -0.049737763 0
1.7366729 -0.60035449 -0.049864341 0
1.7523661 -0.58703184 -0.050072882 0
1.7627995 -0.57023191 -0.050065205 0
1.7754856 -0.5548088 -0.05016068 0
1.7812693 -0.53521156 -0.049977049 0
1.7872806 -0.51589137 -0.049814332 0
1.8092755 -0.50563878 -0.050316568 0
1.8116962 -0.48435292 -0.050025485 0
1.8302267 -0.47178045 -0.050397206 0
1.8293371 -0.44899198 -0.049994413 0
1.8493041 -0.43683973 -0.050436404 0
1.8443947 -0.41241357 -0.049896929 0
1.8541393 -0.39520243 -0.049949471 0
1.8588336 -0.37568077 -0.049812589 0
1.8739641 -0.36078736 -0.050092176 0
1.8779852 -0.34102371 -0.049947564 0
1.8909553 -0.32498309 -0.050157886 0
1.8896532 -0.30322042 -0.049828108 0
1.9123563 -0.2907072 -0.050425682 0
1.9057535 -0.26716879 -0.049914263 0
1.9098558 -0.24771975 -0.049820799 0
1.9326773 -0.23456268 -0.050441246 0
1.9297264 -0.21273021 -0.050099734 0
1.9293345 -0.19192643 -0.049865328 0
1.936018 -0.17335154 -0.049904626 0
1.9483076 -0.15630047 -0.050160177 0
1.9509171 -0.13650407 -0.050065387 0
1.9423133 -0.11396334 -0.049567375 0
1.9651784 -0.09924648 -0.050235949 0
1.9718254 -0.080410458 -0.050316077 0
1.9679044 -0.059285741 -0.050019074 0
1.963343 -0.038244735 -0.049709197 0
1.9764177 -0.020679038 -0.050049942 0
1.9888978 -0.0027642355 -0.050376438 0
1.9947102 0.016445104 -0.050469417 0
1.9841796 0.038107101 -0.049981326 0
1.9908946 0.057131547 -0.050124992 0
1.9916954 0.076972045 -0.0500644 0
1.9861544 0.097454078 -0.049785156 0
1.9866488 0.11716973 -0.049731933 0
1.9998652 0.13580729 -0.05014338 0
1.9995234 0.15567935 -0.050077666 0
1.9927571 0.17587255 -0.049791209 0
1.9993323 0.19527827 -0.049990781 0
1.9927901 0.21524103 -0.049730461 0
1.9994086 0.23477466 -0.049949121 0
2.0072708 0.2544578 -0.050220948 0
1.9971392 0.27422255 -0.049859229 0
2.0118794 0.29420504 -0.050394423 0
2.0043964 0.31386858 -0.050145034 0
2.0007303 0.33352751 -0.050040744 0
1.9983618 0.3531895 -0.04999163 0
1.9960893 0.37282658 -0.049954768 0
1.9861766 0.39181399 -0.049653035 0
1.9823053 0.411163 -0.049576167 0
1.9824623 0.43089339 -0.049652584 0
1.9839416 0.45084015 -0.049785584 0
1.9978191 0.47253346 -0.050374381 0
1.9800388 0.49003321 -0.049831931 0
1.985437 0.5108273 -0.050134212 0
1.9760468 0.5293026 -0.049910933 0
1.9723848 0.54867858 -0.049903531 0
1.9758205 0.5694555 -0.05016328 0
1.9614477 0.58666879 -0.049783494 0
1.9732749 0.60947931 -0.05036911 0
1.9632655 0.62753677 -0.050165761 0
1.9443687 0.64322257 -0.049643025 0
1.9495862 0.66489679 -0.050016239 0
1.9431505 0.68361336 -0.049969099 0
1.9358163 0.70203692 -0.049897123 0
1.93624 0.7227757 -0.050123062 0
1.9301896 0.74162197 -0.050117094 0
1.9274591 0.76157129 -0.05024492 0
1.9260432 0.78207499 -0.050432444 0
1.9081888 0.79679161 -0.050006695 0
1.9025513 0.81577343 -0.050051812 0
1.8817152 0.82887244 -0.049523968 0
1.8797313 0.84919155 -0.049725693 0
1.8811799 0.87110585 -0.050071217 0
1.8680971 0.88698685 -0.04986386 0
1.8589194 0.90446341 -0.049815949 0
1.8500299 0.92203993 -0.049787737 0
1.852694 0.94513607 -0.050225511 0
1.8339237 0.95797151 -0.049823731 0
1.8208026 0.97337741 -0.049652282 0
1.8223217 0.99636102 -0.050078236 0
1.8049946 1.0094589 -0.049753245 0
1.8016188 1.0301005 -0.050003365 0
1.7976751 1.0506222 -0.050242584 0
1.7819393 1.0643529 -0.050004855 0
1.7739975 1.0826452 -0.050098445 0
1.7711641 1.104224 -0.05041774 0
1.7449462 1.1109896 -0.049757652 0
1.7408687 1.1318808 -0.050044075 0
1.7246604 1.1447549 -0.049820226 0
1.7188071 1.1646881 -0.05005268 0
1.6975405 1.1737469 -0.049620531 0
1.69126 1.1934925 -0.049854375 0
1.6824508 1.211533 -0.049988281 0
1.6673647 1.2248148 -0.049849827 0
1.6555314 1.2405721 -0.04986617 0
1.6406333 1.2538383 -0.049750362 0
1.6235778 1.2651889 -0.049540464 0
1.6133155 1.2822039 -0.049655166 0
1.6085296 1.3041732 -0.050042294 0
1.5926785 1.3164806 -0.049913827 0
1.5745821 1.3265802 -0.049681887 0
1.5725871 1.3518164 -0.050247796 0
1.5521994 1.3596237 -0.049917925 0
1.5350722 1.3703766 -0.049753685 0
1.5408624 1.4045436 -0.050768018 0
1.5142157 1.4055346 -0.050134744 0
1.0268961 0.89141369 0.29343653 0
1.5007116 1.4200919 -0.050184727 0
1.0468347 0.92901367 0.30710265 0
1.4821327 1.429075 -0.049974483 0
1.4414062 1.383882 0.059802551 0
1.4432983 1.3859817 0.16826211 0
1.4439315 1.3866841 0.27846932 0
1.0551317 0.95524311 0.31540918 0
1.4707431 1.446021 -0.05015615 0
1.4109172 1.377929 0.058920179 0
1.411009 1.3780335 0.16531715 0
1.4174317 1.3853436 0.27511168 0
1.0494514 0.96651936 0.31695563 0
1.4528382 1.4555622 -0.049994573 0
1.3856373 1.3771056 0.058306541 0
1.3966035 1.3899084 0.16526666 0
1.3904132 1.3826813 0.27155584 0
1.0627762 1.0001669 0.32831675 0
1.4384236 1.4691108 -0.050031602 0
1.3638633 1.3798103 0.057878301 0
1.37508 1.3932445 0.16404673 0
1.3669868 1.3835512 0.26894742 0
1.0589681 1.0146389 0.33117506 0
1.4234102 1.4819698 -0.05004492 0
1.3411161 1.3808453 0.05739025 0
1.3472707 1.3884082 0.16174467 0
1.345984 1.386827 0.26699394 0
1.0590415 1.0342265 0.33621922 0
1.4116988 1.4990127 -0.0502574 0
1.3158872 1.3782017 0.056752551 0
1.3200659 1.3834707 0.15949984 0
1.3182843 1.3812242 0.26307738 0
1.0576302 1.0525595 0.34068012 0
1.3868865 1.4993525 -0.049720883 0
1.2958622 1.3815614 0.056406293 0
1.2957876 1.3814647 0.15772168 0
1.2948412 1.38024 0.26033133 0
1.0449344 1.0568452 0.33919913 0
1.3723357 1.5126985 -0.049784679 0
1.2716769 1.3789934 0.055809725 0
1.2764857 1.385381 0.15679827 0
1.2769023 1.3859344 0.25918579 0
1.0398451 1.0710515 0.34193024 0
1.3661478 1.5375303 -0.050364535 0
1.2508875 1.3803498 0.055405926 0
1.249944 1.3790631 0.15455203 0
1.2503983 1.3796827 0.25542986 0
1.0316828 1.0814202 0.3430796 0
1.346174 1.5437664 -0.050126836 0
1.2447132 1.4016869 0.055893831 0
1.2448666 1.4019017 0.15622057 0
1.2410374 1.3965394 0.25690302 0
1.0239786 1.0925834 0.34458575 0
1.3206328 1.5417069 -0.049541485 0
1.2454727 1.4336046 0.056840945 0
1.2454749 1.4336078 0.15904365 0
1.2435709 1.4308692 0.26222739 0
1.0163937 1.1041216 0.34627011 0
1.3168643 1.5710884 -0.0503304 0
1.2465055 1.4671229 0.057848617 0
1.2423791 1.4610256 0.16128533 0
1.2480367 1.4693856 0.26841128 0
1.0039104 1.1086528 0.34516394 0
1.2977431 1.5781746 -0.05016176 0
1.2472245 1.5014623 0.058882508 0
1.2433586 1.495592 0.16443342 0
1.2380316 1.4875031 0.27012694 0
1.1705266 1.3849971 0.34833556 0
1.0001081 1.1262176 0.34932178 0
1.2748806 1.5792062 -0.049748022 0
1.243114 1.5296205 0.059645627 0
1.2444764 1.5317473 0.16775742 0
1.2224276 1.4973305 0.27008033 0
1.1528546 1.3887317 0.34667856 0
0.98389721 1.1250004 0.34604424 0
1.252118 1.5798521 -0.049333446 0
1.2365606 1.5548812 0.060283091 0
1.2494038 1.5754957 0.17201512 0
1.2087021 1.5101662 0.27071521 0
1.1294975 1.3830372 0.3422673 0
0.97579473 1.1363325 0.34779176 0
1.2475688 1.6100106 -0.050165866 0
1.180356 1.4990399 0.26632944 0
1.1104027 1.3835443 0.33982745 0
0.96307051 1.1402934 0.34669867 0
0.83809412 0.93395269 0.47025102 0
1.2267337 1.6136637 -0.049896494 0
1.1772461 1.5295866 0.27077198 0
1.0895276 1.3805573 0.33644265 0
0.95666903 1.1548371 0.34976128 0
0.84307748 0.96185076 0.48597169 0
1.2123919 1.6282967 -0.050091434 0
1.1633857 1.5425872 0.27154568 0
1.0766131 1.3908252 0.33705515 0
0.9524399 1.1736515 0.35446954 0
0.85269231 0.99919701 0.35646465 0
0.84143919 0.97951567 0.41817436 0
0.8409093 0.97858894 0.49391279 0
1.1946924 1.6371719 -0.050057299 0
1.1426252 1.5433874 0.26983342 0
1.0554417 1.3863508 0.33340901 0
0.93445599 1.1684288 0.35001859 0
0.85326046 1.0221778 0.36486986 0
0.83643538 0.99187213 0.42233175 0
0.84202653 1.0019431 0.5063048 0
1.175848 1.6438777 -0.04994449 0
1.1247324 1.5490121 0.26917484 0
1.0366421 1.3855247 0.33092239 0
0.92624831 1.180644 0.35227373 0
0.84533852 1.030483 0.3663128 0
0.83519077 1.0116497 0.43071476 0
0.84304923 1.0262344 0.5192349 0
1.1593916 1.6549877 -0.050019424 0
1.1104147 1.5612844 0.2699194 0
1.0205771 1.3894062 0.32987568 0
0.9099701 1.1777917 0.34889659 0
0.85005128 1.0631543 0.37917638 0
0.84258747 1.0488745 0.44890171 0
0.83708459 1.0383464 0.52392155 0
1.1412526 1.6629009 -0.049974259 0
1.0912917 1.5643107 0.26882634 0
0.99879581 1.3817846 0.32560351 0
0.8993879 1.1856185 0.34960073 0
0.84712219 1.0824804 0.38573614 0
0.83666462 1.061844 0.45331541 0
0.83918858 1.0668247 0.53950953 0
1.1235271 1.6715907 -0.049969375 0
1.0792999 1.5815206 0.27063832 0
0.98477566 1.3890178 0.32565808 0
0.88258857 1.1809096 0.34570381 0
0.84601951 1.1064352 0.3944076 0
0.83856529 1.0912544 0.46690783 0
0.83891994 1.0919766 0.55278635 0
1.1086751 1.6863236 -0.05021226 0
0.96772707 1.3899006 0.32396829 0
0.87493384 1.1947503 0.34874183 0
0.84037256 1.1220657 0.39921725 0
0.83885682 1.118878 0.47941589 0
0.84022307 1.1217512 0.56902158 0
1.0883852 1.6896559 -0.050013077 0
0.94824046 1.3850918 0.32075033 0
0.86867219 1.2121733 0.35310966 0
0.83517605 1.1393791 0.40479878 0
0.83857107 1.1467574 0.4919906 0
0.84147179 1.1530612 0.5861547 0
1.0638269 1.6830577 -0.049436972 0
0.93232429 1.3875319 0.31964329 0
0.85064852 1.2039819 0.34815446 0
0.83674777 1.1727427 0.41765237 0
0.83870071 1.1771315 0.50586325 0
0.84151036 1.1834457 0.6025812 0
1.0510732 1.702893 -0.049903281 0
0.91395092 1.3839868 0.31693587 0
0.85052657 1.2364804 0.35804409 0
0.84602135 1.2260026 0.43939462 0
0.84060788 1.2134124 0.52287704 0
0.84160292 1.2157266 0.62014282 0
1.0343275 1.7139781 -0.050035138 0
0.89476204 1.3777868 0.31357318 0
0.85202402 1.2748375 0.36999315 0
0.83762741 1.2401583 0.44344082 0
0.84170669 1.2499846 0.53994703 0
0.83893877 1.2433171 0.6346004 0
1.0118347 1.7109702 -0.049632475 0
0.87721831 1.3748085 0.31117949 0
0.85109419 1.3095719 0.38057703 0
0.84028751 1.2825855 0.460123 0
0.84223741 1.2874548 0.55740768 0
0.83937454 1.2803057 0.65501058 0
0.99537188 1.7228072 -0.049810715 0
0.86047548 1.3732562 0.30924785 0
0.85249656 1.3525808 0.39406458 0
0.84168023 1.3245529 0.47650537 0
0.84148997 1.32406 0.57431602 0
0.84116495 1.3232176 0.67908359 0
0.98066646 1.7397447 -0.050190292 0
0.84808975 1.3828912 0.31042761 0
0.84692979 1.3797688 0.4018679 0
0.83879089 1.3578616 0.48897913 0
0.83931845 1.3592817 0.59041226 0
0.83993554 1.3609426 0.69974846 0
0.95831311 1.7360795 -0.04979413 0
0.83654106 1.3952222 0.31237486 0
0.83763218 1.3982764 0.40659431 0
0.84169358 1.4096448 0.50953549 0
0.8365429 1.3952274 0.60683548 0
0.93945068 1.7417372 -0.049762212 0
0.81859004 1.3894936 0.3094818 0
0.84051806 1.4534019 0.42422134 0
0.8380881 1.4463198 0.5233739 0
0.84197873 1.457659 0.63721675 0
0.92396146 1.7575828 -0.05012228 0
0.79983699 1.3804221 0.3057636 0
0.83954442 1.5010757 0.43915284 0
0.84071189 1.5046232 0.54660231 0
0.84123147 1.506202 0.66012055 0
0.90331626 1.7579256 -0.049907926 0
0.78341854 1.3775442 0.30378029 0
0.83943194 1.5552495 0.4562968 0
0.84021497 1.5577337 0.56747013 0
0.84103894 1.5603478 0.68587786 0
0.88389665 1.7618217 -0.049836591 0
0.76993561 1.3837353 0.30427632 0
0.84169328 1.6218046 0.47767863 0
0.83797479 1.6094677 0.58766633 0
0.86613709 1.7713166 -0.049982607 0
0.84121954 1.6847167 0.49771205 0
0.83854312 1.6754147 0.6139251 0
0.84659588 1.774714 -0.049910691 0
0.83556205 1.734466 0.51313776 0
0.83636194 1.7373837 0.63838255 0
0.82658947 1.7761379 -0.049775299 0
0.82929289 1.7865096 0.52932632 0
0.83017945 1.7899109 0.65873182 0
0.81186402 1.7985357 -0.050420944 0
0.82635903 1.8571607 0.55186862 0
0.825418 1.8533546 0.683707 0
0.78751981 1.7818284 -0.049637713 0
0.81778544 1.9112079 0.56868416 0
0.77150065 1.8002955 -0.050153863 0
0.80711216 1.9616619 0.58426565 0
0.75161952 1.8019592 -0.050063349 0
0.66460317 1.3826399 0.29738432 0
0.79073036 1.9904289 0.59248334 0
0.73292691 1.8094181 -0.050192941 0
0.65081793 1.3870856 0.29780343 0
0.77854693 2.0440676 0.60918063 0
0.71228379 1.8066531 -0.049959835 0
0.63427407 1.3765668 0.29438639 0
0.76262283 2.0841844 0.62131965 0
0.69392174 1.8164623 -0.050191868 0
0.74471402 2.1180706 0.63139862 0
0.67211348 1.8051926 -0.049670227 0
0.72702342 2.15835 0.64368641 0
0.65340537 1.813077 -0.049850181 0
0.70747256 2.1921997 0.65386635 0
0.6340887 1.8172832 -0.049905911 0
0.68734413 2.2276156 0.6646378 0
0.6145497 1.8199545 -0.049915139 0
0.66764951 2.2737885 0.67908144 0
0.59484392 1.8211187 -0.049879096 0
0.64359635 2.2887371 0.68314481 0
0.57508993 1.8215119 -0.049824353 0
0.62184578 2.3322563 0.69684976 0
0.55545884 1.8230119 -0.04981821 0
0.59819287 2.3649001 0.54357576 0
0.53551906 1.8198307 -0.049653437 0
0.57355076 2.3942981 0.39097023 0
0.57241946 2.3772101 0.54623258 0
0.51591247 1.8207552 -0.049644545 0
0.54903346 2.4390702 0.39876625 0
0.54858601 2.4307175 0.5594964 0
0.49626836 1.8206862 -0.049608979 0
0.52205223 2.4503796 0.40057394 0
0.52152389 2.4374769 0.56089318 0
0.476987 1.8326416 -0.050011724 0
0.45681265 1.12077 0.36072189 0
0.45632032 1.1033973 0.42596662 0
0.45721483 1.831664 -0.049961269 0
0.44598782 1.118479 0.35967478 0
0.44583827 1.1089782 0.42864275 0
0.4374902 1.8354818 -0.05009092 0
0.43514019 1.0892636 0.41872841 0
0.43512759 1.085258 0.49282712 0
0.41772765 1.8333014 -0.050015293 0
0.42468968 1.0960001 0.42211545 0
0.42485088 1.0789288 0.48909274 0
0.39792252 1.835331 -0.050098874 0
0.41412091 1.1002911 0.35218456 0
0.41413656 1.0995809 0.42399001 0
0.41455054 1.0807959 0.49029598 0
0.37819821 1.8332343 -0.050043993 0
0.35226959 2.5817671 0.42418981 0
0.35266036 2.5704858 0.59471631 0
0.40487891 1.0629897 0.4799026 0
0.35850045 1.8313292 -0.050004806 0
0.32245335 2.5941973 0.42664978 0
0.32251927 2.5928023 0.60071987 0
0.39539552 1.0505154 0.47274089 0
0.33851168 1.8346941 -0.050162937 0
0.2920405 2.6107671 0.42992726 0
0.29226264 2.6070576 0.60476458 0
0.38589737 1.0433488 0.46879798 0
0.31880006 1.8326524 -0.050136693 0
0.26186675 2.6176493 0.43152526 0
0.26064968 2.6344304 0.61226594 0
0.29874924 1.8347733 -0.050268453 0
0.35578346 1.1653326 0.038281977 0
0.22971869 2.645021 0.43690231 0
0.22932819 2.6496046 0.61675376 0
0.27834269 1.8395417 -0.050504401 0
0.19829041 2.6572857 0.43962178 0
0.19882737 2.6518004 0.61802107 0
0.26005462 1.8236173 -0.050006635 0
0.16638757 2.6703429 0.44256064 0
0.16647072 2.6695917 0.62339175 0
0.34546754 1.0515068 0.47565615 0
0.2413163 1.8141835 -0.049749851 0
0.13286464 2.6931407 0.44734696 0
0.1349449 2.676281 0.62602162 0
0.22003171 1.8247648 -0.050222293 0
0.10218708 2.6900573 0.44750759 0
0.10198347 2.6915524 0.63096792 0
0.20141774 1.8151456 -0.049976125 0
0.070680812 2.6923492 0.44871899 0
0.069939479 2.6973231 0.63357967 0
0.18281443 1.806527 -0.049774118 0
0.036547139 2.7097771 0.45277065 0
0.035519585 2.7161226 0.63966841 0
0.16216408 1.8104227 -0.050033703 0
0.0044503971 2.7122455 0.45417091 0
0.004297541 2.7131193 0.64023566 0
0.14288248 1.8060249 -0.050002068 0
-0.028435035 2.7178254 0.45621964 0
-0.028898997 2.7202947 0.64354849 0
0.12437205 1.7978871 -0.049842991 0
-0.088330701 2.8563368 0.10038646 0
-0.086258069 2.8460228 0.28899497 0
-0.06313388 2.7309525 0.4597379 0
-0.063303605 2.731797 0.64810443 0
0.10263221 1.8053544 -0.050261732 0
-0.11331441 2.8140225 0.099088512 0
-0.11423703 2.818332 0.28669202 0
-0.095946744 2.7328997 0.46128416 0
-0.097188905 2.7387016 0.65158588 0
0.08549355 1.791232 -0.049901243 0
-0.14411224 2.8013947 0.098885216 0
-0.14483155 2.8045595 0.28595522 0
-0.12880774 2.734062 0.46276605 0
-0.12788601 2.7300067 0.65110743 0
0.065499768 1.7900511 -0.050022781 0
-0.17394061 2.7853281 0.098569252 0
-0.17685939 2.7974606 0.28599638 0
-0.16206528 2.7359662 0.46446666 0
-0.16225071 2.736737 0.65477651 0
0.045425311 1.7888268 -0.050152373 0
-0.21009786 2.7950687 0.099216685 0
-0.21045388 2.7964709 0.28675967 0
-0.19574948 2.7385654 0.46637985 0
-0.19628973 2.7406931 0.65784085 0
0.029878335 1.7703042 -0.049652457 0
-0.25222778 2.8253589 0.10064252 0
-0.25371128 2.8309071 0.29151353 0
-0.22825004 2.7356842 0.46735543 0
-0.22744508 2.7326734 0.65786582 0
0.008131491 1.7751433 -0.050024346 0
-0.26253796 2.7386427 0.46950498 0
-0.26049906 2.7313848 0.65977836 0
-0.0094599258 1.7649357 -0.049847789 0
-0.29244566 2.7256503 0.46874461 0
-0.29545802 2.735877 0.66334611 0
-0.030688955 1.7669395 -0.050135005 0
-0.32568234 2.7237992 0.47015485 0
-0.3267222 2.7271719 0.66352159 0
-0.048608348 1.7579981 -0.050022874 0
-0.36013234 2.7250555 0.47223872 0
-0.36027819 2.7255082 0.66569042 0
-0.069328144 1.7576275 -0.050241552 0
-0.39414918 2.7240937 0.47399181 0
-0.39654917 2.7312343 0.66997105 0
-0.086990967 1.7480507 -0.050122801 0
-0.42901146 2.7247896 0.47615111 0
-0.42491955 2.713104 0.66794485 0
-0.10476817 1.7390232 -0.050032813 0
-0.45652986 2.7044346 0.47436368 0
-0.4545657 2.699044 0.6671114 0
-0.12447025 1.735249 -0.050151467 0
-0.48954284 2.6992791 0.47556555 0
-0.48630041 2.690717 0.66793954 0
-0.13957788 1.7195517 -0.049822815 0
-0.51623887 2.6775835 0.47364855 0
-0.51885104 2.6842275 0.6693849 0
-0.16152395 1.7212303 -0.050169721 0
-0.55282593 2.6808393 0.47664669 0
-0.55010569 2.6741683 0.66996676 0
-0.17505886 1.7023655 -0.049732953 0
-0.58273423 2.6671999 0.4764429 0
-0.5836525 2.6693733 0.67211848 0
-0.19682766 1.7030841 -0.050063517 0
-0.61174202 2.6515598 0.47591808 0
-0.61528277 2.6596539 0.67302811 0
-0.21015771 1.6845819 -0.049653478 0
-0.6449275 2.6453166 0.47732252 0
-0.64466584 2.6447384 0.67259908 0
-0.23468281 1.6906863 -0.050217479 0
-0.672521 2.6266444 0.47634357 0
-0.66748524 2.6158795 0.6683439 0
-0.24956031 1.6759048 -0.049968969 0
-0.70059657 2.609272 0.4756884 0
-0.70074391 2.6095769 0.67053556 0
-0.26827914 1.6692089 -0.050048944 0
-0.72803128 2.5908082 0.47488013 0
-0.73083961 2.5964377 0.67091078 0
-0.28578794 1.6600319 -0.050039254 0
-0.75719333 2.5759358 0.47486493 0
-0.75604987 2.573714 0.66864675 0
-0.30437714 1.6528986 -0.050120976 0
-0.78354704 2.5557654 0.47384262 0
-0.78598022 2.5603499 0.66916227 0
-0.3195231 1.6393435 -0.049951438 0
-0.81019771 2.5364244 0.47305176 0
-0.80862904 2.5335562 0.66588515 0
-0.3383199 1.6325052 -0.050063718 0
-0.62162018 2.1353087 0.082667738 0
-0.83699203 2.5175529 0.47242165 0
-0.84154034 2.525625 0.66819179 0
-0.34921992 1.611891 -0.049617976 0
-0.61883867 2.0766313 0.080799825 0
-0.86153173 2.4949598 0.47108114 0
-0.85540307 2.4843957 0.66081554 0
-0.36755174 1.6043307 -0.049717344 0
-0.61941659 2.0261414 0.079256833 0
-0.88295197 2.4674976 0.46877235 0
-0.89051199 2.4801588 0.66442764 0
-0.39081663 1.6046605 -0.050157722 0
-0.62098455 1.9793348 0.077856466 0
-0.90821683 2.4468999 0.46795547 0
-0.91579032 2.4592283 0.66320121 0
-0.40893656 1.5962596 -0.05024524 0
-0.61235011 1.9182212 0.075841591 0
-0.93494451 2.4288216 0.46773714 0
-0.93532991 2.4294317 0.65938497 0
-0.42256391 1.5808232 -0.050043639 0
-0.61657393 1.8795049 0.074759044 0
-0.95489502 2.4003561 0.46535528 0
-0.96054316 2.4090517 0.65847677 0
-0.43133146 1.5583578 -0.04954594 0
-0.61559153 1.8343586 0.073393621 0
-0.98145294 2.3823776 0.46528164 0
-0.97717285 2.3759668 0.65376049 0
-0.45990443 1.5653799 -0.050325304 0
-0.61422944 1.7903546 0.072065271 0
-1.0054798 2.3607187 0.46447524 0
-1.0041596 2.3587942 0.65399092 0
-0.4696821 1.5447686 -0.049920391 0
-0.62231839 1.7613831 0.071380876 0
-1.0224115 2.3291771 0.46154779 0
-1.0258665 2.3340805 0.65197533 0
-0.48870039 1.5374085 -0.050101142 0
-0.62046778 1.7194936 0.070125408 0
-0.62189031 1.7214594 0.19929338 0
-1.0392058 2.2981346 0.45875183 0
-1.0425897 2.3028104 0.64796233 0
-0.07509084 0.96585447 0.43924063 0
-0.50113744 1.5209719 -0.049890492 0
-0.62000954 1.6809567 0.069006227 0
-0.61673927 1.6765555 0.19507433 0
-1.0688536 2.2850368 0.46000886 0
-1.0685273 2.2845976 0.64812839 0
-0.092028752 0.97036999 0.44607419 0
-0.51897985 1.5118619 -0.050013781 0
-0.6128453 1.6349238 0.067539409 0
-0.61832821 1.6421121 0.19221972 0
-1.0815625 2.2494338 0.45625755 0
-1.0791429 2.2462616 0.64194328 0
-0.094743922 0.95566887 0.44101474 0
-0.53744197 1.5033972 -0.05017769 0
-0.61871088 1.6072074 0.066884466 0
-0.6205523 1.6095597 0.18959764 0
-1.0917352 2.2114327 0.45195633 0
-1.0975586 2.2188714 0.63928658 0
-0.10710986 0.95370561 0.44402075 0
-0.5529815 1.4911052 -0.05017858 0
-0.62000847 1.5745372 0.065999366 0
-0.61882162 1.5730599 0.18640859 0
-1.1124555 2.1875117 0.45089814 0
-1.1114907 2.1863108 0.6349864 0
-0.12632342 0.96002156 0.45247042 0
-0.56008095 1.4685682 -0.049714483 0
-0.62023664 1.5415457 0.065090932 0
-0.61866152 1.5396349 0.18361151 0
-1.1225687 2.1509473 0.44693455 0
-1.1337996 2.164572 0.63427711 0
-0.14052583 0.95958692 0.45678708 0
-0.58597612 1.4687589 -0.050312236 0
-0.62285078 1.5123627 0.064350978 0
-0.62600172 1.5160887 0.18217461 0
-1.1409022 2.1249528 0.44545501 0
-1.1431304 2.1275878 0.62855965 0
-0.15148683 0.95498013 0.45853269 0
-0.59249079 1.445961 -0.049845371 0
-0.61769938 1.4750198 0.063218772 0
-0.62137067 1.4792517 0.17884409 0
-1.1605392 2.1007686 0.44444624 0
-1.1625642 2.1031029 0.62704057 0
-0.60790646 1.4336569 -0.049878631 0
-0.63209033 1.4608353 0.063177451 0
-0.63316226 1.4620401 0.17829092 0
-1.1680819 2.0631971 0.44025367 0
-1.1789196 2.0753767 0.62448061 0
-0.62005877 1.4177376 -0.049746867 0
-0.65945899 1.4609095 0.063833542 0
-0.65894032 1.4603412 0.1800099 0
-1.17443 2.025178 0.43592641 0
-1.1804628 2.0317883 0.61648279 0
-0.63702106 1.4070886 -0.049878702 0
-0.50297105 1.2638704 0.054875344 0
-0.68843544 1.4620196 0.18229389 0
-1.186813 1.9944838 0.43337688 0
-1.1896628 1.9975286 0.61165679 0
-0.65257382 1.3948326 -0.049943116 0
-0.49509907 1.2307774 0.05382451 0
-0.71725035 1.4622118 0.18443929 0
-1.2013938 1.9665865 0.43153432 0
-1.1990362 1.9641303 0.60711759 0
-0.66997862 1.3843887 -0.050108865 0
-0.51608479 1.2280527 0.054276992 0
-0.74867332 1.4643322 0.18695657 0
-1.2152678 1.9383308 0.42962432 0
-1.2159913 1.9390658 0.60554731 0
-0.67885661 1.365329 -0.049850717 0
-0.52497512 1.2128934 0.054117773 0
-0.76791084 1.4535466 0.18759528 0
-1.2170537 1.8984696 0.42476025 0
-1.2173259 1.8987393 0.59850097 0
-0.69276559 1.3513781 -0.049857408 0
-0.54528975 1.2089219 0.054537084 0
-0.79836261 1.4533809 0.18992232 0
-1.2237723 1.864311 0.42131853 0
-1.2174764 1.8582294 0.59130102 0
-0.71291888 1.343298 -0.05017893 0
-0.5628776 1.201972 0.054820187 0
-0.83989048 1.4628942 0.19385748 0
-1.2318038 1.8320428 0.41834986 0
-1.2298936 1.8302435 0.58866513 0
-0.72091246 1.3237377 -0.0499123 0
-0.86722982 1.4581198 0.069004849 0
-0.86652195 1.4574696 0.19555616 0
-1.2304642 1.7917246 0.41322067 0
-1.2209889 1.783022 0.57879627 0
-0.24097206 0.88294685 0.38462374 0
-0.73045671 1.3058144 -0.049734838 0
-0.89919782 1.4569187 0.069821477 0
-0.90365493 1.46091 0.19876069 0
-1.2250468 1.7487098 0.40728539 0
-1.2312207 1.7542385 0.5757966 0
-0.23638524 0.86338329 0.3777754 0
-0.74116492 1.2890693 -0.049625237 0
-0.94273436 1.4650481 0.071178168 0
-1.242685 1.726918 0.40706515 0
-1.2352608 1.7204363 0.57085621 0
-0.22975804 0.8425889 0.37001666 0
-0.75093424 1.2716224 -0.049482726 0
-0.97144186 1.4592953 0.071820371 0
-1.2407403 1.6884936 0.40227485 0
-1.2381554 1.6862936 0.56572801 0
-0.24094482 0.83757323 0.37216902 0
-0.25464261 0.84923142 0.45749539 0
-0.77677679 1.2676368 -0.050097544 0
-1.0076612 1.4591811 0.072807744 0
-1.2458602 1.6567936 0.39930379 0
-1.2397997 1.6517657 0.56038195 0
-0.25101483 0.83145875 0.37373242 0
-0.78929353 1.2523146 -0.050096639 0
-1.0414155 1.4561733 0.073671997 0
-1.2595026 1.6325125 0.39843249 0
-1.2370231 1.6143361 0.55378282 0
-0.25679785 0.82175332 0.37303862 0
-0.78936589 1.2271833 -0.049538925 0
-1.0803686 1.4564811 0.074765757 0
-1.2526844 1.5922586 0.3929424 0
-1.2412702 1.5832646 0.54968423 0
-0.26816368 0.8164984 0.37535921 0
-0.81075525 1.2189105 -0.049960364 0
-1.1252196 1.4603395 0.076114282 0
-1.2466429 1.5535619 0.38779756 0
-1.2380446 1.5469606 0.5433479 0
-0.26046592 0.79642731 0.36774126 0
-0.24998112 0.78837758 0.4365311 0
-0.83202386 1.2101719 -0.050377131 0
-1.1701889 1.4630939 0.077453271 0
-1.2507224 1.5233269 0.38509053 0
-1.2370064 1.5130683 0.53791416 0
-0.26762837 0.78804684 0.36800915 0
-0.27880508 0.79640615 0.45045185 0
-0.83728778 1.189407 -0.050088059 0
-1.2121971 1.4625177 0.078647703 0
-1.2499809 1.4900422 0.3814179 0
-1.2415138 1.4838742 0.5344159 0
-1.2264298 1.472886 0.68884981 0
-0.26172101 0.77012306 0.36163396 0
-0.27967525 0.78320223 0.44687861 0
-0.85200524 1.1755942 -0.050226852 0
-1.2526927 1.4598308 0.079765625 0
-1.2542887 1.4609629 0.37898746 0
-1.2401714 1.4509486 0.52923435 0
-1.2331214 1.4459474 0.685426 0
-0.2848413 0.77326399 0.37016585 0
-0.27855492 0.76880461 0.44221854 0
-0.85854483 1.156011 -0.0500172 0
-1.3064682 1.4653518 0.081451535 0
-1.2537177 1.4289217 0.3755894 0
-1.2368472 1.4172708 0.52361232 0
-1.2388529 1.418656 0.68178153 0
-0.28811955 0.76206911 0.44420663 0
-0.87074924 1.1404099 -0.050063659 0
-1.2783585 1.414394 0.079597771 0
-1.2808684 1.4160811 0.22787167 0
-1.2463372 1.3928701 0.37082827 0
-1.2342987 1.3847781 0.51840705 0
-1.242964 1.3906027 0.67765647 0
-0.28992623 0.74999619 0.44155234 0
-0.88316894 1.1249067 -0.050127335 0
-1.2751122 1.3812553 0.078847356 0
-1.2629683 1.3733127 0.2237283 0
-1.2473922 1.3631252 0.36802226 0
-1.2333261 1.3539253 0.51385015 0
-1.2433506 1.3604819 0.67222571 0
-0.28506273 0.73371822 0.43502328 0
-0.8847605 1.1024575 -0.049740609 0
-1.2778051 1.3525177 0.078371979 0
-1.2846348 1.3568629 0.22472666 0
-1.2595099 1.3408781 0.36768374 0
-1.2403629 1.3286965 0.51186949 0
-1.2351496 1.3253797 0.66360211 0
-0.30821961 0.73565459 0.44528493 0
-0.8935436 1.0847746 -0.049670715 0
-1.2847397 1.3267938 0.078093603 0
-1.281065 1.3245203 0.22255437 0
-1.2449858 1.3021995 0.36175749 0
-1.237896 1.2978133 0.50714868 0
-1.2398669 1.2990326 0.66027296 0
-0.90889251 1.0710942 -0.049884189 0
-1.3134514 1.3143908 0.078738116 0
-1.312791 1.3139936 0.22487606 0
-1.2434853 1.2723141 0.35871965 0
-1.2308748 1.2647302 0.50122386 0
-1.2453173 1.2734158 0.65738279 0
-0.91748452 1.0532871 -0.049823847 0
-1.335565 1.2976007 0.079111546 0
-1.3362707 1.2980132 0.22617082 0
-1.2528753 1.2492795 0.35805783 0
-1.2347803 1.2387053 0.4986949 0
-1.2408385 1.2422454 0.65081245 0
-0.93188465 1.0388222 -0.050011605 0
-1.3864795 1.2968507 0.080673352 0
-1.3828754 1.294805 0.23033902 0
-1.2436156 1.2157611 0.35359362 0
-1.236187 1.2115445 0.49554732 0
-1.2427117 1.2152479 0.64686954 0
-0.93567169 1.0183539 -0.049772892 0
-1.2422101 1.187278 0.3508648 0
-1.2332209 1.1823244 0.49124771 0
-1.2399919 1.1860557 0.64133888 0
-0.9485296 1.0029238 -0.049913492 0
-1.2483045 1.1632335 0.34976175 0
-1.2346708 1.1559427 0.48836133 0
-1.2431918 1.1604995 0.63821781 0
-0.96864879 0.99114472 -0.05035305 0
-1.2629037 1.1437695 0.35045552 0
-1.2476271 1.1358458 0.48889667 0
-1.2384415 1.1310815 0.63225842 0
-0.97585344 0.97252172 -0.050279718 0
-1.27285 1.1218534 0.35025528 0
-1.2397429 1.105207 0.48354974 0
-1.24301 1.1068497 0.62994522 0
-0.9793359 0.9521395 -0.050068356 0
-1.2868149 1.1019216 0.35091797 0
-1.2440664 1.0810975 0.48180977 0
-1.2381994 1.0782396 0.6242885 0
-0.97805297 0.92967105 -0.0496803 0
-1.3000894 1.0815576 0.35148925 0
-1.2526073 1.0591631 0.48135573 0
-1.2492794 1.0575935 0.62464339 0
-1.0055572 0.92063683 -0.050435305 0
-1.3038491 1.0567598 0.35022202 0
-1.2505312 1.0324287 0.47800443 0
-1.2379892 1.0267053 0.61691093 0
-1.0055579 0.89888215 -0.050117332 0
-1.3126249 1.0343645 0.35001236 0
-1.2421452 1.0032679 0.47300631 0
-1.2440655 1.0041151 0.61567819 0
-1.0165994 0.88207412 -0.050240219 0
-1.3331723 1.0170145 0.35216707 0
-1.2546901 0.9835611 0.47394207 0
-1.2359687 0.97558105 0.60942942 0
-1.0219625 0.86283249 -0.050151441 0
-1.3241936 0.98718631 0.3485952 0
-1.2377274 0.95160961 0.46680099 0
-1.2441977 0.95427179 0.60921586 0
-1.0293065 0.84444088 -0.050148517 0
-1.3309581 0.96413773 0.34816888 0
-1.2421916 0.92891473 0.46568751 0
-1.2432482 0.92933398 0.60581434 0
-1.0333685 0.8247934 -0.050029043 0
-1.3515499 0.94643492 0.35047048 0
-1.2329814 0.90110594 0.46092263 0
-1.2388593 0.90335304 0.60131627 0
-1.0436734 0.80752939 -0.05015704 0
-1.3550035 0.92207986 0.349511 0
-1.2405602 0.87997174 0.4608393 0
-1.2275146 0.87517178 0.5944894 0
-1.0371666 0.78421986 -0.049656082 0
-1.3789543 0.90511292 0.35253567 0
-1.2395458 0.85580301 0.45850307 0
-1.2420946 0.85670459 0.59696704 0
-1.0576251 0.77043772 -0.050185047 0
-1.3672469 0.87558627 0.34879655 0
-1.2337453 0.83024871 0.45496941 0
-1.2443503 0.83385015 0.5951857 0
-1.0532737 0.74818128 -0.049786858 0
-1.3847029 0.8561008 0.35067481 0
-1.2383499 0.80844557 0.45432857 0
-1.235351 0.80746901 0.58957464 0
-1.0640447 0.73093021 -0.04996625 0
-1.3793355 0.82922149 0.34828058 0
-1.237698 0.78506625 0.45235896 0
-1.237816 0.78510302 0.58809668 0
-1.0749201 0.71357495 -0.050156966 0
-1.3893831 0.80728054 0.34886003 0
-1.236325 0.76167136 0.45028335 0
-1.2396073 0.76264948 0.58648843 0
-1.0822399 0.69506556 -0.050223153 0
-1.3978662 0.78480667 0.34919596 0
-1.2365797 0.73894852 0.4487251 0
-1.2464434 0.7417531 0.58672869 0
-1.0832005 0.67478275 -0.050062545 0
-1.406467 0.76231211 0.34960568 0
-1.2361016 0.71618307 0.4470543 0
-1.236491 0.71628851 0.58127248 0
-1.0811824 0.65384728 -0.049802084 0
-1.4163865 0.74009389 0.35031253 0
-1.2383507 0.69428599 0.44618297 0
-1.2358428 0.69364077 0.57914048 0
-1.091113 0.63601208 -0.049991213 0
-1.4193574 0.7160753 0.34977928 0
-1.235219 0.67116147 0.44397378 0
-1.2452787 0.67361516 0.58056617 0
-1.0917854 0.61590177 -0.049848828 0
-1.4305992 0.6940366 0.35083446 0
-1.2451613 0.65127218 0.44527048 0
-1.2374889 0.64950287 0.57619262 0
-1.0928856 0.59598398 -0.049731728 0
-1.4459257 0.67273116 0.35269192 0
-1.2404608 0.62806529 0.44280604 0
-1.2441974 0.62887758 0.57687068 0
-1.1083808 0.57908732 -0.050148606 0
-1.4168866 0.64209598 0.34642762 0
-1.2397233 0.60591251 0.44145608 0
-1.2394145 0.60584944 0.57373327 0
-1.1082171 0.55889493 -0.050003067 0
-1.4364706 0.62164193 0.34917715 0
-1.2425077 0.5845651 0.44109672 0
-1.2403086 0.58414477 0.57262468 0
-1.1108098 0.53929454 -0.049967036 0
-1.4470273 0.59918606 0.35031411 0
-1.2307075 0.56065232 0.43702838 0
-1.2353334 0.56147635 0.56962758 0
-1.1036321 0.51810294 -0.049586479 0
-1.4512906 0.57552594 0.35035002 0
-1.2366772 0.5400781 0.43764144 0
-1.226373 0.53837615 0.56538928 0
-1.1237307 0.50133294 -0.050201319 0
-1.4538239 0.55159348 0.35012472 0
-1.2439656 0.51964009 0.43866068 0
-1.2404351 0.51910251 0.56900477 0
-1.1214895 0.48100761 -0.050017428 0
-1.4612521 0.52837127 0.35084602 0
-1.2476138 0.49858963 0.43880671 0
-1.2421906 0.49783361 0.56856161 0
-1.1144059 0.46019688 -0.049668793 0
-1.4481978 0.50245088 0.34789592 0
-1.2348436 0.47544286 0.43479845 0
-1.2415327 0.4762896 0.56739974 0
-1.125513 0.44170091 -0.049983699 0
-0.51834106 0.37259611 0.040166933 0
-0.50886673 0.37151781 0.10782576 0
-0.50839567 0.37146419 0.17679252 0
-1.2389144 0.45460758 0.43519527 0
-1.2418336 0.45493984 0.56665146 0
-1.129948 0.42230412 -0.050067157 0
-0.51057041 0.35969919 0.039841905 0
-0.50773257 0.35941237 0.10756557 0
-0.51141506 0.35978457 0.17710893 0
-1.2377496 0.43320039 0.43431634 0
-1.2372919 0.43315414 0.5643748 0
-1.1325556 0.40268359 -0.050093777 0
-0.46543986 0.34372896 0.038184069 0
