# .PCD v0.7 - Point Cloud Data file format
VERSION 0.7
FIELDS x y z intensity
SIZE 4 4 4 4
TYPE F F F F
COUNT 1 1 1 1
WIDTH 1354
HEIGHT 1
VIEWPOINT 0 0 0 1 0 0 0
POINTS 1354
DATA ascii
-0.50325757 0.12188555 0.039794322 0
-0.51260912 0.12046167 0.10874547 0
-0.5082984 0.12111802 0.17763503 0
-1.2295008 0.011306484 0.4349277 0
-1.2453628 0.008891304 0.57066309 0
-1.1167755 0.0084702568 -0.050062075 0
-0.50931811 0.10880437 0.040081229 0
-0.49990201 0.11035965 0.10756687 0
-0.51814377 0.10734663 0.17977804 0
-1.2301794 -0.010260741 0.43596122 0
-1.2417343 -0.012169252 0.5705691 0
-1.1138325 -0.011088829 -0.050076645 0
-0.51686996 0.095250092 0.040428821 0
-0.51742947 0.095150419 0.10969993 0
-0.50874299 0.09669777 0.17843191 0
-1.2342521 -0.032539587 0.43794692 0
-1.2411572 -0.033769589 0.57159561 0
-1.1042687 -0.029395979 -0.049859546 0
-0.51665741 0.082928427 0.040501233 0
-0.50285655 0.085566528 0.10834682 0
-0.5126974 0.083685406 0.17955935 0
-1.2423226 -0.055785608 0.44104865 0
-1.2340953 -0.054212939 0.57052016 0
-1.107805 -0.050225627 -0.050127629 0
-0.50404054 0.07308612 0.040127482 0
-0.51049626 0.071767606 0.10943988 0
-0.51198196 0.071464173 0.17986023 0
-1.2379345 -0.076803006 0.44099027 0
-1.2386464 -0.076948412 0.5734725 0
-1.0971111 -0.068158425 -0.049886107 0
-0.51448226 0.058498923 0.040599681 0
-0.50967306 0.059544388 0.10962427 0
-0.52074856 0.057136688 0.18194032 0
-1.2397263 -0.099161454 0.44261426 0
-1.2453454 -0.10038296 0.57726151 0
-1.1050606 -0.090219028 -0.050335206 0
-0.50716323 0.047663812 0.040429249 0
-0.51109666 0.046756703 0.11007397 0
-0.51791793 0.045183633 0.18191335 0
-1.2286472 -0.11871973 0.44094664 0
-1.2349648 -0.12017665 0.57533085 0
-1.0905318 -0.10712618 -0.049969856 0
-0.51583731 0.033049513 0.040851012 0
-0.51693106 0.032782737 0.11103075 0
-0.52224261 0.031487186 0.18324247 0
-1.2408584 -0.14379288 0.44545475 0
-1.2427863 -0.1442631 0.57971263 0
-1.0956821 -0.12883385 -0.050336603 0
-0.56862342 0.0067762029 0.042907067 0
-0.55969256 0.0090740817 0.11610792 0
-0.55577803 0.010081281 0.19004768 0
-1.2318447 -0.16386791 0.444469 0
-1.239666 -0.16588031 0.58045387 0
-1.0823088 -0.14579718 -0.050029568 0
-0.62549651 -0.022108238 0.045133524 0
-0.62541974 -0.022087466 0.12379257 0
-1.2339132 -0.18684639 0.31736526 0
-1.2481117 -0.19069086 0.45022878 0
-1.2467399 -0.19031943 0.58480501 0
-1.0735987 -0.16386454 -0.049902428 0
-0.69001997 -0.054802727 0.047665391 0
-0.69152021 -0.055229288 0.13159028 0
-1.2375717 -0.21048649 0.31914124 0
-1.2344241 -0.20959152 0.44815335 0
-1.2423912 -0.2118568 0.58532715 0
-1.0745547 -0.1847219 -0.05014335 0
-0.77860129 -0.096531875 0.051118307 0
-0.78338885 -0.097958542 0.14235361 0
-1.2467492 -0.23603342 0.32201836 0
-1.2369428 -0.23311131 0.4504478 0
-1.2409524 -0.23430611 0.58695537 0
-1.0633138 -0.20195822 -0.049938917 0
-0.87938249 -0.14461799 0.055060636 0
-0.86521685 -0.14020188 0.15208945 0
-1.2404445 -0.25717834 0.32204276 0
-1.2517219 -0.26069406 0.45610675 0
-1.2390792 -0.25675276 0.58853692 0
-1.0605042 -0.22179155 -0.050058339 0
-0.98817849 -0.19824098 0.059342779 0
-0.98889053 -0.19847284 0.16665481 0
-1.2360015 -0.27893671 0.32247075 0
-1.2374418 -0.27940574 0.45408487 0
-1.2473372 -0.28262785 0.59376848 0
-1.0463729 -0.23787229 -0.049760796 0
-1.1204427 -0.26302662 0.064553514 0
-1.1312785 -0.2667065 0.18348971 0
-1.2451545 -0.30537918 0.32554224 0
-1.2442479 -0.30507126 0.45779923 0
-1.0474735 -0.25912139 -0.050046392 0
-1.2958256 -0.34696552 0.20302349 0
-1.2247845 -0.32183769 0.32304329 0
-1.2425109 -0.32810768 0.4593055 0
-1.039647 -0.27730379 -0.050003868 0
-1.2540437 -0.35618868 0.19913608 0
-1.22999 -0.34733841 0.32548729 0
-1.229243 -0.34706357 0.45776272 0
-1.0325187 -0.29572442 -0.049996562 0
-1.2480037 -0.37810484 0.19935553 0
-1.2408537 -0.37537137 0.32909742 0
-1.2415811 -0.37564948 0.46327156 0
-1.0248321 -0.3139213 -0.049976658 0
-1.2413948 -0.39985439 0.19954211 0
-1.2360063 -0.39771619 0.32974553 0
-1.2317461 -0.39602575 0.46282038 0
-1.0157537 -0.3315337 -0.049911745 0
-1.2460828 -0.42630324 0.20107424 0
-1.2479992 -0.42709181 0.33373594 0
-1.2483807 -0.42724875 0.46974003 0
-1.0106906 -0.35081127 -0.050010897 0
-1.2462584 -0.45122287 0.20212626 0
-1.2374625 -0.44747362 0.33340323 0
-1.246914 -0.45150235 0.47178543 0
-1.01092 -0.37250391 -0.050326578 0
-1.2568874 -0.48102817 0.20444883 0
-1.245597 -0.47604665 0.33679962 0
-1.2498572 -0.47792628 0.47515687 0
-0.98852277 -0.38411918 -0.049766824 0
-1.2406185 -0.49916092 0.2036515 0
-1.2365412 -0.4973003 0.3368789 0
-1.231938 -0.49519971 0.47279012 0
-0.99205184 -0.40752938 -0.050232876 0
-1.2388057 -0.52390945 0.20459419 0
-1.2402514 -0.52459133 0.33955747 0
-1.2363147 -0.52273452 0.47675976 0
-0.98068202 -0.42405108 -0.05012181 0
-1.4957601 -0.67496079 0.082576536 0
-1.2314233 -0.54619449 0.20491403 0
-1.2302015 -0.54559934 0.33956081 0
-1.2347429 -0.54781163 0.47916383 0
-0.96384442 -0.43773934 -0.049799833 0
-1.4497058 -0.68203336 0.081214927 0
-1.2454422 -0.57932842 0.20784391 0
-1.2494214 -0.58132917 0.34552589 0
-1.2397808 -0.57648182 0.48356053 0
-0.96362948 -0.45979717 -0.050151184 0
-1.400622 -0.6864574 0.07972613 0
-1.2381886 -0.60220617 0.20826796 0
-1.2433631 -0.60489005 0.34648556 0
-0.95007217 -0.47500458 -0.049975947 0
-1.3472657 -0.68741059 0.078056552 0
-1.2504219 -0.63562173 0.21110475 0
-1.2371533 -0.62852609 0.34748113 0
-0.94517243 -0.4948453 -0.050160173 0
-1.3070009 -0.69423813 0.076909482 0
-1.2315224 -0.65264422 0.21019253 0
-1.2423826 -0.658629 0.35090032 0
-0.93763232 -0.51334047 -0.050247554 0
-1.256549 -0.69435787 0.075339526 0
-1.2291596 -0.67881161 0.21134369 0
-1.2417232 -0.68594271 0.35320115 0
-0.91589487 -0.52361405 -0.049758114 0
-1.2494174 -0.71851462 0.075549327 0
-1.2366809 -0.71107173 0.21377452 0
-1.2411948 -0.71370959 0.35561797 0
-0.90969348 -0.54283166 -0.049917553 0
-1.2550951 -0.75055188 0.076306984 0
-1.2391431 -0.74095851 0.21564013 0
-1.2448721 -0.7444039 0.35901147 0
-0.89886034 -0.55931973 -0.049893916 0
-1.239449 -0.77002984 0.076192245 0
-1.2369858 -0.76850599 0.21698393 0
-1.246786 -0.77456909 0.36213925 0
-0.89484549 -0.58012956 -0.050167348 0
-1.2513798 -0.80696148 0.077253811 0
-1.2356342 -0.79694384 0.21848518 0
-1.2439034 -0.80220479 0.36434776 0
-0.87806964 -0.59282738 -0.0499098 0
-1.2514408 -0.83702892 0.077837557 0
-1.2327852 -0.82482737 0.21985234 0
-1.2412838 -0.83038586 0.36670592 0
-0.87897944 -0.61719787 -0.050417695 0
-1.2374753 -0.85816926 0.077839106 0
-1.236739 -0.8576743 0.22215731 0
-1.237664 -0.85829598 0.36894354 0
-0.85864437 -0.62733567 -0.050021522 0
-1.2401966 -0.89083976 0.078576162 0
-1.2457088 -0.89464658 0.22519131 0
-1.2414677 -0.89171761 0.37290451 0
-0.83538961 -0.63506347 -0.049499556 0
-1.2388419 -0.92126125 0.079159357 0
-1.2377341 -0.92047542 0.22608094 0
-1.6049284 -1.1809527 0.45651993 0
-0.82555962 -0.65211928 -0.049570031 0
-1.2391505 -0.95340842 0.079838231 0
-1.2332127 -0.94908291 0.22748098 0
-1.5701135 -1.1945053 0.4528484 0
-0.8295325 -0.67956448 -0.050266061 0
-1.2376951 -0.98483926 0.080462843 0
-1.2386286 -0.98553747 0.230276 0
-0.80961454 -0.68929046 -0.049909018 0
-1.2396529 -1.0194511 0.081264883 0
-1.2464609 -1.024678 0.23348747 0
-0.80016351 -0.70694733 -0.050029702 0
-1.1632693 -0.9930591 0.078533806 0
-1.1598251 -0.99034518 0.22387263 0
-1.1525124 -0.9845832 0.36994207 0
-0.78798306 -0.72251076 -0.050036471 0
-1.1451608 -1.0113146 0.07843513 0
-1.1377952 -1.0053589 0.22302885 0
-1.140987 -1.0079398 0.37094542 0
-0.77819633 -0.74007028 -0.050163388 0
-1.2412376 -1.1242144 0.083642811 0
-1.2413231 -1.1242853 0.23973511 0
-1.3309021 -1.198601 0.41923183 0
-0.75670969 -0.74779385 -0.049753487 0
-1.2466627 -1.16479 0.084723033 0
-1.2334814 -1.1535715 0.24111472 0
-1.3262005 -1.2324841 0.42251396 0
-1.024717 -0.9758932 0.4942205 0
-0.74828911 -0.76654488 -0.049962871 0
-1.2791829 -1.2300379 0.41580307 0
-0.99055755 -0.97805566 0.48797947 0
-0.73776114 -0.78361124 -0.050084889 0
-1.1947999 -1.1928802 0.08398772 0
-1.1895652 -1.1881925 0.24000627 0
-1.1982318 -1.1959534 0.40079376 0
-0.97488248 -0.99594861 0.48800734 0
-0.71558964 -0.79010493 -0.049654283 0
-0.92141259 -0.97913855 0.47502071 0
-0.70739663 -0.80935222 -0.04990809 0
-0.89511228 -0.98616427 0.47132808 0
-0.69105363 -0.82098025 -0.049772426 0
-0.85520494 -0.97954446 0.46279475 0
-0.68696642 -0.84461862 -0.05025826 0
-0.83300281 -0.98928291 0.46048287 0
-0.66758239 -0.85321027 -0.049986918 0
-0.82208872 -1.0101683 0.46229079 0
-0.65818548 -0.87193459 -0.050232422 0
-0.63578522 -0.87702411 -0.049814135 0
-0.62472916 -0.89411086 -0.049994212 0
-0.60811639 -0.90514868 -0.049889907 0
-0.59396672 -0.91891831 -0.049925782 0
-0.5829277 -0.93641001 -0.050143693 0
-0.56498939 -0.94577867 -0.049989983 0
-0.5492906 -0.95776683 -0.049968183 0
-0.53689432 -0.97395366 -0.050145976 0
-0.52017981 -0.98469096 -0.05008442 0
-0.50646025 -0.9993915 -0.050209116 0
-0.48829788 -1.008108 -0.05007663 0
-0.47979695 -1.0303789 -0.05054732 0
-0.45402294 -1.0280615 -0.049954101 0
-0.43921542 -1.0414228 -0.05005287 0
-0.42534935 -1.0563672 -0.050226193 0
-0.37635607 -0.98094136 0.50003934 0
-0.40055567 -1.0542501 -0.049685054 0
-1.609486 -2.9677374 0.14249109 0
-0.35273087 -0.97855347 0.49513039 0
-0.38884205 -1.0727021 -0.050023042 0
-1.5566577 -2.973707 0.14167464 0
-0.32951581 -0.976129 0.49036157 0
-0.37722886 -1.0917932 -0.050391242 0
-1.5564455 -3.0666873 0.14451009 0
-0.31483591 -0.98730057 0.49101049 0
-0.35555631 -1.0940689 -0.050068773 0
-0.29085529 -0.98254424 0.4855997 0
-0.34134972 -1.1091383 -0.050284073 0
-0.28086787 -1.0017946 0.48951033 0
-0.31900918 -1.1096597 -0.049913201 0
-0.25578332 -0.99406642 0.48321149 0
-0.30927098 -1.1333755 -0.050493672 0
-0.22509582 -0.97477013 0.47271687 0
-0.28794897 -1.1354864 -0.050207842 0
-0.20697273 -0.97815591 0.47092217 0
-0.2706461 -1.1452093 -0.050238244 0
-0.19093402 -0.98542196 0.47066647 0
-0.25184757 -1.1518937 -0.050156649 0
-0.16909988 -0.98065704 0.46604168 0
-0.23241265 -1.1570892 -0.050026204 0
-0.14957251 -0.98000354 0.46305552 0
-0.21337761 -1.1629528 -0.049932301 0
-0.12933238 -0.97723359 0.45940343 0
-0.19561 -1.1715562 -0.049955048 0
-0.11615147 -0.9899177 0.46147618 0
-0.1758687 -1.1755381 -0.049807239 0
-0.10384817 -1.0050889 0.46449628 0
-0.16236217 -1.1945416 -0.050248969 0
-0.070755675 -0.96989053 0.34607416 0
-0.086019054 -1.0073216 0.46290806 0
-0.13826413 -1.187466 -0.049694631 0
-0.052343234 -0.96892756 0.3440997 0
-0.066824481 -1.0057603 0.46005183 0
-0.121435 -1.1984898 -0.049845487 0
-0.02987702 -0.95671707 0.14632423 0
-0.030092997 -0.95728737 0.24159388 0
-0.013829214 -0.91434032 0.32756865 0
-0.052450463 -1.0163257 0.46160945 0
-0.10739531 -1.2174892 -0.050306782 0
-0.0088230502 -0.94695729 0.14455299 0
-0.0082678627 -0.94543356 0.23821905 0
0.0089839268 -0.89808601 0.32165417 0
-0.084555104 -1.2123501 -0.049859665 0
0.0099160541 -0.94256037 0.14343046 0
0.0089657474 -0.94527429 0.23714635 0
0.022190945 -0.90750581 0.3227838 0
-0.004456176 -0.98360449 0.44591346 0
-0.066788539 -1.2213271 -0.049956955 0
0.023133444 -0.95377511 0.14410947 0
0.019507216 -0.9645645 0.23982005 0
0.026639806 -0.94334239 0.33106375 0
0.013469325 -0.98252946 0.44363967 0
-0.045914009 -1.2208899 -0.04970916 0
0.03740184 -0.96225446 0.14449573 0
0.034690067 -0.97067255 0.24001044 0
0.021036016 -1.0130584 0.3484064 0
0.022161977 -1.0095631 0.45127895 0
-0.028221918 -1.230193 -0.049836047 0
0.024765151 -1.0583208 0.35913429 0
-0.010839803 -1.2408761 -0.050022136 0
0.067912802 -0.97351724 0.33524138 0
0.0087465215 -1.2442098 -0.04994316 0
0.082102522 -0.98308533 0.33658633 0
0.027407395 -1.2508011 -0.049993966 0
0.098784491 -0.9838565 0.3356508 0
0.046257004 -1.2568074 -0.050031733 0
0.11874567 -0.97134954 0.33127844 0
0.064658329 -1.2648045 -0.050151214 0
0.085131809 -1.2640793 -0.049959511 0
0.10539849 -1.2636892 -0.049789984 0
0.12217911 -1.2800553 -0.050240371 0
0.14266239 -1.278452 -0.050044619 0
-0.063903674 -2.3778555 0.10198154 0
0.16293941 -1.2772449 -0.049873017 0
0.0015158819 -2.2002809 0.095326722 0
0.18273817 -1.2782537 -0.04979115 0
0.034721062 -2.1923094 0.094849214 0
0.20159797 -1.285192 -0.049932476 0
0.064484581 -2.2051795 0.095139988 0
0.22048485 -1.2926934 -0.050102409 0
0.0970736 -2.1988597 0.094752356 0
0.24094419 -1.288455 -0.049858335 0
0.12878795 -2.1974363 0.094556235 0
0.25967881 -1.2982703 -0.050128665 0
0.16012104 -2.198247 0.094454981 0
0.27955669 -1.2983963 -0.05005955 0
0.19075477 -2.2055187 0.094599798 0
0.29896662 -1.3034776 -0.050177034 0
0.22234651 -2.2028079 0.0944006 0
0.31932595 -1.2966571 -0.049877137 0
0.25396392 -2.1978693 0.094136082 0
0.3388021 -1.3011 -0.049989481 0
0.28449896 -2.207967 0.094423793 0
0.35853815 -1.301787 -0.049976286 0
0.31627199 -2.1962695 0.093946092 0
0.37823856 -1.3033253 -0.050002385 0
0.34720996 -2.1990893 0.094001494 0
0.39791745 -1.3068162 -0.050107069 0
0.37813854 -2.2043307 0.094157271 0
0.41778296 -1.2986987 -0.049806129 0
0.43750381 -1.3110574 -0.050245143 0
0.45721316 -1.3028147 -0.049957525 0
0.47715273 -1.3097456 -0.05022059 0
0.49680141 -1.3049599 -0.050074123 0
0.51667494 -1.3062449 -0.050153438 0
0.53616035 -1.3007727 -0.050000008 0
0.55640614 -1.3062798 -0.050248396 0
0.57483244 -1.2899549 -0.049723513 0
0.59499377 -1.2938117 -0.049930684 0
0.61454433 -1.291164 -0.049913477 0
0.63470381 -1.2932782 -0.050076529 0
0.65360969 -1.2857656 -0.049901858 0
0.67466778 -1.2928762 -0.050263774 0
0.69397026 -1.2880061 -0.050202295 0
0.71245277 -1.2788408 -0.049993645 0
0.7317009 -1.2743679 -0.049963597 0
0.75149256 -1.272603 -0.050041039 0
0.77025592 -1.265911 -0.049947653 0
0.78801119 -1.2551847 -0.049714729 0
0.80788696 -1.2537065 -0.049829397 0
0.82608211 -1.2454472 -0.049703483 0
0.84737504 -1.2488121 -0.050015908 0
0.86475652 -1.2377744 -0.049804356 0
0.88258559 -1.2287279 -0.049674403 0
0.9029668 -1.2280729 -0.049866427 0
0.91933835 -1.2147908 -0.049594294 0
0.94039661 -1.2157499 -0.049866267 0
0.95826429 -1.2071987 -0.049788952 0
0.97854638 -1.2052938 -0.049972951 0
0.99495798 -1.1929904 -0.049769673 0
0.92534131 -1.0125958 0.46137774 0
1.0150714 -1.1903085 -0.049943309 0
0.94004089 -1.0029438 0.46017861 0
1.0328621 -1.1817037 -0.049898677 0
0.96044993 -1.0072743 0.46407661 0
1.0511277 -1.1742755 -0.049908206 0
0.9730196 -0.9926191 0.46121296 0
1.0711569 -1.1707861 -0.050080664 0
0.9901585 -0.98875862 0.46232158 0
1.0866642 -1.1571715 -0.049866091 0
1.0071704 -0.98441499 0.46333852 0
1.1072454 -1.1545727 -0.050093405 0
1.0263809 -0.98450929 0.46607512 0
1.1258073 -1.1474905 -0.050154079 0
1.0431147 -0.97908348 0.46687213 0
1.1424414 -1.1365024 -0.05006814 0
1.062735 -0.97921437 0.46982506 0
1.1544797 -1.1168458 -0.049640853 0
1.0832285 -0.98052722 0.47333369 0
1.1763132 -1.1159968 -0.049979497 0
1.0977138 -0.97012395 0.47253561 0
1.1935387 -1.1063496 -0.049972441 0
1.1290956 -0.9902733 0.057232548 0
1.1298615 -0.99165291 0.16039163 0
1.1272523 -0.98695332 0.26412159 0
1.1324549 -0.99632412 0.37388873 0
1.1274658 -0.98733789 0.48231032 0
1.212219 -1.0992503 -0.050079007 0
1.1413692 -0.97533685 0.056983065 0
1.1346564 -0.96359652 0.15801762 0
1.1417464 -0.97599655 0.26368317 0
1.1462767 -0.98392004 0.37286264 0
1.1485875 -0.98796135 0.48594055 0
1.2278845 -1.0868747 -0.049977493 0
1.1687248 -0.98636538 0.057813738 0
1.1643405 -0.97891659 0.16104268 0
1.1674689 -0.98423153 0.26729581 0
1.1599063 -0.97138304 0.37184089 0
1.1674521 -0.98420304 0.48800856 0
1.2457266 -1.0782247 -0.050038908 0
1.2594956 -1.0629495 -0.049831547 0
1.2808079 -1.059714 -0.050140299 0
1.290215 -1.037999 -0.049673099 0
1.3220752 -1.0500442 -0.050662328 0
1.3345822 -1.033026 -0.050413884 0
1.3472772 -1.016567 -0.05019461 0
1.3633388 -1.0049555 -0.050194949 0
1.371482 -0.98282033 -0.049734004 0
1.3935676 -0.97925395 -0.05011097 0
1.4088652 -0.96669561 -0.050094593 0
1.2084669 -0.71400881 0.050580718 0
1.200694 -0.70420772 0.13885412 0
1.4131556 -0.94062465 -0.049464904 0
1.2045903 -0.68433559 0.049668152 0
1.2055886 -0.68556225 0.1376214 0
1.4386773 -0.94067055 -0.050045736 0
1.2122911 -0.6695289 0.04943512 0
1.2011429 -0.65617687 0.1348806 0
1.4514202 -0.92516261 -0.049916752 0
1.2062588 -0.63893795 0.048462119 0
1.2113371 -0.64486676 0.13465993 0
1.469666 -0.91605097 -0.050097894 0
1.205969 -0.61591887 0.047834549 0
1.1999243 -0.60903913 0.13094766 0
1.4817984 -0.89995998 -0.049956657 0
1.2006602 -0.58798832 0.046963606 0
1.2007885 -0.58813059 0.12933069 0
1.4952236 -0.88540989 -0.049896065 0
1.5111505 -0.87355655 -0.049975667 0
1.5234028 -0.85783809 -0.049873739 0
1.5412751 -0.84785479 -0.050067358 0
1.5539517 -0.83259362 -0.050005443 0
1.574693 -0.82508093 -0.050351694 0
1.5839866 -0.80658311 -0.050140422 0
1.5995026 -0.79392511 -0.050242718 0
1.6034169 -0.77090853 -0.049798645 0
1.6202754 -0.7594592 -0.049983218 0
1.6387517 -0.74919516 -0.050248049 0
1.6451535 -0.7287963 -0.049958955 0
1.6525459 -0.709445 -0.049729794 0
1.6695031 -0.697734 -0.04994655 0
1.6823004 -0.68267488 -0.049981546 0
1.6984731 -0.67007279 -0.050174452 0
1.7096087 -0.65367824 -0.050151154 0
1.711995 -0.63117588 -0.049755823 0
1.7336158 -0.62211251 -0.050207105 0
1.7388645 -0.60180771 -0.049958222 0
1.7534822 -0.58775192 -0.050120305 0
1.7666277 -0.57263368 -0.050226547 0
1.7677786 -0.5501076 -0.049838379 0
1.7732233 -0.53044158 -0.04964311 0
1.8014182 -0.52403396 -0.050396793 0
1.7969246 -0.49873081 -0.049811345 0
1.7985865 -0.47723576 -0.049492925 0
1.8111196 -0.46171686 -0.049626227 0
1.8351192 -0.45194498 -0.050226208 0
1.8463581 -0.43538162 -0.05031905 0
1.8422143 -0.4113684 -0.049810603 0
1.8572104 -0.39662728 -0.050070338 0
1.8563322 -0.37455824 -0.049714707 0
1.8770338 -0.36211869 -0.050211631 0
1.8778564 -0.34096977 -0.049942575 0
1.8845211 -0.32238302 -0.049910128 0
1.8846105 -0.30125615 -0.049634904 0
1.9082298 -0.28915933 -0.050268337 0
1.896925 -0.26398346 -0.049579188 0
1.9132794 -0.24890648 -0.04995016 0
1.926949 -0.23265751 -0.050225727 0
1.9237261 -0.21081816 -0.049874905 0
1.9374187 -0.19439094 -0.050167061 0
1.9373261 -0.17373239 -0.049953267 0
1.9482194 -0.156276 -0.05015691 0
1.946923 -0.13544954 -0.049917907 0
1.9488903 -0.1156115 -0.049809445 0
1.9628403 -0.098691769 -0.05015016 0
1.9591864 -0.077579476 -0.049853671 0
1.9663616 -0.058960509 -0.049962785 0
1.9695253 -0.039466899 -0.049934186 0
1.9753312 -0.020478439 -0.050010499 0
1.977031 -0.00072739582 -0.04994658 0
1.9854244 0.017918829 -0.05013375 0
1.9879535 0.037556786 -0.050117485 0
1.9916688 0.05702858 -0.050152875 0
2.0022047 0.075708903 -0.050442293 0
1.9863441 0.097433694 -0.049791966 0
1.9868807 0.11714778 -0.049740244 0
1.9837699 0.13712756 -0.049566824 0
1.9993949 0.15568827 -0.050073061 0
1.9935617 0.17582691 -0.049819984 0
2.0057456 0.19499545 -0.050219972 0
1.9916966 0.21527547 -0.049691405 0
1.9980688 0.23479997 -0.049901281 0
2.0031443 0.25448379 -0.050073624 0
2.0057621 0.27427682 -0.050167084 0
1.9947009 0.29388055 -0.049781021 0
1.9946321 0.31356111 -0.049796261 0
2.0058775 0.33375451 -0.05022468 0
1.9922566 0.3528432 -0.049773317 0
1.9874763 0.37222916 -0.04964653 0
2.0001547 0.39296061 -0.050153755 0
2.0083802 0.41363278 -0.050511241 0
1.9948721 0.43222669 -0.050098181 0
1.984241 0.45087612 -0.049796354 0
1.9750979 0.46951187 -0.049556069 0
1.9792688 0.48992091 -0.049804147 0
1.9878734 0.51121402 -0.050222281 0
1.9796548 0.52992189 -0.050041623 0
1.974005 0.54897767 -0.049962353 0
1.9739063 0.56907707 -0.050093617 0
1.9722929 0.58895499 -0.050179191 0
1.9601709 0.60654414 -0.049889684 0
1.9532136 0.62515193 -0.049796931 0
1.9574795 0.64650798 -0.050125569 0
1.9574223 0.66696566 -0.050305583 0
1.9496768 0.68542463 -0.050210904 0
1.9229102 0.69827944 -0.049417231 0
1.9298468 0.72082675 -0.04988445 0
1.9263641 0.74040294 -0.049973752 0
1.9201171 0.75912941 -0.049968682 0
1.9127928 0.77748191 -0.049931776 0
1.8984725 0.79328597 -0.049637925 0
1.9004333 0.81497896 -0.049971055 0
1.9020014 0.83677453 -0.050301217 0
1.8868984 0.8520878 -0.05000167 0
1.8819077 0.87141073 -0.050099388 0
1.8737271 0.88942868 -0.050082952 0
1.8583951 0.90422815 -0.049795434 0
1.8510596 0.9225176 -0.049828257 0
1.8482523 0.94300687 -0.050049655 0
1.8422948 0.96211469 -0.050157193 0
1.8246632 0.97534907 -0.049807049 0
1.8126231 0.9912529 -0.049686901 0
1.8221778 1.0187874 -0.050451279 0
1.8046093 1.0317731 -0.050125696 0
1.7895333 1.0459329 -0.04990714 0
1.7848275 1.0660651 -0.050124723 0
1.7642546 1.0767021 -0.049691007 0
1.7584157 1.0962256 -0.049880445 0
1.7470688 1.1123588 -0.04984783 0
1.7517799 1.1391156 -0.050511472 0
1.7338929 1.1510454 -0.050219078 0
1.7186468 1.1645759 -0.050045695 0
1.6991562 1.1749083 -0.049691569 0
1.6945581 1.1959271 -0.050000727 0
1.6896182 1.2169644 -0.050309338 0
1.6751672 1.2308836 -0.050202727 0
1.6640711 1.2473886 -0.050256263 0
1.6408279 1.2539977 -0.04975934 0
1.632979 1.2730886 -0.049978856 0
1.6189073 1.2870241 -0.049918737 0
1.6070911 1.3029014 -0.049973741 0
1.5982522 1.3215352 -0.050182454 0
1.5807602 1.3323264 -0.04998311 0
1.5732716 1.3524693 -0.050281569 0
1.5486217 1.3561238 -0.049739245 0
1.5411682 1.3764918 -0.050061952 0
1.530268 1.3936447 -0.05022537 0
1.51173 1.4029121 -0.050005745 0
1.4961225 1.4151266 -0.049943343 0
1.0480126 0.9302882 0.30768007 0
1.4857085 1.433043 -0.05016518 0
1.4414394 1.3839188 0.059804317 0
1.4447241 1.3875637 0.16849099 0
1.4436877 1.3864136 0.27840367 0
1.0502764 0.94985533 0.31299624 0
1.4645711 1.4389963 -0.049822308 0
1.417437 1.3853496 0.059272833 0
1.4238808 1.3926837 0.16741298 0
1.4076985 1.3742657 0.27245221 0
1.0590098 0.97739851 0.32177362 0
1.4546893 1.4577234 -0.050096158 0
1.3899039 1.3820869 0.058540694 0
1.3877623 1.3795865 0.16380607 0
1.3975253 1.3909848 0.27352759 0
1.0515388 0.98704726 0.32256967 0
1.4404348 1.4715196 -0.050143633 0
1.3654753 1.381741 0.057968091 0
1.3726629 1.3903495 0.16364144 0
1.36246 1.3781296 0.26767361 0
1.0607182 1.016735 0.33208355 0
1.4217676 1.4799514 -0.049952012 0
1.343351 1.3835915 0.057516657 0
1.3417497 1.3816239 0.16080464 0
1.3456718 1.3864434 0.26690474 0
1.0609059 1.0365175 0.33720192 0
1.4023125 1.4871774 -0.049718115 0
1.3297961 1.3957397 0.057551686 0
1.3142396 1.3761243 0.15849219 0
1.3169793 1.3795787 0.26269862 0
1.0540026 1.0479854 0.33873791 0
1.3997948 1.5160565 -0.050474554 0
1.2934136 1.3783927 0.056263324 0
1.2911185 1.3754227 0.15690108 0
1.2945811 1.3799034 0.26025462 0
1.0581101 1.0738955 0.34636793 0
1.3774029 1.5194292 -0.050085463 0
1.2750915 1.3835291 0.056012414 0
1.2740911 1.3822004 0.15637042 0
1.274078 1.382183 0.2583389 0
1.0430294 1.0752813 0.34369165 0
1.3604635 1.5297787 -0.050021358 0
1.2555741 1.3867409 0.055688873 0
1.2542996 1.385003 0.15534361 0
1.2513522 1.3809836 0.25572079 0
1.0347781 1.0856413 0.34482104 0
1.3441799 1.5409741 -0.050004337 0
1.2462842 1.4038869 0.055990346 0
1.2456821 1.4030437 0.15637138 0
1.242738 1.3989209 0.25743079 0
1.0212851 1.0888115 0.34304371 0
1.3247995 1.5476998 -0.049802072 0
1.2431984 1.4303334 0.05669871 0
1.2451519 1.4331431 0.15898283 0
1.2379147 1.4227339 0.26044041 0
1.0142528 1.1010425 0.34502244 0
1.3097185 1.5605296 -0.049875222 0
1.2458998 1.466228 0.057810038 0
1.2398078 1.4572263 0.16079231 0
1.2436397 1.4628884 0.26699641 0
1.0033013 1.1077527 0.34480235 0
1.2937999 1.5721868 -0.049905803 0
1.247833 1.5023865 0.058922011 0
1.2433805 1.4956254 0.16443771 0
1.2304112 1.4759315 0.26762816 0
1.1735196 1.389542 0.34972396 0
0.99259764 1.1148129 0.34477866 0
1.2836217 1.5928504 -0.05032653 0
1.2518302 1.543226 0.060222492 0
1.2458688 1.5339206 0.16803482 0
1.2234228 1.4988838 0.27041301 0
1.1498636 1.3840629 0.34526393 0
0.98207086 1.1221495 0.34491783 0
1.2622128 1.5960548 -0.050014988 0
1.2445879 1.5677656 0.060825054 0
1.2445416 1.5676914 0.17102693 0
1.2049958 1.5042174 0.26945117 0
1.129495 1.3830332 0.34226608 0
0.97796565 1.139817 0.3491576 0
1.2437397 1.6036885 -0.049901988 0
1.1898981 1.5147941 0.26965123 0
1.1125073 1.387019 0.34086391 0
0.96194607 1.1384369 0.34597659 0
0.83823103 0.93417877 0.47040775 0
1.2243978 1.6096951 -0.049732089 0
1.1775955 1.5301803 0.27089626 0
1.089819 1.3810524 0.33658922 0
0.95545197 1.1527694 0.34896305 0
0.83673477 0.95107484 0.47855619 0
1.2139156 1.6309618 -0.050201036 0
1.1569088 1.5312591 0.26919231 0
1.0710927 1.3811704 0.3342177 0
0.94565022 1.1617765 0.34991863 0
0.85186827 0.99775583 0.35577729 0
0.83751976 0.97266078 0.41422352 0
0.84271008 0.98173839 0.49606434 0
1.1880882 1.6252761 -0.049571544 0
1.1418706 1.5420283 0.26955307 0
1.0523629 1.3808051 0.33179075 0
0.93352771 1.1667567 0.34938234 0
0.8470726 1.0110321 0.35959166 0
0.84321332 1.0040807 0.4293184 0
0.83620471 0.99145663 0.49919173 0
1.1718521 1.6364619 -0.049643744 0
1.1265917 1.5524627 0.26988176 0
1.0343175 1.3812103 0.32967204 0
0.92163765 1.1720872 0.34903994 0
0.84660608 1.0328356 0.36741921 0
0.84080487 1.022069 0.43663654 0
0.83916962 1.0190341 0.51438439 0
1.1617804 1.6595577 -0.050203525 0
1.1091962 1.5589532 0.26944497 0
1.0161742 1.3809826 0.32745066 0
0.91182244 1.1813357 0.350227 0
0.84874821 1.0606613 0.37801167 0
0.83811176 1.0403116 0.44406736 0
0.83955759 1.0430777 0.52708757 0
1.1390114 1.6584781 -0.049797244 0
1.0905484 1.562844 0.2685298 0
1.0015432 1.3872061 0.32715416 0
0.90067744 1.1881633 0.35054985 0
0.84927213 1.086723 0.38770539 0
0.84300101 1.074348 0.46032906 0
0.83792412 1.0643294 0.53785056 0
1.1252518 1.6751033 -0.050109077 0
1.0795884 1.582108 0.27075636 0
0.9859159 1.39134 0.32631811 0
0.89116663 1.1983793 0.35217872 0
0.84833562 1.1111521 0.39658326 0
0.83797532 1.090053 0.46623811 0
0.8410182 1.0962499 0.55560958 0
1.106076 1.6808573 -0.049996171 0
0.96584803 1.3859488 0.3228519 0
0.87767845 1.2005223 0.3508682 0
0.84180421 1.1250765 0.40059763 0
0.83650011 1.1139216 0.47666997 0
0.84109503 1.1235851 0.57022583 0
1.0857798 1.6839936 -0.04979055 0
0.93940508 1.3658907 0.31535777 0
0.86607778 1.2065351 0.35104477 0
0.83845401 1.146503 0.40804556 0
0.84011197 1.150106 0.49383488 0
0.83811909 1.1457751 0.58139819 0
1.0717046 1.7007613 -0.050128765 0
0.92842972 1.3787796 0.31719923 0
0.84981269 1.2021035 0.34747046 0
0.84127325 1.1829129 0.42226124 0
0.84183699 1.1841798 0.50972313 0
0.83734596 1.174087 0.59650636 0
1.0525365 1.7062963 -0.050035536 0
0.9152478 1.3870029 0.31777346 0
0.84803289 1.2306808 0.3559438 0
0.84436518 1.2221508 0.43765867 0
0.84086037 1.2139995 0.52319688 0
0.83784449 1.2069856 0.61450005 0
1.0342348 1.7137545 -0.050026495 0
0.8978039 1.385114 0.3155973 0
0.84927946 1.2682263 0.36761162 0
0.8372997 1.2393688 0.44308689 0
0.84220141 1.2511764 0.54059261 0
0.83972543 1.2452122 0.63581723 0
1.0141613 1.7167801 -0.049855914 0
0.88192391 1.3865592 0.3144089 0
0.85182023 1.3113849 0.38122681 0
0.8390981 1.2796154 0.45879835 0
0.84059113 1.2833439 0.55519193 0
0.84198862 1.2868335 0.6591807 0
0.99561191 1.7234292 -0.04983452 0
0.86332506 1.38064 0.31126714 0
0.84869236 1.342723 0.39054921 0
0.83762962 1.3140568 0.47184721 0
0.84197819 1.325325 0.5749945 0
0.83846211 1.3162138 0.67463142 0
0.98079556 1.7400922 -0.050203528 0
0.84813178 1.3830043 0.31045842 0
0.84642768 1.3784173 0.4013882 0
0.84253621 1.3679428 0.49343187 0
0.84142524 1.3649523 0.59343898 0
0.83725756 1.3537343 0.69518811 0
0.95875108 1.7373055 -0.049840607 0
0.83163732 1.3814958 0.30865607 0
0.83930492 1.4029586 0.40824848 0
0.83835441 1.4002981 0.50542605 0
0.83984798 1.4044787 0.61175078 0
0.93891597 1.7401788 -0.049703389 0
0.8151111 1.3793544 0.3067469 0
0.84164953 1.4566995 0.42538118 0
0.84108329 1.4550493 0.5271951 0
0.84171635 1.4568943 0.63681221 0
0.92140472 1.7498139 -0.049830284 0
1.0270733 2.0708952 0.34899423 0
0.80281723 1.3894776 0.30819586 0
0.8406778 1.5045196 0.44035903 0
0.83774453 1.4956065 0.54267222 0
0.83785051 1.4959286 0.65470916 0
0.9018538 1.753286 -0.04973425 0
1.0075477 2.0886054 0.35095471 0
0.78398043 1.3793269 0.30425718 0
0.83980781 1.556442 0.45671281 0
0.8411808 1.5607979 0.56880039 0
0.8378824 1.5503336 0.68062437 0
0.88318938 1.7594755 -0.049749099 0
0.98445588 2.0954454 0.35090658 0
0.77122045 1.3879981 0.3054122 0
0.84065187 1.6183493 0.47647801 0
0.83860886 1.6115713 0.58857602 0
0.86671174 1.7733139 -0.0500568 0
0.96089143 2.1006322 0.3506031 0
0.75217956 1.3752609 0.30092224 0
0.83898538 1.6769518 0.49502391 0
0.84242541 1.6889076 0.61973834 0
0.84750307 1.7780231 -0.050033193 0
0.73744476 1.3765638 0.047171742 0
0.74035323 1.3871729 0.13111888 0
0.73721236 1.3757161 0.2138247 0
0.73782641 1.3779558 0.30059376 0
0.83561468 1.734658 0.51320398 0
0.83413124 1.7292469 0.6348893 0
0.82710934 1.7781326 -0.049848888 0
0.72321862 1.3795545 0.047143694 0
0.72416472 1.3831843 0.13025534 0
0.72345519 1.3804621 0.2140107 0
0.72313774 1.3792442 0.29994324 0
0.82939297 1.7868936 0.52945834 0
0.82838547 1.7830282 0.65578693 0
0.80924892 1.787959 -0.050031975 0
0.70913601 1.3830529 0.047141008 0
0.70895433 1.3823183 0.1297628 0
0.7110427 1.3907647 0.21526065 0
0.7089774 1.3824116 0.29983729 0
0.82670343 1.8585538 0.55234599 0
0.82421619 1.8484939 0.68163383 0
0.78884137 1.7874777 -0.049844846 0
0.6950832 1.3866806 0.047149576 0
0.6934076 1.3795179 0.12907937 0
0.69581968 1.3898289 0.21445438 0
0.69387907 1.3815331 0.29871833 0
0.81926644 1.9175388 0.57084721 0
0.77175373 1.8014421 -0.050195787 0
0.67852068 1.3789747 0.046750236 0
0.67814761 1.3772842 0.12848178 0
0.67981225 1.3848271 0.21293485 0
0.67990184 1.3852333 0.29884851 0
0.80372846 1.9463294 0.57904184 0
0.74959958 1.7922254 -0.049708433 0
0.6647467 1.3833313 0.046799384 0
0.66337478 1.3767204 0.12809016 0
0.66742098 1.3962185 0.21447593 0
0.66566318 1.387748 0.29871535 0
0.78937924 1.983918 0.59027106 0
0.72972977 1.7929734 -0.049594853 0
0.64970565 1.3813646 0.046624746 0
0.65069461 1.3864512 0.12884696 0
0.64913726 1.378441 0.21068287 0
0.65105057 1.3882822 0.29811442 0
0.77598029 2.0308659 0.60470623 0
0.71357417 1.8137674 -0.050217964 0
0.63487607 1.379886 0.046475094 0
0.6364826 1.388743 0.12880696 0
0.6336025 1.3728644 0.20917703 0
0.63402146 1.3751744 0.29402536 0
0.76246613 2.0833204 0.62102753 0
0.69207531 1.805498 -0.049794916 0
0.62106121 1.383811 0.046528164 0
0.62099081 1.3833928 0.12795375 0
0.62088096 1.3827407 0.21053639 0
0.62039948 1.3798815 0.29460964 0
0.74614334 2.1265581 0.63426214 0
0.67297059 1.8107051 -0.049869396 0
0.60577071 1.3785036 0.046253849 0
0.60653955 1.3834486 0.1277114 0
0.60600019 1.3799795 0.20961578 0
0.60701299 1.3864934 0.29572892 0
0.72893047 2.1706157 0.64781612 0
0.65385538 1.8162327 -0.049963985 0
0.59246516 1.3857605 0.04644008 0
0.5915665 1.3794591 0.12705012 0
0.59204811 1.3828361 0.20975442 0
0.59171367 1.3804908 0.29363874 0
0.70831501 2.198107 0.65585154 0
0.63404578 1.8169523 -0.049894001 0
0.57659787 1.374317 0.045958817 0
0.57769209 1.3827482 0.12719916 0
0.57734591 1.3800807 0.20890421 0
0.57759547 1.3820039 0.29353517 0
0.6883679 2.2355039 0.66728419 0
0.61364996 1.8122644 -0.049638726 0
0.56408525 1.3886442 0.046411768 0
0.56302017 1.3795408 0.12666394 0
0.56321812 1.3812327 0.20879838 0
0.56374967 1.3857762 0.29405776 0
0.66718638 2.2698305 0.67775565 0
0.59509552 1.8235316 -0.049965706 0
0.55139595 1.4043788 0.12917976 0
0.55264902 1.4163979 0.21489245 0
0.55148697 1.4052516 0.29865256 0
0.64529431 2.3050234 0.68859249 0
0.57651645 1.8370947 -0.050383002 0
0.55190808 1.5682808 0.1467161 0
0.55250174 1.5747659 0.24331599 0
0.55319846 1.5823765 0.3436712 0
0.6217131 2.3308067 0.69636548 0
0.5559321 1.8290132 -0.050033133 0
0.6024254 2.4185698 0.2382289 0
0.59900004 2.3751352 0.38785526 0
0.5977304 2.3590355 0.54207486 0
0.53622884 1.830552 -0.050037041 0
0.57393444 2.4000936 0.39201775 0
0.5735954 2.3949723 0.55077422 0
0.51657915 1.8332011 -0.050089512 0
0.54915172 2.4412777 0.39916494 0
0.54848546 2.4288392 0.55901659 0
0.49653232 1.8271325 -0.04983931 0
0.52191478 2.4470227 0.39996806 0
0.52251482 2.4616771 0.56707263 0
0.47715294 1.8384974 -0.050220866 0
0.45614505 1.0972131 0.35096458 0
0.45628312 1.1020849 0.42530966 0
0.45718867 1.8300017 -0.049901921 0
0.44588977 1.1122494 0.35709518 0
0.44603002 1.1211587 0.43473795 0
0.43750077 1.8388348 -0.050210625 0
0.43513119 1.0864043 0.41729784 0
0.4351266 1.0849476 0.49264303 0
0.41768548 1.8377665 -0.050174713 0
0.42477116 1.0873718 0.41779822 0
0.42494571 1.0688857 0.48313639 0
0.39799333 1.8321174 -0.049984116 0
0.41397473 1.1069243 0.35493159 0
0.41405734 1.1031761 0.42578927 0
0.41436651 1.0891465 0.49524954 0
0.37817252 1.8339758 -0.050070487 0
0.3521972 2.5838563 0.42456686 0
0.3522675 2.5818274 0.59761161 0
0.40515706 1.0549599 0.47513765 0
0.3590253 1.8202215 -0.049607806 0
0.32263529 2.5903468 0.42595458 0
0.32261211 2.590838 0.60021818 0
0.39562055 1.0457532 0.46991354 0
0.33865666 1.8322729 -0.050076347 0
0.29179165 2.6149228 0.43067807 0
0.29182592 2.6143506 0.60662866 0
0.38611603 1.0396971 0.46662852 0
0.31818497 1.8411335 -0.05044027 0
0.2613675 2.6245327 0.43276992 0
0.26089841 2.6310008 0.61138868 0
0.29974669 1.8230656 -0.049848963 0
0.35569483 1.1663728 0.038319249 0
0.22958061 2.6466417 0.43719566 0
0.2298574 2.6433928 0.61516321 0
0.27947348 1.8279904 -0.050090037 0
0.19773109 2.6629992 0.44065711 0
0.19865096 2.6536026 0.61848307 0
0.26067096 1.8180457 -0.049806509 0
0.16635235 2.6706617 0.44261846 0
0.16698684 2.6649258 0.62219417 0
0.34552559 1.0509818 0.47534293 0
0.24134685 1.8139358 -0.049740944 0
0.13489811 2.6766601 0.44435218 0
0.13472776 2.678041 0.62647402 0
0.2210197 1.8175105 -0.049960911 0
0.10263972 2.6867337 0.44690266 0
0.1020814 2.6908333 0.63078272 0
0.20163284 1.8137023 -0.049924031 0
0.069187716 2.7023673 0.4505457 0
0.069554582 2.6999056 0.63424587 0
0.18174686 1.8131196 -0.050012551 0
0.0377547 2.7023199 0.45140824 0
0.035542294 2.7159822 0.63963211 0
0.16254409 1.8082497 -0.049954947 0
0.0046362742 2.7111824 0.4539763 0
0.0030039714 2.7205162 0.64215142 0
0.14335777 1.8034953 -0.049910177 0
-0.029294861 2.7224016 0.45705938 0
-0.029941393 2.7258427 0.64498872 0
0.12329479 1.8032476 -0.050038196 0
-0.088369206 2.8565283 0.10039344 0
-0.088895395 2.8591466 0.29043356 0
-0.063590452 2.7332244 0.46015581 0
-0.064699128 2.7387414 0.64991158 0
0.10201375 1.8082432 -0.050367203 0
-0.11410691 2.8177245 0.099223666 0
-0.11363633 2.815526 0.28638366 0
-0.096067622 2.7334642 0.46138829 0
-0.094200388 2.7247427 0.64794385 0
0.08478044 1.7943693 -0.050016109 0
-0.14232309 2.7935233 0.098597027 0
-0.14258869 2.794692 0.28486773 0
-0.12766929 2.7290533 0.46183968 0
-0.12727077 2.7272999 0.65039921 0
0.066747054 1.7848666 -0.049832404 0
-0.17584039 2.7932248 0.098859221 0
-0.17703135 2.7981753 0.28607538 0
-0.16107805 2.7318625 0.46370548 0
-0.15823062 2.7200267 0.65039158 0
0.046306476 1.7853568 -0.050024554 0
-0.2100528 2.7948914 0.099210158 0
-0.21027745 2.7957761 0.28668267 0
-0.19623227 2.7404666 0.4667336 0
-0.19468983 2.7343924 0.65618235 0
0.027367936 1.7796929 -0.04999942 0
-0.25124878 2.8216975 0.10050721 0
-0.2491646 2.8139029 0.28962189 0
-0.22780825 2.7340319 0.46704698 0
-0.23202844 2.749815 0.6623928 0
0.0079026688 1.7759579 -0.050054554 0
-0.25969142 2.7285097 0.46760678 0
-0.26139092 2.7345595 0.66061968 0
-0.0096013676 1.7654159 -0.049865659 0
-0.29202181 2.7242115 0.46847409 0
-0.29395378 2.7307703 0.66198784 0
-0.030537708 1.7664489 -0.050116677 0
-0.32889044 2.734205 0.47211871 0
-0.32443029 2.719738 0.66153681 0
-0.046223953 1.7505964 -0.04974525 0
-0.35626268 2.713043 0.46996269 0
-0.35751563 2.7169325 0.66339177 0
-0.066131875 1.7481174 -0.049883366 0
-0.39226151 2.718477 0.47292316 0
-0.39621615 2.7302434 0.66970438 0
-0.086120501 1.7455648 -0.050028771 0
-0.42598629 2.7161503 0.47450024 0
-0.42354828 2.709188 0.66688627 0
-0.10496111 1.7395527 -0.050052933 0
-0.45567465 2.7020874 0.47391316 0
-0.45508307 2.700464 0.66749698 0
-0.12379594 1.7334685 -0.050083496 0
-0.48884577 2.6974382 0.47521058 0
-0.48988998 2.7001958 0.67052549 0
-0.14042677 1.7217108 -0.049905639 0
-0.51809955 2.6823161 0.47456568 0
-0.51927161 2.6852973 0.66967815 0
-0.15957405 1.7164484 -0.049985357 0
-0.5524255 2.6798573 0.47645542 0
-0.5525437 2.6801472 0.67161411 0
-0.17776771 1.7087765 -0.049981426 0
-0.57790172 2.6557629 0.47420368 0
-0.5820663 2.6656189 0.67107868 0
-0.19779225 1.705289 -0.050149437 0
-0.61348796 2.655551 0.47670376 0
-0.60909498 2.6455088 0.66908902 0
-0.21482898 1.6949043 -0.050057985 0
-0.63905728 2.632345 0.47475472 0
-0.64178336 2.6383688 0.67081529 0
-0.23004688 1.6807762 -0.049826875 0
-0.665169 2.6109283 0.47321439 0
-0.67606986 2.6342306 0.67351288 0
-0.25048465 1.6778176 -0.050044816 0
-0.69754922 2.6029658 0.47442526 0
-0.70316052 2.6145778 0.67195261 0
-0.27010363 1.6728662 -0.050194863 0
-0.7272588 2.5892596 0.47456804 0
-0.72635448 2.5874469 0.66834742 0
-0.29144937 1.6710317 -0.050480921 0
-0.76059723 2.5825493 0.47620636 0
-0.7508682 2.5636466 0.66575795 0
-0.30442816 1.6529948 -0.050124861 0
-0.78816617 2.5644689 0.47561964 0
-0.78521872 2.5589149 0.66874778 0
-0.32228565 1.6443942 -0.050156962 0
-0.81157064 2.5389342 0.47356769 0
-0.81093609 2.5377743 0.66711181 0
-0.33656061 1.6293827 -0.049935766 0
-0.61746538 2.1279347 0.082365565 0
-0.83742487 2.518321 0.47258067 0
-0.84012806 2.5231185 0.66745776 0
-0.35841978 1.6277488 -0.050272495 0
-0.62211728 2.0822825 0.081033081 0
-0.85992646 2.492193 0.47050422 0
-0.86840475 2.5068069 0.66742581 0
-0.37518018 1.6171063 -0.050248578 0
-0.61524618 2.0191572 0.078966409 0
-0.88774157 2.4755189 0.47045726 0
-0.88608968 2.4727526 0.66222686 0
-0.39200151 1.6065893 -0.050238539 0
-0.61801529 1.9745013 0.077653944 0
-0.91338801 2.4553177 0.4697372 0
-0.91269195 2.4541848 0.66169101 0
-0.40033919 1.5826517 -0.049670584 0
-0.62348247 1.9358414 0.07658568 0
-0.93663418 2.4314959 0.46830764 0
-0.94656336 2.4472117 0.66475075 0
-0.42086887 1.5782137 -0.049932543 0
-0.61257362 1.8733466 0.074496865 0
-0.96106696 2.409858 0.46739867 0
-0.96368241 2.4138846 0.65994704 0
-0.43951529 1.5706164 -0.050072152 0
-0.6202172 1.8412874 0.07369104 0
-0.98346448 2.3853908 0.46593499 0
-0.97787392 2.3770168 0.6540826 0
-0.45814401 1.5628134 -0.050214197 0
-0.6198951 1.7986139 0.072422847 0
-1.0029593 2.3570442 0.46367162 0
-1.0023029 2.3560874 0.65315354 0
-0.47187185 1.5478761 -0.050056115 0
-0.62507641 1.7652973 0.071551822 0
-1.0233577 2.3305202 0.46184406 0
-1.0221134 2.3287542 0.65031302 0
-0.49129844 1.5409986 -0.050259352 0
-0.62326264 1.7233558 0.07029561 0
-0.61190188 1.7076567 0.19746235 0
-1.0400068 2.2992413 0.4589982 0
-1.040751 2.3002696 0.64716214 0
-0.078277305 0.9702577 0.44196013 0
-0.50553125 1.5268853 -0.050153509 0
-0.62284017 1.6847664 0.069175676 0
-0.61928654 1.6799836 0.19553332 0
-1.0594258 2.2723484 0.45715797 0
-1.066378 2.2817049 0.64720893 0
-0.093977526 0.97299278 0.44770905 0
-0.52220547 1.5160908 -0.050203662 0
-0.61833608 1.6421225 0.067862637 0
-0.62807631 1.6548923 0.19394714 0
-1.0795567 2.246804 0.45566109 0
-1.0823381 2.2504506 0.64328742 0
-0.098305181 0.96033788 0.4439528 0
-0.53304487 1.4977807 -0.049923029 0
-0.61509311 1.6025862 0.06667494 0
-0.61929107 1.6079487 0.18937775 0
-1.1000552 2.2220604 0.4543905 0
-1.0987761 2.2204266 0.63979048 0
-0.10139067 0.94640011 0.43937862 0
-0.54977715 1.4871166 -0.049995918 0
-0.61299479 1.565807 0.065599568 0
-0.62279022 1.5779998 0.18708959 0
-1.1107341 2.185369 0.45040247 0
-1.1108476 2.1855102 0.63472438 0
-0.12771244 0.96175057 0.45358008 0
-0.56976831 1.4803203 -0.050258219 0
-0.62228894 1.5440356 0.065206125 0
-0.61897421 1.5400143 0.18366435 0
-1.1223527 2.1506853 0.44687331 0
-1.1251521 2.1540813 0.63080853 0
-0.14486714 0.96485353 0.46020204 0
-0.57312405 1.4535614 -0.049601667 0
-0.62672472 1.5169437 0.064565159 0
-0.62186551 1.5111977 0.18148622 0
-1.1486375 2.1340997 0.44761544 0
-1.1407421 2.1247635 0.62761593 0
-0.15159668 0.95511001 0.45861781 0
-0.59791744 1.4522165 -0.050141022 0
-0.61656642 1.4737138 0.063157052 0
-0.61425197 1.4710459 0.17767662 0
-1.1510969 2.0898843 0.44184756 0
-1.1574945 2.097259 0.62506676 0
-0.61150086 1.4376963 -0.050071668 0
-0.63345635 1.4623705 0.063250817 0
-0.63041031 1.4589473 0.17784601 0
-1.1657286 2.0605526 0.43961522 0
-1.1678846 2.0629756 0.6202454 0
-0.61974037 1.4173887 -0.049729999 0
-0.65329409 1.4541545 0.063507043 0
-0.65968907 1.4611616 0.18012927 0
-1.1829027 2.0344617 0.43819317 0
-1.1861975 2.0380721 0.61865324 0
-0.64077234 1.4110966 -0.050074689 0
-0.50699198 1.2681663 0.055085413 0
-0.69294798 1.4668409 0.18300359 0
-1.1897656 1.9976383 0.43415612 0
-1.1944157 2.0026064 0.61343127 0
-0.65270615 1.3949705 -0.049949937 0
-0.50694853 1.243122 0.05443541 0
-0.71295476 1.4577367 0.18377264 0
-1.2013687 1.9665602 0.43152776 0
-1.2068046 1.9722234 0.60997969 0
-0.6635828 1.3778914 -0.049783375 0
-0.51719016 1.2291757 0.054333244 0
-0.74445105 1.460043 0.18630974 0
-1.2068974 1.9298276 0.42747241 0
-1.2146331 1.9376862 0.60505342 0
-0.67707384 1.3635632 -0.049761131 0
-0.52445602 1.2123791 0.054091685 0
-0.77666771 1.4622213 0.18891993 0
-1.2156293 1.8970586 0.42439869 0
-1.2227576 1.90412 0.60045165 0
-0.69999754 1.3583639 -0.050216377 0
-0.53678668 1.2007083 0.054115012 0
-0.80380237 1.4586356 0.19073512 0
-1.2235025 1.8640504 0.42125088 0
-1.2213591 1.86198 0.59267831 0
-0.70539761 1.3362136 -0.049810052 0
-0.57330942 1.2117977 0.055331811 0
-0.84514368 1.4678422 0.19463302 0
-1.2317301 1.8319733 0.41833159 0
-1.2318503 1.8320866 0.58935094 0
-0.72389591 1.3264779 -0.050056916 0
-0.87364841 1.4640148 0.069315985 0
-0.86706293 1.4579664 0.1956351 0
-1.2404665 1.8009108 0.41566992 0
-1.2291389 1.7905072 0.5816195 0
-0.22996433 0.87283701 0.37843558 0
-0.7344768 1.3094143 -0.049927492 0
-0.90295875 1.4602865 0.070001714 0
-0.90348685 1.4607594 0.19873644 0
-1.2378974 1.7602173 0.4103964 0
-1.2365705 1.759029 0.57762879 0
-0.2414024 0.86787605 0.38056383 0
-0.74686348 1.2940444 -0.049895305 0
-0.93810761 1.4610088 0.07095889 0
-1.2322451 1.7178035 0.40456575 0
-1.2356389 1.7207663 0.57098418 0
-0.2365234 0.84849536 0.37373507 0
-0.76174045 1.2808197 -0.049989335 0
-0.97664356 1.4637225 0.072064236 0
-1.2450433 1.692156 0.40329391 0
-1.2369683 1.6852833 0.56533027 0
-0.23384137 0.83152753 0.36830696 0
-0.24874587 0.84421271 0.45362109 0
-0.77076101 1.262646 -0.049818482 0
-1.006934 1.4585778 0.072774008 0
-1.2441204 1.6553502 0.3988961 0
-1.238794 1.6509314 0.56004852 0
-0.2503401 0.830899 0.37336946 0
-0.77938509 1.2443027 -0.049641721 0
-1.043867 1.4581555 0.073784553 0
-1.2557988 1.6295177 0.39757347 0
-1.2407455 1.617346 0.55500418 0
-0.25663888 0.82162482 0.37295398 0
-0.80657935 1.2407469 -0.050321322 0
-1.079757 1.4559991 0.074737959 0
-1.2510008 1.5909319 0.39255583 0
-1.2266724 1.5717622 0.54494262 0
-0.26573408 0.81458396 0.37407848 0
-0.81301093 1.2206422 -0.050061893 0
-1.1249007 1.4600947 0.076099932 0
-1.2493892 1.5556704 0.38842195 0
-1.2400876 1.5485291 0.54400504 0
-0.25929183 0.79552591 0.3671284 0
-0.25273836 0.79049444 0.43827036 0
-0.81772482 1.1994774 -0.049739651 0
-1.1646382 1.4589423 0.0772058 0
-1.2500808 1.5228469 0.38494605 0
-1.245302 1.5192728 0.54055715 0
-0.26475835 0.78590024 0.36652526 0
-0.27882671 0.7964223 0.45046535 0
-0.83822823 1.1900921 -0.050129596 0
-1.2145172 1.464208 0.078750186 0
-1.2475177 1.4882478 0.38086829 0
-1.233242 1.4778484 0.53180486 0
-1.2468674 1.487774 0.69726205 0
-0.25746185 0.7670204 0.35945222 0
-0.27436429 0.77933335 0.443591 0
-0.84869647 1.1732471 -0.05008202 0
-1.245741 1.4548994 0.079461336 0
-1.2439135 1.4536031 0.37669337 0
-1.2404715 1.4511614 0.52932823 0
-1.2289249 1.4429706 0.68371427 0
-0.28048211 0.77017176 0.36795303 0
-0.28282809 0.77183592 0.44483989 0
-0.85467124 1.1533358 -0.049849138 0
-1.2985039 1.4598515 0.081105977 0
-1.2554758 1.4301358 0.37597474 0
-1.2464896 1.4239299 0.52660203 0
-1.2327399 1.4144343 0.6793099 0
-0.2783072 0.75529259 0.43824014 0
-0.86438429 1.1361315 -0.049789857 0
-1.2716759 1.4099021 0.079310313 0
-1.2744966 1.411798 0.22704656 0
-1.2520056 1.3966802 0.37206003 0
-1.23897 1.3879181 0.51984304 0
-1.2430087 1.3906327 0.67767441 0
-0.28386062 0.74591905 0.43789557 0
-0.87529671 1.1197579 -0.049791511 0
-1.2717081 1.3790289 0.078702144 0
-1.2662662 1.3754697 0.22415179 0
-1.2498645 1.3647422 0.36855504 0
-1.2352684 1.3551956 0.51444221 0
-1.2324195 1.3533324 0.66788018 0
-0.28983521 0.73683965 0.43787655 0
-0.88192546 1.1006538 -0.049620647 0
-1.2666456 1.3454179 0.077899769 0
-1.2644045 1.343992 0.2221498 0
-1.2482843 1.3337362 0.36528423 0
-1.2510433 1.3354914 0.51509911 0
-1.2411717 1.329211 0.66597676 0
-0.30808783 0.73557079 0.44520679 0
-0.90275586 1.0904739 -0.050057456 0
-1.2947087 1.3329613 0.078512117 0
-1.2829815 1.325706 0.22279656 0
-1.244233 1.3017337 0.36159784 0
-1.2532399 1.3073059 0.51175201 0
-1.2408388 1.2996339 0.66065317 0
-0.91629195 1.075544 -0.050192446 0
-1.3060223 1.3099231 0.078428611 0
-1.3083253 1.311308 0.22431603 0
-1.252322 1.2776283 0.36057931 0
-1.2356845 1.2676227 0.5026558 0
-1.23173 1.2652446 0.65210789 0
-0.91973913 1.0546046 -0.049917076 0
-1.3304754 1.2946266 0.07890109 0
-1.3328058 1.2959884 0.22573954 0
-1.2528065 1.2492392 0.35804343 0
-1.2408808 1.2422702 0.50049758 0
-1.2407993 1.2422225 0.65079737 0
-0.93427598 1.0401795 -0.050109774 0
-1.374814 1.2902293 0.080194466 0
-1.3763165 1.2910821 0.2295285 0
-1.2480409 1.2182728 0.35451129 0
-1.2339895 1.2102972 0.49490264 0
-1.2456456 1.2169132 0.64799196 0
-0.93839598 1.0198553 -0.049883947 0
-1.2486354 1.1908189 0.3521879 0
-1.2506812 1.1919461 0.49633396 0
-1.2487532 1.1908838 0.64466697 0
-0.94329047 1.0001221 -0.049701381 0
-1.2523487 1.1653962 0.35058886 0
-1.231859 1.154439 0.48754784 0
-1.2408402 1.1592419 0.63733059 0
-0.95614243 0.98465794 -0.049850073 0
-1.2586476 1.141562 0.34959081 0
-1.2437519 1.1338358 0.48778287 0
-1.2419242 1.1328878 0.6335637 0
-0.96840584 0.968777 -0.049982108 0
-1.2720071 1.1214296 0.35008514 0
-1.2479616 1.1093394 0.48589674 0
-1.2386781 1.1046715 0.62833208 0
-0.97805667 0.95151633 -0.050017554 0
-1.2813027 1.0992364 0.34981215 0
-1.2376781 1.0779855 0.4799968 0
-1.2401066 1.0791686 0.62499428 0
-0.98460746 0.93276244 -0.049939029 0
-1.2941403 1.0787518 0.35030299 0
-1.245224 1.0556808 0.47927296 0
-1.2417738 1.0540534 0.62188256 0
-0.98845029 0.91283023 -0.049763981 0
-1.3066665 1.0580456 0.35078055 0
-1.2451999 1.0299958 0.4765093 0
-1.2488511 1.031662 0.62088311 0
-1.0045058 0.89841795 -0.05007628 0
-1.3166014 1.036119 0.35079622 0
-1.2373042 1.0011319 0.47165635 0
-1.2359865 1.0005505 0.61274034 0
-1.017728 0.88255513 -0.050284017 0
-1.3231715 1.0127516 0.3502064 0
-1.2452191 0.97952408 0.47131538 0
-1.2344831 0.97494781 0.60889214 0
-1.0136775 0.85942358 -0.049831592 0
-1.3323077 0.99052495 0.35017762 0
-1.2358305 0.95082909 0.46627766 0
-1.2426918 0.9536522 0.60867405 0
-1.0186514 0.84021288 -0.049739264 0
-1.3504615 0.97187674 0.35195309 0
-1.2410407 0.92845803 0.46537164 0
-1.2374752 0.9270432 0.60374802 0
-1.0191447 0.81935555 -0.049485385 0
-1.3547239 0.94764835 0.35108334 0
-1.2452927 0.9058125 0.46428531 0
-1.2333355 0.9012413 0.59934878 0
-1.0370624 0.80509698 -0.04990555 0
-1.3554316 0.9222374 0.34959328 0
-1.2416511 0.88037306 0.46113586 0
-1.2285917 0.87556803 0.59487122 0
-1.0456223 0.78721076 -0.049976289 0
-1.3710068 0.90230185 0.35101533 0
-1.2447972 0.85766047 0.45992422 0
-1.2391473 0.85566205 0.59592694 0
-1.0592532 0.77099061 -0.050246432 0
-1.3782816 0.87933367 0.35089827 0
-1.2355626 0.83086586 0.45545906 0
-1.2393188 0.83214146 0.59341788 0
-1.0616996 0.75092494 -0.050103221 0
-1.3913924 0.85827899 0.35194358 0
-1.2311186 0.80609089 0.45238823 0
-1.2362713 0.8077687 0.58989668 0
-1.0707054 0.73300666 -0.050215334 0
-1.3983378 0.83514547 0.3518703 0
-1.2465916 0.78783882 0.45473573 0
-1.2446808 0.78724313 0.59048897 0
-1.073683 0.71320629 -0.050110884 0
-1.3960196 0.8092581 0.35010889 0
-1.241907 0.76333469 0.45176938 0
-1.2386963 0.76237798 0.58617216 0
-1.0670016 0.69073296 -0.049657565 0
-1.3977684 0.78477883 0.3491776 0
-1.2443014 0.74114406 0.45077327 0
-1.2351695 0.73854762 0.5828293 0
-1.0818409 0.67441458 -0.050012257 0
