# .PCD v0.7 - Point Cloud Data file format
VERSION 0.7
FIELDS x y z intensity
SIZE 4 4 4 4
TYPE F F F F
COUNT 1 1 1 1
WIDTH 1349
HEIGHT 1
VIEWPOINT 0 0 0 1 0 0 0
POINTS 1349
DATA ascii
-1.1434234 0.26436788 -0.050264016 0
-0.3879016 0.2643699 0.41650113 0
-0.39010018 0.26436988 0.4938665 0
-1.1336576 0.244646 -0.049919792 0
-0.40144348 0.25386813 0.4233098 0
-1.1328994 0.22493692 -0.049906023 0
-0.41406256 0.24304518 0.35663611 0
-0.40533465 0.24326505 0.4253566 0
-1.1423662 0.20484799 -0.050266411 0
-0.51510286 0.22855556 0.10791549 0
-0.50609815 0.2288959 0.17540348 0
-1.2413516 0.2011068 0.43336889 0
-1.2252719 0.20171455 0.55793893 0
-1.2388351 0.20120192 0.69850445 0
-1.141908 0.18500172 -0.05028129 0
-0.51249105 0.21673155 0.10769106 0
-0.50713432 0.21700159 0.17568468 0
-1.2389694 0.18010871 0.43299773 0
-1.2396514 0.18007433 0.56303561 0
-1.2451706 0.1797961 0.70151556 0
-1.1350312 0.16554643 -0.050075505 0
-0.51121914 0.20487386 0.10762674 0
-0.5062862 0.20518485 0.17565265 0
-1.2371382 0.15910923 0.43283468 0
-1.2334644 0.15934084 0.56137109 0
-1.1387581 0.14543092 -0.05025794 0
-0.52184689 0.19212863 0.10886098 0
-0.51643747 0.1925381 0.17763691 0
-1.2339691 0.13822383 0.43239683 0
-1.2333441 0.13827114 0.56181628 0
-1.125988 0.12664093 -0.049858395 0
-0.51731485 0.18043086 0.10847833 0
-0.50662637 0.18137543 0.17603797 0
-1.2435123 0.11625504 0.43528175 0
-1.2536423 0.11535982 0.56917012 0
-1.1400346 0.10542051 -0.050429095 0
-0.51023638 0.16907869 0.10783604 0
-0.5210638 0.16798429 0.17885794 0
-1.2417928 0.095135085 0.43535313 0
-1.2346274 0.095859341 0.56348383 0
-1.1218802 0.087456726 -0.049853165 0
-0.50214916 0.1579909 0.039585132 0
-0.51777667 0.15621227 0.10878947 0
-0.51759094 0.1562334 0.17846158 0
-1.2461336 0.073314928 0.437049 0
-1.2363803 0.07442496 0.56482553 0
-1.1293824 0.066651411 -0.050207738 0
-0.50433153 0.14577523 0.039714534 0
-0.5138579 0.14456931 0.10852066 0
-0.51242989 0.14475007 0.17778458 0
-1.2293087 0.054001946 0.43337506 0
-1.2477623 0.051665951 0.56948882 0
-1.1097103 0.049378578 -0.04959283 0
-0.52200484 0.13130604 0.040408101 0
-0.50596368 0.13354221 0.10783589 0
-0.51633096 0.13209699 0.17878284 0
-1.2375264 0.031560723 0.43620822 0
-1.2438174 0.030683745 0.56910813 0
-1.121455 0.027757738 -0.050119136 0
-0.51325965 0.1203626 0.040155526 0
-0.51446962 0.12017838 0.10894772 0
-0.51398444 0.12025224 0.17867233 0
-1.2406559 0.0096079903 0.43780652 0
-1.2421552 0.0093797045 0.56958365 0
-1.1261948 0.0069144559 -0.05040291 0
-0.50828564 0.10897491 0.040043868 0
-0.50637233 0.10929094 0.10827166 0
-0.50533777 0.10946181 0.1774372 0
-1.2284309 -0.0099719269 0.43550906 0
-1.2349652 -0.011051218 0.5682866 0
-1.1199044 -0.012170444 -0.050296836 0
-0.50273454 0.097768076 0.039916225 0
-0.50914437 0.096626274 0.10879552 0
-0.50377131 0.097583391 0.17752117 0
-1.2455038 -0.034543883 0.44086277 0
-1.2373865 -0.033097934 0.57032138 0
-1.1140708 -0.031269711 -0.050215833 0
-0.51375431 0.083483376 0.040395711 0
-0.51874572 0.082529254 0.11008533 0
-0.51283836 0.083658464 0.17958525 0
-1.2435423 -0.056018751 0.44136548 0
-1.236554 -0.054682922 0.57135296 0
-1.111616 -0.051003974 -0.050266493 0
-0.50231147 0.073439263 0.04006448 0
-0.51638055 0.070565812 0.11008532 0
-0.51279026 0.071299084 0.18000902 0
-1.2401875 -0.077263154 0.44157696 0
-1.241532 -0.077537753 0.57445228 0
-1.0984439 -0.068448134 -0.049934797 0
-0.50490522 0.060580868 0.040249784 0
-0.51411504 0.058578748 0.11011281 0
-0.51656049 0.058047134 0.18116735 0
-1.2400922 -0.099240996 0.4427098 0
-1.2491773 -0.10121603 0.57856619 0
-1.0880959 -0.086306758 -0.049713649 0
-0.50308019 0.048605401 0.040279653 0
-0.51646608 0.045518447 0.11066617 0
-0.51411152 0.04606143 0.18120885 0
-1.2367202 -0.12058146 0.44306037 0
-1.2316247 -0.11940635 0.57419044 0
-1.0961423 -0.10849468 -0.050176028 0
-0.50699311 0.035206724 0.040526006 0
-0.50459671 0.035791252 0.10966632 0
-0.51346362 0.033628482 0.18161277 0
-1.2356387 -0.14251973 0.44408402 0
-1.2454994 -0.14492486 0.58064175 0
-1.0836166 -0.12572946 -0.049891818 0
-0.56532001 0.0076261354 0.042785291 0
-0.55983281 0.0090379911 0.11612349 0
-0.56527877 0.0076367748 0.19181694 0
-1.2361176 -0.16496731 0.44559467 0
-1.2444999 -0.16712405 0.58211446 0
-1.0763704 -0.14418925 -0.049809922 0
-0.62106204 -0.020907532 0.044969503 0
-0.62698472 -0.022511195 0.12396683 0
-1.2350715 -0.18716006 0.31758168 0
-1.246977 -0.19038363 0.44992885 0
-1.2382759 -0.18802767 0.58188766 0
-1.080986 -0.16596495 -0.050176613 0
-0.69267666 -0.055558097 0.047764003 0
-0.68257892 -0.05268706 0.13059129 0
-1.2369807 -0.21031843 0.3190304 0
-1.2414347 -0.21158482 0.45001286 0
-1.2384591 -0.21073876 0.58396709 0
-1.076673 -0.18535317 -0.050222266 0
-0.77799833 -0.096352227 0.051095847 0
-0.76992941 -0.093947805 0.14084429 0
-1.2401119 -0.23405565 0.32076934 0
-1.2453822 -0.23562612 0.45269451 0
-1.2394094 -0.23384632 0.5864197 0
-1.0543973 -0.19917853 -0.049605478 0
-0.87108636 -0.14203171 0.054750398 0
-0.86750329 -0.14091466 0.15234683 0
-1.2571921 -0.26239941 0.32520658 0
-1.2457985 -0.25884745 0.45452377 0
-1.2384416 -0.25655398 0.58831477 0
-1.0516009 -0.2188925 -0.049724054 0
-0.992594 -0.19967876 0.059508566 0
-0.98278689 -0.19648539 0.16596496 0
-1.2347407 -0.27852622 0.32223165 0
-1.2364949 -0.27909741 0.45383084 0
-1.2436916 -0.28144076 0.59249294 0
-1.0595584 -0.24235015 -0.05025794 0
-1.1208541 -0.26316634 0.064569026 0
-1.1247857 -0.26450154 0.1827528 0
-1.2420961 -0.30434051 0.32495973 0
-1.2395679 -0.30348191 0.45653823 0
-1.0453285 -0.25836268 -0.049965162 0
-1.2913991 -0.34539983 0.2025189 0
-1.2412853 -0.32767418 0.32619986 0
-1.2309353 -0.32401326 0.45617288 0
-1.0344579 -0.27539453 -0.049806476 0
-1.2439851 -0.35248771 0.19798422 0
-1.2365099 -0.34973732 0.32674021 0
-1.2367224 -0.34981552 0.45979598 0
-1.0305383 -0.29496732 -0.049920868 0
-1.2512565 -0.37934837 0.19972976 0
-1.2395443 -0.37487081 0.32884461 0
-1.250237 -0.37895861 0.46563584 0
-1.0276673 -0.31504628 -0.050085559 0
-1.2500284 -0.40328023 0.20054033 0
-1.2418911 -0.40005133 0.33088738 0
-1.2352055 -0.3973985 0.46376994 0
-1.0205107 -0.333491 -0.050095391 0
-1.2489417 -0.42747959 0.20140648 0
-1.2445081 -0.42565539 0.33305514 0
-1.2424601 -0.42481276 0.46810666 0
-1.0158651 -0.35301688 -0.050211716 0
-1.2468419 -0.45147166 0.20219444 0
-1.2445856 -0.45050988 0.33479971 0
-1.2374518 -0.44746909 0.46916112 0
-0.99796772 -0.36678913 -0.049821153 0
-1.2572143 -0.48117235 0.20448722 0
-1.2376784 -0.47255287 0.3352387 0
-1.2398474 -0.47350988 0.47236553 0
-0.98969293 -0.38465318 -0.049812742 0
-1.2405714 -0.49913946 0.20364594 0
-1.2476369 -0.5023638 0.33907855 0
-1.2464966 -0.50184339 0.47687295 0
-0.98776484 -0.40550742 -0.050063659 0
-1.2309415 -0.52020037 0.20365976 0
-1.2439913 -0.52635521 0.34030321 0
-1.2383652 -0.52370167 0.47733819 0
-0.97789145 -0.42269167 -0.05001099 0
-1.4953543 -0.67476308 0.08256042 0
-1.2345601 -0.54772258 0.20528902 0
-1.2361673 -0.54850554 0.34075761 0
-1.2411045 -0.55091059 0.48096922 0
-0.9720099 -0.44184497 -0.050126124 0
-1.4429598 -0.67864138 0.08094535 0
-1.2361321 -0.57464725 0.206724 0
-1.2510391 -0.58214253 0.34585246 0
-1.2302747 -0.57170212 0.48084593 0
-0.95942986 -0.45761892 -0.049982283 0
-1.39977 -0.68601549 0.079691865 0
-1.229805 -0.59785771 0.20725299 0
-1.2466441 -0.60659188 0.34715214 0
-0.94905877 -0.47446266 -0.049934916 0
-1.3440171 -0.68567336 0.077925026 0
-1.2409822 -0.63057369 0.20995432 0
-1.2439764 -0.63217485 0.34887657 0
-0.93074405 -0.48689428 -0.049572028 0
-1.3090194 -0.69535053 0.076991767 0
-1.244513 -0.65980297 0.21178657 0
-1.2396845 -0.6571421 0.35034472 0
-0.92616117 -0.50682938 -0.049776647 0
-1.2592568 -0.69589484 0.075450681 0
-1.2412082 -0.68565041 0.21283258 0
-1.2308611 -0.67977738 0.35094863 0
-0.9096359 -0.51995647 -0.049499303 0
-1.2528896 -0.72054368 0.075692907 0
-1.2377739 -0.71171045 0.21391056 0
-1.234351 -0.70971024 0.35418838 0
-0.91229582 -0.5443967 -0.05002597 0
-1.2518547 -0.74860317 0.076171994 0
-1.2288948 -0.73479533 0.21435493 0
-1.2430836 -0.74332827 0.3586351 0
-0.90037405 -0.56025618 -0.049957462 0
-1.2421112 -0.77167684 0.076304004 0
-1.2399647 -0.77034885 0.21736038 0
-1.2367768 -0.76837677 0.36001658 0
-0.88734591 -0.57535827 -0.049850013 0
-1.2449783 -0.80288869 0.076982938 0
-1.2370893 -0.79786962 0.21867052 0
-1.2397294 -0.79954928 0.36345556 0
-0.88007295 -0.59413761 -0.049995262 0
-1.2468848 -0.83404917 0.077643201 0
-1.2365087 -0.8272627 0.22033049 0
-1.2404536 -0.82984287 0.36652702 0
-0.86728179 -0.60933501 -0.049914498 0
-1.2427657 -0.86172527 0.078066677 0
-1.2321002 -0.85455626 0.22155662 0
-1.2583245 -0.8721835 0.37343317 0
-0.85446298 -0.62444794 -0.049840104 0
-1.2446878 -0.89394146 0.078771025 0
-1.2398607 -0.89060777 0.22442751 0
-1.2366408 -0.88838404 0.37184656 0
-0.84221864 -0.63990784 -0.049798477 0
-1.2431329 -0.92430526 0.079347178 0
-1.2365856 -0.91966075 0.22592962 0
-1.5943335 -1.1734371 0.45417729 0
-0.83217776 -0.6569404 -0.049862351 0
-1.2320251 -0.94821781 0.079523504 0
-1.2438934 -0.95686346 0.2289011 0
-1.5714103 -1.1954501 0.45313776 0
-0.82460546 -0.67587942 -0.050046403 0
-1.2442846 -0.98976773 0.08075662 0
-1.235911 -0.98350483 0.22991128 0
-0.81080031 -0.69020087 -0.04996239 0
-1.2387838 -1.018784 0.081225768 0
-1.2318546 -1.013464 0.23150846 0
-0.79544055 -0.70322585 -0.049815036 0
-1.155683 -0.98708147 0.078188993 0
-1.1575181 -0.98852748 0.223557 0
-1.158214 -0.98907572 0.3712512 0
-0.77733552 -0.71390146 -0.049547624 0
-1.1438209 -1.0102311 0.078373604 0
-1.1252168 -0.99518853 0.22129045 0
-1.1441106 -1.0104654 0.37166983 0
-0.77843451 -0.74026793 -0.050174441 0
-1.2392118 -1.1225338 0.083548836 0
-1.2386104 -1.1220349 0.23935632 0
-1.3401239 -1.2062515 0.4213928 0
-0.75471389 -0.74609512 -0.049659919 0
-1.2387453 -1.1580515 0.08435186 0
-1.2391905 -1.1584303 0.2419204 0
-1.3168043 -1.2244871 0.42028868 0
-1.0238225 -0.97513193 0.49392083 0
-0.75238967 -0.77012485 -0.050157208 0
-1.2773732 -1.228458 0.41536981 0
-0.99238813 -0.97965378 0.48859942 0
-0.73599732 -0.78203171 -0.050000362 0
-1.1942201 -1.192361 0.083959937 0
-1.1907585 -1.1892611 0.24017842 0
-1.1928236 -1.1911105 0.39948452 0
-0.97319567 -0.99443811 0.48742965 0
-0.7209698 -0.79504627 -0.049915079 0
-0.91764998 -0.97568291 0.47371733 0
-0.7112987 -0.81302768 -0.05009947 0
-0.88957691 -0.98095042 0.46938798 0
-0.69953609 -0.82917398 -0.050193474 0
-0.85960495 -0.98379463 0.46435553 0
-0.68152118 -0.83922452 -0.049984623 0
-0.83023679 -0.98654288 0.45948952 0
-0.66706669 -0.85268646 -0.049960673 0
-0.81994641 -1.007992 0.46151167 0
-0.65213263 -0.86562878 -0.049920369 0
-0.6468817 -0.8888796 -0.050393868 0
-0.62727463 -0.8969 -0.050129026 0
-0.60956907 -0.90678126 -0.049967922 0
-0.60063195 -0.92660147 -0.050288912 0
-0.58687508 -0.94107789 -0.050361942 0
-0.56023246 -0.94000787 -0.049722988 0
-0.54889041 -0.95726866 -0.049945369 0
-0.53106248 -0.96650416 -0.049808215 0
-0.51509041 -0.97801846 -0.049784817 0
-0.50526172 -0.99777848 -0.050137375 0
-0.48501843 -1.0035763 -0.049876921 0
-0.47190714 -1.019182 -0.050058302 0
-0.45858943 -1.0347186 -0.050242309 0
-0.43970281 -1.042153 -0.050084211 0
-0.41992384 -1.0480146 -0.04987061 0
-0.37843621 -0.98414367 0.50130975 0
-0.40649092 -1.0636444 -0.050081771 0
-0.355546 -0.98300916 0.49688384 0
-0.39195567 -1.0777705 -0.050235413 0
-0.32999068 -0.97690207 0.49066341 0
-0.37687904 -1.0912074 -0.050366886 0
-0.30452591 -0.97003394 0.48431984 0
-0.35304224 -1.0897354 -0.049889915 0
-0.28850859 -0.97849911 0.48404387 0
-0.34254295 -1.111256 -0.050370853 0
-0.27327698 -0.98832232 0.48436567 0
-0.31821167 -1.1082016 -0.049853869 0
-0.25705504 -0.99639148 0.48409316 0
-0.30063629 -1.1171057 -0.049836088 0
-0.22680058 -0.97798234 0.47392672 0
-0.28567553 -1.1310693 -0.050030481 0
-0.20283963 -0.97012562 0.46791741 0
-0.27232015 -1.1485651 -0.050372127 0
-0.1850418 -0.9736107 0.4662751 0
-0.24855472 -1.1450795 -0.049886458 0
-0.1723422 -0.9873665 0.46852088 0
-0.23184218 -1.1558697 -0.049978137 0
-0.1470321 -0.97457296 0.46106085 0
-0.21395172 -1.1642215 -0.049982019 0
-0.13284297 -0.98499113 0.46223632 0
-0.19239075 -1.1641973 -0.049668286 0
-0.11765404 -0.99335259 0.46272349 0
-0.177435 -1.179245 -0.049950913 0
-0.10002728 -0.99604625 0.46123031 0
-0.16064508 -1.1903307 -0.050086621 0
-0.072059229 -0.97308737 0.34695497 0
-0.088015333 -1.0122173 0.46466702 0
-0.14260562 -1.1985085 -0.050118234 0
-0.050661996 -0.96465129 0.34292743 0
-0.068977907 -1.0112375 0.46200985 0
-0.12550326 -1.2092327 -0.0502556 0
-0.030388309 -0.95806724 0.14647937 0
-0.035065785 -0.97041875 0.24412625 0
-0.013295485 -0.91293103 0.32718414 0
-0.052833185 -1.0173362 0.46196899 0
-0.10399617 -1.2081603 -0.04995231 0
-0.0066472725 -0.94098586 0.14386998 0
-0.0075502233 -0.94346398 0.237841 0
0.0042679473 -0.91102904 0.32516873 0
-0.082264975 -1.20581 -0.049612273 0
0.0077143773 -0.94884795 0.1441464 0
0.0030584203 -0.96214432 0.24036998 0
0.018876003 -0.9169727 0.32534289 0
-0.0027685596 -0.9787851 0.44421458 0
-0.068316892 -1.2258744 -0.050128225 0
0.022558736 -0.95548505 0.14430334 0
0.022333162 -0.95615631 0.23822027 0
0.02348231 -0.95273703 0.33359239 0
0.014960604 -0.97809237 0.44208232 0
-0.047158197 -1.2247522 -0.049854025 0
0.036644056 -0.96460682 0.14476132 0
0.040066943 -0.95398122 0.23684785 0
0.019914733 -1.0165392 0.3493394 0
0.02080928 -1.0137622 0.45274669 0
-0.030207885 -1.2366349 -0.050076708 0
0.026526885 -1.0526062 0.35760862 0
-0.0089734625 -1.2345401 -0.049786322 0
0.069286779 -0.96885258 0.33400074 0
0.0088218022 -1.2439418 -0.049933221 0
0.085260019 -0.97184545 0.3336077 0
0.02609943 -1.2556927 -0.050174739 0
0.10306953 -0.96783072 0.33141848 0
0.046991721 -1.2539141 -0.04992516 0
0.11581497 -0.98289055 0.33431637 0
0.065308854 -1.2621005 -0.05005192 0
0.082961246 -1.2736288 -0.050309137 0
0.10495512 -1.2657601 -0.049865596 0
0.12257533 -1.2780837 -0.05016857 0
0.14479817 -1.2670847 -0.049631692 0
-0.065481231 -2.3862517 0.10228654 0
0.16155355 -1.2851694 -0.050160225 0
7.1094796e-06 -2.2089083 0.095639408 0
0.18194275 -1.2831657 -0.049968798 0
0.034163401 -2.1957533 0.094973765 0
0.20182253 -1.2836853 -0.049878091 0
0.06492801 -2.2022042 0.095032595 0
0.22094679 -1.2893015 -0.049980197 0
0.096315876 -2.2044232 0.094952822 0
0.24045658 -1.2924069 -0.050000492 0
0.12725709 -2.2098434 0.095002539 0
0.26032749 -1.2924063 -0.049918033 0
0.16012384 -2.1982214 0.094454065 0
0.27998611 -1.2940097 -0.04990219 0
0.19090541 -2.2039802 0.094544604 0
0.29910237 -1.3018842 -0.05011994 0
0.22289024 -2.1964259 0.094171926 0
0.31905416 -1.3004048 -0.050011288 0
0.25443181 -2.1914177 0.093905151 0
0.33872169 -1.3024424 -0.050037496 0
0.28489169 -2.2014086 0.094189227 0
0.35830662 -1.3066871 -0.050151423 0
0.3164607 -2.192276 0.093803361 0
0.37821677 -1.3039542 -0.050024852 0
0.34694552 -2.206723 0.094274193 0
0.39812961 -1.2971892 -0.049763288 0
0.37829787 -2.1971016 0.093899116 0
0.41774333 -1.3028972 -0.049956027 0
0.43744957 -1.2938366 -0.049630336 0
0.45735139 -1.3115952 -0.050271038 0
0.47701973 -1.3050522 -0.050052967 0
0.49666002 -1.3015068 -0.049950741 0
0.51689559 -1.3103641 -0.050300714 0
0.53549099 -1.2906619 -0.049638253 0
0.55640596 -1.3062775 -0.050248314 0
0.57495046 -1.2912439 -0.049769726 0
0.59409249 -1.2851666 -0.049620371 0
0.6136421 -1.283453 -0.049636304 0
0.634399 -1.2909299 -0.049991988 0
0.65305275 -1.2818604 -0.04976102 0
0.67325401 -1.2837836 -0.049935251 0
0.6933499 -1.2843224 -0.05006893 0
0.71302819 -1.2820129 -0.050108742 0
0.73206556 -1.2762436 -0.050031815 0
0.75176311 -1.2739068 -0.050088573 0
0.77380592 -1.2819971 -0.050535768 0
0.7909745 -1.2678523 -0.050179191 0
0.80962539 -1.2607373 -0.050087966 0
0.82730043 -1.2501214 -0.04987593 0
0.84627533 -1.2448004 -0.049867403 0
0.8648206 -1.2379972 -0.049812634 0
0.8850624 -1.2369452 -0.049980804 0
0.90640306 -1.2389746 -0.05027451 0
0.92475927 -1.2312627 -0.050213389 0
0.93900043 -1.2116809 -0.049712684 0
0.95902967 -1.209341 -0.049870171 0
0.98259759 -1.2161984 -0.050388262 0
0.99787152 -1.2005402 -0.050058585 0
0.92554188 -1.0131156 0.46156314 0
1.0141773 -1.1880758 -0.049857445 0
0.94027334 -1.0035242 0.46038663 0
1.0305738 -1.1761919 -0.049685616 0
0.95681834 -0.99852639 0.46092543 0
1.0522238 -1.1768247 -0.050007273 0
0.97091615 -0.98772699 0.45944133 0
1.0709819 -1.1703929 -0.050065298 0
0.9894703 -0.98721188 0.46175838 0
1.0868363 -1.1575456 -0.049880795 0
1.0046191 -0.97887033 0.46130791 0
1.1094172 -1.15914 -0.050273955 0
1.0204701 -0.97207862 0.46149582 0
1.1259122 -1.1477041 -0.050162576 0
1.043713 -0.98030204 0.46732375 0
1.1391605 -1.1300281 -0.04980902 0
1.0627878 -0.97931856 0.46986395 0
1.1604543 -1.1282763 -0.050101317 0
1.0873849 -0.98847955 0.47631896 0
1.1729952 -1.1098392 -0.049729783 0
1.1035661 -0.98098522 0.47664028 0
1.1946788 -1.1084032 -0.050056297 0
1.1288126 -0.98976344 0.057211731 0
1.1309651 -0.99364096 0.16063599 0
1.1317625 -0.99507719 0.26579738 0
1.1258401 -0.98440939 0.37041184 0
1.1299046 -0.99173075 0.48398188 0
1.2132355 -1.1010281 -0.050152119 0
1.1455295 -0.98261315 0.057282299 0
1.1492693 -0.98915392 0.16118152 0
1.142414 -0.97716421 0.26392576 0
1.1454436 -0.9824627 0.37243435 0
1.1550403 -0.99924713 0.49026567 0
1.2255585 -1.0829228 -0.049813781 0
1.1706308 -0.98960358 0.057947885 0
1.1585089 -0.96900898 0.15980716 0
1.165096 -0.98020011 0.26645216 0
1.1624368 -0.97568232 0.37311369 0
1.167627 -0.98450011 0.48812324 0
1.2437512 -1.0749632 -0.049902774 0
1.2637323 -1.0697497 -0.050117586 0
1.2769886 -1.0537524 -0.049887534 0
1.2990919 -1.0514786 -0.05024932 0
1.3166173 -1.0419793 -0.050314669 0
1.3220313 -1.014974 -0.049628943 0
1.3501215 -1.0205501 -0.050369345 0
1.358392 -0.99820954 -0.049896292 0
1.3763871 -0.98933572 -0.050025165 0
1.3882251 -0.9723404 -0.049799036 0
1.4031606 -0.95950252 -0.049766839 0
1.2039387 -0.7082991 0.050320551 0
1.2017256 -0.70550859 0.13903254 0
1.4211981 -0.95050758 -0.049919806 0
1.205737 -0.6857447 0.049733013 0
1.208302 -0.6888966 0.1380834 0
1.4380162 -0.93987864 -0.050008908 0
1.2015147 -0.65662217 0.048834838 0
1.2044759 -0.66016871 0.13543949 0
1.4543127 -0.92853957 -0.050075494 0
1.2086239 -0.64169908 0.048591912 0
1.2061263 -0.63878328 0.13379911 0
1.4679809 -0.91413289 -0.05000674 0
1.2124716 -0.62332004 0.04818628 0
1.2045063 -0.61425418 0.13169371 0
1.4861246 -0.90476066 -0.050187375 0
1.2066975 -0.5946877 0.047285572 0
1.2020293 -0.58950758 0.12952991 0
1.4984463 -0.88889676 -0.050065573 0
1.5153596 -0.87799722 -0.050194107 0
1.5307667 -0.86541373 -0.050250918 0
1.5391359 -0.84570891 -0.049959179 0
1.5567805 -0.83536071 -0.05014671 0
1.5696305 -0.820252 -0.050101925 0
1.5832944 -0.80593926 -0.050106667 0
1.5899256 -0.78523999 -0.049781151 0
1.6095504 -0.77633172 -0.050090939 0
1.6219718 -0.76092154 -0.050063182 0
1.6232852 -0.73619884 -0.049526814 0
1.6422795 -0.7264424 -0.049826328 0
1.6603016 -0.7156356 -0.050084073 0
1.6651379 -0.69433874 -0.049749114 0
1.6844816 -0.68432778 -0.050079249 0
1.6928413 -0.66591573 -0.049924549 0
1.7099878 -0.65395069 -0.050167821 0
1.7240156 -0.63958961 -0.050279655 0
1.7399452 -0.62642503 -0.050480537 0
1.7383673 -0.60147804 -0.049936928 0
1.7554955 -0.58905065 -0.050205838 0
1.7698576 -0.57466018 -0.05036268 0
1.7716938 -0.55249584 -0.050002109 0
1.7861736 -0.53811908 -0.050180595 0
1.7944936 -0.52004564 -0.050111499 0
1.8007785 -0.50088638 -0.049968991 0
1.8038149 -0.48007426 -0.049705323 0
1.810104 -0.46118197 -0.049585249 0
1.8239914 -0.44626185 -0.049780115 0
1.8408195 -0.4326404 -0.050098423 0
1.8417593 -0.41115031 -0.049792591 0
1.8621434 -0.39891604 -0.050264485 0
1.8585596 -0.37555781 -0.049801871 0
1.8661132 -0.35738233 -0.049786665 0
1.8834101 -0.34329584 -0.050157543 0
1.8870752 -0.32341513 -0.050008476 0
1.9041911 -0.3088834 -0.050385114 0
1.9013801 -0.28659001 -0.050007157 0
1.9049386 -0.26687482 -0.04988334 0
1.9023124 -0.24510495 -0.04953577 0
1.9240079 -0.23167931 -0.050115068 0
1.9269241 -0.21183725 -0.049994737 0
1.9245628 -0.19047178 -0.049687233 0
1.9449207 -0.17594345 -0.050235659 0
1.9465605 -0.15581559 -0.050095443 0
1.9499202 -0.13624085 -0.050028574 0
1.9507034 -0.11606581 -0.049876172 0
1.951924 -0.096101858 -0.049749617 0
1.9636275 -0.078574218 -0.05001615 0
1.9516188 -0.055852693 -0.049424879 0
1.9832972 -0.042189371 -0.050435375 0
1.9783725 -0.021039944 -0.050120909 0
1.967257 0.00095023651 -0.049592536 0
1.9899819 0.017195527 -0.050298497 0
1.9657354 0.040796686 -0.049315885 0
1.980407 0.058526251 -0.049747277 0
1.9899652 0.077180006 -0.050002187 0
1.9811543 0.09799128 -0.049605615 0
1.9842514 0.11739681 -0.04964596 0
2.0036392 0.1354977 -0.050278574 0
1.99351 0.15609647 -0.049862463 0
2.0059917 0.17512183 -0.05026447 0
1.9979284 0.19534019 -0.049940612 0
1.9937221 0.21521167 -0.049763754 0
1.9928112 0.23489928 -0.049713541 0
1.99024 0.25456503 -0.049612913 0
1.9941202 0.27420354 -0.049751446 0
1.9965634 0.29391575 -0.049847525 0
2.0137796 0.31416407 -0.050480191 0
2.005352 0.33373132 -0.050205905 0
2.003876 0.3535023 -0.050188813 0
2.0000322 0.37310007 -0.050095871 0
1.9939175 0.39244896 -0.049930323 0
2.0026355 0.41308865 -0.050305236 0
1.9885882 0.43155155 -0.049872544 0
1.9745382 0.44970992 -0.049447458 0
1.9901106 0.47150835 -0.050096761 0
1.9830269 0.49046892 -0.049939733 0
1.9867117 0.5110296 -0.050180286 0
1.9873202 0.5312376 -0.050319292 0
1.9690019 0.54805392 -0.049780712 0
1.9762123 0.56953293 -0.050177537 0
1.9588886 0.58612931 -0.049690124 0
1.9674524 0.6081751 -0.050156087 0
1.9568295 0.62600982 -0.049929608 0
1.9665866 0.64879018 -0.05046076 0
1.9412284 0.66269022 -0.049707633 0
1.9444501 0.68397403 -0.050017256 0
1.9447262 0.70463097 -0.050228428 0
1.9289572 0.72055554 -0.049851246 0
1.9264853 0.7404415 -0.049978293 0
1.9232686 0.76017755 -0.050087254 0
1.9075689 0.77567112 -0.049734388 0
1.9134732 0.79869831 -0.050207265 0
1.9055642 0.81690359 -0.050166696 0
1.89433 0.83378631 -0.050007299 0
1.879207 0.84897965 -0.049705502 0
1.8720404 0.86727798 -0.049717464 0
1.8736498 0.88939518 -0.050079949 0
1.8591825 0.90458149 -0.049826246 0
1.8464583 0.92038274 -0.049647167 0
1.8410434 0.93955117 -0.049764246 0
1.8450866 0.96349651 -0.050268404 0
1.8276764 0.976888 -0.049927842 0
1.8278867 0.99929214 -0.050302789 0
1.8141984 1.0144554 -0.05012713 0
1.7936221 1.025628 -0.049676254 0
1.7972819 1.0503957 -0.050226375 0
1.7803178 1.0633917 -0.049937561 0
1.7681117 1.0790548 -0.049852308 0
1.7623198 1.098675 -0.050044987 0
1.7529963 1.1161826 -0.050099663 0
1.7468133 1.1358224 -0.050298717 0
1.7279589 1.1470023 -0.049962725 0
1.716961 1.163396 -0.049972236 0
1.7076097 1.1809853 -0.05006326 0
1.7021091 1.2015009 -0.050335798 0
1.6806874 1.2101967 -0.04990929 0
1.6649325 1.222923 -0.049739823 0
1.6551688 1.2402827 -0.049849603 0
1.6440766 1.2566583 -0.049909256 0
1.6382455 1.277514 -0.050224442 0
1.6175218 1.2858297 -0.049853425 0
1.6074883 1.3032525 -0.049992669 0
1.5899122 1.3139719 -0.049780499 0
1.5770248 1.3288522 -0.049800988 0
1.572886 1.3521016 -0.050262544 0
1.5552803 1.3626374 -0.050071791 0
1.5398457 1.3751651 -0.049995076 0
1.5344303 1.3979267 -0.050438564 0
1.5093747 1.4004273 -0.049883515 0
1.0233686 0.88769215 0.29173058 0
1.5005829 1.4199526 -0.050177962 0
1.044902 0.92692256 0.30615532 0
1.4826554 1.4296551 -0.050002355 0
1.4376205 1.3796811 0.059600659 0
1.4357932 1.3776534 0.16705726 0
1.4450327 1.3879061 0.27876601 0
1.0539874 0.95397335 0.31484053 0
1.4657671 1.4403576 -0.049887002 0
1.4171641 1.385039 0.05925807 0
1.4152185 1.3828245 0.16600256 0
1.4139267 1.3813543 0.27415398 0
1.0607431 0.97937131 0.32264727 0
1.45438 1.4573623 -0.050079189 0
1.3904907 1.3827718 0.058572896 0
1.3925469 1.3851725 0.16459651 0
1.3860451 1.3775817 0.27034485 0
1.0544101 0.99039948 0.32403812 0
1.4316943 1.4610511 -0.049656752 0
1.3612813 1.3767179 0.057734471 0
1.3649279 1.3810854 0.16234443 0
1.3716679 1.3891579 0.27026469 0
1.0570401 1.0123298 0.33017427 0
1.4265584 1.4858385 -0.050222989 0
1.3424577 1.3824939 0.057466131 0
1.3409748 1.3806717 0.16067271 0
1.3426763 1.3827626 0.26604888 0
1.0592401 1.0344704 0.33632386 0
1.4048625 1.4903927 -0.049864624 0
1.3189291 1.3820372 0.05692732 0
1.3251745 1.3899122 0.1603834 0
1.3150314 1.3771226 0.2621333 0
1.0558031 1.0502557 0.33970186 0
1.3878047 1.5005407 -0.049774498 0
1.2957854 1.3814619 0.056401804 0
1.2896547 1.3735285 0.15664379 0
1.29855 1.3850394 0.26142526 0
1.0514193 1.0652369 0.34272745 0
1.3798738 1.5227113 -0.050232127 0
1.2769152 1.3859514 0.056120664 0
1.2717015 1.3790261 0.15594341 0
1.2781483 1.3875895 0.25955939 0
1.0394728 1.0705571 0.34172434 0
1.3627656 1.5329179 -0.050160334 0
1.250693 1.3800845 0.055394184 0
1.2548535 1.3857583 0.15544426 0
1.2559237 1.3872178 0.25711504 0
1.0341536 1.0847896 0.3444697 0
1.3445996 1.5415618 -0.05003012 0
1.2481625 1.406517 0.056105729 0
1.2448118 1.401825 0.15621044 0
1.2459636 1.4034379 0.25843179 0
1.0228465 1.0909982 0.34393764 0
1.3262345 1.5497636 -0.049891811 0
1.2401377 1.4259313 0.056507293 0
1.2423837 1.4291618 0.1584617 0
1.2509154 1.4414328 0.26454774 0
1.0109264 1.096258 0.34308377 0
1.3099656 1.5608947 -0.049890961 0
1.2466792 1.4673796 0.057859682 0
1.2511774 1.4740264 0.16297241 0
1.2380407 1.454615 0.26519474 0
1.002382 1.1063945 0.34425676 0
1.2962083 1.575844 -0.050062135 0
1.2451669 1.4983379 0.058748946 0
1.2394884 1.4897152 0.16367719 0
1.2374157 1.4865677 0.26992497 0
1.1730658 1.3888528 0.34951344 0
0.9962157 1.1203068 0.34696722 0
1.2807534 1.5883732 -0.050136697 0
1.2432697 1.5298636 0.059655935 0
1.2463819 1.5347215 0.16813703 0
1.2194011 1.4926064 0.26906848 0
1.1459594 1.3779687 0.34341741 0
0.9870519 1.1299245 0.34798986 0
1.2658057 1.6018219 -0.050257575 0
1.2447511 1.5680276 0.060836073 0
1.2460201 1.5700644 0.17132741 0
1.2071264 1.5076373 0.27017781 0
1.1255466 1.3766955 0.340361 0
0.97173625 1.1298183 0.34523833 0
1.2407161 1.5986965 -0.049693625 0
1.1864867 1.5091617 0.26846364 0
1.113946 1.3893943 0.34157237 0
0.96249622 1.1393452 0.34632987 0
0.84198248 0.94037259 0.47470224 0
1.2319956 1.6226033 -0.050266832 0
1.1784133 1.5315696 0.27118698 0
1.0880741 1.3780879 0.3357116 0
0.95167929 1.1463598 0.34648862 0
0.83740211 0.95220858 0.47933638 0
1.2126892 1.6288168 -0.050112825 0
1.1600083 1.5366802 0.27031851 0
1.0708019 1.3806616 0.33406818 0
0.94481206 1.1603106 0.34935683 0
0.84914351 0.9929902 0.35350442 0
0.84008008 0.97713864 0.41680434 0
0.84061307 0.97807091 0.49355888 0
1.1957359 1.6390516 -0.050134052 0
1.1457633 1.5490397 0.27099937 0
1.0508128 1.3780133 0.33097601 0
0.93035406 1.1610403 0.3472071 0
0.84871757 1.0139949 0.36099479 0
0.83774334 0.99422801 0.42367995 0
0.83896482 0.99642813 0.50256395 0
1.1744637 1.6413087 -0.049840305 0
1.1324258 1.5632901 0.27209988 0
1.0375233 1.3871602 0.33139634 0
0.92254233 1.1737661 0.34967446 0
0.85106498 1.0411109 0.37131119 0
0.83989173 1.0203743 0.43567336 0
0.83869654 1.0181562 0.51379299 0
1.1588737 1.6539967 -0.049979504 0
1.1097355 1.5599849 0.26965493 0
1.0173703 1.3832711 0.32810947 0
0.9134931 1.1845319 0.35142687 0
0.8512823 1.0655096 0.38027671 0
0.83788937 1.0398861 0.44382721 0
0.84193647 1.047629 0.53013319 0
1.1413324 1.6630583 -0.049980558 0
1.0942152 1.5700798 0.26999277 0
0.99770933 1.3796406 0.32499027 0
0.90136641 1.1895229 0.35105693 0
0.8491447 1.0864714 0.38758862 0
0.84304279 1.0744303 0.46037528 0
0.84193641 1.072247 0.5431146 0
1.122022 1.6685258 -0.049847476 0
1.0767479 1.5763232 0.26959404 0
0.98196709 1.383298 0.32403237 0
0.89168882 1.1994426 0.35257289 0
0.84709579 1.1086271 0.39541858 0
0.84087759 1.0959635 0.4695327 0
0.83661795 1.0872885 0.54968894 0
1.1030519 1.6744975 -0.049744755 0
0.96018028 1.374029 0.3194845 0
0.87562436 1.1962024 0.34927678 0
0.83597362 1.1128144 0.39497596 0
0.84399068 1.1296747 0.48539755 0
0.83811051 1.1173084 0.56610411 0
1.0900611 1.6932977 -0.050156198 0
0.94697732 1.3823467 0.31997937 0
0.86657327 1.2076119 0.35143915 0
0.84113854 1.1523371 0.41070452 0
0.84042758 1.1507919 0.49421269 0
0.84156924 1.1532729 0.58629292 0
1.0690571 1.6948115 -0.049896266 0
0.93570709 1.3951341 0.3217662 0
0.8547982 1.2133075 0.35155034 0
0.8431167 1.1870556 0.42413864 0
0.83770078 1.1748844 0.50463265 0
0.83887249 1.1775177 0.59873325 0
1.0521688 1.7054411 -0.050002303 0
0.91271371 1.3811095 0.31613675 0
0.84846389 1.2316833 0.35630685 0
0.83939481 1.2105912 0.43244889 0
0.83755797 1.2063192 0.51901388 0
0.83914608 1.2100127 0.61645424 0
1.0331404 1.7111186 -0.049924601 0
0.89473635 1.3777249 0.31355608 0
0.84956461 1.2689131 0.36785907 0
0.84224951 1.2512921 0.44843206 0
0.83640093 1.2372038 0.53302312 0
0.83949852 1.2446655 0.63546616 0
1.0155991 1.7203705 -0.049993992 0
0.87984616 1.3813707 0.31298295 0
0.85022444 1.3073999 0.37979865 0
0.84180027 1.2863632 0.46180788 0
0.8396042 1.2808793 0.55386358 0
0.84039772 1.2828608 0.65664279 0
0.99602962 1.7245116 -0.049875941 0
0.86110806 1.3748953 0.30969611 0
0.85110289 1.3489693 0.3927767 0
0.83665127 1.3115215 0.47072211 0
0.84002733 1.3202698 0.57228339 0
0.83978295 1.3196366 0.67680717 0
0.97399426 1.7217852 -0.049506299 0
0.84953898 1.3867919 0.31148931 0
0.84232092 1.3673632 0.39746499 0
0.84094113 1.3636492 0.49153545 0
0.83922666 1.3590345 0.59028035 0
0.83803123 1.3558168 0.69650561 0
0.96087074 1.7432388 -0.050065547 0
0.8307538 1.3790228 0.30798608 0
0.84243327 1.4117153 0.41134208 0
0.8387658 1.4014496 0.50593233 0
0.83904618 1.4022344 0.61055839 0
0.94261402 1.7509567 -0.050110191 0
0.8175723 1.3865273 0.30868167 0
0.83833784 1.4470477 0.42198634 0
0.83984476 1.4514396 0.52561498 0
0.84110105 1.455101 0.63586366 0
0.92421305 1.7583473 -0.050151009 0
1.0292779 2.077594 0.35026613 0
0.79980034 1.3803107 0.30573368 0
0.83868068 1.4984512 0.43823358 0
0.84298003 1.511515 0.54960638 0
0.83912241 1.4997935 0.65674496 0
0.90464473 1.7621404 -0.050065693 0
1.0086302 2.0920396 0.35160407 0
0.78484219 1.3820609 0.30498853 0
0.84213352 1.5638205 0.45928663 0
0.84089094 1.5598782 0.56840116 0
0.84004962 1.5572091 0.68423134 0
0.88597721 1.7687244 -0.050093975 0
0.98377383 2.0931823 0.35048032 0
0.7699855 1.3839009 0.30432042 0
0.84018368 1.616796 0.47593826 0
0.83890504 1.6125541 0.589001 0
0.86975044 1.7838748 -0.050449137 0
0.96076035 2.1001768 0.35051763 0
0.75302172 1.3781879 0.30169928 0
0.8399893 1.6804409 0.49623185 0
0.8377077 1.6725112 0.61267424 0
0.8457517 1.7716348 -0.049796704 0
0.73877168 1.3814038 0.047350913 0
0.73864019 1.3809243 0.13042258 0
0.73651743 1.3731812 0.21335067 0
0.73990703 1.3855454 0.30260155 0
0.83724064 1.7405889 0.51524997 0
0.835105 1.7327987 0.63641417 0
0.82772434 1.7804918 -0.049935933 0
0.72422755 1.3834254 0.047286507 0
0.72434926 1.3838923 0.13033397 0
0.72595221 1.3900421 0.21579616 0
0.72466177 1.3850911 0.30148482 0
0.83043021 1.7908729 0.53082645 0
0.82831484 1.7827574 0.655671 0
0.80881691 1.7862118 -0.049967717 0
0.70978141 1.3856634 0.047237009 0
0.70887047 1.3819791 0.12972525 0
0.70995665 1.3863722 0.21444461 0
0.7049523 1.3661321 0.29555881 0
0.82672662 1.8586475 0.55237812 0
0.82614225 1.8562839 0.68495631 0
0.78979748 1.7915651 -0.049994707 0
0.69518316 1.387108 0.047165245 0
0.69365674 1.3805827 0.1291969 0
0.69334567 1.3792531 0.21249555 0
0.69437456 1.3836515 0.2992734 0
0.81918705 1.9171993 0.57073122 0
0.76762879 1.7827507 -0.049512424 0
0.68000972 1.3857219 0.046996918 0
0.6800341 1.3858324 0.12942256 0
0.67987269 1.3851011 0.21298543 0
0.68203562 1.394902 0.30137464 0
0.80463302 1.9504284 0.58043838 0
0.75165349 1.8021228 -0.050069317 0
0.66460693 1.3826579 0.046774831 0
0.66473103 1.383256 0.12880749 0
0.66634142 1.391016 0.21351768 0
0.66482246 1.3836966 0.29765967 0
0.79179025 1.9955361 0.59421867 0
0.73195845 1.8044369 -0.050011776 0
0.6500169 1.3829653 0.046682961 0
0.64999902 1.3828734 0.12845525 0
0.65093964 1.3877116 0.21238613 0
0.64943665 1.3799809 0.29595685 0
0.77671856 2.0346632 0.60599327 0
0.711375 1.8016428 -0.049778037 0
0.63412881 1.3757662 0.046325613 0
0.63460815 1.3784089 0.12767825 0
0.63494295 1.3802547 0.21053164 0
0.6344595 1.3775892 0.29465151 0
0.76314789 2.0870793 0.62229842 0
0.69271797 1.8093145 -0.049933087 0
0.6202721 1.3791251 0.046358515 0
0.61991376 1.3769971 0.12725674 0
0.61953646 1.3747568 0.20907623 0
0.62233353 1.391366 0.29758096 0
0.7447682 2.1183922 0.63150716 0
0.67415386 1.8183153 -0.050144356 0
0.6072315 1.3878989 0.046593305 0
0.60491204 1.3729811 0.12657295 0
0.6061461 1.380918 0.20978707 0
0.60672539 1.3846437 0.29525131 0
0.72847331 2.1676753 0.64682615 0
0.65434217 1.819646 -0.050087079 0
0.59155971 1.3794113 0.046211116 0
0.59101337 1.3755803 0.12662905 0
0.59239727 1.3852845 0.21020046 0
0.59140736 1.378343 0.29308525 0
0.70838851 2.1986225 0.65602481 0
0.63383985 1.815366 -0.049836893 0
0.5769453 1.3769941 0.04605519 0
0.57739794 1.3804816 0.12695351 0
0.57815385 1.3863062 0.21003637 0
0.57820278 1.3866829 0.29473895 0
0.6879167 2.2320271 0.66611773 0
0.61538553 1.8270981 -0.050171919 0
0.56385297 1.3866589 0.046340406 0
0.56233275 1.3736657 0.12602824 0
0.56404907 1.388335 0.210088 0
0.56394112 1.3874124 0.29447806 0
0.66684133 2.266881 0.67676765 0
0.5950262 1.8228672 -0.049941856 0
0.55190212 1.4092338 0.12970436 0
0.55214542 1.4115676 0.21401657 0
0.55259591 1.4158888 0.30138114 0
0.64524901 2.304589 0.68844724 0
0.57483232 1.8186975 -0.04972345 0
0.5522598 1.5721229 0.14713074 0
0.55218542 1.5713104 0.24269019 0
0.55271637 1.5771105 0.34232208 0
0.62189478 2.3327913 0.69702846 0
0.55582798 1.8276926 -0.049985841 0
0.60290772 2.4246864 0.23888828 0
0.59851944 2.3690405 0.38675269 0
0.59838408 2.3673241 0.54419619 0
0.53589034 1.8254387 -0.049854089 0
0.57401967 2.4013803 0.39225033 0
0.57315809 2.3883667 0.54908526 0
0.51634198 1.8287731 -0.049931206 0
0.54887813 2.4361699 0.39824244 0
0.54777235 2.4155266 0.55561525 0
0.497448 1.8494953 -0.050638363 0
0.52190262 2.4467263 0.39991456 0
0.52159208 2.4391415 0.56131822 0
0.47689593 1.8294277 -0.049896937 0
0.45650578 1.109942 0.3562369 0
0.45627919 1.1019466 0.42524049 0
0.45720145 1.830815 -0.049930956 0
0.44590908 1.1134762 0.35760316 0
0.44593838 1.1153374 0.43182489 0
0.43747458 1.8305185 -0.049913719 0
0.43512478 1.084367 0.41627851 0
0.43512118 1.0832275 0.49162292 0
0.41772586 1.8334892 -0.050021999 0
0.42479888 1.0844361 0.41632929 0
0.4247959 1.0847539 0.49254739 0
0.39795157 1.8340119 -0.050051771 0
0.41403356 1.1042553 0.35382631 0
0.4139984 1.1058508 0.42712787 0
0.41456282 1.0802389 0.48996562 0
0.37797087 1.8397971 -0.05027844 0
0.35226214 2.5819821 0.42422864 0
0.35255349 2.5735707 0.59550387 0
0.40530217 1.0507704 0.47265163 0
0.35824016 1.8368375 -0.050201681 0
0.32267633 2.5894783 0.42579773 0
0.322108 2.601506 0.60294294 0
0.39550751 1.0481455 0.47133386 0
0.33849972 1.8348937 -0.050170079 0
0.29141289 2.6212482 0.43182093 0
0.29233444 2.6058583 0.60445809 0
0.386181 1.0386121 0.4659839 0
0.31917027 1.8275481 -0.049953986 0
0.26204789 2.6151516 0.43107364 0
0.26154578 2.6220746 0.60910535 0
0.29857966 1.8367636 -0.05033977 0
0.22967759 2.6455035 0.43698964 0
0.22910561 2.6522171 0.6174227 0
0.2797662 1.8250002 -0.049982771 0
0.19778977 2.6623998 0.44054851 0
0.19803748 2.6598692 0.62008953 0
0.25998649 1.8242332 -0.05002876 0
0.16694607 2.6652946 0.44164458 0
0.16791989 2.6564915 0.62002915 0
0.34711412 1.0366218 0.46677485 0
0.24097876 1.816919 -0.049848255 0
0.13474776 2.6778789 0.44457361 0
0.13487969 2.6768095 0.62615752 0
0.2203206 1.8226438 -0.050145868 0
0.10123943 2.6970155 0.4487741 0
0.10263033 2.6868026 0.62974489 0
0.20044428 1.8216772 -0.050211892 0
0.069201007 2.7022781 0.45052946 0
0.070246294 2.6952643 0.63304865 0
0.1809368 1.818122 -0.05019347 0
0.036958978 2.7072339 0.452306 0
0.035611019 2.7155578 0.63952243 0
0.16301517 1.8055559 -0.049857315 0
0.0027478801 2.7219803 0.45595327 0
0.0035219358 2.7175543 0.6413843 0
0.14349331 1.802774 -0.049883973 0
-0.029758258 2.7248681 0.45751199 0
-0.030868543 2.7307773 0.64626974 0
0.12367137 1.8013737 -0.049969956 0
-0.090233639 2.8658061 0.10073129 0
-0.090180531 2.8655419 0.2911346 0
-0.062903598 2.7298064 0.45952708 0
-0.060443804 2.717566 0.64440107 0
0.10107388 1.8126333 -0.050527487 0
-0.11277325 2.8114948 0.098996222 0
-0.11354895 2.8151181 0.28633881 0
-0.095788255 2.7321594 0.46114764 0
-0.095404223 2.7303658 0.64941096 0
0.084621862 1.7950671 -0.050041649 0
-0.13867934 2.7774925 0.098010115 0
-0.14229508 2.7934 0.28472534 0
-0.12938584 2.7366052 0.46323639 0
-0.12800087 2.7305121 0.65123963 0
0.064887837 1.7925947 -0.050116181 0
-0.17077602 2.7721739 0.09808623 0
-0.17351605 2.7835634 0.28446025 0
-0.16290541 2.7394586 0.46511447 0
-0.16135098 2.7329972 0.65379518 0
0.045867309 1.7870864 -0.05008826 0
-0.21024163 2.7956352 0.099237546 0
-0.2084315 2.7885067 0.28587663 0
-0.19609477 2.7399251 0.46663287 0
-0.19682564 2.7428033 0.6583963 0
0.027747529 1.7782732 -0.049946956 0
-0.25313133 2.8287382 0.1007674 0
-0.25539184 2.8371923 0.29221272 0
-0.22707416 2.7312863 0.46653441 0
-0.22600271 2.7272792 0.65644115 0
0.0098394621 1.7690635 -0.049798887 0
-0.25989819 2.7292459 0.46774468 0
-0.26144159 2.7347398 0.66066748 0
-0.007985903 1.7599316 -0.049661543 0
-0.29760498 2.7431657 0.4720377 0
-0.29104537 2.7208965 0.65936166 0
-0.029669238 1.7636318 -0.050011434 0
-0.32615441 2.7253304 0.47044381 0
-0.32670915 2.7271297 0.66351032 0
-0.048095897 1.7564074 -0.04996321 0
-0.36094695 2.7275844 0.47271788 0
-0.35863721 2.7204142 0.664325 0
-0.069662288 1.7586217 -0.050278995 0
-0.39162612 2.7165864 0.47256348 0
-0.39080977 2.7141573 0.6653747 0
-0.08663334 1.7470294 -0.05008417 0
-0.42840225 2.7230499 0.47581863 0
-0.42632496 2.7171178 0.66902983 0
-0.10461332 1.7385983 -0.050016668 0
-0.45807779 2.708683 0.47517914 0
-0.45665991 2.7047915 0.66867208 0
-0.12294163 1.7312126 -0.049997374 0
-0.48638403 2.6909378 0.47395697 0
-0.49219948 2.7062943 0.6721893 0
-0.14173754 1.7250447 -0.050033532 0
-0.52009434 2.6873899 0.47554889 0
-0.52203584 2.692328 0.67160559 0
-0.1560135 1.7077167 -0.049648698 0
-0.55023879 2.6744947 0.47541097 0
-0.55161953 2.6778808 0.67098963 0
-0.17546298 1.7033221 -0.049770024 0
-0.581478 2.6642265 0.47586077 0
-0.58014691 2.6610765 0.66982055 0
-0.19471385 1.698252 -0.049875222 0
-0.61097932 2.6498163 0.47557488 0
-0.61338973 2.6553264 0.67182302 0
-0.21363457 1.6922648 -0.049954552 0
-0.64115512 2.6369805 0.47567239 0
-0.6437993 2.6428237 0.67206281 0
-0.23142995 1.6837327 -0.049943406 0
-0.67444646 2.6307604 0.47716314 0
-0.66819906 2.6174057 0.66877377 0
-0.24987514 1.6765562 -0.049994804 0
-0.70372736 2.6157508 0.47698611 0
-0.70187068 2.6119084 0.67119622 0
-0.26767766 1.6680032 -0.050000843 0
-0.73112202 2.5970037 0.47612879 0
-0.72906256 2.5928755 0.66989517 0
-0.28824878 1.664813 -0.05023123 0
-0.75709987 2.5757542 0.47482806 0
-0.75269401 2.5671937 0.66677582 0
-0.30201399 1.6484458 -0.049941007 0
-0.78618991 2.560745 0.47485936 0
-0.7795223 2.5481818 0.66564763 0
-0.32015795 1.6405041 -0.049998667 0
-0.81526744 2.5456929 0.47495705 0
-0.80919027 2.5345824 0.66618359 0
-0.33681327 1.6298311 -0.049954142 0
-0.61967087 2.1318493 0.082525976 0
-0.83802116 2.5193791 0.47279972 0
-0.83443439 2.5130134 0.66449851 0
-0.35490769 1.621695 -0.050022632 0
-0.62118208 2.0806706 0.080966555 0
-0.86571229 2.5021658 0.47258359 0
-0.86126053 2.4944923 0.66379356 0
-0.37364173 1.6145298 -0.050141439 0
-0.61747861 2.0228958 0.079121873 0
-0.88498545 2.4709032 0.4694877 0
-0.88393307 2.4691408 0.66115361 0
-0.38301069 1.5919538 -0.049625311 0
-0.62057412 1.9786665 0.077828474 0
-0.91615987 2.45983 0.47069225 0
-0.9130131 2.4547074 0.66184753 0
-0.4064104 1.5922612 -0.050076388 0
-0.61728084 1.9260256 0.076171167 0
-0.93603158 2.4305422 0.46810418 0
-0.93649328 2.431273 0.6599406 0
-0.42092472 1.5782996 -0.049936205 0
-0.61557007 1.8779596 0.074693255 0
-0.95544565 2.4012039 0.46553758 0
-0.96046364 2.4089291 0.65843946 0
-0.43450016 1.5631042 -0.049749684 0
-0.62000811 1.8409742 0.073677599 0
-0.97718382 2.3759832 0.46389499 0
-0.97971213 2.3797703 0.65492725 0
-0.45262575 1.5547689 -0.04986592 0
-0.6192795 1.7977166 0.072384 0
-1.0014032 2.3547759 0.46317551 0
-1.0016044 2.3550692 0.65283847 0
-0.46655107 1.5403252 -0.04972633 0
-0.61454344 1.7503492 0.07089898 0
-1.0180382 2.3229706 0.46017846 0
-1.0273501 2.3361857 0.65263247 0
-0.48572993 1.5333037 -0.04992025 0
-0.61975169 1.7185041 0.0700818 0
-0.61896324 1.7174146 0.1987568 0
-1.0385071 2.297169 0.45853689 0
-1.0444562 2.3053899 0.64877462 0
-0.081388488 0.97455698 0.44461536 0
-0.50472468 1.5257999 -0.050105229 0
-0.61903846 1.6796498 0.068948098 0
-0.61773837 1.6779001 0.19525436 0
-1.0685194 2.2845869 0.4599078 0
-1.0645474 2.2792413 0.6464259 0
-0.087022081 0.96363175 0.441874 0
-0.51954836 1.5126072 -0.050047245 0
-0.6163801 1.6395581 0.067747489 0
-0.62519979 1.6511211 0.19343741 0
-1.0836619 2.2521861 0.45688185 0
-1.0821451 2.2501976 0.64320624 0
-0.093299583 0.95377529 0.43982315 0
-0.52938116 1.4931006 -0.04971084 0
-0.61995518 1.6087968 0.066956535 0
-0.61719942 1.6052768 0.18901311 0
-1.1004015 2.2225027 0.45449182 0
-1.0926799 2.2126393 0.63726735 0
-0.11291476 0.96112055 0.44873241 0
-0.55285037 1.490942 -0.050171103 0
-0.61854839 1.5727198 0.065916143 0
-0.61841297 1.5725511 0.18633847 0
-1.1162871 2.1922812 0.45200151 0
-1.1028856 2.1755996 0.63148099 0
-0.12917168 0.96356696 0.45474583 0
-0.56645149 1.4762965 -0.050072052 0
-0.62534714 1.5477455 0.065377779 0
-0.61867666 1.5396533 0.18361406 0
-1.1291976 2.158989 0.44881409 0
-1.1315552 2.1618493 0.6333769 0
-0.13726385 0.95562965 0.45422113 0
-0.58100843 1.4628848 -0.050037581 0
-0.61816764 1.5068251 0.064092055 0
-0.62093937 1.5101026 0.18133208 0
-1.1500273 2.1357431 0.44800359 0
-1.1451604 2.129988 0.62936169 0
-0.1453038 0.94766873 0.45374179 0
-0.59465885 1.4484602 -0.049963493 0
-0.6136272 1.4703257 0.062996916 0
-0.62506104 1.4835057 0.17944932 0
-1.1578125 2.0976255 0.44369578 0
-1.1601861 2.1003616 0.62611467 0
-0.60767114 1.4333924 -0.049865991 0
-0.63218534 1.4609421 0.063182555 0
-0.6311233 1.4597486 0.17796129 0
-1.1672415 2.0622528 0.44002566 0
-1.1680177 2.0631251 0.62029654 0
-0.62117517 1.4189609 -0.049805991 0
-0.65834463 1.4596885 0.063774526 0
-0.66032672 1.4618604 0.18023095 0
-1.1826892 2.0342281 0.43813607 0
-1.1803708 2.0316877 0.61644799 0
-0.63576019 1.4057416 -0.049812831 0
-0.5151034 1.2768325 0.055509191 0
-0.68726778 1.460772 0.18211026 0
-1.1833845 1.9908209 0.43247208 0
-1.189774 1.9976474 0.61169833 0
-0.65045273 1.3926228 -0.04983376 0
-0.50238079 1.2383634 0.054199923 0
-0.71005356 1.4547143 0.18332238 0
-1.2011572 1.9663398 0.43147269 0
-1.2031636 1.96843 0.60863823 0
-0.65949523 1.3737389 -0.049575351 0
-0.51119566 1.223086 0.054028176 0
-0.74752355 1.4631642 0.18678042 0
-1.2155528 1.9386204 0.4296976 0
-1.2072613 1.9301974 0.60237235 0
-0.68886399 1.3752425 -0.050353616 0
-0.52465641 1.2125777 0.054101758 0
-0.77139425 1.4569974 0.18812221 0
-1.2195721 1.9009643 0.42539957 0
-1.2129567 1.8944111 0.59693193 0
-0.69158947 1.350242 -0.049799029 0
-0.8023299 1.4572133 0.19051512 0
-1.2218928 1.8624955 0.42084727 0
-1.2290782 1.8694363 0.59541649 0
-0.71483541 1.3451031 -0.05027293 0
-1.228065 1.8285211 0.41742355 0
-1.2218925 1.8227072 0.58586085 0
-0.72550023 1.3279513 -0.050134685 0
-1.2326516 1.7937335 0.41375628 0
-1.232623 1.7937073 0.58282644 0
-0.23885836 0.88100559 0.38343549 0
-0.73385644 1.3088588 -0.049897764 0
-1.2347342 1.7573847 0.5769999 0
-0.23632832 0.86333233 0.37774378 0
-0.75137663 1.2979845 -0.050109193 0
-0.23736562 0.84923071 0.37419799 0
-0.76044714 1.2797189 -0.049928702 0
-0.23257537 0.83045006 0.36761865 0
-0.26263475 0.85603344 0.46274638 0
-0.77627468 1.2672201 -0.050074246 0
-0.25027901 0.83084828 0.37333658 0
-0.79331553 1.2555666 -0.050281294 0
-0.25417918 0.81963599 0.37164432 0
-0.79878581 1.2346059 -0.049967084 0
-0.2722019 0.81968033 0.37748784 0
-0.8134042 1.220944 -0.050079588 0
-0.26003355 0.79609537 0.36751556 0
-0.24480589 0.78440434 0.43326661 0
-0.83166027 1.2099 -0.050360925 0
-0.26279885 0.78443474 0.36551216 0
-0.28244269 0.7991268 0.45272464 0
-0.83804548 1.1899589 -0.050121523 0
-1.2071991 1.4588768 0.078426942 0
-0.25868177 0.76790911 0.36007711 0
-0.28017813 0.78356856 0.4471899 0
-0.8453126 1.1708467 -0.049933903 0
-1.2564545 1.4624993 0.079930283 0
-0.28732097 0.77502304 0.37142462 0
-0.27788705 0.76833087 0.44180885 0
-0.85742152 1.1552353 -0.049968466 0
-1.2921785 1.4554832 0.080831535 0
-0.28721255 0.76144272 0.44365513 0
-0.86711085 1.1379642 -0.049907148 0
-1.270425 1.4090613 0.079256497 0
-0.29038113 0.75030196 0.44182658 0
-0.89043772 1.1296608 -0.050437417 0
-1.2751597 1.3812864 0.07884939 0
-0.29876924 0.74268293 0.44321778 0
-0.88530338 1.1028029 -0.049763583 0
-1.2790082 1.353283 0.078422882 0
-0.29797196 0.72913492 0.43920788 0
-0.89582205 1.0861841 -0.049766365 0
-0.91193068 1.0729212 -0.050010756 0
-0.91958666 1.0545156 -0.049910769 0
-0.94165373 1.0443671 -0.05041264 0
-0.93784952 1.019554 -0.04986167 0
-0.94532585 1.0012106 -0.049783789 0
-0.96141899 0.98739481 -0.050062284 0
-0.97467005 0.97192669 -0.050232429 0
-0.9845345 0.95467186 -0.050274801 0
-0.98388958 0.93242383 -0.049910691 0
-0.98635936 0.91187602 -0.049681921 0
-1.007246 0.89962697 -0.050183207 0
-1.0112572 0.87979692 -0.050032888 0
-1.0125886 0.85897553 -0.049789555 0
-1.2421982 0.95344913 0.60849649 0
-1.020108 0.84079087 -0.04979521 0
-1.2476884 0.9310959 0.60740358 0
-1.0303959 0.82365698 -0.049915422 0
-1.2414322 0.90433669 0.60223269 0
-1.0366627 0.80494988 -0.049890347 0
-1.2398199 0.87969929 0.59885156 0
-1.0472101 0.7877723 -0.050036415 0
-1.2374648 0.8550669 0.59533316 0
-1.0517155 0.76843077 -0.049962234 0
-1.232579 0.82985258 0.59104979 0
-1.053194 0.74815536 -0.049783871 0
-1.2412833 0.80940074 0.59165031 0
-1.0599214 0.72964478 -0.049812056 0
-1.2370594 0.78486717 0.45218831 0
-1.2385516 0.78533238 0.5883531 0
-1.0777341 0.71441346 -0.050261796 0
-1.2370695 0.76189315 0.4504815 0
-1.2498957 0.76571518 0.59006006 0
-1.0670805 0.69075537 -0.049660493 0
-1.2492198 0.74254245 0.45207784 0
-1.2384857 0.73949051 0.58397627 0
-1.0848325 0.67522466 -0.050122913 0
-1.2356615 0.71606392 0.44693795 0
-1.2315232 0.71494341 0.57956016 0
-1.0810062 0.65380192 -0.049795587 0
-1.2396932 0.69463146 0.44653663 0
-1.2416391 0.69513214 0.5811317 0
-1.0906605 0.63590169 -0.049974583 0
-1.2378045 0.67179215 0.44465277 0
-1.2411723 0.67261356 0.57915992 0
-1.0898277 0.61545026 -0.049777102 0
-1.2478646 0.65189564 0.44597828 0
-1.237857 0.64958775 0.57631826 0
-1.0999925 0.59752893 -0.04999138 0
-1.2405974 0.62809497 0.44284168 0
-1.2442836 0.6288963 0.57690001 0
-1.1019524 0.57777447 -0.049914371 0
-1.235664 0.60508341 0.44039905 0
-1.2404368 0.60605824 0.57408041 0
-1.1066128 0.55858821 -0.049944751 0
-1.2350038 0.58313072 0.43914759 0
-1.2397578 0.58403945 0.57243812 0
-1.1183647 0.54064029 -0.050241001 0
-1.4404811 0.59801996 0.34911489 0
-1.2431417 0.56286722 0.44025064 0
-1.2420408 0.56267112 0.57189417 0
-1.1133871 0.51971424 -0.049939465 0
-1.4387964 0.57346225 0.34806618 0
-1.243978 0.54128402 0.43952939 0
-1.2402164 0.54066271 0.57005727 0
-1.1276313 0.50192684 -0.05034218 0
-1.4590865 0.55239475 0.35108474 0
-1.2401525 0.51905948 0.43767658 0
-1.2349255 0.51826364 0.56715065 0
-1.1268158 0.4817501 -0.050209425 0
-1.4569597 0.5277729 0.3500644 0
-1.2390157 0.49739102 0.43659183 0
-1.2380023 0.49724975 0.56715477 0
-1.1152209 0.46030009 -0.049698122 0
-1.4723617 0.50550973 0.35228863 0
-1.244915 0.47671777 0.43738851 0
-1.2486522 0.47719085 0.56978726 0
-1.1291189 0.44211131 -0.050113264 0
-0.51878911 0.37264711 0.040183034 0
-0.5196349 0.37274337 0.10899048 0
-0.507595 0.37137306 0.17664719 0
-1.2323426 0.45385963 0.43350777 0
-1.2350575 0.45416862 0.56438255 0
-1.1320639 0.42251799 -0.050143078 0
-0.50318182 0.3589524 0.03957678 0
-0.50038844 0.35867003 0.10677229 0
-0.51510364 0.3601574 0.17777756 0
-1.2383951 0.43326563 0.43448186 0
-1.2392449 0.43335155 0.56502789 0
-1.1296109 0.40242335 -0.04998824 0
