# .PCD v0.7 - Point Cloud Data file format
VERSION 0.7
FIELDS x y z intensity
SIZE 4 4 4 4
TYPE F F F F
COUNT 1 1 1 1
WIDTH 1353
HEIGHT 1
VIEWPOINT 0 0 0 1 0 0 0
POINTS 1353
DATA ascii
-1.1138667 0.0089507001 -0.049956817 0
-0.50654793 0.10926194 0.039980989 0
-0.50198609 0.11001541 0.10779388 0
-0.51917547 0.10717624 0.17996663 0
-1.2370558 -0.011396508 0.43773937 0
-1.234615 -0.010993372 0.56816846 0
-1.1041092 -0.0093567772 -0.049724046 0
-0.51156837 0.096194483 0.040236566 0
-0.51433563 0.095701538 0.10936221 0
-0.51593733 0.095416225 0.17974983 0
-1.2296324 -0.031716656 0.43674973 0
-1.236861 -0.033004325 0.57014382 0
-1.1055959 -0.029649716 -0.049907792 0
-0.5008871 0.085942991 0.039928019 0
-0.5235821 0.081604742 0.11061451 0
-0.50859767 0.084469087 0.17880659 0
-1.2384632 -0.055047851 0.44004613 0
-1.2499269 -0.057239186 0.57588255 0
-1.10015 -0.048662167 -0.049848691 0
-0.50273949 0.073351838 0.040080078 0
-0.50387609 0.073119707 0.10871372 0
-0.49335074 0.075269379 0.17643076 0
-1.2497988 -0.079226144 0.4440797 0
-1.2435384 -0.077947535 0.57513362 0
-1.102319 -0.069290556 -0.050076377 0
-0.51974517 0.057354826 0.040791962 0
-0.51852906 0.057619188 0.11059826 0
-0.50722873 0.060075764 0.17944507 0
-1.2337173 -0.097855158 0.44104537 0
-1.2371082 -0.098592319 0.57445711 0
-1.0933305 -0.087513931 -0.049905438 0
-0.50939983 0.047148023 0.040511195 0
-0.53176695 0.041989867 0.1123537 0
-0.514449 0.045983616 0.1812713 0
-1.2386398 -0.12102414 0.44356298 0
-1.2359897 -0.12041298 0.57568073 0
-1.0831312 -0.10532109 -0.049697895 0
-0.50169879 0.036498088 0.040331449 0
-0.51753318 0.032635871 0.11109736 0
-0.50888652 0.034744907 0.1807631 0
-1.2426697 -0.14423467 0.44593039 0
-1.236251 -0.14266907 0.57747465 0
-1.0881144 -0.12688671 -0.050057627 0
-0.55913597 0.0092172818 0.042557321 0
-0.55108672 0.011288305 0.11515294 0
-0.5600695 0.0089770751 0.19084686 0
-1.2300814 -0.16341422 0.44400448 0
-1.2417055 -0.16640507 0.58115453 0
-1.0810561 -0.145458 -0.049983233 0
-0.6279546 -0.022773813 0.045224439 0
-0.61926758 -0.020421665 0.1231076 0
-1.2385192 -0.18809356 0.31822586 0
-1.2427303 -0.18923377 0.44880638 0
-1.2389331 -0.18820561 0.58211422 0
-1.0730116 -0.16369759 -0.049880635 0
-0.69248748 -0.055504303 0.047756981 0
-0.6980648 -0.057090115 0.13232149 0
-1.2293407 -0.20814617 0.31759793 0
-1.2401842 -0.21122928 0.44968119 0
-1.2347145 -0.20967411 0.58267188 0
-1.0712698 -0.18374304 -0.050020978 0
-0.77058029 -0.094141759 0.050819505 0
-0.77342844 -0.094990499 0.14123666 0
-1.2360426 -0.23284306 0.32000354 0
-1.2376506 -0.23332225 0.45063624 0
-1.2345763 -0.23240615 0.58474189 0
-1.054898 -0.19933461 -0.049624201 0
-0.87577057 -0.143492 0.054925568 0
-0.87457538 -0.14311938 0.15314294 0
-1.2405005 -0.2571958 0.32205334 0
-1.2478745 -0.25949463 0.45507857 0
-1.2407259 -0.25726607 0.58911079 0
-1.0697224 -0.22479321 -0.050404448 0
-0.99591756 -0.20076098 0.059633352 0
-0.99078786 -0.19909067 0.16686927 0
-1.2444568 -0.28168991 0.32407448 0
-1.2430896 -0.28124472 0.45560029 0
-1.2447822 -0.28179589 0.59287453 0
-1.0517697 -0.23970507 -0.049964279 0
-1.1318895 -0.26691398 0.064985096 0
-1.1278304 -0.2655355 0.18309836 0
-1.2442265 -0.30506399 0.32536548 0
-1.2322601 -0.30100021 0.45456922 0
-1.0390565 -0.25614426 -0.049727652 0
-1.287244 -0.3439301 0.20204525 0
-1.2396317 -0.32708928 0.32588354 0
-1.2453462 -0.32911047 0.46007276 0
-1.0335885 -0.27507463 -0.049773399 0
-1.256289 -0.35701486 0.1993932 0
-1.2414273 -0.35154662 0.32768518 0
-1.2421533 -0.35181376 0.46127242 0
-1.0345004 -0.296482 -0.050072305 0
-1.2418725 -0.37576088 0.19865011 0
-1.2420954 -0.37584606 0.32933715 0
-1.2412653 -0.37552872 0.46318531 0
-1.0218697 -0.31274578 -0.049862873 0
-1.2488245 -0.40280256 0.20040114 0
-1.2375928 -0.39834574 0.33005336 0
-1.2459326 -0.40165499 0.46671435 0
-1.0103909 -0.32932714 -0.049704716 0
-1.257442 -0.43097708 0.20239432 0
-1.2390677 -0.42341688 0.33199415 0
-1.2435414 -0.42525765 0.46840498 0
-1.0102043 -0.35060397 -0.049992025 0
-1.2512603 -0.45335498 0.20271063 0
-1.2400426 -0.44857338 0.33390903 0
-1.2392547 -0.44823763 0.46966121 0
-0.99989009 -0.36763731 -0.049896169 0
-1.2489136 -0.47751001 0.20351218 0
-1.239277 -0.47325817 0.3355538 0
-1.239722 -0.47345456 0.47233057 0
-0.99919724 -0.38899043 -0.050185721 0
-1.2400168 -0.49888638 0.20358042 0
-1.2366925 -0.49736938 0.33690891 0
-1.2389823 -0.49841425 0.47476563 0
-0.98484612 -0.40413091 -0.04994845 0
-1.2325879 -0.52097684 0.2038554 0
-1.2503154 -0.52933794 0.34156424 0
-1.2340666 -0.52167428 0.47612563 0
-0.97529137 -0.42142513 -0.049907736 0
-1.4970511 -0.67558968 0.082627803 0
-1.2403207 -0.55052871 0.20597765 0
-1.2412376 -0.55097538 0.34177476 0
-1.2386653 -0.54972237 0.480277 0
-0.9709183 -0.44129613 -0.050082505 0
-1.4487605 -0.68155801 0.081177153 0
-1.2500193 -0.58162981 0.20839448 0
-1.2502112 -0.58172631 0.34568536 0
-1.2339331 -0.57354152 0.48189062 0
-0.95883512 -0.45731047 -0.049958367 0
-1.3945706 -0.68331867 0.079482757 0
-1.2414099 -0.60387695 0.20865794 0
-1.2421429 -0.60425711 0.34623763 0
-0.95252311 -0.47631529 -0.050075173 0
-1.3415444 -0.68435103 0.07782492 0
-1.2335284 -0.62658763 0.20904592 0
-1.236799 -0.62833667 0.34740868 0
-0.93710566 -0.49039999 -0.049831346 0
-1.3007905 -0.69081581 0.076656334 0
-1.2402786 -0.65746951 0.21126698 0
-1.2378932 -0.65615499 0.34997585 0
-0.93154657 -0.50988621 -0.049997728 0
-1.2646273 -0.69894308 0.075671144 0
-1.2406344 -0.68532473 0.21276169 0
-1.2359929 -0.68269026 0.35201284 0
-0.93477535 -0.53464723 -0.050538827 0
-1.2461623 -0.7166124 0.075414725 0
-1.2400417 -0.71303576 0.21419285 0
-1.2362829 -0.71083921 0.35459194 0
-0.91198981 -0.54421264 -0.050013218 0
-1.2434949 -0.74357563 0.075823717 0
-1.2478515 -0.74619573 0.21673223 0
-1.2420892 -0.7427302 0.35842583 0
-0.90080476 -0.56052268 -0.049975544 0
-1.2523621 -0.77801877 0.076734357 0
-1.224773 -0.76095039 0.21544056 0
-1.2457106 -0.77390379 0.36191121 0
-0.8931818 -0.57907116 -0.050096951 0
-1.2617114 -0.81353456 0.077690981 0
-1.2377112 -0.79826528 0.21874972 0
-1.2443014 -0.80245799 0.36443284 0
-0.87621057 -0.59161144 -0.049830493 0
-1.2463123 -0.83367473 0.077618778 0
-1.2425182 -0.83119327 0.22110219 0
-1.2370342 -0.82760638 0.36579016 0
-0.86921501 -0.61063457 -0.049997665 0
-1.2389504 -0.85916072 0.077902555 0
-1.2312714 -0.8539992 0.2214493 0
-1.2376448 -0.8582831 0.36893937 0
-0.8569814 -0.62618715 -0.04994937 0
-1.2427449 -0.89259964 0.078686729 0
-1.2484986 -0.89657313 0.22555567 0
-1.2428057 -0.8926416 0.37319773 0
-0.85330081 -0.64776921 -0.050283562 0
-1.2419479 -0.9234646 0.079295307 0
-1.2334272 -0.91742021 0.22551344 0
-1.6043333 -1.1805305 0.45638838 0
-0.8287673 -0.65445596 -0.049711712 0
-1.2332559 -0.94911438 0.079577863 0
-1.2383811 -0.9528479 0.22816817 0
-1.5693017 -1.1939141 0.45266727 0
-0.81778383 -0.67077738 -0.049742281 0
-1.2361002 -0.98364633 0.080391742 0
-1.229954 -0.97904938 0.22911184 0
-0.81613731 -0.69429827 -0.050202604 0
-1.2472306 -1.025269 0.081605956 0
-1.2376451 -1.0179096 0.23229301 0
-0.79715729 -0.70457852 -0.049893063 0
-1.164591 -0.99410051 0.07859388 0
-1.160078 -0.9905445 0.22390723 0
-1.1597896 -0.99031717 0.37161294 0
-0.78945017 -0.72369701 -0.050103828 0
-1.1429795 -1.0095508 0.07833498 0
-1.1431513 -1.0096898 0.22376908 0
-1.1347381 -1.0028871 0.36949611 0
-0.77128601 -0.73433739 -0.049842834 0
-1.2448349 -1.1271987 0.083809681 0
-1.2372229 -1.1208838 0.23916256 0
-1.3396803 -1.2058835 0.42128885 0
-0.76364434 -0.75369579 -0.050078586 0
-1.2431473 -1.161798 0.084558226 0
-1.2374171 -1.156921 0.24167013 0
-1.3185823 -1.2260003 0.42070976 0
-1.0226684 -0.97414964 0.49353418 0
-0.74638474 -0.76488227 -0.049872614 0
-1.2840168 -1.2342582 0.41696039 0
-0.9855938 -0.97372204 0.48629829 0
-0.74382007 -0.78903693 -0.050375257 0
-1.1973681 -1.1951799 0.084110804 0
-1.1960573 -1.1940062 0.24094285 0
-1.1929739 -1.191245 0.39952087 0
-0.97237444 -0.99370271 0.48714837 0
-0.72768342 -0.80121225 -0.050240513 0
-0.92161167 -0.97932142 0.47508967 0
-0.71321499 -0.81483263 -0.050193455 0
-0.88910711 -0.98050791 0.46922335 0
-0.68851817 -0.8185311 -0.049646575 0
-0.85110712 -0.97558612 0.46134114 0
-0.67925823 -0.83698279 -0.049870901 0
-0.83800077 -0.99423391 0.46227771 0
-0.66930676 -0.85496205 -0.050074674 0
-0.8259263 -1.0140668 0.4636865 0
-0.65411973 -0.86769897 -0.050022814 0
-0.63876355 -0.88020617 -0.049969736 0
-0.62522447 -0.89465362 -0.050020449 0
-0.6033349 -0.89977509 -0.049633108 0
-0.58619881 -0.90996391 -0.049502574 0
-0.58106756 -0.93421048 -0.050040852 0
-0.56210881 -0.94228417 -0.049828306 0
-0.54954982 -0.95808953 -0.049982961 0
-0.53311568 -0.96912688 -0.04992713 0
-0.52251023 -0.98774618 -0.050221603 0
-0.50608295 -0.99888366 -0.050186533 0
-0.48373359 -1.0018008 -0.049798675 0
-0.47654295 -1.0257609 -0.050345633 0
-0.45649856 -1.0316705 -0.050110348 0
-0.44243723 -1.0462488 -0.050260026 0
-0.42288566 -1.0525744 -0.050064728 0
-0.37180001 -0.97392708 0.4972567 0
-0.40997237 -1.0691549 -0.050314471 0
-0.35044843 -0.97494084 0.4937087 0
-0.38535488 -1.0670255 -0.049785201 0
-0.33237487 -0.98078316 0.4921788 0
-0.36958885 -1.0789981 -0.049859207 0
-0.30787027 -0.97563487 0.48649016 0
-0.35457623 -1.0923795 -0.049999047 0
-0.29375368 -0.98754007 0.48752126 0
-0.33295476 -1.0942388 -0.04967352 0
-0.27642357 -0.9939068 0.48649824 0
-0.32481784 -1.1202794 -0.05034535 0
-0.2558549 -0.99419731 0.48326111 0
-0.30380017 -1.1230673 -0.050077036 0
-0.22574826 -0.97599941 0.47317988 0
-0.28563583 -1.1309922 -0.050027385 0
-0.20918204 -0.98244852 0.47252834 0
-0.26669419 -1.1372875 -0.049922187 0
-0.1831422 -0.9698028 0.46485937 0
-0.25447792 -1.1573368 -0.050372478 0
-0.16835184 -0.97910899 0.46546969 0
-0.2334462 -1.1592987 -0.050113287 0
-0.15215148 -0.98551649 0.46508041 0
-0.21316327 -1.1624793 -0.049913745 0
-0.1273783 -0.97291559 0.45782661 0
-0.19693853 -1.1745933 -0.050073393 0
-0.11174573 -0.97984642 0.45781893 0
-0.1797796 -1.1847938 -0.050165974 0
-0.09987773 -0.99569231 0.46110249 0
-0.16073896 -1.1905609 -0.050095495 0
-0.06837298 -0.96404725 0.34446418 0
-0.083813682 -1.0019133 0.46096489 0
-0.14139535 -1.1954303 -0.05000015 0
-0.054113016 -0.97342891 0.34533373 0
-0.071122542 -1.0166923 0.46395984 0
-0.12194712 -1.1998421 -0.049897116 0
-0.030815912 -0.95919639 0.14660914 0
-0.032954469 -0.96484357 0.24305108 0
-0.011677368 -0.90865809 0.32601845 0
-0.050833717 -1.0120564 0.46009064 0
-0.10580005 -1.213111 -0.050140422 0
-0.0084111225 -0.94582683 0.14442368 0
-0.010966374 -0.95283967 0.23964064 0
0.0011325942 -0.91963392 0.32750529 0
-0.087037221 -1.2194386 -0.050127797 0
0.011542397 -0.93791586 0.1429016 0
0.0068570538 -0.95129627 0.23829706 0
0.020428078 -0.91254026 0.32414472 0
-0.00457166 -0.98393434 0.44602972 0
-0.068818167 -1.227366 -0.050184403 0
0.023456501 -0.9528138 0.14400049 0
0.02351548 -0.95263845 0.23755097 0
0.02437027 -0.95009512 0.33288127 0
0.01408972 -0.98068362 0.44299176 0
-0.048681393 -1.2294806 -0.050031379 0
0.034906819 -0.96999973 0.14537023 0
0.031055169 -0.9819563 0.24214843 0
0.022412824 -1.0087844 0.34726077 0
0.026798503 -0.99517006 0.44624814 0
-0.02793966 -1.2292775 -0.049801841 0
0.024926202 -1.0577983 0.35899484 0
-0.0083370041 -1.2323792 -0.049705904 0
0.066268161 -0.97910064 0.33672643 0
0.009519862 -1.241457 -0.049841076 0
0.08039026 -0.98918039 0.33820158 0
0.025008427 -1.259773 -0.050325532 0
0.099304989 -0.98190981 0.33513671 0
0.045362219 -1.2603312 -0.050161526 0
0.11976658 -0.9673292 0.33022016 0
0.06306304 -1.2714355 -0.050394706 0
0.084450081 -1.2670785 -0.050069321 0
0.10487579 -1.2661307 -0.049879126 0
0.12284003 -1.2767663 -0.050120603 0
0.1424839 -1.279402 -0.05007913 0
-0.065597638 -2.3868711 0.10230905 0
0.16232754 -1.2807437 -0.049999822 0
0.0026588903 -2.1937451 0.095089845 0
0.18165375 -1.2849504 -0.050033346 0
0.032524928 -2.2058713 0.095339701 0
0.20216885 -1.2813617 -0.049794216 0
0.064278319 -2.2065635 0.095189944 0
0.22174001 -1.2834773 -0.049770344 0
0.097072169 -2.1988702 0.094752729 0
0.24009599 -1.2953293 -0.05010562 0
0.12873738 -2.1978464 0.094570987 0
0.26043439 -1.2914401 -0.049883328 0
0.16055523 -2.1943216 0.094313994 0
0.27953181 -1.2986504 -0.050068662 0
0.1908333 -2.2047167 0.094571024 0
0.29947284 -1.2975357 -0.04996413 0
0.22256775 -2.200211 0.094307557 0
0.3192873 -1.29719 -0.049896214 0
0.25360978 -2.2027524 0.094310872 0
0.33885735 -1.3001772 -0.049956478 0
0.28444237 -2.2089124 0.094457604 0
0.35860509 -1.3003705 -0.049925659 0
0.31619468 -2.1979058 0.094004579 0
0.37831777 -1.301038 -0.049920682 0
0.34716648 -2.2003446 0.094046339 0
0.39808646 -1.2991471 -0.049833208 0
0.37823674 -2.1998751 0.093998156 0
0.41766036 -1.3116832 -0.050269712 0
0.43748599 -1.3054047 -0.050043333 0
0.45711285 -1.2964413 -0.049729954 0
0.47696474 -1.3031117 -0.049983662 0
0.49659804 -1.2999933 -0.049896661 0
0.51607257 -1.2949992 -0.049751382 0
0.53620183 -1.3013995 -0.050022431 0
0.55545092 -1.2941668 -0.0498146 0
0.57579011 -1.3004155 -0.050098535 0
0.59477878 -1.2917495 -0.049856663 0
0.61363417 -1.283385 -0.049633864 0
0.63492787 -1.295005 -0.050138693 0
0.65209013 -1.2751105 -0.049517605 0
0.67202646 -1.2758886 -0.049650002 0
0.69496018 -1.2938844 -0.05041511 0
0.71280658 -1.2807913 -0.050064415 0
0.73146588 -1.2731591 -0.049919635 0
0.75099862 -1.2702228 -0.04995425 0
0.77086306 -1.2686621 -0.050048236 0
0.78992826 -1.2633798 -0.050015204 0
0.80881006 -1.2574397 -0.049966693 0
0.82848334 -1.2546597 -0.050043371 0
0.84692985 -1.2471882 -0.049955793 0
0.86771917 -1.248071 -0.050186872 0
0.88832152 -1.2477579 -0.050383989 0
0.90401769 -1.2314069 -0.049991228 0
0.92489338 -1.2316703 -0.050228707 0
0.93866932 -1.2107158 -0.049676258 0
0.95828044 -1.2072438 -0.049790662 0
0.97684693 -1.2007195 -0.049798734 0
1.0000383 -1.2061549 -0.050273448 0
0.92382181 -1.0086585 0.45997366 0
1.0161697 -1.1930512 -0.050048791 0
0.94519317 -1.0158099 0.46478957 0
1.035365 -1.1877329 -0.050131738 0
0.96192622 -1.0108304 0.4653576 0
1.0565752 -1.1869447 -0.050400551 0
0.96882254 -0.98285788 0.45767802 0
1.0695847 -1.1672531 -0.049942609 0
0.98762584 -0.98306686 0.46024898 0
1.0885485 -1.1612666 -0.050027024 0
1.0043485 -0.97828215 0.46109253 0
1.1060715 -1.1521037 -0.049995799 0
1.0233877 -0.97821444 0.46375614 0
1.1277621 -1.1514715 -0.050312415 0
1.037624 -0.96790153 0.46272767 0
1.1451831 -1.1419127 -0.050284684 0
1.0655355 -0.98474091 0.47188631 0
1.1587191 -1.1249566 -0.049967583 0
1.0824913 -0.97911698 0.47280428 0
1.1788918 -1.1207827 -0.050173584 0
1.1028125 -0.97958678 0.47611177 0
1.1915054 -1.1026871 -0.049822889 0
1.1300493 -0.99199122 0.057302698 0
1.1261724 -0.98500818 0.15957485 0
1.1327446 -0.99684602 0.26616225 0
1.132722 -0.99680549 0.37402919 0
1.1348225 -1.0005888 0.48735267 0
1.2115798 -1.0981323 -0.050033025 0
1.1466479 -0.98456913 0.057362739 0
1.1391751 -0.9714995 0.15899599 0
1.1423059 -0.97697514 0.26388648 0
1.1466076 -0.9844988 0.37303275 0
1.1555268 -1.0000978 0.4905917 0
1.2332963 -1.0960689 -0.050358377 0
1.1642537 -0.97876912 0.057499055 0
1.1604799 -0.97235769 0.16022475 0
1.1618863 -0.97474712 0.26531103 0
1.1631087 -0.97682375 0.37345159 0
1.1646942 -0.97951752 0.48619971 0
1.2431803 -1.0740207 -0.049863439 0
1.2640442 -1.0702503 -0.050138641 0
1.2799298 -1.0583434 -0.050082188 0
1.2934219 -1.0428686 -0.049881261 0
1.3114421 -1.0343322 -0.04998501 0
1.3293346 -1.0254785 -0.050085701 0
1.3421124 -1.0093347 -0.049877327 0
1.3638854 -1.0057008 -0.050227944 0
1.3734426 -0.9854247 -0.049850386 0
1.390619 -0.97543842 -0.049938817 0
1.4087169 -0.96650869 -0.050086081 0
1.2102038 -0.71619892 0.050680511 0
1.2096989 -0.71556228 0.14041156 0
1.4221071 -0.95162445 -0.049971215 0
1.2089527 -0.68969613 0.049914896 0
1.2109089 -0.69209993 0.13852726 0
1.4349395 -0.93619376 -0.049837526 0
1.21337 -0.67082113 0.04949522 0
1.2110296 -0.66801804 0.13653842 0
1.4497042 -0.92315918 -0.049822576 0
1.204513 -0.63689959 0.048366301 0
1.2094119 -0.64261901 0.13434187 0
1.470901 -0.91745669 -0.050164692 0
1.2080592 -0.61829793 0.047947612 0
1.2064749 -0.61649477 0.13201424 0
1.4753759 -0.89283305 -0.049614143 0
1.207123 -0.59515995 0.047308266 0
1.2029176 -0.59049314 0.12967248 0
1.4987286 -0.88920218 -0.050080426 0
1.508857 -0.87113708 -0.049856652 0
1.5232358 -0.85766643 -0.049865186 0
1.5389949 -0.84556741 -0.049952049 0
1.5489217 -0.82767314 -0.049754228 0
1.568112 -0.81880361 -0.050027002 0
1.57611 -0.7992571 -0.049756385 0
1.5946207 -0.78949779 -0.050007436 0
1.6078269 -0.77480787 -0.050008811 0
1.6163896 -0.75610954 -0.049800061 0
1.6305897 -0.74233669 -0.049867436 0
1.6402702 -0.72479671 -0.049733605 0
1.6498502 -0.70729333 -0.049606659 0
1.678124 -0.70443922 -0.050336462 0
1.6823044 -0.68267792 -0.049981721 0
1.6965989 -0.66868937 -0.050091285 0
1.7071072 -0.65188003 -0.050041169 0
1.722393 -0.63845396 -0.050208952 0
1.7303356 -0.61987758 -0.050065398 0
1.7399403 -0.602521 -0.050004307 0
1.7462689 -0.58309859 -0.049813841 0
1.7580402 -0.5672459 -0.04986462 0
1.7720853 -0.55273461 -0.050018478 0
1.7848608 -0.53734082 -0.050126113 0
1.7845812 -0.51433665 -0.049703117 0
1.8072357 -0.50449795 -0.050233133 0
1.8000958 -0.47805515 -0.04955424 0
1.8166348 -0.46462169 -0.049848773 0
1.8284878 -0.44855824 -0.049960367 0
1.8375729 -0.43103352 -0.049969096 0
1.8532737 -0.41666982 -0.050248459 0
1.8586048 -0.39727423 -0.050125219 0
1.8743784 -0.3826566 -0.050420884 0
1.8824761 -0.36447909 -0.050423417 0
1.8826172 -0.34296378 -0.050126854 0
1.8902829 -0.32471135 -0.050131992 0
1.892 -0.30413452 -0.049918022 0
1.8948205 -0.28412947 -0.049757034 0
1.9114081 -0.269209 -0.050128877 0
1.9029372 -0.2453215 -0.049559377 0
1.9184368 -0.22982638 -0.04990546 0
1.9339303 -0.21406989 -0.050257262 0
1.9349766 -0.19364642 -0.050075907 0
1.9427522 -0.17531212 -0.050155025 0
1.9420881 -0.15457438 -0.049929742 0
1.9600945 -0.13892703 -0.050404258 0
1.9482354 -0.11544738 -0.049785342 0
1.9597111 -0.097949333 -0.050035339 0
1.9641697 -0.078695662 -0.050035987 0
1.9637775 -0.058415782 -0.049868502 0
1.9877248 -0.043064665 -0.050596505 0
1.9705428 -0.019594323 -0.049836658 0
1.9691627 0.00062312622 -0.049661566 0
1.9838309 0.018171716 -0.050076153 0
1.9855663 0.037904892 -0.050031357 0
1.9785342 0.058775309 -0.049679827 0
1.9916205 0.076981045 -0.05006171 0
1.9989899 0.096075036 -0.050246038 0
1.9936588 0.11650576 -0.049983319 0
1.9962013 0.13610783 -0.05001213 0
2.003309 0.15541677 -0.050213136 0
2.0068977 0.17507045 -0.050296862 0
1.9996163 0.19526576 -0.050000928 0
2.0026984 0.21492903 -0.050084375 0
1.9961536 0.23483615 -0.049832892 0
1.9940091 0.25454131 -0.049747478 0
2.00507 0.27427247 -0.05014237 0
2.0039814 0.29405585 -0.050112404 0
1.9934151 0.31352279 -0.049752787 0
1.9990298 0.33345252 -0.04997997 0
2.0004687 0.35330901 -0.050066967 0
1.9929965 0.37261206 -0.049844082 0
1.9954344 0.39257339 -0.049984664 0
1.9892722 0.41182289 -0.049826011 0
1.9917281 0.43188891 -0.049985286 0
1.9864194 0.45113796 -0.049874689 0
1.9983033 0.47259787 -0.050391823 0
1.9789848 0.48987952 -0.049793903 0
1.9720809 0.50870764 -0.049651414 0
1.9760556 0.52930415 -0.049911249 0
1.9801512 0.55011249 -0.050185487 0
1.9735825 0.56901306 -0.050081834 0
1.9770513 0.58995801 -0.050352804 0
1.9629116 0.60715801 -0.049989957 0
1.9529709 0.62509435 -0.049788028 0
1.9487679 0.64432496 -0.049804941 0
1.9488505 0.66470259 -0.049989078 0
1.9490368 0.685247 -0.050187193 0
1.9367959 0.70232219 -0.049933553 0
1.9387726 0.72354776 -0.050217588 0
1.9235147 0.73949492 -0.049866986 0
1.9263824 0.76121318 -0.050204411 0
1.9211851 0.78039104 -0.050248884 0
1.9027572 0.79483187 -0.049800545 0
1.907491 0.81762636 -0.050240166 0
1.8853532 0.83028954 -0.049663357 0
1.8770159 0.84809422 -0.049621135 0
1.8699341 0.86639577 -0.049635936 0
1.8773525 0.89100105 -0.050224032 0
1.8709399 0.90985763 -0.050286327 0
1.855249 0.92446142 -0.049993146 0
1.8410604 0.9395594 -0.04976492 0
1.8346511 0.95833153 -0.049852706 0
1.8365198 0.98140448 -0.050282355 0
1.8245417 0.99753034 -0.050167821 0
1.8124311 1.013496 -0.050055336 0
1.7973278 1.0277005 -0.049827836 0
1.7887359 1.0454737 -0.049874287 0
1.7754364 1.0604978 -0.049734965 0
1.7641957 1.0766661 -0.04968854 0
1.7543701 1.0936874 -0.049709942 0
1.7466266 1.1120735 -0.049829043 0
1.7323201 1.1262125 -0.049677886 0
1.7186825 1.1406819 -0.049561981 0
1.7121068 1.1599983 -0.049760696 0
1.7112809 1.1836245 -0.05022468 0
1.6986145 1.1989213 -0.050180722 0
1.6784328 1.2084882 -0.049808301 0
1.6734115 1.2295181 -0.050123323 0
1.6626323 1.2462401 -0.050190542 0
1.6422597 1.2551703 -0.049825411 0
1.6338862 1.2738509 -0.050021164 0
1.6215359 1.28929 -0.050042633 0
1.611197 1.3065317 -0.050169408 0
1.5953246 1.3188803 -0.050041359 0
1.5784237 1.3301532 -0.049869191 0
1.5681468 1.347581 -0.050028723 0
1.5493991 1.3568845 -0.049778074 0
1.5306803 1.3659707 -0.04953159 0
1.5230606 1.3862302 -0.049856212 0
1.5107111 1.4018371 -0.049952865 0
1.0207818 0.88496304 0.29047954 0
1.4990658 1.418311 -0.050098155 0
1.0521681 0.93478423 0.30971691 0
1.4803094 1.4270518 -0.049877245 0
1.4490533 1.3923677 0.060210366 0
1.4473366 1.3904628 0.16891038 0
1.4422728 1.3848436 0.2780225 0
1.050984 0.95064062 0.31334797 0
1.4738593 1.4495678 -0.050324708 0
1.4193984 1.3875821 0.059378926 0
1.4128036 1.3800761 0.16560936 0
1.4185566 1.3866239 0.27541906 0
1.0546379 0.97242254 0.31956992 0
1.4536282 1.4564846 -0.050037928 0
1.3844285 1.3756943 0.058240201 0
1.3960316 1.3892409 0.16517219 0
1.3820199 1.3728822 0.26922894 0
1.0625439 0.99989551 0.32819787 0
1.4395944 1.4705131 -0.050096821 0
1.3644313 1.3804907 0.057909939 0
1.3738229 1.3917389 0.16383596 0
1.370784 1.3880992 0.27001595 0
1.0512331 1.0053746 0.32715982 0
1.4202808 1.4781245 -0.049867921 0
1.3426907 1.3827802 0.057479311 0
1.3428378 1.382961 0.16098991 0
1.3446597 1.3851997 0.26661557 0
1.0584478 1.033497 0.3359063 0
1.4106756 1.4977226 -0.050198615 0
1.3231435 1.3873514 0.05716946 0
1.322816 1.3869385 0.1599755 0
1.3165069 1.378983 0.2625615 0
1.0558449 1.0503083 0.33972424 0
1.3947771 1.5095632 -0.050181586 0
1.295256 1.3807769 0.056370892 0
1.3013352 1.3886439 0.15869674 0
1.3009547 1.3881514 0.26213452 0
1.048377 1.0613003 0.34107223 0
1.3712322 1.5112326 -0.049719173 0
1.2851632 1.3969073 0.056610253 0
1.277498 1.3867255 0.15697914 0
1.2687227 1.3750694 0.25673309 0
1.0395089 1.070605 0.3417443 0
1.3570433 1.5251144 -0.049814861 0
1.2545273 1.3853135 0.055625677 0
1.2581081 1.3901967 0.15603575 0
1.2540191 1.3846204 0.25653416 0
1.0273923 1.0755692 0.34066573 0
1.346032 1.5435677 -0.050118119 0
1.2411844 1.3967454 0.055677049 0
1.2485834 1.4071065 0.1569079 0
1.2481793 1.4065406 0.25911939 0
1.0219342 1.0897206 0.34341538 0
1.3252639 1.5483677 -0.049831111 0
1.245344 1.4334196 0.056832902 0
1.2475322 1.4365667 0.15943095 0
1.2447602 1.4325796 0.26260307 0
1.0163764 1.1040968 0.34626007 0
1.3062063 1.5553398 -0.049651496 0
1.2458869 1.4662091 0.057809219 0
1.2479758 1.4692956 0.16235849 0
1.2458316 1.4661273 0.26770175 0
1.0039173 1.1086631 0.34516805 0
1.2919455 1.569371 -0.049785428 0
1.2483592 1.5031855 0.058956165 0
1.2510294 1.5072402 0.1659323 0
1.2341431 1.4815985 0.26885191 0
1.1778287 1.3960853 0.35172287 0
0.99706572 1.1215976 0.3474814 0
1.2804122 1.5878407 -0.050114114 0
1.2478998 1.5370909 0.059962362 0
1.2411666 1.5265807 0.167098 0
1.2254585 1.5020616 0.27109364 0
1.1508967 1.3856754 0.34575251 0
0.98914194 1.1331869 0.34927887 0
1.2594168 1.5915673 -0.049826227 0
1.2438748 1.5666212 0.060776912 0
1.2450552 1.5685157 0.17113131 0
1.2039934 1.5026087 0.26910931 0
1.1339273 1.3901473 0.34440458 0
0.9730829 1.1319798 0.34608558 0
1.2445772 1.6050713 -0.049959704 0
1.1975976 1.5275064 0.2723316 0
1.1096842 1.3823581 0.33947361 0
0.9661144 1.1453189 0.34865344 0
0.83676678 0.93176126 0.46873161 0
1.2274675 1.6149105 -0.049948145 0
1.1751978 1.5261068 0.27004376 0
1.0893446 1.3802465 0.33635065 0
0.95831788 1.1576384 0.35084271 0
0.84066558 0.95775306 0.48315182 0
1.208935 1.6222509 -0.049842801 0
1.1564494 1.5304557 0.26902542 0
1.0708656 1.3807733 0.33410099 0
0.9421435 1.1556433 0.34756818 0
0.84779948 0.99063963 0.35238335 0
0.83611274 0.97019994 0.41280523 0
0.84161371 0.97982091 0.4947544 0
1.1972759 1.6418253 -0.050247315 0
1.1441779 1.5461842 0.27041033 0
1.0571787 1.3894794 0.33432201 0
0.93196619 1.1639441 0.34831208 0
0.84915209 1.0147778 0.36136547 0
0.83732301 0.99347085 0.42324665 0
0.84084308 0.99981129 0.50485879 0
1.1797367 1.651095 -0.050237179 0
1.1271574 1.5535128 0.27009687 0
1.0332435 1.3792171 0.32909441 0
0.92513561 1.1785791 0.35149333 0
0.8501845 1.0394768 0.37054265 0
0.8396678 1.0199587 0.43543717 0
0.84020466 1.0209551 0.51567847 0
1.1589139 1.6540735 -0.049982596 0
1.1116337 1.5636166 0.27039397 0
1.0159127 1.3804821 0.32730657 0
0.91503847 1.1874886 0.3525368 0
0.85263562 1.0680988 0.3814863 0
0.8424564 1.0486238 0.44876015 0
0.84021908 1.0443434 0.52793449 0
1.1444108 1.6691331 -0.050223693 0
1.0939531 1.5695627 0.26988822 0
0.99837112 1.3809465 0.32536379 0
0.89887685 1.1846101 0.34922463 0
0.84688151 1.0820054 0.38551563 0
0.84253246 1.0734233 0.45981041 0
0.84030169 1.0690212 0.54096997 0
1.1258241 1.6762688 -0.050155435 0
1.078054 1.5789831 0.27012849 0
0.98423862 1.3879241 0.32534721 0
0.88769394 1.1913069 0.34955746 0
0.84839857 1.1112803 0.39664239 0
0.83826476 1.0906425 0.46656671 0
0.84452868 1.103399 0.56033289 0
1.1036656 1.6757882 -0.049795777 0
0.96533889 1.3848779 0.32254937 0
0.87409395 1.1929839 0.3480911 0
0.83795804 1.1169877 0.39688924 0
0.83924949 1.1197038 0.47987342 0
0.84056282 1.1224657 0.56949079 0
1.0829364 1.6778144 -0.04954771 0
0.9426837 1.3730159 0.31735882 0
0.8631202 1.2001077 0.3486909 0
0.83995378 1.1497622 0.409531 0
0.84309167 1.1565815 0.49740142 0
0.83887511 1.147418 0.58247077 0
1.0729995 1.7036713 -0.050242476 0
0.93296736 1.3889771 0.32004684 0
0.85109144 1.2049773 0.34851694 0
0.84073764 1.1817092 0.42171577 0
0.843606 1.1881553 0.51190025 0
0.83837515 1.1763999 0.59800768 0
1.0501014 1.7006328 -0.049815442 0
0.91219127 1.3798944 0.31579933 0
0.85399818 1.2445543 0.36096805 0
0.83897656 1.2096184 0.4320105 0
0.83777398 1.2068216 0.51928753 0
0.83947235 1.2107714 0.61694407 0
1.0335366 1.7120726 -0.049961481 0
0.8947559 1.3777719 0.31356907 0
0.85020477 1.2704552 0.36841455 0
0.83957589 1.2448518 0.4455449 0
0.84034556 1.2467059 0.53817075 0
0.83843011 1.2420918 0.63381362 0
1.0154513 1.7200016 -0.049979802 0
0.88251293 1.3880302 0.31481314 0
0.8499344 1.3066756 0.37953907 0
0.84170103 1.2861155 0.46169737 0
0.84068072 1.2835675 0.55531251 0
0.83750242 1.2756307 0.65202397 0
0.99673605 1.7263422 -0.049945991 0
0.86335009 1.380705 0.31128487 0
0.84984785 1.3457172 0.39161697 0
0.84080976 1.3222973 0.47550434 0
0.84284234 1.3275641 0.57619536 0
0.83949929 1.3189014 0.67633986 0
0.97970033 1.7371442 -0.050091252 0
0.84814644 1.3830436 0.31046912 0
0.84391332 1.3716495 0.39898625 0
0.84063148 1.3628159 0.49116737 0
0.83769131 1.3549018 0.58807451 0
0.84205037 1.3666351 0.70334977 0
0.9621824 1.7469102 -0.050204735 0
0.82966858 1.3759851 0.30716312 0
0.83825356 1.4000157 0.40720877 0
0.83664942 1.3955255 0.50332773 0
0.84262782 1.4122598 0.61588496 0
0.94055343 1.7449511 -0.049883518 0
0.81587064 1.381568 0.30734399 0
0.84087408 1.4544395 0.42458633 0
0.84157544 1.4564835 0.52782291 0
0.84299546 1.4606223 0.63878423 0
0.9248513 1.7602866 -0.050223898 0
1.0274061 2.0719063 0.34918621 0
0.80060905 1.3827679 0.30639368 0
0.83995587 1.5023259 0.43959069 0
0.84134883 1.5065587 0.54744595 0
0.84211701 1.5088928 0.66153789 0
0.90292257 1.7566767 -0.049861174 0
1.0041255 2.0777481 0.34890163 0
0.78549832 1.3841425 0.30554539 0
0.8397252 1.5561799 0.45662135 0
0.8407743 1.5595083 0.56824052 0
0.8395496 1.5556227 0.68339908 0
0.88314271 1.7593205 -0.049743321 0
0.98483342 2.0966978 0.35114253 0
0.7685076 1.3789976 0.30301386 0
0.84217459 1.6234013 0.47823346 0
0.83915293 1.6133765 0.5893566 0
0.86418444 1.7645303 -0.049730495 0
0.9596805 2.0964239 0.34981334 0
0.75370675 1.3805687 0.30233136 0
0.84073734 1.6830406 0.49713182 0
0.84113973 1.6844392 0.61781317 0
0.84771484 1.7787956 -0.050061785 0
0.74066067 1.3882945 0.047605995 0
0.73862165 1.3808568 0.13041504 0
0.73920226 1.3829746 0.21518208 0
0.74027944 1.3869038 0.3029609 0
0.83823395 1.7442122 0.51649988 0
0.83751166 1.7415776 0.64018303 0
0.82804388 1.7817178 -0.049981162 0
0.72368163 1.3813307 0.047209229 0
0.72379708 1.3817738 0.1300987 0
0.72376257 1.3816414 0.21423049 0
0.7245791 1.384774 0.3014012 0
0.83054334 1.791307 0.53097564 0
0.83087432 1.7925769 0.65987247 0
0.80974418 1.7899621 -0.050105639 0
0.70758116 1.3767643 0.046909735 0
0.71184856 1.3940239 0.13105868 0
0.71060234 1.3889835 0.21492974 0
0.70991784 1.3862151 0.30083692 0
0.8258912 1.8552686 0.55122018 0
0.82506591 1.8519307 0.68309963 0
0.78763384 1.7823157 -0.049655583 0
0.69489038 1.3858565 0.047119357 0
0.69395131 1.3818421 0.1293359 0
0.69582212 1.3898394 0.21445632 0
0.69384891 1.3814043 0.29868457 0
0.81770468 1.9108627 0.56856614 0
0.76857668 1.7870461 -0.049669463 0
0.67900145 1.3811532 0.046829887 0
0.67978698 1.3847127 0.12929933 0
0.6796515 1.3840988 0.21280031 0
0.68016827 1.3864405 0.29916391 0
0.80419201 1.9484298 0.57975745 0
0.75109237 1.7994189 -0.049970727 0
0.66531187 1.386055 0.046898693 0
0.6652348 1.3856834 0.12907393 0
0.66714936 1.3949095 0.21423483 0
0.66512889 1.3851731 0.29804441 0
0.79041243 1.9888966 0.5919627 0
0.7311886 1.800477 -0.04986776 0
0.65030921 1.3844689 0.046737649 0
0.64935863 1.3795797 0.12809466 0
0.64973944 1.3815384 0.21125194 0
0.6505307 1.385608 0.2974194 0
0.77719098 2.0370929 0.60681677 0
0.71219766 1.8061783 -0.049942605 0
0.63573384 1.3846148 0.046646677 0
0.63615942 1.3869613 0.12861237 0
0.63405073 1.3753358 0.20963003 0
0.63523072 1.3818411 0.29575402 0
0.76293212 2.0858896 0.62189615 0
0.69175327 1.8035858 -0.049725685 0
0.62103242 1.3836402 0.046521977 0
0.62037575 1.3797405 0.12755571 0
0.62050521 1.3805095 0.21012832 0
0.61941117 1.3740129 0.29309133 0
0.74564242 2.1235838 0.63325864 0
0.6735003 1.8141119 -0.049992487 0
0.60624337 1.3815436 0.046363689 0
0.60579365 1.3786513 0.12718964 0
0.60666358 1.3842463 0.21039455 0
0.60566205 1.3778049 0.29348558 0
0.72818255 2.1658053 0.64619654 0
0.65428746 1.8192621 -0.050073236 0
0.59151071 1.3790678 0.046198722 0
0.59375685 1.3948181 0.12871744 0
0.59044504 1.3715954 0.20770666 0
0.59124845 1.3772286 0.29279804 0
0.708565 2.1998599 0.65644062 0
0.63418585 1.8180318 -0.049932864 0
0.57680905 1.3759443 0.046017397 0
0.57746702 1.3810139 0.12701119 0
0.57813346 1.3861489 0.21000777 0
0.57712257 1.3783599 0.29259768 0
0.68835467 2.2354019 0.66724992 0
0.61473054 1.8214997 -0.049970683 0
0.56341398 1.3829067 0.046205532 0
0.56286007 1.378173 0.12651592 0
0.56445265 1.391784 0.21071427 0
0.56384921 1.3866267 0.29427627 0
0.66671574 2.2658079 0.67640823 0
0.59471899 1.8199203 -0.049836081 0
0.55192852 1.409487 0.12973171 0
0.55332834 1.4229138 0.21607396 0
0.5514347 1.4047506 0.29852402 0
0.64503872 2.302572 0.68777251 0
0.57575351 1.8287604 -0.050084215 0
0.55165303 1.5654951 0.14641547 0
0.5530948 1.5812445 0.2444893 0
0.55331087 1.5836046 0.34398586 0
0.62264311 2.3409665 0.6997596 0
0.55641139 1.83509 -0.050250757 0
0.60309863 2.4271069 0.2391492 0
0.59848219 2.3685684 0.38666728 0
0.59792525 2.3615062 0.5427072 0
0.53584242 1.8247148 -0.049828187 0
0.57421142 2.4042768 0.39277384 0
0.57334632 2.3912096 0.54981214 0
0.51676291 1.8366315 -0.050212163 0
0.54844689 2.4281197 0.39678851 0
0.54755086 2.4113927 0.55455899 0
0.49689233 1.8359247 -0.050153468 0
0.52217299 2.4533288 0.4011063 0
0.52184737 2.4453759 0.56291014 0
0.47697675 1.8322794 -0.049998786 0
0.45657927 1.1125349 0.35731089 0
0.45652157 1.1104991 0.42952138 0
0.45737073 1.8415685 -0.050314918 0
0.44595957 1.1166831 0.35893115 0
0.44578806 1.1057881 0.42704645 0
0.43750712 1.8408513 -0.05028262 0
0.4351345 1.0874562 0.41782415 0
0.43509537 1.0750259 0.48675895 0
0.41778779 1.8269312 -0.049787864 0
0.42477223 1.0872583 0.41774145 0
0.42483005 1.0811348 0.49040103 0
0.39801928 1.8309402 -0.04994208 0
0.41409853 1.101307 0.35260531 0
0.41408208 1.1020538 0.42522761 0
0.41474628 1.0719135 0.48502707 0
0.37806204 1.8371655 -0.050184429 0
0.35250467 2.5749805 0.42296511 0
0.35233817 2.5797875 0.5970909 0
0.40526012 1.0519842 0.47337189 0
0.3583504 1.8345047 -0.050118305 0
0.32239461 2.5954404 0.42687419 0
0.32246113 2.5940328 0.60103416 0
0.39545244 1.049311 0.47202584 0
0.33856946 1.8337293 -0.050128434 0
0.29148638 2.6200209 0.43159914 0
0.29216668 2.60866 0.60517418 0
0.31924295 1.8265456 -0.0499181 0
0.2618593 2.6177521 0.43154383 0
0.26169226 2.620055 0.6085887 0
0.2992135 1.8293239 -0.050073199 0
0.22927219 2.6502619 0.43785092 0
0.23019461 2.6394348 0.61414969 0
0.27915424 1.8312516 -0.050207023 0
0.19848089 2.65534 0.43926919 0
0.19823393 2.6578624 0.61957508 0
0.26118407 1.8134074 -0.049639907 0
0.16742207 2.6609914 0.44086382 0
0.16696866 2.6650901 0.62223631 0
0.34623286 1.0445883 0.47152814 0
0.24050382 1.8207682 -0.049986724 0
0.13497214 2.6760602 0.44424316 0
0.13426642 2.6817799 0.62743521 0
0.22104028 1.8173594 -0.049955465 0
0.14026804 2.4104419 0.083324738 0
0.10300772 2.6840317 0.44641083 0
0.10340233 2.681134 0.62828529 0
0.20202792 1.8110515 -0.049828347 0
0.11917453 2.3669715 0.081894621 0
0.069208845 2.7022254 0.45051983 0
0.07010065 2.6962419 0.63330078 0
0.18037857 1.8215693 -0.050318144 0
0.093739942 2.3565922 0.081667967 0
0.037353262 2.7047989 0.45186114 0
0.036032572 2.7129548 0.63884962 0
0.16350247 1.8027695 -0.04975633 0
0.071383134 2.3295171 0.080847308 0
0.0019941793 2.7262902 0.45674232 0
0.0018992589 2.7268329 0.6437875 0
0.1442409 1.7987949 -0.049739432 0
0.010012733 2.5131955 0.087690741 0
-0.028484417 2.7180884 0.45626786 0
-0.030425591 2.7284198 0.64565778 0
0.1242453 1.7985177 -0.049865957 0
-0.087055698 2.8499918 0.10015542 0
-0.090900615 2.8691251 0.29152736 0
-0.061575785 2.7231989 0.45831159 0
-0.061926797 2.7249458 0.64632148 0
0.10471968 1.795604 -0.049905743 0
-0.0207213 2.3815281 0.083298013 0
-0.11203785 2.8080599 0.28556308 0
-0.09407492 2.7241566 0.45967165 0
-0.094554558 2.7263968 0.64837545 0
0.08417277 1.7970428 -0.050113987 0
-0.053946689 2.4047067 0.084361717 0
-0.14181729 2.7912979 0.28449365 0
-0.12819214 2.7313535 0.4622651 0
-0.12861802 2.7332273 0.65195 0
0.064391837 1.7946564 -0.05019189 0
-0.079379216 2.3922665 0.084136076 0
-0.17608161 2.7942276 0.28563902 0
-0.16314484 2.7404537 0.46529907 0
-0.16247948 2.7376878 0.65502602 0
0.046890512 1.7830569 -0.049939841 0
-0.14778538 2.5496845 0.090178102 0
-0.21297736 2.8064084 0.28786156 0
-0.19442184 2.7333372 0.46540704 0
-0.19542147 2.7372737 0.65694076 0
0.0280066 1.7773043 -0.049911149 0
-0.1441306 2.4210839 0.085702345 0
-0.25129008 2.821852 0.29050618 0
-0.22691508 2.7306912 0.46642336 0
-0.22776754 2.7338796 0.65818429 0
0.0093978215 1.7706356 -0.049857188 0
-0.25836486 2.7237875 0.46672219 0
-0.26030725 2.7307022 0.65959746 0
-0.011279 1.7711114 -0.050077628 0
-0.29334491 2.7287033 0.4693186 0
-0.29180634 2.72348 0.66004884 0
-0.029717607 1.7637887 -0.050017297 0
-0.32922041 2.7352755 0.47232071 0
-0.32944334 2.7359984 0.66587806 0
-0.046706781 1.7520951 -0.049801465 0
-0.35679471 2.7146945 0.47027558 0
-0.35581619 2.7116568 0.66197771 0
-0.065845117 1.7472643 -0.049851231 0
-0.39074576 2.7139671 0.47206509 0
-0.39349174 2.7221375 0.66752255 0
-0.086710885 1.7472508 -0.050092544 0
-0.42565757 2.7152116 0.47432089 0
-0.42304915 2.7077625 0.66650093 0
-0.10693868 1.7449803 -0.050259165 0
-0.45788264 2.7081475 0.47507635 0
-0.45808244 2.7086957 0.66973221 0
-0.12003745 1.7235436 -0.049704608 0
-0.48753947 2.6939888 0.47454539 0
-0.4892171 2.6984189 0.67004073 0
-0.14302363 1.7283158 -0.050159018 0
-0.51896 2.6845045 0.47498977 0
-0.51987261 2.6868258 0.67009723 0
-0.15550514 1.70647 -0.049600631 0
-0.54978681 2.6733863 0.47519508 0
-0.55109483 2.676594 0.6706351 0
-0.17515536 1.702594 -0.049741808 0
-0.58223534 2.6660192 0.47621173 0
-0.5792582 2.6589732 0.66923797 0
-0.19430323 1.6973133 -0.04983864 0
-0.61193204 2.6519942 0.47600359 0
-0.61455357 2.6579869 0.67256391 0
-0.21714033 1.7000118 -0.05025813 0
-0.63932967 2.6329467 0.47487387 0
-0.64105928 2.6367688 0.67036718 0
-0.23136307 1.6835898 -0.04993777 0
-0.66906154 2.6192493 0.47487116 0
-0.67563486 2.6333008 0.67325097 0
-0.25137758 1.6796653 -0.050118085 0
-0.69709563 2.6020272 0.47423723 0
-0.69766891 2.6032135 0.6687324 0
-0.2705006 1.6736619 -0.05022661 0
-0.72704291 2.5888271 0.47448084 0
-0.72774577 2.5902359 0.6691426 0
-0.28637773 1.6611779 -0.050085265 0
-0.75597858 2.5735755 0.47438619 0
-0.75100195 2.5639064 0.66583252 0
-0.30004781 1.6447412 -0.049791273 0
-0.78404284 2.5566993 0.47403333 0
-0.78627324 2.5609021 0.66932172 0
-0.3170113 1.6347512 -0.049764566 0
-0.8145715 2.5444207 0.47469553 0
-0.80924821 2.5346882 0.66621441 0
-0.33821261 1.6323147 -0.050055917 0
-0.61829019 2.1293988 0.082425557 0
-0.83954859 2.52209 0.4733609 0
-0.8393122 2.5216706 0.66703373 0
-0.34756482 1.6090382 -0.049500227 0
-0.61812186 2.0753956 0.080748834 0
-0.85975885 2.4919038 0.47044393 0
-0.85850322 2.4897397 0.66239172 0
-0.37704438 1.6202285 -0.050378397 0
-0.61582291 2.020123 0.079006568 0
-0.88406503 2.4693618 0.46916395 0
-0.88683856 2.4740067 0.6625995 0
-0.38531703 1.5957081 -0.049782615 0
-0.6202296 1.9781059 0.077804975 0
-0.90938163 2.448796 0.46835682 0
-0.91095173 2.4513521 0.66084278 0
-0.40892178 1.5962362 -0.050244253 0
-0.62139511 1.9325377 0.076446168 0
-0.94135427 2.438967 0.46990141 0
-0.93834591 2.4342053 0.66082555 0
-0.41967779 1.57638 -0.049854483 0
-0.61443186 1.8762072 0.074618652 0
-0.95727122 2.4040143 0.466142 0
-0.96462262 2.4153321 0.66038746 0
-0.43829006 1.568781 -0.04999337 0
-0.6212976 1.8429056 0.073760509 0
-0.9782021 2.3775084 0.46422574 0
-0.97677028 2.3753636 0.65357548 0
-0.45151407 1.5531484 -0.049795762 0
-0.61519408 1.7917608 0.07212615 0
-1.0024462 2.3562963 0.46350807 0
-1.0009085 2.3540547 0.65252459 0
-0.46842784 1.5429887 -0.049842656 0
-0.62277758 1.7620348 0.071409337 0
-1.0241592 2.3316576 0.46209502 0
-1.0182822 2.3233171 0.64861602 0
-0.48274451 1.5291783 -0.049738444 0
-0.61661482 1.7141693 0.069890775 0
-0.61933541 1.7179288 0.19882502 0
-1.038023 2.2965 0.45838797 0
-1.047918 2.3101735 0.65028113 0
-0.07976301 0.97231072 0.44322807 0
-0.50716919 1.5290898 -0.050251555 0
-0.6129477 1.6714525 0.068583503 0
-0.61832309 1.6786871 0.19535972 0
-1.0652646 2.2802067 0.45892358 0
-1.0669589 2.2824867 0.64745742 0
-0.088227168 0.96525359 0.44288495 0
-0.51946211 1.5124942 -0.050042171 0
-0.61772764 1.6413249 0.067826822 0
-0.61763608 1.6412047 0.19209708 0
-1.0770199 2.2434781 0.4549067 0
-1.0791844 2.246316 0.64196068 0
-0.094455138 0.95529026 0.44077647 0
-0.53922111 1.50567 -0.050280731 0
-0.6165868 1.6044943 0.066761449 0
-0.61783969 1.6060947 0.18912473 0
-1.0919282 2.2116792 0.45201281 0
-1.0938261 2.2141035 0.63774174 0
-0.10987212 0.95723397 0.44626275 0
-0.55540806 1.4941256 -0.0503169 0
-0.62058306 1.5752524 0.066032127 0
-0.62034082 1.5749508 0.18666928 0
-1.1132158 2.188458 0.45111707 0
-1.1095604 2.183908 0.63420004 0
-0.11922808 0.95118958 0.44680199 0
-0.56381387 1.4730967 -0.049924005 0
-0.61906266 1.5401216 0.065025039 0
-0.61879277 1.5397941 0.18363369 0
-1.1304172 2.1604686 0.44915992 0
-1.1277735 2.1572614 0.63186002 0
-0.14104052 0.96021134 0.45719194 0
-0.57566154 1.4565622 -0.049741965 0
-0.62445283 1.5142572 0.06443955 0
-0.62133062 1.5105652 0.18139718 0
-1.1412224 2.1253314 0.44554442 0
-1.144158 2.1288028 0.62896562 0
-0.14522512 0.94757575 0.45368084 0
-0.58921969 1.4421903 -0.049667154 0
-0.61401725 1.4707751 0.063018158 0
-0.61865377 1.47612 0.17839852 0
-1.1648355 2.1057212 0.44562867 0
-1.1600072 2.1001554 0.62604505 0
-0.61136878 1.4375479 -0.050064575 0
-0.63922477 1.4688534 0.06356062 0
-0.64329505 1.4734275 0.17992906 0
-1.167312 2.0623322 0.44004482 0
-1.1715729 2.0671206 0.62166101 0
-0.62442172 1.4225183 -0.049977932 0
-0.65986538 1.4613549 0.063855067 0
-0.66477013 1.4667292 0.18093933 0
-1.179418 2.0306435 0.4372609 0
-1.1753558 2.0261924 0.61454988 0
-0.63687515 1.4069328 -0.04987108 0
-0.5074783 1.2686858 0.05511082 0
-0.68864131 1.4622396 0.18232629 0
-1.1937671 2.0019133 0.43521219 0
-1.1888108 1.9966183 0.61133868 0
-0.64847612 1.3905637 -0.049731858 0
-0.49969757 1.2355679 0.054061588 0
-0.71726251 1.4622245 0.18444118 0
-1.2019579 1.9671741 0.43168122 0
-1.1974927 1.9625223 0.60654891 0
-0.67064905 1.3850698 -0.050142985 0
-0.51542497 1.2273824 0.054243412 0
-0.7502104 1.4658936 0.18719204 0
-1.203066 1.9259355 0.42648745 0
-1.2089386 1.9319013 0.6029824 0
-0.68989778 1.3762666 -0.050405569 0
-0.5289433 1.2168243 0.054317184 0
-0.77128863 1.4568927 0.18810624 0
-1.220988 1.902367 0.42575905 0
-1.2192702 1.9006654 0.59919924 0
-0.69935596 1.3577442 -0.050184533 0
-0.53314215 1.1971878 0.053934108 0
-0.803002 1.4578625 0.19061553 0
-1.2261591 1.8666165 0.42191702 0
-1.2222738 1.8628635 0.5930028 0
-0.71276712 1.343155 -0.050171491 0
-0.55815375 1.1975225 0.054588508 0
-0.84018755 1.4631741 0.19390133 0
-1.2239473 1.8246425 0.41640335 0
-1.2242972 1.8249723 0.58670366 0
-0.72406018 1.3266287 -0.05006488 0
-0.86491513 1.4559939 0.06889265 0
-0.87072921 1.4613338 0.19617008 0
-1.2373302 1.7980304 0.41490194 0
-1.2343252 1.7952706 0.5834161 0
-0.23766269 0.87990743 0.38276333 0
-0.7308836 1.3061967 -0.049755294 0
-0.900828 1.4583784 0.069899596 0
-0.91017532 1.4667487 0.19970131 0
-1.2366127 1.7590669 0.41008538 0
-1.2275006 1.7509072 0.57452261 0
-0.22706379 0.85503614 0.37259474 0
-0.74729085 1.2944175 -0.04991556 0
-0.93465471 1.4579942 0.070795245 0
-1.235077 1.7202759 0.40524372 0
-1.2352959 1.7204669 0.57086807 0
-0.23278965 0.84523565 0.37168288 0
-0.76881933 1.2868444 -0.050321199 0
-0.98067153 1.4671506 0.072253071 0
-1.2368611 1.6851921 0.40135619 0
-1.2324271 1.6814184 0.56380892 0
-0.23896231 0.835886 0.37109119 0
-0.25823361 0.85228765 0.45985472 0
-0.77134478 1.2631302 -0.049845561 0
-1.0072117 1.4588081 0.072786883 0
-1.2527374 1.6624991 0.40091535 0
-1.2437541 1.6550463 0.56169277 0
-0.25554353 0.83521581 0.37616873 0
-0.79321206 1.2554829 -0.050276544 0
-1.0514826 1.4643131 0.074134193 0
-1.2522187 1.6266229 0.39674315 0
-1.2398834 1.6166489 0.55472136 0
-0.25007093 0.81631416 0.36945686 0
-0.79715121 1.233318 -0.049892791 0
-1.0918581 1.4655343 0.07528799 0
-1.2424879 1.5842241 0.39060119 0
-1.2419682 1.5838146 0.5499109 0
-0.27259016 0.81998628 0.37769252 0
-0.80796981 1.2167718 -0.049834989 0
-1.1214671 1.4574586 0.075945385 0
-1.2501948 1.5562888 0.38860512 0
-1.24558 1.5527458 0.54577166 0
-0.26953995 0.80339384 0.37247777 0
-0.25071979 0.78894472 0.43699706 0
-0.82016516 1.2013025 -0.049848445 0
-1.1545707 1.4514126 0.076756977 0
-1.2461208 1.5198852 0.38405421 0
-1.246845 1.5204269 0.54104877 0
-0.26716429 0.78769976 0.36776921 0
-0.27945423 0.79689169 0.45085743 0
-0.83644581 1.1887937 -0.05005087 0
-1.212041 1.462404 0.078640811 0
-1.2476897 1.4883732 0.38090667 0
-1.2396578 1.4825221 0.53382999 0
-1.2391521 1.4821537 0.69408637 0
-0.26093793 0.76955265 0.36123282 0
-0.2811482 0.78427523 0.44779041 0
-0.84232557 1.1687279 -0.049803156 0
-1.2496074 1.4576422 0.079630576 0
-1.2525247 1.4597117 0.37859744 0
-1.2397522 1.4506512 0.52910322 0
-1.2364305 1.4482949 0.6867758 0
-0.29073858 0.7774474 0.37315953 0
-0.28284752 0.77184969 0.44485182 0
-0.86447823 1.1601087 -0.050274637 0
-1.2860919 1.4512798 0.080567449 0
-1.2496396 1.4261054 0.37469557 0
-1.2376807 1.4178464 0.52387071 0
-1.2504781 1.4266845 0.68648183 0
-0.28445768 0.75954014 0.44198 0
-0.86843729 1.1388559 -0.049964208 0
-1.2794346 1.4151173 0.079644062 0
-1.2795519 1.4151962 0.2277012 0
-1.2431806 1.3907484 0.37014234 0
-1.2424791 1.3902768 0.52092177 0
-1.2415746 1.3896688 0.67709953 0
-0.28752929 0.74838501 0.44010732 0
-0.88589025 1.1266866 -0.050243422 0
-1.2667603 1.3757929 0.078491077 0
-1.2681118 1.3766767 0.22438879 0
-1.2484559 1.3638209 0.3682515 0
-1.2405539 1.3586526 0.51605356 0
-1.2362262 1.3558221 0.66939348 0
-0.29163873 0.73801923 0.43895477 0
-0.89560127 1.1093546 -0.05019933 0
-1.2758541 1.3512765 0.078289427 0
-1.2756914 1.3511729 0.22358748 0
-1.2504383 1.3351066 0.36574465 0
-1.2422298 1.3298842 0.51243401 0
-1.2390234 1.3278443 0.66512966 0
-0.30953449 0.7364912 0.44606471 0
-0.90338683 1.0908643 -0.050083946 0
-1.2906405 1.3304443 0.078341328 0
-1.2850648 1.3269949 0.22305983 0
-1.2445332 1.3019195 0.36166149 0
-1.2491993 1.3048062 0.51053983 0
-1.2414385 1.3000048 0.66088778 0
-0.90229297 1.0671253 -0.049609251 0
-1.3068936 1.310447 0.07846491 0
-1.3192807 1.3178965 0.2256899 0
-1.2486018 1.275391 0.35979638 0
-1.240867 1.2707394 0.50419867 0
-1.2374328 1.2686741 0.65432185 0
-0.92211199 1.0559913 -0.050015192 0
-1.3350283 1.2972871 0.079089351 0
-1.3335086 1.2963991 0.22582702 0
-1.2524252 1.2490164 0.35796377 0
-1.2361164 1.239486 0.49908972 0
-1.2401557 1.2418464 0.65054935 0
-0.92858672 1.0369503 -0.049876224 0
-1.3889452 1.2982503 0.080774568 0
-1.3771464 1.2915531 0.22963105 0
-1.2424455 1.2150968 0.35335094 0
-1.241452 1.2145329 0.49709189 0
-1.2462351 1.2172478 0.64821744 0
-0.94204569 1.0218664 -0.050032716 0
-1.2414907 1.1868817 0.35071668 0
-1.2379577 1.1849347 0.49262756 0
-1.2378193 1.1848584 0.6405136 0
-0.9584204 1.008213 -0.050313924 0
-1.2546562 1.1666303 0.35106081 0
-1.2375442 1.1574793 0.48919269 0
-1.2321435 1.1545912 0.63404953 0
-0.97085285 0.99228799 -0.050441694 0
-1.2672843 1.1460416 0.35134551 0
-1.2356211 1.1296185 0.48544604 0
-1.2420316 1.1329435 0.63360393 0
-0.97098875 0.97007573 -0.050085321 0
-1.2656541 1.1182352 0.34880269 0
-1.2403836 1.1055291 0.48373267 0
-1.2420204 1.106352 0.62957668 0
-0.97671783 0.9508642 -0.049964387 0
-1.2764986 1.0968962 0.3488484 0
-1.2402873 1.0792565 0.4807373 0
-1.2402519 1.0792394 0.62504804 0
-0.97959709 0.93039936 -0.049741257 0
-1.2826086 1.0733129 0.34800354 0
-1.2361739 1.0514123 0.47672006 0
-1.2420154 1.0541674 0.62197143 0
-0.99944484 0.91784751 -0.050195437 0
-1.3048115 1.057199 0.35041282 0
-1.2428541 1.0289253 0.47585145 0
-1.2410039 1.0280811 0.61801338 0
-1.0009896 0.89686656 -0.04993907 0
-1.3166875 1.0361569 0.35081318 0
-1.2434331 1.003836 0.47336543 0
-1.2418624 1.0031431 0.61487705 0
-1.0119895 0.88010907 -0.050061308 0
-1.3266358 1.0142283 0.3508856 0
-1.2366353 0.97586519 0.46893471 0
-1.2296212 0.97287536 0.60713381 0
-1.0162427 0.86047906 -0.049930625 0
-1.3313115 0.99011505 0.34998333 0
-1.2444501 0.95437568 0.46865568 0
-1.2436535 0.95404786 0.60902005 0
-1.0204531 0.84092778 -0.049808465 0
-1.3395112 0.96753162 0.34982842 0
-1.2439742 0.92962211 0.46617684 0
-1.2353729 0.92620903 0.60299551 0
-1.023677 0.82108831 -0.049658623 0
-1.343293 0.94327825 0.34887627 0
-1.2411393 0.90422469 0.46315086 0
-1.2345072 0.90168923 0.59976614 0
-1.044335 0.80777282 -0.050182205 0
-1.3504847 0.92041725 0.34864265 0
-1.2331536 0.87724656 0.45882583 0
-1.2508607 0.8837617 0.60276556 0
-1.049391 0.78854376 -0.050119009 0
-1.3633627 0.899598 0.34955302 0
-1.2382591 0.85534787 0.45815486 0
-1.2459354 0.8580631 0.59832245 0
-1.0458794 0.7664488 -0.049742188 0
-1.379301 0.87967986 0.35109243 0
-1.2481222 0.83513111 0.45884314 0
-1.2326823 0.82988769 0.59108615 0
-1.062505 0.75118721 -0.050133459 0
-1.3832769 0.85563648 0.35040435 0
-1.2273999 0.80488002 0.45139048 0
-1.2360456 0.80769521 0.5898177 0
-1.0698204 0.73273081 -0.050182238 0
-1.3902843 0.83263481 0.35034892 0
-1.2462699 0.78773856 0.45464975 0
-1.2368984 0.78481704 0.58777696 0
-1.0716338 0.71259564 -0.050034542 0
-1.3986568 0.81004399 0.35060522 0
-1.2442662 0.76403767 0.45239741 0
-1.2439986 0.76395798 0.58801287 0
-1.0794555 0.69427389 -0.050119806 0
-1.401705 0.78589815 0.34991571 0
-1.2373942 0.73918015 0.44894117 0
-1.2387383 0.73956227 0.58406365 0
-1.0899755 0.67661721 -0.050313134 0
-1.4092164 0.76305658 0.35011941 0
-1.2345998 0.71577644 0.44665736 0
-1.2412962 0.71758956 0.58292866 0
