# .PCD v0.7 - Point Cloud Data file format
VERSION 0.7
FIELDS x y z intensity
SIZE 4 4 4 4
TYPE F F F F
COUNT 1 1 1 1
WIDTH 1352
HEIGHT 1
VIEWPOINT 0 0 0 1 0 0 0
POINTS 1352
DATA ascii
-1.2463369 -0.1227992 0.57921356 0
-1.0894852 -0.1068709 -0.049931392 0
-0.50116074 0.036629323 0.040311679 0
-0.52035749 0.031946976 0.11140978 0
-0.51147115 0.034114484 0.1812429 0
-1.2573103 -0.14780571 0.44977522 0
-1.2384448 -0.14320417 0.57822591 0
-1.0882318 -0.1269169 -0.050061956 0
-0.56508911 0.0076855612 0.042776778 0
-0.55945718 0.00913464 0.1160818 0
-0.55934757 0.009162833 0.19071242 0
-1.2338938 -0.16439514 0.44500881 0
-1.233397 -0.16426732 0.5783003 0
-1.0908734 -0.14811619 -0.050346345 0
-0.62438846 -0.021808218 0.045092542 0
-0.62709033 -0.022539776 0.12397858 0
-1.25 -0.19120218 0.32037097 0
-1.2372136 -0.18774004 0.44734821 0
-1.242965 -0.18929733 0.5835039 0
-1.068796 -0.162499 -0.049724165 0
-0.68317199 -0.052855652 0.047411222 0
-0.686432 -0.053782593 0.13102178 0
-1.2502339 -0.21408667 0.32151535 0
-1.2370369 -0.21033441 0.4488464 0
-1.2303287 -0.20842709 0.58115494 0
-1.0762601 -0.18523012 -0.050206885 0
-0.78244901 -0.09767849 0.051261645 0
-0.77008402 -0.09399391 0.14086163 0
-1.2362636 -0.23290892 0.32004514 0
-1.2431512 -0.23496132 0.45210057 0
-1.2403489 -0.23412628 0.58674586 0
-1.0729278 -0.20495538 -0.050298441 0
-0.87543166 -0.14338635 0.054912895 0
-0.86448896 -0.13997497 0.15200751 0
-1.2378767 -0.25637785 0.3215577 0
-1.2413247 -0.25745276 0.45332819 0
-1.2307584 -0.25415877 0.58563727 0
-1.0624731 -0.22243269 -0.050132263 0
-0.99328756 -0.19990458 0.059534606 0
-0.98486161 -0.19716097 0.16619946 0
-1.2444161 -0.28167668 0.32406679 0
-1.2445773 -0.28172919 0.45599946 0
-1.2387509 -0.27983198 0.59076428 0
-1.0492489 -0.23884903 -0.049869236 0
-1.1270125 -0.26525775 0.064801216 0
-1.1257048 -0.26481363 0.18285711 0
-1.2409343 -0.30394593 0.32473844 0
-1.2414612 -0.30412492 0.45704839 0
-1.0461308 -0.25864646 -0.049995545 0
-1.2924902 -0.34578577 0.20264329 0
-1.2444216 -0.32878348 0.32679984 0
-1.2378519 -0.32645974 0.45804468 0
-1.0448741 -0.27922705 -0.050202716 0
-1.2576488 -0.35751513 0.1995489 0
-1.2277551 -0.3465161 0.3250578 0
-1.237058 -0.34993902 0.45988724 0
-1.0294005 -0.29453227 -0.049877379 0
-1.2480286 -0.37811437 0.19935839 0
-1.2423477 -0.37594256 0.32938588 0
-1.2322842 -0.3720952 0.46073219 0
-1.0285413 -0.31539312 -0.050119128 0
-1.2437178 -0.40077618 0.1998107 0
-1.247174 -0.40214762 0.3319124 0
-1.2374163 -0.3982757 0.46437678 0
-1.0151502 -0.33128539 -0.049888443 0
-1.2329915 -0.42091683 0.19955289 0
-1.2338237 -0.42125925 0.33097145 0
-1.2496821 -0.42778423 0.47009909 0
-1.0165801 -0.3533217 -0.05023947 0
-1.2476583 -0.45181963 0.20228982 0
-1.233133 -0.4456282 0.33255443 0
-1.2497483 -0.45271054 0.47257152 0
-1.00266 -0.36885944 -0.050004255 0
-1.2452223 -0.47588137 0.20307858 0
-1.2415468 -0.47425964 0.33600125 0
-1.2389444 -0.47311148 0.47211373 0
-0.99853396 -0.3886877 -0.050159693 0
-1.235804 -0.49696383 0.20308276 0
-1.248696 -0.50284708 0.3392885 0
-1.2439184 -0.50066692 0.47614995 0
-0.98556137 -0.40446821 -0.04997668 0
-1.2411922 -0.52503502 0.20487778 0
-1.2342864 -0.52177799 0.33836806 0
-1.2400513 -0.52449691 0.47781384 0
-0.97461426 -0.42109534 -0.049880851 0
-1.505861 -0.67988122 0.08297766 0
-1.2333176 -0.54711729 0.20514049 0
-1.2527814 -0.55659872 0.34409052 0
-1.2353249 -0.54809511 0.47932899 0
-0.97380388 -0.44274703 -0.050197817 0
-1.4436038 -0.67896515 0.080971085 0
-1.2425739 -0.57788616 0.20749886 0
-1.2426122 -0.57790548 0.34415138 0
-1.2355019 -0.57433039 0.48233864 0
-0.97237384 -0.46433279 -0.050502867 0
-1.3952668 -0.68367976 0.079510756 0
-1.2438066 -0.60512006 0.20894809 0
-1.2506039 -0.60864574 0.34795663 0
-0.95318091 -0.47666702 -0.050101802 0
-1.3479517 -0.6877774 0.07808432 0
-1.2459577 -0.63323444 0.21056069 0
-1.2380748 -0.6290189 0.3476696 0
-0.93379593 -0.48857608 -0.049696431 0
-1.3002616 -0.69052434 0.076634772 0
-1.2443534 -0.65971506 0.211767 0
-1.2432048 -0.65908206 0.35106963 0
-0.93576944 -0.51228303 -0.050171077 0
-1.2630426 -0.69804364 0.075606093 0
-1.2477832 -0.68938237 0.21364509 0
-1.2385349 -0.68413299 0.35253999 0
-0.91974783 -0.52586561 -0.049917433 0
-1.2480747 -0.71772987 0.075493805 0
-1.2406801 -0.71340877 0.21427231 0
-1.2422664 -0.71433574 0.35584179 0
-0.90635347 -0.54082304 -0.049778409 0
-1.2535918 -0.7496478 0.076244362 0
-1.2456567 -0.74487573 0.21645698 0
-1.2426733 -0.74308151 0.35854876 0
-0.89578784 -0.55741888 -0.049764931 0
-1.2494577 -0.77622193 0.076612428 0
-1.2429994 -0.77222639 0.21774389 0
-1.2381717 -0.7692396 0.3603124 0
-0.8889817 -0.57639897 -0.049919229 0
-1.2436862 -0.80206662 0.076928265 0
-1.2397218 -0.79954439 0.21900582 0
-1.2419237 -0.80094534 0.36392459 0
-0.87552655 -0.59116405 -0.049801312 0
-1.2518884 -0.8373217 0.077856645 0
-1.2319468 -0.82427901 0.21974468 0
-1.2443879 -0.832416 0.36737484 0
-0.87341392 -0.6134569 -0.050178286 0
-1.2395549 -0.85956711 0.077928565 0
-1.2416828 -0.86099738 0.22279748 0
-1.2370657 -0.85789388 0.36881354 0
-0.86431384 -0.63125104 -0.050267506 0
-1.2466002 -0.89526206 0.078853995 0
-1.2358155 -0.8878141 0.22389917 0
-1.2365651 -0.88833183 0.37182996 0
-0.8476882 -0.64378774 -0.050037887 0
-1.2414347 -0.92310053 0.079272844 0
-1.2332274 -0.91727847 0.22548711 0
-1.6073877 -1.1826973 0.45706379 0
-0.84081626 -0.66323328 -0.050243914 0
-1.2397194 -0.95382279 0.079863355 0
-1.2394218 -0.95360607 0.22830656 0
-1.5714053 -1.1954465 0.45313665 0
-0.83039498 -0.68020958 -0.050304513 0
-1.2451631 -0.99042469 0.08079578 0
-1.2411739 -0.987441 0.23061757 0
-0.80558777 -0.68619895 -0.049727775 0
-1.2329451 -1.0143012 0.080962963 0
-1.2433463 -1.0222868 0.23306547 0
-0.81438017 -0.71814942 -0.050675888 0
-1.1633178 -0.99309736 0.078536019 0
-1.1570086 -0.98812598 0.22348729 0
-1.1665657 -0.99565643 0.3731688 0
-0.78514254 -0.72021395 -0.049906056 0
-1.1419628 -1.0087287 0.078288302 0
-1.1427128 -1.0093353 0.2237085 0
-1.1357117 -1.0036744 0.36972192 0
-0.76600468 -0.72995591 -0.049597844 0
-1.2411985 -1.124182 0.083641 0
-1.2355508 -1.1194965 0.23892906 0
-1.3269767 -1.1953446 0.41831201 0
-0.7580471 -0.74893206 -0.049816184 0
-1.2381374 -1.1575341 0.084323362 0
-1.2364902 -1.1561322 0.24153933 0
-1.3172351 -1.2248538 0.42039073 0
-1.0309985 -0.98123938 0.49632499 0
-0.74722755 -0.76561803 -0.049912561 0
-1.2834995 -1.2338065 0.4168365 0
-0.98643565 -0.97445697 0.48658341 0
-0.73533928 -0.78144246 -0.049968828 0
-1.1987528 -1.1964198 0.084177159 0
-1.1927235 -1.1910207 0.2404619 0
-1.1937708 -1.1919587 0.39971381 0
-0.96402586 -0.98622662 0.4842892 0
-0.7213484 -0.79539388 -0.049933426 0
-0.92055941 -0.97835499 0.47472516 0
-0.70171773 -0.80400318 -0.049629573 0
-0.89590764 -0.98691338 0.47160685 0
-0.69244015 -0.82231957 -0.049841251 0
-0.85573077 -0.98005229 0.46298128 0
-0.6871649 -0.84481519 -0.050268233 0
-0.83567917 -0.99193412 0.46144399 0
-0.6619072 -0.84744495 -0.049698096 0
-0.81783283 -1.005845 0.46074301 0
-0.6546886 -0.86829168 -0.050052144 0
-0.63882601 -0.88027292 -0.049973 0
-0.63349247 -0.90371317 -0.050458327 0
-0.60793614 -0.90494603 -0.049880221 0
-0.59823346 -0.92383665 -0.05015824 0
-0.58185124 -0.93513721 -0.050084181 0
-0.5633148 -0.9437471 -0.049895994 0
-0.55293661 -0.96230513 -0.050176021 0
-0.52639145 -0.96053761 -0.049537688 0
-0.52208161 -0.98718435 -0.050196376 0
-0.50783813 -1.0012459 -0.050291598 0
-0.48533255 -1.0040103 -0.04989605 0
-0.47147107 -1.0185632 -0.050031275 0
-0.45489907 -1.0293388 -0.0500094 0
-0.4329983 -1.0321103 -0.04965312 0
-0.42266828 -1.0522397 -0.050050478 0
-0.37856436 -0.98434097 0.50138807 0
-0.40519994 -1.0616012 -0.049995482 0
-0.35253572 -0.9782446 0.49500883 0
-0.38550985 -1.0672778 -0.049795769 0
-0.33005333 -0.97700399 0.4907032 0
-0.36589038 -1.0728041 -0.049601648 0
-0.30611598 -0.97269684 0.48535168 0
-0.35219175 -1.0882694 -0.049829405 0
-0.29387707 -0.98775274 0.48760307 0
-0.33812428 -1.1034137 -0.050049491 0
-0.27326691 -0.98830444 0.48435885 0
-0.31861603 -1.108941 -0.049883954 0
-0.24998225 -0.98346061 0.47918963 0
-0.30108351 -1.1179484 -0.049870148 0
-0.22969551 -0.983437 0.47598121 0
-0.28448838 -1.1287628 -0.04993787 0
-0.20986213 -0.98376983 0.47302273 0
-0.26536363 -1.1346203 -0.049815774 0
-0.18434693 -0.97221786 0.46575722 0
-0.25062537 -1.1493646 -0.050056364 0
-0.17252429 -0.98774344 0.46866015 0
-0.22852327 -1.148775 -0.049698502 0
-0.15148427 -0.98409027 0.46455655 0
-0.21369757 -1.1636598 -0.049960006 0
-0.13080783 -0.98049396 0.46059406 0
-0.19504513 -1.1702651 -0.04990473 0
-0.11512984 -0.98758239 0.46062812 0
-0.18260796 -1.1914877 -0.050425407 0
-0.10729475 -1.0132459 0.46744239 0
-0.16107966 -1.1913964 -0.050127707 0
-0.074350134 -0.97870535 0.3485029 0
-0.083408669 -1.0009201 0.46060807 0
-0.13800485 -1.1868064 -0.049669329 0
-0.050518379 -0.96428603 0.34282726 0
-0.069059446 -1.0114449 0.462084 0
-0.12592621 -1.2103496 -0.050298244 0
-0.030821605 -0.95921141 0.14661086 0
-0.032050505 -0.96245652 0.24259074 0
-0.012143536 -0.90988916 0.3263543 0
-0.049848929 -1.0094559 0.45916551 0
-0.10270597 -1.2046193 -0.04981776 0
-0.0085021388 -0.94607657 0.14445224 0
-0.013352318 -0.95938796 0.24089755 0
0.0047258898 -0.90977222 0.32482743 0
-0.085825697 -1.2159787 -0.049996924 0
0.0086970497 -0.94604164 0.14382686 0
0.0087718237 -0.94582802 0.23725216 0
0.018830048 -0.91710383 0.32537836 0
-0.0033776893 -0.9805246 0.4448278 0
-0.063924477 -1.2128054 -0.049635999 0
0.025943862 -0.94541305 0.14316142 0
0.024402933 -0.94999784 0.23704857 0
0.02233647 -0.95614642 0.33451003 0
0.010740327 -0.9906494 0.44648957 0
-0.045543328 -1.2197392 -0.049665999 0
0.034316942 -0.97183079 0.14557697 0
0.036273554 -0.96575695 0.23907907 0
0.01830809 -1.0215267 0.35067627 0
0.02377628 -1.0045519 0.44952738 0
-0.030638291 -1.2380308 -0.050128866 0
0.024265515 -1.0599413 0.35956699 0
-0.011000348 -1.2414211 -0.050042421 0
0.064154074 -0.98627776 0.3386353 0
0.0078996588 -1.2472245 -0.050054953 0
0.084544733 -0.97439176 0.33428246 0
0.029945897 -1.2413073 -0.049643118 0
0.10095029 -0.97575659 0.33351165 0
0.046215102 -1.2569724 -0.050037809 0
0.11665879 -0.97956747 0.33344167 0
0.062984869 -1.2717605 -0.050406639 0
0.086515859 -1.25799 -0.049736571 0
0.10470404 -1.2669328 -0.049908411 0
0.12308525 -1.2755462 -0.050076172 0
0.14190684 -1.2824732 -0.050190695 0
-0.0658115 -2.3880095 0.1023504 0
0.16035099 -1.2920458 -0.050409447 0
0.00063984259 -2.2052903 0.095508277 0
0.1816483 -1.2849841 -0.050034564 0
0.033363923 -2.2006903 0.095152318 0
0.20176782 -1.2840525 -0.049891341 0
0.064924851 -2.2022254 0.095033363 0
0.2212542 -1.2870443 -0.049898867 0
0.097262785 -2.1974704 0.094702303 0
0.24097532 -1.2882026 -0.049849257 0
0.12872882 -2.1979156 0.094573475 0
0.25939456 -1.3008399 -0.050220959 0
0.16043063 -2.1954482 0.094354458 0
0.27934054 -1.3006043 -0.050138757 0
0.19068868 -2.2061939 0.094624013 0
0.29935595 -1.2989079 -0.050013296 0
0.22250019 -2.201004 0.094335966 0
0.31956989 -1.2932941 -0.049756758 0
0.25406408 -2.1964881 0.094086647 0
0.33847678 -1.306533 -0.050183795 0
0.28474918 -2.2037888 0.094274357 0
0.35865268 -1.2993635 -0.049889669 0
0.31587461 -2.2046797 0.094246686 0
0.37833098 -1.3006575 -0.049907085 0
0.34714922 -2.2008426 0.094064131 0
0.39803761 -1.3013642 -0.049912374 0
0.3781828 -2.2023218 0.094085529 0
0.41766995 -1.3106672 -0.050233439 0
0.43750724 -1.3121474 -0.050284058 0
0.45724821 -1.3050413 -0.050037023 0
0.47687757 -1.3000355 -0.049873792 0
0.49723598 -1.3155732 -0.05045335 0
0.51615727 -1.2965808 -0.049807925 0
0.53584754 -1.2960477 -0.049830947 0
0.55599868 -1.3011131 -0.050063364 0
0.57534975 -1.2956057 -0.049926095 0
0.59503174 -1.2941757 -0.049943753 0
0.61425829 -1.2887193 -0.049825601 0
0.63396084 -1.2875538 -0.049870446 0
0.65508145 -1.2960857 -0.050274026 0
0.67335618 -1.2844408 -0.049958993 0
0.69345534 -1.2849486 -0.050091602 0
0.7130729 -1.2822595 -0.050117686 0
0.73216468 -1.2767535 -0.050050359 0
0.75153172 -1.2727917 -0.050047919 0
0.77418709 -1.2837243 -0.050598916 0
0.79095346 -1.2677622 -0.050175887 0
0.809241 -1.2591828 -0.050030798 0
0.82672846 -1.247927 -0.049794972 0
0.84551066 -1.2420112 -0.049764149 0
0.86644638 -1.2436473 -0.050022539 0
0.88284504 -1.2295887 -0.0497065 0
0.90557688 -1.2363535 -0.050176397 0
0.92174315 -1.2220981 -0.049868938 0
0.94073528 -1.2167369 -0.049903523 0
0.9600808 -1.2122834 -0.049981717 0
0.97617239 -1.1989039 -0.049729589 0
0.99833006 -1.2017285 -0.050104056 0
0.92158562 -1.002864 0.45790729 0
1.0158868 -1.1923448 -0.050021622 0
0.94421393 -1.0133644 0.4639132 0
1.0370649 -1.1918279 -0.050290033 0
0.96358508 -1.0148263 0.46679702 0
1.0515298 -1.1752106 -0.049944542 0
0.97061378 -0.98702377 0.45918664 0
1.0680985 -1.1639131 -0.049812093 0
0.99035865 -0.98920828 0.46248534 0
1.0871145 -1.15815 -0.049904544 0
1.0052485 -0.98023826 0.46180889 0
1.1081421 -1.1564584 -0.050167944 0
1.0263363 -0.98441547 0.46604055 0
1.1234355 -1.1426601 -0.049961962 0
1.0397253 -0.97218102 0.46431381 0
1.1391006 -1.1299098 -0.049804285 0
1.0617733 -0.97731668 0.46911728 0
1.1593397 -1.1261441 -0.050015416 0
1.0834764 -0.98100179 0.47351182 0
1.1709043 -1.1059586 -0.049572404 0
1.1045153 -0.98274678 0.47730601 0
1.1883898 -1.0970752 -0.049593728 0
1.1322871 -0.99602216 0.0574673 0
1.1316919 -0.99495 0.16079691 0
1.1293777 -0.99078161 0.26491126 0
1.1292335 -0.99052185 0.37219554 0
1.1289831 -0.99007088 0.48335028 0
1.2095581 -1.0945966 -0.049887624 0
1.144228 -0.98033673 0.057188682 0
1.1468766 -0.9849692 0.16066347 0
1.1458975 -0.98325676 0.26519147 0
1.1451601 -0.98196703 0.37228864 0
1.1513958 -0.99287289 0.48782286 0
1.2302252 -1.0908514 -0.050142232 0
1.1556391 -0.9641332 0.056892734 0
1.1666207 -0.98279065 0.16152579 0
1.1617619 -0.97453564 0.26526675 0
1.16874 -0.98639101 0.37628397 0
1.1664433 -0.98248929 0.48734695 0
1.2460972 -1.0788367 -0.050064452 0
1.2630483 -1.0686518 -0.050071403 0
1.2778953 -1.0551678 -0.049947545 0
1.2936643 -1.0432367 -0.049897 0
1.3149065 -1.0394512 -0.050205689 0
1.3240021 -1.0178087 -0.049752202 0
1.340955 -1.0077139 -0.049806222 0
1.3551476 -0.99378532 -0.04970042 0
1.3757185 -0.98844761 -0.049985476 0
1.390805 -0.97567898 -0.049949668 0
1.4063176 -0.96348327 -0.049948219 0
1.209309 -0.71507066 0.050629105 0
1.2056044 -0.71039957 0.13970341 0
1.424809 -0.95494455 -0.050124038 0
1.2024074 -0.68165308 0.049544681 0
1.2068106 -0.68706387 0.13782945 0
1.4355892 -0.93697196 -0.049873717 0
1.2038698 -0.65944278 0.04896602 0
1.2118591 -0.66901153 0.13667752 0
1.4469353 -0.91992646 -0.049670618 0
1.1992582 -0.63076478 0.048077922 0
1.2096863 -0.64293945 0.13438721 0
1.4634545 -0.90898114 -0.04976191 0
1.2099451 -0.62044448 0.048049621 0
1.2028509 -0.61237007 0.13142417 0
1.4882598 -0.90713006 -0.050301243 0
1.213631 -0.60238165 0.047655337 0
1.199316 -0.58649665 0.12909432 0
1.4927292 -0.88271099 -0.049764857 0
1.5111208 -0.87352532 -0.049974132 0
1.5122802 -0.84639591 -0.049304042 0
1.5385686 -0.8451398 -0.049930494 0
1.5481344 -0.82690316 -0.049714912 0
1.5648693 -0.81571048 -0.049867012 0
1.5849979 -0.80752367 -0.050189726 0
1.5858595 -0.78155237 -0.049585178 0
1.6018173 -0.769494 -0.049722411 0
1.6165367 -0.75623649 -0.049807001 0
1.6257094 -0.73823589 -0.049639862 0
1.6408591 -0.72527903 -0.049760778 0
1.6610534 -0.71623582 -0.05011842 0
1.6735047 -0.70084643 -0.05012754 0
1.6821891 -0.6825906 -0.049976561 0
1.6898527 -0.6637097 -0.049791928 0
1.7168185 -0.65886116 -0.050468162 0
1.7259504 -0.64094388 -0.050363969 0
1.7336107 -0.62210906 -0.050206885 0
1.7348723 -0.59916061 -0.049787212 0
1.7441225 -0.58171397 -0.049722653 0
1.7664455 -0.57251942 -0.050218873 0
1.7728477 -0.55319959 -0.050050355 0
1.7776719 -0.53307891 -0.049827743 0
1.7959931 -0.52090937 -0.050173283 0
1.7972646 -0.49892101 -0.049825251 0
1.8100259 -0.48344615 -0.049957633 0
1.824272 -0.46864417 -0.05015694 0
1.8251026 -0.44682935 -0.049824663 0
1.8279871 -0.42628911 -0.049587246 0
1.8341777 -0.40751597 -0.049492426 0
1.8640385 -0.39979526 -0.050339065 0
1.866805 -0.37925795 -0.050124522 0
1.8805283 -0.36363426 -0.050347619 0
1.8833208 -0.34325841 -0.050154082 0
1.884375 -0.32232389 -0.049904499 0
1.8866442 -0.3020483 -0.049712822 0
1.8959674 -0.2845597 -0.049800768 0
1.9102011 -0.26877353 -0.050083071 0
1.9056727 -0.24626969 -0.049662735 0
1.9187644 -0.22993533 -0.049917787 0
1.9176459 -0.20888059 -0.049647082 0
1.9305335 -0.19229196 -0.04991008 0
1.9408028 -0.17474456 -0.050082538 0
1.9411252 -0.15430711 -0.049894061 0
1.9556363 -0.13774998 -0.050239641 0
1.9413885 -0.1137316 -0.049533337 0
1.9500077 -0.095647223 -0.049679302 0
1.9598542 -0.077729054 -0.049878102 0
1.9710019 -0.05993868 -0.050132088 0
1.9769787 -0.040940296 -0.050205428 0
1.9685754 -0.019231062 -0.049765229 0
1.9815836 -0.0015088128 -0.050111491 0
1.9691064 0.020508606 -0.049543887 0
1.9834478 0.038213823 -0.049954925 0
2.001776 0.055684436 -0.050516896 0
1.9916604 0.076976262 -0.050063141 0
2.0005348 0.095909066 -0.050301507 0
1.999649 0.11593837 -0.050198134 0
1.9937189 0.13631147 -0.049923211 0
1.9957894 0.15593836 -0.049944032 0
1.9900421 0.17602654 -0.049694125 0
1.9956849 0.19543913 -0.049860436 0
1.9921944 0.21525979 -0.049709186 0
2.0026627 0.2347132 -0.050065313 0
2.0070665 0.25445908 -0.050213654 0
2.000176 0.27424166 -0.049967647 0
2.0004585 0.29398933 -0.049986612 0
1.9978666 0.31366298 -0.04991179 0
2.006285 0.33377248 -0.050239246 0
1.9950459 0.35300142 -0.049873058 0
1.9933128 0.37263399 -0.049855404 0
1.9990009 0.39286596 -0.050112419 0
1.9997061 0.41281116 -0.050200179 0
1.9829934 0.43095043 -0.04967165 0
1.9797658 0.45033824 -0.049635433 0
1.9811279 0.47031376 -0.049773239 0
1.9757321 0.48940521 -0.049676552 0
1.9794642 0.50987935 -0.049918301 0
1.9747938 0.52908754 -0.049865544 0
1.9849037 0.55098999 -0.050358023 0
1.9727699 0.56885242 -0.050052263 0
1.9684478 0.58814442 -0.0500389 0
1.9627331 0.60711801 -0.049983427 0
1.955182 0.62561893 -0.049869157 0
1.9585139 0.6467672 -0.050163642 0
1.9431952 0.6632095 -0.049780257 0
1.9466213 0.68457663 -0.050097696 0
1.9428117 0.70407361 -0.050157242 0
1.9301262 0.72091192 -0.049894877 0
1.921303 0.73879015 -0.049784116 0
1.9295115 0.76225394 -0.050322141 0
1.9118867 0.7771678 -0.049897537 0
1.9102767 0.79754496 -0.050085939 0
1.9029378 0.81591839 -0.050066549 0
1.9004033 0.83615202 -0.050239984 0
1.8961338 0.85581988 -0.05035729 0
1.8892642 0.87449187 -0.05038413 0
1.8737959 0.88945848 -0.05008563 0
1.8668665 0.90802968 -0.050126929 0
1.847939 0.9210698 -0.049705446 0
1.847376 0.94258684 -0.050014962 0
1.8361434 0.95907015 -0.049912151 0
1.8225656 0.97427779 -0.049722962 0
1.8163527 0.99321729 -0.049837392 0
1.817715 1.0163646 -0.050269984 0
1.7975756 1.0278391 -0.049837973 0
1.7902917 1.0463698 -0.049938388 0
1.7687502 1.0565338 -0.049457461 0
1.7713801 1.0810485 -0.049988985 0
1.764418 1.0999914 -0.050133422 0
1.7486128 1.1133548 -0.049913421 0
1.741536 1.1323233 -0.050072663 0
1.7246605 1.144755 -0.049820233 0
1.7165861 1.1631336 -0.049955897 0
1.7013106 1.1764572 -0.049786299 0
1.6922369 1.1942137 -0.049897727 0
1.6864195 1.2145404 -0.050166052 0
1.6685115 1.2257068 -0.049901702 0
1.6538078 1.2391963 -0.049787436 0
1.6522764 1.2633743 -0.050287656 0
1.63406 1.2739969 -0.050029267 0
1.6146797 1.2833798 -0.049719468 0
1.6010711 1.2975786 -0.04968686 0
1.5947388 1.3183491 -0.050013129 0
1.5734313 1.3255098 -0.049625777 0
1.5705317 1.3498559 -0.05014639 0
1.5448191 1.3524042 -0.049549337 0
1.5408347 1.3761572 -0.050045084 0
1.5294902 1.3928447 -0.050185539 0
1.5087088 1.399725 -0.049848963 0
1.0246481 0.88904202 0.29234934 0
1.4956247 1.414588 -0.049917158 0
1.0410408 0.92274493 0.30426273 0
1.4790674 1.4256737 -0.049811017 0
1.0515553 0.95127451 0.31363183 0
1.4627459 1.4369189 -0.04972358 0
1.0601995 0.97875249 0.32237324 0
1.4507633 1.4531398 -0.049880698 0
1.0606434 0.99767673 0.32722595 0
1.4358348 1.4660102 -0.049887396 0
1.0575954 1.0129948 0.33046249 0
1.4188384 1.476352 -0.049786337 0
1.0558004 1.0302439 0.33451089 0
1.4093874 1.4960983 -0.050124601 0
1.0563991 1.0510073 0.34002101 0
1.3871368 1.4996763 -0.049735498 0
1.0487669 1.0618047 0.3412843 0
1.3798134 1.522631 -0.050228544 0
1.0385408 1.069319 0.34120876 0
1.3620144 1.5318936 -0.050114986 0
1.0303582 1.0796139 0.34233442 0
1.3402318 1.5354453 -0.049761791 0
1.0186738 1.085155 0.34154886 0
1.3264475 1.55007 -0.049905133 0
1.0151139 1.102281 0.34552431 0
1.3156452 1.5692872 -0.050252751 0
1.2521555 1.4754719 0.058208521 0
1.0057547 1.1113782 0.34625876 0
1.2985218 1.579357 -0.050212309 0
1.2463862 1.5001894 0.058828093 0
0.99570614 1.1195331 0.34665897 0
1.2771832 1.5828003 -0.049900405 0
0.98497581 1.126684 0.34670943 0
1.2630899 1.5974628 -0.050074212 0
0.97207987 1.1303699 0.34545454 0
1.2396576 1.5969489 -0.049620681 0
0.96571183 1.1446543 0.3483949 0
0.84339094 0.942698 0.47631454 0
1.2237989 1.6086776 -0.049689937 0
0.9574284 1.1561273 0.35025933 0
0.83952963 0.95582312 0.48182377 0
1.2103966 1.6248074 -0.049947932 0
1.06832 1.3763211 0.33279252 0
0.94882268 1.167325 0.35204503 0
0.85160613 0.99729723 0.3555586 0
0.83925968 0.9757039 0.41597742 0
0.84635061 0.9881056 0.50041401 0
1.2019104 1.6501731 -0.050588191 0
1.0550982 1.3857318 0.33322841 0
0.9400304 1.1784694 0.35383937 0
0.84917414 1.0148175 0.36138427 0
0.83887053 0.99625832 0.42484188 0
0.83966583 0.9976908 0.50342047 0
1.1734936 1.6395082 -0.049767289 0
1.1248765 1.5492795 0.26922962 0
1.0315713 1.3761135 0.32819495 0
0.92157251 1.1719662 0.34899423 0
0.85145909 1.0418422 0.37165517 0
0.8411153 1.0226451 0.43696398 0
0.83817929 1.0171962 0.51314622 0
1.1571434 1.6506863 -0.049846146 0
1.1117978 1.5639306 0.27045789 0
1.0181471 1.3847572 0.32853729 0
0.91239035 1.182422 0.35063484 0
0.85244185 1.067728 0.38131309 0
0.84432477 1.0521984 0.45077825 0
0.83958298 1.0431263 0.52712017 0
1.1397449 1.6599256 -0.049855176 0
1.0962577 1.5741103 0.27080765 0
0.99819797 1.3806047 0.32526606 0
0.90451622 1.1957384 0.3533752 0
0.85005057 1.0882591 0.38841838 0
0.84266216 1.0736792 0.45995399 0
0.83948445 1.0674084 0.53989768 0
1.1223468 1.6691871 -0.049873777 0
1.0769606 1.5767562 0.26968107 0
0.98041636 1.3801399 0.32313472 0
0.88729888 1.1905023 0.34925926 0
0.84386051 1.1020383 0.39237946 0
0.84298027 1.1002456 0.4719196 0
0.83733398 1.0887468 0.55065238 0
1.1039721 1.6764328 -0.049821261 0
0.96089131 1.3755244 0.31990698 0
0.87801462 1.2012293 0.35112864 0
0.83931196 1.1198351 0.39819464 0
0.83706748 1.1151149 0.47733107 0
0.8384341 1.1179889 0.56655103 0
1.0903637 1.6939555 -0.050182052 0
0.9496693 1.3881969 0.3216224 0
0.86383277 1.2016562 0.34925801 0
0.84100533 1.1520475 0.41057259 0
0.84030336 1.1505219 0.49406397 0
0.83836287 1.1463048 0.58174402 0
1.0726548 1.7028968 -0.050212212 0
0.93099344 1.384541 0.31880808 0
0.84969026 1.2018285 0.3473703 0
0.84233528 1.1852996 0.42334285 0
0.84032804 1.1807888 0.50786602 0
0.84210092 1.184773 0.60344267 0
1.0533468 1.7081805 -0.050108761 0
0.91515946 1.3867975 0.31771642 0
0.84685081 1.2279316 0.35494819 0
0.83761501 1.2064519 0.43058339 0
0.84165412 1.2158456 0.52420229 0
0.84153908 1.2155781 0.62004697 0
1.0330179 1.7108234 -0.04991319 0
0.89748532 1.3843466 0.31538528 0
0.85098028 1.2723234 0.36908749 0
0.8396219 1.2449627 0.44559461 0
0.83823293 1.2416168 0.53541386 0
0.84045011 1.2469578 0.6369381 0
1.0104214 1.707441 -0.049496755 0
0.88350254 1.3905015 0.31549233 0
0.85209858 1.31208 0.38147587 0
0.843521 1.2906603 0.46372432 0
0.84141916 1.2854116 0.55630636 0
0.8408677 1.2840345 0.65739256 0
0.99477756 1.7212672 -0.049751785 0
0.86505926 1.3851339 0.31249607 0
0.8528738 1.3535583 0.39441314 0
0.83761007 1.314006 0.47182468 0
0.8395375 1.3190005 0.57160264 0
0.8391335 1.3179537 0.67573738 0
0.97723198 1.7305001 -0.049838208 0
0.84909344 1.3855927 0.31116292 0
0.84806085 1.3828132 0.40294838 0
0.83987606 1.3607825 0.49026924 0
0.83838862 1.3567787 0.58907634 0
0.84262401 1.3681791 0.70432663 0
0.9573859 1.7334843 -0.049695741 0
0.83261567 1.3842344 0.30939803 0
0.84149408 1.4090865 0.41041332 0
0.84218419 1.4110181 0.51013929 0
0.84080738 1.4071642 0.6131776 0
0.93762928 1.736429 -0.049561851 0
0.81551182 1.3805223 0.30706191 0
0.83725744 1.4438989 0.4208788 0
0.84388602 1.4632177 0.53077066 0
0.84238309 1.4588374 0.63784003 0
0.92408335 1.7579532 -0.050136197 0
1.0292894 2.0776289 0.35027274 0
0.80362773 1.3919404 0.30885732 0
0.84217739 1.5090762 0.44195497 0
0.8385933 1.4981856 0.54379636 0
0.84080309 1.5049002 0.65943485 0
0.9043144 1.7610924 -0.050026469 0
1.0059938 2.0836754 0.35002246 0
0.78407377 1.3796229 0.30433637 0
0.84327865 1.5674534 0.46055388 0
0.84165913 1.5623153 0.56945908 0
0.84179264 1.5627389 0.6871323 0
0.8849017 1.7651563 -0.049960926 0
0.98193312 2.0870757 0.34933004 0
0.77015704 1.38447 0.30447206 0
0.83877283 1.6121154 0.47431186 0
0.83943582 1.614315 0.58976251 0
0.86856401 1.7797514 -0.050295956 0
0.95953065 2.0959032 0.34971559 0
0.75486791 1.3846043 0.30340275 0
0.84052825 1.682314 0.49688029 0
0.83736342 1.6713147 0.61215872 0
0.84607744 1.7728229 -0.049840685 0
0.73876792 1.3813903 0.047350414 0
0.74032742 1.3870788 0.13110837 0
0.74142027 1.3910651 0.21669503 0
0.74028975 1.3869413 0.30297083 0
0.83591181 1.7357417 0.51357788 0
0.83471471 1.7313752 0.63580304 0
0.82698047 1.7776381 -0.049830642 0
0.72507429 1.3866738 0.047406357 0
0.72433496 1.3838375 0.13032788 0
0.72604316 1.390391 0.21586119 0
0.72374034 1.3815562 0.30055282 0
0.83090979 1.7927128 0.53145903 0
0.83140874 1.7946272 0.66074973 0
0.81218028 1.7998148 -0.05046799 0
0.70870733 1.3813193 0.047077246 0
0.70927477 1.3836143 0.12990627 0
0.71176142 1.3936715 0.21580069 0
0.70835412 1.3798906 0.29917473 0
0.82515359 1.8522854 0.55019778 0
0.82774997 1.8627864 0.68772966 0
0.78920072 1.7890139 -0.049901169 0
0.69514781 1.3869569 0.047159709 0
0.6942966 1.3833181 0.12949879 0
0.69407582 1.3823742 0.21307363 0
0.69429523 1.3833122 0.2991845 0
0.81710619 1.9083042 0.56769198 0
0.77018857 1.7943499 -0.049936492 0
0.67961061 1.3839135 0.046930805 0
0.67843193 1.3785726 0.12862357 0
0.68030554 1.3870624 0.21334767 0
0.6803025 1.3870486 0.29932278 0
0.80355561 1.9455463 0.57877505 0
0.74966186 1.7925256 -0.049719386 0
0.66419756 1.3806852 0.046702903 0
0.6648488 1.3838235 0.12886979 0
0.66277939 1.3738512 0.21035606 0
0.66448939 1.3820915 0.29724148 0
0.7911424 1.9924144 0.59315801 0
0.73094344 1.7992163 -0.049821902 0
0.64657164 1.3652445 0.04603846 0
0.64942288 1.3799101 0.12813081 0
0.65017444 1.3837758 0.21166301 0
0.64881963 1.3768073 0.29513201 0
0.7781921 2.0422425 0.60856205 0
0.71222281 1.8063172 -0.049947646 0
0.63514215 1.3813529 0.046528321 0
0.63668704 1.3898703 0.12893009 0
0.63577259 1.3848287 0.21136999 0
0.63451892 1.3779169 0.2947365 0
0.76556069 2.1003814 0.62679625 0
0.69121438 1.8003857 -0.049609832 0
0.61981225 1.3763944 0.046259653 0
0.62187272 1.3886297 0.12852448 0
0.62065315 1.3813878 0.21028896 0
0.62147224 1.3862516 0.29625773 0
0.74516153 2.120728 0.63229519 0
0.67441261 1.8199793 -0.050204478 0
0.60594124 1.3796003 0.046293471 0
0.60795552 1.3925552 0.12870184 0
0.60640955 1.3826122 0.21009628 0
0.60691142 1.3858401 0.29556024 0
0.72790152 2.1639977 0.64558792 0
0.65371609 1.8152558 -0.049928755 0
0.59132546 1.3777688 0.046151876 0
0.59226602 1.384364 0.12758258 0
0.59212524 1.3833771 0.20985296 0
0.59357464 1.39354 0.29700172 0
0.70754808 2.1927292 0.65404427 0
0.6346947 1.8219526 -0.050074011 0
0.57798308 1.3849902 0.046343058 0
0.57915747 1.394039 0.12842274 0
0.57717079 1.3787314 0.2086588 0
0.57780695 1.3836334 0.2939544 0
0.68802857 2.2328894 0.66640699 0
0.61424053 1.817312 -0.049820155 0
0.56265587 1.3764274 0.045972638 0
0.56370342 1.3853804 0.12729579 0
0.56436962 1.3910743 0.2105854 0
0.56438977 1.3912467 0.29546303 0
0.66818196 2.2783394 0.68060583 0
0.59542865 1.8267269 -0.050080404 0
0.55245745 1.4145603 0.13027988 0
0.55315763 1.4212766 0.21577707 0
0.55152828 1.4056482 0.29875427 0
0.64501733 2.3023665 0.68770379 0
0.574875 1.8191636 -0.049740162 0
0.55279309 1.5779489 0.14775947 0
0.55195391 1.5687814 0.24223219 0
0.55226171 1.572144 0.34104967 0
0.62132239 2.3265388 0.69493961 0
0.55596864 1.829476 -0.050049707 0
0.60296619 2.4254274 0.23896818 0
0.59917665 2.3773749 0.38826042 0
0.59752983 2.3564918 0.54142392 0
0.53540587 1.8181206 -0.049592253 0
0.57438916 2.4069624 0.39325926 0
0.57302499 2.3863559 0.54857111 0
0.51636338 1.8291726 -0.049945489 0
0.54861426 2.4312446 0.3973529 0
0.5474965 2.410377 0.55429947 0
0.49643961 1.8248683 -0.049758412 0
0.52198112 2.4486434 0.40026057 0
0.52219307 2.4538188 0.56506598 0
0.47670972 1.8228571 -0.049662262 0
0.45627472 1.1017886 0.3528598 0
0.4569509 1.1256486 0.43710431 0
0.45726159 1.8346345 -0.050067339 0
0.44592401 1.1144254 0.35799628 0
0.44584024 1.1091033 0.42870536 0
0.43748385 1.8334664 -0.050018966 0
0.4351615 1.0960325 0.42211524 0
0.43513104 1.0863558 0.49347821 0
0.41767833 1.8385233 -0.050201729 0
0.42470399 1.094485 0.42135742 0
0.42494401 1.0690659 0.48324332 0
0.39799106 1.8322206 -0.049987804 0
0.41411909 1.1003741 0.35221896 0
0.41411445 1.1005851 0.42449263 0
0.41469112 1.0744172 0.48651224 0
0.37831485 1.8298669 -0.049923703 0
0.35204661 2.5882044 0.4253515 0
0.352222 2.5831406 0.59794688 0
0.40516347 1.054775 0.47502798 0
0.35847062 1.8319608 -0.050027382 0
0.32282656 2.5862987 0.42522368 0
0.32305115 2.5815458 0.59784484 0
0.3955178 1.0479275 0.47120443 0
0.33825907 1.8389127 -0.050313815 0
0.29241332 2.6045411 0.42880237 0
0.29222634 2.6076636 0.60491949 0
0.38583264 1.04443 0.46944037 0
0.31856003 1.8359618 -0.050255153 0
0.26079482 2.6324291 0.43419775 0
0.26055264 2.6357679 0.61260813 0
0.29952845 1.8256272 -0.049940743 0
0.35608411 1.1618037 0.038155541 0
0.23028745 2.6383452 0.43569398 0
0.22943221 2.6483836 0.61644107 0
0.28000563 1.8225545 -0.049895037 0
0.19783328 2.6619551 0.44046792 0
0.19643895 2.6761985 0.62427557 0
0.26079267 1.8169456 -0.049766991 0
0.1658956 2.6747906 0.44336763 0
0.16715579 2.6633987 0.62180215 0
0.34627235 1.0442313 0.47131518 0
0.24181654 1.8101292 -0.049604014 0
0.13537528 2.6727931 0.44364947 0
0.13377003 2.6858029 0.62846941 0
0.22044727 1.8217137 -0.050112352 0
0.10200204 2.691416 0.44775489 0
0.10344408 2.6808276 0.62820637 0
0.20179567 1.8126098 -0.049884595 0
0.069837406 2.6980081 0.44975084 0
0.068848208 2.7046452 0.63546842 0
0.18248676 1.8085506 -0.049847301 0
0.035230979 2.7179048 0.45425555 0
0.037238047 2.7055106 0.63692564 0
0.16336004 1.803584 -0.049785849 0
0.0022901462 2.7245977 0.45643246 0
0.00038008555 2.7355196 0.6460374 0
0.14255838 1.8077497 -0.050064728 0
-0.028512551 2.7182381 0.45629531 0
-0.030139817 2.7268989 0.6452629 0
0.12426932 1.7983981 -0.049861606 0
-0.088659897 2.8579748 0.10044612 0
-0.090846553 2.868856 0.29149789 0
-0.063195691 2.7312601 0.45979446 0
-0.063668683 2.7336137 0.64857721 0
0.10425423 1.797778 -0.049985118 0
-0.11373819 2.8160021 0.09916079 0
-0.11641778 2.8285182 0.28781155 0
-0.095196798 2.7293968 0.46063811 0
-0.094764844 2.7273791 0.64863175 0
0.084496215 1.7956198 -0.050061893 0
-0.1428941 2.7960355 0.098689012 0
-0.14487477 2.8047497 0.28597617 0
-0.12498797 2.7172568 0.45965794 0
-0.12891199 2.7345207 0.65228844 0
0.066106781 1.7875279 -0.049930129 0
-0.1716971 2.7760024 0.098226823 0
-0.17354651 2.78369 0.28447422 0
-0.16346021 2.7417643 0.4655422 0
-0.16308559 2.7402072 0.65568715 0
0.046869263 1.7831407 -0.049942926 0
-0.2107531 2.7976491 0.099311732 0
-0.20918997 2.7914937 0.28620782 0
-0.19612487 2.7400436 0.46665493 0
-0.19259281 2.7261345 0.65400863 0
0.027223753 1.7802321 -0.050019346 0
-0.25167012 2.8232734 0.10056545 0
-0.25208741 2.8248339 0.29083791 0
-0.22809686 2.7351112 0.4672485 0
-0.22659184 2.7294824 0.65702307 0
0.0065701171 1.7807014 -0.050230458 0
-0.26041639 2.7310905 0.46809024 0
-0.25990832 2.7292819 0.65922105 0
-0.01405297 1.7805288 -0.050428126 0
-0.29440826 2.7323134 0.46999732 0
-0.29328179 2.7284889 0.66138107 0
-0.026511384 1.7533888 -0.049628761 0
-0.32491893 2.721323 0.46968752 0
-0.3253718 2.7227919 0.66235214 0
-0.047083125 1.7532635 -0.049845286 0
-0.35901582 2.7215896 0.47158203 0
-0.35692227 2.7150905 0.66289806 0
-0.068490401 1.7551351 -0.050147675 0
-0.39552855 2.7281976 0.47477263 0
-0.39204252 2.7178254 0.66636199 0
-0.087310866 1.7489642 -0.050157361 0
-0.42315465 2.7080638 0.47295505 0
-0.42657727 2.717838 0.66922456 0
-0.10111465 1.7289962 -0.049651813 0
-0.45385313 2.6970885 0.47295359 0
-0.45877999 2.7106102 0.67025208 0
-0.11948664 1.7220891 -0.049649078 0
-0.48625082 2.6905859 0.47388911 0
-0.49312359 2.7087345 0.67285502 0
-0.14077909 1.722607 -0.04994002 0
-0.5210712 2.6898744 0.47603038 0
-0.51529026 2.6751707 0.66690207 0
-0.15649147 1.7088889 -0.049693894 0
-0.55050975 2.6751592 0.4755404 0
-0.55149543 2.6775765 0.67090583 0
-0.17877372 1.7111574 -0.050073706 0
-0.58370125 2.6694884 0.47689092 0
-0.58163202 2.6645913 0.67079401 0
-0.19643487 1.7021861 -0.050028525 0
-0.61203992 2.6522408 0.47605211 0
-0.6109575 2.6497664 0.67027467 0
-0.21089955 1.6862212 -0.049717721 0
-0.64235568 2.6396334 0.47619754 0
-0.64543724 2.6464431 0.67307639 0
-0.23204608 1.6850498 -0.049995318 0
-0.67029202 2.6218796 0.47539485 0
-0.67306685 2.6278114 0.67170477 0
-0.24767388 1.672001 -0.049814183 0
-0.70287919 2.6139956 0.47663453 0
-0.70155954 2.6112647 0.67101377 0
-0.26640189 1.6654458 -0.049898811 0
-0.72409773 2.5829232 0.47329095 0
-0.72739387 2.5895305 0.66894144 0
-0.28548366 1.6594408 -0.050015513 0
-0.75913012 2.5796988 0.47562817 0
-0.76084745 2.5830352 0.67132139 0
-0.29732484 1.6396105 -0.049583901 0
-0.78766131 2.5635176 0.47542542 0
-0.78407753 2.5567648 0.6681267 0
-0.31304932 1.6275077 -0.049469806 0
-0.81021869 2.5364625 0.47305962 0
-0.81265402 2.540915 0.66802514 0
-0.33355308 1.6240449 -0.049717035 0
-0.61913621 2.1309001 0.082487084 0
-0.83381677 2.5119171 0.47125506 0
-0.8336376 2.5115993 0.66408437 0
-0.35059351 1.6142588 -0.049715701 0
-0.62268853 2.0832672 0.081073724 0
-0.865821 2.5023532 0.47262263 0
-0.86248219 2.496598 0.6644147 0
-0.37210298 1.6119528 -0.050034285 0
-0.62038696 2.0277665 0.079324402 0
-0.88968825 2.4787791 0.47114208 0
-0.89239848 2.4833183 0.66536647 0
-0.38754469 1.5993344 -0.049934555 0
-0.61760843 1.973839 0.077626199 0
-0.91271544 2.4542229 0.46950546 0
-0.9097774 2.4494402 0.66027039 0
-0.40731514 1.5936933 -0.05013686 0
-0.61584187 1.923748 0.07607498 0
-0.93964517 2.4362617 0.46932429 0
-0.93792999 2.433547 0.66062689 0
-0.42515111 1.5848063 -0.050213203 0
-0.61965382 1.8842465 0.074960902 0
-0.95230448 2.396368 0.4644976 0
-0.96207857 2.4114153 0.65919584 0
-0.43690723 1.5667098 -0.049904458 0
-0.61783636 1.837721 0.073537953 0
-0.97852314 2.3779893 0.46433002 0
-0.97998989 2.3801863 0.65505493 0
-0.45545059 1.558887 -0.050044209 0
-0.61790514 1.7957129 0.072297253 0
-0.99836183 2.350342 0.46220586 0
-1.005631 2.360939 0.65465456 0
-0.46925718 1.5441656 -0.049894057 0
-0.61919892 1.7569561 0.071187533 0
-1.0203675 2.3262765 0.46090782 0
-1.0172143 2.3218017 0.64814299 0
-0.48374403 1.5305594 -0.049799312 0
-0.61706257 1.7147881 0.069918036 0
-0.62453449 1.7251134 0.19977811 0
-1.0394464 2.2984669 0.45882583 0
-1.0403459 2.2997098 0.64698583 0
-0.080226257 0.97295094 0.44362345 0
-0.50398248 1.5248009 -0.050060797 0
-0.61619866 1.6758279 0.068778105 0
-0.62693202 1.6902735 0.19691101 0
-1.0624032 2.2763555 0.4580583 0
-1.0667775 2.2822425 0.64737982 0
-0.089856043 0.96744579 0.44425142 0
-0.52323097 1.5174353 -0.050264034 0
-0.61478746 1.6374701 0.067653745 0
-0.61372089 1.6360718 0.1914033 0
-1.0765126 2.2428131 0.45475581 0
-1.0756516 2.2416842 0.6404745 0
-0.094815388 0.95576257 0.44107369 0
-0.53419065 1.4992441 -0.049989387 0
-0.62099087 1.6101197 0.067016512 0
-0.61901021 1.6075898 0.18932879 0
-1.0965469 2.2175789 0.45336404 0
-1.100325 2.222405 0.64043158 0
-0.10607739 0.95238674 0.44318271 0
-0.54156119 1.4768897 -0.049527578 0
-0.62080252 1.5755256 0.066044636 0
-0.61628914 1.5699075 0.18597403 0
-1.1080719 2.1820552 0.44963583 0
-1.1117454 2.1866276 0.63509011 0
-0.13085534 0.96566272 0.4560909 0
-0.56778884 1.4779189 -0.050147112 0
-0.61615694 1.5365964 0.064861946 0
-0.61921346 1.5403045 0.18370476 0
-1.1258202 2.1548917 0.44785646 0
-1.1201586 2.1480234 0.62880558 0
-0.13507654 0.95297611 0.45250055 0
-0.57287085 1.4532621 -0.049587663 0
-0.61897111 1.5077751 0.064136475 0
-0.61401474 1.5019143 0.18017961 0
-1.1406323 2.1246336 0.44537961 0
-1.1427766 2.1271691 0.62841982 0
-0.15013619 0.95338303 0.45748612 0
-0.58804786 1.4408394 -0.049603309 0
-0.61955631 1.4771603 0.063319944 0
-0.62499857 1.4834338 0.17943908 0
-1.1525904 2.0916059 0.4422586 0
-1.1667558 2.1079347 0.62867254 0
-0.61110401 1.4372504 -0.050050355 0
-0.63129103 1.4599372 0.063134529 0
-0.63507926 1.4641944 0.17860083 0
-1.1787685 2.0752072 0.44315299 0
-1.1688778 2.0640917 0.62062663 0
-0.62111676 1.4188969 -0.049802899 0
-0.66757131 1.4697986 0.06426318 0
-0.65745461 1.4587133 0.17977305 0
-1.1811584 2.0325506 0.43772653 0
-1.1886117 2.0407174 0.61956698 0
-0.63720214 1.4072822 -0.049888164 0
-0.51192093 1.2734324 0.055342924 0
-0.69164598 1.4654497 0.18279882 0
-1.1821425 1.9894938 0.43214425 0
-1.1913295 1.9993092 0.61227906 0
-0.65311086 1.3953921 -0.049970798 0
-0.50780344 1.2440126 0.054479487 0
-0.71520734 1.4600835 0.18412222 0
-1.2098833 1.9754307 0.43374529 0
-1.1973319 1.9623547 0.60648966 0
-0.66949511 1.3838974 -0.050084256 0
-0.51247633 1.224387 0.054093353 0
-0.74599612 1.4616125 0.18654643 0
-1.2204224 1.9435673 0.43094948 0
-1.2144723 1.9375228 0.60499489 0
-0.68084109 1.3672949 -0.049950443 0
-0.52127892 1.2092319 0.053932026 0
-0.77286184 1.4584512 0.18834423 0
-1.2180572 1.8994638 0.42501503 0
-1.2227402 1.9041027 0.60044539 0
-0.69333649 1.3519295 -0.049885739 0
-0.54939127 1.2128837 0.054740671 0
-0.80982065 1.464449 0.19163439 0
-1.2246503 1.865159 0.42153868 0
-1.2136093 1.8544939 0.58992928 0
-0.70435405 1.3352306 -0.04975887 0
-0.56406522 1.2030905 0.054878436 0
-0.83956051 1.4625834 0.19380875 0
-1.2350745 1.8351235 0.41916019 0
-1.2243924 1.8250619 0.58673704 0
-0.72218668 1.324908 -0.049974062 0
-0.86653364 1.4574803 0.068971097 0
-0.87159085 1.4621251 0.19629581 0
-1.2316183 1.7927845 0.41350326 0
-1.2362139 1.7970052 0.58407038 0
-0.23218895 0.87488014 0.37968621 0
-0.73313856 1.308216 -0.049863361 0
-0.90481198 1.461946 0.070090525 0
-0.90361738 1.4608762 0.19875526 0
-1.2285616 1.7518573 0.40813631 0
-1.2321272 1.7550503 0.57610708 0
-0.23285253 0.86021984 0.37581199 0
-0.75169957 1.2982665 -0.050124504 0
-0.93152416 1.4552611 0.070646882 0
-1.2406113 1.7251076 0.40656871 0
-1.2342306 1.7195369 0.57050729 0
-0.23383994 0.8461526 0.37226018 0
-0.77572072 1.2927181 -0.05064474 0
-0.98358238 1.469628 0.072389528 0
-1.2377206 1.6859237 0.40155974 0
-1.2391949 1.6871784 0.56607628 0
-0.23344655 0.83119154 0.3680923 0
-0.24817033 0.84372282 0.45324293 0
-0.77617526 1.2671378 -0.050069638 0
-1.0093002 1.4605409 0.07288377 0
-1.245206 1.6562508 0.39915049 0
-1.2304711 1.6440266 0.55728948 0
-0.24923231 0.82997996 0.3727735 0
-0.78801453 1.2512803 -0.050037913 0
-1.0512383 1.4641157 0.07412298 0
-1.2462175 1.6217705 0.39535132 0
-1.2385843 1.6155984 0.55429506 0
-0.25518465 0.82044899 0.37217966 0
-0.80222762 1.2373179 -0.050123528 0
-1.0864552 1.4612771 0.075042412 0
-1.2520795 1.5917819 0.39280352 0
-1.2388561 1.5813624 0.54890007 0
-0.27489728 0.82180417 0.37890863 0
-0.81476617 1.2219898 -0.050140891 0
-1.1232003 1.4587892 0.076023392 0
-1.249009 1.5553786 0.38833553 0
-1.2408034 1.5490786 0.54423523 0
-0.25653744 0.7934112 0.36569062 0
-0.24887545 0.78752869 0.43583363 0
-0.82339275 1.2037165 -0.049992338 0
-1.1728433 1.4650792 0.077571616 0
-1.2474579 1.5208852 0.38435534 0
-1.2473928 1.5208365 0.54122323 0
-0.26086926 0.78299153 0.3645145 0
-0.28097481 0.79802895 0.45180753 0
-0.83591664 1.1884081 -0.050027493 0
-1.207644 1.459201 0.078446597 0
-1.2554257 1.4940085 0.38263276 0
-1.2413881 1.4837825 0.5343762 0
-1.2352512 1.4793121 0.69248074 0
-0.26334274 0.77130449 0.36246467 0
-0.27429533 0.77928311 0.44354832 0
-0.84111476 1.1678689 -0.049750157 0
-1.2570345 1.4629108 0.079955675 0
-1.2529029 1.4599799 0.37868103 0
-1.2408937 1.4514608 0.52946025 0
-1.2527627 1.4598804 0.6934377 0
-0.27964354 0.76957685 0.36752731 0
-0.28008693 0.76989138 0.44315836 0
-0.85758412 1.1553475 -0.049975518 0
-1.3012882 1.4617745 0.081226788 0
-1.2484598 1.4252906 0.374437 0
-1.2347944 1.4158531 0.5229758 0
-1.2454836 1.4232352 0.68446243 0
-0.27942508 0.75606459 0.43891987 0
-0.86937523 1.1394863 -0.050004553 0
-1.2817236 1.4166559 0.079742528 0
-1.2789459 1.4147888 0.22762273 0
-1.2429345 1.3905829 0.37008888 0
-1.2419281 1.3899064 0.52075237 0
-1.2381288 1.3873526 0.67571819 0
-0.28506845 0.74673092 0.43862373 0
-0.8810221 1.1235026 -0.050035752 0
-1.2704185 1.3781854 0.078647129 0
-1.2752544 1.3813483 0.22530599 0
-1.2557464 1.3685892 0.36982256 0
-1.237956 1.3569535 0.51526159 0
-1.2456326 1.3619744 0.67313284 0
-0.30000347 0.74349016 0.44395569 0
-0.88973308 1.1056212 -0.049951024 0
-1.27728 1.3521836 0.078349754 0
-1.2766957 1.3518119 0.22371542 0
-1.2519702 1.3360811 0.36607209 0
-1.2352595 1.3254496 0.51032627 0
-1.2363437 1.3261395 0.66407299 0
-0.29737324 0.72875398 0.43885285 0
-0.90634942 1.0926971 -0.050208319 0
-1.2974077 1.3346311 0.078625426 0
-1.2935796 1.3322628 0.22413588 0
-1.2544132 1.3080319 0.36375681 0
-1.2424935 1.3006576 0.50852799 0
-1.2316222 1.2939318 0.65704745 0
-0.90751624 1.0702665 -0.049826849 0
-1.3127533 1.3139709 0.078709029 0
-1.302187 1.3076165 0.22354624 0
-1.2571025 1.2805033 0.36158538 0
-1.2419692 1.2714022 0.50452685 0
-1.2411969 1.2709378 0.65578312 0
-0.90937054 1.0485456 -0.049488336 0
-1.3360831 1.2979035 0.079132967 0
-1.3345934 1.2970331 0.22596206 0
-1.2574667 1.2519625 0.3590169 0
-1.2411412 1.2424223 0.50057453 0
-1.2393883 1.2413981 0.65025365 0
-0.92150533 1.0329309 -0.049585521 0
-1.3863363 1.2967694 0.080667466 0
-1.3751862 1.2904406 0.22938882 0
-1.2446815 1.2163659 0.35381463 0
-1.2472112 1.2178018 0.49878144 0
-1.24533 1.2167341 0.64787126 0
-0.94289804 1.0223361 -0.050067462 0
-1.2596183 1.1968712 0.35444948 0
-1.2433773 1.1879213 0.49420634 0
-1.2392056 1.1856223 0.64104021 0
-0.95219922 1.0048863 -0.05006206 0
-1.2505552 1.1644371 0.35022205 0
-1.2319828 1.1545053 0.48758367 0
-1.2378668 1.1576518 0.63620877 0
-0.95817006 0.98570961 -0.049931616 0
-1.2739518 1.1495 0.35270011 0
-1.236379 1.1300117 0.48566386 0
-1.2476518 1.1358587 0.6357103 0
-0.9571712 0.96312821 -0.049533173 0
-1.267598 1.1192126 0.34919509 0
-1.2390083 1.1048375 0.48333997 0
-1.2449613 1.1078306 0.6306718 0
-0.96546471 0.94538242 -0.049517501 0
-1.2820653 1.0996079 0.34996516 0
-1.2472035 1.0826256 0.48270005 0
-1.2350278 1.0766945 0.62311476 0
-0.99251747 0.9364931 -0.050251257 0
-1.2939541 1.0786639 0.35026586 0
-1.2417427 1.0540388 0.47829098 0
-1.2381446 1.0523418 0.62054759 0
-0.998999 0.91764402 -0.050177939 0
-1.3009092 1.0554183 0.34963924 0
-1.2329131 1.0243889 0.47306362 0
-1.2333175 1.0245733 0.61520243 0
-1.0025868 0.89757133 -0.050001401 0
-1.3108677 1.0335892 0.34966597 0
-1.2359599 1.0005388 0.47128147 0
-1.2320896 0.99883115 0.6113233 0
-1.0085371 0.87863749 -0.04992732 0
-1.328843 1.015169 0.3513183 0
-1.2335573 0.97455323 0.46808106 0
-1.2371392 0.97608 0.60985273 0
-1.0121171 0.85878158 -0.049771357 0
-1.3373336 0.99259287 0.35115775 0
-1.2369597 0.95129371 0.46658918 0
-1.236842 0.95124531 0.60656959 0
-1.0264339 0.84330106 -0.050038185 0
-1.3385569 0.96715289 0.34964326 0
-1.2488313 0.93154937 0.46751001 0
-1.2429407 0.92921197 0.60570425 0
-1.0381366 0.82661623 -0.050211284 0
-1.3463297 0.94443923 0.3494626 0
-1.2458752 0.90603524 0.46444446 0
-1.2374331 0.90280777 0.60080826 0
-1.030288 0.80260438 -0.049647842 0
-1.3501889 0.92030841 0.34858578 0
-1.2475263 0.88253486 0.46273309 0
-1.2370193 0.8786689 0.59785879 0
-1.0423279 0.78604543 -0.049851533 0
-1.359965 0.89839619 0.34890303 0
-1.2430341 0.85703689 0.45944709 0
-1.2418274 0.85661 0.59687269 0
-1.0472004 0.76689744 -0.049791999 0
-1.3766011 0.87876296 0.35057822 0
-1.246067 0.8344332 0.45828938 0
-1.2404234 0.83251661 0.59380603 0
-1.05869 0.74994498 -0.049990222 0
-1.3769557 0.85357821 0.3492054 0
-1.2363849 0.80780572 0.4538013 0
-1.2415568 0.80948979 0.59174597 0
-1.0551317 0.72815162 -0.04963294 0
-1.3947327 0.83402157 0.35118926 0
-1.2403026 0.78587824 0.45305502 0
-1.2393064 0.7855677 0.58861613 0
-1.0725622 0.71287233 -0.050069127 0
-1.3922127 0.80812371 0.3493925 0
-1.237957 0.76215762 0.45071778 0
-1.24102 0.76307034 0.58697879 0
-1.0675635 0.6908927 -0.049678419 0
-1.4022962 0.78606623 0.35002655 0
-1.24382 0.74100715 0.45064557 0
-1.2344695 0.73834854 0.58258718 0
-1.0863012 0.67562234 -0.050177235 0
-1.4066831 0.76237065 0.34964606 0
-1.2424315 0.717897 0.4487274 0
-1.231737 0.71500129 0.57963389 0
-1.0807022 0.65372372 -0.049784381 0
-1.4192858 0.74083984 0.35085243 0
-1.2386107 0.69435292 0.44625145 0
-1.231879 0.69262087 0.57777882 0
-1.0941647 0.63675642 -0.050103355 0
-1.4183842 0.7158379 0.34959862 0
-1.2372844 0.67166525 0.44451618 0
-1.2461495 0.67382759 0.58086437 0
-1.0979216 0.61731684 -0.050073646 0
-1.4250116 0.69274801 0.34980032 0
-1.2381185 0.64964807 0.44342649 0
-1.2372407 0.64944565 0.57610786 0
-1.1060786 0.59885198 -0.050213736 0
-1.4339813 0.6701346 0.35048747 0
-1.2486614 0.629848 0.44494715 0
-1.2441071 0.62885797 0.57683998 0
-1.1076268 0.57893336 -0.050121132 0
-1.4340161 0.64559448 0.34958068 0
-1.240568 0.606085 0.44167605 0
-1.2425284 0.60648543 0.57479066 0
-1.1104511 0.55932194 -0.050084267 0
-1.4390875 0.6221422 0.34965765 0
-1.2467574 0.58537745 0.4422006 0
-1.2430396 0.58466679 0.57354969 0
-1.1108575 0.539303 -0.049968764 0
-1.4494703 0.59962124 0.35076162 0
-1.2363479 0.56165707 0.43849006 0
-1.2479481 0.56372344 0.57389051 0
-1.1195608 0.52073395 -0.050162859 0
-1.4503232 0.57536614 0.35017321 0
-1.2375191 0.54021716 0.43785918 0
-1.2375764 0.54022664 0.56916702 0
-1.1101636 0.49926716 -0.049711373 0
-1.4623235 0.55288762 0.35167527 0
-1.2439182 0.51963288 0.43864843 0
-1.241165 0.51921368 0.5692504 0
-1.117802 0.48049358 -0.049884509 0
-1.4623439 0.5285235 0.35104483 0
-1.2474982 0.49857351 0.43877691 0
-1.2427438 0.49791074 0.56874746 0
-1.1240588 0.46141884 -0.050016165 0
-1.4649967 0.5045774 0.35094973 0
-1.2306163 0.47490773 0.43371135 0
-1.2371639 0.47573656 0.56593466 0
-1.1199168 0.44106397 -0.049782619 0
-0.50594342 0.37118509 0.039721467 0
-0.51435071 0.37214196 0.10841892 0
-0.50850683 0.37147683 0.17681269 0
-1.2357837 0.45425126 0.43439135 0
-1.2311715 0.45372635 0.56308138 0
-1.1358428 0.42289993 -0.050278679 0
-0.51474476 0.36012113 0.039991695 0
-0.51852763 0.36050349 0.10873163 0
-0.50480342 0.35911629 0.17591046 0
-1.2391286 0.43333977 0.43466994 0
-1.2420661 0.4336367 0.56597126 0
-1.1360269 0.40299037 -0.050218191 0
-0.46639705 0.34381354 0.038218375 0
-0.51084501 0.34774151 0.10778031 0
-0.51612556 0.34820816 0.17775781 0
-1.2315198 0.41142932 0.43221018 0
-1.2412151 0.4122861 0.56501955 0
-1.1294881 0.38261151 -0.049926043 0
-0.51481867 0.3360835 0.1081035 0
-0.50890487 0.33563587 0.17627454 0
-1.2341117 0.39053112 0.43243331 0
-1.2416493 0.39110169 0.5645873 0
-1.136826 0.36331084 -0.05013971 0
-0.51893276 0.32435659 0.10845736 0
-0.51097226 0.32385471 0.17649946 0
-1.232866 0.36936557 0.43174258 0
-1.2389879 0.36975151 0.56321239 0
-1.234635 0.36947709 0.69764173 0
-1.1308954 0.34318727 -0.049887624 0
-0.51331329 0.31205404 0.10777954 0
-0.50511092 0.31164056 0.1753193 0
-1.2444117 0.3489098 0.43438801 0
-1.2395329 0.34866384 0.56299615 0
-1.2411534 0.34874552 0.69985014 0
-0.34837031 0.30373904 0.46970677 0
-1.1365856 0.32367769 -0.050059892 0
-0.50603187 0.29984573 0.10693993 0
-0.51776975 0.30028936 0.17750992 0
-1.2357409 0.32742527 0.43193641 0
-1.2355829 0.32741931 0.5613718 0
-1.2420071 0.32766211 0.69981873 0
-0.36207485 0.29440483 0.4775826 0
-1.1321118 0.30378738 -0.049877893 0
-0.41426665 0.28570411 0.35672063 0
