# .PCD v0.7 - Point Cloud Data file format
VERSION 0.7
FIELDS x y z intensity
SIZE 4 4 4 4
TYPE F F F F
COUNT 1 1 1 1
WIDTH 1353
HEIGHT 1
VIEWPOINT 0 0 0 1 0 0 0
POINTS 1353
DATA ascii
-1.2346413 0.031962905 0.56602573 0
-1.1120605 0.029188145 -0.049779877 0
-0.51189643 0.12057018 0.040106297 0
-0.51611179 0.11992834 0.10912624 0
-0.5125351 0.12047293 0.17840792 0
-1.2346481 0.010522743 0.43625608 0
-1.2407039 0.0096006887 0.56909525 0
-1.1256895 0.0069979322 -0.050384626 0
-0.51622713 0.10766322 0.04033123 0
-0.52561039 0.10611337 0.11036716 0
-0.5136295 0.10809227 0.17895286 0
-1.2382841 -0.011599402 0.43805701 0
-1.2389694 -0.011712591 0.56963682 0
-1.1065207 -0.0097863479 -0.049811497 0
-0.51667058 0.095285602 0.040421594 0
-0.51944256 0.094791822 0.10991969 0
-0.50242406 0.097823374 0.17727438 0
-1.2364798 -0.032936405 0.43852422 0
-1.2391657 -0.033414852 0.57092261 0
-1.1133327 -0.031128626 -0.050189007 0
-0.51334399 0.0835618 0.040380798 0
-0.50949836 0.084296919 0.10907353 0
-0.51035333 0.084133483 0.17912894 0
-1.2350565 -0.05439667 0.43916127 0
-1.239074 -0.055164617 0.5722065 0
-1.1001849 -0.04866929 -0.049849965 0
-0.51470965 0.070907079 0.04051625 0
-0.51232135 0.071394868 0.10964007 0
-0.506046 0.072676532 0.17876759 0
-1.2358922 -0.076385893 0.44045845 0
-1.2492099 -0.079105861 0.57705945 0
-1.0921791 -0.067086257 -0.049705911 0
-0.51739657 0.05786537 0.040706158 0
-0.5145871 0.058476124 0.11016472 0
-0.50923967 0.059638593 0.17981622 0
-1.2378811 -0.098760344 0.4421325 0
-1.2366103 -0.098484077 0.57428753 0
-1.1014668 -0.089390256 -0.050203539 0
-0.52818185 0.042816643 0.041199338 0
-0.51097608 0.046784509 0.11006067 0
-0.51498437 0.045860145 0.18137039 0
-1.2378132 -0.12083352 0.44334656 0
-1.2391827 -0.12114934 0.5767709 0
-1.0974334 -0.1088096 -0.050223473 0
-0.50917125 0.034675453 0.040606048 0
-0.51422209 0.033443499 0.11073108 0
-0.51858091 0.032380316 0.18256272 0
-1.2451283 -0.14483435 0.44657606 0
-1.2372944 -0.14292358 0.57783198 0
-1.0829425 -0.12555598 -0.049866967 0
-0.55501252 0.010278245 0.042405311 0
-0.56572491 0.0075219763 0.11677733 0
-0.55624902 0.0099600749 0.19013539 0
-1.2493528 -0.16837271 0.44908139 0
-1.2440686 -0.16701309 0.58196634 0
-1.077861 -0.14459284 -0.049865052 0
-0.62079895 -0.020836275 0.044959772 0
-0.62572801 -0.022170942 0.12382691 0
-1.2443562 -0.189674 0.31931645 0
-1.2389077 -0.18819876 0.44779599 0
-1.2327712 -0.18653719 0.57999033 0
-1.0764966 -0.16468848 -0.050009985 0
-0.69153583 -0.055233728 0.047721654 0
-0.69210148 -0.055394571 0.13165522 0
-1.2355733 -0.20991825 0.3187665 0
-1.2366689 -0.2102298 0.4487488 0
-1.2494477 -0.21386312 0.58776784 0
-1.074267 -0.18463619 -0.05013264 0
-0.7779721 -0.096344419 0.051094867 0
-0.77647555 -0.095898457 0.14157836 0
-1.2411904 -0.23437704 0.32097229 0
-1.2380779 -0.23344953 0.45074996 0
-1.24022 -0.23408784 0.5867011 0
-1.0700624 -0.20406212 -0.050191291 0
-0.86669362 -0.14066227 0.054586124 0
-0.87570834 -0.1434726 0.15327048 0
-1.250759 -0.26039389 0.32399127 0
-1.2342366 -0.25524309 0.45143396 0
-1.2373488 -0.25621328 0.5879339 0
-1.0623722 -0.22239982 -0.050128475 0
-0.98551142 -0.19737254 0.059242643 0
-0.99403501 -0.20014797 0.16723625 0
-1.2438724 -0.28149965 0.32396364 0
-1.237211 -0.27933058 0.45402294 0
-1.2396084 -0.28011122 0.59106427 0
-1.047868 -0.23838006 -0.049817171 0
-1.1348733 -0.26792732 0.0650976 0
-1.1201303 -0.26292053 0.18222442 0
-1.2473192 -0.30611435 0.32595456 0
-1.2408881 -0.30393031 0.45689398 0
-1.0518116 -0.26065579 -0.05021067 0
-1.2911491 -0.34531137 0.2024904 0
-1.2454758 -0.32915637 0.32700151 0
-1.2298511 -0.32362983 0.45587948 0
-1.0454583 -0.27944198 -0.050224941 0
-1.2514055 -0.35521802 0.19883396 0
-1.24586 -0.35317758 0.32853702 0
-1.241877 -0.35171208 0.46119729 0
-1.0223689 -0.2918441 -0.049608622 0
-1.2556301 -0.38102046 0.20023298 0
-1.243081 -0.37622288 0.32952747 0
-1.243891 -0.37653252 0.46390247 0
-1.0351849 -0.31802931 -0.050374303 0
-1.2442374 -0.40098235 0.19987078 0
-1.2407408 -0.39959487 0.33066419 0
-1.2321815 -0.39619854 0.46293992 0
-1.0268611 -0.33610389 -0.050340548 0
-1.247526 -0.42689714 0.20124197 0
-1.2331978 -0.42100176 0.33084941 0
-1.236351 -0.42229912 0.46642125 0
-1.0091991 -0.35017559 -0.049953017 0
-1.2511468 -0.45330659 0.20269735 0
-1.2375934 -0.44752946 0.33342889 0
-1.2267764 -0.44291863 0.46620038 0
-0.99929464 -0.36737457 -0.049872931 0
-1.2485645 -0.47735593 0.20347117 0
-1.2396197 -0.47340944 0.33562139 0
-1.2403631 -0.47373739 0.47250935 0
-0.99854314 -0.38869187 -0.05016005 0
-1.2389047 -0.49837884 0.20344906 0
-1.2354879 -0.49681965 0.33667013 0
-1.2365367 -0.49729827 0.47407979 0
-0.99135077 -0.40719876 -0.050205208 0
-1.2383739 -0.52370578 0.20454289 0
-1.2321612 -0.52077556 0.33794427 0
-1.2337672 -0.52153307 0.47604117 0
-0.9790858 -0.42327353 -0.050058424 0
-1.5048416 -0.67938465 0.082937174 0
-1.2333652 -0.54714054 0.20514618 0
-1.2372565 -0.54903609 0.34097612 0
-1.2506292 -0.55555028 0.48367223 0
-0.95864749 -0.43512633 -0.049592163 0
-1.4437605 -0.67904401 0.080977358 0
-1.2359166 -0.57453889 0.20669807 0
-1.2391113 -0.57614517 0.34344468 0
-1.2413756 -0.57728368 0.48401594 0
-0.95856416 -0.45716992 -0.049947467 0
-1.4030008 -0.68769127 0.079821803 0
-1.2370774 -0.60162973 0.20813341 0
-1.244687 -0.60557669 0.34675452 0
-0.95227385 -0.47618201 -0.050065082 0
-1.3478423 -0.68771893 0.078079894 0
-1.2484051 -0.63454324 0.21085897 0
-1.2360874 -0.62795615 0.34726316 0
-0.93915951 -0.49153176 -0.049915068 0
-1.302874 -0.69196397 0.076741263 0
-1.2454033 -0.66029358 0.21189582 0
-1.2410921 -0.6579178 0.35063457 0
-0.928509 -0.50816208 -0.049873032 0
-1.2549376 -0.69344324 0.075273372 0
-1.235507 -0.68241441 0.21212806 0
-1.2396524 -0.68476731 0.3527717 0
-0.92946708 -0.53154528 -0.050319329 0
-1.2515875 -0.71978271 0.075639062 0
-1.2373239 -0.71144748 0.21385455 0
-1.2380425 -0.71186745 0.35495949 0
-0.90259516 -0.53856289 -0.049621843 0
-1.2485962 -0.74664348 0.076036237 0
-1.2411057 -0.7421388 0.21588627 0
-1.2387455 -0.74071938 0.35772213 0
-0.89383125 -0.55620837 -0.049682789 0
-1.2488379 -0.77583843 0.076586403 0
-1.2395682 -0.77010363 0.21731028 0
-1.2469049 -0.77464253 0.36216447 0
-0.88990927 -0.57698911 -0.049958479 0
-1.2477814 -0.80467206 0.077101544 0
-1.2520692 -0.80740005 0.2205786 0
-1.2475767 -0.80454189 0.36513296 0
-0.87909544 -0.59349829 -0.049953561 0
-1.2488096 -0.83530802 0.077725314 0
-1.2448777 -0.83273643 0.22140519 0
-1.239912 -0.82948869 0.36641032 0
-0.8758049 -0.61506402 -0.050281137 0
-1.2453035 -0.86343116 0.07817585 0
-1.2385451 -0.85888821 0.22239116 0
-1.2460587 -0.86393875 0.37076777 0
-0.8571372 -0.62629479 -0.049956132 0
-1.2334588 -0.88618654 0.078283824 0
-1.2380543 -0.88936025 0.22419156 0
-1.2350019 -0.88725227 0.37148735 0
-0.85270178 -0.64734429 -0.05025734 0
-1.2372209 -0.92011136 0.079088397 0
-1.2485799 -0.92816907 0.22751002 0
-1.6059428 -1.1816722 0.45674425 0
-0.8303082 -0.65557849 -0.049779776 0
-1.2386289 -0.95302838 0.079815187 0
-1.2414418 -0.95507759 0.22857514 0
-1.5680782 -1.1930227 0.45239428 0
-0.82010341 -0.67251229 -0.049845695 0
-1.2376933 -0.98483783 0.080462761 0
-1.2421706 -0.98818654 0.23075134 0
-0.81242812 -0.69145054 -0.050035655 0
-1.2458584 -1.0242155 0.081544191 0
-1.2472872 -1.0253123 0.23359941 0
-0.80197704 -0.70837635 -0.050112136 0
-1.1627271 -0.99263185 0.078509167 0
-1.1563433 -0.9876017 0.22339624 0
-1.1633968 -0.99315959 0.37244123 0
-0.79358339 -0.72703904 -0.050293591 0
-1.1469411 -1.0127541 0.078516863 0
-1.1441031 -1.0104593 0.22390063 0
-1.1443665 -1.0106723 0.37172922 0
-0.7707355 -0.7338807 -0.049817301 0
-1.2361494 -1.1199932 0.083406776 0
-1.2282922 -1.1134747 0.2379155 0
-1.340794 -1.2068075 0.42154983 0
-0.76102495 -0.75146645 -0.049955789 0
-1.2443048 -1.1627831 0.084612489 0
-1.2433417 -1.1619635 0.24250622 0
-1.3121699 -1.2205428 0.41919118 0
-1.0265689 -0.97746938 0.49484095 0
-0.74686408 -0.76530069 -0.049895331 0
-1.2897576 -1.2392701 0.41833475 0
-0.9906944 -0.9781751 0.48802581 0
-0.7364769 -0.78246123 -0.050023347 0
-1.1866652 -1.1855956 0.083597884 0
-1.1950145 -1.1930722 0.24079239 0
-1.1892502 -1.1879106 0.39861941 0
-0.9724139 -0.99373811 0.4871619 0
-0.7163918 -0.79084164 -0.049693163 0
-0.92167532 -0.97937983 0.47511172 0
-0.71061385 -0.81238264 -0.050065883 0
-0.88826132 -0.97971123 0.46892691 0
-0.69190192 -0.8217997 -0.049814537 0
-0.85473812 -0.97909337 0.46262914 0
-0.66977668 -0.82759029 -0.049394425 0
-0.83304989 -0.98932952 0.46049973 0
-0.67446494 -0.86020213 -0.050337184 0
-0.82399607 -1.0121059 0.4629845 0
-0.65503013 -0.8686474 -0.050069749 0
-0.63594866 -0.87719876 -0.049822677 0
-0.62152231 -0.89059705 -0.049824376 0
-0.60947633 -0.90667707 -0.049962942 0
-0.58646572 -0.91027147 -0.04951711 0
-0.58356738 -0.93716639 -0.050179057 0
-0.56615299 -0.94719023 -0.050055295 0
-0.55349666 -0.96300238 -0.050207946 0
-0.53087854 -0.9662692 -0.049797561 0
-0.51727474 -0.98088223 -0.049913403 0
-0.49917251 -0.98958319 -0.04977287 0
-0.48868853 -1.0086479 -0.05010042 0
-0.4718197 -1.019058 -0.050052885 0
-0.45034236 -1.022696 -0.049721807 0
-0.43759036 -1.0389887 -0.049948379 0
-0.42626697 -1.0577799 -0.050286334 0
-0.37758607 -0.98283488 0.50079054 0
-0.40331602 -1.0586193 -0.049869556 0
-0.35270387 -0.9785108 0.49511358 0
-0.38789433 -1.0711594 -0.049958404 0
-0.32791191 -0.97351819 0.48934212 0
-0.37178123 -1.0826699 -0.050011881 0
-0.31138712 -0.98152477 0.48877239 0
-0.35528392 -1.0935993 -0.050049394 0
-0.28953063 -0.98026079 0.48472145 0
-0.33301085 -1.0943383 -0.049677599 0
-0.27542758 -0.99213916 0.48582321 0
-0.32099038 -1.1132818 -0.0500606 0
-0.25521272 -0.99302322 0.48281589 0
-0.30168545 -1.1190827 -0.049915988 0
-0.22951056 -0.98308843 0.47584993 0
-0.28406149 -1.1279334 -0.04990457 0
-0.21012564 -0.98428184 0.4732143 0
-0.26767379 -1.1392511 -0.05000053 0
-0.18750693 -0.97855216 0.46811232 0
-0.2509464 -1.1500288 -0.050082706 0
-0.16797234 -0.97832376 0.46517953 0
-0.23360164 -1.159631 -0.050126385 0
-0.14918835 -0.9791823 0.46275389 0
-0.21471991 -1.1659189 -0.050048534 0
-0.13020439 -0.97916049 0.46010709 0
-0.19845553 -1.1780611 -0.050208524 0
-0.11725421 -0.99243861 0.46239159 0
-0.1739343 -1.1709598 -0.0496298 0
-0.10453214 -1.0067077 0.46508095 0
-0.16383775 -1.1981603 -0.050388493 0
-0.073357895 -0.97627217 0.34783247 0
-0.086283937 -1.0079712 0.46314144 0
-0.14154465 -1.19581 -0.050014716 0
-0.05604504 -0.97834307 0.34668088 0
-0.06988807 -1.0135525 0.46283743 0
-0.12756623 -1.2146803 -0.050463572 0
-0.029230459 -0.95500976 0.14612803 0
-0.035396531 -0.9712922 0.24429467 0
-0.015856249 -0.91969305 0.32902893 0
-0.052031562 -1.0152194 0.46121591 0
-0.10138513 -1.2009943 -0.049680017 0
-0.010690285 -0.95208198 0.14513916 0
-0.0081028473 -0.9449808 0.23813213 0
0.0032890008 -0.91371566 0.32589826 0
-0.083474055 -1.209263 -0.049742889 0
0.0067813857 -0.95151228 0.14444979 0
0.010342883 -0.94134146 0.23639484 0
0.020332413 -0.91281348 0.32421857 0
-0.00043521659 -0.97212142 0.44186565 0
-0.062742397 -1.2092882 -0.049503528 0
0.022061842 -0.9569636 0.14447097 0
0.021969603 -0.95723802 0.23842609 0
0.025904315 -0.94553071 0.33165273 0
0.014303016 -0.98004895 0.44276902 0
-0.049489334 -1.2319888 -0.050125454 0
0.03598927 -0.96663946 0.14499083 0
0.034719154 -0.97058219 0.23999333 0
0.020359593 -1.0151583 0.34896925 0
0.019969629 -1.0163687 0.45365775 0
-0.028553648 -1.231269 -0.049876247 0
0.026751088 -1.0518789 0.35741448 0
-0.0097059738 -1.2370268 -0.049878877 0
0.068158343 -0.97268361 0.33501968 0
0.0082140435 -1.2461052 -0.050013449 0
0.084178701 -0.97569472 0.33462778 0
0.027928161 -1.2488534 -0.049921989 0
0.10143654 -0.97393793 0.33303136 0
0.047573492 -1.2516232 -0.049840774 0
0.11573882 -0.98319036 0.33439529 0
0.064901814 -1.2637924 -0.050114051 0
0.084859893 -1.2652756 -0.050003313 0
0.10410894 -1.2697124 -0.050009895 0
0.1223865 -1.2790233 -0.050202787 0
0.14211144 -1.2813843 -0.050151139 0
-0.06785275 -2.3988733 0.10274504 0
0.16363133 -1.2732885 -0.049729627 0
0.00047670468 -2.206223 0.095542088 0
0.18345785 -1.2738094 -0.049630418 0
0.032353446 -2.2069304 0.095377997 0
0.20208296 -1.281938 -0.049815018 0
0.065608516 -2.1976383 0.094867788 0
0.21976754 -1.2979604 -0.050292183 0
0.096515939 -2.2029543 0.094899893 0
0.23975277 -1.298111 -0.050205681 0
0.12881373 -2.1972275 0.094548725 0
0.26068759 -1.2891512 -0.049801115 0
0.16015221 -2.1979651 0.094444856 0
0.27970541 -1.2968771 -0.050005052 0
0.19070692 -2.2060077 0.09461733 0
0.30056247 -1.2847461 -0.049505871 0
0.22275399 -2.1980252 0.094229229 0
0.31997514 -1.287706 -0.049556736 0
0.2541984 -2.1946361 0.094020352 0
0.33876488 -1.3017215 -0.050011706 0
0.28521824 -2.1959555 0.0939942 0
0.35883439 -1.2955182 -0.049752228 0
0.31661049 -2.1891057 0.093690053 0
0.37791663 -1.3126191 -0.050334383 0
0.34739441 -2.1937647 0.093811281 0
0.39793539 -1.3060032 -0.050078038 0
0.37843123 -2.1910489 0.093682975 0
0.41770163 -1.3073124 -0.050113663 0
0.43746489 -1.2987012 -0.049804009 0
0.45719558 -1.3016976 -0.049917635 0
0.47671247 -1.2942102 -0.049665738 0
0.49683157 -1.3056966 -0.050100449 0
0.51628959 -1.2990515 -0.049896263 0
0.53586811 -1.2963586 -0.049842071 0
0.55571508 -1.2975166 -0.049934566 0
0.57542616 -1.2964401 -0.049956013 0
0.59457916 -1.289835 -0.049787939 0
0.61410075 -1.2873733 -0.049777221 0
0.63566983 -1.3007216 -0.050344501 0
0.65301573 -1.2816007 -0.049751658 0
0.67289895 -1.2814999 -0.04985274 0
0.69314682 -1.2831166 -0.050025273 0
0.73908138 -1.5558794 0.071900375 0
0.71273929 -1.2804203 -0.050050955 0
0.75249577 -1.4996072 0.07000389 0
0.73153025 -1.2734901 -0.049931668 0
0.77731073 -1.5089648 0.070495829 0
0.75069129 -1.2687418 -0.049900252 0
0.79151303 -1.4654561 0.069072828 0
0.76848572 -1.2578897 -0.049654394 0
0.81388503 -1.4636078 0.069175512 0
0.78889817 -1.2589765 -0.049853757 0
0.83615166 -1.4609755 0.069260068 0
0.81164771 -1.2689166 -0.050388772 0
0.84743738 -1.4136679 0.067712195 0
0.82669264 -1.2477895 -0.049789898 0
0.86512375 -1.3952309 0.067229621 0
0.84839565 -1.2525349 -0.050153721 0
0.87954503 -1.3661584 0.0663599 0
0.86560541 -1.2407248 -0.049913965 0
0.95400846 -1.5479667 0.073327929 0
0.88378292 -1.2327003 -0.049822524 0
0.92490625 -1.3691344 0.06690985 0
0.93469298 -1.4016036 0.19299752 0
0.90533853 -1.2355971 -0.050148085 0
0.94985658 -1.376833 0.067434937 0
0.95009357 -1.3775848 0.19101836 0
0.92306942 -1.226128 -0.0500204 0
0.97636998 -1.3880854 0.19295841 0
0.93976647 -1.2139134 -0.04979695 0
1.0204493 -1.4490607 0.07067243 0
0.95787734 -1.2061155 -0.049747884 0
0.97796297 -1.2037235 -0.049913149 0
0.99699736 -1.198275 -0.049971901 0
0.92749387 -1.0181737 0.46336687 0
1.0130047 -1.1851474 -0.049744833 0
0.94019711 -1.0033338 0.46031842 0
1.034027 -1.18451 -0.050007153 0
0.9604851 -1.007359 0.46410713 0
1.050559 -1.1729529 -0.049856804 0
0.97398555 -0.9948656 0.46202654 0
1.0732824 -1.1755627 -0.050267316 0
0.99216789 -0.99327427 0.46396592 0
1.0891119 -1.1624907 -0.050075136 0
1.003893 -0.97729248 0.46073008 0
1.1075501 -1.1552136 -0.050118737 0
1.0240276 -0.97956008 0.46425191 0
1.1263009 -1.1484958 -0.050194062 0
1.0433846 -0.97963327 0.46707591 0
1.1389868 -1.1296853 -0.0497953 0
1.0636723 -0.98106402 0.47051492 0
1.1632826 -1.1336877 -0.05031931 0
1.0858526 -0.98554796 0.47521845 0
1.1786859 -1.1204005 -0.050158091 0
1.1037918 -0.98140424 0.47679862 0
1.1936502 -1.1065506 -0.049980648 0
1.1298841 -0.99169368 0.05729055 0
1.1325036 -0.99641198 0.16097662 0
1.1329019 -0.99712926 0.26622069 0
1.1301879 -0.99224097 0.3726972 0
1.1286061 -0.98939162 0.4830918 0
1.2141589 -1.102643 -0.050218534 0
1.150046 -0.99051231 0.057607152 0
1.1421173 -0.97664517 0.159633 0
1.1417353 -0.97597736 0.26367918 0
1.1435797 -0.97920305 0.37147635 0
1.1534777 -0.99651402 0.48921826 0
1.2306895 -1.0916401 -0.050174911 0
1.162558 -0.97588819 0.057379704 0
1.1652325 -0.98043209 0.16123167 0
1.1623431 -0.97552317 0.26547343 0
1.1665285 -0.98263377 0.37517163 0
1.1640054 -0.97834724 0.48574793 0
1.2387959 -1.0667819 -0.049561296 0
1.2640355 -1.0702362 -0.050138053 0
1.2769614 -1.0537099 -0.049885731 0
1.2909245 -1.0390764 -0.049719155 0
1.3075497 -1.0285807 -0.04973707 0
1.3269554 -1.0220565 -0.049936902 0
1.3439022 -1.0118409 -0.049987275 0
1.3617814 -1.0028316 -0.050100919 0
1.3752953 -0.98788553 -0.049960356 0
1.3805425 -0.96239871 -0.049350478 0
1.4113724 -0.96985704 -0.05023865 0
1.2069335 -0.71207529 0.050492615 0
1.212706 -0.71935403 0.14093164 0
1.426371 -0.95686406 -0.050212391 0
1.1986775 -0.67706984 0.049333718 0
1.2071379 -0.68746614 0.1378852 0
1.4321234 -0.93282098 -0.049680658 0
1.2130051 -0.67038411 0.049474895 0
1.2041074 -0.65972733 0.13537769 0
1.4542322 -0.92844564 -0.050071076 0
1.2069156 -0.63970464 0.048498161 0
1.2101492 -0.64347988 0.13446368 0
1.4642973 -0.90994042 -0.049807496 0
1.209118 -0.61950308 0.048004884 0
1.2081485 -0.61839956 0.13228674 0
1.4849099 -0.90341264 -0.050122593 0
1.205197 -0.59302258 0.047205549 0
1.2136986 -0.60245657 0.13140322 0
1.4934427 -0.88348299 -0.049802389 0
1.5057129 -0.86781996 -0.04969348 0
1.520436 -0.85478622 -0.049721785 0
1.5406376 -0.84721535 -0.050035119 0
1.567633 -0.84597665 -0.050688714 0
1.5700564 -0.82065839 -0.050122939 0
1.576605 -0.79971749 -0.049780514 0
1.5816696 -0.7777527 -0.049383242 0
1.6000434 -0.76792568 -0.04963788 0
1.6184481 -0.75788409 -0.04989709 0
1.6323471 -0.74381346 -0.049949393 0
1.6399438 -0.72452939 -0.04971854 0
1.665447 -0.71974272 -0.050319113 0
1.677861 -0.70423466 -0.050324563 0
1.6788367 -0.68005019 -0.049826391 0
1.7009677 -0.67191422 -0.050285146 0
1.7061702 -0.65120643 -0.049999967 0
1.722345 -0.63842028 -0.050206855 0
1.7261528 -0.61702758 -0.049884696 0
1.7450171 -0.60588723 -0.050221775 0
1.7467848 -0.58343142 -0.04983576 0
1.7637968 -0.57085758 -0.050107237 0
1.7697074 -0.55128413 -0.049919039 0
1.7848259 -0.53732014 -0.050124664 0
1.7946445 -0.5201326 -0.05011772 0
1.8076847 -0.504749 -0.050251495 0
1.8087885 -0.48277429 -0.049907364 0
1.8132172 -0.46282163 -0.04971087 0
1.8243901 -0.44646546 -0.049796097 0
1.8425518 -0.43349776 -0.05016743 0
1.8468987 -0.41361389 -0.049996063 0
1.8574867 -0.39675549 -0.050081212 0
1.8627261 -0.37742755 -0.049964909 0
1.8723764 -0.36009875 -0.050030392 0
1.8812574 -0.34239426 -0.05007422 0
1.8865759 -0.32321331 -0.04998925 0
1.8892145 -0.30304953 -0.0498113 0
1.8968596 -0.28489438 -0.049834788 0
1.9185747 -0.27179477 -0.050400883 0
1.9166799 -0.2500852 -0.050078645 0
1.9247504 -0.23192628 -0.050143007 0
1.9295311 -0.21266799 -0.050092418 0
1.9262378 -0.19098242 -0.049749751 0
1.9441953 -0.17573227 -0.050208688 0
1.9574324 -0.15883289 -0.050498255 0
1.9633704 -0.13979195 -0.050525222 0
1.9559165 -0.11737219 -0.050068043 0
1.9585004 -0.097662099 -0.049990918 0
1.9647268 -0.078820445 -0.050056368 0
1.9720484 -0.060159307 -0.050170273 0
1.9701495 -0.039590251 -0.049956899 0
1.9640068 -0.018387567 -0.049599368 0
1.973159 -6.2804058e-05 -0.049806323 0
1.9806875 0.018670607 -0.049962521 0
1.9856404 0.037894089 -0.050034031 0
1.9893925 0.057331298 -0.050070897 0
2.0037651 0.075521328 -0.050498415 0
1.9877168 0.097286217 -0.049841255 0
1.9985276 0.1160446 -0.05015792 0
1.9909062 0.13654219 -0.049822457 0
1.9953256 0.15597053 -0.049927432 0
2.0035124 0.17526247 -0.050175812 0
1.9939915 0.1955138 -0.049799919 0
1.999671 0.21502435 -0.049976241 0
1.9992236 0.23477815 -0.049942516 0
2.0040512 0.25447807 -0.050106 0
2.002507 0.27425635 -0.05005087 0
1.9997889 0.29397666 -0.049962699 0
1.9951901 0.3135787 -0.049816191 0
2.000428 0.33351418 -0.050029941 0
2.0035167 0.35348192 -0.050175965 0
1.9958951 0.37281311 -0.049947821 0
1.9952468 0.39255801 -0.049977943 0
1.9826927 0.41119969 -0.049590062 0
1.993912 0.43212354 -0.050063703 0
2.004092 0.45326209 -0.050510164 0
1.9822155 0.47045839 -0.04981241 0
1.9860411 0.4909085 -0.050048489 0
1.9634762 0.50734198 -0.049340367 0
1.9792144 0.52984631 -0.050025672 0
1.9710084 0.54842442 -0.049853563 0
1.9646902 0.5672552 -0.049758226 0
1.9728495 0.58907229 -0.050199497 0
1.962014 0.60695696 -0.049957115 0
1.9505533 0.62452078 -0.049699318 0
1.9543893 0.64573365 -0.05001184 0
1.9473251 0.66429985 -0.049932752 0
1.9357384 0.68155628 -0.049694482 0
1.931114 0.70066786 -0.049722273 0
1.9321014 0.72151405 -0.0499686 0
1.9345341 0.74300641 -0.050279882 0
1.929767 0.76233888 -0.050331749 0
1.9175811 0.77914172 -0.050112702 0
1.8984798 0.79328859 -0.049638204 0
1.9056027 0.81691802 -0.050168164 0
1.8899943 0.83209735 -0.049841173 0
1.8913887 0.85390234 -0.050174572 0
1.8818424 0.87138331 -0.050096858 0
1.8698927 0.88776565 -0.049933739 0
1.8653628 0.90735489 -0.050068088 0
1.8453468 0.91986704 -0.049603425 0
1.8455491 0.94171107 -0.049942635 0
1.833315 0.95767021 -0.049799483 0
1.8183992 0.97214997 -0.049555939 0
1.823048 0.99674362 -0.050107546 0
1.8107579 1.0125877 -0.049987365 0
1.8128831 1.0364007 -0.050464146 0
1.7841876 1.0428541 -0.049686905 0
1.7759823 1.0608213 -0.049757618 0
1.7807367 1.086756 -0.050380271 0
1.7677904 1.1021074 -0.050275557 0
1.756495 1.1184396 -0.050248303 0
1.7325031 1.1263337 -0.04968572 0
1.7303424 1.1486263 -0.050065689 0
1.7153404 1.1622616 -0.049901612 0
1.714292 1.1857891 -0.050357074 0
1.7004261 1.2002585 -0.050261114 0
1.6852447 1.2136501 -0.050113428 0
1.6677413 1.2251078 -0.049866863 0
1.6560063 1.2409512 -0.049887866 0
1.6424283 1.2553084 -0.049833193 0
1.6316024 1.2719319 -0.049914666 0
1.6225013 1.290122 -0.050088134 0
1.6145864 1.3095286 -0.050330929 0
1.5866344 1.3109993 -0.049622525 0
1.5807334 1.3323015 -0.049981803 0
1.5619422 1.3416626 -0.049722593 0
1.5494373 1.3569217 -0.049779978 0
1.537382 1.3726937 -0.049870487 0
1.5241402 1.387341 -0.049911514 0
1.5123429 1.4035587 -0.050037552 0
1.026278 0.89076155 0.29313758 0
1.497104 1.4161886 -0.049994972 0
1.0399245 0.9215371 0.30371553 0
1.4840041 1.4311517 -0.050074287 0
1.4384906 1.3806466 0.059647061 0
1.4378607 1.3799475 0.16738917 0
1.4361794 1.3780819 0.27638093 0
1.0472617 0.94651008 0.31149811 0
1.4625328 1.4366763 -0.049712054 0
1.4079702 1.3745749 0.058760777 0
1.4065112 1.3729143 0.16458482 0
1.4146531 1.382181 0.27435246 0
1.0519563 0.96937037 0.31821823 0
1.4466252 1.4483086 -0.049653601 0
1.3867381 1.3783907 0.058366954 0
1.3961278 1.3893532 0.16518809 0
1.3903166 1.3825687 0.27152908 0
1.0613865 0.99854434 0.32760599 0
1.4382999 1.4689627 -0.050024714 0
1.3534499 1.3673383 0.057298232 0
1.3653928 1.3816422 0.16242239 0
1.3680564 1.3848325 0.26924846 0
1.0641295 1.0208207 0.33385435 0
1.4194813 1.477142 -0.049822699 0
1.3426703 1.3827552 0.057478156 0
1.3416252 1.3814709 0.16078345 0
1.3409864 1.3806859 0.26556602 0
1.0588285 1.0339646 0.3361069 0
1.4024948 1.4874072 -0.049728587 0
1.3207397 1.3843204 0.057031348 0
1.3205382 1.3840662 0.15958154 0
1.317959 1.3808141 0.26298299 0
1.0589561 1.0542314 0.34139004 0
1.3950343 1.5098962 -0.050196603 0
1.2922673 1.3769094 0.056196399 0
1.2975729 1.383775 0.15803547 0
1.2898115 1.3737313 0.25884786 0
1.0510546 1.0647651 0.34252903 0
1.3793811 1.5220568 -0.05020288 0
1.2762555 1.3850752 0.056081507 0
1.2724003 1.3799543 0.15606828 0
1.2769325 1.3859744 0.25919482 0
1.0435439 1.0759647 0.34397629 0
1.3543158 1.521395 -0.049650196 0
1.2555678 1.3867322 0.055688489 0
1.2508661 1.3803205 0.15471959 0
1.2535278 1.3839504 0.25638431 0
1.0267636 1.0747118 0.34031197 0
1.3420871 1.5380435 -0.049875773 0
1.2463408 1.4039661 0.055993818 0
1.2423443 1.3983697 0.15575412 0
1.2435927 1.4001178 0.25769603 0
1.0207821 1.0881073 0.34275582 0
1.3242764 1.5469475 -0.049769357 0
1.2491598 1.4389077 0.057071541 0
1.2461488 1.434577 0.15917052 0
1.2415005 1.4278914 0.26157328 0
1.0096124 1.0943682 0.34231803 0
1.3082933 1.5584236 -0.049784441 0
1.2423784 1.4610245 0.057585727 0
1.241228 1.4593247 0.16106461 0
1.2416543 1.4599545 0.26635751 0
1.0047368 1.1098739 0.34565449 0
1.2969778 1.5770124 -0.05011208 0
1.2465096 1.5003767 0.058836099 0
1.2538949 1.5115914 0.16649221 0
1.2420241 1.4935656 0.2714361 0
1.1724657 1.3879416 0.34923506 0
0.99565256 1.1194516 0.34662655 0
1.2814723 1.5894954 -0.05018428 0
1.2463452 1.5346643 0.059859477 0
1.241405 1.526953 0.16714551 0
1.221235 1.4954691 0.26968163 0
1.1497526 1.3838898 0.34521148 0
0.98682755 1.1295744 0.34785149 0
1.2618197 1.5954242 -0.04998846 0
1.2423396 1.564157 0.060673263 0
1.2441037 1.5669886 0.17093794 0
1.2064799 1.5065995 0.26995733 0
1.1271081 1.3792019 0.3411144 0
0.97333688 1.1323875 0.34624538 0
1.2428895 1.6022848 -0.049843397 0
1.1932927 1.5203987 0.27083296 0
1.1107516 1.3841203 0.33999929 0
0.96532947 1.1440229 0.34814936 0
0.83511251 0.92903 0.46683788 0
1.2292868 1.6180012 -0.050076187 0
1.1763325 1.5280346 0.27044719 0
1.0937418 1.387717 0.33856225 0
0.95606774 1.1538155 0.3493669 0
0.8340975 0.94659424 0.47547287 0
1.2104973 1.6249833 -0.049955171 0
1.1520439 1.5227507 0.2674247 0
1.071349 1.3816187 0.33434945 0
0.94692427 1.1640048 0.35077262 0
0.85420781 1.0018476 0.35772881 0
0.84298283 0.98221546 0.4197304 0
0.84024221 0.97742224 0.49311575 0
1.1929876 1.6341012 -0.049931906 0
1.1411256 1.5406862 0.26927623 0
1.0512019 1.378714 0.33118048 0
0.9385168 1.1757431 0.35280192 0
0.85105693 1.0182087 0.36299026 0
0.839966 0.99823147 0.42597103 0
0.84297276 1.0036473 0.50746083 0
1.1792792 1.6502459 -0.050202742 0
1.1291193 1.5571536 0.27084273 0
1.03571 1.3837947 0.330421 0
0.92643678 1.1809938 0.35240591 0
0.85151744 1.0419505 0.3717061 0
0.84063166 1.0217476 0.43645385 0
0.83773589 1.0163733 0.5125919 0
1.1594546 1.6551081 -0.050024275 0
1.1094116 1.5593653 0.26952884 0
1.0225426 1.3931668 0.33095825 0
0.91296113 1.1835141 0.3510448 0
0.84754509 1.0583595 0.37693632 0
0.83957946 1.0431195 0.44565269 0
0.84174234 1.0472577 0.5298847 0
1.1423299 1.6650267 -0.050059341 0
1.0995255 1.5805589 0.27211145 0
1.000263 1.3846799 0.32643163 0
0.89847106 1.1838094 0.34892595 0
0.84763241 1.0834872 0.38620344 0
0.84120131 1.0707965 0.45833698 0
0.83802158 1.0645217 0.53797841 0
1.1242018 1.672965 -0.050024033 0
1.0776292 1.5781178 0.26995465 0
0.97951627 1.3783069 0.32261372 0
0.88869262 1.1933408 0.35031128 0
0.84688622 1.1082003 0.39522174 0
0.84247017 1.0992068 0.47134057 0
0.83663791 1.0873293 0.54971582 0
1.1096455 1.6883644 -0.050292935 0
0.96687788 1.3881146 0.32346374 0
0.87525129 1.1954179 0.34898776 0
0.83999652 1.1212748 0.3988547 0
0.84317458 1.1279584 0.4844467 0
0.84272748 1.1270181 0.57248026 0
1.0894972 1.6920724 -0.050108045 0
0.94973677 1.3883437 0.32166359 0
0.86605221 1.2064797 0.35102445 0
0.83997065 1.1497989 0.40954772 0
0.83911109 1.1479309 0.49263692 0
0.83927488 1.1482868 0.58303797 0
1.0668153 1.6897734 -0.0496994 0
0.93699968 1.3980389 0.32257736 0
0.85153884 1.2059827 0.34888306 0
0.84152144 1.1834707 0.42251402 0
0.84172124 1.1839197 0.50958067 0
0.83990645 1.1798412 0.60024142 0
1.0500771 1.7005763 -0.049813252 0
0.91405833 1.3842366 0.31700519 0
0.84788704 1.2303417 0.35582101 0
0.84109926 1.2145553 0.43423542 0
0.84190369 1.2164261 0.52451843 0
0.83776605 1.2068032 0.61438233 0
1.0328107 1.7103243 -0.049893897 0
0.89743006 1.3842134 0.31534854 0
0.85096747 1.2722925 0.36907637 0
0.83908272 1.2436639 0.44501236 0
0.8401202 1.246163 0.53787667 0
0.8430506 1.2532219 0.64096045 0
1.0147469 1.7182423 -0.049912147 0
0.88155633 1.3856413 0.31415662 0
0.84819162 1.3023236 0.3779794 0
0.84301466 1.2893958 0.46316037 0
0.8400746 1.2820539 0.55449677 0
0.84130234 1.2851199 0.65808594 0
0.99550742 1.7231585 -0.04982416 0
0.86026669 1.3727151 0.30909988 0
0.84923232 1.3441222 0.39104816 0
0.8384257 1.3161196 0.4727627 0
0.83950478 1.3189157 0.57155716 0
0.83769226 1.314219 0.67336333 0
0.97809881 1.7328334 -0.049927074 0
0.84789568 1.3823688 0.31028545 0
0.84576529 1.3766344 0.40075544 0
0.83716458 1.3534842 0.48704565 0
0.84013635 1.3614831 0.59158731 0
0.83988655 1.3608108 0.69966507 0
0.95999885 1.7407981 -0.049973018 0
0.83513623 1.3912898 0.31130952 0
0.84028423 1.4056998 0.40921691 0
0.8399089 1.4046493 0.50733912 0
0.84275609 1.412619 0.61607581 0
0.94086629 1.745863 -0.049917933 0
0.8169198 1.3846257 0.30816874 0
0.84229261 1.4585737 0.42604044 0
0.83920562 1.4495769 0.52479959 0
0.84030569 1.452783 0.63463742 0
0.92458141 1.7594664 -0.050193075 0
1.0282223 2.0743864 0.34965712 0
0.80278653 1.3893844 0.30817083 0
0.84087086 1.5051063 0.44056451 0
0.8391 1.4997253 0.54446751 0
0.84303331 1.5116769 0.6630044 0
0.90187943 1.7533673 -0.04973729 0
1.0105379 2.0980916 0.35274851 0
0.7884385 1.3934704 0.30804065 0
0.8384679 1.552191 0.45522991 0
0.83891553 1.5536113 0.5656805 0
0.83858234 1.5525542 0.68178934 0
0.88326061 1.7597116 -0.049757905 0
0.98602301 2.1006446 0.35188591 0
0.76669651 1.3729891 0.30141273 0
0.83708328 1.6065099 0.47236404 0
0.83973849 1.6153193 0.59019673 0
0.86699635 1.7743031 -0.05009355 0
0.95862323 2.0927494 0.34912375 0
0.75377768 1.380815 0.30239677 0
0.84060079 1.682566 0.49696755 0
0.84127593 1.6849124 0.61801708 0
0.84525192 1.7698116 -0.049729213 0
0.7386772 1.3810594 0.047338165 0
0.73785245 1.3780509 0.13010238 0
0.73891169 1.3819147 0.21498387 0
0.74162167 1.3917998 0.30425611 0
0.8361252 1.7365202 0.5138464 0
0.83653164 1.7380028 0.63864833 0
0.82724559 1.7786552 -0.04986817 0
0.72504193 1.3865497 0.047401775 0
0.72106856 1.3713058 0.12893613 0
0.72537345 1.3878217 0.21538234 0
0.72460961 1.384891 0.30143207 0
0.83193767 1.7966565 0.53281486 0
0.83025545 1.7902025 0.65885657 0
0.80535132 1.7721951 -0.049452234 0
0.7092548 1.3835335 0.047158681 0
0.71029437 1.387738 0.13036278 0
0.70909011 1.3828675 0.21379352 0
0.70807952 1.37878 0.29888287 0
0.82681543 1.8590066 0.5525012 0
0.82361728 1.8460716 0.68060076 0
0.79086006 1.7961074 -0.050161254 0
0.69311512 1.3782675 0.046841107 0
0.69298762 1.3777224 0.1288812 0
0.69444746 1.3839629 0.21336788 0
0.69429678 1.3833189 0.29918623 0
0.81681895 1.9070761 0.56727242 0
0.77112329 1.7985855 -0.050091349 0
0.6806044 1.3884166 0.04709544 0
0.67825359 1.3777646 0.12853464 0
0.68066692 1.3887 0.21365011 0
0.67895544 1.3809447 0.29772803 0
0.80285484 1.9423707 0.5776931 0
0.75226086 1.8050499 -0.050176043 0
0.66497684 1.3844404 0.046839822 0
0.66409683 1.3801997 0.12847205 0
0.66301614 1.3749921 0.21056621 0
0.66615951 1.3901395 0.29933849 0
0.79442626 2.0082388 0.59853488 0
0.73064959 1.7977046 -0.049766928 0
0.64945042 1.3800517 0.046576995 0
0.64861631 1.3757615 0.12767662 0
0.64968485 1.3812574 0.21120034 0
0.64955318 1.3805802 0.2961126 0
0.77748561 2.0386086 0.60733044 0
0.71222126 1.8063084 -0.049947325 0
0.63498336 1.3804773 0.046496551 0
0.63530338 1.3822418 0.12809691 0
0.63388401 1.3744164 0.20946151 0
0.63712984 1.3923116 0.29846892 0
0.76482159 2.0963068 0.62541848 0
0.69171429 1.8033543 -0.049717303 0
0.62152666 1.3865747 0.046628222 0
0.6208061 1.3822962 0.12783425 0
0.62115479 1.3843668 0.21083377 0
0.62172282 1.3877397 0.29664272 0
0.74471587 2.1180816 0.63140231 0
0.67424279 1.8188874 -0.050165024 0
0.607732 1.3911179 0.046709608 0
0.60756004 1.3900119 0.12842523 0
0.60554868 1.3770757 0.20908579 0
0.60666037 1.3842255 0.29514337 0
0.72668064 2.1561456 0.64294422 0
0.65412319 1.8181106 -0.05003171 0
0.59138381 1.3781778 0.046166629 0
0.59322244 1.3910705 0.12831061 0
0.59168148 1.3802652 0.20928606 0
0.59182811 1.3812934 0.29384559 0
0.70847607 2.1992366 0.65623116 0
0.6322366 1.803013 -0.049392175 0
0.57809514 1.3858539 0.04637415 0
0.57888013 1.391902 0.12819116 0
0.57747424 1.3810697 0.20908405 0
0.57905495 1.393249 0.29642823 0
0.68798727 2.2325709 0.66630018 0
0.61479723 1.8220699 -0.049991176 0
0.56319642 1.3810474 0.0461387 0
0.56379139 1.3861325 0.12737717 0
0.56358963 1.3844081 0.20937495 0
0.56327993 1.3817611 0.29302642 0
0.66732264 2.2709949 0.67814571 0
0.5950734 1.8233194 -0.049958091 0
0.55118501 1.4023558 0.12896118 0
0.55257225 1.4156616 0.21475893 0
0.55124044 1.4028872 0.29804605 0
0.64565521 2.308485 0.68975043 0
0.5754844 1.8258204 -0.049978815 0
0.55090511 1.5573252 0.14553379 0
0.55179709 1.5670686 0.24192199 0
0.55223536 1.5718561 0.34097591 0
0.6216169 2.3297563 0.69601452 0
0.55633688 1.8341458 -0.050216939 0
0.60245818 2.4189856 0.23827371 0
0.59898299 2.3749189 0.38781616 0
0.59780502 2.3599815 0.54231703 0
0.53581572 1.8243114 -0.049813755 0
0.57379025 2.3979156 0.39162409 0
0.57340717 2.3921289 0.55004722 0
0.51662463 1.8340497 -0.050119855 0
0.54832733 2.4258878 0.39638543 0
0.54812819 2.4221706 0.55731273 0
0.49649924 1.8263245 -0.049810439 0
0.52196348 2.4482117 0.40018263 0
0.52186173 2.4457266 0.56299973 0
0.47674605 1.8241396 -0.049708068 0
0.45662218 1.1140492 0.35793811 0
0.45658764 1.1128308 0.43068844 0
0.45712897 1.8262104 -0.049766548 0
0.44577032 1.1046618 0.35395327 0
0.44593564 1.1151636 0.43173796 0
0.43750933 1.8415529 -0.050307665 0
0.43513235 1.0867716 0.4174816 0
0.43513986 1.0891583 0.49514017 0
0.41767314 1.8390726 -0.050221343 0
0.4247537 1.089221 0.41872349 0
0.42483488 1.0806247 0.49009848 0
0.3980296 1.8304722 -0.049925368 0
0.41414863 1.0990337 0.35166383 0
0.41429552 1.0923682 0.42038032 0
0.4145312 1.0816735 0.49081662 0
0.37822393 1.8324915 -0.050017461 0
0.35260677 2.5720325 0.42243317 0
0.35275286 2.5678151 0.59403449 0
0.40508205 1.0571254 0.47642273 0
0.35859859 1.8292521 -0.049930569 0
0.32240501 2.5952206 0.42683449 0
0.32251096 2.5929782 0.60076481 0
0.39559069 1.0463852 0.47028866 0
0.33924145 1.822507 -0.049727064 0
0.29185921 2.6137946 0.43047425 0
0.29184893 2.6139662 0.60653037 0
0.38624856 1.0374838 0.46531358 0
0.31975228 1.8195235 -0.04966674 0
0.26140904 2.6239598 0.43266633 0
0.26188868 2.6173468 0.60789597 0
0.29886094 1.8334624 -0.05022148 0
0.35587347 1.1642759 0.038244117 0
0.22973672 2.6448092 0.43686402 0
0.23024446 2.6388497 0.6139999 0
0.2796278 1.8264141 -0.050033487 0
0.19742097 2.666167 0.44123119 0
0.19756131 2.6647334 0.62133646 0
0.2607421 1.8174027 -0.049783412 0
0.16543873 2.6789203 0.44411698 0
0.16661642 2.6682744 0.62305367 0
0.34663782 1.0409275 0.4693439 0
0.24091348 1.8174481 -0.049867291 0
0.13372709 2.686151 0.44607681 0
0.13431014 2.6814256 0.62734413 0
0.22164553 1.8129152 -0.049795337 0
0.10241936 2.6883516 0.44719714 0
0.10199817 2.6914446 0.63094014 0
0.20042901 1.8217797 -0.050215591 0
0.069140777 2.702682 0.4506031 0
0.06889011 2.7043641 0.63539588 0
0.17975856 1.8253981 -0.050456617 0
0.038467154 2.6979203 0.45060441 0
0.037144884 2.7060857 0.63707429 0
0.16186388 1.8121392 -0.050095912 0
0.0027016567 2.7222447 0.45600167 0
0.0027862058 2.7217615 0.64247394 0
0.14207913 1.8103006 -0.050157387 0
-0.028997434 2.7208188 0.4567689 0
-0.029750867 2.7248287 0.6447255 0
0.12243615 1.8075204 -0.05019379 0
-0.087738231 2.8533883 0.1002791 0
-0.089343324 2.8613756 0.29067791 0
-0.06079115 2.7192945 0.45759338 0
-0.062785253 2.7292175 0.64743316 0
0.10623272 1.7885368 -0.049647719 0
-0.11332883 2.81409 0.099090979 0
-0.11501451 2.8219635 0.28709114 0
-0.095299438 2.729876 0.46072653 0
-0.094719008 2.727165 0.64857584 0
0.082725003 1.8034124 -0.05034719 0
-0.14304091 2.7966814 0.09871266 0
-0.14475216 2.8042102 0.28591672 0
-0.12896629 2.7347593 0.46289504 0
-0.12938465 2.7365999 0.65283251 0
0.063171789 1.7997278 -0.05037811 0
-0.1705146 2.7710874 0.098046333 0
-0.17542531 2.7914996 0.28533748 0
-0.16395088 2.7438042 0.46592057 0
-0.16274984 2.7388117 0.65532094 0
0.047377244 1.7811402 -0.049869239 0
-0.20928432 2.7918653 0.09909869 0
-0.2096972 2.7934909 0.28642929 0
-0.19495375 2.7354319 0.4657968 0
-0.19588245 2.739089 0.65741861 0
0.028207647 1.7765523 -0.049883362 0
-0.25203091 2.8246229 0.10061532 0
-0.25027013 2.8180375 0.29008183 0
-0.22774757 2.7338049 0.4670046 0
-0.22739573 2.7324889 0.65781701 0
0.006843166 1.7797294 -0.050194412 0
-0.26074255 2.7322514 0.4683077 0
-0.26300257 2.7402966 0.66214001 0
-0.011762125 1.7727516 -0.050138675 0
-0.28975052 2.7165005 0.46702436 0
-0.29711115 2.7414894 0.66483879 0
-0.029594375 1.763389 -0.050002363 0
-0.32658601 2.7267303 0.47070801 0
-0.3268128 2.7274661 0.66360009 0
-0.045617566 1.748714 -0.049674641 0
-0.35810411 2.7187593 0.47104576 0
-0.36160624 2.7296309 0.66679549 0
-0.065635726 1.7466412 -0.049827766 0
-0.39488429 2.7262809 0.47440794 0
-0.39695352 2.7324374 0.67029488 0
-0.084441736 1.7407706 -0.04984742 0
-0.42576855 2.7155287 0.47438145 0
-0.42390472 2.7102058 0.66716141 0
-0.10580416 1.7418666 -0.05014085 0
-0.45867521 2.7103226 0.47549388 0
-0.45789516 2.7081819 0.66959268 0
-0.12643929 1.7404486 -0.050349962 0
-0.48699468 2.6925502 0.47426793 0
-0.48856372 2.6966934 0.66957003 0
-0.14167245 1.7248793 -0.050027184 0
-0.51714629 2.6798916 0.47409582 0
-0.5177781 2.6814985 0.66863674 0
-0.16241939 1.7234261 -0.050254382 0
-0.54745644 2.6676714 0.47408202 0
-0.54913551 2.6717892 0.66931123 0
-0.1788726 1.7113914 -0.050082773 0
-0.58030319 2.6614463 0.47531644 0
-0.58153892 2.6643708 0.67073298 0
-0.19692166 1.703299 -0.050071891 0
-0.61633945 2.6620693 0.47798687 0
-0.60948086 2.6463909 0.66933471 0
-0.21644069 1.6984657 -0.050197545 0
-0.64215386 2.6391876 0.47610927 0
-0.63978279 2.6339478 0.66957724 0
-0.22743322 1.675189 -0.049606662 0
-0.66810107 2.6171958 0.47446233 0
-0.66959178 2.6203828 0.66961235 0
-0.25345588 1.6839662 -0.050288618 0
-0.69744062 2.6027412 0.47438025 0
-0.70001078 2.6080596 0.67010564 0
-0.26574409 1.6641272 -0.049846206 0
-0.72668231 2.5881042 0.47433513 0
-0.72764921 2.5900424 0.66908735 0
-0.28724211 1.6628573 -0.0501527 0
-0.7583077 2.5781009 0.47530407 0
-0.75207663 2.5659945 0.66643167 0
-0.3018077 1.6480572 -0.049925297 0
-0.78448343 2.5575297 0.47420284 0
-0.781865 2.5525959 0.66692263 0
-0.31596863 1.632845 -0.049686998 0
-0.81017208 2.5363774 0.47304213 0
-0.81596184 2.5469625 0.66978377 0
-0.33518088 1.6269339 -0.049835421 0
-0.61637151 2.1259935 0.082286023 0
-0.83824813 2.5197818 0.47288311 0
-0.83432066 2.5128114 0.66443938 0
-0.35783809 1.6267462 -0.05023111 0
-0.61843872 2.0759418 0.080771372 0
-0.85970652 2.4918137 0.47042513 0
-0.86563468 2.502032 0.66601747 0
-0.37438458 1.6157739 -0.050193176 0
-0.6167804 2.0217266 0.07907325 0
-0.88391316 2.4691074 0.46911049 0
-0.89338684 2.4849734 0.66585833 0
-0.39111251 1.6051421 -0.050177902 0
-0.61968255 1.9772154 0.07776767 0
-0.91252744 2.4539168 0.4694407 0
-0.91762412 2.4622135 0.66409504 0
-0.40074891 1.5833002 -0.049697969 0
-0.61801994 1.9271954 0.076220565 0
-0.93714058 2.4322975 0.46847865 0
-0.93064618 2.4220183 0.65714765 0
-0.42322016 1.5818336 -0.050086647 0
-0.62088966 1.8861492 0.075041898 0
-0.96335888 2.4133866 0.4681575 0
-0.9540149 2.3990011 0.65541911 0
-0.44596207 1.5802728 -0.050486669 0
-0.61600494 1.8349779 0.073420204 0
-0.98260188 2.3840988 0.46565482 0
-0.97719896 2.3760056 0.65377247 0
-0.46309048 1.5700244 -0.050526384 0
-0.62047756 1.7994632 0.072459608 0
-1.0042527 2.3589299 0.464084 0
-1.0018061 2.3553634 0.65292948 0
-0.47187626 1.5478824 -0.05005639 0
-0.61459756 1.7504261 0.070902333 0
-1.0147979 2.3183725 0.45916399 0
-1.015241 2.3190012 0.64726901 0
-0.48821646 1.5367397 -0.050071672 0
-0.61435103 1.7110411 0.069752917 0
-0.6160413 1.7133768 0.19822116 0
-1.0432192 2.3036804 0.45998648 0
-1.0434263 2.3039668 0.6483264 0
-0.082223311 0.97571057 0.44532785 0
-0.50034612 1.5199069 -0.049843121 0
-0.61654353 1.6762919 0.068798751 0
-0.61470795 1.6738216 0.1947083 0
-1.062986 2.2771399 0.45823455 0
-1.0612851 2.2748508 0.64503032 0
-0.096669212 0.97661531 0.44996715 0
-0.51392508 1.5052348 -0.049716219 0
-0.61387515 1.636274 0.067600034 0
-0.61077034 1.6322033 0.19088043 0
-1.0788155 2.2458322 0.45544067 0
-1.0775578 2.2441833 0.64127642 0
-0.10275276 0.96616882 0.44762206 0
-0.53531778 1.5006839 -0.050054666 0
-0.61520839 1.6027334 0.066681616 0
-0.62051177 1.6095079 0.18959059 0
-1.0938996 2.2141974 0.45258954 0
-1.0955524 2.2163086 0.63845628 0
-0.11424591 0.96282095 0.44981286 0
-0.54821217 1.4851686 -0.049906708 0
-0.6161834 1.5697759 0.065781325 0
-0.61233723 1.5649884 0.18529589 0
-1.1099817 2.1844323 0.45018578 0
-1.1059223 2.1793795 0.63271803 0
-0.13193305 0.96700412 0.45695186 0
-0.57270324 1.4838808 -0.050422952 0
-0.61508083 1.5352911 0.064801551 0
-0.61597574 1.5363766 0.18315771 0
-1.1264096 2.155607 0.44802362 0
-1.1312522 2.1614816 0.63325536 0
-0.13547523 0.9534598 0.45281419 0
-0.57986915 1.4615376 -0.049974594 0
-0.61641192 1.5047489 0.063994981 0
-0.62098718 1.5101591 0.18134005 0
-1.1409208 2.1249747 0.4454602 0
-1.1476901 2.1329794 0.63036114 0
-0.15282203 0.95655894 0.45956725 0
-0.59911537 1.4535973 -0.050206285 0
-0.61464417 1.4714979 0.063052319 0
-0.61636555 1.4734823 0.17802325 0
-1.1609243 2.1012125 0.44455224 0
-1.1577028 2.0974991 0.62514788 0
-0.61669803 1.4435371 -0.050350793 0
-0.62479043 1.4526316 0.062785409 0
-0.63199949 1.4607333 0.17810293 0
-1.1717145 2.0672798 0.44123924 0
-1.1685653 2.0637405 0.62050664 0
-0.62773776 1.4261516 -0.050153553 0
-0.65528393 1.4563348 0.063612424 0
-0.6681155 1.4703947 0.18147266 0
-1.1792561 2.0304661 0.43721756 0
-1.1808573 2.0322206 0.61663204 0
-0.63417149 1.4040442 -0.049729824 0
-0.51047397 1.2718863 0.055267327 0
-0.67969334 1.4526796 0.18091905 0
-1.1940216 2.0021853 0.43527937 0
-1.1902108 1.998114 0.61186141 0
-0.64673316 1.3887479 -0.049642 0
-0.50592393 1.2420546 0.054382589 0
-0.71184957 1.4565853 0.18360113 0
-1.2084165 1.9739025 0.43336326 0
-1.200907 1.9660792 0.6078068 0
-0.66324365 1.3775468 -0.049766112 0
-0.51597589 1.2279421 0.054271448 0
-0.74364591 1.4592249 0.18618637 0
-1.2103233 1.9333079 0.42835319 0
-1.2102391 1.9332224 0.60345536 0
-0.6776185 1.3641026 -0.049788497 0
-0.52296984 1.210907 0.054017 0
-0.77094281 1.4565501 0.18805391 0
-1.2226828 1.9040458 0.42618927 0
-1.2251916 1.9065311 0.60132569 0
-0.6878345 1.3466148 -0.049612634 0
-0.53748572 1.2013835 0.054149713 0
-0.80740857 1.462119 0.19127396 0
-1.2266961 1.8671353 0.4220517 0
-1.2275318 1.8679426 0.59486794 0
-0.71009624 1.3406392 -0.050040498 0
-0.55974406 1.1990204 0.054666504 0
-0.83271682 1.4561372 0.19279836 0
-1.2269256 1.827448 0.41714126 0
-1.2283967 1.8288335 0.58814049 0
-0.7169472 1.3200959 -0.049720086 0
-0.86465538 1.4557552 0.068880051 0
-0.86815512 1.4589696 0.19579448 0
-1.2250144 1.7867193 0.41188619 0
-1.2298777 1.7911857 0.58187544 0
-0.23341961 0.87601042 0.38037804 0
-0.73299992 1.3080918 -0.049856711 0
-0.89646685 1.4544731 0.0696906 0
-0.90057743 1.4581541 0.19831672 0
-1.2396168 1.761757 0.41081265 0
-1.2283516 1.7516692 0.57481402 0
-0.23901536 0.86573851 0.37923717 0
-0.74987984 1.2966777 -0.050038259 0
-0.93318748 1.4567132 0.070725709 0
-1.2381341 1.7229449 0.40597561 0
-1.2357094 1.7208279 0.57100815 0
-0.2325011 0.8449837 0.3715243 0
-0.76077616 1.2799989 -0.049944129 0
-0.98307538 1.4691964 0.072365761 0
-1.2333523 1.6822058 0.40052521 0
-1.2458626 1.6928532 0.56831014 0
-0.24283232 0.83917975 0.37319526 0
-0.25262302 0.84751254 0.45616844 0
-0.7758863 1.2668979 -0.05005623 0
-1.0141888 1.4645964 0.073110536 0
-1.2526429 1.6624206 0.40089321 0
-1.2438955 1.6551636 0.56173968 0
-0.25014555 0.83073759 0.37326479 0
-0.79818392 1.259503 -0.050504811 0
-1.0489069 1.4622307 0.074015945 0
-1.2443762 1.6202816 0.39492425 0
-1.2472535 1.6226082 0.55713946 0
-0.25358605 0.81915635 0.37132847 0
-0.80367422 1.2384578 -0.050189279 0
-1.0949591 1.4679779 0.07542894 0
-1.2463802 1.587291 0.3914949 0
-1.2402471 1.5824585 0.54935193 0
-0.26424325 0.81340927 0.37329265 0
-0.82184255 1.2274226 -0.050459396 0
-1.1263195 1.461184 0.076163791 0
-1.2602367 1.5639986 0.39088839 0
-1.2366867 1.5459181 0.54291111 0
-0.24451335 0.78417969 0.35941419 0
-0.25309533 0.7907685 0.43849555 0
-0.82213104 1.2027729 -0.049936086 0
-1.1706234 1.4634188 0.077472642 0
-1.2469286 1.5204893 0.38423613 0
-1.2432327 1.5177251 0.53989786 0
-0.26246405 0.78418434 0.36533904 0
-0.27301913 0.79207867 0.44683677 0
-0.83108866 1.1848911 -0.049814247 0
-1.1993991 1.4531947 0.07808242 0
-1.2439215 1.485628 0.38006586 0
-1.2282386 1.4742035 0.53022552 0
-1.2344385 1.4787199 0.69214624 0
-0.25539476 0.76551461 0.35839337 0
-0.28257555 0.78531504 0.44867396 0
-0.84485984 1.1705256 -0.049914084 0
-1.2520281 1.4593593 0.079736538 0
-1.2523341 1.4595765 0.3785553 0
-1.2367653 1.4485323 0.52816886 0
-1.2385682 1.4498113 0.68764782 0
-0.28058541 0.77024502 0.36800545 0
-0.27566826 0.76675689 0.44044772 0
-0.8491708 1.1495372 -0.049610488 0
-1.2904429 1.4542847 0.080756232 0
-1.2536136 1.4288498 0.37556657 0
-1.2387372 1.4185761 0.52419835 0
-1.2444497 1.4225212 0.68404442 0
-0.29162079 0.76448709 0.44633561 0
-0.86445212 1.1361772 -0.049792778 0
-1.2815837 1.4165618 0.079736516 0
-1.269453 1.4084079 0.22639349 0
-1.2547885 1.3985509 0.37266478 0
-1.2399548 1.3885801 0.52014577 0
-1.2304171 1.382169 0.67262685 0
-0.29064077 0.75047648 0.4419831 0
-0.88094985 1.1234553 -0.050032672 0
-1.2683046 1.3768028 0.078556955 0
-1.2781997 1.3832747 0.22568423 0
-1.2374804 1.3566424 0.3658863 0
-1.2393514 1.357866 0.51568693 0
-1.2371522 1.3564278 0.66976166 0
-0.29599929 0.74087125 0.44156176 0
-0.89804554 1.1109097 -0.050302759 0
-1.277463 1.3523 0.078357495 0
-1.2828549 1.3557304 0.22449994 0
-1.2506353 1.3352319 0.36578676 0
-1.2348659 1.3251992 0.51020724 0
-1.2363075 1.3261163 0.66405869 0
-0.30397493 0.73295408 0.44276777 0
-0.88741732 1.0809845 -0.049413525 0
-1.2906184 1.3304307 0.078340396 0
-1.2891489 1.3295217 0.22357596 0
-1.2518932 1.3064728 0.36322236 0
-1.2357904 1.2965106 0.50651699 0
-1.2450857 1.3022612 0.66231465 0
-0.91518819 1.0748802 -0.050146464 0
-1.3035089 1.3084115 0.078323908 0
-1.3113906 1.3131515 0.22470044 0
-1.2470714 1.2744707 0.3594743 0
-1.2444057 1.2728676 0.50525224 0
-1.2360975 1.267871 0.65380341 0
-0.92421067 1.0572177 -0.050101977 0
-1.3307177 1.2947682 0.078911103 0
-1.3283286 1.293372 0.22518225 0
-1.2438645 1.2440138 0.3561756 0
-1.2387898 1.2410482 0.49987972 0
-1.2348974 1.2387736 0.64852309 0
-0.93928707 1.0430238 -0.050315484 0
-1.3860861 1.2966274 0.080657199 0
-1.3725668 1.2889539 0.22906514 0
-1.2605515 1.2253737 0.35710567 0
-1.2336211 1.2100881 0.49479458 0
-1.2391071 1.213202 0.64549065 0
-0.93342793 1.0171175 -0.049681433 0
-1.257098 1.1954823 0.35393047 0
-1.2445735 1.1885804 0.49455479 0
-1.2336869 1.1825812 0.63894379 0
-0.95291436 1.0052687 -0.050091013 0
-1.2449419 1.1614354 0.34907407 0
-1.2340262 1.1555979 0.48817486 0
-1.2364787 1.1569095 0.63568509 0
-0.95996559 0.98664093 -0.05000383 0
-1.2631272 1.1438855 0.35050091 0
-1.2493142 1.1367209 0.48938155 0
-1.2384515 1.1310866 0.63226217 0
-0.97412574 0.97165298 -0.050210677 0
-1.2764475 1.1236622 0.35098147 0
-1.2337917 1.1022146 0.48185027 0
-1.2413592 1.1060196 0.62933052 0
-0.97925258 0.95209891 -0.050065048 0
-1.2783092 1.0977782 0.34921163 0
-1.2411046 1.0796547 0.48096922 0
-1.2410507 1.0796285 0.62534368 0
-0.99431729 0.93734199 -0.050322302 0
-1.2878783 1.0757984 0.34905434 0
-1.24578 1.0559429 0.47942981 0
-1.2370162 1.0518095 0.62013251 0
-1.0052663 0.92050409 -0.05042389 0
-1.3026153 1.0561968 0.34997743 0
-1.2341539 1.024955 0.47341153 0
-1.2379698 1.0266963 0.61690378 0
-0.99444783 0.89398026 -0.049683802 0
-1.3127887 1.0344368 0.35004467 0
-1.2379059 1.0013974 0.47182411 0
-1.2423323 1.0033504 0.61504793 0
-1.0077851 0.87831694 -0.04989814 0
-1.3143519 1.0089922 0.34847733 0
-1.2426331 0.97842175 0.47059816 0
-1.2319242 0.97385705 0.60796666 0
-1.0087696 0.85740423 -0.049642127 0
-1.3221716 0.98635435 0.34820089 0
-1.2339128 0.95004004 0.46574858 0
-1.2369206 0.95127761 0.60659784 0
-1.0290034 0.8443206 -0.050136875 0
-1.3355302 0.96595192 0.34905598 0
-1.2341579 0.92572695 0.46348241 0
-1.2427719 0.92914498 0.60564381 0
-1.0335927 0.82487911 -0.050037611 0
-1.34947 0.94563979 0.35006893 0
-1.2474275 0.90662867 0.46486846 0
-1.2378814 0.9029792 0.60096794 0
-1.0445688 0.80785888 -0.050191104 0
-1.3607509 0.92419457 0.3506155 0
-1.2302158 0.87616557 0.45802715 0
-1.2439553 0.88122094 0.6003176 0
-1.0424618 0.78609282 -0.049856599 0
-1.3705677 0.90214652 0.35093132 0
-1.2385093 0.85543638 0.45822257 0
-1.2360854 0.85457903 0.59484643 0
-1.0562825 0.76998174 -0.050134424 0
-1.3762962 0.87865943 0.3505201 0
-1.2458069 0.83434486 0.45821932 0
-1.2376927 0.83158922 0.59284651 0
