# .PCD v0.7 - Point Cloud Data file format
VERSION 0.7
FIELDS x y z intensity
SIZE 4 4 4 4
TYPE F F F F
COUNT 1 1 1 1
WIDTH 1352
HEIGHT 1
VIEWPOINT 0 0 0 1 0 0 0
POINTS 1352
DATA ascii
-0.51768285 0.082732417 0.10996903 0
-0.51377577 0.083479278 0.17975736 0
-1.2387978 -0.055111807 0.44013306 0
-1.2485082 -0.056968015 0.57540202 0
-1.1047035 -0.049592178 -0.050014615 0
-0.51557177 0.070730992 0.040547661 0
-0.51198703 0.071463145 0.1096034 0
-0.5137673 0.071099542 0.18018886 0
-1.2463241 -0.078516461 0.4431749 0
-1.2397722 -0.077178337 0.57385474 0
-1.1156143 -0.072180815 -0.050562125 0
-0.5129711 0.058827434 0.040544473 0
-0.52032167 0.057229493 0.11079541 0
-0.52095616 0.057091553 0.18197863 0
-1.2464614 -0.10062558 0.44437274 0
-1.2434709 -0.099975504 0.57662332 0
-1.0864033 -0.085916437 -0.049651638 0
-0.50876611 0.047294158 0.040487975 0
-0.5171119 0.045369525 0.11073739 0
-0.50566608 0.048009071 0.17964575 0
-1.2419034 -0.12177677 0.44441748 0
-1.2415965 -0.12170596 0.577595 0
-1.0977713 -0.108892 -0.05023589 0
-0.51673591 0.032830331 0.040884033 0
-0.51833767 0.032439638 0.11118635 0
-0.51499975 0.033253793 0.18189794 0
-1.2373247 -0.14293097 0.44452676 0
-1.2474196 -0.14539324 0.5812993 0
-1.0784224 -0.12439299 -0.049700338 0
-0.55770767 0.0095847743 0.042504668 0
-0.55570525 0.010099997 0.11566545 0
-0.55590284 0.010049154 0.19007093 0
-1.2322031 -0.16396014 0.44456345 0
-1.2365234 -0.16507174 0.57937431 0
-1.0758194 -0.14404006 -0.049789544 0
-0.61908937 -0.020373415 0.044896543 0
-0.62686861 -0.022479724 0.12395389 0
-1.2410129 -0.18876876 0.31869179 0
-1.2536601 -0.1921932 0.45169532 0
-1.2434326 -0.18942396 0.58366507 0
-1.0759604 -0.16453601 -0.049990084 0
-0.68556404 -0.0535358 0.047500007 0
-0.68907201 -0.054533195 0.13131674 0
-1.2406973 -0.21137513 0.31972724 0
-1.2219477 -0.20604412 0.44484404 0
-1.2388381 -0.21084653 0.58409816 0
-1.0609789 -0.1806765 -0.049637619 0
-0.77888775 -0.096617289 0.05112898 0
-0.77492452 -0.095436282 0.14140444 0
-1.2390664 -0.2337441 0.32057258 0
-1.2402176 -0.23408715 0.45131961 0
-1.2438245 -0.23516195 0.58795238 0
-1.0742671 -0.20537291 -0.050348528 0
-0.87430835 -0.14303614 0.054870885 0
-0.8715688 -0.1421821 0.15280449 0
-1.2378374 -0.25636563 0.32155028 0
-1.2365761 -0.25597242 0.45205915 0
-1.2332587 -0.25493822 0.58650857 0
-1.06359 -0.2227964 -0.050174203 0
-0.99067628 -0.19905432 0.059436563 0
-0.99067616 -0.19905429 0.16685663 0
-1.2363429 -0.27904788 0.32253551 0
-1.247455 -0.28266624 0.45677161 0
-1.2365631 -0.27911958 0.58999872 0
-1.043679 -0.23695748 -0.049659226 0
-1.1316004 -0.26681581 0.064974204 0
-1.1263055 -0.26501766 0.1829253 0
-1.2481239 -0.30638757 0.3261078 0
-1.2478708 -0.30630162 0.4587754 0
-1.0405269 -0.25666431 -0.04978333 0
-1.2916312 -0.3454819 0.20254536 0
-1.2300121 -0.32368669 0.3240433 0
-1.2387429 -0.32677492 0.45828581 0
-1.0407352 -0.27770421 -0.05004527 0
-1.2573169 -0.35739306 0.1995109 0
-1.230002 -0.34734282 0.32548961 0
-1.2423021 -0.35186848 0.46131283 0
-1.035792 -0.29697576 -0.050121669 0
-1.2471352 -0.37777278 0.19925559 0
-1.2457086 -0.3772274 0.33003479 0
-1.2427193 -0.3760846 0.46358246 0
-1.016495 -0.31061307 -0.04965644 0
-1.2489949 -0.40287021 0.20042084 0
-1.2346976 -0.39719692 0.32949162 0
-1.2318395 -0.39606282 0.46284604 0
-1.0194416 -0.33305112 -0.050054118 0
-1.2527531 -0.42904785 0.20184942 0
-1.2407666 -0.42411599 0.33232546 0
-1.2424719 -0.42481759 0.46810991 0
-1.0064993 -0.34902474 -0.049848236 0
-1.2505093 -0.45303491 0.20262289 0
-1.2371365 -0.44733468 0.3333393 0
-1.2372407 -0.44737908 0.46910259 0
-0.9962585 -0.36603501 -0.049754456 0
-1.2616408 -0.48312542 0.20500718 0
-1.2444978 -0.47556171 0.33658296 0
-1.2402401 -0.47368309 0.47247505 0
-0.99678338 -0.38788882 -0.050090995 0
-1.2538867 -0.50521582 0.20521888 0
-1.2378954 -0.49791828 0.33714736 0
-1.2376292 -0.4977968 0.47438616 0
-0.97782171 -0.40081784 -0.049671177 0
-1.2346835 -0.52196527 0.20410439 0
-1.2469417 -0.52774668 0.34089151 0
-1.2443614 -0.52652973 0.47902966 0
-0.97328985 -0.42045012 -0.049828254 0
-1.5013105 -0.67766452 0.082796946 0
-1.231365 -0.54616618 0.20490707 0
-1.241547 -0.55112612 0.34183681 0
-1.2447414 -0.55268222 0.48200136 0
-0.96672916 -0.43918982 -0.049915105 0
-1.4447 -0.67951638 0.081014894 0
-1.2394612 -0.57632113 0.20712446 0
-1.2366031 -0.57488412 0.34293839 0
-1.2329922 -0.57306844 0.48162195 0
-0.96127677 -0.45857695 -0.050056566 0
-1.4059924 -0.6892429 0.079942115 0
-1.2462809 -0.60640347 0.20924765 0
-1.2346885 -0.60039073 0.34472317 0
-0.95110476 -0.47555676 -0.050017748 0
-1.3573939 -0.69282681 0.078466594 0
-1.2405796 -0.6303584 0.20990527 0
-1.2461593 -0.63334221 0.34932303 0
-0.94455373 -0.49450442 -0.050134957 0
-1.3048887 -0.69307423 0.076823391 0
-1.2383567 -0.65641046 0.21103115 0
-1.2338358 -0.6539191 0.34914035 0
-0.93855441 -0.51386386 -0.05028541 0
-1.2629195 -0.69797379 0.075601041 0
-1.2465997 -0.68871063 0.21349883 0
-1.239843 -0.68487549 0.35281125 0
-0.92395806 -0.52832592 -0.050091527 0
-1.2551829 -0.72188371 0.075787731 0
-1.2416463 -0.7139734 0.21439259 0
-1.2358385 -0.71057951 0.3544991 0
-0.92255259 -0.550565 -0.050453264 0
-1.2545557 -0.75022751 0.076284513 0
-1.2444186 -0.74413115 0.21630171 0
-1.2492396 -0.74703044 0.3599306 0
-0.90449035 -0.56280285 -0.050130274 0
-1.2458456 -0.77398723 0.076460779 0
-1.2412037 -0.77111536 0.21751694 0
-1.2551833 -0.77976412 0.36392009 0
-0.8906728 -0.57747483 -0.049990784 0
-1.2415066 -0.80067998 0.076836035 0
-1.2427837 -0.80149251 0.21939585 0
-1.2384745 -0.79875094 0.36318734 0
-0.88144243 -0.59503335 -0.050053686 0
-1.2498569 -0.83599311 0.077769987 0
-1.2394594 -0.82919258 0.22070941 0
-1.2467216 -0.83394235 0.36787775 0
-0.87646842 -0.61550999 -0.05030968 0
-1.2249261 -0.84973401 0.077299275 0
-1.2423586 -0.86145169 0.22288498 0
-1.2345053 -0.85617286 0.36825714 0
-0.86556983 -0.63211846 -0.050322004 0
-1.2481233 -0.89631397 0.078920081 0
-1.2453116 -0.89437228 0.22513942 0
-1.2385978 -0.88973552 0.37227547 0
-0.84810078 -0.64408046 -0.050055947 0
-1.2322197 -0.91656369 0.078869492 0
-1.2460277 -0.92635876 0.22717375 0
-1.609856 -1.1844482 0.45760953 0
-0.8357451 -0.6595391 -0.05001992 0
-1.2442516 -0.95712441 0.080063544 0
-1.2455707 -0.95808524 0.2291241 0
-1.5751013 -1.198139 0.45396134 0
-0.83652246 -0.68479252 -0.050577693 0
-1.2445076 -0.98993438 0.080766559 0
-1.2358011 -0.9834227 0.22989655 0
-0.81002712 -0.68960726 -0.049927592 0
-1.2369744 -1.0173947 0.081144318 0
-1.2478707 -1.0257604 0.23367848 0
-0.80179775 -0.70823503 -0.050103985 0
-1.1530967 -0.98504347 0.078071438 0
-1.1502801 -0.98282427 0.22256666 0
-1.1553074 -0.98678547 0.37058383 0
-0.78108001 -0.71692908 -0.049719539 0
-1.1367601 -1.004522 0.078049436 0
-1.1423364 -1.0090309 0.22365648 0
-1.1401417 -1.0072563 0.37074935 0
-0.77405834 -0.73663729 -0.049971435 0
-1.2490892 -1.1307282 0.084007032 0
-1.2352772 -1.1192696 0.23889087 0
-1.3330972 -1.2004222 0.41974622 0
-0.76408637 -0.75407201 -0.050099313 0
-1.2415984 -1.1604797 0.084485613 0
-1.2422246 -1.1610126 0.24234857 0
-1.3160131 -1.2238138 0.42010134 0
-1.0181874 -0.97033602 0.49203295 0
-0.74674141 -0.76519364 -0.04988952 0
-1.2807573 -1.2314124 0.41618001 0
-0.9919008 -0.97922832 0.48843437 0
-0.73629022 -0.78229398 -0.050014395 0
-1.1915127 -1.1899365 0.083830193 0
-1.1961184 -1.1940608 0.24095166 0
-1.1924255 -1.1907539 0.39938813 0
-0.97903013 -0.9996627 0.4894278 0
-0.71843421 -0.79271752 -0.049792167 0
-0.92188358 -0.97957116 0.47518387 0
-0.70707011 -0.80904478 -0.049892079 0
-0.8825376 -0.97431999 0.46692079 0
-0.69537222 -0.82515174 -0.049986787 0
-0.86120355 -0.98533875 0.46492258 0
-0.6791966 -0.83692175 -0.049867801 0
-0.83659947 -0.99284571 0.46177447 0
-0.66486728 -0.85045201 -0.049848739 0
-0.81875515 -1.0067819 0.46107846 0
-0.65702546 -0.87072605 -0.05017262 0
-0.64294767 -0.88467652 -0.050188333 0
-0.62411678 -0.89343983 -0.049961779 0
-0.60085976 -0.89699346 -0.049500175 0
-0.59983706 -0.92568511 -0.050245602 0
-0.58075869 -0.93384522 -0.050023776 0
-0.56835556 -0.9498623 -0.050178923 0
-0.54720998 -0.95517689 -0.049849581 0
-0.52803302 -0.9626345 -0.049632762 0
-0.5162003 -0.97947365 -0.049850155 0
-0.50456303 -0.99683803 -0.050095551 0
-0.48271734 -1.0003964 -0.049736787 0
-0.47457516 -1.0229684 -0.050223667 0
-0.45690501 -1.032263 -0.050136 0
-0.43353903 -1.0329202 -0.049687885 0
-0.42584366 -1.0571282 -0.050258592 0
-0.37314463 -0.97599727 0.49807793 0
-0.40559202 -1.0622216 -0.050021689 0
-0.35622948 -0.98409098 0.4973096 0
-0.38651967 -1.0689216 -0.049864646 0
-0.32727313 -0.97247833 0.48893613 0
-0.37166399 -1.0824734 -0.050003715 0
-0.30900156 -0.97752959 0.48722428 0
-0.34723991 -1.079734 -0.049477112 0
-0.29093689 -0.98268479 0.48565379 0
-0.33661038 -1.1007268 -0.04993939 0
-0.2743271 -0.99018604 0.48507735 0
-0.31920791 -1.110023 -0.049927987 0
-0.25434864 -0.99144346 0.48221684 0
-0.30271631 -1.121025 -0.049994495 0
-0.22950895 -0.98308545 0.47584879 0
-0.28563416 -1.130989 -0.050027259 0
-0.20934232 -0.98275977 0.47264484 0
-0.26728886 -1.1384796 -0.049969748 0
-0.18560602 -0.97474164 0.46669558 0
-0.24899186 -1.1459842 -0.049922325 0
-0.16640557 -0.97508138 0.46398148 0
-0.23847504 -1.1700487 -0.050536998 0
-0.15104951 -0.98316091 0.46421522 0
-0.21151723 -1.1588418 -0.049771205 0
-0.13061811 -0.9800747 0.46044096 0
-0.19977297 -1.1810727 -0.050325882 0
-0.12270965 -1.0049094 0.4669202 0
-0.17470117 -1.1727748 -0.049700145 0
-0.10677148 -1.0120075 0.46699512 0
-0.16358496 -1.1975403 -0.050364587 0
-0.076938942 -0.98505419 0.35025215 0
-0.081259206 -0.99564892 0.45871416 0
-0.1400816 -1.1920887 -0.049871963 0
-0.055064842 -0.97584993 0.34599742 0
-0.067086801 -1.0064275 0.46029034 0
-0.11937256 -1.1930436 -0.049637578 0
-0.036011502 -0.97291607 0.14818577 0
-0.033229306 -0.96556932 0.24319103 0
-0.013467414 -0.91338497 0.32730803 0
-0.054218546 -1.0209945 0.46327043 0
-0.10283776 -1.204981 -0.049831502 0
-0.0091970395 -0.94798368 0.1446704 0
-0.0090325605 -0.94753236 0.23862189 0
0.0048426255 -0.90945178 0.32474044 0
-0.083332255 -1.208858 -0.04972757 0
0.0089216102 -0.9454003 0.14375384 0
0.0064627691 -0.9524222 0.23851222 0
0.020174043 -0.91326576 0.32434082 0
-0.0028930141 -0.97914046 0.44433987 0
-0.066107646 -1.2193012 -0.049880654 0
0.02272539 -0.95498925 0.14424713 0
0.018789994 -0.96669847 0.24022608 0
0.025436448 -0.94692284 0.33202744 0
0.013578402 -0.98220497 0.44352576 0
-0.048520759 -1.2289821 -0.050012678 0
0.038581654 -0.958592 0.1440822 0
0.035012111 -0.96967286 0.23982103 0
0.019464182 -1.0179378 0.34971428 0
0.023102211 -1.0066444 0.45025876 0
-0.028689696 -1.2317103 -0.049892731 0
0.025263475 -1.0567043 0.35870275 0
-0.010566844 -1.2399495 -0.049987648 0
0.066454664 -0.97846752 0.33655801 0
0.0067238971 -1.2514096 -0.050210156 0
0.081453279 -0.98539633 0.33719876 0
0.025097536 -1.2594397 -0.050313212 0
0.10119753 -0.97483188 0.33326745 0
0.045936301 -1.2580703 -0.05007825 0
0.11787568 -0.97477537 0.33218023 0
0.065628394 -1.2607722 -0.050003149 0
0.084561273 -1.2665894 -0.05005141 0
0.10571824 -1.2621956 -0.049735453 0
0.12218337 -1.2800341 -0.050239597 0
0.14375471 -1.2726383 -0.049833432 0
-0.063890561 -2.3777857 0.10197901 0
0.16413079 -1.2704325 -0.049626112 0
-0.00032473938 -2.2108057 0.095708176 0
0.18267831 -1.2786233 -0.04980452 0
0.033070758 -2.2025008 0.095217794 0
0.20009026 -1.2953084 -0.050297629 0
0.066860422 -2.1892383 0.094564587 0
0.22061877 -1.2917101 -0.050066981 0
0.096808925 -2.200803 0.094822384 0
0.24033926 -1.2933576 -0.050034694 0
0.12773056 -2.2060061 0.09486451 0
0.26032829 -1.292399 -0.049917772 0
0.15889572 -2.2093232 0.094852835 0
0.27985677 -1.2953309 -0.049949586 0
0.19300441 -2.1825385 0.093775451 0
0.29964986 -1.295458 -0.049889684 0
0.22159894 -2.2115824 0.094714999 0
0.31901878 -1.3008924 -0.050028738 0
0.25445271 -2.1911299 0.093894847 0
0.33852625 -1.3057067 -0.050154243 0
0.28460562 -2.2061858 0.094360091 0
0.35888547 -1.2944371 -0.049713593 0
0.31582436 -2.2057431 0.094284691 0
0.37843761 -1.2975791 -0.049797118 0
0.34729713 -2.1965721 0.093911573 0
0.39800322 -1.3029244 -0.049968094 0
0.37807158 -2.20737 0.094265804 0
0.41779393 -1.2975357 -0.049764607 0
0.43744823 -1.2934111 -0.049615148 0
0.45726138 -1.3058782 -0.050066903 0
0.47695985 -1.3029389 -0.049977493 0
0.49693486 -1.3082196 -0.050190594 0
0.51622474 -1.2978411 -0.049852982 0
0.53683043 -1.3108948 -0.050362173 0
0.55650473 -1.30753 -0.050293166 0
0.57533383 -1.2954315 -0.049919855 0
0.59532887 -1.2970257 -0.050046049 0
0.61383092 -1.2850667 -0.049694311 0
0.6357668 -1.3014686 -0.05037139 0
0.65616918 -1.303713 -0.050549079 0
0.67287475 -1.2813445 -0.04984713 0
0.69437188 -1.290391 -0.050288636 0
0.71306968 -1.2822418 -0.050117046 0
0.73070824 -1.2692621 -0.049777899 0
0.74927598 -1.2619219 -0.049651586 0
0.7709142 -1.268894 -0.050056711 0
0.7892043 -1.2602851 -0.049901735 0
0.81138068 -1.2678366 -0.050349053 0
0.82722449 -1.2498299 -0.049865179 0
0.84768641 -1.2499478 -0.050057951 0
0.86867505 -1.2513932 -0.050310295 0
0.88539648 -1.2380536 -0.050022133 0
0.9069944 -1.2408506 -0.050344732 0
0.92203903 -1.2229971 -0.049902722 0
0.9421711 -1.2209216 -0.050061472 0
0.96014351 -1.212459 -0.049988374 0
0.97505343 -1.1958919 -0.049614877 0
0.99589777 -1.1954256 -0.049862862 0
0.92221552 -1.0044962 0.45848936 0
1.0114988 -1.1813872 -0.049600221 0
0.94050479 -1.004102 0.46059376 0
1.0351272 -1.18716 -0.050109591 0
0.95938915 -1.004719 0.46315616 0
1.0535845 -1.1799892 -0.050130248 0
0.97535145 -0.99804217 0.46317691 0
1.0708804 -1.1701648 -0.050056387 0
0.98817378 -0.98429829 0.46069738 0
1.0917156 -1.1681491 -0.050297506 0
1.0062045 -0.9823156 0.46256968 0
1.1045631 -1.1489316 -0.049870398 0
1.0251117 -0.98184007 0.46509179 0
1.1228789 -1.1415267 -0.049916882 0
1.0428885 -0.97862297 0.46670145 0
1.1425283 -1.1366739 -0.050075006 0
1.0628164 -0.97937506 0.46988499 0
1.1563057 -1.1203393 -0.04978158 0
1.0825593 -0.97924715 0.47285312 0
1.1783468 -1.119771 -0.050132558 0
1.101874 -0.97784489 0.4754535 0
1.1947203 -1.1084778 -0.050059345 0
1.128605 -0.98938972 0.057196468 0
1.1297245 -0.99140614 0.1603613 0
1.1304094 -0.99263984 0.26529461 0
1.1293122 -0.99066347 0.37223685 0
1.1283972 -0.9890154 0.48294863 0
1.2169001 -1.1074374 -0.050415698 0
1.1379879 -0.96942312 0.056739859 0
1.1413383 -0.97528297 0.15946436 0
1.1454284 -0.98243636 0.26502103 0
1.1393689 -0.97183841 0.36931196 0
1.150146 -0.99068731 0.48698524 0
1.2319812 -1.0938346 -0.050265819 0
1.1647656 -0.97963864 0.057535075 0
1.1618052 -0.9746092 0.16050552 0
1.1635752 -0.97761637 0.26591146 0
1.1652399 -0.98044473 0.37452355 0
1.1645393 -0.97925442 0.48609814 0
1.2462687 -1.0791199 -0.050076272 0
1.2614324 -1.066058 -0.049962305 0
1.2813528 -1.0605646 -0.050176363 0
1.289857 -1.0374556 -0.049649868 0
1.3120151 -1.0351788 -0.050021507 0
1.3240286 -1.0178468 -0.04975386 0
1.3467468 -1.0158243 -0.050162025 0
1.3633703 -1.0049986 -0.050196853 0
1.3772781 -0.99051923 -0.050078053 0
1.3906611 -0.97549278 -0.049941268 0
1.4070675 -0.96442884 -0.04999131 0
1.2106183 -0.71672153 0.050704326 0
1.2140486 -0.72104698 0.14116386 0
1.423843 -0.95375758 -0.050069403 0
1.2088118 -0.68952292 0.049906924 0
1.206793 -0.68704218 0.13782646 0
1.4363766 -0.93791491 -0.049917579 0
1.2057934 -0.66174662 0.049073175 0
1.2129909 -0.67036712 0.1368673 0
1.4591641 -0.93420357 -0.05034174 0
1.2085919 -0.64166182 0.048590165 0
1.2088197 -0.64192784 0.13424407 0
1.4617075 -0.90699285 -0.049667414 0
1.206609 -0.61664748 0.047869176 0
1.2052073 -0.61505204 0.13180785 0
1.4848301 -0.90332419 -0.050118338 0
1.2114437 -0.59995443 0.047538687 0
1.1988441 -0.58597296 0.12901856 0
1.4999151 -0.89048594 -0.050142832 0
1.5086483 -0.87091678 -0.049845815 0
1.523169 -0.85759765 -0.049861766 0
1.5355818 -0.8421436 -0.049779456 0
1.5410795 -0.8200019 -0.049362574 0
1.5673651 -0.81809121 -0.049990151 0
1.5839646 -0.80656272 -0.050139345 0
1.5962155 -0.79094416 -0.050084297 0
1.6104522 -0.77712899 -0.050133917 0
1.6194388 -0.75873798 -0.049943786 0
1.6310096 -0.74268955 -0.04988702 0
1.6514735 -0.73397255 -0.050250605 0
1.6517184 -0.70878446 -0.049691994 0
1.6830337 -0.70825803 -0.050558526 0
1.6861 -0.68555421 -0.050151743 0
1.6885915 -0.66277868 -0.049735963 0
1.7069926 -0.65179765 -0.050036129 0
1.7163531 -0.63422632 -0.049945742 0
1.7257439 -0.61674899 -0.049867034 0
1.7422273 -0.60403746 -0.050102271 0
1.7577659 -0.59051526 -0.050302297 0
1.7646719 -0.57140672 -0.050144125 0
1.7680194 -0.55025446 -0.049848448 0
1.784713 -0.5372532 -0.050119981 0
1.7891215 -0.51695162 -0.049890175 0
1.8019807 -0.50155878 -0.050018169 0
1.8107711 -0.48385063 -0.049987901 0
1.8105255 -0.461404 -0.049602259 0
1.8332019 -0.45096573 -0.050149344 0
1.8410987 -0.43277851 -0.050109543 0
1.8420235 -0.41127691 -0.049803048 0
1.8574185 -0.39672384 -0.05007853 0
1.8632841 -0.37767795 -0.049986746 0
1.8671569 -0.35783496 -0.049827274 0
1.8783611 -0.34118119 -0.049962115 0
1.8790381 -0.32016727 -0.049698997 0
1.8894297 -0.30313334 -0.049819544 0
1.8935676 -0.28365949 -0.049709264 0
1.9108574 -0.26901034 -0.050107978 0
1.9054577 -0.24619524 -0.049654618 0
1.9122787 -0.22777821 -0.049673766 0
1.9258349 -0.21149014 -0.049953923 0
1.9328135 -0.19298704 -0.04999518 0
1.9361422 -0.17338769 -0.049909241 0
1.9466172 -0.15583135 -0.050097547 0
1.9552765 -0.137655 -0.050226353 0
1.952738 -0.11657573 -0.049951062 0
1.9495813 -0.095546044 -0.049663655 0
1.973912 -0.080877818 -0.050392415 0
1.9662296 -0.058932673 -0.049957968 0
1.9673333 -0.039033543 -0.049854413 0
1.9745445 -0.020333182 -0.049981937 0
1.9768397 -0.00069455366 -0.049939651 0
1.976841 0.019281078 -0.049823478 0
1.9939117 0.036687929 -0.050332449 0
1.9719845 0.059646327 -0.049443938 0
1.9884152 0.0773663 -0.04994645 0
1.9957647 0.096421562 -0.050130229 0
1.9868057 0.11715487 -0.049737558 0
1.9916825 0.1364785 -0.049850266 0
2.000421 0.15561707 -0.050109793 0
2.006798 0.1750761 -0.0502933 0
1.9864565 0.19584608 -0.049530655 0
2.0059121 0.21482782 -0.050199166 0
1.9945641 0.23486617 -0.049776137 0
2.0068245 0.25446063 -0.050205015 0
1.9953481 0.27421126 -0.049795281 0
1.990551 0.29380217 -0.049632836 0
2.0043437 0.31386694 -0.050143149 0
2.0131757 0.33407634 -0.050485488 0
2.0001264 0.3532896 -0.050054725 0
1.9944537 0.37271312 -0.049896233 0
1.9938582 0.3924441 -0.049928203 0
1.9898572 0.41187832 -0.049846992 0
1.989042 0.4316003 -0.049888838 0
1.9921443 0.45182607 -0.050080545 0
1.9945856 0.47210348 -0.050257929 0
1.9734032 0.48906559 -0.049592525 0
1.9749008 0.50915515 -0.049753346 0
1.9830763 0.53050917 -0.050165564 0
1.9757916 0.54930758 -0.05002721 0
1.9699367 0.56829232 -0.049949154 0
1.9671693 0.58787489 -0.049992252 0
1.9530628 0.60495198 -0.049629629 0
1.9626269 0.62738526 -0.050142329 0
1.9588796 0.64685887 -0.050177101 0
1.9572117 0.66691005 -0.050297812 0
1.9490151 0.68524098 -0.050186388 0
1.9391967 0.70302111 -0.050022818 0
1.9396645 0.72381967 -0.050250877 0
1.9335243 0.7426846 -0.050242044 0
1.926461 0.76123929 -0.050207362 0
1.9050466 0.77479684 -0.049639083 0
1.9016241 0.79442304 -0.04975754 0
1.9030696 0.81596786 -0.050071578 0
1.8967116 0.834714 -0.050098542 0
1.8772794 0.84820068 -0.049631279 0
1.8843566 0.8724364 -0.050194178 0
1.8676366 0.88678718 -0.049845945 0
1.8717501 0.91022122 -0.050318033 0
1.8537765 0.92377818 -0.049935188 0
1.8578905 0.94762707 -0.050431244 0
1.8331394 0.95758331 -0.049792487 0
1.8368726 0.98158461 -0.050296497 0
1.8138843 0.99191713 -0.049737789 0
1.8103584 1.0123707 -0.049971137 0
1.8038245 1.0313342 -0.050093591 0
1.7921933 1.047465 -0.050016731 0
1.7871506 1.0674424 -0.050221145 0
1.7645537 1.0768845 -0.049703512 0
1.7732767 1.1055495 -0.050506782 0
1.7497466 1.1140862 -0.049961593 0
1.7390876 1.1306998 -0.049967781 0
1.7335309 1.1507988 -0.050203435 0
1.7104223 1.1588192 -0.049687289 0
1.7148688 1.1862037 -0.050382439 0
1.6958541 1.1968837 -0.050058234 0
1.6832428 1.2121332 -0.050023757 0
1.6697215 1.226648 -0.049956426 0
1.662051 1.2457761 -0.050163981 0
1.6439725 1.2565732 -0.049904454 0
1.6306006 1.27109 -0.04986795 0
1.6182979 1.2864988 -0.049890015 0
1.6066064 1.3024727 -0.049950637 0
1.5933107 1.3170539 -0.049944296 0
1.5792928 1.3309616 -0.049911562 0
1.5715175 1.3507961 -0.05019502 0
1.5578406 1.3651419 -0.050199658 0
1.5396582 1.3749769 -0.049985588 0
1.5326544 1.3960998 -0.050347608 0
1.507233 1.398168 -0.049772371 0
1.0212616 0.8854692 0.29071158 0
1.4972707 1.416369 -0.050003741 0
1.0399714 0.92158782 0.30373853 0
1.4818685 1.428782 -0.049960397 0
1.4360633 1.3779529 0.059517607 0
1.4418776 1.384405 0.16803402 0
1.4519515 1.3955837 0.28062996 0
1.0501337 0.94969696 0.31292534 0
1.4721802 1.4476568 -0.050233886 0
1.4237938 1.3925847 0.05961667 0
1.4147338 1.382273 0.16592364 0
1.4186689 1.3867518 0.27544975 0
1.0550498 0.97289127 0.31977752 0
1.4570943 1.4605312 -0.050228149 0
1.3905164 1.3828019 0.058574311 0
1.3962071 1.3894458 0.16520119 0
1.3989847 1.3926885 0.27393219 0
1.0606428 0.99767613 0.32722569 0
1.4367336 1.4670867 -0.049937464 0
1.3657998 1.3821297 0.05798617 0
1.3702466 1.3874556 0.16323628 0
1.3675328 1.3842052 0.26910108 0
1.0510782 1.0051893 0.32707947 0
1.418335 1.4757334 -0.049757861 0
1.3391304 1.3784053 0.05727794 0
1.3394787 1.3788333 0.16041797 0
1.3391426 1.3784201 0.26503918 0
1.0616647 1.03745 0.33760187 0
1.4115517 1.4988273 -0.050248951 0
1.3205208 1.3840443 0.057018772 0
1.3163928 1.3788391 0.15886457 0
1.3178991 1.3807386 0.26296562 0
1.0534672 1.0473102 0.33845115 0
1.3904829 1.5040064 -0.049930863 0
1.2944058 1.3796768 0.05632126 0
1.2967992 1.3827738 0.15789948 0
1.2969617 1.3829842 0.26095676 0
1.0526103 1.0667782 0.34337547 0
1.3785089 1.5208982 -0.05015111 0
1.2776201 1.3868879 0.05616251 0
1.2760221 1.3847651 0.15671542 0
1.2776179 1.3868849 0.25940037 0
1.0420854 1.0740274 0.34316948 0
1.3613348 1.5309669 -0.050073959 0
1.2530917 1.3833557 0.055539005 0
1.2499933 1.3791304 0.15456098 0
1.2511721 1.3807378 0.25566584 0
1.0350034 1.0859485 0.34494779 0
1.3483073 1.5467538 -0.050257891 0
1.2465696 1.4042865 0.056007877 0
1.2461849 1.4037478 0.15646435 0
1.2444309 1.4012916 0.25795615 0
1.0243241 1.0930673 0.34478354 0
1.3292484 1.5540986 -0.050080307 0
1.2427826 1.4297354 0.056672707 0
1.2419556 1.428546 0.15838109 0
1.2479117 1.4371126 0.26359877 0
1.0084575 1.0927072 0.34164494 0
1.3112023 1.5627221 -0.049969736 0
1.2479256 1.4692215 0.057939082 0
1.2475387 1.4686496 0.16227467 0
1.2448018 1.4646056 0.26737034 0
1.0062926 1.112173 0.34657803 0
1.2967117 1.5766085 -0.050094813 0
1.2485486 1.503473 0.058968462 0
1.2461144 1.4997766 0.16497189 0
1.2348589 1.4826853 0.2690866 0
1.1686625 1.3821665 0.34747085 0
0.98888791 1.1091796 0.34253463 0
1.280221 1.5875423 -0.050101463 0
1.2459723 1.5340821 0.059834793 0
1.2402138 1.5250936 0.16690819 0
1.2135422 1.4834609 0.26710969 0
1.1587698 1.397965 0.34947622 0
0.98468518 1.1262302 0.34653017 0
1.2610593 1.5942035 -0.049937114 0
1.2430639 1.5653195 0.060722165 0
1.2426745 1.5646945 0.17064747 0
1.2099937 1.5122395 0.27115574 0
1.1258842 1.3772374 0.3405239 0
0.97309411 1.1319978 0.34609264 0
1.2417948 1.6004776 -0.049767967 0
1.1908666 1.5163932 0.26998839 0
1.1127211 1.387372 0.34096918 0
0.96755362 1.1476952 0.3495777 0
0.83932573 0.93598616 0.47166091 0
1.2333959 1.6249826 -0.050365396 0
1.1756371 1.5268532 0.27019995 0
1.0906967 1.3825434 0.33703065 0
0.95122522 1.1455884 0.34619081 0
0.84032249 0.95717013 0.48275071 0
1.2111101 1.626055 -0.049999245 0
1.1569436 1.5313201 0.26920497 0
1.0730808 1.3846474 0.33523956 0
0.94542611 1.1613846 0.34976843 0
0.8511821 0.99655563 0.35520491 0
0.836384 0.9706744 0.41307867 0
0.83982986 0.97670108 0.49262312 0
1.1922271 1.6327313 -0.049875971 0
1.1411883 1.540799 0.26929951 0
1.0525404 1.381125 0.33188406 0
0.9411307 1.1804514 0.35459355 0
0.84870249 1.0139679 0.36098194 0
0.84432805 1.0060886 0.43046749 0
0.83757204 0.99391949 0.5008623 0
1.1726122 1.6378725 -0.049700949 0
1.1267275 1.5527147 0.26993337 0
1.0325158 1.3778666 0.32870299 0
0.92174792 1.1722918 0.34911725 0
0.84742361 1.0343528 0.36813277 0
0.8373608 1.0156771 0.43300372 0
0.83667779 1.0144095 0.51126903 0
1.1584802 1.6532438 -0.049949173 0
1.1082224 1.55709 0.26906583 0
1.0170977 1.3827493 0.32795927 0
0.91301614 1.1836194 0.35108432 0
0.8491528 1.0614353 0.3783733 0
0.83497858 1.0343171 0.44068313 0
0.8374455 1.0390369 0.5243836 0
1.1386098 1.6576854 -0.049765516 0
1.0946075 1.5708539 0.27014929 0
0.99568212 1.3756402 0.32384607 0
0.8944447 1.175864 0.34596252 0
0.85122275 1.0905722 0.38949203 0
0.83737737 1.0632505 0.45410436 0
0.83726549 1.0630298 0.53698653 0
1.122052 1.6685867 -0.049849898 0
1.0761797 1.5751662 0.26936162 0
0.9857288 1.3909589 0.32620981 0
0.8874439 1.1907977 0.34936875 0
0.84518695 1.1047397 0.3936255 0
0.84042931 1.0950506 0.46902385 0
0.84396011 1.1022412 0.55956793 0
1.1077803 1.6844418 -0.050137874 0
0.96208751 1.3780402 0.32061768 0
0.878214 1.2016487 0.35128313 0
0.84266579 1.1268884 0.40142828 0
0.83679479 1.1145413 0.47701329 0
0.84254295 1.1266302 0.57222551 0
1.0858332 1.6841096 -0.04979511 0
0.94527137 1.3786393 0.31893817 0
0.86604184 1.206457 0.35101619 0
0.83630532 1.1418334 0.40591732 0
0.83768165 1.1448244 0.49092597 0
0.83934045 1.1484293 0.58313096 0
1.070536 1.698135 -0.050026141 0
0.93219435 1.3872398 0.31956172 0
0.85703093 1.2183251 0.35337749 0
0.83989763 1.1798214 0.42086026 0
0.84094429 1.1821736 0.50862449 0
0.84041768 1.1809901 0.6009872 0
1.04919 1.6985134 -0.04973308 0
0.91215229 1.3798037 0.31577411 0
0.85109526 1.237803 0.35852307 0
0.8407262 1.2136877 0.43384442 0
0.84185398 1.2163105 0.52445543 0
0.84047425 1.2131016 0.61844832 0
1.0373921 1.7213603 -0.050320502 0
0.89751679 1.3844224 0.31540623 0
0.84979576 1.2694699 0.36805961 0
0.84283131 1.2526937 0.44906032 0
0.84091276 1.2480721 0.53891093 0
0.8391397 1.2438011 0.63491118 0
1.0170554 1.7240071 -0.050133847 0
0.88041925 1.3828018 0.31337625 0
0.85011286 1.3071213 0.37969878 0
0.83904511 1.2794832 0.45873937 0
0.83789337 1.276607 0.551561 0
0.84081084 1.2838925 0.65730184 0
0.99508685 1.7220685 -0.049782455 0
0.866992 1.3901421 0.31386566 0
0.85157174 1.3501842 0.39320993 0
0.84476316 1.3325415 0.48005068 0
0.84146112 1.323985 0.57427591 0
0.83938307 1.3186003 0.67614841 0
0.98251677 1.7447251 -0.050379977 0
0.84607279 1.3774621 0.30895001 0
0.84344882 1.3703992 0.39854249 0
0.83692336 1.3528347 0.48675883 0
0.84246749 1.3677578 0.59493643 0
0.8367635 1.3524045 0.69434673 0
0.9595741 1.7396092 -0.049927946 0
0.83266962 1.3843855 0.30943894 0
0.83712363 1.396853 0.40609139 0
0.83872169 1.4013262 0.50587809 0
0.84270942 1.4124882 0.61600637 0
0.94447738 1.7563874 -0.050315171 0
0.81585532 1.3815233 0.30733192 0
0.84565383 1.46837 0.4294861 0
0.84112394 1.4551678 0.52724689 0
0.84004354 1.4520189 0.63423324 0
0.92367774 1.7567207 -0.050089877 0
1.0278178 2.0731573 0.34942377 0
0.80231273 1.3879448 0.30778417 0
0.84103185 1.5055953 0.44073579 0
0.84084934 1.5050409 0.5467844 0
0.83747232 1.4947796 0.65410388 0
0.90575528 1.7656636 -0.050197579 0
1.0039034 2.0770435 0.34876841 0
0.78647602 1.3872443 0.30637515 0
0.84386533 1.5693146 0.46120316 0
0.83582395 1.543803 0.56142259 0
0.84015995 1.5575593 0.68441498 0
0.88639092 1.7700971 -0.050145157 0
0.9837088 2.0929666 0.3504397 0
0.76869452 1.3796178 0.30317912 0
0.83708221 1.6065063 0.47236282 0
0.84133214 1.6206063 0.59248304 0
0.86601466 1.7708912 -0.049966801 0
0.95964962 2.0963163 0.34979317 0
0.75457847 1.3835982 0.30313563 0
0.83835536 1.6747622 0.49426594 0
0.84128767 1.6849533 0.61803466 0
0.84564656 1.7712511 -0.0497825 0
0.73893148 1.3819867 0.047372494 0
0.7402454 1.3867797 0.13107505 0
0.73752946 1.3768727 0.21404099 0
0.73887879 1.3817947 0.30160931 0
0.83789879 1.7429898 0.51607817 0
0.83404416 1.7289292 0.63475293 0
0.83282524 1.8000615 -0.050657935 0
0.72547942 1.3882282 0.047463704 0
0.72373772 1.381546 0.1300734 0
0.7216028 1.3733555 0.21268621 0
0.72704381 1.3942299 0.30389434 0
0.83173186 1.7958667 0.53254336 0
0.83082503 1.7923878 0.65979159 0
0.80956537 1.7892388 -0.05007904 0
0.70895326 1.3823138 0.047113825 0
0.70870841 1.3813235 0.12965266 0
0.708377 1.3799832 0.21325766 0
0.71024275 1.3875294 0.3011823 0
0.82516998 1.8523515 0.55022043 0
0.82249385 1.8415281 0.6786629 0
0.78910583 1.7886084 -0.049886305 0
0.69436353 1.3836043 0.047036782 0
0.69583809 1.3899077 0.13022609 0
0.69692969 1.394574 0.21533325 0
0.69399101 1.3820118 0.29884374 0
0.81726629 1.9089885 0.56792581 0
0.7703712 1.7951773 -0.049966745 0
0.67907369 1.3814806 0.046841856 0
0.678303 1.3779885 0.12855929 0
0.67845768 1.3786892 0.21180123 0
0.67944962 1.3831841 0.29831311 0
0.80211711 1.9390279 0.57655424 0
0.75023669 1.7952954 -0.049820375 0
0.66315436 1.3756582 0.046519604 0
0.6631602 1.3756863 0.12797664 0
0.66442466 1.3817796 0.21181639 0
0.66497183 1.3844163 0.29784721 0
0.78948981 1.9844507 0.59045208 0
0.73295724 1.8095741 -0.050198622 0
0.65024406 1.3841339 0.046725463 0
0.65095061 1.387768 0.12899111 0
0.65122312 1.3891697 0.21265401 0
0.64962339 1.3809414 0.29620647 0
0.77706265 2.0364332 0.60659313 0
0.71351922 1.8134643 -0.050206967 0
0.63625813 1.3875057 0.046751566 0
0.63575584 1.3847364 0.12836936 0
0.63457417 1.3782216 0.21015897 0
0.6362493 1.3874568 0.29721013 0
0.76396388 2.0915778 0.62381953 0
0.69274563 1.8094785 -0.049939029 0
0.61951828 1.3746489 0.046196461 0
0.6215871 1.3869336 0.12833963 0
0.62039644 1.3798635 0.21001017 0
0.61986864 1.3767294 0.2937941 0
0.74678081 2.1303437 0.63553929 0
0.67310798 1.8115888 -0.049901325 0
0.60590363 1.3793585 0.046284739 0
0.60860401 1.3967263 0.12915549 0
0.60711342 1.3871393 0.21092257 0
0.60593534 1.3795624 0.29393932 0
0.72943902 2.1738861 0.64891726 0
0.65259385 1.8073865 -0.049644969 0
0.59126419 1.3773394 0.04613639 0
0.59155148 1.3793535 0.12703866 0
0.59154093 1.3792799 0.20910655 0
0.59188277 1.3816768 0.29394442 0
0.70713276 2.1898167 0.6530655 0
0.63485026 1.8231512 -0.050117169 0
0.57831329 1.3875344 0.046434652 0
0.57900286 1.3928478 0.12829365 0
0.57781368 1.3836852 0.20955971 0
0.57707089 1.3779618 0.29249525 0
0.68790156 2.2319105 0.66607857 0
0.61547631 1.8278737 -0.050199796 0
0.56312793 1.3804622 0.046117663 0
0.56370157 1.3853649 0.12729414 0
0.56249028 1.3750124 0.20766889 0
0.56318015 1.3809081 0.29280731 0
0.66633993 2.2625959 0.67533237 0
0.59445298 1.817369 -0.049744502 0
0.55129135 1.4033754 0.12907134 0
0.55231243 1.4131694 0.21430704 0
0.55167609 1.407066 0.29911795 0
0.64370447 2.2897739 0.68349165 0
0.57532603 1.8240906 -0.0499168 0
0.55136436 1.5623419 0.14607517 0
0.55314493 1.5817918 0.2445884 0
0.55199468 1.5692269 0.34030229 0
0.62128979 2.3261831 0.6948207 0
0.55504036 1.8177049 -0.049628161 0
0.602678 2.4217734 0.23857425 0
0.59940767 2.3803039 0.38879031 0
0.5970397 2.3502769 0.53983337 0
0.53598487 1.8268667 -0.049905185 0
0.57420456 2.4041734 0.39275515 0
0.57316607 2.3884878 0.54911619 0
0.51677334 1.8368266 -0.050219137 0
0.54850882 2.4292765 0.39699745 0
0.54777634 2.415602 0.55563444 0
0.49673098 1.8319842 -0.05001267 0
0.52199847 2.4490666 0.40033698 0
0.52211249 2.4518507 0.56456345 0
0.47671378 1.8230002 -0.04966737 0
0.45668328 1.1162055 0.35883126 0
0.45617524 1.0982785 0.42340446 0
0.45734513 1.8399414 -0.050256826 0
0.44588259 1.1117935 0.35690644 0
0.44597852 1.1178887 0.43310159 0
0.43750224 1.839298 -0.050227165 0
0.43511605 1.0815945 0.41489127 0
0.43510041 1.0766329 0.487712 0
0.41774586 1.8313711 -0.049946375 0
0.42477706 1.0867476 0.41748592 0
0.42485264 1.0787445 0.48898342 0
0.39826533 1.8197747 -0.049543358 0
0.41388413 1.1110359 0.35663438 0
0.41396663 1.1072929 0.42784956 0
0.41454339 1.0811207 0.49048874 0
0.37817195 1.8339925 -0.050071083 0
0.35245588 2.5763886 0.42321923 0
0.35236681 2.5789607 0.59687978 0
0.4051612 1.0548402 0.47506666 0
0.35843325 1.8327514 -0.050055634 0
0.32263416 2.5903704 0.42595881 0
0.32255059 2.5921392 0.60055053 0
0.39537987 1.0508467 0.47293758 0
0.33859935 1.8332299 -0.050110571 0
0.2920036 2.6113832 0.43003857 0
0.29249018 2.6032574 0.60379338 0
0.32011792 1.8144816 -0.049486265 0
0.26126981 2.6258798 0.43301347 0
0.26099858 2.6296196 0.61103541 0
0.29895195 1.8323939 -0.050183196 0
0.2294582 2.6480784 0.43745571 0
0.23030807 2.6381032 0.61380875 0
0.2801013 1.8215772 -0.049859978 0
0.19891134 2.6509428 0.43847239 0
0.19704933 2.6699634 0.62267715 0
0.25979149 1.8259958 -0.050092071 0
0.16691323 2.6655915 0.44169846 0
0.1653416 2.6797986 0.62601179 0
0.34682667 1.0392202 0.46832523 0
0.23977989 1.8266354 -0.050197776 0
0.13508932 2.6751106 0.44407058 0
0.13395868 2.684274 0.62807637 0
0.22054513 1.8209951 -0.050086465 0
0.10095693 2.69909 0.44915164 0
0.10340936 2.6810825 0.62827206 0
0.199912 1.8252487 -0.050340801 0
0.069332942 2.7013927 0.45036802 0
0.068945304 2.7039938 0.6353004 0
0.18209977 1.8109403 -0.049933728 0
0.037485644 2.7039814 0.45171177 0
0.03717275 2.7059138 0.63702989 0
0.16249673 1.8085206 -0.049964763 0
0.0032105909 2.7193346 0.45546883 0
0.0033323334 2.7186384 0.6416651 0
0.14020018 1.8203009 -0.050520658 0
-0.029186053 2.7218227 0.45695314 0
-0.028237028 2.7167716 0.64263391 0
0.12302391 1.8045956 -0.050087281 0
-0.088756993 2.8584578 0.10046371 0
-0.090209261 2.8656847 0.29115027 0
-0.064160571 2.7360613 0.46067771 0
-0.06028904 2.7167959 0.64420062 0
0.10521837 1.7932748 -0.049820703 0
-0.11417545 2.8180444 0.099235348 0
-0.11209978 2.8083491 0.28559485 0
-0.096027747 2.733278 0.46135396 0
-0.094894662 2.7279854 0.64878988 0
0.086228535 1.7879984 -0.049782857 0
-0.13906951 2.7792091 0.098072961 0
-0.14430298 2.8022339 0.28569892 0
-0.1290554 2.7351513 0.46296751 0
-0.12950768 2.7371414 0.65297413 0
0.066345081 1.7865374 -0.049893759 0
-0.17400791 2.7856081 0.098579533 0
-0.17072906 2.7719786 0.28317973 0
-0.16321929 2.7407629 0.46535644 0
-0.16087557 2.7310212 0.65327662 0
0.045994177 1.7865866 -0.050069857 0
-0.20908363 2.791075 0.099069573 0
-0.21034314 2.7960346 0.28671134 0
-0.19647397 2.7414184 0.46691072 0
-0.19449629 2.7336304 0.65598172 0
0.026624577 1.782473 -0.050102159 0
-0.25196195 2.8243647 0.10060578 0
-0.25184429 2.8239248 0.29073676 0
-0.22826715 2.7357481 0.46736735 0
-0.22919483 2.7392175 0.659594 0
0.010306017 1.7674026 -0.049737297 0
-0.26216418 2.7373121 0.46925572 0
-0.26087475 2.732722 0.66013277 0
-0.010144247 1.7672589 -0.049934249 0
-0.29447615 2.7325437 0.47004062 0
-0.29302257 2.7276089 0.661147 0
-0.027784599 1.7575186 -0.049783051 0
-0.32641822 2.726186 0.47060531 0
-0.32755095 2.7298603 0.66423929 0
-0.049864665 1.7618982 -0.050169155 0
-0.36044055 2.7260122 0.47242001 0
-0.36284578 2.7334788 0.66782689 0
-0.069884554 1.7592831 -0.050303906 0
-0.39197266 2.7176175 0.47275963 0
-0.38949597 2.7102485 0.66432256 0
-0.083326891 1.7375869 -0.049726989 0
-0.42636049 2.7172191 0.47470444 0
-0.42638189 2.7172801 0.66907376 0
-0.10216303 1.7318735 -0.049761143 0
-0.45700991 2.7057521 0.47461659 0
-0.45787871 2.7081366 0.6695804 0
-0.12653817 1.7407097 -0.050359931 0
-0.4890129 2.6978796 0.47529569 0
-0.48568904 2.6891024 0.66749913 0
-0.14177187 1.7251321 -0.050036885 0
-0.51637745 2.6779358 0.47371686 0
-0.51827013 2.68275 0.66897988 0
-0.16272004 1.7241634 -0.05028281 0
-0.55355513 2.6826277 0.47699496 0
-0.54729873 2.6672847 0.66807014 0
-0.17773147 1.7086908 -0.049978103 0
-0.58193338 2.6653047 0.4760718 0
-0.5799998 2.6607285 0.66972411 0
-0.19621743 1.7016891 -0.050009158 0
-0.61242604 2.6531234 0.47622588 0
-0.60992587 2.647408 0.66961795 0
-0.21340884 1.6917661 -0.049935009 0
-0.64379239 2.6428082 0.47682598 0
-0.6430074 2.6410737 0.6715728 0
-0.23225893 1.6855049 -0.050013255 0
-0.67343056 2.6285889 0.47673073 0
-0.6741792 2.6301892 0.67237449 0
-0.24868496 1.6740932 -0.049897142 0
-0.70504808 2.618484 0.47753355 0
-0.69799757 2.6038938 0.66892517 0
-0.26797616 1.6686015 -0.050024714 0
-0.7233988 2.5815222 0.4730086 0
-0.72761667 2.589977 0.66906875 0
-0.28547984 1.6594332 -0.050015215 0
-0.7595644 2.5805426 0.47579935 0
-0.76513481 2.5913653 0.67371166 0
-0.30079281 1.6461449 -0.049848009 0
-0.7872752 2.5627899 0.47527689 0
-0.78188348 2.5526309 0.6669327 0
-0.32281262 1.6453575 -0.050196167 0
-0.81229639 2.5402613 0.47384048 0
-0.80677617 2.5301688 0.66490012 0
-0.34215522 1.6393121 -0.050342657 0
-0.61744821 2.1279042 0.082364321 0
-0.84023786 2.5233133 0.47361413 0
-0.836483 2.5166492 0.66556329 0
-0.35315454 1.6186732 -0.049897905 0
-0.62269247 2.0832741 0.081074007 0
-0.85774565 2.4884336 0.46972042 0
-0.8620944 2.4959297 0.66421753 0
-0.37219715 1.6121105 -0.050040845 0
-0.61758804 2.0230792 0.079129495 0
-0.88240349 2.466579 0.46857941 0
-0.88511264 2.4711163 0.66174066 0
-0.38712549 1.598652 -0.049905967 0
-0.61921442 1.9764532 0.077735737 0
-0.91395473 2.4562402 0.46993244 0
-0.91465247 2.457376 0.66264659 0
-0.40963757 1.5973692 -0.050292093 0
-0.61536312 1.9229902 0.07604298 0
-0.93820405 2.4339807 0.46883771 0
-0.94126964 2.438833 0.66222215 0
-0.4184193 1.5744425 -0.049771998 0
-0.61956334 1.8841074 0.074954972 0
-0.95838261 2.4057255 0.46650997 0
-0.9567126 2.4031544 0.65668261 0
-0.43549305 1.5645914 -0.049813528 0
-0.61719728 1.8367639 0.073496863 0
-0.97978151 2.3798742 0.46473873 0
-0.97826219 2.3775985 0.65426105 0
-0.45677531 1.5608182 -0.050127815 0
-0.6170274 1.7944334 0.07224185 0
-0.99649441 2.3476198 0.4616105 0
-0.99616122 2.3471341 0.65038341 0
-0.46681875 1.5407051 -0.049742922 0
-0.61893332 1.7565792 0.071171068 0
-1.0271345 2.33588 0.46302655 0
-1.0227251 2.3296223 0.65058392 0
-0.49140126 1.5411407 -0.050265618 0
-0.61763525 1.7155795 0.06995292 0
-0.61809361 1.7162127 0.19859739 0
-1.0449469 2.3060679 0.46051794 0
-1.0446143 2.3056083 0.64884341 0
-0.074770227 0.96541131 0.43896696 0
-0.50737947 1.5293728 -0.050264146 0
-0.62208176 1.6837457 0.069130272 0
-0.61935377 1.6800743 0.19554545 0
-1.0647157 2.2794678 0.45875761 0
-1.0600853 2.2732358 0.644517 0
-0.094000474 0.97302365 0.44772831 0
-0.51705611 1.5093398 -0.049900535 0
-0.62258339 1.647691 0.068112671 0
-0.61951303 1.6436656 0.19242969 0
-1.0806786 2.2482748 0.45599467 0
-1.073449 2.2387967 0.63954794 0
-0.091511562 0.9514311 0.43834803 0
-0.53663516 1.5023668 -0.050130963 0
-0.61553514 1.6031508 0.06670054 0
-0.61822009 1.6065806 0.18919104 0
-1.0981816 2.219667 0.45384231 0
-1.1027972 2.2255628 0.64145476 0
-0.11114629 0.95886159 0.44729698 0
-0.5513525 1.4890776 -0.05008572 0
-0.61509514 1.5684214 0.065719292 0
-0.62373602 1.579177 0.18725187 0
-1.1125156 2.1875863 0.45091543 0
-1.1088951 2.1830797 0.63392901 0
-0.1320193 0.96711147 0.45702073 0
-0.56392866 1.473236 -0.04993045 0
-0.61908698 1.540151 0.065026402 0
-0.61875856 1.5397526 0.1836279 0
-1.1251714 2.1541047 0.44767252 0
-1.1305778 2.1606636 0.63298482 0
-0.12842311 0.94490457 0.44726685 0
-0.58291125 1.4651349 -0.050142787 0
-0.61253321 1.5001624 0.063780531 0
-0.62137687 1.51062 0.1814049 0
-1.1406084 2.1246054 0.44537294 0
-1.1454282 2.1303048 0.62946749 0
-0.15198381 0.95556778 0.45891777 0
-0.59566772 1.4496231 -0.050018452 0
-0.61434436 1.4711523 0.063035987 0
-0.62111413 1.478956 0.17880201 0
-1.1569366 2.0966158 0.44345477 0
-1.1645986 2.105448 0.62783265 0
-0.61792958 1.4449213 -0.050416935 0
-0.63090205 1.4595 0.063113637 0
-0.62972105 1.4581727 0.17773457 0
-1.1690925 2.064333 0.44052789 0
-1.1762741 2.0724039 0.6234653 0
-0.62052 1.4182431 -0.049771294 0
-0.6599108 1.4614047 0.063857473 0
-0.66155386 1.463205 0.18042658 0
-1.1797594 2.0310175 0.43735221 0
-1.1794419 2.0306699 0.61609644 0
-0.64305186 1.413532 -0.050193779 0
-0.50937974 1.2707174 0.055210162 0
-0.68299663 1.4562088 0.18143857 0
-1.1906526 1.9985859 0.43439022 0
-1.1916554 1.9996574 0.61240071 0
-0.65559042 1.3979753 -0.050098635 0
-0.50711209 1.2432923 0.054443844 0
-0.71770036 1.4626806 0.18450911 0
-1.1958287 1.9607887 0.43008497 0
-1.1961126 1.9610846 0.60604048 0
-0.67228055 1.3867272 -0.050226014 0
-0.51501173 1.2269627 0.054222383 0
-0.74213779 1.4576929 0.18595535 0
-1.216252 1.9393307 0.42987734 0
-1.2073565 1.930294 0.60240698 0
-0.68263066 1.3690677 -0.050040375 0
-0.52438736 1.2123111 0.054088235 0
-0.77192008 1.4575182 0.18820174 0
-1.2223706 1.9037366 0.42611 0
-1.2189256 1.9003239 0.5990755 0
-0.69625318 1.3547469 -0.050030518 0
-0.53540975 1.1993781 0.054046668 0
-1.2245616 1.8650733 0.42151645 0
-1.2198437 1.8605162 0.59214079 0
-0.71133626 1.3418072 -0.050101314 0
-0.56671679 1.2055881 0.055008478 0
-1.2271398 1.8276497 0.41719434 0
-1.2344923 1.8345752 0.59027696 0
-0.71346366 1.3168966 -0.049551226 0
-0.86805022 1.4588732 0.069044612 0
-1.2311108 1.7923183 0.41337901 0
-1.2299876 1.7912868 0.58191353 0
-0.23744006 0.87970299 0.38263819 0
-0.73612547 1.3108907 -0.050006505 0
-1.2296754 1.7528547 0.40840593 0
-1.2312614 1.7542748 0.57581055 0
-0.23146088 0.85897362 0.37503853 0
-0.74212205 1.289905 -0.049670596 0
-1.2335556 1.7189475 0.40487948 0
-1.2388027 1.7235285 0.57205576 0
-0.23660298 0.84856486 0.37377879 0
-0.76679337 1.2851201 -0.050226219 0
-1.2370603 1.6853616 0.40140334 0
-1.2333333 1.6821897 0.56411248 0
-0.2344857 0.83207589 0.36865726 0
-0.26065105 0.85434514 0.46144307 0
-0.77691638 1.2677525 -0.050104015 0
-1.0113112 1.4622091 0.072977051 0
-1.2485043 1.6589872 0.39992338 0
-1.2389574 1.6510669 0.5601027 0
-0.25439101 0.83425969 0.37554872 0
-0.78705323 1.2505031 -0.04999378 0
-1.2451973 1.6209455 0.39511466 0
-1.2419623 1.6183298 0.55540341 0
-0.25595695 0.82107341 0.37259087 0
-0.79166639 1.2289962 -0.04964349 0
-1.2468387 1.5876523 0.39160016 0
-1.2434925 1.5850157 0.5504061 0
-0.27002209 0.81796277 0.37633881 0
-0.80889046 1.2174788 -0.049876429 0
-1.2595934 1.5635046 0.39074209 0
-1.2382447 1.5471143 0.54341221 0
-0.26243103 0.79793596 0.36876699 0
-0.2413186 0.78172696 0.43106684 0
-0.82580149 1.2055181 -0.050099727 0
-1.2384095 1.5141177 0.53836119 0
-0.2646454 0.78581578 0.36646685 0
-0.27861184 0.79626167 0.45033112 0
-0.83807588 1.1899811 -0.050122868 0
-1.2360027 1.4798595 0.53267628 0
-1.2354356 1.4794464 0.69255668 0
-0.26371372 0.77157474 0.36265472 0
-0.27644366 0.78084815 0.44487819 0
-0.84047186 1.1674128 -0.049722016 0
-1.2484444 1.4568172 0.53182214 0
-1.2363482 1.4482365 0.68674225 0
-0.28572679 0.77389216 0.37061536 0
-0.28195393 0.7712158 0.44430363 0
-0.85707152 1.1549935 -0.049953278 0
-1.2390546 1.4187952 0.52429676 0
-1.245379 1.4231629 0.68442011 0
-0.28564286 0.76035869 0.44270065 0
-0.86573565 1.1370399 -0.04984799 0
-1.2458639 1.3925519 0.52196229 0
-1.2359163 1.3858654 0.67483127 0
-0.29144573 0.75101757 0.4424684 0
-0.88872266 1.1285391 -0.050364252 0
-1.2402282 1.3584396 0.51595426 0
-1.2379084 1.3569223 0.67006218 0
-0.29410088 0.73962957 0.44042677 0
-0.89718878 1.1103646 -0.050266504 0
-1.2395028 1.3281492 0.51160938 0
-1.2368592 1.3264674 0.66427624 0
-0.29821932 0.72929233 0.4393546 0
-0.89956915 1.0885024 -0.049923673 0
-1.2459641 1.3028047 0.50956923 0
-1.2327378 1.2946221 0.65748394 0
-0.92499995 1.080781 -0.050555225 0
-1.2376955 1.2688321 0.50325447 0
-1.2419786 1.271408 0.65608662 0
-0.92713153 1.0589246 -0.050222751 0
-1.2396832 1.2415702 0.50014365 0
-1.2453986 1.2449102 0.65256965 0
-0.92711627 1.0361156 -0.049815856 0
-1.2495712 1.2191414 0.49947381 0
-1.2323806 1.209384 0.64291745 0
-0.94079304 1.0211761 -0.049981654 0
-1.2377592 1.1848253 0.49256971 0
-1.2389915 1.1855043 0.64095885 0
-0.95080638 1.0041413 -0.050005671 0
-1.2451469 1.1615449 0.49139231 0
-1.2513379 1.1648557 0.64129114 0
-0.96554565 0.98953521 -0.050228249 0
-1.2385781 1.1311523 0.48629588 0
-1.2423804 1.1331245 0.63373464 0
-0.96170521 0.96540785 -0.049714349 0
-1.2398878 1.1052798 0.48359114 0
-1.2410181 1.1058481 0.62920344 0
-0.98356533 0.95419979 -0.050236315 0
-0.38699961 0.66359508 0.10396981 0
-1.2456015 1.0818453 0.48224542 0
-1.243077 1.0806155 0.62609357 0
-0.97925317 0.93023711 -0.049727678 0
-0.38917613 0.65193081 0.10363887 0
-1.2393569 1.0529135 0.47761792 0
-1.2339443 1.0503607 0.61900252 0
-0.98997319 0.91352516 -0.049823739 0
-0.39237601 0.64081675 0.10344812 0
-1.2390409 1.0271852 0.47478205 0
-1.2452275 1.0300084 0.61955792 0
-1.0143421 0.90275788 -0.050460111 0
-0.39338738 0.62878394 0.10301782 0
-1.2333282 0.99937761 0.47054759 0
-1.2335565 0.99947834 0.6118567 0
-1.0143906 0.88113254 -0.050154492 0
-1.2389365 0.9768461 0.46957293 0
-1.2321366 0.97394758 0.60804349 0
-1.0167022 0.86066812 -0.049948364 0
-1.2230487 0.94556993 0.46275133 0
-1.2404343 0.95272332 0.60786188 0
-1.0160468 0.83917934 -0.049639221 0
-1.2478791 0.93117154 0.46724865 0
-1.2398909 0.92800182 0.60461265 0
-1.0234524 0.82100248 -0.049650036 0
-1.3491452 0.94551557 0.35000619 0
-1.2446775 0.90557736 0.46411732 0
-1.2415433 0.90437919 0.60227227 0
-1.0490637 0.80951273 -0.050362095 0
-1.3520875 0.92100698 0.34895065 0
-1.2452636 0.88170224 0.46211794 0
-1.2437606 0.88114929 0.60024858 0
-1.0478714 0.78800625 -0.050061457 0
-1.3617343 0.89902204 0.3492415 0
-1.2348219 0.85413212 0.45722467 0
-1.2302532 0.85251611 0.59278828 0
-1.0460197 0.76649642 -0.049747478 0
-1.3792653 0.87966776 0.35108563 0
-1.247175 0.83480942 0.45858791 0
-1.2365055 0.83118606 0.5924294 0
-1.0527478 0.7480101 -0.049767114 0
-1.3843198 0.85597605 0.35060212 0
-1.2393076 0.80875742 0.45458552 0
-1.2412777 0.80939889 0.59164834 0
-1.0719341 0.73338974 -0.050261281 0
-1.3912266 0.83292854 0.3505269 0
-1.2416447 0.78629667 0.4534137 0
-1.2411798 0.78615171 0.58926898 0
-1.0647119 0.71053302 -0.049776684 0
-1.3993708 0.81025672 0.35073954 0
-1.2335401 0.76084149 0.44954193 0
-1.2356666 0.76147515 0.58512038 0
-1.0721742 0.69220364 -0.049849555 0
-1.3941693 0.78375554 0.34850278 0
-1.2438062 0.74100327 0.45064193 0
-1.2377726 0.73928773 0.58372962 0
-1.0762364 0.6728971 -0.049804967 0
-1.4153062 0.76470548 0.35125723 0
-1.2408772 0.71747613 0.44831654 0
-1.2401383 0.71727604 0.5825296 0
-1.0908349 0.65633076 -0.050157912 0
-1.4144813 0.7396037 0.3499577 0
-1.2437077 0.69566435 0.4475942 0
-1.235314 0.69350469 0.57895887 0
-1.0971711 0.63748974 -0.050213832 0
-1.4152651 0.71507716 0.34901962 0
-1.2401602 0.67236668 0.4452714 0
-1.2450852 0.67356801 0.58049989 0
-1.0936979 0.61634278 -0.049918901 0
-1.4214145 0.69191849 0.34913453 0
-1.2327452 0.64840889 0.44201958 0
-1.2413009 0.65038198 0.57749414 0
-1.0907451 0.59551865 -0.049653523 0
-1.4335225 0.67003483 0.35040277 0
-1.2394623 0.62784821 0.44254535 0
-1.2477825 0.62965691 0.57809126 0
-1.1017447 0.57773197 -0.049906798 0
-1.4316558 0.64511245 0.34914619 0
-1.2386724 0.60569787 0.4411824 0
-1.2403361 0.60603762 0.57404619 0
-1.0995945 0.55724663 -0.049689651 0
-1.4475329 0.62375659 0.35120836 0
-1.236207 0.58336073 0.43946013 0
-1.2397195 0.58403212 0.57242513 0
-1.109887 0.53913015 -0.049933571 0
-1.4372907 0.59745163 0.34853047 0
-1.2380924 0.56196779 0.43894213 0
-1.2471296 0.56357765 0.57361388 0
-1.1131908 0.51968175 -0.049932357 0
-1.4499434 0.57530344 0.35010377 0
-1.2362061 0.54000032 0.43751964 0
-1.2412748 0.54083753 0.57041419 0
-1.1123353 0.49959785 -0.049789805 0
-1.4605845 0.55262285 0.35135803 0
-1.2374072 0.51864147 0.43696812 0
-1.2421091 0.51935738 0.5695681 0
-1.1223041 0.48112118 -0.050046794 0
-1.4535034 0.52729106 0.34943503 0
-1.2420702 0.49781683 0.4373787 0
-1.2408396 0.49764529 0.56810778 0
-1.1263267 0.46170592 -0.050097775 0
-1.4605592 0.50401568 0.35014307 0
-1.2346731 0.47542125 0.43475461 0
-1.2474782 0.47704223 0.56939358 0
-1.1263082 0.44179142 -0.050012276 0
-0.51552135 0.3722752 0.040065616 0
-0.50822085 0.37144428 0.10775588 0
-0.51461053 0.37217152 0.17792059 0
-1.2411788 0.45486531 0.43577671 0
-1.2544118 0.45637143 0.57086319 0
-1.1288955 0.42219773 -0.05002939 0
-0.50100118 0.35873199 0.03949853 0
-0.50932467 0.35957327 0.10773756 0
-0.50362319 0.35899699 0.17569651 0
-1.2367238 0.43309671 0.43405327 0
-1.2467339 0.4341085 0.56753212 0
-1.1256315 0.40207171 -0.049845617 0
-0.50285417 0.34703535 0.1069182 0
-0.50918996 0.34759524 0.17650212 0
-1.2385435 0.41205001 0.43400913 0
-1.2461863 0.41272542 0.56667989 0
-1.1319842 0.38280046 -0.050015416 0
-0.51612937 0.33618271 0.10824475 0
-0.5119127 0.33586353 0.17681853 0
