# .PCD v0.7 - Point Cloud Data file format
VERSION 0.7
FIELDS x y z intensity
SIZE 4 4 4 4
TYPE F F F F
COUNT 1 1 1 1
WIDTH 1355
HEIGHT 1
VIEWPOINT 0 0 0 1 0 0 0
POINTS 1355
DATA ascii
-1.2422532 -0.16654597 0.44721106 0
-1.2397348 -0.16589801 0.58047754 0
-1.0667722 -0.14159043 -0.04945492 0
-0.61357749 -0.018880975 0.044692677 0
-0.62415481 -0.021744948 0.12365175 0
-1.2520508 -0.19175743 0.32075411 0
-1.2396063 -0.18838792 0.44798064 0
-1.2389057 -0.18819819 0.58210474 0
-1.0760493 -0.16456129 -0.049993381 0
-0.68882537 -0.05446307 0.047621053 0
-0.69093359 -0.055062514 0.13152473 0
-1.2432604 -0.21210392 0.32020783 0
-1.2333063 -0.20927368 0.44785684 0
-1.2459185 -0.21285971 0.5865472 0
-1.0597548 -0.18031175 -0.049592018 0
-0.78088129 -0.097211309 0.051203243 0
-0.77755809 -0.096221067 0.14169976 0
-1.2311678 -0.23139043 0.31908619 0
-1.2390018 -0.23372485 0.45099592 0
-1.240062 -0.23404078 0.58664626 0
-1.069831 -0.20398997 -0.050182633 0
-0.88036025 -0.14492284 0.055097204 0
-0.87223554 -0.14238994 0.15287955 0
-1.2424252 -0.25779584 0.32241696 0
-1.24368 -0.25818703 0.45395762 0
-1.2455136 -0.25875863 0.59077924 0
-1.058486 -0.22113444 -0.049982563 0
-0.98525441 -0.19728886 0.059232991 0
-0.98873913 -0.19842355 0.1666377 0
-1.2331725 -0.27801558 0.32193419 0
-1.2437798 -0.28146949 0.45578548 0
-1.2421378 -0.28093478 0.59194928 0
-1.0474116 -0.23822503 -0.04979996 0
-1.1312184 -0.26668611 0.064959802 0
-1.1220222 -0.26356301 0.18243915 0
-1.2494718 -0.30684534 0.32636455 0
-1.2371702 -0.30266765 0.45589221 0
-1.0424672 -0.25735059 -0.049856812 0
-1.283957 -0.34276751 0.20167054 0
-1.2343909 -0.32523552 0.32488096 0
-1.2437779 -0.32855579 0.45964837 0
-1.0333858 -0.27500001 -0.049765684 0
-1.2553592 -0.35667267 0.1992867 0
-1.2421316 -0.35180578 0.32782051 0
-1.2461426 -0.35328159 0.46235693 0
-1.031962 -0.29551157 -0.049975283 0
-1.2404324 -0.37521031 0.19848441 0
-1.2416956 -0.37569323 0.32925996 0
-1.2462221 -0.37742373 0.46453923 0
-1.0213641 -0.31254515 -0.049843457 0
-1.2484281 -0.40264526 0.20035531 0
-1.2346799 -0.39718994 0.32948822 0
-1.2356976 -0.39759377 0.46390504 0
-1.0188895 -0.33282396 -0.050032806 0
-1.2467575 -0.42658088 0.20115265 0
-1.2339703 -0.42131957 0.33100006 0
-1.2465483 -0.42649487 0.46923453 0
-1.0132725 -0.35191187 -0.050111104 0
-1.2407848 -0.44888976 0.20148681 0
-1.2371095 -0.44732323 0.33333403 0
-1.2448694 -0.45063081 0.47121835 0
-1.0009706 -0.36811402 -0.049938329 0
-1.2479464 -0.4770833 0.20339857 0
-1.2424526 -0.47465935 0.33617979 0
-1.2466254 -0.47650042 0.47425568 0
-0.99551308 -0.38730916 -0.050041143 0
-1.2381294 -0.49802509 0.20335746 0
-1.2442979 -0.50084007 0.33841661 0
-1.2412786 -0.49946222 0.47540963 0
-0.98238277 -0.40296903 -0.049851213 0
-1.2432202 -0.5259915 0.20511875 0
-1.2388103 -0.5239116 0.33927011 0
-1.2418492 -0.52534491 0.47832099 0
-0.97777867 -0.42263678 -0.050006513 0
-1.4942136 -0.67420745 0.082515121 0
-1.2431132 -0.55188906 0.20631148 0
-1.2379065 -0.54935271 0.3411065 0
-1.2442037 -0.55242026 0.48184875 0
-0.9568454 -0.43422022 -0.04952015 0
-1.4314859 -0.67287225 0.080486856 0
-1.2376971 -0.57543415 0.20691225 0
-1.2448397 -0.57902545 0.34460101 0
-1.2390136 -0.57609606 0.48334146 0
-0.95388913 -0.45474508 -0.049759448 0
-1.4039111 -0.6881634 0.079858407 0
-1.2315797 -0.59877819 0.20746784 0
-1.2445558 -0.60550869 0.34672785 0
-0.95849669 -0.47950974 -0.050317015 0
-1.3493875 -0.68854529 0.078142457 0
-1.2361804 -0.62800586 0.20936912 0
-1.2401707 -0.63013971 0.34809825 0
-0.93561065 -0.48957613 -0.049770407 0
-1.3064067 -0.69391072 0.076885268 0
-1.2464229 -0.66085547 0.21202093 0
-1.2359809 -0.65510118 0.34958208 0
-0.92798543 -0.50786483 -0.049851533 0
-1.2710685 -0.70259911 0.075935565 0
-1.2472626 -0.68908691 0.21358076 0
-1.2350397 -0.68214917 0.35181516 0
-0.91780293 -0.52472907 -0.049837012 0
-1.258734 -0.72395891 0.075934567 0
-1.2381529 -0.71193188 0.21395773 0
-1.2482064 -0.71780688 0.35708255 0
-0.91577566 -0.54648948 -0.050170939 0
-1.2506475 -0.74787718 0.076121703 0
-1.2384565 -0.74054557 0.21555401 0
-1.240412 -0.74172157 0.35807285 0
-0.91027021 -0.56637859 -0.050372917 0
-1.2476143 -0.77508146 0.076535031 0
-1.2372656 -0.76867908 0.21701929 0
-1.2402816 -0.77054495 0.36075985 0
-0.89291167 -0.57889926 -0.050085522 0
-1.2511592 -0.80682105 0.077244475 0
-1.2356266 -0.79693907 0.21848421 0
-1.2412996 -0.80054826 0.3637912 0
-0.88406467 -0.59674847 -0.050165549 0
-1.2489126 -0.83537537 0.077729702 0
-1.2495608 -0.8357994 0.22200656 0
-1.2332108 -0.82510573 0.36496621 0
-0.87798536 -0.6165297 -0.050374936 0
-1.2324445 -0.85478765 0.077622689 0
-1.2394865 -0.85952109 0.22251306 0
-1.2455201 -0.86357671 0.37065074 0
-0.85671663 -0.62600434 -0.049937885 0
-1.2467251 -0.89534837 0.078859419 0
-1.2390192 -0.89002663 0.2243176 0
-1.2390828 -0.8900705 0.37238178 0
-0.83903635 -0.63765037 -0.049659178 0
-1.2390505 -0.92140931 0.079168484 0
-1.232142 -0.9165085 0.22534411 0
-1.594576 -1.1736089 0.45423084 0
-0.84074771 -0.66318339 -0.050240885 0
-1.2365963 -0.95154768 0.079725407 0
-1.2413532 -0.95501298 0.22856335 0
-1.5796932 -1.201484 0.45498592 0
-0.81998193 -0.67242134 -0.049840275 0
-1.2450613 -0.99034852 0.080791242 0
-1.2426096 -0.98851496 0.23081027 0
-0.81141353 -0.69067168 -0.049989991 0
-1.2328461 -1.0142254 0.080958515 0
-1.2430973 -1.0220957 0.23303173 0
-0.80323279 -0.70936579 -0.050169211 0
-1.1619748 -0.99203914 0.078474969 0
-1.1545274 -0.98617095 0.22314779 0
-1.1582736 -0.98912269 0.37126487 0
-0.77860689 -0.7149294 -0.049605992 0
-1.133624 -1.0019863 0.077905454 0
-1.1455779 -1.0116519 0.22410445 0
-1.1369171 -1.0046489 0.37000147 0
-0.7792846 -0.74097306 -0.05021387 0
-1.2322563 -1.1167635 0.083226189 0
-1.2379444 -1.1214823 0.23926331 0
-1.3405201 -1.2065803 0.42148566 0
-0.75661731 -0.74771506 -0.049749151 0
-1.2382455 -1.1576262 0.084328428 0
-1.2385634 -1.1578966 0.2418319 0
-1.3142726 -1.2223324 0.41968915 0
-1.0283151 -0.97895557 0.49542597 0
-0.75015163 -0.76817089 -0.050051142 0
-1.2835439 -1.2338454 0.41684717 0
-0.99290466 -0.98010474 0.48877436 0
-0.73722601 -0.78313202 -0.05005924 0
-1.1972576 -1.195081 0.084105507 0
-1.1983789 -1.1960851 0.24127775 0
-1.1874346 -1.1862847 0.39817986 0
-0.96945083 -0.99108475 0.48614714 0
-0.72024763 -0.79438299 -0.049880069 0
-0.91354156 -0.97190958 0.47229412 0
-0.70579302 -0.80784184 -0.04982945 0
-0.88702261 -0.97854441 0.46849275 0
-0.69990647 -0.82953185 -0.050211862 0
-0.85635614 -0.98065633 0.46320307 0
-0.67792189 -0.83565909 -0.049803749 0
-0.84251344 -0.99870414 0.4638983 0
-0.67004216 -0.85570914 -0.050112098 0
-0.81874502 -1.0067716 0.46107477 0
-0.64604127 -0.85928291 -0.049606331 0
-0.64789295 -0.88996011 -0.0504467 0
-0.62528396 -0.89471883 -0.050023597 0
-0.60654366 -0.90338117 -0.049805436 0
-0.59363532 -0.91853625 -0.049907729 0
-0.57870388 -0.93141538 -0.049910162 0
-0.57214093 -0.9544546 -0.050391395 0
-0.54901618 -0.95742518 -0.049952541 0
-0.53684181 -0.97388643 -0.050142929 0
-0.52826548 -0.99529165 -0.050560404 0
-0.50531334 -0.99784786 -0.050140463 0
-0.48713064 -1.006495 -0.050005548 0
-0.47394806 -1.0220784 -0.050184801 0
-0.44910598 -1.0208937 -0.049643777 0
-0.43823725 -1.0399578 -0.049989976 0
-0.42526168 -1.0562322 -0.050220449 0
-0.37633455 -0.98090822 0.50002617 0
-0.40549803 -1.062073 -0.050015405 0
-0.35182381 -0.97711784 0.4945654 0
-0.39052141 -1.0754358 -0.050137587 0
-0.32756758 -0.97295767 0.48912328 0
-0.36871898 -1.0775414 -0.04979863 0
-0.3075912 -0.97516757 0.48630902 0
-0.35709822 -1.0967267 -0.050178476 0
-0.29095775 -0.98272079 0.48566762 0
-0.33517087 -1.0981719 -0.049834695 0
-0.27993912 -1.0001463 0.4888809 0
-0.32173473 -1.1146427 -0.050115973 0
-0.2547484 -0.99217433 0.48249397 0
-0.30631799 -1.1278113 -0.050268784 0
-0.22114708 -0.96732968 0.46991447 0
-0.28265369 -1.125198 -0.049794737 0
-0.20905115 -0.98219413 0.47243318 0
-0.26626414 -1.1364255 -0.049887795 0
-0.18876459 -0.9810732 0.4690496 0
-0.25234014 -1.1529131 -0.050197065 0
-0.16972674 -0.98195416 0.46652099 0
-0.23396315 -1.1604036 -0.050156839 0
-0.15007551 -0.9810788 0.46345043 0
-0.21226861 -1.1605022 -0.049836271 0
-0.1247061 -0.96701068 0.4556703 0
-0.19658013 -1.173774 -0.050041467 0
-0.11717571 -0.99225909 0.46232638 0
-0.17646416 -1.1769471 -0.049861856 0
-0.10275038 -1.0024909 0.46355796 0
-0.16365077 -1.1977017 -0.050370812 0
-0.072792485 -0.97488552 0.34745044 0
-0.084621802 -1.003895 0.46167696 0
-0.1390921 -1.189572 -0.049775418 0
-0.059171155 -0.98629421 0.34886065 0
-0.065889969 -1.0033834 0.45920211 0
-0.12538816 -1.2089288 -0.050244004 0
-0.031686351 -0.96149486 0.14687328 0
-0.028581692 -0.9532966 0.24082427 0
-0.010281993 -0.90497345 0.32501322 0
-0.050692245 -1.0116829 0.45995775 0
-0.10357995 -1.207018 -0.049908902 0
-0.0086376797 -0.94644862 0.1444948 0
-0.0095081162 -0.94883746 0.23887241 0
0.0057306751 -0.90701455 0.32407862 0
-0.086757615 -1.2186401 -0.050097592 0
0.0064907833 -0.95234221 0.1445443 0
0.0097420681 -0.94305724 0.23672271 0
0.021481322 -0.90953237 0.32333162 0
-0.00472845 -0.98438209 0.44618756 0
-0.068067387 -1.2251322 -0.050100271 0
0.025431233 -0.94693834 0.14333434 0
0.023993211 -0.951217 0.23728052 0
0.027900653 -0.93959087 0.33005399 0
0.014904814 -0.97825843 0.44214058 0
-0.046926603 -1.2240334 -0.049827062 0
0.033453628 -0.97451073 0.14587955 0
0.033143863 -0.97547239 0.24091989 0
0.019586341 -1.0175587 0.34961265 0
0.01967846 -1.0172727 0.45397368 0
-0.031053795 -1.2393786 -0.050179217 0
0.023712711 -1.0617344 0.3600457 0
-0.010697378 -1.2403926 -0.050004143 0
0.067058787 -0.97641653 0.33601251 0
0.0050715371 -1.2572917 -0.050428279 0
0.085561112 -0.97077376 0.33332366 0
0.027398543 -1.2508342 -0.049995191 0
0.10174187 -0.97279602 0.33272982 0
0.045085356 -1.2614213 -0.050201684 0
0.11928822 -0.96921295 0.33071601 0
0.066038385 -1.259068 -0.049940571 0
0.081664994 -1.2793317 -0.050517932 0
0.10400881 -1.2701802 -0.050026972 0
0.1236143 -1.2729135 -0.049980298 0
0.14371832 -1.272832 -0.049840469 0
-0.064249173 -2.3796942 0.10204834 0
0.16334473 -1.2749273 -0.049789019 0
0.0025741921 -2.1942294 0.095107399 0
0.18016179 -1.2941637 -0.050366558 0
0.034114495 -2.1960552 0.094984688 0
0.1989565 -1.3029155 -0.050572213 0
0.065250114 -2.200043 0.09495458 0
0.2215503 -1.2848703 -0.049820531 0
0.096780375 -2.2010128 0.094829932 0
0.23993677 -1.2966198 -0.050152041 0
0.1298825 -2.1885657 0.094237141 0
0.25977913 -1.2973634 -0.050096087 0
0.16034405 -2.1962309 0.094382569 0
0.28050792 -1.2886792 -0.049710978 0
0.19210388 -2.1917377 0.094105445 0
0.29855922 -1.3082592 -0.050348364 0
0.22244392 -2.2016647 0.094359629 0
0.3194007 -1.2956266 -0.049840253 0
0.25402161 -2.1970739 0.094107613 0
0.33908999 -1.2962922 -0.049817529 0
0.28547987 -2.191586 0.093837924 0
0.35844973 -1.3036585 -0.050043177 0
0.3160173 -2.2016597 0.094138749 0
0.37827876 -1.3021646 -0.049960922 0
0.34712869 -2.2014356 0.094085313 0
0.39795223 -1.3052387 -0.050050735 0
0.37813011 -2.2047129 0.094170921 0
0.41774392 -1.3028333 -0.049953751 0
0.43746573 -1.2989687 -0.049813557 0
0.45729509 -1.3080184 -0.050143328 0
0.47702572 -1.3052635 -0.050060514 0
0.49720174 -1.314737 -0.050423469 0
0.5162195 -1.2977424 -0.049849454 0
0.5365243 -1.3062707 -0.050196722 0
0.5557639 -1.2981359 -0.049956743 0
0.57523692 -1.2943733 -0.049881913 0
0.59526116 -1.2963763 -0.05002274 0
0.61560518 -1.3002312 -0.050239395 0
0.63270479 -1.277876 -0.049522039 0
0.65369016 -1.2863299 -0.049922206 0
0.67327595 -1.2839246 -0.049940344 0
0.69183159 -1.2753067 -0.049742524 0
0.71081984 -1.2698379 -0.049666982 0
0.73264319 -1.2792145 -0.050139867 0
0.75081742 -1.2693498 -0.049922422 0
0.77294904 -1.2781142 -0.050393809 0
0.79063159 -1.2663865 -0.050125446 0
1.1693318 -2.8852532 0.12148137 0
0.80793309 -1.253893 -0.049836259 0
1.2011132 -2.8441074 0.12031855 0
0.82794213 -1.2525833 -0.049966764 0
1.2796032 -2.9853861 0.12589704 0
0.84649605 -1.2456057 -0.049897216 0
1.308892 -2.9322865 0.12433571 0
0.86891383 -1.2522231 -0.050341126 0
0.88641584 -1.2414355 -0.050148241 0
0.90520352 -1.2351689 -0.050132055 0
0.92244542 -1.224232 -0.049949136 0
0.94202954 -1.2205092 -0.0500459 0
0.9590618 -1.2094311 -0.049873583 0
0.97883505 -1.2060708 -0.050002545 0
0.99817222 -1.2013195 -0.050088406 0
0.92431462 -1.0099354 0.46042901 0
1.0145621 -1.1890367 -0.049894407 0
0.93978965 -1.0023162 0.45995376 0
1.0326122 -1.1811019 -0.049875416 0
0.9600811 -1.0063858 0.46375656 0
1.054548 -1.18223 -0.05021733 0
0.97349191 -0.99371737 0.46161073 0
1.0730437 -1.1750265 -0.050246362 0
0.98845363 -0.98492724 0.46092641 0
1.0871159 -1.1581531 -0.049904663 0
1.0061496 -0.98219663 0.46252611 0
1.1008527 -1.1411283 -0.049561922 0
1.0246983 -0.98097068 0.46477151 0
1.1276304 -1.1512032 -0.050301746 0
1.0431956 -0.97924823 0.46693319 0
1.1371174 -1.1259962 -0.049647648 0
1.0588377 -0.97152358 0.46695665 0
1.1641872 -1.1354183 -0.050389022 0
1.0879779 -0.98961395 0.47674483 0
1.1751317 -1.1138041 -0.049890574 0
1.1072206 -0.98776764 0.47920346 0
1.1964464 -1.111587 -0.050186306 0
1.1287066 -0.9895727 0.057203941 0
1.1295934 -0.99116999 0.16033226 0
1.1265061 -0.98560911 0.26384431 0
1.1311754 -0.99401957 0.37321624 0
1.1323763 -0.99618274 0.48567602 0
1.2130586 -1.1007186 -0.050139394 0
1.1454773 -0.98252171 0.05727854 0
1.1391675 -0.97148627 0.15899435 0
1.1422955 -0.97695702 0.2638827 0
1.1449025 -0.98151642 0.37215623 0
1.1512537 -0.99262446 0.48772764 0
1.2294128 -1.089471 -0.050085049 0
1.1637876 -0.97797722 0.057466246 0
1.1675266 -0.98432952 0.16171768 0
1.167001 -0.98343676 0.26712948 0
1.1716861 -0.99139625 0.37776572 0
1.1640253 -0.97838122 0.48576102 0
1.2439166 -1.0752364 -0.049914181 0
1.261808 -1.066661 -0.049987663 0
1.2793012 -1.0573622 -0.050040588 0
1.293594 -1.0431299 -0.049892433 0
1.3099219 -1.0320859 -0.049888179 0
1.3303825 -1.0269855 -0.050151233 0
1.3434656 -1.0112295 -0.049960453 0
1.3625901 -1.0039345 -0.050149743 0
1.3768388 -0.9899357 -0.050051972 0
1.3926593 -0.97807854 -0.050057936 0
1.4089752 -0.96683437 -0.050100915 0
1.2052233 -0.70991898 0.05039436 0
1.2079632 -0.71337372 0.14011136 0
1.4262075 -0.95666319 -0.050203148 0
1.2131416 -0.69484347 0.050151821 0
1.2096405 -0.69054139 0.1383113 0
1.4399827 -0.94223398 -0.05011845 0
1.2032688 -0.65872288 0.048932537 0
1.2032609 -0.65871358 0.13523576 0
1.4442924 -0.91684085 -0.049525574 0
1.2059404 -0.63856614 0.048444644 0
1.2112046 -0.64471215 0.13463806 0
1.4629986 -0.90846235 -0.049737256 0
1.2050967 -0.6149261 0.047787372 0
1.206458 -0.61647546 0.13201147 0
1.4846087 -0.90307838 -0.050106522 0
1.207708 -0.59580898 0.047339462 0
1.2043167 -0.59204578 0.1298971 0
1.4917704 -0.88167363 -0.049714424 0
1.5066895 -0.86885029 -0.049744163 0
1.5313903 -0.86605531 -0.050282862 0
1.5451673 -0.85175937 -0.050264183 0
1.5553008 -0.83391327 -0.050072815 0
1.5624083 -0.81336313 -0.049745593 0
1.5755565 -0.79874235 -0.049729396 0
1.5856268 -0.78134137 -0.049573965 0
1.5995182 -0.76746124 -0.049612846 0
1.6178607 -0.75737768 -0.049869403 0
1.6247363 -0.73741812 -0.049594484 0
1.6491653 -0.73208201 -0.050144088 0
1.6551386 -0.71151453 -0.049848229 0
1.6752926 -0.70223707 -0.050208405 0
1.687683 -0.68675369 -0.05022265 0
1.695365 -0.66777849 -0.050036527 0
1.7048075 -0.65022683 -0.049940053 0
1.7165843 -0.63438809 -0.049955815 0
1.7250885 -0.61630243 -0.049838718 0
1.7383559 -0.60147041 -0.049936432 0
1.7557404 -0.5892086 -0.050216243 0
1.7686071 -0.57387567 -0.050309978 0
1.7663822 -0.54925573 -0.049779978 0
1.7812122 -0.53517777 -0.04997468 0
1.7914827 -0.51831162 -0.049987458 0
1.8119143 -0.50711465 -0.050424512 0
1.812704 -0.48489997 -0.050066419 0
1.8297389 -0.47152349 -0.050377525 0
1.8286687 -0.44865063 -0.049967621 0
1.8372979 -0.43089738 -0.04995814 0
1.8457054 -0.41304186 -0.049948819 0
1.8532497 -0.39478961 -0.049914457 0
1.8627602 -0.37744287 -0.049966246 0
1.8725095 -0.36015645 -0.05003557 0
1.8870454 -0.34481838 -0.050298251 0
1.8845433 -0.32239196 -0.049910985 0
1.8971884 -0.30615565 -0.050116815 0
1.8985862 -0.28554198 -0.049900625 0
1.9038101 -0.26646766 -0.04984051 0
1.9197698 -0.25115624 -0.0501954 0
1.9143038 -0.22845177 -0.049749959 0
1.9198638 -0.20958738 -0.049730189 0
1.9329228 -0.19302033 -0.049999256 0
1.9309697 -0.17188178 -0.049716912 0
1.9378427 -0.15339614 -0.049772445 0
1.9508711 -0.13649191 -0.050063688 0
1.9514612 -0.11625574 -0.049904063 0
1.9545782 -0.096731581 -0.049847003 0
1.9706941 -0.080157049 -0.050274685 0
1.9593785 -0.057488453 -0.049707998 0
1.9841843 -0.042364758 -0.050467659 0
1.9780651 -0.020983201 -0.050109752 0
1.9821994 -0.0016145216 -0.050133798 0
1.9841785 0.018116552 -0.050088719 0
1.9822031 0.038395319 -0.049910016 0
1.9912553 0.057083581 -0.050137985 0
1.9898864 0.077189468 -0.049999356 0
1.9984851 0.096129276 -0.05022791 0
1.9880569 0.11703636 -0.049782429 0
2.0005162 0.13575388 -0.050166704 0
2.0094748 0.15498908 -0.050433796 0
1.9963663 0.17566782 -0.049920272 0
1.9991831 0.19528486 -0.04998545 0
2.006978 0.21479426 -0.050237238 0
2.0030706 0.23470548 -0.050079882 0
2.0009217 0.25449777 -0.049994279 0
1.9967442 0.27422005 -0.049845126 0
1.9923424 0.293836 -0.049696803 0
1.9980688 0.31366932 -0.049919013 0
2.0019171 0.33357987 -0.050083157 0
1.9917496 0.35281444 -0.049755186 0
1.9928707 0.37260333 -0.049839582 0
1.9958087 0.39260411 -0.049998071 0
1.9967324 0.4125295 -0.050093539 0
1.995002 0.43224064 -0.050102845 0
1.9795995 0.45031825 -0.049629454 0
1.9975297 0.47249499 -0.050363965 0
1.9757155 0.48940277 -0.049675953 0
1.9699743 0.50837326 -0.049575258 0
1.9749917 0.52912152 -0.049872708 0
1.9840721 0.55083644 -0.050327834 0
1.97697 0.56968272 -0.050205112 0
1.9727007 0.58904094 -0.05019407 0
1.96672 0.60801101 -0.050129287 0
1.9635835 0.62761223 -0.050177429 0
1.9542724 0.64570433 -0.050007533 0
1.9407872 0.6625737 -0.049691342 0
1.9534428 0.68646979 -0.050350439 0
1.9362296 0.70215726 -0.049912494 0
1.9308848 0.72114319 -0.049923193 0
1.9250139 0.73997265 -0.049923159 0
1.9314997 0.76291519 -0.050396942 0
1.915502 0.77842098 -0.050034139 0
1.90354 0.79511434 -0.049830254 0
1.9035152 0.81613499 -0.05008857 0
1.8975528 0.8350417 -0.050130777 0
1.8865666 0.85195374 -0.049988896 0
1.8778729 0.86972082 -0.04994322 0
1.8670835 0.88654727 -0.04982442 0
1.8599601 0.90493041 -0.04985667 0
1.8595121 0.92643934 -0.050160926 0
1.8384451 0.93830568 -0.049661376 0
1.8308015 0.9564262 -0.049699359 0
1.8287612 0.97744203 -0.049971327 0
1.8177708 0.99396414 -0.049894612 0
1.813692 1.0141805 -0.050106555 0
1.7909609 1.0241395 -0.049567394 0
1.7890311 1.0456438 -0.049886458 0
1.7808717 1.06372 -0.049960546 0
1.7662554 1.0779226 -0.049774677 0
1.7592528 1.0967509 -0.049915727 0
1.7567215 1.1185857 -0.050257925 0
1.7378378 1.129871 -0.049914241 0
1.7297629 1.1482315 -0.050040659 0
1.7123892 1.1601959 -0.049773004 0
1.7067102 1.1803387 -0.050023712 0
1.6899694 1.1925399 -0.04979711 0
1.6838286 1.2125771 -0.050049998 0
1.6715517 1.2280715 -0.050039202 0
1.6527265 1.2383333 -0.049738046 0
1.6509606 1.2622966 -0.050226938 0
1.6285858 1.2693971 -0.049773999 0
1.6203439 1.2882625 -0.049986448 0
1.6044081 1.3005291 -0.049845885 0
1.5886773 1.3128519 -0.049720984 0
1.5795267 1.331179 -0.049922965 0
1.5651771 1.3447483 -0.049882196 0
1.54836 1.3558679 -0.049726177 0
1.5428964 1.3782254 -0.050149344 0
1.5245775 1.3877908 -0.049933907 0
1.5071052 1.398033 -0.04976574 0
1.0345339 0.89947146 0.29713023 0
1.4941044 1.4129431 -0.049837194 0
1.0429169 0.92477483 0.30518234 0
1.4778464 1.4243187 -0.049745895 0
1.4385625 1.3807263 0.059650891 0
1.4350021 1.3767754 0.16693026 0
1.4486276 1.3918954 0.27973449 0
1.0589708 0.95950329 0.31731716 0
1.4663305 1.4409988 -0.049917478 0
1.4122306 1.3794239 0.05899122 0
1.4163961 1.384165 0.16619432 0
1.4123908 1.3796062 0.2737343 0
1.051982 0.96939975 0.31823125 0
1.4548905 1.4579583 -0.050107203 0
1.392633 1.385273 0.058690466 0
1.3885833 1.380545 0.16394171 0
1.3838269 1.3749918 0.26972988 0
1.0566511 0.99301589 0.32518423 0
1.438889 1.4696683 -0.05005753 0
1.3662165 1.3826289 0.058009386 0
1.3642663 1.380293 0.16223349 0
1.3669837 1.3835475 0.26894656 0
1.0540342 1.0087297 0.32861394 0
1.4252981 1.4842898 -0.050151702 0
1.3484864 1.3899021 0.057807125 0
1.343091 1.3832722 0.16103302 0
1.3478012 1.3890601 0.26751319 0
1.0614121 1.0371395 0.33746871 0
1.4064535 1.4923989 -0.049956035 0
1.3216721 1.385496 0.057084922 0
1.3213285 1.3850628 0.15971823 0
1.3177094 1.3804995 0.26291057 0
1.0572752 1.052112 0.34049007 0
1.3887031 1.5017031 -0.049826946 0
1.2985548 1.3850456 0.056563497 0
1.2920513 1.3766298 0.15706502 0
1.2934011 1.3783765 0.25990659 0
1.0535241 1.0679609 0.34387273 0
1.3854707 1.5301458 -0.050564356 0
1.2790837 1.388832 0.056249388 0
1.2665902 1.3722368 0.15503013 0
1.2709135 1.3779795 0.25739002 0
1.0428609 1.0750573 0.3435984 0
1.3644375 1.535198 -0.050261274 0
1.2539462 1.384521 0.055590592 0
1.2558321 1.3870927 0.15562209 0
1.2555407 1.3866954 0.25699821 0
1.0339574 1.084522 0.34435928 0
1.347048 1.5449904 -0.050180536 0
1.2427771 1.3989757 0.055774894 0
1.2459671 1.4034429 0.15642408 0
1.2442467 1.4010336 0.25789899 0
1.0237788 1.0923038 0.34447137 0
1.3279117 1.5521761 -0.049996711 0
1.2377918 1.4225571 0.05636058 0
1.2458266 1.4341135 0.15910985 0
1.2446795 1.4324636 0.26257762 0
1.0098833 1.0947578 0.34247586 0
1.3151006 1.5684824 -0.050218053 0
1.247133 1.4680501 0.05788859 0
1.2386971 1.4555849 0.16057931 0
1.2421979 1.4607577 0.26653245 0
1.0084498 1.1153604 0.34785849 0
1.2974581 1.5777419 -0.050143261 0
1.2362728 1.4848323 0.058171611 0
1.2479868 1.50262 0.16533777 0
1.235772 1.4840719 0.26938599 0
1.1641437 1.3753047 0.34537467 0
0.99305624 1.1155093 0.34505606 0
1.2741581 1.5780785 -0.049700208 0
1.2490187 1.5388373 0.060036413 0
1.2460815 1.5342526 0.16807717 0
1.2204012 1.4941674 0.26940283 0
1.1516618 1.3868697 0.34611437 0
0.98859018 1.1323258 0.34893858 0
1.2594802 1.5916691 -0.049830511 0
1.2428555 1.5649852 0.060708098 0
1.2455994 1.5693892 0.17124191 0
1.2054191 1.5048969 0.26959553 0
1.122064 1.3711057 0.33868074 0
0.97042507 1.1277138 0.3444134 0
1.2484124 1.6114032 -0.050223995 0
1.1893084 1.5138205 0.26944596 0
1.1069758 1.3778863 0.33813977 0
0.96101391 1.1368978 0.34537795 0
1.22822 1.6161889 -0.050001107 0
1.1770501 1.5292537 0.27070233 0
1.0901588 1.3816298 0.33676016 0
0.95131904 1.1457478 0.34625238 0
0.84100431 0.95832855 0.48354784 0
1.2125348 1.6285467 -0.050101716 0
1.15931 1.5354588 0.27006477 0
1.0682106 1.3761296 0.33273625 0
0.94714797 1.164396 0.35092252 0
0.8472169 0.98962069 0.35189739 0
0.83778465 0.97312409 0.41449055 0
0.83732122 0.97231358 0.48962581 0
1.2015469 1.6495183 -0.050561454 0
1.1431904 1.5444053 0.2700434 0
1.0565143 1.3882825 0.33397275 0
0.93601376 1.1712346 0.35108632 0
0.84978139 1.0159112 0.36190224 0
0.84074098 0.99962741 0.42676988 0
0.83874452 0.9960314 0.50229484 0
1.1815413 1.6544441 -0.050372999 0
1.1318187 1.5621636 0.27186909 0
1.0328413 1.3784709 0.3288781 0
0.92411214 1.1766795 0.35077548 0
0.85068679 1.040409 0.37098107 0
0.84358853 1.0272353 0.43957278 0
0.84162164 1.0235848 0.51745003 0
1.1563861 1.6492374 -0.049787778 0
1.1076552 1.556005 0.26884502 0
1.0132841 1.3754532 0.32585886 0
0.91144902 1.1806211 0.34995878 0
0.84736818 1.0580211 0.37677819 0
0.84120607 1.0462316 0.44740966 0
0.84119242 1.0462055 0.52918071 0
1.1419938 1.6643634 -0.050032794 0
1.097232 1.5760331 0.27119642 0
0.99528199 1.3748506 0.32362023 0
0.90068424 1.1881766 0.35055485 0
0.84894639 1.0860801 0.38740698 0
0.84207118 1.072513 0.45929983 0
0.83918595 1.0668195 0.53950614 0
1.1222523 1.6689948 -0.049866125 0
1.0765215 1.5758622 0.26950142 0
0.98175675 1.3828696 0.32391059 0
0.88950217 1.1949894 0.35092235 0
0.84497404 1.1043061 0.39342549 0
0.84125787 1.096738 0.46996439 0
0.83992523 1.0940239 0.55413896 0
1.1002373 1.6685783 -0.049510758 0
0.96537167 1.3849469 0.32256889 0
0.87505388 1.1950027 0.34883481 0
0.84085363 1.1230773 0.39968109 0
0.83988017 1.1210301 0.48060822 0
0.84573781 1.1333491 0.57663769 0
1.0854979 1.683381 -0.049766473 0
0.94845086 1.3855491 0.32087874 0
0.86040354 1.1942039 0.34652874 0
0.83986086 1.1495603 0.409439 0
0.84035337 1.1506306 0.49412388 0
0.84209681 1.1544194 0.58704144 0
1.0689907 1.6946623 -0.04989044 0
0.93350768 1.3901913 0.3203859 0
0.85296988 1.2091987 0.35005414 0
0.84088272 1.1820352 0.4218635 0
0.83963639 1.1792344 0.50701481 0
0.83836985 1.176388 0.59799999 0
1.0471019 1.6936567 -0.049544338 0
0.91636908 1.3896108 0.31849772 0
0.84744793 1.2293204 0.35545114 0
0.83977991 1.2114868 0.43285257 0
0.83997399 1.2119383 0.52207416 0
0.83972836 1.2113669 0.61732841 0
1.0310903 1.70618 -0.049733695 0
0.89532065 1.3791323 0.31394488 0
0.84824914 1.2657443 0.36671761 0
0.84385878 1.2551687 0.45016989 0
0.83633447 1.2370437 0.53293645 0
0.84552562 1.2591839 0.6447888 0
1.0161903 1.7218468 -0.050050765 0
0.8792392 1.379855 0.3125664 0
0.84785676 1.3014873 0.37767971 0
0.83647656 1.273069 0.45587865 0
0.83686829 1.2740471 0.55018133 0
0.83889353 1.2791046 0.65424317 0
0.99667698 1.726189 -0.049940132 0
0.86303645 1.3798923 0.31106263 0
0.85166687 1.3504308 0.39329788 0
0.84202331 1.3254418 0.47689989 0
0.83940732 1.3186631 0.57142174 0
0.83676314 1.3118114 0.67183292 0
0.97605801 1.7273401 -0.049717858 0
0.84626865 1.3779893 0.30909348 0
0.84392542 1.371682 0.39899778 0
0.83752197 1.3544461 0.48747051 0
0.84133571 1.3647113 0.59331036 0
0.84115416 1.3642226 0.70182359 0
0.96104139 1.7437165 -0.050083656 0
0.83402812 1.3881881 0.31046918 0
0.8411569 1.4081426 0.41007987 0
0.83941913 1.4032784 0.5067364 0
0.84077835 1.4070829 0.61313444 0
0.94045728 1.7446709 -0.049872939 0
0.81955826 1.3923153 0.31024289 0
0.84323084 1.4613081 0.42700222 0
0.8386302 1.4478998 0.52406555 0
0.84086019 1.454399 0.63549227 0
0.92331988 1.7556332 -0.050049003 0
1.026118 2.0679924 0.34844312 0
0.79782933 1.3743216 0.30412504 0
0.83672345 1.4925041 0.43615061 0
0.83977407 1.5017736 0.54536027 0
0.83753097 1.4949577 0.65419775 0
0.90384358 1.7595987 -0.049970552 0
1.0082637 2.0908766 0.35138419 0
0.78455645 1.3811543 0.304746 0
0.8408494 1.5597465 0.45786551 0
0.84140313 1.5615032 0.56910652 0
0.84253252 1.5650862 0.68836373 0
0.88454372 1.7639686 -0.049916636 0
0.98209995 2.0876291 0.34943429 0
0.76949054 1.3822588 0.30388284 0
0.83764058 1.6083589 0.47300652 0
0.83680123 1.6055743 0.58598268 0
0.86348927 1.7621144 -0.049640745 0
0.95926464 2.0949783 0.34954205 0
0.75465637 1.3838689 0.30320752 0
0.8404237 1.6819507 0.4967545 0
0.84244931 1.6889907 0.6197741 0
0.84665185 1.7749182 -0.049918253 0
0.73980731 1.3851815 0.047490761 0
0.74176919 1.3923379 0.13169444 0
0.74014968 1.3864305 0.21582833 0
0.74080372 1.3888162 0.30346683 0
0.83736694 1.7410496 0.51540887 0
0.83423239 1.7296157 0.63504767 0
0.82940978 1.7869581 -0.050174501 0
0.72452468 1.3845652 0.047328562 0
0.7261939 1.3909692 0.13111994 0
0.72208941 1.3752222 0.21303412 0
0.72220504 1.375666 0.29899985 0
0.83064228 1.7916867 0.53110623 0
0.82974279 1.7882357 0.65801501 0
0.80712783 1.7793803 -0.04971648 0
0.70697087 1.3742962 0.046818964 0
0.71060801 1.3890066 0.13050324 0
0.7086578 1.381119 0.21346867 0
0.71147048 1.3924948 0.30248731 0
0.82443988 1.8493987 0.54920846 0
0.82576197 1.8547459 0.68430036 0
0.79194611 1.8007499 -0.050331473 0
0.69385594 1.3814344 0.046957225 0
0.69360507 1.3803618 0.1291725 0
0.69415587 1.3827165 0.21313705 0
0.6957953 1.3897246 0.30086467 0
0.81814677 1.9127523 0.56921178 0
0.76865441 1.7873982 -0.049682338 0
0.67788476 1.376093 0.046644885 0
0.67892909 1.3808254 0.1288715 0
0.68080324 1.3893175 0.21376416 0
0.67915589 1.3818529 0.29796529 0
0.80349481 1.9452707 0.57868117 0
0.74991733 1.7937566 -0.049764272 0
0.6642375 1.3808775 0.046709914 0
0.66481704 1.3836704 0.12885299 0
0.66570717 1.3879596 0.21295471 0
0.66610795 1.3898911 0.29927379 0
0.79256469 1.9992682 0.59548676 0
0.73101711 1.7995949 -0.049835674 0
0.6517809 1.3920387 0.047012959 0
0.65167165 1.3914765 0.12939712 0
0.64973766 1.3815291 0.21125023 0
0.65112031 1.3886408 0.29820764 0
0.77641386 2.0330958 0.60546201 0
0.71120793 1.8007219 -0.049744625 0
0.63487345 1.3798715 0.046474569 0
0.63623375 1.3873712 0.12865715 0
0.63461095 1.3784244 0.21019614 0
0.63431835 1.376811 0.29444972 0
0.76104516 2.0754864 0.6183787 0
0.6922673 1.806638 -0.049836189 0
0.62184829 1.3884845 0.046697363 0
0.62077546 1.3821141 0.1278144 0
0.62080675 1.3823 0.21045579 0
0.62087524 1.3827066 0.29534057 0
0.7472319 2.1330221 0.6364429 0
0.67413771 1.8182113 -0.050140601 0
0.60738182 1.3888656 0.046628229 0
0.60811293 1.3935677 0.12881196 0
0.60605878 1.3803566 0.2096846 0
0.60766327 1.3906759 0.29680884 0
0.72812414 2.1654296 0.64607006 0
0.6537928 1.8157938 -0.049948152 0
0.59104282 1.3757868 0.046080403 0
0.591672 1.3801986 0.1271304 0
0.59178925 1.3810209 0.20942374 0
0.59055829 1.3723892 0.29155087 0
0.70866799 2.200582 0.65668333 0
0.6337778 1.8148878 -0.049819674 0
0.57701045 1.3774964 0.046073273 0
0.57705218 1.3778174 0.12666479 0
0.57901078 1.3929086 0.21123709 0
0.57810712 1.3859458 0.29454932 0
0.6881817 2.2340691 0.66680282 0
0.61438048 1.8185081 -0.049863152 0
0.56396991 1.3876584 0.046376329 0
0.56370747 1.3854152 0.12729956 0
0.56258833 1.3758502 0.20782103 0
0.56346416 1.3833359 0.29343095 0
0.66774327 2.2745898 0.67934984 0
0.59570646 1.8293916 -0.050176051 0
0.55181032 1.4083537 0.12960926 0
0.55277497 1.417606 0.21511151 0
0.55312407 1.4209542 0.30268049 0
0.64470315 2.2993529 0.68669575 0
0.5758245 1.8295356 -0.050112005 0
0.55164689 1.5654277 0.14640819 0
0.55107224 1.5591505 0.24048799 0
0.5525142 1.5749019 0.34175625 0
0.62234432 2.337702 0.69866902 0
0.55547553 1.8232234 -0.049825788 0
0.60350841 2.4323037 0.23970944 0
0.59832138 2.3665297 0.38629845 0
0.59735417 2.3542643 0.54085386 0
0.53623521 1.8306482 -0.05004048 0
0.5736956 2.3964853 0.39136559 0
0.57251781 2.3786957 0.54661244 0
0.51632571 1.8284692 -0.049920339 0
0.54888028 2.4362104 0.39824978 0
0.54851836 2.4294536 0.55917352 0
0.49631745 1.821885 -0.049651813 0
0.52227217 2.4557507 0.40154344 0
0.52150244 2.4369528 0.56075937 0
0.47677478 1.825153 -0.049744263 0
0.45646536 1.1085155 0.35564604 0
0.45662752 1.1142375 0.43139261 0
0.45728227 1.8359494 -0.050114289 0
0.44590613 1.11329 0.35752606 0
0.44592258 1.114334 0.43132281 0
0.43747443 1.830474 -0.049912136 0
0.43513507 1.087639 0.41791558 0
0.43510729 1.0788108 0.4890036 0
0.41769397 1.8368683 -0.050142642 0
0.42469972 1.0949382 0.42158413 0
0.42476219 1.0883223 0.49466377 0
0.39818674 1.8233418 -0.049670741 0
0.41413295 1.0997449 0.35195839 0
0.4141306 1.099852 0.42412567 0
0.41447845 1.0840675 0.4922367 0
0.37824577 1.8318607 -0.049994927 0
0.35244721 2.5766394 0.4232645 0
0.35224125 2.5825851 0.59780502 0
0.4049288 1.0615489 0.47904763 0
0.3579095 1.8438354 -0.050451789 0
0.32284516 2.5859051 0.42515257 0
0.32246691 2.5939102 0.60100287 0
0.39541194 1.0501679 0.47253454 0
0.33940977 1.8196957 -0.049626518 0
0.29196143 2.6120875 0.43016583 0
0.29169241 2.6165805 0.6071986 0
0.31959662 1.8216693 -0.049743555 0
0.26038405 2.6380928 0.43522185 0
0.2609947 2.629673 0.61104906 0
0.29961824 1.8245733 -0.049902983 0
0.23002589 2.6414154 0.43624967 0
0.23003493 2.641309 0.61462963 0
0.27916256 1.8311666 -0.050203972 0
0.19792871 2.6609805 0.44029132 0
0.19749063 2.6654553 0.62152153 0
0.26013651 1.822877 -0.049980044 0
0.16700859 2.6647294 0.44154203 0
0.1658061 2.6755996 0.62493396 0
0.3465685 1.0415543 0.46971792 0
0.24131073 1.8142285 -0.049751475 0
0.13470189 2.6782506 0.44464117 0
0.1333565 2.6891544 0.62933093 0
0.22208381 1.8096972 -0.049679387 0
0.10226695 2.6894708 0.44740081 0
0.10207112 2.6909089 0.63080215 0
0.20120685 1.8165606 -0.050027203 0
0.068650976 2.7059686 0.45120239 0
0.070391431 2.6942906 0.63279748 0
0.18141787 1.8151512 -0.050086025 0
0.036042288 2.7128947 0.45334023 0
0.036220029 2.7117972 0.63855046 0
0.16277428 1.8069334 -0.049907241 0
0.0021324323 2.7254996 0.45659757 0
0.0021401213 2.7254558 0.64343077 0
0.14357002 1.8023655 -0.049869142 0
-0.029310806 2.7224867 0.45707497 0
-0.030014141 2.7262299 0.64508927 0
0.12214349 1.8089768 -0.050246824 0
-0.09004207 2.8648527 0.10069657 0
-0.088125899 2.8553176 0.29001382 0
-0.062041149 2.7255149 0.45873761 0
-0.063202336 2.7312932 0.6479733 0
0.10468777 1.795753 -0.049911186 0
-0.11454 2.8197472 0.099297523 0
-0.11481459 2.8210299 0.28698853 0
-0.093853608 2.7231228 0.45948097 0
-0.094208673 2.7247813 0.64795393 0
0.084823444 1.7941802 -0.05000918 0
-0.14283849 2.7957909 0.098680057 0
-0.14463647 2.8037012 0.28586063 0
-0.12952818 2.7372315 0.46335223 0
-0.12830044 2.7318299 0.65158445 0
0.067995206 1.7796783 -0.049641896 0
-0.17641558 2.7956159 0.098947026 0
-0.17430432 2.78684 0.2848224 0
-0.16097118 2.7314184 0.46362308 0
-0.1621222 2.7362027 0.65463632 0
0.046346352 1.7851999 -0.050018776 0
-0.20955051 2.7929134 0.099137299 0
-0.21226932 2.8036199 0.28755239 0
-0.19672312 2.7423995 0.46709329 0
-0.19664367 2.7420866 0.65820765 0
0.028755562 1.7745032 -0.049807634 0
-0.25168949 2.8233459 0.10056812 0
-0.25180793 2.8237889 0.29072165 0
-0.2283863 2.7361937 0.46745056 0
-0.22729702 2.7321198 0.65771961 0
0.0093644429 1.7707543 -0.049861591 0
-0.26361704 2.7424839 0.47022453 0
-0.26207089 2.73698 0.66126114 0
-0.010701163 1.7691497 -0.05000462 0
-0.29301053 2.7275681 0.46910518 0
-0.29561841 2.7364216 0.66349089 0
-0.030183477 1.7652998 -0.05007375 0
-0.32935894 2.7357249 0.47240549 0
-0.32611203 2.725193 0.66299319 0
-0.044893131 1.7464651 -0.049590293 0
-0.36253798 2.7325232 0.4736537 0
-0.35892189 2.721298 0.66456193 0
-0.067319825 1.7516521 -0.050016493 0
-0.39263546 2.7195897 0.47313488 0
-0.39762461 2.7344344 0.67083234 0
-0.08306016 1.7368251 -0.049698178 0
-0.4231925 2.7081718 0.47297567 0
-0.42470163 2.7124817 0.66777658 0
-0.1063139 1.7432655 -0.050194006 0
-0.45729506 2.7065349 0.47476682 0
-0.45763451 2.7074664 0.66939843 0
-0.12226643 1.7294296 -0.049929306 0
-0.48763013 2.6942282 0.47459152 0
-0.48897088 2.6977687 0.66986334 0
-0.14234199 1.7265822 -0.050092515 0
-0.5218845 2.6919432 0.47643125 0
-0.51805633 2.6822062 0.66883075 0
-0.16069062 1.7191867 -0.050090928 0
-0.55383658 2.6833177 0.4771294 0
-0.55073524 2.6757121 0.67039216 0
-0.17767747 1.7085629 -0.049973145 0
-0.58055985 2.6620538 0.47543538 0
-0.58170688 2.6647685 0.67084312 0
-0.1967348 1.7028718 -0.050055243 0
-0.61216044 2.6525164 0.47610638 0
-0.61261177 2.653548 0.67132777 0
-0.21698989 1.6996794 -0.050245102 0
-0.64189947 2.6386254 0.47599798 0
-0.63696194 2.6277146 0.66783172 0
-0.23632468 1.6941961 -0.050355818 0
-0.66738749 2.6156707 0.47415864 0
-0.67026317 2.6218178 0.67001659 0
-0.24915953 1.6750753 -0.049936082 0
-0.70247912 2.6131678 0.47646871 0
-0.69624197 2.6002607 0.66789573 0
-0.27159011 1.6758459 -0.050313741 0
-0.73075712 2.5962725 0.47598138 0
-0.72604966 2.5868361 0.66817319 0
-0.28315169 1.6549098 -0.049833592 0
-0.75680375 2.5751786 0.47471136 0
-0.75437689 2.5704637 0.66771406 0
-0.30280727 1.6499406 -0.05000142 0
-0.78628802 2.5609298 0.47489709 0
-0.77642632 2.5423481 0.66396266 0
-0.32349378 1.6466029 -0.050246842 0
-0.81175733 2.5392756 0.47363788 0
-0.80833983 2.5330274 0.66573143 0
-0.3325848 1.6223265 -0.049646616 0
-0.61585903 2.1250839 0.082248747 0
-0.83929491 2.5216398 0.4732677 0
-0.83555901 2.5150094 0.66508305 0
-0.35298371 1.6183788 -0.04988575 0
-0.61567235 2.0711734 0.080574565 0
-0.86325181 2.4979248 0.4716993 0
-0.86005187 2.492409 0.66317904 0
-0.36943024 1.6074766 -0.049848158 0
-0.61795557 2.0236945 0.079155087 0
-0.88336122 2.468183 0.46891636 0
-0.88860095 2.4769583 0.66347659 0
-0.3885411 1.6009563 -0.050002519 0
-0.61491108 1.9694481 0.077442221 0
-0.91331804 2.4552038 0.46971309 0
-0.91160762 2.4524195 0.6611625 0
-0.39891678 1.5804003 -0.049575508 0
-0.61284614 1.9190065 0.075874746 0
-0.94096041 2.4383435 0.4697684 0
-0.93756282 2.4329658 0.66045147 0
-0.42293656 1.5813969 -0.050068062 0
-0.61580157 1.878316 0.074708425 0
-0.95702791 2.4036398 0.46606144 0
-0.95876467 2.4063134 0.65764374 0
-0.43946773 1.5705451 -0.050069094 0
-0.62328148 1.8458773 0.073888071 0
-0.97839797 2.3778017 0.46428934 0
-0.97950375 2.3794582 0.65483153 0
-0.45045614 1.5516061 -0.04972899 0
-0.62089705 1.8000746 0.07248608 0
-0.99741673 2.3489645 0.46190453 0
-0.99914837 2.3514888 0.65173078 0
-0.47245097 1.5486981 -0.050092012 0
-0.6228404 1.7621239 0.071413234 0
-1.0255194 2.3335879 0.46252087 0
-1.0223712 2.3291202 0.65042716 0
-0.49315274 1.543561 -0.050372276 0
-0.62129092 1.720631 0.070175536 0
-0.61760616 1.7155392 0.19850802 0
-1.0389605 2.2977955 0.45867634 0
-1.0393715 2.2983634 0.6465618 0
-0.075062171 0.96581477 0.43921614 0
-0.50732571 1.5293005 -0.050260924 0
-0.61896682 1.6795534 0.068943806 0
-0.61402106 1.6728972 0.19458453 0
-1.0645981 2.2793095 0.458722 0
-1.0635389 2.277884 0.64599442 0
-0.092339471 0.97078812 0.44633481 0
-0.51708966 1.5093838 -0.04990251 0
-0.61859727 1.642465 0.067878015 0
-0.61534417 1.6381999 0.19169094 0
-1.076555 2.2428687 0.45476845 0
-1.0823447 2.2504592 0.64329016 0
-0.097214714 0.9589082 0.44305316 0
-0.53339547 1.4982284 -0.049943332 0
-0.61639619 1.6042507 0.066750407 0
-0.61465096 1.6020216 0.1885688 0
-1.0963687 2.2173512 0.45331192 0
-1.1001301 2.2221558 0.64035088 0
-0.10894372 0.95604807 0.44550923 0
-0.54529095 1.4815325 -0.049740192 0
-0.61704576 1.5708494 0.065830484 0
-0.62392664 1.5794144 0.18728459 0
-1.1128746 2.1880333 0.45101881 0
-1.1194774 2.1962521 0.63823992 0
-0.12555994 0.95907122 0.45186046 0
-0.56931376 1.479769 -0.050232708 0
-0.62465549 1.5469064 0.065338954 0
-0.61651683 1.5370331 0.18324915 0
-1.1368039 2.1682165 0.45097077 0
-1.131456 2.1617289 0.63333708 0
-0.13367094 0.95127094 0.45139489 0
-0.57617056 1.4571639 -0.049770102 0
-0.61214709 1.4997059 0.063759193 0
-0.61876953 1.5075368 0.18097095 0
-1.1386319 2.1222682 0.44482094 0
-1.1482829 2.1336803 0.63059539 0
-0.15214761 0.95576149 0.45904467 0
-0.59791028 1.4522083 -0.05014063 0
-0.61894727 1.4764582 0.063286759 0
-0.61754835 1.4748456 0.17821723 0
-1.1566578 2.0962944 0.44337803 0
-1.1586113 2.0985463 0.62550157 0
-0.60349059 1.4286942 -0.049641471 0
-0.62681508 1.4549069 0.062894143 0
-0.62785983 1.456081 0.17743367 0
-1.174294 2.0701785 0.44193903 0
-1.1621941 2.0565803 0.61806136 0
-0.62103772 1.4188102 -0.049798716 0
-0.65846705 1.4598227 0.063781008 0
-0.6634779 1.4653132 0.18073332 0
-1.180975 2.0323496 0.43767744 0
-1.1845798 2.0362997 0.61804098 0
-0.63809681 1.4082381 -0.049934909 0
-0.50521582 1.2662686 0.05499262 0
-0.68723273 1.4607347 0.18210477 0
-1.1916846 1.9996886 0.43466258 0
-1.1828682 1.9902693 0.60912001 0
-0.65108025 1.3932767 -0.049866114 0
-0.51899081 1.2556674 0.055056252 0
-0.71348619 1.4582903 0.18385512 0
-1.2057227 1.9710962 0.43266168 0
-1.1949646 1.9598886 0.60561752 0
-0.66186142 1.3761427 -0.049695767 0
-0.51280546 1.2247213 0.054110099 0
-0.74746716 1.4631069 0.1867718 0
-1.2124959 1.9355149 0.42891172 0
-1.2033288 1.9262025 0.60094219 0
-0.67824662 1.3647249 -0.049820069 0
-0.52084166 1.2087988 0.053910054 0
-0.78328288 1.4687742 0.18992062 0
-1.2289131 1.9102176 0.42777088 0
-1.221499 1.9028732 0.59999961 0
-0.69866168 1.3570735 -0.05015007 0
-0.53762376 1.2015167 0.054156564 0
-0.80485928 1.4596565 0.19089305 0
-1.2141113 1.8549788 0.41889605 0
-1.2204716 1.8611226 0.59236348 0
-0.70982444 1.3403832 -0.050027162 0
-0.56491882 1.2038946 0.054920301 0
-0.83784413 1.4609667 0.19355534 0
-1.2281121 1.8285656 0.41743523 0
-1.2311423 1.8314197 0.5891028 0
-0.72491658 1.3274152 -0.050106391 0
-0.86670852 1.457641 0.068979576 0
-0.86631536 1.4572799 0.19552602 0
-1.2284431 1.7898682 0.41272578 0
-1.2265981 1.7881738 0.58073938 0
-0.23643996 0.87878442 0.38207594 0
-0.72975028 1.3051817 -0.049700979 0
-0.90143228 1.4589195 0.069928557 0
-0.90374434 1.46099 0.19877358 0
-1.2313331 1.7543392 0.40880728 0
-1.2330885 1.755911 0.57643628 0
-0.24047185 0.86704278 0.38004664 0
-0.7449131 1.2923416 -0.049802873 0
-0.93766832 1.4606253 0.070938073 0
-1.2379719 1.7228032 0.40593678 0
-1.237476 1.7223703 0.57160646 0
-0.2334037 0.84577173 0.37202039 0
-0.76786828 1.2860349 -0.050276615 0
-0.97820795 1.4650538 0.072137572 0
-1.2427287 1.690186 0.40274578 0
-1.2342675 1.6829847 0.56442547 0
-0.23537852 0.83283585 0.36914271 0
-0.25003046 0.84530598 0.45446506 0
-0.78145206 1.2715154 -0.050314415 0
-1.0162379 1.4662963 0.07320559 0
-1.2442398 1.6554493 0.39892408 0
-1.2434741 1.6548141 0.56159997 0
-0.25240403 0.8326112 0.37447977 0
-0.79142272 1.2540361 -0.05019439 0
-1.052922 1.4654771 0.07420028 0
-1.2462276 1.6217786 0.39535362 0
-1.2393405 1.61621 0.5545432 0
-0.25895876 0.82350057 0.37418917 0
-0.79641461 1.2327375 -0.049859308 0
-1.085065 1.4601816 0.074979223 0
-1.2478518 1.5884507 0.3918328 0
-1.2379564 1.5806534 0.54860783 0
-0.27740902 0.82378334 0.38023263 0
-0.80790508 1.2167221 -0.049832076 0
-1.1157041 1.4530339 0.075685993 0
-1.2449561 1.552267 0.38741401 0
-1.2414833 1.5496007 0.54445398 0
-0.25719273 0.79391432 0.36603269 0
-0.25666136 0.79350632 0.44074497 0
-0.81828928 1.1998996 -0.049764816 0
-1.1614029 1.4565227 0.077061571 0
-1.2506549 1.5232764 0.38507536 0
-1.2363416 1.5125711 0.53770238 0
-0.26918137 0.78920835 0.36881208 0
-0.27778137 0.79564053 0.44981223 0
-0.83663559 1.1889319 -0.050059251 0
-1.2038423 1.4564315 0.078278676 0
-1.2527936 1.4920912 0.38204548 0
-1.2336086 1.4781154 0.53192061 0
-1.2350887 1.4791937 0.69241387 0
-0.26262802 0.77078384 0.36209857 0
-0.28584564 0.7876972 0.4506982 0
-0.84314382 1.1693082 -0.049838971 0
-1.2585025 1.4639521 0.080019929 0
-1.2464249 1.4553846 0.37724867 0
-1.2416182 1.4519749 0.52968687 0
-1.2399237 1.4507729 0.68820071 0
-0.27675474 0.76752764 0.36606085 0
-0.27643102 0.76729798 0.44091564 0
-0.85615385 1.1543598 -0.049913466 0
-1.3076977 1.4662009 0.081504874 0
-1.2524111 1.4280194 0.37530306 0
-1.2415391 1.4205111 0.52506709 0
-1.2422345 1.4209913 0.68314874 0
-0.28878766 0.76253051 0.44461292 0
-0.87228119 1.1414397 -0.050129559 0
-1.2746822 1.4119228 0.079439633 0
-1.2732643 1.4109697 0.226887 0
-1.2498298 1.3952178 0.37158725 0
-1.234208 1.3847172 0.51837915 0
-1.237317 1.386807 0.67539281 0
-0.29452497 0.75308734 0.44432476 0
-0.88713229 1.1274989 -0.050296407 0
-1.2706962 1.3783671 0.078658976 0
-1.2688916 1.3771868 0.22448893 0
-1.2435102 1.3605862 0.36718571 0
-1.2455388 1.361913 0.51757324 0
-1.2432501 1.3604161 0.67218572 0
-0.30004466 0.7435171 0.44398031 0
-0.89426243 1.1085027 -0.050142679 0
-1.2786431 1.3530508 0.078407437 0
-1.266728 1.3454703 0.22244577 0
-1.2530991 1.3367994 0.36631337 0
-1.2417729 1.3295935 0.51229584 0
-1.2455909 1.3320225 0.6677193 0
-0.30052376 0.73075843 0.44072115 0
-0.90077031 1.0892454 -0.049974099 0
-1.2926974 1.331717 0.07842768 0
-1.2968453 1.3342831 0.22454858 0
-1.2464761 1.3031214 0.36207351 0
-1.2480499 1.3040951 0.51019496 0
-1.2363602 1.2968631 0.65890104 0
-0.91231203 1.0731506 -0.050026644 0
-1.3027934 1.3079811 0.078294098 0
-1.3065084 1.3102154 0.22408818 0
-1.2523718 1.2776583 0.3605898 0
-1.2359266 1.2677683 0.50272787 0
-1.2333773 1.2662352 0.65274739 0
-0.92232955 1.0561185 -0.050024189 0
-1.3315383 1.2952477 0.078945041 0
-1.3250688 1.2914672 0.22477651 0
-1.2463485 1.2454653 0.35669446 0
-1.2438343 1.2439961 0.50137031 0
-1.2450631 1.2447143 0.65244037 0
-0.93396878 1.0400052 -0.05009716 0
-1.3843257 1.2956283 0.080584936 0
-1.3792968 1.2927737 0.22989678 0
-1.2524618 1.220782 0.35542807 0
-1.2360566 1.2114705 0.49550906 0
-1.2346394 1.2106661 0.64378154 0
-0.94536495 1.0236956 -0.050168023 0
-1.2559158 1.1948308 0.35368705 0
-1.2365205 1.1841427 0.4922089 0
-1.2330296 1.1822189 0.63869411 0
-0.95321214 1.005428 -0.050103068 0
-1.252054 1.1652386 0.3505286 0
-1.2322737 1.1546608 0.48766783 0
-1.2455741 1.1617734 0.63911659 0
-0.96655416 0.99005836 -0.05026881 0
-1.2610002 1.1427822 0.35006878 0
-1.2392058 1.1314778 0.4864763 0
-1.2473465 1.1357003 0.63559592 0
-0.97683132 0.9730134 -0.050318792 0
-1.2692704 1.1200535 0.34953266 0
-1.2375886 1.1041237 0.48293453 0
-1.2478578 1.1092871 0.63175046 0
-0.97467387 0.9498685 -0.049883217 0
-1.2976544 1.1072018 0.35309246 0
-1.2388835 1.0785728 0.4803389 0
-1.2376539 1.0779738 0.62408662 0
-0.97633362 0.92886013 -0.049612436 0
-1.2871404 1.0754503 0.34890717 0
-1.2412115 1.0537883 0.47814113 0
-1.2367247 1.0516721 0.62002528 0
-0.98462832 0.91108608 -0.049613994 0
-1.3080761 1.0586889 0.35106 0
-1.2428999 1.0289462 0.47586429 0
-1.2515395 1.0328888 0.62186623 0
-1.0113354 0.90143126 -0.050342783 0
-1.3062173 1.0315374 0.34874928 0
-1.2305919 0.99817032 0.4697845 0
-1.2350663 1.0001445 0.61240572 0
-1.0079536 0.87838882 -0.049904682 0
-1.3222463 1.0123572 0.35002503 0
-1.2407238 0.97760791 0.47006863 0
-1.2416052 0.97798359 0.6114679 0
-1.0226572 0.86311829 -0.050178256 0
-1.3280567 0.98877585 0.3493486 0
-1.2381506 0.95178372 0.46691772 0
-1.2410145 0.95296204 0.60807061 0
-1.0196588 0.84061259 -0.049777955 0
-1.3312169 0.96424043 0.3482191 0
-1.2414917 0.92863697 0.46549541 0
-1.2331108 0.92531139 0.60218585 0
-1.0387442 0.82684857 -0.050234511 0
-1.3494012 0.9456135 0.35005566 0
-1.233054 0.90113372 0.46094248 0
-1.2397882 0.90370816 0.60164708 0
-1.0377216 0.80533952 -0.049930625 0
-1.364638 0.92562479 0.35136247 0
-1.2332331 0.87727582 0.45884743 0
-1.2469254 0.88231373 0.60137051 0
-1.0497791 0.78868103 -0.050133701 0
-1.3605832 0.89861488 0.34902129 0
-1.2341169 0.85388279 0.4570339 0
-1.2440773 0.85740584 0.59766674 0
-1.0613664 0.77170831 -0.050326113 0
-1.36712 0.87554318 0.34877238 0
-1.2465762 0.83460611 0.45842656 0
-1.2409509 0.83269572 0.59399134 0
-1.061147 0.750745 -0.050082471 0
-1.3877277 0.85708576 0.3512485 0
-1.2453672 0.81073052 0.45621139 0
-1.2336627 0.80691934 0.58898395 0
-1.0595804 0.7295385 -0.049799304 0
-1.389778 0.83247697 0.35025325 0
-1.2418029 0.78634596 0.45345598 0
-1.2402101 0.78584945 0.58893102 0
-1.0614425 0.70955878 -0.04965489 0
-1.3953196 0.80904949 0.34997717 0
-1.2287732 0.75942105 0.44827291 0
-1.2406402 0.76295722 0.58684695 0
-1.0706953 0.69178313 -0.049794663 0
-1.3977748 0.78478068 0.34917882 0
-1.2348405 0.73845404 0.44826382 0
-1.2437829 0.7409966 0.58580846 0
-1.0874776 0.67594081 -0.050220743 0
-1.4099189 0.76324677 0.35025063 0
-1.2367767 0.71636587 0.44723275 0
-1.2338639 0.71557719 0.58036697 0
-1.0843499 0.65466225 -0.049918849 0
-1.4067847 0.73762339 0.34852445 0
-1.24177 0.69516581 0.44708374 0
-1.2411436 0.69500464 0.58096147 0
-1.0862159 0.6348176 -0.049811251 0
-1.4237819 0.7171545 0.35060063 0
-1.2383894 0.67193478 0.44480637 0
-1.2392441 0.67214328 0.57849962 0
-1.0964341 0.61697382 -0.050019149 0
-1.4299792 0.69389361 0.35071972 0
-1.236055 0.64917219 0.4428862 0
-1.2437595 0.65094894 0.57833356 0
-1.0992926 0.59737682 -0.04996581 0
-1.4283406 0.66890836 0.34944639 0
-1.2287621 0.62552214 0.43975163 0
-1.2352209 0.62692618 0.57381451 0
-1.0995232 0.57727826 -0.049825851 0
-1.4425836 0.64734429 0.3511577 0
-1.2425073 0.60648108 0.44218102 0
-1.2390357 0.60577208 0.57360464 0
-1.0981333 0.55696732 -0.049636543 0
-1.4449179 0.62325668 0.35072818 0
-1.2404472 0.58417124 0.4405615 0
-1.2334309 0.58283001 0.57029504 0
-1.1197598 0.54088885 -0.05029159 0
-1.4382154 0.59761637 0.34869984 0
-1.2397597 0.5622648 0.43937418 0
-1.2451235 0.56322026 0.57293594 0
-1.104338 0.51821959 -0.049612023 0
-1.4570069 0.57647014 0.35139492 0
-1.2354934 0.5398826 0.43733537 0
-1.2364461 0.54003996 0.56878597 0
-1.1198673 0.50074464 -0.050061803 0
-1.4469314 0.55054402 0.3488673 0
-1.2350986 0.51828998 0.43637231 0
-1.2437329 0.51960462 0.57011455 0
-1.1214712 0.48100504 -0.050016768 0
-1.4618739 0.52845794 0.35095924 0
-1.2320776 0.49642384 0.43480462 0
-1.2416542 0.49775884 0.56838143 0
-1.1256888 0.46162519 -0.050074819 0
-1.4586943 0.50377959 0.34980404 0
-1.248525 0.47717476 0.43831691 0
-1.2481034 0.47712138 0.5696032 0
-1.1180685 0.4408536 -0.049716204 0
-0.51857185 0.37262237 0.040175229 0
-0.51199895 0.37187427 0.10816453 0
-0.51539183 0.37226045 0.17806241 0
-1.2434112 0.45511937 0.43634996 0
-1.2316208 0.45377746 0.56323183 0
