# .PCD v0.7 - Point Cloud Data file format
VERSION 0.7
FIELDS x y z intensity
SIZE 4 4 4 4
TYPE F F F F
COUNT 1 1 1 1
WIDTH 1352
HEIGHT 1
VIEWPOINT 0 0 0 1 0 0 0
POINTS 1352
DATA ascii
-1.2400905 0.11655743 0.43440536 0
-1.2386166 0.11668768 0.5641517 0
-1.1273466 0.10670298 -0.049973808 0
-0.52484071 0.16760252 0.10941355 0
-0.50509411 0.16959846 0.17596315 0
-1.2318187 0.096143238 0.43279544 0
-1.2422795 0.095085882 0.5660426 0
-1.1232098 0.087305374 -0.049900942 0
-0.51357728 0.15669021 0.039995763 0
-0.51753098 0.15624022 0.10876291 0
-0.51208478 0.15686008 0.17746215 0
-1.2358648 0.074483655 0.43441218 0
-1.2406472 0.073939346 0.5662542 0
-1.1253687 0.067159496 -0.050063301 0
-0.52245414 0.14348114 0.040366698 0
-0.51408488 0.14454058 0.10854524 0
-0.51029015 0.14502093 0.1773956 0
-1.2396766 0.052689496 0.43604136 0
-1.2447801 0.052043457 0.56848878 0
-1.1200337 0.047939453 -0.049964957 0
-0.51782399 0.13188885 0.040257394 0
-0.50154042 0.13415882 0.10735593 0
-0.51450008 0.13235222 0.17844944 0
-1.2398053 0.031243045 0.43679523 0
-1.2455831 0.030437607 0.56970119 0
-1.1203102 0.027932052 -0.050077796 0
-0.50978321 0.12089194 0.040029984 0
-0.516931 0.1198036 0.10921529 0
-0.51488161 0.12011565 0.17883599 0
-1.2360474 0.010309686 0.4366172 0
-1.2369214 0.010176619 0.56782234 0
-1.1106954 0.0094745355 -0.049842063 0
-0.50221139 0.10997821 0.039824069 0
-0.50781769 0.1090522 0.1084291 0
-0.51959634 0.10710672 0.18004355 0
-1.24263 -0.012317221 0.43918079 0
-1.2321699 -0.010589491 0.56734401 0
-1.1199418 -0.01217709 -0.050298192 0
-0.51169813 0.096171357 0.040241275 0
-0.51540595 0.095510878 0.10947905 0
-0.50692225 0.097022109 0.17809838 0
-1.2396625 -0.033503365 0.43934903 0
-1.2306513 -0.031898152 0.56804532 0
-1.1025183 -0.029061388 -0.049795926 0
-0.518556 0.082565509 0.04057024 0
-0.51757127 0.08275374 0.10995683 0
-0.51880926 0.082517095 0.18068159 0
-1.2392162 -0.055191796 0.44024175 0
-1.2460177 -0.056491923 0.57455844 0
-1.1048096 -0.049613845 -0.050018482 0
-0.51539409 0.070767276 0.040541187 0
-0.50923711 0.072024785 0.10930177 0
-0.51811862 0.070210837 0.18098982 0
-1.2461597 -0.078482904 0.4431321 0
-1.2488409 -0.079030521 0.57693416 0
-1.0857183 -0.065681763 -0.04946987 0
-0.51616776 0.058132503 0.04066126 0
-0.51445621 0.058504585 0.11015033 0
-0.51692885 0.057967056 0.18123534 0
-1.2422866 -0.099718042 0.44328272 0
-1.2405941 -0.099350132 0.5756439 0
-1.0940185 -0.087672599 -0.049930643 0
-0.51104516 0.04676858 0.040571477 0
-0.50601745 0.047928039 0.10951377 0
-0.50821501 0.04742125 0.18011752 0
-1.2517205 -0.12404073 0.4469879 0
-1.2365875 -0.12055085 0.57588482 0
-1.0935985 -0.10787419 -0.050082549 0
-0.50716132 0.035165701 0.040532187 0
-0.51169956 0.034058753 0.11045203 0
-0.51618463 0.0329648 0.18211789 0
-1.231872 -0.14160095 0.44309479 0
-1.240346 -0.14366789 0.57887697 0
-1.0787038 -0.12446538 -0.049710713 0
-0.56538117 0.0076104295 0.042787544 0
-0.55483043 0.010325094 0.11556835 0
-0.55572677 0.010094454 0.19003814 0
-1.2436445 -0.16690393 0.44757757 0
-1.2408791 -0.16619243 0.58087063 0
-1.0834053 -0.14609407 -0.050070122 0
-0.61647892 -0.019666594 0.044799991 0
-0.62362874 -0.021602493 0.12359317 0
-1.2544757 -0.19241403 0.3212072 0
-1.2363899 -0.187517 0.44713047 0
-1.2354013 -0.18724932 0.58089685 0
-1.0710129 -0.16312931 -0.04980645 0
-0.69037235 -0.054902922 0.047678471 0
-0.68885398 -0.054471206 0.13129237 0
-1.2402163 -0.21123837 0.31963706 0
-1.240255 -0.2112494 0.44969997 0
-1.2381504 -0.210651 0.58386028 0
-1.0666095 -0.18235435 -0.049847376 0
-0.77473223 -0.095378973 0.050974175 0
-0.76671588 -0.092990227 0.14048392 0
-1.2299196 -0.23101847 0.31885129 0
-1.2371976 -0.23318724 0.45051566 0
-1.2424892 -0.23476405 0.58748889 0
-1.0696862 -0.20394479 -0.050177217 0
-0.87520373 -0.14331527 0.054904368 0
-0.87310576 -0.14266123 0.15297751 0
-1.2432235 -0.25804475 0.32256776 0
-1.2353127 -0.25557855 0.45172152 0
-1.2445914 -0.25847116 0.59045786 0
-1.0548348 -0.21994554 -0.049845476 0
-0.99056923 -0.19901945 0.05943254 0
-0.98337293 -0.19667621 0.1660312 0
-1.2409377 -0.28054407 0.32340702 0
-1.2376246 -0.27946523 0.45413393 0
-1.2455022 -0.28203037 0.59312648 0
-1.0501159 -0.23914348 -0.049901925 0
-1.1206546 -0.26309857 0.064561501 0
-1.119139 -0.26258388 0.18211192 0
-1.2456775 -0.30555674 0.32564187 0
-1.2375519 -0.30279729 0.45599505 0
-1.0542665 -0.26152411 -0.050303631 0
-1.3014083 -0.3489401 0.20365988 0
-1.2366754 -0.32604358 0.32531798 0
-1.232717 -0.32464352 0.45665509 0
-1.0445215 -0.27909729 -0.050189298 0
-1.2530259 -0.35581419 0.19901951 0
-1.2382609 -0.35038158 0.3270767 0
-1.2518255 -0.35537252 0.46390185 0
-1.0346223 -0.29652861 -0.050076965 0
-1.2457523 -0.37724414 0.19909649 0
-1.240168 -0.37510923 0.32896501 0
-1.2296782 -0.37109897 0.46002039 0
-1.0161871 -0.31049088 -0.049644612 0
-1.2595206 -0.40704682 0.20163783 0
-1.2344757 -0.39710888 0.32944858 0
-1.2374169 -0.39827594 0.46437693 0
-1.0260403 -0.33576617 -0.050308861 0
-1.253634 -0.42941025 0.20195177 0
-1.2454684 -0.42605051 0.33324239 0
-1.2456604 -0.42612955 0.46898958 0
-0.99774134 -0.34529164 -0.049508348 0
-1.2547599 -0.45484671 0.20311947 0
-1.2406417 -0.44882879 0.33402649 0
-1.2419407 -0.44938251 0.47040614 0
-0.99727702 -0.36648437 -0.049794201 0
-1.2451152 -0.4758341 0.20306601 0
-1.2321932 -0.47013274 0.33415744 0
-1.2321711 -0.47012296 0.47022492 0
-0.99398148 -0.38661018 -0.049981039 0
-1.2335685 -0.49594375 0.20281869 0
-1.2447914 -0.50106525 0.33851445 0
-1.2506942 -0.50375891 0.47805011 0
-0.98854303 -0.40587446 -0.050094374 0
-1.2319297 -0.52066636 0.20377716 0
-1.2372295 -0.523166 0.33895487 0
-1.2416055 -0.52522999 0.47825226 0
-0.96993923 -0.41881797 -0.049695194 0
-1.5009879 -0.6775074 0.082784139 0
-1.2365053 -0.54867011 0.20552154 0
-1.2416871 -0.55119431 0.34186491 0
-1.2312652 -0.54611754 0.47817689 0
-0.9616375 -0.43662968 -0.049711645 0
-1.4460317 -0.68018597 0.081068106 0
-1.247571 -0.5803988 0.20809998 0
-1.2379208 -0.57554656 0.34320435 0
-1.2328115 -0.5729776 0.48157033 0
-0.95448399 -0.4550536 -0.049783371 0
-1.3946238 -0.68334621 0.079484887 0
-1.2341692 -0.60012138 0.20778136 0
-1.2481817 -0.60738939 0.34746453 0
-0.9585954 -0.47956249 -0.050321013 0
-1.3479438 -0.68777323 0.078084007 0
-1.232374 -0.6259703 0.20890523 0
-1.2346247 -0.62717396 0.34696403 0
-0.93562531 -0.48958418 -0.049771 0
-1.2951446 -0.6877045 0.076426186 0
-1.2324134 -0.65313524 0.21030186 0
-1.2542299 -0.66515768 0.35333991 0
-0.93611956 -0.51248181 -0.050185453 0
-1.2613574 -0.69708711 0.075536914 0
-1.2405913 -0.68530023 0.21275635 0
-1.2375739 -0.68358755 0.35234067 0
-0.92077184 -0.52646399 -0.049959775 0
-1.2633981 -0.72668445 0.076127425 0
-1.2394437 -0.71268624 0.21411841 0
-1.2411158 -0.7136634 0.35560146 0
-0.90625727 -0.54076523 -0.049774405 0
-1.2448992 -0.74442011 0.075882219 0
-1.2485482 -0.74661463 0.21681958 0
-1.2250936 -0.73250937 0.35484913 0
-0.90195692 -0.56123549 -0.050023917 0
-1.2509911 -0.77717048 0.076676793 0
-1.2427716 -0.77208549 0.21771511 0
-1.2421877 -0.77172416 0.36116409 0
-0.89129341 -0.57786965 -0.050017044 0
-1.253889 -0.80855781 0.077359982 0
-1.2407818 -0.80021876 0.21914084 0
-1.2350907 -0.79659802 0.36246401 0
-0.88293517 -0.59600961 -0.050117362 0
-1.252335 -0.83761376 0.077875696 0
-1.2344214 -0.82589751 0.22006243 0
-1.2392011 -0.82902366 0.3662571 0
-0.87771916 -0.61635077 -0.050363485 0
-1.2386078 -0.85893041 0.077887818 0
-1.239446 -0.85949391 0.22250783 0
-1.2381032 -0.85859126 0.369039 0
-0.85410476 -0.62420058 -0.049824562 0
-1.2361171 -0.88802236 0.078399166 0
-1.2368053 -0.88849777 0.22402845 0
-1.2369175 -0.88857514 0.37190717 0
-0.84601498 -0.64260077 -0.049964644 0
-1.24459 -0.9253388 0.079410955 0
-1.2382431 -0.92083651 0.22614801 0
-1.6072508 -1.1826003 0.45703351 0
-0.83363473 -0.65800172 -0.049926706 0
-1.2354941 -0.95074481 0.079676725 0
-1.2366412 -0.95158035 0.22793683 0
-1.5747405 -1.1978761 0.45388085 0
-0.81889307 -0.67160702 -0.049791735 0
-1.2318214 -0.98044616 0.080200985 0
-1.2423444 -0.9883166 0.23077467 0
-0.8136065 -0.69235528 -0.050088692 0
-1.2349347 -1.0158287 0.081052519 0
-1.2446177 -1.0232629 0.23323773 0
-0.80076969 -0.707425 -0.050057258 0
-1.1614543 -0.99162894 0.078451313 0
-1.1585721 -0.98935789 0.22370118 0
-1.1491947 -0.98196894 0.36918029 0
-0.78884745 -0.72320968 -0.050076157 0
-1.1395193 -1.0067531 0.078176118 0
-1.1394547 -1.0067009 0.22325821 0
-1.1499945 -1.015223 0.37303451 0
-0.77864087 -0.74043912 -0.050184011 0
-1.2399174 -1.1231191 0.083581567 0
-1.245231 -1.1275274 0.24028081 0
-1.3381484 -1.2046126 0.42092988 0
-0.76189387 -0.75220603 -0.049996525 0
-1.2374755 -1.1569709 0.08429233 0
-1.2429452 -1.161626 0.24245027 0
-1.3179766 -1.2254848 0.42056635 0
-1.0373787 -0.98666948 0.4984625 0
-0.75057387 -0.76853949 -0.05007115 0
-1.2882017 -1.2379117 0.41796225 0
-0.99402118 -0.98107952 0.48915252 0
-0.73780191 -0.78364772 -0.050086845 0
-1.1954581 -1.1934695 0.084019266 0
-1.1981288 -1.1958611 0.24124166 0
-1.2030077 -1.20023 0.40194994 0
-0.9782424 -0.99895734 0.489158 0
-0.72099566 -0.79506999 -0.049916331 0
-0.9218452 -0.97953588 0.47517058 0
-0.7099309 -0.81173939 -0.050032385 0
-0.88413656 -0.97582608 0.46748123 0
-0.70283639 -0.832362 -0.050357297 0
-0.84961951 -0.97414905 0.46081343 0
-0.6786648 -0.83639497 -0.04984108 0
-0.83040595 -0.98671037 0.45955023 0
-0.6740303 -0.85976046 -0.05031506 0
-0.81484783 -1.0028125 0.4596574 0
-0.65084434 -0.8642866 -0.049853947 0
-0.64286947 -0.88459295 -0.050184246 0
-0.62364864 -0.89292699 -0.049936991 0
-0.60179305 -0.89804226 -0.049550299 0
-0.59495068 -0.92005235 -0.049979385 0
-0.5840708 -0.93776172 -0.050206892 0
-0.56359679 -0.94408923 -0.049911819 0
-0.55043447 -0.95919067 -0.050033391 0
-0.53901958 -0.9766683 -0.05026906 0
-0.5118202 -0.9737311 -0.049592309 0
-0.50136548 -0.9925347 -0.049904145 0
-0.48073447 -0.9976564 -0.049616039 0
-0.47021496 -1.0167806 -0.04995342 0
-0.46070659 -1.037805 -0.050375931 0
-0.43499446 -1.0351003 -0.049781468 0
-0.42205191 -1.0512908 -0.050010081 0
-0.37587255 -0.98019689 0.49974403 0
-0.40527529 -1.0617204 -0.050000515 0
-0.35605264 -0.9838112 0.49719945 0
-0.38951302 -1.0737942 -0.050068807 0
-0.32777554 -0.97329623 0.48925549 0
-0.37260193 -1.0840442 -0.05006903 0
-0.30998403 -0.97917491 0.48786187 0
-0.35380065 -1.0910426 -0.049943872 0
-0.29177994 -0.98413795 0.4862127 0
-0.33660978 -1.1007258 -0.049939346 0
-0.2780267 -0.99675208 0.48758474 0
-0.31571424 -1.1036357 -0.04966807 0
-0.25284714 -0.9886983 0.48117584 0
-0.30074167 -1.1173043 -0.049844112 0
-0.22734924 -0.97901613 0.47431609 0
-0.28238511 -1.1246763 -0.04977379 0
-0.21023341 -0.98449117 0.47329265 0
-0.26804298 -1.1399913 -0.05003006 0
-0.18744697 -0.978432 0.46806765 0
-0.25595701 -1.1603976 -0.05049384 0
-0.17259206 -0.98788363 0.46871194 0
-0.23639072 -1.165593 -0.050361376 0
-0.15090568 -0.98285347 0.46410227 0
-0.21167143 -1.1591827 -0.04978456 0
-0.13195743 -0.98303419 0.46152171 0
-0.19926949 -1.1799219 -0.050281033 0
-0.11367126 -0.9842481 0.45941734 0
-0.18104906 -1.1877981 -0.050282411 0
-0.10391714 -1.0052521 0.46455526 0
-0.15621187 -1.179459 -0.049667455 0
-0.068949476 -0.96546119 0.34485373 0
-0.082580164 -0.99888831 0.45987803 0
-0.14320244 -1.2000265 -0.050176468 0
-0.054547384 -0.97453374 0.34563661 0
-0.068600014 -1.0102763 0.46166623 0
-0.12505449 -1.2080476 -0.050210364 0
-0.030337019 -0.95793182 0.14646381 0
-0.031359419 -0.96063155 0.2422388 0
-0.012957824 -0.91203934 0.32694089 0
-0.053459242 -1.0189894 0.46255711 0
-0.10397293 -1.2080965 -0.049949881 0
-0.008573724 -0.94627303 0.14447473 0
-0.013029827 -0.95850283 0.24072766 0
0.0041436716 -0.9113701 0.32526132 0
-0.086236134 -1.2171508 -0.050041262 0
0.0053349002 -0.95564324 0.14492017 0
0.011137234 -0.93907291 0.23596135 0
0.02211641 -0.90771872 0.32284135 0
-0.0015670194 -0.97535366 0.44300503 0
-0.066129461 -1.2193661 -0.049883097 0
0.023377227 -0.95304972 0.14402723 0
0.021241145 -0.95940548 0.23883848 0
0.025492983 -0.94675452 0.33198214 0
0.016927706 -0.97223955 0.44002804 0
-0.049835756 -1.2330642 -0.050165787 0
0.034245923 -0.97205132 0.14560187 0
0.036765948 -0.96422845 0.23878945 0
0.019579755 -1.0175791 0.34961814 0
0.02089964 -1.0134817 0.45264864 0
-0.028645201 -1.231566 -0.049887341 0
0.021319704 -1.0694965 0.36211804 0
-0.0086532664 -1.233453 -0.049745865 0
0.06568341 -0.98108572 0.33725441 0
0.0092272926 -1.2424984 -0.049879696 0
0.082782283 -0.9806655 0.33594507 0
0.026875006 -1.2527921 -0.050067548 0
0.10080148 -0.97631305 0.33365864 0
0.046113059 -1.2573743 -0.050052613 0
0.11863832 -0.97177213 0.3313897 0
0.064153329 -1.2669035 -0.050228294 0
0.083401784 -1.2716906 -0.050238177 0
0.10595103 -1.2611084 -0.049695756 0
0.12466587 -1.2676805 -0.049789742 0
0.14357282 -1.2736064 -0.049868599 0
-0.065597579 -2.3868709 0.10230903 0
0.15971048 -1.2957083 -0.050542187 0
0.00189306 -2.1981242 0.095248558 0
0.18314414 -1.2757468 -0.049700484 0
0.034625009 -2.1929026 0.094870664 0
0.20092238 -1.2897251 -0.050096095 0
0.066541627 -2.1913774 0.09464179 0
0.22158529 -1.2846133 -0.049811274 0
0.097193733 -2.1979775 0.094720572 0
0.24085219 -1.2892005 -0.049885157 0
0.12674798 -2.2139695 0.09515097 0
0.26109079 -1.2855064 -0.049670193 0
0.16011818 -2.1982727 0.094455913 0
0.27964956 -1.2974477 -0.050025519 0
0.18973164 -2.2159703 0.094974712 0
0.29922798 -1.3004099 -0.050067116 0
0.22244829 -2.2016132 0.094357796 0
0.31902617 -1.3007903 -0.050025091 0
0.25413454 -2.1955168 0.094051875 0
0.33913097 -1.2956078 -0.04979305 0
0.28470275 -2.2045641 0.094302081 0
0.35823485 -1.3082057 -0.050205696 0
0.31610492 -2.1998055 0.094072476 0
0.37839553 -1.2987937 -0.049840502 0
0.34709734 -2.2023406 0.094117641 0
0.39787897 -1.3085634 -0.050169457 0
0.37817615 -2.2026246 0.094096348 0
0.41771042 -1.3063799 -0.050080374 0
0.43747282 -1.301214 -0.049893718 0
0.45699465 -1.2889334 -0.049461879 0
0.47715834 -1.3099431 -0.05022765 0
0.49655104 -1.2988452 -0.049855638 0
0.51643974 -1.301854 -0.049996458 0
0.536704 -1.3089846 -0.050293822 0
0.55532575 -1.2925795 -0.049757756 0
0.57536805 -1.2958056 -0.049933262 0
0.59493828 -1.2932794 -0.049911577 0
0.61568773 -1.3009365 -0.050264746 0
0.63503122 -1.295801 -0.050167356 0
0.65280318 -1.2801102 -0.04969791 0
0.67387366 -1.287769 -0.050079245 0
0.69324023 -1.2836711 -0.050045352 0
0.7143364 -1.2892256 -0.050370444 0
0.73071343 -1.2692888 -0.049778871 0
0.74939615 -1.2625009 -0.049672693 0
0.76968086 -1.2633052 -0.049852382 0
0.79085457 -1.2673396 -0.050160389 0
0.80852628 -1.2562921 -0.049924489 0
0.83021206 -1.2612919 -0.050288055 0
0.84882987 -1.2541188 -0.050212357 0
0.86665118 -1.2443591 -0.050048985 0
0.88800383 -1.246704 -0.050344691 0
0.90198982 -1.2249734 -0.049750406 0
0.92782694 -1.240584 -0.050563727 0
0.90726036 -1.178091 0.060214933 0
0.94019693 -1.215168 -0.049844306 0
0.92538077 -1.1719868 0.06021446 0
0.95633346 -1.201794 -0.049584053 0
0.93852526 -1.1519464 0.059694275 0
0.985313 -1.2235074 -0.050666627 0
0.95405877 -1.1393812 0.059462637 0
0.99828047 -1.2016 -0.050099138 0
0.9696933 -1.1275233 0.059264407 0
0.92366397 -1.0082495 0.45982781 0
1.0133106 -1.1859113 -0.049774207 0
0.99186575 -1.1323597 0.059714753 0
0.93972802 -1.0021623 0.45989862 0
1.0332811 -1.1827133 -0.049937703 0
0.99610907 -1.0931715 0.058476426 0
1.0123754 -1.1323545 0.16852582 0
0.96129626 -1.009313 0.464811 0
1.0526505 -1.177817 -0.050045833 0
1.0038815 -1.0643946 0.057638053 0
1.0259961 -1.1158268 0.1674594 0
0.97111201 -0.98818249 0.45960629 0
1.0719515 -1.1725719 -0.050150443 0
1.0128531 -1.0397602 0.056960657 0
1.0401469 -1.1010976 0.16661865 0
0.9901824 -0.98881227 0.46234113 0
1.0884151 -1.1609766 -0.050015632 0
1.0254294 -1.0240954 0.056636255 0
1.0412103 -1.0583907 0.16248423 0
1.0104157 -0.99146754 0.46592137 0
1.1075149 -1.1551392 -0.050115798 0
1.0460633 -1.0259026 0.057006847 0
1.0540005 -1.0425951 0.16152903 0
1.0191884 -0.96938294 0.46050274 0
1.1266522 -1.1492112 -0.050222516 0
1.0627221 -1.0190147 0.15965509 0
1.0458015 -0.98455542 0.46890023 0
1.1412634 -1.1341778 -0.049975105 0
1.082794 -1.0187976 0.057357166 0
1.0821705 -1.0175674 0.16044895 0
1.060527 -0.97485715 0.46819991 0
1.1589905 -1.125476 -0.049988508 0
1.1001753 -1.0129501 0.057455525 0
1.1000921 -1.0127909 0.16087395 0
1.0810028 -0.9762693 0.47173524 0
1.1745299 -1.1126873 -0.049845286 0
1.1836807 -1.1296701 0.062534012 0
1.1294258 -1.0289783 0.16388853 0
1.1001143 -0.97457904 0.47421929 0
1.1957561 -1.1103435 -0.050135531 0
1.1320509 -0.99559647 0.057449915 0
1.1335278 -0.99825662 0.16120337 0
1.1287913 -0.98972541 0.26469341 0
1.1288108 -0.98976034 0.37197331 0
1.1318232 -0.99518639 0.48529688 0
1.2144412 -1.1031368 -0.050238837 0
1.14496 -0.98161715 0.057241339 0
1.144527 -0.98085982 0.16015474 0
1.1455121 -0.98258275 0.26505142 0
1.1408439 -0.97441822 0.37007013 0
1.1494211 -0.98941928 0.48649928 0
1.2277216 -1.0865978 -0.049966019 0
1.1612936 -0.97374016 0.057290718 0
1.1675317 -0.98433834 0.16171879 0
1.1686568 -0.98624974 0.26771817 0
1.16848 -0.98594946 0.37615323 0
1.1656798 -0.98119193 0.48684612 0
1.2440042 -1.075381 -0.04992022 0
1.2613472 -1.0659213 -0.049956553 0
1.2834083 -1.0637732 -0.050312407 0
1.2923998 -1.0413166 -0.049814917 0
1.3014176 -1.0195194 -0.049346462 0
1.3271568 -1.022346 -0.049949497 0
1.3375782 -1.0029851 -0.049598772 0
1.3596985 -0.99999136 -0.049975175 0
1.3740839 -0.98627633 -0.049888447 0
1.3981587 -0.9851951 -0.050379027 0
1.4083308 -0.96602172 -0.050063889 0
1.2038219 -0.70815188 0.050313842 0
1.2125077 -0.71910405 0.14089735 0
1.4176254 -0.94611734 -0.049717728 0
1.2063067 -0.6864447 0.049765237 0
1.2073238 -0.68769449 0.13791683 0
1.437047 -0.9387179 -0.049954921 0
1.2145237 -0.67220283 0.049559485 0
1.2075608 -0.66386348 0.13595676 0
1.4530246 -0.92703563 -0.050004799 0
1.2048184 -0.63725615 0.048383065 0
1.2076052 -0.64050978 0.13404341 0
1.464474 -0.91014153 -0.049817055 0
1.2105578 -0.62114179 0.048082761 0
1.2046733 -0.61444426 0.1317209 0
1.4819896 -0.90017217 -0.049966857 0
1.2034428 -0.59107602 0.047111996 0
1.2149165 -0.60380805 0.13159873 0
1.4919013 -0.88181525 -0.049721312 0
1.5094798 -0.87179404 -0.049888965 0
1.5243347 -0.85879689 -0.049921472 0
1.5322919 -0.83884329 -0.049613085 0
1.5580406 -0.83659345 -0.050209649 0
1.5687724 -0.81943363 -0.050059587 0
1.5738972 -0.79719907 -0.049648497 0
1.595118 -0.78994888 -0.050031401 0
1.5998632 -0.7677663 -0.04962929 0
1.6178092 -0.75733334 -0.049866974 0
1.6342936 -0.74544901 -0.050040156 0
1.6405416 -0.72501898 -0.049746126 0
1.6554704 -0.71177924 -0.049863379 0
1.6628923 -0.69259208 -0.049647547 0
1.6811996 -0.68184072 -0.049932234 0
1.6887934 -0.66292775 -0.049744926 0
1.7069327 -0.65175456 -0.050033495 0
1.7144114 -0.63286722 -0.049861122 0
1.729862 -0.61955482 -0.050044935 0
1.7466038 -0.60693938 -0.050289746 0
1.7525451 -0.58714736 -0.050080489 0
1.7648355 -0.5715093 -0.050151017 0
1.7773765 -0.5559622 -0.050239753 0
1.7744601 -0.53117478 -0.049694441 0
1.7908993 -0.51797551 -0.049963418 0
1.8057573 -0.50367105 -0.050172653 0
1.8088706 -0.48281887 -0.049910698 0
1.8192596 -0.46600416 -0.049954686 0
1.8318204 -0.45026025 -0.050093964 0
1.8390232 -0.43175134 -0.050026868 0
1.8433319 -0.41190413 -0.049854852 0
1.8504437 -0.39348772 -0.049804021 0
1.868634 -0.38007876 -0.050196093 0
1.872906 -0.36032841 -0.050051 0
1.8805513 -0.3420985 -0.050046891 0
1.8844571 -0.32235715 -0.049907666 0
1.9045382 -0.30901858 -0.050398413 0
1.8979255 -0.28529415 -0.049875431 0
1.9164417 -0.27102521 -0.050319925 0
1.9050295 -0.24604677 -0.049638435 0
1.9197834 -0.23027427 -0.049956128 0
1.9220717 -0.21029092 -0.049812913 0
1.9277214 -0.1914347 -0.049805123 0
1.9286224 -0.17119835 -0.049629629 0
1.9379668 -0.1534306 -0.049777042 0
1.9568713 -0.13807605 -0.050285242 0
1.9421533 -0.11392326 -0.049561489 0
1.9528893 -0.096330889 -0.049785037 0
1.9579933 -0.077312209 -0.049810015 0
1.9718652 -0.060120653 -0.050163586 0
1.9646951 -0.038512003 -0.049758401 0
1.9730359 -0.02005462 -0.049927168 0
1.9717981 0.00017078654 -0.049757026 0
1.9736135 0.019793306 -0.049706809 0
1.9766753 0.039201412 -0.049710579 0
1.9980085 0.056185488 -0.050381206 0
1.9907296 0.07708814 -0.050029669 0
1.9845948 0.097621627 -0.049729157 0
1.9898438 0.1168671 -0.049846511 0
2.0077991 0.13515648 -0.050427582 0
1.988423 0.15644933 -0.049680408 0
1.99459 0.17576857 -0.049856756 0
1.9964443 0.19540563 -0.049887579 0
1.9999775 0.2150147 -0.049987189 0
1.9957398 0.23484395 -0.049818117 0
1.9967821 0.25452384 -0.049846478 0
2.0133407 0.27432454 -0.050437659 0
1.9871187 0.29373732 -0.049510278 0
1.996489 0.31361958 -0.049862582 0
2.001513 0.33356202 -0.05006871 0
1.9974393 0.3531372 -0.049958639 0
1.9978857 0.37295118 -0.050019052 0
2.0040765 0.39328229 -0.050294232 0
1.9855691 0.41147214 -0.049693212 0
1.9883629 0.43152735 -0.049864456 0
1.9974908 0.45246866 -0.050272793 0
1.9839989 0.47069556 -0.049876641 0
1.9791726 0.48990691 -0.049800679 0
1.983737 0.51055753 -0.050072756 0
1.9758972 0.52927691 -0.049905509 0
1.9748288 0.54912978 -0.04999226 0
1.9714432 0.56859016 -0.050003979 0
1.9743865 0.5893963 -0.050255574 0
1.9616158 0.60686773 -0.049942549 0
1.9505613 0.62452269 -0.049699616 0
1.9583253 0.64671993 -0.050156698 0
1.9495611 0.66489017 -0.050015315 0
1.946172 0.68445194 -0.050081048 0
1.9384854 0.70281398 -0.049996369 0
1.9371322 0.72304773 -0.050156366 0
1.9297429 0.74147964 -0.05010036 0
1.9085181 0.75527161 -0.049532279 0
1.9096923 0.77640718 -0.049814619 0
1.9185641 0.80053508 -0.050400481 0
1.9074396 0.81760705 -0.050238207 0
1.8966113 0.83467495 -0.050094705 0
1.8779092 0.84845519 -0.049655531 0
1.8772278 0.86945063 -0.049918249 0
1.8672765 0.88663101 -0.049831934 0
1.8560383 0.90317059 -0.049703214 0
1.855547 0.92459959 -0.050004866 0
1.8495545 0.94363111 -0.050101213 0
1.8375421 0.95976239 -0.049967866 0
1.8281183 0.97711366 -0.049945556 0
1.8185184 0.99435788 -0.049924776 0
1.8046073 1.0092486 -0.049737509 0
1.792537 1.025021 -0.049631864 0
1.7779443 1.0392582 -0.049429685 0
1.783031 1.0650002 -0.050050166 0
1.7673892 1.0786141 -0.049822092 0
1.7681997 1.1023642 -0.050292805 0
1.7447852 1.1108857 -0.049750812 0
1.7346426 1.1277524 -0.049777374 0
1.7407469 1.1557155 -0.050515171 0
1.7160201 1.1627374 -0.049931228 0
1.7062955 1.1800406 -0.050005477 0
1.6915443 1.1937025 -0.049866997 0
1.6864184 1.2145396 -0.050166007 0
1.6686898 1.2258456 -0.049909763 0
1.6605927 1.2446121 -0.050097369 0
1.6476415 1.2595782 -0.050073769 0
1.6392486 1.2783569 -0.050271221 0
1.6161503 1.2846475 -0.049788781 0
1.6053197 1.3013351 -0.049889326 0
1.5992686 1.322457 -0.050231438 0
1.5806442 1.3322185 -0.049977455 0
1.5693964 1.3487729 -0.050090369 0
1.5516407 1.3590772 -0.049890026 0
1.5390909 1.3744078 -0.049956899 0
1.522055 1.3851959 -0.049804706 0
1.5114847 1.4026533 -0.049993016 0
1.0232664 0.88758439 0.29168117 0
1.5003233 1.4196718 -0.050164305 0
1.0425063 0.92433053 0.30498105 0
1.4837326 1.4308504 -0.050059803 0
1.4406244 1.3830143 0.059760854 0
1.4352949 1.3771003 0.16697727 0
1.4348067 1.3765587 0.27601114 0
1.0580335 0.95846319 0.31685135 0
1.465531 1.4400887 -0.049874227 0
1.4131143 1.3804296 0.059039019 0
1.4211866 1.3896173 0.16697429 0
1.4124961 1.3797261 0.27376306 0
1.0516063 0.96897203 0.31804183 0
1.4516641 1.4541916 -0.049930137 0
1.389448 1.3815545 0.058515675 0
1.3925647 1.3851932 0.16459943 0
1.3966085 1.3899143 0.27327341 0
1.0640222 1.0016216 0.32895398 0
1.434002 1.4638151 -0.049785305 0
1.372076 1.3896466 0.058335781 0
1.3671825 1.3837857 0.16272248 0
1.3709413 1.3882875 0.27006021 0
1.0548708 1.0097317 0.32904822 0
1.4206053 1.4785231 -0.049886271 0
1.3396533 1.3790478 0.057307508 0
1.3364559 1.3751189 0.15990332 0
1.3448747 1.385464 0.26667699 0
1.0585506 1.0336232 0.33596042 0
1.4068406 1.4928869 -0.049978271 0
1.3213913 1.3851421 0.057068791 0
1.323422 1.3877025 0.1600803 0
1.3188612 1.3819518 0.26324487 0
1.0521601 1.0456622 0.33775139 0
1.3961943 1.5113974 -0.05026434 0
1.2960861 1.381851 0.056419358 0
1.2945499 1.3798631 0.15750416 0
1.2966293 1.3825541 0.26085874 0
1.0475643 1.0602484 0.34062999 0
1.3736988 1.5145091 -0.049865589 0
1.2763529 1.3852046 0.056087285 0
1.2821602 1.3929183 0.15781221 0
1.2744713 1.3827053 0.25845683 0
1.0401934 1.0715141 0.34212291 0
1.3698443 1.5425713 -0.050587706 0
1.2525119 1.3825649 0.055503994 0
1.2564111 1.3878822 0.15572733 0
1.2510909 1.3806273 0.2556411 0
1.0356495 1.0868297 0.34531134 0
1.3378278 1.5320789 -0.049614109 0
1.2462184 1.4037946 0.0559863 0
1.2445502 1.4014587 0.15616205 0
1.2408702 1.3963056 0.2568512 0
1.0236418 1.0921119 0.34439299 0
1.3278577 1.5520985 -0.049993336 0
1.2437725 1.4311591 0.056734614 0
1.242749 1.4296871 0.15853046 0
1.2479464 1.4371624 0.26360971 0
1.0088561 1.0932804 0.34187722 0
1.3077543 1.5576271 -0.049750101 0
1.245778 1.4660479 0.057802275 0
1.2455591 1.4657245 0.16189508 0
1.2442546 1.4637969 0.26719427 0
1.0052378 1.1106143 0.34595191 0
1.2927696 1.5706223 -0.049838923 0
1.2434231 1.49569 0.058635756 0
1.242009 1.4935429 0.16416973 0
1.2414263 1.4926579 0.27124012 0
1.1688291 1.3824195 0.34754813 0
0.99472547 1.1180439 0.34606576 0
1.2709221 1.5730273 -0.049486037 0
1.2440615 1.5310994 0.059708335 0
1.2511437 1.5421544 0.16908571 0
1.2197583 1.4931639 0.26918793 0
1.152063 1.3874961 0.34630418 0
0.98632348 1.1287875 0.34754062 0
1.2623016 1.5961975 -0.050020989 0
1.2364203 1.5546561 0.060273621 0
1.2412277 1.5623724 0.17035344 0
1.2065517 1.5067148 0.2699818 0
1.1264884 1.3782073 0.34081545 0
0.97483522 1.1347924 0.34718806 0
1.2426499 1.6018893 -0.049826887 0
1.1954142 1.5239013 0.27157146 0
1.1094546 1.381979 0.33936056 0
0.96443325 1.1425433 0.34757382 0
0.84178621 0.94004858 0.47447756 0
1.2299998 1.6192126 -0.05012637 0
1.1803296 1.5348253 0.27186829 0
1.0915891 1.3840597 0.3374795 0
0.95646763 1.154495 0.34962919 0
0.84064698 0.95772141 0.48313004 0
1.2129011 1.6291876 -0.050128069 0
1.1583029 1.5336974 0.26969883 0
1.0750747 1.3881347 0.33626446 0
0.94276714 1.1567342 0.34798622 0
0.84720457 0.98959917 0.35188711 0
0.8394112 0.97596884 0.41613013 0
0.84021193 0.97736931 0.49307957 0
1.1914945 1.6314117 -0.049822085 0
1.1420511 1.5423534 0.26962012 0
1.0531018 1.382136 0.3321791 0
0.93100339 1.1622099 0.34765217 0
0.84442204 1.0062579 0.35733074 0
0.83830035 0.99523127 0.42425409 0
0.83630246 0.99163264 0.49931112 0
1.1759638 1.6440926 -0.0499532 0
1.1276213 1.5543736 0.27027321 0
1.0367229 1.3856746 0.33096582 0
0.92226732 1.1732557 0.34948155 0
0.85514939 1.0486912 0.37487629 0
0.83847809 1.0177507 0.43418226 0
0.84223139 1.0247165 0.51821244 0
1.1564077 1.6492786 -0.049789444 0
1.1148223 1.569717 0.27163538 0
1.0182768 1.3850052 0.32860869 0
0.91364133 1.1848155 0.35153335 0
0.84780759 1.0588617 0.37717095 0
0.84163636 1.0470549 0.4478744 0
0.84018725 1.0442824 0.52789378 0
1.1387072 1.6578778 -0.049773216 0
1.0983496 1.5782385 0.2716423 0
1.0001311 1.3844196 0.32635716 0
0.90437835 1.1954664 0.35327375 0
0.84592021 1.0801084 0.38463512 0
0.84118336 1.070761 0.4583171 0
0.84188873 1.0721529 0.54305202 0
1.1235023 1.6715405 -0.049967375 0
1.0801975 1.5833484 0.27100554 0
0.98009747 1.3794906 0.32295015 0
0.88419765 1.1841866 0.3469184 0
0.84277695 1.0998317 0.39136162 0
0.83838773 1.0908928 0.46670628 0
0.83575749 1.0855362 0.54853123 0
1.1034894 1.6754177 -0.049781129 0
0.96841455 1.3913463 0.32437676 0
0.87608105 1.1971629 0.34963059 0
0.8403188 1.1219525 0.39916542 0
0.84290391 1.1273892 0.48413131 0
0.83939672 1.1200134 0.56788039 0
1.0875528 1.6878468 -0.049941983 0
0.94449288 1.3769475 0.31846303 0
0.86420262 1.2024601 0.34955239 0
0.83996135 1.1497786 0.40953851 0
0.8379575 1.1454239 0.49125615 0
0.83772516 1.144919 0.58083934 0
1.0692235 1.6951855 -0.049910884 0
0.93458569 1.392614 0.32106245 0
0.85213381 1.2073197 0.34936994 0
0.84108716 1.1824948 0.42207173 0
0.84126192 1.1828874 0.50901538 0
0.83888412 1.1775439 0.59875017 0
1.0539664 1.7096218 -0.05016477 0
0.9131465 1.382116 0.31641626 0
0.84659934 1.2273468 0.35473642 0
0.84490985 1.2234175 0.43822953 0
0.83592457 1.2025205 0.51694494 0
0.84089619 1.214083 0.61908174 0
1.0345175 1.7144357 -0.050052825 0
0.89582902 1.3803569 0.31428316 0
0.84903848 1.2676458 0.36740255 0
0.83981031 1.2454166 0.4457981 0
0.84350705 1.2543213 0.54229641 0
0.83928084 1.2441411 0.63512951 0
1.0183793 1.7273133 -0.050260991 0
0.88107908 1.3844496 0.31382912 0
0.85083812 1.3089324 0.38034785 0
0.83969223 1.2810991 0.45946005 0
0.83728182 1.2750798 0.55073792 0
0.83474243 1.2687385 0.64762104 0
0.99833041 1.7304735 -0.050104085 0
0.86680758 1.3896643 0.31373501 0
0.85137534 1.3496754 0.39302847 0
0.83849615 1.3163022 0.47284371 0
0.83840656 1.31607 0.57003105 0
0.83909559 1.3178554 0.67567492 0
0.97888774 1.7349569 -0.050007947 0
0.84867603 1.3844693 0.31085712 0
0.84449536 1.3732162 0.39954227 0
0.83874297 1.3577325 0.48892212 0
0.83807337 1.3559302 0.5886234 0
0.83901328 1.3584602 0.69817793 0
0.9585225 1.7366656 -0.049816351 0
0.833776 1.3874824 0.310278 0
0.83935881 1.4031096 0.40830177 0
0.83864659 1.4011159 0.50578564 0
0.84056515 1.4064862 0.61281735 0
0.93999338 1.743319 -0.049821913 0
0.81535453 1.3800637 0.30693823 0
0.8399753 1.45182 0.42366493 0
0.83976007 1.4511926 0.52550691 0
0.83859915 1.4478092 0.63200647 0
0.9219597 1.7515004 -0.04989367 0
1.0272427 2.0714097 0.34909195 0
0.79951221 1.3794351 0.30549851 0
0.84045959 1.5038565 0.44012681 0
0.83481711 1.4867114 0.53879493 0
0.83925849 1.5002069 0.65696275 0
0.90456092 1.7618746 -0.050055742 0
1.0061404 2.0841403 0.35011035 0
0.78639138 1.3869756 0.30630326 0
0.83780062 1.5500742 0.4544915 0
0.84112573 1.5606232 0.56872451 0
0.83938795 1.5551099 0.68313003 0
0.88628143 1.7697338 -0.050131612 0
0.98571199 2.0996127 0.35169157 0
0.76814771 1.3778036 0.30269569 0
0.84106988 1.6197363 0.47695994 0
0.83938879 1.6141589 0.58969498 0
0.86501062 1.7674018 -0.049837168 0
0.9589535 2.0938971 0.34933913 0
0.75493598 1.3848407 0.30346552 0
0.83995575 1.6803243 0.49619147 0
0.84137565 1.6852591 0.61816645 0
0.84891707 1.7831812 -0.050224133 0
0.7399267 1.3856171 0.047506887 0
0.74241716 1.3947015 0.13195781 0
0.74008626 1.3861991 0.21578506 0
0.73708594 1.3752549 0.29987925 0
0.83413815 1.7292721 0.51134604 0
0.83468306 1.7312596 0.63575339 0
0.82969707 1.7880603 -0.050215162 0
0.72307521 1.3790042 0.047123395 0
0.72714746 1.3946276 0.13152623 0
0.72386223 1.3820238 0.21430176 0
0.72285068 1.378143 0.2996529 0
0.82849073 1.7834321 0.52826822 0
0.83174813 1.7959292 0.6613068 0
0.80972141 1.7898699 -0.050102253 0
0.71174014 1.3935853 0.047528349 0
0.70908934 1.3828644 0.12982325 0
0.71135932 1.3920451 0.21549852 0
0.71007872 1.3868657 0.30100793 0
0.82559866 1.8540854 0.55081469 0
0.82513428 1.8522072 0.68321759 0
0.79136813 1.7982793 -0.050240885 0
0.69513613 1.386907 0.047157876 0
0.69712913 1.3954266 0.13083524 0
0.69480199 1.3854784 0.21364859 0
0.69834882 1.4006406 0.30372488 0
0.81741399 1.9096198 0.56814152 0
0.77150124 1.8002981 -0.05015396 0
0.68167436 1.393265 0.047272697 0
0.68042392 1.387599 0.12961698 0
0.67876488 1.3800812 0.21205831 0
0.67936885 1.382818 0.29821745 0
0.80550456 1.9543775 0.58178383 0
0.75196731 1.8036351 -0.050124459 0
0.66349697 1.3773092 0.046579808 0
0.66503161 1.3847045 0.12896648 0
0.66470134 1.3831128 0.21206197 0
0.66455102 1.3823885 0.29731885 0
0.79371279 2.0048008 0.59736663 0
0.73100144 1.7995144 -0.049832746 0
0.64905477 1.3780167 0.046502981 0
0.65088451 1.3874279 0.12895387 0
0.65060091 1.3859693 0.21206601 0
0.64821774 1.3737113 0.29432735 0
0.77580303 2.0299542 0.60439724 0
0.71357989 1.813799 -0.050219111 0
0.63549614 1.3833045 0.046599131 0
0.63654071 1.3890635 0.12884197 0
0.63467741 1.3787909 0.21026331 0
0.63526207 1.3820139 0.29579884 0
0.76348925 2.0889614 0.62293482 0
0.69398719 1.816851 -0.050205942 0
0.62092865 1.3830236 0.046499658 0
0.6208427 1.3825135 0.12785794 0
0.62075126 1.3819705 0.21039551 0
0.62045467 1.3802093 0.29469445 0
0.74568021 2.1238079 0.63333428 0
0.67331463 1.8129178 -0.049949341 0
0.60716766 1.3874882 0.046578467 0
0.60666913 1.3842818 0.12780201 0
0.60756856 1.3900665 0.21145681 0
0.60588956 1.3792679 0.2938633 0
0.72735673 2.1604939 0.64440823 0
0.6539706 1.8170406 -0.049993116 0
0.59164995 1.3800443 0.046233941 0
0.59124029 1.3771715 0.12680177 0
0.59358007 1.3935783 0.21171136 0
0.59290373 1.3888357 0.29578933 0
0.7090174 2.2030323 0.6575067 0
0.63373649 1.8145695 -0.049808215 0
0.57799315 1.3850677 0.046345849 0
0.57701647 1.3775426 0.12663502 0
0.57820803 1.3867234 0.21011223 0
0.57718325 1.3788275 0.29271796 0
0.68779904 2.2311206 0.66581362 0
0.61481589 1.8222296 -0.04999692 0
0.56393284 1.3873413 0.046364933 0
0.56331587 1.3820683 0.1269374 0
0.56489116 1.3955321 0.21139483 0
0.56317049 1.380826 0.29278621 0
0.66819668 2.278465 0.68064797 0
0.59425592 1.8154787 -0.049676649 0
0.55220103 1.4121013 0.1300142 0
0.55262667 1.4161836 0.21485358 0
0.552158 1.4116883 0.30030367 0
0.64468658 2.2991943 0.68664271 0
0.57652229 1.8371584 -0.050385293 0
0.55218405 1.5712956 0.14704145 0
0.5518623 1.5677807 0.24205098 0
0.55120152 1.5605633 0.3380827 0
0.62132895 2.3266103 0.69496351 0
0.55604565 1.8304522 -0.050084665 0
0.60211092 2.4145827 0.23779908 0
0.59874552 2.3719079 0.38727143 0
0.59755093 2.3567598 0.54149246 0
0.53698552 1.8419814 -0.050445981 0
0.57366443 2.3960152 0.39128059 0
0.57377547 2.3976924 0.5514698 0
0.51691532 1.8394765 -0.050313875 0
0.54914683 2.4411862 0.3991484 0
0.54801244 2.4200096 0.55676061 0
0.49695745 1.8375154 -0.050210305 0
0.52207309 2.4508889 0.40066588 0
0.52169955 2.441766 0.56198841 0
0.47715691 1.8386374 -0.050225865 0
0.45670322 1.1169091 0.35912272 0
0.45664996 1.1150298 0.43178916 0
0.45707813 1.8229803 -0.049651213 0
0.44597614 1.1177357 0.35936704 0
0.44591418 1.1137999 0.43105561 0
0.43749791 1.83793 -0.050178323 0
0.43512532 1.0845439 0.41636699 0
0.43515801 1.0949169 0.49855539 0
0.41776514 1.8293287 -0.049873456 0
0.42472863 1.0918753 0.42005157 0
0.42486042 1.077919 0.48849383 0
0.397843 1.8389397 -0.050227743 0
0.41395772 1.1076964 0.3552514 0
0.41428515 1.0928382 0.42061555 0
0.41469568 1.0742095 0.48638898 0
0.37853211 1.823595 -0.049699653 0
0.35255671 2.5734777 0.42269397 0
0.35219926 2.5837975 0.59811455 0
0.40487409 1.0631292 0.47998539 0
0.35753873 1.8516824 -0.050732251 0
0.3226589 2.5898471 0.42586434 0
0.32261035 2.5908749 0.60022759 0
0.39494038 1.0601475 0.47845957 0
0.33902082 1.8261913 -0.049858835 0
0.2925424 2.6023853 0.42841288 0
0.29184979 2.6139519 0.60652673 0
0.31873032 1.833614 -0.050171115 0
0.26120523 2.6267703 0.43317452 0
0.26127297 2.6258361 0.61006755 0
0.2999053 1.8212039 -0.049782258 0
0.35593402 1.1635653 0.038218658 0
0.23019816 2.6393933 0.43588367 0
0.23007154 2.6408794 0.6145196 0
0.27983406 1.824307 -0.049957905 0
0.19740136 2.6663673 0.44126749 0
0.19731562 2.6672432 0.62197983 0
0.2598595 1.8253813 -0.050069995 0
0.16559176 2.677537 0.44386595 0
0.16671683 2.6673667 0.62282073 0
0.34621304 1.0447675 0.4716351 0
0.24075602 1.8187243 -0.049913194 0
0.13407971 2.6832931 0.4455575 0
0.13498278 2.6759739 0.62594271 0
0.22036797 1.8222959 -0.050133333 0
0.10178877 2.692982 0.44803989 0
0.10233049 2.6890044 0.63031179 0
0.20087752 1.8187704 -0.050106965 0
0.071396008 2.6875501 0.44784394 0
0.069176689 2.7024412 0.63489991 0
0.18278708 1.8066959 -0.049780231 0
0.038784519 2.6959605 0.45024636 0
0.036986992 2.7070608 0.63732636 0
0.16152136 1.8140978 -0.050166897 0
0.0046889647 2.7108812 0.45392114 0
0.0039274259 2.7152357 0.64078379 0
0.14248233 1.8081546 -0.050079435 0
-0.028005017 2.7155368 0.45579964 0
-0.02996595 2.7259734 0.64502269 0
0.12451001 1.7972004 -0.049817991 0
-0.091822997 2.8737152 0.1010193 0
-0.089399055 2.8616529 0.29070827 0
-0.06139715 2.7223101 0.45814809 0
-0.062519595 2.7278955 0.64708912 0
0.10177241 1.8093705 -0.050408363 0
-0.10938825 2.7956839 0.098418966 0
-0.11453123 2.8197064 0.28684306 0
-0.094903722 2.7280278 0.46038562 0
-0.094408527 2.7257147 0.64819747 0
0.085824832 1.7897745 -0.049847882 0
-0.14442827 2.8027852 0.098936126 0
-0.14458497 2.8034747 0.28583565 0
-0.12785377 2.7298648 0.46198976 0
-0.12746222 2.7281423 0.65061957 0
0.066119507 1.787475 -0.049928188 0
-0.17429025 2.7867815 0.09862262 0
-0.17559971 2.7922244 0.28541759 0
-0.16054739 2.7296567 0.46329632 0
-0.16222228 2.7366188 0.65474546 0
0.047596768 1.7802757 -0.049837396 0
-0.20891429 2.7904081 0.099045016 0
-0.21233393 2.8038745 0.28758061 0
-0.19773032 2.7463658 0.46783131 0
-0.19650526 2.7415416 0.65806425 0
0.026983546 1.7811304 -0.050052546 0
-0.2539044 2.8316293 0.10087425 0
-0.25197154 2.8244007 0.29078972 0
-0.22813685 2.7352605 0.46727636 0
-0.22661985 2.7295873 0.65705073 0
0.00452082 1.7879962 -0.050500974 0
-0.25951844 2.7278941 0.46749145 0
-0.26208723 2.7370381 0.66127658 0
-0.010014756 1.7668194 -0.049917892 0
-0.2954433 2.735827 0.47065794 0
-0.29305911 2.7277329 0.66118002 0
-0.030215187 1.7654027 -0.050077595 0
-0.32661277 2.7268171 0.4707244 0
-0.32624274 2.7256169 0.66310638 0
-0.049121544 1.7595912 -0.050082628 0
-0.35615212 2.7126999 0.46989766 0
-0.35942757 2.7228677 0.66498268 0
-0.066029534 1.747813 -0.049871899 0
-0.39045024 2.7130878 0.47189778 0
-0.39192867 2.7174866 0.66627079 0
-0.086299673 1.7460766 -0.050048128 0
-0.42638588 2.7172916 0.4747183 0
-0.42273462 2.7068644 0.66625816 0
-0.10469683 1.7388275 -0.050025374 0
-0.45565563 2.7020354 0.47390315 0
-0.45543605 2.7014327 0.66776001 0
-0.1242481 1.7346625 -0.050129075 0
-0.49171358 2.7050111 0.47667098 0
-0.48841363 2.6962972 0.66946197 0
-0.13957246 1.7195379 -0.049822286 0
-0.5146057 2.6734295 0.47284356 0
-0.52294177 2.6946323 0.67223728 0
-0.15950312 1.7162745 -0.049978647 0
-0.54994684 2.6737788 0.47527152 0
-0.55141836 2.6773875 0.67085373 0
-0.18682863 1.7302207 -0.05081255 0
-0.58204019 2.6655571 0.47612128 0
-0.57765031 2.6551681 0.66818404 0
-0.1997654 1.7097996 -0.050325204 0
-0.61599743 2.6612875 0.477833 0
-0.61548555 2.6601174 0.67315722 0
-0.21153791 1.6876318 -0.049772996 0
-0.63700187 2.6278031 0.47385561 0
-0.64456952 2.6445255 0.67253941 0
-0.23002513 1.6807297 -0.049825046 0
-0.66845667 2.6179562 0.4746137 0
-0.67567611 2.633389 0.67327577 0
-0.25293386 1.6828859 -0.05024578 0
-0.70062089 2.6093223 0.47569844 0
-0.6994338 2.6068656 0.66976732 0
-0.26716381 1.6669731 -0.049959749 0
-0.72956467 2.5938821 0.47549963 0
-0.7330296 2.6008277 0.67216247 0
-0.28320378 1.6550112 -0.049837656 0
-0.75639486 2.5743845 0.47455025 0
-0.75515676 2.5719788 0.66814882 0
-0.3034727 1.6511943 -0.050052095 0
-0.7845192 2.5575969 0.47421661 0
-0.78866637 2.5654113 0.67062414 0
-0.32017082 1.6405276 -0.049999624 0
-0.8085866 2.5334787 0.47244626 0
-0.81176436 2.5392885 0.66755211 0
-0.33664399 1.6295307 -0.049941834 0
-0.62014496 2.1326907 0.082560457 0
-0.83734739 2.5181832 0.47255218 0
-0.83737826 2.5182383 0.66602856 0
-0.35150278 1.615826 -0.049780387 0
-0.61597288 2.0716915 0.080595948 0
-0.86534715 2.5015364 0.47245234 0
-0.86049306 2.4931693 0.66340339 0
-0.37119663 1.6104349 -0.049971167 0
-0.61954415 2.0263553 0.079265714 0
-0.88012195 2.4627581 0.46777678 0
-0.88611519 2.4727952 0.66223949 0
-0.38631171 1.5973274 -0.049850464 0
-0.61533523 1.9701385 0.077471152 0
-0.90840733 2.4472101 0.46802112 0
-0.90695345 2.4448435 0.65889394 0
-0.41136664 1.600106 -0.05040767 0
-0.62140834 1.9325585 0.076447047 0
-0.93083811 2.422322 0.46635056 0
-0.93551397 2.4297228 0.65947282 0
-0.41316247 1.5663495 -0.049427468 0
-0.61111331 1.8710983 0.074401155 0
-0.96229756 2.4117525 0.46780613 0
-0.9592551 2.4070687 0.65787345 0
-0.43907392 1.5699551 -0.050043769 0
-0.61746049 1.8371581 0.073513791 0
-0.98214662 2.3834169 0.46550694 0
-0.98261487 2.3841181 0.65626103 0
-0.45527577 1.5586321 -0.050033174 0
-0.62410581 1.8047522 0.072688594 0
-0.99828005 2.3502231 0.46217978 0
-1.0011803 2.3544509 0.65264714 0
-0.47354019 1.5502439 -0.050159521 0
-0.61575019 1.7520617 0.070973776 0
-1.0257533 2.3339198 0.46259412 0
-1.0212024 2.3274612 0.6499095 0
-0.49037987 1.5397292 -0.050203416 0
-0.62280107 1.7227179 0.070267498 0
-0.61943364 1.7180647 0.19884305 0
-1.0471938 2.3091726 0.46120915 0
-1.0424384 2.3026016 0.64789647 0
-0.078791514 0.97096825 0.44239894 0
-0.50481737 1.5259246 -0.050110776 0
-0.61445618 1.6734828 0.068673804 0
-0.61755848 1.677658 0.19522193 0
-1.0673554 2.2830203 0.45955577 0
-1.0653524 2.2803247 0.64677024 0
-0.095699742 0.97531062 0.44915387 0
-0.51349264 1.5046679 -0.049690761 0
-0.62434363 1.6499987 0.068216287 0
-0.62153304 1.6463138 0.19278763 0
-1.0827116 2.2509401 0.45659924 0
-1.0799452 2.2473135 0.64228076 0
-0.099689439 0.96215266 0.44509479 0
-0.53272319 1.4973698 -0.049904399 0
-0.61986756 1.6086849 0.066951454 0
-0.61262453 1.5994329 0.18821551 0
-1.0974607 2.2187462 0.45363143 0
-1.1006366 2.2228029 0.64056051 0
-0.10692419 0.95346838 0.44387001 0
-0.54546559 1.4817498 -0.049750146 0
-0.62344563 1.5788156 0.066195302 0
-0.61659312 1.570286 0.1860262 0
-1.114046 2.1894915 0.45135614 0
-1.1160966 2.192044 0.6368627 0
-0.12785031 0.96192217 0.4536902 0
-0.55876112 1.466967 -0.049640402 0
-0.61802661 1.5388647 0.064966887 0
-0.61942041 1.5405555 0.18373972 0
-1.1340588 2.1648865 0.45019245 0
-1.1284604 2.1580946 0.63213551 0
-0.13905527 0.95780295 0.4556303 0
-0.58202767 1.46409 -0.050093934 0
-0.62029779 1.509344 0.064209826 0
-0.61990321 1.5088774 0.18115963 0
-1.1433288 2.1278222 0.44613272 0
-1.1495087 2.1351299 0.63107967 0
-0.15660216 0.96102893 0.46249625 0
-0.59521711 1.4491037 -0.049993899 0
-0.61933899 1.4769098 0.063308097 0
-0.61896789 1.476482 0.17845005 0
-1.1579109 2.097739 0.4437229 0
-1.1537834 2.0929811 0.62362188 0
-0.60881197 1.4346745 -0.049927261 0
-0.63376296 1.4627151 0.063267283 0
-0.62896264 1.4573203 0.17761196 0
-1.1657422 2.0605679 0.43961892 0
-1.1728253 2.0685282 0.62214166 0
-0.62882006 1.4273376 -0.050210875 0
-0.66152596 1.4631745 0.063943014 0
-0.66181862 1.463495 0.18046878 0
-1.1837113 2.0353479 0.43840951 0
-1.1815039 2.0329292 0.61687684 0
-0.62994289 1.3995265 -0.049508911 0
-0.51742882 1.2793169 0.05563068 0
-0.68149197 1.4546012 0.18120192 0
-1.1938229 2.0019732 0.43522692 0
-1.1987383 2.0072248 0.61504519 0
-0.65792263 1.4004049 -0.050218869 0
-0.50725675 1.2434431 0.054451302 0
-0.72302198 1.4682246 0.185335 0
-1.1998394 1.9649669 0.43112949 0
-1.1959188 1.9608825 0.60596901 0
-0.66767681 1.3820504 -0.049991723 0
-0.51761305 1.2296053 0.054354768 0
-0.74598145 1.4615976 0.18654418 0
-1.2014199 1.9242632 0.42606428 0
-1.215601 1.9386693 0.60540539 0
-0.67548513 1.3619894 -0.049681295 0
-0.52436471 1.2122887 0.054087095 0
-0.77326238 1.4588479 0.1884048 0
-1.2230182 1.9043781 0.42627442 0
-1.2231665 1.904525 0.60059845 0
-0.70511842 1.3633105 -0.050470565 0
-0.54035491 1.204155 0.054292131 0
-0.80764759 1.4623499 0.19130968 0
-1.2263063 1.8667588 0.42195395 0
-1.2256871 1.8661608 0.5942136 0
-0.70815706 1.3388127 -0.049945388 0
-0.56727171 1.2061108 0.055035695 0
-0.83664703 1.4598392 0.19337863 0
-1.2331814 1.8333403 0.41869113 0
-1.2205154 1.8214101 0.58537817 0
-0.72126019 1.3240571 -0.049929153 0
-0.87459755 1.4648865 0.069361992 0
-0.86716807 1.4580631 0.19565044 0
-1.2295152 1.7908529 0.41298828 0
-1.2255892 1.7872471 0.58038986 0
-0.22821607 0.87123132 0.37745279 0
-0.73702681 1.3116978 -0.050049696 0
-0.90459406 1.4617509 0.070080087 0
-0.89814246 1.4559736 0.19796544 0
-1.2296821 1.7528607 0.40840754 0
-1.2346269 1.7572886 0.57696319 0
-0.24182256 0.86825228 0.38079733 0
-0.75095892 1.2976198 -0.050089397 0
-0.9404434 1.4630479 0.071069591 0
-1.2400208 1.7245919 0.40642729 0
-1.235166 1.7203535 0.57082409 0
-0.23590066 0.84795165 0.37339276 0
-0.76313841 1.2820094 -0.050054874 0
-0.97014761 1.4581938 0.071759693 0
-1.2337984 1.6825855 0.40063083 0
-1.2326008 1.6815661 0.56386703 0
-0.23505749 0.83256257 0.36896816 0
-0.25820369 0.8522622 0.45983508 0
-0.77847755 1.2690477 -0.050176434 0
-1.0086739 1.4600213 0.07285472 0
-1.2551758 1.6645219 0.40148672 0
-1.2350974 1.6478647 0.55882311 0
-0.24814679 0.82907939 0.37218952 0
-0.79369152 1.2558706 -0.050298557 0
-1.0521235 1.4648315 0.074163623 0
-1.251448 1.6259997 0.39656439 0
-1.2434783 1.6195556 0.55590081 0
-0.25164878 0.81758994 0.37029698 0
-0.80147624 1.2367258 -0.05008937 0
-1.0940256 1.4672421 0.075386502 0
-1.2469091 1.5877079 0.39161637 0
-1.2421489 1.583957 0.54996961 0
-0.27496284 0.82185584 0.37894318 0
-0.81196415 1.2198385 -0.050014772 0
-1.1175438 1.4544464 0.075768799 0
-1.2449898 1.5522927 0.38742167 0
-1.2453941 1.5526032 0.54571187 0
-0.25855345 0.79495901 0.36674297 0
-0.24767782 0.78660923 0.4350782 0
-0.82153738 1.2023289 -0.049909621 0
-1.1622785 1.4571775 0.077100612 0
-1.2516032 1.5239856 0.38528892 0
-1.2412574 1.5162477 0.53926855 0
-0.26518452 0.786219 0.36674559 0
-0.2798987 0.7972241 0.45113513 0
-0.8289597 1.1833403 -0.049720213 0
-1.2148349 1.4644393 0.078764215 0
-1.2439457 1.4856458 0.38007128 0
-1.2397027 1.4825548 0.53384417 0
-1.244608 1.4861282 0.6963321 0
-0.26205009 0.77036279 0.36180252 0
-0.27813309 0.7820788 0.44592395 0
-0.84570265 1.1711234 -0.049950976 0
-1.2568427 1.4627748 0.079947285 0
-1.2373061 1.448916 0.37523234 0
-1.2357666 1.447824 0.52785653 0
-1.2374527 1.44902 0.6871928 0
-0.27903754 0.76914698 0.36721969 0
-0.27994543 0.76979101 0.44307154 0
-0.86088145 1.1576247 -0.050118584 0
-1.3097144 1.4675937 0.081592374 0
-1.2461869 1.4237208 0.37393883 0
-1.2421738 1.4209493 0.52526385 0
-1.2410004 1.4201391 0.68264979 0
-0.28840315 0.76226497 0.44437909 0
-0.86967647 1.1396888 -0.050017513 0
-1.2751472 1.4122354 0.07945963 0
-1.2695235 1.4084554 0.22640261 0
-1.2485235 1.3943397 0.37130338 0
-1.2344691 1.3848926 0.51845938 0
-1.2430525 1.3906622 0.67769194 0
-0.28718829 0.74815583 0.43990174 0
-0.87486398 1.1194749 -0.049773049 0
-1.2728831 1.3797973 0.078752264 0
-1.2677455 1.3764372 0.22434175 0
-1.26569 1.3750927 0.37196541 0
-1.2388595 1.3575444 0.51553702 0
-1.2346529 1.3547931 0.66876805 0
-0.2966916 0.74132401 0.44197565 0
-0.89293623 1.107659 -0.050086562 0
-1.2794709 1.3535775 0.078442462 0
-1.2792821 1.3534573 0.22404484 0
-1.2504004 1.3350824 0.36573654 0
-1.2387582 1.3276756 0.51138425 0
-1.2457459 1.3321213 0.66778046 0
-0.30215609 0.73179692 0.44168913 0
-0.89479423 1.0855483 -0.049723219 0
-1.2927436 1.3317455 0.078429617 0
-1.2847469 1.3267983 0.22301966 0
-1.251767 1.3063948 0.3631956 0
-1.2391065 1.2985622 0.50751191 0
-1.2369846 1.2972494 0.6591453 0
-0.91753352 1.0762907 -0.050244171 0
-1.3074033 1.3107536 0.078486152 0
-1.3147141 1.3151501 0.22511722 0
-1.247206 1.2745516 0.35950264 0
-1.2433212 1.2722154 0.50492936 0
-1.2422844 1.2715919 0.65620536 0
-0.91681445 1.0528955 -0.049796142 0
-1.3293741 1.293983 0.078855552 0
-1.3368264 1.2983379 0.22624001 0
-1.256441 1.2513632 0.35880265 0
-1.2424181 1.2431685 0.50095183 0
-1.2408803 1.2422699 0.65082854 0
-0.92179096 1.033093 -0.049597245 0
-1.3847896 1.2958915 0.080603972 0
-1.3751304 1.290409 0.22938193 0
-1.2461714 1.2172116 0.35412359 0
-1.2427886 1.2152916 0.497484 0
-1.2397264 1.2135534 0.64572757 0
-0.93631172 1.0187067 -0.049798984 0
-1.24542 1.189047 0.35152578 0
-1.2379141 1.1849107 0.49261484 0
-1.2389969 1.1855073 0.64096087 0
-0.95151818 1.004522 -0.050034486 0
-1.244262 1.1610718 0.34893501 0
-1.2409387 1.1592946 0.4901748 0
-1.2367409 1.1570497 0.63578403 0
-0.95509696 0.98411566 -0.049808025 0
-1.264215 1.1444497 0.35072193 0
-1.2403005 1.1320457 0.48679096 0
-1.2401779 1.1319821 0.63290918 0
-0.96872389 0.96893698 -0.049994819 0
-1.2724965 1.1216755 0.3501839 0
-1.2415329 1.1061069 0.48406088 0
-1.2355903 1.103119 0.62718225 0
-0.9879328 0.95632726 -0.050409753 0
-1.2822815 1.0997132 0.35000852 0
-1.2323455 1.075388 0.47848347 0
-1.2408378 1.0795248 0.62526488 0
-0.98020458 0.93068588 -0.049765233 0
-1.2955391 1.0794116 0.35058191 0
-1.2364941 1.0515633 0.47681037 0
-1.2421569 1.0542341 0.62202346 0
-0.99506259 0.91584766 -0.050023463 0
-1.303141 1.0564368 0.35008165 0
-1.2316483 1.0238117 0.47270891 0
-1.2302456 1.0231715 0.61407906 0
-1.0053939 0.89880979 -0.050110932 0
