# .PCD v0.7 - Point Cloud Data file format
VERSION 0.7
FIELDS x y z intensity
SIZE 4 4 4 4
TYPE F F F F
COUNT 1 1 1 1
WIDTH 1356
HEIGHT 1
VIEWPOINT 0 0 0 1 0 0 0
POINTS 1356
DATA ascii
-0.52127695 0.18008073 0.17869049 0
-1.2315956 0.11730813 0.43222958 0
-1.2369331 0.11683645 0.56358939 0
-1.122678 0.10717487 -0.049806286 0
-0.51353878 0.16874491 0.10819275 0
-0.51993459 0.16809843 0.17865324 0
-1.243721 0.094940178 0.43584761 0
-1.243785 0.094933711 0.56654608 0
-1.1325822 0.086238675 -0.050237712 0
-0.5108034 0.15700594 0.039896093 0
-0.52490008 0.15540151 0.10955997 0
-0.50746554 0.15738583 0.17662369 0
-1.2411995 0.073876493 0.43578205 0
-1.2420044 0.073784865 0.56670868 0
-1.1150045 0.068471469 -0.049690336 0
-0.51169568 0.14484301 0.039979544 0
-0.51629806 0.14426042 0.10878499 0
-0.50871253 0.14522065 0.17710879 0
-1.2438375 0.052162785 0.43711138 0
-1.2384077 0.052850131 0.56635177 0
-1.1296464 0.046599437 -0.050311461 0
-0.51866037 0.13177226 0.040287543 0
-0.52103144 0.13144173 0.10947087 0
-0.50818437 0.13323264 0.17729941 0
-1.2391313 0.031336997 0.43662164 0
-1.250488 0.029753838 0.57134885 0
-1.1223905 0.027615283 -0.050152924 0
-0.51479191 0.12012931 0.040210862 0
-0.52120763 0.11915243 0.10968019 0
-0.51216823 0.12052879 0.178341 0
-1.2398299 0.0097337561 0.43759334 0
-1.236271 0.010275652 0.56760347 0
-1.119722 0.0079835849 -0.050168689 0
-0.51507884 0.10785287 0.040289681 0
-0.50477391 0.10955495 0.10809755 0
-0.50825107 0.10898063 0.17796972 0
-1.2440606 -0.012553493 0.43955073 0
-1.2485633 -0.01329721 0.57287186 0
-1.1265563 -0.013355355 -0.050538052 0
-0.51990443 0.094709553 0.040538862 0
-0.50696629 0.097014271 0.10855777 0
-0.50078773 0.09811487 0.17697461 0
-1.2340695 -0.032507043 0.43789959 0
-1.2347254 -0.032623898 0.56942213 0
-1.1025923 -0.029075574 -0.049798619 0
-0.50778764 0.084623925 0.040178835 0
-0.51287836 0.08365082 0.10944334 0
-0.51466489 0.083309315 0.17992061 0
-1.2313784 -0.053693574 0.4382059 0
-1.2245388 -0.052386146 0.56728315 0
-1.0943404 -0.047475647 -0.049637001 0
-0.51331121 0.071192689 0.040465292 0
-0.51656771 0.070527591 0.11010585 0
-0.50791872 0.072294049 0.1791123 0
-1.2467071 -0.078594692 0.44327465 0
-1.2446437 -0.078173287 0.57550889 0
-1.0951746 -0.067737438 -0.049815353 0
-0.51885098 0.057549212 0.040759291 0
-0.51531661 0.058317531 0.11024496 0
-0.51517648 0.058348004 0.18091193 0
-1.2313858 -0.09734834 0.44043666 0
-1.2324415 -0.097577848 0.57286823 0
-1.0989906 -0.088819213 -0.050112814 0
-0.51901305 0.044931073 0.040863406 0
-0.50563496 0.048016239 0.1094716 0
-0.50839609 0.047379497 0.18015102 0
-1.2301774 -0.11907259 0.44134727 0
-1.2360209 -0.12042017 0.5756914 0
-1.0900062 -0.106998 -0.049950544 0
-0.50716078 0.035165835 0.040532168 0
-0.51291519 0.03376225 0.11058652 0
-0.51703721 0.032756839 0.18227616 0
-1.2438698 -0.14452739 0.44624555 0
-1.2303705 -0.14123474 0.57546091 0
-1.0904987 -0.12750019 -0.050145522 0
-0.56515431 0.0076687825 0.042779181 0
-0.557868 0.0095435278 0.11590543 0
-0.5630694 0.0082052248 0.1914055 0
-1.2430049 -0.16673942 0.44740909 0
-1.2295755 -0.16328405 0.5769875 0
-1.0767243 -0.1442851 -0.049823016 0
-0.60863984 -0.017544042 0.044510048 0
-0.60938799 -0.017746609 0.12200763 0
-1.2299913 -0.1857845 0.31663248 0
-1.2376487 -0.18785785 0.44746321 0
-1.2380158 -0.18795724 0.58179802 0
-1.0787686 -0.16533445 -0.05009431 0
-1.2321043 -0.20893194 0.3181161 0
-1.2349482 -0.20974053 0.44829237 0
-1.2392502 -0.21096371 0.58424073 0
-1.0630316 -0.18128817 -0.049714085 0
-1.2456312 -0.23570035 0.32180798 0
-1.2386525 -0.23362078 0.45090294 0
-1.2413317 -0.23441915 0.58708704 0
-1.0688493 -0.2036839 -0.05014592 0
-1.2439473 -0.25827035 0.45402905 0
-1.2373707 -0.25622013 0.58794159 0
-1.0591164 -0.22133969 -0.050006229 0
-1.2452623 -0.28195223 0.59304249 0
-1.0583889 -0.241953 -0.050213847 0
-1.0368273 -0.25535575 -0.049643233 0
-1.032449 -0.27465537 -0.049730051 0
-1.0331447 -0.29596367 -0.050020486 0
-1.0266697 -0.31465045 -0.050047241 0
-1.025704 -0.33562776 -0.050295878 0
-1.0121185 -0.3514199 -0.050066311 0
-0.99634206 -0.36607191 -0.049757719 0
-0.99495137 -0.3870528 -0.0500191 0
-0.97682762 -0.40034899 -0.049631938 0
-0.97891402 -0.42318985 -0.0500516 0
-0.96389747 -0.43776605 -0.049801953 0
-0.94628572 -0.45080128 -0.049453653 0
-0.94479549 -0.47218284 -0.049762316 0
-0.93573189 -0.48964295 -0.049775347 0
-0.92536843 -0.50637943 -0.049744107 0
-0.92214882 -0.52726871 -0.050016716 0
-0.92033374 -0.54923058 -0.050360829 0
-0.89462781 -0.55670124 -0.049716234 0
-0.89352965 -0.57929242 -0.05011167 0
-0.8869096 -0.59860915 -0.050286908 0
-0.86063802 -0.60486925 -0.049628705 0
-0.85672653 -0.62601119 -0.049938314 0
-0.83646405 -0.63582569 -0.049546588 0
-0.83725989 -0.66064256 -0.05008683 0
-0.82226932 -0.67413223 -0.049942255 0
-1.2311008 -0.97990721 0.080168858 0
-1.2429589 -0.98877615 0.23085715 0
-0.81181288 -0.69097823 -0.050007962 0
-1.2424726 -1.021616 0.081391796 0
-1.2400846 -1.0197827 0.23262355 0
-0.79711449 -0.7045449 -0.049891122 0
-1.1487147 -0.98159069 0.077872261 0
-0.78823197 -0.72271204 -0.050047901 0
-1.1484195 -1.0139495 0.078584738 0
-0.77064121 -0.73380244 -0.049812924 0
-1.2307426 -1.1155076 0.083155967 0
-0.76295376 -0.75310796 -0.050046213 0
-1.2472079 -1.165254 0.084748589 0
-0.74704254 -0.7654565 -0.049903788 0
-0.73802602 -0.78384846 -0.050097585 0
-1.1990381 -1.1966754 0.084190831 0
-0.72457755 -0.79835969 -0.050089959 0
-0.71187496 -0.81357044 -0.050127733 0
-0.69822502 -0.82790762 -0.0501284 0
-0.68290794 -0.84059829 -0.050054308 0
-0.66049063 -0.84600598 -0.049626008 0
-0.6541779 -0.86775953 -0.05002581 0
-0.64045107 -0.88200921 -0.050057907 0
-0.62655711 -0.89611381 -0.050091024 0
-0.61076117 -0.90812093 -0.050031949 0
-0.59069228 -0.91514367 -0.049747385 0
-0.57434738 -0.92626387 -0.049669303 0
-0.5597766 -0.93945485 -0.049697399 0
-0.54624397 -0.95397455 -0.049794517 0
-0.52795446 -0.96253413 -0.049628209 0
-0.51751429 -0.98119622 -0.049927507 0
-0.50120783 -0.9923225 -0.049894705 0
-0.49190199 -1.0130883 -0.050296109 0
-0.47493708 -1.023482 -0.050246101 0
-0.45283121 -1.0263243 -0.049878888 0
-0.44782805 -1.0543237 -0.050606649 0
-0.42152792 -1.0504841 -0.049975738 0
-0.37888569 -0.98483568 0.50158429 0
-0.40460199 -1.0606546 -0.049955513 0
-0.35184592 -0.97715276 0.49457917 0
-0.39143592 -1.0769244 -0.050199963 0
-0.33168888 -0.97966653 0.49174279 0
-0.37270719 -1.0842204 -0.050076362 0
-0.30979192 -0.97885317 0.48773718 0
-0.35270882 -1.0891607 -0.049866196 0
-0.28818429 -0.97794014 0.48382884 0
-0.33867109 -1.1043842 -0.050089259 0
-0.27844507 -0.99749452 0.48786828 0
-0.32087177 -1.113065 -0.050051771 0
-0.25248891 -0.98804349 0.4809275 0
-0.30618191 -1.127555 -0.050258424 0
-0.22744431 -0.97919518 0.47438353 0
-0.28694546 -1.1335367 -0.050129555 0
-0.20677043 -0.97776288 0.4707751 0
-0.26816249 -1.1402309 -0.050039619 0
-0.19095327 -0.98546046 0.4706808 0
-0.25085413 -1.149838 -0.050075132 0
-0.16918822 -0.98083979 0.46610922 0
-0.23189153 -1.1559753 -0.049982298 0
-0.15075333 -0.98252779 0.46398264 0
-0.21563627 -1.167944 -0.050127886 0
-0.13044353 -0.97968894 0.46030006 0
-0.19644912 -1.1734744 -0.050029796 0
-0.11618824 -0.99000174 0.46150669 0
-0.17901768 -1.1829906 -0.05009608 0
-0.10569204 -1.0094528 0.46607244 0
-0.15956683 -1.1876864 -0.049984667 0
-0.073320463 -0.97618037 0.34780717 0
-0.083351746 -1.0007805 0.46055788 0
-0.14390667 -1.2018176 -0.050245181 0
-0.052166715 -0.9684785 0.34397662 0
-0.069157317 -1.0116937 0.46217296 0
-0.12502082 -1.2079587 -0.05020697 0
-0.029613866 -0.9560222 0.14624438 0
-0.034769252 -0.96963578 0.24397525 0
-0.01412986 -0.91513437 0.32778525 0
-0.0530646 -1.0179473 0.46218637 0
-0.10547115 -1.2122084 -0.050106123 0
-0.0078636836 -0.94432431 0.14425182 0
-0.0080801677 -0.94491845 0.23812017 0
0.0059300526 -0.90646738 0.32393003 0
-0.083424345 -1.209121 -0.049737517 0
0.0083972681 -0.94689769 0.14392434 0
0.0053734644 -0.95553309 0.23910666 0
0.021518068 -0.90942746 0.32330325 0
-0.0038727953 -0.98193842 0.44532618 0
-0.069915369 -1.2306306 -0.050307363 0
0.027107047 -0.94195205 0.14276902 0
0.025678264 -0.94620329 0.23632661 0
0.025801318 -0.9458372 0.33173522 0
0.012996541 -0.98393625 0.4441334 0
-0.04702498 -1.2243388 -0.049838513 0
0.036838725 -0.96400255 0.14469309 0
0.037636116 -0.96152717 0.23827763 0
0.023230242 -1.0062469 0.34658062 0
0.021722304 -1.010928 0.45175603 0
-0.028298719 -1.230442 -0.049845353 0
0.027358221 -1.0499097 0.35688871 0
-0.0085204076 -1.2330019 -0.049729079 0
0.067406014 -0.97523767 0.33569896 0
0.0076913699 -1.2479658 -0.050082445 0
0.084921136 -0.97305185 0.33392739 0
0.026457118 -1.2543551 -0.050125305 0
0.10192432 -0.97211367 0.3325496 0
0.046287134 -1.2566888 -0.050027363 0
0.12001176 -0.96636361 0.32996601 0
0.065208092 -1.2625194 -0.050067302 0
0.08329989 -1.2721388 -0.050254587 0
0.10540394 -1.2636636 -0.049789052 0
0.12339233 -1.274018 -0.050020523 0
0.14314462 -1.2758855 -0.049951386 0
-0.065079108 -2.3841114 0.10220879 0
0.16346259 -1.2742534 -0.049764596 0
0.0036380158 -2.1881464 0.094886929 0
0.18395928 -1.2707131 -0.049518432 0
0.032613114 -2.2053268 0.095320001 0
0.20066018 -1.2914844 -0.0501596 0
0.064234033 -2.2068605 0.095200665 0
0.22127542 -1.2868886 -0.049893256 0
0.096051082 -2.2063675 0.095022872 0
0.24170616 -1.2822795 -0.049636193 0
0.12763353 -2.2067926 0.0948928 0
0.26075748 -1.2885195 -0.04977842 0
0.15957393 -2.2031925 0.094632626 0
0.2803452 -1.2903414 -0.049770605 0
0.19109797 -2.202013 0.09447404 0
0.29947129 -1.2975539 -0.049964786 0
0.22238877 -2.2023118 0.094382823 0
0.31897077 -1.3015546 -0.050052445 0
0.25334719 -2.2063725 0.09444046 0
0.33868724 -1.3030181 -0.050058082 0
0.2844457 -2.2088566 0.094455607 0
0.35865316 -1.2993534 -0.049889304 0
0.31671616 -2.1868699 0.093610138 0
0.37897432 -1.2820847 -0.049243614 0
0.34695336 -2.206497 0.094266117 0
0.39780408 -1.3119615 -0.050290808 0
0.37838262 -2.1932542 0.093761735 0
0.41766489 -1.3112017 -0.050252523 0
0.43747181 -1.3008912 -0.049882196 0
0.45708689 -1.2947937 -0.049671125 0
0.47696039 -1.3029587 -0.049978197 0
0.49666581 -1.301648 -0.049955785 0
0.51646096 -1.3022498 -0.050010607 0
0.53641081 -1.3045561 -0.050135374 0
0.55595118 -1.3005103 -0.050041772 0
0.57593286 -1.3019751 -0.050154448 0
0.5943256 -1.2874029 -0.049700644 0
0.61434263 -1.2894404 -0.049851522 0
0.6340391 -1.288157 -0.049892161 0
0.65404046 -1.2887862 -0.050010782 0
0.67421126 -1.2899402 -0.050157692 0
0.69419068 -1.2893151 -0.050249688 0
0.71158528 -1.2740581 -0.049820106 0
0.73128182 -1.2722121 -0.049885195 0
0.75230825 -1.276534 -0.050184369 0
0.77107763 -1.2696344 -0.050083779 0
0.78931218 -1.2607461 -0.04991864 0
0.80917233 -1.2589051 -0.050020583 0
0.82626998 -1.2461679 -0.049730074 0
0.84724027 -1.2483203 -0.049997706 0
0.86490965 -1.2383065 -0.04982413 0
0.88822687 -1.2474439 -0.050372276 0
0.90423471 -1.2320952 -0.050016999 0
0.92165047 -1.2218163 -0.049858347 0
0.94194782 -1.220271 -0.050036911 0
0.96089983 -1.214576 -0.050068632 0
0.98207724 -1.2147979 -0.050334919 0
0.99787861 -1.2005585 -0.050059289 0
0.92526168 -1.0123895 0.46130416 0
1.015676 -1.1918185 -0.050001383 0
0.94082153 -1.0048931 0.46087724 0
1.0327383 -1.1814057 -0.049887154 0
0.95839828 -1.0023322 0.46229637 0
1.0475935 -1.1660558 -0.049588773 0
0.97294784 -0.99245209 0.46115249 0
1.0688769 -1.1656624 -0.049880449 0
0.99123216 -0.9911713 0.46320015 0
1.0901873 -1.1648279 -0.050166987 0
1.0076168 -0.985385 0.46369377 0
1.107742 -1.1556168 -0.050134677 0
1.021819 -0.97491521 0.46254078 0
1.1190552 -1.1337395 -0.049607158 0
1.0451254 -0.98317844 0.46838987 0
1.1423759 -1.1363734 -0.050062981 0
1.0629175 -0.9795745 0.46995938 0
1.1592535 -1.1259789 -0.05000877 0
1.0823259 -0.97880048 0.47268549 0
1.1816953 -1.1259857 -0.050384589 0
1.100957 -0.97614294 0.4748103 0
1.1939431 -1.1070782 -0.050002191 0
1.1339463 -0.99901062 0.05758933 0
1.1297212 -0.9914003 0.16036057 0
1.1236112 -0.9803949 0.26276872 0
1.1299636 -0.99183685 0.37257928 0
1.1289577 -0.99002522 0.4833329 0
1.209224 -1.0940121 -0.049863588 0
1.144308 -0.9804768 0.057194442 0
1.13826 -0.969899 0.15879785 0
1.1432538 -0.97863299 0.26423091 0
1.1447663 -0.98127836 0.37208626 0
1.1518537 -0.99367374 0.48812976 0
1.2280498 -1.0871555 -0.049989123 0
1.1664979 -0.98258191 0.057657003 0
1.1659145 -0.98159069 0.16137615 0
1.163885 -0.9781428 0.26602161 0
1.1604892 -0.97237343 0.37213412 0
1.1658175 -0.98142594 0.48693645 0
1.2469927 -1.0803152 -0.050126165 0
1.2608579 -1.0651361 -0.049923521 0
1.2808114 -1.0597197 -0.050140541 0
1.2926253 -1.0416591 -0.049829558 0
1.3075991 -1.0286536 -0.049740218 0
1.3224012 -1.015506 -0.049652074 0
1.3433932 -1.0111282 -0.049956009 0
1.3604929 -1.0010747 -0.050023135 0
1.3781106 -0.99162513 -0.050127469 0
1.3921323 -0.97739667 -0.050027169 0
1.4050611 -0.96189898 -0.049876031 0
1.2057195 -0.71054453 0.050422866 0
1.2094088 -0.71519649 0.14036138 0
1.4253111 -0.9555617 -0.050152443 0
1.2029467 -0.68231577 0.049575184 0
1.214071 -0.69598562 0.13906565 0
1.4312944 -0.9318282 -0.049634483 0
1.2116532 -0.66876495 0.049399588 0
1.2076401 -0.66395843 0.13597006 0
1.4575061 -0.93226773 -0.050250746 0
1.2007775 -0.63253856 0.048161302 0
1.201539 -0.63342762 0.13304126 0
1.465312 -0.91109532 -0.049862385 0
1.2107657 -0.62137836 0.048094004 0
1.20674 -0.61679649 0.1320574 0
1.4855025 -0.90407032 -0.050154194 0
1.2041118 -0.59181839 0.047147676 0
1.2051772 -0.59300059 0.13003524 0
1.4989653 -0.88945824 -0.050092872 0
1.5104638 -0.87283224 -0.049940035 0
1.5291773 -0.86377853 -0.050169505 0
1.541836 -0.84841746 -0.050095722 0
1.5483115 -0.82707626 -0.049723752 0
1.5681759 -0.81886464 -0.050030157 0
1.5879848 -0.81030172 -0.050335351 0
1.590292 -0.78557211 -0.049798805 0
1.6118687 -0.77838153 -0.050201423 0
1.6195911 -0.75886935 -0.049950968 0
1.6278479 -0.74003285 -0.049739584 0
1.6522099 -0.73457563 -0.050284587 0
1.6608931 -0.71610779 -0.050111093 0
1.6689024 -0.6972667 -0.049919374 0
1.6900129 -0.68851936 -0.050327018 0
1.6930362 -0.66605955 -0.049933195 0
1.7066565 -0.65155596 -0.050021347 0
1.7155745 -0.63368136 -0.049911812 0
1.7322901 -0.62120926 -0.050149836 0
1.745172 -0.60598999 -0.050228413 0
1.7540476 -0.58811659 -0.050144326 0
1.7580212 -0.56723404 -0.049863823 0
1.760411 -0.54561341 -0.049530271 0
1.7710202 -0.52913547 -0.049551673 0
1.7957441 -0.5207659 -0.050163019 0
1.8034848 -0.50239998 -0.050079692 0
1.8163078 -0.48685643 -0.050212819 0
1.81829 -0.46549347 -0.04991556 0
1.8268157 -0.44770423 -0.049893335 0
1.8425486 -0.43349621 -0.050167304 0
1.8386717 -0.40967014 -0.049670346 0
1.8484523 -0.39256385 -0.049725648 0
1.8675174 -0.37957767 -0.050152402 0
1.8801677 -0.36347792 -0.050333586 0
1.8721899 -0.33859649 -0.049723249 0
1.8852898 -0.32269362 -0.049939729 0
1.8950299 -0.30531481 -0.050034113 0
1.9021068 -0.28686258 -0.050034866 0
1.9156475 -0.27073863 -0.05028978 0
1.92028 -0.25133315 -0.050214678 0
1.9148985 -0.2286496 -0.049772341 0
1.922218 -0.21033756 -0.049818397 0
1.9302734 -0.19221269 -0.049900375 0
1.9383645 -0.1740347 -0.049991876 0
1.9386901 -0.15363131 -0.049803842 0
1.9571333 -0.13814522 -0.050294917 0
1.9582845 -0.11796559 -0.050155196 0
1.9560636 -0.097083993 -0.049901508 0
1.9622823 -0.078272916 -0.049966935 0
1.9765443 -0.061107021 -0.050334305 0
1.9734805 -0.040248733 -0.05007812 0
1.9770927 -0.020803671 -0.050074451 0
1.9621931 0.0018194212 -0.049409103 0
1.9747571 0.019611809 -0.049748149 0
1.9789407 0.038871069 -0.049792312 0
1.9793584 0.058665697 -0.04970951 0
1.9884427 0.077363007 -0.049947437 0
1.9894123 0.09710405 -0.049902137 0
1.9923899 0.11662594 -0.049937814 0
1.9922395 0.13643281 -0.049870215 0
1.9983552 0.15576039 -0.050035853 0
2.0031714 0.17528181 -0.050163619 0
2.0036128 0.1950895 -0.050143752 0
1.9899896 0.21532921 -0.049630433 0
1.9955516 0.23484752 -0.049811397 0
2.005579 0.25446847 -0.050160553 0
2.0050781 0.27427253 -0.050142661 0
1.9903591 0.29379854 -0.049625982 0
1.9983442 0.313678 -0.049928851 0
2.0012684 0.33355126 -0.050059974 0
1.9987077 0.35320914 -0.050003998 0
2.000596 0.3731392 -0.050116051 0
2.0007601 0.39301026 -0.05017544 0
1.9995567 0.41279703 -0.050194822 0
1.985059 0.4311724 -0.049745824 0
1.9964405 0.45234242 -0.050235026 0
1.9910035 0.47162709 -0.050128914 0
1.9868795 0.49103072 -0.050078731 0
1.9856552 0.51086193 -0.050142094 0
1.9750117 0.52912492 -0.049873438 0
1.9713137 0.54848081 -0.049864642 0
1.9795907 0.5702008 -0.050300486 0
1.9590635 0.5861662 -0.049696509 0
1.968315 0.60836828 -0.050187644 0
1.9537131 0.62527049 -0.04981526 0
1.9522674 0.64520192 -0.049933739 0
1.9437537 0.6633569 -0.049800877 0
1.9436888 0.68376273 -0.049989045 0
1.9343189 0.70160097 -0.049841445 0
1.9270307 0.71996826 -0.049779344 0
1.9330554 0.74253523 -0.050224476 0
1.9214592 0.75957578 -0.050019179 0
1.9095187 0.77634698 -0.049808059 0
1.90442 0.79543185 -0.049863655 0
1.8942801 0.81267089 -0.049736429 0
1.8963925 0.83458972 -0.050086319 0
1.8883038 0.85265571 -0.050055783 0
1.8783042 0.86990142 -0.049959909 0
1.8656951 0.88594508 -0.049770392 0
1.857114 0.9036532 -0.049745299 0
1.8559179 0.92477173 -0.050019469 0
1.8366076 0.93742484 -0.049588624 0
1.8330913 0.95755953 -0.049790569 0
1.8306941 0.9784292 -0.050048817 0
1.8172886 0.99371022 -0.049875155 0
1.8064929 1.0102723 -0.049814109 0
1.7934554 1.0255346 -0.04966943 0
1.7981143 1.0508752 -0.050260674 0
1.7823756 1.0646116 -0.050022967 0
1.765615 1.0775319 -0.049747895 0
1.7615355 1.098183 -0.050011937 0
1.7430967 1.1097964 -0.049679074 0
1.7425412 1.1329898 -0.050115719 0
1.730837 1.1489633 -0.050087061 0
1.7214187 1.1665161 -0.050166488 0
1.6985768 1.1744919 -0.049666096 0
1.6907359 1.1931058 -0.049831122 0
1.6885099 1.2161245 -0.050259694 0
1.6723458 1.2286891 -0.050075121 0
1.6714098 1.2532465 -0.050591502 0
1.6460441 1.2582699 -0.050000053 0
1.6283615 1.2692086 -0.049763534 0
1.6258754 1.2930305 -0.050247166 0
1.6123058 1.3075122 -0.050222252 0
1.6021376 1.3250589 -0.050369713 0
1.5808547 1.3324143 -0.049987715 0
1.5653546 1.3449175 -0.049890958 0
1.5474297 1.3549578 -0.049679715 0
1.5401127 1.375433 -0.050008576 0
1.5195502 1.3826189 -0.049676407 0
1.5081427 1.3991276 -0.049819577 0
1.4965069 1.4155425 -0.049963564 0
1.0478995 0.93016577 0.30762458 0
1.478705 1.4252715 -0.04979169 0
1.4410616 1.3834995 0.05978417 0
1.4330434 1.374602 0.16661583 0
1.4398714 1.3821789 0.27737558 0
1.0558159 0.95600247 0.31574929 0
1.463864 1.4381914 -0.049784061 0
1.4152529 1.3828639 0.059154697 0
1.418303 1.3863353 0.16650479 0
1.4109318 1.3779458 0.27333567 0
1.0507755 0.96802652 0.31762308 0
1.4497787 1.4519902 -0.049826659 0
1.3923026 1.3848873 0.058672339 0
1.3965687 1.3898679 0.16526093 0
1.3891925 1.3812561 0.27121741 0
1.0537626 0.98964334 0.3237069 0
1.4322827 1.461756 -0.049689535 0
1.3764533 1.3948894 0.058579616 0
1.3694371 1.3864861 0.16310054 0
1.3668504 1.383388 0.26890907 0
1.0578172 1.0132605 0.33057767 0
1.4218998 1.4801139 -0.049959492 0
1.3406396 1.3802598 0.057363298 0
1.3440956 1.3845066 0.16120405 0
1.3504037 1.3922582 0.26825678 0
1.056831 1.0315101 0.33505404 0
1.405323 1.4909734 -0.049891081 0
1.3202215 1.383667 0.05700158 0
1.318687 1.381732 0.15926138 0
1.3124344 1.3738481 0.26137954 0
1.0543269 1.0483944 0.33891153 0
1.389187 1.5023293 -0.049855199 0
1.2980793 1.3844303 0.056535732 0
1.2943389 1.3795902 0.15746708 0
1.2996999 1.3865275 0.26176441 0
1.051504 1.0653466 0.34277356 0
1.3757 1.5171673 -0.049984381 0
1.2786076 1.3881994 0.056221124 0
1.2826928 1.393626 0.15790738 0
1.2775772 1.3868307 0.25938812 0
1.040584 1.0720329 0.34233895 0
1.3587475 1.5274385 -0.049917754 0
1.2463534 1.3741667 0.055132192 0
1.2503397 1.3796028 0.15462393 0
1.250769 1.3801882 0.25554293 0
1.0304893 1.0797927 0.34240818 0
1.3444113 1.541298 -0.050018553 0
1.2539275 1.41459 0.056459889 0
1.2449651 1.4020396 0.15623878 0
1.2432581 1.3996494 0.25759223 0
1.0214355 1.0890223 0.34312987 0
1.3293638 1.5542645 -0.050087523 0
1.2492613 1.4390537 0.057077885 0
1.2431684 1.4302902 0.15860942 0
1.2509917 1.4415425 0.26457182 0
1.0159829 1.1035306 0.34603068 0
1.3116568 1.5633937 -0.049998689 0
1.2476764 1.4688532 0.057923205 0
1.2468524 1.4676356 0.16214308 0
1.2418525 1.4602476 0.26642135 0
1.0015905 1.1052248 0.34378684 0
1.2926306 1.5704112 -0.049829897 0
1.2457296 1.4991924 0.058785468 0
1.2441679 1.4968209 0.16459155 0
1.2392666 1.4893785 0.27053192 0
1.1653701 1.377167 0.34594357 0
0.99844873 1.1236976 0.34831795 0
1.2802604 1.5876037 -0.05010407 0
1.2454102 1.5332049 0.0597976 0
1.2491156 1.5389886 0.16868164 0
1.2268643 1.504256 0.27156368 0
1.1517947 1.3870772 0.34617725 0
0.97933137 1.1178734 0.34322828 0
1.259692 1.5920088 -0.049844801 0
1.2469552 1.5715654 0.060984883 0
1.2502748 1.5768936 0.17219213 0
1.2092862 1.5111039 0.27091444 0
1.1260628 1.377524 0.34061006 0
0.97470772 1.1345878 0.34710786 0
1.2479119 1.6105771 -0.050189514 0
1.1908439 1.5163556 0.26998046 0
1.1131752 1.3881216 0.34119278 0
0.96710479 1.1469541 0.34928945 0
0.8387813 0.93508732 0.47103772 0
1.2288764 1.6173038 -0.050047293 0
1.1766334 1.5285457 0.27055416 0
1.0922052 1.3851064 0.33778942 0
0.96028554 1.1609814 0.35213324 0
0.83816779 0.95350939 0.48023158 0
1.2134249 1.6301036 -0.050165739 0
1.1590612 1.5350236 0.26997435 0
1.0715131 1.3819057 0.33443376 0
0.94681323 1.1638105 0.35069814 0
0.85202283 0.99802607 0.35590622 0
0.83906358 0.97536087 0.41577971 0
0.83676225 0.97133595 0.48895794 0
1.1961588 1.6398131 -0.050165147 0
1.1472797 1.5517712 0.27156281 0
1.0556779 1.3867761 0.33353314 0
0.93264276 1.1651627 0.34877577 0
0.84507775 1.0074389 0.35789004 0
0.84189624 1.0017083 0.42796072 0
0.8431834 1.0040268 0.50771821 0
1.1844057 1.65976 -0.050588578 0
1.1257718 1.550941 0.26957002 0
1.0357202 1.3838139 0.33042657 0
0.92543298 1.1791308 0.35170186 0
0.85161227 1.0421267 0.37178892 0
0.84468341 1.0292672 0.44072762 0
0.844495 1.0289176 0.52104247 0
1.1566241 1.6496927 -0.049806118 0
1.1139537 1.5680554 0.27129728 0
1.0158999 1.3804578 0.32729957 0
0.91697228 1.1911883 0.3539257 0
0.8504349 1.0638883 0.37951925 0
0.84205562 1.047857 0.44832724 0
0.83707476 1.0383275 0.52390891 0
1.140498 1.6614118 -0.049914658 0
1.0976305 1.5768193 0.27135539 0
1.0013757 1.3868756 0.32705966 0
0.89748955 1.1818725 0.34820357 0
0.85378426 1.095627 0.39183825 0
0.84235024 1.0730636 0.45960867 0
0.83377451 1.0561408 0.53240639 0
1.125615 1.6758431 -0.050138503 0
1.0812435 1.5854788 0.27143359 0
0.98185682 1.3830736 0.32396853 0
0.89393795 1.204023 0.35427055 0
0.84834987 1.1111811 0.39659667 0
0.84008241 1.094344 0.46863002 0
0.83946198 1.0930805 0.55351561 0
1.1078986 1.6846906 -0.050147705 0
0.96525604 1.3847038 0.32250017 0
0.87538785 1.1957051 0.34909356 0
0.83706629 1.1151123 0.39602947 0
0.83888733 1.1189421 0.47945145 0
0.8404308 1.1221881 0.56930852 0
1.0879802 1.6887755 -0.04997848 0
0.9472701 1.382983 0.32015806 0
0.86581391 1.2059617 0.35083476 0
0.84085935 1.1517302 0.41042799 0
0.83561593 1.1403352 0.48845345 0
0.84048778 1.1509228 0.5847587 0
1.0694125 1.69561 -0.049927473 0
0.9273262 1.3762996 0.31650665 0
0.85155118 1.2060105 0.34889317 0
0.83988219 1.1797868 0.42084455 0
0.84229583 1.1852108 0.51028776 0
0.83954275 1.179024 0.59971094 0
1.0529693 1.7073027 -0.050074648 0
0.91442537 1.3850902 0.31724226 0
0.84729922 1.2289745 0.35532588 0
0.8406226 1.2134466 0.43373582 0
0.83840239 1.2082831 0.52008349 0
0.83938342 1.2105646 0.61681056 0
1.0347404 1.7149727 -0.050073583 0
0.89850438 1.3868014 0.3160634 0
0.8484596 1.2662513 0.36690021 0
0.84391421 1.2553022 0.45022973 0
0.83831853 1.2418231 0.53552556 0
0.84218752 1.2511429 0.63962543 0
1.0147536 1.7182592 -0.049912795 0
0.88052344 1.383062 0.31344777 0
0.84644663 1.2979661 0.37641776 0
0.83782697 1.2764411 0.45738259 0
0.84126723 1.285032 0.55610186 0
0.84096873 1.2842867 0.65755373 0
0.99888539 1.7319117 -0.050159123 0
0.85924351 1.3700638 0.30837482 0
0.85221481 1.3518507 0.39380422 0
0.84004122 1.3203058 0.47462052 0
0.83947963 1.3188505 0.57152224 0
0.84134537 1.3236851 0.67938071 0
0.97981155 1.7374434 -0.050102651 0
0.84773195 1.3819281 0.31016549 0
0.84333318 1.370088 0.39843205 0
0.83958763 1.3600061 0.48992634 0
0.84085035 1.363405 0.5926131 0
0.84181565 1.3660033 0.70295006 0
0.96152091 1.7450587 -0.05013454 0
0.8346262 1.3898622 0.31092271 0
0.84143376 1.4089177 0.41035369 0
0.84106708 1.4078912 0.50876445 0
0.84054196 1.4064213 0.6127829 0
0.93997949 1.7432785 -0.049820382 0
0.81729394 1.3857161 0.30846289 0
0.83828121 1.4468826 0.42192829 0
0.83884776 1.4485338 0.52434301 0
0.84098017 1.4547487 0.63567728 0
0.92335469 1.755739 -0.050052978 0
1.0275674 2.0723965 0.34927928 0
0.80088872 1.3836176 0.30662191 0
0.84155518 1.5071856 0.44129276 0
0.84046555 1.5038745 0.54627609 0
0.83922732 1.5001122 0.6569128 0
0.90257281 1.7555672 -0.049819641 0
1.004272 2.0782127 0.34898949 0
0.78210074 1.3733634 0.3026619 0
0.84216827 1.5639306 0.45932508 0
0.83941692 1.5552018 0.56637102 0
0.84259719 1.5652914 0.68847132 0
0.88547564 1.7670605 -0.05003193 0
0.98247743 2.0888815 0.3496702 0
0.7683382 1.3784357 0.30286413 0
0.83933449 1.6139787 0.47495931 0
0.84053111 1.6179489 0.59133387 0
0.86449659 1.7656151 -0.049770795 0
0.96011978 2.0979507 0.35009983 0
0.7522772 1.3756003 0.30101234 0
0.84035712 1.6817193 0.49667439 0
0.83693928 1.6698407 0.61152363 0
0.8462041 1.7732849 -0.049857788 0
0.73761338 1.3771789 0.047194511 0
0.73598218 1.3712286 0.12934212 0
0.73838603 1.3799973 0.21462531 0
0.74140984 1.3910272 0.30405176 0
0.8384369 1.7449526 0.51675528 0
0.83749467 1.7415156 0.64015651 0
0.82832927 1.7828126 -0.050021552 0
0.72395951 1.3823968 0.047248561 0
0.72262692 1.3772844 0.12960011 0
0.72511232 1.3868197 0.2151956 0
0.72773153 1.3968685 0.30459002 0
0.8292129 1.7862027 0.52922076 0
0.83110124 1.7934473 0.66024488 0
0.80761492 1.7813503 -0.04978893 0
0.7100836 1.3868856 0.047281958 0
0.70707166 1.3747039 0.12891984 0
0.70870036 1.3812909 0.21350062 0
0.70843893 1.3802336 0.29926491 0
0.82617509 1.8564168 0.55161369 0
0.82681751 1.8590151 0.68612117 0
0.79244435 1.8028797 -0.050409559 0
0.69147676 1.3712637 0.046584316 0
0.69271773 1.3765687 0.12875386 0
0.69549733 1.3884511 0.21419917 0
0.69400692 1.3820797 0.29886153 0
0.81791717 1.9117708 0.5688765 0
0.76960611 1.7917106 -0.049839996 0
0.67982459 1.3848832 0.046966255 0
0.68187755 1.3941858 0.13034189 0
0.67857075 1.3792017 0.21189588 0
0.68155968 1.3927454 0.3008112 0
0.80546987 1.9542204 0.58173031 0
0.75160754 1.8019016 -0.050061248 0
0.66588271 1.3888055 0.046998985 0
0.6652745 1.3858747 0.12909493 0
0.66669542 1.3927219 0.21383189 0
0.66482139 1.3836913 0.29765832 0
0.79150242 1.9941492 0.59374744 0
0.73061568 1.7975303 -0.049760588 0
0.64762694 1.3706725 0.046235874 0
0.65230525 1.3947357 0.12975395 0
0.65021104 1.3839639 0.21169759 0
0.65117723 1.3889337 0.29828376 0
0.77786666 2.0405686 0.60799468 0
0.71238798 1.8072276 -0.049980674 0
0.63670015 1.3899426 0.04683999 0
0.63611197 1.3866996 0.12858377 0
0.6359458 1.3857837 0.21154504 0
0.63552588 1.3834685 0.29617599 0
0.76293904 2.0859277 0.62190908 0
0.69206756 1.805452 -0.049793251 0
0.62031907 1.3794042 0.046368621 0
0.62174654 1.3878804 0.12844282 0
0.62116081 1.3844023 0.21084027 0
0.62237215 1.3915954 0.29764029 0
0.74533558 2.1217616 0.63264388 0
0.67434072 1.8195173 -0.050187781 0
0.60493279 1.3731142 0.046059132 0
0.60775346 1.3912559 0.12856053 0
0.60815287 1.3938247 0.21214274 0
0.60637456 1.3823875 0.29466876 0
0.7272892 2.1600597 0.64426202 0
0.65291595 1.8096454 -0.049726434 0
0.59218192 1.3837744 0.046368454 0
0.59220892 1.3839635 0.1275391 0
0.592273 1.3844131 0.2100417 0
0.59135759 1.3779942 0.29299533 0
0.70795941 2.1956136 0.65501362 0
0.63349497 1.8127084 -0.04974122 0
0.57748908 1.3811839 0.046206024 0
0.57856166 1.3894484 0.12792525 0
0.57615656 1.3709168 0.20723763 0
0.57760608 1.3820854 0.29355615 0
0.6873427 2.2276046 0.66463405 0
0.6144824 1.819379 -0.049894452 0
0.56290245 1.3785348 0.046048388 0
0.5627389 1.3771369 0.12640384 0
0.56488156 1.3954499 0.21137992 0
0.5637269 1.3855814 0.29400772 0
0.66870022 2.2827687 0.68208951 0
0.59609711 1.8331388 -0.050310556 0
0.5522759 1.4128191 0.13009176 0
0.55155402 1.405895 0.21298799 0
0.55284739 1.4183005 0.30199978 0
0.64468873 2.2992148 0.68664956 0
0.57573295 1.8285357 -0.050076157 0
0.5518977 1.568168 0.14670393 0
0.55245799 1.5742881 0.24322948 0
0.55204153 1.5697386 0.34043339 0
0.62107682 2.3238566 0.69404352 0
0.55549538 1.8234748 -0.049834792 0
0.6027711 2.4229541 0.23870152 0
0.59917819 2.377394 0.38826388 0
0.59805071 2.363097 0.5431143 0
0.53613812 1.8291817 -0.049988013 0
0.57451755 2.408901 0.39360961 0
0.5734309 2.3924878 0.55013895 0
0.51609796 1.8242177 -0.049768336 0
0.5484708 2.4285662 0.39686915 0
0.54817355 2.4230168 0.55752891 0
0.49672273 1.8317827 -0.050005469 0
0.52173662 2.4426711 0.39918259 0
0.5221386 2.4524894 0.56472659 0
0.47679994 1.8260412 -0.049775984 0
0.45654765 1.1114196 0.3568489 0
0.45653626 1.1110175 0.42978081 0
0.45716521 1.8285114 -0.049848706 0
0.44595581 1.1164447 0.35883239 0
0.4458499 1.1097177 0.42901281 0
0.43746939 1.8288778 -0.049855147 0
0.43512729 1.0851678 0.41667911 0
0.43514904 1.0920689 0.49686635 0
0.41781637 1.8239046 -0.049679805 0
0.42467931 1.0970981 0.42266491 0
0.42490083 1.0736388 0.48595533 0
0.39823863 1.8209869 -0.049586646 0
0.41407621 1.1023192 0.4253605 0
0.41443324 1.0861187 0.49345344 0
0.37845764 1.8257444 -0.049776435 0
0.35235751 2.5792289 0.42373177 0
0.35249189 2.5753493 0.59595788 0
0.40492761 1.0615839 0.47906837 0
0.35846961 1.831982 -0.050028138 0
0.3225356 2.5924563 0.42633542 0
0.32261878 2.5906959 0.60018188 0
0.3955242 1.0477918 0.47112387 0
0.33928072 1.8218508 -0.049703594 0
0.29246083 2.6037476 0.42865902 0
0.29149145 2.619936 0.60805625 0
0.38617918 1.0386428 0.46600211 0
0.31877589 1.8329856 -0.050148621 0
0.26077783 2.6326632 0.4342401 0
0.26092008 2.6307018 0.61131221 0
0.29928726 1.8284583 -0.050042186 0
0.3555336 1.1682651 0.038387053 0
0.22984453 2.643544 0.43663499 0
0.22949129 2.6476901 0.61626351 0
0.27981144 1.8245382 -0.049966197 0
0.19662505 2.6742973 0.4427045 0
0.19806954 2.6595418 0.62000555 0
0.25919059 1.8314281 -0.050287191 0
0.16718523 2.6631324 0.44125229 0
0.16608803 2.6730509 0.62427974 0
0.34684649 1.0390413 0.46821842 0
0.24064912 1.8195906 -0.04994436 0
0.13493307 2.6763768 0.44430071 0
0.134968 2.6760938 0.62597352 0
0.22182973 1.8115627 -0.049746606 0
0.10313173 2.6831212 0.4462451 0
0.10124095 2.6970046 0.63237172 0
0.20258471 1.8073156 -0.049693499 0
0.068844631 2.7046692 0.45096546 0
0.070555106 2.6931925 0.63251418 0
0.18346094 1.8025346 -0.049629729 0
0.036538735 2.7098289 0.4527801 0
0.037126288 2.7062006 0.63710397 0
0.16427214 1.7983686 -0.049596824 0
0.0046917065 2.7108653 0.45391825 0
0.0022734867 2.7246931 0.6432333 0
0.14180608 1.8117537 -0.050210178 0
-0.029869957 2.7254627 0.45762107 0
-0.028745098 2.7194757 0.64333588 0
0.12416057 1.7989393 -0.049881309 0
-0.090327039 2.8662708 0.10074822 0
-0.088417843 2.8567705 0.29017308 0
-0.062440917 2.727504 0.45910352 0
-0.059169546 2.711225 0.64275092 0
0.10628648 1.7882856 -0.049638551 0
-0.1128545 2.8118744 0.099010088 0
-0.11342902 2.8145578 0.28627723 0
-0.096111253 2.7336681 0.4614259 0
-0.095496789 2.730798 0.64952374 0
0.084737971 1.7945561 -0.050022949 0
-0.14235152 2.7936485 0.098601617 0
-0.1415716 2.7902172 0.28437454 0
-0.12852474 2.7328169 0.46253577 0
-0.12748696 2.728251 0.65064806 0
0.065413728 1.7904087 -0.050035913 0
-0.17501552 2.7897961 0.098733321 0
-0.17411108 2.7860367 0.28473362 0
-0.16046138 2.7292993 0.46323001 0
-0.1616307 2.7341599 0.65410024 0
0.046244636 1.7856003 -0.050033528 0
-0.20964499 2.7932854 0.099151 0
-0.20959188 2.7930763 0.2863833 0
-0.192652 2.7263675 0.46411017 0
-0.19722749 2.744386 0.65881288 0
0.026150482 1.7842461 -0.050167684 0
-0.25449538 2.8338397 0.10095593 0
-0.2513029 2.8218999 0.29051152 0
-0.22849096 2.7365849 0.4675236 0
-0.22912176 2.7389441 0.65952182 0
0.0089574624 1.7722031 -0.049915314 0
-0.26121706 2.7339406 0.46862414 0
-0.26033306 2.730794 0.65962178 0
-0.01092316 1.7699033 -0.050032668 0
-0.29648322 2.7393575 0.47132167 0
-0.29600286 2.7377267 0.66383803 0
-0.028486772 1.7597963 -0.04986814 0
-0.32613516 2.7252679 0.47043201 0
-0.32687658 2.7276728 0.66365528 0
-0.047437862 1.7543646 -0.049886588 0
-0.35854465 2.7201266 0.47130486 0
-0.36088443 2.7273901 0.66619486 0
-0.066172853 1.7482394 -0.049887959 0
-0.39489788 2.7263212 0.4744156 0
-0.3907429 2.7139585 0.66532117 0
-0.086324051 1.7461462 -0.050050762 0
-0.42629486 2.7170317 0.47466865 0
-0.42721987 2.7196732 0.66972065 0
-0.10536988 1.7406746 -0.050095562 0
-0.45730758 2.7065692 0.47477341 0
-0.45613456 2.7033498 0.6682806 0
-0.12343372 1.732512 -0.05004698 0
-0.48573065 2.6892123 0.47362423 0
-0.48562402 2.6889307 0.66745228 0
-0.13887937 1.717775 -0.049754657 0
-0.52170151 2.6914778 0.47634107 0
-0.52165568 2.691361 0.67134053 0
-0.15498282 1.7051891 -0.049551249 0
-0.55019796 2.6743946 0.47539148 0
-0.55004913 2.6740296 0.66992855 0
-0.17928679 1.7123716 -0.050120763 0
-0.57824147 2.6565671 0.47436112 0
-0.58821118 2.680162 0.6751067 0
-0.19810577 1.7060058 -0.050177369 0
-0.61722434 2.6640921 0.47838506 0
-0.61413145 2.657022 0.67229521 0
-0.21117152 1.6868222 -0.049741272 0
-0.64244187 2.6398239 0.47623524 0
-0.63842463 2.6309469 0.66873682 0
-0.22872944 1.6779599 -0.049715873 0
-0.67015123 2.6215787 0.47533494 0
-0.67191803 2.6253555 0.67101294 0
-0.24969234 1.676178 -0.049979802 0
-0.69924772 2.6064808 0.47512928 0
-0.69812596 2.6041594 0.66900045 0
-0.2633 1.6592278 -0.049650732 0
-0.73257303 2.5999124 0.476715 0
-0.73289561 2.600559 0.67208588 0
-0.28524643 1.6589799 -0.049997009 0
-0.75685191 2.5752723 0.47473037 0
-0.7564404 2.5744729 0.66886443 0
-0.29890525 1.6425884 -0.049704261 0
-0.78808808 2.5643218 0.4755896 0
-0.78208125 2.5530033 0.66704029 0
-0.3228327 1.6453943 -0.050197661 0
-0.80504441 2.5270026 0.47111499 0
-0.8114326 2.538682 0.66737574 0
-0.33444613 1.62563 -0.049781989 0
-0.61677969 2.1267178 0.082315706 0
-0.84082222 2.5243504 0.47382882 0
-0.83503103 2.5140722 0.66480863 0
-0.35451466 1.6210176 -0.049994666 0
-0.61753857 2.0743902 0.080707334 0
-0.86112559 2.4942598 0.47093517 0
-0.8625437 2.4967041 0.66444594 0
-0.37122381 1.6104804 -0.049973059 0
-0.61849594 2.0245998 0.07919272 0
-0.88894951 2.4775422 0.47088221 0
-0.88527417 2.4713869 0.66182101 0
-0.39027286 1.6037754 -0.050120633 0
-0.61485243 1.9693526 0.07743822 0
-0.91663587 2.4606047 0.47085625 0
-0.91661501 2.4605708 0.66360319 0
-0.40857321 1.5956845 -0.050220951 0
-0.61993575 1.9302279 0.076348625 0
-0.94800031 2.4494863 0.47214547 0
-0.93506944 2.4290195 0.65926051 0
-0.41920477 1.5756518 -0.049823478 0
-0.61542237 1.8777322 0.074683569 0
-0.95551527 2.4013112 0.46556064 0
-0.9603194 2.4087071 0.65837198 0
-0.44065732 1.5723269 -0.050145581 0
-0.61424482 1.8323413 0.073307022 0
-0.98244059 2.383857 0.46560243 0
-0.97814822 2.3774278 0.65420866 0
-0.45736927 1.561684 -0.050165303 0
-0.62456608 1.8054234 0.072717652 0
-1.0007737 2.3538582 0.46297482 0
-1.000995 2.3541808 0.65256363 0
-0.46919793 1.5440814 -0.049890384 0
-0.61346233 1.7488149 0.070831969 0
-1.017915 2.3227961 0.46013993 0
-1.0278934 2.336957 0.65287316 0
-0.48628879 1.5340759 -0.04995428 0
-0.61903274 1.7175107 0.070038021 0
-0.62389696 1.7242323 0.19966123 0
-1.0401486 2.2994373 0.45904186 0
-1.0463954 2.3080697 0.64961857 0
-0.075575307 0.96652383 0.43965405 0
-0.50462258 1.5256624 -0.050099116 0
-0.61797833 1.6782231 0.068884641 0
-0.61998951 1.6809298 0.19566 0
-1.0676614 2.2834322 0.45964834 0
-1.0637032 2.278105 0.6460647 0
-0.092525199 0.9710381 0.44649068 0
-0.51494998 1.5065786 -0.04977655 0
-0.61974311 1.6439672 0.067945465 0
-0.61878431 1.6427102 0.19230056 0
-1.0825559 2.2507362 0.45655298 0
-1.0778445 2.2445593 0.64139706 0
-0.095838144 0.95710349 0.44191748 0
-0.53108966 1.4952831 -0.049809791 0
-0.62225294 1.611732 0.06708961 0
-0.61367738 1.6007779 0.18839906 0
-1.1027528 2.2255061 0.45517972 0
-1.1019678 2.2245035 0.64111149 0
-0.10902615 0.95615339 0.44557613 0
-0.54316854 1.4788905 -0.049619205 0
-0.61541235 1.5688162 0.065737374 0
-0.61685586 1.570613 0.18607129 0
-1.1111687 2.18591 0.45052761 0
-1.1126876 2.1878004 0.63547391 0
-0.13258417 0.96781462 0.45747203 0
-0.56585461 1.4755725 -0.05003855 0
-0.61732662 1.5380154 0.064927593 0
-0.62015069 1.5414414 0.1838631 0
-1.1260692 2.155194 0.44792709 0
-1.1275742 2.1570196 0.63178003 0
-0.1392699 0.9580633 0.45579916 0
-0.57393467 1.4545201 -0.049646486 0
-0.61212826 1.4996836 0.06375815 0
-0.61483467 1.5028838 0.18031606 0
-1.1413059 2.1254301 0.44556776 0
-1.1471275 2.132314 0.63013887 0
-0.15552957 0.95976061 0.46166515 0
-0.60056674 1.4552704 -0.050285358 0
-0.61871409 1.4761895 0.063274056 0
-0.62087524 1.4786807 0.17876285 0
-1.1536653 2.092845 0.44255444 0
-1.1628289 2.1034081 0.62714368 0
-0.61233294 1.4386314 -0.050116356 0
-0.62829566 1.4565709 0.062973656 0
-0.63873541 1.4683033 0.17919192 0
-1.1658943 2.0607388 0.43966019 0
-1.1713732 2.0668962 0.62158436 0
-0.62154698 1.4193684 -0.049825687 0
-0.6614033 1.46304 0.063936517 0
-0.65273106 1.4535376 0.17902 0
-1.1771102 2.0281148 0.43664345 0
-1.1832691 2.0348635 0.61754489 0
-0.63488531 1.4048069 -0.049767122 0
-0.50800133 1.2692447 0.055138148 0
-0.68647373 1.4599237 0.18198539 0
-1.1981211 2.0065653 0.43636128 0
-1.1879667 1.9957165 0.61102355 0
-0.64892089 1.391027 -0.049754787 0
-0.49857533 1.2343988 0.05400373 0
-0.71633911 1.4612625 0.18429786 0
-1.2014506 1.9666455 0.4315491 0
-1.204723 1.9700547 0.60921276 0
-0.66184175 1.3761227 -0.049694765 0
-0.51366752 1.2255971 0.054153971 0
-0.74492717 1.4605266 0.18638268 0
-1.2165438 1.9396271 0.42995235 0
-1.2034012 1.926276 0.60096848 0
-0.68206024 1.3685026 -0.050011709 0
-0.53075451 1.2186185 0.0544082 0
-0.77764928 1.4631937 0.18906842 0
-1.2193092 1.9007039 0.42533284 0
-1.2204473 1.9018314 0.59962195 0
-0.69913208 1.357528 -0.050173424 0
-0.54004169 1.2038524 0.054276586 0
-0.80862617 1.4632952 0.1914559 0
-1.2247468 1.8652523 0.42156288 0
-1.2197056 1.8603827 0.59209174 0
-0.69841349 1.329635 -0.049467515 0
-0.56173956 1.2009 0.054764371 0
-0.83531511 1.4585845 0.19318196 0
-1.2205312 1.821425 0.415557 0
-1.2219421 1.8227538 0.58587819 0
-0.71507442 1.3183759 -0.049629305 0
-0.8771584 1.4672384 0.069486126 0
-0.86452746 1.4556378 0.19526513 0
-1.2296879 1.7910116 0.41303056 0
-1.2276495 1.7891394 0.58110356 0
-0.23489453 0.87736505 0.38120717 0
-0.73063481 1.3059739 -0.049743373 0
-0.90476298 1.4619021 0.070088178 0
-0.90985084 1.4664582 0.1996545 0
-1.2439377 1.7656263 0.41185871 0
-1.2385778 1.7608266 0.57831627 0
-0.23254056 0.85994041 0.3756386 0
-0.75164831 1.2982217 -0.050122071 0
-0.94159412 1.4640527 0.071124129 0
-1.2428563 1.7270675 0.40710613 0
-1.2323115 1.7178614 0.5698573 0
-0.23260088 0.84507084 0.37157914 0
-0.75672698 1.2765527 -0.049754295 0
-0.97103488 1.458949 0.07180129 0
-1.2379742 1.6861395 0.40161976 0
-1.2394763 1.6874179 0.56617051 0
-0.23404904 0.83170432 0.36841986 0
-0.26122463 0.8548333 0.46181989 0
-0.76976717 1.2618215 -0.049772382 0
-1.0077641 1.4592664 0.072812505 0
-1.2454368 1.6564423 0.39920455 0
-1.2429144 1.6543498 0.56141448 0
-0.25148618 0.83184975 0.37398601 0
-0.7764709 1.2419465 -0.049507923 0
-1.0390396 1.4542522 0.073562913 0
-1.2444466 1.6203386 0.39494058 0
-1.2421628 1.618492 0.55546921 0
-0.24996562 0.81622899 0.3694008 0
-0.7995187 1.2351834 -0.050000396 0
-1.0871708 1.461841 0.075074941 0
-1.2483341 1.5888306 0.39194351 0
-1.2443449 1.5856874 0.55068296 0
-0.26867986 0.81690514 0.37563127 0
-0.80989015 1.2182462 -0.049921427 0
-1.1253734 1.4604576 0.076121204 0
-1.2529643 1.5584152 0.38923484 0
-1.23211 1.5424043 0.541439 0
-0.26402289 0.79915816 0.36959794 0
-0.25296474 0.79066825 0.43841314 0
-0.8235594 1.2038412 -0.04999977 0
-1.1664541 1.4603006 0.077286765 0
-1.2435138 1.5179354 0.38346708 0
-1.2357335 1.5121162 0.53750861 0
-0.26908249 0.78913438 0.36876097 0
-0.27625173 0.79449648 0.4488565 0
-0.83322823 1.1864498 -0.04990875 0
-1.2076272 1.4591887 0.078445852 0
-1.2489456 1.489288 0.38118687 0
-1.2344851 1.4787539 0.5321973 0
-1.2285874 1.4744576 0.68973786 0
-0.26826042 0.77488685 0.36498374 0
-0.27969086 0.78321362 0.44688827 0
-0.84011555 1.16716 -0.049706418 0
-1.2634171 1.4674385 0.080235057 0
-1.2493598 1.4574665 0.37789762 0
-1.2386355 1.449859 0.52875388 0
-1.2404245 1.4511281 0.68840498 0
-0.27809322 0.76847714 0.36674032 0
-0.27497977 0.76626855 0.44002539 0
-0.86103165 1.1577284 -0.0501251 0
-1.2988549 1.460094 0.081121214 0
-1.2462339 1.4237534 0.37394914 0
-1.2444664 1.4225327 0.52597475 0
-1.239418 1.4190463 0.68200999 0
-0.28115606 0.75726002 0.43997243 0
-0.86629856 1.1374183 -0.049872205 0
-1.2722541 1.4102907 0.079335183 0
-1.2732682 1.4109725 0.22688752 0
-1.251152 1.3961065 0.37187457 0
-1.2368343 1.3864825 0.5191865 0
-1.2489991 1.3946594 0.68007576 0
-0.28962976 0.74979693 0.44137362 0
-0.87852895 1.1218719 -0.049929399 0
-1.272128 1.3793035 0.078720056 0
-1.2614477 1.372318 0.22353302 0
-1.2563993 1.3690162 0.36996329 0
-1.2478546 1.3634276 0.51827925 0
-1.2383245 1.3571945 0.67022765 0
-0.29900104 0.74283451 0.44335636 0
-0.8868717 1.1038007 -0.049829945 0
-1.2698836 1.3474779 0.078036785 0
-1.2733213 1.349665 0.22328559 0
-1.2537004 1.3371819 0.36644194 0
-1.2373987 1.3268106 0.51097316 0
-1.2414358 1.3293791 0.66608089 0
-0.30696756 0.73485804 0.44454244 0
-0.89793658 1.0874923 -0.049855135 0
-1.295753 1.3336073 0.078555956 0
-1.2902054 1.3301753 0.22370946 0
-1.2585981 1.3106209 0.36464426 0
-1.2357426 1.296481 0.50650263 0
-1.2398252 1.2990068 0.66025662 0
-0.90322781 1.0676875 -0.049648199 0
-1.306535 1.3102313 0.078449972 0
-1.299189 1.3058136 0.22317027 0
-1.2402279 1.2703551 0.3580341 0
-1.2391063 1.2696805 0.50367451 0
-1.2369951 1.2684109 0.65415192 0
-0.9142648 1.0514057 -0.049690712 0
-1.3282776 1.2933422 0.078810208 0
-1.3282337 1.2933166 0.22517045 0
-1.2440934 1.2441475 0.35622343 0
-1.2383822 1.24081 0.49975926 0
-1.2416945 1.2427456 0.65114224 0
-0.92650545 1.035769 -0.049790781 0
-1.3813123 1.2939178 0.080461226 0
-1.3809367 1.2937046 0.23009944 0
-1.2498469 1.2192979 0.35488582 0
-1.2434353 1.2156587 0.49767375 0
-1.2370291 1.2120225 0.6446957 0
-0.93984878 1.0206558 -0.049943164 0
-1.2452307 1.1889426 0.35148677 0
-1.2402773 1.1862129 0.49330324 0
-1.2380052 1.1849608 0.64058417 0
-0.95501626 1.0063927 -0.05017611 0
-1.2504921 1.1644034 0.35020918 0
-1.2395487 1.1585512 0.48977262 0
-1.2327281 1.1549039 0.63427007 0
-0.9598515 0.9865818 -0.049999245 0
-1.2535769 1.1389319 0.3485606 0
-1.2418846 1.1328673 0.48724622 0
-1.2382239 1.1309686 0.63217688 0
-0.95695972 0.96302187 -0.049524721 0
-1.2663455 1.1185828 0.34894225 0
-1.2399364 1.1053042 0.483605 0
-1.2403919 1.1055332 0.62897027 0
-0.97764182 0.95131427 -0.050001081 0
-1.2943642 1.105599 0.3524324 0
-1.2426777 1.080421 0.48141566 0
-1.2446953 1.0814039 0.62669241 0
-0.98013449 0.9306528 -0.049762465 0
-1.2941417 1.0787524 0.35030323 0
-1.2409207 1.0536511 0.47805908 0
-1.2327769 1.0498102 0.61857313 0
-0.987221 0.91226929 -0.049715739 0
-1.2938339 1.0521895 0.34823659 0
-1.2409326 1.0280485 0.47531259 0
-1.2442353 1.0295556 0.6191951 0
-0.99996424 0.89641416 -0.04989906 0
-1.3114552 1.0338484 0.34978178 0
-1.2341768 0.99975204 0.47078422 0
-1.2337527 0.99956495 0.61192805 0
-1.0047876 0.87703919 -0.049781803 0
-1.3164907 1.0099039 0.34889662 0
-1.2453673 0.9795872 0.47135645 0
-1.2374042 0.97619289 0.60994858 0
-1.0100005 0.85791063 -0.049689643 0
-1.3378717 0.99281424 0.35126272 0
-1.242795 0.95369464 0.46819904 0
-1.2400856 0.95257986 0.60773647 0
-1.0208802 0.8410973 -0.049824871 0
-1.330789 0.96407062 0.34813607 0
-1.2442436 0.92972898 0.46625078 0
-1.2421991 0.92891771 0.60543883 0
-1.0380777 0.82659376 -0.050209034 0
-1.3467498 0.94459981 0.34954369 0
-1.2476592 0.90671724 0.46493173 0
-1.2493119 0.90734911 0.60503924 0
-1.0400561 0.80619842 -0.050019432 0
-1.3632528 0.92511511 0.35109627 0
-1.2414659 0.88030499 0.46108556 0
-1.2395015 0.87958217 0.59873873 0
-1.0461349 0.78739208 -0.049995702 0
-1.3583695 0.89783186 0.34859782 0
-1.2450423 0.8577472 0.45999053 0
-1.2333393 0.85360771 0.59387732 0
-1.0497121 0.76775044 -0.049886696 0
-1.38468 0.88150662 0.35211694 0
-1.2296261 0.82884979 0.45385948 0
-1.2384524 0.83184725 0.59311348 0
-1.0592122 0.75011504 -0.050009828 0
-1.3809615 0.85488254 0.34996518 0
-1.2426543 0.80984718 0.4554835 0
-1.2407361 0.80922258 0.59145886 0
-1.0643268 0.73101819 -0.0499768 0
-1.3903261 0.8326478 0.35035682 0
-1.2333741 0.78371829 0.45120344 0
-1.2495648 0.78876573 0.59219098 0
-1.0671308 0.71125382 -0.049866792 0
-1.400951 0.8107276 0.35103694 0
-1.2346067 0.7611593 0.44982591 0
-1.2371209 0.76190847 0.58562523 0
-1.0743015 0.69280845 -0.049928509 0
-1.4064828 0.7872566 0.35081154 0
-1.2367035 0.73898375 0.44875795 0
-1.2343935 0.73832697 0.5825609 0
-1.0750753 0.67258275 -0.049762022 0
-1.4093816 0.76310134 0.35015026 0
-1.2411751 0.71755677 0.44839528 0
-1.235275 0.71595931 0.5808534 0
-1.074885 0.65222698 -0.049569938 0
-1.4080186 0.73794085 0.34875423 0
-1.2383212 0.69427842 0.44617519 0
-1.2401445 0.69474757 0.58061826 0
-1.0924512 0.63633853 -0.05004039 0
-1.4233212 0.71704215 0.35051513 0
-1.241666 0.67273396 0.44566682 0
-1.2381127 0.67186725 0.57811219 0
-1.0918677 0.61592072 -0.049851842 0
-1.4290807 0.69368643 0.35055342 0
-1.2413218 0.65038681 0.44426522 0
-1.2408839 0.65028584 0.57735181 0
-1.0962298 0.59671098 -0.049853906 0
-1.4314021 0.6695739 0.35001144 0
-1.2288215 0.62553501 0.43976712 0
-1.2415349 0.62829876 0.57596421 0
-1.1026191 0.5779106 -0.04993866 0
-1.4398736 0.6467908 0.35065886 0
-1.2417678 0.60633004 0.44198847 0
-1.2427659 0.60653394 0.5748713 0
-1.1065947 0.55858475 -0.049944092 0
-1.4413158 0.62256813 0.35006681 0
-1.2435588 0.58476603 0.44136974 0
-1.2397585 0.58403957 0.57243836 0
-1.1079842 0.53879118 -0.049864568 0
-1.4566972 0.60090864 0.3520855 0
-1.2345346 0.56133407 0.43802014 0
-1.2468739 0.56353205 0.57352746 0
-1.1161393 0.52016878 -0.050039053 0
-1.4556092 0.57623923 0.35113946 0
-1.2401137 0.54064572 0.43853012 0
-1.2301605 0.53900176 0.56666642 0
-1.1142311 0.49988648 -0.049858265 0
-1.4465846 0.55049121 0.34880403 0
-1.2432379 0.51952928 0.43847287 0
-1.249048 0.52041394 0.57190329 0
-1.119284 0.48070017 -0.04993793 0
-1.4577343 0.52788091 0.35020545 0
-1.230767 0.49624112 0.43446699 0
-1.2319056 0.49639985 0.56510675 0
-1.1248169 0.4615148 -0.050043445 0
-1.4630064 0.50432545 0.35058793 0
-1.234122 0.47535151 0.4346129 0
-1.2351201 0.47547784 0.56524926 0
-1.1239965 0.44152829 -0.049929209 0
-0.50315458 0.37086767 0.03962126 0
-0.5112223 0.37178588 0.10808054 0
-0.49622965 0.37007952 0.17458422 0
-1.2382214 0.45452872 0.43501732 0
-1.2401369 0.45474672 0.56608331 0
-1.1283076 0.4221383 -0.050008293 0
-0.51582515 0.36023033 0.040030465 0
-0.50632888 0.35927048 0.10741396 0
-0.5080052 0.35943991 0.17649084 0
-1.2401288 0.43344086 0.43492642 0
-1.2393024 0.43335736 0.56504709 0
-1.1292351 0.40239015 -0.049974777 0
-0.46531826 0.3437182 0.038179711 0
-0.51299369 0.34793141 0.10801214 0
-0.50954425 0.34762657 0.17656626 0
-1.2412302 0.41228744 0.43469727 0
-1.2418647 0.4123435 0.56523651 0
-1.1371629 0.38319248 -0.050200827 0
-0.50455016 0.33530623 0.1069968 0
-0.5078696 0.33555749 0.17608729 0
-1.2507969 0.39179412 0.43670246 0
-1.2455082 0.39139378 0.56587476 0
-1.1343137 0.36315247 -0.050049838 0
-0.50877625 0.32371628 0.1073637 0
-0.50642836 0.32356825 0.17567834 0
-1.2346238 0.36947638 0.43219191 0
-1.2303129 0.36920461 0.56032056 0
-1.2422965 0.3699601 0.70082015 0
-1.1252244 0.34290138 -0.049684905 0
-0.52093881 0.31243846 0.10860009 0
-0.51509434 0.31214383 0.17712207 0
-1.2511353 0.34924874 0.43610561 0
-1.2302635 0.34819654 0.55990827 0
-1.2377049 0.34857169 0.69842052 0
-0.34266227 0.30345127 0.46631736 0
-1.1353967 0.32363275 -0.050017416 0
-0.50730592 0.29989389 0.10707697 0
-0.51098484 0.30003294 0.1762854 0
-1.2364467 0.32745194 0.4321166 0
