# .PCD v0.7 - Point Cloud Data file format
VERSION 0.7
FIELDS x y z intensity
SIZE 4 4 4 4
TYPE F F F F
COUNT 1 1 1 1
WIDTH 1356
HEIGHT 1
VIEWPOINT 0 0 0 1 0 0 0
POINTS 1356
DATA ascii
-1.2420591 -0.2346359 0.58733958 0
-1.0703547 -0.20415322 -0.050202217 0
-0.86424017 -0.13989742 0.054494377 0
-0.87451053 -0.14309917 0.15313564 0
-1.2371054 -0.2561374 0.32141197 0
-1.2346923 -0.25538513 0.45155573 0
-1.2356123 -0.25567195 0.58732879 0
-1.0630616 -0.22262432 -0.050154358 0
-0.98889506 -0.19847433 0.059369683 0
-0.99604666 -0.200803 0.16746363 0
-1.246503 -0.28235623 0.32446259 0
-1.2396116 -0.28011224 0.45466709 0
-1.2423997 -0.28102013 0.59204096 0
-1.0430571 -0.23674624 -0.049635779 0
-1.1278331 -0.26553646 0.064832158 0
-1.1243677 -0.26435956 0.18270536 0
-1.2500526 -0.30704257 0.32647514 0
-1.2341466 -0.30164084 0.45507753 0
-1.0405275 -0.25666454 -0.049783356 0
-1.2872314 -0.34392568 0.2020438 0
-1.2351002 -0.32548639 0.32501665 0
-1.2416315 -0.32779661 0.45906752 0
-1.0331496 -0.27491316 -0.049756702 0
-1.2539936 -0.35617027 0.19913033 0
-1.2456125 -0.3530865 0.32848945 0
-1.2447077 -0.35275361 0.46196684 0
-1.0348455 -0.2966139 -0.050085492 0
-1.2464579 -0.37751392 0.19917767 0
-1.2394247 -0.37482509 0.32882151 0
-1.2399521 -0.37502667 0.46282661 0
-1.0282483 -0.31527683 -0.050107874 0
-1.2542239 -0.40494505 0.20102543 0
-1.2409128 -0.39966318 0.33069754 0
-1.2341499 -0.3969796 0.4634802 0
-1.0079591 -0.32832655 -0.049610835 0
-1.2510498 -0.42834696 0.20165147 0
-1.251599 -0.42857292 0.33443797 0
-1.2410178 -0.42421928 0.46770877 0
-1.0098902 -0.3504701 -0.049979836 0
-1.256083 -0.45541069 0.20327404 0
-1.2399658 -0.44854072 0.33389398 0
-1.243287 -0.44995633 0.47077948 0
-1.0020409 -0.36858627 -0.049980097 0
-1.2571899 -0.48116162 0.20448436 0
-1.2367022 -0.47212216 0.33504626 0
-1.2365841 -0.47207007 0.47145551 0
-1.0031834 -0.39080939 -0.050342146 0
-1.2461289 -0.50167561 0.20430245 0
-1.236412 -0.49724141 0.33685333 0
-1.2461665 -0.50169277 0.47678038 0
-0.96771681 -0.39605197 -0.049272306 0
-1.242865 -0.52582395 0.20507653 0
-1.2355617 -0.52237946 0.33862233 0
-1.2480663 -0.52827716 0.48007476 0
-0.97868943 -0.42308041 -0.050042681 0
-1.4990079 -0.67654288 0.082705505 0
-1.239091 -0.54992974 0.20583065 0
-1.2318326 -0.54639399 0.33988804 0
-1.2396644 -0.55020911 0.48056054 0
-0.96632183 -0.43898502 -0.049898833 0
-1.4580351 -0.68622136 0.081547767 0
-1.2352821 -0.57421982 0.20662175 0
-1.2378281 -0.57550001 0.34318563 0
-1.244054 -0.57863039 0.48478082 0
-0.96344554 -0.45970181 -0.050143786 0
-1.3977891 -0.68498802 0.079612195 0
-1.2379334 -0.60207379 0.20823707 0
-1.2411062 -0.60371941 0.34602702 0
-0.95776987 -0.47912106 -0.050287589 0
-1.3501817 -0.68896997 0.078174606 0
-1.2379811 -0.62896883 0.20958857 0
-1.2287693 -0.62404269 0.34576648 0
-0.93837476 -0.49109933 -0.049883075 0
-1.3023354 -0.69166714 0.076719306 0
-1.2399235 -0.65727383 0.21122341 0
-1.25131 -0.66354859 0.35273865 0
-0.93628657 -0.51257658 -0.050192311 0
-1.2537283 -0.69275683 0.075223729 0
-1.2433027 -0.68683922 0.2130914 0
-1.2448324 -0.68770748 0.35384592 0
-0.92396343 -0.52832907 -0.050091751 0
-1.2505969 -0.71920389 0.075598098 0
-1.238577 -0.71217978 0.21401054 0
-1.2472376 -0.71724075 0.35688019 0
-0.91110027 -0.54367775 -0.049976166 0
-1.2479137 -0.74623305 0.076007813 0
-1.2461331 -0.74516219 0.21651672 0
-1.2402718 -0.74163729 0.35804334 0
-0.89808047 -0.55883729 -0.049861178 0
-1.2521811 -0.77790672 0.07672675 0
-1.2405283 -0.77069765 0.21743162 0
-1.2366203 -0.76827985 0.35998338 0
-0.88619685 -0.57462722 -0.049801391 0
-1.2494555 -0.80573708 0.077172384 0
-1.2460182 -0.8035503 0.21980783 0
-1.2396753 -0.79951483 0.363444 0
-0.88108933 -0.59480238 -0.050038621 0
-1.2558811 -0.8399331 0.078026973 0
-1.2336839 -0.82541519 0.21996774 0
-1.2454965 -0.83314115 0.36761376 0
-0.87688851 -0.61579245 -0.050327756 0
-1.2369322 -0.85780412 0.077815741 0
-1.2388748 -0.85910994 0.22243387 0
-1.2421955 -0.86134201 0.36992827 0
-0.84948301 -0.62100869 -0.049624033 0
-1.2418188 -0.89196008 0.078646548 0
-1.2385482 -0.88970131 0.22425608 0
-1.2454613 -0.89447564 0.3737798 0
-0.8457495 -0.64241248 -0.049953029 0
-1.2418237 -0.92337638 0.079289868 0
-1.234668 -0.91830033 0.22567694 0
-1.5946578 -1.1736671 0.45424899 0
-0.8292253 -0.65478963 -0.049731944 0
-1.2438662 -0.95684367 0.08004652 0
-1.2290804 -0.94607264 0.22693156 0
-1.5625626 -1.1890048 0.45116359 0
-0.82108068 -0.67324317 -0.049889263 0
-1.2383187 -0.98530561 0.080490641 0
-1.2360716 -0.98362488 0.22993283 0
-0.80762148 -0.68776029 -0.049819309 0
-1.2415887 -1.0209373 0.08135201 0
-1.2360162 -1.0166591 0.23207231 0
-0.80002511 -0.70683831 -0.050023414 0
-1.15962 -0.99018365 0.078367941 0
-1.1551291 -0.98664492 0.22323011 0
-1.1575441 -0.98854786 0.37109739 0
-0.78779483 -0.72235847 -0.050027825 0
-1.1343127 -1.0025431 0.077937074 0
-1.136073 -1.0039665 0.22279084 0
-1.1414689 -1.0083294 0.37105715 0
-0.77713239 -0.73918766 -0.050114036 0
-1.2334725 -1.1177723 0.083282605 0
-1.2421765 -1.1249933 0.23985428 0
-1.3422006 -1.2079744 0.42187947 0
-0.76724017 -0.75675625 -0.050247166 0
-1.2412395 -1.1601744 0.084468789 0
-1.2396017 -1.1587805 0.24197844 0
-1.3210329 -1.228086 0.42129013 0
-1.0258179 -0.97683018 0.49458933 0
-0.75699747 -0.77414757 -0.050375585 0
-1.2845174 -1.2346952 0.41708019 0
-0.9890759 -0.97676212 0.48747763 0
-0.73921335 -0.78491157 -0.050154481 0
-1.1953225 -1.1933481 0.084012769 0
-1.1970402 -1.1948863 0.24108464 0
-1.1911336 -1.189597 0.39907536 0
-0.97321773 -0.9944579 0.48743719 0
-0.72082591 -0.79491419 -0.049908102 0
-0.92134452 -0.97907609 0.47499713 0
-0.70964241 -0.81146759 -0.05001824 0
-0.89552033 -0.9865486 0.4714711 0
-0.69523418 -0.82501847 -0.04997994 0
-0.85803831 -0.98228127 0.4637998 0
-0.67819917 -0.83593374 -0.049817681 0
-0.83389437 -0.99016613 0.46080303 0
-0.66878796 -0.85443503 -0.050048269 0
-0.81805801 -1.0060737 0.46082491 0
-0.6516937 -0.86517149 -0.049897738 0
-0.64151943 -0.88315052 -0.050113715 0
-0.62048662 -0.88946217 -0.049769524 0
-0.60928404 -0.90646082 -0.049952611 0
-0.59401298 -0.91897148 -0.0499283 0
-0.58703506 -0.94126695 -0.050370786 0
-0.56822896 -0.94970876 -0.050171822 0
-0.55542886 -0.96540743 -0.050318088 0
-0.52837539 -0.96307176 -0.049652591 0
-0.51647037 -0.9798277 -0.04986605 0
-0.50298744 -0.99471754 -0.050001234 0
-0.48771799 -1.0073067 -0.050041314 0
-0.46925151 -1.0154133 -0.049893703 0
-0.44779408 -1.0189812 -0.049560979 0
-0.43515229 -1.0353367 -0.049791615 0
-0.41929036 -1.0470393 -0.049829088 0
-0.3805269 -0.98736233 0.50258666 0
-0.40597516 -1.0628282 -0.050047297 0
-0.35312337 -0.97917467 0.49537486 0
-0.38759005 -1.0706639 -0.049937651 0
-0.33021581 -0.97726852 0.49080649 0
-0.37147737 -1.0821608 -0.049990721 0
-0.30628455 -0.97297913 0.48546106 0
-0.3519274 -1.0878137 -0.0498106 0
-0.28900695 -0.97935826 0.48437425 0
-0.3369602 -1.1013477 -0.04996483 0
-0.27367502 -0.98902875 0.48463544 0
-0.31745785 -1.1068234 -0.049797788 0
-0.25458741 -0.99188 0.48238236 0
-0.30154622 -1.1188203 -0.049905386 0
-0.22645213 -0.97732574 0.47367942 0
-0.28402913 -1.1278706 -0.049902044 0
-0.20819677 -0.98053414 0.47181204 0
-0.27125204 -1.1464239 -0.050286707 0
-0.18550523 -0.9745397 0.46662048 0
-0.25395995 -1.156265 -0.050329976 0
-0.16643091 -0.97513384 0.46400088 0
-0.23517092 -1.1629856 -0.050258607 0
-0.14408316 -0.96826905 0.45874545 0
-0.21570994 -1.1681067 -0.050134268 0
-0.1324165 -0.98404866 0.46189216 0
-0.19478472 -1.1696697 -0.049881533 0
-0.11316569 -0.98309237 0.45899767 0
-0.17768361 -1.1798332 -0.049973711 0
-0.10236461 -1.0015779 0.4632282 0
-0.15766586 -1.1830246 -0.049804933 0
-0.07096906 -0.97041386 0.34621835 0
-0.085140303 -1.0051666 0.46213382 0
-0.14156701 -1.1958668 -0.050016899 0
-0.054328158 -0.97397608 0.34548372 0
-0.069518521 -1.0126126 0.46250141 0
-0.12200363 -1.1999913 -0.049902812 0
-0.031463251 -0.96090573 0.14680557 0
-0.029471381 -0.95564598 0.24127734 0
-0.014759941 -0.91679817 0.32823917 0
-0.052625075 -1.0167867 0.46177346 0
-0.10127975 -1.2007051 -0.049669027 0
-0.0091250669 -0.94778615 0.14464779 0
-0.0085810255 -0.94629306 0.23838404 0
-0.0021245314 -0.92857319 0.32993266 0
-0.084527329 -1.2122709 -0.049856666 0
0.01062523 -0.94053513 0.14319985 0
0.010821836 -0.93997365 0.23613347 0
0.020293253 -0.9129253 0.32424879 0
-0.0016152395 -0.97549134 0.44305357 0
-0.067430183 -1.2232362 -0.050028861 0
0.021488296 -0.95867008 0.14466445 0
0.021491783 -0.95865959 0.23869658 0
0.023786651 -0.95183152 0.33334866 0
0.013034241 -0.98382407 0.44409403 0
-0.04621245 -1.2218164 -0.049743909 0
0.037400886 -0.96225744 0.14449605 0
0.037096724 -0.96320158 0.23859487 0
0.024823355 -1.0013015 0.34525505 0
0.020751851 -1.0139406 0.45280898 0
-0.031140996 -1.2396615 -0.050189782 0
0.023777084 -1.0615257 0.35998997 0
-0.011978878 -1.2447432 -0.050166063 0
0.065541252 -0.9815684 0.33738276 0
0.0069566532 -1.2505811 -0.050179433 0
0.083209112 -0.97914618 0.33554241 0
0.025545405 -1.2577648 -0.050251313 0
0.10033511 -0.97805721 0.33411926 0
0.050342098 -1.2407205 -0.049439181 0
0.11806612 -0.97402555 0.33198285 0
0.065425172 -1.2616169 -0.050034169 0
0.085178837 -1.2638724 -0.049951933 0
0.10455616 -1.2676235 -0.049933631 0
0.12178899 -1.2819965 -0.050311059 0
0.14172213 -1.2834564 -0.050226409 0
-0.06704171 -2.394557 0.10258824 0
0.16064556 -1.2903614 -0.050348397 0
0.0032103525 -2.1905918 0.094975561 0
0.18434511 -1.2683303 -0.049432255 0
0.033992425 -2.1968091 0.09501195 0
0.20071594 -1.2911102 -0.050146095 0
0.063675776 -2.2106063 0.095335871 0
0.21863176 -1.3063 -0.050592668 0
0.09654437 -2.2027457 0.094892368 0
0.24110928 -1.287117 -0.049810205 0
0.12872435 -2.1979518 0.094574779 0
0.26047233 -1.291097 -0.049871009 0
0.16122739 -2.1882455 0.094095744 0
0.27983701 -1.2955329 -0.049956832 0
0.19132809 -2.1996624 0.094389714 0
0.29927942 -1.2998059 -0.050045475 0
0.22304276 -2.1946356 0.094107784 0
0.31930318 -1.2969711 -0.04988838 0
0.25383267 -2.1996789 0.094200857 0
0.33835581 -1.3085531 -0.050256044 0
0.28454924 -2.2071276 0.094393775 0
0.35855561 -1.3014174 -0.049963072 0
0.3159475 -2.2031364 0.094191529 0
0.37822619 -1.3036826 -0.050015148 0
0.36213723 -1.7681544 0.078607336 0
0.3980673 -1.3000174 -0.049864281 0
0.38681066 -1.8108137 0.080104791 0
0.41780677 -1.2961775 -0.049716119 0
0.43748677 -1.3056475 -0.050052002 0
0.43850923 -1.6303182 0.073643222 0
0.45732296 -1.3097881 -0.050206512 0
0.4624843 -1.6376581 0.073913343 0
0.47678599 -1.296804 -0.049758375 0
0.48646289 -1.6382633 0.073953807 0
0.49710408 -1.3123518 -0.050338246 0
0.5092485 -1.6089432 0.072935812 0
0.5162912 -1.2990817 -0.049897339 0
0.54161686 -1.7718697 0.078800671 0
0.53640217 -1.3044257 -0.05013071 0
0.55532491 -1.2925694 -0.049757395 0
0.57611322 -1.3039455 -0.050225087 0
0.60319692 -1.5997983 0.072831579 0
0.60779005 -1.6499722 0.2125935 0
0.59574801 -1.301046 -0.050190359 0
0.6296736 -1.6264499 0.073870666 0
0.61601174 -1.303706 -0.050364297 0
0.63468891 -1.2931638 -0.050072409 0
0.65222782 -1.2760758 -0.049552415 0
0.67466062 -1.2928303 -0.050262112 0
0.69192547 -1.275864 -0.049762703 0
0.71494287 -1.292569 -0.050491758 0
0.73199868 -1.2758996 -0.050019305 0
0.75000441 -1.265432 -0.049779568 0
0.77139544 -1.2710744 -0.050136432 0
0.79065561 -1.2664893 -0.050129212 0
0.81002951 -1.2623718 -0.050148077 0
0.83108151 -1.2646275 -0.050411124 0
0.84820193 -1.2518282 -0.050127562 0
0.86686999 -1.2451197 -0.050077233 0
0.88918197 -1.2506127 -0.050490435 0
0.90435714 -1.2324839 -0.050031543 0
0.92194158 -1.222701 -0.049891595 0
0.94517708 -1.2296824 -0.05039214 0
0.95485407 -1.1976531 -0.049427066 0
0.97756147 -1.2026428 -0.049871989 0
1.0008326 -1.2082131 -0.050352208 0
0.92664719 -1.0159798 0.4625845 0
1.0152719 -1.1908092 -0.049962573 0
0.93956965 -1.0017669 0.45975688 0
1.0338856 -1.1841693 -0.049993981 0
0.95712823 -0.99927288 0.46119431 0
1.0540118 -1.1809831 -0.050168872 0
0.97401839 -0.99494189 0.46205416 0
1.0720161 -1.1727171 -0.050156116 0
0.98871946 -0.98552459 0.46114394 0
1.0878054 -1.1596514 -0.049963553 0
1.0059955 -0.98186165 0.46240342 0
1.1070114 -1.1540805 -0.050073948 0
1.0247524 -0.98108429 0.46481341 0
1.1258804 -1.1476392 -0.050159991 0
1.0464613 -0.98589927 0.46939832 0
1.1410582 -1.1337729 -0.049958896 0
1.0685556 -0.99070042 0.47410908 0
1.1612074 -1.1297174 -0.050159369 0
1.0847619 -0.98346096 0.47443497 0
1.1769823 -1.1172386 -0.050029863 0
1.1040919 -0.98196095 0.47700903 0
1.1963224 -1.1113636 -0.050177187 0
1.1322438 -0.99594396 0.057464104 0
1.1300446 -0.99198288 0.16043217 0
1.1315081 -0.99461895 0.26570284 0
1.1302426 -0.99233931 0.3727259 0
1.1308239 -0.99338645 0.48461193 0
1.2082719 -1.0923468 -0.049795099 0
1.1428865 -0.97799069 0.057092205 0
1.1453673 -0.98232931 0.16033667 0
1.1380415 -0.96951681 0.26233703 0
1.145323 -0.98225206 0.37237242 0
1.1510602 -0.99228603 0.48759794 0
1.2364162 -1.1013696 -0.050577965 0
1.170826 -0.9899351 0.057961617 0
1.1587374 -0.96939725 0.15985557 0
1.1657505 -0.9813121 0.26668486 0
1.1640043 -0.97834533 0.37390205 0
1.1649345 -0.97992581 0.48635733 0
1.2437809 -1.0750123 -0.049904827 0
1.2630433 -1.0686438 -0.050071068 0
1.2705219 -1.0436583 -0.049459551 0
1.293743 -1.0433563 -0.049902108 0
1.3055305 -1.025597 -0.049608454 0
1.3270441 -1.0221839 -0.049942445 0
1.3477598 -1.017243 -0.050224263 0
1.3534808 -0.99151212 -0.049599789 0
1.370352 -0.98131949 -0.049666934 0
1.3895189 -0.9740147 -0.049874578 0
1.4065133 -0.96373004 -0.04995947 0
1.2021724 -0.70607191 0.050219066 0
1.2020423 -0.70590794 0.13908733 0
1.4197587 -0.94873863 -0.049838386 0
1.2069803 -0.68727255 0.049803339 0
1.2084732 -0.68910694 0.13811255 0
1.4317467 -0.93236977 -0.049659677 0
1.204612 -0.66033173 0.049007367 0
1.1954855 -0.64940089 0.13393195 0
1.4601706 -0.93537873 -0.050396983 0
1.2087395 -0.64183408 0.04859826 0
1.2091637 -0.64232939 0.13430089 0
1.4714979 -0.91813594 -0.050196975 0
1.2019764 -0.61137474 0.047618598 0
1.2101809 -0.62071282 0.13261767 0
1.4829952 -0.90128797 -0.050020479 0
1.2072397 -0.59528947 0.047314491 0
1.2112342 -0.59972191 0.1310076 0
1.4978782 -0.88828212 -0.050035696 0
1.5105283 -0.87290019 -0.049943384 0
1.5258516 -0.86035734 -0.049999166 0
1.5385017 -0.84507269 -0.049927112 0
1.5524688 -0.83114296 -0.049931377 0
1.5656288 -0.81643492 -0.049904481 0
1.5794958 -0.80240625 -0.049921464 0
1.5917253 -0.78687209 -0.049867887 0
1.603521 -0.77100044 -0.049803603 0
1.6223959 -0.76128703 -0.050083164 0
1.6351566 -0.74617428 -0.050080404 0
1.6442987 -0.72809619 -0.049919508 0
1.6626803 -0.7175343 -0.050192732 0
1.6715151 -0.69929892 -0.050037552 0
1.6880209 -0.68700981 -0.05023779 0
1.698295 -0.66994137 -0.050166547 0
1.714506 -0.65719879 -0.050366484 0
1.7195786 -0.63648403 -0.050086305 0
1.7185655 -0.61185801 -0.049556922 0
1.7403316 -0.60278052 -0.050021067 0
1.7542738 -0.5882625 -0.050153933 0
1.7545669 -0.56506675 -0.049718235 0
1.7711332 -0.55215377 -0.049978659 0
1.7729079 -0.53025454 -0.04963002 0
1.7919186 -0.51856261 -0.050005417 0
1.806908 -0.50431466 -0.050219726 0
1.8094394 -0.48312774 -0.049933806 0
1.8189229 -0.46582678 -0.049941096 0
1.8257732 -0.4471719 -0.049851548 0
1.8440542 -0.43424138 -0.050227281 0
1.8506781 -0.41542563 -0.050145697 0
1.8488021 -0.39272609 -0.049739413 0
1.8674506 -0.37954774 -0.050149791 0
1.874285 -0.36092648 -0.050104659 0
1.8787267 -0.34133431 -0.049976267 0
1.8881302 -0.32384148 -0.050049104 0
1.8979452 -0.3064504 -0.050145809 0
1.8964868 -0.28475454 -0.049820576 0
1.9078491 -0.26792493 -0.049993802 0
1.9175756 -0.25039569 -0.050112493 0
1.9269266 -0.23265003 -0.050224882 0
1.9166696 -0.20856948 -0.049610499 0
1.9380043 -0.19456942 -0.050188914 0
1.9383985 -0.17404459 -0.049993139 0
1.9400369 -0.15400507 -0.049853738 0
1.9469374 -0.13545336 -0.049918439 0
1.9441164 -0.11441518 -0.049633741 0
1.9682679 -0.099979468 -0.050349314 0
1.9555253 -0.076759405 -0.049719721 0
1.9714729 -0.060037982 -0.050149273 0
1.9684168 -0.039247733 -0.049893841 0
1.9860837 -0.02246369 -0.050400864 0
1.98138 -0.0014738546 -0.050104115 0
1.9756823 0.019464973 -0.049781594 0
1.9872563 0.037658457 -0.050092328 0
1.9911743 0.057094339 -0.050135069 0
1.998913 0.076104529 -0.050323937 0
1.9918653 0.096840508 -0.049990214 0
1.9933515 0.11653487 -0.049972296 0
1.9949721 0.13620865 -0.049968105 0
1.9968539 0.15586452 -0.049982131 0
2.0066257 0.17508587 -0.050287135 0
1.9993305 0.19527835 -0.049990717 0
2.0029714 0.21492043 -0.050094128 0
1.9951934 0.23485428 -0.049798604 0
2.0137901 0.25441676 -0.050453696 0
2.0018435 0.27425218 -0.050027184 0
2.0022728 0.29402357 -0.050051395 0
1.9996099 0.31371787 -0.049974062 0
1.9944956 0.33325258 -0.049817938 0
1.9910657 0.35277566 -0.049730729 0
1.9932692 0.37263098 -0.049853846 0
1.9957047 0.39259556 -0.049994346 0
1.9885182 0.41175148 -0.049798973 0
1.9869905 0.43137988 -0.049815174 0
1.9865806 0.45115733 -0.049880486 0
1.9922624 0.47179449 -0.050174251 0
1.9806563 0.49012324 -0.049854208 0
1.9913514 0.51176596 -0.050348002 0
1.9848889 0.53082031 -0.050231222 0
1.9675943 0.54779404 -0.049729608 0
1.9704254 0.56838894 -0.049966939 0
1.9674455 0.58793312 -0.050002333 0
1.9573733 0.60591751 -0.049787331 0
1.9705193 0.62925774 -0.050431922 0
1.9430125 0.6428827 -0.049593113 0
1.9524484 0.66565245 -0.050121926 0
1.9514875 0.68592715 -0.050277997 0
1.9257364 0.69910228 -0.049522318 0
1.9312636 0.72125864 -0.049937326 0
1.9284306 0.74106145 -0.050051183 0
1.9097762 0.7556901 -0.049579617 0
1.902351 0.77386242 -0.04953723 0
1.9078974 0.79668647 -0.049995635 0
1.8975993 0.81391597 -0.049862996 0
1.9019489 0.83675414 -0.050299209 0
1.8900642 0.85336715 -0.050123572 0
1.8689002 0.86596274 -0.049595919 0
1.8671855 0.88659149 -0.049828388 0
1.8693717 0.90915394 -0.050224964 0
1.8537437 0.92376292 -0.049933895 0
1.8522421 0.94491941 -0.050207615 0
1.8270633 0.95457608 -0.049550451 0
1.8289223 0.97752422 -0.049977783 0
1.8222777 0.99633789 -0.050076462 0
1.811886 1.0132 -0.050033193 0
1.8088607 1.0341508 -0.0502996 0
1.7905338 1.0465091 -0.049948364 0
1.7753149 1.0604258 -0.049729925 0
1.7733479 1.0822489 -0.050071277 0
1.7579217 1.0959157 -0.049859624 0
1.7458029 1.1115422 -0.049794048 0
1.7421162 1.132708 -0.050097518 0
1.7266507 1.146111 -0.049906209 0
1.7237884 1.1681747 -0.050269753 0
1.7132051 1.1850077 -0.050309286 0
1.6882693 1.191285 -0.049721666 0
1.6724892 1.2039843 -0.049542062 0
1.6791351 1.2339699 -0.050382193 0
1.6614543 1.2452999 -0.05013673 0
1.6402054 1.2534877 -0.04973061 0
1.6221395 1.2639803 -0.04947339 0
1.6163404 1.2848114 -0.049797744 0
1.6092042 1.3047698 -0.050074439 0
1.593475 1.3172029 -0.049952213 0
1.5800385 1.3316551 -0.049947925 0
1.5660317 1.3455635 -0.049924366 0
1.5475355 1.3550614 -0.049685001 0
1.5419769 1.377303 -0.050102849 0
1.5311241 1.3945255 -0.05026922 0
1.50727 1.3982068 -0.049774285 0
1.0225146 0.88679117 0.29131755 0
1.4978005 1.4169421 -0.050031606 0
1.0464761 0.92862576 0.30692694 0
1.4819363 1.4288572 -0.049964011 0
1.4376488 1.3797125 0.059602167 0
1.4447091 1.387547 0.16848858 0
1.4422406 1.3848078 0.27801383 0
1.0524417 0.95225817 0.31407237 0
1.4671249 1.4419029 -0.049960442 0
1.4235398 1.3922957 0.059602935 0
1.4207896 1.3891654 0.16690966 0
1.4123113 1.3795158 0.27371258 0
1.0584465 0.97675741 0.32148969 0
1.4510601 1.4534862 -0.049896982 0
1.3930898 1.3858063 0.058715541 0
1.3826729 1.3736447 0.16296528 0
1.3952181 1.3882911 0.27288795 0
1.0529709 0.98871911 0.32330203 0
1.4365822 1.4669054 -0.04992903 0
1.3779875 1.3967268 0.058665074 0
1.3670933 1.3836789 0.16270752 0
1.3672932 1.3839184 0.26903367 0
1.0652543 1.0221679 0.33443823 0
1.4259442 1.4850837 -0.050188251 0
1.3396261 1.3790144 0.057305973 0
1.3434477 1.3837104 0.16109374 0
1.3388087 1.3780099 0.26494378 0
1.060558 1.0360899 0.33701849 0
1.4023509 1.4872258 -0.049720321 0
1.3185023 1.3814992 0.0569028 0
1.3215547 1.385348 0.15975735 0
1.3320503 1.3985821 0.26707283 0
1.0547386 1.0489135 0.33913195 0
1.3907059 1.5042951 -0.04994389 0
1.2927779 1.37757 0.056226205 0
1.2992402 1.3859328 0.15832853 0
1.3004215 1.3874613 0.26197723 0
1.0474923 1.0601552 0.3405908 0
1.3734436 1.5141701 -0.049850438 0
1.2742137 1.3823631 0.055960309 0
1.2747041 1.3830146 0.15647994 0
1.2732983 1.3811471 0.25810507 0
1.0345187 1.0639765 0.33898395 0
1.3596945 1.5287299 -0.049974926 0
1.2525496 1.3826165 0.055506278 0
1.2461032 1.3738254 0.153854 0
1.2588276 1.3911777 0.25800064 0
1.0349782 1.085914 0.34493357 0
1.3429852 1.539301 -0.049930941 0
1.2464683 1.4041446 0.056001652 0
1.2373805 1.3914186 0.15483616 0
1.2437299 1.40031 0.25773865 0
1.020408 1.0875835 0.34254166 0
1.3229374 1.5450214 -0.049685609 0
1.2461842 1.4346279 0.056885447 0
1.2452801 1.4333276 0.15900698 0
1.2469808 1.4357736 0.26330465 0
1.0200416 1.1093683 0.34839615 0
1.3084376 1.5586368 -0.049793627 0
1.2428008 1.4616487 0.057612631 0
1.2460848 1.4665014 0.16199589 0
1.2460659 1.4664733 0.26777712 0
1.0041198 1.1089622 0.34528822 0
1.2941017 1.5726452 -0.049925394 0
1.2367154 1.4855044 0.058200344 0
1.2482433 1.5030094 0.16538788 0
1.2376927 1.4869884 0.27001581 0
1.1668462 1.3794084 0.34662828 0
0.9955337 1.1192713 0.34655467 0
1.2840567 1.5935293 -0.050355311 0
1.2385844 1.5225502 0.059345853 0
1.2470535 1.5357699 0.16827084 0
1.223152 1.4984614 0.27032253 0
1.1503814 1.3848714 0.34550887 0
0.98471826 1.1262819 0.34655058 0
1.2601725 1.5927801 -0.049877241 0
1.2420374 1.5636721 0.060652863 0
1.2414634 1.5627507 0.17040133 0
1.2062099 1.5061661 0.26986521 0
1.1334665 1.3894076 0.34418222 0
0.97565508 1.1361084 0.34770387 0
1.2449373 1.6056658 -0.049984518 0
1.189917 1.5148253 0.26965782 0
1.1141241 1.3896884 0.34166011 0
0.96372843 1.1413796 0.34712118 0
0.84032792 0.93764085 0.47280818 0
1.2270833 1.6142577 -0.049921099 0
1.1728897 1.5221853 0.26922312 0
1.0886497 1.3790659 0.33600113 0
0.95774966 1.1566731 0.35047007 0
0.84285462 0.96147209 0.4857111 0
1.2163329 1.6351895 -0.050374899 0
1.1565517 1.5306346 0.26906258 0
1.0692343 1.3779199 0.33326241 0
0.94679552 1.1637796 0.35068628 0
0.84806341 0.99110115 0.35260347 0
0.83774 0.97304595 0.41444552 0
0.83834594 0.97410578 0.49085012 0
1.1977782 1.64273 -0.050284263 0
1.1449322 1.5475427 0.27069056 0
1.0521007 1.3803327 0.33165288 0
0.93373793 1.1671354 0.34952644 0
0.84627378 1.0095932 0.35891029 0
0.8403784 0.99897432 0.42639616 0
0.83996665 0.99823272 0.50378805 0
1.1735511 1.6396149 -0.049771614 0
1.1277701 1.5546497 0.27032977 0
1.0389223 1.3897566 0.33214882 0
0.92716473 1.1823449 0.35291648 0
0.85200906 1.042863 0.37213525 0
0.84136409 1.0231068 0.43722638 0
0.83844465 1.0176886 0.51347804 0
1.1576632 1.6516808 -0.049886212 0
1.1047975 1.5505376 0.26773241 0
1.0190731 1.3865288 0.32904732 0
0.90800637 1.1740347 0.34748623 0
0.85250032 1.06784 0.38136539 0
0.84067702 1.0452195 0.4468382 0
0.83779764 1.0397106 0.52483439 0
1.1393192 1.6590855 -0.049821556 0
1.0944724 1.5705874 0.27009541 0
1.0010935 1.3863187 0.32690033 0
0.89242458 1.1718775 0.34447569 0
0.84809089 1.084392 0.38662338 0
0.84028643 1.0689911 0.45732433 0
0.83805549 1.0645887 0.53802294 0
1.1236222 1.6717846 -0.049977086 0
1.0793504 1.5816231 0.27065891 0
0.98420346 1.3878525 0.32532689 0
0.88761878 1.1911539 0.34950075 0
0.84877855 1.1120541 0.39699933 0
0.8411926 1.0966051 0.46989033 0
0.84474659 1.1038429 0.56062609 0
1.0994855 1.6669973 -0.049448259 0
0.96320146 1.3803829 0.3212795 0
0.87237382 1.1893663 0.34675843 0
0.83987427 1.1210177 0.39873683 0
0.84129351 1.1240025 0.48225495 0
0.84160119 1.1246495 0.57092482 0
1.087032 1.6867149 -0.049897496 0
0.94637299 1.3810334 0.31961054 0
0.86260426 1.1989864 0.34828025 0
0.83901501 1.1477221 0.40860122 0
0.8376748 1.1448096 0.4909178 0
0.84261376 1.155543 0.58777487 0
1.0743202 1.7066392 -0.050358452 0
0.92455828 1.3700794 0.31476966 0
0.85663933 1.217445 0.353057 0
0.8393836 1.1786662 0.42033675 0
0.8401947 1.1804891 0.50770193 0
0.84019554 1.180491 0.60066324 0
1.0523359 1.7058295 -0.050017398 0
0.90831387 1.3708767 0.31329492 0
0.85087377 1.2372879 0.35833651 0
0.84197313 1.2165875 0.4351514 0
0.83896869 1.2096002 0.52080083 0
0.84000397 1.212008 0.61774224 0
1.0319403 1.7082276 -0.04981285 0
0.89586163 1.3804353 0.31430483 0
0.84908199 1.2677506 0.36744031 0
0.84273654 1.2524654 0.44895804 0
0.83831728 1.2418201 0.53552395 0
0.84161997 1.2497756 0.63874757 0
1.0182003 1.7268662 -0.050243799 0
0.88460773 1.3932613 0.3162508 0
0.85310936 1.314604 0.38238046 0
0.84125721 1.2850072 0.46120307 0
0.84072101 1.283668 0.55536669 0
0.83820283 1.2773799 0.65314138 0
0.99839139 1.7306315 -0.050110135 0
0.86525381 1.3856381 0.31263393 0
0.85273272 1.3531926 0.39428276 0
0.84128779 1.323536 0.47605407 0
0.84017313 1.3206475 0.57248598 0
0.83800608 1.3150321 0.67388022 0
0.98004532 1.7380728 -0.050126616 0
0.85037124 1.3890321 0.31209901 0
0.84811306 1.3829539 0.40299827 0
0.8393712 1.3594235 0.48966902 0
0.84064704 1.3628577 0.59232104 0
0.84074622 1.3631247 0.70112896 0
0.95466161 1.7258584 -0.049406637 0
0.83528638 1.3917102 0.31142339 0
0.840137 1.4052877 0.40907133 0
0.84154779 1.4092367 0.50935608 0
0.84095877 1.4075879 0.61340272 0
0.94130945 1.7471546 -0.049966682 0
0.81019515 1.3650268 0.30288231 0
0.83750892 1.4446319 0.42113662 0
0.84164858 1.4566967 0.52791625 0
0.83935022 1.4499983 0.63316441 0
0.9213925 1.7497768 -0.049828891 0
1.0306972 2.0819068 0.35108495 0
0.8001771 1.3814554 0.30604115 0
0.83997947 1.5023978 0.43961585 0
0.83924717 1.5001725 0.54466236 0
0.84001291 1.5024992 0.65817016 0
0.9029609 1.7567984 -0.04986573 0
1.0060426 2.0838301 0.35005173 0
0.78377783 1.378684 0.30408522 0
0.84032309 1.5580767 0.45728302 0
0.83935446 1.5550036 0.56628495 0
0.83863741 1.5527289 0.68188095 0
0.88579512 1.7681203 -0.050071448 0
0.98604721 2.1007247 0.35190105 0
0.77102262 1.3873416 0.30523729 0
0.83875138 1.6120441 0.47428706 0
0.84119588 1.6201541 0.59228754 0
0.86601442 1.7708904 -0.049966771 0
0.96166503 2.1033208 0.35110769 0
0.75110996 1.3715435 0.29993534 0
0.83747095 1.6716886 0.49320182 0
0.84067672 1.68283 0.61711991 0
0.85091513 1.7904693 -0.05049393 0
0.73723537 1.3757998 0.047143463 0
0.73841244 1.3800936 0.13033 0
0.73837686 1.3799636 0.21461903 0
0.73963612 1.3845572 0.30234015 0
0.83636832 1.737407 0.51415229 0
0.83650851 1.7379183 0.63861209 0
0.82778591 1.780728 -0.049944643 0
0.72122824 1.3719184 0.046861973 0
0.72150195 1.3729684 0.12912077 0
0.72289014 1.3782942 0.21360666 0
0.72597748 1.390139 0.30281574 0
0.82979882 1.7884506 0.52999359 0
0.82982111 1.7885362 0.65814358 0
0.80821824 1.7837905 -0.049878668 0
0.7094503 1.3843242 0.04718776 0
0.70941705 1.3841896 0.12996995 0
0.70661819 1.3728696 0.21193612 0
0.70959485 1.3849088 0.3004936 0
0.82439965 1.849236 0.54915273 0
0.82511902 1.8521454 0.68319124 0
0.79159343 1.7992424 -0.050276201 0
0.69496047 1.386156 0.047130339 0
0.69561082 1.3889362 0.13011886 0
0.69396883 1.3819169 0.21298891 0
0.69502944 1.3864509 0.3000069 0
0.82000721 1.9207056 0.57192922 0
0.76820517 1.7853625 -0.049607906 0
0.68149275 1.3924421 0.047242612 0
0.68358082 1.4019036 0.13119128 0
0.67826825 1.3778307 0.2116427 0
0.67888719 1.3806354 0.29764721 0
0.80688637 1.9606389 0.58391708 0
0.75103009 1.7991189 -0.049959786 0
0.66404867 1.3799678 0.04667674 0
0.66337818 1.3767368 0.12809196 0
0.66467416 1.3829818 0.21203785 0
0.66463995 1.3828169 0.29743049 0
0.7930932 2.0018148 0.5963521 0
0.73154515 1.8023108 -0.049934454 0
0.65055561 1.3857363 0.046783745 0
0.65061361 1.3860347 0.12880135 0
0.65051603 1.3855326 0.2119858 0
0.65095079 1.3877687 0.29798099 0
0.77575225 2.0296929 0.60430866 0
0.71241421 1.8073722 -0.049985923 0
0.63810563 1.3976914 0.047121145 0
0.63407123 1.3754487 0.12735492 0
0.63575876 1.3847524 0.21135601 0
0.63516682 1.3814889 0.2956627 0
0.76376861 2.0905015 0.62345558 0
0.69416869 1.8179286 -0.050244953 0
0.62206697 1.3897831 0.04674438 0
0.62048453 1.3803866 0.12762612 0
0.61869669 1.3697703 0.20816424 0
0.62206852 1.3897924 0.29717386 0
0.74541581 2.1222379 0.63280457 0
0.67342573 1.8136324 -0.049975161 0
0.60536069 1.3758667 0.046158578 0
0.60527533 1.3753177 0.12682708 0
0.60628003 1.3817793 0.20994428 0
0.60783702 1.3917931 0.2970973 0
0.72640204 2.1543536 0.6423409 0
0.65274072 1.8084166 -0.049682118 0
0.59093857 1.3750558 0.046054043 0
0.59357035 1.39351 0.12857543 0
0.59145206 1.3786567 0.20899303 0
0.59229749 1.3845845 0.29469377 0
0.70886344 2.2019527 0.65714395 0
0.63394964 1.8162119 -0.049867347 0
0.57745606 1.3809297 0.046196874 0
0.57862699 1.3899513 0.12797976 0
0.57703954 1.3777204 0.20847495 0
0.57888919 1.3919716 0.2960996 0
0.68789607 2.2318685 0.6660645 0
0.6152342 1.8258048 -0.050125428 0
0.56489432 1.395559 0.046660319 0
0.56318939 1.3809873 0.12682046 0
0.56322628 1.3813026 0.20881106 0
0.56387049 1.3868086 0.294323 0
0.66756189 2.2730396 0.67883062 0
0.5946402 1.8191645 -0.049808949 0
0.55174392 1.4077165 0.12954041 0
0.55177307 1.4079963 0.21336901 0
0.5515371 1.4057324 0.29877588 0
0.64482826 2.3005531 0.68709725 0
0.57516009 1.822278 -0.049851816 0
0.55125344 1.5611298 0.14594437 0
0.55170733 1.566088 0.24174438 0
0.55210561 1.5704385 0.34061271 0
0.62232023 2.3374391 0.69858122 0
0.55593824 1.8290908 -0.050035913 0
0.60202998 2.4135563 0.23768844 0
0.59854102 2.3693149 0.38680232 0
0.59788609 2.3610096 0.54258007 0
0.53568536 1.8223424 -0.049743306 0
0.57485861 2.414053 0.39454082 0
0.5738169 2.3983176 0.5516296 0
0.51632547 1.8284656 -0.049920209 0
0.54799426 2.4196701 0.39526245 0
0.54851013 2.4293008 0.55913448 0
0.49686357 1.8352221 -0.050128367 0
0.52220088 2.4540095 0.40122914 0
0.52173382 2.4426038 0.56220227 0
0.47710907 1.8369493 -0.050165575 0
0.45632622 1.1036061 0.35361254 0
0.45652807 1.1107287 0.42963633 0
0.45723781 1.8331234 -0.050013386 0
0.44581437 1.1074594 0.35511175 0
0.44589436 1.112541 0.43042558 0
0.43750173 1.8391383 -0.050221458 0
0.43512574 1.0846738 0.41643196 0
0.43517163 1.0992435 0.50112122 0
0.41774926 1.8310113 -0.04993353 0
0.42475563 1.089016 0.41862088 0
0.42481774 1.08244 0.49117512 0
0.39790997 1.8358998 -0.050119188 0
0.4140287 1.1044748 0.35391718 0
0.4140583 1.1031321 0.42576724 0
0.41468954 1.074489 0.48655477 0
0.37854445 1.8232381 -0.049686905 0
0.35237828 2.5786295 0.42362362 0
0.35218367 2.5842469 0.59822929 0
0.40504041 1.0583273 0.4771359 0
0.35840377 1.8333751 -0.05007793 0
0.3224549 2.5941646 0.42664388 0
0.32216623 2.6002736 0.60262817 0
0.39545944 1.0491626 0.47193772 0
0.33888242 1.8285028 -0.049941503 0
0.29220098 2.6080871 0.42944306 0
0.29190841 2.6129732 0.60627657 0
0.31904119 1.8293276 -0.050017681 0
0.26092178 2.6306784 0.43388119 0
0.26142973 2.6236746 0.60951465 0
0.30006507 1.8193284 -0.049715057 0
0.35611379 1.1614553 0.038143054 0
0.23003604 2.6412961 0.4362281 0
0.22971147 2.6451056 0.61560178 0
0.28071454 1.8153129 -0.049635265 0
0.19720408 2.6683824 0.44163266 0
0.19819465 2.6582639 0.61967796 0
0.26021427 1.8221742 -0.049954802 0
0.16658317 2.668575 0.44223985 0
0.16860659 2.6502838 0.61843574 0
0.34565032 1.0498544 0.47467023 0
0.2411955 1.8151625 -0.04978507 0
0.13529389 2.6734526 0.44376934 0
0.13485534 2.6770067 0.62620825 0
0.22047146 1.8215361 -0.050105955 0
0.10152011 2.6949546 0.44839898 0
0.10320653 2.6825719 0.62865555 0
0.20082289 1.8191369 -0.050120194 0
0.069905981 2.6975479 0.44966695 0
0.068269059 2.7085311 0.63647079 0
0.1834822 1.8024033 -0.049624983 0
0.034645185 2.7215223 0.45491645 0
0.034298316 2.7236643 0.6416176 0
0.16300462 1.8056164 -0.049859505 0
0.0031380819 2.7197492 0.45554477 0
0.0016391741 2.7283201 0.64417267 0
0.1435238 1.8026116 -0.049878076 0
-0.030210627 2.7272756 0.45795378 0
-0.029571129 2.7238722 0.64447719 0
0.12468569 1.7963263 -0.049786154 0
-0.089973643 2.8645124 0.10068418 0
-0.090402678 2.8666472 0.29125574 0
-0.062390491 2.7272532 0.45905739 0
-0.060582563 2.7182565 0.64458078 0
0.10488214 1.7948452 -0.049878042 0
-0.11419584 2.8181398 0.099238835 0
-0.11367567 2.8157101 0.28640386 0
-0.095883206 2.7326028 0.46122941 0
-0.094792917 2.7275102 0.64866596 0
0.085974947 1.7891141 -0.049823701 0
-0.14257194 2.7946181 0.098637119 0
-0.1441368 2.8015029 0.28561834 0
-0.12885781 2.734282 0.46280676 0
-0.12667759 2.7246902 0.64971644 0
0.06638144 1.7863864 -0.049888212 0
-0.17614491 2.7944908 0.098905712 0
-0.17464139 2.7882411 0.28497729 0
-0.1591952 2.7240362 0.46225372 0
-0.16219141 2.7364905 0.65471184 0
0.046994492 1.7826475 -0.049924761 0
-0.21107353 2.7989111 0.099358216 0
-0.20833923 2.7881434 0.28583634 0
-0.19485493 2.7350426 0.46572435 0
-0.19437905 2.7331686 0.65586019 0
0.0241908 1.7915752 -0.050438534 0
-0.24941726 2.8148477 0.10025407 0
-0.25183487 2.8238895 0.29073286 0
-0.22952212 2.7404416 0.46824357 0
-0.22769763 2.733618 0.65811527 0
0.0074443384 1.7775894 -0.050115056 0
-0.26352614 2.7421603 0.47016394 0
-0.26229411 2.7377746 0.66147172 0
-0.010399742 1.7681262 -0.049966533 0
-0.29412156 2.7313399 0.4698143 0
-0.2961818 2.7383342 0.66399962 0
-0.030349476 1.7658383 -0.050093867 0
-0.32760489 2.7300351 0.47133175 0
-0.32429522 2.7192998 0.66141981 0
-0.046760663 1.7522625 -0.049807739 0
-0.35802817 2.7185235 0.47100109 0
-0.35848343 2.7199368 0.66419703 0
-0.063950375 1.7416267 -0.049638901 0
-0.38972002 2.7109151 0.47148445 0
-0.3918196 2.7171621 0.66618341 0
-0.083957985 1.7393892 -0.049795162 0
-0.42354608 2.7091815 0.47316861 0
-0.42691725 2.7188091 0.66948706 0
-0.10533978 1.740592 -0.050092421 0
-0.45218956 2.6925228 0.47207722 0
-0.45525986 2.7009492 0.66762871 0
-0.12085511 1.7257028 -0.049787033 0
-0.48584771 2.6895216 0.47368386 0
-0.48532778 2.6881485 0.66723889 0
-0.14189 1.7254326 -0.050048415 0
-0.52217329 2.6926775 0.47657359 0
-0.51979905 2.6866386 0.67004591 0
-0.16033413 1.7183124 -0.050057217 0
-0.54791903 2.6688058 0.47430298 0
-0.55057043 2.675308 0.67028081 0
-0.17483415 1.7018338 -0.049712345 0
-0.58711052 2.677557 0.47847068 0
-0.57871056 2.6576772 0.66887903 0
-0.19721712 1.7039744 -0.050098211 0
-0.6150527 2.659128 0.47740787 0
-0.61046159 2.6486328 0.66995901 0
-0.216958 1.6996088 -0.050242338 0
-0.64163804 2.6380477 0.4758836 0
-0.64198148 2.6388068 0.6709379 0
-0.23128797 1.6834292 -0.049931448 0
-0.66635656 2.6134667 0.47371984 0
-0.67376542 2.6293044 0.67212528 0
-0.25239396 1.6817685 -0.050201479 0
-0.69751894 2.6029031 0.47441271 0
-0.70099592 2.6100986 0.67068332 0
-0.26847082 1.6695931 -0.050064273 0
-0.72696662 2.5886741 0.47444999 0
-0.73012233 2.595 0.67050087 0
-0.2832343 1.6550704 -0.049840037 0
-0.75695992 2.5754824 0.47477293 0
-0.75428891 2.5702927 0.667665 0
-0.30496103 1.6539989 -0.050165445 0
-0.78215587 2.553144 0.4733074 0
-0.78555954 2.5595572 0.66893327 0
-0.32215875 1.6441622 -0.050147522 0
-0.81636834 2.5477059 0.47537079 0
-0.80829728 2.5329499 0.66570884 0
-0.33849305 1.6328125 -0.050076313 0
-0.61533368 2.1241515 0.082210541 0
-0.83812094 2.5195563 0.47283638 0
-0.83646393 2.5166154 0.66555333 0
-0.35140896 1.6156644 -0.049773715 0
-0.61372912 2.0678239 0.080436312 0
-0.86450565 2.5000861 0.47214994 0
-0.86127079 2.4945102 0.66379881 0
-0.36537683 1.6006882 -0.049565885 0
-0.61885285 2.0251975 0.079217575 0
-0.88483977 2.4706593 0.46943647 0
-0.88728392 2.4747527 0.66282117 0
-0.39202219 1.6066231 -0.05023995 0
-0.61944366 1.9768263 0.077751368 0
-0.91469681 2.4574482 0.47018814 0
-0.91060972 2.4507952 0.66067606 0
-0.4064402 1.5923084 -0.050078381 0
-0.61565483 1.9234519 0.076062478 0
-0.93961954 2.4362211 0.46931568 0
-0.93191636 2.4240286 0.65775436 0
-0.42239666 1.5805657 -0.050032675 0
-0.61993134 1.8846738 0.074979089 0
-0.95924067 2.4070463 0.46679404 0
-0.95883894 2.4064279 0.65767854 0
-0.43263716 1.5603136 -0.049629893 0
-0.61931515 1.8399361 0.073633038 0
-0.97977161 2.3798594 0.46473554 0
-0.98860013 2.3930833 0.65901124 0
-0.45036066 1.5514669 -0.049722966 0
-0.62337244 1.8036833 0.072642311 0
-1.0059435 2.3613949 0.46462309 0
-1.0034132 2.3577061 0.65365428 0
-0.47131479 1.5470856 -0.050021589 0
-0.61571479 1.7520117 0.070971586 0
-1.0208972 2.3270283 0.46107364 0
-1.0141201 2.3174105 0.6467725 0
-0.48764205 1.5359459 -0.050036691 0
-0.62082636 1.7199892 0.070147246 0
-0.61946213 1.7181039 0.19884825 0
-1.0474453 2.3095205 0.46128654 0
-1.0440396 2.3048141 0.64859331 0
-0.075290754 0.96613067 0.43941125 0
-0.49991018 1.5193201 -0.049817026 0
-0.61717761 1.6771455 0.068836711 0
-0.6185323 1.6789687 0.19539742 0
-1.063271 2.2775235 0.45832074 0
-1.0647715 2.2795429 0.64652175 0
-0.091111198 0.96913511 0.44530442 0
-0.5285871 1.5244575 -0.050579336 0
-0.62201285 1.646943 0.068079084 0
-0.61475062 1.6374218 0.19158576 0
-1.0790355 2.2461207 0.45550609 0
-1.0862497 2.2555788 0.64493299 0
-0.097560182 0.95936114 0.44333816 0
-0.53157258 1.4958999 -0.049837761 0
-0.62074172 1.6098017 0.067002088 0
-0.6173439 1.6054612 0.18903828 0
-1.1009343 2.2231832 0.45464769 0
-1.0971935 2.2184048 0.63913548 0
-0.11089958 0.9585464 0.44709671 0
-0.54550678 1.481801 -0.049752492 0
-0.62477374 1.5804687 0.066271007 0
-0.61607444 1.5696404 0.1859372 0
-1.1101434 2.1846337 0.45023236 0
-1.1150806 2.1907792 0.6364488 0
-0.1309274 0.96575236 0.45614842 0
-0.5649752 1.4745055 -0.04998919 0
-0.61978245 1.5409948 0.065065436 0
-0.61561859 1.5359433 0.18309736 0
-1.1310114 2.1611893 0.44932836 0
-1.1282709 2.1578648 0.63205951 0
-0.13543142 0.95340663 0.45277971 0
-0.57982051 1.46148 -0.049971901 0
-0.61324072 1.5009991 0.063819654 0
-0.62155068 1.5108255 0.18143383 0
-1.1404001 2.1243589 0.44531474 0
-1.1413958 2.1255364 0.62787426 0
-0.15513702 0.95929641 0.46136102 0
-0.58969879 1.4427426 -0.04969326 0
-0.62187946 1.4798383 0.063446507 0
-0.62237132 1.4804052 0.1790082 0
-1.1687313 2.1102121 0.4467009 0
-1.1570075 2.0966976 0.62487715 0
-0.60805249 1.4338211 -0.049886473 0
-0.61947954 1.446663 0.062500179 0
-0.63716149 1.4665345 0.17893746 0
-1.1731648 2.0689096 0.44163272 0
-1.1665369 2.061461 0.61972821 0
-0.62240922 1.420313 -0.049871348 0
-0.65924513 1.4606752 0.063822217 0
-0.65911245 1.4605298 0.18003735 0
-1.1784843 2.0296206 0.43701112 0
-1.1822976 2.0337989 0.61717719 0
-0.63960767 1.4098521 -0.050013836 0
-0.5113439 1.2728158 0.055312775 0
-0.69503057 1.4690658 0.1833311 0
-1.1926411 2.0007105 0.43491504 0
-1.1807171 1.9879709 0.6083169 0
-0.65727496 1.3997302 -0.050185483 0
-0.50555062 1.2416657 0.054363344 0
-0.71745467 1.4624246 0.184471 0
-1.2006935 1.9658568 0.43135193 0
-1.2004383 1.965591 0.60763413 0
-0.66315854 1.3774604 -0.049761783 0
-0.50887299 1.2207265 0.053909972 0
-0.74405169 1.4596372 0.18624854 0
-1.2078425 1.9307877 0.42771539 0
-1.2091883 1.9321549 0.60307318 0
-0.68533432 1.3717461 -0.050176244 0
-0.52713549 1.2150335 0.054226339 0
-0.7785449 1.4640808 0.18920392 0
-1.2177733 1.8991826 0.42494297 0
-1.2253587 1.9066967 0.60138571 0
-0.69520009 1.3537298 -0.049978249 0
-0.5442434 1.2079111 0.054485146 0
-0.80547905 1.4602551 0.19098565 0
-1.2251353 1.8656276 0.4216603 0
-1.2194945 1.8601788 0.59201688 0
-0.71174848 1.3421955 -0.050121531 0
-0.56562072 1.2045557 0.054954723 0
-0.8400346 1.46303 0.19387874 0
-1.2218825 1.8226978 0.4158918 0
-1.2292074 1.8295972 0.58842462 0
-0.72178555 1.3245397 -0.049954619 0
-0.87383437 1.4641856 0.069324993 0
-0.86210871 1.4534163 0.1949122 0
-1.2415872 1.8019401 0.41594434 0
-1.2316571 1.7928201 0.58249182 0
-0.23662539 0.87895471 0.38218018 0
-0.73513854 1.3100069 -0.049959205 0
-0.90040147 1.4579965 0.069879159 0
-0.90335536 1.4606416 0.19871746 0
-1.2247773 1.7484685 0.40722016 0
-1.231765 1.7547258 0.57598305 0
-0.23348601 0.86078709 0.37616408 0
-0.74852479 1.2954947 -0.049974035 0
-0.93917942 1.4619445 0.071009688 0
-1.234098 1.7194211 0.40500933 0
-1.2369334 1.7218965 0.57142264 0
-0.23306097 0.84547251 0.37183201 0
-0.76509273 1.2836727 -0.050146494 0
-0.97378397 1.4612886 0.07193017 0
-1.2404578 1.6882532 0.40220794 0
-1.2492676 1.6957512 0.56945091 0
-0.24410976 0.84026694 0.3738898 0
-0.2559616 0.85035396 0.45836198 0
-0.76698208 1.2595109 -0.049643185 0
-1.0058546 1.4576823 0.072723933 0
-1.2488009 1.6592332 0.39999288 0
-1.22663 1.6408399 0.55601615 0
-0.24982597 0.83047247 0.37309286 0
-0.78756058 1.2509133 -0.05001707 0
-1.0410821 1.4559038 0.073656693 0
-1.2561668 1.6298152 0.39765882 0
-1.2410676 1.6176064 0.55510986 0
-0.25806749 0.82277989 0.3737146 0
-0.79435456 1.2311143 -0.049765673 0
-1.0869409 1.4616597 0.07506448 0
-1.2473664 1.5880682 0.39172137 0
-1.2310188 1.575187 0.54635435 0
-0.26597625 0.81477481 0.37420616 0
-0.81553018 1.2225763 -0.050175279 0
-1.1313215 1.4650244 0.076388933 0
-1.2554258 1.560305 0.38979453 0
-1.235478 1.5449902 0.54252237 0
-0.25600857 0.79300517 0.36541456 0
-0.2488562 0.78751391 0.4358215 0
-0.81847298 1.200037 -0.049773008 0
-1.155687 1.4522475 0.076806746 0
-1.2514794 1.523893 0.385261 0
-1.240945 1.516014 0.53916895 0
-0.27541584 0.79387128 0.3720355 0
-0.28142095 0.79836267 0.45208627 0
-0.82696164 1.1818846 -0.049631957 0
-1.2068801 1.4586445 0.078412853 0
-1.2508855 1.4907011 0.38161972 0
-1.2390165 1.4820549 0.53362763 0
-1.2470136 1.4878806 0.69732225 0
-0.25910157 0.76821494 0.36029217 0
-0.28375614 0.78617501 0.44940475 0
-0.84732294 1.1722728 -0.050021902 0
-1.2592005 1.4644473 0.080050483 0
-1.2482667 1.4566911 0.37765592 0
-1.23287 1.4457691 0.52695042 0
-1.2343991 1.4468538 0.68594718 0
-0.2840696 0.77271658 0.36977413 0
-0.28153586 0.7709192 0.44404718 0
-0.84860182 1.1491443 -0.049585797 0
-1.295844 1.4580146 0.080990568 0
-1.2611688 1.4340676 0.37722251 0
-1.2429748 1.4215026 0.52551222 0
-1.2399982 1.4194469 0.6822446 0
-0.27846664 0.75540268 0.43833709 0
-0.87053478 1.1402658 -0.050054435 0
-1.2901073 1.4222912 0.080103166 0
-1.2840815 1.4182408 0.22828773 0
-1.2502569 1.3955048 0.37168005 0
-1.2388842 1.3878604 0.5198167 0
-1.2443607 1.3915415 0.67821634 0
-0.28942525 0.74965948 0.44125032 0
-0.87647176 1.1205264 -0.049841635 0
-1.2732161 1.3800151 0.078766473 0
-1.2809023 1.3850422 0.22603126 0
-1.2498529 1.3647345 0.36855254 0
-1.2388088 1.3575112 0.51552153 0
-1.2404413 1.3585789 0.67106915 0
-0.2999348 0.74344522 0.44391462 0
-0.89124644 1.106584 -0.050015062 0
-1.2791915 1.3533998 0.078430638 0
-1.26897 1.3468966 0.22273134 0
-1.2472823 1.3330986 0.36507002 0
-1.2407005 1.3289113 0.51197159 0
-1.2330887 1.3240685 0.66278952 0
-0.29909724 0.72985083 0.43987522 0
-0.90388334 1.0911714 -0.050104789 0
-1.2889899 1.3294232 0.07827203 0
-1.2831049 1.3257824 0.22281215 0
-1.2446955 1.30202 0.36169595 0
-1.2459077 1.3027698 0.5095523 0
-1.2458984 1.3027641 0.66263252 0
-0.91442025 1.0744184 -0.050114475 0
-1.2964731 1.3041803 0.078030795 0
-1.3179878 1.3171189 0.22552778 0
-1.2461085 1.2738916 0.35927171 0
-1.2396145 1.2699862 0.50382584 0
-1.2392112 1.2697437 0.65501219 0
-0.9212935 1.055513 -0.049981348 0
-1.328068 1.2932198 0.078801543 0
-1.3257996 1.2918942 0.22486745 0
-1.246596 1.24561 0.35674617 0
-1.2362407 1.2395587 0.49912646 0
-1.2391846 1.241279 0.65017515 0
-0.92406237 1.0343822 -0.049690489 0
-1.368822 1.2868283 0.079948485 0
-1.3822079 1.2944261 0.23025653 0
-1.2524741 1.2207891 0.35543063 0
-1.2341844 1.2104077 0.49495983 0
-1.2405841 1.2140403 0.6460557 0
-0.94493222 1.0234572 -0.050150383 0
-1.2494119 1.1912467 0.35234779 0
-1.2423829 1.1873733 0.49391666 0
-1.2526906 1.1930535 0.64616263 0
-0.94682384 1.0020117 -0.049844436 0
-1.256019 1.167359 0.35133952 0
-1.2351943 1.1562227 0.48851284 0
-1.2360187 1.1566634 0.63551152 0
-0.95382118 0.98345393 -0.049756713 0
-1.2558173 1.1400939 0.3490158 0
-1.2396066 1.1316857 0.48659149 0
-1.2375455 1.1306167 0.6319226 0
-0.97450948 0.97184592 -0.050226007 0
-1.2680918 1.1194608 0.34929475 0
-1.2422314 1.1064581 0.48426035 0
-1.2407196 1.105698 0.62909228 0
-0.9762336 0.95062828 -0.049945157 0
-1.284981 1.1010282 0.35055006 0
-1.2427819 1.0804718 0.48144522 0
-1.2348312 1.0765988 0.62304205 0
-0.98703396 0.93390691 -0.05003481 0
-1.2925775 1.0780147 0.34999135 0
-1.2370831 1.0518411 0.47697654 0
-1.242224 1.0542657 0.62204814 0
-0.9922483 0.91456342 -0.049913026 0
-1.3120267 1.0604917 0.35184318 0
-1.2425581 1.0287902 0.47576845 0
-1.236429 1.0259932 0.61634034 0
-1.0030353 0.89776915 -0.050018899 0
-1.3119808 1.0340803 0.3498854 0
-1.2464848 1.0051825 0.47421643 0
-1.2316689 0.99864554 0.61117029 0
-1.0118216 0.88003755 -0.050054796 0
-1.3182808 1.010667 0.3492476 0
-1.2464544 0.98005056 0.47165796 0
-1.2525638 0.98265481 0.61543119 0
-1.0146507 0.859824 -0.049869165 0
-1.3342565 0.99132681 0.35055768 0
-1.2410972 0.95299608 0.46773064 0
-1.2415119 0.95316672 0.6082496 0
-1.0302093 0.8447991 -0.050183192 0
-1.3386457 0.96718818 0.34966049 0
-1.2404702 0.92823166 0.46521503 0
-1.2442472 0.92973042 0.60617191 0
-1.0311366 0.82394016 -0.049943734 0
-1.358286 0.94901013 0.35177112 0
-1.2355188 0.90207595 0.46161568 0
-1.2469449 0.90644419 0.60419619 0
-1.0449286 0.80799121 -0.050204787 0
-1.3619117 0.92462164 0.35083854 0
-1.2378265 0.87896591 0.46009615 0
-1.2366682 0.87853974 0.59773439 0
-1.0346664 0.78333557 -0.049561404 0
-1.3697324 0.90185106 0.35077152 0
-1.2376661 0.85513818 0.4579944 0
-1.2404683 0.85612929 0.59639311 0
-1.054235 0.76928639 -0.050057229 0
-1.3755865 0.87841845 0.35038495 0
-1.2410706 0.83273637 0.45694315 0
-1.2442495 0.83381593 0.59515035 0
-1.0643677 0.75179374 -0.050203398 0
-1.3825052 0.85538518 0.35025796 0
-1.2337415 0.80694497 0.45309204 0
-1.2502515 0.81232095 0.59478819 0
-1.0569471 0.72871757 -0.049700826 0
-1.3868942 0.8315779 0.3497085 0
-1.2371684 0.7849012 0.45221746 0
-1.2423952 0.78653061 0.58969247 0
-1.0685599 0.71167964 -0.04992003 0
-1.3915138 0.80791545 0.34926099 0
-1.2480564 0.76516712 0.45340645 0
-1.2463477 0.76465791 0.58882833 0
-1.0726713 0.69234496 -0.049868003 0
-1.4033242 0.78635854 0.35021931 0
-1.2345974 0.73838496 0.44819933 0
-1.2429926 0.74077195 0.58553517 0
-1.0810946 0.67421257 -0.049984656 0
-1.410919 0.76351756 0.35043752 0
-1.250442 0.72006601 0.45084473 0
-1.2365692 0.71630967 0.58129942 0
-1.0782895 0.65310293 -0.049695443 0
-1.414283 0.73955268 0.34992081 0
-1.2406732 0.69488358 0.44679478 0
-1.2487913 0.69697237 0.58358872 0
-1.0906675 0.63590342 -0.04997484 0
-1.4210079 0.71647787 0.35008568 0
-1.2319908 0.6703741 0.44312602 0
-1.2419022 0.6727916 0.5794099 0
-1.0967311 0.6170423 -0.05003003 0
-1.4268469 0.69317126 0.35013998 0
-1.239125 0.64988017 0.44369003 0
-1.2517248 0.65278584 0.58105314 0
-1.1065934 0.59896392 -0.050232545 0
-1.4305168 0.66938144 0.34984803 0
-1.2404398 0.6280607 0.44280055 0
-1.2349913 0.62687629 0.57373637 0
-1.1122799 0.57988369 -0.050290685 0
-1.4326636 0.64531827 0.34933171 0
-1.242069 0.60639155 0.44206688 0
-1.2428455 0.60655016 0.5748983 0
-1.0948561 0.55634087 -0.049517427 0
-1.4399455 0.62230617 0.34981519 0
-1.2410606 0.58428848 0.44072086 0
-1.242011 0.58447015 0.5732013 0
-1.106504 0.53852749 -0.04981089 0
-1.4460136 0.59900552 0.35012838 0
-1.2501072 0.56410801 0.44205576 0
-1.2331061 0.56107956 0.5688749 0
-1.122417 0.52120566 -0.05026621 0
-1.4589293 0.57678765 0.35174632 0
-1.2380861 0.5403108 0.43800578 0
-1.2392892 0.54050952 0.56974459 0
-1.1240056 0.50137478 -0.050211247 0
-1.4527496 0.55142987 0.34992871 0
-1.2437618 0.51960903 0.43860808 0
-1.2442709 0.51968658 0.57029563 0
-1.1140785 0.47997451 -0.049750291 0
-1.4478297 0.52650017 0.3484019 0
-1.235719 0.49693146 0.43574259 0
-1.2491192 0.49879947 0.570889 0
-1.1272526 0.46182314 -0.050131097 0
-1.4606774 0.50403064 0.35016456 0
-1.2405529 0.47616559 0.43626672 0
-1.2386794 0.47592843 0.56644291 0
-1.1305586 0.44227517 -0.050164998 0
-0.50717491 0.37132522 0.039765716 0
-0.507599 0.3713735 0.10768863 0
-0.51732516 0.37248048 0.17841333 0
-1.2411737 0.45486474 0.43577543 0
-1.2360444 0.45428094 0.564713 0
-1.1292392 0.42223248 -0.05004172 0
-0.50298899 0.35893291 0.039569862 0
-0.5034802 0.35898253 0.10710625 0
-0.49583763 0.35821006 0.17428525 0
-1.2420207 0.43363211 0.43541157 0
-1.2444888 0.43388158 0.5667814 0
-1.1219817 0.40174916 -0.049714807 0
-0.46496326 0.34368685 0.038166989 0
-0.51108253 0.3477625 0.10780594 0
-0.5266912 0.3491419 0.17967075 0
-1.2362632 0.41184849 0.43342507 0
-1.2475307 0.41284424 0.5671289 0
-1.1325197 0.38284099 -0.050034586 0
-0.49673975 0.33471501 0.10615502 0
