# .PCD v0.7 - Point Cloud Data file format
VERSION 0.7
FIELDS x y z intensity
SIZE 4 4 4 4
TYPE F F F F
COUNT 1 1 1 1
WIDTH 1353
HEIGHT 1
VIEWPOINT 0 0 0 1 0 0 0
POINTS 1353
DATA ascii
-1.2260516 0.15980817 0.55890006 0
-1.1297365 0.14611381 -0.049934939 0
-0.51799589 0.19242013 0.10844593 0
-0.51007414 0.19301978 0.17648602 0
-1.2442514 0.13744549 0.43502769 0
-1.2343334 0.13819624 0.56214637 0
-1.1167542 0.12745695 -0.049527448 0
-0.51589388 0.18055645 0.10832502 0
-0.51148266 0.18094628 0.17691721 0
-1.2290102 0.11753661 0.4315674 0
-1.2304646 0.11740809 0.56142896 0
-1.125843 0.10685495 -0.049919855 0
-0.51637596 0.16845812 0.10849921 0
-0.50914931 0.16918857 0.17669822 0
-1.2446859 0.09484265 0.43609503 0
-1.2392411 0.095392995 0.56502658 0
-1.1278036 0.086782552 -0.050066002 0
-0.51534766 0.15648872 0.040059377 0
-0.50997132 0.15710062 0.10794523 0
-0.51873022 0.15610373 0.17866838 0
-1.2339458 0.074702047 0.43391946 0
-1.2345171 0.074637033 0.56420159 0
-1.1307901 0.066473208 -0.050258398 0
-0.50566208 0.1456068 0.039762419 0
-0.51074219 0.14496373 0.10818315 0
-0.51351106 0.14461321 0.17798112 0
-1.2284743 0.05410758 0.43316048 0
-1.2415808 0.05244844 0.56741589 0
-1.1176229 0.048275549 -0.049878053 0
-0.51173538 0.13273762 0.040037923 0
-0.50624692 0.13350272 0.10786663 0
-0.5124051 0.13264425 0.17806797 0
-1.2494533 0.029898081 0.43928057 0
-1.24278 0.03082836 0.56875962 0
-1.1221236 0.027655933 -0.050143283 0
-0.51211309 0.1205372 0.04011412 0
-0.51347387 0.12032998 0.10883947 0
-0.50905359 0.12100304 0.17777281 0
-1.2340325 0.010616501 0.4360972 0
-1.239719 0.009750654 0.56876379 0
-1.1277505 0.0066575003 -0.050459206 0
-0.5139311 0.10804246 0.040248148 0
-0.51635283 0.10764245 0.10935879 0
-0.52732658 0.1058299 0.18145658 0
-1.2366765 -0.011333863 0.43764126 0
-1.2313861 -0.010460029 0.56707966 0
-1.1111522 -0.010611366 -0.049979448 0
-0.51629114 0.095353194 0.040407833 0
-0.50494027 0.097375162 0.10833661 0
-0.52543437 0.093724482 0.18148957 0
-1.2442131 -0.034313958 0.4405283 0
-1.2453612 -0.034518462 0.57301629 0
-1.1205118 -0.032500934 -0.050449949 0
-0.50578952 0.085005887 0.040106207 0
-0.50444084 0.085263677 0.10852017 0
-0.50643361 0.084882759 0.17840923 0
-1.2471632 -0.05671088 0.44230598 0
-1.2436185 -0.056033324 0.57374579 0
-1.1054209 -0.049738687 -0.050040755 0
-0.51392543 0.071067251 0.040487673 0
-0.51589179 0.070665635 0.11003171 0
-0.51841342 0.070150636 0.18104409 0
-1.2461765 -0.078486361 0.44313648 0
-1.2378165 -0.076778896 0.57319063 0
-1.0979906 -0.068349637 -0.049918242 0
-0.5080384 0.059899751 0.040364254 0
-0.52338129 0.056564365 0.11113191 0
-0.51590598 0.058189411 0.18104656 0
-1.2521977 -0.1018726 0.44587043 0
-1.2338817 -0.097890921 0.5733586 0
-1.0980841 -0.08861018 -0.050079603 0
-0.52038372 0.044614989 0.040913627 0
-0.51406902 0.046071235 0.11040179 0
-0.50989139 0.047034655 0.18042777 0
-1.2374859 -0.120758 0.44326082 0
-1.2408044 -0.12152333 0.57732463 0
-1.0892056 -0.10680274 -0.049921121 0
-0.5106352 0.034318376 0.040659845 0
-0.51721275 0.032714013 0.11106191 0
-0.52207172 0.031528849 0.18321076 0
-1.2390859 -0.14336054 0.44498926 0
-1.2333961 -0.14197271 0.57649696 0
-1.0905679 -0.12751798 -0.050148074 0
-0.55701238 0.0097636776 0.042479038 0
-0.55978894 0.0090492861 0.11611861 0
-0.55897909 0.0092576342 0.1906438 0
-1.239082 -0.16573004 0.44637561 0
-1.2280778 -0.1628987 0.576473 0
-1.0887128 -0.14753117 -0.05026643 0
-0.61834538 -0.020171952 0.044869028 0
-0.62529933 -0.022054832 0.12377917 0
-1.2338103 -0.18681855 0.31734604 0
-1.2405152 -0.18863399 0.44822088 0
-1.2369531 -0.18766953 0.58143181 0
-1.0733917 -0.16380565 -0.049894739 0
-0.6867696 -0.053878557 0.047544751 0
-0.68995321 -0.054783743 0.13141519 0
-1.2483433 -0.21354915 0.32116088 0
-1.2391018 -0.21092151 0.44939408 0
-1.2370212 -0.21032996 0.58346975 0
-1.0727427 -0.18418197 -0.050075851 0
-0.77620459 -0.095817722 0.051029023 0
-0.77676439 -0.095984526 0.14161076 0
-1.236722 -0.2330455 0.32013139 0
-1.2363396 -0.23293154 0.45028719 0
-1.2503883 -0.23711787 0.59023106 0
-1.061213 -0.20130332 -0.049860358 0
-0.86677003 -0.14068608 0.054588985 0
-0.87383413 -0.14288832 0.15305951 0
-1.2420608 -0.25768223 0.32234812 0
-1.2413942 -0.25747439 0.45334673 0
-1.2360317 -0.25580266 0.58747488 0
-1.0569512 -0.22063465 -0.049924936 0
-0.98162627 -0.19610746 0.059096768 0
-0.98351443 -0.19672228 0.16604719 0
-1.2394123 -0.28004733 0.3231177 0
-1.2337219 -0.27819446 0.45308676 0
-1.2409179 -0.28053758 0.59152246 0
-1.0498409 -0.23905008 -0.049891554 0
-1.1367925 -0.2685791 0.065169968 0
-1.127269 -0.26534489 0.18303466 0
-1.2359192 -0.30224285 0.32378325 0
-1.2360728 -0.302295 0.45559651 0
-1.0488738 -0.25961664 -0.050099421 0
-1.2960272 -0.34703681 0.20304647 0
-1.242393 -0.32806596 0.32641178 0
-1.2365016 -0.32598212 0.45767924 0
-1.0468553 -0.27995601 -0.050278082 0
-1.2500899 -0.35473391 0.19868331 0
-1.2405822 -0.35123566 0.32752278 0
-1.2396617 -0.35089698 0.46059507 0
-1.0199981 -0.29093769 -0.049518004 0
-1.2374357 -0.37406465 0.19813961 0
-1.2322083 -0.37206623 0.32742816 0
-1.2379954 -0.37427863 0.46229213 0
-1.0275389 -0.31499532 -0.050080623 0
-1.2442415 -0.40098402 0.19987126 0
-1.2441536 -0.40094915 0.33132637 0
-1.23959 -0.3991383 0.46497345 0
-1.0252409 -0.33543727 -0.050278001 0
-1.247691 -0.42696503 0.20126115 0
-1.2411691 -0.42428157 0.33240396 0
-1.2478069 -0.42701265 0.46958175 0
-1.0017576 -0.34700355 -0.049664214 0
-1.2549045 -0.45490834 0.20313635 0
-1.2312326 -0.44481817 0.33218187 0
-1.2370298 -0.4472892 0.46904409 0
-1.0007238 -0.36800519 -0.049928699 0
-1.2515761 -0.47868475 0.20382494 0
-1.2401375 -0.47363785 0.33572343 0
-1.2435695 -0.47515211 0.47340348 0
-0.99910724 -0.3889493 -0.050182186 0
-1.2451017 -0.50120682 0.2041811 0
-1.2369932 -0.49750659 0.33696854 0
-1.2367078 -0.49737635 0.47412777 0
-0.98434794 -0.40389594 -0.049928784 0
-1.2293705 -0.51945937 0.20347308 0
-1.2413819 -0.52512449 0.33978289 0
-1.2403252 -0.52462608 0.47789109 0
-0.97791958 -0.42270544 -0.050012112 0
-1.5078573 -0.68085372 0.083056942 0
-1.2316788 -0.54631907 0.2049446 0
-1.2399102 -0.55032879 0.34150848 0
-1.2419772 -0.55133569 0.48121688 0
-0.96561563 -0.4386299 -0.04987061 0
-1.4501234 -0.68224335 0.081231616 0
-1.2372398 -0.57520419 0.20685725 0
-1.2249564 -0.56902802 0.34058735 0
-1.240626 -0.57690674 0.4838019 0
-0.95820391 -0.45698306 -0.049932979 0
-1.3986368 -0.68542773 0.079646289 0
-1.2404106 -0.60335863 0.20853695 0
-1.2478954 -0.60724086 0.34740633 0
-0.94898844 -0.47442499 -0.049932066 0
-1.3414761 -0.68431449 0.077822156 0
-1.2385426 -0.62926906 0.20965701 0
-1.2340147 -0.62684774 0.34683928 0
-0.94000125 -0.49199566 -0.049949382 0
-1.302142 -0.69156063 0.076711424 0
-1.2424704 -0.65867734 0.21153593 0
-1.2366229 -0.65545499 0.34971428 0
-0.93643069 -0.51265842 -0.050198227 0
-1.2709641 -0.70253992 0.075931281 0
-1.2353827 -0.68234378 0.21211269 0
-1.241055 -0.68556345 0.35306257 0
-0.9241029 -0.52841061 -0.050097518 0
-1.2519816 -0.72001302 0.075655356 0
-1.2392021 -0.7125451 0.21408835 0
-1.2423369 -0.71437693 0.35585648 0
-0.91674936 -0.54707503 -0.050211504 0
-1.2499013 -0.74742836 0.076090612 0
-1.2499394 -0.74745136 0.21699408 0
-1.2428771 -0.74320418 0.35859165 0
-0.89670384 -0.5579856 -0.049803387 0
-1.2444359 -0.7731151 0.076401599 0
-1.2441639 -0.77294689 0.21789105 0
-1.2315422 -0.76513821 0.35890645 0
-0.89180005 -0.57819206 -0.050038483 0
-1.248474 -0.80511266 0.077130854 0
-1.243044 -0.80165809 0.219429 0
-1.2356967 -0.79698354 0.36259353 0
-0.89561546 -0.60430312 -0.050658293 0
-1.2551113 -0.83942968 0.077994138 0
-1.2427727 -0.83135968 0.22113487 0
-1.2413993 -0.83046132 0.36673081 0
-0.86958957 -0.61088628 -0.050013773 0
-1.2508353 -0.86714941 0.078413807 0
-1.2417607 -0.86104983 0.22280757 0
-1.2400088 -0.85987216 0.3694531 0
-0.8491776 -0.62079775 -0.049610782 0
-1.2401997 -0.8908419 0.078576297 0
-1.2356293 -0.8876856 0.22387487 0
-1.2336653 -0.88632923 0.37119439 0
-0.85147202 -0.64647192 -0.050203513 0
-1.2325491 -0.91679734 0.078883909 0
-1.2382005 -0.92080635 0.22614241 0
-1.6163038 -1.1890221 0.45903525 0
-0.83045876 -0.65568817 -0.049786426 0
-1.2384244 -0.95287949 0.079806156 0
-1.2350941 -0.95045334 0.22773112 0
-1.5591093 -1.1864892 0.45039308 0
-0.82437837 -0.67570955 -0.050036278 0
-1.2419703 -0.98803681 0.080653444 0
-1.2390475 -0.98585075 0.23033223 0
-0.81327045 -0.69209731 -0.050073568 0
-1.2432289 -1.0221967 0.081425838 0
-1.2389455 -1.018908 0.2324692 0
-0.79730761 -0.70469695 -0.049899895 0
-1.1573766 -0.98841602 0.078265972 0
-1.164214 -0.99380344 0.22447313 0
-1.1624732 -0.99243182 0.37222916 0
-0.79085326 -0.72483146 -0.050168242 0
-1.1476142 -1.0132984 0.078547768 0
-1.1435847 -1.0100402 0.22382899 0
-1.1435262 -1.009993 0.37153432 0
-0.76926267 -0.73265874 -0.049748976 0
-1.2424606 -1.125229 0.083699539 0
-1.2396705 -1.1229143 0.23950435 0
-1.336067 -1.202886 0.42044216 0
-0.75865948 -0.74945325 -0.049844895 0
-1.2404537 -1.1595055 0.084431946 0
-1.2454718 -1.1637764 0.24280684 0
-1.3100029 -1.2186985 0.41867796 0
-1.0364752 -0.98590058 0.49815983 0
-0.74097502 -0.76015931 -0.049616233 0
-1.2810365 -1.2316562 0.41624683 0
-0.98936951 -0.97701842 0.48757708 0
-0.73373151 -0.78000277 -0.049891774 0
-1.1998254 -1.1973804 0.08422856 0
-1.1981933 -1.1959189 0.24125099 0
-1.2034183 -1.2005976 0.40204933 0
-0.97107637 -0.9925403 0.48670384 0
-0.72063136 -0.79473549 -0.049898673 0
-0.92837942 -0.98553711 0.4774341 0
-0.71514797 -0.81665331 -0.050288256 0
-0.89159727 -0.98285347 0.47009614 0
-0.69931543 -0.82896084 -0.050182521 0
-0.85653615 -0.98083025 0.46326694 0
-0.68632221 -0.84398049 -0.050225884 0
-0.83211029 -0.98839885 0.46016234 0
-0.6639719 -0.84954256 -0.049803175 0
-0.81963515 -1.0076759 0.46139851 0
-0.6529355 -0.86646527 -0.049961761 0
-0.63681877 -0.87812847 -0.049868133 0
-0.61906171 -0.88790101 -0.049694065 0
-0.6049192 -0.9015556 -0.049718197 0
-0.59764075 -0.92315334 -0.050125945 0
-0.57493365 -0.92695707 -0.049701713 0
-0.56513715 -0.94595784 -0.04999828 0
-0.55090696 -0.95977873 -0.050060321 0
-0.52700251 -0.96131819 -0.049573079 0
-0.51842415 -0.98238915 -0.049981069 0
-0.50683475 -0.99989551 -0.050231535 0
-0.48894686 -1.0090048 -0.050116148 0
-0.46781534 -1.0133752 -0.049804691 0
-0.45304143 -1.0266308 -0.049892157 0
-0.43737775 -1.0386702 -0.049934708 0
-0.4233821 -1.0533386 -0.050097261 0
-0.37520307 -0.97916621 0.49933514 0
-0.40979195 -1.0688694 -0.050302416 0
-0.35020679 -0.97455829 0.49355817 0
-0.38415778 -1.0650768 -0.049703553 0
-0.32870197 -0.97480422 0.48984429 0
-0.36739516 -1.0753242 -0.04970644 0
-0.3113963 -0.98154014 0.48877832 0
-0.35625458 -1.0952725 -0.050118454 0
-0.2943446 -0.98855871 0.48791304 0
-0.3369841 -1.1013901 -0.049966566 0
-0.2749694 -0.99132603 0.48551267 0
-0.32006758 -1.1115948 -0.049991947 0
-0.25719786 -0.99665254 0.48419216 0
-0.30163497 -1.1189874 -0.049912143 0
-0.22784282 -0.97994608 0.47466636 0
-0.28794438 -1.1354775 -0.050207485 0
-0.20782562 -0.97981304 0.47154224 0
-0.26177728 -1.1274313 -0.049528953 0
-0.1846232 -0.97277158 0.4659631 0
-0.25648254 -1.1614853 -0.050536964 0
-0.17092647 -0.98443693 0.4674384 0
-0.23447986 -1.1615082 -0.050200377 0
-0.14514543 -0.97053987 0.45957953 0
-0.21313621 -1.1624194 -0.049911398 0
-0.12895371 -0.97639674 0.45909786 0
-0.19118591 -1.161443 -0.049560953 0
-0.11514397 -0.98761457 0.46063983 0
-0.1761408 -1.1761819 -0.049832195 0
-0.10213496 -1.0010343 0.46303186 0
-0.16005708 -1.1888887 -0.050031025 0
-0.070857301 -0.9701398 0.34614283 0
-0.086338118 -1.0081041 0.46318921 0
-0.13844581 -1.1879281 -0.049712356 0
-0.051863596 -0.96770757 0.34376526 0
-0.067055777 -1.0063486 0.46026215 0
-0.1252382 -1.2085328 -0.050228886 0
-0.033694133 -0.9667967 0.14748256 0
-0.031330004 -0.96055382 0.24222381 0
-0.013779504 -0.91420907 0.32753286 0
-0.056921974 -1.0281333 0.46581003 0
-0.106178 -1.2141483 -0.050179835 0
-0.0088020097 -0.94689959 0.14454639 0
-0.010234756 -0.95083183 0.23925522 0
0.0057892068 -0.90685397 0.32403502 0
-0.084684983 -1.2127211 -0.049873699 0
0.0073056384 -0.95001513 0.14427932 0
0.0081637669 -0.94756454 0.23758398 0
0.020725267 -0.91169149 0.32391527 0
-0.0017717017 -0.97593826 0.44321108 0
-0.067466751 -1.223345 -0.050032962 0
0.023095028 -0.95388943 0.14412244 0
0.02338578 -0.95302433 0.23762439 0
0.023111301 -0.95384103 0.33388951 0
0.014025347 -0.98087507 0.443059 0
-0.048704758 -1.2295532 -0.050034102 0
0.037382171 -0.9623155 0.14450261 0
0.036308452 -0.96564859 0.23905854 0
0.020162897 -1.0157689 0.34913293 0
0.022653418 -1.0080376 0.4507457 0
-0.03144832 -1.2406583 -0.050227024 0
0.024575578 -1.0589356 0.35929847 0
-0.014635427 -1.2537619 -0.050501719 0
0.064100102 -0.98646098 0.33868405 0
0.011800217 -1.2333395 -0.049540058 0
0.083784178 -0.97709912 0.33499992 0
0.026202964 -1.2553055 -0.05016043 0
0.098331794 -0.98554951 0.33609793 0
0.047759995 -1.2508887 -0.049813718 0
0.11747475 -0.9763543 0.33259585 0
0.063419297 -1.2699548 -0.050340332 0
0.082137838 -1.2772514 -0.050441768 0
0.10239963 -1.2776965 -0.050301395 0
0.12049828 -1.2884194 -0.050544947 0
0.14278071 -1.2778224 -0.050021745 0
-0.064775273 -2.3824944 0.10215005 0
0.16239803 -1.2803407 -0.049985219 0
0.00079305633 -2.2044141 0.095476523 0
0.1834947 -1.2735819 -0.049622189 0
0.034150705 -2.1958318 0.094976597 0
0.20149787 -1.2858638 -0.04995672 0
0.066314325 -2.1929026 0.09469685 0
0.22032854 -1.2938412 -0.050143763 0
0.096011475 -2.2066584 0.095033355 0
0.24141294 -1.2846559 -0.049721677 0
0.1294124 -2.1923754 0.094374187 0
0.25983152 -1.2968899 -0.050079077 0
0.16011186 -2.1983299 0.094457962 0
0.28059652 -1.2877743 -0.049678519 0
0.19094749 -2.2035501 0.094529182 0
0.29908404 -1.3020995 -0.050127655 0
0.22208892 -2.2058315 0.094508938 0
0.3186596 -1.3058447 -0.050206009 0
0.25472683 -2.1873503 0.093759559 0
0.33874044 -1.3021294 -0.050026298 0
0.28516197 -2.1968951 0.094027802 0
0.35843593 -1.3039502 -0.0500536 0
0.31682274 -2.1846142 0.093529515 0
0.37832645 -1.3007879 -0.049911745 0
0.34740052 -2.1935878 0.093804963 0
0.3984009 -1.2848792 -0.0493237 0
0.37853834 -2.1861892 0.093509436 0
0.41777363 -1.2996875 -0.049841434 0
0.43751952 -1.3160501 -0.050423391 0
0.45725653 -1.3055681 -0.050055835 0
0.477301 -1.3149768 -0.050407428 0
0.49650902 -1.2978193 -0.049818981 0
0.51658589 -1.3045825 -0.050094005 0
0.53651202 -1.3060851 -0.05019008 0
0.55587983 -1.2996057 -0.050009381 0
0.576671 -1.3100387 -0.050443526 0
0.59614736 -1.3048764 -0.050327852 0
0.61505467 -1.295526 -0.050070267 0
0.65664989 -1.6510328 0.074848898 0
0.63415247 -1.2890302 -0.049923599 0
0.68796378 -1.7036457 0.076850057 0
0.65441054 -1.291381 -0.050104361 0
0.6953578 -1.578506 0.072458804 0
0.67366612 -1.2864341 -0.050031014 0
0.71601027 -1.558774 0.071870722 0
0.69316757 -1.2832397 -0.050029732 0
0.73830479 -1.5512681 0.07173343 0
0.71227407 -1.2778554 -0.04995789 0
0.75496161 -1.5132022 0.070497163 0
0.73276049 -1.2798179 -0.050161816 0
0.7688871 -1.4656373 0.068920016 0
0.75148922 -1.2725869 -0.050040454 0
0.78992808 -1.4578184 0.06879434 0
0.77067453 -1.2678077 -0.050017003 0
0.84895825 -1.6225352 0.074985951 0
0.78951222 -1.2616013 -0.049949996 0
0.8336904 -1.450454 0.0688743 0
0.84114337 -1.4823141 0.19878289 0
0.80867279 -1.2568846 -0.049946278 0
0.85548449 -1.4462142 0.068909131 0
0.8573842 -1.4538977 0.19622192 0
0.82696718 -1.2488428 -0.04982876 0
0.88314945 -1.4643867 0.19799605 0
0.84883779 -1.2541476 -0.050213426 0
0.8680982 -1.2493883 -0.050235812 0
0.8863951 -1.2413667 -0.050145674 0
0.90321171 -1.2288499 -0.049895514 0
0.92330772 -1.2268521 -0.050047614 0
0.94300842 -1.223362 -0.050153583 0
0.96488076 -1.2257191 -0.050491083 0
0.97737342 -1.2021366 -0.049852706 0
0.99786121 -1.2005135 -0.050057564 0
0.92332876 -1.0073808 0.45951805 0
1.0157665 -1.1920444 -0.05001007 0
0.94207799 -1.0080308 0.46200171 0
1.034703 -1.1861384 -0.050070103 0
0.95721757 -0.99948806 0.46127182 0
1.0507133 -1.1733118 -0.049870752 0
0.97302485 -0.99263126 0.46121737 0
1.0699552 -1.1680858 -0.049975146 0
0.98803121 -0.98397785 0.46058071 0
1.086827 -1.1575253 -0.049879994 0
1.0059519 -0.98176676 0.46236867 0
1.1031556 -1.1459714 -0.049753379 0
1.0238643 -0.97921652 0.46412534 0
1.1202799 -1.1362338 -0.049706366 0
1.0461162 -0.98519629 0.46913776 0
1.1392951 -1.1302937 -0.049819648 0
1.0609915 -0.97577399 0.46854189 0
1.1598294 -1.127081 -0.050053164 0
1.0845358 -0.98302859 0.47427267 0
1.1756246 -1.1147189 -0.049927674 0
1.1018771 -0.97785062 0.4754557 0
1.1898558 -1.0997159 -0.04970156 0
1.1338215 -0.99878579 0.057580151 0
1.1307502 -0.99325377 0.16058841 0
1.1360108 -1.0027292 0.2673758 0
1.132136 -0.99574977 0.37372112 0
1.1351877 -1.0012466 0.48760298 0
1.2128513 -1.1003561 -0.050124481 0
1.1467869 -0.98481244 0.057372745 0
1.1435306 -0.9791171 0.15993902 0
1.1488713 -0.98845774 0.26627195 0
1.1473352 -0.98577112 0.37340665 0
1.1491925 -0.98901933 0.48634604 0
1.2305847 -1.0914623 -0.050167538 0
1.1656183 -0.98108763 0.057595097 0
1.1624014 -0.97562212 0.16063185 0
1.1656808 -0.98119372 0.26666009 0
1.1584885 -0.96897441 0.37112781 0
1.1653321 -0.98060125 0.4866181 0
1.2472463 -1.0807338 -0.050143637 0
1.2612976 -1.0658418 -0.049953207 0
1.2837545 -1.0643135 -0.050335314 0
1.2983167 -1.0503016 -0.050198998 0
1.31662 -1.0419834 -0.05031484 0
1.3277225 -1.0231597 -0.04998488 0
1.3469887 -1.0161631 -0.050176889 0
1.3628423 -1.0042784 -0.050164968 0
1.3803706 -0.99462706 -0.050261617 0
1.3956362 -0.98193091 -0.050231747 0
1.4063467 -0.96351999 -0.049949896 0
1.2010738 -0.7046867 0.050155949 0
1.2066993 -0.71178001 0.13989276 0
1.4228302 -0.95251316 -0.050012119 0
1.2053988 -0.68532908 0.049713884 0
1.1985049 -0.67685777 0.13641532 0
1.4417973 -0.94440728 -0.050219532 0
1.2044988 -0.66019619 0.04900106 0
1.2085546 -0.66505373 0.1361234 0
1.4572334 -0.93194944 -0.050235782 0
1.2053872 -0.63792038 0.048414286 0
1.2035737 -0.6358031 0.1333774 0
1.4633324 -0.90884227 -0.049755305 0
1.2024902 -0.61195946 0.047646385 0
1.2102057 -0.62074107 0.13262171 0
1.478657 -0.89647406 -0.049789127 0
1.2111224 -0.59959787 0.04752155 0
1.1983873 -0.58546603 0.12894522 0
1.4896473 -0.87937647 -0.049602754 0
1.5133172 -0.87584251 -0.050088115 0
1.5268816 -0.86141688 -0.05005192 0
1.5398773 -0.84645253 -0.04999667 0
1.5568345 -0.83541352 -0.050149407 0
1.5655063 -0.81631809 -0.049898442 0
1.5737737 -0.79708415 -0.04964247 0
1.5988394 -0.79332358 -0.050210755 0
1.6064497 -0.77359003 -0.049943175 0
1.6211067 -0.76017576 -0.050022401 0
1.6356143 -0.74655885 -0.050101746 0
1.6445382 -0.72829229 -0.049930558 0
1.655337 -0.71167284 -0.049857292 0
1.6679128 -0.69649708 -0.049874622 0
1.6907588 -0.68908453 -0.05036043 0
1.6856385 -0.66059905 -0.049604934 0
1.7079835 -0.65250999 -0.0500797 0
1.7106154 -0.63021022 -0.049695704 0
1.7240999 -0.61562884 -0.049796011 0
1.7356278 -0.59966147 -0.04981957 0
1.7449539 -0.58225036 -0.04975798 0
1.7505403 -0.56254047 -0.049548529 0
1.7691286 -0.55093098 -0.049894828 0
1.7788275 -0.533764 -0.04987571 0
1.7922659 -0.51876271 -0.050019726 0
1.7988861 -0.49982789 -0.04989158 0
1.8040293 -0.4801906 -0.049714033 0
1.817856 -0.46526489 -0.049898047 0
1.8291755 -0.44890943 -0.049987935 0
1.840274 -0.43237039 -0.050076693 0
1.8501952 -0.41519406 -0.050126575 0
1.8545609 -0.39539799 -0.04996606 0
1.8615505 -0.37689999 -0.049918905 0
1.8673308 -0.35791036 -0.049834043 0
1.8761029 -0.34023532 -0.049874708 0
1.8875048 -0.32358876 -0.05002502 0
1.8946435 -0.30516431 -0.050019309 0
1.8989072 -0.28566238 -0.049912862 0
1.9143804 -0.27028146 -0.05024169 0
1.9142704 -0.24924998 -0.049987607 0
1.920325 -0.2304544 -0.049976505 0
1.9239707 -0.21089609 -0.049884073 0
1.9316739 -0.1926396 -0.049952641 0
1.9349139 -0.17303006 -0.049863566 0
1.9490093 -0.15649523 -0.050186176 0
1.9498181 -0.13621391 -0.050024807 0
1.9533767 -0.11673573 -0.049974564 0
1.9510652 -0.095898099 -0.049718104 0
1.9641068 -0.078681566 -0.050033685 0
1.9679798 -0.059301596 -0.050021823 0
1.9684926 -0.039262723 -0.049896605 0
1.9746825 -0.020358633 -0.049986944 0
1.972023 0.00013219254 -0.049765173 0
1.9826076 0.018365864 -0.050031934 0
1.981645 0.038476709 -0.049889881 0
1.9889593 0.057388905 -0.050055292 0
1.9953977 0.076527052 -0.050197531 0
1.9849377 0.097584791 -0.049741466 0
1.9890556 0.11694177 -0.049818244 0
2.0037172 0.13549131 -0.050281364 0
2.0051272 0.15529065 -0.050278202 0
2.005265 0.17516306 -0.050238479 0
2.001725 0.19517276 -0.050076287 0
2.0037019 0.21489742 -0.05012022 0
1.9974184 0.23481224 -0.049878057 0
1.996081 0.25452825 -0.049821451 0
1.998207 0.27422926 -0.04989735 0
1.999486 0.29397094 -0.049951885 0
1.9945772 0.31355938 -0.049794298 0
2.0013545 0.33355504 -0.050063048 0
1.997309 0.3531298 -0.049953982 0
1.995701 0.37279963 -0.049940869 0
1.9919752 0.39228964 -0.049860749 0
1.9913702 0.41202161 -0.049901247 0
1.9947424 0.43221274 -0.05009352 0
1.9962423 0.45231861 -0.050227903 0
1.9877378 0.47119278 -0.050011296 0
1.9954963 0.49228728 -0.050389621 0
1.9823006 0.51032954 -0.050020836 0
1.9657946 0.52754289 -0.049539562 0
1.9664088 0.54757518 -0.049686577 0
1.9671081 0.56773317 -0.049846221 0
1.9637583 0.58715588 -0.049867801 0
1.9553316 0.60546017 -0.049712636 0
1.9609406 0.62698519 -0.050080452 0
1.9495689 0.64452571 -0.049834419 0
1.9431316 0.66319269 -0.04977791 0
1.9432161 0.68363154 -0.049971532 0
1.9380424 0.70268506 -0.049979903 0
1.9292693 0.72065067 -0.049862895 0
1.9310098 0.74188334 -0.050147828 0
1.9159167 0.75773233 -0.049810644 0
1.915916 0.77856457 -0.050049786 0
1.9003456 0.79396176 -0.049709015 0
1.8956568 0.81318736 -0.04978893 0
1.8953979 0.83420229 -0.05004821 0
1.886176 0.85179585 -0.049973853 0
1.8764213 0.86911285 -0.049887031 0
1.8768806 0.89079642 -0.050205674 0
1.8743209 0.91137493 -0.05041863 0
1.8526868 0.92327261 -0.049892303 0
1.8424901 0.94024473 -0.049821526 0
1.829439 0.9557519 -0.049645085 0
1.832523 0.97936314 -0.050122127 0
1.8172923 0.99371213 -0.0498753 0
1.814217 1.0144656 -0.050127886 0
1.7937623 1.0257063 -0.049681988 0
1.790372 1.046416 -0.0499417 0
1.7856987 1.0665816 -0.050160885 0
1.7751139 1.0833262 -0.050145134 0
1.7572029 1.0954647 -0.04982933 0
1.7490869 1.1136606 -0.049933568 0
1.7325602 1.1263716 -0.049688164 0
1.7171994 1.1396714 -0.04949791 0
1.7204275 1.1658224 -0.050123297 0
1.7108788 1.1833354 -0.050207 0
1.6967044 1.1975113 -0.050095964 0
1.6878371 1.2156147 -0.050229557 0
1.6733903 1.2295015 -0.050122358 0
1.6665568 1.2493727 -0.050369814 0
1.6508613 1.2622153 -0.050222356 0
1.6334897 1.2735177 -0.050002676 0
1.6163708 1.2848376 -0.049799178 0
1.6074487 1.3032175 -0.049990784 0
1.596597 1.3200341 -0.050102681 0
1.5780783 1.329832 -0.049852349 0
1.5663245 1.3458428 -0.049938813 0
1.5630593 1.3702469 -0.050460294 0
1.5453664 1.3807032 -0.050274249 0
1.5202746 1.3833642 -0.049713515 0
1.5150714 1.4064373 -0.05017915 0
1.0275065 0.8920576 0.29373169 0
1.4981585 1.4173294 -0.050050434 0
1.0371979 0.91858709 0.3023791 0
1.4795728 1.4262344 -0.049837966 0
1.4379945 1.3800961 0.059620604 0
1.4351168 1.3769028 0.16694868 0
1.4376458 1.3797091 0.27677599 0
1.0501297 0.94969261 0.31292337 0
1.4725602 1.4480891 -0.050254434 0
1.4187194 1.3868093 0.059342202 0
1.4174373 1.38535 0.16636384 0
1.4138486 1.3812654 0.27413264 0
1.0567998 0.97488314 0.32065964 0
1.455067 1.4581645 -0.050116893 0
1.3939165 1.3867714 0.058760908 0
1.3901125 1.3823303 0.16419433 0
1.3963987 1.3896694 0.27321523 0
1.0575463 0.99406093 0.32564202 0
1.4356154 1.4657475 -0.049875177 0
1.3688571 1.3857914 0.058156475 0
1.3663545 1.382794 0.16258365 0
1.3695495 1.3866206 0.26966858 0
1.0624574 1.018818 0.33298635 0
1.4230455 1.4815217 -0.050024293 0
1.3428518 1.3829781 0.057488423 0
1.3416102 1.3814526 0.16078089 0
1.3446137 1.3851432 0.26660243 0
1.0574932 1.0323238 0.33540308 0
1.4071677 1.4932992 -0.049997061 0
1.3163729 1.3788141 0.056780457 0
1.318305 1.3812504 0.1591953 0
1.3199478 1.3833218 0.26356021 0
1.0507647 1.0439026 0.33700421 0
1.3908329 1.5044593 -0.0499513 0
1.2900229 1.3740048 0.056065351 0
1.2920462 1.3766232 0.15706411 0
1.2926872 1.3774527 0.25969604 0
1.0450128 1.0569468 0.3392418 0
1.3746294 1.515745 -0.049920823 0
1.2704473 1.3773601 0.055736735 0
1.2724017 1.3799562 0.15606855 0
1.2822701 1.3930644 0.26079535 0
1.0407406 1.0722411 0.34242564 0
1.3644015 1.5351489 -0.050259102 0
1.2478757 1.3762426 0.055224098 0
1.2536298 1.3840894 0.15522185 0
1.2528613 1.3830414 0.25618103 0
1.0327411 1.0828635 0.34367502 0
1.3379823 1.5322953 -0.049623601 0
1.2436829 1.4002441 0.055830535 0
1.2506449 1.4099934 0.15728913 0
1.2440611 1.4007736 0.25784138 0
1.0235498 1.091983 0.34434023 0
1.3268625 1.5506669 -0.049931087 0
1.2439741 1.4314491 0.05674722 0
1.2443441 1.4319813 0.15883078 0
1.2477957 1.4369457 0.26356208 0
1.0163291 1.1040287 0.34623247 0
1.3071541 1.5567402 -0.049711864 0
1.2446065 1.464317 0.057727657 0
1.2424681 1.4611572 0.1613024 0
1.2443202 1.4638938 0.26721537 0
1.0025605 1.1066581 0.34436262 0
1.2909576 1.567871 -0.049721304 0
1.2471143 1.5012952 0.05887536 0
1.2440739 1.4966782 0.16457319 0
1.2372619 1.4863343 0.26987454 0
1.1719645 1.3871806 0.3490026 0
0.99408263 1.1170678 0.3456769 0
1.2799529 1.5871236 -0.050083715 0
1.2399628 1.5247018 0.059437077 0
1.2432628 1.5298529 0.16751564 0
1.21762 1.4898262 0.268473 0
1.147095 1.3797413 0.3439545 0
0.97886568 1.1171464 0.34294105 0
1.2608087 1.5938014 -0.049920201 0
1.2506596 1.5775112 0.061234985 0
1.2423028 1.5640979 0.17057192 0
1.2085607 1.5099394 0.27066702 0
1.1357877 1.3931333 0.34530216 0
0.98042661 1.143767 0.35070595 0
1.2409353 1.5990583 -0.049708728 0
1.1929686 1.5198636 0.27072012 0
1.1090106 1.3812459 0.33914188 0
0.96831858 1.1489581 0.35006893 0
0.8389985 0.93544596 0.47128636 0
1.225238 1.6111225 -0.049791221 0
1.1745095 1.5249375 0.26979905 0
1.0967057 1.3927525 0.34005299 0
0.9558903 1.1535141 0.34925053 0
0.8386519 0.95433187 0.48079753 0
1.2088654 1.6221292 -0.049837794 0
1.1585127 1.5340643 0.26977506 0
1.0762783 1.3902398 0.33688313 0
0.943762 1.1584741 0.34865302 0
0.84651142 0.98838687 0.35130891 0
0.83620936 0.97036898 0.41290265 0
0.84320033 0.98259592 0.49665013 0
1.1956519 1.6389002 -0.050127871 0
1.1433498 1.5446925 0.27010262 0
1.0532221 1.3823527 0.33224234 0
0.93433803 1.1682163 0.34993777 0
0.84963548 1.0156484 0.36177778 0
0.84031725 0.99886423 0.42633316 0
0.83750427 0.99379736 0.50077945 0
1.1761596 1.6444561 -0.049967945 0
1.1292818 1.5574552 0.27090451 0
1.0390011 1.3899027 0.3321912 0
0.91918957 1.1675436 0.34732291 0
0.84604383 1.031792 0.36692846 0
0.83991665 1.0204206 0.43569964 0
0.83923906 1.019163 0.51447123 0
1.1565999 1.6496464 -0.049804259 0
1.1101321 1.5607438 0.26980937 0
1.0184054 1.3852514 0.32867959 0
0.91153914 1.1807935 0.35002351 0
0.84747857 1.0582322 0.37687683 0
0.83718061 1.03853 0.44306159 0
0.83811647 1.0403205 0.52524257 0
1.1441031 1.6685257 -0.050199386 0
1.0954093 1.5724362 0.27046919 0
0.99759907 1.3794229 0.32492802 0
0.90064943 1.188108 0.35052922 0
0.85193217 1.0919721 0.39014184 0
0.8397001 1.067834 0.45667535 0
0.83912951 1.0667081 0.53943205 0
1.1239496 1.6724516 -0.050003614 0
1.0775708 1.5779991 0.26993078 0
0.98000997 1.3793123 0.32289949 0
0.88834834 1.1926397 0.35005143 0
0.84431946 1.102973 0.39281058 0
0.84501541 1.1043903 0.47422984 0
0.83905423 1.0922501 0.55296701 0
1.1037476 1.6759607 -0.049802594 0
0.96945727 1.3935392 0.32499623 0
0.87856305 1.2023828 0.35155356 0
0.83968735 1.1206245 0.39855656 0
0.8418985 1.1252748 0.4829599 0
0.84232175 1.1261649 0.57191998 0
1.0876882 1.6881411 -0.04995355 0
0.94690859 1.3821974 0.31993744 0
0.86471623 1.2035762 0.34996116 0
0.84183389 1.1538482 0.41139325 0
0.84135735 1.1528124 0.49532554 0
0.83670455 1.142701 0.57939142 0
1.0700786 1.6971072 -0.049985975 0
0.93107152 1.3847165 0.31885707 0
0.85344154 1.2102587 0.35044014 0
0.83800763 1.1755741 0.41893545 0
0.83929795 1.1784737 0.50659823 0
0.84171599 1.1839077 0.60288113 0
1.0495411 1.6993296 -0.049764801 0
0.91579539 1.3882765 0.31812716 0
0.85251361 1.2411016 0.35971767 0
0.83708388 1.2052166 0.43002665 0
0.84186041 1.2163254 0.52446353 0
0.83612204 1.2029797 0.6119141 0
1.0338898 1.7129235 -0.049994368 0
0.89990318 1.3901708 0.31699419 0
0.84949255 1.2687396 0.36779654 0
0.84213662 1.2510202 0.44831017 0
0.8375423 1.2399532 0.53451258 0
0.83976245 1.2453012 0.63587439 0
1.0130118 1.7139095 -0.049745519 0
0.88101089 1.3842793 0.31378227 0
0.84790999 1.3016204 0.37772739 0
0.84076494 1.283778 0.4606548 0
0.83901381 1.279405 0.55306906 0
0.83980662 1.2813847 0.65569985 0
0.99815518 1.7300195 -0.050086711 0
0.86633885 1.3884495 0.3134028 0
0.84796453 1.340837 0.38987663 0
0.83818376 1.3154925 0.47248441 0
0.83980113 1.3196836 0.57196897 0
0.83877844 1.3170335 0.67515248 0
0.97864187 1.7342951 -0.049982745 0
0.85015702 1.3884555 0.31194207 0
0.84435326 1.3728337 0.39940652 0
0.84292239 1.3689823 0.49389097 0
0.8405332 1.3625513 0.59215742 0
0.83987671 1.3607843 0.69964832 0
0.96073049 1.7428461 -0.050050661 0
0.83028376 1.377707 0.30762959 0
0.83930516 1.4029593 0.40824872 0
0.8409223 1.4074858 0.50858623 0
0.84039211 1.4060018 0.61256003 0
0.9401052 1.743645 -0.049834214 0
0.8166213 1.3837557 0.30793408 0
0.83737475 1.4442408 0.42099908 0
0.84025818 1.4526446 0.52614242 0
0.83945483 1.4503031 0.63332564 0
0.92638671 1.7649519 -0.050399248 0
1.0296497 2.0787239 0.35048065 0
0.79841143 1.3760904 0.30460015 0
0.8394807 1.5008821 0.43908498 0
0.83968401 1.5014999 0.54524094 0
0.841663 1.5075132 0.66081125 0
0.90496248 1.7631484 -0.050103426 0
1.0065098 2.0853126 0.35033205 0
0.78867316 1.3942147 0.30823979 0
0.8385275 1.5523802 0.45529592 0
0.83721924 1.5482296 0.56334424 0
0.84300333 1.5665801 0.68914735 0
0.88573951 1.7679358 -0.050064567 0
0.98121721 2.0847003 0.34888265 0
0.76976901 1.3831828 0.30412906 0
0.84066844 1.6184045 0.47649714 0
0.84198433 1.6227702 0.59341878 0
0.86589372 1.770471 -0.049951188 0
0.95934701 2.0952647 0.34959579 0
0.75764644 1.3942609 0.30596641 0
0.83902287 1.6770821 0.49506903 0
0.84304953 1.6910766 0.62067282 0
0.84522057 1.7696973 -0.049724981 0
0.73847407 1.3803184 0.047310736 0
0.73802704 1.3786877 0.13017334 0
0.73760176 1.3771363 0.2140903 0
0.73905611 1.3824414 0.30178037 0
0.83528185 1.7334439 0.51278514 0
0.83654785 1.7380618 0.63867372 0
0.82422835 1.7670794 -0.049441088 0
0.7258805 1.3897669 0.047520474 0
0.72471213 1.3852845 0.13048859 0
0.72210383 1.3752778 0.21304448 0
0.72267592 1.3774725 0.29947615 0
0.82780546 1.7808032 0.52736431 0
0.82965398 1.787895 0.65786928 0
0.80913335 1.7874916 -0.050014783 0
0.70950031 1.3845264 0.047195192 0
0.71068925 1.389335 0.1305396 0
0.70854157 1.3806487 0.21338132 0
0.70813435 1.3790019 0.29894117 0
0.82458472 1.8499845 0.54940921 0
0.82548237 1.8536152 0.6838181 0
0.78886718 1.7875881 -0.049848896 0
0.69433033 1.3834623 0.047031574 0
0.69452506 1.3842947 0.12960657 0
0.69384819 1.3814013 0.21289343 0
0.69411147 1.3825266 0.29897866 0
0.81849355 1.9142349 0.56971836 0
0.76959842 1.7916758 -0.049838725 0
0.68046725 1.3877951 0.047072716 0
0.68195283 1.3945268 0.13037941 0
0.67850673 1.3789116 0.21184231 0
0.68035901 1.3873048 0.29938972 0
0.80545866 1.9541694 0.58171296 0
0.75150418 1.8014034 -0.050043087 0
0.66544074 1.386676 0.046921335 0
0.66472995 1.3832506 0.1288069 0
0.66550267 1.3869742 0.2127732 0
0.66241086 1.3720753 0.29463157 0
0.79217386 1.9973848 0.59484684 0
0.73061854 1.7975448 -0.049761113 0
0.65120405 1.3890715 0.046905041 0
0.65129489 1.3895386 0.12918498 0
0.64997351 1.3827423 0.21147314 0
0.64971477 1.3814113 0.2963286 0
0.77786744 2.0405724 0.60799599 0
0.71156311 1.80268 -0.04981567 0
0.63383001 1.3741188 0.046265837 0
0.63688767 1.3909762 0.12905088 0
0.63634825 1.3880024 0.2119517 0
0.63349664 1.372281 0.29327509 0
0.76197791 2.0806286 0.62011737 0
0.69309527 1.8115548 -0.050014198 0
0.62059945 1.3810689 0.046428889 0
0.62107372 1.3838853 0.12800741 0
0.62237561 1.391616 0.21215956 0
0.61970723 1.375771 0.29354617 0
0.74623722 2.1271155 0.63445014 0
0.67354596 1.8144056 -0.050003096 0
0.60757673 1.3901191 0.046673521 0
0.60708398 1.38695 0.12809221 0
0.60687375 1.3855978 0.21064121 0
0.60744351 1.3892626 0.29644391 0
0.72821307 2.1660013 0.64626253 0
0.6538763 1.8163794 -0.049969278 0
0.59361815 1.3938453 0.046731636 0
0.5925163 1.386119 0.12777309 0
0.59266806 1.3871831 0.21054633 0
0.5910446 1.3757997 0.29242977 0
0.70931512 2.2051201 0.65820837 0
0.63325596 1.8108668 -0.049674917 0
0.57775152 1.383206 0.046278823 0
0.57805759 1.3855644 0.12750435 0
0.57694346 1.3769797 0.20834024 0
0.5784809 1.3888258 0.29529026 0
0.68899596 2.2403431 0.66890758 0
0.61471099 1.8213331 -0.049964689 0
0.56382829 1.386448 0.046332825 0
0.56375498 1.385821 0.12734348 0
0.56349438 1.383594 0.20922714 0
0.56393331 1.3873457 0.29446092 0
0.66754061 2.2728579 0.67876977 0
0.59527314 1.8252357 -0.050026875 0
0.55178392 1.4081005 0.12958188 0
0.55253029 1.4152594 0.21468601 0
0.55284423 1.4182706 0.30199209 0
0.64451337 2.2975328 0.68608695 0
0.57515597 1.8222328 -0.049850196 0
0.55136567 1.562356 0.14607671 0
0.5516361 1.5653099 0.24160349 0
0.55156493 1.5645328 0.33909965 0
0.62142974 2.3277116 0.69533145 0
0.55597228 1.8295221 -0.050051361 0
0.60324192 2.4289241 0.23934512 0
0.59895241 2.374531 0.38774595 0
0.5977118 2.3587992 0.54201442 0
0.53605914 1.8279883 -0.04994531 0
0.57443702 2.4076848 0.39338982 0
0.57331431 2.3907261 0.54968852 0
0.51588368 1.8202175 -0.049625318 0
0.54811972 2.4220121 0.39568546 0
0.54782361 2.4164846 0.55585992 0
0.49636775 1.8231138 -0.049695719 0
0.52213317 2.4523561 0.4009307 0
0.52173233 2.4425666 0.5621928 0
0.4770323 1.8342403 -0.050068822 0
0.45656726 1.1121113 0.43032831 0
0.45725009 1.8339046 -0.050041277 0
0.44597924 1.1179338 0.359449 0
0.44577345 1.1048611 0.42658255 0
0.43747187 1.8296565 -0.049882948 0
0.43511018 1.0797285 0.41395763 0
0.43515509 1.0939929 0.49800739 0
0.41777536 1.8282462 -0.049834814 0
0.42473388 1.091319 0.41977325 0
0.42481279 1.0829637 0.49148571 0
0.3980611 1.8290426 -0.049874317 0
0.41415903 1.0985619 0.35146841 0
0.41394287 1.1083698 0.42838857 0
0.41468054 1.0748968 0.48679674 0
0.37792003 1.8412651 -0.050330877 0
0.35229114 2.5811448 0.42407754 0
0.35241732 2.5775018 0.59650737 0
0.40472728 1.0673667 0.48249996 0
0.35883659 1.8242154 -0.049750552 0
0.32274079 2.5881143 0.42555147 0
0.32269436 2.5890965 0.59977335 0
0.39564386 1.0452598 0.46962056 0
0.33905721 1.8255835 -0.049837098 0
0.2925446 2.6023486 0.4284063 0
0.29236406 2.6053634 0.60433161 0
0.31881359 1.832466 -0.050130017 0
0.26044291 2.6372809 0.4350751 0
0.26116976 2.627259 0.61043155 0
0.29924002 1.8290128 -0.050062049 0
0.22947748 2.6478522 0.43741477 0
0.22998364 2.6419113 0.61478382 0
0.27920476 1.8307354 -0.050188508 0
0.19795194 2.660743 0.44024831 0
0.19749825 2.6653776 0.62150162 0
0.26084897 1.8164365 -0.049748711 0
0.16613092 2.6726635 0.44298166 0
0.16649918 2.6693342 0.62332571 0
0.34606823 1.0460764 0.47241607 0
0.23984788 1.8260843 -0.05017795 0
0.13442735 2.6804755 0.4450455 0
0.13477002 2.6776984 0.62638599 0
0.22002478 1.8248158 -0.050224129 0
0.1023526 2.6888421 0.44728637 0
0.10056733 2.7019506 0.6336453 0
0.20144266 1.8149785 -0.049970094 0
0.070888802 2.6909535 0.44846451 0
0.070288673 2.6949801 0.63297534 0
0.18259276 1.8078959 -0.049823627 0
0.037439778 2.7042646 0.45176354 0
0.03776513 2.7022557 0.63608438 0
0.16320185 1.8044885 -0.049818631 0
0.0037684606 2.7161446 0.45488483 0
0.0033997165 2.7182531 0.64156532 0
0.14441787 1.7978531 -0.049705222 0
-0.030713303 2.7299511 0.45844474 0
-0.029431893 2.7231309 0.64428478 0
0.12232582 1.8080693 -0.05021378 0
-0.089821711 2.8637562 0.10065664 0
-0.089250103 2.8609118 0.29062706 0
-0.062308237 2.7268438 0.45898208 0
-0.061692789 2.7237813 0.64601845 0
0.10261197 1.8054489 -0.050265182 0
-0.11427213 2.818496 0.099251844 0
-0.11428352 2.8185492 0.28671589 0
-0.095522836 2.7309196 0.46091899 0
-0.095966652 2.7329926 0.65009642 0
0.084665522 1.794875 -0.05003462 0
-0.14274551 2.7953818 0.098665074 0
-0.1431805 2.7972956 0.28515467 0
-0.1294771 2.7370067 0.46331066 0
-0.12577696 2.7207279 0.64867973 0
0.068344519 1.7782264 -0.04958858 0
-0.17381985 2.7848263 0.098550826 0
-0.17424615 2.7865982 0.2847957 0
-0.16345818 2.741756 0.46554065 0
-0.1653551 2.7496409 0.65816265 0
0.048802957 1.7755258 -0.049662437 0
-0.21262778 2.8050315 0.099583663 0
-0.20800669 2.786834 0.28569114 0
-0.19704129 2.7436523 0.4673264 0
-0.19674875 2.7425005 0.65831661 0
0.028833674 1.774211 -0.049796838 0
-0.25337762 2.8296592 0.10080144 0
-0.25263011 2.8268638 0.29106373 0
-0.22618337 2.7279549 0.46591249 0
-0.22912838 2.7389691 0.65952843 0
0.0052904948 1.7852564 -0.050399374 0
-0.26017004 2.7302136 0.46792597 0
-0.25916052 2.72662 0.65851563 0
-0.011145277 1.7706574 -0.050060734 0
-0.29616296 2.7382703 0.47111732 0
-0.29382098 2.7303195 0.66186792 0
-0.031537339 1.7696912 -0.050237812 0
-0.3282606 2.732162 0.47173312 0
-0.32606268 2.7250328 0.66295046 0
-0.049109444 1.7595537 -0.05008122 0
-0.36193067 2.730638 0.47329649 0
-0.36140776 2.7290149 0.66663039 0
-0.066001132 1.7477285 -0.049868714 0
-0.39388096 2.7232955 0.47383994 0
-0.39409167 2.7239225 0.66800302 0
-0.084761336 1.7416834 -0.049881946 0
-0.42506063 2.7135069 0.47399512 0
-0.42504317 2.7134571 0.66804028 0
-0.10508521 1.7398934 -0.050065879 0
-0.45307755 2.6949599 0.47254503 0
-0.45695114 2.705591 0.66888916 0
-0.1258436 1.7388756 -0.05028991 0
-0.48754239 2.6939964 0.47454685 0
-0.48797148 2.6951296 0.66914338 0
-0.14389355 1.7305286 -0.050243903 0
-0.51804394 2.6821747 0.47453827 0
-0.51790822 2.6818295 0.66872746 0
-0.15934666 1.7158908 -0.049963854 0
-0.54545289 2.6627581 0.47312504 0
-0.55082554 2.6759336 0.67045313 0
-0.17778297 1.7088127 -0.049982827 0
-0.58439231 2.6711237 0.47721115 0
-0.58003461 2.6608107 0.66974688 0
-0.19518329 1.6993252 -0.049917039 0
-0.60810077 2.6432362 0.47427958 0
-0.61561167 2.6604059 0.6732375 0
-0.21170278 1.6879961 -0.049787272 0
-0.64806306 2.6522453 0.47869414 0
-0.64547813 2.6465333 0.67310166 0
-0.23117407 1.6831857 -0.049921844 0
-0.66997755 2.6212075 0.47526103 0
-0.67011452 2.6215 0.66992706 0
-0.24526049 1.6670066 -0.049616151 0
-0.69967294 2.6073608 0.47530556 0
-0.70024478 2.6085441 0.67024291 0
-0.27013111 1.6729213 -0.050197061 0
-0.72946489 2.5936821 0.47545931 0
-0.72417009 2.5830684 0.667099 0
-0.28096658 1.6506644 -0.049663126 0
-0.75188661 2.5656254 0.47277361 0
-0.75003242 2.5620227 0.66529197 0
-0.30156994 1.6476091 -0.049907189 0
-0.78410554 2.5568175 0.47405747 0
-0.78619039 2.560746 0.6692766 0
-0.31635249 1.6335468 -0.049715556 0
-0.80916762 2.5345411 0.47266462 0
-0.80696583 2.5305157 0.66500098 0
-0.33055162 1.6187179 -0.049498744 0
-0.61654294 2.1262977 0.08229848 0
-0.83547902 2.5148675 0.47186577 0
-0.83858359 2.5203774 0.66665506 0
-0.35205442 1.6167769 -0.049819637 0
-0.62490022 2.0870795 0.081231073 0
-0.86090219 2.4938745 0.47085488 0
-0.86536014 2.501559 0.66587794 0
-0.37052637 1.6093124 -0.049924493 0
-0.61491728 2.0186062 0.078943498 0
-0.88223517 2.4662971 0.46852022 0
-0.88799715 2.4759471 0.66317612 0
-0.38532925 1.595728 -0.049783453 0
-0.62188911 1.9808072 0.077918164 0
-0.91070783 2.4509549 0.46881375 0
-0.91354907 2.45558 0.66210878 0
-0.40024811 1.5825076 -0.049664497 0
-0.61564267 1.9234327 0.076061666 0
-0.94492018 2.4446111 0.47110546 0
-0.93817222 2.4339304 0.66074258 0
-0.42380148 1.5827284 -0.050124746 0
-0.61677408 1.8798131 0.074772164 0
-0.96044123 2.4088945 0.46719152 0
-0.95889664 2.4065168 0.65770555 0
-0.44048995 1.5720762 -0.050134823 0
-0.62004292 1.8410263 0.073679835 0
-0.97705388 2.3757885 0.46385276 0
-0.98291743 2.3845713 0.65640008 0
-0.4616341 1.5679014 -0.05043447 0
-0.62095511 1.8001593 0.072489753 0
-0.9986937 2.350826 0.46231169 0
-1.0001339 2.3529253 0.65217519 0
-0.47169298 1.5476223 -0.050045028 0
-0.6225574 1.7617223 0.071395688 0
-1.0242323 2.3317611 0.46211788 0
-1.0230323 2.3300583 0.65072 0
-0.48558539 1.5331039 -0.049911443 0
-0.61864376 1.7169731 0.070014328 0
-0.62150347 1.7209249 0.19922248 0
-1.0412076 2.3009007 0.45936763 0
-1.043897 2.3046172 0.64853126 0
-0.077014223 0.96851224 0.44088212 0
-0.50425285 1.5251648 -0.050076984 0
-0.62256861 1.6844009 0.069159418 0
-0.61819303 1.678512 0.19533628 0
-1.0621206 2.2759752 0.45797285 0
-1.0638762 2.2783377 0.64613867 0
-0.090657368 0.96852428 0.4449237 0
-0.51494992 1.5065784 -0.049776547 0
-0.62148845 1.6462554 0.068048209 0
-0.61703146 1.6404121 0.19198994 0
-1.0806144 2.2481909 0.45597562 0
-1.0802048 2.2476537 0.64239001 0
-0.094564691 0.95543391 0.44086689 0
-0.53090793 1.4950509 -0.049799263 0
-0.61667657 1.604609 0.066766649 0
-0.62164247 1.6109523 0.1897877 0
-1.0950528 2.2156706 0.45292696 0
-1.0981398 2.2196136 0.63952714 0
-0.11131658 0.95907909 0.4474352 0
-0.55443841 1.4929187 -0.050261632 0
-0.61908126 1.573383 0.065946512 0
-0.62096989 1.5757339 0.18677722 0
-1.1116507 2.1865098 0.4506664 0
-1.1089548 2.1831541 0.63395333 0
-0.12638648 0.9601 0.45252076 0
-0.56303155 1.4721477 -0.049880095 0
-0.61600685 1.5364144 0.064853519 0
-0.62473249 1.5469999 0.18463726 0
-1.1353503 2.1664531 0.45055863 0
-1.132861 2.1634333 0.6339007 0
-0.13920577 0.95798546 0.45574868 0
-0.5786624 1.4601105 -0.049907874 0
-0.6202122 1.5092428 0.064205095 0
-0.62227011 1.5116762 0.18155356 0
-1.1475484 2.1328118 0.44731125 0
-1.1481597 2.1335347 0.63054675 0
-0.14921047 0.95228839 0.45676887 0
-0.60182226 1.4567176 -0.050353762 0
-0.61537123 1.4723361 0.063091926 0
-0.6207298 1.478513 0.178739 0
-1.1581411 2.0980043 0.44378626 0
-1.161716 2.1021252 0.62671036 0
-0.61302078 1.4394045 -0.0501533 0
-0.63019276 1.4587029 0.063075542 0
-0.6305784 1.4591362 0.17787319 0
-1.1669582 2.0619345 0.43994883 0
-1.1664467 2.0613596 0.61969352 0
-0.62504971 1.4232063 -0.050011192 0
-0.65344036 1.4543147 0.063514791 0
-0.66679811 1.4689512 0.18126264 0
-1.1813773 2.0327904 0.43778509 0
-1.1764481 2.0273893 0.61496329 0
-0.64083338 1.4111618 -0.050077874 0
-0.50709873 1.2682803 0.05509099 0
-0.68407071 1.4573563 0.18160747 0
-1.1856139 1.9932027 0.43306041 0
-1.1982492 2.0067022 0.61486256 0
-0.64683867 1.3888577 -0.049647436 0
-0.50794506 1.2441601 0.054486785 0
-0.7122364 1.4569883 0.18366116 0
-1.19646 1.9614464 0.43024936 0
-1.2088442 1.9743481 0.61073107 0
-0.66792238 1.3822998 -0.050004218 0
-0.51308775 1.2250081 0.054124467 0
-0.74001765 1.4555391 0.18563055 0
-1.2149631 1.9380213 0.42954597 0
-1.2076883 1.9306312 0.60252768 0
-0.6810441 1.367496 -0.049960643 0
-0.52413082 1.212057 0.054075345 0
-0.77480543 1.4603765 0.18863823 0
-1.2226385 1.904002 0.42617801 0
-1.2232536 1.9046112 0.60062975 0
-0.70678687 1.3649222 -0.050553385 0
-0.54539025 1.2090189 0.054542072 0
-0.79972851 1.4547004 0.1901264 0
-1.224797 1.8653009 0.42157549 0
-1.2190818 1.8597801 0.59187049 0
-0.71069276 1.3412011 -0.050069749 0
-0.56695288 1.2058105 0.05502006 0
-0.84412146 1.4668795 0.19448212 0
-1.2242562 1.8249335 0.41647989 0
-1.2265656 1.8271087 0.58749872 0
-0.71356392 1.3169886 -0.049556084 0
-0.86734104 1.4582219 0.069010235 0
-0.87300968 1.4634281 0.19650283 0
-1.2290581 1.7904332 0.41287637 0
-1.2262281 1.7878339 0.58061123 0
-0.23838682 0.8805725 0.38317043 0
-0.73872733 1.3132206 -0.050131191 0
-0.91639328 1.4723169 0.070645541 0
-0.90039432 1.4579901 0.1982903 0
-1.2337774 1.7565279 0.409399 0
-1.2293744 1.7525852 0.57516432 0
-0.2369699 0.86390686 0.37810034 0
-0.75006366 1.2968383 -0.050046969 0
-0.93674505 1.4598192 0.070894316 0
-1.238238 1.7230355 0.40600049 0
-1.23955 1.7241809 0.5723089 0
-0.2347215 0.84692228 0.37274471 0
-0.76494145 1.2835439 -0.050139401 0
-0.9693265 1.4574949 0.071721196 0
-1.2338271 1.6826099 0.40063766 0
-1.2503691 1.6966887 0.56981993 0
-0.23537917 0.83283639 0.36914304 0
-0.25444341 0.84906185 0.45736447 0
-0.77115369 1.2629718 -0.049836703 0
-1.0022005 1.4546508 0.072554432 0
-1.2418823 1.6534935 0.39837167 0
-1.2463578 1.6572064 0.56255591 0
-0.255404 0.83510005 0.37609369 0
-0.78562105 1.2493449 -0.049928024 0
-1.0540538 1.4663923 0.07425224 0
-1.2606267 1.6334213 0.39869317 0
-1.2404974 1.6171453 0.55492276 0
-0.24767716 0.81437862 0.3681823 0
-0.78952229 1.2273067 -0.049546037 0
-1.0827818 1.4583826 0.074875444 0
-1.2517241 1.5915018 0.39272192 0
-1.2383254 1.5809442 0.54872769 0
-0.26555121 0.81443989 0.3739821 0
-0.81002927 1.218353 -0.049927689 0
-1.1250799 1.4602323 0.076107994 0
-1.2493069 1.5556072 0.38840327 0
-1.2476279 1.5543182 0.54643035 0
-0.25315624 0.79081529 0.3639257 0
-0.24937113 0.78790927 0.43614635 0
-0.82666707 1.2061656 -0.050138317 0
-1.1681898 1.4615986 0.077364147 0
-1.2497404 1.5225923 0.38486937 0
-1.2403541 1.5155721 0.53898072 0
-0.27584541 0.79419255 0.37225762 0
-0.27988106 0.79721093 0.45112413 0
-0.83752322 1.1895785 -0.05009846 0
-1.2139319 1.4637816 0.078724332 0
-1.2529351 1.4921942 0.38207707 0
-1.2459673 1.4871184 0.53582162 0
-1.2414376 1.4838187 0.69502711 0
-0.26447874 0.77213204 0.36304659 0
-0.27336097 0.77860242 0.44296992 0
-0.85528052 1.1779177 -0.050370216 0
-1.2620587 1.4664748 0.080175593 0
-1.2504773 1.4582593 0.37814474 0
-1.2378178 1.449279 0.52849811 0
-1.2425164 1.4526119 0.68925822 0
-0.27202445 0.76417208 0.36365962 0
-0.28083473 0.77042186 0.44361708 0
-0.85721445 1.1550922 -0.049959484 0
-1.3092769 1.4672916 0.081573397 0
-1.2481618 1.4250848 0.37437168 0
-1.240388 1.4197161 0.52471018 0
-1.2400967 1.4195149 0.68228441 0
-0.28143078 0.75744975 0.44013947 0
-0.86245465 1.1348345 -0.04970685 0
-1.2819176 1.4167863 0.079750873 0
-1.2644135 1.4050205 0.22574089 0
-1.2524651 1.3969892 0.37215993 0
-1.2335904 1.384302 0.51818925 0
-1.2395929 1.3883368 0.67630512 0
-0.28736722 0.74827611 0.44000959 0
-0.89002717 1.1293923 -0.050419904 0
-1.273144 1.379968 0.078763403 0
-1.2634034 1.3735971 0.22378415 0
-1.2485144 1.3638592 0.36826411 0
-1.2359563 1.3556455 0.51465195 0
-1.2304572 1.3520489 0.66710013 0
-0.30015159 0.74358702 0.4440442 0
-0.88756061 1.104239 -0.049859095 0
-1.2727687 1.3493135 0.07815887 0
-1.2663 1.345198 0.22239125 0
-1.2575846 1.3396531 0.3672722 0
-1.2465786 1.332651 0.51374906 0
-1.2314905 1.3230517 0.66215926 0
-0.30548853 0.73391706 0.44366539 0
-0.89789212 1.0874649 -0.049853273 0
-1.2960889 1.3338152 0.07857006 0
-1.2879165 1.3287592 0.22342022 0
-1.2518783 1.3064636 0.3632192 0
-1.2426251 1.300739 0.50856751 0
-1.2310333 1.2935675 0.65681708 0
-0.91623557 1.0755101 -0.050190099 0
-1.3139009 1.3146611 0.078756839 0
-1.3197002 1.3181487 0.22574252 0
-1.253831 1.2785358 0.36089689 0
-1.2333754 1.2662342 0.50196838 0
-1.2366 1.2681733 0.65399855 0
-0.92748654 1.0591321 -0.050237432 0
-1.329082 1.2938123 0.078843467 0
-1.3354925 1.2975584 0.22607397 0
-1.2455651 1.2450075 0.35653082 0
-1.2434399 1.2437656 0.50125378 0
-1.2422065 1.2430449 0.65133959 0
-0.92274153 1.0336325 -0.049636267 0
-1.3808511 1.293656 0.080442294 0
-1.3865967 1.2969172 0.23079886 0
-1.2446773 1.2163637 0.35381377 0
-1.2319881 1.2091612 0.49431553 0
-1.2408481 1.2141901 0.64615667 0
-0.94411623 1.0230075 -0.050117124 0
-1.2432128 1.1878306 0.35107127 0
-1.2443155 1.1884383 0.49447963 0
-1.2327749 1.1820786 0.63859737 0
-0.94311142 1.0000263 -0.049694132 0
-1.2457002 1.1618409 0.34922916 0
-1.2404022 1.1590077 0.49001959 0
-1.2283412 1.1525578 0.63261497 0
-0.95507503 0.98410428 -0.049807139 0
-1.2628223 1.1437273 0.35043895 0
-1.2389717 1.1313565 0.48640901 0
-1.2422339 1.1330484 0.63367975 0
-0.96925712 0.96920502 -0.050016128 0
-1.2755619 1.123217 0.35080272 0
-1.2416953 1.1061885 0.48410726 0
-1.2485539 1.1096371 0.63200969 0
-0.96569979 0.94549698 -0.04952684 0
-1.2828903 1.1000098 0.35013065 0
-1.2365621 1.0774419 0.47968012 0
-1.2421727 1.080175 0.62575889 0
-0.99283445 0.93664265 -0.050263774 0
-1.2979698 1.0805579 0.35106659 0
-1.2385081 1.0525131 0.47737849 0
-1.2346901 1.0507125 0.61927688 0
-0.9920094 0.9144544 -0.04990365 0
-1.3083586 1.0588177 0.35111597 0
-1.2403569 1.0277858 0.47515115 0
-1.2402291 1.0277275 0.61773002 0
-1.0026065 0.89757997 -0.050002165 0
-1.316361 1.0360129 0.35074884 0
-1.2415193 1.0029917 0.47283176 0
-1.2549049 1.0088975 0.61961979 0
