# .PCD v0.7 - Point Cloud Data file format
VERSION 0.7
FIELDS x y z intensity
SIZE 4 4 4 4
TYPE F F F F
COUNT 1 1 1 1
WIDTH 1356
HEIGHT 1
VIEWPOINT 0 0 0 1 0 0 0
POINTS 1356
DATA ascii
-0.5138185 0.046129022 0.18115461 0
-1.2375154 -0.12076486 0.4432686 0
-1.2320795 -0.11951125 0.57434571 0
-1.0906795 -0.10716221 -0.049975283 0
-0.50153059 0.036539126 0.040325269 0
-0.50550878 0.035568777 0.10976722 0
-0.5083248 0.034881923 0.18065882 0
-1.2365103 -0.14273228 0.44431287 0
-1.2542503 -0.14705934 0.58363849 0
-1.0815932 -0.12520881 -0.049817227 0
-0.5544216 0.010430266 0.042383529 0
-0.56088871 0.0087663131 0.11624065 0
-0.55096912 0.011318584 0.18915215 0
-1.2339133 -0.16440015 0.44501397 0
-1.2453467 -0.1673419 0.58240533 0
-1.0791979 -0.14495485 -0.049914502 0
-0.61470199 -0.019185435 0.044734266 0
-0.62030137 -0.020701569 0.12322269 0
-1.2379872 -0.18794949 0.31812644 0
-1.2428011 -0.18925296 0.44882509 0
-1.2430377 -0.189317 0.58352894 0
-1.0723236 -0.16350196 -0.049855094 0
-0.69523621 -0.056285869 0.047859002 0
-0.69201982 -0.055371355 0.1316461 0
-1.2333726 -0.20929255 0.31835389 0
-1.2351824 -0.20980711 0.44835448 0
-1.2321959 -0.20895799 0.58180076 0
-1.0670115 -0.18247412 -0.049862348 0
-0.77002072 -0.093975015 0.050798658 0
-0.77066994 -0.094168462 0.14092731 0
-1.2437478 -0.23513909 0.32145354 0
-1.2408853 -0.23428608 0.45149735 0
-1.2338121 -0.2321784 0.58447659 0
-1.06345 -0.20200066 -0.04994401 0
-0.87261391 -0.1425079 0.054807521 0
-0.87181365 -0.14225842 0.15283206 0
-1.2432065 -0.25803944 0.32256454 0
-1.2325697 -0.2547234 0.45098847 0
-1.234817 -0.25542405 0.58705163 0
-1.0525531 -0.21920253 -0.049759801 0
-0.99580848 -0.20072545 0.059629258 0
-0.9842701 -0.19696836 0.1661326 0
-1.2405664 -0.28042313 0.3233366 0
-1.2381731 -0.27964386 0.45428112 0
-1.2395378 -0.28008822 0.5910396 0
-1.0559289 -0.24111758 -0.050121095 0
-1.1185111 -0.26237062 0.064480685 0
-1.1161122 -0.261556 0.18176839 0
-1.23138 -0.30070129 0.32291868 0
-1.2439519 -0.30497077 0.45771948 0
-1.0542431 -0.26151583 -0.050302748 0
-1.2982013 -0.34780577 0.20329431 0
-1.2496481 -0.33063212 0.32779965 0
-1.2318221 -0.32432696 0.45641288 0
-1.0320376 -0.27450404 -0.049714401 0
-1.2524277 -0.35559413 0.19895102 0
-1.2345648 -0.34902164 0.32636642 0
-1.2401664 -0.35108271 0.46073228 0
-1.035547 -0.29688212 -0.050112307 0
-1.2493104 -0.37860438 0.19950585 0
-1.2313806 -0.37174979 0.32726836 0
-1.2403487 -0.37517831 0.46293491 0
-1.0291334 -0.31562808 -0.050141867 0
-1.250344 -0.40340552 0.20057683 0
-1.2349142 -0.39728287 0.32953364 0
-1.2367429 -0.3980085 0.46419194 0
-1.0154146 -0.33139417 -0.049898654 0
-1.2478079 -0.42701307 0.20127471 0
-1.2322888 -0.42062774 0.33067214 0
-1.2345229 -0.42154691 0.4659169 0
-1.0110167 -0.35095027 -0.050023556 0
-1.2360525 -0.44687262 0.20093396 0
-1.2399663 -0.4485409 0.33389407 0
-1.2384249 -0.44788387 0.46943104 0
-1.0035683 -0.36926022 -0.050039697 0
-1.2441918 -0.47542664 0.20295754 0
-1.2446553 -0.47563115 0.33661398 0
-1.2424706 -0.47466722 0.47309703 0
-0.9832046 -0.38169232 -0.049558122 0
-1.235536 -0.49684158 0.20305111 0
-1.2385211 -0.49820384 0.33727142 0
-1.237867 -0.49790534 0.47445288 0
-0.99069095 -0.40688756 -0.050179161 0
-1.251864 -0.53006828 0.20614582 0
-1.2397882 -0.52437282 0.33946508 0
-1.2355396 -0.52236897 0.4765411 0
-0.97065854 -0.41916832 -0.049723759 0
-1.4965521 -0.67534661 0.082607985 0
-1.2475469 -0.55404884 0.20684148 0
-1.246488 -0.55353302 0.34282804 0
-1.2393444 -0.55005312 0.48046967 0
-0.97375 -0.44271991 -0.05019566 0
-1.4455006 -0.67991889 0.081046887 0
-1.2431544 -0.57817805 0.20756871 0
-1.2377126 -0.57544196 0.34316236 0
-1.2409625 -0.57707602 0.48389801 0
-0.95910788 -0.45745191 -0.049969334 0
-1.3872871 -0.67954087 0.07918983 0
-1.2428695 -0.60463399 0.20883465 0
-1.2460474 -0.60628235 0.34703091 0
-0.95691609 -0.47866449 -0.050253022 0
-1.3485886 -0.68811804 0.078110106 0
-1.2377335 -0.62883639 0.2095584 0
-1.2468922 -0.63373417 0.34947291 0
-0.9423219 -0.49327448 -0.050043974 0
-1.3025099 -0.69176334 0.076726422 0
-1.2341577 -0.65409648 0.2105159 0
-1.2334788 -0.65372235 0.34906682 0
-0.93224943 -0.51028514 -0.050026581 0
-1.2612587 -0.69703114 0.075532861 0
-1.2439858 -0.68722695 0.21317582 0
-1.2344326 -0.68180454 0.35168925 0
-0.91722405 -0.52439082 -0.049813077 0
-1.249316 -0.71845531 0.075545132 0
-1.2377228 -0.71168053 0.2139042 0
-1.2371798 -0.71136332 0.35477927 0
-0.91735244 -0.54743773 -0.050236627 0
-1.2629436 -0.75527185 0.07663396 0
-1.2352256 -0.73860258 0.21514884 0
-1.2389691 -0.74085397 0.35776922 0
-0.90956938 -0.56594503 -0.050343495 0
-1.2503608 -0.77678066 0.076650336 0
-1.2460282 -0.77410024 0.21812665 0
-1.2358295 -0.76779062 0.35981569 0
-0.88500476 -0.57386881 -0.04975095 0
-1.2596519 -0.81222421 0.077603839 0
-1.2368852 -0.7977398 0.21864451 0
-1.2401358 -0.79980785 0.36354244 0
-0.87291527 -0.5894562 -0.049689919 0
-1.2525393 -0.8377474 0.077884421 0
-1.2386835 -0.8286851 0.22060975 0
-1.2392901 -0.82908183 0.36627626 0
-0.86408103 -0.60718352 -0.049776811 0
-1.241789 -0.86106879 0.078024663 0
-1.2393277 -0.85941428 0.2224925 0
-1.2408787 -0.86045688 0.36964214 0
-0.8610965 -0.6290291 -0.050127912 0
-1.2403907 -0.89097375 0.078584582 0
-1.2439593 -0.89343828 0.22496282 0
-1.231141 -0.88458592 0.37064111 0
-0.84606254 -0.64263457 -0.04996673 0
-1.2351968 -0.9186756 0.078999802 0
-1.2409191 -0.9227348 0.22650062 0
-1.6036984 -1.1800801 0.45624796 0
-0.82900536 -0.65462941 -0.049722228 0
-1.2447817 -0.95751053 0.080086954 0
-1.2512853 -0.96224815 0.22988394 0
-1.5649328 -1.1907314 0.45169246 0
-0.82174778 -0.67374212 -0.049919002 0
-1.2375231 -0.98471063 0.080455177 0
-1.2340038 -0.98207837 0.22965533 0
-0.8074621 -0.68763798 -0.049812142 0
-1.2388732 -1.0188526 0.081229791 0
-1.2394469 -1.019293 0.23253714 0
-0.79685557 -0.70434088 -0.049879353 0
-1.1553628 -0.9868291 0.078174442 0
-1.1548252 -0.98640555 0.22318853 0
-1.1538923 -0.98567039 0.3702589 0
-0.78847897 -0.72291178 -0.05005924 0
-1.1388885 -1.006243 0.078147151 0
-1.1360288 -1.0039307 0.22278473 0
-1.1377739 -1.0053418 0.37020019 0
-0.77812469 -0.7400108 -0.050160065 0
-1.2450248 -1.1273563 0.083818488 0
-1.2409384 -1.1239662 0.23968139 0
-1.342101 -1.2078918 0.42185611 0
-0.76560402 -0.75536364 -0.050170459 0
-1.2453638 -1.1636845 0.084662139 0
-1.2406056 -1.1596347 0.2421201 0
-1.3174913 -1.2250717 0.42045137 0
-1.0357397 -0.98527461 0.49791339 0
-0.75438666 -0.77186817 -0.050251845 0
-1.2769642 -1.2281009 0.41527188 0
-0.99533415 -0.98222572 0.48959717 0
-0.73398292 -0.78022784 -0.049903821 0
-1.193271 -1.191511 0.083914459 0
-1.185557 -1.1846033 0.23942807 0
-1.1929532 -1.1912265 0.39951587 0
-0.96989059 -0.9914785 0.48629776 0
-0.71632516 -0.79078048 -0.049689934 0
-0.9194324 -0.9773199 0.47433475 0
-0.71487987 -0.81640083 -0.050275106 0
-0.88938475 -0.98076934 0.46932065 0
-0.6869936 -0.81705838 -0.049570896 0
-0.85793447 -0.98218089 0.46376294 0
-0.68681991 -0.84447342 -0.050250895 0
-0.83414793 -0.99041718 0.46089408 0
-0.66650128 -0.852112 -0.049931899 0
-0.81617701 -1.0041629 0.46014082 0
-0.65865266 -0.87242132 -0.050256509 0
-0.64471102 -0.88656038 -0.050280459 0
-0.61789584 -0.88662356 -0.049632318 0
-0.61251533 -0.91009229 -0.050126154 0
-0.59700024 -0.92241508 -0.050091051 0
-0.58203459 -0.93535393 -0.050094314 0
-0.56813085 -0.94958979 -0.050166313 0
-0.55014098 -0.95882529 -0.05001666 0
-0.5329079 -0.96886152 -0.049915094 0
-0.52105194 -0.98583442 -0.050135761 0
-0.50209147 -0.99351174 -0.049947605 0
-0.48441178 -1.0027379 -0.049839977 0
-0.46460271 -1.0088159 -0.049605571 0
-0.45785344 -1.0336456 -0.050195858 0
-0.43716806 -1.0383562 -0.049921226 0
-0.42069978 -1.0492091 -0.04992146 0
-0.37767792 -0.98297626 0.50084662 0
-0.40411174 -1.0598787 -0.049922746 0
-0.35334665 -0.97952813 0.49551395 0
-0.38669169 -1.0692016 -0.049876377 0
-0.33071816 -0.97808629 0.49112576 0
-0.3727023 -1.0842123 -0.050076023 0
-0.30524874 -0.97124439 0.48478886 0
-0.35517901 -1.0934185 -0.050041933 0
-0.28616482 -0.97445923 0.48248997 0
-0.33583498 -1.0993506 -0.049882993 0
-0.27408183 -0.98975068 0.48491111 0
-0.32578218 -1.1220425 -0.050417092 0
-0.24972816 -0.98299605 0.47901347 0
-0.30591571 -1.1270534 -0.050238147 0
-0.23573793 -0.99482232 0.4802694 0
-0.28163922 -1.1232271 -0.049715597 0
-0.20896961 -0.9820357 0.47237387 0
-0.27029312 -1.1445018 -0.050210014 0
-0.18998416 -0.98351794 0.46995857 0
-0.24850263 -1.1449717 -0.049882185 0
-0.17113735 -0.98487324 0.4675996 0
-0.22910096 -1.1500099 -0.049747176 0
-0.1477154 -0.97603363 0.46159738 0
-0.21617301 -1.16913 -0.050174367 0
-0.1252404 -0.96819133 0.45610145 0
-0.19827308 -1.177644 -0.05019227 0
-0.11102261 -0.97819346 0.45721868 0
-0.17745818 -1.1792998 -0.049953036 0
-0.10339184 -1.004009 0.46410626 0
-0.16240801 -1.1946541 -0.050253309 0
-0.076728538 -0.98453814 0.35010996 0
-0.083554521 -1.0012778 0.46073657 0
-0.14097036 -1.1943493 -0.049958684 0
-0.05431743 -0.9739489 0.34547627 0
-0.066654399 -1.0053277 0.45989716 0
-0.12268896 -1.2018011 -0.049971901 0
-0.033864096 -0.96724552 0.14753412 0
-0.031357184 -0.96062571 0.24223767 0
-0.010276778 -0.90495962 0.32500947 0
-0.048420444 -1.0056838 0.45782357 0
-0.10391976 -1.2079505 -0.049944337 0
-0.01195897 -0.95556384 0.14553741 0
-0.0081545841 -0.94512278 0.23815937 0
0.0037037598 -0.91257745 0.32558915 0
-0.086243525 -1.2171719 -0.050042059 0
0.011712389 -0.93743044 0.14284632 0
0.0085626412 -0.94642538 0.2373663 0
0.021968054 -0.90814239 0.32295588 0
-0.0054355399 -0.98640126 0.44689932 0
-0.066514269 -1.2205111 -0.049926221 0
0.023139017 -0.95375854 0.1441076 0
0.022261875 -0.95636827 0.23826063 0
0.027412282 -0.94104391 0.33044511 0
0.01501392 -0.97793382 0.44202664 0
-0.048079625 -1.2276127 -0.049961314 0
0.036785737 -0.96416694 0.14471166 0
0.038603559 -0.95852393 0.23770858 0
0.021787452 -1.0107259 0.34778118 0
0.020218777 -1.0155953 0.45338741 0
-0.029389692 -1.2339809 -0.04997756 0
0.024153965 -1.0603032 0.35966358 0
-0.0093933474 -1.2359655 -0.049839374 0
0.068468347 -0.97163111 0.33473974 0
0.0084785987 -1.2451636 -0.049978528 0
0.085441247 -0.97120041 0.33343673 0
0.025843726 -1.256649 -0.050210081 0
0.10049637 -0.97745413 0.33395997 0
0.04487513 -1.2622492 -0.050232179 0
0.118459 -0.97247845 0.3315756 0
0.066018686 -1.2591498 -0.049943577 0
0.083281174 -1.2722212 -0.050257605 0
0.10310887 -1.2743838 -0.050180446 0
0.12328292 -1.2745625 -0.050040346 0
0.14436896 -1.2693691 -0.049714673 0
-0.065005377 -2.383719 0.10219454 0
0.16219018 -1.2815291 -0.050028291 0
0.0029543804 -2.1920555 0.095028609 0
0.18144296 -1.2862521 -0.050080422 0
0.035168394 -2.1895471 0.094749309 0
0.20248434 -1.2792448 -0.049717806 0
0.062438622 -2.2189074 0.095635504 0
0.22031052 -1.2939734 -0.050148528 0
0.096882656 -2.2002616 0.094802871 0
0.24224332 -1.2779261 -0.049479589 0
0.12777756 -2.2056251 0.094850801 0
0.26000968 -1.2952793 -0.050021227 0
0.1597036 -2.2020204 0.094590522 0
0.28032729 -1.2905245 -0.049777169 0
0.19086412 -2.204402 0.094559737 0
0.30064952 -1.2837242 -0.049469259 0
0.2226876 -2.1988044 0.094257146 0
0.31902143 -1.3008559 -0.050027434 0
0.25360906 -2.2027621 0.094311222 0
0.3388027 -1.3010899 -0.049989119 0
0.28559184 -2.1897161 0.093771048 0
0.35841939 -1.3043003 -0.050066117 0
0.31626901 -2.1963327 0.093948349 0
0.378777 -1.2877809 -0.049447097 0
0.3467488 -2.2124023 0.094477072 0
0.39826953 -1.2908404 -0.049536571 0
0.37818772 -2.2020988 0.094077572 0
0.41767928 -1.3096801 -0.050198197 0
0.43748733 -1.3058282 -0.050058454 0
0.45714107 -1.2982342 -0.049793974 0
0.47653088 -1.2878023 -0.049436878 0
0.49637237 -1.2944822 -0.049699742 0
0.51610136 -1.2955372 -0.049770616 0
0.53574342 -1.2944748 -0.049774669 0
0.55617684 -1.3033719 -0.050144255 0
0.57503498 -1.2921674 -0.049802832 0
0.5948711 -1.2926351 -0.049888447 0
0.61526293 -1.2973057 -0.050134238 0
0.63462842 -1.2926977 -0.050055631 0
0.65375972 -1.2868177 -0.049939796 0
0.67313468 -1.2830163 -0.049907528 0
0.69361877 -1.2859192 -0.050126743 0
0.71141189 -1.2731022 -0.049785424 0
0.73087639 -1.2701269 -0.049809355 0
0.75240344 -1.2769924 -0.050201084 0
0.76815695 -1.2563998 -0.049599919 0
0.78813684 -1.2557218 -0.049734421 0
0.80843401 -1.2559189 -0.049910761 0
0.83088189 -1.2638618 -0.050382871 0
0.84678292 -1.2466521 -0.049935952 0
0.86319917 -1.2323618 -0.049603283 0
0.88545811 -1.2382581 -0.050029762 0
0.90496385 -1.2344086 -0.050103594 0
0.92134309 -1.2208824 -0.049823243 0
0.9411571 -1.2179664 -0.049949929 0
0.95812142 -1.2067988 -0.04977379 0
0.97783285 -1.2033733 -0.049899809 0
0.9946419 -1.1921713 -0.049738329 0
0.92514551 -1.0120885 0.46119684 0
1.011131 -1.1804689 -0.049564905 0
0.93908197 -1.0005491 0.45932046 0
1.0336961 -1.1837127 -0.049976338 0
0.95957369 -1.0051636 0.46331629 0
1.0549029 -1.1830554 -0.050249405 0
0.9721033 -0.99048787 0.46044117 0
1.0723217 -1.1734037 -0.05018295 0
0.98826748 -0.98450881 0.46077406 0
1.0877202 -1.1594661 -0.049956273 0
1.0042005 -0.97796065 0.46097475 0
1.1013333 -1.142139 -0.049601872 0
1.0231626 -0.97774094 0.46358171 0
1.1262431 -1.1483779 -0.050189376 0
1.0420806 -0.97697765 0.46609163 0
1.1429135 -1.1374339 -0.050105426 0
1.0609037 -0.97560054 0.46847719 0
1.1633449 -1.1338067 -0.050324101 0
1.0828398 -0.97978371 0.47305456 0
1.175133 -1.1138066 -0.049890678 0
1.1075665 -0.98840946 0.47944602 0
1.1965014 -1.111686 -0.050190348 0
1.1338235 -0.99878949 0.057580303 0
1.1269073 -0.986332 0.15973757 0
1.1324834 -0.9963755 0.26606518 0
1.1243261 -0.9816826 0.36961612 0
1.1295894 -0.99116307 0.48376587 0
1.2104541 -1.0961634 -0.04995206 0
1.1455137 -0.98258537 0.057281155 0
1.1389456 -0.97109801 0.15894628 0
1.1425724 -0.97744125 0.26398331 0
1.1393898 -0.97187501 0.36932269 0
1.146679 -0.98462361 0.4846614 0
1.2312832 -1.0926489 -0.050216693 0
1.1646014 -0.97936004 0.05752353 0
1.1664866 -0.98256272 0.16149735 0
1.1632552 -0.97707278 0.2657977 0
1.1655055 -0.98089594 0.37465715 0
1.1674392 -0.98418111 0.48800009 0
1.245742 -1.0782501 -0.050039969 0
1.26176 -1.066584 -0.049984425 0
1.2771847 -1.0540586 -0.049900517 0
1.2944945 -1.0444975 -0.049950894 0
1.3123583 -1.035686 -0.050043371 0
1.3294365 -1.0256251 -0.050092075 0
1.3412771 -1.008165 -0.049826015 0
1.3624882 -1.0037955 -0.050143592 0
1.3830873 -0.99823564 -0.050422877 0
1.3883698 -0.97252768 -0.049807485 0
1.4064225 -0.9636156 -0.049954254 0
1.2059499 -0.71083516 0.050436109 0
1.2083106 -0.71381176 0.14017144 0
1.4245391 -0.95461303 -0.050108775 0
1.198314 -0.67662311 0.049313154 0
1.2080317 -0.68856436 0.13803737 0
1.440395 -0.94272774 -0.05014142 0
1.2031809 -0.65861779 0.04892765 0
1.2131023 -0.67050064 0.13688599 0
1.4608368 -0.93615633 -0.050433535 0
1.2138532 -0.64780438 0.048878904 0
1.2122406 -0.64592165 0.1348092 0
1.468948 -0.91523379 -0.050059054 0
1.2052824 -0.61513746 0.047797415 0
1.2036527 -0.61328262 0.13155472 0
1.4813693 -0.89948362 -0.049933765 0
1.2165616 -0.60563356 0.047811616 0
1.2020522 -0.58953291 0.12953357 0
1.4902695 -0.88004965 -0.049635481 0
1.5109789 -0.87337559 -0.049966764 0
1.5254036 -0.85989648 -0.049976222 0
1.5344867 -0.84104496 -0.049724072 0
1.557356 -0.83592361 -0.050175454 0
1.5686888 -0.81935376 -0.050055459 0
1.582445 -0.80514926 -0.050065257 0
1.5961634 -0.79089683 -0.050081786 0
1.6087611 -0.77563375 -0.050053328 0
1.6186856 -0.75808877 -0.049908284 0
1.6349539 -0.74600393 -0.050070949 0
1.6360548 -0.72134405 -0.049539067 0
1.6554712 -0.71177995 -0.04986342 0
1.6626842 -0.6924302 -0.049638133 0
1.6779268 -0.67936069 -0.049785633 0
1.6916914 -0.6650669 -0.04987352 0
1.6949782 -0.64316076 -0.049507868 0
1.7199335 -0.63673246 -0.050101768 0
1.7249149 -0.61618418 -0.049831223 0
1.7438836 -0.60513568 -0.050173223 0
1.7479861 -0.5842064 -0.0498868 0
1.7622576 -0.56989193 -0.050042368 0
1.7644051 -0.54804981 -0.049697302 0
1.7837547 -0.53668505 -0.050080203 0
1.7925622 -0.51893336 -0.050031934 0
1.8007088 -0.5008474 -0.049966138 0
1.8144637 -0.48585531 -0.050137907 0
1.8160917 -0.46433565 -0.049826857 0
1.839483 -0.45417365 -0.05040114 0
1.8352432 -0.42988047 -0.049876295 0
1.8457136 -0.41304579 -0.049949147 0
1.848173 -0.39243421 -0.049714655 0
1.8698425 -0.38062105 -0.050243385 0
1.8659792 -0.35732421 -0.049781445 0
1.8887706 -0.34554097 -0.050365023 0
1.8783312 -0.31988159 -0.04967178 0
1.9016746 -0.30790314 -0.0502887 0
1.8965545 -0.28477988 -0.049823154 0
1.9123589 -0.26955208 -0.050164968 0
1.9159447 -0.24983035 -0.05005087 0
1.9093878 -0.22681676 -0.049565002 0
1.9288497 -0.21245085 -0.050066885 0
1.9365417 -0.19412355 -0.050134324 0
1.933746 -0.17269005 -0.049820144 0
1.9318122 -0.15172248 -0.04954901 0
1.9478755 -0.13570102 -0.049953077 0
1.9616497 -0.11880887 -0.050279055 0
1.9503825 -0.095736124 -0.049693052 0
1.96694 -0.079316176 -0.050137341 0
1.9694499 -0.05961151 -0.050075464 0
1.9731066 -0.040174853 -0.050064519 0
1.9702499 -0.019540261 -0.049826026 0
1.9866003 -0.0023698912 -0.050293215 0
1.983094 0.018288676 -0.050049514 0
1.984038 0.038127754 -0.049976215 0
1.9949068 0.056597967 -0.050269496 0
1.9796609 0.078418516 -0.049631663 0
1.9832373 0.097767495 -0.049680412 0
1.9986941 0.11602882 -0.050163887 0
1.9965416 0.13607992 -0.050024327 0
1.999159 0.15570463 -0.050064623 0
1.9988688 0.17552587 -0.050009761 0
2.0034063 0.19509861 -0.050136376 0
1.9897543 0.21533662 -0.049622029 0
2.0018663 0.23472823 -0.050036881 0
2.0062914 0.25446397 -0.050185982 0
2.0056305 0.27427602 -0.050162386 0
1.9939876 0.29386708 -0.049755551 0
2.0007043 0.31375232 -0.050013155 0
2.0051444 0.33372217 -0.05019848 0
1.9971869 0.35312286 -0.049949616 0
2.0024698 0.37326917 -0.050183102 0
1.9856782 0.3917731 -0.049635183 0
1.9978473 0.41263512 -0.050133523 0
1.9870791 0.43138942 -0.049818363 0
1.9939835 0.45204711 -0.05014668 0
1.9862559 0.47099572 -0.049957931 0
1.9871982 0.49107724 -0.050090235 0
1.9916587 0.51181477 -0.050359111 0
1.9834142 0.53056717 -0.050177801 0
1.9865452 0.55129308 -0.050417621 0
1.9695714 0.56822014 -0.049935859 0
1.9674927 0.58794308 -0.05000405 0
1.9721322 0.60922331 -0.050327301 0
1.9544594 0.62544757 -0.049842648 0
1.9515162 0.64501363 -0.04990609 0
1.9559914 0.66658789 -0.050252754 0
1.9373215 0.68199563 -0.049753133 0
1.9383204 0.702766 -0.049990237 0
1.9333404 0.72189182 -0.050014846 0
1.9281995 0.74098778 -0.050042525 0
1.9180745 0.75845003 -0.049891829 0
1.9078435 0.77576631 -0.049744762 0
1.9024343 0.7947154 -0.049788292 0
1.9065361 0.81726813 -0.050203755 0
1.8892108 0.83179224 -0.049811158 0
1.8799667 0.84928668 -0.04973476 0
1.8807579 0.87092918 -0.050054885 0
1.8744506 0.88974243 -0.050111104 0
1.8621832 0.90592808 -0.049943671 0
1.8579763 0.92572677 -0.050100483 0
1.8519952 0.94480109 -0.050197843 0
1.8404068 0.96118027 -0.050081987 0
1.8346852 0.9804675 -0.050208807 0
1.826515 0.99856961 -0.050247438 0
1.8099011 1.0121225 -0.049952563 0
1.7905239 1.023895 -0.049549516 0
1.7867086 1.044306 -0.049790766 0
1.7822751 1.0645519 -0.050018795 0
1.7657846 1.0776354 -0.049754988 0
1.7629597 1.0990765 -0.050071958 0
1.7469565 1.1122863 -0.049843054 0
1.7363399 1.1288779 -0.04985008 0
1.7279471 1.1469944 -0.049962219 0
1.7143714 1.1615833 -0.049859382 0
1.7044086 1.1786841 -0.049922511 0
1.6977322 1.19827 -0.050141573 0
1.6837364 1.2125072 -0.050045874 0
1.6713694 1.2279297 -0.050030962 0
1.6565982 1.2414237 -0.049914904 0
1.6480333 1.2598991 -0.050091852 0
1.635908 1.2755498 -0.050115444 0
1.618396 1.2865833 -0.049894635 0
1.6051718 1.3012043 -0.049882278 0
1.5916851 1.3155797 -0.049865946 0
1.5914644 1.3422823 -0.050505009 0
1.5705023 1.3498278 -0.050144933 0
1.5502734 1.3577397 -0.049821738 0
1.5431149 1.3784446 -0.050160389 0
1.5270388 1.3903228 -0.050059978 0
1.5087732 1.3997928 -0.0498523 0
1.0249873 0.88939995 0.29251343 0
1.4957286 1.4147005 -0.04992263 0
1.0487221 0.9310559 0.30802786 0
1.4835103 1.4306037 -0.050047949 0
1.4428394 1.3854723 0.059878979 0
1.4397035 1.3819925 0.167685 0
1.4399981 1.3823195 0.2774097 0
1.0533501 0.95326614 0.31452382 0
1.4729183 1.4484968 -0.05027381 0
1.4126835 1.3799393 0.059015717 0
1.4207141 1.3890796 0.16689737 0
1.4115365 1.3786339 0.27350086 0
1.0530452 0.97060978 0.3187671 0
1.4507829 1.4531627 -0.049881775 0
1.3885344 1.3804879 0.058465537 0
1.3908328 1.3831713 0.16431333 0
1.3887688 1.3807615 0.27109995 0
1.055977 0.99222869 0.32483941 0
1.4325597 1.4620876 -0.049704961 0
1.3737758 1.3916826 0.058430471 0
1.3706348 1.3879205 0.16330136 0
1.3623234 1.377966 0.2676352 0
1.0583729 1.013926 0.3308661 0
1.4252454 1.484225 -0.050148726 0
1.3411279 1.3808597 0.057390917 0
1.3479341 1.3892235 0.16185763 0
1.3387517 1.3779398 0.26492751 0
1.05917 1.0343844 0.3362869 0
1.4020056 1.4867903 -0.049700473 0
1.3246064 1.389196 0.057253513 0
1.3203386 1.3838146 0.15954702 0
1.3214207 1.385179 0.26398772 0
1.0547736 1.0489576 0.33915067 0
1.3879157 1.5006843 -0.049780976 0
1.2986151 1.3851237 0.056567021 0
1.2954497 1.3810277 0.15766232 0
1.3027847 1.3905195 0.26267424 0
1.0497959 1.0631362 0.34184417 0
1.3743924 1.5154303 -0.04990676 0
1.2746291 1.3829149 0.055984966 0
1.2728332 1.3805294 0.15614565 0
1.2737769 1.3817829 0.2582486 0
1.0392072 1.0702043 0.34157738 0
1.3616041 1.5313342 -0.05009022 0
1.2531004 1.3833677 0.05553953 0
1.2535982 1.3840463 0.15521611 0
1.2521898 1.3821257 0.25597623 0
1.0285246 1.0771134 0.34130281 0
1.3395741 1.5345244 -0.04972139 0
1.2467736 1.4045721 0.056020405 0
1.2462962 1.4039037 0.15648493 0
1.2520758 1.411997 0.26032862 0
1.0236855 1.0921731 0.34441796 0
1.3287421 1.5533704 -0.050048642 0
1.2438108 1.4312142 0.056737009 0
1.2418822 1.4284405 0.15836729 0
1.2449138 1.4328007 0.26265162 0
1.0146527 1.1016177 0.34525552 0
1.3147607 1.5679802 -0.050196406 0
1.2389064 1.4558942 0.057364568 0
1.2394264 1.4566625 0.16071916 0
1.2394894 1.4567556 0.26566091 0
1.0045048 1.1095312 0.3455168 0
1.2956899 1.5750569 -0.050028488 0
1.2436142 1.4959803 0.058648158 0
1.2457938 1.49929 0.16490927 0
1.2410711 1.4921185 0.27112362 0
1.1739483 1.390193 0.34992284 0
1.0009867 1.1275516 0.34985319 0
1.278038 1.5841346 -0.049956981 0
1.2426367 1.5288755 0.059614036 0
1.2443807 1.531598 0.16773836 0
1.223461 1.4989437 0.27042583 0
1.1471143 1.3797714 0.34396359 0
0.98410696 1.1253277 0.34617355 0
1.260512 1.593325 -0.049900167 0
1.2509027 1.5779014 0.061251398 0
1.243765 1.5664449 0.1708691 0
1.2077022 1.5085614 0.27037421 0
1.1316044 1.3864187 0.34328377 0
0.97148353 1.1294128 0.34507936 0
1.2445086 1.6049582 -0.049954981 0
1.1892533 1.5137297 0.26942679 0
1.113807 1.3891649 0.34150398 0
0.9655571 1.1443988 0.34829554 0
0.83774495 0.93337619 0.46985132 0
1.2297442 1.6187783 -0.050108377 0
1.169205 1.5159253 0.26791307 0
1.0910432 1.3831323 0.33720496 0
0.95661014 1.1547371 0.34972265 0
0.83788258 0.95302486 0.47989815 0
1.2087874 1.6219928 -0.049832184 0
1.1578009 1.5328194 0.26951644 0
1.0719457 1.3826623 0.33465615 0
0.94075167 1.1532092 0.34663531 0
0.84967792 0.99392492 0.35395023 0
0.84249705 0.98136592 0.41924074 0
0.84285396 0.9819901 0.49623626 0
1.1968145 1.6409943 -0.050213382 0
1.1442537 1.5463207 0.27043849 0
1.0483279 1.3735373 0.32966986 0
0.93717951 1.1733345 0.35188535 0
0.84743297 1.0116812 0.35989907 0
0.83701116 0.99290919 0.4229252 0
0.84023714 0.99871987 0.5041185 0
1.178178 1.6482021 -0.050119855 0
1.1279552 1.5549933 0.27040017 0
1.032032 1.3769689 0.32844281 0
0.91977483 1.1686299 0.34773338 0
0.84862131 1.0365756 0.36917818 0
0.83918661 1.0190657 0.43492961 0
0.84021807 1.02098 0.51569521 0
1.1542127 1.6450794 -0.049620278 0
1.106015 1.5528668 0.26820642 0
1.0205284 1.389313 0.32984883 0
0.90905178 1.1760347 0.34823707 0
0.85179323 1.0664871 0.38073337 0
0.84343004 1.0504866 0.44981182 0
0.84013224 1.0441772 0.52782333 0
1.1438721 1.6680701 -0.05018115 0
1.1040249 1.5894378 0.27390662 0
0.9997592 1.3836857 0.32614726 0
0.89452517 1.1760228 0.34602174 0
0.8466177 1.0814849 0.38527405 0
0.84050697 1.0694263 0.45756847 0
0.84426409 1.0768404 0.54616851 0
1.1272106 1.6790925 -0.050267745 0
1.0730563 1.5688052 0.26808357 0
0.97939754 1.378065 0.32254496 0
0.88766164 1.1912411 0.34953308 0
0.84626192 1.1069288 0.39463526 0
0.84343821 1.1011783 0.47243944 0
0.83879095 1.0917139 0.55261272 0
1.101179 1.6705587 -0.049589045 0
0.96099901 1.3757509 0.31997097 0
0.87557369 1.1960959 0.34923756 0
0.83953643 1.1203072 0.39841112 0
0.83598876 1.1128461 0.47607416 0
0.83638316 1.1136757 0.56371862 0
1.0923637 1.6983018 -0.05035286 0
0.94754571 1.383582 0.3203263 0
0.86764854 1.2099487 0.35229492 0
0.84014112 1.1501694 0.40971661 0
0.83931941 1.1483836 0.4928863 0
0.84034407 1.1506104 0.58455479 0
1.0724604 1.7024599 -0.050195143 0
0.9283464 1.3785923 0.3171469 0
0.85118484 1.2051872 0.34859335 0
0.83888638 1.1775489 0.41983038 0
0.83911794 1.1780692 0.50637674 0
0.83909357 1.1780145 0.59905571 0
1.0526886 1.7066499 -0.050049275 0
0.91626006 1.3893572 0.31842729 0
0.848252 1.2311903 0.35612833 0
0.84009957 1.2122303 0.4331876 0
0.83856052 1.2086508 0.52028376 0
0.8400231 1.2120523 0.61777091 0
1.0338701 1.7128761 -0.049992539 0
0.89664739 1.3823283 0.31482774 0
0.84950745 1.2687755 0.36780944 0
0.83631599 1.2369993 0.44202462 0
0.83848256 1.2422183 0.53573966 0
0.84027481 1.2465354 0.63666695 0
1.0160807 1.7215731 -0.050040241 0
0.88072348 1.3835615 0.31358504 0
0.85167247 1.311016 0.38109455 0
0.83782309 1.2764316 0.45737833 0
0.84098089 1.284317 0.55571645 0
0.84113103 1.2846919 0.6578126 0
0.99529141 1.7225988 -0.049802739 0
0.86615461 1.3879722 0.31327227 0
0.84888142 1.3432131 0.39072394 0
0.83951831 1.3189508 0.47401917 0
0.84049535 1.3214825 0.57293379 0
0.84076887 1.3221912 0.67843115 0
0.976717 1.7291139 -0.049785417 0
0.84874898 1.3846655 0.31091055 0
0.84693974 1.3797957 0.4018774 0
0.84334743 1.3701262 0.49439624 0
0.83734852 1.3539792 0.58758205 0
0.84123033 1.3644277 0.70195329 0
0.96175617 1.7457172 -0.050159503 0
0.83160925 1.3814173 0.30863482 0
0.8394385 1.4033325 0.40838054 0
0.83942372 1.4032911 0.506742 0
0.84049523 1.4062905 0.6127134 0
0.93876791 1.7397474 -0.049687106 0
0.81691587 1.3846141 0.30816564 0
0.83951861 1.4504889 0.42319676 0
0.83598453 1.440189 0.52069032 0
0.83795792 1.4459404 0.63101786 0
0.92272955 1.7538396 -0.04998159 0
1.0300193 2.0798469 0.35069385 0
0.80161935 1.3858377 0.30721822 0
0.84104389 1.5056319 0.4407486 0
0.84078604 1.5048484 0.54670054 0
0.84208697 1.5088013 0.66148973 0
0.90467876 1.7622484 -0.050069738 0
1.007242 2.087635 0.35077122 0
0.78662241 1.3877087 0.30649936 0
0.84231627 1.5644003 0.4594889 0
0.83757925 1.5493718 0.56384009 0
0.84089589 1.559894 0.6856398 0
0.88381946 1.7615658 -0.049827047 0
0.98283672 2.0900736 0.34989473 0
0.76923823 1.3814218 0.3036598 0
0.84123039 1.6202688 0.47714499 0
0.84394848 1.6292865 0.59623671 0
0.86661118 1.7729645 -0.050043821 0
0.96105635 2.1012056 0.35071069 0
0.75544107 1.3865961 0.30393153 0
0.83935702 1.6782434 0.49547109 0
0.84015816 1.6810279 0.61634344 0
0.8463906 1.7739654 -0.049882974 0
0.73902774 1.3823379 0.047385491 0
0.73947912 1.3839844 0.13076358 0
0.73961335 1.384474 0.21546249 0
0.73692638 1.3746728 0.29972523 0
0.83854473 1.745346 0.516891 0
0.83661985 1.7383245 0.63878644 0
0.82809228 1.7819034 -0.049988009 0
0.72574532 1.3892484 0.047501341 0
0.72254306 1.3769627 0.12956437 0
0.72324133 1.3796417 0.2138578 0
0.72286546 1.3781997 0.29966787 0
0.82934326 1.786703 0.52939272 0
0.83050179 1.7911476 0.65926093 0
0.80992174 1.7906803 -0.050132051 0
0.7110461 1.3907783 0.047425117 0
0.70884073 1.3818587 0.12971193 0
0.70842969 1.3801963 0.21329726 0
0.70892245 1.3821894 0.29977888 0
0.82553089 1.8538113 0.55072069 0
0.82741684 1.8614389 0.68715495 0
0.79039711 1.7941283 -0.050088692 0
0.69190091 1.373077 0.046650797 0
0.69393629 1.3817779 0.12932882 0
0.69281459 1.3769828 0.21207504 0
0.69321734 1.3787045 0.29797721 0
0.81718087 1.9086233 0.56780106 0
0.77021748 1.794481 -0.049941286 0
0.68132526 1.3916832 0.047214866 0
0.67972881 1.384449 0.1292703 0
0.67997378 1.3855591 0.21307002 0
0.67908823 1.3815465 0.29788527 0
0.8056348 1.9549676 0.58198488 0
0.75173962 1.802538 -0.050084453 0
0.66350442 1.3773452 0.046581116 0
0.66472793 1.3832409 0.12880585 0
0.66438311 1.3815794 0.21177953 0
0.66469979 1.3831053 0.29750562 0
0.79174519 1.9953191 0.59414494 0
0.73199236 1.8046111 -0.050018117 0
0.64847434 1.375031 0.046394393 0
0.65216714 1.3940254 0.12967618 0
0.65202922 1.3933158 0.21341576 0
0.65055144 1.3857148 0.29744714 0
0.77787828 2.0406284 0.60801494 0
0.71232653 1.8068888 -0.049968384 0
0.63741416 1.3938789 0.04698281 0
0.63459224 1.3783209 0.12766863 0
0.63620675 1.3872224 0.21180876 0
0.63518596 1.3815943 0.29569003 0
0.76276195 2.0849514 0.62157899 0
0.69496816 1.8226761 -0.050416831 0
0.62230039 1.3911694 0.046794567 0
0.62051582 1.3805722 0.12764636 0
0.62086207 1.3826283 0.21051583 0
0.62175202 1.3879131 0.2966876 0
0.74554789 2.1230223 0.63306922 0
0.67378986 1.8159741 -0.050059769 0
0.60544753 1.3764253 0.046178758 0
0.60540229 1.3761342 0.12691587 0
0.60654092 1.3834573 0.21025054 0
0.60867608 1.3971897 0.29849067 0
0.72892541 2.1705828 0.64780504 0
0.65475672 1.8225529 -0.050191909 0
0.59207368 1.3830155 0.046341091 0
0.59066862 1.3731631 0.12636665 0
0.59204948 1.3828455 0.20975612 0
0.59167379 1.3802112 0.2935667 0
0.70683354 2.1877189 0.6523605 0
0.63462168 1.8213897 -0.050053749 0
0.57741582 1.3806196 0.046185713 0
0.57729638 1.3796993 0.12686874 0
0.5776611 1.3825095 0.20934589 0
0.57746536 1.3810014 0.29327726 0
0.68932396 2.2428699 0.66975534 0
0.6153776 1.8270301 -0.050169468 0
0.56304711 1.3797715 0.046092842 0
0.56325227 1.3815247 0.1268786 0
0.5629645 1.379065 0.20840476 0
0.56347585 1.3834357 0.29345655 0
0.66705388 2.2686977 0.67737621 0
0.59535152 1.8259876 -0.050053861 0
0.55230296 1.4130787 0.1301198 0
0.5532468 1.4221319 0.21593218 0
0.55283487 1.4181806 0.30196902 0
0.64511925 2.303344 0.68803078 0
0.57549876 1.8259772 -0.049984436 0
0.55215454 1.5709736 0.14700671 0
0.55181944 1.567313 0.24196623 0
0.55169064 1.5659056 0.33945137 0
0.62186223 2.3324358 0.69690973 0
0.55552626 1.8238662 -0.04984881 0
0.60271305 2.4222174 0.23862211 0
0.59867913 2.3710654 0.387119 0
0.59795666 2.3619044 0.54280913 0
0.5359686 1.8266211 -0.049896393 0
0.57383883 2.3986495 0.39175671 0
0.57323438 2.3895187 0.54937983 0
0.5161441 1.8250787 -0.049799122 0
0.54891211 2.436805 0.39835715 0
0.54801518 2.4200602 0.55677348 0
0.49679869 1.8336378 -0.050071754 0
0.52190262 2.4467258 0.39991444 0
0.5215084 2.4370985 0.56079656 0
0.4769868 1.8326346 -0.050011471 0
0.45675644 1.1187869 0.35990053 0
0.45646489 1.1084991 0.42852023 0
0.45732939 1.8389426 -0.050221164 0
0.44597912 1.1179261 0.35944587 0
0.44594896 1.1160097 0.43216136 0
0.43752244 1.8457185 -0.050456386 0
0.4351238 1.0840613 0.41612548 0
0.4351317 1.0865668 0.49360329 0
0.4177407 1.8319169 -0.049965866 0
0.4246982 1.0950986 0.42166445 0
0.42495993 1.0673809 0.48224393 0
0.3978343 1.8393334 -0.050241802 0
0.41411307 1.100647 0.35233194 0
0.41402334 1.1047183 0.42656112 0
0.41464716 1.0764115 0.48769519 0
0.37806737 1.8370112 -0.050178919 0
0.3525812 2.5727711 0.42256644 0
0.35220593 2.5836043 0.59806526 0
0.40492472 1.0616672 0.47911784 0
0.35800955 1.841718 -0.050376114 0
0.32245883 2.5940812 0.4266288 0
0.32237583 2.5958376 0.60149521 0
0.39552397 1.0477972 0.47112703 0
0.33948621 1.8184195 -0.049580872 0
0.29134044 2.6224582 0.4320395 0
0.29199749 2.6114852 0.60589629 0
0.38578507 1.0452241 0.46991214 0
0.31846994 1.837204 -0.050299615 0
0.26054588 2.6358612 0.43481836 0
0.2609376 2.6304603 0.6112504 0
0.29969692 1.8236499 -0.049869895 0
0.35494557 1.1751673 0.038634364 0
0.22995113 2.6422927 0.43640852 0
0.23047645 2.6361268 0.61330265 0
0.28006133 1.8219856 -0.04987463 0
0.19868934 2.6532104 0.4388833 0
0.19850406 2.6551032 0.6188677 0
0.26107565 1.8143874 -0.049675107 0
0.16658743 2.6685364 0.44223282 0
0.16661431 2.6682935 0.62305856 0
0.34682891 1.0392002 0.46831328 0
0.24124749 1.8147411 -0.049769912 0
0.13421889 2.6821651 0.44535252 0
0.1337245 2.686172 0.62856424 0
0.22101918 1.8175143 -0.049961045 0
0.10310914 2.6832869 0.44627526 0
0.10184397 2.6925766 0.63123167 0
0.20241198 1.8084745 -0.049735334 0
0.069955513 2.6972156 0.44960633 0
0.069768235 2.6984723 0.63387609 0
0.1819448 1.8118974 -0.049968343 0
0.037128285 2.7061882 0.45211497 0
0.035923645 2.7136273 0.63902348 0
0.16214223 1.8105476 -0.05003823 0
0.15506424 1.8510202 0.063505083 0
0.0046989187 2.7108243 0.45391074 0
0.0029313432 2.7209313 0.642259 0
0.14535673 1.7928562 -0.049523704 0
0.14038984 1.8192914 0.062483989 0
-0.028304441 2.7171304 0.45609209 0
-0.029233081 2.7220728 0.64401013 0
0.12435158 1.7979889 -0.049846698 0
0.12652923 1.7871524 0.061452094 0
0.10958005 1.8714949 0.1821693 0
-0.062786356 2.729223 0.45941976 0
-0.064098313 2.7357516 0.64913356 0
0.10347416 1.8014218 -0.050118152 0
0.12759463 1.6887571 0.058004733 0
0.09425284 1.8444937 0.17966267 0
-0.09659709 2.7359374 0.46184441 0
-0.094134048 2.7244327 0.64786297 0
0.084018305 1.7977225 -0.050138872 0
0.11701734 1.6525414 0.056823518 0
0.083375052 1.8005525 0.17530313 0
-0.1301163 2.7398188 0.46383077 0
-0.12846656 2.7325609 0.65177572 0
0.064695045 1.7933961 -0.050145611 0
0.10341851 1.632435 0.056235135 0
0.072404787 1.7613492 0.1714692 0
-0.16381527 2.7432404 0.46581599 0
-0.16183193 2.7349963 0.6543197 0
0.046027318 1.7864562 -0.050065052 0
0.086411819 1.6274233 0.056207169 0
0.054900423 1.7515142 0.17089464 0
-0.19655009 2.7417181 0.46696651 0
-0.19850536 2.7494178 0.66013747 0
0.026865261 1.7815728 -0.050068893 0
0.066907182 1.6318192 0.056534678 0
0.038667575 1.7374331 0.16987027 0
-0.23023672 2.743114 0.46874249 0
-0.22815664 2.7353346 0.65856856 0
0.010303782 1.7674106 -0.049737591 0
-0.015114261 1.857891 0.065092906 0
-0.26273268 2.7393358 0.46963483 0
-0.26019412 2.7302992 0.65949064 0
-0.010149909 1.7672782 -0.049934968 0
-0.035963938 1.8549148 0.065196618 0
-0.29557693 2.7362807 0.47074324 0
-0.29335713 2.7287447 0.66144907 0
-0.030118419 1.7650888 -0.050065868 0
-0.033682868 1.7766507 0.062497813 0
-0.32219607 2.7124908 0.46802068 0
-0.32703114 2.7281742 0.66378915 0
-0.045173839 1.7473365 -0.049622979 0
-0.03100173 1.7033423 0.059972845 0
-0.36154938 2.7294543 0.47307223 0
-0.35683244 2.7148118 0.66282332 0
-0.068435505 1.7549716 -0.050141525 0
-0.033828214 1.6520019 0.058263298 0
-0.3935737 2.7223811 0.47366598 0
-0.39152235 2.7162778 0.66594541 0
-0.086326137 1.7461522 -0.050050989 0
-0.0553018 1.6575531 0.058699571 0
-0.42570418 2.7153449 0.47434631 0
-0.42836684 2.7229488 0.67060614 0
-0.1060812 1.7426269 -0.050169744 0
-0.45578474 2.7023897 0.47397116 0
-0.45885199 2.7108078 0.67030573 0
-0.12222095 1.7293094 -0.04992472 0
-0.4900533 2.7006269 0.47582552 0
-0.48809713 2.6954613 0.66923392 0
-0.14028646 1.721354 -0.049891949 0
-0.51834953 2.6829519 0.47468889 0
-0.5173434 2.6803927 0.66833365 0
-0.16454895 1.7286485 -0.050455734 0
-0.54974556 2.6732852 0.47517538 0
-0.5490495 2.6715782 0.66925311 0
-0.17971815 1.7133926 -0.050160337 0
-0.58115661 2.663466 0.47571185 0
-0.58287108 2.6675236 0.67160624 0
-0.19493748 1.6987631 -0.049895141 0
-0.61752129 2.6647708 0.47851866 0
-0.60904896 2.6454036 0.66905975 0
-0.21261539 1.6900127 -0.049866296 0
-0.63603485 2.6256661 0.4734326 0
-0.64222324 2.6393409 0.6710875 0
-0.23631884 1.6941836 -0.050355323 0
-0.66784167 2.6166415 0.47435191 0
-0.67182553 2.6251576 0.67095727 0
-0.2475784 1.6718034 -0.049806349 0
-0.70133579 2.6108017 0.4759948 0
-0.69872713 2.6054034 0.66935295 0
-0.26746953 1.667586 -0.049984198 0
-0.72703207 2.5888052 0.47447643 0
-0.72804677 2.5908391 0.66931456 0
-0.28590864 1.6602665 -0.050048672 0
-0.75792897 2.5773652 0.47515482 0
-0.75681782 2.575206 0.66907489 0
-0.30454361 1.6532123 -0.050133657 0
-0.78214324 2.5531201 0.47330254 0
-0.78582239 2.5600526 0.66907632 0
-0.31787694 1.6363339 -0.049828969 0
-0.81004965 2.5361536 0.47299609 0
-0.81757653 2.5499146 0.67064226 0
-0.33929551 1.6342367 -0.050134677 0
-0.62070215 2.1336796 0.082600981 0
-0.84076619 2.524251 0.47380823 0
-0.84124041 2.5250926 0.66803586 0
-0.35038644 1.6139017 -0.049700968 0
-0.61699283 2.0734496 0.080668502 0
-0.8606683 2.4934714 0.47077081 0
-0.86419058 2.4995427 0.66528326 0
-0.37592202 1.6183487 -0.050300237 0
-0.61782527 2.0234764 0.079146013 0
-0.88609576 2.4727628 0.46987832 0
-0.89166009 2.4820817 0.66499901 0
-0.39239609 1.6072316 -0.05026545 0
-0.61915648 1.9763589 0.077731781 0
-0.91015673 2.450058 0.46862388 0
-0.90853643 2.4474204 0.65966552 0
-0.4041301 1.588652 -0.049923971 0
-0.62264144 1.9345105 0.076529473 0
-0.93548214 2.4296725 0.46791863 0
-0.94590127 2.4461639 0.66443455 0
-0.42108715 1.5785497 -0.049946848 0
-0.62065923 1.8857945 0.075026795 0
-0.95059037 2.393729 0.46393007 0
-0.9573518 2.4041383 0.656982 0
-0.43803459 1.5683984 -0.049976945 0
-0.61836302 1.8385099 0.073571816 0
-0.97831416 2.3776762 0.46426213 0
-0.98240006 2.3837965 0.65616238 0
-0.45985365 1.5653057 -0.050322097 0
-0.61014163 1.7843953 0.071807273 0
-1.0006281 2.353646 0.46292841 0
-1.0007054 2.3537586 0.65243298 0
-0.47104126 1.5466974 -0.050004635 0
-0.61658967 1.7532532 0.071025811 0
-1.0198989 2.3256114 0.46076107 0
-1.0201548 2.3259747 0.64944547 0
-0.49127436 1.5409653 -0.050257888 0
-0.61811352 1.7162404 0.069982044 0
-0.62131691 1.7206671 0.19918828 0
-1.0458786 2.3073554 0.46080458 0
-1.042412 2.3025651 0.64788502 0
-0.078807428 0.9709903 0.44241256 0
-0.49953794 1.5188192 -0.049794745 0
-0.61556876 1.6749802 0.068740405 0
-0.62138069 1.6828022 0.19591069 0
-1.0634792 2.2778037 0.45838365 0
-1.0667409 2.2821934 0.64736414 0
-0.091081217 0.96909475 0.44527927 0
-0.5120039 1.5027161 -0.049603123 0
-0.61787021 1.6415117 0.067835212 0
-0.61829638 1.6420705 0.1922141 0
-1.0814143 2.2492394 0.45621347 0
-1.0795863 2.2468429 0.64212978 0
-0.091327205 0.9511894 0.43819591 0
-0.5366829 1.5024277 -0.050133731 0
-0.61463761 1.6020044 0.066648558 0
-0.62084103 1.6099284 0.18964797 0
-1.09716 2.2183621 0.45354345 0
-1.0971822 2.2183905 0.63913077 0
-0.10539593 0.95151627 0.44262961 0
-0.55188715 1.4897431 -0.0501162 0
-0.62032473 1.5749308 0.066017397 0
-0.61604798 1.5696074 0.18593265 0
-1.1151661 2.1908855 0.45167866 0
-1.1109276 2.1856098 0.63475698 0
-0.12877567 0.96307403 0.45442948 0
-0.56696808 1.4769232 -0.050101046 0
-0.62537479 1.5477791 0.065379329 0
-0.61366296 1.5335709 0.18276694 0
-1.1299616 2.1599159 0.44903073 0
-1.1315984 2.1619015 0.63339418 0
-0.13582267 0.95388132 0.45308748 0
-0.57792175 1.4592347 -0.049866922 0
-0.61068821 1.4979806 0.063678525 0
-0.61993468 1.5089145 0.18116486 0
-1.1463166 2.1313553 0.44696724 0
-1.137812 2.1212988 0.62645829 0
-0.15667637 0.96111667 0.46255377 0
-0.59447277 1.4482458 -0.049953353 0
-0.61629808 1.4734044 0.063142426 0
-0.61750662 1.4747975 0.17821038 0
-1.1625117 2.1030424 0.44498911 0
-1.1507347 2.0894666 0.62243485 0
-0.5995785 1.4242977 -0.049431369 0
-0.63181353 1.4605243 0.063162588 0
-0.62953675 1.4579656 0.17770478 0
-1.1640521 2.0586684 0.43916041 0
-1.1716329 2.067188 0.62168401 0
-0.63663363 1.4358991 -0.050624687 0
-0.65871537 1.4600948 0.063794158 0
-0.65496337 1.4559835 0.17937589 0
-1.1757919 2.0266705 0.43629077 0
-1.1792375 2.0304458 0.61601901 0
-0.63510215 1.4050386 -0.049778454 0
-0.51305306 1.2746419 0.05540207 0
-0.68139505 1.4544977 0.18118668 0
-1.1889658 1.9967839 0.43394506 0
-1.1875702 1.9952928 0.61087549 0
-0.64803958 1.3901088 -0.04970935 0
-0.50811803 1.2443403 0.054495703 0
-0.71575773 1.4606568 0.18420763 0
-1.2011244 1.9663059 0.43146417 0
-1.1965173 1.9615061 0.60618955 0
-0.67162848 1.3860648 -0.050192825 0
-0.51694226 1.2289238 0.05432063 0
-0.75082099 1.4665139 0.18728557 0
-1.2131981 1.9362283 0.42909223 0
-1.2148111 1.9378669 0.6051181 0
-0.68373048 1.3701572 -0.050095644 0
-0.52696633 1.2148658 0.054217834 0
-0.77745998 1.4630061 0.1890398 0
-1.2198367 1.9012265 0.42546678 0
-1.222218 1.9035854 0.60025787 0
-0.69763935 1.3560859 -0.050099324 0
-0.53692603 1.2008429 0.05412193 0
-0.80552316 1.4602977 0.19099224 0
-1.2213029 1.8619256 0.42069933 0
-1.2213767 1.8619968 0.59268451 0
-0.71530879 1.345549 -0.050296143 0
-0.56829751 1.207077 0.055086009 0
-0.83940256 1.4624346 0.19378543 0
-1.2281715 1.8286215 0.41744992 0
-1.224842 1.8254853 0.58689463 0
-0.72402906 1.3266002 -0.050063372 0
-0.87596381 1.4661412 0.069428213 0
-0.86554861 1.4565756 0.19541413 0
-1.2292826 1.7906393 0.41293132 0
-1.2303246 1.7915963 0.58203024 0
-0.23576607 0.87816548 0.38169712 0
-0.73196244 1.3071628 -0.049806993 0
-0.90121448 1.4587245 0.069918118 0
-0.91391349 1.4700962 0.20024058 0
-1.2346752 1.7573318 0.40961632 0
-1.2297329 1.7529061 0.5752871 0
-0.23771615 0.86457515 0.37851512 0
-0.74833524 1.2953292 -0.049965054 0
-0.93930483 1.4620539 0.071015634 0
-1.2369065 1.721873 0.40568173 0
-1.2362117 1.7212664 0.5711782 0
-0.23644365 0.84842575 0.37369123 0
-0.7661643 1.2845846 -0.050196726 0
-0.96661389 1.4551861 0.07159403 0
-1.2391946 1.6871781 0.40190881 0
-1.2393829 1.6873384 0.56613922 0
-0.23476268 0.83231169 0.36880788 0
-0.25556314 0.85001487 0.45810017 0
-0.78117049 1.2712818 -0.050301358 0
-1.0073128 1.458892 0.072791576 0
-1.2484869 1.6589727 0.3999193 0
-1.2305433 1.6440865 0.55731338 0
-0.25268811 0.83284688 0.3746326 0
-0.79460967 1.256613 -0.050340712 0
-1.0502952 1.4633532 0.074079677 0
-1.2537413 1.627854 0.39709628 0
-1.2344296 1.612239 0.5529319 0
-0.25383317 0.81935614 0.37146005 0
-0.80540383 1.2398206 -0.050267894 0
-1.0780432 1.4546489 0.074660063 0
-1.2486781 1.5891017 0.39202252 0
-1.2400256 1.582284 0.54927999 0
-0.26225126 0.8118397 0.37224263 0
-0.81105292 1.219139 -0.04997376 0
-1.1224341 1.4582009 0.075988911 0
-1.2498446 1.55602 0.38852552 0
-1.2424341 1.5503306 0.54475981 0
-0.26118851 0.79698205 0.36811844 0
-0.25341886 0.79101694 0.43869963 0
-0.82343388 1.2037473 -0.049994171 0
-1.1599116 1.4554073 0.076995082 0
-1.2425092 1.517184 0.38324085 0
-1.2443225 1.5185401 0.54024506 0
-0.26085109 0.78297794 0.36450511 0
-0.2706055 0.79027355 0.44532874 0
-0.84474742 1.1948411 -0.05041755 0
-1.2133923 1.4633884 0.078700498 0
-1.2512287 1.4909511 0.38169628 0
-1.2390175 1.4820557 0.53362793 0
-1.2436168 1.485406 0.6959241 0
-0.26439798 0.77207321 0.36300525 0
-0.27546537 0.78013545 0.44427261 0
-0.84877765 1.1733047 -0.050085574 0
-1.2516007 1.4590561 0.07971783 0
-1.2578462 1.4634866 0.37977412 0
-1.2438248 1.4535402 0.53037715 0
-1.2416675 1.4520099 0.68891203 0
-0.2849893 0.77336901 0.37024099 0
-0.28100854 0.77054518 0.44372368 0
-0.859429 1.1566217 -0.050055567 0
-1.2969601 1.4587854 0.081038997 0
-1.2547815 1.4296565 0.37582257 0
-1.244324 1.4224343 0.52593052 0
-1.2401947 1.4195826 0.68232405 0
-0.29143208 0.76435679 0.44622087 0
-0.87414134 1.1426899 -0.050209578 0
-1.2781211 1.4142344 0.079587564 0
-1.2675998 1.4071623 0.22615351 0
-1.2395217 1.388289 0.36934724 0
-1.2423078 1.3901616 0.52086914 0
-1.2364069 1.3861953 0.67502797 0
-0.28664601 0.74779129 0.43957478 0
-0.8847791 1.1259598 -0.050196022 0
-1.2742239 1.3806742 0.078809462 0
-1.2722131 1.3793591 0.22491544 0
-1.2553452 1.3683268 0.36973614 0
-1.2350073 1.3550248 0.51436263 0
-1.2472365 1.3630233 0.67377049 0
-0.29749185 0.74184746 0.4424541 0
-0.89079475 1.1062965 -0.049995948 0
-1.2746735 1.3505253 0.078239463 0
-1.2806267 1.3543128 0.22421612 0
-1.2534271 1.3370081 0.36638352 0
-1.2366042 1.3263052 0.51073289 0
-1.2328236 1.3238999 0.66268492 0
-0.30236423 0.73192936 0.4418126 0
-0.90440953 1.0914969 -0.05012688 0
-1.2995948 1.3359841 0.078717239 0
-1.2868944 1.3281268 0.22329105 0
-1.2413913 1.2999756 0.3609952 0
-1.2325515 1.2945068 0.50554532 0
-1.2360443 1.2966677 0.65877748 0
-0.91877222 1.0770357 -0.050295774 0
-1.3069435 1.310477 0.078466989 0
-1.316573 1.3162681 0.22535035 0
-1.2458676 1.2737467 0.35922098 0
-1.2428887 1.2719553 0.50480056 0
-1.240894 1.2707556 0.65566552 0
-0.93484414 1.0634316 -0.050541669 0
-1.3330603 1.2961371 0.079007976 0
-1.3287892 1.2936412 0.22523959 0
-1.244028 1.2441093 0.35620975 0
-1.2412577 1.2424904 0.50060892 0
-1.2354273 1.2390833 0.64872736 0
-0.92626524 1.0356326 -0.04978092 0
-1.3790424 1.2926294 0.080368042 0
-1.3703455 1.287693 0.22879063 0
-1.2437732 1.2158505 0.35362628 0
-1.2459261 1.2170725 0.49840447 0
-1.2309601 1.2085778 0.64237404 0
-0.93922234 1.0203105 -0.049917631 0
-1.2481405 1.1905462 0.35208598 0
-1.2370073 1.1844109 0.49235067 0
-1.2410238 1.1866243 0.64173084 0
-0.94515193 1.0011176 -0.049776744 0
-1.2615268 1.1703044 0.35246596 0
-1.2441736 1.1610245 0.49111074 0
-1.2391939 1.1583616 0.63670951 0
-0.95850658 0.98588419 -0.049945153 0
-1.2718408 1.1484051 0.3522712 0
-1.2481482 1.1361161 0.48904645 0
-1.2355829 1.1295987 0.63118708 0
-0.97438455 0.9717831 -0.050221015 0
-1.2746253 1.122746 0.35061362 0
-1.2424662 1.1065762 0.48432741 0
-1.2404134 1.105544 0.62897825 0
-0.97222531 0.94867569 -0.049785979 0
-1.275026 1.0961789 0.348553 0
-1.242516 1.0803423 0.48136979 0
-1.2330046 1.075709 0.62236607 0
-0.98474896 0.93282914 -0.049944609 0
-1.2939014 1.0786391 0.35025537 0
-1.2417384 1.0540369 0.47828975 0
-1.2435974 1.0549135 0.62255335 0
-0.98920274 0.91317356 -0.049793504 0
-1.3039875 1.056823 0.35024947 0
-1.2346557 1.025184 0.47355229 0
-1.2456362 1.0301949 0.61970741 0
-1.0073868 0.89968908 -0.050188702 0
-1.3069981 1.0318819 0.34890321 0
-1.2338246 0.99959666 0.47068602 0
-1.2394464 1.0020771 0.61399853 0
-1.0027082 0.87615287 -0.049701106 0
-1.332532 1.0167415 0.35204154 0
-1.2352362 0.97526878 0.46854666 0
-1.2468703 0.98022789 0.61337203 0
-1.0204904 0.86222678 -0.050094608 0
-1.3346834 0.9915024 0.35064092 0
-1.2394845 0.95233256 0.46728575 0
-1.2409101 0.95291907 0.60803306 0
-1.0256039 0.84297162 -0.0500063 0
-1.338829 0.96726096 0.34969607 0
-1.2415771 0.92867094 0.46551889 0
-1.2382044 0.92733252 0.60400897 0
-1.0302829 0.82361376 -0.049911104 0
-1.3351079 0.94014913 0.34729591 0
-1.245472 0.90588105 0.46433431 0
-1.2304204 0.90012681 0.59831047 0
-1.035256 0.80443233 -0.049836833 0
-1.3619642 0.92464095 0.35084864 0
-1.2442538 0.88133073 0.46184343 0
-1.2381133 0.87907141 0.59824663 0
-1.042936 0.78626055 -0.049874563 0
-1.3598191 0.89834464 0.34887514 0
-1.2374995 0.85507923 0.45794931 0
-1.2397513 0.85587567 0.59614009 0
-1.0422419 0.76521355 -0.049605045 0
-1.3642005 0.87455165 0.34821633 0
-1.2414489 0.83286482 0.45704505 0
-1.2491815 0.83549088 0.59688324 0
-1.0616263 0.7509011 -0.050100472 0
-1.3858018 0.8564586 0.35088322 0
-1.2391722 0.80871332 0.45454919 0
-1.241978 0.80962694 0.59189343 0
-1.0755668 0.73452216 -0.050397128 0
-1.3900892 0.83257395 0.35031205 0
-1.2370135 0.78485286 0.45217603 0
-1.2338281 0.78385985 0.586707 0
-1.0619378 0.70970643 -0.049673341 0
-1.4087349 0.81304705 0.35250175 0
-1.2304083 0.75990826 0.44870821 0
-1.2403034 0.76285684 0.58673006 0
-1.0867169 0.69633847 -0.050389323 0
-1.4059443 0.78710347 0.35071057 0
-1.2421422 0.74053013 0.45020056 0
-1.2398118 0.73986751 0.58443499 0
-1.0639422 0.66956824 -0.049350243 0
-1.4044905 0.76177692 0.3492364 0
-1.2307853 0.71474361 0.44564909 0
-1.2344784 0.7157436 0.5805788 0
-1.0871197 0.65537488 -0.050020956 0
-1.4101218 0.738482 0.34914589 0
-1.2380246 0.69420213 0.44609708 0
-1.2387511 0.69438905 0.58013958 0
-1.0935841 0.6366148 -0.050082017 0
-1.4278564 0.71814835 0.35135701 0
-1.2427925 0.67300874 0.44596267 0
-1.2435856 0.67320222 0.57998639 0
-1.1043878 0.61880803 -0.050310556 0
-1.4294834 0.69377929 0.35062796 0
-1.2375977 0.64952797 0.44329014 0
-1.2382536 0.64967918 0.57645369 0
-1.0970091 0.59688038 -0.049882378 0
-1.4187722 0.66682827 0.34768045 0
-1.2422153 0.6284467 0.44326413 0
-1.2391583 0.62778211 0.57515502 0
-1.1057243 0.5785448 -0.050051812 0
-1.4383503 0.64647973 0.35037845 0
-1.2298135 0.60388851 0.43887556 0
-1.2451752 0.60702598 0.57568944 0
-1.1137803 0.55995834 -0.050205275 0
-1.4406359 0.62243819 0.34994197 0
-1.2434241 0.58474028 0.44133475 0
-1.2366109 0.58343792 0.57137221 0
-1.1118822 0.53948557 -0.050005924 0
-1.4479964 0.59935868 0.35049161 0
-1.2376918 0.56189644 0.4388383 0
-1.2345247 0.56133229 0.5693543 0
-1.1089578 0.51898259 -0.049779188 0
-1.430977 0.57217073 0.34663686 0
-1.2397321 0.54058272 0.43843144 0
