# .PCD v0.7 - Point Cloud Data file format
VERSION 0.7
FIELDS x y z intensity
SIZE 4 4 4 4
TYPE F F F F
COUNT 1 1 1 1
WIDTH 1352
HEIGHT 1
VIEWPOINT 0 0 0 1 0 0 0
POINTS 1352
DATA ascii
-1.2416618 0.20109507 0.43344808 0
-1.2418994 0.2010861 0.56347477 0
-1.2375299 0.20125125 0.69796365 0
-1.1336628 0.18541737 -0.049986552 0
-0.51183504 0.21676461 0.10762047 0
-0.50903177 0.21690594 0.17602731 0
-1.2443246 0.17983875 0.43436575 0
-1.2378811 0.18016358 0.56244582 0
-1.2392416 0.18009499 0.69905764 0
-1.139168 0.16528563 -0.050223488 0
-0.5138185 0.20470998 0.10790665 0
-0.50906998 0.20500934 0.1761557 0
-1.2368799 0.15912551 0.4327687 0
-1.2319976 0.15943332 0.56088215 0
-1.1382889 0.14546643 -0.050241139 0
-0.50014287 0.19377153 0.1065218 0
-0.5258072 0.19182885 0.17933157 0
-1.2462513 0.1372941 0.43553939 0
-1.2315835 0.1384044 0.56122887 0
-1.1260812 0.12663269 -0.049861737 0
-0.50316179 0.1816816 0.10695139 0
-0.50065929 0.18190277 0.17495762 0
-1.2433004 0.11627375 0.43522748 0
-1.2303966 0.11741409 0.56140625 0
-1.1211298 0.10733136 -0.049750727 0
-0.50539446 0.16956811 0.10731301 0
-0.51738888 0.16835575 0.17819178 0
-1.2422327 0.09509062 0.43546593 0
-1.2395091 0.095365919 0.56511623 0
-1.1194233 0.087736346 -0.049764886 0
-0.5121026 0.15685806 0.039942775 0
-0.52360106 0.15554936 0.10941947 0
-0.50853407 0.1572642 0.17681764 0
-1.246495 0.073273785 0.43714181 0
-1.2419348 0.073792793 0.56668538 0
-1.1253818 0.067157827 -0.050063774 0
-0.51373076 0.1445854 0.040052779 0
-0.51545966 0.14436653 0.10869418 0
-0.51512116 0.1444094 0.17827381 0
-1.2423583 0.052350033 0.43673101 0
-1.2421466 0.052376825 0.56760561 0
-1.1281735 0.046804775 -0.050258365 0
-0.5096212 0.13303234 0.039961714 0
-0.51359552 0.13247831 0.10866401 0
-0.50818288 0.13323285 0.17729913 0
-1.2339799 0.032055113 0.43529463 0
-1.2384287 0.031434942 0.56729794 0
-1.1184615 0.028213535 -0.050011031 0
-0.51683104 0.11981883 0.0402845 0
-0.50481182 0.1216489 0.10789784 0
-0.5239259 0.11873855 0.18048592 0
-1.2371833 0.010136743 0.43691036 0
-1.2361017 0.010301431 0.56754649 0
-1.1105301 0.0095018344 -0.049836081 0
-0.50352961 0.10976047 0.039871771 0
-0.51648331 0.1076209 0.109373 0
-0.5082761 0.10897649 0.1779743 0
-1.2437249 -0.012498061 0.43946391 0
-1.2411057 -0.012065451 0.57035714 0
-1.1063515 -0.0097562177 -0.049805362 0
-0.51862699 0.094937108 0.040492538 0
-0.52194196 0.09434659 0.11019253 0
-0.51885873 0.094895817 0.18028499 0
-1.2510735 -0.035536032 0.44230613 0
-1.2373941 -0.033099275 0.57032394 0
-1.1140141 -0.031258892 -0.050213777 0
-0.50785643 0.084610768 0.040181339 0
-0.51216525 0.083787121 0.10936533 0
-0.50896209 0.084399424 0.17887349 0
-1.2437159 -0.056051951 0.44141057 0
-1.2430478 -0.055924218 0.57355249 0
-1.1021315 -0.049066853 -0.049920894 0
-0.51124984 0.071613707 0.040390179 0
-0.50357598 0.073180996 0.10868081 0
-0.51677144 0.070485972 0.18074185 0
-1.2413573 -0.077502079 0.44188157 0
-1.2510322 -0.079478063 0.5776782 0
-1.099126 -0.06859643 -0.049959723 0
-0.5127809 0.05886877 0.040537521 0
-0.5177604 0.05778629 0.11051372 0
-0.51503485 0.05837879 0.18088579 0
-1.2428594 -0.099842556 0.44343227 0
-1.2297536 -0.096993484 0.57195306 0
-1.1045732 -0.090106644 -0.050317355 0
-0.51456934 0.045955855 0.040700596 0
-0.50643241 0.047832344 0.10955955 0
-0.51465714 0.045935605 0.18130983 0
-1.230275 -0.11909509 0.44137284 0
-1.2363369 -0.12049306 0.57579929 0
-1.0887892 -0.10670114 -0.049905818 0
-0.51540685 0.033154521 0.040835194 0
-0.50796473 0.034969751 0.11003888 0
-0.50979835 0.034522507 0.18093237 0
-1.2550572 -0.14725615 0.44918352 0
-1.238116 -0.14312397 0.57811332 0
-1.088609 -0.12701394 -0.050075855 0
-0.55089337 0.011338075 0.042253464 0
-0.55287725 0.010827621 0.11535162 0
-0.54665637 0.012428244 0.18834902 0
-1.2485334 -0.16816182 0.4488655 0
-1.2336204 -0.16432478 0.57837701 0
-1.0800325 -0.14518084 -0.049945369 0
-0.62334073 -0.02152453 0.045053788 0
-0.61944234 -0.020468991 0.12312707 0
-1.2323363 -0.18641944 0.31707063 0
-1.2440065 -0.18957932 0.44914371 0
-1.2448434 -0.18980591 0.58415133 0
-1.0713265 -0.16321848 -0.049818087 0
-0.68714333 -0.053984832 0.047558624 0
-0.69929552 -0.057440024 0.132459 0
-1.2427673 -0.21196373 0.32011539 0
-1.2490752 -0.2137572 0.45203948 0
-1.2355796 -0.20992009 0.58297116 0
-1.0749767 -0.18484767 -0.050159074 0
-0.77471805 -0.095374741 0.050973646 0
-0.77359569 -0.095040299 0.14125541 0
-1.2280983 -0.23047577 0.31850854 0
-1.2354131 -0.23265548 0.45004055 0
-1.2358594 -0.23278846 0.58518732 0
-1.0629861 -0.20185606 -0.049926665 0
-0.87059581 -0.14187877 0.054732054 0
-0.86913908 -0.14142464 0.15253098 0
-1.2433897 -0.25809655 0.32259914 0
-1.2402079 -0.25710461 0.45302972 0
-1.2445433 -0.25845614 0.59044111 0
-1.0511818 -0.21875603 -0.049708318 0
-0.978912 -0.19522364 0.058994856 0
-0.98918438 -0.19856851 0.16668802 0
-1.2515303 -0.28399321 0.32541609 0
-1.2452275 -0.28194085 0.4561739 0
-1.2345438 -0.27846208 0.58929223 0
-1.0492744 -0.23885767 -0.049870197 0
-1.1402279 -0.26974574 0.065299496 0
-1.1189878 -0.26253256 0.18209475 0
-1.2452102 -0.30539808 0.32555285 0
-1.23562 -0.30214122 0.4554745 0
-1.0425308 -0.25737312 -0.049859218 0
-1.2914224 -0.34540805 0.20252155 0
-1.2368443 -0.3261033 0.32535031 0
-1.2344654 -0.32526192 0.4571282 0
-1.0462658 -0.27973911 -0.05025566 0
-1.2408422 -0.35133138 0.19762433 0
-1.2361735 -0.34961358 0.32667559 0
-1.2355224 -0.34937403 0.4594698 0
-1.0370563 -0.29745916 -0.050169997 0
-1.2522129 -0.37971404 0.1998398 0
-1.2463869 -0.37748668 0.33016574 0
-1.2372656 -0.37399963 0.46209282 0
-1.0329154 -0.31712875 -0.050287131 0
-1.2467152 -0.40196553 0.20015725 0
-1.2475147 -0.4022828 0.3319785 0
-1.2429955 -0.4004896 0.46590817 0
-1.011474 -0.3297728 -0.049746528 0
-1.2465978 -0.42651513 0.20113409 0
-1.2418551 -0.4245638 0.33253774 0
-1.2389557 -0.42337081 0.46713984 0
-1.0116107 -0.35120347 -0.050046608 0
-1.246864 -0.45148107 0.20219703 0
-1.24626 -0.45122364 0.33512798 0
-1.2520571 -0.45369467 0.47321182 0
-1.0021968 -0.36865512 -0.04998618 0
-1.2437972 -0.4752526 0.20291118 0
-1.2427962 -0.47481093 0.33624753 0
-1.2435635 -0.47514942 0.47340181 0
-0.98741686 -0.38361451 -0.049723424 0
-1.2339729 -0.49612829 0.20286646 0
-1.2369065 -0.49746707 0.33695135 0
-1.2463927 -0.50179601 0.47684386 0
-0.98394668 -0.40370664 -0.049912944 0
-1.2382424 -0.52364379 0.20452727 0
-1.2425684 -0.52568406 0.34001946 0
-1.2298462 -0.51968378 0.47493514 0
-0.98144567 -0.42442307 -0.050152134 0
-1.4951044 -0.67464143 0.082550496 0
-1.2413924 -0.55105084 0.20610577 0
-1.2424999 -0.55159032 0.34202799 0
-1.2390614 -0.54991531 0.48038939 0
-0.95936275 -0.43548599 -0.049620748 0
-1.4510798 -0.68272418 0.08126983 0
-1.2470403 -0.58013189 0.20803612 0
-1.2446653 -0.57893771 0.34456581 0
-1.2440269 -0.57861674 0.4847731 0
-0.96328104 -0.45961651 -0.050137173 0
-1.4057313 -0.68910754 0.079931617 0
-1.2354281 -0.60077429 0.20793375 0
-1.2434974 -0.60495973 0.34651282 0
-0.95146096 -0.47574726 -0.050032172 0
-1.3531142 -0.69053817 0.078293331 0
-1.2437674 -0.63206309 0.21029375 0
-1.2321904 -0.62587214 0.34646615 0
-0.94132757 -0.49272653 -0.050003447 0
-1.2960426 -0.6881994 0.07646279 0
-1.2343985 -0.65422922 0.21054545 0
-1.2394925 -0.65703636 0.3503052 0
-0.92604244 -0.50676203 -0.049771778 0
-1.2681115 -0.7009207 0.075814173 0
-1.2396756 -0.68478048 0.21264319 0
-1.2312516 -0.67999905 0.3510296 0
-0.91686332 -0.52418 -0.049798161 0
-1.2545357 -0.72150552 0.075760968 0
-1.2264963 -0.70512021 0.2125068 0
-1.2455909 -0.71627855 0.35653624 0
-0.90367043 -0.53920949 -0.049666636 0
-1.253052 -0.74932319 0.076221868 0
-1.2449408 -0.74444526 0.2163672 0
-1.2322217 -0.73679608 0.3563492 0
-0.89729905 -0.55835378 -0.049828373 0
-1.2506825 -0.77697963 0.076663844 0
-1.2547522 -0.77949744 0.21922913 0
-1.235034 -0.76729852 0.35964698 0
-0.89484107 -0.58012682 -0.050167166 0
-1.2482022 -0.80493981 0.07711935 0
-1.2365563 -0.79753047 0.21860263 0
-1.2439959 -0.80226368 0.36436754 0
-0.89166057 -0.60171652 -0.050489586 0
-1.2582451 -0.84147924 0.078127824 0
-1.2388129 -0.82876974 0.22062638 0
-1.2384831 -0.82855397 0.36610237 0
-0.86480546 -0.60767049 -0.049807973 0
-1.2395476 -0.85956222 0.077928245 0
-1.2422631 -0.86138743 0.22287263 0
-1.2417232 -0.86102456 0.36982563 0
-0.86034143 -0.62850761 -0.050095152 0
-1.2348193 -0.88712615 0.078342855 0
-1.2430097 -0.89278251 0.22483878 0
-1.2406168 -0.89112991 0.37271798 0
-0.84580076 -0.64244884 -0.049955267 0
-1.2382296 -0.92082697 0.079132557 0
-1.2407037 -0.92258197 0.22647223 0
-1.6084219 -1.183431 0.45729247 0
-0.83850145 -0.66154706 -0.05014167 0
-1.2243286 -0.94261116 0.079183549 0
-1.2481794 -0.95998567 0.22947098 0
-1.570814 -1.1950158 0.45300472 0
-0.81953919 -0.67209023 -0.049820539 0
-1.2472816 -0.9920091 0.080890223 0
-1.2426523 -0.98854691 0.23081599 0
-0.81818843 -0.69587302 -0.050294925 0
-1.2357904 -1.0164857 0.081091031 0
-1.2322627 -1.0137774 0.23156376 0
-0.80503821 -0.71078843 -0.050251275 0
-1.1583905 -0.98921484 0.078312054 0
-1.1521683 -0.984312 0.22282499 0
-1.1574608 -0.9884823 0.37107825 0
-0.78692305 -0.72165358 -0.0499878 0
-1.1466134 -1.0124891 0.078501813 0
-1.1419146 -1.0086899 0.22359818 0
-1.1435633 -1.0100229 0.3715429 0
-0.76540184 -0.72945583 -0.049569882 0
-1.2383026 -1.1217794 0.083506659 0
-1.2480016 -1.1298258 0.24066767 0
-1.3331639 -1.2004774 0.41976184 0
-0.75922668 -0.74993593 -0.049871482 0
-1.2350632 -1.1549177 0.084179237 0
-1.24008 -1.1591876 0.24204594 0
-1.3182256 -1.2256967 0.4206253 0
-1.0262001 -0.97715551 0.49471739 0
-0.75158262 -0.76942021 -0.050118957 0
-1.2873639 -1.2371804 0.41776168 0
-0.99745655 -0.98407871 0.490316 0
-0.73176241 -0.77823943 -0.049797412 0
-1.1921451 -1.1905029 0.083860502 0
-1.1938936 -1.1920685 0.24063069 0
-1.1988746 -1.1965289 0.40094936 0
-0.96750689 -0.98934382 0.48548135 0
-0.72733712 -0.8008942 -0.050223723 0
-0.92483747 -0.98228413 0.47620714 0
-0.70772147 -0.80965823 -0.049924027 0
-0.88737226 -0.97887379 0.46861529 0
-0.69783556 -0.8275314 -0.050109066 0
-0.84928572 -0.97382659 0.46069506 0
-0.68455493 -0.84222978 -0.050137073 0
-0.83794248 -0.99417609 0.46225676 0
-0.66726577 -0.85288864 -0.049970802 0
-0.8175087 -1.0055156 0.46062514 0
-0.65002525 -0.8634333 -0.049811721 0
-0.64065886 -0.88223106 -0.050068755 0
-0.62711906 -0.89672953 -0.050120786 0
-1.0043346 -1.3100555 0.082098514 0
-0.60881031 -0.90592855 -0.049927171 0
-0.98292935 -1.3263736 0.082019709 0
-0.59166145 -0.91626078 -0.049800184 0
-0.95064402 -1.3300716 0.081358105 0
-0.5766449 -0.92898077 -0.049796328 0
-0.91505897 -1.3291515 0.08050669 0
-0.56155539 -0.94161266 -0.049797241 0
-1.0591522 -1.5452697 0.089726612 0
-0.54679441 -0.95465964 -0.049825892 0
-0.90273809 -1.3977213 0.082116023 0
-0.53460258 -0.97102624 -0.050013244 0
-0.92057729 -1.4640571 0.08436738 0
-0.51831353 -0.98224407 -0.049974553 0
-0.90155208 -1.4846876 0.084534861 0
-0.50399995 -0.99608034 -0.050061844 0
-0.9702338 -1.6235645 0.089970812 0
-0.4916355 -1.0127201 -0.050279878 0
-0.93476164 -1.6250621 0.089265034 0
-0.47253448 -1.0200723 -0.050097186 0
-0.45601505 -1.0309656 -0.05007983 0
-0.44009769 -1.0427444 -0.050109599 0
-0.42069685 -1.0492046 -0.04992127 0
-0.37525243 -0.97924227 0.49936527 0
-0.40732658 -1.0649672 -0.050137628 0
-0.36164898 -0.99266893 0.50068527 0
-0.38766742 -1.0707899 -0.049942929 0
-0.33151919 -0.97939032 0.49163494 0
-0.37332749 -1.0852594 -0.05011956 0
-0.31234664 -0.98313171 0.48939505 0
-0.3551358 -1.0933441 -0.050038859 0
-0.29068601 -0.98225242 0.48548746 0
-0.33904958 -1.1050559 -0.050116789 0
-0.27308381 -0.98797935 0.48423472 0
-0.31988293 -1.1112572 -0.049978208 0
-0.25315946 -0.98926944 0.48139238 0
-0.30138898 -1.118524 -0.049893409 0
-0.22454818 -0.97373825 0.47232819 0
-0.28640282 -1.1324824 -0.050087225 0
-0.21130134 -0.98656613 0.47406906 0
-0.26795685 -1.1398187 -0.050023172 0
-0.19251092 -0.98858303 0.47184172 0
-0.25084937 -1.1498281 -0.050074741 0
-0.16829915 -0.97899991 0.4654294 0
-0.23142232 -1.1549722 -0.049942765 0
-0.15057875 -0.98215455 0.46384558 0
-0.21535261 -1.1673172 -0.050103325 0
-0.13468362 -0.98905855 0.46372163 0
-0.19579287 -1.1719743 -0.049971338 0
-0.11454101 -0.98623639 0.46013933 0
-0.17608358 -1.1760466 -0.04982695 0
-0.10872753 -1.0166367 0.46866709 0
-0.15609564 -1.1791738 -0.049656462 0
-0.07526876 -0.98095828 0.34912363 0
-0.082786873 -0.99939519 0.46006018 0
-0.13800438 -1.1868054 -0.049669284 0
-0.053520724 -0.97192246 0.34492072 0
-0.067013726 -1.0062417 0.46022391 0
-0.1210999 -1.1976049 -0.049811706 0
-0.029318763 -0.95524293 0.14615482 0
-0.031346038 -0.96059626 0.24223199 0
-0.015442951 -0.91860169 0.32873121 0
-0.049021944 -1.0072721 0.45838866 0
-0.10775514 -1.2184768 -0.050344307 0
-0.010845168 -0.95250708 0.14518778 0
-0.0082495641 -0.94538337 0.23820941 0
0.0049169823 -0.9092477 0.32468501 0
-0.087732688 -1.2214246 -0.050202925 0
0.0049205883 -0.95682639 0.14505489 0
0.0049747094 -0.95667189 0.23932426 0
0.021666395 -0.90900391 0.32318875 0
-0.0015488698 -0.9753018 0.44298676 0
-0.068412438 -1.2261587 -0.050138935 0
0.02023642 -0.96239477 0.14508675 0
0.025752502 -0.9459824 0.2362846 0
0.02337979 -0.95304221 0.33367449 0
0.013491618 -0.98246318 0.44361639 0
-0.051243678 -1.2374347 -0.050329722 0
0.03820686 -0.95975536 0.14421356 0
0.035802141 -0.96722037 0.23935634 0
0.022922711 -1.0072017 0.34683654 0
0.020553665 -1.0145558 0.45302406 0
-0.030647648 -1.2380612 -0.050130002 0
0.027764814 -1.0485908 0.3565366 0
-0.0087244045 -1.2336944 -0.049754851 0
0.0667236 -0.97755438 0.33631516 0
0.0072683855 -1.2494715 -0.050138284 0
0.086233184 -0.96838135 0.33268967 0
0.027426409 -1.25073 -0.049991339 0
0.10278814 -0.9688831 0.33169639 0
0.045445904 -1.2600015 -0.050149385 0
0.11925368 -0.96934897 0.33075184 0
0.065949604 -1.259437 -0.04995412 0
0.084811673 -1.2654878 -0.050011076 0
0.10660152 -1.25807 -0.049584825 0
0.12565054 -1.2627807 -0.049611315 0
0.14297079 -1.2768106 -0.049984995 0
-0.065586373 -2.3868113 0.10230687 0
0.16207795 -1.2821709 -0.050051551 0
0.00092370971 -2.2036669 0.095449448 0
0.18042369 -1.2925464 -0.050308064 0
0.033166185 -2.2019114 0.095196478 0
0.20118846 -1.2879398 -0.050031655 0
0.063875511 -2.2092662 0.095287502 0
0.22088693 -1.289741 -0.049996033 0
0.09590213 -2.2074614 0.095062278 0
0.24009928 -1.2953026 -0.050104659 0
0.12833337 -2.2011206 0.094688766 0
0.25940606 -1.3007358 -0.050217222 0
0.16171487 -2.1838388 0.093937464 0
0.27932078 -1.3008062 -0.050145991 0
0.19128355 -2.2001173 0.094406039 0
0.29955909 -1.2965233 -0.049927857 0
0.22222361 -2.2042506 0.094452284 0
0.31870052 -1.3052804 -0.050185811 0
0.2538043 -2.2000699 0.094214857 0
0.33829027 -1.3096474 -0.050295182 0
0.28478315 -2.2032211 0.094254054 0
0.35849163 -1.3027719 -0.05001149 0
0.31639758 -2.1936119 0.093851104 0
0.37843388 -1.2976865 -0.049800951 0
0.34746 -2.1918707 0.09374363 0
0.39781713 -1.3113691 -0.050269648 0
0.37802735 -2.2093756 0.094337426 0
0.41773939 -1.3033136 -0.049970895 0
0.43748289 -1.3044178 -0.050008103 0
0.457109 -1.2961978 -0.04972126 0
0.47682416 -1.2981513 -0.049806494 0
0.49707782 -1.3117102 -0.050315324 0
0.51609856 -1.295485 -0.04976875 0
0.53616589 -1.3008572 -0.050003029 0
0.55614185 -1.3029284 -0.050128374 0
0.57666409 -1.3099627 -0.050440807 0
0.59603584 -1.3038068 -0.050289456 0
0.61472619 -1.2927186 -0.04996936 0
0.63390827 -1.2871488 -0.049855869 0
0.65404296 -1.2888035 -0.050011408 0
0.67267132 -1.280036 -0.049799848 0
0.69229215 -1.2780417 -0.049841546 0
0.71181959 -1.2753497 -0.049866978 0
0.73211551 -1.2765005 -0.050041154 0
0.7513898 -1.272108 -0.050022986 0
0.76890004 -1.2597671 -0.049723029 0
0.78840607 -1.2568728 -0.049776625 0
0.80917645 -1.2589215 -0.05002119 0
0.82760304 -1.2512822 -0.04991876 0
0.84662694 -1.2460831 -0.049914889 0
0.86829615 -1.2500762 -0.050261367 0
0.88525391 -1.2375807 -0.050004497 0
0.90007395 -1.2188952 -0.04952288 0
0.91942275 -1.2150474 -0.049603935 0
0.94415712 -1.2267098 -0.050279945 0
0.95751381 -1.2050979 -0.049709309 0
0.98139167 -1.2129525 -0.050264638 0
0.99690092 -1.1980252 -0.049962342 0
0.92329621 -1.0072966 0.45948797 0
1.0138444 -1.1872445 -0.049825478 0
0.94159704 -1.0068296 0.46157125 0
1.032297 -1.1803427 -0.049846064 0
0.95735693 -0.99982375 0.46139276 0
1.0492345 -1.1698725 -0.049737096 0
0.97504336 -0.9973256 0.46291742 0
1.071599 -1.1717798 -0.050119493 0
0.98326951 -0.97327691 0.45668402 0
1.0895927 -1.1635356 -0.0501162 0
1.0064799 -0.98291427 0.46278891 0
1.107475 -1.1550556 -0.050112493 0
1.0257407 -0.98316306 0.46557918 0
1.1209049 -1.1375065 -0.049756985 0
1.0419809 -0.97677451 0.46601635 0
1.1368227 -1.1254147 -0.049624376 0
1.062763 -0.97926956 0.46984565 0
1.156787 -1.1212603 -0.049818683 0
1.0836649 -0.9813624 0.47364718 0
1.1766773 -1.1166728 -0.050006911 0
1.1060281 -0.9855544 0.47836706 0
1.198509 -1.1153021 -0.050338011 0
1.1385833 -1.0073628 0.057930391 0
1.1367183 -1.0040035 0.16190979 0
1.134622 -1.0002276 0.2668598 0
1.1298723 -0.99167246 0.37253129 0
1.1291195 -0.99031645 0.48344371 0
1.2147157 -1.103617 -0.050258584 0
1.1473479 -0.98579341 0.05741309 0
1.1431326 -0.97842103 0.15985283 0
1.1429313 -0.97806913 0.26411375 0
1.1426525 -0.97758132 0.37099972 0
1.1537935 -0.99706644 0.48942995 0
1.2365729 -1.1016358 -0.050588995 0
1.170639 -0.98961741 0.057948459 0
1.1634429 -0.97739142 0.16085248 0
1.1729833 -0.99360019 0.26925638 0
1.1667911 -0.98307997 0.37530375 0
1.1650726 -0.9801603 0.48644787 0
1.2425642 -1.0730035 -0.049820982 0
1.2625263 -1.0678139 -0.050036158 0
1.2769452 -1.0536847 -0.049884662 0
1.2968622 -1.0480927 -0.050104581 0
1.3102486 -1.0325686 -0.049908984 0
1.3335303 -1.031513 -0.050348096 0
1.3408084 -1.0075085 -0.049797215 0
1.358502 -0.99835974 -0.049902938 0
1.3743379 -0.98661393 -0.049903531 0
1.3918855 -0.97707731 -0.05001276 0
1.4018924 -0.95790344 -0.049693976 0
1.2070923 -0.71227556 0.050501745 0
1.2076353 -0.7129603 0.14005466 0
1.4256318 -0.95595556 -0.050170574 0
1.2076651 -0.68811399 0.049842071 0
1.209219 -0.69002336 0.13823952 0
1.4330729 -0.93395811 -0.049733549 0
1.2140828 -0.67167485 0.049534928 0
1.2138785 -0.67143017 0.13701613 0
1.454783 -0.92908853 -0.050101299 0
1.2110784 -0.64456481 0.048726622 0
1.2074797 -0.64036334 0.13402268 0
1.4688709 -0.91514605 -0.050054885 0
1.2051091 -0.61494023 0.047788043 0
1.1992717 -0.60829622 0.13084137 0
1.4724563 -0.8895933 -0.049458444 0
1.209934 -0.59827918 0.047458176 0
1.2088399 -0.59706503 0.13062324 0
1.5009074 -0.89155954 -0.050195027 0
1.5104069 -0.87277204 -0.049937077 0
1.5202545 -0.85459942 -0.049712483 0
1.5341032 -0.84066015 -0.049704675 0
1.5465882 -0.82539064 -0.049637694 0
1.5672696 -0.81800002 -0.049985439 0
1.5810617 -0.80386263 -0.049997807 0
1.5858626 -0.78155524 -0.049585328 0
1.6095796 -0.77635747 -0.050092328 0
1.6155186 -0.75535876 -0.049759008 0
1.6323417 -0.74380893 -0.049949139 0
1.6488793 -0.73184782 -0.050130889 0
1.6581228 -0.71389651 -0.049984548 0
1.6682916 -0.69679159 -0.049891748 0
1.6860676 -0.68552959 -0.05015029 0
1.6987451 -0.6702736 -0.050186522 0
1.6972361 -0.64478385 -0.049607143 0
1.7198894 -0.63670152 -0.050099846 0
1.7327514 -0.6215235 -0.050169758 0
1.7417789 -0.6037401 -0.050083064 0
1.7421515 -0.58044261 -0.04963892 0
1.7541623 -0.56481296 -0.049701184 0
1.7626556 -0.54698259 -0.049624138 0
1.7905978 -0.54074192 -0.050364215 0
1.7867877 -0.51560748 -0.049794026 0
1.8041158 -0.5027529 -0.050105508 0
1.8139323 -0.48556682 -0.050116319 0
1.8113747 -0.46185121 -0.049636524 0
1.8270451 -0.44782147 -0.049902536 0
1.8358566 -0.43018404 -0.049900729 0
1.8432246 -0.41185269 -0.049850602 0
1.8521073 -0.39425954 -0.049869493 0
1.866425 -0.37908748 -0.050109655 0
1.8715541 -0.35974213 -0.049998395 0
1.8770089 -0.34061483 -0.049909778 0
1.8882562 -0.32389233 -0.05005395 0
1.8887651 -0.30287448 -0.049794078 0
1.902125 -0.28686944 -0.050035559 0
1.9092151 -0.26841775 -0.050045647 0
1.920058 -0.2512562 -0.050206292 0
1.9202552 -0.23043115 -0.049973875 0
1.9290397 -0.21251144 -0.050074011 0
1.9307697 -0.19236396 -0.049918894 0
1.9427184 -0.17530228 -0.05015377 0
1.9416437 -0.15445103 -0.049913272 0
1.9403472 -0.13371341 -0.049675096 0
1.9580395 -0.11790419 -0.050146181 0
1.9470161 -0.094937481 -0.049569536 0
1.9765708 -0.081473388 -0.050489694 0
1.9769084 -0.061183821 -0.050347596 0
1.9753922 -0.040626686 -0.050147694 0
1.96268 -0.018142592 -0.0495512 0
1.9766716 -0.00066570501 -0.049933564 0
1.983389 0.018241856 -0.050060175 0
1.9903928 0.03720108 -0.050205491 0
1.9960647 0.056443993 -0.050311197 0
1.9862605 0.077625282 -0.049868971 0
1.990923 0.096941732 -0.049956381 0
1.9938021 0.11649219 -0.049988452 0
1.9989613 0.13588144 -0.050110999 0
2.0024254 0.15547805 -0.050181523 0
1.9981211 0.17556828 -0.049983025 0
1.9959153 0.19542897 -0.049868669 0
2.0038443 0.21489294 -0.050125308 0
2.0067518 0.23463595 -0.050211325 0
2.0030842 0.25448418 -0.050071478 0
2.0148382 0.27433398 -0.050491117 0
1.9935081 0.29385802 -0.049738429 0
1.9977528 0.31365937 -0.049907722 0
2.0012622 0.33355099 -0.050059754 0
2.0050368 0.35356814 -0.050230321 0
2.0025654 0.37327582 -0.05018653 0
2.0017672 0.39309287 -0.050211515 0
1.9906067 0.41194931 -0.049873866 0
1.9800261 0.43063167 -0.049565107 0
1.9861687 0.45110783 -0.049865671 0
1.9825654 0.47050491 -0.049825009 0
1.9843055 0.49065539 -0.049985867 0
1.9722012 0.50872672 -0.049655758 0
1.9660031 0.52757865 -0.049547113 0
1.9810163 0.55027223 -0.050216891 0
1.9633559 0.56699145 -0.049709667 0
1.9690206 0.58826518 -0.050059799 0
1.9440346 0.60292977 -0.049299322 0
1.9505659 0.62452382 -0.049699783 0
1.9500456 0.64464509 -0.049851961 0
1.9544598 0.66618353 -0.050196197 0
1.947422 0.68479884 -0.050127365 0
1.936341 0.70218968 -0.049916636 0
1.938671 0.72351682 -0.050213795 0
1.9353114 0.74325413 -0.05030901 0
1.9155936 0.75762492 -0.049798492 0
1.9102658 0.77660596 -0.049836289 0
1.9047526 0.79555184 -0.049876276 0
1.9067909 0.81736374 -0.050213471 0
1.8975265 0.83503145 -0.050129768 0
1.8832264 0.85060388 -0.049860273 0
1.8798304 0.87054062 -0.050018981 0
1.8665565 0.88631874 -0.049803916 0
1.8616688 0.90569729 -0.049923539 0
1.8557967 0.92471552 -0.050014701 0
1.838346 0.93825817 -0.049657453 0
1.8493887 0.96562576 -0.050439775 0
1.8336823 0.97995526 -0.050168604 0
1.8234029 0.99693054 -0.050121866 0
1.8122008 1.013371 -0.050045978 0
1.7996002 1.0289716 -0.049920797 0
1.7841966 1.0428593 -0.049687274 0
1.7859417 1.0667257 -0.050170973 0
1.7613773 1.074947 -0.049570683 0
1.7590505 1.0966239 -0.0499072 0
1.7554115 1.1177406 -0.050202273 0
1.7385424 1.1303383 -0.049944427 0
1.7271261 1.1464349 -0.04992675 0
1.7279843 1.1711117 -0.050452605 0
1.7191936 1.1893127 -0.050572593 0
1.6880623 1.1911322 -0.049712479 0
1.6859946 1.2142185 -0.050147023 0
1.6756111 1.2312288 -0.050222807 0
1.6608135 1.2447884 -0.050107457 0
1.6541015 1.2648692 -0.050371885 0
1.641847 1.2805402 -0.050392389 0
1.6151083 1.2837492 -0.049739666 0
1.6091419 1.3047147 -0.050071474 0
1.5925957 1.3164055 -0.049909838 0
1.5785768 1.3302956 -0.049876653 0
1.5667988 1.3462952 -0.049962215 0
1.553961 1.3613468 -0.050005905 0
1.5397382 1.3750572 -0.049989637 0
1.5155573 1.3785113 -0.049471892 0
1.5173123 1.4088014 -0.050295446 0
1.0226017 0.88688308 0.29135969 0
1.500545 1.4199116 -0.050175965 0
1.0479997 0.93027425 0.30767375 0
1.4748658 1.4210112 -0.049586941 0
1.4381249 1.3802407 0.059627552 0
1.4425733 1.3851771 0.16814572 0
1.4460299 1.3890127 0.27903464 0
1.0554327 0.95557714 0.31555879 0
1.4650711 1.4395653 -0.049849354 0
1.4182432 1.3862673 0.059316441 0
1.4076401 1.3741992 0.16476862 0
1.4144418 1.3819407 0.27429473 0
1.0531092 0.97068256 0.31879935 0
1.4509981 1.453414 -0.049893584 0
1.3923011 1.3848854 0.058672253 0
1.3871726 1.3788979 0.16370864 0
1.3945713 1.3875359 0.27270862 0
1.059961 0.99688005 0.32687694 0
1.4363809 1.4666642 -0.049917813 0
1.3698003 1.386921 0.058209013 0
1.3667445 1.3832612 0.16264904 0
1.3613756 1.3768308 0.2673685 0
1.0576571 1.0130688 0.33049455 0
1.4158552 1.4726862 -0.0496176 0
1.3475564 1.3887591 0.05775452 0
1.3431784 1.3833795 0.16104789 0
1.3382452 1.3773174 0.26478276 0
1.0587091 1.0338181 0.33604404 0
1.4079435 1.4942776 -0.050041638 0
1.3135458 1.3752494 0.056618024 0
1.3193187 1.3825284 0.15937062 0
1.3188127 1.3818905 0.26323077 0
1.053236 1.0470189 0.33832744 0
1.3887404 1.5017514 -0.049829125 0
1.2981685 1.3845459 0.056540951 0
1.3007324 1.3878636 0.15859078 0
1.2975645 1.3837641 0.26113456 0
1.0477818 1.0605299 0.34074834 0
1.3754841 1.5168804 -0.049971562 0
1.2763774 1.3852371 0.056088742 0
1.2722421 1.3797443 0.15604003 0
1.2795105 1.3893989 0.25996786 0
1.0394212 1.0704886 0.34169579 0
1.3577591 1.5260906 -0.049858082 0
1.260157 1.3929906 0.055965554 0
1.2584256 1.3906295 0.15609343 0
1.2551574 1.3861727 0.2568813 0
1.0322223 1.0821558 0.3433831 0
1.3467904 1.5446297 -0.050164707 0
1.2454753 1.4027542 0.05594065 0
1.2445314 1.4014324 0.15615858 0
1.2449224 1.4019798 0.25810868 0
1.0215389 1.089167 0.34318903 0
1.3310552 1.5566974 -0.050193302 0
1.2426856 1.4295958 0.056666639 0
1.2474636 1.436468 0.15941803 0
1.2421336 1.4288019 0.26177329 0
1.0115843 1.0972043 0.34346724 0
1.3099365 1.5608518 -0.04988911 0
1.2507616 1.473412 0.058119729 0
1.2441155 1.4635913 0.16161828 0
1.2415937 1.4598651 0.26633805 0
1.0002905 1.1033039 0.34301519 0
1.2985367 1.5793797 -0.050213277 0
1.2487795 1.5038238 0.058983453 0
1.2459152 1.4994742 0.16493297 0
1.2372677 1.4863431 0.26987645 0
1.1688167 1.3824006 0.34754238 0
1.0009047 1.127427 0.34980357 0
1.2766404 1.5819532 -0.04986449 0
1.2457346 1.5337112 0.059819069 0
1.2513083 1.5424113 0.16911849 0
1.2274394 1.5051537 0.2717559 0
1.1527212 1.3885235 0.34661546 0
0.98371685 1.1247188 0.34593299 0
1.2612268 1.5944723 -0.04994842 0
1.2460065 1.5700426 0.060920831 0
1.2427689 1.5648459 0.17066664 0
1.2092838 1.5110999 0.2709136 0
1.13369 1.3897662 0.34429005 0
0.97740537 1.1389177 0.3488051 0
1.2502632 1.6144592 -0.050351545 0
1.1900176 1.5149913 0.26969281 0
1.1124661 1.386951 0.34084362 0
0.96398407 1.1418017 0.34728539 0
0.8430053 0.94206131 0.47587308 0
1.222284 1.6061038 -0.049583316 0
1.1740557 1.5241663 0.26963767 0
1.0882037 1.3783079 0.33577675 0
0.95664448 1.1547954 0.34974518 0
0.83569366 0.94930595 0.47733894 0
1.2140477 1.6311927 -0.050210532 0
1.1622416 1.540586 0.27112994 0
1.07443 1.3870071 0.33593306 0
0.94752675 1.1650586 0.35117644 0
0.84859729 0.99203497 0.35304883 0
0.84791905 0.99084878 0.42470619 0
0.84335297 0.98286283 0.49683249 0
1.1961795 1.6398504 -0.050166674 0
1.1434451 1.5448643 0.27013808 0
1.0501316 1.3767861 0.3306179 0
0.92924154 1.1590364 0.34644455 0
0.8573367 1.0295199 0.36834687 0
0.83910966 0.99668902 0.42508835 0
0.83813143 0.99492705 0.50154573 0
1.1744578 1.6412978 -0.049839862 0
1.126062 1.5514797 0.26968038 0
1.0378028 1.387679 0.33154672 0
0.92645371 1.1810253 0.3524178 0
0.84952527 1.0382533 0.36996722 0
0.84010667 1.0207733 0.43590009 0
0.84275794 1.0256938 0.51887071 0
1.156835 1.6500962 -0.049822375 0
1.1090112 1.5585992 0.26937297 0
1.0180404 1.384553 0.32847852 0
0.9135108 1.1845658 0.3514396 0
0.85142338 1.0657794 0.38040277 0
0.84019256 1.0442924 0.44631487 0
0.83912027 1.0422411 0.52652776 0
1.1401192 1.6606643 -0.04988474 0
1.0926211 1.5669341 0.26935676 0
0.99851108 1.3812227 0.32544279 0
0.89892328 1.1847017 0.34925878 0
0.84822041 1.0846475 0.38674203 0
0.83739549 1.0632862 0.45412436 0
0.8358345 1.0602058 0.53510904 0
1.1267589 1.6781728 -0.050231162 0
1.0823578 1.5877478 0.27188948 0
0.98455632 1.3885711 0.3255311 0
0.89128876 1.1986279 0.3522709 0
0.84866136 1.1118156 0.39688927 0
0.84051001 1.0952148 0.46911544 0
0.83886403 1.0918628 0.55271107 0
1.1047914 1.6781559 -0.049889378 0
0.96613544 1.3865533 0.32302266 0
0.87096375 1.1864009 0.34566599 0
0.84214783 1.1257991 0.40092888 0
0.83965439 1.1205553 0.48034516 0
0.837578 1.1161885 0.56536871 0
1.0885338 1.6899787 -0.050025765 0
0.94755876 1.3836104 0.32033426 0
0.86521256 1.2046548 0.35035616 0
0.83760333 1.1446542 0.40720296 0
0.83855236 1.1467167 0.49196818 0
0.83858895 1.1467962 0.58206481 0
1.0683609 1.693247 -0.049835134 0
0.93023133 1.3828284 0.31832981 0
0.84980482 1.202086 0.34746405 0
0.83724076 1.1738505 0.41815442 0
0.84350264 1.187923 0.51177305 0
0.8393333 1.1785531 0.59940535 0
1.0499669 1.7003202 -0.049803294 0
0.91026688 1.3754189 0.31455639 0
0.85044026 1.2362796 0.3579714 0
0.8403827 1.2128887 0.43348438 0
0.84072006 1.2136734 0.52301919 0
0.83920288 1.2101449 0.61653954 0
1.0377543 1.7222325 -0.050354216 0
0.89244252 1.3721993 0.31202969 0
0.84960783 1.2690172 0.36789656 0
0.83497173 1.2337612 0.44057304 0
0.83929616 1.2441781 0.5368014 0
0.83651233 1.2374722 0.63084722 0
1.013047 1.7139974 -0.049748898 0
0.87653172 1.373094 0.31070825 0
0.85217845 1.3122793 0.38154733 0
0.84016711 1.282285 0.45998898 0
0.84267402 1.2885453 0.55799532 0
0.84154505 1.2857258 0.65847307 0
0.99716634 1.727457 -0.049988657 0
0.86822432 1.3933355 0.31473893 0
0.85378665 1.3559237 0.39525667 0
0.83793634 1.3148515 0.47219995 0
0.83968103 1.3193723 0.57180208 0
0.83937711 1.3185849 0.67613864 0
0.98092496 1.7404405 -0.05021679 0
0.84888285 1.3850257 0.3110086 0
0.84401983 1.3719362 0.39908797 0
0.84051955 1.3625145 0.49103427 0
0.84149522 1.3651408 0.5935396 0
0.8427971 1.368645 0.70462137 0
0.96111977 1.7439357 -0.050091967 0
0.83369505 1.3872558 0.31021661 0
0.84338868 1.4143897 0.41228691 0
0.8418147 1.4099839 0.50968456 0
0.83955312 1.4036534 0.61131227 0
0.93902701 1.7405026 -0.049715608 0
0.81417745 1.3766332 0.3060129 0
0.84035331 1.4529217 0.42405248 0
0.8386426 1.4479359 0.52408135 0
0.84049618 1.453338 0.63493103 0
0.92539942 1.761952 -0.050286494 0
1.0321776 2.0864048 0.35193899 0
0.80197477 1.3869178 0.30750832 0
0.84149271 1.5069958 0.44122627 0
0.84129399 1.5063919 0.54737329 0
0.83976519 1.5017467 0.65777373 0
0.90355986 1.7586986 -0.049936857 0
1.0056022 2.082433 0.34978756 0
0.78535259 1.3836801 0.30542168 0
0.84153181 1.5619115 0.4586207 0
0.83576608 1.5436193 0.56134284 0
0.83948338 1.5554128 0.68328899 0
0.88570893 1.7678344 -0.050060786 0
0.98161954 2.0860353 0.34913406 0
0.76815879 1.3778405 0.30270553 0
0.83980292 1.6155328 0.4754993 0
0.83787352 1.6091317 0.58752102 0
0.86566097 1.769662 -0.049921136 0
0.95883977 2.0935018 0.34926498 0
0.75534731 1.3862703 0.30384505 0
0.8394112 1.6784317 0.49553627 0
0.83886206 1.6765232 0.61440271 0
0.84694886 1.7760016 -0.049958356 0
0.73999709 1.3858739 0.047516387 0
0.74215019 1.3937277 0.13184929 0
0.74304563 1.396994 0.21780375 0
0.73936063 1.3835523 0.30207428 0
0.83413953 1.7292771 0.51134771 0
0.83780104 1.7426331 0.64063621 0
0.82513231 1.7705476 -0.049569048 0
0.72223204 1.3757695 0.047004052 0
0.72216117 1.3754976 0.12940165 0
0.72655284 1.3923464 0.21622564 0
0.72196573 1.3747478 0.29875773 0
0.83325803 1.801722 0.53455645 0
0.82975072 1.7882659 0.65802801 0
0.80816275 1.783566 -0.049870417 0
0.70926172 1.3835615 0.047159709 0
0.70850426 1.3804979 0.12956128 0
0.70774376 1.3774222 0.21278188 0
0.70852101 1.3805655 0.29935211 0
0.82395345 1.8474313 0.54853421 0
0.82633001 1.8570433 0.6852802 0
0.78965062 1.7909373 -0.049971692 0
0.69481581 1.3855376 0.047107667 0
0.69605422 1.3908317 0.13032807 0
0.69335216 1.3792808 0.21250068 0
0.69517672 1.3870804 0.30017182 0
0.81916916 1.9171231 0.57070518 0
0.77036756 1.795161 -0.049966145 0
0.68258703 1.3974007 0.047423899 0
0.67939043 1.3829159 0.12910157 0
0.67890924 1.3807354 0.21217914 0
0.67988205 1.3851434 0.298825 0
0.80500245 1.9521024 0.58100873 0
0.75130868 1.8004613 -0.050008733 0
0.66385669 1.3790426 0.046643011 0
0.66462779 1.3827584 0.12875289 0
0.66531688 1.3860792 0.21260835 0
0.66371024 1.3783368 0.2962631 0
0.79105717 1.9920038 0.59301847 0
0.73330802 1.8113785 -0.050264243 0
0.65050727 1.3854877 0.0467747 0
0.64962745 1.3809621 0.12824599 0
0.64843208 1.3748138 0.21001646 0
0.65204716 1.3934081 0.2994467 0
0.7766487 2.0343039 0.60587144 0
0.7129119 1.8101163 -0.050085485 0
0.63536721 1.3825936 0.046573341 0
0.63550001 1.3833259 0.1282153 0
0.63324612 1.3708996 0.2088169 0
0.63479078 1.3794155 0.29512507 0
0.76403058 2.0919456 0.62394392 0
0.69245458 1.8077501 -0.049876451 0
0.62117141 1.3844653 0.046551853 0
0.62090939 1.3829094 0.12790108 0
0.6220746 1.3898287 0.2118327 0
0.62184995 1.3884946 0.29683805 0
0.74666101 2.129632 0.63529921 0
0.67351264 1.8141912 -0.049995348 0
0.60638249 1.3824383 0.046396013 0
0.60793972 1.3924539 0.12869082 0
0.60787606 1.3920443 0.2118178 0
0.60693526 1.3859936 0.29559988 0
0.72768581 2.1626103 0.6451208 0
0.65409863 1.8179383 -0.050025493 0
0.59161252 1.3797818 0.046224471 0
0.59104919 1.3758316 0.12665632 0
0.59094697 1.3751149 0.20834781 0
0.59225518 1.3842878 0.2946173 0
0.70790964 2.1952646 0.65489632 0
0.63318008 1.8102823 -0.049653877 0
0.57741153 1.3805864 0.046184517 0
0.57840037 1.3882056 0.12779057 0
0.57777995 1.3834251 0.20951241 0
0.57715094 1.3785785 0.29265392 0
0.68800288 2.2326913 0.66634059 0
0.61511034 1.824746 -0.05008737 0
0.56364822 1.3849092 0.046277508 0
0.56225783 1.3730255 0.12595896 0
0.56515127 1.3977551 0.21179849 0
0.56235349 1.3738432 0.29099253 0
0.66731179 2.2709022 0.67811465 0
0.5938189 1.8112867 -0.049526174 0
0.55336624 1.4232771 0.13122177 0
0.55152684 1.4056342 0.21294071 0
0.55220187 1.412109 0.30041158 0
0.64473808 2.2996879 0.68680781 0
0.57478738 1.8182069 -0.049705867 0
0.55206597 1.5700059 0.14690226 0
0.55234027 1.5730025 0.24299663 0
0.55204564 1.5697838 0.34044495 0
0.62210721 2.3351123 0.69780385 0
0.55588794 1.8284528 -0.050013065 0
0.60352224 2.4324784 0.23972829 0
0.59921783 2.3778968 0.38835487 0
0.59827214 2.3659053 0.54383302 0
0.53576976 1.8236172 -0.049788918 0
0.57386804 2.3990908 0.39183649 0
0.57308006 2.3871877 0.54878384 0
0.51627648 1.8275508 -0.049887501 0
0.5475086 2.410604 0.39362505 0
0.54847354 2.428617 0.55895978 0
0.49621519 1.8193879 -0.049562588 0
0.52191687 2.4470742 0.39997736 0
0.52191132 2.4469378 0.56330901 0
0.47684729 1.8277115 -0.049835637 0
0.45647517 1.1088614 0.35578936 0
0.45670328 1.1169111 0.43273082 0
0.45714909 1.8274884 -0.049812183 0
0.44602749 1.1209992 0.36071837 0
0.44590023 1.1129138 0.43061218 0
0.43749166 1.8359452 -0.050107464 0
0.43513009 1.086055 0.41712308 0
0.43512279 1.0837394 0.49192649 0
0.41775981 1.8298953 -0.049893688 0
0.42469326 1.0956219 0.42192629 0
0.42471963 1.0928305 0.49733749 0
0.39793816 1.8346215 -0.050073542 0
0.41407818 1.10223 0.3529875 0
0.41410476 1.1010234 0.42471197 0
0.41469911 1.0740538 0.48629665 0
0.37843165 1.8264948 -0.049803242 0
0.35221732 2.5832758 0.42446208 0
0.35213184 2.5857434 0.5986113 0
0.40531862 1.0502957 0.47236994 0
0.35853201 1.8306614 -0.049980942 0
0.32258609 2.5913877 0.42614251 0
0.3225711 2.5917053 0.60043973 0
0.39558128 1.0465842 0.47040695 0
0.33872503 1.831131 -0.050035503 0
0.29217514 2.6085186 0.42952102 0
0.29197806 2.6118097 0.6059792 0
0.31912035 1.828236 -0.049978606 0
0.26107478 2.6285689 0.43349972 0
0.26155433 2.6219568 0.60907525 0
0.29974189 1.8231218 -0.049850974 0
0.23028636 2.6383581 0.4356963 0
0.23013981 2.6400781 0.61431444 0
0.27985448 1.8240986 -0.049950425 0
0.19835584 2.6566172 0.43950063 0
0.19802848 2.6599612 0.62011307 0
0.25931731 1.8302823 -0.050246041 0
0.16622739 2.6717913 0.44282341 0
0.166095 2.6729879 0.62426358 0
0.3471204 1.0365651 0.46674097 0
0.24130243 1.8142958 -0.049753897 0
0.13526653 2.6736743 0.44380963 0
0.13389529 2.6847878 0.62820846 0
0.2209226 1.8182234 -0.049986597 0
0.1030917 2.6834149 0.4462986 0
0.10296412 2.6843517 0.62911379 0
0.20095223 1.818269 -0.050088871 0
0.069417432 2.7008257 0.45026463 0
0.069848552 2.6979332 0.63373709 0
0.18085085 1.8186527 -0.050212663 0
0.037641659 2.7030182 0.45153579 0
0.037681714 2.7027707 0.63621753 0
0.16333283 1.8037395 -0.049791489 0
0.0017398463 2.7277446 0.4570086 0
0.0019870566 2.7263308 0.64365745 0
0.14228706 1.8091938 -0.050117183 0
-0.02864827 2.7189603 0.45642787 0
-0.030655308 2.7296424 0.64597511 0
0.12389325 1.8002696 -0.049929753 0
-0.088980392 2.8595695 0.10050419 0
-0.089804545 2.8636708 0.2909295 0
-0.061370328 2.7221768 0.45812353 0
-0.061461076 2.7226284 0.6457184 0
0.10508056 1.7939184 -0.049844202 0
-0.11322398 2.8136003 0.099073097 0
-0.11204322 2.808085 0.28556582 0
-0.095714048 2.7318127 0.46108368 0
-0.095497206 2.7307999 0.64952421 0
0.086605832 1.7863384 -0.049722083 0
-0.14215006 2.792762 0.098569162 0
-0.14160712 2.7903733 0.28439176 0
-0.12940128 2.7366731 0.46324897 0
-0.13433953 2.7583992 0.65853608 0
0.06585376 1.7885797 -0.049968749 0
-0.17559959 2.7922239 0.098822467 0
-0.17837597 2.8037646 0.28669319 0
-0.16167606 2.7343483 0.46416655 0
-0.16282649 2.7391303 0.65540457 0
0.048521712 1.7766333 -0.049703229 0
-0.20722093 2.7837396 0.098799378 0
-0.209134 2.7912731 0.28618339 0
-0.19406785 2.7319431 0.46514764 0
-0.19765462 2.7460678 0.65925562 0
0.028964804 1.7737207 -0.049778715 0
-0.25387526 2.8315203 0.10087022 0
-0.25182921 2.8238683 0.29073048 0
-0.22915752 2.739078 0.46798903 0
-0.22719289 2.7317305 0.65761673 0
0.0096836854 1.7696179 -0.049819447 0
-0.26398522 2.7437944 0.47047007 0
-0.26159203 2.7352755 0.6608094 0
-0.0086166095 1.7620727 -0.049741231 0
-0.29366392 2.7297862 0.46952221 0
-0.29476804 2.7335346 0.66272312 0
-0.029192699 1.762086 -0.049953688 0
-0.32632512 2.7258842 0.47054833 0
-0.32536966 2.7227848 0.6623503 0
-0.053049549 1.7717849 -0.050539989 0
-0.35985172 2.7241843 0.47207367 0
-0.36152083 2.7293656 0.66672438 0
-0.069358781 1.7577187 -0.050244983 0
-0.39349121 2.7221358 0.47361931 0
-0.39294732 2.7205174 0.66708654 0
-0.082168654 1.7342792 -0.049601872 0
-0.42365742 2.7094996 0.47322938 0
-0.42348182 2.7089982 0.66683495 0
-0.10268123 1.7332957 -0.049815182 0
-0.4518258 2.6915243 0.47188559 0
-0.453345 2.695694 0.66620171 0
-0.12182976 1.7282765 -0.049885288 0
-0.48533446 2.6881661 0.4734225 0
-0.4874317 2.6937041 0.66875452 0
-0.14719845 1.7389345 -0.050566368 0
-0.51778036 2.6815042 0.47440836 0
-0.51771051 2.6813266 0.66858965 0
-0.15810843 1.7128541 -0.049846776 0
-0.55036074 2.6747937 0.4754692 0
-0.55322754 2.6818242 0.67207623 0
-0.17644937 1.7056564 -0.0498605 0
-0.58188164 2.6651821 0.47604784 0
-0.5869807 2.6772497 0.67430007 0
-0.19543327 1.6998965 -0.049939305 0
-0.61151505 2.651041 0.47581595 0
-0.61528313 2.6596546 0.67302829 0
-0.21778633 1.7014393 -0.050314069 0
-0.63742435 2.6287365 0.47404042 0
-0.64107692 2.6368077 0.67037815 0
-0.22804804 1.6765033 -0.049658462 0
-0.67412746 2.6300783 0.4770273 0
-0.66669726 2.6141951 0.66786945 0
-0.24686219 1.6703212 -0.049747579 0
-0.69551563 2.5987575 0.4735823 0
-0.69931102 2.6066117 0.66969532 0
-0.2645967 1.6618272 -0.049754441 0
-0.73155415 2.5978699 0.47630337 0
-0.72595525 2.5866468 0.66811925 0
-0.28454858 1.657624 -0.049942568 0
-0.75286281 2.567522 0.4731583 0
-0.75707531 2.5757065 0.66921842 0
-0.30255777 1.6494704 -0.049982421 0
-0.78391421 2.556457 0.47398382 0
-0.78700244 2.5622759 0.66971856 0
-0.32060099 1.6413141 -0.050031628 0
-0.81022263 2.5364699 0.47306111 0
-0.80421305 2.5254827 0.66353732 0
-0.33623141 1.6287984 -0.049911823 0
-0.61954653 2.1316285 0.082516931 0
-0.83768225 2.5187776 0.47267523 0
-0.83577895 2.5153997 0.66519731 0
-0.35129362 1.6154655 -0.049765509 0
-0.62139165 2.0810318 0.080981463 0
-0.86140382 2.4947393 0.47103512 0
-0.86417627 2.4995182 0.66527599 0
-0.36970574 1.6079381 -0.049867347 0
-0.61716521 2.0223708 0.079100043 0
-0.88683784 2.4740055 0.47013932 0
-0.87765479 2.4586263 0.6580292 0
-0.39277345 1.6078459 -0.050291188 0
-0.61814153 1.9747068 0.077662557 0
-0.90824735 2.4469497 0.46796599 0
-0.91564071 2.4589849 0.66312832 0
-0.40408635 1.5885828 -0.049921051 0
-0.62141025 1.9325616 0.076447181 0
-0.93554175 2.4297669 0.46793878 0
-0.94092369 2.4382856 0.66205692 0
-0.41988111 1.5766929 -0.049867805 0
-0.61809325 1.881844 0.074858621 0
-0.95823312 2.4054954 0.46646047 0
-0.96022403 2.4085603 0.65832722 0
-0.43620193 1.5656533 -0.049859107 0
-0.61222768 1.82932 0.073177323 0
-0.98157966 2.3825676 0.46532279 0
-0.9903698 2.3957343 0.65982443 0
-0.44755256 1.5473733 -0.049545735 0
-0.61688125 1.7942204 0.072232634 0
-1.0080575 2.3644764 0.46529707 0
-1.004661 2.359525 0.65421706 0
-0.47351855 1.5502131 -0.05015818 0
-0.61883771 1.7564436 0.071165144 0
-1.0226057 2.3294528 0.46160856 0
-1.0247767 2.3325338 0.65149266 0
-0.48612607 1.533851 -0.049944371 0
-0.62098849 1.7202132 0.070157118 0
-0.61657 1.7141074 0.19831808 0
-1.046232 2.3078437 0.46091327 0
-1.0451119 2.3062959 0.64905995 0
-0.073947027 0.96427381 0.43826443 0
-0.49376506 1.5110497 -0.049449179 0
-0.62061429 1.6817708 0.069042429 0
-0.61661923 1.676394 0.1950527 0
-1.064492 2.2791667 0.45868993 0
-1.069391 2.2857599 0.64849782 0
-0.090655997 0.96852237 0.44492251 0
-0.51772976 1.5102229 -0.049940187 0
-0.62190688 1.646804 0.068072841 0
-0.61770344 1.6412932 0.19210902 0
-1.0797971 2.2471192 0.45573255 0
-1.0799273 2.2472899 0.64227325 0
-0.098703161 0.9608596 0.44428113 0
-0.53641468 1.5020851 -0.050118193 0
-0.61098146 1.5973341 0.066436812 0
-0.61744106 1.6055855 0.18905522 0
-1.1054605 2.2289648 0.45597193 0
-1.0907207 2.2101367 0.63645643 0
-0.10529132 0.95138264 0.44254467 0
-0.54727691 1.4840044 -0.049853396 0
-0.62114835 1.5759561 0.06606435 0
-0.62117243 1.575986 0.18681198 0
-1.1107379 2.1853735 0.45040354 0
-1.1069561 2.1806662 0.63313913 0
-0.1267397 0.9605397 0.45280296 0
-0.56135577 1.4701147 -0.049786035 0
-0.61487305 1.5350389 0.064789884 0
-0.61805546 1.5388997 0.1835091 0
-1.1291666 2.1589515 0.4488053 0
-1.1325654 2.1630747 0.63378203 0
-0.13455184 0.95233959 0.45208779 0
-0.57761264 1.4588692 -0.049849831 0
-0.62069631 1.5098152 0.064231858 0
-0.61733937 1.5058455 0.18073292 0
-1.141945 2.1261859 0.44574624 0
-1.1436296 2.1281779 0.62875682 0
-0.14975961 0.95293766 0.45719433 0
-0.59304917 1.4466047 -0.049875792 0
-0.61826515 1.4756719 0.063249595 0
-0.6098789 1.4660048 0.17695943 0
-1.1608552 2.1011329 0.44453323 0
-1.1594379 2.0994992 0.62582344 0
-0.61460495 1.4411849 -0.050238382 0
-0.63233984 1.4611157 0.063190855 0
-0.62957966 1.4580139 0.17771173 0
-1.176685 2.0728657 0.44258773 0
-1.1706104 2.0660388 0.62129158 0
-0.62738717 1.4257675 -0.050134987 0
-0.65790105 1.4592025 0.063751034 0
-0.65801287 1.459325 0.17986205 0
-1.1716692 2.0221531 0.43518782 0
-1.1839546 2.0356145 0.61780435 0
-0.64052069 1.4108278 -0.050061539 0
-0.51111877 1.2725753 0.055301014 0
-0.68505633 1.4584094 0.18176249 0
-1.194724 2.0029359 0.43546474 0
-1.1877526 1.9954877 0.61094362 0
-0.65525329 1.397624 -0.050081253 0
-0.5094192 1.2456959 0.054562788 0
-0.72262919 1.4678154 0.18527403 0
-1.1996076 1.9647255 0.43106911 0
-1.2014102 1.9666034 0.60799217 0
-0.66083348 1.3750983 -0.049643453 0
-0.50960582 1.221471 0.053947266 0
-0.7462858 1.4619068 0.18659081 0
-1.2170576 1.9401491 0.43008447 0
-1.2077688 1.9307129 0.60255694 0
-0.68250299 1.3689413 -0.05003396 0
-0.52308238 1.2110184 0.054022655 0
-0.77236819 1.457962 0.18826953 0
-1.2195258 1.9009185 0.42538783 0
-1.2159712 1.8973974 0.59801453 0
-0.69650388 1.3549892 -0.050042965 0
-0.54747236 1.2110302 0.054645423 0
-0.80598402 1.4607428 0.19106109 0
-1.2195795 1.8602608 0.42026719 0
-1.2205484 1.8611968 0.59239072 0
-0.70727909 1.3379858 -0.049902327 0
-0.57425928 1.2126925 0.0553784 0
-0.8446157 1.467345 0.19455507 0
-1.2253864 1.8259981 0.41675988 0
-1.2381234 1.8379953 0.59154958 0
-0.72565508 1.3280935 -0.050142188 0
-0.87620842 1.4663659 0.069440074 0
-0.86723745 1.4581268 0.19566056 0
-1.234525 1.795454 0.41421503 0
-1.2285219 1.7899407 0.58140582 0
-0.23085125 0.87365156 0.37893417 0
-0.73674858 1.3114486 -0.050036363 0
-0.90538919 1.4624629 0.070118189 0
-0.90420687 1.4614042 0.19884031 0
-1.2400233 1.762121 0.41091105 0
-1.2331936 1.7560052 0.57647228 0
-0.23559888 0.86267912 0.37733835 0
-0.75106966 1.2977165 -0.050094645 0
-0.93093848 1.4547498 0.070619129 0
-1.2373841 1.72229 0.40579605 0
-1.237893 1.7227342 0.57174766 0
-0.2430128 0.8541609 0.37730178 0
-0.7604332 1.279707 -0.049928047 0
-0.97823977 1.4650809 0.072139062 0
-1.2453327 1.6924022 0.40336245 0
-1.2452687 1.6923478 0.56811112 0
-0.23366649 0.83137876 0.3682119 0
-0.25721574 0.85142136 0.45918599 0
-0.78357375 1.2732756 -0.050412837 0
-1.0103335 1.4613981 0.072931699 0
-1.2502922 1.6604704 0.40034235 0
-1.2387636 1.6509062 0.56003845 0
-0.24622144 0.8274821 0.37115374 0
-0.78164887 1.2461332 -0.049745657 0
-1.051186 1.4640734 0.074120581 0
-1.2521335 1.6265539 0.39672336 0
-1.2395856 1.6164081 0.5546236 0
-0.25362974 0.81919169 0.37135175 0
-0.8118751 1.2449197 -0.050562028 0
-1.0758123 1.452891 0.07455866 0
-1.2484767 1.588943 0.3919763 0
-1.2368536 1.5797845 0.54824966 0
-0.26708883 0.81565148 0.37479261 0
-0.81784761 1.2243556 -0.050279588 0
-1.1323366 1.4658036 0.07643462 0
-1.2455857 1.5527502 0.38755715 0
-1.2410705 1.5492837 0.54432118 0
-0.26151121 0.79722977 0.36828685 0
-0.25153935 0.78957391 0.43751404 0
-0.8291384 1.2080139 -0.050248496 0
-1.1682442 1.4616394 0.077366576 0
-1.2472894 1.5207592 0.3843174 0
-1.2373409 1.5133185 0.53802073 0
-0.26832783 0.78856999 0.3683708 0
-0.28137678 0.79832959 0.45205864 0
-0.82732248 1.1821475 -0.049647894 0
-1.2130702 1.4631537 0.078686267 0
-1.2491928 1.4894681 0.38124204 0
-1.2441905 1.485824 0.53526074 0
-1.2338376 1.4782823 0.69189888 0
-0.25550026 0.76559144 0.3584474 0
-0.27910554 0.78278726 0.44652596 0
-0.84635389 1.1715854 -0.049979482 0
-1.2482263 1.4566624 0.079570122 0
-1.2486445 1.456959 0.37773943 0
-1.2455803 1.4547855 0.53092629 0
-1.2413455 1.4517814 0.68878067 0
-0.27524382 0.76645583 0.36529386 0
-0.2805469 0.77021766 0.4434405 0
-0.85391736 1.1528152 -0.04981643 0
-1.2955233 1.4577931 0.080976658 0
-1.2474473 1.4245913 0.37421507 0
-1.2378733 1.4179795 0.52393049 0
-1.2389698 1.4187367 0.68182874 0
-0.28558141 0.76031619 0.44266328 0
-0.87589085 1.1438659 -0.050284836 0
-1.2771525 1.4135834 0.0795459 0
-1.2823645 1.4170867 0.2280654 0
-1.2491052 1.3947307 0.3714298 0
-1.2444806 1.3916222 0.52153707 0
-1.2485976 1.3943895 0.67991483 0
-0.2886616 0.74914616 0.44078997 0
-0.87806165 1.1215663 -0.049909461 0
-1.2756684 1.3816191 0.078871086 0
-1.2670466 1.37598 0.22425199 0
-1.2454493 1.3618544 0.36760357 0
-1.247856 1.3634285 0.51827967 0
-1.2407351 1.3587711 0.67118591 0
-0.2993108 0.7430371 0.44354156 0
-0.88413107 1.1020571 -0.04971398 0
-1.2755189 1.3510633 0.078275241 0
-1.2783655 1.3528743 0.22392811 0
-1.2507201 1.3352859 0.36580488 0
-1.2416823 1.329536 0.51226848 0
-1.2325125 1.3237019 0.66256225 0
-0.30102283 0.73107594 0.44101709 0
-0.89481437 1.0855608 -0.049724061 0
-1.2883357 1.3290185 0.078244567 0
-1.2892936 1.3296112 0.22359425 0
-1.2420366 1.3003749 0.36113203 0
-1.2381383 1.2979631 0.5072214 0
-1.2484857 1.3043648 0.66364479 0
-0.9072789 1.0701238 -0.049816966 0
-1.309574 1.3120589 0.07857658 0
-1.304549 1.309037 0.22384246 0
-1.2487614 1.2754871 0.35982999 0
-1.2424387 1.2716846 0.50466663 0
-1.2456157 1.2735952 0.6574986 0
-0.9089582 1.0483046 -0.049471278 0
-1.3335748 1.2964377 0.079029247 0
-1.3331876 1.2962115 0.22578707 0
-1.253179 1.2494569 0.35812125 0
-1.2326046 1.2374338 0.49805197 0
-1.2410012 1.2423406 0.65087521 0
-0.92983592 1.0376593 -0.049927503 0
-1.3749948 1.290332 0.080201887 0
-1.3779068 1.2919848 0.22972502 0
-1.2457883 1.2169943 0.35404417 0
-1.2281982 1.20701 0.4932037 0
-1.2340395 1.2103256 0.64355206 0
-0.94335997 1.0225906 -0.050086293 0
-1.2561996 1.1949872 0.35374549 0
-1.2398294 1.1859661 0.49317276 0
-1.2385329 1.1852517 0.64078462 0
-0.95080149 1.0041387 -0.050005469 0
-1.2550088 1.1668187 0.3511329 0
-1.244855 1.1613889 0.49130788 0
-1.2436363 1.1607372 0.63838547 0
-0.95846319 0.98586172 -0.04994341 0
-1.2557271 1.1400471 0.34899747 0
-1.2371038 1.1303875 0.48587215 0
-1.2372217 1.1304487 0.63180125 0
-0.96102846 0.96506763 -0.049687307 0
-1.2695326 1.1201854 0.34958559 0
-1.229138 1.0998747 0.48052132 0
-1.2404876 1.1055813 0.62900591 0
-0.97799158 0.95148462 -0.050014973 0
-1.282988 1.1000574 0.35015023 0
-1.2390039 1.0786314 0.48037308 0
-1.2458549 1.0819688 0.62712157 0
-0.98398745 0.93247002 -0.049914554 0
