# .PCD v0.7 - Point Cloud Data file format
VERSION 0.7
FIELDS x y z intensity
SIZE 4 4 4 4
TYPE F F F F
COUNT 1 1 1 1
WIDTH 1354
HEIGHT 1
VIEWPOINT 0 0 0 1 0 0 0
POINTS 1354
DATA ascii
-1.2361076 0.11690941 0.43338522 0
-1.2386163 0.11668771 0.56415159 0
-1.1344688 0.10598309 -0.050229374 0
-0.50997537 0.16910508 0.10780784 0
-0.50591904 0.16951507 0.17611268 0
-1.2378535 0.095533259 0.43434298 0
-1.2303842 0.096288227 0.56206495 0
-1.1223187 0.087406807 -0.049868926 0
-0.51673645 0.15633066 0.04010928 0
-0.5149917 0.15652923 0.10848825 0
-0.50662887 0.15748104 0.17647181 0
-1.241398 0.073853888 0.43583301 0
-1.2425995 0.073717155 0.56690794 0
-1.1299222 0.066583075 -0.050227165 0
-0.50349361 0.14588131 0.039684381 0
-0.52368122 0.14332581 0.10958479 0
-0.51324236 0.14464723 0.17793228 0
-1.2348199 0.053304303 0.43479234 0
-1.2381881 0.052877922 0.56627816 0
-1.1148088 0.048667837 -0.049776614 0
-0.51126784 0.1328028 0.040021069 0
-0.51441288 0.13236436 0.1087527 0
-0.51022726 0.13294786 0.1776714 0
-1.2355781 0.031832326 0.43570632 0
-1.2435249 0.030724529 0.56900984 0
-1.1212392 0.027790595 -0.050111346 0
-0.51381385 0.12027823 0.040175539 0
-0.52639341 0.11836284 0.11024392 0
-0.5083794 0.12110569 0.17764981 0
-1.2427487 0.0092893438 0.43834659 0
-1.2421592 0.0093791084 0.56958503 0
-1.1167365 0.0084766941 -0.050060663 0
-0.51677352 0.10757297 0.040351 0
-0.52113831 0.10685203 0.10988005 0
-0.51532483 0.10781225 0.17926276 0
-1.2332127 -0.010761748 0.43674558 0
-1.2342205 -0.010928224 0.56803548 0
-1.1182536 -0.011876385 -0.05023697 0
-0.51670104 0.095280178 0.040422697 0
-0.51620889 0.095367841 0.10956671 0
-0.50812566 0.096807741 0.17831884 0
-1.2492366 -0.035208803 0.44183013 0
-1.2444637 -0.034358602 0.57271296 0
-1.1187683 -0.032167684 -0.050386578 0
-0.5181191 0.08264903 0.04055436 0
-0.50839478 0.084507875 0.10895279 0
-0.51136178 0.083940722 0.17931412 0
-1.2478856 -0.056848984 0.44249362 0
-1.2381281 -0.054983806 0.57188606 0
-1.101245 -0.048885804 -0.049888592 0
-0.50620228 0.072644599 0.040206254 0
-0.50059038 0.073790766 0.10835332 0
-0.50700778 0.07248009 0.17894463 0
-1.2354448 -0.076294519 0.44034195 0
-1.2370473 -0.076621808 0.5729295 0
-1.0952806 -0.067760505 -0.049819231 0
-0.50894481 0.059702698 0.040397372 0
-0.51723641 0.057900194 0.11045609 0
-0.50780195 0.059951145 0.17955087 0
-1.2355311 -0.098249473 0.44151893 0
-1.2441815 -0.10013 0.57686532 0
-1.091298 -0.08704523 -0.049830969 0
-0.51703334 0.045387629 0.040790875 0
-0.5035491 0.048497278 0.10924155 0
-0.51115716 0.046742756 0.18066205 0
-1.2503027 -0.12371374 0.44661665 0
-1.2421565 -0.12183515 0.57778627 0
-1.0874951 -0.10638548 -0.049858261 0
-0.50957096 0.034577955 0.040620737 0
-0.51207256 0.033967782 0.11049331 0
-0.51117295 0.034187201 0.18118756 0
-1.2343029 -0.1421939 0.44373319 0
-1.2426255 -0.14422388 0.57965755 0
-1.0828006 -0.1255195 -0.04986174 0
-0.55339313 0.010694881 0.042345617 0
-0.55928075 0.0091800289 0.11606222 0
-0.55554992 0.010139962 0.19000521 0
-1.2459275 -0.16749133 0.44817898 0
-1.2432966 -0.16681446 0.58170116 0
-1.0755446 -0.14396568 -0.049779378 0
-0.61487651 -0.019232731 0.044740725 0
-0.62347245 -0.021560203 0.12357578 0
-1.2410474 -0.18877809 0.31869823 0
-1.2300428 -0.18579845 0.44545284 0
-1.2460309 -0.19012745 0.58456063 0
-1.0776875 -0.16502707 -0.050054185 0
-0.68560302 -0.053546857 0.047501452 0
-0.69702888 -0.056795549 0.13220575 0
-1.2409195 -0.21143834 0.31976894 0
-1.2440329 -0.21232356 0.45070201 0
-1.2392789 -0.21097188 0.58425063 0
-1.066269 -0.1822529 -0.049834687 0
-0.77239168 -0.094681539 0.050886981 0
-0.77911413 -0.096684732 0.14187425 0
-1.2453794 -0.23562528 0.32176059 0
-1.2402008 -0.23408215 0.45131513 0
-1.2437965 -0.2351536 0.58794266 0
-1.0589373 -0.20059387 -0.049775254 0
-0.87305474 -0.14264534 0.05482401 0
-0.8735342 -0.1427948 0.15302575 0
-1.2403126 -0.25713727 0.32201785 0
-1.2539424 -0.26138631 0.45670015 0
-1.2345061 -0.25532708 0.58694327 0
-1.0446277 -0.21662189 -0.049462233 0
-0.98854375 -0.19835992 0.059356492 0
-0.98734152 -0.19796844 0.16647974 0
-1.2399703 -0.28022906 0.32322353 0
-1.2519248 -0.2841216 0.45797089 0
-1.2342223 -0.27835742 0.58917975 0
-1.0645367 -0.24404077 -0.050445642 0
-1.124011 -0.26423845 0.064688057 0
-1.1301736 -0.26633129 0.18336432 0
-1.2381865 -0.30301276 0.32421508 0
-1.2440282 -0.30499664 0.45774004 0
-1.0389401 -0.25610301 -0.049723241 0
-1.2997262 -0.34834519 0.20346814 0
-1.2515302 -0.33129784 0.32815969 0
-1.2402797 -0.32731846 0.45870167 0
-1.039415 -0.27721843 -0.049995046 0
-1.2517842 -0.35535738 0.19887733 0
-1.234818 -0.34911481 0.32641506 0
-1.2476902 -0.35385099 0.46277764 0
-1.024725 -0.29274485 -0.049698673 0
-1.2487177 -0.37837783 0.19943766 0
-1.2436775 -0.37645093 0.32964262 0
-1.2441865 -0.37664554 0.46398321 0
-1.0222168 -0.31288353 -0.049876206 0
-1.238451 -0.39868626 0.19920175 0
-1.2362067 -0.39779571 0.32978442 0
-1.2412786 -0.39980832 0.46543691 0
-1.018218 -0.33254763 -0.050006881 0
-1.2533764 -0.42930427 0.20192185 0
-1.2381554 -0.42304155 0.33181623 0
-1.2283418 -0.41900375 0.46421167 0
-1.0196246 -0.35461941 -0.050357621 0
-1.2430604 -0.44985971 0.20175266 0
-1.2323036 -0.44527462 0.33239183 0
-1.2355216 -0.4466463 0.46862581 0
-1.0002648 -0.36780259 -0.049910787 0
-1.2391356 -0.47319582 0.20236361 0
-1.2377988 -0.47260597 0.33526242 0
-1.2355286 -0.47160432 0.47116119 0
-0.99325597 -0.38627914 -0.049952567 0
-1.2392977 -0.49855825 0.20349549 0
-1.2454076 -0.50134641 0.33863658 0
-1.2446749 -0.50101215 0.47636211 0
-0.98897076 -0.40607622 -0.05011126 0
-1.2364312 -0.52278954 0.20431206 0
-1.2436476 -0.52619308 0.34023467 0
-1.2382773 -0.52366018 0.4773134 0
-0.98117554 -0.42429152 -0.050141413 0
-1.5076265 -0.68074125 0.08304777 0
-1.2458513 -0.55322284 0.20663878 0
-1.2384021 -0.54959416 0.34120592 0
-1.2357255 -0.54829031 0.47944269 0
-0.96740735 -0.43953082 -0.04994221 0
-1.4398783 -0.67709202 0.080822222 0
-1.2388322 -0.57600486 0.2070488 0
-1.2454981 -0.57935649 0.34473392 0
-1.2272257 -0.57016903 0.47997522 0
-0.95565772 -0.4556624 -0.049830578 0
-1.394817 -0.68344647 0.079492666 0
-1.2430735 -0.60473979 0.20885934 0
-1.2408409 -0.60358185 0.34597313 0
-0.94956172 -0.47473159 -0.049955275 0
-1.3494129 -0.68855882 0.078143477 0
-1.2442871 -0.63234103 0.2103571 0
-1.2413818 -0.63078731 0.34834594 0
-0.94027758 -0.49214795 -0.049960647 0
-1.2983495 -0.68947065 0.076556824 0
-1.2385335 -0.65650785 0.21105285 0
-1.2411661 -0.65795863 0.3506498 0
-0.93022895 -0.50913829 -0.049943633 0
-1.259518 -0.69604313 0.075461403 0
-1.2342247 -0.68168652 0.2119696 0
-1.2403609 -0.68516946 0.35291865 0
-0.93002653 -0.53187221 -0.050342463 0
-1.2532026 -0.72072649 0.075705841 0
-1.237738 -0.71168947 0.21390609 0
-1.2448089 -0.7158215 0.35637286 0
-0.91225266 -0.54437077 -0.05002417 0
-1.2488142 -0.74677461 0.076045327 0
-1.2388017 -0.74075323 0.21559732 0
-1.2416598 -0.74247199 0.35833544 0
-0.90042794 -0.56028956 -0.049959727 0
-1.2553508 -0.77986783 0.076859824 0
-1.2396625 -0.77016205 0.2173222 0
-1.2332634 -0.76620311 0.3592715 0
-0.8885746 -0.57613999 -0.049902003 0
-1.2479998 -0.80481094 0.07711079 0
-1.2335248 -0.79560179 0.21821648 0
-1.2413727 -0.80059475 0.36380681 0
-0.88014507 -0.59418482 -0.049998336 0
-1.2623118 -0.84413916 0.078301303 0
-1.24439 -0.83241743 0.22134256 0
-1.2305332 -0.82335442 0.36438921 0
-0.87004006 -0.61118907 -0.050033152 0
-1.2463138 -0.86411017 0.078219309 0
-1.2439901 -0.86254829 0.22309625 0
-1.2387486 -0.85902506 0.36917922 0
-0.86310959 -0.63041937 -0.050215259 0
-1.2447149 -0.89396018 0.078772202 0
-1.2364933 -0.88828224 0.22398771 0
-1.238818 -0.88988775 0.37232375 0
-0.84049678 -0.63868636 -0.049723107 0
-1.2386649 -0.9211356 0.079151601 0
-1.2330008 -0.91711777 0.22545727 0
-1.6092693 -1.184032 0.4574798 0
-0.83078969 -0.65592921 -0.04980104 0
-1.2459871 -0.95838863 0.080140196 0
-1.2423342 -0.95572764 0.2286938 0
-1.5654931 -1.1911396 0.45181745 0
-0.82730782 -0.67790061 -0.050166883 0
-1.2452223 -0.99046904 0.080798425 0
-1.240685 -0.98707551 0.23055197 0
-0.81280291 -0.69173837 -0.050052527 0
-1.2410854 -1.020551 0.081329361 0
-1.237794 -1.0180241 0.2323132 0
-0.80139828 -0.70792031 -0.050085831 0
-1.1705377 -0.99878627 0.07886418 0
-1.1577318 -0.9886958 0.22358622 0
-1.1619506 -0.99202007 0.37210914 0
-0.79468143 -0.72792691 -0.050344005 0
-1.1408404 -1.0078212 0.078236766 0
-1.1442913 -1.0106115 0.22392663 0
-1.1476045 -1.0132904 0.37248018 0
-0.77124524 -0.73430353 -0.049840946 0
-1.2394609 -1.1227404 0.083560392 0
-1.2394665 -1.122745 0.23947586 0
-1.3301831 -1.1980046 0.41906339 0
-0.76479685 -0.75467664 -0.050132617 0
-1.2415826 -1.1604663 0.084484875 0
-1.244956 -1.1633373 0.24273404 0
-1.3232933 -1.2300099 0.42182547 0
-1.0257119 -0.97674006 0.49455383 0
-0.74107599 -0.76024753 -0.049621023 0
-1.2743535 -1.2258216 0.41464689 0
-0.98539484 -0.97354835 0.48623094 0
-0.73917007 -0.78487283 -0.050152406 0
-1.2002028 -1.1977184 0.08424665 0
-1.1913142 -1.1897588 0.24025859 0
-1.2028936 -1.200128 0.40192235 0
-0.97009754 -0.99166375 0.48636863 0
-0.71648157 -0.79092413 -0.049697515 0
-0.91369081 -0.97204667 0.47234583 0
-0.70719039 -0.80915803 -0.04989798 0
-0.88246465 -0.97425121 0.46689522 0
-0.6891886 -0.81917864 -0.049679849 0
-0.85998142 -0.98415834 0.46448907 0
-0.68562424 -0.84328896 -0.050190806 0
-0.82883358 -0.9851529 0.4589856 0
-0.66411996 -0.849693 -0.049810711 0
-0.81784832 -1.0058607 0.46074867 0
-0.64378405 -0.85693139 -0.049489956 0
-0.63815463 -0.87955564 -0.049937926 0
-0.62991893 -0.8997975 -0.050269071 0
-0.60672235 -0.90358204 -0.049815036 0
-0.58818018 -0.91224784 -0.049610518 0
-0.57373917 -0.9255448 -0.049635679 0
-0.56315029 -0.94354755 -0.049886759 0
-0.55836606 -0.96906358 -0.050485522 0
-0.53198582 -0.96768361 -0.049861692 0
-0.51979786 -0.98419017 -0.050061934 0
-0.51125795 -1.0058485 -0.050496314 0
-0.47861791 -0.99473161 -0.049487144 0
-0.46992552 -1.0163698 -0.049935479 0
-0.44589013 -1.0162055 -0.049440812 0
-0.4451229 -1.0502716 -0.050432712 0
-0.42584699 -1.0571334 -0.050258812 0
-0.3796103 -0.98595124 0.50202686 0
-0.40841067 -1.0666829 -0.050210088 0
-0.36047047 -0.99080366 0.49995121 0
-0.39254248 -1.0787257 -0.050275434 0
-0.32895142 -0.97521037 0.49000284 0
-0.37351608 -1.0855752 -0.050132692 0
-0.30829835 -0.9763518 0.48676792 0
-0.35368514 -1.0908436 -0.049935654 0
-0.28311497 -0.96920222 0.48046798 0
-0.33888066 -1.1047562 -0.050104503 0
-0.27869362 -0.99793571 0.48803672 0
-0.31917638 -1.1099654 -0.049925644 0
-0.25069523 -0.98476416 0.47968397 0
-0.30078441 -1.1173848 -0.049847368 0
-0.22991027 -0.9838416 0.47613358 0
-0.28661287 -1.1328905 -0.050103609 0
-0.21443547 -0.99265546 0.47634751 0
-0.27322811 -1.1503851 -0.050444745 0
-0.18353136 -0.9705829 0.46514937 0
-0.25028849 -1.1486673 -0.050028719 0
-0.16783281 -0.97803491 0.46507281 0
-0.23139276 -1.154909 -0.049940273 0
-0.14546837 -0.97123021 0.45983312 0
-0.21371843 -1.1637061 -0.049961817 0
-0.19602402 -1.1725028 -0.049991932 0
-0.17629518 -1.1765473 -0.049846355 0
-0.16193987 -1.193506 -0.050209045 0
-0.13912423 -1.1896538 -0.049778555 0
-0.12100257 -1.197348 -0.049801901 0
-0.10532381 -1.211804 -0.05009076 0
-0.082971469 -1.2078276 -0.049688593 0
-0.065315917 -1.2169454 -0.049791928 0
0.014722841 -0.97879988 0.4423306 0
-0.045796737 -1.2205259 -0.049695503 0
0.022587078 -1.0082436 0.45081773 0
-0.026696516 -1.225245 -0.049651194 0
-0.012754185 -1.2473754 -0.050264023 0
0.010600554 -1.23761 -0.049698416 0
0.028904544 -1.2452018 -0.049787045 0
0.04763858 -1.2513669 -0.049831331 0
0.064907745 -1.2637677 -0.050113145 0
0.083901837 -1.2694906 -0.050157629 0
0.10464887 -1.2671906 -0.049917821 0
0.12313093 -1.2753187 -0.050067887 0
0.14343794 -1.2743244 -0.049894679 0
0.160587 -1.2906963 -0.050360534 0
0.18243985 -1.2800961 -0.04985778 0
0.032954767 -2.203217 0.0952437 0
0.20149736 -1.2858672 -0.049956843 0
0.065555736 -2.1979923 0.094880566 0
0.21966444 -1.2987174 -0.050319459 0
0.097328827 -2.1969857 0.094684832 0
0.24015579 -1.2948446 -0.050088186 0
0.12839179 -2.2006471 0.094671734 0
0.26061088 -1.2898448 -0.049826026 0
0.16046982 -2.1950939 0.094341733 0
0.28014815 -1.2923545 -0.049842816 0
0.19150543 -2.1978507 0.09432473 0
0.29896975 -1.3034407 -0.050175712 0
0.22301415 -2.1949716 0.094119817 0
0.31918484 -1.2986027 -0.049946781 0
0.25333706 -2.2065122 0.09444546 0
0.33898455 -1.2980529 -0.049880501 0
0.28478038 -2.2032676 0.094255716 0
0.35815766 -1.3098394 -0.050264087 0
0.31632906 -2.1950619 0.093902931 0
0.37816796 -1.3053629 -0.050075177 0
0.34721836 -2.1988466 0.093992822 0
0.39771461 -1.3160214 -0.050435785 0
0.37821051 -2.2010651 0.094040655 0
0.41779527 -1.2973948 -0.049759578 0
0.43750495 -1.3114232 -0.050258201 0
0.45726427 -1.3060602 -0.050073404 0
0.47675592 -1.2957431 -0.049720485 0
0.49686044 -1.3064015 -0.050125632 0
0.51639915 -1.3010967 -0.049969383 0
0.53583801 -1.2959038 -0.049825799 0
0.55547279 -1.2944444 -0.049824543 0
0.57550955 -1.297351 -0.049988668 0
0.5943805 -1.2879295 -0.049719546 0
0.61429507 -1.2890339 -0.049836911 0
0.6335724 -1.2845608 -0.049762696 0
0.65360218 -1.2857128 -0.049899951 0
0.67277908 -1.2807291 -0.04982489 0
0.69210756 -1.2769456 -0.04980186 0
0.71247804 -1.2789799 -0.049998693 0
0.73227471 -1.2773192 -0.050070938 0
0.75174528 -1.2738211 -0.050085451 0
0.77094501 -1.2690334 -0.050061811 0
0.79137993 -1.2695854 -0.050242733 0
0.80800807 -1.2541963 -0.049847413 0
0.82756132 -1.2511221 -0.049912855 0
0.84712058 -1.2478838 -0.049981542 0
0.86662763 -1.2442774 -0.050045941 0
0.88358116 -1.2320309 -0.049797561 0
0.90442044 -1.2326846 -0.050039057 0
0.92229408 -1.2237722 -0.049931854 0
0.94050127 -1.216055 -0.049877781 0
0.96007335 -1.2122625 -0.049980927 0
0.98076057 -1.2112539 -0.050199941 0
0.99616784 -1.1961256 -0.049889646 0
0.92405331 -1.0092583 0.46018755 0
1.0141846 -1.188094 -0.049858149 0
0.93815249 -0.99822801 0.45848861 0
1.0347677 -1.1862942 -0.050076123 0
0.95662916 -0.99807066 0.46076125 0
1.0531954 -1.1790844 -0.050095085 0
0.97444373 -0.99593109 0.46241242 0
1.068336 -1.1644467 -0.049832944 0
0.98927647 -0.98677629 0.46159977 0
1.0849726 -1.1534952 -0.049721614 0
1.0095003 -0.98947805 0.46519274 0
1.1068014 -1.153639 -0.050056487 0
1.0245878 -0.98073822 0.46468592 0
1.1218059 -1.1393414 -0.049829964 0
1.0440902 -0.9810701 0.46760845 0
1.1439873 -1.139553 -0.05019024 0
1.0656024 -0.98487276 0.47193551 0
1.1614391 -1.1301606 -0.05017722 0
1.0844517 -0.98286754 0.47421223 0
1.1787562 -1.120531 -0.050163377 0
1.1057689 -0.98507339 0.47818527 0
1.1935443 -1.1063595 -0.049972847 0
1.1259701 -0.98464364 0.057002667 0
1.1322607 -0.99597436 0.16092283 0
1.1344398 -0.99989945 0.26679209 0
1.1285329 -0.9892599 0.37182727 0
1.1302351 -0.99232584 0.48420838 0
1.209311 -1.0941644 -0.049869847 0
1.1439147 -0.97978896 0.057166155 0
1.1498313 -0.9901368 0.16130321 0
1.1394243 -0.97193533 0.26283947 0
1.1428901 -0.97799689 0.37112185 0
1.1496936 -0.989896 0.486682 0
1.2300298 -1.0905194 -0.050128479 0
1.1636895 -0.97781056 0.057459343 0
1.166068 -0.9818514 0.16140865 0
1.1632552 -0.97707278 0.2657977 0
1.1633381 -0.97721344 0.37356699 0
1.1680552 -0.98522764 0.4884041 0
1.2400141 -1.0687931 -0.049645241 0
1.255457 -1.0564673 -0.049558882 0
1.2850415 -1.0663223 -0.050420485 0
1.2971201 -1.0484844 -0.050121326 0
1.3112772 -1.0340884 -0.049974505 0
1.3207759 -1.0131685 -0.049550429 0
1.343588 -1.0114011 -0.049967978 0
1.3578941 -0.99753064 -0.049866233 0
1.3762399 -0.98914021 -0.050016426 0
1.3885397 -0.9727475 -0.049817406 0
1.4128877 -0.97176772 -0.05032571 0
1.2085944 -0.71416974 0.050588053 0
1.2131853 -0.71995831 0.14101453 0
1.4194865 -0.94840425 -0.04982299 0
1.2047603 -0.68454456 0.049677771 0
1.2038203 -0.68338948 0.13732034 0
1.4330498 -0.93393046 -0.049732257 0
1.2045937 -0.66030979 0.049006347 0
1.2101558 -0.66697156 0.13639191 0
1.4595141 -0.93461221 -0.050360955 0
1.2055037 -0.6380564 0.048420679 0
1.2031959 -0.63536197 0.13331498 0
1.4664518 -0.91239256 -0.049924035 0
1.2040526 -0.6137377 0.047730893 0
1.2018217 -0.6111986 0.13125658 0
1.4728112 -0.88998717 -0.049477372 0
1.2091051 -0.59735942 0.047413971 0
1.2087371 -0.59695101 0.13060673 0
1.4981837 -0.88861257 -0.05005176 0
1.5084084 -0.8706637 -0.049833369 0
1.525916 -0.86042362 -0.050002467 0
1.5407729 -0.84735101 -0.050041962 0
1.5569006 -0.83547825 -0.050152715 0
1.5748578 -0.82523817 -0.05035983 0
1.5732757 -0.79662091 -0.049618188 0
1.599393 -0.79382569 -0.050237436 0
1.6036669 -0.77112943 -0.049810559 0
1.6187985 -0.75818604 -0.049913608 0
1.6360066 -0.74688846 -0.050120041 0
1.6450444 -0.72870696 -0.049953923 0
1.6615161 -0.71660501 -0.05013955 0
1.6707053 -0.69866908 -0.050000925 0
1.6835351 -0.68361056 -0.050036851 0
1.6901981 -0.66396457 -0.049807254 0
1.7052743 -0.65056241 -0.04996058 0
1.7316383 -0.64492518 -0.050611839 0
1.74143 -0.62743676 -0.050544687 0
1.7370275 -0.60058969 -0.049879536 0
1.7600428 -0.59198403 -0.050399031 0
1.7615862 -0.5694707 -0.050014071 0
1.765111 -0.54848027 -0.049726814 0
1.7865702 -0.53835422 -0.050197057 0
1.7897745 -0.51732779 -0.049917083 0
1.805778 -0.50368261 -0.050173499 0
1.8098195 -0.48333403 -0.049949247 0
1.8255115 -0.46929696 -0.050206948 0
1.8392212 -0.45403996 -0.05039065 0
1.8465567 -0.43547991 -0.050326962 0
1.8540773 -0.41705504 -0.050280273 0
1.8507664 -0.39363745 -0.04981672 0
1.8565863 -0.37467232 -0.049724653 0
1.8643569 -0.35662058 -0.049718317 0
1.8802876 -0.341988 -0.05003668 0
1.8845401 -0.32239065 -0.049910858 0
1.8899451 -0.30333415 -0.049839295 0
1.900637 -0.2863113 -0.049978822 0
1.9105606 -0.26890323 -0.050096713 0
1.9160202 -0.24985652 -0.050053723 0
1.9130279 -0.22802742 -0.049701955 0
1.9226309 -0.21046914 -0.049833868 0
1.9374886 -0.19441222 -0.050169665 0
1.9397947 -0.1744511 -0.050045058 0
1.9410535 -0.15428723 -0.049891405 0
1.9537724 -0.13725792 -0.050170816 0
1.9544637 -0.11700816 -0.050014574 0
1.9652996 -0.099275239 -0.050240397 0
1.9631233 -0.078461297 -0.049997702 0
1.9618895 -0.058017772 -0.049799614 0
1.9711889 -0.039795768 -0.049994729 0
1.9733989 -0.020121645 -0.049940348 0
1.9831071 -0.0017703281 -0.050166681 0
1.9679139 0.020697866 -0.049500782 0
1.9873632 0.037642855 -0.050096188 0
1.9958885 0.056467418 -0.050304852 0
1.9977363 0.076245956 -0.050281625 0
1.9978118 0.096201621 -0.050203737 0
2.0089455 0.11505782 -0.050531518 0
1.9990828 0.13587147 -0.050115351 0
1.9895135 0.15637368 -0.049719438 0
1.9995432 0.17548762 -0.050033871 0
1.9950979 0.19546501 -0.049839459 0
1.9963253 0.2151297 -0.049856734 0
2.0053165 0.23466305 -0.05016008 0
2.0029902 0.25448474 -0.050068129 0
2.0021257 0.27425393 -0.050037261 0
2.0061159 0.29409617 -0.050188623 0
1.9958118 0.31359828 -0.049838394 0
1.988952 0.33300811 -0.049619831 0
1.9888957 0.35265255 -0.049653128 0
1.9921526 0.3725535 -0.049813882 0
1.9996296 0.39291751 -0.050134938 0
1.9883693 0.41173738 -0.049793631 0
1.9837754 0.43103448 -0.049699731 0
1.9841857 0.45086947 -0.049794365 0
1.9824394 0.47048816 -0.049820475 0
1.9774041 0.489649 -0.049736872 0
1.9841634 0.51062518 -0.050088171 0
1.9815243 0.5302428 -0.050109345 0
1.9667908 0.54764569 -0.049700439 0
1.962472 0.56681669 -0.049677495 0
1.9590333 0.58615977 -0.049695399 0
1.9685912 0.60843021 -0.05019775 0
1.958549 0.62641782 -0.049992703 0
1.9571016 0.64641327 -0.050111663 0
1.9543097 0.66614389 -0.050190657 0
1.9462458 0.68447238 -0.050083783 0
1.932053 0.70094126 -0.04975719 0
1.929912 0.72084659 -0.049886879 0
1.9311876 0.74194002 -0.050154489 0
1.9157676 0.7576828 -0.049805038 0
1.9211848 0.78039092 -0.050248869 0
1.9078805 0.79668039 -0.049994998 0
1.8904763 0.81124413 -0.049591392 0
1.8886163 0.83156067 -0.049788382 0
1.8857592 0.85162741 -0.049957804 0
1.8776922 0.86964512 -0.04993622 0
1.8664073 0.88625401 -0.049798109 0
1.8583736 0.90421855 -0.049794596 0
1.854472 0.92410088 -0.049962565 0
1.8420568 0.94003701 -0.049804367 0
1.8305492 0.95630139 -0.049689312 0
1.825148 0.97559667 -0.049826484 0
1.8223851 0.99639446 -0.050080795 0
1.8090284 1.0116487 -0.049917106 0
1.7992061 1.0287511 -0.049904674 0
1.7908893 1.0467139 -0.049963005 0
1.7813357 1.0639951 -0.049979806 0
1.7676672 1.0787838 -0.049833715 0
1.7577391 1.0958011 -0.049851932 0
1.7492692 1.1137784 -0.049941316 0
1.7408872 1.1318929 -0.050044864 0
1.7231239 1.1437081 -0.049753852 0
1.7214695 1.1665517 -0.050168704 0
1.7041667 1.1785103 -0.049911875 0
1.7016218 1.2011411 -0.050314173 0
1.6746595 1.2056289 -0.049639277 0
1.6686509 1.2258153 -0.049908005 0
1.6611822 1.2450826 -0.050124299 0
1.6479696 1.2598469 -0.050088909 0
1.6290172 1.2697595 -0.049794111 0
1.6183137 1.2865124 -0.049890753 0
1.6041957 1.3003412 -0.04983576 0
1.5937556 1.3174574 -0.049965736 0
1.5823795 1.3338324 -0.050062057 0
1.5684747 1.3478937 -0.050044898 0
1.5576414 1.3649471 -0.050189711 0
1.5274038 1.3626839 -0.0493659 0
1.5207373 1.3838402 -0.049737215 0
1.5105213 1.401637 -0.049943015 0
1.4928043 1.4115365 -0.049768809 0
1.0528383 0.93550938 0.31004542 0
1.4793386 1.4259746 -0.049825478 0
1.4431067 1.3857688 0.059893228 0
1.4443598 1.3871595 0.1684325 0
1.4398063 1.3821067 0.27735803 0
1.0571126 0.95744133 0.31639367 0
1.4705409 1.445791 -0.050145216 0
1.415397 1.3830279 0.059162494 0
1.4160804 1.3838056 0.1661429 0
1.417709 1.3856592 0.27518746 0
1.0573505 0.97550994 0.32093725 0
1.4499904 1.4522375 -0.049838282 0
1.3955911 1.3887266 0.058852814 0
1.3855042 1.3769501 0.16343303 0
1.3940331 1.3869075 0.2725594 0
1.0567868 0.99317414 0.32525358 0
1.4377905 1.4683526 -0.049996339 0
1.3705074 1.3877679 0.058248404 0
1.3653321 1.3815695 0.1624122 0
1.3698343 1.3869617 0.26974872 0
1.0558294 1.0108796 0.32954577 0
1.4159285 1.4727762 -0.049621746 0
1.3386742 1.3778446 0.057252131 0
1.3432608 1.3834808 0.16106193 0
1.3453914 1.3860989 0.26682463 0
1.061065 1.0367129 0.3372857 0
1.4083834 1.4948323 -0.050066914 0
1.3220187 1.3859332 0.057104841 0
1.3231963 1.3874179 0.16004127 0
1.3210688 1.3847353 0.26388559 0
1.0548928 1.0491079 0.33921447 0
1.392325 1.5063903 -0.050038423 0
1.2972764 1.3833913 0.056488853 0
1.296297 1.3821239 0.15781121 0
1.3022157 1.3897831 0.26250643 0
1.0489601 1.0620548 0.34138945 0
1.3791045 1.5216894 -0.050186466 0
1.2765837 1.3855112 0.056100991 0
1.2783766 1.3878927 0.15713616 0
1.2752678 1.3837633 0.25869566 0
1.0380881 1.0687176 0.34095833 0
1.3667159 1.538305 -0.050398834 0
1.2499045 1.3790094 0.055346582 0
1.2546501 1.3854809 0.15540729 0
1.2567956 1.3884069 0.25738096 0
1.0332661 1.0835792 0.34397033 0
1.3440533 1.5407968 -0.049996559 0
1.2458205 1.4032375 0.055961855 0
1.2453597 1.4025922 0.15631175 0
1.2432417 1.3996263 0.25758711 0
1.021463 1.0890608 0.34314561 0
1.3240995 1.5466931 -0.049758296 0
1.2421871 1.4288789 0.056635462 0
1.2480037 1.437245 0.15951973 0
1.2491373 1.4388753 0.26398596 0
1.0097375 1.094548 0.34239089 0
1.310921 1.5623064 -0.049951818 0
1.2426041 1.4613582 0.057600107 0
1.2473358 1.4683498 0.16223577 0
1.2490124 1.4708272 0.26872525 0
1.0051047 1.1104176 0.34587288 0
1.2928165 1.5706937 -0.049841974 0
1.2454132 1.4987119 0.058764935 0
1.2490389 1.5042175 0.16554335 0
1.2425765 1.4944043 0.27161723 0
1.172397 1.3878373 0.34920323 0
0.99825054 1.1233968 0.34819812 0
1.2810845 1.5888901 -0.050158609 0
1.2425015 1.5286646 0.059605096 0
1.2499086 1.5402265 0.16883963 0
1.2234353 1.4989034 0.27041721 0
1.1521349 1.3876082 0.34633815 0
0.98695177 1.1297683 0.34792811 0
1.2613078 1.5946025 -0.0499539 0
1.2460166 1.5700589 0.060921516 0
1.2492181 1.5751976 0.17197737 0
1.2051786 1.504511 0.26951352 0
1.1276226 1.3800275 0.34136263 0
0.97587675 1.1364641 0.34784335 0
1.2468083 1.608755 -0.050113458 0
1.1918564 1.5180273 0.27033293 0
1.1051642 1.3748952 0.33724761 0
0.96985584 1.1514962 0.35105613 0
0.83672911 0.9316991 0.46868849 0
1.2225345 1.6065295 -0.049600948 0
1.171497 1.5198193 0.26872799 0
1.0916613 1.3841823 0.33751583 0
0.9572705 1.155859 0.35015577 0
0.83993381 0.95650983 0.48229632 0
1.2132483 1.6297947 -0.050153039 0
1.1614655 1.5392288 0.27084798 0
1.0691546 1.3777807 0.3332215 0
0.94237787 1.1560533 0.34772527 0
0.84697694 0.98920095 0.35169718 0
0.84370041 0.9834705 0.42045373 0
0.84140408 0.97945434 0.494504 0
1.1910611 1.6306311 -0.049790211 0
1.1410757 1.5405965 0.26925772 0
1.0563453 1.3879784 0.333884 0
0.93447596 1.1684647 0.35003227 0
0.85035741 1.0169487 0.36239356 0
0.84042269 0.99905407 0.42644179 0
0.84640247 1.009825 0.51165122 0
1.18011 1.6517876 -0.050265264 0
1.128139 1.5553344 0.27047005 0
1.031294 1.3755991 0.32804585 0
0.92202365 1.1728035 0.34931064 0
0.85631788 1.0508597 0.37589622 0
0.83903056 1.0187761 0.43476498 0
0.84187442 1.0240541 0.51776612 0
1.161823 1.6596394 -0.05020681 0
1.108519 1.5576575 0.26918128 0
1.0198959 1.3881029 0.32950047 0
0.91621876 1.1897466 0.35338449 0
0.85647905 1.0754521 0.38492164 0
0.83889991 1.0418195 0.44491869 0
0.84048206 1.0448464 0.5282712 0
1.1418552 1.66409 -0.050021853 0
1.0956762 1.5729629 0.27057567 0
0.99633443 1.3769274 0.32421425 0
0.89981782 1.1864669 0.34991717 0
0.84393835 1.0761975 0.38281986 0
0.84228605 1.072937 0.45953766 0
0.8379339 1.0643487 0.53786337 0
1.1263516 1.6773431 -0.050198168 0
1.0793021 1.5815247 0.27063915 0
0.98846316 1.3965276 0.32779258 0
0.88591093 1.1876757 0.34821162 0
0.84572971 1.105845 0.39413536 0
0.84146339 1.0971565 0.47019771 0
0.83784044 1.0897782 0.55133384 0
1.1040536 1.6766042 -0.049828034 0
0.96421576 1.382516 0.32188213 0
0.87745714 1.2000569 0.35069674 0
0.84286219 1.1273016 0.40161771 0
0.83840096 1.1179192 0.4788847 0
0.84094834 1.1232765 0.57002324 0
1.0934869 1.7007427 -0.050448786 0
0.94698089 1.3823545 0.31998158 0
0.86458397 1.2032888 0.3498559 0
0.84150189 1.1531266 0.41106439 0
0.84219581 1.1546346 0.49632913 0
0.83935088 1.148452 0.5831458 0
1.070628 1.6983421 -0.050034232 0
0.93302184 1.3890995 0.32008103 0
0.85176921 1.2065005 0.34907159 0
0.8410306 1.1823676 0.42201412 0
0.83719736 1.1737531 0.50401312 0
0.84140521 1.1832094 0.60242784 0
1.0533609 1.7082137 -0.05011005 0
0.90939415 1.373389 0.31399265 0
0.84686232 1.2279583 0.35495791 0
0.83694881 1.2049025 0.42988509 0
0.84156477 1.2156378 0.5240891 0
0.84246922 1.2177414 0.62144345 0
1.0365376 1.7193018 -0.050240926 0
0.89572221 1.3800995 0.31421208 0
0.85023326 1.2705238 0.36843926 0
0.84131438 1.2490395 0.44742224 0
0.83937228 1.2443614 0.53690064 0
0.84021759 1.2463976 0.63657844 0
1.0158992 1.72112 -0.050022814 0
0.88020676 1.3822712 0.31323043 0
0.8506915 1.3085662 0.38021663 0
0.83766139 1.2760277 0.45719823 0
0.8388232 1.278929 0.55281246 0
0.84063047 1.283442 0.65701407 0
0.99749941 1.7283202 -0.050021686 0
0.86232269 1.3780427 0.31055683 0
0.84842831 1.3420389 0.39030522 0
0.84059554 1.3217422 0.47525796 0
0.83937222 1.3185723 0.57137299 0
0.83789688 1.3147492 0.67370039 0
0.97419959 1.7223378 -0.049527347 0
0.84681082 1.3794485 0.30949065 0
0.84640777 1.3783637 0.40136918 0
0.83957702 1.3599776 0.48991373 0
0.83969992 1.3603084 0.59096026 0
0.83990669 1.360865 0.69969934 0
0.95656681 1.7311914 -0.049608819 0
0.83314949 1.3857287 0.30980286 0
0.84601241 1.4217339 0.41488153 0
0.8405996 1.4065826 0.50818914 0
0.83776021 1.3986348 0.60864586 0
0.94069797 1.7453725 -0.049899422 0
0.81809586 1.3880532 0.30909327 0
0.83879298 1.4483742 0.4224529 0
0.8402943 1.4527498 0.52618855 0
0.83600861 1.4402593 0.62801278 0
0.9202224 1.7462213 -0.049695257 0
1.0318497 2.0854087 0.35174984 0
0.80245107 1.388365 0.30789703 0
0.83849001 1.4978718 0.43803063 0
0.83763981 1.4952884 0.54253352 0
0.83780694 1.4957963 0.65463948 0
0.90322709 1.7576427 -0.049897335 0
1.0089816 2.0931542 0.35181487 0
0.78690791 1.3886144 0.30674165 0
0.84180605 1.5627816 0.4589242 0
0.84089309 1.5598851 0.56840408 0
0.83817214 1.5512527 0.68110657 0
0.89006299 1.7822797 -0.050599422 0
0.97997159 2.0805678 0.34810421 0
0.76986104 1.3834879 0.30421036 0
0.84361637 1.6281848 0.47989559 0
0.8398416 1.6156611 0.59034461 0
0.86533791 1.7685393 -0.049879428 0
0.95767915 2.0894682 0.34850797 0
0.75442678 1.3830712 0.30299571 0
0.83861965 1.6756806 0.49458387 0
0.8431862 1.6915517 0.6208775 0
0.84654963 1.7745453 -0.049904443 0
0.73910499 1.3826197 0.047395922 0
0.74135131 1.3908136 0.13152458 0
0.74154961 1.391537 0.21678327 0
0.73865414 1.3809751 0.3013925 0
0.83764285 1.742056 0.51575607 0
0.83519012 1.7331092 0.63654745 0
0.82656509 1.7760445 -0.049771849 0
0.7233299 1.3799815 0.047159448 0
0.72348344 1.3805705 0.12996505 0
0.72448552 1.384415 0.21474744 0
0.72682261 1.3933812 0.30367059 0
0.83178312 1.7960633 0.53261095 0
0.83096445 1.7929226 0.66002041 0
0.81032789 1.7923229 -0.05019246 0
0.70954287 1.3846985 0.047201525 0
0.70850474 1.3804997 0.12956147 0
0.70785975 1.3778912 0.21286902 0
0.70828891 1.3796269 0.29910544 0
0.823659 1.8462404 0.5481261 0
0.82689607 1.8593328 0.68625665 0
0.79060906 1.7950343 -0.050121911 0
0.69492716 1.3860136 0.04712512 0
0.6928122 1.3769727 0.12879845 0
0.69207829 1.3738353 0.21149208 0
0.6974178 1.3966604 0.30268201 0
0.81815028 1.9127674 0.56921697 0
0.76755071 1.782397 -0.049499489 0
0.68055052 1.3881726 0.047086518 0
0.67886496 1.3805346 0.12883951 0
0.68040496 1.387513 0.2134309 0
0.67998803 1.3856237 0.29895049 0
0.80422962 1.9486002 0.57981551 0
0.74998403 1.7940781 -0.049775992 0
0.66489255 1.3840343 0.046825014 0
0.66471845 1.3831953 0.12880082 0
0.66437703 1.3815502 0.21177416 0
0.66201925 1.3701882 0.29413983 0
0.79152822 1.9942737 0.5937897 0
0.73102129 1.7996166 -0.049836464 0
0.6505869 1.3858973 0.046789598 0
0.64876205 1.376511 0.12775867 0
0.64751214 1.370082 0.20914713 0
0.64992326 1.3824837 0.29660738 0
0.7786867 2.0447865 0.60942429 0
0.71393025 1.8157305 -0.050289191 0
0.6374498 1.3940754 0.04698994 0
0.63632268 1.3878613 0.12871066 0
0.63469332 1.3788782 0.21027935 0
0.63479227 1.3794237 0.29512721 0
0.76367456 2.089983 0.62328023 0
0.69244152 1.8076729 -0.049873654 0
0.62022835 1.3788654 0.046349112 0
0.62272918 1.3937154 0.12907873 0
0.62144256 1.3860755 0.21114628 0
0.62044841 1.3801721 0.29468483 0
0.74653941 2.1289101 0.6350556 0
0.67467564 1.8216714 -0.05026561 0
0.606861 1.3855158 0.046507206 0
0.60801804 1.3929577 0.12874562 0
0.60634613 1.3822045 0.21002188 0
0.60460806 1.371026 0.29173529 0
0.72774893 2.1630161 0.64525747 0
0.65261292 1.8075204 -0.049649797 0
0.59167296 1.3802053 0.046239745 0
0.59170467 1.3804277 0.12715526 0
0.59164381 1.3800009 0.20923793 0
0.59094059 1.3750701 0.29224175 0
0.70794427 2.1955073 0.65497786 0
0.6349842 1.824183 -0.050154313 0
0.57826078 1.3871299 0.046420086 0
0.57763767 1.3823289 0.12715369 0
0.57775068 1.3831998 0.20947143 0
0.57681245 1.3759704 0.29198292 0
0.68796992 2.2324374 0.66625535 0
0.61435634 1.8183018 -0.049855735 0
0.56286377 1.3782042 0.046036504 0
0.56374788 1.3857605 0.12733693 0
0.56390148 1.3870734 0.20985892 0
0.56253785 1.3754188 0.29139724 0
0.66752172 2.2726963 0.67871559 0
0.59402132 1.8132286 -0.049595881 0
0.55147821 1.4051677 0.12926501 0
0.55171126 1.4074035 0.21326151 0
0.552095 1.4110842 0.30014867 0
0.64481318 2.3004086 0.68704891 0
0.57684511 1.8406849 -0.050511714 0
0.55236423 1.5732641 0.14725389 0
0.55192035 1.568415 0.24216583 0
0.55164748 1.5654342 0.33933061 0
0.62061018 2.318759 0.69234043 0
0.55579633 1.827291 -0.049971461 0
0.60293955 2.4250898 0.23893179 0
0.59853202 2.3692005 0.38678163 0
0.59792995 2.3615656 0.5427224 0
0.53542477 1.8184061 -0.049602468 0
0.57393658 2.4001262 0.39202362 0
0.5745762 2.4097869 0.55456221 0
0.51654702 1.8326015 -0.05006808 0
0.54816157 2.4227934 0.39582652 0
0.5487752 2.4342482 0.56039858 0
0.49680957 1.8339036 -0.050081249 0
0.52187896 2.4461484 0.39981025 0
0.52186829 2.4458869 0.56304061 0
0.47715497 1.8385681 -0.050223392 0
0.45651746 1.1103541 0.35640758 0
0.45636827 1.10509 0.4268139 0
0.45720932 1.831315 -0.049948812 0
0.44576672 1.1044329 0.3538585 0
0.44598019 1.1179935 0.43315405 0
0.43746436 1.8272762 -0.049797971 0
0.43514809 1.0917726 0.4199838 0
0.43512967 1.0859191 0.49321923 0
0.41776076 1.8297925 -0.049890015 0
0.42476439 1.0880874 0.41815627 0
0.42488685 1.0751185 0.48683295 0
0.39800492 1.8315915 -0.049965341 0
0.41410035 1.1012243 0.35257104 0
0.4142434 1.0947332 0.42156398 0
0.41453242 1.0816184 0.49078396 0
0.37839946 1.8274239 -0.049836434 0
0.35264274 2.5709944 0.42224583 0
0.35251129 2.5747895 0.59581494 0
0.40469912 1.0681803 0.48298272 0
0.35915112 1.8175591 -0.049512647 0
0.32258362 2.5914402 0.42615196 0
0.32239088 2.5955191 0.60141379 0
0.39574939 1.0430262 0.46829444 0
0.33924296 1.8224814 -0.049726147 0
0.29189661 2.6131701 0.43036142 0
0.29199737 2.6114872 0.60589683 0
0.38623083 1.0377799 0.46548948 0
0.31931877 1.8255004 -0.049880683 0
0.26134226 2.624881 0.4328329 0
0.26132569 2.6251094 0.60988164 0
0.29954034 1.8254876 -0.049935743 0
0.22951376 2.6474264 0.43733767 0
0.22988567 2.6430612 0.61507827 0
0.27957895 1.8269132 -0.050051395 0
0.19756296 2.6647165 0.44096833 0
0.19853893 2.654747 0.61877638 0
0.26008615 1.8233324 -0.049996406 0
0.1659921 2.6739182 0.44320935 0
0.16592439 2.6745303 0.62465948 0
0.34704828 1.037217 0.46713001 0
0.24012524 1.8238364 -0.050097093 0
0.1345938 2.6791265 0.44480038 0
0.13570903 2.6700881 0.62442964 0
0.21954948 1.8283057 -0.050349873 0
0.10064249 2.7013986 0.44957188 0
0.10185514 2.6924946 0.63121051 0
0.20012733 1.8238039 -0.050288651 0
0.069303855 2.7015879 0.4504036 0
0.069944486 2.6972895 0.63357103 0
0.18167485 1.8135644 -0.050028633 0
0.037493452 2.7039332 0.45170301 0
0.036872879 2.7077653 0.63750845 0
0.16324206 1.8042586 -0.049810298 0
0.0042883321 2.713172 0.45434055 0
0.0029498206 2.7208257 0.64223164 0
0.14332707 1.8036586 -0.049916111 0
-0.03015597 2.7269847 0.4579004 0
-0.030292315 2.7277105 0.6454736 0
0.12448503 1.7973248 -0.049822517 0
-0.089261845 2.86097 0.10055519 0
-0.089986935 2.8645785 0.29102898 0
-0.062684849 2.728718 0.45932683 0
-0.062406883 2.7273347 0.64694321 0
0.10432424 1.7974511 -0.049973182 0
-0.11492272 2.8215349 0.099362791 0
-0.11610086 2.8270378 0.28764883 0
-0.093762711 2.7226985 0.45940268 0
-0.095624641 2.7313952 0.64967954 0
0.082561597 1.8041313 -0.05037351 0
-0.14163513 2.7904966 0.098486222 0
-0.14351381 2.7987621 0.28531629 0
-0.1281081 2.730984 0.46219674 0
-0.12485339 2.7166646 0.64761662 0
0.067269042 1.7826967 -0.049752731 0
-0.17398204 2.7855003 0.098575577 0
-0.17328079 2.7825856 0.28435215 0
-0.16175725 2.7346859 0.46422917 0
-0.16363819 2.7425041 0.65628988 0
0.05010964 1.7703801 -0.049472898 0
-0.20622934 2.7798347 0.098655552 0
-0.21111037 2.7990561 0.28704634 0
-0.19727738 2.7445822 0.46749941 0
-0.19733573 2.744812 0.65892512 0
0.028811561 1.7742938 -0.049799897 0
-0.25228387 2.8255687 0.10065027 0
-0.25035447 2.8183529 0.29011694 0
-0.22951449 2.740413 0.46823823 0
-0.22869237 2.7373383 0.65909773 0
0.0083890427 1.7742265 -0.049990349 0
-0.25970113 2.7285445 0.46761328 0
-0.26213562 2.7372105 0.66132218 0
-0.0086776149 1.7622799 -0.049748939 0
-0.29463166 2.7330718 0.47013989 0
-0.29474276 2.7334487 0.66270024 0
-0.027761264 1.7574431 -0.049780224 0
-0.32714421 2.7285409 0.47104973 0
-0.32575744 2.7240427 0.66268611 0
-0.047337309 1.7540525 -0.049874879 0
-0.36179978 2.7302318 0.47321951 0
-0.35565621 2.7111604 0.66184461 0
-0.06662108 1.749573 -0.049938191 0
-0.38913 2.7091596 0.4711504 0
-0.39550894 2.7281394 0.66913801 0
-0.088179126 1.7514439 -0.050251152 0
-0.42580986 2.7156465 0.47440395 0
-0.42563415 2.7151446 0.66849649 0
-0.10489525 1.739372 -0.050046064 0
-0.45600593 2.7029967 0.47408769 0
-0.45824635 2.7091455 0.66985434 0
-0.12343545 1.7325165 -0.050047152 0
-0.4864893 2.6912158 0.47401059 0
-0.48599416 2.6899083 0.66771895 0
-0.13589944 1.7101957 -0.049463905 0
-0.51756674 2.6809609 0.47430307 0
-0.52027202 2.6878417 0.6703757 0
-0.16004296 1.7175983 -0.050029688 0
-0.55528218 2.6868629 0.47781986 0
-0.54872543 2.6707833 0.66903412 0
-0.18332501 1.7219288 -0.050491177 0
-0.58086038 2.662765 0.47557458 0
-0.58330011 2.668539 0.67188746 0
-0.19079657 1.6892973 -0.049526274 0
-0.61089122 2.6496148 0.47553521 0
-0.60950804 2.6464529 0.66935199 0
-0.21559496 1.6965969 -0.05012431 0
-0.64001811 2.6344681 0.47517499 0
-0.64317453 2.6414428 0.67167616 0
-0.23218621 1.6853493 -0.050007127 0
-0.66703475 2.6149166 0.47400847 0
-0.66982567 2.6208827 0.66975319 0
-0.25102365 1.6789329 -0.050089039 0
-0.69802427 2.6039488 0.47462216 0
-0.69498944 2.5976686 0.66716129 0
-0.26767749 1.6680028 -0.050000828 0
-0.72678196 2.588304 0.4743754 0
-0.72519553 2.5851238 0.66768503 0
-0.28189826 1.6524745 -0.049735807 0
-0.7573899 2.5763178 0.47494239 0
-0.75831115 2.5781076 0.66990739 0
-0.30316418 1.6506132 -0.050028604 0
-0.78543854 2.5593293 0.47457027 0
-0.79014575 2.5681987 0.67142928 0
-0.32106304 1.6421589 -0.050066005 0
-0.81197584 2.5396752 0.47372001 0
-0.81311679 2.5417612 0.66827118 0
-0.3367461 1.629712 -0.049949259 0
-0.61696661 2.1270497 0.082329296 0
-0.8309772 2.5068774 0.4702118 0
-0.84022725 2.5232944 0.66750926 0
-0.35638905 1.6242485 -0.05012802 0
-0.61972237 2.0781543 0.080862693 0
-0.86244845 2.4965398 0.47141057 0
-0.86036885 2.4929552 0.66334021 0
-0.37272352 1.612992 -0.050077498 0
-0.61628771 2.0209014 0.07903894 0
-0.88936794 2.4782429 0.4710294 0
-0.8915354 2.4818728 0.66493696 0
-0.39295852 1.6081471 -0.050303809 0
-0.62050319 1.9785511 0.077823639 0
-0.9133234 2.4552126 0.46971494 0
-0.91479266 2.4576042 0.6627149 0
-0.40319049 1.5871648 -0.049861167 0
-0.62211025 1.9336696 0.076493971 0
-0.93765485 2.4331117 0.46865228 0
-0.93154907 2.4234474 0.65757895 0
-0.4186365 1.5747769 -0.049786236 0
-0.62024665 1.8851593 0.074999757 0
-0.95473003 2.4001021 0.46530065 0
-0.96049285 2.4089742 0.65845317 0
-0.44046211 1.5720346 -0.050133031 0
-0.61610746 1.8351315 0.073426791 0
-0.97721994 2.3760371 0.46390671 0
-0.98465896 2.3871801 0.65720034 0
-0.45785016 1.5623851 -0.050195653 0
-0.60866129 1.7822374 0.07171385 0
-1.0088763 2.3656702 0.46555811 0
-1.0047692 2.3596828 0.65426588 0
-0.47168928 1.5476171 -0.050044801 0
-0.6169349 1.7537431 0.071047202 0
-1.0258156 2.3340082 0.46261364 0
-1.0224971 2.3292985 0.65048289 0
-0.48619872 1.5339515 -0.049948797 0
-0.61895168 1.7173986 0.070033081 0
-0.62132883 1.7206836 0.19919045 0
-1.0442249 2.3050702 0.46029586 0
-1.0424585 2.3026295 0.64790529 0
-0.08243455 0.97600245 0.44550812 0
-0.49595177 1.5139927 -0.049580075 0
-0.61718535 1.6771559 0.068837173 0
-0.62080133 1.6820225 0.19580629 0
-1.0580506 2.2704976 0.45674211 0
-1.0582535 2.2707708 0.6437335 0
-0.090515271 0.96833301 0.44480449 0
-0.52039701 1.5137198 -0.050097205 0
-0.6242336 1.6498544 0.068209812 0
-0.62534261 1.6513084 0.19346273 0
-1.0744282 2.2400804 0.45413595 0
-1.0781939 2.2450173 0.64154398 0
-0.098568812 0.96068341 0.44417027 0
-0.53182477 1.4962221 -0.049852367 0
-0.61591268 1.603633 0.066722408 0
-0.61798108 1.6062752 0.18914936 0
-1.102229 2.2248371 0.45502648 0
-1.094164 2.214535 0.63788158 0
-0.10940118 0.95663244 0.44588053 0
-0.55277252 1.4908451 -0.050166667 0
-0.62058663 1.5752568 0.066032328 0
-0.62292552 1.5781683 0.18711281 0
-1.1136967 2.1890566 0.45125556 0
-1.1097686 2.1841671 0.63428491 0
-0.12643279 0.96015769 0.45255777 0
-0.56562281 1.4752913 -0.050025538 0
-0.61658537 1.5371162 0.064885989 0
-0.61811602 1.5389732 0.18351935 0
-1.1256536 2.1546898 0.44780925 0
-1.1263376 2.1555195 0.63128406 0
-0.13627215 0.95442659 0.45344105 0
-0.58021581 1.4619474 -0.049993757 0
-0.61624432 1.5045508 0.06398572 0
-0.62105787 1.5102427 0.1813518 0
-1.1436876 2.1282465 0.44623294 0
-1.1355315 2.118602 0.62555724 0
-0.14536126 0.94773674 0.45378631 0
-0.59474289 1.448557 -0.049968068 0
-0.61781907 1.4751577 0.063225292 0
-0.62343407 1.4816303 0.17918248 0
-1.1652936 2.1062493 0.44575477 0
-1.162287 2.1027834 0.62693268 0
-0.6129123 1.4392827 -0.050147474 0
-0.62974644 1.4582013 0.063051574 0
-0.63269317 1.4615129 0.17821509 0
-1.1694794 2.0647676 0.44063282 0
-1.1763452 2.0724838 0.6234926 0
-0.62122273 1.4190129 -0.04980851 0
-0.65595472 1.4570698 0.063647948 0
-0.65593088 1.4570438 0.17953014 0
-1.1794339 2.0306611 0.43726516 0
-1.1809456 2.0323174 0.61666554 0
-0.63179016 1.4015 -0.049605414 0
-0.50409764 1.2650739 0.0549342 0
-0.69369829 1.4676424 0.18312159 0
-1.1886386 1.9964342 0.43385869 0
-1.1893967 1.9972442 0.61155748 0
-0.65800083 1.4004864 -0.050222903 0
-0.50104785 1.2369747 0.054131202 0
-0.72373116 1.4689634 0.18544504 0
-1.2048986 1.9702376 0.43244708 0
-1.1975285 1.9625595 0.60656208 0
-0.66495883 1.3792893 -0.049853403 0
-0.51279402 1.2247097 0.054109517 0
-0.74207294 1.4576271 0.18594542 0
-1.2022876 1.9251446 0.42628732 0
-1.2172021 1.9402958 0.60598767 0
-0.67545021 1.3619548 -0.04967954 0
-0.52952558 1.2174011 0.054346446 0
-0.77676523 1.4623178 0.1889347 0
-1.2194709 1.9008641 0.42537391 0
-1.2227244 1.9040872 0.60043973 0
-0.6915611 1.3502146 -0.049797617 0
-0.5505861 1.214038 0.054799981 0
-0.80629468 1.461043 0.19110753 0
-1.2262282 1.8666832 0.42193434 0
-1.2194422 1.8601283 0.59199834 0
-0.70445752 1.3353281 -0.049763948 0
-0.56204462 1.2011874 0.054779336 0
-0.82950151 1.4531087 0.19232367 0
-1.2348211 1.8348848 0.41909739 0
-1.2268158 1.8273445 0.5875864 0
-0.71912086 1.3220922 -0.049825449 0
-0.87189996 1.4624089 0.069231227 0
-0.86492181 1.4560001 0.19532268 0
-1.231443 1.7926235 0.41346037 0
-1.2403911 1.8008417 0.58551735 0
-0.23568214 0.87808841 0.38164991 0
-0.72957599 1.3050257 -0.049692627 0
-0.90171862 1.4591759 0.069942281 0
-0.90657711 1.4635267 0.19918224 0
-1.2366756 1.7591232 0.41010061 0
-1.2358654 1.7583977 0.57738733 0
-0.23184241 0.85931528 0.37525061 0
-0.74680626 1.2939943 -0.049892593 0
-0.93820655 1.4610951 0.070963576 0
-1.2406765 1.7251644 0.40658429 0
-1.252751 1.735706 0.57677978 0
-0.23241843 0.84491158 0.37147886 0
-0.7586112 1.2781563 -0.04984263 0
-0.96649361 1.4550838 0.07158839 0
-1.238233 1.6863596 0.40168107 0
-1.2417251 1.6893318 0.56692392 0
-0.24120547 0.83779508 0.37231076 0
-0.25826401 0.85231352 0.45987469 0
-0.76709783 1.259607 -0.049648557 0
-1.0119207 1.4627148 0.073005326 0
-1.2463226 1.6571772 0.39941216 0
-1.2421106 1.6536829 0.56114799 0
-0.25172555 0.83204842 0.37411478 0
-0.78632748 1.2499162 -0.049960461 0
-1.0459327 1.4598258 0.073879384 0
-1.2464491 1.6219577 0.39540499 0
-1.2436337 1.6196814 0.55595183 0
-0.24573632 0.81280923 0.36714888 0
-0.79413712 1.230943 -0.049755793 0
-1.0774399 1.4541734 0.074632645 0
-1.2474165 1.5881076 0.39173284 0
-1.2446618 1.585937 0.55078584 0
-0.26782185 0.81622905 0.37517899 0
-0.80956888 1.2179996 -0.049906965 0
-1.1263148 1.4611803 0.076163575 0
-1.247789 1.5544419 0.38805816 0
-1.2313467 1.5418184 0.54119354 0
-0.26162446 0.79731673 0.36834601 0
-0.2447188 0.78433746 0.43321168 0
-0.8269546 1.2063806 -0.050151136 0
-1.1641479 1.4585756 0.077183947 0
-1.2530314 1.5250537 0.38561055 0
-1.235817 1.5121787 0.53753525 0
-0.2728911 0.79198295 0.37073016 0
-0.2717405 0.79112238 0.44603786 0
-0.84189749 1.192765 -0.050291669 0
-1.2123948 1.4626617 0.078656435 0
-1.2501458 1.4901623 0.38145468 0
-1.2466127 1.4875885 0.53602535 0
-1.2420233 1.4842453 0.69526821 0
-0.26010299 0.76894438 0.36080512 0
-0.27769297 0.78175825 0.44565156 0
-0.84608281 1.1713932 -0.049967617 0
-1.2529689 1.4600267 0.079777718 0
-1.2549217 1.461412 0.37912744 0
-1.2377926 1.4492611 0.52849025 0
-1.2359028 1.4479206 0.68656057 0
-0.28449309 0.77301699 0.3699891 0
-0.27374446 0.76539224 0.43926761 0
-0.85434234 1.1531087 -0.049834866 0
-1.302561 1.4626535 0.081282012 0
-1.2494473 1.4259726 0.37465343 0
-1.22553 1.4094551 0.52010328 0
-1.2405336 1.4198166 0.68246102 0
-0.2866382 0.76104605 0.44330588 0
-0.87906229 1.1459976 -0.05042126 0
-1.2743583 1.4117051 0.079425693 0
-1.2796324 1.4152503 0.22771163 0
-1.2491484 1.3947598 0.37143916 0
-1.2425878 1.3903499 0.5209552 0
-1.2348756 1.3851659 0.6744141 0
-0.29308373 0.75211859 0.4434559 0
-0.87247837 1.1179146 -0.049671285 0
-1.2673168 1.3761568 0.078514814 0
-1.260421 1.3716466 0.22340117 0
-1.2520138 1.3661479 0.36901823 0
-1.2372597 1.3564981 0.51504934 0
-1.236061 1.355714 0.6693278 0
-0.29436946 0.73980522 0.44058734 0
-0.89408195 1.1083879 -0.050135043 0
-1.2792468 1.3534349 0.078432977 0
-1.2759033 1.3513077 0.22361448 0
-1.2433295 1.3305838 0.36422509 0
-1.2429684 1.3303542 0.5126574 0
-1.241487 1.3294116 0.6661011 0
-0.2978363 0.72904861 0.43912745 0
-0.90137982 1.0896226 -0.049999688 0
-1.2974573 1.3346617 0.078627504 0
-1.2949994 1.3331411 0.2243153 0
-1.2438184 1.3014772 0.36150992 0
-1.2363353 1.2968477 0.50668049 0
-1.2461057 1.3028923 0.66271365 0
-0.91524243 1.0749129 -0.050148722 0
-1.3016615 1.3073004 0.078246944 0
-1.3074335 1.3107717 0.22420418 0
-1.2535892 1.2783904 0.36084601 0
-1.2290399 1.2636267 0.50067759 0
-1.2422017 1.2715421 0.65617323 0
-0.9091351 1.048408 -0.049478594 0
-1.342182 1.3014677 0.079385161 0
-1.3290516 1.2937945 0.22527224 0
-1.2450041 1.2446797 0.35641363 0
-1.2324899 1.2373668 0.49801809 0
-1.2376643 1.2403905 0.6495893 0
-0.93027055 1.0379061 -0.049945347 0
-1.382422 1.2945477 0.080506779 0
-1.3681221 1.2864311 0.22851589 0
-1.2499778 1.2193722 0.35491297 0
-1.2409264 1.2142346 0.49693769 0
-1.2372068 1.2121233 0.64476371 0
-0.93587887 1.0184681 -0.049781337 0
-1.243489 1.1879829 0.35112816 0
-1.2415042 1.1868891 0.49366066 0
-1.2435013 1.1879896 0.642672 0
-0.95328975 1.0054693 -0.050106209 0
-1.2421998 1.159969 0.34851325 0
-1.235062 1.1561519 0.48847452 0
-1.2405547 1.1590892 0.63722283 0
-0.96170151 0.98754138 -0.050073646 0
-1.2583572 1.1414113 0.3495318 0
-1.2372708 1.1304742 0.48592016 0
-1.2456197 1.1348046 0.63494867 0
-0.97325957 0.97121751 -0.050176065 0
-1.2718995 1.1213754 0.35006338 0
-1.240391 1.1055328 0.48373479 0
-1.2277572 1.0991803 0.62426531 0
-0.96945322 0.94732535 -0.049675897 0
-1.2678479 1.0926822 0.34711301 0
-1.2376257 1.07796 0.47998196 0
-1.2344021 1.0763898 0.6228832 0
-0.98143864 0.93126786 -0.049813945 0
-1.2958177 1.079543 0.35063747 0
-1.2265543 1.0468752 0.4740065 0
-1.2432065 1.0547292 0.62240958 0
-0.99427927 0.91549021 -0.049992722 0
-1.2965819 1.0534436 0.34878138 0
-1.2386482 1.027006 0.47467193 0
-1.2491817 1.0318129 0.62100399 0
-1.0045825 0.89845181 -0.050079275 0
-1.3135893 1.03479 0.35020247 0
-1.2427495 1.0035344 0.47317481 0
-1.2437583 1.0039796 0.61556649 0
-1.0086294 0.87867683 -0.049930908 0
-1.3292521 1.0153434 0.3513985 0
-1.2457505 0.97975063 0.47146276 0
-1.2451081 0.97947675 0.61273474 0
-1.0124575 0.85892159 -0.049784493 0
-1.3292692 0.98927474 0.34958506 0
-1.2393802 0.95228964 0.46725696 0
-1.2339064 0.95003742 0.60551345 0
-1.0237012 0.84221667 -0.049933225 0
-1.3408035 0.9680444 0.35007918 0
-1.2401602 0.92810863 0.46512994 0
-1.2419922 0.92883563 0.6053648 0
-1.0299598 0.82349026 -0.049898759 0
-1.3415072 0.9425956 0.34853148 0
-1.2463486 0.9062162 0.46457377 0
-1.2389994 0.90340656 0.6013661 0
-1.0388104 0.80574012 -0.049972046 0
-1.3589098 0.92351717 0.35026169 0
-1.2369523 0.87864423 0.45985851 0
-1.2460418 0.88198858 0.60105723 0
-1.0498595 0.78870946 -0.050136749 0
-1.3644778 0.89999241 0.34976631 0
-1.2427032 0.85691983 0.45935753 0
-1.2341472 0.85389352 0.59416246 0
-1.0530951 0.76889932 -0.05001425 0
-1.3767784 0.87882316 0.35061195 0
-1.2425519 0.83323944 0.45734227 0
-1.2398674 0.83232778 0.59361064 0
-1.0559669 0.74905825 -0.049887978 0
-1.3836443 0.8557561 0.35047403 0
-1.2446237 0.8104884 0.45601189 0
-1.2400755 0.80900741 0.59122771 0
-1.0631824 0.73066139 -0.049934004 0
-1.3813497 0.82984942 0.34866107 0
-1.2265822 0.78160095 0.44938833 0
-1.2408273 0.78604186 0.58914614 0
-1.0658584 0.71087468 -0.049819391 0
-1.393136 0.80839884 0.34956628 0
-1.2401798 0.76282001 0.45130956 0
-1.2389289 0.76244724 0.58625287 0
-1.0746192 0.69289881 -0.049940303 0
-1.399001 0.78512931 0.34940872 0
-1.2440001 0.74105835 0.45069334 0
-1.2378997 0.73932385 0.58377355 0
-1.0784097 0.67348558 -0.049885351 0
-1.4146653 0.76453191 0.35113749 0
-1.2358625 0.71611834 0.44699109 0
-1.2348878 0.71585447 0.58071995 0
-1.0735166 0.6518749 -0.04951949 0
-1.4177125 0.74043506 0.35055944 0
-1.2293214 0.69196278 0.44380426 0
-1.2399127 0.6946879 0.58053869 0
-1.0894613 0.63560921 -0.049930513 0
-1.4079639 0.71329629 0.34766424 0
