# .PCD v0.7 - Point Cloud Data file format
VERSION 0.7
FIELDS x y z intensity
SIZE 4 4 4 4
TYPE F F F F
COUNT 1 1 1 1
WIDTH 1353
HEIGHT 1
VIEWPOINT 0 0 0 1 0 0 0
POINTS 1353
DATA ascii
-1.2403356 0.18003984 0.43334675 0
-1.2381967 0.18014766 0.56255102 0
-1.2421972 0.17994599 0.70028287 0
-1.1200125 0.16649327 -0.049538255 0
-0.51127142 0.20487055 0.10763238 0
-0.50945616 0.20498501 0.17622548 0
-1.2431872 0.15872788 0.43438107 0
-1.2340064 0.15930668 0.56155181 0
-1.1317595 0.14596067 -0.050007366 0
-0.50817341 0.19316365 0.1073873 0
-0.50712597 0.19324294 0.17595279 0
-1.2347962 0.13816121 0.43260846 0
-1.2286274 0.13862817 0.56024259 0
-1.1283351 0.12643351 -0.04994252 0
-0.51410812 0.18071425 0.10813237 0
-0.50828207 0.18122911 0.17633773 0
-1.2406873 0.11650469 0.43455818 0
-1.2386252 0.11668692 0.56415457 0
-1.1341751 0.10601277 -0.050218835 0
-0.49931294 0.17018281 0.10665612 0
-0.50929064 0.16917428 0.17672384 0
-1.2434131 0.094971307 0.43576863 0
-1.2387463 0.095443018 0.56486112 0
-1.1199424 0.087677263 -0.049783539 0
-0.51785797 0.15620302 0.040149577 0
-0.5126248 0.15679862 0.10823224 0
-0.5145824 0.15657581 0.17791548 0
-1.2375709 0.074289463 0.43485031 0
-1.2493948 0.07294374 0.56918329 0
-1.1176994 0.068130337 -0.049787313 0
-0.51036662 0.14501126 0.039931715 0
-0.51254338 0.14473571 0.10837825 0
-0.51207495 0.14479502 0.17772005 0
-1.2356104 0.053204227 0.43499565 0
-1.2361616 0.05313446 0.56559855 0
-1.1222475 0.047630865 -0.050044753 0
-0.51044303 0.13291778 0.039991338 0
-0.51491547 0.1322943 0.10880724 0
-0.50830406 0.13321595 0.1773212 0
-1.2344902 0.031983975 0.43542609 0
-1.2462002 0.030351583 0.5699085 0
-1.1221474 0.027652297 -0.050144143 0
-0.50787133 0.12118305 0.039960939 0
-0.51716685 0.11976769 0.10924093 0
-0.51933962 0.11943687 0.17964925 0
-1.242143 0.0093815522 0.43819031 0
-1.2357938 0.01034831 0.56744283 0
-1.106927 0.010096927 -0.049705707 0
-0.502792 0.1098823 0.039845079 0
-0.52640206 0.10598261 0.1104534 0
-0.52273202 0.1065888 0.18061674 0
-1.2370257 -0.011391561 0.43773159 0
-1.2388657 -0.011695455 0.56960183 0
-1.1080923 -0.010066311 -0.049868491 0
-0.51206791 0.096105494 0.040254682 0
-0.50493896 0.0973754 0.10833646 0
-0.51313984 0.095914535 0.17923738 0
-1.2367017 -0.032975953 0.43858173 0
-1.2480065 -0.034989696 0.57391018 0
-1.1073102 -0.029977392 -0.049970102 0
-0.51009947 0.084182002 0.040262867 0
-0.51168305 0.083879314 0.10931256 0
-0.51516527 0.083213665 0.18001249 0
-1.2451036 -0.056317192 0.441771 0
-1.2329336 -0.053990852 0.57012665 0
-1.092912 -0.047183882 -0.049584948 0
-0.51953787 0.069920965 0.04069218 0
-0.51231349 0.071396463 0.10963921 0
-0.50721222 0.072438337 0.17898226 0
-1.2387437 -0.07696826 0.44120097 0
-1.2460294 -0.07845629 0.57597947 0
-1.0861825 -0.065782674 -0.049486831 0
-0.50951612 0.059578512 0.040418241 0
-0.5129438 0.058833364 0.109984 0
-0.51552409 0.05827244 0.18097608 0
-1.2390769 -0.09902028 0.44244471 0
-1.2496737 -0.10132391 0.57873517 0
-1.1052276 -0.090257533 -0.050341327 0
-0.50824547 0.047414232 0.040468901 0
-0.50958914 0.047104362 0.10990769 0
-0.52010626 0.044678975 0.18231836 0
-1.2368658 -0.12061501 0.44309846 0
-1.2445422 -0.1223853 0.57860076 0
-1.0953733 -0.1083071 -0.050147768 0
-0.51216692 0.033944774 0.04071613 0
-0.51247782 0.033868928 0.11053814 0
-0.50430149 0.035863254 0.17991196 0
-1.2484425 -0.14564274 0.44744644 0
-1.2261674 -0.14020957 0.57402158 0
-1.0801545 -0.12483866 -0.049764194 0
-0.55644095 0.0099106925 0.042457972 0
-0.55567503 0.010107775 0.11566209 0
-0.5637356 0.0080338316 0.19152957 0
-1.2496977 -0.16846143 0.44917223 0
-1.239905 -0.16594179 0.58053601 0
-1.0733773 -0.14337881 -0.049699213 0
-0.62706184 -0.022532087 0.045191422 0
-0.61759377 -0.019968461 0.12292125 0
-1.2388998 -0.18819661 0.31829697 0
-1.2433252 -0.18939485 0.44896364 0
-1.2458338 -0.19007407 0.58449268 0
-1.0758618 -0.16450797 -0.049986422 0
-0.69462848 -0.056113075 0.047836445 0
-0.69031119 -0.054885518 0.13145518 0
-1.243848 -0.21227096 0.32031798 0
-1.2519592 -0.21457721 0.45280445 0
-1.239071 -0.21091278 0.58417875 0
-1.0607972 -0.18062238 -0.049630851 0
-0.77071667 -0.09418238 0.050824583 0
-0.78154087 -0.097407855 0.14214638 0
-1.2429155 -0.2348911 0.32129693 0
-1.2471517 -0.23615341 0.45316559 0
-1.2406592 -0.23421876 0.58685356 0
-1.0679716 -0.20341025 -0.050113097 0
-0.87878585 -0.14443199 0.055038329 0
-0.88543892 -0.14650609 0.15436587 0
-1.2531232 -0.2611309 0.32443789 0
-1.2386761 -0.25662705 0.45262033 0
-1.234949 -0.25546518 0.58709764 0
-1.0602175 -0.22169824 -0.050047576 0
-0.98632085 -0.19763611 0.059273034 0
-0.98947227 -0.19866224 0.16672055 0
-1.2448854 -0.28182951 0.32415578 0
-1.2371433 -0.27930853 0.45400479 0
-1.2342544 -0.27836785 0.58919096 0
-1.0564065 -0.24127977 -0.050139103 0
-1.135892 -0.26827326 0.065136015 0
-1.1276796 -0.2654843 0.18308124 0
-1.2302197 -0.3003073 0.3226977 0
-1.2264376 -0.29902282 0.45300037 0
-1.0509346 -0.26034555 -0.050177455 0
-1.2935039 -0.34614429 0.20275882 0
-1.2256572 -0.32214639 0.32321024 0
-1.2428564 -0.32822987 0.45939898 0
-1.0372921 -0.27643731 -0.049914286 0
-1.2561562 -0.35696599 0.19937798 0
-1.2283509 -0.34673527 0.32517231 0
-1.2478058 -0.35389355 0.46280909 0
-1.0396274 -0.2984421 -0.050268266 0
-1.2465605 -0.37755308 0.19918945 0
-1.2384831 -0.37446508 0.32863972 0
-1.2342701 -0.37285444 0.46127462 0
-1.0162286 -0.31050733 -0.049646202 0
-1.2473829 -0.40223053 0.20023446 0
-1.236927 -0.39808157 0.3299242 0
-1.2398413 -0.39923802 0.46504241 0
-1.0172658 -0.33215585 -0.04997012 0
-1.2508314 -0.42825714 0.20162609 0
-1.2418476 -0.42456076 0.33253628 0
-1.2384762 -0.42317352 0.46700755 0
-1.0157056 -0.35294893 -0.050205529 0
-1.2446922 -0.45055529 0.20194329 0
-1.2437865 -0.45016924 0.33464304 0
-1.2445837 -0.4505091 0.47113916 0
-1.0007643 -0.36802301 -0.049930278 0
-1.2495556 -0.47779325 0.20358759 0
-1.2452331 -0.47588608 0.33672789 0
-1.2415785 -0.47427365 0.47284827 0
-0.98772883 -0.38375685 -0.049735665 0
-1.2301238 -0.49437174 0.20241176 0
-1.2436142 -0.50052804 0.33828107 0
-1.2502415 -0.50355238 0.47792321 0
-0.98351657 -0.40350381 -0.049895968 0
-1.2404153 -0.52466857 0.20478545 0
-1.2402151 -0.5245741 0.3395502 0
-1.2414547 -0.52515882 0.47820973 0
-0.97338319 -0.4204956 -0.04983196 0
-1.5016338 -0.67782205 0.082809791 0
-1.248862 -0.55468947 0.20699869 0
-1.2472781 -0.55391788 0.34298652 0
-1.2358421 -0.54834706 0.47947577 0
-0.97513449 -0.44341609 -0.050250985 0
-1.4478931 -0.68112189 0.081142493 0
-1.2422426 -0.57771963 0.20745903 0
-1.2434026 -0.57830286 0.34431094 0
-1.2444966 -0.57885289 0.48490721 0
-0.9606185 -0.45823547 -0.05003009 0
-1.408675 -0.69063437 0.080050007 0
-1.2468914 -0.60672009 0.20932156 0
-1.2334208 -0.59973317 0.34446561 0
-0.95458174 -0.47741613 -0.050158516 0
-1.3466589 -0.68708611 0.078031987 0
-1.241231 -0.63070673 0.20998465 0
-1.2390447 -0.62953752 0.34786797 0
-0.93865216 -0.49125221 -0.049894385 0
-1.3068776 -0.6941703 0.076904461 0
-1.2398219 -0.65721786 0.21121095 0
-1.2544073 -0.66525543 0.35337642 0
-0.9327091 -0.51054603 -0.050045449 0
-1.2579927 -0.69517732 0.075398788 0
-1.2408419 -0.68544245 0.21278732 0
-1.2450945 -0.68785632 0.35390028 0
-0.91582286 -0.52357197 -0.049755134 0
-1.2511767 -0.71954268 0.075622074 0
-1.2422034 -0.7142989 0.21446192 0
-1.246313 -0.71670043 0.35668704 0
-0.91702819 -0.54724264 -0.050223116 0
-1.2497725 -0.74735099 0.076085247 0
-1.2438511 -0.74378985 0.21623054 0
-1.2345496 -0.73819607 0.35683912 0
-0.89842272 -0.55904901 -0.049875546 0
-1.2540822 -0.77908295 0.076806568 0
-1.2347776 -0.76713985 0.21670486 0
-1.2423329 -0.77181405 0.36119488 0
-0.89800096 -0.58213717 -0.05030087 0
-1.2568552 -0.81044501 0.077485502 0
-1.2392696 -0.79925674 0.21894823 0
-1.2386802 -0.79888183 0.3632313 0
-0.88513708 -0.59744978 -0.050211292 0
-1.2416042 -0.83059543 0.077417932 0
-1.2336314 -0.82538086 0.219961 0
-1.237752 -0.82807583 0.3659448 0
-0.8741641 -0.6139611 -0.050210554 0
-1.2443309 -0.86277741 0.078134008 0
-1.2372708 -0.85803181 0.22222616 0
-1.2359178 -0.85712236 0.3685641 0
-0.85977685 -0.62811774 -0.050070658 0
-1.2326047 -0.88559681 0.078246772 0
-1.242623 -0.89251548 0.22478828 0
-1.2453952 -0.89442998 0.37376529 0
-0.85242379 -0.64714706 -0.05024517 0
-1.2548063 -0.9325859 0.079858139 0
-1.2446822 -0.92540413 0.22699644 0
-1.6041256 -1.1803833 0.45634249 0
-0.83204043 -0.65684032 -0.049856283 0
-1.243681 -0.95670873 0.080038339 0
-1.246165 -0.95851833 0.22920315 0
-1.5705467 -1.194821 0.45294508 0
-0.82368279 -0.67518938 -0.050005272 0
-1.2396357 -0.98629075 0.080549359 0
-1.2369417 -0.98427576 0.23004961 0
-0.80380118 -0.68482733 -0.049647361 0
-1.2371098 -1.0174986 0.081150413 0
-1.2340302 -1.0151343 0.23180324 0
-0.79441535 -0.70241803 -0.049768437 0
-1.1564994 -0.98772472 0.078226104 0
-1.1558008 -0.98717421 0.223322 0
-1.161499 -0.99166423 0.37200546 0
-0.79304743 -0.72660565 -0.050268985 0
-1.1429379 -1.0095172 0.078333072 0
-1.1430666 -1.0096213 0.22375739 0
-1.1420953 -1.008836 0.37120247 0
-0.77521813 -0.73759955 -0.05002524 0
-1.2415541 -1.1244769 0.083657488 0
-1.2380904 -1.1216034 0.2392837 0
-1.3411676 -1.2071174 0.42163739 0
-0.75619268 -0.74735373 -0.049729247 0
-1.244525 -1.1629705 0.084622815 0
-1.239717 -1.1588784 0.24199469 0
-1.3116428 -1.2200941 0.41906631 0
-1.0237222 -0.97504658 0.49388725 0
-0.74599802 -0.76454455 -0.049854286 0
-1.2832705 -1.2336066 0.41678169 0
-0.99352598 -0.98064727 0.48898482 0
-0.72546363 -0.77259904 -0.049495552 0
-1.1952566 -1.1932892 0.08400961 0
-1.1985673 -1.1962538 0.24130493 0
-1.1910447 -1.1895175 0.39905384 0
-0.96078241 -0.98332232 0.48317841 0
-0.72000813 -0.79416305 -0.049868461 0
-0.92823648 -0.98540574 0.47738457 0
-0.70245445 -0.8046971 -0.049665704 0
-0.89205956 -0.98328882 0.47025815 0
-0.68983054 -0.81979877 -0.049711715 0
-0.85677433 -0.98106033 0.4633514 0
-0.68767893 -0.84532434 -0.050294064 0
-0.83364522 -0.98991925 0.46071357 0
-0.66458309 -0.85016328 -0.049834277 0
-0.818519 -1.006542 0.46099254 0
-0.65142179 -0.86488825 -0.049883723 0
-0.63879788 -0.88024288 -0.049971532 0
-0.62013972 -0.88908213 -0.049751155 0
-0.61061573 -0.90795761 -0.050024137 0
-0.5963484 -0.92166358 -0.050055537 0
-0.57862616 -0.93132347 -0.049905866 0
-0.5591799 -0.9387309 -0.049663905 0
-0.54260665 -0.94944698 -0.049587175 0
-0.53337306 -0.96945566 -0.049942035 0
-0.51671129 -0.98014349 -0.049880236 0
-0.50905949 -1.0028896 -0.05036471 0
-0.48786068 -1.0075039 -0.050050005 0
-0.46869725 -1.0146267 -0.049859352 0
-0.45147502 -1.0243472 -0.049793296 0
-0.43796545 -1.0395505 -0.049972497 0
-0.41903281 -1.0466428 -0.049812209 0
-0.37138885 -0.9732942 0.49700558 0
-0.4089886 -1.0675977 -0.05024872 0
-0.35560739 -0.98310643 0.49692211 0
-0.38733542 -1.0702494 -0.049920283 0
-0.33218211 -0.98046941 0.49205628 0
-0.37282169 -1.0844123 -0.050084338 0
-0.31277716 -0.98385268 0.48967445 0
-0.35111159 -1.0864075 -0.04975256 0
-0.292005 -0.98452586 0.48636189 0
-0.33934009 -1.1055716 -0.050137918 0
-0.275621 -0.99248236 0.48595428 0
-0.32165635 -1.1144994 -0.050110143 0
-0.25297791 -0.98893744 0.48126653 0
-0.30313587 -1.1218154 -0.050026443 0
-0.22893377 -0.98200172 0.47544059 0
-0.28243452 -1.1247723 -0.049777642 0
-0.20838781 -0.98090523 0.47195089 0
-0.26951379 -1.1429396 -0.050147686 0
-0.18599905 -0.97552961 0.46698853 0
-0.24683042 -1.1415113 -0.049744971 0
-0.1670052 -0.97632235 0.46444002 0
-0.2305208 -1.1530451 -0.049866807 0
-0.15188475 -0.98494643 0.46487102 0
-0.21421678 -1.1648073 -0.05000497 0
-0.12619932 -0.97031027 0.45687521 0
-0.2002597 -1.1821853 -0.050369237 0
-0.11319412 -0.98315734 0.45902127 0
-0.1777304 -1.179944 -0.049978003 0
-0.10821898 -1.0154332 0.46823239 0
-0.15905 -1.186419 -0.049935803 0
-0.07174398 -0.9723143 0.34674194 0
-0.08483614 -1.0044208 0.46186578 0
-0.13880558 -1.1888431 -0.04974746 0
-0.055357888 -0.97659522 0.34620175 0
-0.0644546 -0.99973255 0.45789701 0
-0.12438245 -1.2062731 -0.050142616 0
-0.031838998 -0.96189791 0.14691959 0
-0.03175436 -0.96167451 0.24243993 0
-0.015434815 -0.91858023 0.32872534 0
-0.049554214 -1.0086776 0.45888868 0
-0.10322906 -1.2060549 -0.049872309 0
-0.011631323 -0.95466465 0.14543456 0
-0.008882029 -0.94711918 0.2385426 0
0.0030678676 -0.91432267 0.32606307 0
-0.084232464 -1.2114288 -0.049824812 0
0.0066146119 -0.95198864 0.14450403 0
0.010683374 -0.94036907 0.23620902 0
0.022678094 -0.90611476 0.32240775 0
-0.0064436928 -0.9892804 0.44791421 0
-0.066081211 -1.2192225 -0.049877692 0
0.025863158 -0.94565314 0.14318864 0
0.022864835 -0.95457429 0.2379193 0
0.026545303 -0.94362348 0.33113942 0
0.01281728 -0.98446959 0.44432062 0
-0.05013226 -1.2339846 -0.05020031 0
0.035021439 -0.96964377 0.14533004 0
0.034652397 -0.97078949 0.2400326 0
0.022503542 -1.0085028 0.34718531 0
0.020330476 -1.0152487 0.4532662 0
-0.028273029 -1.2303588 -0.049842242 0
0.026840495 -1.0515889 0.35733706 0
-0.010527415 -1.2398156 -0.049982667 0
0.06925641 -0.9689557 0.33402815 0
0.0085254479 -1.2449968 -0.049972344 0
0.084182933 -0.9756797 0.33462378 0
0.026340412 -1.2547915 -0.050141435 0
0.100015 -0.97925431 0.3344354 0
0.048659965 -1.2473447 -0.04968318 0
0.1169848 -0.97828382 0.33310375 0
0.064259186 -1.2664636 -0.050212137 0
0.084153846 -1.268382 -0.050117038 0
0.10620455 -1.2599241 -0.049652521 0
0.12364076 -1.2727818 -0.049975507 0
0.14363752 -1.2732621 -0.049856093 0
-0.067486241 -2.3969228 0.10267419 0
0.16313381 -1.2761333 -0.049832728 0
0.0026099251 -2.194025 0.095099993 0
0.18305965 -1.2762685 -0.049719352 0
0.034443632 -2.1940227 0.094911173 0
0.20149696 -1.2858698 -0.04995694 0
0.065293208 -2.199754 0.094944149 0
0.22129644 -1.2867341 -0.049887691 0
0.096168295 -2.205507 0.094991863 0
0.241583 -1.2832778 -0.049672097 0
0.12861063 -2.1988735 0.094607934 0
0.26017877 -1.2937509 -0.049966328 0
0.15961792 -2.202795 0.094618343 0
0.27984977 -1.2954023 -0.049952149 0
0.19108205 -2.2021756 0.094479874 0
0.29850695 -1.3088731 -0.050370358 0
0.22213319 -2.2053118 0.094490312 0
0.31952354 -1.2939329 -0.049779627 0
0.25324994 -2.2077136 0.094488464 0
0.33880299 -1.301085 -0.049988944 0
0.28535736 -2.1936319 0.093911089 0
0.35860178 -1.3004404 -0.049928155 0
0.31601614 -2.2016838 0.094139606 0
0.37785849 -1.3142971 -0.050394326 0
0.34715185 -2.2007668 0.094061419 0
0.39786422 -1.3092322 -0.050193343 0
0.3782323 -2.2000759 0.094005331 0
0.41778314 -1.2986795 -0.049805447 0
0.43749878 -1.3094621 -0.050188188 0
0.4572978 -1.3081913 -0.050149497 0
0.47705588 -1.3063272 -0.050098505 0
0.49687934 -1.3068632 -0.050142132 0
0.51717103 -1.3155057 -0.050484538 0
0.53617841 -1.3010454 -0.050009765 0
0.55551481 -1.2949773 -0.049843624 0
0.57503366 -1.2921529 -0.049802311 0
0.59493065 -1.2932061 -0.049908943 0
0.61457658 -1.2914398 -0.04992339 0
0.63554472 -1.2997578 -0.0503098 0
0.654082 -1.2890775 -0.050021287 0
0.6743806 -1.2910292 -0.050197039 0
0.69404304 -1.2884383 -0.050217945 0
0.71321571 -1.283047 -0.050146259 0
0.72999603 -1.2655989 -0.049644668 0
0.75007427 -1.2657688 -0.049791846 0
0.77023679 -1.2658241 -0.049944479 0
0.7908814 -1.2674543 -0.050164595 0
0.80878669 -1.2573453 -0.049963221 0
0.82745093 -1.2506986 -0.049897227 0
0.84706485 -1.2476804 -0.049974017 0
0.86580932 -1.2414335 -0.049940292 0
0.88822973 -1.2474535 -0.050372634 0
0.90487808 -1.2341365 -0.050093405 0
0.92429042 -1.229838 -0.050159842 0
0.94178104 -1.2197847 -0.05001856 0
0.96306878 -1.2206471 -0.050298795 0
0.97567487 -1.1975647 -0.049678586 0
0.99739313 -1.1993006 -0.050011151 0
0.92721379 -1.0174479 0.46310803 0
1.0189368 -1.1999612 -0.050314531 0
0.94308752 -1.0105516 0.46290514 0
1.0334452 -1.1831087 -0.049952988 0
0.95848489 -1.0025407 0.4623715 0
1.0519508 -1.1761899 -0.0499826 0
0.97708642 -1.0020772 0.46463823 0
1.0718503 -1.1723444 -0.050141558 0
0.98836112 -0.98471934 0.46085072 0
1.0893136 -1.1629292 -0.050092366 0
1.0040056 -0.9775371 0.46081963 0
1.1023167 -1.1442071 -0.049683634 0
1.0229741 -0.97734457 0.46343571 0
1.1251354 -1.1461222 -0.050099656 0
1.0400589 -0.97286016 0.46456552 0
1.1405401 -1.1327506 -0.049917981 0
1.0628015 -0.97934562 0.46987402 0
1.1621875 -1.1315924 -0.050234899 0
1.0844824 -0.98292643 0.47423434 0
1.1774204 -1.1180518 -0.050062835 0
1.1020695 -0.97820765 0.47559059 0
1.198958 -1.1161109 -0.05037104 0
1.1310962 -0.99387699 0.0573797 0
1.1261346 -0.98493999 0.15956648 0
1.1342547 -0.99956614 0.26672333 0
1.1315771 -0.99474317 0.37342739 0
1.1308535 -0.99343997 0.48463228 0
1.2087089 -1.0931112 -0.049826533 0
1.1432171 -0.97856885 0.057115976 0
1.1463125 -0.9839825 0.16054133 0
1.1411264 -0.97491235 0.26345792 0
1.1467853 -0.98480934 0.373124 0
1.1514802 -0.99302059 0.48787946 0
1.2334951 -1.0964067 -0.050372373 0
1.1562102 -0.96510369 0.056932937 0
1.1665596 -0.98268658 0.16151281 0
1.163213 -0.97700101 0.26578268 0
1.1665202 -0.9826197 0.37516749 0
1.1648328 -0.97975308 0.48629066 0
1.2431587 -1.0739852 -0.049861956 0
1.2600046 -1.0637666 -0.049865916 0
1.2764158 -1.0528584 -0.049849626 0
1.2928377 -1.0419816 -0.049843345 0
1.3101448 -1.0324153 -0.049902376 0
1.3256774 -1.0202183 -0.049856976 0
1.3399755 -1.0063422 -0.049746048 0
1.3669596 -1.0098931 -0.050413541 0
1.3786705 -0.99236876 -0.050160699 0
1.3912642 -0.97627324 -0.049976483 0
1.4072057 -0.96460313 -0.049999252 0
1.4238567 -0.95377451 -0.050070178 0
1.4412316 -0.94372982 -0.05018802 0
1.4503522 -0.92391568 -0.049858138 0
1.4655613 -0.91137904 -0.049875867 0
1.2122102 -0.6230225 0.048172139 0
1.4870281 -0.90576321 -0.050235555 0
1.4999402 -0.890513 -0.050144151 0
1.5110008 -0.87339872 -0.0499679 0
1.5257591 -0.8602621 -0.049994428 0
1.5374053 -0.84397274 -0.049871664 0
1.5507586 -0.8294701 -0.049845967 0
1.5728589 -0.82333153 -0.050261207 0
1.5760349 -0.79918724 -0.04975272 0
1.5968076 -0.79148108 -0.050112832 0
1.6047784 -0.77211231 -0.049863528 0
1.618541 -0.75796407 -0.049901467 0
1.6309217 -0.74261576 -0.049882922 0
1.6412692 -0.72561496 -0.049779706 0
1.6583155 -0.71405035 -0.049993347 0
1.6785597 -0.70477819 -0.050356168 0
1.6777999 -0.67926455 -0.049779952 0
1.6963596 -0.66851276 -0.050080668 0
1.7072042 -0.6519497 -0.050045431 0
1.7122213 -0.63133419 -0.04976568 0
1.7295872 -0.61936766 -0.05003307 0
1.740224 -0.60270917 -0.050016459 0
1.7549095 -0.58867258 -0.050180942 0
1.7748455 -0.5777896 -0.050572902 0
1.7713517 -0.5522871 -0.0499878 0
1.7923362 -0.54177254 -0.05043637 0
1.7979819 -0.52205479 -0.05025522 0
1.798106 -0.49939159 -0.049859669 0
1.8137252 -0.48545441 -0.050107908 0
1.8181516 -0.46542057 -0.049909975 0
1.8310437 -0.44986358 -0.050062828 0
1.8302336 -0.42740098 -0.049676735 0
1.8501554 -0.41517499 -0.050124999 0
1.856308 -0.39620855 -0.050034821 0
1.8711216 -0.3811951 -0.050293442 0
1.8723348 -0.36008069 -0.050028775 0
1.8696066 -0.33751455 -0.049623262 0
1.8874142 -0.3235521 -0.050021533 0
1.9006708 -0.30751213 -0.050250236 0
1.9040505 -0.28759167 -0.05010898 0
1.9113394 -0.26918426 -0.050126273 0
1.9147223 -0.24940668 -0.050004683 0
1.9178061 -0.22961666 -0.049881734 0
1.9219495 -0.21025203 -0.049808338 0
1.930005 -0.19213085 -0.049890354 0
1.9346687 -0.17295869 -0.04985445 0
1.9519918 -0.15732296 -0.050296675 0
1.9565955 -0.13800324 -0.050275058 0
1.9597336 -0.11832873 -0.050208535 0
1.9455187 -0.094582208 -0.049514592 0
1.9612682 -0.078045763 -0.049929831 0
1.9743221 -0.060638588 -0.050253227 0
1.9701619 -0.039592724 -0.049957354 0
1.973752 -0.020186853 -0.049953166 0
1.9817604 -0.0015391813 -0.050117899 0
1.9866003 0.017732207 -0.050176259 0
1.9814767 0.038501251 -0.049883805 0
1.9785497 0.058773253 -0.049680386 0
1.9850494 0.077770852 -0.049825422 0
1.9922061 0.096803896 -0.050002452 0
1.9895029 0.11689939 -0.049834285 0
1.9905869 0.13656838 -0.049811017 0
1.9938043 0.15607604 -0.049872994 0
2.0059185 0.17512599 -0.050261848 0
1.9956429 0.19544098 -0.049858939 0
1.9956272 0.21515168 -0.0498318 0
1.9926333 0.23490264 -0.049707193 0
2.0033128 0.25448272 -0.050079636 0
1.9984055 0.27423051 -0.049904436 0
2.0011268 0.29400194 -0.050010473 0
1.9896786 0.31340513 -0.049619325 0
2.009577 0.33391765 -0.050356887 0
1.9905705 0.35274756 -0.049713027 0
1.9951291 0.37275997 -0.049920402 0
1.9815483 0.39143434 -0.049487244 0
2.0046208 0.41327667 -0.050376426 0
1.9837219 0.43102872 -0.049697813 0
1.9972725 0.45244244 -0.050264943 0
1.9824184 0.47048539 -0.049819719 0
1.983559 0.49054652 -0.049958933 0
1.9785367 0.50973219 -0.049884774 0
1.992768 0.53217268 -0.050516628 0
1.9731883 0.54882693 -0.0499327 0
1.9804633 0.5703733 -0.050332241 0
1.9696782 0.58840376 -0.05008379 0
1.9709649 0.60896188 -0.050284594 0
1.9556997 0.62574178 -0.049888153 0
1.944716 0.64330953 -0.049655806 0
1.9456742 0.66386396 -0.049871795 0
1.9433013 0.6836552 -0.049974687 0
1.9478569 0.70554245 -0.05034484 0
1.9288454 0.72052145 -0.049847074 0
1.9277622 0.74084842 -0.050026137 0
1.9261978 0.76115179 -0.050197463 0
1.9131891 0.7776193 -0.049946748 0
1.9123853 0.79830575 -0.05016597 0
1.897348 0.81382173 -0.049853414 0
1.8915969 0.83272171 -0.049902581 0
1.8958132 0.8556903 -0.050344944 0
1.8855814 0.87294936 -0.050241582 0
1.8618777 0.88428944 -0.049621835 0
1.8546525 0.90254867 -0.049648985 0
1.8551397 0.9244107 -0.049988844 0
1.8388677 0.93850827 -0.049678106 0
1.8396912 0.96082604 -0.050053474 0
1.8360002 0.98113906 -0.050261524 0
1.8276007 0.99914151 -0.050291255 0
1.8146003 1.0146737 -0.050143458 0
1.8091527 1.0343143 -0.05031155 0
1.7923172 1.0475363 -0.050021835 0
1.7771081 1.0614887 -0.049804345 0
1.7803285 1.0865071 -0.050363205 0
1.7617432 1.0983133 -0.050020687 0
1.7548743 1.1173941 -0.050179452 0
1.7493626 1.1375128 -0.050407924 0
1.7303209 1.1486117 -0.050064765 0
1.7147338 1.1618371 -0.049875177 0
1.7028722 1.1775796 -0.049854957 0
1.6992719 1.1994066 -0.050209899 0
1.671367 1.2031339 -0.049491797 0
1.6640267 1.2222186 -0.049698859 0
1.6548295 1.2400118 -0.049834106 0
1.6497684 1.2613201 -0.050171919 0
1.6361012 1.2757121 -0.050124455 0
1.6297269 1.2963506 -0.050428707 0
1.5963602 1.2934132 -0.049462352 0
1.5982225 1.3215083 -0.05018102 0
1.5780091 1.3297677 -0.049848977 0
1.5708048 1.3501164 -0.05015986 0
1.5520515 1.359479 -0.049910538 0
1.5374452 1.372757 -0.04987368 0
1.5236382 1.3868246 -0.049885798 0
1.5108024 1.4019334 -0.049957603 0
1.0223466 0.88661397 0.29123631 0
1.5006449 1.4200196 -0.050181217 0
1.0337124 0.91481578 0.30067059 0
1.4766355 1.4229749 -0.049681317 0
1.4403681 1.3827299 0.059747182 0
1.4428922 1.3855308 0.1681969 0
1.4430705 1.3857288 0.27823743 0
1.0457059 0.94478357 0.31072485 0
1.461578 1.4355896 -0.049660411 0
1.4131728 1.3804963 0.059042186 0
1.4174838 1.3854029 0.16637141 0
1.4159249 1.3836286 0.27469999 0
1.056275 0.9742859 0.32039514 0
1.4521017 1.4547024 -0.049954154 0
1.3919355 1.3844587 0.058652189 0
1.3859481 1.3774683 0.16350636 0
1.3864341 1.3780358 0.27045268 0
1.0528183 0.98854095 0.32322398 0
1.4362886 1.4665538 -0.049912676 0
1.3672105 1.3838192 0.058064751 0
1.3616029 1.3771031 0.16178688 0
1.3659805 1.3823462 0.2686643 0
1.0616268 1.0178232 0.3325552 0
1.4225073 1.4808605 -0.049993854 0
1.3467796 1.3878047 0.057710584 0
1.3408499 1.3805182 0.16065145 0
1.3440549 1.3844566 0.26644278 0
1.0625823 1.0385774 0.3380855 0
1.3993558 1.4834491 -0.049548231 0
1.3168851 1.37946 0.056809884 0
1.3182466 1.3811767 0.1591852 0
1.3181272 1.381026 0.26303178 0
1.0636415 1.0601393 0.34389868 0
1.3936512 1.5081065 -0.050115854 0
1.2975897 1.3837968 0.056507152 0
1.2955807 1.3811971 0.15768532 0
1.2975402 1.3837328 0.26112741 0
1.0525675 1.0667229 0.34335223 0
1.3736957 1.5145049 -0.049865406 0
1.2725072 1.3800963 0.055859014 0
1.2793552 1.3891926 0.15731101 0
1.2747816 1.3831174 0.25854987 0
1.0403693 1.0717479 0.34222022 0
1.3639532 1.5345376 -0.050232038 0
1.2558897 1.3871713 0.055707924 0
1.2549701 1.3859172 0.15546544 0
1.2511815 1.3807508 0.25566873 0
1.0308311 1.0802587 0.34260044 0
1.3458112 1.5432584 -0.050104551 0
1.2474115 1.4054654 0.056059595 0
1.2440407 1.4007452 0.15606783 0
1.2426964 1.3988627 0.25741789 0
1.0257187 1.0950203 0.34558195 0
1.3309437 1.556537 -0.050186332 0
1.2481474 1.4374515 0.057008222 0
1.2468141 1.4355339 0.15929577 0
1.2455157 1.4336663 0.26284179 0
1.0110654 1.096458 0.34316477 0
1.3099302 1.5608424 -0.049888708 0
1.2482883 1.4697573 0.057962179 0
1.2507509 1.4733963 0.16289063 0
1.2460335 1.4664257 0.26776671 0
1.004812 1.109985 0.34569913 0
1.2952582 1.5744013 -0.050000463 0
1.2428317 1.494792 0.058597367 0
1.2430122 1.4950662 0.16436574 0
1.2378302 1.4871973 0.2700609 0
1.1697483 1.3838153 0.34797454 0
1.0015547 1.1284142 0.35019684 0
1.2741418 1.578053 -0.049699124 0
1.2466719 1.5351744 0.059881102 0
1.2434914 1.5302097 0.16756117 0
1.2173278 1.4893701 0.26837534 0
1.1452258 1.3768235 0.34307042 0
0.98795038 1.131327 0.348544 0
1.2646455 1.5999596 -0.050179239 0
1.2440395 1.5668855 0.060788032 0
1.2445381 1.5676857 0.17102621 0
1.2049438 1.5041339 0.26943341 0
1.1332747 1.3890997 0.34408969 0
0.97527879 1.1355045 0.34746718 0
1.2424247 1.6015174 -0.049811371 0
1.1908277 1.5163289 0.26997483 0
1.1118741 1.3859736 0.34055209 0
0.96703297 1.1468356 0.34924331 0
0.84269261 0.94154507 0.47551516 0
1.2314469 1.6216712 -0.050228216 0
1.175335 1.52634 0.27009258 0
1.0935639 1.3874148 0.33847281 0
0.95767474 1.1565458 0.35042089 0
0.83545917 0.94890761 0.47706485 0
1.212575 1.6286169 -0.050104603 0
1.1584383 1.5339344 0.26974806 0
1.0705187 1.3801664 0.33392265 0
0.93893075 1.1500244 0.34541479 0
0.84977931 0.99410218 0.35403478 0
0.83566123 0.96941024 0.41235009 0
0.8433249 0.98281378 0.49679896 0
1.1950933 1.6378939 -0.050086781 0
1.1480153 1.5530959 0.2718361 0
1.0517175 1.3796427 0.33145154 0
0.93395013 1.1675177 0.3496719 0
0.85010707 1.0164979 0.36218002 0
0.8397454 0.99783415 0.42574367 0
0.83901596 0.99652028 0.50262648 0
1.1790383 1.6497986 -0.050184604 0
1.1259769 1.5513216 0.26964799 0
1.0392182 1.3903055 0.33230793 0
0.91752368 1.164452 0.34615448 0
0.85190064 1.0426618 0.3720406 0
0.83896953 1.0186628 0.43470064 0
0.84133309 1.0230494 0.51708931 0
1.1596373 1.6554576 -0.050038356 0
1.1047446 1.5504363 0.26771179 0
1.0179824 1.384442 0.32844657 0
0.91157418 1.1808606 0.35004869 0
0.84916961 1.0614675 0.37838832 0
0.83675057 1.0377073 0.44259709 0
0.84490943 1.053317 0.53393936 0
1.1468033 1.6738541 -0.050412644 0
1.0947305 1.5710967 0.27019837 0
0.99386394 1.3720522 0.32281986 0
0.90088624 1.1885753 0.35070354 0
0.84720206 1.082638 0.38580927 0
0.84156907 1.0715221 0.45874402 0
0.83771777 1.0639223 0.53757989 0
1.1207612 1.6659579 -0.04974534 0
1.0799891 1.5829239 0.27092028 0
0.98079813 1.3809174 0.3233557 0
0.89085287 1.1977403 0.35194191 0
0.8480196 1.1105084 0.3962864 0
0.84053075 1.0952572 0.46913898 0
0.84334677 1.1009921 0.5587427 0
1.1017168 1.6716895 -0.049633753 0
0.96421891 1.3825226 0.32188401 0
0.87364 1.1920291 0.3477394 0
0.83528805 1.1113726 0.39431494 0
0.83956003 1.1203569 0.48023525 0
0.83965582 1.1205583 0.5682382 0
1.0862151 1.6849396 -0.049827732 0
0.94707197 1.3825525 0.32003716 0
0.85944307 1.1921165 0.34576431 0
0.8389219 1.1475197 0.40850899 0
0.84038466 1.1506987 0.49416131 0
0.84214395 1.1545218 0.58710825 0
1.0700235 1.6969835 -0.04998114 0
0.93419367 1.3917329 0.3208164 0
0.84845155 1.1990447 0.3463566 0
0.84011114 1.1803013 0.4210777 0
0.84036809 1.1808786 0.50791532 0
0.83914262 1.1781247 0.59912723 0
1.0496441 1.6995693 -0.049774118 0
0.9137373 1.38349 0.31679785 0
0.84985548 1.2349197 0.35747889 0
0.8396703 1.2112318 0.43273762 0
0.83847797 1.2084589 0.52017921 0
0.84003985 1.2120913 0.61779612 0
1.0308737 1.7056583 -0.049713533 0
0.89678973 1.382671 0.31492242 0
0.85001504 1.2699982 0.36824992 0
0.84119028 1.2487407 0.44728822 0
0.84217328 1.2511086 0.54055595 0
0.83917433 1.2438846 0.63496482 0
1.015488 1.7200931 -0.049983323 0
0.88141114 1.3852787 0.31405699 0
0.84874678 1.30371 0.37847626 0
0.8410551 1.2845024 0.46097794 0
0.8397615 1.2812721 0.5540753 0
0.84467 1.2935295 0.66345829 0
0.99156249 1.712936 -0.049432974 0
0.86508328 1.3851961 0.31251308 0
0.8486827 1.3426981 0.3905403 0
0.83776283 1.3144019 0.47200039 0
0.83904582 1.3177264 0.57091933 0
0.84175676 1.3247511 0.68005842 0
0.98100978 1.7406687 -0.050225485 0
0.851587 1.3923044 0.31298965 0
0.84567147 1.3763819 0.40066582 0
0.84026116 1.361819 0.49072707 0
0.8391816 1.3589132 0.59021556 0
0.83802873 1.3558102 0.69650137 0
0.96108401 1.7438357 -0.050088178 0
0.83139694 1.380823 0.3084738 0
0.83981031 1.4043733 0.40874824 0
0.84040743 1.4060447 0.50795269 0
0.83917379 1.4025916 0.61074811 0
0.94399387 1.7549782 -0.050261982 0
0.81753892 1.38643 0.30865544 0
0.83832365 1.4470063 0.4219718 0
0.83689606 1.4428457 0.52185321 0
0.83884817 1.4485351 0.63239038 0
0.92296058 1.7545414 -0.050007969 0
1.0273106 2.0716162 0.34913117 0
0.80040568 1.3821499 0.30622771 0
0.83978432 1.5018047 0.43940815 0
0.84120429 1.5061194 0.54725456 0
0.83686846 1.4929447 0.65313739 0
0.90372789 1.7592317 -0.04995681 0
1.0083603 2.0911829 0.35144213 0
0.78597909 1.3856677 0.30595338 0
0.83787066 1.5502963 0.45456898 0
0.83959746 1.5557747 0.56661969 0
0.83976692 1.5563123 0.68376082 0
0.88708025 1.7723839 -0.050230429 0
0.98186558 2.0868516 0.34928784 0
0.77020609 1.3846328 0.30451548 0
0.84168047 1.621762 0.47766384 0
0.84038532 1.617465 0.59112465 0
0.86708182 1.7746001 -0.050104588 0
0.95848429 2.0922663 0.34903309 0
0.75611049 1.3889227 0.30454922 0
0.83923322 1.6778131 0.49532211 0
0.83842862 1.6750168 0.61375368 0
0.84292686 1.7613306 -0.049415257 0
0.73786998 1.3781148 0.04722916 0
0.74068606 1.3883871 0.13125418 0
0.73533726 1.3688761 0.21254562 0
0.73766446 1.3773652 0.30043751 0
0.83703768 1.7398486 0.51499462 0
0.83452052 1.7306668 0.63549894 0
0.82934064 1.7866927 -0.050164711 0
0.7254346 1.3880562 0.04745736 0
0.72269601 1.3775496 0.12962957 0
0.72430915 1.3837383 0.21462129 0
0.72463232 1.3849781 0.30145502 0
0.83341986 1.8023428 0.53476983 0
0.82864845 1.7840374 0.65621865 0
0.80800283 1.782919 -0.049846627 0
0.7092163 1.3833778 0.047152951 0
0.70606786 1.3706439 0.12847038 0
0.70728767 1.3755774 0.21243916 0
0.70740354 1.3760461 0.29816434 0
0.82860041 1.866226 0.55497539 0
0.82536334 1.8531337 0.6836127 0
0.78725266 1.7806864 -0.04959584 0
0.69454724 1.3843895 0.047065575 0
0.69602168 1.3906924 0.1303127 0
0.6933744 1.3793759 0.2125183 0
0.69388086 1.3815409 0.29872036 0
0.81819278 1.9129492 0.56927907 0
0.76995599 1.7932961 -0.049897965 0
0.68133366 1.391721 0.047216251 0
0.68205088 1.3949711 0.13042831 0
0.68046504 1.3877853 0.21348117 0
0.67931658 1.3825812 0.29815558 0
0.80539596 1.9538854 0.58161616 0
0.75330621 1.8100871 -0.050359707 0
0.66504228 1.3847558 0.046851322 0
0.66412187 1.3803204 0.12848529 0
0.66731358 1.3957007 0.21438055 0
0.66436225 1.3814789 0.29708183 0
0.79128069 1.9930807 0.59338439 0
0.73042256 1.7965369 -0.04972446 0
0.65035766 1.3847183 0.046746716 0
0.64924729 1.379007 0.12803194 0
0.65162325 1.3912278 0.21303214 0
0.64951587 1.3803883 0.29606274 0
0.78013378 2.0522294 0.61194688 0
0.71248347 1.807754 -0.049999777 0
0.63295734 1.3693074 0.046091266 0
0.63458228 1.3782661 0.12766264 0
0.63495964 1.3803468 0.21054851 0
0.63531286 1.3822939 0.29587144 0
0.76300639 2.0862989 0.62203461 0
0.69356441 1.8143404 -0.050115045 0
0.62098294 1.3833461 0.046511333 0
0.62222844 1.3907418 0.12875468 0
0.62094104 1.3830973 0.21060158 0
0.6219883 1.3893158 0.29705054 0
0.74586087 2.1248808 0.6336962 0
0.67389387 1.8166432 -0.050083943 0
0.60679287 1.3850776 0.04649137 0
0.60694408 1.3860503 0.12799437 0
0.60479182 1.3722079 0.20819734 0
0.60687608 1.385613 0.29550159 0
0.7276895 2.1626339 0.64512879 0
0.65342921 1.8132445 -0.049856219 0
0.59167761 1.3802382 0.04624093 0
0.59176832 1.3808744 0.12720375 0
0.59171957 1.3805321 0.2093347 0
0.5923366 1.3848591 0.29476452 0
0.70900184 2.2029233 0.65747011 0
0.63320297 1.8104588 -0.049660232 0
0.57811284 1.3859903 0.04637906 0
0.57686216 1.3763535 0.12650613 0
0.57824969 1.3870447 0.21017067 0
0.57756263 1.3817508 0.29347008 0
0.68626028 2.2192645 0.66183603 0
0.61549926 1.82807 -0.050206855 0
0.56351638 1.383782 0.046236999 0
0.56406629 1.3884821 0.12763141 0
0.56359178 1.3844265 0.2093783 0
0.56330484 1.3819742 0.29308116 0
0.66778308 2.2749298 0.67946374 0
0.59474111 1.8201321 -0.049843684 0
0.55238229 1.4138396 0.13020203 0
0.55224055 1.4124802 0.21418208 0
0.55216336 1.4117397 0.30031684 0
0.64444011 2.2968302 0.68585187 0
0.57572174 1.828413 -0.050071765 0
0.55244452 1.5741407 0.14734849 0
0.55199403 1.5692202 0.24231166 0
0.55257207 1.5755341 0.3419182 0
0.62133431 2.3266695 0.69498324 0
0.55583644 1.8278 -0.049989685 0
0.60239583 2.4181955 0.23818855 0
0.59792322 2.3614807 0.38538504 0
0.59737152 2.3544843 0.54091012 0
0.53633296 1.8321249 -0.050093319 0
0.57367593 2.3961885 0.39131191 0
0.57279569 2.3828926 0.54768556 0
0.51675951 1.8365682 -0.050209899 0
0.54833275 2.4259892 0.39640373 0
0.54792184 2.4183176 0.55632824 0
0.49659142 1.8285756 -0.049890876 0
0.52212757 2.4522197 0.40090612 0
0.5217486 2.4429643 0.56229436 0
0.47694516 1.8311653 -0.049958996 0
0.45659047 1.1129307 0.35747483 0
0.45649689 1.1096289 0.42908579 0
0.45705405 1.82145 -0.049596574 0
0.44586432 1.1106325 0.3564257 0
0.44590256 1.1130619 0.43068627 0
0.43749276 1.8362887 -0.050119728 0
0.43511114 1.0800329 0.41410995 0
0.43514547 1.0909334 0.49619296 0
0.41772461 1.8336221 -0.050026748 0
0.42472991 1.0917387 0.41998327 0
0.42482805 1.0813459 0.49052626 0
0.39829487 1.8184348 -0.049495514 0
0.4141981 1.0967891 0.35073429 0
0.4140459 1.1036946 0.42604873 0
0.41437751 1.0886477 0.49495363 0
0.37815771 1.8344034 -0.050085761 0
0.35251254 2.5747535 0.42292419 0
0.35221714 2.5832813 0.59798276 0
0.40501967 1.0589262 0.47749129 0
0.35819471 1.8377998 -0.050236072 0
0.32201523 2.6034691 0.42832378 0
0.32249177 2.593384 0.60086846 0
0.39572695 1.0435017 0.46857676 0
0.33918026 1.8235288 -0.049763609 0
0.29228732 2.6066451 0.42918253 0
0.29244357 2.6040356 0.60399222 0
0.38586751 1.0438477 0.4690944 0
0.31889185 1.8313869 -0.050091393 0
0.2608059 2.6322761 0.4341701 0
0.26075152 2.6330259 0.61190671 0
0.29955399 1.8253275 -0.049930006 0
0.35605338 1.1621643 0.038168456 0
0.23036082 2.6374841 0.43553811 0
0.22946641 2.6479821 0.61633831 0
0.27903 1.8325208 -0.050252553 0
0.19795884 2.6606727 0.44023556 0
0.19699986 2.6704688 0.62280667 0
0.26093549 1.8156545 -0.049720619 0
0.1658171 2.6755002 0.44349638 0
0.16712801 2.6636498 0.62186658 0
0.34602603 1.046458 0.47264376 0
0.2404002 1.8216081 -0.050016932 0
0.13542925 2.6723557 0.44356996 0
0.13393421 2.6844721 0.62812734 0
0.22122034 1.8160372 -0.049907822 0
0.10253279 2.6875188 0.44704556 0
0.10294922 2.6844611 0.62914199 0
0.20279263 1.8059206 -0.049643144 0
0.069093719 2.7029979 0.45066068 0
0.068902984 2.7042778 0.63537365 0
0.18203615 1.8113332 -0.04994794 0
0.036089793 2.7126014 0.45328662 0
0.036577836 2.7095876 0.63797939 0
0.16254447 1.8082476 -0.049954869 0
0.0049705966 2.7092707 0.45362628 0
0.0056135817 2.7055941 0.63828659 0
0.1432582 1.8040252 -0.049929425 0
-0.030772252 2.7302649 0.45850232 0
-0.031435654 2.7337956 0.6470533 0
0.12436272 1.7979333 -0.049844678 0
-0.088032857 2.8548546 0.10033249 0
-0.089851394 2.863904 0.29095504 0
-0.06278117 2.7291973 0.45941502 0
-0.06048806 2.7177863 0.64445835 0
0.10438178 1.7971823 -0.04996337 0
-0.11294301 2.8122876 0.099025175 0
-0.1107095 2.8018551 0.28488114 0
-0.095236614 2.7295828 0.46067241 0
-0.095560327 2.7310948 0.64960116 0
0.084629163 1.795035 -0.050040476 0
-0.14361496 2.799207 0.098805122 0
-0.14121558 2.7886508 0.28420192 0
-0.12873973 2.7337627 0.46271071 0
-0.12907512 2.7352383 0.65247619 0
0.064655587 1.79356 -0.050151631 0
-0.17395498 2.7853878 0.09857145 0
-0.17571618 2.7927086 0.28547111 0
-0.15982933 2.7266719 0.46274266 0
-0.1564218 2.712508 0.64841855 0
0.04647623 1.7846884 -0.049999934 0
-0.20823486 2.7877324 0.09894646 0
-0.20945205 2.7925255 0.28632224 0
-0.19822277 2.7483051 0.46819216 0
-0.19753422 2.7455935 0.65913081 0
0.029952692 1.7700261 -0.049642179 0
-0.25608939 2.8398011 0.10117623 0
-0.25018483 2.8177183 0.29004633 0
-0.22905172 2.7386823 0.46791512 0
-0.22840412 2.7362602 0.65881306 0
0.0034974681 1.7916391 -0.050636064 0
-0.26100874 2.7331991 0.46848521 0
-0.25902998 2.7261553 0.65839255 0
-0.0083001088 1.7609982 -0.049701244 0
-0.29328561 2.728502 0.46928075 0
-0.29416436 2.7314851 0.66217798 0
-0.031010551 1.7679826 -0.050173976 0
-0.32500738 2.7216096 0.46974164 0
-0.32655984 2.7266455 0.66338098 0
-0.049991682 1.7622924 -0.050183944 0
-0.36090642 2.7274585 0.47269404 0
-0.36088562 2.7273939 0.66619587 0
-0.067897394 1.7533705 -0.050081216 0
-0.39168608 2.7167649 0.47259742 0
-0.39076865 2.714035 0.66534179 0
-0.087808684 1.7503859 -0.050211135 0
-0.42651492 2.71766 0.47478873 0
-0.42667615 2.7181206 0.66930097 0
-0.10603298 1.7424946 -0.050164718 0
-0.45786828 2.7081079 0.47506878 0
-0.45513976 2.7006197 0.66753924 0
-0.12275644 1.7307235 -0.049978703 0
-0.48514336 2.6876614 0.47332516 0
-0.48833144 2.6960802 0.66940272 0
-0.13805462 1.7156774 -0.049674187 0
-0.52016151 2.6875606 0.475582 0
-0.51796103 2.6819637 0.66876429 0
-0.15853079 1.71389 -0.049886711 0
-0.55213696 2.6791496 0.47631758 0
-0.54896581 2.6713729 0.66919655 0
-0.17848612 1.7104768 -0.050047327 0
-0.58010077 2.6609674 0.47522262 0
-0.58373284 2.6695631 0.67217112 0
-0.19978507 1.7098445 -0.050326958 0
-0.61177266 2.6516297 0.47593185 0
-0.61543441 2.6600006 0.67312461 0
-0.21451701 1.6942148 -0.050030965 0
-0.63884211 2.6318693 0.47466061 0
-0.63952565 2.6333797 0.66941816 0
-0.23463662 1.6905875 -0.050213583 0
-0.67169511 2.6248791 0.47599208 0
-0.66920042 2.6195462 0.66937667 0
-0.24939217 1.6755568 -0.049955174 0
-0.69981217 2.6076488 0.47536325 0
-0.69866049 2.6052654 0.66931385 0
-0.26651895 1.6656804 -0.049908172 0
-0.73056734 2.595892 0.47590473 0
-0.73072529 2.5962083 0.67084545 0
-0.28447354 1.6574782 -0.049936716 0
-0.76059425 2.5825434 0.47620517 0
-0.75310981 2.5680017 0.66700763 0
-0.31268442 1.6685513 -0.050753623 0
-0.78200114 2.5528524 0.47324789 0
-0.78652906 2.561384 0.66946095 0
-0.32026201 1.6406944 -0.050006408 0
-0.81644702 2.5478497 0.47540039 0
-0.81106472 2.5380094 0.66718018 0
-0.3335526 1.6240441 -0.049716998 0
-0.61730957 2.1276584 0.08235424 0
-0.8327266 2.5099823 0.47085455 0
-0.83590114 2.5156167 0.66526085 0
-0.3501721 1.6135323 -0.04968572 0
-0.61530268 2.0705364 0.080548264 0
-0.85906124 2.4907014 0.47019327 0
-0.86231732 2.4963138 0.66433084 0
-0.37526137 1.6172423 -0.050254229 0
-0.61537755 2.0193772 0.078975558 0
-0.88670456 2.4737823 0.47009248 0
-0.88643551 2.4733317 0.66239893 0
-0.38808024 1.6002061 -0.049971085 0
-0.62422585 1.9846109 0.07807754 0
-0.91508913 2.458087 0.47032332 0
-0.91422045 2.4566729 0.66243601 0
-0.40221834 1.5856261 -0.04979619 0
-0.62299943 1.935077 0.076553404 0
-0.93496287 2.4288507 0.46774331 0
-0.93516481 2.4291701 0.65930605 0
-0.42359412 1.5824091 -0.050111156 0
-0.61715746 1.8804034 0.074797295 0
-0.95688999 2.4034276 0.46601579 0
-0.96440482 2.4149969 0.66028541 0
-0.43777579 1.5680107 -0.049960304 0
-0.61300492 1.8304842 0.073227301 0
-0.98132026 2.382179 0.46523854 0
-0.98108852 2.3818319 0.65555972 0
-0.45635885 1.5602111 -0.05010153 0
-0.61609209 1.7930698 0.072182827 0
-1.0007962 2.3538911 0.462982 0
-0.99822664 2.3501451 0.65131503 0
-0.47231287 1.5485021 -0.050083451 0
-0.61866772 1.7562023 0.071154609 0
-1.0230089 2.3300252 0.46173483 0
-1.0241543 2.3316505 0.65121698 0
-0.48243368 1.5287486 -0.049719516 0
-0.62444723 1.7249928 0.070367746 0
-0.61560488 1.7127738 0.19814117 0
-1.0418794 2.3018291 0.45957431 0
-1.0463111 2.3079531 0.64958185 0
-0.070118561 0.95898336 0.43499699 0
-0.50666344 1.5284091 -0.050221283 0
-0.62315166 1.6851856 0.069194317 0
-0.6210624 1.6823738 0.19585334 0
-1.0621752 2.2760484 0.45798934 0
-1.0644834 2.279155 0.64639843 0
-0.09214963 0.97053266 0.44617558 0
-0.52204078 1.515875 -0.050193973 0
-0.61138892 1.6330144 0.067453675 0
-0.61354458 1.6358407 0.19137205 0
-1.0762925 2.2425244 0.45469037 0
-1.0761974 2.2423999 0.64070415 0
-0.097895578 0.95980084 0.44361487 0
-0.53389597 1.4988678 -0.049972322 0
-0.61560524 1.6032405 0.066704601 0
-0.62010777 1.6089917 0.18952014 0
-1.088896 2.2078059 0.45112565 0
-1.0940869 2.2144365 0.63784969 0
-0.10574569 0.95196301 0.44291347 0
-0.55175054 1.489573 -0.05010841 0
-0.62561679 1.5815182 0.066319063 0
-0.61583948 1.5693479 0.18589689 0
-1.1139771 2.1894057 0.45133629 0
-1.1168592 2.1929932 0.63717335 0
-0.12544782 0.95893162 0.45177087 0
-0.56423658 1.4736096 -0.049947731 0
-0.61720622 1.5378693 0.064920835 0
-0.61723042 1.5378988 0.18336971 0
-1.1313524 2.1616032 0.4494251 0
-1.1258938 2.1549811 0.63110602 0
-0.14049275 0.95954674 0.45676106 0
-0.57373786 1.4542873 -0.0496356 0
-0.62094307 1.510107 0.064245507 0
-0.61906123 1.5078818 0.1810195 0
-1.1397941 2.1236424 0.44514552 0
-1.1440748 2.1287043 0.62893271 0
-0.14819796 0.95109105 0.45598429 0
-0.59330702 1.4469019 -0.04988984 0
-0.62138546 1.4792688 0.063419595 0
-0.61156499 1.4679486 0.17723595 0
-1.1588416 2.0988119 0.44397905 0
-1.1583503 2.0982456 0.62540001 0
-0.60971999 1.4356949 -0.049976025 0
-0.63526356 1.4644015 0.063347876 0
-0.62870562 1.4570316 0.17757042 0
-1.1746671 2.0705979 0.44204029 0
-1.1681018 2.0632195 0.62032872 0
-0.62374282 1.4217744 -0.049941979 0
-0.65540338 1.4564657 0.063618757 0
-0.66095936 1.4625536 0.18033181 0
-1.1794125 2.0306375 0.43725941 0
-1.1738938 2.0245905 0.61399662 0
-0.64232934 1.41276 -0.050156031 0
-0.50828367 1.2695463 0.055152897 0
-0.69054556 1.464274 0.18262576 0
-1.1944203 2.0026114 0.4353846 0
-1.1938394 2.0019908 0.61321616 0
-0.65832138 1.4008203 -0.050239429 0
-0.50685573 1.2430253 0.054430626 0
-0.7147857 1.4596442 0.18405679 0
-1.1990848 1.9641808 0.43093297 0
-1.1985629 1.9636371 0.60694319 0
-0.66781449 1.3821902 -0.04999873 0
-0.51019305 1.2220675 0.05397715 0
-0.74794424 1.4635916 0.18684487 0
-1.2093381 1.932307 0.4280999 0
-1.2067107 1.929638 0.60217214 0
-0.67417538 1.3606919 -0.049615476 0
-0.53107923 1.2189401 0.054424521 0
-0.78167224 1.4671787 0.18967699 0
-1.2185385 1.8999405 0.42513722 0
-1.2122201 1.8936814 0.59666735 0
-0.69330311 1.3518974 -0.049884088 0
-0.53670275 1.2006272 0.054110847 0
-0.80450571 1.4593149 0.19084021 0
-1.2165992 1.8573821 0.4195199 0
-1.2217121 1.8623209 0.59280354 0
-0.70927858 1.339869 -0.050000392 0
-0.56222719 1.2013593 0.054788288 0
-0.83302677 1.4564291 0.19284412 0
-1.2247247 1.8253748 0.41659594 0
-1.2269735 1.8274931 0.58764172 0
-0.7115612 1.3151492 -0.049459003 0
-0.87036347 1.4609978 0.069156751 0
-0.87280083 1.4632363 0.19647236 0
-1.2336733 1.7946719 0.4140065 0
-1.2289875 1.7903682 0.58156705 0
-0.23195733 0.87466747 0.379556 0
-0.73634028 1.311083 -0.050016794 0
-0.91270626 1.4690152 0.070468843 0
-0.9067179 1.4636527 0.19920255 0
-1.2297039 1.7528802 0.40841284 0
-1.2311244 1.7541523 0.57576364 0
-0.22908385 0.85684508 0.37371746 0
-0.74173999 1.2895714 -0.049652491 0
-0.94452417 1.4666107 0.071262993 0
-1.229857 1.7157185 0.40399399 0
-1.2383608 1.7231426 0.57190609 0
-0.23602803 0.84806293 0.37346283 0
-0.75968349 1.2790688 -0.049892899 0
-0.9728837 1.4605224 0.07188797 0
-1.2452662 1.6923456 0.40334672 0
-1.2409995 1.6887141 0.56668085 0
-0.23804368 0.83510417 0.37059173 0
-0.25172383 0.84674722 0.45557767 0
-0.779351 1.2697723 -0.05021695 0
-1.007674 1.4591917 0.072808333 0
-1.2449443 1.6560338 0.39908919 0
-1.2479358 1.6585156 0.56307906 0
-0.24412955 0.82574666 0.37002838 0
-0.78778541 1.2510951 -0.050027393 0
-1.0476971 1.4612525 0.073960401 0
-1.2471929 1.6225592 0.39557752 0
-1.2398808 1.6166468 0.55472046 0
-0.24731006 0.81408179 0.36798683 0
-0.78799617 1.2261041 -0.049476668 0
-1.0782955 1.4548476 0.074671529 0
-1.2473248 1.5880353 0.3917118 0
-1.2423433 1.5841101 0.55003279 0
-0.26893896 0.81710929 0.37576786 0
-0.80811524 1.2168835 -0.049841534 0
-1.1199576 1.4562995 0.075877436 0
-1.2572302 1.5616903 0.39020479 0
-1.2396431 1.5481879 0.54386204 0
-0.26923156 0.80315709 0.37231678 0
-0.24745162 0.78643554 0.43493551 0
-0.83116162 1.2095271 -0.050338693 0
-1.1744165 1.4662559 0.077641748 0
-1.2460803 1.5198549 0.38404509 0
-1.2402689 1.5155084 0.5389536 0
-0.26679218 0.78742141 0.36757681 0
-0.28395021 0.80025434 0.45366654 0
-0.84155214 1.1925135 -0.050276417 0
-1.2164725 1.4656323 0.078836545 0
-1.259622 1.4970654 0.38356909 0
-1.2421834 1.4843619 0.53462726 0
-1.2383175 1.4815457 0.69374287 0
-0.25772464 0.76721185 0.35958681 0
-0.27709764 0.78132457 0.44528303 0
-0.8469671 1.1720203 -0.050006323 0
-1.2534103 1.4603399 0.079797037 0
-1.2452602 1.4545584 0.37699112 0
-1.2415226 1.451907 0.52965701 0
-1.2440245 1.4536818 0.6898734 0
-0.27661723 0.76743007 0.36599106 0
-0.28332877 0.77219105 0.44514701 0
-0.86309648 1.1591544 -0.050214689 0
-1.2930442 1.456081 0.080869094 0
-1.239194 1.4188915 0.37240615 0
-1.2448169 1.4227748 0.52608341 0
-1.2377521 1.4178957 0.6813364 0
-0.28453714 0.75959504 0.44202831 0
-0.87014079 1.1400009 -0.050037488 0
-1.278322 1.4143695 0.079596207 0
-1.2711753 1.4095656 0.22661649 0
-1.2585862 1.4011036 0.37349004 0
-1.2306004 1.3822923 0.51727009 0
-1.2435341 1.390986 0.677885 0
-0.29471499 0.75321507 0.44443932 0
-0.87819052 1.1216506 -0.04991496 0
-1.2727568 1.3797147 0.078746878 0
-1.265479 1.3749547 0.22405069 0
-1.2485435 1.3638783 0.3682704 0
-1.2425978 1.3599894 0.51667666 0
-1.238529 1.3573283 0.67030895 0
-0.28951234 0.73662847 0.43768349 0
-0.8919636 1.1070403 -0.050045408 0
-1.2710104 1.3481948 0.078084461 0
-1.2717507 1.3486658 0.22308554 0
-1.2521734 1.3362105 0.36611554 0
-1.2307919 1.3226073 0.50897533 0
-1.2408986 1.3290373 0.66586906 0
-0.30562019 0.73400086 0.44374344 0
-0.8911531 1.0832956 -0.049570356 0
-1.2973143 1.3345733 0.078621499 0
-1.2879828 1.3288002 0.22342859 0
-1.247645 1.3038446 0.36232144 0
-1.2395017 1.2988067 0.50763047 0
-1.2419077 1.3002952 0.66107136 0
-0.91493154 1.074726 -0.050135776 0
-1.3139402 1.3146846 0.078758471 0
-1.3057249 1.3097441 0.22398992 0
-1.2491765 1.2757366 0.35991734 0
-1.2393951 1.2698543 0.50376052 0
-1.2429075 1.2719666 0.65644723 0
-0.92050076 1.0550498 -0.049948569 0
-1.3343004 1.2968619 0.079059258 0
-1.3387406 1.2994565 0.22647826 0
-1.2484082 1.2466689 0.35712469 0
-1.2419267 1.2428813 0.50080663 0
-1.2416108 1.2426968 0.65111005 0
-0.9299562 1.0377276 -0.049932439 0
-1.3845763 1.2957704 0.080595218 0
-1.3682809 1.2865212 0.2285355 0
-1.2568868 1.2232938 0.35634571 0
-1.2340018 1.2103041 0.49490625 0
-1.2407677 1.2141446 0.64612591 0
-0.94162321 1.0216336 -0.050015498 0
-1.2454219 1.1890479 0.35152617 0
-1.2276969 1.1792803 0.48963851 0
-1.243744 1.1881233 0.64276421 0
-0.94844496 1.0028785 -0.049910065 0
-1.2494692 1.1638564 0.34999996 0
-1.2452027 1.1615748 0.49140847 0
-1.237205 1.1572978 0.63595909 0
-0.94968772 0.98131001 -0.049590476 0
-1.2644999 1.1445975 0.3507798 0
-1.2381154 1.1309123 0.48616293 0
-1.2464721 1.1352468 0.63526815 0
-0.97050118 0.96983057 -0.050065842 0
-1.2715368 1.1211931 0.34999019 0
-1.2347224 1.1026825 0.48211601 0
-1.2354459 1.1030463 0.62712848 0
-0.97068775 0.9479267 -0.049724922 0
-1.280875 1.0990281 0.34972635 0
-1.2404877 1.0793542 0.48079416 0
-1.2394096 1.0788291 0.62473631 0
-0.98294461 0.93197817 -0.049873389 0
-1.2976686 1.0804158 0.35100654 0
-1.246133 1.0561094 0.47952935 0
-1.2399412 1.0531892 0.62120843 0
-1.0007116 0.91842556 -0.050245147 0
-1.3123426 1.0606358 0.35190579 0
-1.2403723 1.0277928 0.47515544 0
-1.2396511 1.0274637 0.61751866 0
-0.99495327 0.89420325 -0.04970352 0
-1.3187937 1.0370862 0.35122836 0
-1.2251441 0.9957667 0.46826535 0
-1.2391999 1.0019684 0.61390889 0
-1.0118868 0.88006532 -0.050057326 0
-1.3263646 1.0141127 0.3508324 0
-1.2500443 0.98158085 0.47265363 0
-1.2393289 0.97701329 0.61064464 0
-1.0123221 0.85886586 -0.049779266 0
-1.3253944 0.98768044 0.34882939 0
-1.2450792 0.95463449 0.46882921 0
-1.2400537 0.95256674 0.60772496 0
-1.040701 0.84896225 -0.050586171 0
-1.336416 0.96630347 0.34922788 0
-1.2318063 0.92479378 0.46283689 0
-1.236853 0.92679638 0.60352534 0
-1.0316747 0.82414585 -0.049964305 0
-1.3532155 0.94707167 0.35079211 0
-1.2427691 0.90484774 0.46359605 0
