# .PCD v0.7 - Point Cloud Data file format
VERSION 0.7
FIELDS x y z intensity
SIZE 4 4 4 4
TYPE F F F F
COUNT 1 1 1 1
WIDTH 1358
HEIGHT 1
VIEWPOINT 0 0 0 1 0 0 0
POINTS 1358
DATA ascii
-1.2356933 -0.2099524 0.31878904 0
-1.2418828 -0.21171226 0.45013174 0
-1.2470151 -0.2131715 0.58692646 0
-1.0651211 -0.18191083 -0.049791925 0
-0.77975059 -0.096874394 0.051161125 0
-0.77996147 -0.096937247 0.14196928 0
-1.2267451 -0.23007254 0.3182539 0
-1.2370384 -0.2331398 0.45047325 0
-1.2409118 -0.23429401 0.58694124 0
-1.063152 -0.20190777 -0.049932864 0
-0.86625564 -0.14052574 0.054569751 0
-0.86805654 -0.14108716 0.15240912 0
-1.2419622 -0.25765148 0.32232949 0
-1.2376821 -0.25631717 0.45235473 0
-1.2379035 -0.25638619 0.5881272 0
-1.0601352 -0.22167145 -0.050044488 0
-0.9853456 -0.19731854 0.059236415 0
-0.99075305 -0.19907932 0.16686533 0
-1.2463192 -0.28229639 0.32442772 0
-1.2332053 -0.27802625 0.45294815 0
-1.2432896 -0.28130987 0.59235227 0
-1.0535656 -0.24031495 -0.05003199 0
-1.1233401 -0.26401058 0.064662755 0
-1.1200489 -0.26289287 0.18221518 0
-1.2357732 -0.30219325 0.32375544 0
-1.2317798 -0.30083707 0.45443979 0
-1.041131 -0.25687799 -0.049806207 0
-1.2930046 -0.34596768 0.20270191 0
-1.2335867 -0.32495108 0.32472715 0
-1.2407347 -0.32747939 0.45882478 0
-1.0384005 -0.27684513 -0.049956452 0
-1.2476776 -0.35384634 0.19840707 0
-1.2377555 -0.35019568 0.32697961 0
-1.2459549 -0.35321251 0.4623059 0
-1.0289493 -0.29435977 -0.049860131 0
-1.2438136 -0.37650296 0.19887343 0
-1.2460347 -0.37735209 0.33009776 0
-1.2482718 -0.37820736 0.46509907 0
-1.0183772 -0.31135991 -0.049728729 0
-1.243305 -0.40061238 0.19976297 0
-1.2376034 -0.39834997 0.33005545 0
-1.2370291 -0.3981221 0.4642705 0
-1.0195642 -0.33310154 -0.050058849 0
-1.2399595 -0.42378381 0.20036265 0
-1.246698 -0.42655644 0.33348221 0
-1.241071 -0.42424116 0.46772343 0
-1.0128462 -0.35173014 -0.05009456 0
-1.2517616 -0.45356867 0.20276918 0
-1.242111 -0.44945505 0.33431455 0
-1.2275915 -0.44326612 0.46642649 0
-0.99869311 -0.36710921 -0.049849462 0
-1.2490281 -0.47756055 0.20352563 0
-1.2428432 -0.47483161 0.33625677 0
-1.2464145 -0.47640738 0.47419685 0
-0.99701118 -0.38799283 -0.050099935 0
-1.236563 -0.49731025 0.20317242 0
-1.2413301 -0.4994857 0.33782828 0
-1.2320541 -0.4952527 0.4728227 0
-0.98522019 -0.40430734 -0.049963214 0
-1.2393273 -0.52415544 0.20465617 0
-1.2376288 -0.52335435 0.33903453 0
-1.2368762 -0.52299941 0.47691819 0
-0.97589803 -0.42172065 -0.049931832 0
-1.4941077 -0.67415589 0.082510918 0
-1.2341136 -0.54750508 0.20523563 0
-1.2407874 -0.5507561 0.34168443 0
-1.2500226 -0.55525488 0.48350012 0
-0.96795011 -0.43980369 -0.049963895 0
-1.4571465 -0.68577456 0.081512257 0
-1.2446159 -0.57891297 0.20774452 0
-1.2426428 -0.57792079 0.34415755 0
-1.2403805 -0.57678336 0.48373181 0
-0.96560466 -0.46082172 -0.050230622 0
-1.3969091 -0.68453157 0.079576805 0
-1.2344742 -0.60027957 0.20781827 0
-1.243137 -0.60477275 0.3464396 0
-0.95552027 -0.47791806 -0.050196514 0
-1.3578236 -0.69305658 0.078483991 0
-1.2381058 -0.62903553 0.20960377 0
-1.2434914 -0.63191557 0.34877741 0
-0.94336486 -0.49384925 -0.050086491 0
-1.2947756 -0.68750119 0.076411143 0
-1.2391863 -0.65686756 0.21113294 0
-1.2496536 -0.6626358 0.35239753 0
-0.93353927 -0.5110172 -0.050079528 0
-1.2588845 -0.69568354 0.0754354 0
-1.2380676 -0.68386781 0.21244448 0
-1.2412145 -0.68565398 0.35309565 0
-0.91527987 -0.52325469 -0.049732685 0
-1.2516398 -0.71981329 0.075641222 0
-1.249899 -0.71879607 0.21541983 0
-1.2361819 -0.71078014 0.35457081 0
-0.91578674 -0.54649609 -0.050171398 0
-1.2469702 -0.74566561 0.075968504 0
-1.2413031 -0.74225754 0.215911 0
-1.2424073 -0.74292153 0.35849276 0
-0.89682043 -0.55805773 -0.049808282 0
-1.2543226 -0.77923161 0.076816656 0
-1.2338661 -0.76657599 0.21658969 0
-1.2422808 -0.77178186 0.36118382 0
-0.89392018 -0.57954091 -0.050128195 0
-1.2521505 -0.80745178 0.077286422 0
-1.233876 -0.79582518 0.21826121 0
-1.2453039 -0.80309576 0.36464712 0
-0.88121116 -0.59488207 -0.050043818 0
-1.254346 -0.83892912 0.07796149 0
-1.2391882 -0.8290152 0.22067457 0
-1.2439386 -0.83212215 0.36727801 0
-0.87547791 -0.61484426 -0.050267074 0
-1.2389462 -0.85915798 0.077902377 0
-1.2316443 -0.85424978 0.22149758 0
-1.244614 -0.86296767 0.3704538 0
-0.85970843 -0.62807047 -0.050067689 0
-1.2381618 -0.88943452 0.078487881 0
-1.2418174 -0.89195913 0.22468306 0
-1.2352066 -0.88739365 0.3715322 0
-0.84613681 -0.6426872 -0.049969979 0
-1.2444754 -0.9252575 0.079405941 0
-1.2441174 -0.92500347 0.22692202 0
-1.6018137 -1.1787431 0.45583123 0
-0.83268225 -0.65730792 -0.049884636 0
-1.2418501 -0.95537502 0.07995747 0
-1.2419195 -0.95542556 0.22863865 0
-1.5695931 -1.1941264 0.45273229 0
-0.82384491 -0.67531061 -0.050012495 0
-1.2425277 -0.98845369 0.080678292 0
-1.2388051 -0.98566943 0.23029968 0
-0.81115937 -0.69047654 -0.049978554 0
-1.2495015 -1.0270123 0.081708163 0
-1.2397414 -1.0195191 0.23257704 0
-0.79613388 -0.70377213 -0.049846545 0
-1.1569738 -0.98809856 0.078247666 0
-1.1542753 -0.98597223 0.22311328 0
-1.1542705 -0.98596853 0.37034574 0
-0.78859007 -0.72300154 -0.050064337 0
-1.1391269 -1.0064358 0.078158095 0
-1.136536 -1.0043409 0.22285484 0
-1.1356446 -1.00362 0.36970633 0
-0.7801671 -0.74170524 -0.050254811 0
-1.2417334 -1.1246258 0.083665811 0
-1.2373677 -1.121004 0.2391828 0
-1.3472652 -1.2121761 0.42306626 0
-0.76494718 -0.75480467 -0.050139666 0
-1.2427818 -1.161487 0.084541097 0
-1.2418308 -1.1606776 0.242293 0
-1.3099141 -1.2186228 0.41865692 0
-1.0310868 -0.9813146 0.49635458 0
-0.75068569 -0.76863712 -0.050076447 0
-1.2845159 -1.2346939 0.41707987 0
-0.98822367 -0.97601801 0.48718899 0
-0.73315895 -0.77949005 -0.049864337 0
-1.1950788 -1.19313 0.084001094 0
-1.1973816 -1.195192 0.24113388 0
-1.1956553 -1.1936462 0.40017006 0
-0.96246171 -0.98482603 0.48375353 0
-0.72866797 -0.80211645 -0.050288238 0
-0.91496623 -0.97321802 0.47278765 0
-0.70949841 -0.81133205 -0.050011177 0
-0.88773882 -0.97921902 0.46874374 0
-0.69407785 -0.82390159 -0.049922545 0
-0.85517526 -0.97951573 0.46278423 0
-0.68124628 -0.83895224 -0.049970809 0
-0.83538651 -0.9916442 0.46133885 0
-0.6678133 -0.85344487 -0.049998667 0
-0.81866419 -1.0066895 0.46104538 0
-0.64946771 -0.86285251 -0.049782977 0
-0.63632584 -0.8776018 -0.049842384 0
-0.62309909 -0.89232486 -0.049907885 0
-0.60531163 -0.90199667 -0.049739271 0
-0.59010363 -0.91446501 -0.049715314 0
-0.58003747 -0.9329924 -0.0499839 0
-0.5689795 -0.95061916 -0.05021394 0
-0.54319984 -0.95018536 -0.04962099 0
-0.53274423 -0.96865243 -0.049905617 0
-0.51575059 -0.97888404 -0.049823679 0
-0.50467914 -0.99699432 -0.050102498 0
-0.48666996 -1.0058584 -0.049977493 0
-0.47276247 -1.0203959 -0.050111316 0
-0.45067072 -1.0231748 -0.049742535 0
-0.43502009 -1.0351388 -0.049783118 0
-0.42408776 -1.054425 -0.05014351 0
-0.37677598 -0.98158783 0.50029582 0
-0.40104783 -1.0550292 -0.049717948 0
-0.35412318 -0.98075718 0.49599761 0
-0.39009207 -1.0747368 -0.050108302 0
-0.33389002 -0.98324949 0.4931418 0
-0.37120032 -1.0816969 -0.049971428 0
-0.31119269 -0.98119909 0.48864621 0
-0.35783237 -1.0979921 -0.050230704 0
-0.29180342 -0.98417848 0.48622829 0
-0.33489656 -1.0976851 -0.049814746 0
-0.27543193 -0.99214679 0.48582613 0
-0.31385982 -1.1002454 -0.049530108 0
-0.25283009 -0.98866719 0.48116401 0
-0.29991406 -1.1157449 -0.049781084 0
-0.22763939 -0.97956282 0.47452199 0
-0.28879213 -1.1371247 -0.05027362 0
-0.20760752 -0.97938937 0.47138369 0
-0.26421779 -1.1323235 -0.049724136 0
-0.18686743 -0.97727031 0.46763572 0
-0.251531 -1.1512386 -0.050130669 0
-0.16624339 -0.97474581 0.4638575 0
-0.23420806 -1.1609272 -0.050177477 0
-0.14984204 -0.98057979 0.46326715 0
-0.2141623 -1.1646868 -0.05000025 0
-0.12999894 -0.97870654 0.45994133 0
-0.19181009 -1.1628699 -0.049616557 0
-0.11565258 -0.98877722 0.46106204 0
-0.17805661 -1.180716 -0.050007928 0
-0.10422035 -1.0059698 0.46481442 0
-0.16405858 -1.1987017 -0.050409369 0
-0.082725897 -0.9992457 0.46000645 0
-0.14041246 -1.1929303 -0.049904246 0
-0.064588532 -1.0000732 0.45801878 0
-0.12445946 -1.2064763 -0.05015038 0
-0.032207832 -0.96287197 0.14703153 0
-0.053500339 -1.019098 0.46259573 0
-0.10333152 -1.2063361 -0.049882993 0
-0.082115605 -1.2053835 -0.049596142 0
-0.0078024105 -0.99316067 0.44928199 0
-0.06483312 -1.2155089 -0.049737822 0
0.015730577 -0.97580141 0.44127822 0
-0.043939844 -1.2147616 -0.049479298 0
0.019130247 -1.0189744 0.45456851 0
-0.02690251 -1.2259133 -0.049676161 0
-0.010159416 -1.2385662 -0.049936168 0
0.0089502204 -1.2434846 -0.049916271 0
0.027978467 -1.2486653 -0.049915038 0
0.046099022 -1.2574295 -0.050054647 0
0.06680657 -1.255875 -0.049823321 0
0.081599519 -1.2796198 -0.050528482 0
0.10452951 -1.267748 -0.049938172 0
0.1237037 -1.2724686 -0.049964096 0
0.13997926 -1.2927325 -0.050563373 0
0.16231428 -1.2808194 -0.050002571 0
0.00054507121 -2.205832 0.095527917 0
0.18267243 -1.2786597 -0.049805835 0
0.033413902 -2.2003815 0.09514115 0
0.20125777 -1.2874748 -0.050014868 0
0.22120707 -1.2873905 -0.049911339 0
0.24059762 -1.2912638 -0.049959376 0
0.25967744 -1.2982827 -0.050129112 0
0.27990276 -1.2948612 -0.049932737 0
0.29905987 -1.3023829 -0.05013781 0
0.31914449 -1.2991592 -0.0499667 0
0.33844873 -1.3070012 -0.050200541 0
0.35831317 -1.3065482 -0.050146461 0
0.37830862 -1.3013026 -0.049930129 0
0.39803472 -1.3014958 -0.049917076 0
0.3782908 -2.1974208 0.093910523 0
0.41770983 -1.3064448 -0.050082691 0
0.43746912 -1.300042 -0.049851879 0
0.45715594 -1.2991798 -0.049827736 0
0.47687137 -1.2998177 -0.049866013 0
0.49701765 -1.310241 -0.050262824 0
0.51670516 -1.3068088 -0.050173603 0
0.53585917 -1.296224 -0.049837258 0
0.55588496 -1.2996705 -0.050011698 0
0.57446051 -1.2858918 -0.049577847 0
0.59668243 -1.3100089 -0.050512079 0
0.61390013 -1.2856585 -0.049715582 0
0.63661337 -1.3079914 -0.050606217 0
0.65369517 -1.2863649 -0.049923465 0
0.67315865 -1.2831705 -0.049913097 0
0.69159341 -1.2738923 -0.049691319 0
0.71256232 -1.2794446 -0.05001555 0
0.7320894 -1.2763662 -0.050036274 0
0.75054348 -1.2680298 -0.049874287 0
0.77161598 -1.2720739 -0.050172973 0
0.78934658 -1.2608931 -0.049924031 0
0.8080523 -1.254375 -0.049853984 0
0.82612216 -1.2456009 -0.049709156 0
0.84685695 -1.2469221 -0.049945947 0
0.86734569 -1.2467729 -0.050138652 0
0.88492793 -1.2364992 -0.049964175 0
0.90336084 -1.229323 -0.049913224 0
0.92421794 -1.2296178 -0.050151564 0
0.9443875 -1.2273812 -0.050305285 0
0.96113473 -1.2152334 -0.050093558 0
0.97817403 -1.2042916 -0.049934782 0
0.99761498 -1.1998754 -0.050033145 0
0.92620474 -1.0148332 0.46217561 0
1.0156387 -1.1917251 -0.049997795 0
0.9429028 -1.0100904 0.46273986 0
1.0324816 -1.1807872 -0.049863249 0
0.95752394 -1.000226 0.46153766 0
1.0572443 -1.1885009 -0.050461028 0
0.97705221 -1.0019976 0.46460935 0
1.0707994 -1.1699827 -0.050049268 0
0.98401302 -0.97494787 0.45729247 0
1.0872648 -1.1584767 -0.049917385 0
1.0057895 -0.9814139 0.46223944 0
1.1091051 -1.1584837 -0.050248012 0
1.0231748 -0.97776669 0.46359122 0
1.1321476 -1.1604027 -0.050667636 0
1.040666 -0.97409672 0.46502385 0
1.1462079 -1.1439351 -0.050365631 0
1.0642136 -0.98213226 0.47091335 0
1.1615974 -1.1304635 -0.050189421 0
1.0860658 -0.98595566 0.47537148 0
1.1801057 -1.1230354 -0.050264943 0
1.1014571 -0.97707123 0.47516114 0
1.1934192 -1.1061344 -0.049963653 0
1.1270671 -0.98661953 0.05708335 0
1.127519 -0.98743361 0.15987298 0
1.1321789 -0.99582714 0.26595208 0
1.1298488 -0.99163026 0.37251899 0
1.129849 -0.99163038 0.48394373 0
1.208317 -1.0924259 -0.049798351 0
1.1421434 -0.97669095 0.057038747 0
1.1456239 -0.98277837 0.16039225 0
1.1394514 -0.97198266 0.2628493 0
1.1383921 -0.97013003 0.36880985 0
1.1506522 -0.99157244 0.48732445 0
1.2317986 -1.0935246 -0.050252978 0
1.1592047 -0.97019118 0.057143699 0
1.1617544 -0.97452301 0.16049477 0
1.1658852 -0.98154098 0.26673275 0
1.1639706 -0.97828811 0.3738851 0
1.1674643 -0.98422366 0.48801649 0
1.2437209 -1.0749133 -0.049900692 0
1.2601303 -1.0639681 -0.049874391 0
1.2779882 -1.0553126 -0.049953688 0
1.2938064 -1.0434525 -0.049906224 0
1.3045598 -1.0241625 -0.049546618 0
1.32271 -1.0159503 -0.049671397 0
1.3400578 -1.0064574 -0.049751103 0
1.3593837 -0.99956197 -0.049956165 0
1.3764359 -0.98940045 -0.050028056 0
1.3913568 -0.97639316 -0.049981888 0
1.407359 -0.96479648 -0.050008059 0
1.2089152 -0.7145741 0.050606478 0
1.2062151 -0.71116954 0.13980903 0
1.4224124 -0.9519996 -0.049988486 0
1.2064223 -0.68658686 0.049771775 0
1.2079507 -0.68846494 0.1380236 0
1.4404982 -0.94285136 -0.050147168 0
1.2056799 -0.66161072 0.049066853 0
1.2084087 -0.66487908 0.13609895 0
1.4481962 -0.92139858 -0.049739815 0
1.2054706 -0.63801759 0.048418857 0
1.2129676 -0.64677048 0.13492931 0
1.4722544 -0.91899687 -0.050237894 0
1.2078043 -0.6180079 0.047933828 0
1.2130475 -0.62397557 0.13308442 0
1.4877216 -0.9065327 -0.050272536 0
1.2067496 -0.5947454 0.047288343 0
1.2067038 -0.59469467 0.13028032 0
1.4982265 -0.88865894 -0.050054017 0
1.5212227 -0.88418275 -0.050498381 0
1.5289149 -0.86350864 -0.050156068 0
1.5424086 -0.84899193 -0.050124679 0
1.5612973 -0.83977908 -0.050372295 0
1.5662251 -0.81700379 -0.049933907 0
1.5829645 -0.80563241 -0.050090585 0
1.5969748 -0.79163271 -0.050120894 0
1.6061114 -0.77329093 -0.049927056 0
1.6214845 -0.76050144 -0.050040212 0
1.6352725 -0.74627167 -0.050085809 0
1.6379296 -0.72287965 -0.049625587 0
1.6555054 -0.71180725 -0.049864981 0
1.6668543 -0.69567364 -0.049826741 0
1.679728 -0.68072557 -0.049866315 0
1.6962007 -0.66839546 -0.050073616 0
1.699818 -0.64663994 -0.049720667 0
1.7190123 -0.63608754 -0.050061621 0
1.7238373 -0.61544991 -0.049784668 0
1.7396265 -0.60231292 -0.049990863 0
1.7501562 -0.58560628 -0.049978998 0
1.762187 -0.56984764 -0.050039392 0
1.7712189 -0.55220604 -0.049982242 0
1.7846459 -0.53721339 -0.050117191 0
1.7806624 -0.51207966 -0.049541667 0
1.7997725 -0.50032371 -0.049927842 0
1.8127671 -0.4849343 -0.050068989 0
1.8314862 -0.47244385 -0.05044803 0
1.8265791 -0.44758347 -0.049883854 0
1.8368459 -0.43067369 -0.049940135 0
1.8550857 -0.41753843 -0.050320201 0
1.8493537 -0.39298198 -0.04976112 0
1.8627785 -0.37745109 -0.049966961 0
1.8717198 -0.35981396 -0.05000484 0
1.8769336 -0.34058329 -0.049906861 0
1.8849684 -0.32256374 -0.04992735 0
1.8813183 -0.2999737 -0.049508765 0
1.9145958 -0.29154721 -0.050511077 0
1.9016033 -0.26567146 -0.049756754 0
1.9132051 -0.24888073 -0.049947351 0
1.9256494 -0.23222528 -0.050176833 0
1.9240608 -0.21092482 -0.049887449 0
1.9470847 -0.19733758 -0.050527826 0
1.9427214 -0.17530318 -0.050153881 0
1.9433225 -0.15491699 -0.049975477 0
1.9460516 -0.13521947 -0.049885727 0
1.9596338 -0.11830372 -0.050204858 0
1.9680752 -0.099933721 -0.050342239 0
1.9576668 -0.077239074 -0.049798068 0
1.9749563 -0.060772281 -0.050276369 0
1.971228 -0.039803486 -0.049996153 0
1.9827169 -0.021842074 -0.050278638 0
1.9736142 -0.00014094575 -0.049822815 0
1.992106 0.016858403 -0.050375279 0
1.9970469 0.036230747 -0.050445564 0
1.9864025 0.05772892 -0.04996321 0
1.9932966 0.076779597 -0.050121978 0
1.9930383 0.096714489 -0.050032333 0
1.9820652 0.11760389 -0.049567562 0
1.9920099 0.13645165 -0.04986199 0
1.9954817 0.1559597 -0.049933024 0
2.0072198 0.17505218 -0.05030838 0
1.9916129 0.19561869 -0.049714923 0
2.0048683 0.21486069 -0.05016188 0
2.0013306 0.23473835 -0.050017752 0
2.0015175 0.25449404 -0.050015543 0
1.9988356 0.27423322 -0.049919795 0
2.0073788 0.29412004 -0.050233722 0
1.9999347 0.31372809 -0.049985658 0
1.999949 0.33349305 -0.050012819 0
2.0007987 0.35332775 -0.050078768 0
2.0134768 0.37403265 -0.050577015 0
2.0001829 0.39296293 -0.050154764 0
1.9911259 0.41199848 -0.049892485 0
1.9821372 0.43085846 -0.049640909 0
1.9904351 0.45162061 -0.050019082 0
1.9860084 0.47096279 -0.049949013 0
1.9855753 0.49084055 -0.050031681 0
1.9847403 0.51071674 -0.050109025 0
1.9799713 0.52997619 -0.050053086 0
1.9816108 0.55038196 -0.050238475 0
1.9634193 0.56700397 -0.049711976 0
1.9588211 0.58611506 -0.049687661 0
1.9648374 0.60758936 -0.050060414 0
1.9594241 0.62662542 -0.050024811 0
1.9560386 0.64614689 -0.050072536 0
1.9481883 0.66452771 -0.049964625 0
1.9427775 0.68350983 -0.049955282 0
1.9308983 0.70060509 -0.049714256 0
1.9299235 0.72085017 -0.049887314 0
1.9258519 0.74023974 -0.049954563 0
1.9195701 0.75894743 -0.0499481 0
1.9118456 0.77715355 -0.049895983 0
1.9076458 0.79659569 -0.049986087 0
1.9045742 0.81653225 -0.050128948 0
1.8908569 0.8324334 -0.049874224 0
1.8911241 0.85379547 -0.050164387 0
1.8832973 0.87199271 -0.050153177 0
1.8796107 0.89198047 -0.050311908 0
1.8681858 0.90862173 -0.050178554 0
1.8556546 0.92464954 -0.050009105 0
1.847242 0.94252259 -0.050009657 0
1.8348359 0.95842302 -0.049860068 0
1.8286326 0.97737634 -0.049966175 0
1.8154032 0.99271715 -0.049799073 0
1.8129151 1.0137588 -0.050074998 0
1.7933463 1.0254736 -0.049664967 0
1.7923111 1.0475328 -0.050021585 0
1.7808733 1.0637209 -0.049960613 0
1.770228 1.0803459 -0.04994081 0
1.7604268 1.0974874 -0.049965207 0
1.7579838 1.1193999 -0.050311554 0
1.7388508 1.1305428 -0.049957637 0
1.7297039 1.1481912 -0.050038107 0
1.7118758 1.1598365 -0.04975063 0
1.7073519 1.1808001 -0.050051928 0
1.6937461 1.1953278 -0.049964696 0
1.6813248 1.2106798 -0.049937844 0
1.6764363 1.2318707 -0.05026013 0
1.6579187 1.2424778 -0.049975224 0
1.6490824 1.2607584 -0.050140265 0
1.6385392 1.2777607 -0.05023814 0
1.6266886 1.2937316 -0.050285503 0
1.6028423 1.2991446 -0.049771264 0
1.5978577 1.3211776 -0.050163444 0
1.5831364 1.3345366 -0.050098967 0
1.5680602 1.3474983 -0.050024442 0
1.5469337 1.3544726 -0.049654946 0
1.5389619 1.3742784 -0.04995038 0
1.5229239 1.3860897 -0.049849212 0
1.5095662 1.4006293 -0.04989345 0
1.0247908 0.88919252 0.29241833 0
1.4978688 1.4170159 -0.050035194 0
1.04092 0.92261428 0.30420354 0
1.4768579 1.4232218 -0.049693178 0
1.4394444 1.381705 0.059697926 0
1.4475611 1.3907119 0.16894643 0
1.437112 1.3791168 0.27663219 0
1.0489722 0.94840813 0.31234813 0
1.4674582 1.4422823 -0.049978476 0
1.4139407 1.3813703 0.059083719 0
1.4134562 1.3808188 0.16571563 0
1.4184402 1.3864915 0.27538726 0
1.0453197 0.96181679 0.31487304 0
1.4477541 1.4496267 -0.049715556 0
1.3901452 1.3823684 0.058553934 0
1.3907464 1.3830705 0.16429906 0
1.3962067 1.3894453 0.27316201 0
1.0519612 0.9875403 0.32278565 0
1.4346149 1.4645492 -0.049819443 0
1.3666995 1.3832072 0.058036283 0
1.3719558 1.3895026 0.16352288 0
1.3712493 1.3886565 0.27014691 0
1.0567242 1.0119514 0.33001029 0
1.418754 1.4762483 -0.049781561 0
1.3391591 1.3784405 0.057279557 0
1.3475927 1.388804 0.16179949 0
1.3421152 1.382073 0.26588854 0
1.0667086 1.0436479 0.34026039 0
1.4009174 1.4854182 -0.049637955 0
1.3242582 1.3887569 0.057233505 0
1.3171669 1.3798152 0.15899846 0
1.3208264 1.3844297 0.26381525 0
1.0586951 1.0539023 0.34125027 0
1.395345 1.5102981 -0.050214741 0
1.3010403 1.388262 0.056708619 0
1.296855 1.3828461 0.1579093 0
1.292397 1.3770771 0.25961044 0
1.0500523 1.0634681 0.34198371 0
1.3764673 1.5181865 -0.050029926 0
1.279424 1.3892838 0.056269582 0
1.271522 1.3787878 0.15591136 0
1.2734872 1.3813982 0.25816175 0
1.0429947 1.0752351 0.34367245 0
1.3541067 1.5211099 -0.049637578 0
1.250879 1.3803383 0.055405419 0
1.256798 1.38841 0.15579765 0
1.2578593 1.3898573 0.25770533 0
1.0308173 1.0802399 0.34259266 0
1.3468753 1.5447485 -0.050169926 0
1.246364 1.4039986 0.055995245 0
1.2455131 1.402807 0.15634012 0
1.2445337 1.4014354 0.25798804 0
1.0208073 1.0881426 0.34277025 0
1.3297282 1.5547887 -0.050110314 0
1.2420028 1.4286139 0.056623939 0
1.2464247 1.4349738 0.15922245 0
1.2381536 1.4230776 0.2605159 0
1.0104907 1.0956315 0.34282988 0
1.3118944 1.5637448 -0.050013822 0
1.2441349 1.4636201 0.057697617 0
1.2411641 1.4592303 0.16105236 0
1.2423762 1.4610214 0.26658985 0
0.99956238 1.1022279 0.34258294 0
1.3003975 1.5822054 -0.050334066 0
1.247649 1.502107 0.058910064 0
1.2405969 1.4913985 0.16389379 0
1.242283 1.4939588 0.27152103 0
1.1693712 1.3832426 0.3477996 0
0.99851191 1.1237936 0.34835619 0
1.2821729 1.590589 -0.050230648 0
1.2453144 1.5330553 0.059791259 0
1.2419422 1.5277915 0.16725254 0
1.2252417 1.5017231 0.27102113 0
1.1463385 1.3785604 0.34359667 0
0.98810124 1.1315625 0.34863704 0
1.2660736 1.6022519 -0.050275657 0
1.2495459 1.5757236 0.061159793 0
1.2434726 1.5659754 0.17080966 0
1.2100437 1.5123196 0.27117276 0
1.1323237 1.3875734 0.34363085 0
0.97771513 1.1394149 0.34900001 0
1.2423055 1.6013206 -0.049803156 0
1.1889864 1.5132889 0.26933384 0
1.1092429 1.3816295 0.33925629 0
0.96496964 1.1434289 0.34791827 0
0.84249961 0.94122636 0.4752942 0
1.2299041 1.6190499 -0.050119627 0
1.1754283 1.5264982 0.27012569 0
1.0915098 1.3839251 0.33743966 0
0.95485568 1.1517564 0.34857196 0
0.84083325 0.95803791 0.48334786 0
1.2149706 1.6328069 -0.050276916 0
1.1609775 1.5383751 0.27067062 0
1.0713773 1.381668 0.33436394 0
0.9450264 1.1606855 0.34950051 0
0.85434204 1.0020822 0.35784075 0
0.84397668 0.98395365 0.42073217 0
0.84335411 0.98286486 0.49683383 0
1.1970648 1.641445 -0.050231792 0
1.1476837 1.5524989 0.27171293 0
1.0538518 1.3834871 0.33257338 0
0.93458015 1.1686523 0.35010368 0
0.85184211 1.019623 0.36366004 0
0.83870202 0.99595481 0.42466816 0
0.83768123 0.99411613 0.5009957 0
1.1747899 1.641914 -0.049864851 0
1.1310976 1.5608252 0.27159491 0
1.0380515 1.3881404 0.33168048 0
0.92362535 1.175776 0.35043404 0
0.85258967 1.0439404 0.37264201 0
0.83935434 1.019377 0.43510655 0
0.83948588 1.0196211 0.51477981 0
1.1583314 1.6529591 -0.049937703 0
1.1130568 1.5663394 0.27094805 0
1.0208023 1.389837 0.32999969 0
0.91483998 1.1871088 0.35239425 0
0.85083443 1.0646527 0.37987638 0
0.83894986 1.0419151 0.44497266 0
0.83487213 1.0341134 0.52108896 0
1.1406162 1.6616448 -0.049923986 0
1.0949711 1.5715715 0.27029434 0
1.001826 1.3877643 0.32731384 0
0.89467472 1.1763178 0.34613183 0
0.85362464 1.095312 0.39169207 0
0.83984166 1.0681133 0.45683199 0
0.84071726 1.0698413 0.54151511 0
1.1251404 1.6748765 -0.050100058 0
1.0795215 1.5819718 0.27072898 0
0.97703582 1.3732554 0.32117793 0
0.88313943 1.1820315 0.34611964 0
0.84845132 1.1113876 0.39669192 0
0.84198654 1.0982219 0.47079155 0
0.84305656 1.100401 0.55835223 0
1.1028744 1.6741244 -0.049730003 0
0.9674297 1.3892751 0.32379159 0
0.87301397 1.1907127 0.3472544 0
0.84248763 1.1265138 0.40125656 0
0.8406387 1.1226254 0.48149204 0
0.84156638 1.1245763 0.57087678 0
1.0895252 1.6921333 -0.050110441 0
0.9480924 1.38477 0.32065997 0
0.86818671 1.2111183 0.35272327 0
0.84649563 1.1639791 0.41601059 0
0.84321851 1.1568571 0.49755326 0
0.83985358 1.1495445 0.58385891 0
1.0714989 1.700299 -0.050110701 0
0.93039536 1.3831969 0.31843275 0
0.85327303 1.20988 0.35030222 0
0.83913738 1.1781129 0.42008597 0
0.84054607 1.1812787 0.50813437 0
0.83793807 1.1754177 0.59737009 0
1.0493097 1.6987916 -0.049743894 0
0.91301811 1.3818173 0.31633335 0
0.85159171 1.2389575 0.3589412 0
0.84095782 1.2142262 0.43408716 0
0.84073883 1.2137169 0.52304292 0
0.83564132 1.2018616 0.61119235 0
1.0374472 1.7214929 -0.050325625 0
0.89515865 1.3787421 0.31383708 0
0.85280555 1.27672 0.37067127 0
0.84009498 1.2461023 0.44610548 0
0.84031886 1.2466416 0.53813595 0
0.84485281 1.2575631 0.64374804 0
1.0153159 1.7196633 -0.04996679 0
0.88263708 1.3883401 0.31489834 0
0.84576982 1.296276 0.37581205 0
0.84032971 1.282691 0.46017003 0
0.84139848 1.28536 0.55627853 0
0.83966368 1.2810279 0.65547186 0
0.99323291 1.7172645 -0.049598612 0
0.86025691 1.3726897 0.30909294 0
0.8506996 1.3479244 0.39240405 0
0.84409779 1.3308173 0.47928554 0
0.8404094 1.3212597 0.57281429 0
0.83850574 1.316327 0.67470336 0
0.97931087 1.7360958 -0.050051324 0
0.85120738 1.3912827 0.31271154 0
0.8472203 1.3805509 0.40214542 0
0.84035599 1.3620744 0.49083984 0
0.84230566 1.3673222 0.59470391 0
0.83747876 1.3543297 0.69556481 0
0.96230084 1.7472417 -0.050217304 0
0.83310813 1.3856128 0.30977148 0
0.83966768 1.4039741 0.40860718 0
0.84198177 1.4104515 0.5098902 0
0.83805418 1.3994576 0.609083 0
0.94357693 1.7537631 -0.050216116 0
0.81591707 1.3817033 0.3073805 0
0.84577459 1.4687217 0.42960984 0
0.83777374 1.4454036 0.52297288 0
0.83853495 1.4476223 0.63190758 0
0.92100501 1.7485993 -0.049784634 0
1.031328 2.0838232 0.3514488 0
0.80245298 1.3883709 0.30789861 0
0.84343749 1.512905 0.44329602 0
0.83948904 1.5009075 0.54498279 0
0.83914852 1.4998727 0.65678668 0
0.90290809 1.7566308 -0.049859453 0
1.0057404 2.0828714 0.34987047 0
0.79068077 1.400584 0.30994359 0
0.84036118 1.5581976 0.45732519 0
0.84144694 1.5616423 0.5691669 0
0.83736002 1.5486763 0.67975491 0
0.88566458 1.7676873 -0.050055303 0
0.98505545 2.0974345 0.35128126 0
0.77062696 1.3860291 0.30488753 0
0.8394317 1.6143013 0.4750714 0
0.83858341 1.6114869 0.58853954 0
0.86927354 1.7822175 -0.050387569 0
0.95966232 2.0963607 0.34980145 0
0.75149596 1.3728851 0.30029151 0
0.83931559 1.6780995 0.49542123 0
0.84041125 1.6819074 0.6167224 0
0.84688735 1.7757771 -0.049950048 0
0.74140888 1.3910236 0.047707025 0
0.73903024 1.3823472 0.13058113 0
0.74202549 1.3932728 0.21710786 0
0.73808604 1.3789029 0.30084431 0
0.83624762 1.7369667 0.51400042 0
0.83746117 1.7413934 0.640104 0
0.8276962 1.7803838 -0.049931947 0
0.72393137 1.3822889 0.047244582 0
0.72543889 1.3880727 0.13079825 0
0.72424465 1.3834908 0.21457517 0
0.72730756 1.3952417 0.3041611 0
0.8327089 1.7996151 0.53383207 0
0.83134067 1.794366 0.66063797 0
0.80812621 1.7834182 -0.049864978 0
0.7092905 1.3836778 0.047163989 0
0.70903021 1.3826252 0.12979677 0
0.70850188 1.3804883 0.2133515 0
0.71258169 1.3969891 0.30366847 0
0.82441849 1.8493122 0.54917884 0
0.82550013 1.8536869 0.68384868 0
0.79020679 1.7933147 -0.05005886 0
0.69413662 1.3826342 0.047001213 0
0.69230169 1.3747902 0.12855756 0
0.69436753 1.3836212 0.21330459 0
0.6933707 1.3793601 0.29814896 0
0.81666958 1.9064379 0.56705433 0
0.76930416 1.7903425 -0.049789976 0
0.68033707 1.3872054 0.047051158 0
0.67808372 1.3769946 0.1284499 0
0.67852557 1.3789968 0.21185806 0
0.67770535 1.3752801 0.29624802 0
0.80568796 1.9552085 0.58206695 0
0.75107884 1.7993537 -0.049968351 0
0.66517508 1.3853956 0.046874654 0
0.66309488 1.3753716 0.1279421 0
0.66224039 1.371254 0.20987767 0
0.66416502 1.3805283 0.29683414 0
0.79171705 1.9951835 0.59409887 0
0.73009229 1.794838 -0.049662668 0
0.64920563 1.3787926 0.046531204 0
0.65021622 1.3839908 0.12857758 0
0.64915508 1.3785324 0.21069968 0
0.65080458 1.3870168 0.29778555 0
0.7782737 2.0426621 0.60870427 0
0.71300626 1.8106364 -0.050104361 0
0.63657105 1.3892308 0.046814162 0
0.63540906 1.3828244 0.12816052 0
0.63604015 1.3863037 0.21164036 0
0.63542134 1.382892 0.2960265 0
0.76253682 2.0837104 0.62115932 0
0.69234425 1.8070949 -0.049852733 0
0.62098813 1.383377 0.046512451 0
0.61944616 1.3742205 0.12695414 0
0.62097317 1.3832881 0.2106365 0
0.6174528 1.362384 0.29008257 0
0.74651223 2.1287484 0.63500112 0
0.67412883 1.8181543 -0.050138541 0
0.60506624 1.3739727 0.046090148 0
0.60503095 1.3737457 0.12665612 0
0.60653138 1.383396 0.21023937 0
0.60619646 1.3812419 0.29437301 0
0.72750974 2.161478 0.64473957 0
0.65480447 1.8228877 -0.050203979 0
0.59196585 1.3822592 0.046313815 0
0.59080338 1.3741078 0.12646921 0
0.59246802 1.3857806 0.21029082 0
0.59181064 1.3811711 0.29381409 0
0.70949221 2.2063615 0.6586256 0
0.63518757 1.8257499 -0.050210718 0
0.57909495 1.393557 0.046651468 0
0.57831174 1.3875223 0.12771653 0
0.57530516 1.3643568 0.20604463 0
0.57732183 1.3798951 0.29299262 0
0.68805671 2.2331059 0.66647965 0
0.6145575 1.8200213 -0.049917541 0
0.56251645 1.3752357 0.045929801 0
0.56359291 1.3844361 0.12719363 0
0.56213921 1.3720114 0.20712398 0
0.56381506 1.3863347 0.29420125 0
0.66768825 2.2741196 0.67919236 0
0.59562612 1.8286213 -0.050148398 0
0.55182886 1.408531 0.12962842 0
0.55245471 1.4145343 0.21455453 0
0.5511573 1.4020897 0.29784146 0
0.64412582 2.2938156 0.68484354 0
0.5760681 1.8321966 -0.050207406 0
0.55152333 1.5640782 0.14626256 0
0.5521239 1.5706384 0.24256851 0
0.5518136 1.5672492 0.33979559 0
0.62184924 2.3322945 0.69686246 0
0.55591333 1.8287743 -0.05002458 0
0.60357171 2.4331059 0.23979592 0
0.59886152 2.3733783 0.38753742 0
0.5976364 2.3578434 0.5417698 0
0.53605855 1.8279798 -0.049945008 0
0.57427233 2.4051969 0.39294016 0
0.57261115 2.3801053 0.54697287 0
0.51612598 1.824741 -0.049787045 0
0.5483402 2.4261286 0.39642888 0
0.54852355 2.4295509 0.55919838 0
0.496746 1.8323513 -0.050025787 0
0.52204579 2.4502223 0.40054557 0
0.52160466 2.4394488 0.56139666 0
0.47701636 1.8336776 -0.050048724 0
0.45644191 1.1076883 0.35530344 0
0.45648858 1.1093347 0.42893854 0
0.45728007 1.8358083 -0.050109249 0
0.44588417 1.1118947 0.35694835 0
0.44596386 1.1169572 0.43263549 0
0.43747815 1.8316523 -0.049954198 0
0.4351469 1.0913869 0.41979083 0
0.43511853 1.0823828 0.49112195 0
0.41769886 1.8363479 -0.050124064 0
0.42481577 1.0826484 0.41543478 0
0.42490903 1.0727717 0.48544109 0
0.39802417 1.8307178 -0.049934141 0
0.41412833 1.0999541 0.352045 0
0.4141981 1.096788 0.42259234 0
0.41440448 1.0874231 0.4942272 0
0.37826699 1.8312485 -0.049973059 0
0.35246441 2.576143 0.42317495 0
0.35274437 2.5680609 0.59409726 0
0.40493467 1.0613799 0.47894734 0
0.3582215 1.8372324 -0.050215792 0
0.32248187 2.5935934 0.4265407 0
0.32258368 2.5914395 0.60037178 0
0.39564583 1.045218 0.46959576 0
0.33920017 1.8231961 -0.049751706 0
0.29218826 2.6082993 0.42948142 0
0.29146734 2.6203389 0.60815918 0
0.38620928 1.0381401 0.46570346 0
0.31892934 1.8308697 -0.050072879 0
0.26080528 2.6322846 0.43417165 0
0.26118439 2.6270573 0.61037999 0
0.29847705 1.8379681 -0.050382927 0
0.35494295 1.175198 0.038635463 0
0.22976485 2.6444793 0.43680426 0
0.23044716 2.6364706 0.61339068 0
0.2802653 1.8199021 -0.049799889 0
0.19845325 2.6556222 0.43932036 0
0.19867499 2.653357 0.61842006 0
0.26013216 1.8229165 -0.049981464 0
0.16618447 2.6721792 0.4428938 0
0.16648023 2.6695056 0.62336975 0
0.34605885 1.0461614 0.47246677 0
0.23933518 1.8302397 -0.050327428 0
0.13417105 2.6825528 0.44542298 0
0.13463123 2.678823 0.62667513 0
0.21959482 1.8279729 -0.050337877 0
0.10172187 2.6934731 0.44812933 0
0.1008559 2.6998317 0.63309968 0
0.20087472 1.8187891 -0.050107643 0
0.070894167 2.6909175 0.44845796 0
0.070888683 2.6909544 0.63193685 0
0.181096 1.8171389 -0.050157912 0
0.036690399 2.7088923 0.452609 0
0.035071537 2.7188895 0.64038348 0
0.16220097 1.8102117 -0.050026055 0
0.0022042261 2.7250891 0.45652241 0
0.0040804907 2.7143605 0.64055705 0
0.14277376 1.8066034 -0.050023086 0
-0.029831273 2.7252567 0.45758328 0
-0.028978271 2.7207167 0.64365804 0
0.12399079 1.7997843 -0.04991208 0
-0.089816228 2.8637288 0.10065565 0
-0.088886276 2.8591013 0.29042858 0
-0.064077482 2.7356479 0.46060163 0
-0.060890689 2.71979 0.64497977 0
0.10506587 1.7939869 -0.049846705 0
-0.11271138 2.8112059 0.098985672 0
-0.11449488 2.8195364 0.28682441 0
-0.094937101 2.7281837 0.46041438 0
-0.097282425 2.7391386 0.65169996 0
0.084617659 1.7950854 -0.050042327 0
-0.14205123 2.7923272 0.09855324 0
-0.14339323 2.7982316 0.28525782 0
-0.13055362 2.7417428 0.46418661 0
-0.12976415 2.7382698 0.65326935 0
0.065619633 1.7895528 -0.050004486 0
-0.17529477 2.7909572 0.098775953 0
-0.17416264 2.7862511 0.28475735 0
-0.16264166 2.7383621 0.46491107 0
-0.16313602 2.740417 0.65574217 0
0.046224371 1.7856802 -0.050036468 0
-0.21106972 2.7988961 0.099357665 0
-0.21024658 2.7956545 0.28666916 0
-0.1978329 2.7467699 0.46790648 0
-0.19651861 2.7415941 0.65807801 0
0.028713809 1.7746594 -0.049813405 0
-0.25295353 2.8280733 0.10074282 0
-0.25437337 2.8333833 0.29178897 0
-0.22496928 2.7234144 0.46506485 0
-0.22838272 2.7361803 0.6587919 0
0.0092455316 1.7711776 -0.04987729 0
-0.26277202 2.7394757 0.46966103 0
-0.25939798 2.7274654 0.65873969 0
-0.010045154 1.7669226 -0.049921732 0
-0.2923733 2.7254047 0.46869841 0
-0.2930159 2.7275863 0.66114098 0
-0.030742778 1.767114 -0.050141528 0
-0.32406962 2.7185678 0.46916759 0
-0.32479531 2.7209218 0.6618529 0
-0.049386904 1.760415 -0.050113525 0
-0.36182082 2.7302969 0.47323185 0
-0.36106056 2.727937 0.66634142 0
-0.065149322 1.745194 -0.049773257 0
-0.3939057 2.7233691 0.47385395 0
-0.39140469 2.7159276 0.66585118 0
-0.084568277 1.741132 -0.049861088 0
-0.42499214 2.7133114 0.47395775 0
-0.42574435 2.7154596 0.6685816 0
-0.10298415 1.734127 -0.049846772 0
-0.45685679 2.705332 0.47453594 0
-0.45503539 2.7003331 0.66746145 0
-0.12078466 1.7255168 -0.049779933 0
-0.48811758 2.6955154 0.47483975 0
-0.48740584 2.6936359 0.66873592 0
-0.13820876 1.7160695 -0.04968923 0
-0.5177905 2.68153 0.47441334 0
-0.52104431 2.689806 0.67091423 0
-0.15891458 1.7148311 -0.049922999 0
-0.55051219 2.6751652 0.47554156 0
-0.55113393 2.6766899 0.67066157 0
-0.17755868 1.7082818 -0.049962252 0
-0.58517909 2.672986 0.47757575 0
-0.58289015 2.6675687 0.6716187 0
-0.19121893 1.6902628 -0.049563896 0
-0.61593449 2.6611438 0.47780466 0
-0.61387849 2.6564436 0.6721341 0
-0.21482708 1.6949 -0.050057817 0
-0.64416051 2.6436217 0.47698703 0
-0.64124823 2.6371863 0.67048413 0
-0.23358251 1.6883342 -0.050124772 0
-0.67120004 2.6238208 0.47578135 0
-0.66957486 2.6203465 0.66960216 0
-0.24869992 1.6741242 -0.049898371 0
-0.70279002 2.6138113 0.47659758 0
-0.69962883 2.6072693 0.6698817 0
-0.26623929 1.6651199 -0.049885806 0
-0.72847915 2.591706 0.47506109 0
-0.73026121 2.595278 0.67058021 0
-0.28011936 1.6490184 -0.049597032 0
-0.75340772 2.5685806 0.47337306 0
-0.75965464 2.5807178 0.67065638 0
-0.30519938 1.6544479 -0.050183594 0
-0.78787422 2.5639188 0.47550732 0
-0.78468108 2.5579021 0.66845524 0
-0.31753802 1.6357143 -0.049803756 0
-0.80975783 2.5356202 0.47288644 0
-0.81113315 2.5381346 0.66721654 0
-0.34059894 1.6365501 -0.050229471 0
-0.61820304 2.1292441 0.082419217 0
-0.84152162 2.5255919 0.47408578 0
-0.83705354 2.5176618 0.66585982 0
-0.35707819 1.6254364 -0.050177053 0
-0.6232667 2.0842638 0.081114858 0
-0.85998607 2.4922955 0.47052562 0
-0.86422086 2.4995952 0.6652987 0
-0.37287438 1.6132448 -0.050088007 0
-0.61309659 2.0155571 0.078816712 0
-0.88622725 2.4729829 0.46992457 0
-0.88873279 2.4771793 0.66354221 0
-0.38831109 1.600582 -0.049986832 0
-0.61742997 1.9735485 0.077614032 0
-0.91281927 2.454392 0.46954125 0
-0.91089094 2.4512529 0.66081315 0
-0.40990734 1.5977962 -0.050310127 0
-0.61114252 1.91631 0.075760879 0
-0.94388211 2.4429681 0.47075495 0
-0.93542218 2.4295776 0.65942895 0
-0.42182279 1.5796822 -0.049995065 0
-0.61717343 1.8804281 0.074798338 0
-0.96340382 2.4134557 0.4681724 0
-0.96072614 2.4093335 0.65856248 0
-0.44462997 1.5782775 -0.050401021 0
-0.62152684 1.8432491 0.073775247 0
-0.98049128 2.3809373 0.46496928 0
-0.97886288 2.3784981 0.65453702 0
-0.45328784 1.5557342 -0.04990771 0
-0.61573255 1.7925458 0.072160132 0
-1.0017084 2.3552208 0.46327284 0
-1.0026695 2.356622 0.65331882 0
-0.47459227 1.5517368 -0.050224729 0
-0.61469817 1.7505689 0.070908576 0
-1.0230863 2.3301349 0.46175909 0
-1.0284525 2.3377504 0.65312082 0
-0.484689 1.5318652 -0.04985686 0
-0.61818409 1.7163379 0.069986343 0
-0.61647725 1.7139792 0.19830108 0
-1.0450613 2.306226 0.46055314 0
-1.0396559 2.2987566 0.6466856 0
-0.078339472 0.97034365 0.4420132 0
-0.50474977 1.5258336 -0.05010673 0
-0.62090421 1.6821609 0.069059782 0
-0.62005162 1.6810135 0.1956712 0
-1.0623934 2.2763424 0.45805538 0
-1.0605057 2.2738018 0.64469689 0
-0.09082301 0.96874714 0.44506261 0
-0.52130342 1.5149082 -0.050150566 0
-0.62144232 1.6461949 0.068045497 0
-0.62083149 1.6453941 0.19266331 0
-1.0821248 2.2501709 0.45642477 0
-1.0785351 2.2454648 0.64168757 0
-0.094225958 0.95498979 0.4405874 0
-0.53438711 1.4994951 -0.050000768 0
-0.61407566 1.6012865 0.066616014 0
-0.61353326 1.6005937 0.18837392 0
-1.0992597 2.2210443 0.45415777 0
-1.1024445 2.2251124 0.64130878 0
-0.10814168 0.95502359 0.44485822 0
-0.54376894 1.4796379 -0.04965343 0
-0.61066866 1.5629114 0.065466963 0
-0.60575223 1.5567917 0.18416595 0
-1.1120989 2.1870677 0.45079544 0
-1.1085391 2.1826367 0.633784 0
-0.13167574 0.96668386 0.45674628 0
-0.5607208 1.4693444 -0.049750395 0
-0.61673498 1.5372976 0.064894386 0
-0.62001193 1.5412731 0.18383966 0
-1.1305468 2.1606259 0.44919667 0
-1.1289235 2.1586566 0.6323213 0
-0.13887973 0.95758992 0.45549223 0
-0.58390188 1.4663062 -0.050197557 0
-0.62418377 1.513939 0.064424679 0
-0.62000597 1.5089988 0.18117672 0
-1.1504996 2.1363015 0.4481355 0
-1.1437566 2.1283281 0.62880701 0
-0.14962901 0.95278329 0.45709315 0
-0.59752333 1.4517621 -0.050119549 0
-0.61874521 1.4762253 0.063275747 0
-0.61503446 1.4719478 0.17780495 0
-1.165028 2.105943 0.44568163 0
-1.1576939 2.0974886 0.62514436 0
-0.61716425 1.444061 -0.05037583 0
-0.63562453 1.4648073 0.06336727 0
-0.63008833 1.4585855 0.17779395 0
-1.1649321 2.0596573 0.43939912 0
-1.1718258 2.0674047 0.62175798 0
-0.62876201 1.427274 -0.050207797 0
-0.65652716 1.4576972 0.063678272 0
-0.6606735 1.4622403 0.18028623 0
-1.1769757 2.0279675 0.43660748 0
-1.1842262 2.035912 0.61790711 0
-0.64580631 1.4164748 -0.050337683 0
-0.51412976 1.2757922 0.055458322 0
-0.68103814 1.4541163 0.18113054 0
-1.1859854 1.9935997 0.43315849 0
-1.1883471 1.996123 0.61116558 0
-0.64314234 1.385007 -0.049456876 0
-0.50595039 1.2420821 0.054383952 0
-0.71348107 1.458285 0.18385431 0
-1.2041494 1.969457 0.43225196 0
-1.200148 1.9652885 0.6075272 0
-0.66441667 1.3787385 -0.049825814 0
-0.50757611 1.2194091 0.053843971 0
-0.74555457 1.461164 0.18647879 0
-1.2053066 1.9282116 0.42706347 0
-1.2093176 1.9322861 0.60312021 0
-0.6854111 1.371822 -0.050180096 0
-0.52625018 1.2141565 0.054181848 0
-0.78346658 1.4689562 0.18994841 0
-1.2160167 1.8974423 0.42449704 0
-1.2180057 1.8994126 0.59874511 0
-0.69449449 1.3530481 -0.04994322 0
-0.54054546 1.204339 0.05430159 0
-0.811095 1.46568 0.19182479 0
-1.222128 1.8627228 0.42090625 0
-1.2208407 1.8614792 0.59249443 0
-0.69730949 1.3285952 -0.049413372 0
-0.56122845 1.2004186 0.054739304 0
-0.83958912 1.4626104 0.19381297 0
-1.2244486 1.8251147 0.41652754 0
-1.2239891 1.824682 0.58659571 0
-0.72865474 1.3308485 -0.050287593 0
-0.86976194 1.4604454 0.069127589 0
-0.86936021 1.4600763 0.19597031 0
-1.2314823 1.7926595 0.41346994 0
-1.2316892 1.7928495 0.58250296 0
-0.23538847 0.8778187 0.38148487 0
-0.73751152 1.3121318 -0.050072923 0
-0.90917623 1.4658542 0.070299678 0
-0.91198909 1.4683731 0.19996297 0
-1.2344178 1.7571014 0.409554 0
-1.2334001 1.7561901 0.57654303 0
-0.23679961 0.86375439 0.37800571 0
-0.75829887 1.3040279 -0.05043726 0
-0.93560123 1.4588206 0.070840113 0
-1.2344546 1.7197324 0.40509471 0
-1.2359984 1.7210802 0.57110596 0
-0.23225696 0.84477061 0.37139013 0
-0.75415087 1.2743602 -0.049633525 0
-0.97486746 1.4622108 0.071980968 0
-1.2409538 1.6886753 0.40232542 0
-1.233675 1.6824805 0.56422698 0
-0.24030031 0.83702475 0.37181863 0
-0.2576158 0.85176188 0.45944881 0
-0.77493048 1.2661051 -0.050011896 0
-1.0030584 1.4553626 0.072594225 0
-1.2494131 1.6597412 0.40013635 0
-1.2405772 1.6524107 0.56063968 0
-0.24822403 0.82914346 0.37223107 0
-0.78544915 1.2492061 -0.049920134 0
-1.0457329 1.4596642 0.073870219 0
-1.2514657 1.626014 0.39656851 0
-1.2396879 1.6164908 0.55465716 0
-0.25776297 0.82253373 0.3735525 0
-0.80174172 1.236935 -0.05010144 0
-1.0768276 1.4536909 0.074604809 0
-1.247324 1.5880347 0.39171159 0
-1.2414949 1.5834416 0.54975718 0
-0.27225626 0.81972319 0.37751651 0
-0.81214345 1.2199762 -0.050022844 0
-1.126464 1.4612949 0.076170295 0
-1.2509577 1.5568746 0.3887786 0
-1.2412337 1.549409 0.54437363 0
-0.26012278 0.7961638 0.36756212 0
-0.25297576 0.79067671 0.43842012 0
-0.81758785 1.1993749 -0.049733546 0
-1.1696123 1.4626626 0.077427566 0
-1.2532845 1.525243 0.38566756 0
-1.2346529 1.511308 0.53716433 0
-0.26725131 0.78776479 0.36781418 0
-0.27382165 0.79267895 0.44733819 0
-0.83868921 1.1904279 -0.050149959 0
-1.2105911 1.4613478 0.078576766 0
-1.2540033 1.4929724 0.3823154 0
-1.2362816 1.4800626 0.53276432 0
-1.2406703 1.4832597 0.69471133 0
-0.26900977 0.77543277 0.36536762 0
-0.27553344 0.78018504 0.44431475 0
-0.84144235 1.1681012 -0.049764495 0
-1.2574378 1.4631969 0.079973325 0
-1.2517852 1.459187 0.37843391 0
-1.2332036 1.4460058 0.52705479 0
-1.23605 1.4480249 0.68662059 0
-0.28408659 0.77272868 0.36978275 0
-0.290371 0.77718663 0.44946706 0
-0.85325766 1.1523596 -0.049787804 0
-1.3037812 1.4634962 0.081334949 0
-1.2506019 1.4267699 0.37490648 0
-1.2390611 1.4187998 0.52429873 0
-1.2419068 1.4207649 0.68301624 0
-0.27996653 0.75643849 0.4392491 0
-0.87197602 1.1412345 -0.050116435 0
-1.2793474 1.4150587 0.079640314 0
-1.281858 1.4167461 0.22799981 0
-1.2498221 1.3952127 0.37158558 0
-1.2374539 1.386899 0.51937699 0
-1.2408572 1.3891866 0.67681193 0
-0.28973365 0.74986672 0.44143623 0
-0.87846422 1.1218296 -0.049926635 0
-1.2747612 1.3810257 0.078832388 0
-1.2757421 1.3816673 0.22536862 0
-1.253292 1.3669839 0.36929366 0
-1.2407954 1.3588105 0.51612717 0
-1.2345386 1.3547183 0.66872263 0
-0.29283136 0.73879927 0.43966779 0
-0.89316082 1.1078019 -0.050096065 0
-1.2861745 1.3578424 0.07872612 0
-1.2769146 1.3519511 0.22374329 0
-1.2480184 1.333567 0.36522737 0
-1.2417557 1.3295827 0.51229066 0
-1.2374201 1.3268242 0.66449744 0
-0.30186522 0.73161191 0.4415167 0
-0.89921272 1.0882819 -0.049908713 0
-1.2866966 1.3280044 0.078175753 0
-1.2956314 1.3335321 0.22439519 0
-1.2543124 1.3079695 0.36373541 0
-1.2392712 1.298664 0.50756127 0
-1.2329769 1.29477 0.65757746 0
-0.90579629 1.0692321 -0.049755201 0
-1.320273 1.3184932 0.079022303 0
-1.2996798 1.3061087 0.22323182 0
-1.25213 1.2775129 0.36053893 0
-1.2422819 1.2715904 0.50461996 0
-1.2398585 1.2701329 0.65526354 0
-0.92170119 1.0557512 -0.049998205 0
-1.3308132 1.294824 0.078915052 0
-1.3270091 1.292601 0.22501801 0
-1.2505373 1.2479131 0.35756943 0
-1.2385464 1.240906 0.49980775 0
-1.2389643 1.2411503 0.65009028 0
-0.92770505 1.0364498 -0.049840026 0
-1.3718103 1.2885244 0.080071159 0
-1.3778578 1.291957 0.22971895 0
-1.2410157 1.2142853 0.35305443 0
-1.241627 1.2146323 0.49714324 0
-1.245664 1.2169237 0.64799905 0
-0.93788278 1.0195724 -0.049863026 0
-1.2395105 1.1857904 0.3503089 0
-1.2427995 1.1876029 0.49403802 0
-1.232163 1.1817414 0.63836491 0
-0.9526751 1.0051407 -0.050081324 0
-1.2496849 1.1639718 0.35004407 0
-1.2336996 1.1554233 0.48808035 0
-1.2346187 1.1559148 0.6349833 0
-0.94973993 0.98133707 -0.049592573 0
-1.2613795 1.1429789 0.35014585 0
-1.2494087 1.13677 0.48940873 0
-1.24814 1.1361119 0.63589323 0
-0.96397352 0.96654844 -0.049804993 0
-1.267305 1.1190653 0.34913594 0
-1.2415491 1.1061151 0.4840655 0
-1.2355201 1.1030837 0.62715614 0
-0.97139001 0.94826883 -0.049752809 0
-1.2848651 1.1009718 0.35052681 0
-1.2457721 1.0819284 0.48229384 0
-1.2349685 1.0766658 0.62309289 0
-0.98536122 0.93311793 -0.049968779 0
-1.2934464 1.0784246 0.35016462 0
-1.2423055 1.0543042 0.4784497 0
-1.2424357 1.0543656 0.62212598 0
-0.98906732 0.91311181 -0.049788192 0
-1.3003484 1.0551623 0.34952804 0
-1.2440819 1.0294856 0.47619575 0
-1.2444409 1.0296495 0.61927032 0
-1.0111467 0.90134799 -0.050335418 0
-1.3148853 1.0353618 0.35045794 0
-1.2386538 1.0017273 0.4720327 0
-1.2437925 1.0039947 0.61557889 0
-1.0225486 0.88460988 -0.050471097 0
-1.3152188 1.0093617 0.3486473 0
-1.2403457 0.97744673 0.46996376 0
-1.2471356 0.98034096 0.61346799 0
-1.0113232 0.85845494 -0.049740709 0
-1.3317664 0.99030221 0.35007206 0
-1.238819 0.95205867 0.46710211 0
-1.234933 0.95045984 0.60588282 0
-1.0283537 0.84406281 -0.050111923 0
-1.336774 0.96644551 0.34929734 0
-1.2408071 0.92836529 0.46530747 0
-1.2379062 0.92721426 0.60390228 0
-1.0339521 0.8250165 -0.050051346 0
-1.3408958 0.94236183 0.34841341 0
-1.2393998 0.90355968 0.46267575 0
-1.2432959 0.9050492 0.60289651 0
-1.0469381 0.8087306 -0.050281234 0
-1.3594278 0.92370778 0.35036123 0
-1.237239 0.87874973 0.45993644 0
-1.2544267 0.88507372 0.60402972 0
-1.0555419 0.79071933 -0.050351929 0
-1.3704562 0.90210706 0.35091001 0
-1.2393428 0.85573119 0.45844814 0
-1.2446488 0.85760796 0.59786838 0
-1.0468558 0.76678038 -0.049779002 0
-1.3681551 0.87589467 0.34896952 0
-1.23586 0.83096683 0.45553917 0
-1.2414593 0.8328684 0.59416997 0
-1.0649897 0.75199628 -0.050226752 0
-1.3781375 0.85396296 0.34942955 0
-1.2323745 0.80649984 0.45272526 0
-1.2330598 0.806723 0.58877295 0
-1.0681419 0.73220754 -0.050119471 0
-1.3847077 0.83089626 0.34929544 0
-1.2423655 0.78652138 0.45360631 0
-1.2349381 0.78420591 0.58709383 0
-1.0723891 0.71282077 -0.050062679 0
-1.3910782 0.80778563 0.349179 0
-1.2446287 0.76414573 0.45249391 0
-1.2454801 0.76439941 0.58852714 0
-1.0802654 0.69450414 -0.050149865 0
-1.4079312 0.78766841 0.3510831 0
-1.2351158 0.7385323 0.44833684 0
-1.2472615 0.74198568 0.58701169 0
-1.0890421 0.67636442 -0.050278608 0
-1.4069687 0.76244795 0.34969944 0
-1.235431 0.71600151 0.44687703 0
-1.2406379 0.71741134 0.5827018 0
-1.0921053 0.6566577 -0.050204746 0
-1.4178011 0.74045789 0.35057595 0
-1.2403104 0.69479024 0.44669923 0
-1.2398268 0.69466579 0.58050913 0
-1.0957636 0.63714641 -0.050162114 0
-1.4233148 0.7170406 0.35051394 0
-1.2425687 0.67295414 0.4459039 0
-1.2445537 0.67343831 0.58031785 0
-1.0974641 0.61721134 -0.050056886 0
-1.4287461 0.69360924 0.35049149 0
-1.2350979 0.64895147 0.4426356 0
-1.2500403 0.65239739 0.58047795 0
-1.0937301 0.59616756 -0.049762577 0
-1.4368564 0.67075962 0.35101807 0
-1.2613714 0.63261104 0.44826558 0
-1.2304248 0.62588352 0.57218158 0
-1.1189295 0.58124179 -0.050532985 0
-1.4440362 0.647641 0.35142508 0
-1.2457488 0.6071431 0.44302508 0
-1.23599 0.60514998 0.57257044 0
-1.1080099 0.5588553 -0.049995534 0
-1.4389781 0.62212127 0.34963757 0
-1.2429938 0.58465803 0.441223 0
-1.2349483 0.58312011 0.57080907 0
-1.1020312 0.53773075 -0.049648695 0
-1.4459523 0.59899455 0.35011718 0
-1.243266 0.5628894 0.44028285 0
-1.2401186 0.56232876 0.57124466 0
-1.1106501 0.51926214 -0.049840424 0
-1.442791 0.57412207 0.34879637 0
-1.2313188 0.53919309 0.43625587 0
-1.238732 0.54041749 0.56955677 0
-1.1205521 0.50084895 -0.050086528 0
-1.4474348 0.55062068 0.34895915 0
-1.253148 0.52103817 0.44103038 0
-1.2491307 0.52042651 0.57193112 0
-1.1194241 0.48071969 -0.049942978 0
-1.4568986 0.52776438 0.35005328 0
-1.2375463 0.49718618 0.43621334 0
-1.2476162 0.49858993 0.57038414 0
-1.1223135 0.46119791 -0.049953353 0
-1.4638085 0.50442702 0.35073376 0
-1.2302736 0.47486433 0.43362322 0
-1.2318794 0.47506762 0.56416249 0
-1.122081 0.44131029 -0.049860381 0
-0.51306421 0.37199554 0.039977331 0
-0.51267761 0.37195152 0.10823794 0
-0.50874603 0.37150407 0.1768561 0
-1.2396806 0.45469481 0.43539205 0
-1.2415949 0.45491266 0.56657153 0
-1.1295018 0.422259 -0.050051145 0
-0.49821621 0.35845047 0.039398599 0
-0.50882894 0.35952318 0.10768401 0
-0.50373375 0.35900816 0.17571656 0
-1.2335479 0.43277571 0.43323889 0
-1.2424237 0.43367282 0.56609082 0
-1.1279773 0.40227899 -0.04992969 0
-0.47376484 0.34446466 0.038482439 0
-0.50975305 0.34764501 0.1076625 0
-0.50954604 0.34762672 0.17656659 0
-1.2395521 0.41213915 0.43426746 0
-1.2377298 0.4119781 0.56385547 0
-1.135335 0.38305411 -0.050135382 0
-0.51027369 0.33573946 0.10761366 0
-0.51537347 0.33612549 0.17744447 0
-1.2361217 0.39068326 0.43294761 0
-1.2330611 0.39045158 0.56172186 0
-1.1356661 0.36323774 -0.050098214 0
-0.52062076 0.32446301 0.10863915 0
-0.51622397 0.32418582 0.17744847 0
-1.2417126 0.36992329 0.4340041 0
-1.2398652 0.36980683 0.56350487 0
-1.2343898 0.36946163 0.69754004 0
-1.1315463 0.34322006 -0.049910892 0
-0.51001567 0.3118878 0.10742468 0
-0.49982238 0.31137395 0.1743643 0
-1.2436502 0.34887141 0.43419346 0
-1.2492204 0.34915221 0.56622314 0
-1.2403444 0.34870476 0.69951481 0
-0.34869206 0.30375525 0.46989784 0
-1.1458378 0.32402736 -0.050390441 0
-0.50990754 0.2999922 0.10735676 0
-0.51667225 0.30024788 0.17731185 0
-1.2401084 0.32759035 0.4330515 0
-1.2457206 0.32780245 0.56474698 0
-1.2427704 0.32769096 0.70013493 0
-0.36562854 0.29453915 0.47969162 0
-1.130455 0.30374566 -0.049818728 0
-0.40471208 0.28546339 0.35276347 0
-0.40789807 0.28554365 0.42663959 0
-0.38930988 0.2850754 0.49355248 0
-1.1352272 0.28411791 -0.049975839 0
-0.39879841 0.27484268 0.42198625 0
-0.38035852 0.27461046 0.4881275 0
-1.1404468 0.26437625 -0.050157741 0
-0.38476002 0.26437423 0.4149293 0
-0.38661003 0.26437426 0.4917967 0
