# .PCD v0.7 - Point Cloud Data file format
VERSION 0.7
FIELDS x y z intensity
SIZE 4 4 4 4
TYPE F F F F
COUNT 1 1 1 1
WIDTH 1358
HEIGHT 1
VIEWPOINT 0 0 0 1 0 0 0
POINTS 1358
DATA ascii
-1.2403498 -0.30374745 0.32462713 0
-1.2457067 -0.3055667 0.45819229 0
-1.0452046 -0.25831887 -0.049960472 0
-1.3021133 -0.34918949 0.20374025 0
-1.2530367 -0.33183077 0.32844791 0
-1.2487081 -0.33029965 0.46098259 0
-1.0440056 -0.27890751 -0.050169677 0
-1.2556998 -0.35679802 0.19932571 0
-1.2389143 -0.35062197 0.32720226 0
-1.2485322 -0.35416082 0.46300653 0
-1.0387132 -0.29809257 -0.050233327 0
-1.2442547 -0.37667158 0.19892418 0
-1.2369508 -0.37387928 0.32834384 0
-1.2379394 -0.37425718 0.46227685 0
-1.0250254 -0.31399795 -0.049984083 0
-1.2453806 -0.401436 0.20000297 0
-1.2453865 -0.40143833 0.33156556 0
-1.237464 -0.39829466 0.46438986 0
-1.0150869 -0.33125934 -0.049886003 0
-1.2554499 -0.43015739 0.2021628 0
-1.2369088 -0.42252865 0.33157313 0
-1.2421495 -0.42468491 0.46802098 0
-1.004666 -0.34824327 -0.049777087 0
-1.2477299 -0.45185021 0.20229819 0
-1.2533196 -0.45423278 0.336512 0
-1.2327971 -0.44548503 0.46787021 0
-0.99515498 -0.3655481 -0.049711395 0
-1.2466702 -0.47652021 0.20324866 0
-1.2400627 -0.47360483 0.33570868 0
-1.2530909 -0.47935304 0.47605863 0
-0.99321032 -0.38625827 -0.049950775 0
-1.2469882 -0.50206774 0.20440395 0
-1.2403277 -0.49902824 0.33762956 0
-1.2346393 -0.49643239 0.47354767 0
-0.98447609 -0.40395638 -0.049933843 0
-1.2461904 -0.52739245 0.20547168 0
-1.2357757 -0.52248037 0.33866501 0
-1.2482076 -0.5283438 0.48011458 0
-0.97896731 -0.42321584 -0.050053719 0
-1.5061897 -0.68004137 0.082990713 0
-1.2438101 -0.55222851 0.20639478 0
-1.2423871 -0.55153531 0.34200534 0
-1.2388337 -0.54980439 0.48032477 0
-0.96447945 -0.4380587 -0.04982521 0
-1.447444 -0.6808961 0.081124544 0
-1.2330549 -0.57309997 0.20635384 0
-1.2422153 -0.57770586 0.34407124 0
-1.238521 -0.57584834 0.48320079 0
-0.96445251 -0.46022412 -0.050184287 0
-1.3999962 -0.68613279 0.079700962 0
-1.2355168 -0.6008203 0.2079445 0
-1.2406881 -0.60350257 0.34594205 0
-0.95243037 -0.4762657 -0.050071418 0
-1.3497161 -0.68872094 0.078155756 0
-1.2355194 -0.62765241 0.20928857 0
-1.2378445 -0.6288957 0.34762248 0
-0.94764948 -0.49621031 -0.050261144 0
-1.2993494 -0.69002169 0.076597586 0
-1.240847 -0.65778279 0.21133673 0
-1.2257673 -0.64947271 0.34747887 0
-0.93034613 -0.5092048 -0.04994845 0
-1.2437016 -0.68706566 0.074812114 0
-1.2323056 -0.68059731 0.21173246 0
-1.2407279 -0.68537778 0.35299477 0
-0.91871428 -0.52526164 -0.049874697 0
-1.2520877 -0.72007501 0.075659744 0
-1.238924 -0.71238256 0.21405372 0
-1.2470113 -0.71710849 0.35683292 0
-0.91331804 -0.54501146 -0.050068554 0
-1.2538955 -0.74983042 0.076257013 0
-1.2388014 -0.740753 0.21559729 0
-1.2341932 -0.73798174 0.35676414 0
-0.90762293 -0.56474084 -0.050261784 0
-1.2548243 -0.77954203 0.076837718 0
-1.2440434 -0.77287227 0.21787582 0
-1.2434523 -0.77250654 0.36143225 0
-0.88922966 -0.57655674 -0.049929719 0
-1.2511362 -0.8068065 0.077243507 0
-1.2380481 -0.79847962 0.21879265 0
-1.2357796 -0.79703635 0.36261129 0
-0.87544525 -0.59111089 -0.049797844 0
-1.2524667 -0.83769995 0.077881321 0
-1.2391993 -0.82902247 0.22067599 0
-1.2507249 -0.83656079 0.36874047 0
-0.86717713 -0.60926467 -0.049909998 0
-1.238109 -0.85859519 0.077866361 0
-1.2380937 -0.85858494 0.22233272 0
-1.2384 -0.85879081 0.36910349 0
-0.86389756 -0.63096356 -0.050249446 0
-1.2352369 -0.88741452 0.078360975 0
-1.2312129 -0.88463551 0.22329804 0
-1.2402229 -0.89085799 0.37263167 0
-0.84280312 -0.64032239 -0.049824059 0
-1.236394 -0.91952485 0.07905221 0
-1.2418952 -0.92342716 0.22662923 0
-1.6155359 -1.1884774 0.45886549 0
-0.82958555 -0.65505207 -0.049747854 0
-1.2299502 -0.94670624 0.079431854 0
-1.2435284 -0.95659751 0.22885257 0
-1.571472 -1.1954951 0.45315155 0
-0.8202951 -0.67265564 -0.049854241 0
-1.2398682 -0.98646444 0.080559723 0
-1.2396446 -0.98629731 0.23041236 0
-0.80229342 -0.68366975 -0.049579501 0
-1.2391051 -1.0190306 0.081240229 0
-1.2294664 -1.0116305 0.23118488 0
-0.80246532 -0.70876104 -0.050134327 0
-1.1499306 -0.98254877 0.07792753 0
-1.1594343 -0.99003726 0.22381917 0
-1.1566678 -0.9878574 0.37089619 0
-0.78813064 -0.72263008 -0.050043248 0
-1.1353052 -1.0033456 0.077982642 0
-1.1382381 -1.005717 0.22309005 0
-1.1424546 -1.0091265 0.3712858 0
-0.77536142 -0.7377184 -0.050031886 0
-1.2374449 -1.1210679 0.083466873 0
-1.2380515 -1.1215712 0.23927829 0
-1.3282566 -1.1964064 0.41861191 0
-0.762501 -0.75272268 -0.05002499 0
-1.2397933 -1.1589434 0.084400989 0
-1.2442573 -1.1627427 0.24263544 0
-1.3204609 -1.2275991 0.42115468 0
-1.0394317 -0.98841685 0.49915031 0
-0.74459815 -0.76332241 -0.049787946 0
-1.2814212 -1.231992 0.41633895 0
-0.99025548 -0.97779197 0.48787716 0
-0.73768449 -0.78354257 -0.050081216 0
-1.183889 -1.1831098 0.083464839 0
-1.197703 -1.1954798 0.24118024 0
-1.1936669 -1.1918656 0.39968866 0
-0.97861719 -0.99929291 0.48928636 0
-0.72030401 -0.79443473 -0.049882803 0
-0.92566323 -0.98304242 0.47649318 0
-0.70274675 -0.80497247 -0.049680039 0
-0.88185108 -0.9736734 0.4666802 0
-0.69316423 -0.82301897 -0.049877189 0
-0.85104299 -0.97552413 0.4613184 0
-0.67873216 -0.83646172 -0.049844466 0
-0.83058107 -0.98688394 0.45961317 0
-0.6682682 -0.85390693 -0.05002182 0
-0.81783366 -1.0058458 0.46074331 0
-0.65520144 -0.86882585 -0.050078578 0
-0.64234924 -0.8840372 -0.050157074 0
-0.6277914 -0.89746636 -0.050156396 0
-0.6092627 -0.90643698 -0.049951468 0
-0.59599137 -0.92125207 -0.050036088 0
-0.57571542 -0.92788166 -0.049744938 0
-0.56485915 -0.94562072 -0.049982678 0
-0.55158257 -0.96061975 -0.050098836 0
-0.53956729 -0.97736794 -0.050300781 0
-0.52419221 -0.98995131 -0.050320618 0
-0.50355887 -0.99548668 -0.050035439 0
-0.48524851 -1.0038942 -0.049890932 0
-0.47557622 -1.024389 -0.050285712 0
-0.4525274 -1.0258814 -0.049859717 0
-0.44068968 -1.0436312 -0.050147664 0
-0.42419797 -1.0545946 -0.050150733 0
-0.37693316 -0.9818297 0.50039178 0
-0.39874882 -1.0513903 -0.049564283 0
-0.3548395 -0.98189098 0.49644381 0
-0.38762599 -1.0707226 -0.049940106 0
-0.33382112 -0.98313731 0.49309799 0
-0.3720507 -1.0831211 -0.050030645 0
-0.3086049 -0.97686523 0.48696688 0
-0.36238086 -1.1058323 -0.050554305 0
-0.2896322 -0.98043591 0.48478878 0
-0.33762211 -1.1025225 -0.050012972 0
-0.26864111 -0.98009449 0.48122373 0
-0.31697387 -1.1059387 -0.049761783 0
-0.25581747 -0.99412876 0.48323515 0
-0.3038584 -1.1231769 -0.050081469 0
-0.22767021 -0.97962087 0.47454387 0
-0.2882821 -1.1361337 -0.050233833 0
-0.20878483 -0.98167676 0.47223955 0
-0.26496994 -1.1338313 -0.049784292 0
-0.19527085 -0.99411541 0.47389865 0
-0.24844219 -1.1448466 -0.049877219 0
-0.16752602 -0.9774 0.46483824 0
-0.23046137 -1.152918 -0.049861796 0
-0.15138556 -0.98387927 0.46447903 0
-0.21551801 -1.1676826 -0.050117645 0
-0.12662889 -0.97125942 0.45722184 0
-0.19624324 -1.1730038 -0.050011452 0
-0.10959204 -0.97492319 0.45603114 0
-0.17584176 -1.1754742 -0.049804766 0
-0.10180487 -1.0002531 0.46274972 0
-0.15745492 -1.1825074 -0.049784988 0
-0.069168523 -0.96599835 0.34500173 0
-0.086927131 -1.0095485 0.46370819 0
-0.1408173 -1.19396 -0.049943749 0
-0.053350165 -0.97148865 0.34480181 0
-0.069372848 -1.0122421 0.46236897 0
-0.12068339 -1.1965052 -0.049769726 0
-0.033328816 -0.96583205 0.14737169 0
-0.032132879 -0.96267396 0.24263267 0
-0.012435956 -0.91066128 0.32656494 0
-0.053622767 -1.0194212 0.46271071 0
-0.1009614 -1.1998314 -0.049635828 0
-0.010246677 -0.95086449 0.14499989 0
-0.010521485 -0.95161861 0.23940626 0
0.0051101311 -0.90871769 0.32454106 0
-0.085438147 -1.2148719 -0.049955055 0
0.010921942 -0.93968779 0.14310336 0
0.0087912548 -0.94577259 0.23724157 0
0.023628669 -0.9034 0.3216739 0
-0.0012222065 -0.97436899 0.44265792 0
-0.069922343 -1.2306513 -0.050308142 0
0.025467353 -0.94683081 0.14332215 0
0.022047566 -0.95700604 0.23838197 0
0.023454743 -0.95281917 0.33361447 0
0.015492843 -0.9765088 0.4415265 0
-0.046830162 -1.223734 -0.049815834 0
0.035718486 -0.96748 0.14508574 0
0.036152527 -0.96613258 0.23915024 0
0.01580997 -1.0292816 0.35275492 0
0.020364033 -1.0151445 0.45322981 0
-0.030265523 -1.2368218 -0.050083693 0
0.021741228 -1.0681293 0.36175302 0
-0.012315644 -1.2458864 -0.050208613 0
0.069004104 -0.96981233 0.33425599 0
0.0058787926 -1.254418 -0.050321717 0
0.086971924 -0.96575171 0.33199281 0
0.02806546 -1.24834 -0.049903013 0
0.10070066 -0.97669011 0.33375821 0
0.047588125 -1.2515655 -0.049838651 0
0.11840855 -0.97267705 0.33162791 0
0.068331942 -1.2495344 -0.049590498 0
0.083697662 -1.2703888 -0.050190516 0
0.10214035 -1.2789077 -0.050345615 0
0.12365262 -1.2727228 -0.049973357 0
0.14551626 -1.2632629 -0.049492858 0
0.11257936 -1.4385625 0.06786079 0
0.16138117 -1.2861551 -0.050195951 0
0.14192201 -1.3974246 0.066228703 0
0.18009691 -1.2945644 -0.05038105 0
0.16410814 -1.3933004 0.065951973 0
0.20056696 -1.2921098 -0.050182179 0
0.18669505 -1.385186 0.065541819 0
0.22116569 -1.2876943 -0.049922287 0
0.208481 -1.3808336 0.065278172 0
0.23936749 -1.3012335 -0.050318006 0
0.22875844 -1.3872156 0.065410957 0
0.26024035 -1.2931942 -0.049946334 0
0.25428799 -1.3470019 0.063879058 0
0.2795808 -1.2981501 -0.050050717 0
0.27464178 -1.3486028 0.063860551 0
0.2679548 -1.416911 0.18755004 0
0.29954544 -1.2966837 -0.049933601 0
0.29931298 -1.2994119 0.062031358 0
0.29016939 -1.4067353 0.18624336 0
0.31896266 -1.3016664 -0.050056446 0
0.31735888 -1.3237791 0.062847972 0
0.3126426 -1.3888071 0.18413267 0
0.33810449 -1.3127499 -0.050406143 0
0.32620004 -1.5115553 0.069516465 0
0.33524224 -1.3605496 0.180942 0
0.3582347 -1.3082089 -0.050205812 0
0.35737845 -1.3263301 0.062853485 0
0.35687459 -1.3369933 0.17828964 0
0.37829489 -1.3016989 -0.049944285 0
0.37682557 -1.3441163 0.063459553 0
0.37687987 -1.3425488 0.17879824 0
0.3980962 -1.2987049 -0.049817413 0
0.39424831 -1.4733127 0.068052657 0
0.39685851 -1.3548684 0.18006089 0
0.41774955 -1.3022366 -0.049932443 0
0.41675818 -1.4072262 0.065680876 0
0.43748981 -1.3066108 -0.050086394 0
0.45710614 -1.2960155 -0.049714755 0
0.47713882 -1.3092542 -0.050203044 0
0.49650526 -1.2977278 -0.049815714 0
0.51588428 -1.2914847 -0.049625728 0
0.53589034 -1.2966939 -0.04985407 0
0.55569148 -1.2972172 -0.049923841 0
0.57591438 -1.3017737 -0.050147224 0
0.59508461 -1.2946827 -0.049961947 0
0.6141808 -1.2880574 -0.049801812 0
0.63422143 -1.2895617 -0.049942732 0
0.65165597 -1.2720661 -0.049407817 0
0.67517334 -1.296128 -0.050381262 0
0.69320685 -1.2834731 -0.050038185 0
0.71277237 -1.2806027 -0.050057571 0
0.73291016 -1.2805879 -0.050189819 0
0.75092769 -1.2698811 -0.049941793 0
0.7692731 -1.2614576 -0.049784835 0
0.79003251 -1.2638254 -0.050031543 0
0.81241918 -1.2720368 -0.050503518 0
0.82703537 -1.2491044 -0.049838409 0
0.84690058 -1.2470812 -0.049951833 0
0.86655921 -1.2440395 -0.050037105 0
0.88585913 -1.2395885 -0.050079368 0
0.90358257 -1.2300265 -0.049939554 0
0.9210043 -1.219853 -0.049784556 0
0.94094437 -1.2173464 -0.049926527 0
0.9618389 -1.2172046 -0.050168287 0
0.97998577 -1.2091683 -0.050120514 0
0.99824154 -1.201499 -0.050095279 0
0.92611134 -1.0145913 0.46208936 0
1.0154371 -1.1912218 -0.049978439 0
0.94121653 -1.0058794 0.46123073 0
1.035386 -1.1877834 -0.050133687 0
0.95885241 -1.0034262 0.46269044 0
1.0520355 -1.1763868 -0.049990252 0
0.97361159 -0.99399573 0.46171156 0
1.0690538 -1.1660599 -0.049895976 0
0.99207228 -0.99305934 0.46388769 0
1.0896381 -1.1636343 -0.050120074 0
1.006642 -0.98326641 0.46291789 0
1.1088009 -1.1578439 -0.050222721 0
1.0222743 -0.9758727 0.46289349 0
1.1225682 -1.1408941 -0.049891718 0
1.0433134 -0.97948819 0.46702212 0
1.1415951 -1.1348325 -0.050001305 0
1.0625585 -0.97886628 0.46969524 0
1.1592423 -1.1259577 -0.050007913 0
1.08392 -0.98185021 0.47383034 0
1.173843 -1.1114126 -0.049793594 0
1.0993851 -0.97322577 0.47370785 0
1.19688 -1.1123679 -0.050218195 0
1.1305333 -0.99286312 0.057338301 0
1.1315696 -0.9947297 0.16076982 0
1.1299833 -0.99187249 0.2651363 0
1.1313381 -0.9943127 0.37330174 0
1.1334913 -0.99819106 0.48644021 0
1.2108996 -1.0969427 -0.049984105 0
1.1443081 -0.9804768 0.057194442 0
1.1428692 -0.97796041 0.15979581 0
1.143839 -0.97965652 0.26444352 0
1.1444198 -0.9806723 0.37190816 0
1.1515256 -0.99310011 0.48790991 0
1.2258904 -1.0834868 -0.049837146 0
1.1591917 -0.97016913 0.057142783 0
1.1633607 -0.97725195 0.16083509 0
1.1653043 -0.98055393 0.26652619 0
1.1620533 -0.97503096 0.37292084 0
1.1631325 -0.9768644 0.48517549 0
1.2439975 -1.0753698 -0.049919747 0
1.2636325 -1.0695895 -0.050110847 0
1.2796068 -1.0578393 -0.050060812 0
1.2955821 -1.0461489 -0.050021488 0
1.3169162 -1.042421 -0.050333709 0
1.3320009 -1.0293132 -0.050252445 0
1.3415897 -1.0086027 -0.049845215 0
1.3544565 -0.99284285 -0.049658697 0
1.3806947 -0.99505764 -0.050280862 0
1.3955337 -0.98179835 -0.050225765 0
1.4042239 -0.96084338 -0.049827933 0
1.202015 -0.70587355 0.050210029 0
1.203478 -0.70771813 0.13933562 0
1.4243228 -0.95434719 -0.050096542 0
1.2046099 -0.68435961 0.049669258 0
1.2072309 -0.68758035 0.13790102 0
1.4403844 -0.94271511 -0.050140828 0
1.2104831 -0.66736341 0.049334407 0
1.2018594 -0.65703487 0.13500074 0
1.4479092 -0.92106348 -0.049724065 0
1.2088207 -0.64192897 0.048602719 0
1.2119848 -0.64562291 0.13476692 0
1.460602 -0.9057346 -0.04960762 0
1.2025542 -0.61203235 0.047649849 0
1.2094437 -0.61987376 0.13249762 0
1.4852991 -0.90384465 -0.05014335 0
1.2091913 -0.59745502 0.047418565 0
1.2101527 -0.59852195 0.130834 0
1.4992858 -0.88980502 -0.050109729 0
1.5136961 -0.87624222 -0.050107781 0
1.5286473 -0.86323339 -0.050142359 0
1.5444578 -0.85104758 -0.050228301 0
1.5474571 -0.8262406 -0.049681086 0
1.5567311 -0.80794781 -0.049465492 0
1.5794617 -0.80237442 -0.049919799 0
1.5939348 -0.78887576 -0.049974374 0
1.6073281 -0.77436668 -0.049985036 0
1.6134728 -0.75359529 -0.049662579 0
1.6347194 -0.74580687 -0.050060015 0
1.643899 -0.72776878 -0.049901057 0
1.6569928 -0.71299452 -0.049932927 0
1.6687968 -0.69718456 -0.049914598 0
1.6869526 -0.68620026 -0.050189935 0
1.6896353 -0.66354918 -0.04978228 0
1.7007871 -0.6473366 -0.049763277 0
1.7217159 -0.63797998 -0.050179441 0
1.734593 -0.62277836 -0.050249323 0
1.7393403 -0.6021232 -0.049978606 0
1.7553616 -0.58896422 -0.050200149 0
1.7517141 -0.56327695 -0.049598001 0
1.7777219 -0.55617285 -0.050254196 0
1.7787799 -0.53373575 -0.049873728 0
1.7990695 -0.52268124 -0.050300032 0
1.8112853 -0.5067628 -0.050398778 0
1.8133065 -0.48522708 -0.050090898 0
1.8224541 -0.46768668 -0.050083581 0
1.8362392 -0.452517 -0.050271105 0
1.8337793 -0.42915592 -0.049817979 0
1.8527448 -0.41641632 -0.050227523 0
1.8453656 -0.39113167 -0.049604166 0
1.8661741 -0.37897488 -0.050099835 0
1.8768617 -0.36204407 -0.050204936 0
1.8754874 -0.33997759 -0.049850889 0
1.8826813 -0.32163945 -0.049839281 0
1.8996415 -0.30711117 -0.050210804 0
1.9017816 -0.28674057 -0.050022464 0
1.9072081 -0.26769361 -0.049969472 0
1.9120121 -0.24846719 -0.049902271 0
1.9160436 -0.22903045 -0.04981542 0
1.9205292 -0.20979942 -0.049755119 0
1.9388899 -0.1948394 -0.050221965 0
1.9389341 -0.17420052 -0.050013054 0
1.9442705 -0.15518005 -0.050010599 0
1.9508934 -0.13649778 -0.050064512 0
1.9418101 -0.11383725 -0.049548857 0
1.9545344 -0.09672118 -0.049845397 0
1.9587368 -0.077478774 -0.04983722 0
1.9676664 -0.059235554 -0.050010391 0
1.9700832 -0.039577167 -0.049954485 0
1.9737599 -0.020188313 -0.04995345 0
1.9677849 0.00085960765 -0.049611658 0
1.9874605 0.017595682 -0.050207354 0
1.9747058 0.039488617 -0.049639519 0
1.9942181 0.056689549 -0.050244693 0
1.9998533 0.075991519 -0.050357744 0
1.9856678 0.097506352 -0.049767684 0
1.9976332 0.11612932 -0.050125845 0
1.996984 0.13604362 -0.050040171 0
1.9957603 0.15594038 -0.049942993 0
1.9991642 0.17550911 -0.050020318 0
1.9981257 0.19533148 -0.04994766 0
1.9954642 0.21515682 -0.049825978 0
2.004498 0.23467852 -0.050130855 0
2.0027361 0.25448635 -0.05005905 0
1.9927976 0.27419522 -0.049704228 0
1.9944705 0.2938762 -0.049772792 0
1.9984666 0.31368187 -0.049933225 0
1.998148 0.33341363 -0.049948461 0
1.9966947 0.35309494 -0.049932014 0
2.0017345 0.37321818 -0.050156794 0
2.003686 0.39325026 -0.050280243 0
2.0023453 0.41306117 -0.050294831 0
1.9890486 0.43160102 -0.049889077 0
1.9925905 0.45187968 -0.05009659 0
1.9844983 0.47076195 -0.049894623 0
1.9820769 0.4903304 -0.04990546 0
1.9740109 0.50901395 -0.049721178 0
1.9612024 0.52675468 -0.049373217 0
1.9773235 0.54959041 -0.050082833 0
1.9718169 0.56866401 -0.05001758 0
1.9592327 0.58620185 -0.049702678 0
1.9606668 0.60665518 -0.04990783 0
1.9577537 0.62622911 -0.049963519 0
1.9502572 0.64469814 -0.049859751 0
1.9624004 0.66827995 -0.050489403 0
1.9451427 0.68416625 -0.050042916 0
1.9389504 0.7029494 -0.050013665 0
1.9313965 0.72129917 -0.049942289 0
1.9332426 0.74259484 -0.05023149 0
1.9147794 0.75735408 -0.049767856 0
1.908502 0.7759946 -0.049769644 0
1.9092416 0.79717147 -0.050046653 0
1.9125028 0.81950623 -0.050431266 0
1.8962375 0.83452934 -0.050080378 0
1.8897659 0.85324657 -0.050112084 0
1.8862299 0.87322098 -0.050266683 0
1.8763334 0.89055902 -0.050184373 0
1.8572348 0.90370744 -0.04975003 0
1.8567523 0.92515886 -0.050052308 0
1.844348 0.94113529 -0.049895074 0
1.8277926 0.95493698 -0.049579501 0
1.8307377 0.97845143 -0.05005056 0
1.8258474 0.99821806 -0.050220504 0
1.8093677 1.0118328 -0.049930889 0
1.7951411 1.0264775 -0.049738389 0
1.7847888 1.0432004 -0.049711671 0
1.7825477 1.0647136 -0.050030109 0
1.7747366 1.083096 -0.050129358 0
1.7583565 1.0961885 -0.049877953 0
1.7536728 1.116619 -0.0501284 0
1.7415441 1.1323286 -0.050073005 0
1.7363541 1.1527225 -0.050325405 0
1.7142738 1.1615151 -0.049855132 0
1.6987851 1.1746416 -0.049675256 0
1.691216 1.1934601 -0.049852423 0
1.6901821 1.2173917 -0.050334599 0
1.6708255 1.2275066 -0.050006356 0
1.6564049 1.2412694 -0.049906068 0
1.6375409 1.2513055 -0.049607653 0
1.6366464 1.2761704 -0.050149877 0
1.61912 1.2872074 -0.049928758 0
1.6058851 1.3018351 -0.049916271 0
1.5885594 1.3127451 -0.049715303 0
1.5772164 1.3290303 -0.049810324 0
1.565446 1.3450048 -0.049895465 0
1.5572437 1.364558 -0.050169844 0
1.5347304 1.3700336 -0.049736399 0
1.5260515 1.3893071 -0.050009407 0
1.5091373 1.4001769 -0.049871195 0
1.0297939 0.89447075 0.29483789 0
1.4932742 1.4120449 -0.049793527 0
1.0397174 0.92131305 0.30361402 0
1.4850216 1.4322808 -0.050128546 0
1.4420898 1.3846405 0.059839003 0
1.4448669 1.3877221 0.16851391 0
1.4404953 1.382871 0.27754363 0
1.053654 0.95360339 0.31467485 0
1.4681053 1.4430188 -0.050013475 0
1.4097013 1.3765452 0.058854412 0
1.4196035 1.3878155 0.16671655 0
1.4170616 1.3849223 0.27501053 0
1.0616337 0.98038495 0.32309619 0
1.454553 1.4575642 -0.050088678 0
1.3923603 1.3849546 0.058675505 0
1.390874 1.3832194 0.16432014 0
1.3965267 1.3898189 0.27325073 0
1.0584832 0.99515474 0.32612118 0
1.4363809 1.4666642 -0.049917813 0
1.3672467 1.3838626 0.05806677 0
1.3597516 1.3748858 0.16147645 0
1.3676456 1.3843404 0.26913282 0
1.0551784 1.0101 0.32920784 0
1.4208082 1.4787725 -0.049897749 0
1.3478068 1.3890669 0.057768688 0
1.3446114 1.3851404 0.1612919 0
1.3479315 1.3892202 0.26755044 0
1.0576108 1.0324684 0.3354651 0
1.4010254 1.4855545 -0.049644165 0
1.3238487 1.3882407 0.057209983 0
1.3224112 1.386428 0.15990548 0
1.3183988 1.3813688 0.26311067 0
1.0671461 1.0645583 0.34577504 0
1.3922867 1.5063406 -0.050036181 0
1.2978193 1.3840939 0.056520551 0
1.2939848 1.3791318 0.15740483 0
1.2930415 1.3779112 0.25980055 0
1.0511879 1.0649376 0.3426016 0
1.3701192 1.5097543 -0.049653109 0
1.2736399 1.381601 0.055926252 0
1.2745494 1.382809 0.15645228 0
1.2689899 1.3754243 0.2568132 0
1.0418193 1.073674 0.34302232 0
1.360795 1.5302308 -0.050041374 0
1.2498475 1.3789316 0.055343144 0
1.2564169 1.3878902 0.15572838 0
1.2476766 1.3759711 0.25459981 0
1.0310073 1.0804989 0.34269953 0
1.3419973 1.5379177 -0.049870253 0
1.2506905 1.4100571 0.056261033 0
1.2462271 1.4038069 0.15647216 0
1.2416798 1.3974391 0.2571024 0
1.0253936 1.094565 0.34539583 0
1.3235168 1.545855 -0.049721856 0
1.2510442 1.441618 0.05718939 0
1.2436221 1.4309429 0.15869483 0
1.2464525 1.4350138 0.26313776 0
1.0095854 1.0943294 0.34230226 0
1.3116419 1.5633718 -0.049997743 0
1.2431177 1.4621171 0.057632823 0
1.2451605 1.4651356 0.16181867 0
1.2479579 1.4692693 0.26838595 0
0.99947584 1.1021 0.34253156 0
1.2932394 1.5713358 -0.049869418 0
1.2434973 1.4958026 0.058640569 0
1.2418534 1.4933063 0.16413929 0
1.2446275 1.4975189 0.27228978 0
1.1634202 1.3742061 0.34503907 0
0.99395579 1.1168752 0.34560016 0
1.2787728 1.5852816 -0.050005615 0
1.2449363 1.5324652 0.05976624 0
1.2425122 1.5286813 0.1673661 0
1.2253351 1.5018688 0.27105236 0
1.1434847 1.3741059 0.34224701 0
0.98356038 1.1244745 0.34583646 0
1.2624036 1.5963613 -0.050027881 0
1.2446009 1.5677865 0.060825929 0
1.2435189 1.5660498 0.17081907 0
1.2084976 1.5098381 0.2706455 0
1.1299224 1.383719 0.34247223 0
0.98130941 1.145184 0.35126138 0
1.2451166 1.6059619 -0.049996875 0
1.189589 1.5142838 0.26954362 0
1.1101263 1.3830879 0.33969134 0
0.96561539 1.144495 0.34833297 0
0.84101039 0.93876761 0.47358942 0
1.2241567 1.6092856 -0.049715128 0
1.1792463 1.532985 0.27148318 0
1.0892752 1.3801286 0.33631575 0
0.95361632 1.1496507 0.34775907 0
0.8418659 0.95979238 0.48455518 0
1.2069547 1.6187874 -0.049700361 0
1.1612128 1.5387866 0.27075613 0
1.0756837 1.3891999 0.3365775 0
0.93793941 1.1482906 0.34475034 0
0.8505035 0.99536878 0.35463884 0
0.84060305 0.97805339 0.41733155 0
0.83747435 0.97258139 0.48980877 0
1.1945893 1.636986 -0.050049707 0
1.1469471 1.5511721 0.27143925 0
1.0546721 1.3849646 0.33300453 0
0.93249655 1.1648995 0.34867561 0
0.85362607 1.0228363 0.36518171 0
0.84189695 1.0017096 0.42796147 0
0.84362197 1.0048168 0.50825405 0
1.1743002 1.6410053 -0.049828 0
1.1318806 1.5622785 0.27189264 0
1.0342134 1.3810173 0.3296161 0
0.92872858 1.1852472 0.35401335 0
0.85140204 1.0417365 0.3716054 0
0.83884704 1.0184355 0.43457142 0
0.84343529 1.0269508 0.51971751 0
1.1584603 1.6532058 -0.049947638 0
1.1075319 1.5557691 0.26879701 0
1.0160688 1.3807809 0.32739264 0
0.91256928 1.1827644 0.35076338 0
0.85109627 1.0651537 0.38011041 0
0.84035534 1.0446039 0.44649071 0
0.83862823 1.0412997 0.5258978 0
1.1385293 1.6575269 -0.049759168 0
1.0960673 1.5737348 0.27073175 0
1.0000249 1.3842101 0.32629725 0
0.89714992 1.1812023 0.34795359 0
0.85194659 1.0920006 0.39015508 0
0.84040338 1.0692219 0.45745376 0
0.84306479 1.0744736 0.544595 0
1.1224607 1.6694193 -0.049883008 0
1.080767 1.5845083 0.2712386 0
0.97963703 1.3785528 0.3226836 0
0.8900888 1.1961842 0.35136518 0
0.8485204 1.1115284 0.39675683 0
0.84041888 1.0950292 0.46901196 0
0.84212536 1.0985047 0.55709928 0
1.1052364 1.6790918 -0.049926374 0
0.96321958 1.3804209 0.32129025 0
0.87506515 1.1950264 0.34884357 0
0.83907002 1.1193262 0.39796138 0
0.83876467 1.1186842 0.47930852 0
0.84045196 1.1222327 0.56933773 0
1.0893672 1.6917897 -0.050096937 0
0.9475494 1.3835901 0.32032856 0
0.8689906 1.2128654 0.35336307 0
0.84146357 1.1530433 0.41102645 0
0.84153599 1.1532006 0.49553934 0
0.84119731 1.1524646 0.5857653 0
1.0697042 1.6962658 -0.049953096 0
0.93525964 1.3941284 0.32148537 0
0.8529461 1.2091453 0.35003468 0
0.83853763 1.1767651 0.4194752 0
0.8420741 1.1847126 0.51001495 0
0.83895582 1.1777048 0.59885472 0
1.0494272 1.6990649 -0.049754512 0
0.91810185 1.3936406 0.31961685 0
0.84594619 1.2258277 0.3541863 0
0.84185952 1.2163234 0.43503228 0
0.8390398 1.2097654 0.52089083 0
0.83577061 1.2021624 0.61138648 0
1.0335665 1.7121449 -0.049964271 0
0.89603895 1.3808626 0.31442288 0
0.85117787 1.2727993 0.36925894 0
0.83970881 1.245172 0.44568843 0
0.83792466 1.2408743 0.53501159 0
0.84049392 1.2470633 0.63700587 0
1.0165167 1.7226617 -0.05008211 0
0.87642384 1.3728245 0.31063423 0
0.85527545 1.3200133 0.38431901 0
0.83913517 1.2797079 0.4588396 0
0.84235871 1.2877579 0.55757093 0
0.83815283 1.2772548 0.65306151 0
0.99703223 1.7271096 -0.049975362 0
0.8651973 1.3854916 0.31259391 0
0.84966284 1.3452377 0.39144599 0
0.83724356 1.3130563 0.47140324 0
0.84246027 1.3265742 0.57566446 0
0.84086162 1.3224317 0.67858398 0
0.97585875 1.7268038 -0.049697433 0
0.84710217 1.3802328 0.3097041 0
0.84467381 1.3736966 0.39971274 0
0.84153509 1.3652481 0.49224165 0
0.83790594 1.3554796 0.5883829 0
0.83736736 1.3540298 0.69537508 0
0.96176279 1.7457358 -0.050160211 0
0.83478206 1.3902985 0.31104091 0
0.83960795 1.4038069 0.40854815 0
0.83793759 1.3991313 0.50491309 0
0.84032351 1.4058099 0.61245799 0
0.9442336 1.755677 -0.050288357 0
0.81516165 1.3795016 0.30678663 0
0.84161681 1.4566042 0.42534769 0
0.83921254 1.449597 0.52480841 0
0.84158117 1.4565002 0.63660377 0
0.924187 1.758268 -0.050148033 0
1.0278549 2.0732701 0.34944516 0
0.80160737 1.3858014 0.30720848 0
0.84139413 1.5066962 0.44112137 0
0.84110779 1.5058262 0.54712677 0
0.84044427 1.50381 0.65886056 0
0.90426254 1.7609279 -0.050020307 0
1.0074774 2.088382 0.35091248 0
0.78635341 1.3868552 0.30627108 0
0.83813405 1.5511318 0.45486048 0
0.83823061 1.5514382 0.56473714 0
0.84127694 1.5611029 0.68627399 0
0.88778138 1.7747102 -0.050317168 0
0.98306054 2.090816 0.35003459 0
0.77046573 1.3854941 0.30474499 0
0.84127241 1.6204083 0.47719342 0
0.8413204 1.6205673 0.59246624 0
0.8666479 1.7730922 -0.050048564 0
0.95993197 2.0972977 0.34997731 0
0.75416714 1.3821687 0.30275613 0
0.83750099 1.6717927 0.49323791 0
0.84304774 1.6910706 0.6206702 0
0.84775203 1.7789313 -0.050066806 0
0.73939174 1.3836658 0.04743465 0
0.73880994 1.3815434 0.13049155 0
0.74021399 1.3866651 0.2158722 0
0.73948872 1.3840195 0.30219787 0
0.83620572 1.7368139 0.51394773 0
0.83886999 1.7465323 0.6423102 0
0.82538247 1.7715073 -0.049604453 0
0.72687387 1.3935779 0.047661077 0
0.72270203 1.3775727 0.12963212 0
0.7246542 1.3850621 0.21486802 0
0.72577411 1.3893588 0.30261001 0
0.83162338 1.7954506 0.53240025 0
0.82918024 1.7860774 0.65709156 0
0.80814147 1.7834799 -0.04986725 0
0.70833719 1.3798221 0.047022186 0
0.70729691 1.3756148 0.12902068 0
0.70789135 1.378019 0.21289276 0
0.70943403 1.3842583 0.30032262 0
0.82664919 1.8583344 0.55227083 0
0.82331574 1.8448522 0.68008065 0
0.78820193 1.7847441 -0.049744621 0
0.69253892 1.3758044 0.046750799 0
0.69253284 1.3757783 0.12866662 0
0.69362777 1.380459 0.21271889 0
0.69195282 1.3732989 0.29656082 0
0.81754231 1.9101685 0.56832898 0
0.76975912 1.7924039 -0.04986535 0
0.6795485 1.3836321 0.046920512 0
0.67929417 1.3824795 0.12905355 0
0.6789301 1.3808299 0.2121966 0
0.6791777 1.3819519 0.29799119 0
0.80561495 1.9548777 0.58195424 0
0.75127351 1.8002918 -0.050002553 0
0.66592222 1.3889961 0.047005933 0
0.66423553 1.3808683 0.12854542 0
0.66585523 1.3886734 0.21308619 0
0.66637725 1.3911887 0.2996119 0
0.79062831 1.9899371 0.59231627 0
0.7326588 1.8080391 -0.050142791 0
0.65007782 1.3832787 0.046694361 0
0.65102381 1.3881444 0.12903231 0
0.64743876 1.3697045 0.20907776 0
0.64858305 1.3755904 0.29481572 0
0.77778709 2.0401592 0.60785598 0
0.71159053 1.8028313 -0.049821161 0
0.63467824 1.3787953 0.04643552 0
0.63478333 1.3793747 0.12778373 0
0.63420832 1.3762044 0.20978923 0
0.63518959 1.3816143 0.29569522 0
0.7644549 2.094285 0.62473488 0
0.69304973 1.8112842 -0.0500044 0
0.62011516 1.3781931 0.046324775 0
0.62003702 1.3777291 0.1273365 0
0.62287921 1.3946062 0.21270645 0
0.6207546 1.3819902 0.2951552 0
0.74557757 2.1231985 0.6331287 0
0.67372608 1.8155642 -0.050044954 0
0.60652 1.3833227 0.046427965 0
0.60513234 1.3743978 0.12672701 0
0.60849768 1.3960423 0.21254751 0
0.60643274 1.3827615 0.29476535 0
0.72750998 2.1614795 0.6447401 0
0.65522015 1.8258026 -0.050309099 0
0.59076267 1.3738223 0.046009559 0
0.59252447 1.3861763 0.12777932 0
0.5928449 1.3884232 0.21077223 0
0.59174734 1.3807271 0.29369962 0
0.70766664 2.1935604 0.65432364 0
0.6351546 1.8254962 -0.050201584 0
0.57874703 1.3908765 0.046554971 0
0.57870317 1.3905387 0.1280434 0
0.57673585 1.3753803 0.20804937 0
0.57785279 1.3839861 0.29404515 0
0.6884461 2.2361062 0.66748619 0
0.61444175 1.8190316 -0.049881969 0
0.56256318 1.3756353 0.045944162 0
0.56361669 1.3846391 0.12721559 0
0.56327897 1.381753 0.20889285 0
0.56301242 1.3794748 0.2924391 0
0.66721249 2.2700534 0.67783034 0
0.59434479 1.8163309 -0.049707238 0
0.55123746 1.4028587 0.12901552 0
0.55239147 1.4139273 0.21444447 0
0.551759 1.4078611 0.29932192 0
0.64463294 2.2986794 0.68647051 0
0.575418 1.8250954 -0.049952824 0
0.55270851 1.5770243 0.14765969 0
0.55178928 1.5669833 0.24190655 0
0.55287981 1.5788958 0.34277943 0
0.62199628 2.3339005 0.69739902 0
0.55616045 1.831908 -0.050136801 0
0.60241771 2.4184723 0.23821838 0
0.59907633 2.376102 0.38803017 0
0.59757608 2.3570783 0.541574 0
0.53559566 1.8209877 -0.049694836 0
0.57424408 2.4047709 0.39286312 0
0.57325554 2.3898385 0.5494616 0
0.51660097 1.833608 -0.050104067 0
0.54826874 2.4247935 0.39618778 0
0.54778063 2.4156818 0.55565482 0
0.49656019 1.8278128 -0.049863622 0
0.52210677 2.4517119 0.40081444 0
0.52155405 2.4382136 0.56108129 0
0.47674546 1.8241184 -0.049707312 0
0.45663503 1.1145024 0.35812584 0
0.45663413 1.114471 0.43150944 0
0.45726284 1.8347137 -0.050070167 0
0.44576877 1.1045635 0.35391253 0
0.44595194 1.1161994 0.43225625 0
0.43748894 1.8350785 -0.050076522 0
0.43511602 1.081587 0.41488752 0
0.43509078 1.0735735 0.48589763 0
0.41779429 1.8262422 -0.049763262 0
0.42467904 1.0971277 0.42267966 0
0.42489529 1.0742257 0.48630339 0
0.39816234 1.8244489 -0.049710277 0
0.41398218 1.1065865 0.3547917 0
0.41393626 1.1086708 0.42853919 0
0.41448236 1.0838901 0.49213144 0
0.37813383 1.8350929 -0.050110392 0
0.35228175 2.5814159 0.42412645 0
0.35274047 2.5681734 0.59412593 0
0.40508699 1.056982 0.47633767 0
0.35892713 1.8222996 -0.049682077 0
0.32236707 2.5960228 0.42697936 0
0.32233596 2.5966818 0.6017108 0
0.39533538 1.0517882 0.47349653 0
0.33855659 1.8339443 -0.050136123 0
0.29150045 2.619786 0.4315567 0
0.29185519 2.6138618 0.60650373 0
0.38610315 1.0399121 0.46675622 0
0.31882977 1.8322428 -0.05012203 0
0.26053762 2.6359751 0.43483898 0
0.26059276 2.635215 0.61246669 0
0.29925764 1.8288058 -0.050054632 0
0.22970033 2.6452367 0.43694136 0
0.22917433 2.6514103 0.61721611 0
0.28039971 1.818529 -0.049750634 0
0.19799066 2.6603475 0.44017664 0
0.19873355 2.6527588 0.6182667 0
0.26071319 1.8176639 -0.049792796 0
0.16530244 2.6801524 0.44434053 0
0.16745932 2.6606548 0.6210978 0
0.34648991 1.0422646 0.47014168 0
0.24113689 1.8156374 -0.049802154 0
0.13346706 2.6882584 0.44645977 0
0.13519187 2.6742792 0.62550706 0
0.2209048 1.8183541 -0.049991306 0
0.1012864 2.6966708 0.44871131 0
0.10294311 2.6845062 0.62915355 0
0.20206438 1.8108069 -0.049819518 0
0.068627432 2.7061265 0.45123118 0
0.068656668 2.7059302 0.63579994 0
0.18098573 1.8178198 -0.050182536 0
0.037320063 2.705004 0.4518986 0
0.036748961 2.7085307 0.63770622 0
0.16255324 1.8081974 -0.049953051 0
0.0023725198 2.7241268 0.45634624 0
0.00247802 2.7235236 0.64293033 0
0.14254336 1.8078297 -0.050067633 0
-0.028306646 2.7171421 0.45609424 0
-0.029871268 2.7254694 0.64489186 0
0.12093683 1.8149813 -0.050465479 0
-0.088584676 2.8576005 0.10043249 0
-0.088717178 2.8582597 0.29033634 0
-0.059510335 2.7129209 0.4564209 0
-0.060250625 2.7166047 0.64415091 0
0.10508241 1.7939098 -0.049843889 0
-0.11479045 2.8209171 0.099340238 0
-0.11357553 2.8152421 0.28635243 0
-0.094927028 2.7281365 0.46040568 0
-0.093990222 2.7237608 0.64768767 0
0.085321233 1.79199 -0.049928997 0
-0.14288999 2.7960176 0.098688349 0
-0.1428683 2.795922 0.28500327 0
-0.12452419 2.7152162 0.45928055 0
-0.13006242 2.7395818 0.65361267 0
0.06688796 1.7842808 -0.049810898 0
-0.17372967 2.7844512 0.098537058 0
-0.17457606 2.7879696 0.28494728 0
-0.1623912 2.7373211 0.46471798 0
-0.1637391 2.7429237 0.65640002 0
0.045365825 1.7890611 -0.050161 0
-0.21048899 2.7966092 0.099273428 0
-0.20875998 2.7898004 0.28602007 0
-0.19493492 2.7353578 0.465783 0
-0.19651689 2.7415874 0.65807629 0
0.027042048 1.7809117 -0.050044462 0
-0.25082928 2.8201287 0.10044923 0
-0.24817808 2.8102133 0.28921145 0
-0.2311628 2.7465775 0.46938905 0
-0.22486611 2.7230284 0.65531856 0
0.0088802148 1.7724781 -0.04992551 0
-0.26142389 2.7346768 0.46876204 0
-0.26308382 2.7405858 0.66221666 0
-0.011836482 1.7730039 -0.05014807 0
-0.29488504 2.7339318 0.4703016 0
-0.29220402 2.7248299 0.6604079 0
-0.030427707 1.7660921 -0.050103348 0
-0.32563609 2.723649 0.47012651 0
-0.32714617 2.7285473 0.66388875 0
-0.048027471 1.7561949 -0.049955241 0
-0.35995287 2.7244985 0.47213319 0
-0.36071253 2.7268565 0.66605186 0
-0.067771569 1.7529962 -0.050067119 0
-0.39221263 2.7183316 0.4728955 0
-0.39338225 2.7218115 0.66743487 0
-0.085784033 1.7446039 -0.04999242 0
-0.426162 2.7166522 0.47459611 0
-0.41951072 2.6976576 0.6637693 0
-0.10258777 1.7330393 -0.049805436 0
-0.45441157 2.698621 0.47324777 0
-0.45762718 2.7074463 0.66939294 0
-0.12216492 1.7291615 -0.049919073 0
-0.48746115 2.6937821 0.47450548 0
-0.48744279 2.6937335 0.66876251 0
-0.14632554 1.7367144 -0.050481196 0
-0.51813471 2.6824055 0.474583 0
-0.51988757 2.6868639 0.67010766 0
-0.16010346 1.7177466 -0.050035406 0
-0.54629642 2.6648266 0.47352797 0
-0.54913175 2.6717799 0.66930872 0
-0.18021603 1.7145709 -0.050206002 0
-0.58272827 2.6671855 0.4764401 0
-0.58123577 2.6636536 0.67053431 0
-0.19284697 1.6939844 -0.049708921 0
-0.61713517 2.6638882 0.47834492 0
-0.60856044 2.6442869 0.66874874 0
-0.21514143 1.6955947 -0.050085038 0
-0.64076924 2.6361279 0.47550359 0
-0.64510286 2.645704 0.67286944 0
-0.2318687 1.6846707 -0.049980372 0
-0.66934061 2.6198456 0.47498992 0
-0.66943836 2.6200545 0.6695199 0
-0.25017977 1.6771866 -0.050019801 0
-0.69611049 2.5999887 0.47382891 0
-0.69733846 2.6025298 0.66853869 0
-0.26752883 1.6677049 -0.04998894 0
-0.72758639 2.5899162 0.47470036 0
-0.72711957 2.5889804 0.66878468 0
-0.28609884 1.6606359 -0.050063506 0
-0.76127374 2.5838637 0.47647297 0
-0.75612652 2.573863 0.66868949 0
-0.30065674 1.6458886 -0.049837645 0
-0.78061187 2.5502346 0.47271338 0
-0.78099394 2.5509546 0.66644853 0
-0.32073605 1.6415612 -0.050041679 0
-0.81032062 2.536649 0.47309792 0
-0.80919158 2.5345848 0.66618431 0
-0.33710289 1.6303452 -0.049975209 0
-0.61662459 2.1264427 0.082304426 0
-0.83625412 2.516243 0.47215053 0
-0.8357141 2.5152845 0.66516364 0
-0.35357714 1.6194016 -0.049927969 0
-0.62016392 2.0789156 0.080894113 0
-0.85942101 2.4913216 0.47032255 0
-0.86161399 2.4951015 0.66397327 0
-0.37202144 1.6118163 -0.050028607 0
-0.62142348 2.0295026 0.079396583 0
-0.88577676 2.4722285 0.46976605 0
-0.8867166 2.4738023 0.66253883 0
-0.38986439 1.6031104 -0.050092775 0
-0.61719716 1.9731694 0.077598147 0
-0.91213477 2.4532778 0.4693054 0
-0.91258729 2.4540143 0.66163999 0
-0.40444672 1.5891531 -0.049945135 0
-0.61708844 1.925721 0.0761583 0
-0.93054223 2.4218535 0.46625066 0
-0.9324683 2.4249022 0.65801805 0
-0.42670995 1.5872061 -0.050315369 0
-0.61699772 1.8801575 0.07478682 0
-0.95642531 2.4027121 0.46586192 0
-0.9595592 2.407537 0.65801591 0
-0.43389457 1.5621971 -0.049710747 0
-0.62054026 1.8417712 0.073711812 0
-0.98231471 2.3836687 0.46556154 0
-0.97674727 2.3753293 0.65356493 0
-0.4484998 1.5487541 -0.049605519 0
-0.6172688 1.7947854 0.072257094 0
-1.0065624 2.3622968 0.46482038 0
-1.0023023 2.3560865 0.65315324 0
-0.46491474 1.538003 -0.049624909 0
-0.61758375 1.7546639 0.07108742 0
-1.0340043 2.3456292 0.46517754 0
-1.02226 2.3289621 0.65037793 0
-0.47759974 1.5220689 -0.049425144 0
-0.61773467 1.7157168 0.06995897 0
-0.61535513 1.7124287 0.1980954 0
-1.0416883 2.3015652 0.45951554 0
-1.042513 2.3027046 0.64792895 0
-0.072903529 0.96283185 0.43737385 0
-0.50634795 1.5279845 -0.050202396 0
-0.61776948 1.6779419 0.068872139 0
-0.62233984 1.684093 0.19608352 0
-1.0584764 2.2710707 0.45687088 0
-1.0658391 2.2809796 0.64697844 0
-0.093928948 0.97292733 0.44766828 0
-0.51490474 1.5065192 -0.049773887 0
-0.61360013 1.6359135 0.067583844 0
-0.61821651 1.6419657 0.19219995 0
-1.079466 2.2466853 0.45563412 0
-1.0811523 2.2488959 0.64278859 0
-0.099465623 0.96185923 0.44491014 0
-0.5357061 1.5011801 -0.050077159 0
-0.62108552 1.6102407 0.067021996 0
-0.61982989 1.6086369 0.18947169 0
-1.1015258 2.2239387 0.45482072 0
-1.0957415 2.2165501 0.63853449 0
-0.1117502 0.95963299 0.44778717 0
-0.55056429 1.4880964 -0.050040789 0
-0.62194729 1.5769506 0.066109896 0
-0.61720324 1.5710453 0.18613088 0
-1.104244 2.1772902 0.44853354 0
-1.1116917 2.1865609 0.6350683 0
-0.11903937 0.95095468 0.44665125 0
-0.56676388 1.4766755 -0.050089583 0
-0.61199391 1.5315461 0.064628281 0
-0.61501956 1.5352167 0.18299617 0
-1.1287351 2.158428 0.44868296 0
-1.1301142 2.1601009 0.63279885 0
-0.13679864 0.95506525 0.45385519 0
-0.58308399 1.4653389 -0.050152335 0
-0.61396706 1.501858 0.063859813 0
-0.61829841 1.5069797 0.18089254 0
-1.1396632 2.1234877 0.44510895 0
-1.1482371 2.1336262 0.63057727 0
-0.14805903 0.95092678 0.45587665 0
-0.58959579 1.4426239 -0.04968765 0
-0.61701751 1.4742337 0.063181624 0
-0.61956239 1.4771674 0.17854753 0
-1.1585931 2.0985253 0.44391066 0
-1.1612455 2.1015828 0.62652719 0
-0.60227704 1.4273304 -0.049576294 0
-0.62929082 1.4576892 0.063027099 0
-0.62454307 1.4523535 0.17689747 0
-1.1704984 2.065913 0.44090927 0
-1.1731415 2.0688832 0.62226301 0
-0.62780213 1.4262222 -0.050156962 0
-0.66514575 1.4671407 0.064134717 0
-0.65941083 1.4608568 0.18008491 0
-1.180423 2.0317447 0.43752977 0
-1.1818115 2.0332661 0.61699319 0
-0.63960409 1.4098483 -0.05001365 0
-0.50204891 1.2628851 0.054827165 0
-0.6880461 1.4616036 0.18223268 0
-1.1857047 1.9932997 0.4330844 0
-1.1919534 1.9999759 0.61251199 0
-0.65586233 1.3982586 -0.050112654 0
-0.50346738 1.2394954 0.054255944 0
-0.71488905 1.4597518 0.18407282 0
-1.1995759 1.9646925 0.43106085 0
-1.1986021 1.963678 0.60695767 0
-0.66990519 1.3843141 -0.050105128 0
-0.51715893 1.2291439 0.054331653 0
-0.73805833 1.4535488 0.18533041 0
-1.2070069 1.9299389 0.42750061 0
-1.2073088 1.9302456 0.60238963 0
-0.67786765 1.3643495 -0.049801022 0
-0.52198058 1.209927 0.05396729 0
-0.77605128 1.4616107 0.1888267 0
-1.2190881 1.9004848 0.4252767 0
-1.2177126 1.8991224 0.59863985 0
-0.69104397 1.3497151 -0.049771946 0
-0.54614633 1.2097493 0.054579601 0
-0.80792856 1.4626213 0.19135165 0
-1.2226787 1.8632545 0.42104432 0
-1.224063 1.8645918 0.59363747 0
-0.71454418 1.3448288 -0.050258644 0
-0.57007694 1.2087531 0.055173278 0
-0.83658206 1.459778 0.19336902 0
-1.22228 1.8230722 0.41599026 0
-1.2292176 1.8296069 0.58842826 0
-0.72225106 1.3249671 -0.049977187 0
-0.86661816 1.4575579 0.068975195 0
-0.87004077 1.4607015 0.19606963 0
-1.2284657 1.789889 0.41273129 0
-1.2269018 1.7884526 0.58084458 0
-0.24258907 0.88443196 0.38553274 0
-0.73456478 1.3094931 -0.049931709 0
-0.90427911 1.4614688 0.070064992 0
-0.90856016 1.4653025 0.19946833 0
-1.2395709 1.7617158 0.4108015 0
-1.2374151 1.7597854 0.57791805 0
-0.23463483 0.86181587 0.37680256 0
-0.75102472 1.2976773 -0.050092518 0
-0.93878818 1.4616029 0.070991144 0
-1.2419775 1.7263002 0.40689576 0
-1.2310691 1.7167767 0.56943655 0
-0.23202755 0.84457028 0.37126401 0
-0.76165986 1.280751 -0.049985554 0
-0.97467148 1.462044 0.071971782 0
-1.2330027 1.6819081 0.40044239 0
-1.2365509 1.6849282 0.56519049 0
-0.23110379 0.82919765 0.36681855 0
-0.25568008 0.85011441 0.458177 0
-0.76693487 1.2594718 -0.049640998 0
-1.0097358 1.4609022 0.072903976 0
-1.2515049 1.6614765 0.40062654 0
-1.2358688 1.6485046 0.55907881 0
-0.24662156 0.82781404 0.371369 0
-0.78176701 1.2462288 -0.049751081 0
-1.0504003 1.463438 0.074084498 0
-1.2566978 1.6302445 0.39778197 0
-1.237093 1.6143926 0.55380577 0
-0.24916388 0.81558067 0.36897388 0
-0.79060853 1.2281625 -0.049595408 0
-1.0834004 1.4588699 0.074903563 0
-1.2573609 1.5959435 0.39401618 0
-1.2407784 1.5828772 0.54952449 0
-0.26814181 0.81648117 0.37534767 0
-0.81573486 1.2227335 -0.050184492 0
-1.1280855 1.4625398 0.076243274 0
-1.2469962 1.5538331 0.38787785 0
-1.2424606 1.5503509 0.54476827 0
-0.24914916 0.78773886 0.36183405 0
-0.24692704 0.7860328 0.43460461 0
-0.82356 1.2038417 -0.049999796 0
-1.1749682 1.4666685 0.077666342 0
-1.2429736 1.5175313 0.38334543 0
-1.2415001 1.5164292 0.53934586 0
-0.25799429 0.78084123 0.36302805 0
-0.27472615 0.79335541 0.44790331 0
-0.83170664 1.1853414 -0.049841542 0
-1.2066411 1.4584703 0.078402296 0
-1.2448901 1.4863336 0.38028198 0
-1.2456095 1.4868578 0.53570867 0
-1.2330452 1.477705 0.69157273 0
-0.27224422 0.77778894 0.36702442 0
-0.28430927 0.786578 0.44974717 0
-0.8524214 1.1758895 -0.050245065 0
-1.2556963 1.4619615 0.079897098 0
-1.2471449 1.4558954 0.37740788 0
-1.239943 1.4507866 0.52916294 0
-1.2433873 1.4532299 0.68961352 0
-0.28243583 0.77155763 0.36894476 0
-0.27932733 0.76935256 0.44269237 0
-0.85314369 1.1522809 -0.049782865 0
-1.3090507 1.4671353 0.081563577 0
-1.2517658 1.4275737 0.37516159 0
-1.2405452 1.4198246 0.52475888 0
-1.2450889 1.4229627 0.68430287 0
-0.27562803 0.75344229 0.43661103 0
-0.87060428 1.1403124 -0.050057426 0
-1.2711833 1.4095709 0.079289116 0
-1.2755817 1.4125276 0.2271871 0
-1.2540848 1.3980778 0.37251186 0
-1.245014 1.3919806 0.52170104 0
-1.2319872 1.3832245 0.67325628 0
-0.28701377 0.74803853 0.43979654 0
-0.88148725 1.1238068 -0.050055597 0
-1.2671853 1.3760707 0.078509204 0
-1.2696321 1.377671 0.22458401 0
-1.2503873 1.3650841 0.36866769 0
-1.2425431 1.3599536 0.51665998 0
-1.2374641 1.3566316 0.66988558 0
-0.30597991 0.74739903 0.44752869 0
-0.89209235 1.1071221 -0.050050851 0
-1.2716496 1.3486015 0.078111514 0
-1.2822871 1.3553692 0.22442761 0
-1.250057 1.334864 0.36566314 0
-1.2371758 1.3266689 0.51090574 0
-1.2372878 1.32674 0.66444528 0
-0.30426222 0.73313689 0.44293812 0
-0.89844811 1.0878088 -0.049876612 0
-1.2836858 1.3261417 0.078049354 0
-1.2934829 1.3322029 0.22412366 0
-1.2484795 1.3043609 0.3624984 0
-1.2418627 1.3002673 0.50833875 0
-1.2331928 1.2949035 0.65766191 0
-0.91389704 1.0741038 -0.050092675 0
-1.3091203 1.3117861 0.078557678 0
-1.3105764 1.3126618 0.22459833 0
-1.247727 1.274865 0.35961232 0
-1.2419562 1.2713945 0.50452298 0
-1.2333604 1.2662251 0.65274084 0
-0.92186236 1.0558454 -0.05000487 0
-1.3355485 1.2975912 0.079110861 0
-1.3311288 1.2950084 0.2255308 0
-1.2394643 1.2414424 0.35525647 0
-1.2320404 1.2371042 0.49788526 0
-1.2372048 1.240122 0.64941221 0
-0.93080926 1.0382118 -0.04996746 0
-1.38011 1.2932354 0.080411874 0
-1.3855253 1.2963091 0.23066647 0
-1.2440239 1.2159927 0.35367826 0
-1.2403992 1.2139354 0.49678308 0
-1.2368368 1.2119133 0.64462215 0
-0.9499892 1.0262439 -0.050356522 0
-1.2491038 1.191077 0.35228434 0
-1.2387462 1.1853693 0.49285725 0
-1.2317163 1.1814952 0.63819522 0
-0.9508059 1.0041411 -0.050005648 0
-1.2532097 1.1658567 0.35076496 0
-1.2401655 1.1588811 0.4899511 0
-1.2450536 1.1614951 0.63892025 0
-0.95469689 0.98390818 -0.049791936 0
-1.2643307 1.1445098 0.35074544 0
-1.2393453 1.1315502 0.48651642 0
-1.2335503 1.1285444 0.63042527 0
-0.96488011 0.96700424 -0.049841221 0
-1.2697138 1.1202765 0.34962219 0
-1.2365621 1.1036075 0.4826414 0
-1.2480541 1.1093858 0.63182354 0
-0.97871792 0.95183843 -0.050043814 0
-1.2778229 1.0975413 0.34911406 0
-1.2427403 1.0804515 0.48143345 0
-1.2426504 1.0804077 0.62593567 0
-0.9724201 0.92701435 -0.04945796 0
-1.3015809 1.0822611 0.35178664 0
-1.24317 1.0547119 0.47869357 0
-1.2389578 1.0527253 0.62084669 0
-0.99042392 0.91373086 -0.04984143 0
-1.2990637 1.054576 0.34927338 0
-1.2347068 1.0252074 0.47356659 0
-1.2424192 1.0287269 0.61853099 0
-0.99242115 0.89308608 -0.049604718 0
-1.3160057 1.0358561 0.3506788 0
-1.2509938 1.007172 0.47547385 0
-1.2391363 1.0019403 0.61388576 0
-1.0034549 0.87647122 -0.049730089 0
-1.3267167 1.0142627 0.35090142 0
-1.2452348 0.97953075 0.47131971 0
-1.2373497 0.97616971 0.60992891 0
-1.0238928 0.86362666 -0.050225955 0
-1.3272259 0.98843402 0.3491866 0
-1.2378989 0.95168012 0.46684828 0
-1.2349905 0.95048344 0.60590351 0
-1.0316793 0.84538239 -0.050239652 0
-1.335986 0.96613282 0.34914443 0
-1.2344477 0.92584187 0.46356195 0
-1.2372873 0.92696869 0.60368079 0
-1.0304239 0.82366771 -0.049916495 0
-1.3539999 0.94737154 0.35094354 0
-1.2358494 0.90220237 0.46170598 0
-1.2409116 0.90413761 0.6020472 0
-1.0349022 0.8043021 -0.04982337 0
-1.3560096 0.92245007 0.34970436 0
-1.2343506 0.87768698 0.45915121 0
-1.2490883 0.88310951 0.60213721 0
-1.042534 0.78611839 -0.049859341 0
-1.3603362 0.8985275 0.34897405 0
-1.2496974 0.85939372 0.46125033 0
-1.2420802 0.85669941 0.59696192 0
-1.0476024 0.76703399 -0.049807157 0
-1.375271 0.87831128 0.35032487 0
-1.24064 0.83259016 0.45682713 0
-1.2419426 0.83303255 0.59433979 0
-1.052803 0.74802804 -0.049769185 0
-1.3832449 0.85562605 0.35039824 0
-1.2295599 0.80558336 0.45197004 0
-1.2376885 0.80823016 0.59039253 0
-1.0539292 0.72777677 -0.049587972 0
-1.3888946 0.83220148 0.35008636 0
-1.2388915 0.78543836 0.45267794 0
-1.2355586 0.78439933 0.58731008 0
-1.0627928 0.70996118 -0.049705189 0
-1.3969737 0.80954242 0.35028848 0
-1.2397261 0.76268482 0.45118877 0
-1.2486959 0.76535767 0.58964348 0
-1.0808048 0.6946575 -0.050169889 0
-1.4074032 0.78751826 0.35098413 0
-1.2537669 0.74383533 0.45328394 0
-1.2329382 0.73791319 0.58205754 0
-1.0863283 0.67562968 -0.050178234 0
-1.407409 0.76256716 0.34978169 0
-1.2366245 0.71632469 0.44719252 0
-1.2314625 0.71492696 0.5795393 0
-1.0844429 0.65468615 -0.049922276 0
-1.4213109 0.7413609 0.35122955 0
-1.2447824 0.69594091 0.44787735 0
-1.2362908 0.69375604 0.57929444 0
-1.0830637 0.63404876 -0.049695417 0
-1.4171354 0.71553332 0.34936678 0
-1.2488528 0.67448694 0.44755417 0
-1.2342609 0.67092776 0.57679313 0
-1.0944396 0.61651385 -0.049946073 0
-1.4290948 0.69368964 0.35055605 0
-1.239783 0.65003192 0.44386229 0
-1.2394544 0.64995611 0.57686371 0
-1.0976503 0.59701979 -0.049905807 0
-1.4325428 0.66982186 0.35022196 0
-1.2408421 0.62814814 0.4429056 0
-1.2431955 0.62865978 0.57652956 0
-1.1114873 0.57972181 -0.050261803 0
-1.4461176 0.6480661 0.35180822 0
-1.2450182 0.60699391 0.44283488 0
-1.2347934 0.60490561 0.57216412 0
-1.1021794 0.55774075 -0.04978361 0
-1.433658 0.6211043 0.34866071 0
-1.2387007 0.58383739 0.44010788 0
-1.2465773 0.585343 0.57474798 0
-1.1165723 0.54032105 -0.050176002 0
-1.4554329 0.60068339 0.35185388 0
-1.2345173 0.56133097 0.43801567 0
-1.2388254 0.56209838 0.57080764 0
-1.111595 0.51941818 -0.049874615 0
-1.4529464 0.57579947 0.35065269 0
-1.2465719 0.5417124 0.44020012 0
-1.2411988 0.54082495 0.57038856 0
-1.1225398 0.50115156 -0.050158314 0
-1.4536924 0.55157346 0.35010073 0
-1.222567 0.51638186 0.43313825 0
-1.2371707 0.51860547 0.5679062 0
-1.1231753 0.48124263 -0.050078198 0
-1.4637276 0.52871639 0.35129678 0
-1.2423729 0.49785903 0.43745667 0
-1.2473599 0.49855423 0.57029808 0
-1.1159058 0.46038675 -0.049722765 0
-1.4554912 0.50337416 0.34922177 0
-1.2385606 0.47591338 0.43575436 0
-1.2394797 0.47602972 0.56671131 0
-1.1206709 0.4411498 -0.049809713 0
-0.50563383 0.37114984 0.039710339 0
-0.50305307 0.37085611 0.10719693 0
-0.50509506 0.3710885 0.17619342 0
-1.2376817 0.4544673 0.43487877 0
-1.2376181 0.45446005 0.56523997 0
-1.1244755 0.42175096 -0.049870782 0
-0.50567997 0.35920489 0.039666422 0
-0.52031595 0.36068425 0.1089248 0
-0.51460457 0.36010697 0.17768708 0
-1.2428964 0.43372062 0.43563613 0
-1.2368306 0.4331075 0.56422055 0
-1.1282048 0.40229911 -0.049937848 0
-0.46664608 0.34383556 0.038227301 0
-0.51332361 0.34796056 0.10804772 0
-0.52416831 0.34891894 0.17921397 0
-1.2327636 0.41153923 0.43252876 0
-1.2347233 0.41171241 0.56285137 0
-1.1431022 0.38364205 -0.050413474 0
-0.51176441 0.33585232 0.10777432 0
-0.50610977 0.33542427 0.175769 0
-1.2422949 0.39115056 0.4345271 0
-1.2250797 0.38984743 0.5590589 0
-1.1306651 0.36292243 -0.049919318 0
-0.51196563 0.32391736 0.10770714 0
-0.51226795 0.3239364 0.1767336 0
-1.2392287 0.36976671 0.43336913 0
-1.2258215 0.36892146 0.55882335 0
-1.2455521 0.37016535 0.70217079 0
-1.1307666 0.34318078 -0.049883019 0
-0.5140053 0.31208894 0.10785399 0
-0.51528466 0.31215343 0.17715645 0
-1.2425138 0.3488141 0.43390316 0
-1.2390001 0.34863698 0.56281865 0
-1.2373061 0.34855157 0.69825524 0
-0.3433978 0.30348834 0.46675411 0
-1.142141 0.32388765 -0.050258368 0
-0.50903946 0.29995942 0.10726339 0
