# .PCD v0.7 - Point Cloud Data file format
VERSION 0.7
FIELDS x y z intensity
SIZE 4 4 4 4
TYPE F F F F
COUNT 1 1 1 1
WIDTH 1349
HEIGHT 1
VIEWPOINT 0 0 0 1 0 0 0
POINTS 1349
DATA ascii
-1.2352802 0.095793359 0.56370211 0
-1.1235542 0.087266184 -0.049913317 0
-0.51612085 0.15640073 0.04008716 0
-0.51108193 0.15697423 0.10806536 0
-0.52054167 0.15589757 0.17899717 0
-1.2353245 0.074545152 0.43427345 0
-1.2338432 0.074713729 0.56397599 0
-1.1241565 0.067312948 -0.050019678 0
-0.52826035 0.14274614 0.040575642 0
-0.51472104 0.14446004 0.10861415 0
-0.51962334 0.14383946 0.17909226 0
-1.2449411 0.052023072 0.43739522 0
-1.243175 0.052246649 0.56795049 0
-1.1274068 0.046911631 -0.05023073 0
-0.51216322 0.13267797 0.040053345 0
-0.51661384 0.13205755 0.10899152 0
-0.50836974 0.1332068 0.17733316 0
-1.2431148 0.03078169 0.43764779 0
-1.2359881 0.031775165 0.56647813 0
-1.1164387 0.028521512 -0.049937986 0
-0.51575381 0.11998285 0.040245596 0
-0.5164178 0.11988174 0.1091595 0
-0.50520623 0.12158883 0.17707095 0
-1.2321949 0.010896285 0.43562296 0
-1.2438465 0.0091221826 0.57015282 0
-1.1135046 0.0090105133 -0.049943715 0
-0.51006526 0.10868097 0.040108263 0
-0.50620365 0.1093188 0.10825329 0
-0.51888245 0.10722464 0.17991306 0
-1.2431288 -0.012399594 0.43930978 0
-1.2382283 -0.011590193 0.5693869 0
-1.1134604 -0.011022548 -0.050063152 0
-0.50858843 0.096725307 0.040128507 0
-0.51148629 0.096209101 0.10905118 0
-0.51249892 0.096028723 0.17911996 0
-1.2410741 -0.033754807 0.43971482 0
-1.2371804 -0.033061218 0.57025176 0
-1.1185161 -0.032119464 -0.05037741 0
-0.50765455 0.084649377 0.040174 0
-0.51405191 0.083426483 0.10957177 0
-0.51086175 0.084036298 0.1792223 0
-1.2425643 -0.055831801 0.44111145 0
-1.2343547 -0.05426253 0.57060802 0
-1.1103635 -0.050748151 -0.050220855 0
-0.51527971 0.070790656 0.040537018 0
-0.51442647 0.070964925 0.10987098 0
-0.51050478 0.071765862 0.17958833 0
-1.2368375 -0.076578952 0.44070461 0
-1.2386327 -0.07694561 0.57346779 0
-1.0932813 -0.067325838 -0.049746182 0
-0.49669343 0.062366012 0.039949764 0
-0.50886232 0.059720639 0.10953512 0
-0.50846195 0.059807662 0.17967269 0
-1.2371984 -0.098611929 0.44195426 0
-1.2379373 -0.098772563 0.5747394 0
-1.0970896 -0.088380821 -0.050043166 0
-0.51001698 0.047005702 0.040533803 0
-0.51222068 0.046497498 0.11019794 0
-0.51262552 0.046404127 0.18093382 0
-1.2454633 -0.1225977 0.44534954 0
-1.242121 -0.12182692 0.57777411 0
-1.0885328 -0.10663862 -0.049896397 0
-0.51175499 0.034045253 0.040700994 0
-0.51648819 0.032890756 0.11098177 0
-0.5204469 0.03192516 0.18290913 0
-1.245216 -0.14485575 0.44659913 0
-1.2450402 -0.14481287 0.58048451 0
-1.0818218 -0.12526764 -0.049825653 0
-0.55134469 0.011221935 0.042270102 0
-0.54952753 0.011689504 0.1149799 0
-0.5591988 0.009201129 0.19068471 0
-1.236007 -0.16493885 0.44556555 0
-1.2409393 -0.16620792 0.58089131 0
-1.0830611 -0.14600088 -0.050057393 0
-0.62555778 -0.022124838 0.045135792 0
-0.61620498 -0.019592416 0.12276661 0
-1.2300925 -0.18581192 0.3166514 0
-1.2437898 -0.18952064 0.44908643 0
-1.2315633 -0.18621014 0.57957405 0
-1.0771872 -0.16488482 -0.050035618 0
-0.69011569 -0.054829966 0.047668949 0
-0.69392872 -0.055914085 0.13185936 0
-1.2445724 -0.21247695 0.32045382 0
-1.2422829 -0.21182598 0.45023787 0
-1.243283 -0.21211039 0.5856356 0
-1.0648398 -0.18182702 -0.049781449 0
-0.77912509 -0.09668798 0.05113782 0
-0.76796687 -0.093362994 0.1406242 0
-1.2423671 -0.2347277 0.32119375 0
-1.2320249 -0.23164587 0.44913858 0
-1.249382 -0.236818 0.58988172 0
-1.0620632 -0.20156835 -0.04989215 0
-0.86919284 -0.14144139 0.054679587 0
-0.86746657 -0.14090322 0.15234271 0
-1.2275863 -0.25316986 0.31961372 0
-1.2382592 -0.25649711 0.45250896 0
-1.2456199 -0.25879177 0.59081626 0
-1.0602546 -0.22171031 -0.050048966 0
-0.98042142 -0.19571514 0.059051532 0
-0.99631763 -0.20089124 0.16749425 0
-1.2334684 -0.2781119 0.32199034 0
-1.2402303 -0.2803137 0.45483309 0
-1.2369157 -0.27923444 0.59012216 0
-1.0469981 -0.23808466 -0.04978437 0
-1.1299483 -0.26625475 0.064911909 0
-1.1283649 -0.26571706 0.18315902 0
-1.2411845 -0.30403093 0.3247861 0
-1.2381108 -0.30298707 0.45614561 0
-1.0465094 -0.25878033 -0.050009884 0
-1.2922459 -0.34569934 0.20261542 0
-1.2415327 -0.32776168 0.32624719 0
-1.2322037 -0.32446191 0.45651615 0
-1.0407839 -0.27772209 -0.050047122 0
-1.2601781 -0.35844579 0.19983853 0
-1.2394713 -0.35082695 0.32730931 0
-1.2403554 -0.35115221 0.46078366 0
-1.0292579 -0.29447779 -0.049871929 0
-1.242905 -0.37615564 0.1987689 0
-1.252067 -0.37965825 0.33126247 0
-1.2401813 -0.37511435 0.46288922 0
-1.0263278 -0.31451479 -0.05003411 0
-1.2521126 -0.4041073 0.20078132 0
-1.2429048 -0.4004536 0.33108404 0
-1.2410902 -0.39973351 0.46538517 0
-1.020191 -0.33335939 -0.050083045 0
-1.2524011 -0.42890301 0.20180851 0
-1.2434323 -0.42521271 0.3328453 0
-1.2400934 -0.42383894 0.46745372 0
-1.012998 -0.35179481 -0.050100446 0
-1.2513692 -0.45340148 0.20272335 0
-1.2498417 -0.4527503 0.33583015 0
-1.2504703 -0.45301822 0.47277173 0
-0.99383807 -0.36496708 -0.049660008 0
-1.2453653 -0.47594443 0.20309538 0
-1.2365453 -0.47205296 0.33501533 0
-1.2296089 -0.4689925 0.46951041 0
-1.0013179 -0.38995811 -0.050268941 0
-1.2478352 -0.50245422 0.20450401 0
-1.2264564 -0.49269822 0.33487973 0
-1.2477146 -0.50239927 0.47721455 0
-0.99151444 -0.40727594 -0.050211664 0
-1.2346016 -0.52192658 0.20409466 0
-1.2306725 -0.52007347 0.33764741 0
-1.2423092 -0.52556187 0.47845075 0
-0.98447144 -0.42589703 -0.050272297 0
-1.4868467 -0.67061877 0.082222566 0
-1.242407 -0.55154502 0.20622705 0
-1.2440841 -0.55236202 0.34234577 0
-1.2379845 -0.54939073 0.48008379 0
-0.97371519 -0.44270244 -0.050194271 0
-1.4402202 -0.67726392 0.080835879 0
-1.2376478 -0.57540929 0.20690632 0
-1.2450312 -0.57912177 0.34463969 0
-1.2340189 -0.57358468 0.48191515 0
-0.95412135 -0.45486549 -0.049768787 0
-1.4026103 -0.68748868 0.079806097 0
-1.2361892 -0.60116911 0.2080259 0
-1.2418184 -0.6040889 0.34617174 0
-0.94817996 -0.47399274 -0.04989934 0
-1.3335496 -0.68007571 0.077501245 0
-1.2479446 -0.63429695 0.21080284 0
-1.2490393 -0.63488239 0.34991205 0
-0.9331888 -0.48824152 -0.049671683 0
-1.3024126 -0.69170976 0.076722458 0
-1.2436957 -0.6593526 0.21168628 0
-1.242556 -0.65872455 0.35093603 0
-0.92620778 -0.50685585 -0.049778558 0
-1.2667438 -0.70014441 0.075758033 0
-1.2420048 -0.68610251 0.21293101 0
-1.2386742 -0.68421209 0.35256886 0
-0.92493069 -0.52889431 -0.050131746 0
-1.2542573 -0.72134292 0.075749457 0
-1.2414494 -0.71385825 0.21436806 0
-1.2424527 -0.7144447 0.35588071 0
-0.91944766 -0.54869771 -0.050323915 0
-1.2464505 -0.74535316 0.075946853 0
-1.2385463 -0.74059957 0.21556528 0
-1.2448972 -0.74441904 0.35901678 0
-0.90114069 -0.56073052 -0.049989648 0
-1.2530844 -0.77846569 0.07676468 0
-1.2359464 -0.76786298 0.21685258 0
-1.2492037 -0.77606481 0.36265197 0
-0.87731946 -0.56897932 -0.049425751 0
-1.2449282 -0.80285686 0.076980822 0
-1.2377747 -0.79830569 0.21875782 0
-1.2450758 -0.80295068 0.36459839 0
-0.87784886 -0.59268296 -0.049900383 0
-1.2483869 -0.83503157 0.077707276 0
-1.2416595 -0.83063155 0.22099192 0
-1.2348635 -0.82618672 0.36532238 0
-0.87227476 -0.61269116 -0.050129279 0
-1.2382398 -0.85868305 0.077871986 0
-1.2370542 -0.85788614 0.22219811 0
-1.2382197 -0.85866958 0.36906433 0
-0.8482914 -0.62018579 -0.049572334 0
-1.239235 -0.89017576 0.078534447 0
-1.2478805 -0.89614636 0.22547494 0
-1.2421479 -0.89218742 0.37305358 0
-0.84873092 -0.64452744 -0.050083529 0
-1.2451583 -0.92574197 0.079435833 0
-1.2343843 -0.91809922 0.22563957 0
-1.6010448 -1.1781979 0.45566124 0
-0.82844996 -0.65422475 -0.049697693 0
-1.2393694 -0.9535678 0.079847895 0
-1.2341447 -0.94976181 0.22760491 0
-1.5766553 -1.1992708 0.45430803 0
-0.82746208 -0.67801595 -0.050173759 0
-1.2373515 -0.98458236 0.080447532 0
-1.2336416 -0.98180753 0.22960675 0
-0.79942334 -0.68146616 -0.049450316 0
-1.2401779 -1.0198542 0.081288509 0
-1.2459328 -1.0242726 0.23341592 0
-0.80322766 -0.70936179 -0.05016898 0
-1.1605415 -0.99090976 0.078409821 0
-1.1576697 -0.98864681 0.22357772 0
-1.1543604 -0.98603934 0.37036639 0
-0.79073572 -0.72473645 -0.050162852 0
-1.1370635 -1.0047674 0.078063369 0
-1.1370165 -1.0047294 0.22292124 0
-1.1411937 -1.0081069 0.37099335 0
-0.78215933 -0.74335808 -0.050347228 0
-1.2537532 -1.1345975 0.084223382 0
-1.2371291 -1.120806 0.23914948 0
-1.3311604 -1.1988153 0.41929239 0
-0.75818968 -0.74905342 -0.049822867 0
-1.2416008 -1.1604817 0.084485725 0
-1.2483486 -1.1662247 0.24321282 0
-1.3190813 -1.2264251 0.42082796 0
-1.0186341 -0.97071618 0.49218258 0
-0.74952996 -0.76762813 -0.050021674 0
-1.2882541 -1.2379576 0.41797483 0
-0.98375189 -0.97211403 0.48567447 0
-0.73684311 -0.78278917 -0.050040893 0
-1.192729 -1.1910257 0.083888479 0
-1.1956978 -1.1936842 0.24089098 0
-1.1945374 -1.1926451 0.39989939 0
-0.96964765 -0.99126095 0.48621452 0
-0.72390079 -0.79773825 -0.050057154 0
-0.92204595 -0.97972029 0.47524014 0
-0.71352637 -0.81512588 -0.050208725 0
-0.8947649 -0.98583704 0.47120634 0
-0.69216454 -0.82205337 -0.049827572 0
-0.84775472 -0.97234768 0.46015197 0
-0.68416214 -0.84184068 -0.050117336 0
-0.84320235 -0.99938661 0.46414572 0
-0.6620636 -0.84760398 -0.04970606 0
-0.81912231 -1.0071549 0.46121198 0
-0.65565276 -0.86929601 -0.050101846 0
-0.63740087 -0.87875026 -0.049898542 0
-0.6203208 -0.8892805 -0.04976074 0
-0.60747695 -0.90442997 -0.04985556 0
-0.59247959 -0.91720396 -0.04984476 0
-0.58139336 -0.93459576 -0.050058864 0
-0.57168245 -0.95389825 -0.050365657 0
-0.54904521 -0.95746142 -0.049954198 0
-0.53760642 -0.97486323 -0.050187215 0
-0.51477748 -0.97760826 -0.049766399 0
-0.49848884 -0.98866314 -0.049731947 0
-0.48555583 -1.0043188 -0.049909648 0
-0.47364104 -1.0216427 -0.050165772 0
-0.4545449 -1.0288224 -0.049987044 0
-0.43897307 -1.0410599 -0.050037287 0
-0.42176652 -1.0508515 -0.04999138 0
-0.37846196 -0.98418325 0.50132549 0
-0.40543699 -1.0619763 -0.050011326 0
-0.35089827 -0.97565287 0.49398887 0
-0.3898052 -1.0742699 -0.050088737 0
-0.33213019 -0.98038477 0.49202326 0
-0.3764717 -1.0905252 -0.050338514 0
-0.31236279 -0.98315877 0.48940554 0
-0.35625273 -1.0952693 -0.050118323 0
-0.28518581 -0.97277182 0.48184094 0
-0.33584756 -1.099373 -0.04988391 0
-0.28105754 -1.0021312 0.48963889 0
-0.31914169 -1.109902 -0.049923062 0
-0.26026982 -1.0022689 0.48632196 0
-0.29946315 -1.1148953 -0.049746748 0
-0.225486 -0.97550529 0.47299376 0
-0.28244239 -1.1247876 -0.049778257 0
-0.20474268 -0.97382313 0.46930096 0
-0.26749247 -1.1388878 -0.049986031 0
-0.18721963 -0.97797626 0.46789819 0
-0.24835505 -1.1446663 -0.049870074 0
-0.16586687 -0.97396666 0.46356958 0
-0.23369987 -1.1598409 -0.050134663 0
-0.15010591 -0.98114377 0.46347433 0
-0.21329035 -1.16276 -0.049924746 0
-0.13428314 -0.98817354 0.46339846 0
-0.19368447 -1.1671547 -0.049783528 0
-0.11305274 -0.98283416 0.45890388 0
-0.17591842 -1.1756556 -0.049811795 0
-0.10105838 -0.99848646 0.46211165 0
-0.15844472 -1.1849346 -0.049878575 0
-0.06930162 -0.96632463 0.34509167 0
-0.083534792 -1.0012294 0.4607192 0
-0.14047875 -1.1930988 -0.049910713 0
-0.05524905 -0.97631842 0.34612584 0
-0.070274606 -1.0145357 0.46318889 0
-0.12135769 -1.1982857 -0.049837701 0
-0.033928648 -0.96741599 0.14755371 0
-0.03326191 -0.96565539 0.24320763 0
-0.012368454 -0.91048306 0.32651633 0
-0.052505687 -1.0164715 0.46166134 0
-0.10520901 -1.2114888 -0.050078783 0
-0.011269046 -0.95367044 0.14532083 0
-0.0075836019 -0.94355565 0.23785858 0
0.0024460123 -0.91602927 0.32652649 0
-0.088749781 -1.2243292 -0.050312798 0
0.0076676174 -0.94898146 0.14416161 0
0.010245638 -0.9416191 0.2364479 0
0.021443265 -0.90964109 0.32336101 0
0.00076590641 -0.96869129 0.44065654 0
-0.066120818 -1.2193403 -0.049882129 0
0.024330722 -0.95021278 0.14370559 0
0.023361521 -0.95309645 0.23763812 0
0.025408255 -0.94700664 0.33205 0
0.017147856 -0.9715845 0.43979818 0
-0.047925547 -1.2271343 -0.049943373 0
0.036517397 -0.96499997 0.14480571 0
0.037479207 -0.96201426 0.23836991 0
0.01937704 -1.0182084 0.34978682 0
0.021105217 -1.0128436 0.4524256 0
-0.030730737 -1.2383308 -0.050140072 0
0.024599867 -1.0588568 0.35927743 0
-0.011200054 -1.242099 -0.050067652 0
0.065830275 -0.98058718 0.33712178 0
0.0080736745 -1.2466049 -0.050031982 0
0.085059509 -0.97255927 0.33379686 0
0.029319959 -1.2436482 -0.049729627 0
0.10332681 -0.96686846 0.33116436 0
0.045459881 -1.2599466 -0.050147358 0
0.11535554 -0.98469967 0.33479261 0
0.066872373 -1.2556014 -0.049813274 0
0.086205944 -1.2593535 -0.049786493 0
0.10428055 -1.268911 -0.049980633 0
0.1233031 -1.274462 -0.050036691 0
0.14262412 -1.2786558 -0.050052021 0
-0.064963803 -2.383498 0.10218651 0
0.16263221 -1.2790016 -0.049936686 0
0.0022464858 -2.1961033 0.095175311 0
0.18223684 -1.2813497 -0.049903121 0
0.034069374 -2.1963339 0.094994761 0
0.20144475 -1.2862202 -0.049969587 0
0.065374419 -2.1992092 0.094924487 0
0.22102197 -1.2887496 -0.049960308 0
0.097437367 -2.1961884 0.09465611 0
0.2394022 -1.3009522 -0.050307885 0
0.12753455 -2.2075946 0.094921649 0
0.25943956 -1.300433 -0.050206348 0
0.16076089 -2.1924627 0.094247214 0
0.27940568 -1.299939 -0.050114889 0
0.19159077 -2.196979 0.09429346 0
0.29954526 -1.2966856 -0.049933668 0
0.22190587 -2.2079799 0.094585918 0
0.31869462 -1.305362 -0.050188731 0
0.25319159 -2.2085183 0.094517268 0
0.33873522 -1.3022169 -0.050029427 0
0.28530499 -2.1945066 0.093942381 0
0.35851023 -1.3023783 -0.049997419 0
0.31602815 -2.2014301 0.094130538 0
0.37849644 -1.2958807 -0.049736448 0
0.34705344 -2.2036076 0.094162896 0
0.39807642 -1.299603 -0.049849484 0
0.37814221 -2.2041638 0.094151303 0
0.41770354 -1.307111 -0.050106477 0
0.43750137 -1.3102828 -0.050217491 0
0.45732844 -1.3101367 -0.050218958 0
0.47691414 -1.3013263 -0.049919892 0
0.49693653 -1.3082602 -0.050192047 0
0.51622403 -1.2978275 -0.049852498 0
0.53584945 -1.2960771 -0.049832001 0
0.55577421 -1.2982666 -0.049961425 0
0.57611781 -1.3039957 -0.050226886 0
0.59481514 -1.2920984 -0.049869187 0
0.61411977 -1.2875354 -0.049783051 0
0.63337064 -1.2830062 -0.049706731 0
0.65350926 -1.2850615 -0.049876459 0
0.67275518 -1.2805755 -0.049819343 0
0.69362634 -1.2859641 -0.050128371 0
0.71244472 -1.2787963 -0.049992029 0
0.73326677 -1.2824221 -0.050256524 0
0.75055093 -1.2680657 -0.049875598 0
0.76916581 -1.2609713 -0.049767058 0
0.78939402 -1.261096 -0.04993147 0
0.8098855 -1.2617896 -0.050126664 0
0.83013755 -1.2610059 -0.050277505 0
0.84838068 -1.2524803 -0.050151698 0
0.86858571 -1.2510827 -0.050298758 0
0.88604707 -1.240212 -0.050102614 0
0.90650868 -1.2393095 -0.050287049 0
0.91976601 -1.2160903 -0.049643137 0
0.94296002 -1.2232209 -0.050148256 0
0.96110934 -1.2151624 -0.050090864 0
0.98104471 -1.2120185 -0.050229065 0
0.99975127 -1.2054111 -0.050244983 0
0.92334396 -1.0074203 0.45953208 0
1.0142337 -1.1882166 -0.049862862 0
0.94277924 -1.0097818 0.46262926 0
1.0346152 -1.1859266 -0.050061915 0
0.96153629 -1.0098912 0.46501929 0
1.0527476 -1.178043 -0.050054614 0
0.97796303 -1.0041159 0.46537653 0
1.0686135 -1.1650704 -0.049857315 0
0.98262316 -0.97182435 0.45615506 0
1.085817 -1.1553302 -0.049793728 0
1.0031072 -0.97558457 0.46010458 0
1.1073221 -1.154734 -0.050099775 0
1.0230023 -0.9774037 0.46345752 0
1.1268343 -1.149582 -0.050237264 0
1.0414522 -0.97569782 0.46561724 0
1.1386526 -1.1290258 -0.049768906 0
1.0631679 -0.98006874 0.47014377 0
1.1599106 -1.1272361 -0.050059415 0
1.0804294 -0.9751721 0.47132337 0
1.1791669 -1.1212933 -0.050194293 0
1.1018598 -0.97781843 0.47544348 0
1.1924629 -1.1044117 -0.049893312 0
1.1296415 -0.99125689 0.05727271 0
1.1312056 -0.99407381 0.16068922 0
1.1335436 -0.99828535 0.26645914 0
1.1293166 -0.99067134 0.37223917 0
1.1317146 -0.99499089 0.48522246 0
1.2090625 -1.0937296 -0.049851965 0
1.1464025 -0.98413998 0.057345092 0
1.1446135 -0.98101097 0.16017348 0
1.1400154 -0.97296923 0.26305425 0
1.1435162 -0.97909194 0.37144369 0
1.1511248 -0.99239916 0.48764127 0
1.2311946 -1.0924984 -0.050210461 0
1.1650919 -0.98019308 0.057558041 0
1.1692483 -0.9872548 0.16208248 0
1.1668309 -0.98314768 0.26706898 0
1.1650232 -0.98007649 0.37441456 0
1.1629659 -0.97658116 0.48506615 0
1.2449455 -1.0769351 -0.049985085 0
1.2641811 -1.0704701 -0.050147887 0
1.2774507 -1.0544738 -0.049918115 0
1.286606 -1.0325187 -0.04943883 0
1.3095394 -1.0315207 -0.049863812 0
1.3261652 -1.0209199 -0.049887482 0
1.3434942 -1.0112697 -0.049962211 0
1.3589785 -0.99900943 -0.049931705 0
1.3752944 -0.98788446 -0.049960308 0
1.3879641 -0.9720028 -0.0497838 0
1.4079982 -0.96560234 -0.050044779 0
1.2028174 -0.7068854 0.050256133 0
1.2039413 -0.70830244 0.13941576 0
1.4235591 -0.95340878 -0.050053347 0
1.2051184 -0.68498451 0.049698025 0
1.2118406 -0.69324493 0.1386859 0
1.4387357 -0.94074041 -0.050048988 0
1.2048715 -0.66064256 0.049021821 0
1.2140685 -0.67165774 0.13704799 0
1.4540569 -0.92824084 -0.050061453 0
1.2078201 -0.64076066 0.048547801 0
1.1989219 -0.63037217 0.13260891 0
1.4691033 -0.91541058 -0.050067455 0
1.2083448 -0.61862302 0.04796306 0
1.2018515 -0.61123252 0.13126144 0
1.4846969 -0.90317637 -0.05011123 0
1.2027106 -0.59026349 0.047072951 0
1.210804 -0.59924448 0.13093853 0
1.4959412 -0.88618618 -0.049933802 0
1.5139532 -0.87651342 -0.050121121 0
1.5278138 -0.86237592 -0.050099667 0
1.5390066 -0.84557909 -0.049952637 0
1.5564853 -0.83507198 -0.050131973 0
1.5698911 -0.82050055 -0.050114781 0
1.5707995 -0.79431778 -0.049497459 0
1.5944434 -0.7893371 -0.049998891 0
1.6098624 -0.77660757 -0.050105814 0
1.6140845 -0.75412267 -0.049691416 0
1.6343458 -0.74549288 -0.050042592 0
1.6442572 -0.72806215 -0.04991759 0
1.6595756 -0.71505612 -0.050050911 0
1.6742517 -0.70142746 -0.050161324 0
1.6757929 -0.67774361 -0.049690049 0
1.6838722 -0.65929514 -0.04952655 0
1.7074546 -0.65212965 -0.050056439 0
1.7157242 -0.63378614 -0.049918335 0
1.7256677 -0.61669707 -0.049863741 0
1.7320373 -0.5972808 -0.049665768 0
1.7535152 -0.5877732 -0.05012171 0
1.7572991 -0.56678092 -0.049833383 0
1.7725188 -0.55299902 -0.050036605 0
1.7882674 -0.53936034 -0.050267495 0
1.7876735 -0.51611763 -0.049830519 0
1.8064798 -0.50407517 -0.05020221 0
1.8134348 -0.48529676 -0.050096113 0
1.8133544 -0.46289393 -0.049716406 0
1.8269697 -0.4477829 -0.049899511 0
1.8403389 -0.43240252 -0.050079279 0
1.8459858 -0.41317627 -0.04995992 0
1.85684 -0.39645544 -0.050055761 0
1.8635798 -0.37781069 -0.049998317 0
1.8669597 -0.35774943 -0.0498196 0
1.876901 -0.34056965 -0.049905602 0
1.8856744 -0.32284901 -0.049954534 0
1.8873053 -0.30230579 -0.049738146 0
1.9095533 -0.28965577 -0.050318804 0
1.9032307 -0.26625857 -0.049818512 0
1.9149867 -0.24949829 -0.050014675 0
1.9098332 -0.22696488 -0.049581759 0
1.9306179 -0.21301435 -0.050133143 0
1.9385188 -0.19472627 -0.050208114 0
1.9315974 -0.1720645 -0.049740247 0
1.9504781 -0.15690286 -0.050240595 0
1.9434861 -0.13454215 -0.049790997 0
1.9537634 -0.11683265 -0.049988799 0
1.9636072 -0.098873682 -0.050178297 0
1.9624882 -0.078319021 -0.049974464 0
1.9652961 -0.058735888 -0.049923908 0
1.9629871 -0.038174372 -0.049696244 0
1.9791394 -0.021181535 -0.050148755 0
1.9778614 -0.00086994033 -0.049976662 0
1.9799153 0.018793169 -0.049934607 0
1.9753093 0.039400611 -0.049661294 0
1.9860805 0.057771746 -0.049951613 0
1.9877607 0.077444978 -0.049922917 0
1.9831898 0.097772591 -0.049678706 0
1.9871585 0.11712145 -0.049750213 0
1.9957259 0.13614683 -0.049995106 0
1.9911244 0.15626194 -0.049777087 0
2.0018811 0.175355 -0.050117474 0
1.9956937 0.19543873 -0.049860753 0
1.9972471 0.21510068 -0.049889661 0
2.0083511 0.23460574 -0.050268434 0
1.994566 0.25453779 -0.049767356 0
1.9994507 0.2742371 -0.049941752 0
1.9945679 0.29387805 -0.049776271 0
2.0000172 0.31373069 -0.049988609 0
2.010546 0.33396038 -0.050391521 0
1.9952949 0.35301554 -0.049881961 0
2.0045242 0.37341166 -0.050256632 0
1.9927793 0.39235559 -0.04988955 0
1.9968823 0.41254371 -0.050098915 0
1.9814883 0.43078876 -0.049617615 0
1.9899467 0.45156193 -0.050001521 0
1.9938982 0.47201204 -0.050233167 0
1.9851556 0.49077937 -0.050016537 0
1.978274 0.50969052 -0.049875282 0
1.9804035 0.5300504 -0.050068747 0
1.9756873 0.54928827 -0.050023425 0
1.9647883 0.56727457 -0.049761795 0
1.9761559 0.5897693 -0.050320137 0
1.9822187 0.61148262 -0.050696325 0
1.9692397 0.62895417 -0.050384969 0
1.9666538 0.64880699 -0.050463233 0
1.9440695 0.66344029 -0.04981254 0
1.940711 0.68293631 -0.04987872 0
1.9273932 0.6995846 -0.049583923 0
1.9323353 0.72158533 -0.049977329 0
1.924935 0.7399475 -0.049920205 0
1.9334564 0.76356596 -0.050470561 0
1.9179029 0.7792533 -0.050124865 0
1.9044993 0.7954604 -0.049866661 0
1.908778 0.8181091 -0.05028924 0
1.8854386 0.8303228 -0.049666625 0
1.8825862 0.85034525 -0.049835626 0
1.8801484 0.87067384 -0.050031289 0
1.8730819 0.88914883 -0.050057847 0
1.859203 0.90459073 -0.049827047 0
1.8586456 0.92603731 -0.050126821 0
1.8533344 0.94544303 -0.050250862 0
1.8337954 0.95790803 -0.04981862 0
1.8278242 0.97696352 -0.049933769 0
1.822938 0.99668562 -0.050103106 0
1.8058527 1.0099247 -0.049788099 0
1.7982459 1.028214 -0.049865391 0
1.7866617 1.0442791 -0.049788836 0
1.7794001 1.0628476 -0.049899474 0
1.7863569 1.0901843 -0.050615307 0
1.762816 1.0989864 -0.050065901 0
1.7555288 1.1178162 -0.050207254 0
1.7404993 1.1316358 -0.05002825 0
1.7300234 1.1484089 -0.050051909 0
1.700045 1.1515557 -0.049235068 0
1.7046255 1.1788402 -0.049932051 0
1.6989001 1.1991321 -0.050193399 0
1.6768328 1.2072757 -0.049736626 0
1.6695036 1.2264785 -0.049946569 0
1.6592433 1.243535 -0.050035734 0
1.6434752 1.2561659 -0.049881507 0
1.6311886 1.2715842 -0.049895365 0
1.6184362 1.286618 -0.049896531 0
1.6035367 1.2997586 -0.049804356 0
1.5941352 1.3178017 -0.049984034 0
1.5842175 1.3355421 -0.05015168 0
1.5679767 1.3474188 -0.050020326 0
1.5537586 1.361149 -0.049995799 0
1.539613 1.3749316 -0.049983308 0
1.5311605 1.394563 -0.050271086 0
1.5166322 1.4080839 -0.050260149 0
1.0223571 0.88662505 0.29124141 0
1.4910692 1.4096591 -0.049677543 0
1.0430177 0.9248839 0.30523175 0
1.4843109 1.4314922 -0.050090648 0
1.0539701 0.95395422 0.31483197 0
1.4651982 1.4397099 -0.049856223 0
1.0538734 0.97155243 0.3191846 0
1.45441 1.4573973 -0.050080832 0
1.0509323 0.98633909 0.32225946 0
1.4435688 1.4752733 -0.050318215 0
1.0586199 1.0142218 0.33099428 0
1.4188342 1.4763469 -0.049786098 0
1.0579556 1.0328921 0.33564684 0
1.3994288 1.4835413 -0.049552429 0
1.0525782 1.0461893 0.3379752 0
1.3884188 1.5013353 -0.049810346 0
1.0502099 1.0636721 0.34206948 0
1.3713182 1.5113469 -0.049724285 0
1.0359701 1.0659044 0.33978677 0
1.3578911 1.5262706 -0.049866047 0
1.0319142 1.0817358 0.34320983 0
1.3432074 1.5396121 -0.049944587 0
1.0235735 1.0920163 0.34435388 0
1.327358 1.5513796 -0.049962077 0
1.0163473 1.104055 0.34624314 0
1.3131374 1.5655816 -0.050093003 0
1.0013379 1.1048515 0.34363687 0
1.2920338 1.5695051 -0.049791161 0
1.1694615 1.3833797 0.34784147 0
1.0008807 1.1273907 0.34978914 0
1.2770469 1.5825876 -0.04989139 0
1.1485879 1.3820717 0.34466061 0
0.98803216 1.1314547 0.3485944 0
1.2681638 1.6056069 -0.050416779 0
0.97337848 1.1324543 0.34627154 0
1.2499688 1.6139729 -0.050331254 0
0.96599406 1.1451203 0.34857616 0
0.84087431 0.93854296 0.47343364 0
1.2337338 1.6255565 -0.050389171 0
0.9492628 1.1422544 0.34490374 0
0.839432 0.95565724 0.4817096 0
1.2069542 1.6187867 -0.049700335 0
0.94433528 1.1594768 0.34903726 0
0.84717703 0.98955095 0.35186413 0
0.83852851 0.97442508 0.41524035 0
0.83897924 0.97521335 0.4916068 0
1.1880182 1.6251501 -0.049566396 0
1.0466059 1.3704355 0.32876471 0
0.9377389 1.1743419 0.35226873 0
0.84729737 1.0114369 0.35978338 0
0.83908015 0.99663585 0.42505792 0
0.83875906 0.99605757 0.5023126 0
1.1770356 1.6460819 -0.050033879 0
1.0387324 1.3894041 0.33204669 0
0.91857874 1.1664101 0.34689447 0
0.85125601 1.0414653 0.3714779 0
0.84085417 1.0221605 0.43668854 0
0.83981681 1.0202353 0.51519358 0
1.1632792 1.6624254 -0.050319046 0
1.0210404 1.3902926 0.33013085 0
0.91472304 1.186885 0.35231024 0
0.84716874 1.0576395 0.37659994 0
0.83779478 1.0397052 0.44372502 0
0.83980024 1.0435419 0.52739829 0
1.1413251 1.6630439 -0.049979981 0
0.99870348 1.3816023 0.32555139 0
0.90096962 1.1887399 0.35076493 0
0.85043961 1.0890268 0.38877472 0
0.83638436 1.061291 0.45300519 0
0.83889228 1.06624 0.53912079 0
1.1229037 1.6703213 -0.049918886 0
1.0784022 1.5796922 0.27027097 0
0.97935605 1.3779806 0.32252094 0
0.88590086 1.1876552 0.34820399 0
0.84992796 1.1143949 0.39807904 0
0.83935374 1.0928601 0.46780285 0
0.84020448 1.0945927 0.55451465 0
1.1005123 1.6691567 -0.04953362 0
0.96812052 1.390728 0.32420206 0
0.87845689 1.2021594 0.35147128 0
0.83592081 1.1127033 0.39492503 0
0.84324026 1.1280966 0.48452321 0
0.84238017 1.1262877 0.57200062 0
1.0880188 1.6888595 -0.049981777 0
0.94897479 1.3866878 0.32119852 0
0.86170548 1.1970332 0.34756494 0
0.83983195 1.1494974 0.40941033 0
0.8357361 1.1405963 0.48859727 0
0.83799088 1.1454965 0.58121628 0
1.0654091 1.6866133 -0.049575914 0
0.92988318 1.382046 0.31811133 0
0.84899366 1.2002629 0.34680021 0
0.84004951 1.1801627 0.42101493 0
0.84527713 1.1919109 0.51395696 0
0.84012139 1.1803243 0.600555 0
1.0507216 1.7020755 -0.049871508 0
0.9148466 1.3860699 0.31751433 0
0.84894264 1.2327965 0.35671002 0
0.83922189 1.210189 0.43226764 0
0.8359676 1.2026205 0.51699942 0
0.8413837 1.2152168 0.61981374 0
1.0324963 1.709567 -0.04986462 0
0.89772987 1.3849357 0.31554806 0
0.85434252 1.2804224 0.37200496 0
0.8399142 1.2456667 0.44591025 0
0.84138036 1.2491986 0.53952116 0
0.83966696 1.2450713 0.63572681 0
1.0144116 1.7174051 -0.04987995 0
0.8808226 1.3838091 0.31365308 0
0.85197645 1.3117751 0.38136661 0
0.83573049 1.2712059 0.45504767 0
0.8409847 1.2843267 0.55572164 0
0.84301257 1.2893906 0.66081423 0
0.99782795 1.7291715 -0.050054263 0
0.86544192 1.3861254 0.31276721 0
0.85148287 1.349954 0.39312783 0
0.83826941 1.3157145 0.47258294 0
0.83990788 1.3199602 0.57211739 0
0.83776164 1.3143988 0.67347759 0
0.98025674 1.7386419 -0.05014829 0
0.84806198 1.3828164 0.31040728 0
0.84521902 1.375164 0.40023357 0
0.83948797 1.3597379 0.48980784 0
0.84053642 1.3625599 0.59216201 0
0.84179896 1.3659583 0.70292163 0
0.95704687 1.7325351 -0.049659759 0
0.83209908 1.3827885 0.30900627 0
0.84033608 1.4058449 0.40926814 0
0.83860284 1.4009933 0.50573176 0
0.83997285 1.4048283 0.61193657 0
0.94015473 1.7437893 -0.049839664 0
0.82001811 1.3936555 0.31060439 0
0.83965981 1.4509006 0.42334154 0
0.84086436 1.4544111 0.52691573 0
0.83721513 1.4437755 0.62987274 0
0.92592561 1.763551 -0.050346591 0
1.0318438 2.0853906 0.35174641 0
0.80064011 1.3828623 0.30641907 0
0.83859795 1.4981998 0.43814555 0
0.84008551 1.50272 0.54577279 0
0.84149456 1.5070014 0.66054159 0
0.90526813 1.7641182 -0.050139729 0
1.0066732 2.0858307 0.35043004 0
0.78423458 1.3801332 0.30447286 0
0.8406384 1.559077 0.45763195 0
0.83981228 1.5564562 0.56691557 0
0.84209394 1.563695 0.68763381 0
0.88326466 1.7597251 -0.049758412 0
0.98155409 2.0858181 0.34909314 0
0.77140951 1.3886253 0.30557933 0
0.83696818 1.6061281 0.47223139 0
0.8382954 1.6105314 0.5881263 0
0.86763155 1.7765107 -0.050175566 0
0.95965445 2.0963333 0.34979632 0
0.75453931 1.3834621 0.30309948 0
0.84109616 1.6842879 0.4975636 0
0.83946592 1.6786219 0.61530691 0
0.84606701 1.7727849 -0.049839281 0
0.74114436 1.3900589 0.047671311 0
0.74117434 1.3901681 0.13145263 0
0.73986804 1.3854032 0.21563622 0
0.73955625 1.3842659 0.30226305 0
0.83517522 1.733055 0.51265103 0
0.83721858 1.7405086 0.63972408 0
0.82933295 1.7866633 -0.050163623 0
0.7238546 1.3819945 0.047233716 0
0.72495866 1.3862302 0.13059363 0
0.72306442 1.3789629 0.21373129 0
0.72383738 1.3819284 0.30065095 0
0.82977128 1.7883449 0.52995729 0
0.83016789 1.7898666 0.6587128 0
0.80956155 1.7892233 -0.05007847 0
0.70996577 1.3864089 0.047264427 0
0.70961815 1.385003 0.13006002 0
0.70967585 1.3852365 0.21423362 0
0.70794517 1.3782367 0.29874006 0
0.82386041 1.8470551 0.54840529 0
0.82441545 1.8492998 0.68197757 0
0.7877984 1.7830193 -0.049681377 0
0.69234824 1.3749892 0.046720907 0
0.69522053 1.3872677 0.12993473 0
0.69358385 1.3802713 0.21268414 0
0.69409615 1.3824612 0.29896152 0
0.81844932 1.9140458 0.56965375 0
0.76760459 1.7826412 -0.049508415 0
0.67832077 1.3780688 0.046717122 0
0.67973572 1.3844805 0.12927377 0
0.67807573 1.3769584 0.21148157 0
0.67660558 1.370297 0.29494607 0
0.80589467 1.9561452 0.58238608 0
0.75239843 1.8057128 -0.050200213 0
0.66544628 1.3867025 0.046922307 0
0.6635406 1.3775195 0.12817785 0
0.66635758 1.391094 0.21353203 0
0.66435498 1.3814439 0.29707271 0
0.79065585 1.9900697 0.59236133 0
0.73129755 1.8010373 -0.049888138 0
0.6493566 1.3795691 0.046559442 0
0.65041846 1.385031 0.12869145 0
0.65086675 1.3873367 0.21231724 0
0.65062612 1.3860991 0.29754701 0
0.7780174 2.0413439 0.60825747 0
0.71332818 1.8124113 -0.05016876 0
0.63480991 1.379521 0.046461854 0
0.63390696 1.374543 0.12725601 0
0.63626999 1.3875711 0.21187265 0
0.63634378 1.3879777 0.29734519 0
0.76435804 2.093751 0.62455434 0
0.69455749 1.8202376 -0.050328549 0
0.62106568 1.3838373 0.046529118 0
0.62031633 1.3793879 0.12751728 0
0.62068754 1.3815922 0.21032633 0
0.62129486 1.3851981 0.29598519 0
0.74367076 2.1118758 0.62930858 0
0.67330551 1.8128591 -0.049947217 0
0.60754794 1.3899341 0.046666835 0
0.60649663 1.3831725 0.12768137 0
0.60633081 1.3821059 0.2100039 0
0.60728866 1.3882664 0.29618672 0
0.72790414 2.1640146 0.64559358 0
0.65494996 1.8239079 -0.05024077 0
0.5925585 1.3864149 0.04646368 0
0.59171498 1.3805001 0.12716313 0
0.5925023 1.386021 0.21033463 0
0.59152532 1.3791704 0.29329845 0
0.70924401 2.2046213 0.65804076 0
0.63582265 1.8306433 -0.050386883 0
0.57766396 1.3825315 0.046254542 0
0.57767528 1.3826185 0.12718509 0
0.57687759 1.3764724 0.20824797 0
0.57794631 1.384707 0.29423061 0
0.6886943 2.2380188 0.66812783 0
0.61560911 1.8290087 -0.050240591 0
0.56441677 1.3914773 0.046513602 0
0.56437618 1.3911303 0.12791795 0
0.56334174 1.3822894 0.20899025 0
0.5632847 1.3818021 0.29303697 0
0.66701514 2.2683668 0.67726541 0
0.59521127 1.8246423 -0.050005574 0
0.55160081 1.4063442 0.12939212 0
0.55221301 1.4122162 0.21413419 0
0.55279601 1.4178079 0.30187342 0
0.644319 2.2956684 0.68546331 0
0.57573104 1.8285152 -0.050075423 0
0.55220032 1.5714732 0.14706062 0
0.55234075 1.5730072 0.2429975 0
0.55160218 1.5649397 0.33920392 0
0.6216386 2.3299932 0.69609362 0
0.556422 1.8352251 -0.050255597 0
0.60227054 2.4166067 0.23801726 0
0.5986973 2.3712964 0.38716078 0
0.59742361 2.3551455 0.54107934 0
0.53526181 1.8159447 -0.049514398 0
0.57440352 2.4071784 0.3932983 0
0.57341421 2.392235 0.55007434 0
0.51637697 1.829427 -0.049954582 0
0.549007 2.4385767 0.39867711 0
0.54775769 2.4152532 0.55554533 0
0.49655366 1.827654 -0.049857944 0
0.52168202 2.4413381 0.39894199 0
0.52159727 2.4392684 0.56135064 0
0.47716221 1.8388242 -0.050232537 0
0.45644867 1.1079267 0.35540217 0
0.45632765 1.1036561 0.42609611 0
0.45720613 1.831111 -0.049941529 0
0.44590023 1.1129137 0.35737026 0
0.44606555 1.1234156 0.43586725 0
0.43748799 1.834776 -0.050065722 0
0.43513924 1.088956 0.41857454 0
0.43511432 1.0810483 0.49033052 0
0.41769907 1.8363258 -0.050123274 0
0.42483017 1.0811228 0.41467142 0
0.42486468 1.0774691 0.48822704 0
0.39799967 1.8318304 -0.049973868 0
0.41413543 1.099633 0.42401606 0
0.41456574 1.0801059 0.4898867 0
0.37810051 1.8360542 -0.050144732 0
0.35221443 2.583359 0.4244771 0
0.35221973 2.5832067 0.59796375 0
0.40492368 1.0616974 0.47913569 0
0.35882559 1.8244481 -0.049758866 0
0.32207423 2.6022203 0.42809832 0
0.32249305 2.5933573 0.60086167 0
0.39510864 1.056587 0.4763456 0
0.33940238 1.8198196 -0.049630947 0
0.29200241 2.6114032 0.43004221 0
0.2921299 2.6092741 0.60533118 0
0.38614392 1.0392314 0.46635187 0
0.31898919 1.8300447 -0.050043352 0
0.26112971 2.6278117 0.43336281 0
0.26156539 2.6218045 0.60903627 0
0.29798314 1.8437653 -0.050590642 0
0.2299467 2.6423447 0.43641791 0
0.23044005 2.636554 0.61341202 0
0.28012696 1.8213152 -0.049850583 0
0.19810893 2.6591394 0.43995771 0
0.19725247 2.6678884 0.62214524 0
0.26036718 1.8207918 -0.049905151 0
0.16747771 2.6604886 0.44077256 0
0.16609688 2.672971 0.62425923 0
0.34701216 1.0375438 0.46732491 0
0.240713 1.8190728 -0.049925737 0
0.13422509 2.6821148 0.44534338 0
0.13404034 2.6836121 0.6279062 0
0.22109462 1.8169603 -0.049941085 0
0.10334219 2.6815758 0.44596383 0
0.10324143 2.6823156 0.62858951 0
0.20233834 1.8089687 -0.049753167 0
0.07173948 2.6852458 0.44742376 0
0.069820419 2.698122 0.63378578 0
0.18163024 1.8138399 -0.050038598 0
0.035250291 2.7177856 0.45423377 0
0.03632693 2.7111368 0.63837981 0
0.16374345 1.8013916 -0.049706388 0
0.0015606449 2.7287693 0.45719621 0
0.0022970305 2.7245584 0.64319837 0
0.14390178 1.8005998 -0.049804997 0
-0.030204995 2.7272458 0.4579483 0
-0.028206034 2.7166066 0.64259106 0
0.1206048 1.8166336 -0.050525647 0
-0.088833168 2.8588371 0.10047752 0
-0.090577677 2.8675179 0.2913512 0
-0.061670825 2.7236719 0.45839858 0
-0.063534096 2.732944 0.64840287 0
0.10533749 1.7927183 -0.049800385 0
-0.11436947 2.8189507 0.099268444 0
-0.11459173 2.8199887 0.28687412 0
-0.095494464 2.730787 0.46089453 0
-0.09514381 2.7291491 0.64909351 0
0.083177224 1.8014228 -0.050274346 0
-0.14423151 2.8019197 0.098904438 0
-0.14308484 2.7968745 0.28510827 0
-0.12750311 2.7283223 0.46170446 0
-0.13148363 2.7458346 0.65524864 0
0.065425649 1.7903591 -0.050034095 0
-0.17415996 2.7862399 0.098602735 0
-0.17315342 2.7820559 0.28429362 0
-0.16201742 2.7357671 0.46442974 0
-0.16249962 2.7377715 0.65504801 0
0.04377754 1.7953156 -0.050391383 0
-0.20907213 2.7910295 0.099067904 0
-0.21031941 2.7959414 0.28670096 0
-0.19597788 2.7394648 0.46654719 0
-0.1960016 2.7395582 0.65754211 0
0.0238878 1.7927083 -0.05048041 0
-0.25070864 2.8196774 0.10043256 0
-0.25385082 2.831429 0.29157156 0
-0.23024686 2.7431519 0.46874955 0
-0.22784819 2.7341812 0.65826398 0
0.0087027717 1.7731097 -0.049948934 0
-0.26142842 2.7346931 0.46876508 0
-0.26251835 2.7385728 0.66168326 0
-0.013761831 1.7795404 -0.050391342 0
-0.29690361 2.7407849 0.47159004 0
-0.29323232 2.7283211 0.66133642 0
-0.025738819 1.7508829 -0.04953514 0
-0.32697278 2.7279849 0.47094482 0
-0.32503009 2.7216835 0.66205621 0
-0.048873112 1.7588201 -0.050053701 0
-0.35931021 2.7225034 0.47175518 0
-0.36252302 2.7324767 0.66755831 0
-0.066812083 1.7501414 -0.049959596 0
-0.39260644 2.7195032 0.47311842 0
-0.39487672 2.7262583 0.66863173 0
-0.085761562 1.7445397 -0.049989995 0
-0.42682511 2.7185459 0.474958 0
-0.42945784 2.7260644 0.67144835 0
-0.10481967 1.7391646 -0.050038185 0
-0.45685697 2.7053325 0.474536 0
-0.45875955 2.7105541 0.67023683 0
-0.1215889 1.7276405 -0.049861006 0
-0.48687065 2.6922226 0.47420475 0
-0.48976338 2.6998613 0.6704343 0
-0.14199813 1.7257077 -0.050058965 0
-0.51900548 2.6846204 0.47501218 0
-0.51783752 2.6816497 0.66867822 0
-0.15809031 1.7128097 -0.049845062 0
-0.5543682 2.6846216 0.47738335 0
-0.5492239 2.6720059 0.66937095 0
-0.17658813 1.7059848 -0.049873229 0
-0.58108151 2.6632884 0.47567707 0
-0.58366871 2.6694114 0.67212903 0
-0.19255336 1.6933131 -0.049682766 0
-0.61266291 2.6536648 0.47633246 0
-0.61216855 2.652535 0.67104566 0
-0.21516575 1.6956484 -0.050087146 0
-0.64389026 2.6430247 0.47686884 0
-0.64307642 2.6412263 0.67161548 0
-0.23658665 1.6947562 -0.05037789 0
-0.66826487 2.6175461 0.47453204 0
-0.67086041 2.6230946 0.67037618 0
-0.24551405 1.6675314 -0.04963696 0
-0.69771743 2.6033139 0.47449496 0
-0.69638944 2.6005659 0.66798222 0
-0.2673319 1.6673101 -0.04997319 0
-0.72855628 2.5918605 0.4750922 0
-0.72613585 2.5870087 0.66822249 0
-0.28768206 1.663712 -0.050187021 0
-0.75652122 2.57463 0.47460005 0
-0.7541846 2.5700901 0.66760689 0
-0.30187076 1.648176 -0.049930099 0
-0.77986705 2.5488312 0.47242686 0
-0.78462565 2.5577977 0.66842502 0
-0.32192916 1.6437423 -0.050130438 0
-0.81519485 2.5455601 0.47492975 0
-0.81430042 2.543925 0.66890043 0
-0.33261192 1.6223747 -0.049648587 0
-0.62091517 2.1340575 0.082616471 0
-0.83695471 2.5174866 0.47240794 0
-0.83974588 2.5224402 0.6672591 0
-0.35141909 1.6156818 -0.049774434 0
-0.61953664 2.0778344 0.080849484 0
-0.86055315 2.493273 0.47072941 0
-0.86170948 2.4952662 0.66402179 0
-0.36673903 1.6029695 -0.049660746 0
-0.62478757 2.0351365 0.079630852 0
-0.88725924 2.4747114 0.47028759 0
-0.8846072 2.4702699 0.66148907 0
-0.39086294 1.604736 -0.050160881 0
-0.62081146 1.979053 0.077844664 0
-0.91287363 2.4544804 0.46955997 0
-0.91358852 2.4556441 0.66212797 0
-0.40095323 1.5836236 -0.049711626 0
-0.6153897 1.9230324 0.076044761 0
-0.93490613 2.428761 0.46772417 0
-0.93982077 2.4365396 0.66153002 0
-0.42338902 1.5820935 -0.050097715 0
-0.61816812 1.8819594 0.074863531 0
-0.95465207 2.3999822 0.46527484 0
-0.95519757 2.4008222 0.65597308 0
-0.43674642 1.5664688 -0.049894117 0
-0.62000287 1.8409663 0.073677264 0
-0.98199868 2.3831952 0.4654589 0
-0.97684526 2.3754761 0.65360999 0
-0.455217 1.5585464 -0.050029464 0
-0.62054741 1.7995648 0.072464012 0
-1.0028268 2.3568513 0.46362942 0
-1.0028826 2.3569326 0.65341496 0
-0.47316319 1.5497088 -0.050136156 0
-0.61269462 1.7477256 0.07078439 0
-1.0179352 2.3228247 0.46014625 0
-1.0215714 2.327985 0.65007293 0
-0.49113661 1.5407749 -0.050249502 0
-0.62501085 1.7257715 0.070402071 0
-0.61410058 1.710695 0.19786541 0
-1.0410935 2.3007429 0.45933253 0
-1.0485933 2.3111067 0.65057504 0
-0.083472565 0.97743684 0.446394 0
-0.50175875 1.5218081 -0.049927685 0
-0.62206769 1.6837268 0.06912943 0
-0.61493146 1.6741225 0.19474858 0
-1.0670511 2.2826107 0.45946375 0
-1.0622412 2.2761374 0.64543927 0
-0.090459481 0.9682579 0.44475767 0
-0.52017289 1.5134259 -0.05008401 0
-0.626899 1.6533489 0.068366721 0
-0.6170243 1.6404028 0.19198868 0
-1.0836288 2.2521427 0.45687199 0
-1.0801483 2.2475798 0.64236623 0
-0.10033144 0.96299434 0.44562444 0
-0.53205889 1.4965211 -0.049865924 0
-0.62239122 1.6119087 0.067097619 0
-0.61395955 1.6011382 0.18844825 0
-1.0966974 2.2177713 0.45340812 0
-1.0957017 2.2164991 0.63851804 0
-0.10237111 0.94765246 0.4401744 0
-0.55062407 1.4881707 -0.050044198 0
-0.61740232 1.5712931 0.065850809 0
-0.6135391 1.5664845 0.18550214 0
-1.1185075 2.195045 0.45264089 0
-1.1114749 2.186291 0.6349799 0
-0.12649758 0.96023828 0.45260951 0
-0.56518972 1.4747659 -0.05000123 0
-0.6161356 1.5365707 0.064860746 0
-0.61387646 1.5338299 0.18280302 0
-1.1294158 2.1592538 0.44887596 0
-1.1279541 2.1574805 0.63193244 0
-0.13462318 0.9524262 0.45214397 0
-0.58224964 1.4643524 -0.050106205 0
-0.62230432 1.5117166 0.064320765 0
-0.61698461 1.5054262 0.18067388 0
-1.1455745 2.1304777 0.44675994 0
-1.1466372 2.1317344 0.62994516 0
-0.15337195 0.95720923 0.45999333 0
-0.59656668 1.4506594 -0.050067432 0
-0.61777508 1.4751071 0.0632229 0
-0.62098765 1.4788102 0.17878127 0
-1.1564687 2.0960765 0.44332597 0
-1.1599574 2.1000981 0.62602568 0
-0.60478282 1.4301465 -0.04971087 0
-0.63491333 1.464008 0.063329071 0
-0.63392925 1.4629021 0.17841491 0
-1.168092 2.0632086 0.44025642 0
-1.1770581 2.0732849 0.62376618 0
-0.62371731 1.4217464 -0.049940623 0
-0.66778874 1.4700367 0.064274698 0
-0.65897334 1.4603773 0.18001518 0
-1.1878275 2.0398581 0.43951073 0
-1.1823316 2.0338361 0.61719006 0
-0.63803959 1.4081769 -0.049931917 0
-0.51345456 1.2750708 0.055423047 0
-0.68833697 1.4619144 0.18227842 0
-1.1880273 1.9957811 0.43369734 0
-1.190362 1.9982756 0.61191785 0
-0.6505121 1.3926848 -0.049836826 0
-0.49903566 1.2348784 0.054027464 0
-0.71394408 1.4587673 0.18392617 0
-1.1980735 1.9631274 0.43066961 0
-1.195197 1.9601306 0.60570312 0
-0.67040813 1.384825 -0.050130721 0
-0.52000439 1.2320346 0.054476462 0
-0.73900127 1.4545066 0.18547486 0
-1.2098885 1.9328662 0.4282414 0
-1.2065368 1.9294614 0.6021089 0
-0.67618585 1.3626834 -0.049716502 0
-0.52133709 1.2092896 0.05393495 0
-0.77945578 1.4649831 0.18934169 0
-1.2207984 1.9021791 0.42571089 0
-1.2216861 1.9030585 0.60006684 0
-0.69590592 1.3544116 -0.050013285 0
-0.54770392 1.2112539 0.054656919 0
-0.80565226 1.4604225 0.19101153 0
-1.2259135 1.8663794 0.42185545 0
-1.2279249 1.8683224 0.59500742 0
-0.71162927 1.3420832 -0.050115678 0
-0.56888688 1.2076322 0.055114914 0
-0.83542335 1.4586866 0.19319795 0
-1.2246469 1.8253016 0.41657668 0
-1.2313597 1.8316245 0.58917904 0
-0.73063445 1.3326666 -0.050383557 0
-0.87183285 1.4623473 0.069227979 0
-0.87376702 1.4641237 0.19661334 0
-1.2374295 1.7981217 0.41492626 0
-1.2245857 1.7863255 0.58004224 0
-0.2346179 0.87711096 0.38105166 0
-0.73697484 1.3116512 -0.050047208 0
-0.8978349 1.4556981 0.069756158 0
-0.90520096 1.4622943 0.19898371 0
-1.2330531 1.7558793 0.40922365 0
-1.2350142 1.7576355 0.57709581 0
-0.23002197 0.85768509 0.37423882 0
-0.73907757 1.2872469 -0.049526311 0
-0.93509138 1.4583755 0.070815943 0
-1.234497 1.7197694 0.40510485 0
-1.2363393 1.7213778 0.57122147 0
-0.23356332 0.84591109 0.3721081 0
-0.7663455 1.2847389 -0.05020522 0
-0.96825492 1.4565829 0.071670964 0
-1.2380972 1.6862441 0.40164891 0
-1.2494154 1.695877 0.56950039 0
-0.23857243 0.83555418 0.3708792 0
-0.24898954 0.84442008 0.45378116 0
-0.7809341 1.2710856 -0.050290387 0
-1.0130076 1.4636165 0.073055744 0
-1.2495867 1.6598852 0.40017703 0
-1.2448233 1.6559334 0.56204724 0
-0.25443393 0.83429527 0.37557179 0
-0.79397929 1.2561033 -0.050311767 0
-1.044116 1.4583569 0.073795982 0
-1.2441434 1.6200933 0.39487025 0
-1.2367743 1.614135 0.55370122 0
-0.25291169 0.81861109 0.37096944 0
-0.80461919 1.2392024 -0.050232228 0
-1.0835921 1.459021 0.074912272 0
-1.2529958 1.5925039 0.39301392 0
-1.2422329 1.5840232 0.54999691 0
-0.26675755 0.81539041 0.37461799 0
-0.81986141 1.2259016 -0.050370228 0
-1.1257262 1.4607285 0.076137081 0
-1.2517956 1.557518 0.38896915 0
-1.2449766 1.5522826 0.54557759 0
-0.25868911 0.79506314 0.36681378 0
-0.24882121 0.78748709 0.43579945 0
-0.82585442 1.2055577 -0.050102085 0
-1.1712987 1.4639239 0.07750275 0
-1.2421491 1.5169147 0.38315973 0
-1.2449034 1.5189748 0.54043019 0
-0.27013344 0.78992045 0.36930433 0
-0.2661829 0.78696573 0.44256547 0
-0.83685875 1.1890945 -0.050069112 0
-1.2152817 1.4647648 0.078783952 0
-1.2485119 1.4889721 0.38109013 0
-1.2420877 1.4842923 0.53459704 0
-1.2359445 1.479817 0.69276613 0
-0.26539809 0.77280176 0.36351752 0
-0.28312784 0.78571737 0.44901586 0
-0.83657587 1.1646491 -0.04955148 0
-1.2557007 1.4619646 0.079897292 0
-1.2461942 1.4552209 0.37719768 0
-1.2291186 1.443108 0.52577698 0
-1.2383076 1.4496264 0.68754148 0
-0.28241247 0.77154106 0.3689329 0
-0.27707887 0.76775753 0.44131306 0
-0.85826802 1.1558199 -0.050005194 0
-1.2949936 1.4574274 0.080953673 0
-1.2556825 1.4302787 0.37602004 0
-1.2353387 1.416229 0.5231446 0
-1.2483454 1.4252115 0.68561953 0
-0.27892447 0.75571889 0.43861547 0
-0.8771559 1.1447163 -0.050339255 0
-1.2759212 1.4127557 0.079492927 0
-1.2705708 1.4091592 0.22653821 0
-1.2543758 1.3982735 0.3725751 0
-1.242089 1.3900146 0.5208019 0
-1.2463657 1.3928893 0.67902011 0
-0.28733283 0.74825299 0.43998885 0
-0.87941933 1.1224543 -0.049967378 0
-1.2671908 1.3760743 0.078509443 0
-1.2696567 1.3776871 0.22458716 0
-1.2514337 1.3657686 0.36889321 0
-1.2391282 1.3577201 0.51561898 0
-1.242884 1.3601767 0.67204022 0
-0.3008408 0.74403781 0.44445628 0
-0.89304471 1.107728 -0.050091151 0
-1.2725018 1.3491437 0.078147575 0
-1.2787504 1.3531191 0.22397713 0
-1.2563571 1.3388722 0.36700979 0
-1.2385862 1.327566 0.51133221 0
-1.2384516 1.3274806 0.66490418 0
-0.30876207 0.73599976 0.44560665 0
-0.89644504 1.0865695 -0.049792517 0
-1.2905751 1.3304039 0.078338578 0
-1.2875304 1.3285203 0.22337142 0
-1.250173 1.3054086 0.36285755 0
-1.2422147 1.300485 0.50844437 0
-1.2400998 1.2991767 0.66036409 0
-0.91666329 1.0757674 -0.050207917 0
-1.3079678 1.311093 0.078509666 0
-1.3152759 1.315488 0.22518767 0
-1.2482187 1.2751607 0.35971579 0
-1.2341861 1.2667216 0.50220972 0
-1.238223 1.2691493 0.65462857 0
-0.9173888 1.0532312 -0.049819887 0
-1.3348527 1.2971846 0.079082094 0
-1.3360755 1.2978991 0.22614655 0
-1.2624382 1.2548677 0.36005536 0
-1.2393816 1.241394 0.50005454 0
-1.2368573 1.2399189 0.64927834 0
-0.94416654 1.0457934 -0.050515793 0
-1.3861293 1.296652 0.080658972 0
-1.3790466 1.2926317 0.22986586 0
-1.2454213 1.2167859 0.35396805 0
-1.2349727 1.2108552 0.4951911 0
-1.2352023 1.2109855 0.64399683 0
-0.94420612 1.023057 -0.050120786 0
-1.2491637 1.19111 0.35229668 0
-1.2439805 1.1882536 0.49438202 0
-1.2421325 1.1872354 0.64215201 0
-0.95470834 1.006228 -0.050163642 0
-1.2613697 1.1702204 0.3524338 0
-1.2508653 1.164603 0.49304679 0
-1.2416822 1.1596922 0.63764822 0
-0.95643604 0.98481023 -0.049861878 0
-1.2637661 1.1442168 0.3506307 0
-1.2407877 1.1322984 0.48693097 0
-1.2360551 1.1298437 0.63136405 0
-0.95830131 0.96369642 -0.049578331 0
-1.2709457 1.1208959 0.34987086 0
-1.2314234 1.1010238 0.48117396 0
-1.2414393 1.1060599 0.62936032 0
-0.97801256 0.95149487 -0.050015803 0
-1.2934798 1.1051682 0.35225499 0
-1.2447319 1.0814217 0.48199862 0
-1.2439334 1.0810328 0.62641048 0
-0.98878634 0.93473339 -0.050103981 0
-1.3033404 1.083091 0.35213751 0
-1.2500929 1.0579771 0.4806464 0
-1.2426361 1.0544602 0.62219971 0
-0.99565208 0.91611671 -0.050046597 0
-1.3062884 1.057873 0.35070559 0
-1.2391931 1.0272546 0.47482476 0
-1.2450457 1.0299255 0.61949146 0
-0.9993155 0.89612794 -0.049873743 0
-1.318495 1.0369544 0.3511695 0
-1.2417697 1.0031022 0.47290158 0
-1.2365676 1.0008069 0.61295164 0
-1.0104808 0.879466 -0.050002754 0
-1.3153844 1.0094323 0.34867975 0
-1.235862 0.97553557 0.46872026 0
-1.2364737 0.97579628 0.60961205 0
-1.0199589 0.86200804 -0.050074086 0
-1.3277109 0.98863357 0.34928116 0
-1.2383699 0.9518739 0.46697822 0
-1.2398074 0.95246536 0.60763639 0
-1.0258771 0.8430801 -0.050016798 0
-1.3325704 0.96477747 0.34848171 0
-1.2445494 0.92985034 0.4663347 0
-1.2343901 0.92581904 0.60264379 0
-1.0385729 0.82678306 -0.050227959 0
-1.342505 0.94297707 0.34872413 0
-1.2503521 0.90774679 0.46566728 0
-1.2426499 0.9048022 0.60266638 0
-1.0386895 0.80569565 -0.049967449 0
-1.3522255 0.92105776 0.34897718 0
-1.2427645 0.88078278 0.46143857 0
-1.2359998 0.87829381 0.5974974 0
-1.0459955 0.78734273 -0.049990419 0
-1.3650008 0.90017748 0.34986639 0
-1.2271913 0.8514331 0.45515966 0
-1.2382002 0.85532707 0.59559268 0
-1.0515122 0.76836175 -0.049954571 0
-1.3639617 0.87447059 0.34817085 0
-1.2354873 0.83084029 0.45543876 0
-1.2397712 0.83229512 0.59357685 0
-1.0559533 0.74905384 -0.049887467 0
-1.3754437 0.85308582 0.34891862 0
-1.2469941 0.81126028 0.45664793 0
-1.2372731 0.80809492 0.59024721 0
-1.0737436 0.73395383 -0.050328948 0
-1.3901815 0.83260274 0.35032949 0
-1.2459733 0.78764611 0.45457047 0
-1.2476543 0.78817016 0.59152526 0
-1.0692552 0.71188688 -0.049945932 0
-1.4003042 0.81053483 0.35091522 0
-1.2373908 0.76198894 0.45056704 0
-1.2346106 0.76116049 0.58475375 0
-1.0747976 0.69294953 -0.049946927 0
-1.4033796 0.78637427 0.35022968 0
-1.245608 0.74151552 0.45111984 0
-1.2429763 0.74076724 0.58552951 0
-1.0914567 0.67701823 -0.050367918 0
-1.4053334 0.76200521 0.3493939 0
-1.246725 0.71905953 0.44986224 0
-1.2398273 0.71719187 0.58242244 0
-1.0962474 0.65772343 -0.050357442 0
-1.4150189 0.73974204 0.35005784 0
-1.2348638 0.69338882 0.44526434 0
-1.2489489 0.6970129 0.5836429 0
-1.1074024 0.63998532 -0.050589815 0
-1.4206611 0.71639329 0.3500213 0
-1.2346516 0.67102307 0.44382477 0
-1.2326903 0.67054468 0.57625532 0
-1.0899142 0.61547023 -0.049780268 0
-1.4214903 0.69193596 0.34914857 0
-1.2307565 0.64795029 0.44149891 0
-1.2348388 0.64889175 0.57528782 0
-1.1015348 0.59786421 -0.050047725 0
-1.4183917 0.6667456 0.34761024 0
-1.2472764 0.62954694 0.44458553 0
-1.2360138 0.62709856 0.57408446 0
-1.1052117 0.57844007 -0.05003313 0
-1.4397695 0.64676952 0.3506397 0
-1.2440015 0.60678625 0.44257012 0
-1.2404397 0.60605878 0.57408136 0
-1.1219183 0.56151396 -0.050501071 0
-1.4359566 0.62154371 0.3490828 0
-1.2452154 0.58508271 0.44180006 0
-1.2517887 0.58633924 0.57651317 0
-1.1057773 0.53839809 -0.049784541 0
-1.4392766 0.59780544 0.34889427 0
-1.2500533 0.56409842 0.44204175 0
-1.2393274 0.56218779 0.57097727 0
-1.1228979 0.52128512 -0.050283611 0
-1.4467392 0.57477421 0.34951806 0
-1.2410975 0.5408082 0.43878448 0
-1.2474862 0.54186344 0.57250869 0
