# .PCD v0.7 - Point Cloud Data file format
VERSION 0.7
FIELDS x y z intensity
SIZE 4 4 4 4
TYPE F F F F
COUNT 1 1 1 1
WIDTH 1355
HEIGHT 1
VIEWPOINT 0 0 0 1 0 0 0
POINTS 1355
DATA ascii
-1.2339284 0.18036284 0.56112921 0
-1.2447244 0.17981859 0.7013306 0
-1.1330187 0.16567332 -0.050003517 0
-0.51696646 0.20451152 0.10824563 0
-0.51601183 0.20457171 0.17741016 0
-1.2417308 0.15881969 0.43400878 0
-1.245317 0.15859361 0.56532228 0
-1.1363462 0.14561349 -0.050171588 0
-0.50817412 0.19316359 0.10738736 0
-0.50934809 0.19307473 0.17635469 0
-1.2352192 0.13812919 0.4327167 0
-1.2391843 0.13782905 0.56376487 0
-1.1265576 0.12659059 -0.04987881 0
-0.51339817 0.180777 0.10805577 0
-0.51168406 0.18092847 0.17695367 0
-1.2366542 0.11686111 0.4335252 0
-1.2384163 0.11670537 0.56408477 0
-1.1225352 0.10718929 -0.04980116 0
-0.51707959 0.16838701 0.10857522 0
-0.50716943 0.1693887 0.17633933 0
-1.2255455 0.096777312 0.4311868 0
-1.2432569 0.094987087 0.56636947 0
-1.1196787 0.087707274 -0.049774066 0
-0.52091849 0.15585467 0.040259548 0
-0.51221335 0.15684545 0.10818774 0
-0.52140838 0.15579891 0.1791545 0
-1.2441123 0.073544972 0.43652996 0
-1.2460053 0.073329516 0.56804836 0
-1.1319768 0.066322975 -0.050301105 0
-0.51153255 0.14486367 0.039973672 0
-0.50480527 0.14571527 0.10754 0
-0.51387632 0.14456698 0.17804752 0
-1.2380723 0.052892584 0.43562877 0
-1.2456722 0.051930536 0.56878793 0
-1.1209151 0.047816608 -0.049996722 0
-0.5147146 0.13232231 0.040145312 0
-0.50881845 0.13314424 0.10814565 0
-0.51353478 0.13248678 0.17827368 0
-1.2432348 0.030764971 0.43767866 0
-1.2386395 0.031405557 0.56736881 0
-1.1187004 0.028177161 -0.050019659 0
-0.50860512 0.12107132 0.039987437 0
-0.51568556 0.11999323 0.1090799 0
-0.51340479 0.1203405 0.17856659 0
-1.2378724 0.010031839 0.43708816 0
-1.2406192 0.0096135931 0.5690667 0
-1.1139257 0.0089409547 -0.049958952 0
-0.51887947 0.10722513 0.040427204 0
-0.51266593 0.10825142 0.10895719 0
-0.51207763 0.10834859 0.17866918 0
-1.2291398 -0.01008902 0.4356924 0
-1.2445608 -0.012636106 0.57152224 0
-1.1080573 -0.010060082 -0.049867216 0
-0.51005769 0.096463583 0.040181786 0
-0.51614892 0.095378526 0.10956015 0
-0.51105392 0.096286111 0.17885526 0
-1.2281566 -0.03145377 0.43636727 0
-1.2417655 -0.03387798 0.57180119 0
-1.1021665 -0.028994154 -0.049783137 0
-0.51712364 0.082839303 0.04051818 0
-0.51357269 0.083518095 0.10951933 0
-0.51023155 0.084156774 0.17910659 0
-1.2372732 -0.05482037 0.43973705 0
-1.2424252 -0.055805217 0.57334161 0
-1.0983037 -0.048285078 -0.049781416 0
-0.51235706 0.071387567 0.040430523 0
-0.49662346 0.074600972 0.10791821 0
-0.51510566 0.070826195 0.18043521 0
-1.2339441 -0.075988002 0.43995115 0
-1.2419422 -0.077621527 0.57459158 0
-1.0940539 -0.067493804 -0.049774408 0
-0.50853217 0.059792403 0.040382296 0
-0.51129884 0.059190962 0.10980308 0
-0.51373249 0.058661897 0.18064542 0
-1.2429622 -0.099864908 0.44345912 0
-1.2349845 -0.098130651 0.57373399 0
-1.0948189 -0.087857194 -0.049959973 0
-0.51810622 0.045140211 0.04083018 0
-0.50887072 0.047270034 0.10982846 0
-0.51996058 0.044712577 0.1822914 0
-1.2370948 -0.12066782 0.44315845 0
-1.2402333 -0.1213916 0.5771296 0
-1.0876975 -0.10643486 -0.0498657 0
-0.52351117 0.031177763 0.041133009 0
-0.50219744 0.036376465 0.10940092 0
-0.51275325 0.033801753 0.18148091 0
-1.2526429 -0.14666726 0.44854948 0
-1.2455626 -0.14494027 0.58066338 0
-1.0838137 -0.12578015 -0.049899083 0
-0.57150221 0.006035496 0.043013189 0
-0.55342722 0.010686119 0.11541265 0
-0.55053568 0.011430104 0.18907145 0
-1.2260134 -0.16236754 0.44293281 0
-1.2353436 -0.16476817 0.578969 0
-1.0920767 -0.14844199 -0.050390851 0
-0.61626732 -0.019609284 0.044792164 0
-0.61991608 -0.020597231 0.12317981 0
-1.2445778 -0.189734 0.31935784 0
-1.2390331 -0.1882327 0.44782916 0
-1.2525051 -0.19188042 0.58679211 0
-1.0804776 -0.16582038 -0.050157744 0
-0.69210196 -0.05539469 0.047742669 0
-0.69239438 -0.055477809 0.13168794 0
-1.2323892 -0.20901294 0.31816953 0
-1.240368 -0.21128152 0.44972995 0
-1.247187 -0.21322037 0.58698595 0
-1.0711855 -0.18371795 -0.050017841 0
-0.770805 -0.094208725 0.050827876 0
-0.78455472 -0.098305948 0.14248435 0
-1.2310375 -0.23135163 0.31906167 0
-1.2256181 -0.2297367 0.44743297 0
-1.2390887 -0.23375075 0.58630836 0
-1.0630732 -0.20188321 -0.049929917 0
-0.86523151 -0.14020647 0.054531451 0
-0.85552371 -0.13718008 0.15099829 0
-1.2389055 -0.25669864 0.32175207 0
-1.234632 -0.25536636 0.45153961 0
-1.2393323 -0.25683162 0.58862513 0
-1.0578698 -0.22093375 -0.049959425 0
-0.98898292 -0.19850294 0.059372984 0
-0.98920107 -0.19857393 0.1666899 0
-1.2315626 -0.27749136 0.32162887 0
-1.2394813 -0.28006986 0.45463213 0
-1.2493857 -0.28329489 0.59448522 0
-1.0526947 -0.24001919 -0.049999151 0
-1.1303604 -0.2663947 0.064927444 0
-1.1301625 -0.26632753 0.18336305 0
-1.2294539 -0.30004719 0.32255185 0
-1.2326412 -0.30112961 0.45467189 0
-1.0445935 -0.25810269 -0.04993733 0
-1.2929736 -0.34595671 0.20269838 0
-1.2395312 -0.3270537 0.32586429 0
-1.2400426 -0.3272346 0.45863751 0
-1.032819 -0.27479151 -0.049744129 0
-1.2552539 -0.35663399 0.19927466 0
-1.2441291 -0.35254076 0.32820439 0
-1.2493342 -0.35445592 0.46322456 0
-1.0381316 -0.29787019 -0.050211091 0
-1.2490294 -0.37849697 0.19947353 0
-1.2283515 -0.37059173 0.32668349 0
-1.2381974 -0.37435588 0.46234736 0
-1.0200964 -0.31204215 -0.049794767 0
-1.2446009 -0.40112659 0.1999128 0
-1.2522815 -0.4041743 0.33290339 0
-1.2410768 -0.39972827 0.46538153 0
-1.024308 -0.33505341 -0.050241984 0
-1.2538931 -0.42951688 0.2019819 0
-1.2308054 -0.42001739 0.33038285 0
-1.239809 -0.42372194 0.46737528 0
-1.0091245 -0.35014376 -0.049950123 0
-1.2494639 -0.4525893 0.20250076 0
-1.2445744 -0.45050511 0.3347975 0
-1.2422667 -0.44952145 0.47049654 0
-0.99369192 -0.36490259 -0.049654305 0
-1.2475401 -0.47690395 0.20335084 0
-1.2381049 -0.47274104 0.33532277 0
-1.2390497 -0.47315791 0.47214308 0
-0.98411047 -0.38210568 -0.049593672 0
-1.2407503 -0.49922112 0.20366707 0
-1.2398771 -0.4988226 0.33754024 0
-1.2468495 -0.5020045 0.47697195 0
-0.98822927 -0.40572652 -0.050081991 0
-1.2518203 -0.53004771 0.20614064 0
-1.2328911 -0.52111983 0.33808982 0
-1.2395152 -0.52424401 0.47766259 0
-0.97377539 -0.42068669 -0.049847536 0
-1.5000925 -0.67707127 0.082748584 0
-1.2381473 -0.54947001 0.20571783 0
-1.2420613 -0.55137664 0.34193999 0
-1.2289121 -0.54497129 0.47750911 0
-0.97691011 -0.44430891 -0.05032194 0
-1.4486895 -0.68152231 0.081174314 0
-1.2461737 -0.57969624 0.20793191 0
-1.244805 -0.57900804 0.34459403 0
-1.2477247 -0.58047599 0.48582906 0
-0.95693934 -0.45632717 -0.049882121 0
-1.3953373 -0.68371636 0.079513595 0
-1.2457824 -0.60614491 0.2091873 0
-1.2391478 -0.60270363 0.34562913 0
-0.95668721 -0.47854212 -0.050243758 0
-1.3506892 -0.68924135 0.078195155 0
-1.244559 -0.63248646 0.21039024 0
-1.2317721 -0.62564844 0.34638059 0
-0.94478202 -0.49463019 -0.050144259 0
-1.3041687 -0.6926775 0.076794036 0
-1.2361777 -0.6552096 0.21076377 0
-1.2364687 -0.65537 0.34968254 0
-0.93438029 -0.51149458 -0.050114054 0
-1.260402 -0.69654483 0.075497694 0
-1.2488964 -0.69001424 0.21378265 0
-1.2481012 -0.68956292 0.35452381 0
-0.92571783 -0.52935433 -0.050164297 0
-1.2551543 -0.72186702 0.075786546 0
-1.2538165 -0.72108525 0.21590744 0
-1.2378545 -0.7117576 0.35492021 0
-0.90977705 -0.54288197 -0.049921039 0
-1.2534157 -0.74954182 0.076237023 0
-1.2367452 -0.73951644 0.21533942 0
-1.2352431 -0.73861307 0.35698506 0
-0.89781892 -0.55867547 -0.049850199 0
-1.2474841 -0.77500087 0.076529562 0
-1.2459947 -0.77407938 0.21812241 0
-1.243035 -0.77224833 0.36134377 0
-0.88978362 -0.57690912 -0.049953159 0
-1.2524428 -0.80763775 0.07729879 0
-1.2342057 -0.79603511 0.21830322 0
-1.2480251 -0.80482703 0.3652288 0
-0.88399196 -0.59670085 -0.050162446 0
-1.2499036 -0.83602351 0.077771977 0
-1.239779 -0.82940155 0.22075044 0
-1.2419866 -0.83084553 0.36685738 0
-0.8662405 -0.60863513 -0.049869709 0
-1.2410606 -0.86057919 0.077993333 0
-1.2407376 -0.86036199 0.22267507 0
-1.2366439 -0.8576104 0.3687219 0
-0.85494614 -0.62478161 -0.049861062 0
-1.2417269 -0.89189667 0.078642562 0
-1.2403673 -0.89095765 0.22449367 0
-1.2394212 -0.89030439 0.37245595 0
-0.84947813 -0.6450575 -0.050116237 0
-1.2375698 -0.92035884 0.079103671 0
-1.244331 -0.9251551 0.22695018 0
-1.6063854 -1.1819862 0.45684212 0
-0.8332392 -0.65771365 -0.049909234 0
-1.2400755 -0.95408219 0.079879083 0
-1.2341965 -0.9497996 0.2276118 0
-1.5698417 -1.1943074 0.45278779 0
-0.82369709 -0.67520005 -0.050005905 0
-1.240237 -0.98674041 0.080576167 0
-1.2387753 -0.98564714 0.23029569 0
-0.81173015 -0.69091469 -0.05000424 0
-1.230479 -1.0124079 0.080851972 0
-1.2369237 -1.0173559 0.23219527 0
-0.80126381 -0.70781434 -0.050079718 0
-1.1573914 -0.98842758 0.07826665 0
-1.1573011 -0.98835641 0.22352728 0
-1.1490793 -0.98187798 0.3691538 0
-0.78615224 -0.72103041 -0.049952418 0
-1.1368952 -1.0046313 0.078055643 0
-1.1337333 -1.0020746 0.22246747 0
-1.1409459 -1.0079066 0.37093589 0
-0.78714788 -0.74749666 -0.050578635 0
-1.2440183 -1.1265212 0.083771802 0
-1.2375315 -1.1211399 0.23920567 0
-1.3359315 -1.2027735 0.42041039 0
-0.76183343 -0.75215453 -0.049993694 0
-1.2420968 -1.1609039 0.084508978 0
-1.2385368 -1.1578741 0.24182816 0
-1.3204639 -1.2276018 0.42115536 0
-1.0270245 -0.97785717 0.4949936 0
-0.75521767 -0.77259368 -0.050291233 0
-1.2784406 -1.2293899 0.41562536 0
-0.99568665 -0.98253363 0.48971659 0
-0.72641611 -0.77345198 -0.049541194 0
-1.1882122 -1.186981 0.083672017 0
-1.1919415 -1.1903205 0.2403491 0
-1.2000873 -1.1976149 0.40124297 0
-0.97263396 -0.99393517 0.48723727 0
-0.7219317 -0.79592973 -0.049961705 0
-0.91659856 -0.9747172 0.47335312 0
-0.69784427 -0.80035478 -0.049439602 0
-0.88518059 -0.97680944 0.46784717 0
-0.69197524 -0.82187051 -0.049818177 0
-0.85346329 -0.97786206 0.46217695 0
-0.68741739 -0.8450653 -0.050280917 0
-0.82858884 -0.98491031 0.45889768 0
-0.65686834 -0.84232622 -0.049441665 0
-0.81805611 -1.0060717 0.46082419 0
-0.65819907 -0.87194878 -0.050233122 0
-0.64441693 -0.88624626 -0.0502651 0
-0.62959003 -0.89943713 -0.050251652 0
-0.60752141 -0.90448004 -0.049857948 0
-0.59629631 -0.92160362 -0.050052702 0
-0.57818568 -0.93080276 -0.049881518 0
-0.57243884 -0.95481592 -0.05040811 0
-0.55311608 -0.96252853 -0.05018625 0
-0.53813338 -0.97553629 -0.050217733 0
-0.51860738 -0.98262936 -0.049991854 0
-0.49896747 -0.98930734 -0.049760599 0
-0.48907894 -1.0091873 -0.050124194 0
-0.4739604 -1.0220959 -0.050185565 0
-0.45059395 -1.0230628 -0.049737688 0
-0.43415886 -1.0338486 -0.049727738 0
-0.42722064 -1.0592481 -0.050348841 0
-0.40289587 -1.0579543 -0.049841475 0
-0.39010108 -1.0747515 -0.050108917 0
-0.37346125 -1.0854833 -0.050128873 0
-0.35527432 -1.0935829 -0.050048713 0
-0.34278536 -1.1116863 -0.050388489 0
-0.32080668 -1.1129459 -0.050046928 0
-0.30687869 -1.1288679 -0.050311487 0
-0.28174257 -1.1234279 -0.049723662 0
-0.27239746 -1.14872 -0.050378311 0
-0.24963988 -1.1473252 -0.0499755 0
-0.22935046 -1.1505432 -0.049768198 0
-0.21632506 -1.169466 -0.050187532 0
-0.19810756 -1.1772656 -0.050177529 0
-0.17981412 -1.1848755 -0.050169136 0
-0.16005732 -1.1888894 -0.050031047 0
-0.14244796 -1.1981075 -0.050102852 0
-0.12087299 -1.1970057 -0.049788836 0
-0.10391529 -1.2079382 -0.049943872 0
-0.084786609 -1.2130113 -0.049884677 0
-0.068336383 -1.2259325 -0.050130412 0
-0.046854779 -1.2238104 -0.049818698 0
-0.030960334 -1.2390754 -0.050167888 0
-0.009703083 -1.237017 -0.049878512 0
0.0070091053 -1.2503945 -0.050172508 0
0.027423607 -1.2507405 -0.049991727 0
0.045285538 -1.260633 -0.050172646 0
0.11741485 -0.97659022 0.33265793 0
0.065716878 -1.2604043 -0.049989644 0
0.086877391 -1.2563995 -0.049678337 0
0.10201229 -1.2795058 -0.050367452 0
0.12172855 -1.2822974 -0.050322015 0
0.14317225 -1.2757385 -0.049946047 0
0.16150065 -1.2854719 -0.050171193 0
0.18234111 -1.2807057 -0.04987983 0
0.20232536 -1.2803116 -0.049756311 0
0.22093102 -1.2894173 -0.049984369 0
0.24203303 -1.2796303 -0.049540896 0
0.260131 -1.2941828 -0.04998184 0
0.16037004 -2.195996 0.094374135 0
0.27937979 -1.3002033 -0.05012437 0
0.19114947 -2.2014871 0.094455168 0
0.30065814 -1.2836232 -0.049465638 0
0.22191545 -2.2078676 0.094581887 0
0.3190679 -1.3002155 -0.050004508 0
0.25341335 -2.2054605 0.094407812 0
0.3386744 -1.3032323 -0.050065741 0
0.28506085 -2.1985836 0.094088197 0
0.35896027 -1.2928537 -0.049657002 0
0.31588897 -2.2043757 0.094235823 0
0.37799865 -1.3102509 -0.050249789 0
0.34737036 -2.194459 0.093836084 0
0.39801538 -1.3023725 -0.049948379 0
0.37828439 -2.1977124 0.093920939 0
0.41775137 -1.3020446 -0.049925592 0
0.43748781 -1.3059754 -0.050063711 0
0.45718995 -1.3013393 -0.049904842 0
0.47718844 -1.3110051 -0.05026558 0
0.49656588 -1.2992078 -0.049868599 0
0.51653904 -1.3037077 -0.050062731 0
0.53570265 -1.2938594 -0.049752653 0
0.5560047 -1.3011892 -0.050066087 0
0.57513732 -1.2932849 -0.049842894 0
0.59478331 -1.2917929 -0.04985822 0
0.6136899 -1.2838615 -0.049650989 0
0.63398939 -1.2877738 -0.04987837 0
0.65393567 -1.2880514 -0.049984284 0
0.67405415 -1.2889296 -0.050121181 0
0.6929785 -1.282117 -0.049989086 0
0.71117747 -1.2718097 -0.04973853 0
0.73068523 -1.2691438 -0.0497736 0
0.75066602 -1.2686201 -0.049895816 0
0.77204466 -1.2740163 -0.050243985 0
0.79098719 -1.2679067 -0.05018118 0
0.81012994 -1.262778 -0.050163019 0
0.83172804 -1.2671078 -0.050502636 0
0.84814996 -1.2516387 -0.050120544 0
0.86708105 -1.2458532 -0.050104484 0
0.88707459 -1.243621 -0.050229732 0
0.90447277 -1.2328507 -0.05004527 0
0.92459458 -1.2307624 -0.050194584 0
0.94544357 -1.2304591 -0.050421458 0
0.96385026 -1.2228346 -0.050381728 0
0.98240209 -1.2156721 -0.050368216 0
0.99533403 -1.1939648 -0.049806964 0
0.92616522 -1.0147309 0.46213913 0
1.0161716 -1.1930559 -0.05004897 0
0.94346672 -1.0114986 0.46324453 0
1.0334688 -1.1831653 -0.049955178 0
0.95448428 -0.99290389 0.45890006 0
1.05268 -1.1778859 -0.050048508 0
0.97107869 -0.98810512 0.45957825 0
1.0654031 -1.1578559 -0.049575396 0
0.98423219 -0.97544032 0.45747182 0
1.0858577 -1.1554188 -0.049797211 0
1.0089742 -0.98833495 0.46477413 0
1.1023029 -1.144178 -0.049682483 0
1.0189444 -0.96886963 0.46031365 0
1.1260113 -1.1479058 -0.050170597 0
1.0456334 -0.98421317 0.46877337 0
1.1429011 -1.1374097 -0.050104454 0
1.059296 -0.97242814 0.46729398 0
1.1571167 -1.1218908 -0.049844082 0
1.0835336 -0.98111123 0.47355288 0
1.1750103 -1.113579 -0.049881447 0
1.1041785 -0.98212188 0.47706985 0
1.1948262 -1.1086686 -0.050067138 0
1.1336726 -0.99851769 0.057569202 0
1.1298187 -0.9915759 0.16038215 0
1.1286614 -0.9894914 0.26464513 0
1.1322695 -0.99599022 0.37379128 0
1.1267836 -0.98610896 0.48184264 0
1.2058195 -1.0880578 -0.049618714 0
1.1423268 -0.97701186 0.057051945 0
1.1411632 -0.97497672 0.15942645 0
1.1424773 -0.97727484 0.26394874 0
1.14604 -0.9835059 0.37274089 0
1.1510051 -0.99218971 0.48756105 0
1.2248389 -1.0817002 -0.049763132 0
1.1723918 -0.99259526 0.058071822 0
1.1622798 -0.97541565 0.16060609 0
1.1703489 -0.9891246 0.26831979 0
1.1631501 -0.9768942 0.37347245 0
1.163851 -0.97808486 0.48564664 0
1.240653 -1.0698482 -0.049689282 0
1.2608536 -1.0651292 -0.049923234 0
1.2759095 -1.0520681 -0.04981612 0
1.292941 -1.0421385 -0.04985005 0
1.3100893 -1.0323334 -0.049898844 0
1.3191082 -1.0107698 -0.049446136 0
1.3419505 -1.0091079 -0.04986738 0
1.3582335 -0.99799341 -0.049886722 0
1.375223 -0.98778957 -0.049956068 0
1.3933008 -0.97890872 -0.050095394 0
1.4006467 -0.95633274 -0.049622405 0
1.1998374 -0.7031278 0.050084919 0
1.2075074 -0.71279889 0.14003251 0
1.4267812 -0.95736808 -0.050235592 0
1.2044827 -0.68420339 0.049662068 0
1.2094823 -0.69034702 0.13828437 0
1.4358416 -0.93727416 -0.049887776 0
1.2104746 -0.66735339 0.049333937 0
1.2059394 -0.66192162 0.13568489 0
1.4487221 -0.92201263 -0.049768679 0
1.2050415 -0.63751674 0.048395313 0
1.2159548 -0.65025789 0.1354228 0
1.4712733 -0.91788036 -0.050184831 0
1.209231 -0.61963171 0.048010997 0
1.2104094 -0.62097281 0.13265486 0
1.4854308 -0.90399081 -0.050150372 0
1.2085865 -0.59678388 0.047386311 0
1.2043896 -0.59212667 0.1299088 0
1.4957163 -0.885943 -0.049921978 0
1.5112661 -0.87367862 -0.049981672 0
1.5289574 -0.86355239 -0.050158244 0
1.545221 -0.85181302 -0.050266892 0
1.5568943 -0.83547205 -0.050152395 0
1.5615861 -0.81257886 -0.049705032 0
1.5757424 -0.79891509 -0.049738456 0
1.5954275 -0.79022938 -0.050046314 0
1.6154872 -0.78158098 -0.05037386 0
1.6104312 -0.7509734 -0.049519215 0
1.6319885 -0.74351221 -0.04993267 0
1.6397898 -0.72440326 -0.049711432 0
1.6556373 -0.71191257 -0.049871009 0
1.6685578 -0.69699866 -0.049903788 0
1.6775516 -0.67907631 -0.049768824 0
1.6950378 -0.66753703 -0.050022013 0
1.7000788 -0.64682746 -0.049732137 0
1.7134327 -0.63218218 -0.049818475 0
1.7258872 -0.61684662 -0.049873225 0
1.7330186 -0.5979315 -0.049707808 0
1.7442099 -0.58177036 -0.049726367 0
1.7590796 -0.56789804 -0.049908429 0
1.7706213 -0.55184156 -0.049957257 0
1.7794113 -0.53411013 -0.049899939 0
1.7934579 -0.51944917 -0.050068829 0
1.7979112 -0.49928263 -0.049851701 0
1.8152701 -0.48629305 -0.050170664 0
1.819905 -0.46634415 -0.04998073 0
1.8312746 -0.44998148 -0.050072085 0
1.8437279 -0.43407992 -0.050214279 0
1.8414546 -0.41100422 -0.049780525 0
1.8551741 -0.39568248 -0.049990192 0
1.8670381 -0.37936255 -0.050133646 0
1.8829281 -0.36467513 -0.050441004 0
1.8750459 -0.33979264 -0.049833793 0
1.885793 -0.32289693 -0.049959101 0
1.893802 -0.30483654 -0.049987067 0
1.9023198 -0.28694245 -0.050042987 0
1.9070228 -0.26762679 -0.049962442 0
1.9122269 -0.24854164 -0.049910389 0
1.9203683 -0.23046879 -0.04997813 0
1.9355164 -0.21457531 -0.050316691 0
1.9319596 -0.19272672 -0.049963307 0
1.9433666 -0.17549102 -0.050177876 0
1.9473745 -0.15604152 -0.050125603 0
1.9511596 -0.13656808 -0.050074339 0
1.9589942 -0.11814342 -0.050181318 0
1.9551796 -0.096874245 -0.049869072 0
1.9764578 -0.081448086 -0.050485559 0
1.9700799 -0.059744339 -0.050098449 0
1.9783254 -0.04120652 -0.050254438 0
1.9636451 -0.01832078 -0.049586236 0
1.988216 -0.0026472316 -0.050351743 0
1.9836216 0.018204931 -0.050068587 0
1.9890956 0.037390236 -0.050158691 0
1.9873199 0.057606924 -0.049996249 0
1.9939052 0.076706447 -0.05014386 0
1.9841205 0.097672589 -0.049712125 0
1.9862648 0.1172061 -0.049718164 0
2.0009351 0.13571954 -0.050181702 0
1.992216 0.15618622 -0.04981615 0
1.9981222 0.17556822 -0.049983058 0
2.0043068 0.19505891 -0.050168548 0
1.9990056 0.2150453 -0.049952473 0
2.0023856 0.23471843 -0.050055422 0
2.0013297 0.2544952 -0.050008837 0
2.0012827 0.27424863 -0.050007161 0
2.005353 0.29408178 -0.05016138 0
2.004179 0.31386173 -0.050137263 0
2.0078988 0.33384365 -0.050296914 0
2.005398 0.35358861 -0.050243232 0
1.9863228 0.37214914 -0.04960525 0
1.9877331 0.39194167 -0.049708795 0
1.9927781 0.41215497 -0.049951736 0
1.9897226 0.43167344 -0.049913276 0
1.98595 0.45108154 -0.049857806 0
1.983989 0.47069424 -0.049876284 0
1.9958708 0.49234188 -0.050403129 0
1.9744853 0.50908917 -0.049738321 0
1.9789221 0.52979612 -0.050015084 0
1.9662901 0.54755324 -0.049682263 0
1.9766221 0.56961393 -0.050192453 0
1.971262 0.58873767 -0.050141577 0
1.9672793 0.60813636 -0.050149757 0
1.9512606 0.62468863 -0.049725272 0
1.9489883 0.64438021 -0.049813051 0
1.9534311 0.66591191 -0.050158218 0
1.9446367 0.68402582 -0.050024167 0
1.9460726 0.70502293 -0.050278489 0
1.932598 0.72166544 -0.049987134 0
1.9287316 0.74115735 -0.050062463 0
1.9196886 0.75898683 -0.049952559 0
1.9128031 0.77748549 -0.049932163 0
1.9081727 0.79678583 -0.050006084 0
1.8927335 0.81209075 -0.049677458 0
1.8883544 0.83145863 -0.049778346 0
1.8988426 0.85691452 -0.05046159 0
1.8746434 0.86836821 -0.049818214 0
1.8613598 0.88406485 -0.049601685 0
1.8595735 0.90475696 -0.049841546 0
1.8594805 0.92642468 -0.050159682 0
1.8428113 0.94039869 -0.04983424 0
1.8333725 0.9576987 -0.049801771 0
1.8235211 0.97476578 -0.049761266 0
1.8244325 0.99747282 -0.050163414 0
1.8154571 1.0151389 -0.050178263 0
1.8038658 1.0313573 -0.050095282 0
1.7983407 1.0510056 -0.050269999 0
1.7795708 1.0629488 -0.049906559 0
1.7806457 1.0867006 -0.050376467 0
1.7548923 1.0940151 -0.049731951 0
1.7478373 1.1128546 -0.049880479 0
1.743311 1.1335002 -0.050148699 0
1.7269136 1.1462901 -0.049917564 0
1.7121478 1.1600269 -0.04976248 0
1.7038172 1.1782591 -0.049896512 0
1.6935436 1.1951782 -0.049955707 0
1.6787223 1.2087076 -0.049821265 0
1.6646945 1.222738 -0.04972906 0
1.6681312 1.2506294 -0.050441734 0
1.6428751 1.2556744 -0.049853813 0
1.6227803 1.2645187 -0.049503274 0
1.6183423 1.2865369 -0.049892101 0
1.6088712 1.3044753 -0.050058577 0
1.58251 1.307259 -0.04942375 0
1.580044 1.3316603 -0.049948189 0
1.5680808 1.347518 -0.050025463 0
1.5535113 1.3609068 -0.049983442 0
1.5307356 1.3660262 -0.049534384 0
1.5212916 1.3844104 -0.049765602 0
1.5106419 1.4017643 -0.049949281 0
1.4985176 1.4177181 -0.050069328 0
1.0385154 0.92001253 0.30302489 0
1.4801631 1.4268894 -0.049869444 0
1.4453914 1.3883041 0.060015075 0
1.4315525 1.3729476 0.16637649 0
1.4449503 1.3878148 0.27874383 0
1.0532417 0.95314598 0.31446999 0
1.4705718 1.4458259 -0.050146881 0
1.4105055 1.3774605 0.058897913 0
1.4112891 1.3783523 0.16536276 0
1.4173867 1.3852924 0.2750994 0
1.0582647 0.97655052 0.32139808 0
1.4524895 1.455155 -0.049975432 0
1.3884761 1.38042 0.05846234 0
1.3863348 1.3779199 0.16357026 0
1.3923621 1.3849568 0.27209619 0
1.0570738 0.99350935 0.32540041 0
1.4332206 1.4628792 -0.049741775 0
1.3709488 1.3882965 0.058272988 0
1.3622856 1.3779207 0.16190137 0
1.370129 1.3873147 0.26983163 0
1.0543137 1.0090643 0.32875896 0
1.4234937 1.4820725 -0.050049644 0
1.3421808 1.3821537 0.057450473 0
1.3460089 1.3868577 0.16152984 0
1.3415744 1.3814085 0.26573402 0
1.0576067 1.0324634 0.33546296 0
1.4088875 1.4954679 -0.050095875 0
1.3236941 1.3880457 0.057201099 0
1.3230062 1.3871781 0.16000837 0
1.3160212 1.3783706 0.26242056 0
1.0521246 1.0456175 0.3377324 0
1.3911084 1.5048157 -0.049967382 0
1.2984509 1.3849113 0.056557436 0
1.2948254 1.3802196 0.15755259 0
1.2933916 1.3783642 0.25990379 0
1.0531384 1.0674617 0.34366286 0
1.3740213 1.5149374 -0.049884733 0
1.2743012 1.3824794 0.055965506 0
1.2760535 1.3848069 0.15672106 0
1.2716219 1.3789204 0.25760242 0
1.0344231 1.0638496 0.33893111 0
1.3573307 1.5255064 -0.049832217 0
1.2549703 1.3859175 0.055652421 0
1.2552503 1.3862994 0.15551637 0
1.253526 1.383948 0.25638375 0
1.0330662 1.0833067 0.34385788 0
1.3466579 1.5444441 -0.050156567 0
1.2456577 1.4030095 0.055951856 0
1.243903 1.4005524 0.15604237 0
1.2458674 1.4033031 0.25840196 0
1.0283195 1.0986623 0.34707084 0
1.3271759 1.5511177 -0.049950689 0
1.2494155 1.4392754 0.057087529 0
1.2532413 1.4447782 0.16050577 0
1.2438316 1.4312443 0.26230976 0
1.0177802 1.1061159 0.34707823 0
1.314237 1.5672063 -0.050163042 0
1.2459775 1.4663429 0.057814989 0
1.2514387 1.4744126 0.1630225 0
1.2459533 1.466307 0.26774088 0
1.0019277 1.1057231 0.34398705 0
1.3010254 1.5831589 -0.050374825 0
1.2473837 1.5017042 0.058892846 0
1.2505542 1.5065186 0.16583945 0
1.2383996 1.4880619 0.27024761 0
1.1718476 1.3870031 0.34894836 0
0.99314415 1.1156428 0.34510922 0
1.2802514 1.5875896 -0.050103471 0
1.2447618 1.5321928 0.059754688 0
1.2494661 1.5395358 0.16875148 0
1.2210747 1.4952186 0.26962799 0
1.1552159 1.3924174 0.34779531 0
0.98307782 1.1237214 0.34553888 0
1.2607535 1.5937127 -0.049916472 0
1.2468326 1.5713687 0.06097661 0
1.2453121 1.568928 0.17118353 0
1.2089219 1.5105191 0.27079019 0
1.133903 1.3901082 0.34439287 0
0.97460586 1.1344243 0.34704378 0
1.2433836 1.6031007 -0.04987745 0
1.1909642 1.5165544 0.27002236 0
1.1123127 1.3866978 0.34076807 0
0.97047383 1.1525166 0.35145301 0
0.83830822 0.93430626 0.47049618 0
1.2243124 1.6095501 -0.049726084 0
1.176145 1.527716 0.27038053 0
1.0926757 1.3859057 0.33802605 0
0.95099771 1.1452019 0.34604162 0
0.84241223 0.96072048 0.48519388 0
1.216534 1.6355413 -0.050389368 0
1.1595887 1.5359462 0.27016604 0
1.0706003 1.3803092 0.33396459 0
0.94313169 1.1573716 0.34823054 0
0.84668243 0.98868591 0.35145152 0
0.83899575 0.97524226 0.41571137 0
0.84245849 0.98129845 0.49576375 0
1.1989155 1.6447785 -0.05036791 0
1.1385363 1.5360224 0.26831421 0
1.0528171 1.3816233 0.33202946 0
0.93715054 1.1732823 0.35186547 0
0.85135579 1.0187471 0.36324519 0
0.83875328 0.9960472 0.42472103 0
0.83879465 0.99612164 0.50235605 0
1.1715777 1.6359526 -0.049623091 0
1.1259289 1.5512326 0.26962975 0
1.0321379 1.3771653 0.32849973 0
0.92086363 1.1706506 0.34849706 0
0.8502481 1.0395948 0.37059817 0
0.83930415 1.0192839 0.43505359 0
0.84293073 1.0260144 0.51908678 0
1.157428 1.6512308 -0.049868084 0
1.1139218 1.5679941 0.27128479 0
1.014888 1.3785219 0.32674229 0
0.9084695 1.1749207 0.34781885 0
0.84948909 1.0620788 0.37867391 0
0.84099478 1.0458274 0.4471814 0
0.84260195 1.0489023 0.53098524 0
1.1408216 1.6620502 -0.04994021 0
1.0936853 1.569034 0.26978132 0
0.9987855 1.3817642 0.32559764 0
0.90507269 1.1968366 0.3537848 0
0.85077828 1.0896951 0.38908494 0
0.83995366 1.0683343 0.45695597 0
0.84088945 1.0701811 0.54174107 0
1.1219307 1.6683398 -0.049840074 0
1.0765547 1.5759296 0.26951501 0
0.98153043 1.3824089 0.32377961 0
0.88616788 1.188199 0.34840557 0
0.8483814 1.1112453 0.39662626 0
0.84029227 1.0947715 0.46886829 0
0.84331626 1.10093 0.55870163 0
1.1055173 1.6796824 -0.049949721 0
0.96753174 1.3894898 0.32385224 0
0.87681013 1.1986963 0.35019547 0
0.83952838 1.1202903 0.39840335 0
0.8443538 1.1304383 0.48582062 0
0.84129268 1.1240007 0.57049882 0
1.0830795 1.6781253 -0.049559932 0
0.94948596 1.3877985 0.32151049 0
0.86383361 1.2016581 0.34925869 0
0.83823436 1.1460257 0.407828 0
0.84098595 1.1520053 0.494881 0
0.84032619 1.1505716 0.58452946 0
1.0701244 1.6972102 -0.049990002 0
0.93140656 1.3854696 0.31906736 0
0.85282189 1.2088661 0.34993303 0
0.84447974 1.1901189 0.42552683 0
0.84025401 1.1806222 0.50777489 0
0.84326881 1.1873975 0.60514629 0
1.0524541 1.7061046 -0.050028089 0
0.91533631 1.3872088 0.31783062 0
0.84465474 1.2228243 0.35309863 0
0.84102476 1.2143819 0.43415734 0
0.83548343 1.2014945 0.51638621 0
0.83849353 1.2084951 0.61547458 0
1.0315977 1.7074025 -0.049780954 0
0.8945502 1.3772763 0.31343219 0
0.84843498 1.2661921 0.36687887 0
0.83904982 1.2435846 0.44497681 0
0.83588672 1.2359653 0.53235215 0
0.8385275 1.2423265 0.6339643 0
1.0144838 1.7175854 -0.049886882 0
0.88063991 1.3833529 0.31352767 0
0.85211629 1.3121243 0.38149175 0
0.83941454 1.2804058 0.45915082 0
0.83702677 1.274443 0.55039471 0
0.8384307 1.2779487 0.65350485 0
0.99772346 1.7289007 -0.0500439 0
0.86696219 1.3900648 0.31384453 0
0.84788632 1.3406345 0.38980439 0
0.84039026 1.3212101 0.47502187 0
0.84094465 1.3226469 0.57355821 0
0.83831346 1.3158287 0.67438656 0
0.98112291 1.7409732 -0.050237082 0
0.84670264 1.3791575 0.30941144 0
0.84718138 1.3804461 0.40210822 0
0.83911204 1.358726 0.48936093 0
0.84245181 1.3677156 0.5949139 0
0.84161872 1.3654732 0.70261472 0
0.96131933 1.7444943 -0.050113145 0
0.82850403 1.3727254 0.30627993 0
0.83806378 1.3994845 0.40702111 0
0.84064156 1.4067001 0.50824082 0
0.84072918 1.4069453 0.61306137 0
0.94481087 1.7573594 -0.050351858 0
0.81781447 1.3872331 0.30887204 0
0.83882231 1.4484596 0.42248297 0
0.84151155 1.4562973 0.52774137 0
0.83925319 1.4497155 0.63301486 0
0.91994536 1.7453794 -0.049663614 0
1.0283326 2.0747216 0.34972075 0
0.79997164 1.380831 0.30587345 0
0.8447721 1.5169605 0.44471639 0
0.84209025 1.5088114 0.54842794 0
0.8389383 1.499234 0.65645021 0
0.904598 1.7619921 -0.050060146 0
1.0060997 2.0840116 0.35008603 0
0.78538221 1.383774 0.3054468 0
0.83920181 1.5545194 0.45604217 0
0.8395322 1.5555675 0.56652975 0
0.83934331 1.5549685 0.68305582 0
0.88273346 1.7579628 -0.049692698 0
0.98013294 2.0811031 0.34820506 0
0.77074218 1.3864113 0.30498937 0
0.84055972 1.6180438 0.47637182 0
0.8412897 1.6204655 0.59242219 0
0.86515963 1.7679195 -0.049856406 0
0.95899069 2.0940263 0.34936342 0
0.7537384 1.3806785 0.30236053 0
0.84076351 1.6831316 0.49716333 0
0.83859295 1.675588 0.61399978 0
0.8470819 1.776487 -0.049976323 0
0.73872411 1.3812305 0.047344495 0
0.74323022 1.3976673 0.13228831 0
0.74329317 1.397897 0.21797261 0
0.73920441 1.3829825 0.30192354 0
0.83772975 1.7423732 0.5158655 0
0.83771992 1.7423372 0.64050919 0
0.82976508 1.7883213 -0.050224792 0
0.72383112 1.3819045 0.047230396 0
0.72391921 1.3822423 0.13015074 0
0.72233891 1.3761796 0.21321255 0
0.72365564 1.3812311 0.3004671 0
0.82919145 1.7861205 0.52919251 0
0.83268332 1.799517 0.66284198 0
0.80816489 1.7835747 -0.049870733 0
0.70798641 1.3784035 0.046970017 0
0.7086364 1.3810323 0.12962045 0
0.70978105 1.385662 0.21431266 0
0.71049535 1.388551 0.30145082 0
0.82534766 1.8530703 0.55046678 0
0.82391536 1.8472774 0.68111503 0
0.79189217 1.8005192 -0.050323013 0
0.69346815 1.3797765 0.046896435 0
0.69386935 1.3814917 0.12929721 0
0.69556981 1.3887609 0.21425655 0
0.69112468 1.3697588 0.29563326 0
0.81909138 1.9167905 0.57059157 0
0.76901716 1.7890419 -0.04974243 0
0.67864102 1.3795201 0.046770182 0
0.68060142 1.3884033 0.12970549 0
0.67847532 1.3787692 0.21181601 0
0.67914969 1.381825 0.29795802 0
0.80427539 1.9488076 0.5798862 0
0.7496863 1.7926433 -0.049723674 0
0.66581082 1.3884593 0.04698636 0
0.66602516 1.3894922 0.12949197 0
0.66454333 1.3823513 0.21192171 0
0.66492438 1.3841877 0.29778767 0
0.79306018 2.0016558 0.5962981 0
0.7302922 1.7958665 -0.049700078 0
0.64912307 1.378368 0.046515759 0
0.65285301 1.3975532 0.13006242 0
0.65011066 1.3834478 0.21160275 0
0.65074819 1.386727 0.29771024 0
0.7776053 2.0392241 0.60753906 0
0.71221393 1.8062681 -0.049945861 0
0.63491279 1.3800883 0.046482436 0
0.63435835 1.3770316 0.12752782 0
0.63573205 1.3846053 0.21132906 0
0.63506949 1.3809524 0.29552355 0
0.76309299 2.0867767 0.62219614 0
0.69189835 1.8044472 -0.049756873 0
0.6191299 1.3723426 0.046112962 0
0.62018901 1.3786318 0.12743489 0
0.6218614 1.3885624 0.21160111 0
0.62286061 1.3944961 0.29839078 0
0.74675125 2.1301677 0.63547993 0
0.67318392 1.8120772 -0.049918968 0
0.60776663 1.3913404 0.046717647 0
0.60661352 1.3839241 0.12776314 0
0.60526752 1.3752674 0.20875575 0
0.60732669 1.3885108 0.29624981 0
0.72933137 2.1731937 0.6486842 0
0.65433264 1.819579 -0.050084662 0
0.59160382 1.3797208 0.046222273 0
0.5918681 1.381574 0.1272797 0
0.59395915 1.3962364 0.21219561 0
0.59241295 1.3853945 0.29490247 0
0.70897949 2.2027664 0.65741736 0
0.63476521 1.8224958 -0.050093573 0
0.57882947 1.3915114 0.04657783 0
0.5777598 1.3832699 0.12725569 0
0.57784253 1.3839073 0.20960011 0
0.57732719 1.3799366 0.29300329 0
0.68688864 2.2241061 0.66346037 0
0.61394227 1.8147628 -0.049728528 0
0.56383508 1.386506 0.046334911 0
0.56408739 1.3886621 0.12765089 0
0.56357253 1.384262 0.20934843 0
0.56434739 1.3908843 0.29536992 0
0.66730314 2.270828 0.6780898 0
0.59551525 1.8275578 -0.050110225 0
0.552302 1.4130697 0.13011883 0
0.55153036 1.4056679 0.21294682 0
0.55221522 1.412237 0.30044439 0
0.64597952 2.3115957 0.69079095 0
0.57558137 1.8268796 -0.050016791 0
0.55182803 1.5674068 0.14662178 0
0.55217493 1.5711961 0.24266949 0
0.55186677 1.5678298 0.33994436 0
0.62072921 2.3200595 0.69277495 0
0.55590856 1.828714 -0.05002242 0
0.60237098 2.4178798 0.23815452 0
0.59875298 2.3720021 0.38728848 0
0.59807098 2.3633542 0.54318017 0
0.53566766 1.8220752 -0.049733747 0
0.57430542 2.4056971 0.39303055 0
0.57275265 2.3822429 0.54751945 0
0.51619512 1.8260312 -0.049833175 0
0.5483883 2.4270265 0.3965911 0
0.548446 2.4281034 0.55882859 0
0.49687383 1.8354728 -0.050137322 0
0.52161622 2.4397316 0.39865202 0
0.52173817 2.4427099 0.56222945 0
0.47694528 1.8311695 -0.049959142 0
0.45624241 1.1006489 0.35238767 0
0.45672104 1.1175381 0.43304464 0
0.45720714 1.8311763 -0.049943857 0
0.44581771 1.1076717 0.35519964 0
0.44580364 1.1067787 0.42754215 0
0.4374693 1.8288475 -0.049854066 0
0.43513849 1.0887228 0.41845787 0
0.43512112 1.0832051 0.49160966 0
0.41779676 1.8259805 -0.049753919 0
0.42473489 1.0912145 0.41972101 0
0.42489821 1.0739163 0.48611993 0
0.3980059 1.8315468 -0.049963739 0
0.41394413 1.1083137 0.42836046 0
0.41461012 1.0780928 0.48869255 0
0.37821573 1.8327285 -0.050025925 0
0.35227707 2.5815508 0.42415082 0
0.35201344 2.5891619 0.59948403 0
0.40506572 1.0575964 0.47670224 0
0.35837534 1.8339767 -0.050099432 0
0.32221335 2.5992765 0.42756683 0
0.32229963 2.5974503 0.60190707 0
0.39562353 1.0456901 0.46987602 0
0.33929765 1.8215685 -0.049693499 0
0.29211873 2.6094608 0.42969126 0
0.29188403 2.6133802 0.60638064 0
0.38609242 1.0400913 0.46686271 0
0.31888217 1.8315201 -0.050096162 0
0.26084605 2.6317225 0.43406999 0
0.26107734 2.6285336 0.61075759 0
0.29888606 1.8331674 -0.050210912 0
0.35596713 1.1631765 0.038204726 0
0.2291197 2.6520517 0.43817487 0
0.22971319 2.6450856 0.61559665 0
0.27986613 1.8239796 -0.049946159 0
0.19729735 2.6674297 0.44146001 0
0.19767378 2.6635845 0.62104195 0
0.259911 1.8249155 -0.050053269 0
0.16671298 2.6674016 0.44202691 0
0.1667112 2.6674178 0.62283379 0
0.34700024 1.0376513 0.46738911 0
0.24094927 1.817158 -0.049856856 0
0.13514765 2.674638 0.44398472 0
0.134663 2.6785657 0.62660897 0
0.22160277 1.8132292 -0.049806651 0
0.10243173 2.6882608 0.4471806 0
0.10165988 2.6939285 0.6315797 0
0.2006003 1.8206304 -0.050174106 0
0.071682319 2.6856291 0.44749367 0
0.068720236 2.7055039 0.63568991 0
0.18255347 1.8081385 -0.0498324 0
0.036240354 2.7116716 0.45311674 0
0.036836371 2.7079909 0.63756675 0
0.16307898 1.8051912 -0.049844097 0
0.0050353571 2.7089005 0.4535585 0
0.0031992958 2.7193992 0.64186209 0
0.14228787 1.8091897 -0.050117031 0
-0.028048379 2.7157676 0.45584199 0
-0.028249515 2.7168381 0.6426512 0
0.12259169 1.8067465 -0.050165605 0
-0.088425115 2.8568065 0.10040358 0
-0.089998856 2.8646379 0.2910355 0
-0.061600551 2.7233222 0.45833427 0
-0.061045632 2.720561 0.6451804 0
0.10434617 1.7973486 -0.049969442 0
-0.11216213 2.8086402 0.098892011 0
-0.1133038 2.8139729 0.28621295 0
-0.094380632 2.7255845 0.45993498 0
-0.095383182 2.7302675 0.64938533 0
0.082704738 1.8035016 -0.050350454 0
-0.1414196 2.7895484 0.098451503 0
-0.14206393 2.7923832 0.28461325 0
-0.12953748 2.7372723 0.4633598 0
-0.12940396 2.736685 0.65285474 0
0.066780522 1.7847273 -0.049827293 0
-0.17396726 2.785439 0.098573327 0
-0.17326017 2.7824998 0.28434268 0
-0.16140546 2.7332237 0.46395794 0
-0.15884031 2.7225611 0.65105665 0
0.045445308 1.788748 -0.050149471 0
-0.21065773 2.7972736 0.099297903 0
-0.20777644 2.7859273 0.28559062 0
-0.19591285 2.7392087 0.46649957 0
-0.1969799 2.7434108 0.65855622 0
0.028118389 1.7768862 -0.0498957 0
-0.24905814 2.8135047 0.10020445 0
-0.2526741 2.8270283 0.29108202 0
-0.22887047 2.7380042 0.46778858 0
-0.22748746 2.732832 0.65790766 0
0.0057367845 1.7836677 -0.050340459 0
-0.26211262 2.7371285 0.46922132 0
-0.26228231 2.7377326 0.66146058 0
-0.011509372 1.7718935 -0.050106738 0
-0.29420555 2.7316251 0.46986791 0
-0.2955181 2.7360809 0.66340035 0
-0.028806193 1.7608324 -0.04990685 0
-0.32777083 2.7305734 0.47143331 0
-0.32759815 2.7300134 0.66428018 0
-0.049176648 1.7597624 -0.050089046 0
-0.35888469 2.7211823 0.4715049 0
-0.35808009 2.7186847 0.66386145 0
-0.064032987 1.7418725 -0.049648158 0
-0.39582247 2.7290721 0.47493905 0
-0.39474809 2.7258756 0.66852868 0
-0.085107997 1.7426734 -0.049919397 0
-0.42187726 2.7044158 0.47225794 0
-0.42548603 2.7147219 0.66838217 0
-0.10098107 1.7286296 -0.04963788 0
-0.45677519 2.7051079 0.47449291 0
-0.45295966 2.6946363 0.66591448 0
-0.12367673 1.7331537 -0.050071478 0
-0.48665273 2.6916473 0.47409379 0
-0.48705912 2.6927204 0.66848612 0
-0.13993718 1.7204655 -0.04985787 0
-0.52064288 2.6887848 0.47581926 0
-0.51771152 2.6813293 0.66859037 0
-0.15650626 1.7089251 -0.049695291 0
-0.55068982 2.6756008 0.47562638 0
-0.5492332 2.6720288 0.66937727 0
-0.17864682 1.7108572 -0.050062068 0
-0.58754015 2.6785738 0.47866976 0
-0.58288264 2.667551 0.67161381 0
-0.19642575 1.7021654 -0.050027713 0
-0.61158872 2.6512094 0.47584909 0
-0.61029077 2.6482422 0.66985023 0
-0.20982255 1.6838413 -0.049624462 0
-0.64483607 2.6451144 0.47728255 0
-0.64143944 2.6376088 0.67060244 0
-0.23208638 1.685136 -0.049998716 0
-0.66946769 2.6201174 0.47504401 0
-0.67068958 2.6227293 0.6702733 0
-0.25040311 1.6776488 -0.050038125 0
-0.6975528 2.6029732 0.47442675 0
-0.69899142 2.6059504 0.66950792 0
-0.267685 1.6680179 -0.050001428 0
-0.7301029 2.5949609 0.47571707 0
-0.72999847 2.5947516 0.67043006 0
-0.28281468 1.6542552 -0.049807299 0
-0.75866437 2.5787938 0.47544461 0
-0.7532599 2.5682933 0.66709131 0
-0.29867482 1.6421541 -0.049686711 0
-0.78542423 2.5593023 0.47456479 0
-0.78810465 2.5643528 0.67031842 0
-0.32536548 1.6500249 -0.05038609 0
-0.8129524 2.5414608 0.47408703 0
-0.80767 2.5318031 0.66537535 0
-0.33809596 1.6321076 -0.050047431 0
-0.62061906 2.133532 0.082594931 0
-0.83432734 2.5128233 0.47144264 0
-0.83184469 2.5084171 0.66315252 0
-0.35218608 1.6170039 -0.049829002 0
-0.62046182 2.0794289 0.080915302 0
-0.86446273 2.5000119 0.4721345 0
-0.86000538 2.4923289 0.66315544 0
-0.37268442 1.6129266 -0.050074778 0
-0.61825526 2.0241964 0.079175949 0
-0.88773119 2.4755018 0.47045362 0
-0.89361548 2.4853563 0.66597211 0
-0.39037251 1.6039376 -0.050127432 0
-0.61360693 1.9673252 0.077353269 0
-0.91021585 2.4501541 0.46864426 0
-0.91350138 2.4555025 0.66208553 0
-0.40363491 1.5878682 -0.049890872 0
-0.61205173 1.917749 0.075821646 0
-0.93580532 2.4301841 0.4680278 0
-0.92954111 2.420269 0.65661979 0
-0.42103702 1.5784725 -0.049943566 0
-0.61617708 1.8788941 0.074733034 0
-0.95379305 2.3986597 0.46499044 0
-0.96518576 2.416199 0.66065121 0
-0.44131708 1.5733151 -0.050188001 0
-0.62084138 1.8422222 0.073731177 0
-0.97810805 2.3773675 0.46419519 0
-0.97558951 2.373595 0.65303296 0
-0.45033252 1.5514259 -0.049721189 0
-0.61628711 1.7933543 0.072195135 0
-0.99983764 2.3524938 0.46267641 0
-1.0039618 2.358506 0.65390176 0
-0.46891946 1.5436863 -0.049873125 0
-0.61637759 1.7529522 0.071012668 0
-1.0224636 2.3292511 0.46156406 0
-1.0241274 2.3316123 0.651205 0
-0.47891998 1.5238932 -0.049505543 0
-0.6169219 1.7145938 0.069909476 0
-0.61204159 1.7078497 0.19748797 0
-1.0395747 2.2986443 0.45886531 0
-1.0438557 2.3045599 0.64851326 0
-0.076832905 0.96826178 0.44072741 0
-0.50911987 1.531715 -0.050368324 0
-0.61673534 1.6765501 0.068810232 0
-0.61410975 1.6730165 0.19460051 0
-1.0595912 2.2725708 0.45720798 0
-1.0654904 2.2805104 0.64682925 0
-0.089007869 0.9663043 0.44353989 0
-0.51433057 1.5057665 -0.049740087 0
-0.61627817 1.6394244 0.067741491 0
-0.61756086 1.6411061 0.19208375 0
-1.0815033 2.249356 0.45623994 0
-1.0859196 2.2551463 0.64479417 0
-0.093058541 0.95345926 0.43962428 0
-0.53703392 1.502876 -0.050154056 0
-0.61851525 1.6069576 0.066873133 0
-0.61738133 1.605509 0.1890448 0
-1.1000013 2.2219915 0.45437473 0
-1.0971984 2.218411 0.63913751 0
-0.11002828 0.95743346 0.44638953 0
-0.54843307 1.4854436 -0.049919304 0
-0.62071025 1.5754107 0.066039369 0
-0.61411393 1.5671998 0.18560077 0
-1.1170624 2.1932461 0.45222476 0
-1.1124059 2.1874499 0.63535917 0
-0.12996222 0.96455097 0.4553774 0
-0.57236135 1.4834661 -0.050403766 0
-0.6140964 1.5340968 0.06474629 0
-0.61910093 1.540168 0.18368575 0
-1.1265247 2.1557465 0.44805622 0
-1.1276076 2.1570601 0.63179344 0
-0.13568981 0.95372015 0.45298299 0
-0.57609046 1.4570693 -0.049765676 0
-0.62261713 1.5120865 0.064338058 0
-0.62224865 1.5116508 0.18154998 0
-1.140148 2.1240611 0.44524437 0
-1.1471415 2.1323307 0.63014436 0
-0.15406705 0.95803118 0.46053195 0
-0.59770107 1.451967 -0.050129231 0
-0.61285126 1.4694312 0.062954634 0
-0.61401403 1.4707716 0.17763759 0
-1.1583198 2.0982103 0.44383544 0
-1.1624626 2.1029859 0.62700105 0
-0.60657537 1.432161 -0.049807142 0
-0.62201047 1.4495075 0.062636107 0
-0.6373961 1.4667982 0.1789754 0
-1.1782551 2.0746303 0.4430137 0
-1.1654731 2.0602655 0.61931992 0
-0.62786448 1.4262905 -0.050160263 0
-0.66371155 1.4655693 0.064058766 0
-0.66110969 1.4627182 0.18035576 0
-1.1752145 2.0260377 0.43613631 0
-1.1806602 2.0320048 0.61655754 0
-0.63579845 1.4057825 -0.049814828 0
-0.51077402 1.272207 0.055283006 0
-0.69273257 1.4666106 0.1829697 0
-1.1955007 2.0037658 0.43566975 0
-1.1970881 2.0054617 0.61442912 0
-0.66147733 1.404108 -0.050402131 0
-0.50979608 1.2460885 0.054582216 0
-0.71725404 1.4622157 0.18443985 0
-1.2006162 1.9657763 0.43133181 0
-1.1985228 1.9635954 0.60692841 0
-0.67117941 1.3856086 -0.050169975 0
-0.51091725 1.2228032 0.054014008 0
-0.75092971 1.4666244 0.18730223 0
-1.2060407 1.9289573 0.4272522 0
-1.2070974 1.9300308 0.60231274 0
-0.67588603 1.3623865 -0.049701441 0
-0.53306371 1.220906 0.054524247 0
-0.77592731 1.4614878 0.18880793 0
-1.2204468 1.9018309 0.42562166 0
-1.227228 1.9085484 0.60205704 0
-0.69417548 1.35274 -0.049927391 0
-0.53958261 1.203409 0.054253798 0
-0.80421603 1.4590352 0.19079693 0
-1.2172068 1.857969 0.41967228 0
-1.225975 1.8664387 0.59431571 0
-0.71097374 1.3414657 -0.050083533 0
-0.56933737 1.2080564 0.055137005 0
-0.83467865 1.4579852 0.19308801 0
-1.2319579 1.8321879 0.41838801 0
-1.2291255 1.8295201 0.58839595 0
-0.72466278 1.3271822 -0.05009409 0
-0.86675465 1.4576833 0.068981811 0
-0.85987532 1.4513651 0.19458631 0
-1.2311893 1.7923905 0.41339821 0
-1.235924 1.7967389 0.58396995 0
-0.2364247 0.87877041 0.38206738 0
-0.73134029 1.3066056 -0.04977718 0
-0.90634215 1.4633162 0.070163853 0
-0.90498972 1.4621052 0.19895324 0
-1.2370421 1.7594514 0.41018933 0
-1.2355262 1.758094 0.57727116 0
-0.23705901 0.86398667 0.37814987 0
-0.74388027 1.2914399 -0.049753923 0
-0.93321395 1.4567363 0.070726968 0
-1.2329482 1.7184173 0.40473405 0
-1.2420712 1.726382 0.57316273 0
-0.23575731 0.84782654 0.37331399 0
-0.75880635 1.2783223 -0.049851775 0
-0.97000468 1.4580721 0.071752995 0
-1.237709 1.6859138 0.401557 0
-1.2424877 1.6899807 0.56717944 0
-0.23609824 0.83344835 0.36953399 0
-0.2518208 0.84682977 0.45564136 0
-0.76916409 1.2613212 -0.049744409 0
-1.0077137 1.4592246 0.072810173 0
-1.2466909 1.6574827 0.39949843 0
-1.2400161 1.6519452 0.56045365 0
-0.24985142 0.83049357 0.37310654 0
-0.79122388 1.2538754 -0.050185263 0
-1.0537629 1.4661571 0.074238889 0
-1.2481471 1.6233307 0.39579883 0
-1.2479757 1.6231921 0.55737638 0
-0.25841027 0.82305712 0.37389714 0
-0.80100155 1.2363518 -0.050067797 0
-1.0907648 1.4646728 0.075238287 0
-1.2457982 1.5868325 0.39136127 0
-1.23276 1.5765589 0.54691994 0
-0.27153164 0.81915224 0.37713453 0
-0.80921245 1.2177259 -0.049890921 0
-1.1246694 1.4599172 0.076089524 0
-1.2520659 1.5577254 0.38903058 0
-1.2373691 1.5464419 0.54313058 0
-0.2651189 0.79999959 0.37017003 0
-0.25819051 0.7946803 0.44170952 0
-0.81903255 1.2004555 -0.049797956 0
-1.151509 1.4491228 0.076620482 0
-1.2534609 1.525375 0.38570726 0
-1.2344502 1.5111564 0.53709978 0
-0.27318054 0.79219943 0.3708798 0
-0.2807948 0.79789436 0.45169505 0
-0.83911717 1.1907396 -0.050168864 0
-1.2116141 1.462093 0.078621954 0
-1.251529 1.4911699 0.38176331 0
-1.2480228 1.4886158 0.53647041 0
-1.2354296 1.479442 0.69255418 0
-0.26185435 0.77022022 0.36170226 0
-0.28196174 0.78486788 0.44829398 0
-0.85083961 1.1747675 -0.050175834 0
-1.250093 1.4579866 0.079651833 0
-1.2515529 1.4590223 0.37838256 0
-1.240491 1.4511752 0.52933431 0
-1.2444705 1.4539981 0.69005531 0
-0.28846371 0.77583367 0.37200472 0
-0.28037077 0.77009273 0.44333246 0
-0.8591553 1.1564326 -0.050043691 0
-1.2948692 1.4573414 0.080948278 0
-1.2487972 1.4255236 0.37451094 0
-1.2419701 1.4208087 0.52520066 0
-1.233005 1.4146173 0.67941707 0
-0.28220791 0.75798643 0.44061202 0
-0.86456549 1.1362534 -0.049797654 0
-1.2798736 1.4154124 0.079662949 0
-1.2727154 1.4106009 0.22681592 0
-1.2477736 1.3938357 0.37114042 0
-1.2401741 1.3887274 0.52021319 0
-1.2447742 1.3918196 0.67838216 0
-0.28957182 0.74975795 0.44133866 0
-0.87933242 1.1223974 -0.049963675 0
-1.2643552 1.3742198 0.078388475 0
-1.2701212 1.377991 0.22464682 0
-1.2580898 1.3701218 0.37032759 0
-1.2413276 1.3591586 0.51628947 0
-1.2331303 1.3537973 0.66816276 0
-0.29345071 0.73920435 0.44003808 0
-0.88076484 1.0999154 -0.049571536 0
-1.2748889 1.3506624 0.078248575 0
-1.2747977 1.3506043 0.22347365 0
-1.2487227 1.334015 0.3653779 0
-1.2410996 1.3291651 0.51209223 0
-1.2428333 1.3302681 0.66663194 0
-0.30018818 0.73054492 0.44052216 0
-0.89829838 1.0877162 -0.049870327 0
-1.292864 1.33182 0.078434668 0
-1.2958733 1.3336817 0.22442573 0
-1.2525966 1.306908 0.36337152 0
-1.2347727 1.2958809 0.5062117 0
-1.2346441 1.2958014 0.65822971 0
-0.90471196 1.06858 -0.049710028 0
-1.3096777 1.3121214 0.078580901 0
-1.3085189 1.3114245 0.2243403 0
-1.2504869 1.2765247 0.3601931 0
-1.2335099 1.266315 0.50200838 0
-1.2328799 1.2659361 0.65255427 0
-0.9222517 1.056073 -0.05002097 0
-1.3304836 1.2946314 0.078901425 0
-1.3273251 1.2927856 0.22505735 0
-1.2517922 1.2486465 0.35783157 0
-1.2311592 1.2365892 0.49762487 0
-1.2370164 1.2400119 0.64933968 0
-0.93501163 1.0405971 -0.050139971 0
-1.382527 1.2946073 0.080511093 0
-1.3823606 1.2945127 0.23027539 0
-1.2538931 1.2215946 0.3557249 0
-1.2466487 1.2174826 0.49861643 0
-1.2352854 1.2110327 0.64402866 0
-0.94255781 1.0221486 -0.050053593 0
-1.2538493 1.1936921 0.35326153 0
-1.2351273 1.1833749 0.49180302 0
-1.2363675 1.1840583 0.63996208 0
-0.94480371 1.0009314 -0.049762648 0
-1.2435173 1.1606735 0.34878269 0
-1.2502129 1.1642541 0.49285802 0
-1.2372136 1.1573025 0.63596237 0
-0.95346308 0.9832682 -0.049742315 0
-1.2628082 1.14372 0.35043609 0
-1.2350482 1.1293213 0.48528135 0
-1.2382268 1.1309701 0.63217795 0
-0.97519922 0.97219276 -0.050253574 0
-1.2701528 1.1204971 0.34971079 0
-1.2403171 1.1054956 0.48371372 0
-1.2476382 1.1091766 0.63166869 0
-0.97866452 0.95181239 -0.05004169 0
-1.277913 1.0975852 0.34913215 0
-1.2413996 1.0797985 0.48105296 0
-1.2408296 1.0795207 0.62526184 0
-0.98825669 0.93448359 -0.050083075 0
-1.2904508 1.0770117 0.34956729 0
-1.2363297 1.0514858 0.47676402 0
-1.2399875 1.053211 0.62122548 0
-0.99146128 0.91420424 -0.049882136 0
-1.2913381 1.0510505 0.34774184 0
-1.2404438 1.0278254 0.4751755 0
-1.2396288 1.0274534 0.6175105 0
-1.0005357 0.89666635 -0.049921364 0
-1.3118941 1.034042 0.34986827 0
-1.2516381 1.0074563 0.4756535 0
-1.2423556 1.0033606 0.6150564 0
-1.0008746 0.87537134 -0.049629945 0
-1.328089 1.0148476 0.35117048 0
-1.2452097 0.97952002 0.47131276 0
-1.2305514 0.97327185 0.60747015 0
-1.0219653 0.86283362 -0.050151546 0
-1.3162686 0.98392558 0.34704971 0
-1.2403138 0.95267373 0.46751451 0
-1.2378832 0.95167369 0.60694414 0
-1.0276797 0.84379536 -0.050086033 0
-1.3401873 0.9677999 0.34995961 0
-1.2358997 0.92641807 0.4639605 0
-1.2374879 0.92704827 0.60375255 0
-1.0295477 0.82333267 -0.049883004 0
-1.3506292 0.94608295 0.35029274 0
-1.2341993 0.90157151 0.46125525 0
-1.240664 0.90404302 0.60195905 0
-1.0522199 0.81067401 -0.050482158 0
-1.3537275 0.92161036 0.34926578 0
-1.2382509 0.87912202 0.46021152 0
-1.2392625 0.87949425 0.59865403 0
-1.0512201 0.78919071 -0.050188269 0
-1.3681691 0.90129805 0.35047245 0
-1.2367774 0.85482383 0.4577539 0
-1.247249 0.85852772 0.59878594 0
-1.0556352 0.76976192 -0.050110023 0
-1.3820641 0.88061821 0.35161871 0
-1.2420242 0.83306026 0.45720008 0
-1.2373719 0.83148026 0.59273386 0
-1.0559589 0.74905568 -0.049887676 0
-1.3850535 0.85621494 0.3507413 0
-1.2359551 0.80766577 0.45368597 0
-1.2410955 0.80933958 0.59158462 0
-1.0620958 0.73032266 -0.049893368 0
-1.3927612 0.83340693 0.35081682 0
-1.2408037 0.78603446 0.45318896 0
-1.2354592 0.78436834 0.58727545 0
-1.0592939 0.70891851 -0.049574848 0
-1.4002976 0.81053287 0.35091397 0
-1.2508056 0.76598638 0.45413834 0
-1.238693 0.76237696 0.58617103 0
-1.0733787 0.69254613 -0.049894258 0
-1.4076252 0.78758138 0.35102573 0
-1.2491845 0.74253243 0.45206845 0
-1.2348175 0.73844749 0.58270752 0
-1.0771145 0.67313486 -0.049837448 0
-1.4163799 0.76499617 0.35145783 0
-1.2437339 0.71824962 0.44907165 0
-1.2415559 0.71765989 0.58301818 0
-1.092945 0.65687376 -0.050235704 0
-1.4120351 0.73897427 0.34950218 0
-1.2535902 0.69820708 0.4501977 0
-1.2407112 0.69489336 0.58081293 0
-1.0843472 0.6343618 -0.049742583 0
-1.4164764 0.71537262 0.34924448 0
-1.2458327 0.67375028 0.44676104 0
-1.2327478 0.67055869 0.57627499 0
-1.0981722 0.61737466 -0.050082829 0
