# .PCD v0.7 - Point Cloud Data file format
VERSION 0.7
FIELDS x y z intensity
SIZE 4 4 4 4
TYPE F F F F
COUNT 1 1 1 1
WIDTH 1353
HEIGHT 1
VIEWPOINT 0 0 0 1 0 0 0
POINTS 1353
DATA ascii
-1.23133 0.032424513 0.43461204 0
-1.2339375 0.032061029 0.56578934 0
-1.1160181 0.028585557 -0.049922798 0
-0.50189167 0.12209352 0.039744999 0
-0.51588154 0.1199634 0.10910121 0
-0.51224416 0.12051723 0.17835484 0
-1.2424948 0.0093279975 0.43828109 0
-1.2517977 0.0079115229 0.57282859 0
-1.1105852 0.0094927149 -0.049838077 0
-0.51638752 0.10763671 0.040337034 0
-0.51896334 0.10721127 0.10964314 0
-0.51650363 0.10761753 0.17947823 0
-1.2383523 -0.011610667 0.43807462 0
-1.2436444 -0.01248474 0.57121319 0
-1.1095414 -0.010324429 -0.049921036 0
-0.51213074 0.096094303 0.040256962 0
-0.5072999 0.09695483 0.10859419 0
-0.51628518 0.095354266 0.17981355 0
-1.2423257 -0.033977758 0.44003916 0
-1.2348888 -0.032653015 0.56947738 0
-1.1050998 -0.029554855 -0.049889758 0
-0.51256543 0.083710633 0.040352497 0
-0.50879198 0.084431939 0.10899625 0
-0.50847626 0.084492289 0.1787843 0
-1.2375455 -0.054872435 0.43980777 0
-1.2370492 -0.054777574 0.57152063 0
-1.1117097 -0.051023107 -0.050269905 0
-0.51418841 0.071013533 0.040497255 0
-0.51596081 0.070651539 0.11003928 0
-0.50961685 0.071947224 0.17942488 0
-1.2352831 -0.076261498 0.44029987 0
-1.2382907 -0.076875754 0.57335168 0
-1.0967999 -0.068090744 -0.049874734 0
-0.50700134 0.060125191 0.040326364 0
-0.51650739 0.058058668 0.11037592 0
-0.50837463 0.059826661 0.17965657 0
-1.2368118 -0.098527856 0.44185328 0
-1.2374343 -0.098663189 0.57456809 0
-1.0984623 -0.088697381 -0.050093457 0
-0.52041411 0.044607971 0.04091474 0
-0.51524317 0.045800466 0.11053129 0
-0.52018464 0.0446609 0.18233287 0
-1.2401209 -0.12136567 0.44395074 0
-1.2382902 -0.12094349 0.5764662 0
-1.0862303 -0.10607699 -0.049811784 0
-0.51025701 0.034410629 0.040645946 0
-0.5114153 0.034128103 0.11042058 0
-0.50928193 0.034648467 0.1808365 0
-1.2376078 -0.14299999 0.44460109 0
-1.2302403 -0.14120297 0.57541633 0
-1.0809199 -0.12503557 -0.049792405 0
-0.5510118 0.011307617 0.042257831 0
-0.55779016 0.009563555 0.11589681 0
-0.57034826 0.0063323868 0.192761 0
-1.2383502 -0.16554175 0.44618285 0
-1.2267005 -0.16254435 0.57599986 0
-1.0767293 -0.14428647 -0.049823198 0
-0.62430823 -0.021786463 0.045089569 0
-0.60796571 -0.017361503 0.12184925 0
-1.2411989 -0.18881913 0.31872654 0
-1.240562 -0.18864666 0.44823325 0
-1.2491969 -0.19098468 0.58565187 0
-1.0833927 -0.16664924 -0.050265945 0
-0.68964529 -0.054696213 0.047651488 0
-0.68874252 -0.054439526 0.13127993 0
-1.243129 -0.21206658 0.32018319 0
-1.2507777 -0.21424131 0.45249107 0
-1.2468735 -0.21313123 0.58687747 0
-1.0665656 -0.18234126 -0.049845736 0
-0.77254426 -0.094727017 0.05089267 0
-0.77771986 -0.096269257 0.1417179 0
-1.2484426 -0.2365381 0.32233706 0
-1.2454554 -0.2356479 0.452714 0
-1.2309844 -0.2313358 0.58349496 0
-1.0724934 -0.20481996 -0.050282199 0
-0.867342 -0.14086439 0.054610372 0
-0.86236417 -0.13931255 0.15176831 0
-1.2310599 -0.2542527 0.32026994 0
-1.2385105 -0.25657544 0.4525761 0
-1.2417743 -0.25759295 0.58947617 0
-1.0573773 -0.22077341 -0.049940936 0
-0.98508358 -0.19723324 0.05922658 0
-0.98774815 -0.19810085 0.16652569 0
-1.2350265 -0.27861926 0.32228583 0
-1.2371602 -0.27931401 0.45400932 0
-1.2319199 -0.27760771 0.58837414 0
-1.0491658 -0.23882078 -0.049866103 0
-1.1252424 -0.26465663 0.064734481 0
-1.1281312 -0.26563767 0.1831325 0
-1.2422762 -0.30440167 0.32499403 0
-1.2409413 -0.30394831 0.45690829 0
-1.0544652 -0.26159438 -0.050311156 0
-1.2891806 -0.34461513 0.20226601 0
-1.2462931 -0.32944545 0.32715783 0
-1.2344375 -0.32525203 0.45712066 0
-1.0371222 -0.27637485 -0.049907826 0
-1.2575192 -0.3574675 0.19953406 0
-1.2512349 -0.35515526 0.32956991 0
-1.226931 -0.34621283 0.45713416 0
-1.0322021 -0.29560336 -0.049984463 0
-1.2543298 -0.38052329 0.20008336 0
-1.2488083 -0.3784124 0.33063328 0
-1.2448572 -0.37690189 0.46416637 0
-1.0324563 -0.3169466 -0.050269496 0
-1.2535839 -0.40469113 0.20095144 0
-1.2363569 -0.39785537 0.32981357 0
-1.2478938 -0.40243325 0.46725267 0
-1.0253421 -0.33547887 -0.050281908 0
-1.2539341 -0.42953375 0.20198666 0
-1.2383907 -0.42313835 0.33186212 0
-1.2492691 -0.4276143 0.46998516 0
-1.0084929 -0.34987453 -0.04992561 0
-1.2473953 -0.45170751 0.20225908 0
-1.2423054 -0.4495379 0.33435267 0
-1.2389454 -0.44810572 0.46957541 0
-1.007126 -0.37082985 -0.050178524 0
-1.2525748 -0.47912535 0.20394224 0
-1.2499622 -0.47797266 0.3376601 0
-1.236755 -0.47214547 0.4715032 0
-0.99219906 -0.38579682 -0.049911093 0
-1.2348024 -0.49650684 0.20296444 0
-1.2418637 -0.49972919 0.33793408 0
-1.2426159 -0.50007254 0.47578469 0
-0.98787844 -0.40556106 -0.050068144 0
-1.2498734 -0.52912945 0.2059093 0
-1.2404053 -0.52466387 0.33958814 0
-1.2411222 -0.525002 0.47811592 0
-0.97149396 -0.4195753 -0.049756937 0
-1.4965031 -0.67532277 0.08260604 0
-1.2325859 -0.54676092 0.20505302 0
-1.245931 -0.5532617 0.34271631 0
-1.2434295 -0.5520432 0.48162904 0
-0.96578562 -0.43871543 -0.049877405 0
-1.4444613 -0.67939639 0.081005357 0
-1.2271478 -0.57012987 0.20564328 0
-1.2358484 -0.57450455 0.34278601 0
-1.2304657 -0.57179809 0.48090044 0
-0.96209502 -0.45900133 -0.050089475 0
-1.4000902 -0.6861816 0.079704747 0
-1.2395121 -0.60289258 0.20842819 0
-1.2458696 -0.60619015 0.34699479 0
-0.9515661 -0.47580352 -0.050036427 0
-1.3362886 -0.68154037 0.077612132 0
-1.2337673 -0.62671536 0.20907503 0
-1.2425112 -0.63139129 0.3485769 0
-0.92654753 -0.48458174 -0.049400963 0
-1.3002747 -0.69053155 0.076635309 0
-1.2340852 -0.65405655 0.21050702 0
-1.2476082 -0.66150862 0.35197636 0
-0.93131065 -0.50975227 -0.049988043 0
-1.2555034 -0.69376439 0.075296596 0
-1.2422769 -0.686257 0.21296465 0
-1.2503617 -0.69084591 0.35499257 0
-0.92004979 -0.52604204 -0.049929921 0
-1.2436171 -0.71512502 0.075309485 0
-1.2367013 -0.71108365 0.21377705 0
-1.236395 -0.71090466 0.35461533 0
-0.90249991 -0.53850555 -0.049617872 0
-1.2474211 -0.74593681 0.075987287 0
-1.2519859 -0.74868208 0.2172507 0
-1.2465948 -0.74543995 0.35937405 0
-0.90709007 -0.56441116 -0.05023941 0
-1.2480546 -0.77535385 0.076553516 0
-1.2430625 -0.77226537 0.21775186 0
-1.2399428 -0.77033538 0.360688 0
-0.8797065 -0.57049793 -0.049526755 0
-1.2520679 -0.80739921 0.077282928 0
-1.241568 -0.80071896 0.21924099 0
-1.2413559 -0.80058402 0.36380324 0
-0.87970674 -0.59389812 -0.049979638 0
-1.2543223 -0.83891362 0.077960476 0
-1.2451884 -0.83293957 0.22144508 0
-1.2412804 -0.8303836 0.36670518 0
-0.87524259 -0.61468607 -0.050256953 0
-1.2336181 -0.85557657 0.077673182 0
-1.2408017 -0.86040515 0.22268339 0
-1.2390798 -0.85924774 0.36925122 0
-0.8596518 -0.62803137 -0.050065231 0
-1.2390088 -0.89001948 0.078524627 0
-1.2398492 -0.89059979 0.224426 0
-1.2446593 -0.89392179 0.37360403 0
-0.83950078 -0.63797987 -0.049679514 0
-1.2371511 -0.92006189 0.07908535 0
-1.2429888 -0.92420298 0.22677332 0
-1.6004411 -1.1777697 0.45552778 0
-0.84656775 -0.66742313 -0.050497957 0
-1.2365901 -0.95154327 0.079725139 0
-1.2401674 -0.95414919 0.22840568 0
-1.5625937 -1.1890274 0.4511705 0
-0.82431531 -0.6756624 -0.050033465 0
-1.2396538 -0.98630422 0.080550164 0
-1.2370839 -0.98438209 0.2300687 0
-0.79486334 -0.67796528 -0.049245071 0
-1.245887 -1.0242374 0.08154548 0
-1.2385486 -1.0186034 0.23241544 0
-0.79525876 -0.70308262 -0.049806774 0
-1.1628736 -0.99274725 0.07851582 0
-1.158294 -0.98913878 0.22366314 0
-1.1632249 -0.99302417 0.37240174 0
-0.79169965 -0.72551584 -0.050207105 0
-1.1428725 -1.0094644 0.078330062 0
-1.1385142 -1.0059403 0.22312821 0
-1.1409737 -1.007929 0.37094232 0
-0.78142023 -0.74274486 -0.050312944 0
-1.2471256 -1.1290991 0.083915941 0
-1.241364 -1.1243193 0.23974083 0
-1.3319662 -1.1994839 0.41948119 0
-0.75857079 -0.74937767 -0.049840733 0
-1.2489609 -1.1667459 0.084830776 0
-1.2443631 -1.1628327 0.24265036 0
-1.3148917 -1.2228593 0.41983575 0
-1.0257447 -0.97676796 0.49456483 0
-0.74140179 -0.76053184 -0.049636461 0
-1.2795877 -1.2303914 0.41590002 0
-0.9954772 -0.98235077 0.48964566 0
-0.73416722 -0.78039294 -0.049912658 0
-1.1948049 -1.1928846 0.083987966 0
-1.1917405 -1.1901405 0.2403201 0
-1.1913384 -1.1897805 0.39912495 0
-0.97026169 -0.99181074 0.4864248 0
-0.7209866 -0.79506165 -0.049915891 0
-0.91950464 -0.9773863 0.47435978 0
-0.71184444 -0.81354171 -0.050126236 0
-0.88732433 -0.97882873 0.46859851 0
-0.69237232 -0.822254 -0.049837884 0
-0.86227274 -0.98637158 0.46530184 0
-0.68211663 -0.83981436 -0.050014544 0
-0.83692074 -0.993164 0.46188983 0
-0.66053605 -0.84605211 -0.049628321 0
-0.81899655 -1.007027 0.46116623 0
-0.65780175 -0.87153488 -0.05021264 0
-0.63336945 -0.87444323 -0.049687926 0
-0.62139118 -0.8904534 -0.049817432 0
-0.60423052 -0.90078169 -0.049681209 0
-0.59562171 -0.9208259 -0.050015945 0
-0.58418047 -0.93789142 -0.050212957 0
-0.56853199 -0.95007628 -0.050188825 0
-0.54817879 -0.95638281 -0.049904805 0
-0.53313053 -0.96914583 -0.049927991 0
-0.50954801 -0.97075218 -0.049458552 0
-0.50181484 -0.99313945 -0.049931046 0
-0.48814738 -1.0079001 -0.050067466 0
-0.4756583 -1.0245055 -0.050290801 0
-0.4534964 -1.0272939 -0.049920868 0
-0.43614882 -1.0368295 -0.04985569 0
-0.4275189 -1.0597073 -0.050368387 0
-0.37706774 -0.98203689 0.50047398 0
-0.40911376 -1.0677959 -0.050257083 0
-0.35199696 -0.97739178 0.49467322 0
-0.38753259 -1.0705705 -0.049933732 0
-0.33597082 -0.98663682 0.49446437 0
-0.36824566 -1.0767486 -0.049765669 0
-0.30878347 -0.97716421 0.48708272 0
-0.34994775 -1.0844014 -0.049669757 0
-0.28929746 -0.97985893 0.48456684 0
-0.33764261 -1.1025589 -0.050014462 0
-0.27328861 -0.98834294 0.48437354 0
-0.32151318 -1.1142377 -0.050099492 0
-0.25149167 -0.98622018 0.48023608 0
-0.30499303 -1.1253148 -0.050167881 0
-0.22382267 -0.97237116 0.47181332 0
-0.28951502 -1.1385292 -0.050330017 0
-0.20569779 -0.97567886 0.46999532 0
-0.26703119 -1.1379631 -0.049949139 0
-0.18406065 -0.97164387 0.46554387 0
-0.25030023 -1.1486917 -0.05002968 0
-0.1720704 -0.98680419 0.46831307 0
-0.23336031 -1.159115 -0.050106049 0
-0.15039064 -0.98175246 0.46369788 0
-0.21244682 -1.1608961 -0.049851704 0
-0.12916721 -0.97686857 0.45927018 0
-0.195502 -1.1713095 -0.049945429 0
-0.11643972 -0.99057668 0.46171546 0
-0.17406632 -1.1712723 -0.049641911 0
-0.10197349 -1.0006521 0.46289384 0
-0.1611798 -1.191642 -0.050137177 0
-0.073023334 -0.97545165 0.34760639 0
-0.08359696 -1.0013818 0.46077392 0
-0.14211239 -1.1972539 -0.050070111 0
-0.053632095 -0.9722057 0.34499839 0
-0.0650139 -1.0011551 0.45840555 0
-0.12119617 -1.1978593 -0.049821418 0
-0.030260963 -0.95773095 0.14644073 0
-0.029407812 -0.95547813 0.24124497 0
-0.014488025 -0.91608006 0.32804325 0
-0.053212687 -1.0183384 0.46232548 0
-0.101923 -1.2024704 -0.049736105 0
-0.0082343947 -0.94534177 0.1443682 0
-0.0076522068 -0.94374388 0.23789473 0
0.0053057536 -0.90818077 0.3243953 0
-0.085663751 -1.2155162 -0.04997943 0
0.0098324288 -0.94279927 0.14345765 0
0.0030611323 -0.96213669 0.2403685 0
0.025480913 -0.89811045 0.32024401 0
-0.0039384202 -0.98212594 0.44539225 0
-0.068126038 -1.2253065 -0.050106838 0
0.025514977 -0.94668919 0.14330609 0
0.022895949 -0.95448166 0.23790167 0
0.024945723 -0.94838291 0.33242041 0
0.016180741 -0.97446197 0.44080812 0
-0.048208579 -1.228013 -0.04997633 0
0.035749838 -0.96738273 0.14507474 0
0.035570189 -0.96794039 0.23949277 0
0.018845188 -1.0198594 0.35022935 0
0.020503031 -1.0147129 0.45307899 0
-0.029031141 -1.2328179 -0.049934112 0
0.026701497 -1.0520399 0.35745743 0
-0.0082824957 -1.2321942 -0.049699016 0
0.068845645 -0.97035021 0.33439907 0
0.009273367 -1.2423344 -0.049873613 0
0.084873244 -0.97322243 0.33397257 0
0.026775079 -1.2531658 -0.050081357 0
0.10012843 -0.97883016 0.33432338 0
0.043107495 -1.2692102 -0.05048858 0
0.11819522 -0.97351712 0.33184904 0
0.066494122 -1.2571737 -0.049871013 0
0.085975155 -1.2603689 -0.049823668 0
0.10424988 -1.2690542 -0.049985863 0
0.12232016 -1.2793534 -0.050214808 0
0.14341797 -1.2744305 -0.049898535 0
-0.066531733 -2.3918426 0.10248964 0
0.16413654 -1.2703996 -0.04962492 0
0.0023638175 -2.1954324 0.095151 0
0.18322869 -1.2752247 -0.0496816 0
0.033019319 -2.2028184 0.095229283 0
0.20119977 -1.287864 -0.05002892 0
0.065329805 -2.1995084 0.094935291 0
0.21917599 -1.3023039 -0.050448682 0
0.095095947 -2.2133808 0.095275573 0
0.24068299 -1.2905719 -0.049934488 0
0.12906294 -2.1952078 0.094476074 0
0.26012391 -1.2942467 -0.049984138 0
0.16026728 -2.1969247 0.094407491 0
0.28001225 -1.2937427 -0.049892616 0
0.19163708 -2.196506 0.094276488 0
0.29954109 -1.2967347 -0.049935434 0
0.22243746 -2.2017405 0.094362348 0
0.3197526 -1.2907743 -0.049666565 0
0.25440535 -2.1917827 0.093918212 0
0.33873624 -1.3021998 -0.050028816 0
0.28509957 -2.197937 0.094065063 0
0.35815912 -1.3098085 -0.05026298 0
0.31613719 -2.1991222 0.094048053 0
0.3781729 -1.3052207 -0.050070096 0
0.3470476 -2.2037764 0.094168931 0
0.39791152 -1.307086 -0.050116703 0
0.37828109 -2.1978629 0.093926303 0
0.41772547 -1.3047854 -0.05002344 0
0.43749905 -1.3095473 -0.050191231 0
0.45721796 -1.3031197 -0.04996841 0
0.47687027 -1.2997786 -0.049864616 0
0.49646354 -1.2967082 -0.049779281 0
0.51650536 -1.3030788 -0.050040241 0
0.53535247 -1.2885702 -0.049563408 0
0.55664879 -1.3093566 -0.050358582 0
0.57506698 -1.2925166 -0.049815353 0
0.59558779 -1.2995093 -0.050135199 0
0.61463565 -1.2919447 -0.04994154 0
0.63336885 -1.2829924 -0.049706232 0
0.65414464 -1.2895169 -0.050037134 0
0.672158 -1.2767345 -0.049680565 0
0.69287103 -1.2814789 -0.049965985 0
0.71329236 -1.2834694 -0.050161589 0
0.73149323 -1.2732996 -0.049924742 0
0.74972129 -1.2640676 -0.04972982 0
0.77199173 -1.2737765 -0.050235219 0
0.78656656 -1.2490091 -0.049488302 0
0.80888647 -1.2577488 -0.049978063 0
0.82982433 -1.2598044 -0.050233178 0
0.84606647 -1.2440387 -0.049839206 0
0.86557639 -1.2406238 -0.049910214 0
0.88379508 -1.2327408 -0.049824029 0
0.90429318 -1.2322807 -0.050023939 0
0.92496926 -1.2319008 -0.050237373 0
0.94273973 -1.2225788 -0.050124019 0
0.95948595 -1.2106184 -0.049918596 0
0.97755444 -1.2026238 -0.049871266 0
0.99863786 -1.202526 -0.050134577 0
0.92403382 -1.0092077 0.46016955 0
1.0175031 -1.1963811 -0.050176848 0
0.94053727 -1.0041832 0.46062282 0
1.0372996 -1.1923932 -0.050311882 0
0.96547335 -1.0193748 0.46843553 0
1.0490541 -1.169453 -0.049720794 0
0.97323352 -0.99311656 0.46139312 0
1.0707121 -1.1697866 -0.050041609 0
0.99086332 -0.99034256 0.46289837 0
1.0904963 -1.1654993 -0.050193373 0
1.0068588 -0.98373765 0.46309045 0
1.1062789 -1.15254 -0.050013047 0
1.0215876 -0.97442859 0.46236148 0
1.1244403 -1.1447065 -0.050043348 0
1.0421617 -0.97714263 0.46615279 0
1.1427878 -1.1371861 -0.050095506 0
1.0649573 -0.98359984 0.47146073 0
1.1561737 -1.1200868 -0.049771409 0
1.0794976 -0.97338933 0.47065413 0
1.1746985 -1.1130002 -0.04985797 0
1.1047647 -0.98320967 0.47748095 0
1.192168 -1.1038806 -0.049871624 0
1.1304173 -0.99265414 0.057329766 0
1.1286802 -0.98952526 0.1601301 0
1.1320207 -0.99554223 0.26589328 0
1.1284446 -0.98910075 0.37178084 0
1.1286107 -0.98940009 0.48309502 0
1.2095423 -1.0945687 -0.04988648 0
1.1433806 -0.97885484 0.05712774 0
1.1434005 -0.97888964 0.15991086 0
1.151927 -0.99380213 0.26738223 0
1.1417325 -0.97597212 0.37052682 0
1.1500278 -0.99048048 0.48690596 0
1.2291172 -1.0889689 -0.050064243 0
1.1690366 -0.98689514 0.057835683 0
1.1677278 -0.98467141 0.16176032 0
1.1640612 -0.97844201 0.26608422 0
1.1643306 -0.97889978 0.3740662 0
1.1649145 -0.97989172 0.48634416 0
1.2447227 -1.0765674 -0.049969733 0
1.2569665 -1.05889 -0.049660787 0
1.2739452 -1.0490018 -0.049686112 0
1.2954458 -1.0459421 -0.050012644 0
1.3110918 -1.0338145 -0.049962696 0
1.3286672 -1.0245185 -0.050043959 0
1.3444524 -1.0126114 -0.050021071 0
1.3530214 -0.99088567 -0.049572051 0
1.3784686 -0.99210066 -0.050148718 0
1.3983766 -0.98547727 -0.050391752 0
1.4011109 -0.95691806 -0.049649075 0
1.2054988 -0.71026635 0.050410189 0
1.2047244 -0.70928997 0.13955121 0
1.4233454 -0.95314616 -0.050041258 0
1.2110283 -0.69224674 0.050032295 0
1.198988 -0.67745137 0.13649757 0
1.4344497 -0.93560702 -0.049810238 0
1.2155429 -0.67342359 0.049616259 0
1.2071224 -0.66333842 0.13588326 0
1.4554991 -0.92992467 -0.050140601 0
1.2077119 -0.64063442 0.048541866 0
1.2052295 -0.63773626 0.13365094 0
1.47526 -0.92241782 -0.050400469 0
1.206453 -0.6164698 0.047860734 0
1.2086771 -0.61900115 0.1323728 0
1.4858856 -0.90449554 -0.050174627 0
1.2008102 -0.58815467 0.046971601 0
1.2053363 -0.59317726 0.13006079 0
1.4905899 -0.88039631 -0.049652331 0
1.5087904 -0.87106675 -0.049853191 0
1.5255092 -0.86000508 -0.049981628 0
1.5422928 -0.84887582 -0.050118826 0
1.5544765 -0.83310694 -0.050031647 0
1.572395 -0.82288903 -0.050238319 0
1.5702029 -0.79376298 -0.049468376 0
1.5928535 -0.78789514 -0.049922261 0
1.6099125 -0.77665192 -0.050108198 0
1.6274616 -0.76565367 -0.050321937 0
1.6355582 -0.74651176 -0.050099131 0
1.6449723 -0.72864789 -0.049950596 0
1.6579232 -0.71373713 -0.049975425 0
1.6682248 -0.69673967 -0.04988873 0
1.6810102 -0.68169725 -0.049923752 0
1.7067363 -0.67617232 -0.050541125 0
1.7047884 -0.65021312 -0.049939215 0
1.7131988 -0.63201845 -0.049808282 0
1.7313577 -0.620574 -0.050109554 0
1.735554 -0.59961259 -0.049816415 0
1.7581917 -0.59078991 -0.050320387 0
1.7640891 -0.57104099 -0.05011956 0
1.7681606 -0.55034053 -0.049854349 0
1.7841139 -0.53689796 -0.050095107 0
1.7929189 -0.51913875 -0.050046626 0
1.7887532 -0.4941605 -0.049477085 0
1.8086846 -0.48271796 -0.049903143 0
1.8217449 -0.4673132 -0.050054967 0
1.8301718 -0.44941834 -0.050027877 0
1.8358498 -0.4301807 -0.049900457 0
1.8529336 -0.4165068 -0.050234996 0
1.8591949 -0.39754799 -0.050148439 0
1.8612047 -0.37674484 -0.049905378 0
1.8711753 -0.3595778 -0.04998365 0
1.8881094 -0.34526405 -0.050339434 0
1.8868328 -0.3233172 -0.049999144 0
1.8920437 -0.30415162 -0.049919698 0
1.8963032 -0.28468564 -0.049813572 0
1.9167349 -0.27113095 -0.050331052 0
1.9174396 -0.25034854 -0.050107356 0
1.9169422 -0.22932933 -0.049849231 0
1.9195515 -0.20948784 -0.049718481 0
1.9234914 -0.19014515 -0.049647242 0
1.9444001 -0.1757919 -0.050216299 0
1.933993 -0.15232773 -0.049629807 0
1.9457222 -0.13513251 -0.049873564 0
1.948444 -0.11549965 -0.04979302 0
1.951246 -0.095941015 -0.049724739 0
1.9653649 -0.078963406 -0.050079715 0
1.9713078 -0.060003143 -0.050143246 0
1.9554802 -0.036690366 -0.04942305 0
1.9833913 -0.021966588 -0.050303116 0
1.9704337 0.00040497319 -0.049707606 0
1.9728684 0.019911531 -0.049679883 0
1.9852549 0.037950311 -0.050020117 0
1.9775085 0.058911715 -0.049642887 0
1.9802847 0.078343548 -0.049654089 0
1.9786295 0.098262541 -0.04951496 0
1.9914628 0.11671377 -0.049904566 0
1.9981928 0.13594447 -0.050083473 0
1.9959067 0.15593022 -0.049948234 0
1.9938695 0.17580944 -0.049830992 0
2.001183 0.19519666 -0.050056916 0
2.0064061 0.21481226 -0.050216813 0
2.0003738 0.23475643 -0.049983587 0
2.002759 0.2544862 -0.05005987 0
2.0026817 0.27425745 -0.050057109 0
1.99826 0.29394779 -0.049908109 0
2.000206 0.31373665 -0.049995355 0
1.977102 0.33248553 -0.049196362 0
1.9969852 0.35311142 -0.0499424 0
1.9962128 0.37283516 -0.049959186 0
1.9996929 0.39292273 -0.050137207 0
1.9926645 0.41214421 -0.04994766 0
1.9873904 0.43142286 -0.049829535 0
1.9866899 0.45117047 -0.049884416 0
1.9827213 0.47052565 -0.049830627 0
1.9803321 0.49007601 -0.049842514 0
1.9837097 0.51055318 -0.050071768 0
1.9715903 0.52853769 -0.049749497 0
1.959054 0.54621726 -0.04941956 0
1.9652182 0.56735957 -0.049777441 0
1.9615195 0.58668393 -0.049786113 0
1.961881 0.60692716 -0.049952254 0
1.9632607 0.62753564 -0.050165586 0
1.953447 0.6454975 -0.04997715 0
1.955592 0.66648245 -0.050238006 0
1.9581252 0.68776929 -0.050523926 0
1.9394892 0.70310628 -0.050033696 0
1.9291458 0.72061306 -0.049858287 0
1.9190431 0.73806995 -0.049699433 0
1.9235275 0.76026362 -0.050096992 0
1.9262438 0.78214455 -0.050440025 0
1.9039114 0.79524833 -0.049844351 0
1.9062175 0.81714863 -0.050191604 0
1.8993609 0.83574599 -0.050200053 0
1.8835961 0.85075331 -0.049874511 0
1.8798606 0.87055331 -0.050020155 0
1.8611668 0.88398117 -0.049594179 0
1.8658916 0.90759218 -0.050088778 0
1.8506327 0.92231953 -0.04981146 0
1.8484945 0.94312304 -0.050059248 0
1.8330041 0.95751637 -0.0497871 0
1.8268331 0.9764573 -0.049894035 0
1.8137054 0.99182296 -0.049730573 0
1.8078994 1.0110358 -0.049871244 0
1.794844 1.0263113 -0.049726237 0
1.7907828 1.0466527 -0.049958624 0
1.7837154 1.0654058 -0.050078571 0
1.7713848 1.0810515 -0.049989183 0
1.7681712 1.1023463 -0.050291605 0
1.7524858 1.1158532 -0.050077967 0
1.735392 1.1282493 -0.049809471 0
1.7328366 1.1503258 -0.050173443 0
1.7249833 1.1690111 -0.050321829 0
1.7026719 1.1774356 -0.04984615 0
1.6951028 1.1963291 -0.050024897 0
1.6886641 1.2162414 -0.050266601 0
1.6707019 1.2274104 -0.050000764 0
1.6576807 1.2422879 -0.049964357 0
1.6482784 1.2600998 -0.050103158 0
1.6356223 1.2753097 -0.050102118 0
1.6173968 1.285722 -0.049847536 0
1.6035489 1.2997693 -0.049804933 0
1.5970994 1.3204899 -0.050126895 0
1.5903647 1.3412595 -0.05045139 0
1.5754572 1.3545542 -0.050389405 0
1.5550001 1.3623632 -0.050057795 0
1.5439547 1.379287 -0.050202861 0
1.5224448 1.3855968 -0.04982467 0
1.5106679 1.4017917 -0.049950626 0
1.4935272 1.4123186 -0.049806833 0
1.0402437 0.92188257 0.30387205 0
1.48217 1.4291165 -0.049976476 0
1.4382889 1.3804228 0.059636306 0
1.4385916 1.3807586 0.1675065 0
1.4372704 1.3792925 0.27667484 0
1.0533267 0.95324028 0.31451222 0
1.4663861 1.4410621 -0.049920481 0
1.4161276 1.3838593 0.059202004 0
1.4176552 1.3855981 0.16639931 0
1.4031416 1.3690791 0.27120706 0
1.0452728 0.96176344 0.31484938 0
1.452662 1.4553565 -0.049984898 0
1.3815802 1.3723689 0.058083888 0
1.3916612 1.3841383 0.16445018 0
1.390478 1.3827571 0.27157384 0
1.0549947 0.99108189 0.32433704 0
1.4331055 1.4627413 -0.04973536 0
1.3711363 1.3885212 0.058283437 0
1.3719016 1.3894378 0.16351379 0
1.37008 1.387256 0.26981786 0
1.0542094 1.0089394 0.32870483 0
1.4197936 1.4775257 -0.049840361 0
1.3427818 1.3828921 0.057484463 0
1.3381697 1.3772247 0.1601951 0
1.3411868 1.3809322 0.26562327 0
1.0587624 1.0338836 0.33607215 0
1.4057498 1.4915115 -0.049915601 0
1.3232303 1.3874607 0.057174444 0
1.3205758 1.3841138 0.15958805 0
1.3261194 1.3911036 0.26535144 0
1.0612575 1.0571333 0.34262225 0
1.3875643 1.5002295 -0.049760457 0
1.2941761 1.3793794 0.056307841 0
1.3015432 1.3889129 0.15873328 0
1.3001903 1.3871622 0.26190907 0
1.0498592 1.0632182 0.34187865 0
1.3699535 1.5095342 -0.049643278 0
1.2755986 1.3842027 0.056042515 0
1.2722276 1.379725 0.15603743 0
1.2768521 1.3858677 0.25917074 0
1.0408114 1.0723351 0.34246477 0
1.3701479 1.5429853 -0.050606035 0
1.250252 1.3794832 0.055367563 0
1.2453679 1.3728228 0.15372038 0
1.253064 1.3833179 0.25624287 0
1.0350953 1.0860738 0.34499949 0
1.3449537 1.5420575 -0.050051868 0
1.2489867 1.4076712 0.056156363 0
1.2509648 1.4104412 0.15734828 0
1.2438197 1.4004357 0.25776649 0
1.0226485 1.0907209 0.3438243 0
1.3322144 1.5583645 -0.050265796 0
1.2420597 1.4286957 0.056627501 0
1.2397468 1.4253689 0.15796526 0
1.2497592 1.4397697 0.26418242 0
1.0106165 1.0958124 0.3429032 0
1.3103254 1.5614264 -0.049913883 0
1.2476947 1.4688803 0.057924371 0
1.2399694 1.4574648 0.16082327 0
1.2450043 1.4649048 0.26743552 0
1.0065842 1.1126037 0.34675109 0
1.2981093 1.5787308 -0.050185535 0
1.2463375 1.5001156 0.058824938 0
1.2539312 1.5116465 0.1664993 0
1.2438066 1.4962724 0.27202064 0
1.1728662 1.3885497 0.34942085 0
0.99699128 1.1214845 0.34743637 0
1.2787108 1.5851849 -0.050001513 0
1.2442793 1.5314394 0.059722748 0
1.2477303 1.5368264 0.16840567 0
1.2244824 1.500538 0.27076733 0
1.1520755 1.3875155 0.34631005 0
0.98615211 1.12852 0.34743491 0
1.2651216 1.6007239 -0.050211385 0
1.2468872 1.5714563 0.060980294 0
1.2464218 1.5707093 0.17140907 0
1.2043597 1.5031965 0.26923421 0
1.1230911 1.3727542 0.3391763 0
0.97758943 1.1392131 0.34892088 0
1.2472426 1.6094719 -0.05014338 0
1.1969368 1.5264155 0.27210158 0
1.1103499 1.3834571 0.33980143 0
0.96630973 1.1456413 0.34877884 0
0.83887357 0.93523967 0.47114334 0
1.2262405 1.6128258 -0.049861781 0
1.1709608 1.5189083 0.26853734 0
1.0876358 1.3773431 0.33549109 0
0.95529252 1.1524985 0.34885845 0
0.84175497 0.95960379 0.48442546 0
1.2095479 1.6233227 -0.049886879 0
1.1581129 1.533365 0.26962981 0
1.0704629 1.380069 0.33389401 0
0.94684297 1.1638626 0.35071808 0
0.84871954 0.99224871 0.35315076 0
0.83984464 0.97672695 0.41656706 0
0.84333956 0.98283941 0.49681649 0
1.1960168 1.6395575 -0.050154712 0
1.1449343 1.5475466 0.27069137 0
1.0529425 1.3818492 0.33209538 0
0.93838382 1.1755036 0.35271081 0
0.84874618 1.0140465 0.36101922 0
0.83844596 0.99549359 0.42440423 0
0.84483725 1.0070057 0.50973886 0
1.1736786 1.6398517 -0.049781218 0
1.1287446 1.5564585 0.27070034 0
1.030766 1.3746191 0.32776183 0
0.92687815 1.181813 0.35271549 0
0.85055709 1.0401683 0.37086788 0
0.83975047 1.0201122 0.43552437 0
0.84062558 1.0217363 0.51620471 0
1.1635659 1.6629739 -0.05034114 0
1.1108042 1.5620297 0.27007103 0
1.0151296 1.3789839 0.32687527 0
0.91040456 1.178623 0.34920865 0
0.84632337 1.0560222 0.3758443 0
0.84312522 1.0499034 0.44948259 0
0.83977211 1.0434881 0.52736229 0
1.1399304 1.6602917 -0.049869828 0
1.0963995 1.5743903 0.27086428 0
0.99792349 1.3800632 0.32511112 0
0.90588278 1.1984352 0.35438102 0
0.84937733 1.0869306 0.38780174 0
0.8422941 1.0729529 0.45954654 0
0.84111273 1.0706216 0.54203397 0
1.122216 1.6689209 -0.049863186 0
1.0753386 1.5734532 0.26901743 0
0.97884017 1.3769299 0.32222232 0
0.88904291 1.1940541 0.35057572 0
0.85182899 1.1182665 0.39986482 0
0.83656943 1.0871898 0.46464217 0
0.83797038 1.0900428 0.55150867 0
1.1067156 1.6822025 -0.050049346 0
0.96804482 1.3905687 0.32415709 0
0.88034332 1.2061268 0.35293281 0
0.8409586 1.123298 0.39978227 0
0.84310341 1.1278087 0.48436376 0
0.83980447 1.1208709 0.56844354 0
1.0916996 1.6968586 -0.050296143 0
0.95198971 1.3932397 0.32303864 0
0.86397213 1.2019591 0.34936893 0
0.83657026 1.1424091 0.40617973 0
0.84086782 1.1517487 0.49473962 0
0.84081495 1.1516337 0.5852229 0
1.072389 1.7022995 -0.050188873 0
0.93029338 1.3829678 0.31836876 0
0.85051221 1.2036756 0.34804294 0
0.8437385 1.188453 0.4247719 0
0.83900827 1.1778227 0.50624174 0
0.8385663 1.1768296 0.59828657 0
1.0508045 1.702268 -0.049878992 0
0.91091931 1.3769361 0.31497774 0
0.84824741 1.2311797 0.35612449 0
0.84088284 1.214052 0.4340086 0
0.84265584 1.2181754 0.52547109 0
0.84002006 1.2120453 0.61776638 0
1.0333741 1.7116812 -0.049946353 0
0.89869326 1.3872564 0.31618911 0
0.84615022 1.2606883 0.3648963 0
0.83958119 1.2448646 0.44555062 0
0.84138632 1.2492129 0.53952897 0
0.84199792 1.2506862 0.63933223 0
1.0129627 1.7137868 -0.049740802 0
0.88454878 1.3931141 0.31621036 0
0.85050982 1.3081126 0.38005406 0
0.84295124 1.2892374 0.46308973 0
0.84055281 1.2832481 0.55514032 0
0.84072351 1.2836745 0.65716255 0
0.9933995 1.7176962 -0.049615134 0
0.86166656 1.3763425 0.31009188 0
0.85029328 1.3468714 0.39202854 0
0.83982939 1.3197569 0.47437692 0
0.83782631 1.3145664 0.5692246 0
0.8372823 1.3131567 0.67268813 0
0.98233193 1.7442275 -0.050361026 0
0.84935009 1.3862834 0.31135091 0
0.84479386 1.3740195 0.39982739 0
0.83927101 1.3591539 0.48954991 0
0.84319383 1.3697128 0.59597993 0
0.84262258 1.3681751 0.70432419 0
0.95963061 1.7397674 -0.049933944 0
0.83120102 1.3802747 0.30832523 0
0.83840626 1.4004431 0.40735975 0
0.83908987 1.4023567 0.50633121 0
0.83899975 1.4021045 0.61048931 0
0.9404937 1.7447771 -0.049876951 0
0.81681085 1.3843081 0.30808309 0
0.83953267 1.4505299 0.42321119 0
0.84087163 1.4544324 0.52692503 0
0.84148818 1.4562292 0.63646042 0
0.92115569 1.7490572 -0.049801841 0
1.0291393 2.077173 0.35018617 0
0.79560184 1.3675532 0.30230713 0
0.84034729 1.5035154 0.4400073 0
0.84204358 1.5086696 0.54836613 0
0.83978891 1.5018187 0.65781164 0
0.90367073 1.7590503 -0.049950022 0
1.0068129 2.0862741 0.35051391 0
0.78588945 1.3853832 0.30587727 0
0.84088027 1.5598444 0.45789966 0
0.84067112 1.559181 0.56809843 0
0.83933383 1.5549383 0.68304008 0
0.88454413 1.7639699 -0.049916688 0
0.98653758 2.1023517 0.35220748 0
0.77015996 1.3844796 0.30447465 0
0.84081829 1.6189016 0.47666991 0
0.83838415 1.6108258 0.58825362 0
0.86381739 1.7632546 -0.049683105 0
0.96040058 2.0989263 0.35028297 0
0.75324011 1.3789468 0.30190077 0
0.84406191 1.6945951 0.50113189 0
0.83989948 1.6801288 0.61595613 0
0.84692353 1.7759093 -0.049954936 0
0.7394675 1.383942 0.047444876 0
0.73966926 1.3846781 0.13084087 0
0.74183887 1.3925922 0.21698059 0
0.73976976 1.3850447 0.30246907 0
0.83623397 1.7369169 0.51398325 0
0.83662355 1.7383381 0.63879228 0
0.82591802 1.7735618 -0.049680255 0
0.72453988 1.3846234 0.047330711 0
0.72287118 1.3782216 0.12970421 0
0.7259351 1.3899763 0.21578391 0
0.71971995 1.3661319 0.29648611 0
0.83082324 1.7923808 0.53134489 0
0.83142632 1.7946947 0.66077858 0
0.80820411 1.7837331 -0.049876563 0
0.71006173 1.3867972 0.047278702 0
0.70909119 1.3828717 0.12982407 0
0.71018875 1.3873107 0.21461898 0
0.70759726 1.3768296 0.29837027 0
0.82267302 1.8422527 0.54675949 0
0.82617491 1.856416 0.6850127 0
0.79039609 1.7941239 -0.050088529 0
0.69548798 1.3884109 0.047213018 0
0.69347566 1.3798087 0.12911145 0
0.6910693 1.369522 0.21069318 0
0.69139737 1.3709245 0.29593867 0
0.81896138 1.9162349 0.57040173 0
0.77012861 1.7940782 -0.049926557 0
0.67988962 1.3851779 0.046977028 0
0.6782909 1.3779336 0.12855324 0
0.67817229 1.3773961 0.21156242 0
0.67853224 1.379027 0.29722697 0
0.80585402 1.955961 0.58232331 0
0.75045478 1.7963465 -0.0498587 0
0.66475719 1.3833821 0.046801232 0
0.66413939 1.3804047 0.12849455 0
0.66521585 1.3855921 0.21251865 0
0.66459674 1.3826088 0.29737622 0
0.79123259 1.9928488 0.59330559 0
0.73210359 1.8051833 -0.050038923 0
0.65300119 1.3983152 0.047241233 0
0.64836365 1.3744619 0.12753434 0
0.64954549 1.3805408 0.21106867 0
0.65019161 1.3838642 0.29696614 0
0.77609044 2.0314324 0.60489827 0
0.71157688 1.8027557 -0.049818419 0
0.63561821 1.3839774 0.046623547 0
0.63554364 1.3835664 0.12824155 0
0.6350956 1.3810961 0.21068586 0
0.63572085 1.3845435 0.29645473 0
0.76460707 2.095124 0.62501854 0
0.69339514 1.8133353 -0.050078657 0
0.62112617 1.3841968 0.04654213 0
0.61919683 1.37274 0.12679277 0
0.62200135 1.3893937 0.21175313 0
0.619618 1.3752409 0.29340902 0
0.74475783 2.118331 0.63148642 0
0.67362893 1.8149391 -0.050022375 0
0.60679162 1.3850698 0.04649109 0
0.60813624 1.3937178 0.12882829 0
0.60602021 1.3801081 0.20963927 0
0.60573399 1.3782674 0.29360497 0
0.72712857 2.1590264 0.64391416 0
0.65392601 1.8167279 -0.04998184 0
0.59125686 1.3772876 0.046134524 0
0.59179491 1.3810607 0.12722398 0
0.59290975 1.3888777 0.21085505 0
0.59295785 1.3892154 0.29588717 0
0.7077716 2.1942964 0.654571 0
0.63543755 1.8276759 -0.050280057 0
0.57762766 1.3822517 0.046244469 0
0.57847339 1.3887681 0.12785153 0
0.57699907 1.3774086 0.20841825 0
0.57734996 1.3801121 0.29304847 0
0.68830168 2.2349932 0.66711283 0
0.61489546 1.8229097 -0.050021362 0
0.56373394 1.3856413 0.046303831 0
0.56320482 1.3811193 0.12683472 0
0.56363922 1.3848317 0.20945187 0
0.56424594 1.3900175 0.29514727 0
0.66649944 2.2639589 0.67578894 0
0.59465146 1.8192725 -0.049812827 0
0.55302179 1.4199733 0.13086477 0
0.55266112 1.4165137 0.21491344 0
0.55181247 1.4083743 0.29945356 0
0.64471096 2.2994282 0.68672091 0
0.57511896 1.8218287 -0.049835712 0
0.55211246 1.5705135 0.14695705 0
0.5516451 1.5654085 0.24162135 0
0.55326265 1.5830783 0.343851 0
0.62123847 2.3256221 0.69463331 0
0.5555076 1.8236301 -0.049840353 0
0.60349184 2.4320934 0.23968677 0
0.59922802 2.378026 0.38837823 0
0.59769911 2.3586388 0.54197335 0
0.53691906 1.8409777 -0.050410066 0
0.5733909 2.3918834 0.3905338 0
0.57286435 2.3839295 0.54795069 0
0.5161888 1.8259134 -0.049828965 0
0.54859263 2.4308403 0.39727989 0
0.54836184 2.426532 0.5584271 0
0.49667212 1.8305471 -0.049961321 0
0.52221704 2.4544039 0.40130037 0
0.52201855 2.4495578 0.56397796 0
0.47674727 1.8241824 -0.049709599 0
0.45676202 1.1189839 0.35998207 0
0.45650184 1.109803 0.42917293 0
0.4571391 1.8268535 -0.049789511 0
0.4458937 1.1125004 0.35719916 0
0.44585574 1.1100881 0.42919821 0
0.43747637 1.8310871 -0.049934026 0
0.43512443 1.0842597 0.41622481 0
0.43515775 1.09484 0.49850973 0
0.41772813 1.8332498 -0.050013453 0
0.4247137 1.0934558 0.42084244 0
0.42478889 1.0854938 0.49298626 0
0.39793965 1.8345541 -0.050071131 0
0.41402227 1.1047676 0.35403845 0
0.41399589 1.1059647 0.42718482 0
0.41455063 1.0807921 0.49029371 0
0.37813404 1.8350861 -0.05011015 0
0.35264912 2.5708098 0.42221254 0
0.35259616 2.5723391 0.59518939 0
0.40463418 1.0700548 0.48409501 0
0.35872245 1.8266307 -0.049836878 0
0.32220605 2.599431 0.42759472 0
0.32265356 2.5899599 0.59999388 0
0.39562711 1.0456145 0.46983117 0
0.33914793 1.8240689 -0.049782924 0
0.29175228 2.6155803 0.43079686 0
0.29208377 2.6100442 0.605528 0
0.3861351 1.0393789 0.46643943 0
0.319552 1.8222847 -0.049765579 0
0.2611894 2.6269882 0.43321395 0
0.26073903 2.6331983 0.61195081 0
0.2993407 1.8278309 -0.050019704 0
0.22972801 2.6449115 0.4368825 0
0.22902165 2.6532025 0.61767501 0
0.28012231 1.8213627 -0.049852289 0
0.19756049 2.664742 0.44097292 0
0.19749707 2.6653895 0.62150466 0
0.26072812 1.8175292 -0.049787957 0
0.16701187 2.6646998 0.44153666 0
0.16634645 2.6707149 0.62368011 0
0.34624547 1.0444744 0.47146019 0
0.2404386 1.8212969 -0.050005738 0
0.13627954 2.6654644 0.44231772 0
0.1338423 2.6852171 0.62831885 0
0.22079679 1.8191471 -0.050019879 0
0.10022177 2.7044878 0.45013413 0
0.10150363 2.6950755 0.6318751 0
0.20177142 1.8127725 -0.049890466 0
0.068639144 2.706048 0.45121685 0
0.070943162 2.6905887 0.63184255 0
0.18118908 1.8165642 -0.050137129 0
0.03665109 2.7091351 0.45265335 0
0.037150487 2.7060511 0.63706535 0
0.16324989 1.8042139 -0.049808677 0
0.005267845 2.707571 0.45331511 0
0.0040532514 2.7145162 0.6405974 0
0.14427857 1.7985945 -0.049732149 0
-0.028566284 2.718524 0.45634779 0
-0.02739857 2.7123091 0.6414755 0
0.1236688 1.8013865 -0.049970422 0
-0.088007107 2.8547266 0.10032783 0
-0.089823142 2.8637633 0.29093963 0
-0.061059073 2.7206278 0.45783859 0
-0.06355007 2.7330234 0.64842361 0
0.10506518 1.7939903 -0.049846824 0
-0.11516388 2.8226614 0.099403918 0
-0.11341389 2.814487 0.28626946 0
-0.094378069 2.7255726 0.45993277 0
-0.096177414 2.7339771 0.65035325 0
0.085448846 1.7914287 -0.049908444 0
-0.14147456 2.7897904 0.098460361 0
-0.14299847 2.7964947 0.2850664 0
-0.12803055 2.7306426 0.46213362 0
-0.13046099 2.7413354 0.65407145 0
0.065699622 1.7892205 -0.049992278 0
-0.17331542 2.7827296 0.098473839 0
-0.17213751 2.7778332 0.28382686 0
-0.16285928 2.7392666 0.46507886 0
-0.16460516 2.7465236 0.65734464 0
0.047629878 1.7801453 -0.049832594 0
-0.21070035 2.7974412 0.09930408 0
-0.21131666 2.7998683 0.28713641 0
-0.1955352 2.7377214 0.46622282 0
-0.1971518 2.7440877 0.65873438 0
0.026064085 1.7845691 -0.050179627 0
-0.25334221 2.8295269 0.10079654 0
-0.25151825 2.8227053 0.2906011 0
-0.22758992 2.7332153 0.46689454 0
-0.2296737 2.7410083 0.66006696 0
0.0097885001 1.7692449 -0.049805615 0
-0.26250398 2.7385216 0.4694823 0
-0.26446986 2.7455196 0.66352415 0
-0.0090389084 1.7635064 -0.049794592 0
-0.29296321 2.7274072 0.46907493 0
-0.29194611 2.7239544 0.66017503 0
-0.033779219 1.7769632 -0.050509486 0
-0.32519525 2.722219 0.46985665 0
-0.32316583 2.7156363 0.66044176 0
-0.044508472 1.745271 -0.049545504 0
-0.35842347 2.7197506 0.47123361 0
-0.36100101 2.7277522 0.66629189 0
-0.069000319 1.7566521 -0.050204813 0
-0.3942737 2.7244639 0.47406226 0
-0.39356053 2.722342 0.66757762 0
-0.088093117 1.7511983 -0.050241865 0
-0.42573279 2.7154264 0.47436193 0
-0.42600352 2.7161996 0.66878164 0
-0.10334648 1.7351215 -0.049884558 0
-0.45446801 2.698776 0.47327751 0
-0.45635331 2.7039502 0.66844356 0
-0.12725021 1.74259 -0.05043171 0
-0.48707205 2.6927545 0.47430733 0
-0.48898143 2.6977966 0.66987097 0
-0.13873465 1.717407 -0.049740542 0
-0.5205642 2.6885848 0.47578049 0
-0.51862985 2.6836648 0.66923064 0
-0.15687419 1.7098274 -0.049730077 0
-0.5475598 2.6679249 0.47413138 0
-0.55147004 2.6775143 0.67088866 0
-0.18001063 1.7140847 -0.050187159 0
-0.5803268 2.6615021 0.66993839 0
-0.19498916 1.6988814 -0.049899746 0
-0.61141253 2.6508064 0.67056435 0
-0.21427442 1.6936787 -0.050009958 0
-0.64522862 2.645982 0.67294729 0
-0.22748031 1.6752898 -0.04961063 0
-0.67506599 2.6320848 0.67290843 0
-0.24488707 1.666234 -0.049585514 0
-0.6969372 2.6016994 0.66830337 0
-0.27179235 1.6762513 -0.050329916 0
-0.72458947 2.583909 0.66733867 0
-0.28504592 1.6585903 -0.049981367 0
-0.75150931 2.5648921 0.66611534 0
-0.30481637 1.6537262 -0.050154429 0
-0.78272271 2.5542119 0.66738939 0
-0.32062864 1.6413647 -0.050033685 0
-0.81117427 2.5382097 0.66723841 0
-0.33575803 1.6279584 -0.049877401 0
-0.012717439 1.0546231 0.10348082 0
-0.83689463 2.5173798 0.66577721 0
-0.35229874 1.6171981 -0.049837019 0
-0.022787137 1.0492208 0.10351396 0
-0.86154163 2.494977 0.6639365 0
-0.37415761 1.6153938 -0.050177366 0
-0.88862646 2.477001 0.66348928 0
-0.38918692 1.6020076 -0.050046567 0
-0.91875947 2.4640617 0.66464841 0
-0.40658927 1.5925443 -0.050088342 0
-0.93815422 2.433902 0.660734 0
-0.42661095 1.5870537 -0.050308879 0
-0.9646368 2.4153538 0.66039407 0
-0.44051713 1.5721169 -0.050136566 0
-0.98218977 2.3834815 0.6560657 0
-0.45694053 1.561059 -0.050138243 0
-1.0004736 2.3534207 0.65232849 0
-0.47495043 1.5522451 -0.050246928 0
-1.0279367 2.3370183 0.65289229 0
-0.48280519 1.5292621 -0.04974214 0
-1.0456078 2.3069811 0.64927578 0
-0.071937397 0.96149677 0.43654931 0
-0.50434059 1.5252829 -0.050082233 0
-1.0677831 2.283596 0.64781004 0
-0.097317293 0.97748762 0.45051086 0
-0.52024472 1.5135201 -0.050088238 0
-1.0810568 2.2487707 0.45610717 0
-1.0872049 2.2568312 0.64533484 0
-0.094155028 0.95489681 0.4405289 0
-0.52229249 1.4840459 -0.049300294 0
-1.0958996 2.2167521 0.45317468 0
-1.0996397 2.2215295 0.64014792 0
-0.10738392 0.95405567 0.44424316 0
-0.54931843 1.4865456 -0.04996977 0
-1.1116096 2.1864588 0.45065457 0
-1.1110829 2.1858032 0.63482028 0
-0.13249739 0.96770662 0.45740268 0
-0.57144225 1.4823511 -0.050352175 0
-1.1223041 2.1506262 0.44685954 0
-1.1236258 2.1522295 0.63019627 0
-0.13934739 0.9581573 0.45586011 0
-0.57647026 1.4575183 -0.049786672 0
-1.1417234 2.1259239 0.44568434 0
-1.1453526 2.1302154 0.62943757 0
-0.15071727 0.95407015 0.45793641 0
-0.59767747 1.4519398 -0.050127946 0
-1.1569848 2.0966713 0.44346803 0
-1.1501409 2.0887821 0.62220365 0
-0.61541378 1.4420938 -0.050281823 0
-1.173273 2.0690312 0.44166204 0
-1.1668974 2.061866 0.61986655 0
-0.62064183 1.4183764 -0.049777746 0
-1.1778622 2.0289388 0.43684465 0
-1.1832242 2.0348141 0.6175279 0
-0.64101195 1.4113526 -0.050087206 0
-0.68784988 1.461394 0.18220182 0
-1.1905415 1.9984674 0.43436092 0
-1.1860651 1.9936848 0.61031359 0
-0.65960848 1.4021612 -0.050305784 0
-0.50023437 1.2361273 0.054089263 0
-0.71330464 1.4581012 0.18382694 0
-1.2025676 1.9678092 0.43184 0
-1.2019153 1.9671296 0.60817832 0
-0.66384327 1.3781561 -0.04979663 0
-0.51201469 1.2239181 0.054069858 0
-0.74952316 1.4651955 0.18708676 0
-1.2170455 1.9401368 0.43008134 0
-1.2098966 1.9328743 0.60333073 0
-0.68062389 1.3670797 -0.049939524 0
-0.52894354 1.2168245 0.054317195 0
-0.78044665 1.4659647 0.18949158 0
-1.21928 1.9006751 0.42532545 0
-1.2245082 1.9058541 0.6010803 0
-0.70077002 1.3591101 -0.050254725 0
-0.53596187 1.1999115 0.054074071 0
-0.80954206 1.4641799 0.19159275 0
-1.2251951 1.8656853 0.42167529 0
-1.2379774 1.8780326 0.59857327 0
-0.70782721 1.338502 -0.049929213 0
-0.56194025 1.201089 0.054774214 0
-0.83819687 1.4612989 0.19360742 0
-1.2310925 1.8313727 0.41817361 0
-1.2260166 1.8265917 0.58730632 0
-0.72534108 1.3278052 -0.05012697 0
-0.8684938 1.4592806 0.069066115 0
-0.87029231 1.4609324 0.19610631 0
-1.2255197 1.7871833 0.41200989 0
-1.2302914 1.7915658 0.58201873 0
-0.231205 0.87397647 0.37913305 0
-0.73426855 1.3092278 -0.049917515 0
-0.90636587 1.4633375 0.070164993 0
-0.90258205 1.4599491 0.19860591 0
-1.2260917 1.7496456 0.40753835 0
-1.23744 1.7598077 0.57792658 0
-0.23185875 0.85932994 0.3752597 0
-0.75110352 1.2977461 -0.050096251 0
-0.93353295 1.4570148 0.070742086 0
-1.2447937 1.7287589 0.40756997 0
-1.2400337 1.7246033 0.57247269 0
-0.23003711 0.84283257 0.37017003 0
-0.77021062 1.2880285 -0.050386421 0
-0.97317314 1.4607687 0.071901537 0
-1.2369285 1.6852494 0.40137213 0
-1.238629 1.6866968 0.56588668 0
-0.23402645 0.83168507 0.36840758 0
-0.2549628 0.84950387 0.45770574 0
-0.77027559 1.2622433 -0.049795967 0
-1.0120022 1.4627824 0.073009104 0
-1.2530258 1.6627382 0.40098292 0
-1.2406187 1.6524452 0.56065345 0
-0.24747159 0.82851923 0.37182629 0
-0.79365551 1.2558414 -0.050296899 0
-1.0364816 1.4521838 0.073445469 0
-1.2503498 1.6251117 0.39630967 0
-1.2460208 1.6216114 0.55673498 0
-0.24402757 0.81142759 0.36623907 0
-0.80083859 1.2362235 -0.050060391 0
-1.0840603 1.4593899 0.074933551 0
-1.2555152 1.5944891 0.39359236 0
-1.2384186 1.5810177 0.54875797 0
-0.27027953 0.8181656 0.3764745 0
-0.81022584 1.218504 -0.049936533 0
-1.1195313 1.4559723 0.07585825 0
-1.24292 1.5507036 0.38695106 0
-1.2433798 1.5510567 0.54506397 0
-0.25876594 0.79512209 0.36685386 0
-0.25396883 0.79143918 0.43904653 0
-0.81856763 1.2001077 -0.049777225 0
-1.1689004 1.4621302 0.077395827 0
-1.2501682 1.5229124 0.38496575 0
-1.2309895 1.508568 0.53599715 0
-0.27283192 0.79193866 0.37069952 0
-0.28044701 0.79763418 0.45147774 0
-0.83927631 1.1908556 -0.050175894 0
-1.2000992 1.4537048 0.078113347 0
-1.2488822 1.4892418 0.38117275 0
-1.2328728 1.4775795 0.53168833 0
-1.2395953 1.4824766 0.69426882 0
-0.2721526 0.77772218 0.36697751 0
-0.27814001 0.78208387 0.44592828 0
-0.83460581 1.1632516 -0.04946525 0
-1.2456207 1.4548141 0.079456069 0
-1.2464114 1.4553751 0.37724569 0
-1.246292 1.4552903 0.53114891 0
-1.2376152 1.4491353 0.68725908 0
-0.28009278 0.76989555 0.36775538 0
-0.28816444 0.77562135 0.44811344 0
-0.85855567 1.1560185 -0.050017674 0
-1.2898426 1.4538701 0.080730185 0
-1.250792 1.4269012 0.37494814 0
-1.2400723 1.4194981 0.52461225 0
-1.2395594 1.4191439 0.68206716 0
-0.28679913 0.76115721 0.44340375 0
-0.86984706 1.1398034 -0.050024848 0
-1.2768389 1.4133725 0.079532407 0
-1.2808748 1.4160855 0.22787251 0
-1.248221 1.3941364 0.37123764 0
-1.2447187 1.3917822 0.52161026 0
-1.2473674 1.3935626 0.67942166 0
-0.28747547 0.74834883 0.44007486 0
-0.87443972 1.1191974 -0.049754951 0
-1.2700433 1.3779399 0.078631125 0
-1.2746501 1.3809531 0.2252284 0
-1.2445878 1.3612909 0.3674179 0
-1.2377267 1.3568034 0.51519167 0
-1.237309 1.3565303 0.66982394 0
-0.29502839 0.74023622 0.4409813 0
-0.88970459 1.105603 -0.049949817 0
-1.2789398 1.3532397 0.078419991 0
-1.2687254 1.3467411 0.22270019 0
-1.2502995 1.3350183 0.36571497 0
-1.240363 1.3286965 0.51186949 0
-1.2406986 1.32891 0.6657902 0
-0.29320472 0.72610193 0.43638086 0
-0.91005754 1.0949911 -0.050363988 0
-1.2820597 1.3251357 0.077981092 0
-1.2841233 1.3264124 0.22294085 0
-1.2560145 1.3090225 0.36409637 0
-1.2423862 1.3005912 0.50849581 0
-1.2384262 1.2981412 0.65970933 0
-0.90284479 1.0674571 -0.04963224 0
-1.306914 1.3104593 0.07846576 0
-1.3110965 1.3129746 0.22466357 0
-1.2491241 1.2757051 0.35990629 0
-1.2416295 1.2711979 0.5044257 0
-1.2348338 1.2671112 0.65331286 0
-0.92300427 1.0565127 -0.050052091 0
-1.3292639 1.2939186 0.078850992 0
-1.338704 1.2994351 0.22647372 0
-1.2496464 1.2473925 0.35738334 0
-1.2414715 1.2426155 0.50067216 0
-1.2380627 1.2406234 0.64974284 0
-0.93130124 1.038491 -0.049987655 0
-1.3790443 1.2926304 0.080368124 0
-1.3744023 1.2899957 0.22929195 0
-1.2494534 1.2190746 0.35480422 0
-1.2361975 1.2115505 0.49555039 0
-1.2506683 1.2197641 0.64991337 0
-0.94823992 1.0252799 -0.050285216 0
-1.2548021 1.1942171 0.35345772 0
-1.247962 1.1904477 0.49554187 0
-1.2412603 1.1867546 0.64182067 0
-0.95254934 1.0050734 -0.050076231 0
-1.2539831 1.1662703 0.35092315 0
-1.236856 1.1571113 0.48899359 0
-1.2386401 1.1580653 0.63650054 0
-0.95849526 0.98587829 -0.049944695 0
-1.2593861 1.141945 0.34974083 0
-1.2455388 1.1347626 0.48829648 0
-1.2363167 1.1299793 0.63146204 0
-0.97453761 0.97186011 -0.050227135 0
-1.2739164 1.1223896 0.35047054 0
-1.2442853 1.1074908 0.48484689 0
-1.2419318 1.1063075 0.62954372 0
-0.97639561 0.9507072 -0.049951591 0
-1.282248 1.0996969 0.35000181 0
-1.2419053 1.0800447 0.48119649 0
-1.2349703 1.0766666 0.62309355 0
-0.99394405 0.93716598 -0.050307568 0
-1.2981359 1.0806363 0.3510997 0
-1.2431931 1.0547229 0.47870007 0
-1.2365636 1.051596 0.61996597 0
-1.003528 0.91971081 -0.050355673 0
-1.3014046 1.0556444 0.34973744 0
-1.2408601 1.0280154 0.47529224 0
-1.2434016 1.0291752 0.61889023 0
-1.0026727 0.89760917 -0.05000475 0
-1.3214446 1.0382558 0.35175094 0
-1.2468568 1.0053467 0.4743202 0
-1.2417361 1.0030873 0.61483109 0
-1.0103159 0.87939572 -0.049996357 0
-1.3264523 1.01415 0.3508496 0
-1.2410128 0.97773111 0.4701488 0
-1.2447003 0.97930294 0.61258727 0
-1.018988 0.86160856 -0.050036605 0
-1.3240832 0.98714095 0.34857368 0
-1.2387842 0.95204437 0.46709251 0
-1.2509596 0.95705402 0.61164844 0
-1.0232544 0.84203935 -0.049916063 0
-1.3367685 0.9664433 0.34929627 0
-1.2416509 0.92870021 0.46553913 0
-1.2411025 0.92848253 0.60504633 0
-1.0374299 0.8263461 -0.050184276 0
-1.3388093 0.9415642 0.34801057 0
-1.2403579 0.90392596 0.46293741 0
-1.2375342 0.90284646 0.60084426 0
-1.0428529 0.80722749 -0.050125826 0
-1.3575038 0.9229998 0.34999147 0
-1.2385135 0.87921864 0.46028289 0
-1.2424242 0.88065755 0.59977484 0
-1.0507897 0.78903848 -0.050171975 0
-1.362641 0.89934272 0.34941494 0
-1.2352052 0.85426772 0.45732841 0
-1.2457683 0.85800397 0.59826344 0
-1.0538355 0.76915073 -0.050042167 0
-1.3753618 0.87834209 0.35034215 0
-1.2417811 0.83297771 0.45713457 0
-1.23984 0.83231848 0.59360099 0
-1.0471516 0.74618781 -0.049556997 0
-1.3891006 0.8575328 0.35150892 0
-1.2452738 0.81070012 0.45618635 0
-1.2365351 0.80785465 0.58998901 0
-1.0489678 0.72623003 -0.049402438 0
-1.3984504 0.83518052 0.35189155 0
-1.2423096 0.78650397 0.45359138 0
-1.2384053 0.78528678 0.58830214 0
-1.0679276 0.71149129 -0.049896475 0
-1.3919344 0.80804074 0.34934011 0
-1.2552615 0.7673142 0.45532459 0
-1.2373533 0.76197779 0.58570594 0
-1.0845059 0.69570988 -0.050307259 0
-1.3993566 0.7852304 0.34947538 0
-1.2484901 0.74233502 0.4518843 0
-1.2368041 0.73901236 0.58339465 0
-1.0794785 0.67377496 -0.049924884 0
-1.4143246 0.7644397 0.35107383 0
-1.2433246 0.71813881 0.44896349 0
-1.2373036 0.71650851 0.58155257 0
-1.0838587 0.65453583 -0.04990074 0
-1.4102489 0.73851472 0.34916955 0
-1.2352983 0.69350064 0.44537884 0
-1.237987 0.69419247 0.57987714 0
-1.0881662 0.6352933 -0.049882926 0
-1.4219439 0.71670616 0.35025942 0
-1.2369093 0.67157376 0.44441766 0
-1.2507677 0.674954 0.58244586 0
-1.091555 0.6158486 -0.049840383 0
-1.4228829 0.69225711 0.34940633 0
-1.2444016 0.651097 0.44507158 0
-1.2412249 0.65036446 0.57746822 0
-1.0975419 0.59699625 -0.049901847 0
-1.42132 0.66738212 0.34815064 0
-1.2394942 0.62785518 0.44255367 0
-1.2441201 0.62886077 0.57684439 0
-1.105317 0.57846159 -0.050036967 0
-1.4398092 0.64677763 0.350647 0
-1.2385066 0.60566396 0.44113922 0
-1.2454079 0.60707349 0.57576841 0
-1.0989984 0.55713272 -0.049667984 0
-1.443839 0.62305045 0.35053009 0
-1.2431704 0.58469176 0.44126886 0
-1.2405679 0.5841943 0.57271248 0
-1.1100546 0.53916001 -0.049939651 0
-1.4445213 0.59873968 0.34985504 0
-1.242059 0.5626744 0.43997008 0
-1.2350838 0.56143188 0.56954324 0
-1.1068263 0.51863056 -0.049702059 0
-1.446077 0.57466477 0.349397 0
-1.2380675 0.54030776 0.43800098 0
-1.2401834 0.54065722 0.57004619 0
-1.1121997 0.49957716 -0.049784902 0
-1.4524773 0.55138844 0.34987906 0
-1.2329496 0.51796275 0.43581775 0
-1.2391906 0.51891303 0.56858599 0
-1.1212562 0.48097509 -0.050009023 0
-1.4573984 0.52783406 0.3501443 0
-1.2412899 0.49770805 0.43717766 0
-1.2544134 0.4995375 0.57266742 0
-1.129283 0.46208015 -0.050204162 0
-1.4569081 0.50355351 0.34947935 0
-1.2370125 0.4757174 0.43535626 0
-1.2420064 0.47634956 0.56755865 0
-1.1349813 0.44277853 -0.050323911 0
