# .PCD v0.7 - Point Cloud Data file format
VERSION 0.7
FIELDS x y z intensity
SIZE 4 4 4 4
TYPE F F F F
COUNT 1 1 1 1
WIDTH 1357
HEIGHT 1
VIEWPOINT 0 0 0 1 0 0 0
POINTS 1357
DATA ascii
-1.2409829 -0.37542078 0.46310815 0
-1.0308869 -0.31632385 -0.050209217 0
-1.2436056 -0.40073171 0.19979773 0
-1.2501317 -0.4033213 0.3324863 0
-1.2410369 -0.39971235 0.46537057 0
-1.0132264 -0.33049384 -0.04981418 0
-1.2524047 -0.42890444 0.20180891 0
-1.2377082 -0.42285755 0.33172902 0
-1.2419765 -0.42461374 0.46797323 0
-1.0105617 -0.35075638 -0.050005898 0
-1.2540045 -0.45452473 0.20303121 0
-1.2411786 -0.44905767 0.33413175 0
-1.2374338 -0.4474614 0.46915618 0
-0.9960984 -0.36596438 -0.049748208 0
-1.2467178 -0.47654119 0.20325425 0
-1.2412822 -0.47414288 0.33594909 0
-1.2456752 -0.47608122 0.47399071 0
-0.99705482 -0.38801268 -0.050101642 0
-1.2352922 -0.49673036 0.2030223 0
-1.2375357 -0.49775419 0.33707607 0
-1.2326641 -0.49553105 0.47299376 0
-0.98682153 -0.40506253 -0.050026421 0
-1.23628 -0.52271819 0.20429409 0
-1.2367309 -0.52293086 0.33885548 0
-1.2336799 -0.52149189 0.47601655 0
-0.98057234 -0.42399767 -0.050117459 0
-1.4973868 -0.67575324 0.082641132 0
-1.244561 -0.5525943 0.20648454 0
-1.238849 -0.5498119 0.3412956 0
-1.2428606 -0.55176598 0.48146757 0
-0.96873713 -0.44019946 -0.049995348 0
-1.4500433 -0.68220299 0.081228413 0
-1.2371622 -0.57516521 0.20684792 0
-1.2573795 -0.58533055 0.34713235 0
-1.23976 -0.57647139 0.48355463 0
-0.95447612 -0.45504954 -0.049783058 0
-1.3946704 -0.68337041 0.079486765 0
-1.2336055 -0.59982896 0.2077131 0
-1.2397783 -0.60303062 0.34575722 0
-0.93670607 -0.46785679 -0.049434807 0
-1.3560617 -0.69211441 0.078412659 0
-1.2337568 -0.62670976 0.20907375 0
-1.2372895 -0.62859899 0.34750903 0
-0.94667816 -0.49567506 -0.050221551 0
-1.3076062 -0.69457179 0.076934166 0
-1.2432555 -0.65911001 0.21163227 0
-1.2330159 -0.6534673 0.34897152 0
-0.92520213 -0.50628507 -0.049737278 0
-1.2544888 -0.69318849 0.075254947 0
-1.2331949 -0.6811021 0.21184236 0
-1.2420915 -0.68615174 0.35327753 0
-0.920838 -0.52650273 -0.049962513 0
-1.260874 -0.72520953 0.076023065 0
-1.2443681 -0.71556389 0.21473137 0
-1.2383965 -0.71207434 0.35503343 0
-0.91682899 -0.5471229 -0.050214823 0
-1.2557545 -0.75094849 0.076334462 0
-1.2370609 -0.73970634 0.21537901 0
-1.2426666 -0.74307746 0.35854733 0
-0.90463138 -0.56289011 -0.050136194 0
-1.2541856 -0.77914685 0.076810904 0
-1.238405 -0.76938397 0.21716328 0
-1.2364205 -0.76815623 0.35994101 0
-0.89989114 -0.58333969 -0.050380852 0
-1.2486891 -0.80524951 0.077139959 0
-1.2445573 -0.80262083 0.21962175 0
-1.2341342 -0.79598945 0.36225957 0
-0.87384248 -0.59006268 -0.049729478 0
-1.2562981 -0.84020585 0.078044765 0
-1.2413447 -0.83042568 0.2209515 0
-1.2441633 -0.83226913 0.36732644 0
-0.86998916 -0.61115491 -0.050030965 0
-1.2331609 -0.85526913 0.077653505 0
-1.2399302 -0.85981935 0.22257052 0
-1.2375346 -0.85820907 0.36891544 0
-0.85883093 -0.62746447 -0.050029617 0
-1.243718 -0.89327174 0.078728952 0
-1.2381507 -0.88942689 0.22420417 0
-1.2451118 -0.89423424 0.37370318 0
-0.84090483 -0.63897586 -0.04974097 0
-1.2444543 -0.92524248 0.079405017 0
-1.2444335 -0.92522782 0.22696368 0
-1.6095861 -1.1842568 0.4575499 0
-0.84110856 -0.66344625 -0.050256822 0
-1.2402916 -0.95423967 0.079888627 0
-1.2363222 -0.95134801 0.22789441 0
-1.5674165 -1.1925408 0.45224664 0
-0.82445002 -0.67576319 -0.050039474 0
-1.2405378 -0.98696524 0.08058957 0
-1.2351936 -0.98296839 0.22981502 0
-0.80769014 -0.68781298 -0.049822401 0
-1.2403833 -1.0200119 0.081297755 0
-1.2349422 -1.0158346 0.2319268 0
-0.80168283 -0.70814449 -0.050098762 0
-1.1587607 -0.98950654 0.078328878 0
-1.1566725 -0.9878611 0.22344129 0
-1.1648726 -0.99432248 0.37278008 0
-0.78699374 -0.7217108 -0.049991049 0
-1.1379163 -1.0054569 0.078102522 0
-1.1432661 -1.0097826 0.22378495 0
-1.1416662 -1.0084889 0.3711029 0
-0.77602828 -0.73827165 -0.05006282 0
-1.2301805 -1.1150413 0.083129898 0
-1.250301 -1.1317334 0.24098876 0
-1.33206 -1.1995616 0.41950315 0
-0.76428163 -0.75423819 -0.050108463 0
-1.2391434 -1.1583903 0.084370516 0
-1.2349399 -1.1548127 0.24132054 0
-1.3184251 -1.2258664 0.42067254 0
-1.0212423 -0.97293597 0.49305639 0
-0.74789274 -0.76619881 -0.049944084 0
-1.2814258 -1.2319961 0.41634005 0
-0.99691451 -0.98360544 0.49013242 0
-0.72454 -0.77177185 -0.049451284 0
-1.1925695 -1.1908829 0.083880834 0
-1.2005819 -1.1980578 0.24159555 0
-1.1992272 -1.1968447 0.40103474 0
-0.96261525 -0.9849636 0.48380613 0
-0.72448325 -0.79827315 -0.050085388 0
-0.92279422 -0.98040754 0.47549933 0
-0.70957458 -0.81140369 -0.050014909 0
-0.89022493 -0.98156077 0.46961513 0
-0.69418275 -0.82400292 -0.049927749 0
-0.85096085 -0.97544473 0.46128926 0
-0.67797184 -0.83570856 -0.049806256 0
-0.83274913 -0.98903161 0.46039173 0
-0.66771102 -0.85334104 -0.049993467 0
-0.81564772 -1.0036252 0.4599483 0
-0.6533196 -0.86686534 -0.049981564 0
-0.6371212 -0.87845153 -0.049883936 0
-0.62700307 -0.89660257 -0.050114643 0
-0.61492825 -0.91280395 -0.050255742 0
-0.58684945 -0.91071385 -0.04953802 0
-0.57593894 -0.92814583 -0.049757294 0
-0.56686306 -0.94805175 -0.050095152 0
-0.5443331 -0.95159596 -0.04968559 0
-0.53938365 -0.97713333 -0.050290145 0
-0.52122486 -0.98606104 -0.050145939 0
-0.50003076 -0.99073833 -0.049824245 0
-0.48871452 -1.0086837 -0.050101999 0
-0.47174871 -1.0189571 -0.050048482 0
-0.45625305 -1.0313126 -0.050094854 0
-0.43691808 -1.0379817 -0.049905155 0
-0.41976762 -1.0477741 -0.049860366 0
-0.38174516 -0.98923784 0.50333071 0
-0.39861947 -1.0511856 -0.049555633 0
-0.34865624 -0.97210413 0.49259236 0
-0.38554233 -1.0673307 -0.049797986 0
-0.33262748 -0.98119432 0.49233931 0
-0.3706255 -1.0807343 -0.049931396 0
-0.30770421 -0.97535676 0.48638237 0
-0.3482039 -1.0813956 -0.049545694 0
-0.28577322 -0.97378427 0.48223034 0
-0.34143281 -1.1092858 -0.050290119 0
-0.26831448 -0.97951478 0.48100233 0
-0.32474673 -1.1201494 -0.050340056 0
-0.25654155 -0.9954527 0.48373717 0
-0.30087268 -1.1175512 -0.049854092 0
-0.23121275 -0.98629576 0.47705793 0
-0.28084975 -1.1216933 -0.049654011 0
-0.20556571 -0.9754222 0.46989927 0
-0.26726037 -1.1384225 -0.049967468 0
-0.18598326 -0.9754979 0.46697676 0
-0.24907966 -1.1461657 -0.049929529 0
-0.1688322 -0.98010308 0.465837 0
-0.22858067 -1.1488976 -0.049703337 0
-0.1452985 -0.9708671 0.45969969 0
-0.20949568 -1.1543747 -0.049596153 0
-0.13062502 -0.98008996 0.46044654 0
-0.19873197 -1.1786931 -0.050233152 0
-0.11536671 -0.98812383 0.46082473 0
-0.17708494 -1.1784164 -0.049918797 0
-0.10269262 -1.0023541 0.46350858 0
-0.16322018 -1.1966457 -0.050330095 0
-0.071663514 -0.97211689 0.34668759 0
-0.087502733 -1.0109601 0.46421534 0
-0.14037152 -1.192826 -0.049900249 0
-0.051931366 -0.96787995 0.3438125 0
-0.068035915 -1.0088415 0.4611533 0
-0.12244155 -1.2011478 -0.04994696 0
-0.031780466 -0.96174341 0.14690183 0
-0.032921478 -0.96475643 0.24303427 0
-0.013862265 -0.9144277 0.32759246 0
-0.051015362 -1.012536 0.46026129 0
-0.10701568 -1.2164474 -0.050267193 0
-0.0079541337 -0.94457263 0.14428023 0
-0.0073025064 -0.94278413 0.23771051 0
0.004271464 -0.91101938 0.32516611 0
-0.087934509 -1.2220011 -0.050224729 0
0.004664497 -0.95755774 0.14513817 0
0.010510193 -0.94086367 0.23630354 0
0.019815104 -0.91429085 0.32461792 0
-0.0021430983 -0.97699887 0.44358495 0
-0.065959379 -1.21886 -0.049864039 0
0.022765474 -0.95487005 0.14423361 0
0.023957508 -0.95132321 0.23730074 0
0.024918037 -0.94846529 0.33244261 0
0.013115631 -0.98358184 0.44400904 0
-0.048671141 -1.2294489 -0.050030187 0
0.035187021 -0.96912986 0.14527202 0
0.038606539 -0.95851463 0.23770683 0
0.020214425 -1.0156089 0.34909004 0
0.021711098 -1.0109628 0.45176819 0
-0.031948552 -1.2422808 -0.050287642 0
0.024562614 -1.0589776 0.3593097 0
-0.013249232 -1.249056 -0.050326575 0
0.067053691 -0.97643381 0.3360171 0
0.010789054 -1.2369391 -0.049673539 0
0.08280994 -0.98056716 0.33591899 0
0.027543979 -1.2502903 -0.04997509 0
0.10022743 -0.97846001 0.33422562 0
0.045848534 -1.2584161 -0.050090984 0
0.11822908 -0.97338372 0.33181393 0
0.069107339 -1.2463113 -0.049472149 0
0.084883913 -1.26517 -0.049999442 0
0.10309915 -1.2744292 -0.050182104 0
0.12174444 -1.2822182 -0.050319131 0
0.14219023 -1.280965 -0.050135903 0
-0.065899029 -2.3884752 0.10236731 0
0.16084297 -1.2892325 -0.050307486 0
0.0031313763 -2.1910434 0.094991922 0
0.18139343 -1.286558 -0.050091486 0
0.034492329 -2.193722 0.094900303 0
0.20084101 -1.2902712 -0.050115809 0
0.066335484 -2.1927607 0.094691724 0
0.22087285 -1.2898445 -0.049999759 0
0.097303733 -2.19717 0.09469147 0
0.24170445 -1.2822933 -0.049636688 0
0.12851672 -2.1996346 0.094635308 0
0.25993738 -1.2959329 -0.050044708 0
0.16050555 -2.1947711 0.094330132 0
0.27952385 -1.2987316 -0.050071575 0
0.2290419 -1.8144112 0.080570005 0
0.29996058 -1.2918109 -0.049759008 0
0.25457731 -1.8244984 0.080845527 0
0.31961972 -1.2926068 -0.04973216 0
0.29214013 -1.6714954 0.075294502 0
0.33894327 -1.2987424 -0.049905159 0
0.31681195 -1.6683375 0.075123817 0
0.3588163 -1.2959008 -0.049765907 0
0.34020546 -1.6897633 0.075842991 0
0.37826136 -1.3026668 -0.049978863 0
0.36607188 -1.6545643 0.074549593 0
0.3978951 -1.3078305 -0.050143283 0
0.38694546 -1.8046963 0.079886347 0
0.41774926 -1.3022686 -0.049933586 0
0.41311818 -1.792712 0.079443827 0
0.43747994 -1.3034815 -0.049974672 0
0.4390403 -1.7989509 0.079663649 0
0.45706901 -1.2936574 -0.049630556 0
0.46208841 -1.6125094 0.073015392 0
0.4631764 -1.6816226 0.21516059 0
0.47685716 -1.2993152 -0.049848069 0
0.48627669 -1.6316925 0.073719129 0
0.48722512 -1.6651592 0.21344864 0
0.49681586 -1.3053128 -0.050086733 0
0.51469904 -1.7420557 0.077692077 0
0.51640373 -1.3011825 -0.049972448 0
0.5363878 -1.304208 -0.05012292 0
0.55593246 -1.3002729 -0.050033275 0
0.57616782 -1.3045419 -0.05024647 0
0.59561622 -1.299782 -0.050144989 0
0.61530709 -1.2976832 -0.050147809 0
0.634498 -1.2916929 -0.050019454 0
0.65437323 -1.2911197 -0.050094936 0
0.67471373 -1.2931718 -0.05027445 0
0.69183254 -1.2753124 -0.049742732 0
0.71216488 -1.2772535 -0.049936052 0
0.7325415 -1.2786916 -0.050120853 0
0.74894345 -1.2603194 -0.049593151 0
0.77173519 -1.2726141 -0.050192721 0
0.79094154 -1.2677114 -0.05017402 0
0.80768448 -1.2528872 -0.049799271 0
0.82696635 -1.2488395 -0.049828637 0
0.84585178 -1.2432557 -0.04981022 0
0.86481291 -1.2379704 -0.049811643 0
0.88603157 -1.2401606 -0.050100699 0
0.90528566 -1.2354295 -0.050141808 0
0.92039287 -1.217995 -0.049714725 0
0.94194221 -1.2202544 -0.050036289 0
0.95980906 -1.2115227 -0.04995288 0
0.98240268 -1.2156737 -0.050368275 0
0.99879009 -1.2029204 -0.050149672 0
0.92335552 -1.0074502 0.45954278 0
1.0155274 -1.1914473 -0.049987108 0
0.93800116 -0.99785024 0.45835319 0
1.0354112 -1.1878443 -0.050136041 0
0.95823282 -1.0019336 0.46215275 0
1.0547477 -1.1826947 -0.050235387 0
0.97236592 -0.9910987 0.46066239 0
1.0691656 -1.1663111 -0.049905799 0
0.98811513 -0.98416644 0.46064937 0
1.0909245 -1.1664301 -0.050229948 0
1.0069803 -0.98400182 0.46318719 0
1.106577 -1.1531668 -0.050037824 0
1.0241451 -0.97980732 0.46434295 0
1.1254925 -1.1468493 -0.050128575 0
1.0437489 -0.98037523 0.46735087 0
1.1469229 -1.1453462 -0.050422106 0
1.0647047 -0.98310131 0.47127479 0
1.1610214 -1.1293613 -0.050145023 0
1.0798482 -0.97406 0.47090587 0
1.1768159 -1.1169299 -0.050017338 0
1.1042992 -0.98234564 0.47715443 0
1.1926662 -1.1047779 -0.049908265 0
1.1301025 -0.99208707 0.05730661 0
1.1319275 -0.99537438 0.16084908 0
1.1310182 -0.99373633 0.26552078 0
1.130541 -0.99287695 0.37288278 0
1.1335859 -0.99836153 0.48650509 0
1.2143744 -1.10302 -0.050234035 0
1.1512036 -0.99253684 0.057690416 0
1.1427751 -0.97779566 0.15977544 0
1.1408024 -0.97434551 0.26334018 0
1.1480044 -0.98694152 0.37375063 0
1.1545801 -0.99844223 0.48995721 0
1.2280923 -1.0872277 -0.049992114 0
1.1638581 -0.97809678 0.057471201 0
1.1675798 -0.98441988 0.16172895 0
1.1631218 -0.97684604 0.26575026 0
1.1644707 -0.97913772 0.37413666 0
1.166484 -0.98255831 0.48737359 0
1.2461774 -1.0789691 -0.05006998 0
1.264293 -1.0706495 -0.050155435 0
1.2733405 -1.0480578 -0.049646087 0
1.2950701 -1.0453715 -0.049988255 0
1.3150768 -1.0397031 -0.050216544 0
1.3280764 -1.0236686 -0.050007004 0
1.3483989 -1.0181378 -0.05026352 0
1.3530643 -0.99094421 -0.049574647 0
1.3737392 -0.98581856 -0.049867991 0
1.3911904 -0.97617775 -0.049972173 0
1.4134192 -0.97243804 -0.050356254 0
1.2068993 -0.71203214 0.050490651 0
1.201733 -0.70551789 0.13903382 0
1.4156426 -0.94368082 -0.049605578 0
1.2040745 -0.68370169 0.049638975 0
1.2096519 -0.69055545 0.13831325 0
1.4408065 -0.94322056 -0.050164338 0
1.200448 -0.65534461 0.048775416 0
1.208661 -0.66518116 0.13614124 0
1.4538435 -0.92799181 -0.050049741 0
1.2132704 -0.64712393 0.048846923 0
1.2059158 -0.63853747 0.13376431 0
1.4683778 -0.91458482 -0.050028216 0
1.2109928 -0.62163693 0.048106294 0
1.2033368 -0.61292315 0.1315033 0
1.4829085 -0.90119177 -0.050015859 0
1.2106473 -0.59907073 0.047496215 0
1.2036235 -0.59127653 0.12978581 0
1.4963782 -0.88665909 -0.049956791 0
1.5037662 -0.86576611 -0.04959245 0
1.5327497 -0.86745363 -0.050352488 0
1.5366365 -0.84320158 -0.049832787 0
1.5446213 -0.8234666 -0.049539462 0
1.5666581 -0.81741685 -0.049955271 0
1.579949 -0.80282778 -0.049943559 0
1.596027 -0.79077321 -0.050075211 0
1.6121553 -0.77863497 -0.05021508 0
1.6172695 -0.75686818 -0.049841542 0
1.6322069 -0.74369568 -0.049942855 0
1.6369193 -0.72205216 -0.049578965 0
1.6557188 -0.7119776 -0.04987473 0
1.6657683 -0.69482905 -0.049777623 0
1.6842171 -0.68412739 -0.050067402 0
1.7003928 -0.67148989 -0.050259639 0
1.701156 -0.64760184 -0.049779501 0
1.7128804 -0.63179559 -0.049794406 0
1.7362348 -0.62389702 -0.050320249 0
1.7388355 -0.6017884 -0.049956977 0
1.7540543 -0.58812094 -0.050144609 0
1.7605213 -0.5688026 -0.049969193 0
1.7787325 -0.55678934 -0.050296459 0
1.7738546 -0.5308159 -0.049669314 0
1.7906108 -0.51780939 -0.049951535 0
1.8012657 -0.50115889 -0.049988922 0
1.8206811 -0.48923066 -0.050390478 0
1.8222059 -0.46755597 -0.050073568 0
1.8255831 -0.44707474 -0.049843922 0
1.8348736 -0.42969748 -0.049861565 0
1.8514955 -0.41581741 -0.050178055 0
1.860597 -0.39819857 -0.050203625 0
1.867126 -0.37940201 -0.050137084 0
1.8744303 -0.36098954 -0.050110318 0
1.8681947 -0.33692315 -0.049568608 0
1.8870978 -0.32342425 -0.050009347 0
1.8977174 -0.30636165 -0.05013708 0
1.8920287 -0.28308228 -0.049650587 0
1.8943338 -0.26304856 -0.049480844 0
1.9195926 -0.25109491 -0.050188709 0
1.9310279 -0.23401411 -0.050379191 0
1.9238544 -0.21085902 -0.049879711 0
1.9424746 -0.19593222 -0.050355762 0
1.9399644 -0.17450051 -0.050051369 0
1.9381751 -0.15348838 -0.049784757 0
1.9556541 -0.13775472 -0.050240301 0
1.9581078 -0.11792133 -0.050148696 0
1.9609618 -0.098246105 -0.050081234 0
1.9427643 -0.073901094 -0.049252849 0
1.96839 -0.059388082 -0.050036792 0
1.9709129 -0.039741199 -0.049984682 0
1.9721373 -0.01988871 -0.049894545 0
1.9876196 -0.0025448606 -0.050330136 0
1.9775875 0.019162599 -0.049850464 0
1.9871706 0.037670959 -0.050089236 0
1.9812783 0.05841038 -0.049778659 0
1.9866189 0.077582218 -0.049881857 0
1.9911491 0.096917458 -0.049964495 0
1.9875396 0.11708536 -0.049763881 0
2.0091214 0.13504802 -0.050474949 0
1.9955645 0.15595396 -0.049935985 0
1.9961084 0.17568246 -0.049911048 0
2.0033386 0.1951016 -0.050133947 0
2.0018332 0.21495627 -0.050053474 0
1.9917748 0.23491885 -0.049676538 0
1.998345 0.25451401 -0.049902279 0
2.0001092 0.27424124 -0.049965266 0
1.9992924 0.29396728 -0.049944971 0
1.9988371 0.31369352 -0.049946457 0
2.0038664 0.33366582 -0.050152816 0
1.999688 0.35326475 -0.050039053 0
2.002265 0.37325495 -0.050175779 0
1.9917992 0.39227521 -0.049854446 0
1.9858938 0.4115029 -0.049704857 0
1.975055 0.43009755 -0.049386609 0
1.9956979 0.45225316 -0.050208323 0
1.9828262 0.47053963 -0.049834408 0
1.9921793 0.49180359 -0.050269943 0
1.9872044 0.5111078 -0.050198101 0
1.9664755 0.52765977 -0.049564227 0
1.9648508 0.54728752 -0.049630012 0
1.9709859 0.56849974 -0.049987338 0
1.9622343 0.58683461 -0.049812194 0
1.9693444 0.60859889 -0.050225306 0
1.9482092 0.62396467 -0.049613308 0
1.9554778 0.64600641 -0.050051898 0
1.9467138 0.66413844 -0.04991018 0
1.9340025 0.6810745 -0.049630161 0
1.9351676 0.70184809 -0.049873002 0
1.9327682 0.72171736 -0.049993485 0
1.9157233 0.73701209 -0.049575042 0
1.9217879 0.7596851 -0.050031543 0
1.9173535 0.77906281 -0.0501041 0
1.9114416 0.79796529 -0.050130155 0
1.9024771 0.81574565 -0.050048988 0
1.8958813 0.83439058 -0.050066736 0
1.8812867 0.84982008 -0.049785584 0
1.8798186 0.87053573 -0.050018527 0
1.8682293 0.88704425 -0.049869008 0
1.8710239 0.90989536 -0.050289616 0
1.8566947 0.92513216 -0.050050039 0
1.8383913 0.93827993 -0.049659245 0
1.8296171 0.95584005 -0.049652182 0
1.8396255 0.98299056 -0.050406855 0
1.8297586 1.0002781 -0.050378323 0
1.8112304 1.0128442 -0.050006565 0
1.7942005 1.0259514 -0.049699914 0
1.800261 1.0521116 -0.05034912 0
1.7813165 1.0639837 -0.049979009 0
1.762463 1.0756092 -0.04961608 0
1.7613473 1.0980649 -0.050004002 0
1.7536961 1.1166339 -0.050129388 0
1.7351859 1.1281127 -0.049800642 0
1.7370528 1.1531985 -0.050355583 0
1.7093947 1.1581 -0.049642511 0
1.7151687 1.1864194 -0.050395623 0
1.6897364 1.1923679 -0.049786769 0
1.6811597 1.2105546 -0.04993045 0
1.6691775 1.2262249 -0.049931824 0
1.6608518 1.244819 -0.050109211 0
1.6436117 1.2562777 -0.049887806 0
1.6406512 1.2795355 -0.050336629 0
1.6206007 1.2884837 -0.049998548 0
1.6137774 1.3088133 -0.050292376 0
1.5934896 1.3172163 -0.049952921 0
1.5772505 1.329062 -0.049811989 0
1.57029 1.3496252 -0.050134461 0
1.5523931 1.3598131 -0.049927596 0
1.5412623 1.3765861 -0.05006671 0
1.531834 1.3952558 -0.050305586 0
1.5058239 1.3966812 -0.049699236 0
1.0212494 0.88545644 0.29070574 0
1.4953783 1.4143213 -0.049904197 0
1.0414298 0.92316568 0.30445334 0
1.4831784 1.4302354 -0.050030246 0
1.4442778 1.3870685 0.05995569 0
1.4422753 1.3848463 0.16809785 0
1.4467289 1.3897885 0.279223 0
1.0555106 0.95566368 0.31559756 0
1.4736053 1.4492786 -0.050310962 0
1.4112831 1.3783455 0.058939971 0
1.4149698 1.3825415 0.16596207 0
1.4121047 1.3792806 0.27365613 0
1.0436789 0.95994931 0.314046 0
1.4507015 1.4530675 -0.049877301 0
1.3894057 1.3815051 0.058513355 0
1.3880527 1.3799255 0.16385405 0
1.3856648 1.3771377 0.27023944 0
1.0579644 0.9945491 0.32585588 0
1.4321225 1.4615641 -0.049680609 0
1.3685616 1.3854375 0.058140013 0
1.3696709 1.3867661 0.16313975 0
1.3653567 1.3815989 0.26848873 0
1.0614358 1.0175945 0.33245605 0
1.4234705 1.482044 -0.050048333 0
1.3420688 1.3820159 0.057444133 0
1.3430949 1.3832769 0.16103369 0
1.3404479 1.3800242 0.26541215 0
1.0612519 1.0369427 0.33738428 0
1.405549 1.4912584 -0.049904067 0
1.3160304 1.3783822 0.056760773 0
1.3220853 1.386017 0.15984911 0
1.3197826 1.3831135 0.26351228 0
1.0566502 1.0513238 0.34015542 0
1.3911843 1.504914 -0.049971819 0
1.2955689 1.3811818 0.056389168 0
1.2933199 1.3782715 0.15728797 0
1.2980381 1.3843771 0.26127428 0
1.0431566 1.0545447 0.33823183 0
1.3815802 1.524978 -0.050333422 0
1.2779661 1.3873475 0.056183048 0
1.2736092 1.3815601 0.15628429 0
1.2746612 1.3829576 0.25851378 0
1.0434492 1.0758388 0.34392384 0
1.3581547 1.52663 -0.049881961 0
1.2504573 1.3797631 0.055379957 0
1.2547117 1.3855649 0.1554185 0
1.2555315 1.3866829 0.25699541 0
1.0318549 1.0816549 0.34317642 0
1.3413428 1.5370011 -0.049830046 0
1.2458739 1.4033123 0.05596514 0
1.2431611 1.3995134 0.15590516 0
1.2431164 1.3994509 0.25754821 0
1.0242857 1.0930135 0.34476155 0
1.3275663 1.5516791 -0.049975101 0
1.244771 1.4325954 0.056797065 0
1.2428235 1.4297942 0.15854448 0
1.243353 1.4305558 0.26215854 0
1.0085092 1.0927814 0.34167504 0
1.3116559 1.5633923 -0.04999863 0
1.2451667 1.4651446 0.057763338 0
1.246724 1.467446 0.16211846 0
1.2468894 1.4676902 0.26804209 0
1.0068593 1.1130103 0.34691444 0
1.2974306 1.5777001 -0.05014148 0
1.2413423 1.4925303 0.058500685 0
1.2456846 1.4991242 0.16488793 0
1.235996 1.484412 0.26945946 0
1.1662421 1.378491 0.34634805 0
0.99102288 1.1124216 0.34382609 0
1.2749206 1.5792686 -0.049750667 0
1.2451712 1.5328318 0.059781782 0
1.2457732 1.5337714 0.16801575 0
1.2219599 1.4966005 0.26992399 0
1.1502421 1.3846537 0.34544295 0
0.98377842 1.1248149 0.34597096 0
1.264573 1.5998433 -0.050174344 0
1.2427715 1.5648502 0.060702424 0
1.2483335 1.5737776 0.17179757 0
1.20617 1.5061021 0.26985162 0
1.1320313 1.387104 0.34348977 0
0.97108054 1.1287658 0.34482577 0
1.2503549 1.6146106 -0.050357863 0
1.1894982 1.5141338 0.269512 0
1.1069945 1.3779172 0.33814898 0
0.97106296 1.1534891 0.35183132 0
0.84087443 0.93854314 0.47343376 0
1.2316953 1.6220932 -0.050245702 0
1.1722548 1.5211068 0.26899743 0
1.0866766 1.3757137 0.33500871 0
0.95484704 1.1517416 0.34856629 0
0.83859009 0.95422691 0.48072532 0
1.2121596 1.6278907 -0.050074734 0
1.1663218 1.547722 0.27261242 0
1.0721666 1.3830485 0.33476967 0
0.94368166 1.1583337 0.3485992 0
0.85115945 0.99651611 0.35518605 0
0.84588593 0.98729289 0.42265674 0
0.84048033 0.9778387 0.49340025 0
1.1913362 1.6311265 -0.049810439 0
1.1437507 1.5454146 0.27025157 0
1.0502566 1.3770112 0.33068359 0
0.93369412 1.1670564 0.34949639 0
0.8532061 1.0220799 0.36482352 0
0.83409578 0.9876579 0.41992006 0
0.84381902 1.0051717 0.50849479 0
1.1819773 1.6552532 -0.050405808 0
1.1289272 1.5567973 0.27076975 0
1.0341564 1.3809115 0.32958543 0
0.92158884 1.1719966 0.3490057 0
0.84557325 1.0309187 0.36651766 0
0.84580624 1.0313511 0.441912 0
0.84275925 1.0256962 0.51887238 0
1.1585888 1.6534517 -0.049957547 0
1.1062635 1.5533425 0.26830322 0
1.0197208 1.3877679 0.32940403 0
0.9155727 1.1885107 0.3529205 0
0.85034716 1.0637205 0.37944081 0
0.84348166 1.0505853 0.44986755 0
0.83594406 1.0361643 0.5224613 0
1.1383393 1.6571519 -0.049744163 0
1.0929192 1.5675225 0.26947573 0
0.99951726 1.3832083 0.3260107 0
0.89854354 1.1839523 0.34897926 0
0.84650642 1.0812653 0.38517213 0
0.83981919 1.068069 0.45680714 0
0.84053111 1.069474 0.54127091 0
1.1194681 1.6633247 -0.049640611 0
1.0779924 1.5788578 0.27010331 0
0.9815461 1.3824408 0.32378867 0
0.88678467 1.1894552 0.34887114 0
0.84847593 1.1114378 0.39671507 0
0.84231961 1.0989002 0.47116962 0
0.83778989 1.0896752 0.55126578 0
1.1060648 1.6808338 -0.04999524 0
0.95944762 1.3724883 0.31904924 0
0.87442976 1.1936902 0.3483513 0
0.84243619 1.1264056 0.40120694 0
0.83844483 1.1180116 0.47893587 0
0.83770025 1.1164457 0.56553757 0
1.0833182 1.6786441 -0.049580321 0
0.94940907 1.3876315 0.32146358 0
0.86712962 1.2088211 0.35188195 0
0.83921146 1.148149 0.40879577 0
0.84099543 1.1520259 0.49489236 0
0.83826542 1.146093 0.58160579 0
1.0714943 1.7002888 -0.050110299 0
0.9303934 1.3831927 0.31843153 0
0.85300487 1.2092773 0.35008276 0
0.83759558 1.174648 0.4185158 0
0.83738416 1.1741729 0.50424296 0
0.84336549 1.1876147 0.60528731 0
1.0530144 1.7074077 -0.050078727 0
0.91142088 1.3781028 0.31530175 0
0.85021114 1.2357469 0.35777846 0
0.84150624 1.2155018 0.43466201 0
0.83610827 1.2029476 0.51717764 0
0.83950764 1.2108536 0.61699706 0
1.0309367 1.7058102 -0.049719401 0
0.8975327 1.3844608 0.31541684 0
0.84881586 1.2671095 0.36720937 0
0.84181976 1.250257 0.44796801 0
0.84075475 1.2476915 0.53870475 0
0.8411203 1.248572 0.63797468 0
1.0205346 1.7326955 -0.050467979 0
0.87787378 1.3764453 0.3116293 0
0.8480193 1.3018932 0.37782517 0
0.83962858 1.2809402 0.45938918 0
0.84127897 1.2850615 0.55611771 0
0.83672833 1.2736977 0.65078914 0
0.99803126 1.7296983 -0.050074425 0
0.86555016 1.3864059 0.31284395 0
0.8469246 1.3381424 0.38891572 0
0.83792132 1.3148127 0.47218266 0
0.84068042 1.3219621 0.57319099 0
0.83904326 1.3177198 0.67558873 0
0.97611374 1.7274902 -0.049723577 0
0.84525329 1.3752562 0.30834961 0
0.84848601 1.3839576 0.40335453 0
0.8406443 1.3628504 0.4911826 0
0.84277421 1.3685833 0.59537709 0
0.83954132 1.3598815 0.69907713 0
0.95941335 1.7391592 -0.049910888 0
0.83442914 1.3893106 0.31077328 0
0.83643109 1.3949144 0.40540653 0
0.84095305 1.407572 0.50862414 0
0.83973944 1.4041749 0.61158937 0
0.9403559 1.7443755 -0.049861789 0
0.8176645 1.386796 0.30875415 0
0.83959198 1.4507029 0.42327201 0
0.84316164 1.4611064 0.52984649 0
0.83655745 1.4418588 0.6288588 0
0.92058229 1.7473149 -0.049736358 0
1.0273879 2.071851 0.34917572 0
0.79850894 1.3763866 0.30467972 0
0.83926266 1.5002196 0.43885294 0
0.83774102 1.4955959 0.54266757 0
0.83826095 1.4971758 0.65536612 0
0.90306842 1.7571396 -0.049878497 0
1.0072126 2.0875423 0.35075369 0
0.78165656 1.3719542 0.30228496 0
0.83928555 1.5547853 0.45613486 0
0.83889365 1.5535418 0.56565034 0
0.8364594 1.5458189 0.67825592 0
0.88380349 1.7615128 -0.049825069 0
0.98197609 2.0872183 0.34935689 0
0.76833934 1.3784395 0.30286515 0
0.84308559 1.6264238 0.47928369 0
0.84032345 1.6172599 0.59103596 0
0.86620384 1.7715486 -0.049991224 0
0.95872617 2.093107 0.34919086 0
0.75565827 1.387351 0.30413195 0
0.84198195 1.6873662 0.4986293 0
0.84140116 1.6853478 0.61820465 0
0.84615594 1.7731094 -0.049851291 0
0.73634958 1.372569 0.047023859 0
0.74037284 1.3872443 0.13112684 0
0.7345885 1.366145 0.2120349 0
0.74043268 1.3874627 0.30310875 0
0.83633047 1.737269 0.51410472 0
0.83668154 1.7385496 0.63888311 0
0.82843465 1.783217 -0.050036475 0
0.72531426 1.3875945 0.047440324 0
0.72368842 1.381357 0.13005242 0
0.72260946 1.3772175 0.213406 0
0.72546577 1.3881757 0.3022981 0
0.82958031 1.7876123 0.52970541 0
0.83019471 1.7899694 0.65875685 0
0.80639601 1.7764204 -0.049607623 0
0.70854044 1.3806442 0.047052421 0
0.70859003 1.3808447 0.12959968 0
0.70692468 1.3741093 0.21216641 0
0.70901418 1.3825601 0.29987633 0
0.82330847 1.8448229 0.54764026 0
0.82692546 1.8594517 0.68630737 0
0.79037833 1.7940481 -0.050085746 0
0.69189972 1.373072 0.046650615 0
0.6946156 1.3846817 0.1296493 0
0.69398177 1.3819721 0.21299915 0
0.69644022 1.3924816 0.30158707 0
0.81886053 1.9158037 0.57025439 0
0.76986933 1.7929033 -0.049883604 0
0.67972946 1.3844521 0.046950497 0
0.67656916 1.3701319 0.12769462 0
0.67740113 1.3739015 0.21091701 0
0.68210584 1.3952203 0.30145779 0
0.80364585 1.9459552 0.57891434 0
0.75217289 1.8046257 -0.050160576 0
0.66365749 1.3780825 0.046608001 0
0.66678762 1.3931663 0.12989524 0
0.66512704 1.3851644 0.21243985 0
0.66490835 1.3841102 0.29776746 0
0.79055816 1.989599 0.59220135 0
0.73283219 1.8089311 -0.050175231 0
0.65085119 1.3872566 0.046839036 0
0.64983767 1.3820435 0.12836438 0
0.65037721 1.3848187 0.21185462 0
0.65142268 1.390196 0.29861185 0
0.77764267 2.0394163 0.60760415 0
0.71284372 1.8097404 -0.050071847 0
0.63498271 1.3804739 0.046496425 0
0.63607919 1.386519 0.12856404 0
0.63498044 1.3804615 0.21056953 0
0.63530964 1.3822763 0.29586685 0
0.76361239 2.0896401 0.62316436 0
0.69153684 1.8023006 -0.049679156 0
0.62118322 1.3845356 0.046554398 0
0.62013102 1.3782874 0.12739736 0
0.62141436 1.3859081 0.21111566 0
0.62151736 1.3865197 0.29632711 0
0.74620366 2.1269164 0.63438296 0
0.67295772 1.8106223 -0.049866408 0
0.60829729 1.3947536 0.046840966 0
0.60529405 1.375438 0.12684017 0
0.60563737 1.3776461 0.20918991 0
0.60608363 1.3805163 0.29418564 0
0.72820699 2.1659622 0.64624941 0
0.65419674 1.818626 -0.050050296 0
0.5914799 1.3788519 0.04619094 0
0.59057426 1.3725015 0.12629482 0
0.59136802 1.3780671 0.20888564 0
0.59200621 1.3825421 0.2941674 0
0.70796871 2.1956787 0.6550355 0
0.63420212 1.8181571 -0.049937375 0
0.57790542 1.3843917 0.046321508 0
0.57811767 1.3860271 0.12755448 0
0.57769877 1.3827994 0.20939863 0
0.57674736 1.375469 0.29185393 0
0.6880281 2.2328854 0.66640574 0
0.61395413 1.814864 -0.049732167 0
0.56250411 1.3751305 0.04592602 0
0.56310469 1.3802633 0.12674211 0
0.56412005 1.3889414 0.2101981 0
0.56413811 1.3890959 0.29491052 0
0.66710156 2.269105 0.67751265 0
0.59565049 1.8288548 -0.05015678 0
0.55184197 1.4086572 0.12964205 0
0.55199867 1.4101602 0.21376137 0
0.55179036 1.4081618 0.29939902 0
0.64543396 2.3063629 0.6890406 0
0.57528979 1.8236945 -0.049902599 0
0.55274922 1.5774696 0.14770775 0
0.55072898 1.5554008 0.23980893 0
0.5524984 1.5747294 0.34171206 0
0.62095338 2.3225083 0.69359303 0
0.55502975 1.8175707 -0.049623352 0
0.60373348 2.4351573 0.24001707 0
0.5986886 2.3711858 0.38714078 0
0.59796208 2.361973 0.54282665 0
0.53609753 1.8285687 -0.049966078 0
0.57334983 2.3912632 0.39042175 0
0.57358187 2.3947675 0.55072188 0
0.51636523 1.8292078 -0.049946744 0
0.54863942 2.4317141 0.39743766 0
0.54770327 2.4142373 0.55528581 0
0.49706775 1.8402088 -0.050306544 0
0.52186114 2.4457121 0.39973149 0
0.52174944 2.4429851 0.56229967 0
0.47687966 1.8288538 -0.04987644 0
0.45658991 1.1129102 0.35746634 0
0.4566569 1.1152747 0.43191174 0
0.45715937 1.8281415 -0.049835499 0
0.44591367 1.1137685 0.35772419 0
0.44587114 1.1110674 0.42968819 0
0.43749279 1.8363063 -0.050120354 0
0.4351308 1.0862831 0.41723716 0
0.43515444 1.0937846 0.4978838 0
0.41779169 1.8265195 -0.04977316 0
0.42474735 1.0898942 0.41906032 0
0.42481205 1.0830413 0.49153173 0
0.39806709 1.8287705 -0.049864601 0
0.41407785 1.102245 0.35299376 0
0.41401511 1.1050915 0.42674786 0
0.41466606 1.0755546 0.48718691 0
0.37826428 1.8313266 -0.04997585 0
0.35218132 2.5843148 0.4246496 0
0.35220864 2.5835264 0.59804541 0
0.4052996 1.0508447 0.47269571 0
0.35865188 1.8281244 -0.049890261 0
0.32228372 2.5977874 0.42729792 0
0.32184047 2.607168 0.60438913 0
0.39569822 1.0441095 0.46893761 0
0.33804426 1.8425001 -0.050442122 0
0.29181132 2.6145945 0.43061876 0
0.29187724 2.6134937 0.60640967 0
0.38618159 1.0386025 0.46597815 0
0.31887707 1.8315907 -0.050098687 0
0.26117387 2.6272025 0.43325266 0
0.26149905 2.6227193 0.60927022 0
0.29961246 1.8246412 -0.049905416 0
0.35547134 1.1689961 0.038413245 0
0.22949593 2.6476357 0.43737558 0
0.22972994 2.6448889 0.61554629 0
0.27929017 1.8298632 -0.050157215 0
0.19868556 2.6532493 0.43889034 0
0.1984362 2.6557963 0.61904538 0
0.25974792 1.8263898 -0.05010622 0
0.16668789 2.6676285 0.44206807 0
0.16667171 2.6677747 0.6229254 0
0.34690002 1.0385575 0.46792978 0
0.24121122 1.815035 -0.049780488 0
0.13528009 2.6735644 0.44378963 0
0.13384326 2.6852095 0.62831682 0
0.22234821 1.8077556 -0.049609434 0
0.10251819 2.6876261 0.44706509 0
0.10243608 2.6882288 0.63011217 0
0.20069483 1.8199961 -0.05015121 0
0.070239529 2.6953099 0.44925886 0
0.069303408 2.701591 0.63468057 0
0.18176083 1.8130335 -0.050009433 0
0.03559579 2.715652 0.45384395 0
0.035751119 2.7146926 0.6392988 0
0.16249894 1.8085079 -0.049964305 0
0.0027862357 2.7217612 0.45591313 0
0.0035441087 2.7174275 0.64135146 0
0.1441897 1.7990674 -0.049749333 0
-0.029172106 2.7217484 0.45693949 0
-0.02877198 2.7196188 0.64337307 0
0.12280519 1.805684 -0.050126918 0
-0.089053825 2.859935 0.1005175 0
-0.089201882 2.8606718 0.29060072 0
-0.061929539 2.7249594 0.45863545 0
-0.062283531 2.726721 0.64678347 0
0.10419531 1.7980534 -0.049995169 0
-0.11335559 2.8142149 0.099095538 0
-0.11297216 2.8124237 0.28604269 0
-0.095925823 2.7328019 0.46126613 0
-0.095244065 2.7296176 0.64921576 0
0.087344006 1.7830908 -0.049603179 0
-0.14359803 2.7991326 0.098802395 0
-0.14245696 2.7941122 0.28480384 0
-0.12944414 2.7368617 0.46328387 0
-0.13038929 2.74102 0.6539889 0
0.064208016 1.7954205 -0.050219946 0
-0.17476644 2.7887609 0.098695301 0
-0.17389615 2.7851434 0.28463489 0
-0.16058011 2.7297928 0.46332154 0
-0.16207279 2.7359974 0.65458244 0
0.045717224 1.7876773 -0.050110031 0
-0.21043105 2.796381 0.099265024 0
-0.2099839 2.7946203 0.28655449 0
-0.19473685 2.7345777 0.46563786 0
-0.19300874 2.7277725 0.65443975 0
0.02798851 1.777372 -0.049913649 0
-0.2539348 2.831743 0.10087845 0
-0.25488877 2.8353107 0.29200339 0
-0.22758497 2.7331967 0.46689105 0
-0.22956486 2.7406013 0.6599595 0
0.006276296 1.7817472 -0.050269242 0
-0.25829464 2.7235377 0.46667537 0
-0.26099175 2.7331386 0.66024315 0
-0.010581089 1.768742 -0.049989447 0
-0.2965408 2.739553 0.47135845 0
-0.29573584 2.7368202 0.66359693 0
-0.029283268 1.7623799 -0.049964663 0
-0.32568198 2.7237978 0.47015461 0
-0.32652766 2.726541 0.66335315 0
-0.045569137 1.7485636 -0.049669005 0
-0.35667002 2.7143073 0.47020224 0
-0.35981637 2.7240746 0.66530615 0
-0.069676951 1.7586654 -0.050280645 0
-0.3955673 2.728313 0.4747946 0
-0.39567453 2.728632 0.66927058 0
-0.085538402 1.7439026 -0.049965892 0
-0.42773885 2.7211554 0.47545663 0
-0.42419666 2.7110398 0.66738683 0
-0.10528989 1.740455 -0.050087221 0
-0.45946908 2.7125013 0.47591206 0
-0.45269847 2.6939194 0.66571987 0
-0.12293924 1.7312063 -0.049997132 0
-0.48911381 2.6981461 0.47534707 0
-0.48750502 2.6938977 0.66880733 0
-0.14232327 1.7265346 -0.050090689 0
-0.52008051 2.6873546 0.47554207 0
-0.51902276 2.6846642 0.66950464 0
-0.16345854 1.7259744 -0.050352633 0
-0.54917818 2.6718938 0.47490439 0
-0.55126548 2.6770127 0.67075044 0
-0.17579807 1.704115 -0.049800757 0
-0.581141 2.663429 0.47570461 0
-0.58479464 2.672076 0.67286712 0
-0.19767959 1.7050316 -0.050139409 0
-0.61221564 2.6526427 0.47613123 0
-0.61169875 2.6514609 0.67074656 0
-0.21619679 1.6979268 -0.050176423 0
-0.64402843 2.6433299 0.47692928 0
-0.64006746 2.634577 0.66975343 0
-0.22803219 1.6764693 -0.049657125 0
-0.67168903 2.624866 0.47598949 0
-0.67103994 2.6234784 0.6704843 0
-0.24906637 1.6748825 -0.049928438 0
-0.69738853 2.6026332 0.47435862 0
-0.70479715 2.6179645 0.67291224 0
-0.26566917 1.663977 -0.049840212 0
-0.72793734 2.59062 0.47484219 0
-0.72876775 2.5922844 0.66972667 0
-0.28330743 1.6552125 -0.049845744 0
-0.76135302 2.5840178 0.47650421 0
-0.7597214 2.5808475 0.67069364 0
-0.29870838 1.6422174 -0.049689267 0
-0.78552699 2.5594959 0.47460431 0
-0.78621578 2.5607936 0.66929042 0
-0.3232432 1.6461449 -0.050228201 0
-0.81428981 2.5439057 0.47458965 0
-0.81502175 2.545244 0.66928399 0
-0.34290266 1.6406387 -0.05039702 0
-0.61698973 2.1270907 0.082330979 0
-0.83456159 2.5132391 0.47152868 0
-0.83235049 2.5093148 0.66341543 0
-0.36024195 1.6308898 -0.050402135 0
-0.62349415 2.084656 0.081131041 0
-0.8670491 2.5044701 0.47306404 0
-0.85933053 2.4911656 0.66281235 0
-0.37254971 1.6127011 -0.050065398 0
-0.61914134 2.0256803 0.079237655 0
-0.88430142 2.4697576 0.46924707 0
-0.89015496 2.4795609 0.66425002 0
-0.38429928 1.5940514 -0.049713202 0
-0.61792481 1.9743539 0.077647775 0
-0.91535044 2.4585123 0.47041333 0
-0.909657 2.4492443 0.66021168 0
-0.40894449 1.5962722 -0.050245769 0
-0.6189841 1.9287214 0.076285012 0
-0.93903947 2.435303 0.46911979 0
-0.94083869 2.4381509 0.66201627 0
-0.41542113 1.5698268 -0.0495755 0
-0.61707807 1.8802811 0.074792087 0
-0.95518506 2.4008029 0.4654513 0
-0.95748615 2.4043453 0.65704495 0
-0.43463075 1.5632998 -0.04975808 0
-0.62124026 1.8428197 0.073756821 0
-0.97995508 2.3801341 0.46479511 0
-0.97783923 2.3769648 0.65406668 0
-0.45022368 1.5512673 -0.049714319 0
-0.61132884 1.786126 0.071882203 0
-0.99956882 2.3521018 0.46259069 0
-1.0003251 2.3532043 0.6522615 0
-0.46933043 1.5442696 -0.049898598 0
-0.61424136 1.7499206 0.070880257 0
-1.0219603 2.3285367 0.4614065 0
-1.0267122 2.3352804 0.65234989 0
-0.48360163 1.5303626 -0.049790643 0
-0.61753178 1.7154365 0.069946617 0
-0.61881185 1.7172053 0.19872904 0
-1.0388367 2.2976243 0.45863828 0
-1.0428804 2.3032124 0.64808887 0
-0.073919252 0.96423542 0.43824071 0
-0.50107509 1.520888 -0.049886759 0
-0.61680651 1.676646 0.068814494 0
-0.62710202 1.6905023 0.19694164 0
-1.0628403 2.2769439 0.4581905 0
-1.0654939 2.2805152 0.64683074 0
-0.085586146 0.96169913 0.4406693 0
-0.51447928 1.5059614 -0.049748842 0
-0.61630809 1.6394637 0.067743249 0
-0.61277866 1.6348364 0.19123632 0
-1.0748045 2.2405736 0.45424789 0
-1.0790277 2.2461104 0.64189476 0
-0.092126146 0.95223689 0.43885505 0
-0.53235507 1.4968995 -0.049883079 0
-0.60803425 1.5935695 0.066266119 0
-0.61075068 1.5970393 0.1878888 0
-1.0879667 2.2066188 0.45085377 0
-1.1034529 2.2264004 0.64172614 0
-0.11087061 0.95850945 0.44707322 0
-0.55057716 1.4881124 -0.050041523 0
-0.61595166 1.5694876 0.065768123 0
-0.62049723 1.5751456 0.18669613 0
-1.1113638 2.1861527 0.45058379 0
-1.1164693 2.1925077 0.63701451 0
-0.12845291 0.96267223 0.4541716 0
-0.56638664 1.4762179 -0.050068412 0
-0.61445677 1.5345339 0.064766511 0
-0.61406255 1.5340557 0.18283446 0
-1.1256318 2.1546633 0.44780308 0
-1.1297797 2.1596954 0.63266474 0
-0.13989355 0.95881987 0.45628971 0
-0.58166552 1.4636617 -0.050073907 0
-0.616153 1.5044427 0.063980669 0
-0.61609387 1.5043728 0.18052563 0
-1.1439757 2.1285872 0.44631344 0
-1.1412107 2.1253176 0.62780106 0
-0.14882608 0.95183384 0.45647103 0
-0.59160328 1.4449379 -0.049797013 0
-0.62213683 1.480135 0.063460529 0
-0.62029576 1.4780127 0.17866781 0
-1.1623274 2.1028299 0.44493839 0
-1.16888 2.1103835 0.62949961 0
-0.60438061 1.4296944 -0.049689267 0
-0.62938631 1.4577965 0.063032232 0
-0.63052046 1.4590712 0.17786382 0
-1.1657081 2.0605295 0.43960968 0
-1.1737591 2.0695775 0.62250006 0
-0.62387669 1.421921 -0.049949065 0
-0.66254508 1.4642911 0.063996986 0
-0.65740192 1.4586555 0.17976464 0
-1.1787961 2.0299621 0.43709448 0
-1.1851124 2.0368831 0.61824256 0
-0.63667381 1.4067177 -0.049860559 0
-0.50452375 1.2655293 0.054956466 0
-0.69144559 1.4652357 0.18276732 0
-1.1869189 1.994597 0.43340483 0
-1.1814936 1.9888006 0.60860682 0
-0.64923382 1.3913531 -0.049770921 0
-0.50598383 1.2421169 0.054385677 0
-0.71676052 1.4617015 0.18436326 0
-1.2002958 1.9654424 0.43124834 0
-1.195995 1.9609618 0.60599709 0
-0.66298699 1.3772862 -0.049753055 0
-0.51592422 1.2278897 0.054268818 0
-0.74497628 1.4605764 0.18639019 0
-1.2060961 1.9290136 0.42726645 0
-1.2026007 1.9254628 0.60067737 0
-0.68381405 1.37024 -0.050099842 0
-0.52264512 1.2105852 0.054000683 0
-0.77560389 1.4611673 0.188759 0
-1.2244269 1.9057735 0.42663199 0
-1.2162794 1.8977026 0.59812516 0
-0.69547081 1.3539913 -0.049991686 0
-0.53830248 1.2021724 0.054190256 0
-0.79692698 1.4519942 0.1897078 0
-1.2302341 1.8705529 0.42293882 0
-1.2220662 1.8626629 0.59292912 0
-0.71114004 1.3416224 -0.050091688 0
-0.55761427 1.1970143 0.054562047 0
-0.84826183 1.4707793 0.19509338 0
-1.2194201 1.8203784 0.41528171 0
-1.2267773 1.8273083 0.58757293 0
-0.72120965 1.3240106 -0.049926702 0
-0.87848926 1.4684607 0.069550633 0
-0.8664583 1.4574112 0.19554687 0
-1.2337929 1.7947816 0.41403577 0
-1.2372291 1.7979375 0.58442199 0
-0.23615839 0.87852579 0.38191766 0
-0.73867023 1.3131695 -0.050128456 0
-0.90491843 1.4620414 0.070095628 0
-0.89974439 1.4574081 0.19819655 0
-1.2308865 1.7539392 0.40869913 0
-1.2341372 1.7568501 0.57679546 0
-0.23413612 0.86136925 0.3765254 0
-0.74889517 1.2958181 -0.049991589 0
-0.94044578 1.46305 0.071069703 0
-1.2419838 1.7263057 0.40689728 0
-1.2446605 1.7286427 0.5740397 0
-0.23522772 0.84736419 0.37302291 0
-0.76526749 1.2838215 -0.050154686 0
-0.97717953 1.4641786 0.072089359 0
-1.2430235 1.690437 0.40281558 0
-1.241399 1.6890543 0.56681472 0
-0.23407133 0.83172327 0.36843196 0
-0.26239222 0.85582703 0.462587 0
-0.77456665 1.2658032 -0.04999502 0
-1.0122907 1.4630218 0.073022492 0
-1.2456754 1.6566403 0.39926049 0
-1.2458267 1.6567658 0.5623799 0
-0.25187111 0.83216912 0.37419307 0
-0.78682303 1.250317 -0.049983215 0
-1.049809 1.46296 0.074057356 0
-1.2600209 1.6329315 0.39855269 0
-1.2396203 1.6164361 0.55463499 0
-0.25140113 0.81738967 0.37016511 0
-0.80816889 1.2419994 -0.05039357 0
-1.0912709 1.4650717 0.075261295 0
-1.250439 1.5904893 0.39242685 0
-1.2405127 1.5826677 0.54943818 0
-0.27081794 0.81858987 0.37675834 0
-0.80982566 1.2181966 -0.049918517 0
-1.1232002 1.4587891 0.076023385 0
-1.2540218 1.5592271 0.38947529 0
-1.24798 1.5545886 0.54654366 0
-0.26520848 0.80006838 0.37021682 0
-0.26149857 0.79722005 0.44379622 0
-0.82844496 1.2074952 -0.050217576 0
-1.1656781 1.4597201 0.077252172 0
-1.2525783 1.5247148 0.38550848 0
-1.2437054 1.5180787 0.54004848 0
-0.26780432 0.78817844 0.36810014 0
-0.27733558 0.7953071 0.44953373 0
-0.83908546 1.1907166 -0.050167464 0
-1.2069293 1.4586803 0.078415021 0
-1.2474992 1.4882344 0.38086417 0
-1.2366987 1.4803665 0.53289598 0
-1.2388539 1.4819365 0.69396365 0
-0.25323027 0.76393783 0.35728461 0
-0.27829391 0.78219599 0.44602352 0
-0.84333992 1.1694473 -0.049847558 0
-1.2490025 1.457213 0.079604097 0
-1.2492117 1.4573615 0.37786487 0
-1.2326314 1.4455999 0.52687579 0
-1.245303 1.4545888 0.69039494 0
-0.28374231 0.77248442 0.36960796 0
-0.28643394 0.7743938 0.44705185 0
-0.85930979 1.1565393 -0.050050393 0
-1.2998689 1.4607943 0.081165209 0
-1.2526308 1.4281712 0.37535119 0
-1.2422661 1.4210131 0.52529246 0
-1.2374144 1.4176625 0.68119985 0
-0.28528994 0.76011497 0.44248608 0
-0.86649966 1.1375535 -0.049880855 0
-1.2695475 1.4084715 0.079218753 0
-1.2743689 1.4117123 0.22703004 0
-1.2522414 1.3968388 0.37211129 0
-1.2350233 1.3852652 0.51862979 0
-1.2392099 1.3880794 0.67615157 0
-0.29534358 0.75363761 0.44481829 0
-0.8799839 1.1228236 -0.049991466 0
-1.2709384 1.3785254 0.07866931 0
-1.2674539 1.3762465 0.2243043 0
-1.2521458 1.3662342 0.36904663 0
-1.2428104 1.3601285 0.51674145 0
-1.2364326 1.355957 0.6694755 0
-0.29796958 0.7421599 0.4427397 0
-0.88097131 1.1000468 -0.049580276 0
-1.2786961 1.3530846 0.078409679 0
-1.2821692 1.3552942 0.22441261 0
-1.2551327 1.3380932 0.36674809 0
-1.2371893 1.3266773 0.5109098 0
-1.246828 1.3328096 0.66820711 0
-0.30996364 0.73676419 0.44631916 0
-0.89634287 1.0865064 -0.049788229 0
-1.2842014 1.3264607 0.078071006 0
-1.298196 1.3351188 0.22471927 0
-1.2491815 1.3047953 0.36264729 0
-1.2404667 1.2994037 0.50791997 0
-1.2370096 1.2972649 0.65915513 0
-0.91728139 1.0761391 -0.05023367 0
-1.3124243 1.313773 0.07869532 0
-1.3044229 1.3089612 0.22382663 0
-1.2522622 1.2775923 0.36056674 0
-1.2332085 1.2661337 0.50191867 0
-1.2350572 1.2672455 0.65339953 0
-0.92330897 1.0566908 -0.050064687 0
-1.3226365 1.2900457 0.078576945 0
-1.3384422 1.2992822 0.22644113 0
-1.2499585 1.2475749 0.35744855 0
-1.2397816 1.2416278 0.50017279 0
-1.2384603 1.2408557 0.64989603 0
-0.93036079 1.0379572 -0.049949046 0
-1.3720573 1.2886647 0.080081299 0
-1.3828336 1.2947812 0.23033385 0
-1.2509557 1.2199273 0.35511577 0
-1.2408746 1.2142051 0.49692252 0
-1.2379338 1.212536 0.64504182 0
-0.9347409 1.017841 -0.04973495 0
-1.2511473 1.192203 0.35270512 0
-1.2501054 1.1916289 0.49616623 0
-1.2336726 1.1825733 0.63893837 0
-0.94159997 0.99921805 -0.049632944 0
-1.2445656 1.1612341 0.34899709 0
-1.2390798 1.1583005 0.48963699 0
-1.2420939 1.1599123 0.63780361 0
-0.9526161 0.98282892 -0.049708247 0
-1.2594491 1.1419778 0.34975368 0
-1.2424359 1.1331533 0.48740467 0
-1.238958 1.1313493 0.63245201 0
-0.97342408 0.97130018 -0.050182637 0
-1.2604479 1.1156174 0.34775174 0
-1.2512984 1.1110171 0.48684961 0
-1.2322352 1.101432 0.62593287 0
-0.98001516 0.95247036 -0.050095327 0
-1.2752413 1.0962837 0.34859619 0
-1.2411332 1.0796686 0.48097736 0
-1.2447516 1.0814313 0.62671322 0
-0.98855674 0.93462509 -0.050094917 0
-1.2986232 1.0808661 0.35119689 0
-1.2418635 1.0540957 0.47832501 0
-1.2332946 1.0500543 0.61876357 0
-0.99902987 0.91765815 -0.050179154 0
-1.2988096 1.0544602 0.34922302 0
-1.2282715 1.0222707 0.47176188 0
-1.2368819 1.0261999 0.61650598 0
-1.0025918 0.89757347 -0.050001595 0
-1.3108971 1.0336021 0.34967178 0
-1.2438403 1.0040158 0.473479 0
-1.2440305 1.0040996 0.61566544 0
-1.0070664 0.87801063 -0.049870249 0
-1.3231264 1.0127324 0.35019758 0
-1.2428498 0.97851413 0.47065824 0
-1.2390783 0.97690654 0.61055404 0
-1.0168734 0.86073852 -0.049954969 0
-1.3359092 0.99200678 0.35088 0
-1.2401814 0.95261931 0.46747801 0
-1.2426782 0.9536466 0.60866916 0
-1.0291197 0.84436673 -0.050141342 0
-1.3418342 0.96845341 0.35027915 0
-1.2380271 0.92726225 0.46454445 0
-1.2416097 0.92868382 0.60522789 0
-1.0416492 0.82795912 -0.05034554 0
-1.3520391 0.94662195 0.35056496 0
-1.2391343 0.90345818 0.46260324 0
-1.2403138 0.90390909 0.6018343 0
-1.0382564 0.80553627 -0.049950972 0
-1.3605123 0.92410678 0.35056964 0
-1.2428603 0.88081807 0.46146461 0
-1.2350868 0.87795782 0.59717375 0
-1.0462414 0.78742969 -0.049999733 0
-1.3716458 0.90252781 0.35113755 0
-1.2398243 0.85590154 0.45857844 0
-1.2366853 0.85479122 0.59505808 0
-1.0505072 0.76802045 -0.049916673 0
-1.3792524 0.87966335 0.35108319 0
-1.2398137 0.83230954 0.45660445 0
-1.2428026 0.83332461 0.59464192 0
-1.0619036 0.7509914 -0.05011088 0
-1.3841176 0.85591024 0.35056379 0
-1.2450349 0.81062233 0.45612225 0
-1.2532601 0.81330061 0.59584087 0
-1.0687217 0.73238826 -0.050141148 0
-1.3975073 0.83488649 0.35171339 0
-1.2397876 0.78571773 0.4529174 0
-1.2450246 0.78735036 0.59060884 0
-1.0710657 0.71242636 -0.050013378 0
-1.397404 0.80967063 0.35036942 0
-1.2437763 0.76389176 0.45226702 0
-1.2356193 0.76146108 0.58510399 0
-1.0776261 0.69375378 -0.050051909 0
-1.4017406 0.78590822 0.34992239 0
-1.2377436 0.73927951 0.44903386 0
-1.2374468 0.73919511 0.58361697 0
-1.0766938 0.67302096 -0.049821883 0
-1.40911 0.76302773 0.3500995 0
-1.2353554 0.71598107 0.44685706 0
-1.2428091 0.71799922 0.58345014 0
-1.0919582 0.65661985 -0.050199322 0
-1.4166893 0.74017179 0.35036889 0
-1.242988 0.69547915 0.44740462 0
-1.2345411 0.69330579 0.57869333 0
-1.0916643 0.63614655 -0.050011471 0
-1.4190284 0.71599507 0.34971821 0
-1.2369701 0.6715886 0.44443363 0
-1.2507342 0.67494583 0.58243442 0
-1.0911564 0.61575669 -0.04982578 0
-1.4241456 0.69254827 0.34964001 0
-1.2243978 0.6464839 0.439834 0
-1.238142 0.64965349 0.5764156 0
-1.0887027 0.59507465 -0.049578901 0
-1.4266448 0.6685397 0.34913343 0
-1.2502408 0.63019133 0.4453595 0
-1.2379564 0.62752086 0.57474583 0
-1.1047864 0.57835323 -0.050017633 0
-1.4345366 0.64570081 0.34967646 0
-1.2424443 0.60646826 0.44216463 0
-1.240002 0.60596943 0.57393283 0
-1.1154702 0.56028134 -0.050266698 0
-1.4337901 0.62112957 0.34868497 0
-1.231923 0.58254182 0.43834734 0
-1.2378281 0.58367062 0.5717845 0
-1.113667 0.5398035 -0.050070647 0
-1.4427485 0.5984239 0.34953028 0
-1.2444823 0.56310606 0.44059807 0
-1.2431833 0.56287467 0.57228029 0
-1.1212522 0.52101326 -0.050224062 0
-1.445497 0.57456905 0.34929103 0
-1.2331257 0.53949147 0.43672308 0
-1.2485424 0.5420379 0.57286483 0
-1.1205355 0.50084639 -0.050085932 0
-1.4572521 0.55211544 0.35075009 0
-1.2480515 0.52026218 0.43971512 0
-1.2379986 0.51873153 0.56818485 0
-1.1190097 0.48066193 -0.049928047 0
-1.4658902 0.52901781 0.35169056 0
-1.2388353 0.49736589 0.43654537 0
-1.2419103 0.49779454 0.5684675 0
-1.1238577 0.46139339 -0.050008927 0
-1.4534098 0.50311065 0.3488434 0
-1.2420331 0.47635296 0.43664739 0
-1.240566 0.47616723 0.56707555 0
-1.13728 0.44304013 -0.050406508 0
-0.51351988 0.37204739 0.0399937 0
-0.5144527 0.37215355 0.10842995 0
-0.50334132 0.37088892 0.17587508 0
-1.2414546 0.45489669 0.43584755 0
-1.2392621 0.45464715 0.56579047 0
-1.123535 0.42165589 -0.049837034 0
-0.504444 0.35907996 0.039622072 0
-0.50927699 0.35956848 0.10773241 0
-0.51438081 0.36008435 0.17764652 0
-1.229865 0.43240345 0.43229446 0
-1.2561338 0.43505862 0.57067531 0
-1.1200266 0.40157637 -0.049644735 0
-0.47334403 0.34442747 0.038467359 0
-0.51556075 0.34815827 0.10828909 0
-0.51178002 0.34782416 0.17697105 0
-1.2476971 0.41285893 0.43635359 0
-1.237326 0.41194242 0.56372064 0
-1.1396962 0.38338423 -0.050291531 0
-0.50973213 0.33569849 0.1075553 0
-0.51388216 0.33601263 0.17717475 0
-1.232812 0.39043275 0.4321008 0
-1.2425948 0.39117324 0.56490278 0
-1.1241829 0.36251378 -0.049687438 0
-0.51434439 0.32406732 0.10796329 0
-0.50140947 0.32325184 0.1747714 0
-1.2424437 0.36996937 0.43419099 0
-1.2344011 0.36946234 0.56168342 0
-1.239218 0.36976603 0.69954306 0
-1.1322566 0.34325588 -0.049936287 0
-0.51292157 0.31203431 0.10773738 0
-0.49712276 0.31123784 0.17387681 0
-1.2423042 0.34880355 0.43384963 0
-1.2414654 0.34876126 0.56363988 0
-1.2409149 0.34873351 0.69975138 0
-0.34847307 0.3037442 0.46976781 0
-1.1186469 0.32299969 -0.049418997 0
-0.50277823 0.29972276 0.10659003 0
-0.50267518 0.29971886 0.17478569 0
-1.236527 0.32745498 0.4321371 0
-1.2498553 0.32795873 0.56612355 0
-1.2279223 0.32712978 0.6939829 0
-0.35505414 0.2941395 0.47341603 0
-1.1512905 0.30427051 -0.050562818 0
-0.40763956 0.28553715 0.35397592 0
-0.40138417 0.28537956 0.42337939 0
-0.38447964 0.28495374 0.49068698 0
-1.1358088 0.28412524 -0.049996603 0
-0.40925741 0.27497444 0.42721972 0
-0.38344258 0.27464929 0.48995662 0
