# .PCD v0.7 - Point Cloud Data file format
VERSION 0.7
FIELDS x y z intensity
SIZE 4 4 4 4
TYPE F F F F
COUNT 1 1 1 1
WIDTH 1353
HEIGHT 1
VIEWPOINT 0 0 0 1 0 0 0
POINTS 1353
DATA ascii
-1.2394086 0.13781206 0.43378863 0
-1.2390343 0.13784041 0.5637148 0
-1.1306684 0.1262273 -0.050026145 0
-0.51273263 0.18083581 0.10798395 0
-0.50839043 0.18121955 0.17635736 0
-1.2393833 0.11661992 0.43422422 0
-1.234603 0.11704236 0.5628112 0
-1.1280504 0.10663182 -0.049999066 0
-0.51773787 0.16832048 0.10864632 0
-0.50514555 0.16959326 0.17597248 0
-1.2350862 0.095812969 0.43363336 0
-1.2393627 0.095380701 0.56506729 0
-1.1200808 0.087661512 -0.049788512 0
-0.50612485 0.1575384 0.039727986 0
-0.51033401 0.15705936 0.10798446 0
-0.5162397 0.15638719 0.17821632 0
-1.2361703 0.074448876 0.43449065 0
-1.2450789 0.073434956 0.56773812 0
-1.1236405 0.067378245 -0.050001115 0
-0.5035668 0.14587204 0.039687015 0
-0.5076502 0.14535512 0.1078482 0
-0.52022243 0.14376365 0.17920116 0
-1.2426382 0.052314598 0.43680298 0
-1.2428387 0.052289207 0.56783772 0
-1.1185321 0.048148815 -0.049910825 0
-0.51113671 0.13282108 0.040016342 0
-0.50723869 0.13336447 0.10797424 0
-0.50860679 0.13317375 0.17737633 0
-1.2330698 0.032181997 0.43506017 0
-1.2413858 0.031022716 0.56829131 0
-1.1156654 0.028639261 -0.049910061 0
-0.51219696 0.12052441 0.040117148 0
-0.52025288 0.11929781 0.1095764 0
-0.51168311 0.12060266 0.17825249 0
-1.2407062 0.0096003311 0.43781951 0
-1.2362428 0.010279943 0.56759393 0
-1.1033264 0.010691662 -0.049575418 0
-0.51950216 0.10712226 0.040449739 0
-0.51024193 0.10865179 0.10869316 0
-0.4994508 0.11043417 0.17636111 0
-1.2357926 -0.011187891 0.43741274 0
-1.2355586 -0.011149238 0.56848669 0
-1.0992718 -0.0084950728 -0.049548626 0
-0.51334047 0.095878802 0.040300831 0
-0.51255745 0.096018292 0.10916812 0
-0.51004434 0.096465953 0.17867032 0
-1.245639 -0.034567963 0.44089782 0
-1.2386142 -0.033316594 0.57073623 0
-1.1027958 -0.029114466 -0.049806014 0
-0.51964724 0.082356907 0.040609907 0
-0.50309271 0.085521393 0.10837264 0
-0.51226336 0.083768375 0.17947966 0
-1.2417965 -0.055685025 0.44091198 0
-1.2320868 -0.053828996 0.56983978 0
-1.0987197 -0.048370045 -0.049796574 0
-0.5105418 0.071758322 0.040364377 0
-0.51087373 0.071690507 0.10948129 0
-0.5224728 0.06932155 0.18179129 0
-1.2507186 -0.079414017 0.44431925 0
-1.2499845 -0.079264082 0.57732242 0
-1.0964969 -0.068024911 -0.049863666 0
-0.51479805 0.058430273 0.040611219 0
-0.50736195 0.060046796 0.1093701 0
-0.51114374 0.059224684 0.18016763 0
-1.2409322 -0.099423625 0.44292912 0
-1.2435707 -0.0999972 0.5766573 0
-1.098465 -0.088698007 -0.050093554 0
-0.51669252 0.045466233 0.040778387 0
-0.50919235 0.04719587 0.10986394 0
-0.51880234 0.04497968 0.18207704 0
-1.2371968 -0.12069137 0.44318515 0
-1.2407023 -0.12149978 0.57728976 0
-1.0985452 -0.10908074 -0.050264329 0
-0.50999784 0.034473825 0.040636424 0
-0.51487994 0.033283029 0.11080385 0
-0.50561166 0.035543699 0.18015516 0
-1.2478592 -0.1455005 0.44729325 0
-1.2432381 -0.14437331 0.57986736 0
-1.0807245 -0.12498529 -0.049785201 0
-0.5532155 0.010740598 0.042339068 0
-0.55381864 0.010585417 0.11545607 0
-0.55292326 0.010815789 0.18951607 0
-1.2463059 -0.16758873 0.4482787 0
-1.2323675 -0.16400243 0.57794666 0
-1.0806745 -0.14535467 -0.049969118 0
-0.61383867 -0.018951695 0.044702336 0
-0.63014507 -0.023366909 0.1243187 0
-1.2345835 -0.18702792 0.31749052 0
-1.2419187 -0.189014 0.44859186 0
-1.2415137 -0.18890436 0.58300364 0
-1.0774189 -0.16495071 -0.050044216 0
-0.68883801 -0.054466676 0.047621526 0
-0.693259 -0.055723649 0.13178454 0
-1.2310514 -0.20863257 0.31791869 0
-1.2429345 -0.21201126 0.45041069 0
-1.2301618 -0.20837964 0.58109725 0
-1.0739849 -0.18455209 -0.050122123 0
-0.77663803 -0.095946886 0.051045172 0
-0.77694857 -0.096039422 0.14163141 0
-1.2348582 -0.23249011 0.31978065 0
-1.2384967 -0.23357435 0.45086145 0
-1.2428586 -0.23487417 0.5876171 0
-1.069199 -0.20379291 -0.050158996 0
-0.86799884 -0.14106916 0.054634936 0
-0.87453377 -0.14310645 0.15313827 0
-1.2453685 -0.25871339 0.32297295 0
-1.2481788 -0.25958952 0.45515987 0
-1.24951 -0.26000449 0.59217191 0
-1.0457418 -0.21698467 -0.049504068 0
-0.99031019 -0.19893511 0.059422817 0
-0.98584151 -0.19748004 0.16631021 0
-1.2324387 -0.27777663 0.32179502 0
-1.2438208 -0.28148285 0.45579648 0
-1.2368323 -0.27920726 0.59009296 0
-1.0467699 -0.23800711 -0.049775764 0
-1.1253306 -0.26468655 0.064737804 0
-1.1183059 -0.262301 0.18201736 0
-1.2467896 -0.30593446 0.32585368 0
-1.2456087 -0.30553338 0.45816588 0
-1.0446345 -0.25811717 -0.04993888 0
-1.2948776 -0.34663019 0.20291543 0
-1.2497902 -0.33068237 0.32782683 0
-1.2377363 -0.32641885 0.45801339 0
-1.0504625 -0.28128323 -0.050415307 0
-1.2524014 -0.35558441 0.198948 0
-1.2423642 -0.35189137 0.32786524 0
-1.2479793 -0.35395738 0.46285623 0
-1.034892 -0.29663172 -0.050087273 0
-1.2559209 -0.38113162 0.20026642 0
-1.2300255 -0.37123176 0.32700673 0
-1.2420428 -0.37582597 0.46339768 0
-1.02907 -0.31560293 -0.050139435 0
-1.2545254 -0.40506473 0.2010603 0
-1.2390752 -0.39893398 0.33034098 0
-1.2268192 -0.39407071 0.46146804 0
-1.0200902 -0.33331797 -0.050079156 0
-1.255758 -0.43028417 0.20219861 0
-1.2316679 -0.42037222 0.33055103 0
-1.2434056 -0.42520174 0.46836749 0
-1.0086085 -0.34992376 -0.049930096 0
-1.2537043 -0.45439675 0.20299615 0
-1.2447971 -0.45060006 0.33484116 0
-1.2400972 -0.44859669 0.46989486 0
-1.0026398 -0.3688505 -0.050003462 0
-1.2535142 -0.47953984 0.20405258 0
-1.2431132 -0.47495076 0.33631 0
-1.2314011 -0.46978322 0.47001019 0
-0.99226892 -0.3858287 -0.049913835 0
-1.2430105 -0.50025254 0.20393407 0
-1.2376739 -0.49781719 0.33710346 0
-1.2413256 -0.49948362 0.4754228 0
-0.98631549 -0.40482393 -0.050006449 0
-1.2391098 -0.52405286 0.20463033 0
-1.2382408 -0.52364308 0.33915657 0
-1.2422774 -0.52554679 0.47844177 0
-0.97424841 -0.42091712 -0.049866322 0
-1.5012316 -0.67762607 0.082793817 0
-1.2432153 -0.55193877 0.20632368 0
-1.2419772 -0.55133569 0.34192312 0
-1.2281233 -0.54458708 0.47728524 0
-0.96743703 -0.43954572 -0.049943395 0
-1.4517533 -0.68306279 0.081296742 0
-1.240845 -0.57701689 0.2072909 0
-1.2313226 -0.57222903 0.34187245 0
-1.2463186 -0.57976902 0.48542753 0
-0.96314156 -0.45954409 -0.050131559 0
-1.3970317 -0.68459517 0.07958173 0
-1.2457128 -0.60610873 0.20917886 0
-1.2352219 -0.6006673 0.34483153 0
-0.95191777 -0.47599158 -0.050050665 0
-1.3484647 -0.68805176 0.078105092 0
-1.2374949 -0.62870884 0.20952933 0
-1.238169 -0.62906927 0.34768888 0
-0.94733238 -0.49603561 -0.050248221 0
-1.2985297 -0.68957001 0.076564178 0
-1.2345228 -0.65429771 0.21056071 0
-1.2422781 -0.65857142 0.3508788 0
-0.93792796 -0.51350826 -0.050259694 0
-1.2546704 -0.69329154 0.075262398 0
-1.2406982 -0.68536097 0.21276957 0
-1.2374083 -0.68349361 0.35230637 0
-0.92328525 -0.52793276 -0.050063707 0
-1.2579532 -0.72350264 0.075902283 0
-1.2360709 -0.71071529 0.21369858 0
-1.2389168 -0.71237832 0.35514209 0
-0.91145861 -0.54389322 -0.04999109 0
-1.2491529 -0.74697834 0.076059438 0
-1.2430251 -0.74329311 0.21612695 0
-1.2457336 -0.74492198 0.35919279 0
-0.90965867 -0.56600028 -0.050347246 0
-1.2443916 -0.77308768 0.076399736 0
-1.2330599 -0.76607722 0.21648781 0
-1.2388262 -0.76964456 0.36045119 0
-0.89456952 -0.57995403 -0.050155673 0
-1.2533469 -0.80821294 0.077337049 0
-1.2444853 -0.80257505 0.21961258 0
-1.2418042 -0.80086929 0.36389905 0
-0.88137448 -0.59498888 -0.050050784 0
-1.2415353 -0.83055025 0.077414989 0
-1.2440249 -0.83217865 0.22129567 0
-1.2317406 -0.82414418 0.36464939 0
-0.86362362 -0.60687608 -0.049757134 0
-1.2456282 -0.86364943 0.07818982 0
-1.2377408 -0.85834771 0.22228703 0
-1.2407607 -0.86037761 0.36961648 0
-0.85213399 -0.62283945 -0.049739052 0
-1.2423553 -0.89233059 0.078669831 0
-1.2472361 -0.89570135 0.22539079 0
-1.2374743 -0.88895971 0.37202924 0
-0.85410559 -0.64834005 -0.050318785 0
-1.2409916 -0.92278618 0.07925345 0
-1.2313867 -0.91597277 0.2252446 0
-1.6106399 -1.1850044 0.45778289 0
-0.83105278 -0.6561209 -0.049812663 0
-1.2376668 -0.95232755 0.079772696 0
-1.2407935 -0.95460528 0.22848894 0
-1.56669 -1.1920115 0.45208451 0
-0.82917798 -0.67929935 -0.050250258 0
-1.2413059 -0.98753995 0.080623828 0
-1.2358661 -0.98347121 0.22990526 0
-0.8154918 -0.69380271 -0.050173551 0
-1.2385737 -1.0186225 0.081216305 0
-1.2403357 -1.0199754 0.23265757 0
-0.79415393 -0.7022121 -0.049756557 0
-1.1549072 -0.98647016 0.078153737 0
-1.1512382 -0.9835791 0.22269775 0
-1.1554378 -0.98688823 0.37061375 0
-0.79087996 -0.72485316 -0.050169475 0
-1.142242 -1.0089545 0.078301117 0
-1.1427064 -1.00933 0.22370762 0
-1.1395147 -1.0067494 0.37060395 0
-0.77810442 -0.73999411 -0.05015913 0
-1.2414714 -1.1244084 0.083653651 0
-1.2396129 -1.1228665 0.23949631 0
-1.3329363 -1.2002887 0.41970852 0
-0.76020098 -0.75076514 -0.049917158 0
-1.2414833 -1.1603818 0.084480219 0
-1.2420341 -1.1608505 0.2423217 0
-1.3164275 -1.2241664 0.42019945 0
-1.0225046 -0.97401029 0.49347931 0
-0.74867654 -0.76688308 -0.049981229 0
-1.2863393 -1.2362858 0.41751638 0
-0.99506867 -0.98199409 0.48950729 0
-0.73515224 -0.78127497 -0.049959861 0
-1.1942847 -1.1924187 0.083963029 0
-1.1979275 -1.1956807 0.24121262 0
-1.2048877 -1.2019136 0.40240508 0
-0.97812164 -0.99884921 0.48911664 0
-0.72863555 -0.80208665 -0.050286666 0
-0.91600859 -0.97417539 0.4731487 0
-0.70872831 -0.81060666 -0.049973406 0
-0.88689268 -0.97842211 0.46844721 0
-0.69503331 -0.82482451 -0.049969967 0
-0.86057055 -0.98472732 0.46469802 0
-0.68749762 -0.84514481 -0.050284952 0
-0.83803999 -0.99427277 0.46229178 0
-0.66330826 -0.84886831 -0.049769398 0
-0.81831932 -1.0063392 0.46091998 0
-0.6563623 -0.87003523 -0.050138429 0
-0.63806081 -0.87945539 -0.04993302 0
-0.62342966 -0.89268702 -0.049925391 0
-0.60894418 -0.90607899 -0.049934361 0
-0.59732819 -0.92279309 -0.050108917 0
-0.58351552 -0.93710524 -0.050176196 0
-0.5735606 -0.9561767 -0.050471071 0
-0.55097926 -0.95986873 -0.050064445 0
-0.52856517 -0.96331424 -0.049663581 0
-0.51654732 -0.97992855 -0.049870584 0
-0.50770855 -1.0010715 -0.050283842 0
-0.48133272 -0.99848312 -0.049652468 0
-0.4708752 -1.0177175 -0.049994342 0
-0.45123798 -1.0240016 -0.049778331 0
-0.43289441 -1.0319548 -0.049646437 0
-0.42779177 -1.0601274 -0.050386272 0
-0.37309802 -0.97592551 0.49804947 0
-0.40681422 -1.0641562 -0.050103381 0
-0.34848541 -0.97183377 0.49248597 0
-0.39025062 -1.0749949 -0.050119117 0
-0.32898587 -0.9752664 0.49002475 0
-0.36565435 -1.0724088 -0.049585212 0
-0.30817252 -0.97614104 0.48668626 0
-0.35062623 -1.0855709 -0.04971803 0
-0.29375839 -0.98754829 0.48752439 0
-0.33593893 -1.0995351 -0.049890555 0
-0.27610844 -0.99334759 0.48628467 0
-0.31707835 -1.1061295 -0.049769554 0
-0.25367361 -0.9902094 0.48174885 0
-0.30432713 -1.1240602 -0.050117169 0
-0.22679026 -0.97796279 0.47391936 0
-0.28095359 -1.121895 -0.049662109 0
-0.20969392 -0.98344308 0.47290045 0
-0.26843554 -1.1407782 -0.050061457 0
-0.18518223 -0.97389215 0.46637976 0
-0.25083226 -1.1497927 -0.050073337 0
-0.1688797 -0.9802013 0.46587333 0
-0.23200472 -1.1562172 -0.049991835 0
-0.15021302 -0.98137277 0.46355841 0
-0.21405943 -1.1644595 -0.049991343 0
-0.12857218 -0.97555369 0.45879 0
-0.19920488 -1.179774 -0.050275274 0
-0.11404361 -0.98509926 0.45972639 0
-0.1769547 -1.1781081 -0.04990685 0
-0.10332377 -1.0038478 0.46404806 0
-0.15964325 -1.187874 -0.049991898 0
-0.07739456 -0.98617142 0.35056001 0
-0.084209934 -1.002885 0.46131402 0
-0.13611747 -1.182006 -0.049485177 0
-0.05312331 -0.97091156 0.34464362 0
-0.065122947 -1.0014324 0.45850471 0
-0.12413467 -1.2056187 -0.050117642 0
-0.027948303 -0.95162398 0.14573894 0
-0.029296203 -0.95518333 0.24118812 0
-0.014027728 -0.9148646 0.32771167 0
-0.05372341 -1.0196871 0.46280527 0
-0.10450561 -1.2095585 -0.050005436 0
-0.0083177518 -0.94557053 0.14439437 0
-0.005567892 -0.93802351 0.23679671 0
0.005424933 -0.90785366 0.32430649 0
-0.088833645 -1.2245687 -0.050321858 0
0.00866233 -0.94614071 0.14383814 0
0.01081978 -0.93997949 0.23613459 0
0.016290056 -0.92435759 0.3273392 0
-0.0021842851 -0.97711641 0.4436264 0
-0.06814678 -1.2253684 -0.050109167 0
0.024315285 -0.95025867 0.14371079 0
0.022267895 -0.95635039 0.23825723 0
0.020994084 -0.96014053 0.33558506 0
0.013625668 -0.98206443 0.44347641 0
-0.048806027 -1.2298676 -0.050045893 0
0.03780289 -0.96100944 0.14435515 0
0.037383124 -0.96231252 0.23842643 0
0.020221459 -1.0155871 0.3490842 0
0.016911732 -1.0258614 0.45697567 0
-0.028415097 -1.2308196 -0.049859457 0
0.024484711 -1.0592303 0.35937715 0
-0.012244118 -1.2456437 -0.050199576 0
0.069939032 -0.96663827 0.33341181 0
0.0053162738 -1.2564204 -0.050395969 0
0.082229033 -0.98263496 0.33646697 0
0.027077483 -1.2520349 -0.050039563 0
0.10060893 -0.9770332 0.3338488 0
0.050113693 -1.2416199 -0.04947231 0
0.11777459 -0.97517365 0.33228505 0
0.065970466 -1.2593503 -0.049950939 0
0.084128216 -1.2684947 -0.050121166 0
0.10585146 -1.2615733 -0.049712732 0
0.12314828 -1.2752326 -0.05006475 0
0.14340837 -1.2744817 -0.049900394 0
-0.067293897 -2.3958991 0.10263699 0
0.16234954 -1.280618 -0.049995266 0
0.0021237002 -2.1968055 0.095200762 0
0.17969413 -1.2970517 -0.050471004 0
0.032745704 -2.2045081 0.095290385 0
0.20229849 -1.2804918 -0.049762819 0
0.063154891 -2.2141013 0.095462024 0
0.22207351 -1.2810285 -0.049682111 0
0.097347572 -2.1968479 0.09467987 0
0.24071808 -1.2902875 -0.049924254 0
0.12871845 -2.1979997 0.094576508 0
0.25930974 -1.3016067 -0.0502485 0
0.16064079 -2.1935484 0.094286218 0
0.27913633 -1.3026903 -0.050213579 0
0.19110841 -2.2019064 0.094470218 0
0.29897115 -1.3034244 -0.050175127 0
0.2232396 -2.1923251 0.094024993 0
0.31806096 -1.314099 -0.05050147 0
0.25324199 -2.2078233 0.094492391 0
0.33888656 -1.2996893 -0.049939029 0
0.28443941 -2.2089615 0.094459362 0
0.35866612 -1.2990786 -0.049879484 0
0.3155286 -2.2120023 0.094508402 0
0.37814966 -1.3058913 -0.050094053 0
0.34717885 -2.1999872 0.094033569 0
0.39810565 -1.2982763 -0.04980211 0
0.37800756 -2.2102737 0.094369501 0
0.41777688 -1.2993433 -0.049829144 0
0.43750152 -1.3103296 -0.05021916 0
0.45719367 -1.3015766 -0.049913317 0
0.47724044 -1.3128399 -0.050331108 0
0.49640235 -1.2952143 -0.049725901 0
0.51634336 -1.3000553 -0.049932145 0
0.53635973 -1.3037841 -0.050107755 0
0.55558401 -1.2958544 -0.04987504 0
0.5751645 -1.293582 -0.049853545 0
0.59597152 -1.3031901 -0.050267324 0
0.61317843 -1.2794902 -0.049493864 0
0.63564533 -1.3005329 -0.050337702 0
0.6526624 -1.2791229 -0.049662303 0
0.67396963 -1.2883862 -0.050101548 0
0.69151932 -1.2734524 -0.049675394 0
0.7119363 -1.2759933 -0.049890328 0
0.73186749 -1.2752247 -0.049994759 0
0.75084692 -1.2694919 -0.0499276 0
0.77200115 -1.2738192 -0.05023678 0
0.78913099 -1.2599716 -0.049890243 0
0.81013244 -1.2627882 -0.050163392 0
0.8279587 -1.2526467 -0.049969103 0
0.84599006 -1.24376 -0.049828887 0
0.86635417 -1.243327 -0.050010636 0
0.88311118 -1.2304716 -0.04973942 0
0.90468299 -1.2335175 -0.050070234 0
0.9234516 -1.2272893 -0.05006405 0
0.94173265 -1.2196437 -0.050013237 0
0.95750666 -1.205078 -0.049708553 0
0.97791743 -1.203601 -0.049908478 0
0.99480891 -1.1926042 -0.049754892 0
0.92631269 -1.0151129 0.46227536 0
1.0163841 -1.1935865 -0.050069377 0
0.94013113 -1.0031691 0.46025938 0
1.0337226 -1.1837767 -0.049978808 0
0.96203303 -1.0110877 0.46545032 0
1.0543318 -1.1817273 -0.050197791 0
0.97262233 -0.99169511 0.46087837 0
1.071512 -1.1715842 -0.050111849 0
0.9839595 -0.97482759 0.45724866 0
1.0927004 -1.1702893 -0.050381616 0
1.0077009 -0.98556787 0.46376073 0
1.1045148 -1.1488299 -0.049866382 0
1.0278339 -0.98756498 0.46720082 0
1.1284664 -1.1529057 -0.050369456 0
1.0413734 -0.97553724 0.46555778 0
1.1416544 -1.1349494 -0.050005987 0
1.0602198 -0.97425097 0.46797383 0
1.1612341 -1.1297685 -0.050161425 0
1.0806199 -0.97553664 0.47146022 0
1.176453 -1.1162564 -0.049990024 0
1.1007177 -0.97569889 0.47464249 0
1.1915257 -1.1027236 -0.049824376 0
1.1323278 -0.99609524 0.057470284 0
1.1329644 -0.99724191 0.16107863 0
1.1283348 -0.98890311 0.26452377 0
1.1308295 -0.99339646 0.37303439 0
1.1267747 -0.98609298 0.48183659 0
1.209407 -1.0943321 -0.049876742 0
1.145804 -0.9830932 0.057302043 0
1.1406796 -0.97413081 0.15932173 0
1.1474351 -0.98594576 0.26575011 0
1.1492478 -0.98911613 0.37438971 0
1.1513762 -0.9928388 0.48780978 0
1.2294576 -1.0895473 -0.050088208 0
1.1686779 -0.98628563 0.057810433 0
1.1651306 -0.980259 0.16121008 0
1.1642717 -0.97879976 0.26615912 0
1.1685778 -0.9861154 0.37620237 0
1.1642147 -0.97870284 0.4858852 0
1.2430607 -1.0738232 -0.049855195 0
1.2574226 -1.059622 -0.049691584 0
1.2765309 -1.0530378 -0.049857236 0
1.2921488 -1.0409355 -0.04979863 0
1.3249758 -1.0543302 -0.050847098 0
1.3254446 -1.0198834 -0.049842417 0
1.3470569 -1.0162586 -0.05018108 0
1.355022 -0.9936139 -0.049692836 0
1.3803345 -0.99457902 -0.050259475 0
1.3919997 -0.97722501 -0.050019424 0
1.3989685 -0.95421654 -0.049525976 0
1.2135578 -0.72042811 0.05087322 0
1.202086 -0.7059629 0.13909486 0
1.4238698 -0.95379061 -0.050070923 0
1.2049931 -0.68483061 0.049690939 0
1.20544 -0.6853798 0.13759612 0
1.4371927 -0.9388923 -0.049963035 0
1.2081074 -0.66451812 0.049202073 0
1.2104247 -0.66729355 0.13643698 0
1.4512689 -0.92498595 -0.049908448 0
1.1991029 -0.63058347 0.048069399 0
1.2034981 -0.63571477 0.1333649 0
1.4706705 -0.91719419 -0.05015222 0
1.2063049 -0.61630124 0.047852721 0
1.2065998 -0.61663693 0.13203457 0
1.4834956 -0.90184325 -0.050047163 0
1.2089062 -0.59713864 0.047403362 0
1.2062211 -0.59415907 0.13020283 0
1.500635 -0.89126474 -0.050180696 0
1.5198677 -0.88275331 -0.050428063 0
1.52362 -0.85806161 -0.049884863 0
1.5433117 -0.8498978 -0.050170347 0
1.5544547 -0.8330856 -0.050030559 0
1.5670224 -0.81776434 -0.049973242 0
1.5760272 -0.79918009 -0.049752343 0
1.5837229 -0.77961475 -0.049482204 0
1.6084521 -0.77536064 -0.050038602 0
1.6187886 -0.75817758 -0.049913138 0
1.6346226 -0.74572545 -0.0500555 0
1.6502157 -0.7329424 -0.050192561 0
1.6566898 -0.71275264 -0.049919084 0
1.6718763 -0.69957983 -0.050053883 0
1.6889627 -0.68772352 -0.050279975 0
1.7016542 -0.67242098 -0.050315611 0
1.7055062 -0.65072906 -0.049970772 0
1.7152673 -0.6334663 -0.049898423 0
1.7286888 -0.61875552 -0.049994256 0
1.7348084 -0.59911823 -0.049784474 0
1.7482591 -0.58438253 -0.049898401 0
1.7642735 -0.57115674 -0.050127335 0
1.7723727 -0.55290991 -0.0500305 0
1.789597 -0.54014862 -0.050322682 0
1.7922668 -0.51876318 -0.050019763 0
1.8032022 -0.50224191 -0.050068136 0
1.821031 -0.48942062 -0.05040469 0
1.8224994 -0.46771058 -0.050085414 0
1.8209019 -0.444684 -0.049656264 0
1.8256965 -0.42515537 -0.049495999 0
1.8470622 -0.41369233 -0.050002541 0
1.8490598 -0.39284566 -0.049749557 0
1.8596808 -0.37606093 -0.049845744 0
1.8606399 -0.35500851 -0.049573675 0
1.8733352 -0.33907613 -0.04976758 0
1.8897421 -0.32449284 -0.050111171 0
1.8967254 -0.30597529 -0.050099075 0
1.9011625 -0.28650835 -0.049998857 0
1.9181978 -0.27165875 -0.050386574 0
1.9186112 -0.25075462 -0.05015162 0
1.9177848 -0.22960953 -0.049880929 0
1.9256295 -0.21142469 -0.049946226 0
1.9222358 -0.1897624 -0.049600381 0
1.9335195 -0.17262413 -0.049811725 0
1.9318985 -0.15174641 -0.049552202 0
1.9489226 -0.13597749 -0.049991742 0
1.9519049 -0.1163669 -0.049920395 0
1.9568152 -0.09726233 -0.049929086 0
1.9574838 -0.077198096 -0.049791377 0
1.9675506 -0.059211146 -0.050006166 0
1.9584306 -0.037273627 -0.049530424 0
1.982612 -0.021822702 -0.050274827 0
1.9843639 -0.0019860372 -0.050212204 0
1.9778334 0.019123573 -0.049859352 0
1.9750576 0.039437313 -0.049652215 0
1.9830347 0.058176804 -0.049841914 0
1.9844129 0.077847354 -0.049802534 0
1.995577 0.096441723 -0.05012349 0
2.0028927 0.11563114 -0.050314456 0
2.0009353 0.13571949 -0.050181717 0
2.0004973 0.15561178 -0.050112519 0
1.9959126 0.17569356 -0.049904045 0
1.9983225 0.19532281 -0.049954694 0
2.0036035 0.21490052 -0.05011671 0
1.9957123 0.23484448 -0.049817137 0
2.0034239 0.25448203 -0.050083607 0
1.9875997 0.27416247 -0.049518652 0
1.9957148 0.29389971 -0.049817223 0
1.9959596 0.31360292 -0.049843676 0
2.0009549 0.33353743 -0.050048769 0
2.0016155 0.35337406 -0.050107982 0
1.9860225 0.37212831 -0.049594503 0
2.000195 0.39296392 -0.050155196 0
1.9854846 0.41146412 -0.04969018 0
1.9913987 0.4318535 -0.049973458 0
1.9868488 0.45118958 -0.049890127 0
1.9823142 0.47047153 -0.049815968 0
1.9902726 0.49152556 -0.050201159 0
1.9835501 0.51052785 -0.050065998 0
1.969471 0.52817392 -0.04967273 0
1.9685153 0.5479641 -0.04976305 0
1.9657098 0.56745672 -0.04979533 0
1.9758788 0.58971089 -0.050310031 0
1.9641478 0.60743493 -0.050035182 0
1.9621941 0.62728262 -0.050126448 0
1.9544363 0.6457454 -0.050013565 0
1.9531069 0.66582632 -0.050146244 0
1.938823 0.68241233 -0.049808763 0
1.9435744 0.70429564 -0.050185598 0
1.9311408 0.72122121 -0.049932744 0
1.9211409 0.73873848 -0.049778037 0
1.9165676 0.75794882 -0.049835134 0
1.9010699 0.77341831 -0.04948882 0
1.91108 0.79783481 -0.050116431 0
1.9028525 0.81588644 -0.050063301 0
1.8873067 0.83105046 -0.049738202 0
1.8873843 0.85228413 -0.050020378 0
1.8778303 0.86970294 -0.049941566 0
1.8737377 0.88943326 -0.050083365 0
1.8607693 0.90529358 -0.049888339 0
1.8643056 0.92866331 -0.050349582 0
1.8513799 0.94450611 -0.05017348 0
1.8383241 0.96014947 -0.049999021 0
1.8242174 0.97512144 -0.049789179 0
1.811502 0.9906624 -0.049641661 0
1.8171635 1.0160651 -0.05024758 0
1.8010067 1.0297581 -0.049978323 0
1.800603 1.0523086 -0.050363209 0
1.7812746 1.0639588 -0.049977265 0
1.7713305 1.0810183 -0.049986914 0
1.7604269 1.0974874 -0.04996521 0
1.7528265 1.116073 -0.050092444 0
1.7426522 1.1330633 -0.050120473 0
1.7328337 1.1503237 -0.05017332 0
1.7216994 1.1667125 -0.050178718 0
1.7049561 1.1790777 -0.049946584 0
1.6941859 1.1956524 -0.049984213 0
1.6850399 1.213495 -0.050104257 0
1.6697108 1.2266396 -0.049955938 0
1.6585232 1.2429602 -0.050002836 0
1.6474024 1.2593824 -0.050062735 0
1.6406928 1.2795705 -0.05033857 0
1.618129 1.2863531 -0.049882047 0
1.6061372 1.3020579 -0.049928278 0
1.5985198 1.3217779 -0.050195351 0
1.5768597 1.3286985 -0.04979293 0
1.5573794 1.3373103 -0.049497474 0
1.5583758 1.3656654 -0.05022639 0
1.5458549 1.3811932 -0.050298952 0
1.5263606 1.3896251 -0.050025236 0
1.5119919 1.4031885 -0.050019335 0
1.0277952 0.89236218 0.29387131 0
1.495593 1.4145536 -0.049915489 0
1.0513459 0.93389469 0.30931392 0
1.4831069 1.430156 -0.050026432 0
1.4443914 1.3871945 0.059961747 0
1.4403043 1.3826592 0.16778144 0
1.4432375 1.3859142 0.2782824 0
1.0506655 0.95028716 0.31318966 0
1.4638934 1.4382249 -0.049785651 0
1.4184649 1.3865196 0.059328433 0
1.4070053 1.3734766 0.16466527 0
1.4118021 1.3789362 0.27357343 0
1.057871 0.97610229 0.32119957 0
1.4488031 1.4508512 -0.049773116 0
1.3894538 1.3815613 0.058515992 0
1.3883363 1.3802565 0.1639009 0
1.3902931 1.3825412 0.27152258 0
1.0504302 0.98575288 0.32200265 0
1.4412841 1.4725367 -0.05019094 0
1.3683511 1.3851854 0.05812829 0
1.3680428 1.3848162 0.16286674 0
1.3587168 1.3736465 0.26662034 0
1.0543419 1.0090982 0.32877365 0
1.4224846 1.4808326 -0.049992573 0
1.3397411 1.3791558 0.057312481 0
1.3419427 1.381861 0.1608375 0
1.3362889 1.3749136 0.26422384 0
1.0593954 1.0346614 0.33640575 0
1.4068412 1.4928876 -0.049978305 0
1.3177475 1.3805473 0.05685943 0
1.3206807 1.384246 0.15960619 0
1.3214973 1.3852757 0.26400995 0
1.0582119 1.053293 0.34099159 0
1.3890004 1.502088 -0.04984431 0
1.2976481 1.3838724 0.05651056 0
1.2987593 1.3853104 0.15824401 0
1.2915063 1.3759246 0.25934774 0
1.0439734 1.0556016 0.33867624 0
1.3695314 1.5089735 -0.049618218 0
1.2703389 1.3772162 0.055730309 0
1.2768493 1.385864 0.15686324 0
1.2723814 1.3799292 0.25783014 0
1.0378479 1.0683987 0.3408255 0
1.3625535 1.5326288 -0.050147533 0
1.2516637 1.3814083 0.05545279 0
1.2488492 1.3775702 0.15435305 0
1.2515855 1.3813016 0.25579193 0
1.0325266 1.0825709 0.34355432 0
1.3438786 1.5405521 -0.04998583 0
1.2440555 1.4007659 0.055853426 0
1.2462423 1.4038281 0.15647495 0
1.2429141 1.3991675 0.25748545 0
1.0174127 1.083389 0.34082693 0
1.3230796 1.545226 -0.049694505 0
1.2365171 1.4207237 0.056280859 0
1.2446704 1.4324505 0.15889218 0
1.2425634 1.4294201 0.26190907 0
1.0108057 1.0960846 0.3430135 0
1.3175851 1.5721537 -0.050376315 0
1.2481101 1.4694939 0.057950824 0
1.2470295 1.4678974 0.16217706 0
1.2413216 1.4594629 0.26625046 0
1.0079365 1.114602 0.34755385 0
1.2983162 1.5790448 -0.050198965 0
1.2409871 1.4919909 0.058477629 0
1.2417208 1.4931052 0.1641134 0
1.2386123 1.4883847 0.27031735 0
1.1673505 1.3801743 0.34686226 0
0.99295771 1.1153595 0.34499642 0
1.2765089 1.5817479 -0.049855787 0
1.2497383 1.5399609 0.060084049 0
1.2456075 1.5335128 0.16798277 0
1.2204198 1.4941964 0.26940906 0
1.1455516 1.3773322 0.34322453 0
0.98837602 1.1319914 0.3488065 0
1.2633051 1.5978082 -0.050088745 0
1.2506196 1.5774471 0.061232287 0
1.2444884 1.5676059 0.1710161 0
1.2105573 1.513144 0.27134794 0
1.1286206 1.3816295 0.34184417 0
0.97441626 1.13412 0.34692448 0
1.2455902 1.6067438 -0.050029512 0
1.1902031 1.5152975 0.26975739 0
1.1071689 1.3782053 0.33823493 0
0.96532255 1.1440115 0.34814489 0
0.84286219 0.94182497 0.47570923 0
1.2279397 1.6157128 -0.049981378 0
1.1821725 1.5379564 0.27252352 0
1.0900545 1.3814524 0.33670765 0
0.95286274 1.1483704 0.34726483 0
0.84238118 0.96066779 0.48515764 0
1.2100333 1.6241717 -0.049921792 0
1.1562877 1.5301728 0.26896662 0
1.0738271 1.3859529 0.33562323 0
0.95107967 1.1712724 0.35355783 0
0.84745604 0.99003899 0.35209689 0
0.83774632 0.97305703 0.4144519 0
0.83715296 0.97201926 0.48942474 0
1.1958864 1.6393225 -0.050145116 0
1.1426831 1.5434918 0.26985496 0
1.0512093 1.3787272 0.33118436 0
0.93538016 1.1700934 0.35065204 0
0.85205787 1.0200117 0.36384404 0
0.83591676 0.99093795 0.42179713 0
0.83767951 0.99411303 0.50099361 0
1.1794475 1.6505582 -0.050215408 0
1.1285307 1.5560614 0.27061898 0
1.0378622 1.3877891 0.33157864 0
0.92723811 1.1824811 0.35296795 0
0.84552723 1.0308332 0.36647752 0
0.83889556 1.0185255 0.43462256 0
0.83987868 1.0203501 0.51527089 0
1.1589686 1.6541783 -0.049986817 0
1.1115786 1.5635113 0.27037254 0
1.0166928 1.3819746 0.32773623 0
0.9140203 1.1855406 0.35180554 0
0.84836131 1.0599211 0.37766585 0
0.836734 1.0376756 0.44257924 0
0.83817196 1.0404267 0.52531368 0
1.1375288 1.6555524 -0.049680144 0
1.0945207 1.5706826 0.27011466 0
0.99897069 1.3821295 0.32570219 0
0.9058162 1.1983038 0.354332 0
0.84941298 1.0870008 0.38783437 0
0.83978701 1.0680056 0.45677152 0
0.84130645 1.0710039 0.54228812 0
1.1218119 1.6680979 -0.049830448 0
1.0775987 1.5780559 0.26994219 0
0.97708499 1.3733555 0.32120639 0
0.88332617 1.1824118 0.34626061 0
0.84559649 1.1055737 0.39401019 0
0.83809191 1.0902903 0.46637043 0
0.84075403 1.0957118 0.5552541 0
1.1060529 1.6808088 -0.049994249 0
0.96822983 1.390958 0.324267 0
0.87658817 1.1982294 0.35002351 0
0.83556956 1.1119646 0.39458635 0
0.84022176 1.1217484 0.48100623 0
0.8376984 1.1164417 0.56553501 0
1.0854512 1.6832795 -0.049762491 0
0.94963878 1.3881307 0.32160378 0
0.86117774 1.1958864 0.34714493 0
0.83955783 1.1489017 0.40913886 0
0.84142923 1.1529686 0.4954116 0
0.84192526 1.1540467 0.58679807 0
1.0723836 1.7022874 -0.0501884 0
0.92974448 1.3817343 0.31802428 0
0.85182512 1.2066262 0.34911734 0
0.83631653 1.1717737 0.4172132 0
0.83772612 1.1749413 0.50466383 0
0.83750331 1.1744406 0.59673589 0
1.050697 1.7020179 -0.049869269 0
0.9134438 1.3828075 0.31660831 0
0.84883922 1.232556 0.35662293 0
0.83968288 1.2112612 0.43275082 0
0.83893758 1.2095277 0.52076137 0
0.84229451 1.217335 0.62118113 0
1.0343648 1.7140679 -0.05003861 0
0.89847583 1.3867326 0.31604439 0
0.85380596 1.2791299 0.37153935 0
0.84014291 1.2462177 0.44615722 0
0.8413409 1.2491035 0.53946966 0
0.84006637 1.2460334 0.63634455 0
1.0152407 1.7194754 -0.04995957 0
0.88312536 1.3895595 0.31523347 0
0.85043472 1.3079251 0.37998685 0
0.83797795 1.2768182 0.45755076 0
0.83738226 1.2753307 0.5508731 0
0.84099758 1.2843587 0.65759975 0
0.99643028 1.7255497 -0.049915668 0
0.86395949 1.382284 0.31171671 0
0.85270649 1.3531247 0.39425856 0
0.83931768 1.3184308 0.47378841 0
0.83686942 1.3120868 0.56789482 0
0.83906615 1.3177792 0.67562646 0
0.98021078 1.7385181 -0.050143577 0
0.84914351 1.3857274 0.31119958 0
0.84725052 1.380632 0.40217426 0
0.84115946 1.3642371 0.49179506 0
0.84136546 1.3647914 0.59335315 0
0.84029162 1.361901 0.70035481 0
0.95840341 1.7363323 -0.049803711 0
0.83383632 1.3876513 0.31032375 0
0.84396815 1.4160116 0.41285992 0
0.84313691 1.4136848 0.51131171 0
0.83943057 1.4033103 0.61113 0
0.94110531 1.7465596 -0.049944229 0
0.81459153 1.37784 0.30633843 0
0.83833283 1.447033 0.42198119 0
0.83802736 1.4461428 0.52329648 0
0.84008324 1.4521346 0.63429451 0
0.92498237 1.7606848 -0.05023887 0
1.0290862 2.0770113 0.3501555 0
0.80281335 1.3894659 0.30819273 0
0.83840764 1.4976215 0.43794298 0
0.83970428 1.5015614 0.54526782 0
0.83903444 1.499526 0.65660405 0
0.90069634 1.749614 -0.049596794 0
1.0063269 2.0847323 0.35022232 0
0.78716862 1.3894415 0.30696291 0
0.84236401 1.5645516 0.45954168 0
0.84163105 1.5622264 0.56942052 0
0.8406074 1.5589788 0.68515968 0
0.88393813 1.7619596 -0.049841724 0
0.98274511 2.0897694 0.34983745 0
0.76991981 1.3836828 0.30426234 0
0.8382203 1.6102822 0.47367486 0
0.84037375 1.6174268 0.59110808 0
0.86831099 1.778872 -0.050263286 0
0.96136391 2.1022744 0.35091129 0
0.75434327 1.3827809 0.30291867 0
0.83811039 1.6739109 0.49397117 0
0.83923662 1.6778251 0.61496359 0
0.84635627 1.7738402 -0.049878344 0
0.73937994 1.3836228 0.047433056 0
0.74120831 1.3902922 0.13146646 0
0.74224359 1.3940684 0.21725665 0
0.73917168 1.382863 0.30189192 0
0.83386046 1.7282591 0.51099658 0
0.83783185 1.7427455 0.64068449 0
0.8262831 1.7749624 -0.049731929 0
0.72410083 1.3829392 0.047268569 0
0.7250396 1.3865408 0.13062811 0
0.72505087 1.3865838 0.21515164 0
0.72697431 1.3939632 0.30382404 0
0.83085763 1.7925128 0.53139025 0
0.83046204 1.7909951 0.65919572 0
0.80908644 1.7873019 -0.050007809 0
0.71008283 1.3868824 0.047281843 0
0.70820558 1.3792899 0.12942754 0
0.70946991 1.3844035 0.21407887 0
0.70792192 1.3781425 0.29871532 0
0.82300073 1.843578 0.54721361 0
0.82230854 1.8407786 0.67834324 0
0.78918135 1.788931 -0.049898133 0
0.69544101 1.3882102 0.047205657 0
0.69373721 1.3809267 0.12923487 0
0.69372839 1.3808891 0.21279857 0
0.69301182 1.3778259 0.29774699 0
0.81688917 1.9073764 0.567375 0
0.76955456 1.7914772 -0.049831465 0
0.68119198 1.3910793 0.047192786 0
0.6787746 1.3801253 0.12879446 0
0.67853761 1.3790514 0.21186814 0
0.68063378 1.3885498 0.29971501 0
0.80598325 1.9565467 0.58252287 0
0.75103515 1.7991432 -0.049960673 0
0.66283393 1.3741139 0.0464633 0
0.66362894 1.3779451 0.12822458 0
0.66696823 1.3940368 0.21407406 0
0.66464788 1.3828553 0.29744047 0
0.79069853 1.9902754 0.59243119 0
0.73316038 1.8106189 -0.050236616 0
0.65164179 1.3913231 0.04698693 0
0.65140855 1.3901235 0.12924899 0
0.65072078 1.3865858 0.2121793 0
0.65105772 1.3883189 0.29812399 0
0.77607769 2.0313668 0.60487604 0
0.71115875 1.8004506 -0.049734779 0
0.63744509 1.3940495 0.046989001 0
0.6346252 1.3785028 0.12768851 0
0.63584018 1.3852013 0.21143831 0
0.63737041 1.3936379 0.29881287 0
0.76318669 2.0872931 0.62237084 0
0.69172335 1.8034083 -0.049719259 0
0.62117541 1.3844891 0.04655271 0
0.61938328 1.3738471 0.12691344 0
0.62068313 1.3815658 0.21032152 0
0.62119073 1.3845801 0.29582527 0
0.74674815 2.1301496 0.63547379 0
0.67429978 1.8192537 -0.05017826 0
0.60803008 1.3930348 0.046778869 0
0.6065352 1.3834203 0.12770833 0
0.60533112 1.3756765 0.20883042 0
0.60579073 1.3786325 0.29369926 0
0.72712296 2.1589904 0.64390206 0
0.65357113 1.8142393 -0.049892098 0
0.5937041 1.3944478 0.046753366 0
0.59139293 1.3782421 0.126918 0
0.59336627 1.3920792 0.21143827 0
0.5913232 1.3777531 0.2929332 0
0.70675802 2.1871891 0.65218246 0
0.6356253 1.8291228 -0.050332148 0
0.57639062 1.3727202 0.045901328 0
0.5773145 1.3798386 0.12688383 0
0.57689476 1.3766046 0.20827202 0
0.57733542 1.38 0.29301962 0
0.68908519 2.2410305 0.66913825 0
0.61488634 1.8228317 -0.05001856 0
0.56266463 1.376502 0.04597532 0
0.56406993 1.3885133 0.12763478 0
0.56363493 1.3847951 0.20944524 0
0.56407434 1.3885506 0.29477048 0
0.66785955 2.2755837 0.67968285 0
0.59454262 1.8182285 -0.049775351 0
0.55195218 1.4097139 0.12975623 0
0.55119103 1.4024132 0.21235667 0
0.55142528 1.4046603 0.29850087 0
0.64484519 2.3007157 0.68715161 0
0.57553631 1.8263879 -0.049999159 0
0.55187565 1.5679264 0.14667787 0
0.55235773 1.5731928 0.2430311 0
0.55199593 1.5692406 0.34030581 0
0.6216715 2.3303523 0.69621366 0
0.55565131 1.8254523 -0.049905609 0
0.60314995 2.4277582 0.23921943 0
0.5993486 2.379555 0.38865486 0
0.59783334 2.3603406 0.54240894 0
0.53662622 1.8365545 -0.050251808 0
0.57366252 2.3959863 0.39127538 0
0.5728628 2.3839066 0.54794484 0
0.51655936 1.8328311 -0.050076291 0
0.54835242 2.4263568 0.3964701 0
0.54780692 2.416173 0.55578035 0
0.49683321 1.8344809 -0.05010188 0
0.52217859 2.4534652 0.40113091 0
0.52168828 2.4414914 0.56191826 0
0.47681779 1.8266708 -0.04979847 0
0.45618078 1.0984739 0.35148683 0
0.45629618 1.1025457 0.42554036 0
0.4571549 1.8278565 -0.049825326 0
0.44591993 1.1141655 0.35788864 0
0.44580397 1.1068002 0.42755288 0
0.43746498 1.8274719 -0.049804952 0
0.43512025 1.0829347 0.41556183 0
0.43513697 1.088238 0.49459442 0
0.41776398 1.8294528 -0.049877889 0
0.42459977 1.1055231 0.42688048 0
0.42482752 1.0814029 0.49056005 0
0.39785442 1.8384217 -0.050209243 0
0.41411543 1.1005398 0.35228756 0
0.41406304 1.102917 0.4256596 0
0.41464064 1.0767069 0.48787048 0
0.37814346 1.834815 -0.050100464 0
0.35283163 2.5655413 0.42126176 0
0.35234824 2.5794961 0.59701651 0
0.40500322 1.0594004 0.47777274 0
0.35858557 1.8295277 -0.049940418 0
0.32248339 2.5935616 0.42653498 0
0.32205719 2.602581 0.60321754 0
0.39566216 1.0448723 0.46939051 0
0.33809251 1.8416942 -0.050413303 0
0.29161343 2.6178994 0.43121585 0
0.29223436 2.6075294 0.60488522 0
0.38580462 1.0448979 0.46971834 0
0.31951204 1.8228357 -0.049785305 0
0.26167586 2.620281 0.43200111 0
0.26053345 2.6360328 0.61267591 0
0.30023149 1.8173754 -0.049645077 0
0.35610545 1.1615534 0.038146567 0
0.22989082 2.6430006 0.43653661 0
0.22968407 2.6454275 0.61568415 0
0.27862498 1.8366581 -0.050400961 0
0.1988533 2.6515357 0.43857983 0
0.19873483 2.6527457 0.61826336 0
0.25941113 1.8294344 -0.050215583 0
0.16669746 2.667542 0.44205236 0
0.16495724 2.6832728 0.62690365 0
0.34609297 1.0458529 0.47228274 0
0.23987249 1.8258849 -0.050170779 0
0.13317598 2.6906176 0.44688845 0
0.13532557 2.6731958 0.62522852 0
0.22131048 1.8153753 -0.04988398 0
0.10132654 2.6963758 0.44865766 0
0.10316707 2.6828616 0.62873012 0
0.19987349 1.825507 -0.05035013 0
0.069437608 2.7006905 0.45023996 0
0.069365963 2.7011712 0.63457233 0
0.18021373 1.8225871 -0.050354958 0
0.038093433 2.7002282 0.45102608 0
0.037596241 2.7032986 0.63635391 0
0.16237922 1.8091924 -0.049989115 0
0.0041680499 2.7138598 0.45446646 0
0.0041197105 2.7141361 0.640499 0
0.14246909 1.8082252 -0.050081994 0
-0.028658075 2.7190125 0.45643747 0
-0.029734744 2.7247429 0.64470321 0
0.12484016 1.7955576 -0.049758162 0
-0.087971285 2.8545482 0.10032134 0
-0.088385358 2.8566086 0.29015535 0
-0.062402233 2.7273116 0.45906812 0
-0.060998842 2.7203281 0.64511979 0
0.10441341 1.7970346 -0.049957976 0
-0.11350246 2.8149009 0.09912058 0
-0.11155446 2.8058021 0.28531495 0
-0.09448649 2.726079 0.46002617 0
-0.093895152 2.7233169 0.64757186 0
0.084780887 1.7943674 -0.050016034 0
-0.14449622 2.8030841 0.098947071 0
-0.14214803 2.7927532 0.28465405 0
-0.12836547 2.7321162 0.46240616 0
-0.1303807 2.7409823 0.65397906 0
0.067001358 1.7838094 -0.049793586 0
-0.17513414 2.7902892 0.098751426 0
-0.17467876 2.7883964 0.28499445 0
-0.16251148 2.7378209 0.4648107 0
-0.16642542 2.7540901 0.65933019 0
0.044279948 1.7933372 -0.050318513 0
-0.20781417 2.7860758 0.098885432 0
-0.20724596 2.783838 0.28535897 0
-0.19864394 2.7499635 0.46850076 0
-0.19402094 2.7317586 0.65548903 0
0.025329189 1.7873176 -0.050281197 0
-0.25065917 2.8194923 0.10042572 0
-0.24897273 2.8131852 0.28954208 0
-0.23190041 2.7493362 0.46990407 0
-0.2281682 2.735378 0.65858001 0
0.0042109652 1.7890992 -0.050541878 0
-0.26015067 2.7301447 0.46791306 0
-0.26061326 2.7317913 0.65988606 0
-0.0099528562 1.7666092 -0.049910072 0
-0.29501361 2.7343683 0.47038367 0
-0.29275358 2.7266958 0.66090411 0
-0.028857691 1.7609994 -0.04991309 0
-0.3286289 2.7333567 0.47195861 0
-0.32337099 2.7163019 0.66061944 0
-0.049093619 1.7595046 -0.050079379 0
-0.358796 2.720907 0.47145271 0
-0.35697371 2.7152503 0.66294086 0
-0.066999212 1.7506982 -0.049980566 0
-0.3941496 2.7240949 0.47399205 0
-0.39169836 2.7168014 0.66608638 0
-0.083642974 1.7384896 -0.049761135 0
-0.42648494 2.7175746 0.47477236 0
-0.42480475 2.7127762 0.66785622 0
-0.10511096 1.739964 -0.050068561 0
-0.46185797 2.7190578 0.47717056 0
-0.45496541 2.700141 0.6674093 0
-0.12074073 1.7254007 -0.0497755 0
-0.4925307 2.7071688 0.47708711 0
-0.48906857 2.6980267 0.66993374 0
-0.14184035 1.7253063 -0.050043568 0
-0.52043593 2.6882586 0.47571725 0
-0.51578289 2.6764238 0.66724557 0
-0.15994574 1.71736 -0.050020497 0
-0.54908168 2.6716571 0.47485828 0
-0.55284715 2.6808913 0.67181915 0
-0.1729805 1.6974467 -0.049542312 0
-0.58364546 2.6693566 0.47686514 0
-0.57941067 2.6593339 0.66933793 0
-0.19865824 1.7072687 -0.050226584 0
-0.60882843 2.6448994 0.47460699 0
-0.61279356 2.6539636 0.67144352 0
-0.21300556 1.6908749 -0.049900088 0
-0.6438992 2.6430442 0.47687274 0
-0.64437664 2.6440995 0.67242008 0
-0.23400421 1.6892357 -0.0501603 0
-0.6693927 2.6199572 0.47501212 0
-0.6708374 2.6230454 0.67036229 0
-0.24860407 1.6739259 -0.049890503 0
-0.69728923 2.6024277 0.47431746 0
-0.69224429 2.5919878 0.66555154 0
-0.26887268 1.6703987 -0.050096415 0
-0.72520804 2.5851488 0.4737395 0
-0.72765255 2.590049 0.66908932 0
-0.28360951 1.6557994 -0.049869306 0
-0.75861263 2.5786934 0.47542426 0
-0.75680506 2.5751815 0.6690678 0
-0.3070336 1.657904 -0.050323281 0
-0.78002083 2.5491211 0.47248605 0
-0.78374267 2.556134 0.66794449 0
-0.32068813 1.6414734 -0.05003811 0
-0.80826283 2.5328867 0.47232455 0
-0.80646718 2.529604 0.66473579 0
-0.34085965 1.6370127 -0.050248433 0
-0.61877966 2.1302674 0.082461156 0
-0.83901417 2.5211415 0.47316456 0
-0.83259666 2.5097518 0.6635434 0
-0.3481735 1.6100874 -0.049543533 0
-0.62015235 2.0788956 0.080893293 0
-0.85687912 2.4869401 0.46940899 0
-0.85982609 2.4920199 0.6630643 0
-0.3695091 1.6076087 -0.049853653 0
-0.62243593 2.031198 0.079467088 0
-0.88371611 2.4687774 0.46904117 0
-0.88928556 2.4781048 0.66381735 0
-0.39584458 1.6128452 -0.050500654 0
-0.61733258 1.9733899 0.077607378 0
-0.91647255 2.4603391 0.47079998 0
-0.91338444 2.455312 0.66202849 0
-0.40857738 1.5956912 -0.050221235 0
-0.61868119 1.9282421 0.076264761 0
-0.93940032 2.4358742 0.46924165 0
-0.94166958 2.439466 0.66241318 0
-0.42534518 1.5851051 -0.050225925 0
-0.61745214 1.8808571 0.074816607 0
-0.95626223 2.4024611 0.46580794 0
-0.95303965 2.3974998 0.65496236 0
-0.43073773 1.5574685 -0.049507767 0
-0.61419165 1.8322618 0.07330361 0
-0.98099709 2.381695 0.46513358 0
-0.9828223 2.384429 0.65635639 0
-0.45234108 1.554354 -0.049847953 0
-0.6219908 1.801669 0.07255511 0
-1.0016923 2.3551974 0.46326768 0
-1.001411 2.3547873 0.65275121 0
-0.46474522 1.5377623 -0.049614403 0
-0.6212101 1.7598103 0.071312182 0
-1.0225843 2.3294225 0.46160188 0
-1.0233479 2.3305061 0.65085977 0
-0.48675394 1.5347188 -0.049982607 0
-0.6155262 1.712665 0.06982448 0
-0.6230756 1.7230972 0.19951065 0
-1.0419682 2.3019516 0.45960161 0
-1.0390345 2.2978978 0.64641517 0
-0.078925207 0.97115296 0.44251305 0
-0.50062776 1.520286 -0.049859986 0
-0.62733173 1.6908114 0.069444537 0
-0.61669135 1.6764909 0.19506568 0
-1.0565004 2.2684112 0.45627338 0
-1.067197 2.2828074 0.64755929 0
-0.090448692 0.96824342 0.44474861 0
-0.51869202 1.5114845 -0.049996838 0
-0.61670339 1.639982 0.067766525 0
-0.61541712 1.6382957 0.19170387 0
-1.0789224 2.2459724 0.45547244 0
-1.0810658 2.2487824 0.64275217 0
-0.093877032 0.95453227 0.44029951 0
-0.53781033 1.5038679 -0.050199024 0
-0.6149019 1.602342 0.066663869 0
-0.61548829 1.603091 0.18871477 0
-1.0932765 2.2134016 0.45240727 0
-1.0946099 2.2151046 0.63806611 0
-0.10419716 0.94998497 0.44165656 0
-0.54076666 1.4759008 -0.04948229 0
-0.61818624 1.572269 0.065895498 0
-0.61871946 1.5729326 0.18639106 0
-1.1134883 2.1887972 0.45119557 0
-1.1133478 2.1886222 0.6357429 0
-0.1238534 0.95694703 0.45049715 0
-0.5699048 1.4804859 -0.050265878 0
-0.61587429 1.5362537 0.064846084 0
-0.61442018 1.5344895 0.18289489 0
-1.1265831 2.1558175 0.44807282 0
-1.1241363 2.152849 0.63040107 0
-0.13699396 0.9553023 0.45400885 0
-0.57754838 1.4587933 -0.049846284 0
-0.61163414 1.4990994 0.063730828 0
-0.61165094 1.4991192 0.17978621 0
-1.1449425 2.1297305 0.44658345 0
-1.1507579 2.1366069 0.63157326 0
-0.15127237 0.95472652 0.45836651 0
-0.5929426 1.4464818 -0.049869984 0
-0.61942363 1.4770074 0.063312709 0
-0.61244619 1.4689642 0.17738046 0
-1.1585171 2.0984378 0.44388974 0
-1.1558627 2.0953779 0.62443143 0
-0.61380267 1.4402832 -0.050195292 0
-0.64129376 1.4711784 0.06367173 0
-0.62613571 1.4541434 0.17715494 0
-1.1728584 2.0685651 0.44154957 0
-1.1689181 2.064137 0.62064207 0
-0.62194562 1.4198052 -0.049846798 0
-0.66046274 1.4620094 0.063886702 0
-0.65893281 1.460333 0.18000872 0
-1.181609 2.0330443 0.43784711 0
-1.1834345 2.0350447 0.61760753 0
-0.63795185 1.4080831 -0.049927328 0
-0.50575793 1.2668477 0.05502094 0
-0.68501365 1.4583638 0.18175577 0
-1.1840212 1.9915012 0.43264011 0
-1.1889985 1.9968188 0.61140877 0
-0.652336 1.3945849 -0.049930856 0
-0.51128781 1.2476425 0.054659121 0
-0.71877539 1.4638005 0.18467595 0
-1.2043899 1.9697076 0.4323146 0
-1.2007333 1.9658983 0.60774285 0
-0.66290748 1.3772054 -0.049749006 0
-0.52077591 1.2328184 0.054515731 0
-0.75046313 1.4661504 0.18723075 0
-1.2066122 1.9295379 0.42739913 0
-1.2183188 1.9414303 0.60639381 0
-0.68803799 1.3744242 -0.050312106 0
-0.52277517 1.2107141 0.054007217 0
-0.77159941 1.4572005 0.18815324 0
-1.2210038 1.9023826 0.42576304 0
-1.2212547 1.9026312 0.59991193 0
-0.69799173 1.3564264 -0.050116815 0
-0.54700118 1.2105751 0.054622035 0
-0.80623269 1.4609832 0.19109826 0
-1.2237403 1.8642801 0.42131054 0
-1.226878 1.867311 0.59463602 0
-0.70934558 1.3399322 -0.050003681 0
-0.56864917 1.2074082 0.055103254 0
-0.84186757 1.4647565 0.19414936 0
-1.2316101 1.8318603 0.41830185 0
-1.2263497 1.8269055 0.58742303 0
-0.7176621 1.3207525 -0.049754743 0
-0.87763882 1.4676796 0.069509409 0
-0.87670386 1.466821 0.19704188 0
-1.2357024 1.7965354 0.41450334 0
-1.2274129 1.7889221 0.58102161 0
-0.23560609 0.87801856 0.3816072 0
-0.73293281 1.3080317 -0.0498535 0
-0.91098678 1.4674754 0.070386447 0
-0.91010487 1.4666858 0.19969116 0
-1.231329 1.7543354 0.40880626 0
-1.2331858 1.7559981 0.5764696 0
-0.23038842 0.85801327 0.37444252 0
-0.7537142 1.3000253 -0.050219979 0
-0.93335164 1.4568565 0.070733488 0
-1.2437809 1.7278746 0.4073275 0
-1.2343565 1.7196468 0.57054991 0
-0.23937787 0.85098749 0.37530395 0
-0.75729501 1.2770361 -0.049780928 0
-0.97613311 1.4632879 0.072040305 0
-1.235113 1.6837043 0.40094218 0
-1.2335058 1.6823364 0.5641703 0
-0.23192157 0.82989365 0.3672632 0
-0.25721455 0.85142034 0.45918515 0
-0.77715683 1.2679521 -0.050115172 0
-1.0204554 1.4697952 0.073401228 0
-1.2531747 1.6628617 0.40101779 0
-1.247893 1.65848 0.56306487 0
-0.24721046 0.82830262 0.3716858 0
-0.79050124 1.253291 -0.050152086 0
-1.0319109 1.4484881 0.073235624 0
-1.2492635 1.6242334 0.39605775 0
-1.2390072 1.6159405 0.55443382 0
-0.25095546 0.8170293 0.36992782 0
-0.79177248 1.2290796 -0.049648307 0
-1.088969 1.4632578 0.075156666 0
-1.2487555 1.5891627 0.39204028 0
-1.2340289 1.5775588 0.54733211 0
-0.27529222 0.82211536 0.3791168 0
-0.81461895 1.2218767 -0.050134268 0
-1.1246755 1.4599218 0.076089792 0
-1.2468123 1.5536921 0.3878361 0
-1.2443651 1.5518132 0.54538089 0
-0.2574296 0.79409617 0.36615634 0
-0.24599047 0.78531379 0.43401381 0
-0.81778479 1.1995223 -0.049742326 0
-1.1669537 1.4606742 0.077309035 0
-1.2562096 1.5274309 0.38632634 0
-1.2475109 1.5209249 0.5412609 0
-0.25964028 0.78207231 0.36387905 0
-0.27273536 0.79186648 0.44665945 0
-0.82936049 1.1836321 -0.049737912 0
-1.2032748 1.4560181 0.078253604 0
-1.2497398 1.4898665 0.38136411 0
-1.236148 1.4799653 0.53272212 0
-1.2351624 1.4792473 0.69244421 0
-0.27358133 0.778763 0.36770937 0
-0.27432072 0.77930164 0.44356406 0
-0.84539413 1.1709046 -0.049937475 0
-1.2533489 1.4602963 0.079794355 0
-1.2413791 1.4518052 0.37613297 0
-1.2460403 1.4551119 0.53107017 0
-1.2356586 1.4477473 0.68646097 0
-0.27722818 0.76786345 0.36630121 0
-0.27736318 0.76795924 0.44148749 0
-0.85756004 1.1553309 -0.049974475 0
-1.3016685 1.4620371 0.081243284 0
-1.2597157 1.433064 0.37690404 0
-1.2423574 1.4210762 0.52532077 0
-1.2326815 1.4143939 0.67928624 0
-0.27959073 0.75617898 0.4390206 0
-0.8634671 1.135515 -0.049750403 0
-1.2741874 1.4115903 0.079418346 0
-1.2710991 1.4095144 0.22660662 0
-1.2492853 1.3948518 0.37146893 0
-1.2423426 1.390185 0.52087981 0
-1.2428035 1.3904948 0.67759216 0
-0.29169101 0.75118238 0.44261625 0
-0.87648273 1.1205336 -0.049842104 0
-1.2610862 1.3720816 0.078249022 0
-1.2759502 1.3818034 0.22539535 0
-1.2413511 1.359174 0.36672044 0
-1.2344238 1.3546432 0.51418477 0
-1.2450352 1.3615836 0.67289537 0
-0.29705739 0.74156326 0.44219431 0
-0.89663839 1.1100143 -0.050243214 0
-1.2694476 1.3472005 0.078018337 0
-1.2741674 1.3502034 0.22339337 0
-1.2523057 1.3362947 0.36614382 0
-1.2432742 1.3305488 0.51274985 0
-1.2447805 1.3315071 0.66739982 0
-0.30298465 0.73232406 0.44218054 0
-0.90416718 1.091347 -0.050116703 0
-1.2911252 1.3307443 0.078361675 0
-1.2956145 1.3335216 0.22439304 0
-1.2557909 1.3088843 0.36404896 0
-1.2395086 1.298811 0.50763249 0
-1.2443937 1.3018332 0.66204387 0
-0.9254142 1.08103 -0.050572481 0
-1.2906499 1.3006783 0.077788204 0
-1.3038049 1.3085895 0.22374913 0
-1.2554557 1.2795129 0.36123881 0
-1.2376354 1.268796 0.50323659 0
-1.2438449 1.2725303 0.65681112 0
-0.91729188 1.0531746 -0.049815882 0
-1.3316809 1.295331 0.078950934 0
-1.3282377 1.2933189 0.22517093 0
-1.2489916 1.2470099 0.35724658 0
-1.2383755 1.2408062 0.49975729 0
-1.2471792 1.2459507 0.6532557 0
-0.93095577 1.0382949 -0.049973473 0
-1.376014 1.2909105 0.080243722 0
-1.3770491 1.2914979 0.22961903 0
-1.2467123 1.2175187 0.35423577 0
-1.2410544 1.2143072 0.49697524 0
-1.2379938 1.2125701 0.64506477 0
-0.93198574 1.0163227 -0.049622644 0
-1.2502047 1.1916837 0.35251105 0
-1.2419089 1.1871121 0.49377859 0
-1.2483782 1.190677 0.64452451 0
-0.95240211 1.0049948 -0.050070275 0
-1.2476468 1.1628819 0.34962726 0
-1.2332765 1.155197 0.48795795 0
-1.2443308 1.1611085 0.6386475 0
-0.96764779 0.99062556 -0.050312791 0
-1.2706158 1.1477697 0.35202232 0
-1.2396326 1.1316993 0.486599 0
-1.2443674 1.134155 0.63447934 0
-0.96708608 0.96811342 -0.049929369 0
-1.2683902 1.1196109 0.34935498 0
-1.2319275 1.1012774 0.48131794 0
-1.2311186 1.1008705 0.62551707 0
-0.97636306 0.95069134 -0.049950298 0
-1.2796919 1.0984517 0.349489 0
-1.2415679 1.0798805 0.48110071 0
-1.2381604 1.0782205 0.62427408 0
-0.98123813 0.93117332 -0.049806032 0
-1.3044459 1.0836123 0.35235792 0
-1.2335652 1.0501819 0.47598419 0
-1.2397197 1.0530846 0.62112695 0
-0.99283051 0.91482908 -0.04993587 0
-1.3029115 1.056332 0.35003617 0
-1.2430906 1.0290332 0.47591779 0
-1.2321116 1.0240231 0.61476147 0
-1.005891 0.89902914 -0.050130334 0
-1.3024049 1.0298553 0.34799775 0
-1.2355369 1.0003521 0.47116351 0
-1.2413763 1.0029286 0.61470026 0
-0.99711037 0.87376678 -0.049483858 0
-1.3245107 1.0133225 0.35046896 0
-1.2332994 0.97444326 0.46800953 0
-1.2441024 0.97904801 0.61237103 0
-1.0043645 0.85559171 -0.049472064 0
-1.3402139 0.99377793 0.35171947 0
-1.2333385 0.94980377 0.46559015 0
-1.2439549 0.9541719 0.60912848 0
-1.0202135 0.84083271 -0.04979926 0
-1.3424958 0.96871591 0.35040751 0
-1.2339225 0.92563349 0.46341777 0
-1.2368847 0.92680889 0.60353667 0
-1.0400064 0.82733113 -0.050282754 0
-1.3378713 0.94120556 0.34782946 0
-1.2493643 0.90736914 0.46539745 0
