# .PCD v0.7 - Point Cloud Data file format
VERSION 0.7
FIELDS x y z
SIZE 4 4 4
TYPE F F F
COUNT 1 1 1
WIDTH 1441
HEIGHT 1
VIEWPOINT 0 0 0 1 0 0 0
POINTS 1441
DATA ascii
0.18501833 -1.2190298 -0.14410366
0.18269989 -1.2037543 -0.1136456
0.20274338 -1.3358148 -0.094455533
1.1117303 -7.3248549 -0.34491137
2.2315733 -14.703161 -0.34577009
0.15871574 -0.87561125 -0.30065447
0.16946428 -0.93490934 -0.29656449
0.18165082 -1.0021408 -0.29205996
0.20085147 -1.1080679 -0.29474828
0.21652527 -1.1945379 -0.28773555
0.21556589 -1.1892451 -0.25690758
0.21795741 -1.2024388 -0.2301711
0.2177228 -1.2011445 -0.20062658
0.21501935 -1.1862299 -0.16942295
0.2193398 -1.2100652 -0.14372888
0.2175519 -1.2002017 -0.11385276
0.24201643 -1.3351688 -0.094861917
1.3246664 -7.3079886 -0.34576491
2.6519465 -14.630397 -0.34570634
0.18349268 -0.86939085 -0.30020314
0.19548124 -0.92619288 -0.29545739
0.2175976 -1.0309806 -0.30216044
0.23186246 -1.0985676 -0.29387021
0.25510216 -1.2086776 -0.29278436
0.25336251 -1.2004352 -0.26078829
0.25152227 -1.1917161 -0.22940584
0.25342503 -1.2007313 -0.2016893
0.25195444 -1.1937636 -0.17146109
0.25278708 -1.1977087 -0.14306398
0.25389934 -1.2029786 -0.11476014
0.28039289 -1.3285054 -0.09492112
1.5320324 -7.258791 -0.34537521
3.0689104 -14.540541 -0.3455219
0.20223476 -0.83838952 -0.29138237
0.22238544 -0.92192668 -0.29601049
0.24018987 -0.99573714 -0.29373056
0.2627739 -1.0893621 -0.29330423
0.29017299 -1.2029485 -0.29329303
0.2897768 -1.201306 -0.26267594
0.28866526 -1.196698 -0.23186408
0.28979778 -1.201393 -0.20311379
0.28936437 -1.1995962 -0.17342016
0.28876844 -1.1971257 -0.14392495
0.29020607 -1.2030855 -0.11551728
0.31246704 -1.2953712 -0.09315604
1.7397414 -7.212316 -0.34539726
3.4845884 -14.445797 -0.34550461
0.22872601 -0.84152985 -0.29463381
0.24975319 -0.91889316 -0.29721546
0.27076995 -0.99621809 -0.2960428
0.29197758 -1.0742453 -0.29137021
0.32426754 -1.1930467 -0.29302707
0.32403851 -1.192204 -0.26261097
0.32889876 -1.2100859 -0.2361896
0.32640359 -1.2009056 -0.20453085
0.32317114 -1.1890128 -0.17315964
0.32444826 -1.1937116 -0.1445744
0.32588306 -1.1989905 -0.11597431
0.35302919 -1.2988666 -0.094097264
1.9476017 -7.1656256 -0.34569561
3.902313 -14.357409 -0.34592664
0.25026423 -0.82634079 -0.29171035
0.2765812 -0.91323608 -0.2978304
0.29979977 -0.98990083 -0.29660016
0.33073843 -1.0920563 -0.29865262
0.36418664 -1.2024981 -0.29779288
0.36225718 -1.1961273 -0.26565579
0.36156669 -1.1938474 -0.23494866
0.3679083 -1.2147865 -0.20860732
0.36082858 -1.1914103 -0.17494482
0.36517882 -1.2057742 -0.14724399
0.3629241 -1.1983293 -0.11686969
0.39490566 -1.3039284 -0.095245786
2.1573105 -7.1231656 -0.34649137
4.310081 -14.23134 -0.34572706
0.27556118 -0.82388997 -0.29351601
0.30443072 -0.9102059 -0.29956809
0.32147646 -0.96117032 -0.29063636
0.36237323 -1.083446 -0.2990188
0.39500049 -1.180997 -0.29515398
0.43790394 -1.3092724 -0.29345521
0.49767748 -1.4879872 -0.29552436
0.57420862 -1.7168046 -0.29752287
0.66639984 -1.9924438 -0.29525396
0.80179429 -2.3972545 -0.29543072
1.0026343 -2.9977384 -0.2950457
1.5677148 -4.6872511 -0.34552556
2.3557153 -7.0432639 -0.34575087
4.7139711 -14.094125 -0.34553784
0.30317634 -0.82681143 -0.29753396
0.32828543 -0.89528805 -0.29763648
0.353089 -0.96293139 -0.29411179
0.38884893 -1.0604546 -0.29563153
0.43190193 -1.1778672 -0.29734704
0.47640941 -1.2992463 -0.29415134
0.53401387 -1.4563431 -0.29216304
0.6157732 -1.6793141 -0.29396722
0.72156864 -1.9678357 -0.29455471
0.86585128 -2.3613179 -0.29394323
1.0905704 -2.974164 -0.2956841
1.4539446 -3.9651446 -0.29524902
2.5510674 -6.9571776 -0.34497678
5.11443 -13.947886 -0.3454088
0.32341063 -0.80936748 -0.29447535
0.35197419 -0.88085061 -0.29607296
0.38119602 -0.95398122 -0.29459813
0.41925585 -1.0492297 -0.29573476
0.46018785 -1.1516662 -0.29394564
0.52207375 -1.3065418 -0.29907197
0.57982671 -1.4510744 -0.29432309
0.6690588 -1.6743867 -0.29634377
0.78442633 -1.9631053 -0.29709399
0.93746227 -2.3460932 -0.29527545
1.1738876 -2.9377713 -0.29529369
1.5639886 -3.9140382 -0.29466435
2.7558804 -6.8968668 -0.34576556
5.5091829 -13.787282 -0.34520471
0.34653407 -0.79984629 -0.29450825
0.3831403 -0.88433826 -0.30081716
0.4173044 -0.96319348 -0.30101731
0.44717291 -1.0321339 -0.29441208
0.48934865 -1.1294811 -0.29174751
0.55149806 -1.2729301 -0.29487959
0.62266433 -1.4371912 -0.29501018
0.7189132 -1.6593463 -0.29721099
0.83901501 -1.9365572 -0.29659808
1.0050902 -2.3198807 -0.29548505
1.2528092 -2.8916485 -0.29415038
1.681438 -3.8809803 -0.29568663
2.9522274 -6.8141298 -0.34572279
5.9135127 -13.649166 -0.34585333
0.36854526 -0.78788549 -0.29387757
0.40468159 -0.86513865 -0.298114
0.42996889 -0.91919851 -0.29100448
0.48187113 -1.0301564 -0.29767004
0.53034616 -1.1337876 -0.2966691
0.58702254 -1.2549518 -0.29449615
0.65869081 -1.4081661 -0.2928119
0.76153362 -1.628026 -0.29539394
0.89150828 -1.9058893 -0.29569778
1.0718865 -2.2915065 -0.29566735
1.3363756 -2.8569379 -0.29439956
1.7873883 -3.8211246 -0.29491299
3.1460755 -6.7257605 -0.34567779
6.3023777 -13.473385 -0.34583977
0.3871944 -0.76943606 -0.29102084
0.42694074 -0.84842038 -0.29645306
0.4627049 -0.91949117 -0.29517946
0.51477045 -1.0229564 -0.29973489
0.55970156 -1.1122438 -0.29511333
0.61993408 -1.2319384 -0.29314992
0.71011603 -1.4111488 -0.29754719
0.80316013 -1.5960468 -0.29365277
0.94942093 -1.8866975 -0.29682529
1.1361643 -2.2577956 -0.29540315
1.4288281 -2.8393795 -0.2966935
1.8965906 -3.7689214 -0.2949633
3.3398147 -6.636909 -0.34589487
6.6753092 -13.265232 -0.34527197
0.4124299 -0.76416826 -0.29338434
0.44600165 -0.82637149 -0.29310048
0.48761344 -0.90347171 -0.2944079
0.53929895 -0.99923688 -0.29719737
0.59006923 -1.0933063 -0.29446048
0.65762109 -1.2184694 -0.29431456
0.74331731 -1.3772511 -0.29477629
0.84808201 -1.5713637 -0.29346853
1.0038267 -1.8599344 -0.29702473
1.1979088 -2.2195382 -0.29477417
1.5013908 -2.7818432 -0.29506218
2.3430753 -4.3413529 -0.34488347
3.5278435 -6.5365438 -0.34579825
7.0590224 -13.079268 -0.34556222
0.43780926 -0.75830632 -0.29583576
0.47309205 -0.81941777 -0.29532802
0.50993687 -0.88323474 -0.29246178
0.5643729 -0.97752053 -0.29543403
0.62408525 -1.0809451 -0.2958332
0.69520134 -1.2041216 -0.29554629
0.78540617 -1.3603606 -0.2958636
0.8979699 -1.5553262 -0.29516467
1.0450943 -1.8101526 -0.29374349
1.2620929 -2.1860046 -0.29500949
1.5834215 -2.7425609 -0.29559374
2.4722245 -4.2820096 -0.34566307
3.7093396 -6.4247513 -0.34537351
7.4257421 -12.861736 -0.34530312
0.46165138 -0.74911737 -0.29729712
0.49440318 -0.80226344 -0.29413798
0.53911179 -0.87481165 -0.2946744
0.58925194 -0.9561736 -0.29397213
0.6465776 -1.0491954 -0.29210195
0.72866744 -1.1824018 -0.29522637
0.82378364 -1.336746 -0.29574758
0.94058514 -1.5262787 -0.29465348
1.1024125 -1.7888744 -0.29530293
1.3254948 -2.1508679 -0.29527962
1.6608189 -2.6949954 -0.29548255
2.5900998 -4.2029305 -0.34513772
3.897912 -6.3251052 -0.34588784
7.7924662 -12.644762 -0.3453396
0.4749549 -0.7233876 -0.29237494
0.53045154 -0.80791259 -0.30166626
0.56800544 -0.86510968 -0.29677495
0.62343431 -0.9495315 -0.29730833
0.68681872 -1.0460701 -0.29659724
0.76081783 -1.1587757 -0.29465762
0.85903162 -1.3083618 -0.29480061
0.98370558 -1.4982483 -0.29457086
1.1580777 -1.7638286 -0.29653266
1.39195 -2.1200314 -0.29640827
1.7389674 -2.648562 -0.29574144
2.7139816 -4.1335726 -0.3456957
4.0802999 -6.2145653 -0.34610394
8.1540213 -12.419111 -0.34542558
0.50679028 -0.72561491 -0.29903036
0.54006737 -0.77326059 -0.29439351
0.59332991 -0.8495211 -0.29714623
0.64235789 -0.91971862 -0.29362476
0.71574712 -1.0247962 -0.29626736
0.78788507 -1.1280824 -0.29248196
0.88766646 -1.2709478 -0.29199019
1.019653 -1.4599243 -0.2926687
1.2061896 -1.7270048 -0.29603949
1.450215 -2.0763967 -0.29600447
1.8123271 -2.5948637 -0.29543135
2.8367412 -4.0616045 -0.34634271
4.2384596 -6.0685639 -0.34460512
8.5159178 -12.192966 -0.34579071
0.52422309 -0.70650083 -0.29723075
0.56268615 -0.75833791 -0.29473868
0.60663188 -0.81756401 -0.2919375
0.68062657 -0.91728741 -0.29896143
0.73948127 -0.99660647 -0.29413185
0.82769173 -1.1154886 -0.29525378
0.92705125 -1.2493964 -0.2930305
1.0627775 -1.4323162 -0.29312772
1.2511786 -1.6862262 -0.29508287
1.5130829 -2.0391974 -0.2967695
1.8899057 -2.5470452 -0.29604024
2.937561 -3.9589813 -0.34463856
4.422636 -5.9604321 -0.34552982
8.8543634 -11.933117 -0.34548554
0.54442412 -0.69136226 -0.29731259
0.58059698 -0.73729807 -0.29291663
0.64629155 -0.82072341 -0.29956526
0.68858987 -0.87443787 -0.29131657
0.76914203 -0.97673076 -0.29465902
0.86487782 -1.0983053 -0.29715288
0.96732908 -1.2284077 -0.29449755
1.097751 -1.3940301 -0.29161957
1.2970115 -1.6470703 -0.29462311
1.5509971 -1.9696057 -0.29299879
1.9623979 -2.4920423 -0.29607111
3.0602307 -3.8861761 -0.34580356
4.5969763 -5.8376837 -0.3459194
9.1913176 -11.672021 -0.3454209
0.55006844 -0.65873712 -0.28995171
0.60877198 -0.72903788 -0.29645374
0.66377819 -0.79491085 -0.29697436
0.72165853 -0.86422569 -0.29469267
0.79400325 -0.95086247 -0.29360843
0.88389671 -1.0585148 -0.29312962
0.99798411 -1.1951408 -0.29326761
1.1439279 -1.3699166 -0.29332194
1.341318 -1.6063019 -0.2940951
1.6161633 -1.9354441 -0.29469523
2.3789575 -2.848932 -0.34644046
3.161967 -3.7866292 -0.34487814
4.7653127 -5.7067237 -0.3461203
9.5226002 -11.403836 -0.34542948
0.5767417 -0.65173 -0.29403171
0.63027024 -0.71221828 -0.29684716
0.68183124 -0.77048331 -0.29503715
0.74453235 -0.84133685 -0.29405257
0.83038795 -0.93835545 -0.29698265
0.92659152 -1.0470674 -0.29720107
1.0303164 -1.1642786 -0.29282954
1.1938548 -1.3490804 -0.29607466
1.389905 -1.5706213 -0.29474401
1.6735047 -1.8910947 -0.29513359
2.4509809 -2.7696588 -0.34521186
3.27525 -3.7010999 -0.34550682
4.9176273 -5.5570197 -0.34545788
9.8553829 -11.136785 -0.34576511
0.60072201 -0.64080751 -0.29675955
0.65181184 -0.69530648 -0.29747239
0.70357364 -0.75052226 -0.29500386
0.76666081 -0.81781912 -0.29340196
0.85438746 -0.91139972 -0.29608968
0.94194579 -1.0048007 -0.29275632
1.0668566 -1.1380467 -0.29381144
1.2267609 -1.3086212 -0.29480031
1.4359471 -1.5317661 -0.29506427
1.7303877 -1.8458544 -0.29570147
2.5324044 -2.7013888 -0.34561867
3.3688774 -3.5936785 -0.34436238
5.0811071 -5.4201632 -0.34587261
10.159811 -10.837763 -0.34539151
0.61320513 -0.61761844 -0.2940492
0.66230267 -0.66706932 -0.29340264
0.72755903 -0.73279536 -0.29612118
0.79203063 -0.79773092 -0.29422852
0.88453358 -0.89089966 -0.29755399
0.9884367 -0.99555057 -0.2982032
1.0971172 -1.1050133 -0.29329097
1.2570878 -1.2661352 -0.2932356
1.4794292 -1.4900769 -0.29509068
1.7792133 -1.7920185 -0.29513529
2.6101651 -2.6289508 -0.3457922
3.4825692 -3.5076337 -0.34555194
5.2254014 -5.2630091 -0.34527138
10.46496 -10.540277 -0.34533983
0.62859178 -0.59779716 -0.29308021
0.69063896 -0.65680468 -0.29748303
0.75708818 -0.7199986 -0.29960653
0.82375938 -0.78340358 -0.29754099
0.9017958 -0.85761702 -0.29496011
1.012705 -0.96309274 -0.29706395
1.1428826 -1.086893 -0.2970646
1.3099927 -1.2458163 -0.29711428
1.5125202 -1.4384222 -0.29333648
1.8356625 -1.7457337 -0.2960667
2.6811652 -2.5498154 -0.34536186
3.5775547 -3.4022911 -0.34514648
5.3775039 -5.1140614 -0.34548187
10.776592 -10.24865 -0.34577546
0.64671791 -0.58062899 -0.29364151
0.69968086 -0.62817961 -0.29349172
0.76827824 -0.68976688 -0.29607931
0.8483274 -0.76163572 -0.29839712
0.93659276 -0.84088117 -0.29832566
1.0450827 -0.9382844 -0.29853994
1.1618918 -1.0431566 -0.29410318
1.3221759 -1.1870611 -0.29203081
1.5601574 -1.400723 -0.29465786
1.8840815 -1.6915449 -0.29592466
2.7563362 -2.4746628 -0.34575441
3.6758583 -3.3002179 -0.34535095
5.5253334 -4.9606929 -0.34569073
11.044312 -9.9156799 -0.34509295
0.66063464 -0.55974251 -0.29254627
0.72499746 -0.61427587 -0.29659444
0.78981233 -0.66919219 -0.29685485
0.86094767 -0.7294637 -0.29535109
0.93833274 -0.79503053 -0.29149249
1.0595787 -0.8977598 -0.29519954
1.2017151 -1.0181892 -0.29666495
1.364059 -1.1557399 -0.29383484
1.5922767 -1.3491042 -0.29329106
1.940046 -1.6437621 -0.29718316
2.8202193 -2.3895154 -0.34502384
3.7683921 -3.192883 -0.3452937
5.6639719 -4.7989702 -0.34560582
11.330971 -9.6005049 -0.34529895
0.68557978 -0.54788113 -0.29650789
0.72996575 -0.58335221 -0.29165813
0.79908097 -0.63858569 -0.29332975
0.87810522 -0.70173794 -0.29420733
0.96937251 -0.77467418 -0.29410759
1.0783049 -0.86172742 -0.29340604
1.234123 -0.98624957 -0.29755569
1.3977327 -1.1169983 -0.29406229
1.6396447 -1.3103223 -0.29496816
1.9764814 -1.5795054 -0.29569906
2.8888912 -2.3086579 -0.3451775
3.8579586 -3.0830882 -0.3452512
5.8168516 -4.6485376 -0.34665143
11.600679 -9.2706842 -0.34526822
0.69512326 -0.52355182 -0.29401615
0.745 -0.56111795 -0.29111123
0.82501072 -0.62138027 -0.29618016
0.90076745 -0.6784386 -0.29515535
0.99139112 -0.74669439 -0.29416543
1.1068785 -0.83367705 -0.2945497
1.2448478 -0.93759245 -0.29353312
1.4360436 -1.081597 -0.29547033
1.6863164 -1.270097 -0.29668492
2.3614614 -1.7786018 -0.3455168
2.9661477 -2.2340386 -0.34660527
3.9498444 -2.9749374 -0.3456915
5.9253392 -4.4628377 -0.34534192
11.868184 -8.9388599 -0.34545267
0.71252793 -0.50529063 -0.29512286
0.77021128 -0.54619688 -0.29471627
0.8444339 -0.59883195 -0.29686132
0.90044379 -0.63855153 -0.28892568
1.0264798 -0.72793025 -0.29825562
1.13877 -0.80756098 -0.29674688
1.2773234 -0.90581644 -0.29493973
1.4642167 -1.0383523 -0.29501438
1.7138461 -1.2153773 -0.29527035
2.4094868 -1.7086923 -0.34522673
3.0199237 -2.1415849 -0.34556514
4.0260282 -2.8550658 -0.34504607
6.0563154 -4.294848 -0.34564966
12.122846 -8.59694 -0.34554169
0.7261703 -0.4842698 -0.29489571
0.78294379 -0.52213097 -0.29373372
0.85587621 -0.5707683 -0.29500401
0.93758512 -0.62525845 -0.29496416
1.0349756 -0.69020647 -0.2948474
1.1641028 -0.77631903 -0.29742023
1.31515 -0.87704968 -0.29773968
1.4979008 -0.99892288 -0.29590338
1.7496796 -1.1668295 -0.29555312
2.4575429 -1.6388907 -0.34523115
3.0725608 -2.0490348 -0.34471756
4.1149716 -2.7442 -0.34577706
6.1653004 -4.111527 -0.3449935
12.370392 -8.249589 -0.34570709
0.74286902 -0.46518403 -0.2961337
0.79422575 -0.49734357 -0.29249123
0.87633085 -0.54875773 -0.29650408
0.96665382 -0.60531789 -0.29852119
1.0549682 -0.66062033 -0.29502052
1.177781 -0.73752558 -0.29538563
1.3373895 -0.83747226 -0.29721105
1.5204877 -0.95212829 -0.29484609
1.7838639 -1.1170542 -0.29579061
2.5028868 -1.5673059 -0.34514034
3.1421931 -1.967639 -0.34605208
4.1930127 -2.6256614 -0.34586063
6.2872138 -3.9370487 -0.34535086
12.60035 -7.8903303 -0.34566319
0.75660563 -0.44409198 -0.2964071
0.81095243 -0.47599101 -0.29349974
0.87950188 -0.51622629 -0.29244405
0.96929425 -0.56893021 -0.29417333
1.0710213 -0.62863922 -0.29434347
1.209335 -0.70982289 -0.29806769
1.3533111 -0.79433006 -0.2955617
1.5443273 -0.90644759 -0.29430339
1.807483 -1.0609076 -0.29453734
2.5405283 -1.4911709 -0.34428811
3.1874154 -1.8708632 -0.34497744
4.2627954 -2.5020609 -0.34555161
6.3959856 -3.7541435 -0.34526554
12.810263 -7.5190229 -0.34535995
0.76365352 -0.4192512 -0.29433346
0.82482749 -0.45283616 -0.29369712
0.90158796 -0.49497822 -0.29494321
0.98848915 -0.54268759 -0.2951507
1.0836068 -0.59490788 -0.29298964
1.2101089 -0.66435838 -0.2934384
1.3678344 -0.75095081 -0.29390588
1.5729814 -0.86357796 -0.29491967
1.8501267 -1.0157326 -0.29661411
2.5949488 -1.4246453 -0.34597996
3.2457416 -1.7819351 -0.34561309
4.3339558 -2.3793726 -0.34564248
6.4963155 -3.5665233 -0.3450143
13.025369 -7.1510201 -0.3454842
0.77508318 -0.39702731 -0.29422608
0.84656191 -0.43364146 -0.29688269
0.9082014 -0.46521559 -0.29261866
1.000402 -0.51244426 -0.29419547
1.0900892 -0.55838549 -0.29029003
1.2323173 -0.63124019 -0.29430974
1.4091175 -0.72180396 -0.29820266
1.5983269 -0.81872433 -0.29514495
1.8713765 -0.95859081 -0.29548883
2.6282985 -1.3463151 -0.34513298
3.2922969 -1.6864407 -0.34527475
4.3898416 -2.2486453 -0.34481096
6.6133585 -3.3876157 -0.34592474
13.230069 -6.7769489 -0.34561282
0.79298633 -0.37788567 -0.29678333
0.84136206 -0.40093839 -0.29090422
0.9375121 -0.44675729 -0.29780892
1.0111029 -0.48182589 -0.29315534
1.1314973 -0.53919798 -0.29707396
1.2435333 -0.59258705 -0.29280633
1.4187245 -0.67607182 -0.29600796
1.6173823 -0.77073914 -0.29445803
1.8851962 -0.8983618 -0.29347926
2.6562788 -1.2658097 -0.34389544
3.3489118 -1.5958734 -0.34626654
4.4608936 -2.1257718 -0.34545785
6.6958871 -3.190824 -0.34530959
13.415828 -6.3931103 -0.34553033
0.79251182 -0.35012767 -0.29272467
0.86458838 -0.38197073 -0.29502323
0.94190264 -0.41612777 -0.29528853
1.0414691 -0.46011573 -0.29800844
1.1262883 -0.49758837 -0.29183701
1.2605273 -0.55689448 -0.29292405
1.4378214 -0.63522214 -0.296067
1.6477482 -0.72796673 -0.29606104
1.9097937 -0.84373707 -0.29341823
2.7053537 -1.1952114 -0.3456659
3.3824039 -1.4943286 -0.34515327
4.5134792 -1.9940319 -0.34495649
6.7844343 -2.9973283 -0.34529787
13.588658 -6.0033998 -0.34540215
0.80853069 -0.32981965 -0.29502386
0.87609518 -0.3573809 -0.29532841
0.96442556 -0.39341304 -0.29868701
1.0342735 -0.42190573 -0.29236451
1.1536462 -0.47060081 -0.29530481
1.277783 -0.52123934 -0.29333711
1.4456022 -0.58969688 -0.29406336
1.6627989 -0.67829674 -0.29514623
1.9502159 -0.79554129 -0.29599911
2.7255807 -1.1118318 -0.34403181
3.4332643 -1.4005134 -0.34609941
4.5699172 -1.8641822 -0.3450391
6.8658161 -2.8007362 -0.34520695
13.744117 -5.606565 -0.34512177
0.81974345 -0.30727133 -0.29577586
0.88720322 -0.33255783 -0.29573393
0.9680317 -0.36285546 -0.29645675
1.0517318 -0.3942295 -0.29398045
1.1651419 -0.43673995 -0.2949177
1.3055222 -0.48935986 -0.29635909
1.4715562 -0.55159581 -0.29600096
1.6853315 -0.63172698 -0.29580602
1.9707711 -0.73872072 -0.29577947
2.7700362 -1.038316 -0.34573963
3.4805093 -1.3046285 -0.34694493
4.6193762 -1.7315196 -0.34487954
6.9545403 -2.6068289 -0.3457641
13.913409 -5.2152801 -0.34547231
0.83580089 -0.28622532 -0.29848295
0.89081812 -0.30506632 -0.29389963
0.97282177 -0.33314899 -0.29487434
1.0666542 -0.36528251 -0.29509985
1.1668768 -0.39960438 -0.29233375
1.3109221 -0.4489336 -0.294539
1.4748651 -0.50507689 -0.29363003
1.7101523 -0.58565247 -0.29709023
1.9803853 -0.67819554 -0.29418021
2.8056746 -0.96082109 -0.34660348
3.5074437 -1.2011464 -0.34605125
4.6732521 -1.6003848 -0.34533074
7.0255036 -2.4059284 -0.3457171
14.04164 -4.8086486 -0.34508765
0.85114551 -0.26445481 -0.30112854
0.8997857 -0.27956754 -0.29409015
0.98048586 -0.30464146 -0.2944262
1.0720977 -0.33310565 -0.29384011
1.1892123 -0.36949372 -0.29515132
1.3225118 -0.41091049 -0.29437226
1.4948345 -0.46445197 -0.29483071
1.7148889 -0.53282386 -0.2951352
2.3579369 -0.73262185 -0.3469983
2.8188238 -0.87582153 -0.34498084
3.5421746 -1.1005698 -0.34621912
4.7188554 -1.46617 -0.34544915
7.0857563 -2.2015769 -0.34543076
14.190092 -4.4089265 -0.34548423
0.85304201 -0.23843724 -0.2992554
0.90185517 -0.25208122 -0.29228175
0.99320632 -0.27761513 -0.29573181
1.0859826 -0.30354741 -0.2951366
1.1982453 -0.33492643 -0.29488629
1.3405946 -0.37471503 -0.29588181
1.4888293 -0.41614869 -0.2911709
1.7312983 -0.48392224 -0.29544756
2.3545978 -0.65814322 -0.34358597
2.8392129 -0.7935999 -0.344547
3.5674012 -0.9971388 -0.3457455
4.756238 -1.3294353 -0.34525064
7.1426392 -1.9964681 -0.34526852
14.308661 -3.9994719 -0.34543431
0.84516132 -0.21029299 -0.29425249
0.9207052 -0.22908983 -0.2961382
0.99652618 -0.24795559 -0.29448029
1.0844433 -0.26983115 -0.29249337
1.2005602 -0.29872334 -0.2932255
1.33452 -0.33205518 -0.29231751
1.5261321 -0.37973213 -0.29621303
1.7403895 -0.43304363 -0.29475683
2.3969686 -0.59641361 -0.34712824
2.8520532 -0.70964772 -0.34349233
3.5902312 -0.8933211 -0.34533128
4.7972274 -1.1936458 -0.34559718
7.2038527 -1.7924622 -0.34559867
14.427398 -3.5898244 -0.34567139
0.86491501 -0.18903676 -0.29911801
0.9245981 -0.20208116 -0.29540336
1.0155737 -0.22196488 -0.29810387
1.1084154 -0.24225646 -0.29696161
1.2190814 -0.26644373 -0.29575977
1.3443602 -0.29382482 -0.2925055
1.5326551 -0.33497876 -0.29549158
1.7586209 -0.38436607 -0.29585454
2.4009638 -0.52475727 -0.3453837
2.9010272 -0.63405162 -0.34705624
3.6130202 -0.78966558 -0.3452014
4.8248119 -1.0545161 -0.34526211
7.2523603 -1.5850836 -0.3456012
14.514615 -3.1723299 -0.34543756
0.85821074 -0.16192672 -0.29507089
0.92585248 -0.17468932 -0.29408136
1.0187125 -0.19221009 -0.29728368
1.1103526 -0.2095007 -0.29574808
1.2339282 -0.23281686 -0.29761824
1.3647636 -0.25750282 -0.29521543
1.5280648 -0.2883144 -0.29289076
1.7675554 -0.33350134 -0.29562581
2.4081755 -0.45437318 -0.34440354
2.9113472 -0.54931134 -0.3462624
3.6432385 -0.68740416 -0.34606129
4.8564219 -0.91630697 -0.34550011
7.2794843 -1.3734889 -0.34487343
14.600642 -2.7548409 -0.34546119
0.85761797 -0.13646387 -0.29339978
0.92618817 -0.14737473 -0.29272407
1.0224643 -0.16269414 -0.29689375
1.1127342 -0.17705788 -0.2949076
1.2101409 -0.19255719 -0.2904284
1.3664197 -0.2174242 -0.29410285
1.5490444 -0.24648339 -0.29543453
1.7753247 -0.28248903 -0.29544768
2.4142904 -0.38416103 -0.34355992
2.9112206 -0.46323237 -0.34452438
3.6564736 -0.58181679 -0.34559014
4.8694482 -0.77482486 -0.34470296
7.3164501 -1.1641909 -0.34489986
14.672849 -2.3347383 -0.34544209
0.86874872 -0.11278842 -0.29597852
0.91780925 -0.11915788 -0.28887618
1.0113211 -0.13129839 -0.29244357
1.1415406 -0.14820461 -0.30129087
1.2427796 -0.16134833 -0.29702801
1.360963 -0.1766919 -0.29171687
1.5563087 -0.20205337 -0.2955924
1.7894969 -0.23232786 -0.29657453
2.4487183 -0.31791365 -0.34701794
2.9325864 -0.38073355 -0.34561753
3.6658497 -0.47593209 -0.34504333
4.9000597 -0.63616782 -0.34543532
7.3682523 -0.95660979 -0.34590527
14.730308 -1.912415 -0.34536055
0.88013214 -0.088677712 -0.29886672
0.94367129 -0.095079601 -0.29603544
1.0282414 -0.10360046 -0.29635465
1.1270427 -0.11355518 -0.29648221
1.2255592 -0.12348121 -0.29194513
1.3600134 -0.13702814 -0.2905508
1.5601804 -0.15719597 -0.29534933
1.7900478 -0.18035626 -0.29568627
2.439013 -0.24574275 -0.34450129
2.9331913 -0.29553369 -0.34454739
3.6879835 -0.37158278 -0.34598053
4.9219193 -0.49590799 -0.34583068
7.3925214 -0.74483347 -0.34589872
14.775464 -1.4887018 -0.34527543
0.88155353 -0.063338786 -0.2986092
0.93221647 -0.066978872 -0.29171887
1.03019 -0.074018173 -0.2961821
1.1221285 -0.080623873 -0.29445958
1.1305553 -0.081229322 -0.26864794
1.3818527 -0.099284813 -0.29448658
1.5608618 -0.11214644 -0.29474771
1.7887915 -0.12852298 -0.29474816
2.452477 -0.17620814 -0.34554648
2.9456596 -0.21164285 -0.34515643
3.6819403 -0.26454392 -0.34455949
4.9364982 -0.35468271 -0.34599739
7.4100389 -0.5324043 -0.34586108
14.815126 -1.0644528 -0.34534624
0.88372642 -0.038055085 -0.29885224
0.93222708 -0.040143624 -0.29124179
1.0247042 -0.044125885 -0.29411978
1.1232469 -0.048369333 -0.29426765
1.128415 -0.048591882 -0.26769778
1.3738221 -0.059159622 -0.29229301
1.5678424 -0.067514531 -0.29557833
1.8012729 -0.077566534 -0.29631597
2.4384422 -0.10500436 -0.34300324
2.9644148 -0.12765384 -0.34678203
3.7000811 -0.15933314 -0.34568691
4.9464726 -0.21300535 -0.34612554
7.4244199 -0.31971085 -0.3459616
14.840615 -0.63906759 -0.34537071
0.86063701 -0.012346823 -0.29080448
0.94106102 -0.013500597 -0.29375967
1.0323302 -0.014809957 -0.29606473
1.1232805 -0.016114745 -0.29403427
1.1290693 -0.016197791 -0.26763257
1.1326449 -0.016249087 -0.24078204
1.1237878 -0.016122023 -0.21168832
1.1249484 -0.016138671 -0.18490581
1.1238055 -0.016122276 -0.15794989
1.1226701 -0.016105987 -0.13122366
1.1269863 -0.016167907 -0.10520411
1.1239145 -0.016123839 -0.078580305
1.1394273 -0.016346388 -0.053051099
1.1323088 -0.016244266 -0.026329396
1.1337165 -0.016264459 3.2369109e-05
1.1377859 -0.01632284 0.026521759
1.126953 -0.01616743 0.0525348
1.1230614 -0.016111601 0.078585111
1.1367794 -0.016308401 0.10618378
1.1318889 -0.016238241 0.13236672
1.1244466 -0.016131472 0.15810546
1.0173776 -0.014595446 0.16728427
0.87613118 0.012569104 -0.29603988
0.93731397 0.013446841 -0.29258999
1.0320958 0.014806594 -0.29599753
1.1106946 0.015934184 -0.29073972
1.1333898 0.016259775 -0.2686567
1.1326352 0.016248949 -0.24077998
1.128356 0.016187558 -0.21254882
1.1252451 0.016142929 -0.18495458
1.1384053 0.016331727 -0.16000187
1.1279103 0.016181163 -0.13183616
1.1217816 0.016093239 -0.10471825
1.1362053 0.016300166 -0.07943964
1.1300138 0.016211342 -0.052612819
1.1420474 0.016383976 -0.026555844
1.1310506 0.016226213 3.2292992e-05
1.1320702 0.016240843 0.026388526
1.1269497 0.016167382 0.052534644
1.1277543 0.016178926 0.078913487
1.117309 0.016029075 0.1043651
1.1285707 0.016190637 0.13197868
1.1346619 0.016278023 0.15954182
1.0129395 0.014531775 0.16655451
0.85947132 0.03701061 -0.29064983
0.93967199 0.040464219 -0.29356769
1.0376453 0.044683151 -0.29783425
1.1273824 0.048547417 -0.29535109
1.1215522 0.048296358 -0.26606971
1.3923635 0.059958052 -0.29623786
1.5569712 0.067046396 -0.29352883
1.7933526 0.077225469 -0.29501307
2.4579353 0.10584377 -0.34574524
2.9604607 0.12748356 -0.34631947
3.7087488 0.15970638 -0.3464967
4.9314079 0.21235661 -0.34507141
7.4148526 0.31929889 -0.34551582
14.853412 0.63961864 -0.34566849
0.86351109 0.062042456 -0.29249766
0.94650012 0.068005137 -0.29618868
1.0120114 0.072712064 -0.29095572
1.1188154 0.080385827 -0.29359019
1.1255839 0.080872133 -0.26746663
1.3867402 0.099635974 -0.29552811
1.5700341 0.11280546 -0.29647976
1.7994286 0.12928724 -0.29650089
2.4420686 0.17546031 -0.34408
2.9476228 0.21178392 -0.34538648
3.699415 0.26579946 -0.3461948
4.9242516 0.35380283 -0.34513906
7.4010968 0.53176177 -0.3454437
14.815026 1.0644456 -0.34534392
0.8746686 0.088127233 -0.29701146
0.92974269 0.093676217 -0.29166594
1.0305364 0.10383169 -0.29701611
1.114342 0.11227552 -0.29314113
1.2292218 0.12385024 -0.29281759
1.3907958 0.14012964 -0.29712713
1.5723062 0.1584177 -0.29764476
1.788027 0.18015265 -0.29535249
2.4431596 0.24616055 -0.34508699
2.9380419 0.29602242 -0.34511718
3.6952436 0.37231427 -0.3466616
4.8950567 0.49320143 -0.34394321
7.3959007 0.74517393 -0.34605685
14.805298 1.4917078 -0.34597263
0.87494177 0.11359245 -0.29808846
0.9322269 0.1210297 -0.29341406
1.0247185 0.13303776 -0.2963177
1.1229722 0.1457939 -0.29639006
1.232671 0.16003594 -0.29461202
1.3691691 0.17775729 -0.29347581
1.5629941 0.20292133 -0.29686216
1.7796165 0.2310451 -0.29493704
2.4168887 0.31378123 -0.34250721
2.9369793 0.38130388 -0.34613523
3.6813164 0.47794011 -0.34649912
4.8900337 0.63486618 -0.3447285
7.3605828 0.95561409 -0.34554523
14.736814 1.9132599 -0.34551311
0.87778294 0.1396725 -0.30029842
0.93588465 0.14891763 -0.29578868
1.0115386 0.16095567 -0.29372126
1.1069746 0.1761414 -0.29338112
1.2369115 0.19681692 -0.29685324
1.3664035 0.21742164 -0.29409939
1.5399703 0.24503952 -0.29370394
1.7793717 0.28313297 -0.29612118
2.4174252 0.3846598 -0.344006
2.9069297 0.46254963 -0.34401658
3.6736238 0.58454573 -0.34721109
4.8853364 0.77735299 -0.34582767
7.3221722 1.1651014 -0.3451696
14.664917 2.3334763 -0.34525537
0.85334343 0.16100836 -0.2933974
0.92956609 0.17538999 -0.29526091
1.0043747 0.18950486 -0.29309958
1.1084524 0.20914218 -0.29524195
1.2198832 0.23016687 -0.29423064
1.3646133 0.25747445 -0.29518291
1.4304409 0.26989478 -0.27417877
1.4186212 0.26766464 -0.23726612
1.4170104 0.26736072 -0.20265275
1.4265887 0.26916793 -0.16967197
1.4179655 0.2675409 -0.13468866
1.4283314 0.26949674 -0.10161568
7.2814608 1.3738618 -0.34496707
14.600573 2.7548277 -0.34545955
0.83694071 0.18292266 -0.28944352
0.92395842 0.20194136 -0.29519901
1.0078342 0.22027333 -0.29583207
1.0962923 0.23960681 -0.29371363
1.206697 0.26373699 -0.29275522
1.2220206 0.26708615 -0.26588687
1.2365847 0.27026927 -0.23841003
1.2265794 0.26808253 -0.20634869
1.2326974 0.26941967 -0.17732611
1.2304637 0.26893148 -0.14720307
1.2249624 0.2677291 -0.11703747
1.3285866 0.29037732 -0.09507326
7.2486835 1.58428 -0.34542599
14.526728 3.1749771 -0.34572583
0.85319853 0.21229282 -0.29705074
0.92704183 0.2306665 -0.29817632
1.007952 0.25079855 -0.29785669
1.0880754 0.27073485 -0.29347298
1.2218438 0.30401909 -0.2984238
1.2020878 0.29910341 -0.26330912
1.2087933 0.30077189 -0.23461948
1.2029903 0.299328 -0.20374152
1.1892785 0.29591623 -0.17223094
1.2164686 0.30268165 -0.14650767
1.2025673 0.29922274 -0.11567058
1.3184495 0.32805651 -0.094982453
7.2048554 1.7927117 -0.34564677
14.395926 3.5819936 -0.34491733
0.85178208 0.23808506 -0.2988134
0.91143501 0.25475889 -0.29538646
1.0122796 0.28294638 -0.30141097
1.0728751 0.29988369 -0.29157442
1.1964023 0.33441126 -0.29443273
1.2221005 0.34159428 -0.26972908
1.2104237 0.33833045 -0.23672302
1.2045765 0.33669606 -0.205562
1.1987823 0.33507651 -0.17492786
1.2090703 0.33795217 -0.1467243
1.2107209 0.33841351 -0.11734068
1.3057536 0.3649765 -0.094783373
7.1503873 1.9986337 -0.34564307
14.327228 4.0046616 -0.34588253
0.84532392 0.26264602 -0.2990689
0.90519011 0.28124672 -0.29585657
0.99845213 0.31022364 -0.2998212
1.0964924 0.34068522 -0.3005262
1.2001667 0.3728973 -0.2978701
1.2116268 0.37645799 -0.26969084
1.2049127 0.37437192 -0.23764856
1.205709 0.37461933 -0.2075045
1.2071623 0.37507087 -0.17764822
1.1960908 0.37163091 -0.14638318
1.2113421 0.37636954 -0.11839896
1.2884145 0.4003163 -0.094319843
7.0875192 2.2021246 -0.34551671
14.180883 4.4060655 -0.34526002
0.81289047 0.2783795 -0.29030111
0.88794374 0.30408198 -0.29295132
0.9815141 0.33612573 -0.2975091
1.0623959 0.36382425 -0.29392174
1.1797638 0.4040176 -0.29556227
1.2120132 0.41506162 -0.27231607
1.2006413 0.41116723 -0.239035
1.2060125 0.41300663 -0.20951031
1.2005661 0.41114146 -0.17834044
1.1836334 0.40534279 -0.14622204
1.2091218 0.41407144 -0.11929432
1.2661824 0.4336122 -0.093564764
7.0234876 2.4052379 -0.34561789
14.057702 4.8141494 -0.34548238
0.81781566 0.30654871 -0.29508027
0.89799482 0.33660296 -0.29933113
0.96426207 0.36144245 -0.2953023
1.0494677 0.39338082 -0.29334757
1.1593101 0.43455395 -0.29344156
1.2029232 0.45090184 -0.2730687
1.2106338 0.45379201 -0.24351685
1.2072173 0.45251146 -0.21188837
1.2012837 0.45028725 -0.1802924
1.2005343 0.4500064 -0.14984363
1.1961235 0.44835302 -0.11923226
1.2645237 0.47399208 -0.094408505
6.9500847 2.6051588 -0.34554258
13.90822 5.213335 -0.34534344
0.80467224 0.3282457 -0.29361597
0.87392056 0.3564938 -0.29459533
0.93777925 0.38254336 -0.29043454
1.0558554 0.43070951 -0.29846519
1.1541623 0.47081134 -0.29543692
1.2090316 0.49319389 -0.27755401
1.2133703 0.49496374 -0.24682291
1.204093 0.49117929 -0.21372609
1.2064506 0.49214104 -0.18311219
1.2064693 0.49214867 -0.15228455
1.2094452 0.49336264 -0.12192138
1.2493128 0.50962555 -0.094325945
6.8634324 2.7997637 -0.34508708
13.762737 5.6141605 -0.34558934
0.79554981 0.35146984 -0.29384679
0.87309396 0.38572845 -0.29792562
0.93505764 0.4131037 -0.29314262
1.0373907 0.45831391 -0.29684144
1.1330982 0.500597 -0.29360157
1.2051104 0.53241163 -0.28004616
1.209036 0.53414589 -0.24895695
1.2221255 0.53992879 -0.21958682
1.2009412 0.53056967 -0.18451104
1.1955031 0.52816713 -0.15275069
1.2071407 0.53330863 -0.12318121
1.2363513 0.54621369 -0.094491944
6.7827816 2.9965982 -0.34521377
13.578026 5.9987025 -0.34513187
0.78002852 0.37171084 -0.29193375
0.85833323 0.40902576 -0.29677206
0.94129789 0.44856134 -0.2990115
1.0196528 0.48590022 -0.29563427
1.1193167 0.5333935 -0.29387596
1.2458018 0.5936681 -0.29334047
1.3927413 0.66368991 -0.29058674
1.6203846 0.77216989 -0.29500461
1.9080255 0.90924078 -0.29703325
2.6767929 1.2755853 -0.34655127
3.3391538 1.5912235 -0.34525758
4.4546175 2.1227808 -0.34497181
6.6901684 3.1880989 -0.34501466
13.40843 6.389585 -0.3453398
0.77879381 0.39892805 -0.29563466
0.84810001 0.43442935 -0.29742208
0.91991901 0.47121781 -0.29639402
1.010131 0.5174278 -0.29705656
1.1047996 0.56592071 -0.29420739
1.220994 0.62543994 -0.29160541
1.3898529 0.71193594 -0.29412585
1.6073028 0.82332212 -0.2968024
1.8806816 0.96335721 -0.29695812
2.622993 1.3435977 -0.34443629
3.3077033 1.6943325 -0.34689048
4.396431 2.2520204 -0.34532851
6.604425 3.3830395 -0.34545743
13.232233 6.7780571 -0.34566936
0.76438165 0.41965094 -0.29461408
0.82207346 0.45132416 -0.29271647
0.91007811 0.49963933 -0.29772064
0.98220474 0.53923738 -0.29327422
1.0938617 0.6005379 -0.29576239
1.2211837 0.67043853 -0.29612392
1.2714974 0.69806111 -0.273206
1.2770662 0.70111847 -0.23943828
1.8474531 1.0142649 -0.29618549
2.5867357 1.4201363 -0.34488496
3.2436671 1.7807963 -0.34539223
4.3493438 2.3878207 -0.34686971
6.4967914 3.5667846 -0.34503958
13.026597 7.1516943 -0.34551677
0.75703686 0.44434509 -0.29657605
0.80016088 0.46965685 -0.28959405
0.87798089 0.51533353 -0.2919383
0.97528416 0.57244605 -0.29599121
1.0705065 0.62833703 -0.29420197
1.121928 0.65851903 -0.27652425
1.1889454 0.69785511 -0.25966442
1.2305841 0.72229511 -0.23451318
1.8052291 1.0595847 -0.29417002
2.5432374 1.492761 -0.34465525
3.1806378 1.8668851 -0.34424388
4.2735157 2.5083532 -0.34642062
6.4043546 3.7590554 -0.34571728
12.824326 7.5272765 -0.34573907
0.7466765 0.46756828 -0.2976515
0.79921395 0.50046718 -0.29432824
0.87571537 0.54837233 -0.29629585
0.96639788 0.60515761 -0.29844216
1.0539553 0.65998602 -0.29473725
1.1156397 0.69861275 -0.27980068
1.1449293 0.71695387 -0.25444022
1.2123102 0.7591477 -0.23508571
1.7822199 1.1160247 -0.29551801
2.5116985 1.5728238 -0.34635544
3.1375515 1.9647324 -0.34554091
4.1912494 2.6245573 -0.34571519
6.2850518 3.9356947 -0.3452321
12.589643 7.883625 -0.34536943
0.73030049 0.48702413 -0.29657295
0.78074056 0.52066171 -0.29290715
0.85852629 0.57253557 -0.29591742
0.94096571 0.62751293 -0.29602769
1.0476152 0.69863558 -0.29844823
1.1079195 0.73885131 -0.28306577
1.1381277 0.75899667 -0.25766322
1.123816 0.74945253 -0.22200465
1.1312963 0.75444096 -0.19109678
1.1381006 0.75897866 -0.15987831
1.1331509 0.75567782 -0.12713078
1.127782 0.75209737 -0.094766423
1.1104759 0.74055624 -0.062139221
1.1261981 0.751041 -0.031473108
1.1178761 0.74549127 3.8359136e-05
1.1399755 0.76022899 0.031936415
1.1231817 0.74902946 0.062927447
1.0685394 0.7125895 0.089862011
1.1303723 0.75382477 0.12689729
1.1311498 0.75434321 0.15898055
0.72174233 0.51182503 -0.29893938
0.77098912 0.54674852 -0.2950139
0.83896464 0.59495342 -0.29493859
0.93261135 0.66136318 -0.29924729
1.0172268 0.72136837 -0.29556701
1.1131927 0.78942287 -0.29008183
1.1562394 0.81994945 -0.26698089
1.4628071 1.0373526 -0.29473037
1.706853 1.2104182 -0.29406554
2.4068892 1.7068503 -0.34485456
3.0200913 2.1417036 -0.3455843
4.0227094 2.8527122 -0.34476164
6.0515327 4.2914567 -0.3453767
12.127951 8.6005611 -0.34568718
1.038535 0.73647922 0.089079492
1.0153509 0.72003812 0.1162567
1.0179846 0.72190583 0.14592715
1.0744723 0.76196414 0.18519238
0.7039147 0.53017336 -0.29773468
0.76748586 0.57805377 -0.29989764
0.83201647 0.62665683 -0.29869524
0.8720094 0.65677863 -0.28573218
0.99669772 0.75069124 -0.29574001
1.102922 0.830697 -0.29349682
1.2528356 0.94360876 -0.29541665
1.4288051 1.0761452 -0.29398102
1.6776338 1.2635576 -0.29515734
2.3664639 1.7823695 -0.34624872
2.9501972 2.2220249 -0.34474137
3.9578683 2.9809809 -0.34639376
5.9335804 4.4690447 -0.34582224
11.860923 8.9333906 -0.34524131
0.992145 0.74726224 0.057895485
0.98143381 0.73919475 0.085965864
0.9744581 0.73394084 0.11393927
0.98378813 0.74096799 0.14401406
0.9957062 0.74994439 0.17525384
1.0222553 0.76994067 0.2104072
1.0198084 0.76809764 0.24054468
0.6778838 0.54173088 -0.29317945
0.7349394 0.58732694 -0.29364535
0.80432773 0.64277858 -0.29525572
0.87668169 0.70060027 -0.29373035
0.9770698 0.78082544 -0.29644296
1.0945257 0.87469041 -0.29781976
1.2211939 0.97591728 -0.29443839
1.3966987 1.116172 -0.29384473
1.6454027 1.3149238 -0.29600397
1.9726452 1.5764396 -0.29512513
2.8828893 2.3038614 -0.34446037
3.8561053 3.0816071 -0.34508535
5.8043256 4.6385279 -0.34590495
11.59349 9.2649393 -0.34505424
0.94606602 0.7560488 0.17026551
0.97845364 0.78193134 0.20592561
0.96775407 0.77338076 0.2334055
0.6647864 0.5632602 -0.29438478
0.71743512 0.60786837 -0.29350069
0.78087777 0.66162211 -0.29349676
0.85683799 0.72598165 -0.29394126
0.87861413 0.74443215 -0.27294093
0.88726753 0.751764 -0.2471935
0.87055176 0.7376011 -0.21491134
0.90041763 0.76290584 -0.19396086
0.88685429 0.75141388 -0.16335505
0.88571972 0.75045258 -0.1356777
0.88402003 0.74901247 -0.10815045
0.8906585 0.75463712 -0.081610084
0.89122444 0.75511664 -0.054380979
0.88911825 0.75333208 -0.027094906
0.88584799 0.75056124 3.3146494e-05
0.88534999 0.7501393 0.027046364
0.8828038 0.74798197 0.053933375
0.9038353 0.76580155 0.082885422
0.88271689 0.74790835 0.10805766
0.89208925 0.75584936 0.13672107
0.88876414 0.75303209 0.16377467
0.94194198 0.79808855 0.2029781
0.9300577 0.7880193 0.22967352
0.64896315 0.58264482 -0.29466096
0.70707977 0.63482243 -0.29659531
0.75874609 0.68120891 -0.29240581
0.83810264 0.75245589 -0.29480061
0.8728947 0.78369254 -0.27803642
1.0271147 0.92215264 -0.2934072
1.1604543 1.0418661 -0.29373932
1.3310361 1.1950158 -0.29398778
1.5562419 1.3972075 -0.29391834
1.8764433 1.6846871 -0.29472494
2.7547314 2.473222 -0.3455531
3.6799018 3.303848 -0.34573084
5.5193763 4.9553442 -0.34531802
11.054645 9.9249573 -0.34541583
0.63047421 0.59958744 -0.29395792
0.67981076 0.64650697 -0.2928189
0.7511487 0.71435004 -0.29725608
0.81297779 0.77315021 -0.29364669
0.87635922 0.83342654 -0.28664029
1.0082616 0.95886701 -0.29576054
1.093665 1.0400866 -0.28427169
1.1038008 1.0497258 -0.25034875
1.5171345 1.4428104 -0.29423138
1.8329158 1.7431215 -0.29562369
2.6776412 2.5464642 -0.34490794
3.5858505 3.4101803 -0.34594682
5.3763847 5.1129966 -0.34540996
10.766243 10.238807 -0.3454434
0.61593682 0.62036973 -0.2953591
0.65944129 0.66418737 -0.29213503
0.73155624 0.73682135 -0.29774806
0.78539479 0.79104733 -0.29176342
0.86727327 0.87351507 -0.29174769
0.97755003 0.98458552 -0.29491878
1.0838538 1.0916544 -0.2897453
1.1020931 1.110025 -0.25708064
1.4709129 1.4814993 -0.293392
1.7799447 1.792755 -0.29525661
2.6055925 2.6243453 -0.34518641
3.4781952 3.5032279 -0.34511793
5.2243447 5.2619448 -0.34520155
10.46015 10.535432 -0.34518111
0.59756964 0.63744473 -0.29520226
0.64257818 0.68545669 -0.29325837
0.70506692 0.75211519 -0.29562998
0.75758892 0.80814189 -0.28993014
0.85244602 0.9093287 -0.29541686
0.96207529 1.0262734 -0.29901254
1.0411079 1.1105797 -0.28672025
1.0976076 1.1708497 -0.26376379
1.0970356 1.1702394 -0.22542337
1.7289379 1.8443078 -0.2954537
2.5303073 2.6991518 -0.34533244
3.3830616 3.6088092 -0.34581226
5.0662103 5.4042721 -0.34485859
10.156285 10.834002 -0.34527165
0.58149427 0.65710044 -0.29645464
0.62459749 0.70580798 -0.29417539
0.67621601 0.76413798 -0.29260737
0.74362206 0.84030819 -0.29369307
0.82843012 0.93614304 -0.29628247
0.91683733 1.036045 -0.29407242
1.0071622 1.138114 -0.2862488
1.068472 1.2073954 -0.26497987
1.1065639 1.2504399 -0.23465854
1.6828213 1.9016225 -0.29677665
2.4597669 2.779587 -0.34644932
3.2645197 3.6889741 -0.34437487
4.9210734 5.560914 -0.34569997
9.8505087 11.131276 -0.34559411
0.56367636 0.67503339 -0.29712474
0.60165083 0.72050989 -0.29298595
0.6641537 0.79536051 -0.29714236
0.71960956 0.86177194 -0.29385597
0.79410696 0.95098668 -0.29364675
0.8985585 1.0760732 -0.29799196
0.89275527 1.0691235 -0.26234505
1.0201946 1.2217391 -0.26159468
1.0877593 1.3026514 -0.23850025
1.1104366 1.3298088 -0.20247978
2.3712471 2.8396986 -0.34531766
3.1702485 3.7965467 -0.34578139
4.763608 5.7046824 -0.3459965
9.5276394 11.409871 -0.34561229
0.54293692 0.68947369 -0.29650041
0.57402307 0.72894984 -0.28959998
0.63013893 0.80021125 -0.29207829
0.69344753 0.88060659 -0.29337168
0.76478601 0.9711991 -0.29299024
0.86127967 1.0937359 -0.29591662
0.89397514 1.1352558 -0.27216536
0.89510798 1.1366944 -0.23778708
1.0364228 1.3161497 -0.23542902
1.0934165 1.3885256 -0.20655726
1.0951287 1.3907 -0.16522436
3.0587847 3.88434 -0.34564018
4.58741 5.8255358 -0.34519953
9.1936111 11.674933 -0.34550709
0.52328718 0.70523947 -0.29670012
0.56413853 0.76029527 -0.29549944
0.62242377 0.83884692 -0.29953724
0.6687398 0.90126753 -0.29374021
0.73389608 0.9890793 -0.29191032
0.82888293 1.117094 -0.2956787
0.9048813 1.2195178 -0.28602284
0.88172948 1.1883159 -0.24319233
0.98361754 1.3256315 -0.23198022
1.0483563 1.4128804 -0.20562004
1.0887935 1.4673781 -0.17055173
1.0984851 1.4804397 -0.12887573
4.4216447 5.959096 -0.34545237
8.8428602 11.917614 -0.34503672
0.5036338 0.7210955 -0.29716787
0.54605657 0.78183579 -0.29765823
0.5797745 0.8301127 -0.29035756
0.64494401 0.92342138 -0.29480687
0.71403778 1.0223489 -0.29555985
0.79538691 1.1388234 -0.29526684
0.89335066 1.2790865 -0.29385999
0.89674497 1.2839463 -0.25739068
0.89689696 1.284164 -0.22012867
0.98687065 1.412987 -0.20143093
1.0489913 1.5019305 -0.17099833
1.0979313 1.5720019 -0.13404836
1.100757 1.5760478 -0.089496315
8.503643 12.175391 -0.3452923
0.47986558 0.73086691 -0.29539788
0.51319963 0.78163683 -0.29185516
0.56576896 0.8617034 -0.29560643
0.61352372 0.93443698 -0.29258206
0.67570496 1.0291431 -0.29179785
0.75907201 1.1561166 -0.29398146
0.85331351 1.2996526 -0.29283828
0.98367679 1.4982045 -0.29456222
0.90010738 1.3709228 -0.23047782
0.89388901 1.3614517 -0.19034885
0.99338496 1.5129907 -0.16894227
1.0472691 1.5950599 -0.1333968
1.106038 1.6845686 -0.093817636
1.1121606 1.6938937 -0.047114015
0.45853209 0.74405575 -0.29528832
0.49920234 0.81005096 -0.29699317
0.54134977 0.87844312 -0.29589763
0.58517623 0.94955999 -0.29193881
0.65467358 1.0623326 -0.29575944
0.73301184 1.1894515 -0.29698655
0.82519126 1.33903 -0.29625294
0.94379169 1.5314819 -0.29565796
1.1084442 1.7986621 -0.29691866
0.90276474 1.4649079 -0.20110834
0.89512205 1.4525061 -0.15925454
0.9860639 1.6000766 -0.13139564
1.0522379 1.7074565 -0.093372114
1.1000819 1.7850925 -0.048752453
0.42640689 0.73855692 -0.28813097
0.47849399 0.82877421 -0.29870018
0.5173834 0.89613247 -0.29673257
0.56232631 0.97397578 -0.29436269
0.62195015 1.077247 -0.29482108
0.68643486 1.1889377 -0.29181948
0.774149 1.3408626 -0.291623
0.89110422 1.5434346 -0.29290792
1.0558594 1.8287984 -0.29676923
1.2624627 2.1866453 -0.29509592
0.90060312 1.5598872 -0.16812494
0.89004171 1.5415943 -0.12444442
0.99617034 1.725414 -0.092752583
1.0591539 1.8345046 -0.049251523
1.0976853 1.9012429 6.2674197e-05
0.41884723 0.77605861 -0.29794934
0.44850707 0.83101368 -0.29474699
0.48878041 0.90563387 -0.29511249
0.52946126 0.98100919 -0.29177603
0.59117168 1.095349 -0.29501063
0.65754217 1.2183231 -0.29427922
0.74389279 1.3783174 -0.29500449
0.85763019 1.5890549 -0.29677254
0.99420041 1.8420984 -0.29417637
1.2003462 2.2240546 -0.29537401
1.2909461 2.391922 -0.25370434
0.89292353 1.6544482 -0.13143179
0.89548045 1.6591858 -0.087774754
0.99149299 1.8370819 -0.048536822
1.0642128 1.9718204 6.3967658e-05
1.0948102 2.0285127 0.053726226
0.39116088 0.7773183 -0.29400212
0.4255394 0.84563565 -0.29548004
0.46287483 0.91982889 -0.29528788
0.50045216 0.99450296 -0.29139781
0.56220967 1.1172279 -0.29643577
0.6222384 1.2365175 -0.29423958
0.7017861 1.3945955 -0.29405686
0.80675572 1.603192 -0.29496738
0.94440567 1.8767312 -0.29525733
1.1327293 2.2509696 -0.29451007
1.2481602 2.4803548 -0.25917813
1.2421559 2.4684229 -0.19318372
0.90580398 1.8000215 -0.093811482
0.88564622 1.7599639 -0.045808941
0.98428625 1.9559822 6.2511746e-05
1.0651886 2.1167521 0.055230919
1.1002622 2.1864507 0.11409101
0.37164482 0.7945118 -0.29634917
0.40332121 0.86223042 -0.29711184
0.43522877 0.93044323 -0.29456437
0.47077939 1.0064442 -0.29081827
0.52730632 1.1272889 -0.29496863
0.58647114 1.253773 -0.29421952
0.66274977 1.4168434 -0.29461625
0.75811613 1.62072 -0.29406831
0.89669144 1.9169699 -0.29741696
1.0727825 2.2934217 -0.29591447
1.3356844 2.8554604 -0.2942473
1.7900487 3.8268118 -0.29535192
3.1506078 6.7354498 -0.34617576
0.90462458 1.9339296 -0.049640816
0.88828605 1.8990006 5.9851307e-05
0.99011922 2.1167023 0.054465789
1.1040858 2.360343 0.1214615
0.3436538 0.79319823 -0.29206041
0.37314156 0.86125982 -0.29296681
0.40342444 0.93115675 -0.29100519
0.45088854 1.0407102 -0.2968584
0.49316868 1.1382983 -0.294025
0.54836696 1.2657031 -0.29320544
0.62175238 1.4350864 -0.29457811
0.70800328 1.6341648 -0.29270065
0.83528692 1.9279522 -0.29528016
0.99919248 2.3062677 -0.29375115
1.2531615 2.892462 -0.29423314
1.6810321 3.8800433 -0.29561526
2.9472237 6.8025804 -0.34513685
5.9121332 13.645982 -0.34577262
0.89929116 2.0756824 6.457985e-05
0.89138967 2.0574448 0.052261248
1.0986078 2.5357313 0.1288114
0.32730243 0.81910712 -0.29801896
0.3519311 0.88074279 -0.29603672
0.38255119 0.95737267 -0.29564545
0.41668877 1.0428053 -0.293924
0.46145883 1.1548469 -0.29475749
0.51119709 1.2793219 -0.29284126
0.58372843 1.4608388 -0.29630363
0.66396707 1.661644 -0.29408851
0.77999818 1.9520235 -0.29541686
0.94048327 2.3536537 -0.29622701
1.1771834 2.9460192 -0.29612273
1.5664823 3.920279 -0.29513419
2.7516432 6.8862624 -0.34523392
5.5115628 13.793238 -0.34535384
0.95323664 2.38557 7.3339943e-05
0.89909834 2.2500837 0.056475814
0.89153916 2.2311659 0.11199412
0.30147156 0.82216227 -0.29586092
0.32661864 0.89074242 -0.29612529
0.3567715 0.97297418 -0.29717919
0.38841772 1.0592786 -0.2953037
0.42922872 1.1705768 -0.29550666
0.48267013 1.3163203 -0.29801691
0.53681386 1.4639791 -0.29369494
0.61996233 1.6907386 -0.2959671
0.72289592 1.9714553 -0.29509652
0.86384165 2.3558373 -0.29326099
1.090526 2.9740427 -0.29567203
1.4594152 3.9800639 -0.29635993
2.553896 6.9648919 -0.3453593
5.1145663 13.948258 -0.34541798
0.87372112 2.3827803 7.2453484e-05
0.89917874 2.4522076 0.060876261
0.89163274 2.4316282 0.12072228
0.27667835 0.82723016 -0.29470599
0.29959029 0.89573365 -0.29480496
0.3260192 0.97475249 -0.2947433
0.35678807 1.0667472 -0.29441011
0.39590481 1.1837008 -0.29582971
0.43622753 1.3042603 -0.29233181
0.49791956 1.4887109 -0.2956681
0.5701015 1.704525 -0.29539481
0.66762751 1.9961143 -0.29579788
0.79898137 2.3888443 -0.29439428
1.0054278 3.0060906 -0.29586777
1.5653191 4.680088 -0.34499753
2.3511775 7.0296969 -0.34508485
4.7102718 14.083064 -0.34526667
0.79831201 2.386843 7.1850802e-05
0.89475971 2.6752083 0.065747745
0.88833106 2.6559875 0.13054156
0.25199541 0.83205688 -0.29372823
0.2710872 0.89509553 -0.29191428
0.29899812 0.9872539 -0.29580706
0.32410997 1.07017 -0.29266721
0.35736677 1.1799798 -0.29221633
0.4024196 1.3287385 -0.29510829
0.45200077 1.4924493 -0.29371336
0.52173889 1.7227156 -0.29583064
0.60675669 2.0034335 -0.29418105
0.72150385 2.3823142 -0.29091802
0.72146446 2.382184 -0.2323277
0.72393614 2.3903453 -0.17460339
0.72608972 2.3974562 -0.1166192
0.72093087 2.3804224 -0.057828452
0.7215175 2.3823593 7.1063259e-05
0.87493283 2.8889172 0.07035394
0.87202305 2.8793097 0.14023009
0.22724912 0.83609605 -0.29273134
0.24956973 0.91821814 -0.29699713
0.27495682 1.0116224 -0.30062047
0.29676637 1.0918642 -0.29614905
0.32320887 1.1891516 -0.29207042
0.36597466 1.3464957 -0.29659736
0.40790266 1.5007573 -0.29292408
0.47032154 1.7304093 -0.29471266
0.55029732 2.0246565 -0.29485703
0.64727533 2.3814585 -0.2884264
0.64914513 2.3883376 -0.23101586
0.64524209 2.3739777 -0.1719844
0.64848655 2.3859148 -0.11510514
0.64452183 2.3713276 -0.057134647
0.64723819 2.3813217 7.0449241e-05
0.82461482 3.0339267 0.073278882
0.82259202 3.0264845 0.14618799
0.20710626 0.85858488 -0.2984013
0.2231538 0.92511201 -0.29703322
0.24150267 1.0011796 -0.29533601
0.26634604 1.1041708 -0.2972914
0.28916204 1.1987574 -0.2922712
0.32630405 1.3527342 -0.29578704
0.36704221 1.5216194 -0.29481867
0.42296731 1.7534639 -0.29644978
0.49293202 2.0435114 -0.29542115
0.57868648 2.3990173 -0.28842291
0.57532287 2.3850729 -0.22900876
0.57598895 2.3878343 -0.17172004
0.57455373 2.3818843 -0.11406826
0.57704693 2.3922203 -0.057215478
0.57709241 2.3924088 7.0258357e-05
0.76184976 3.1583433 0.075724684
0.76404232 3.167433 0.15187457
0.18111067 0.85810488 -0.29630607
0.19362387 0.91739267 -0.2926501
0.21304528 1.0094116 -0.29583901
0.22959994 1.0878477 -0.2910026
0.25747561 1.2199231 -0.29550844
0.28476396 1.3492156 -0.29311007
0.3230921 1.530815 -0.2946825
0.37212282 1.7631233 -0.29615542
0.42944849 2.0347331 -0.2922501
0.52080059 2.4675605 -0.2947453
0.65123278 3.0855501 -0.29435116
0.71066809 3.3671553 -0.24058174
0.71041322 3.3659477 -0.16015269
0.71054584 3.3665762 -0.079998799
0.71299767 3.3781931 9.8566605e-05
0.69452888 3.2906876 0.078387626
0.15685868 0.86536616 -0.29713666
