# .PCD v0.7 - Point Cloud Data file format
VERSION 0.7
FIELDS x y z intensity
SIZE 4 4 4 4
TYPE F F F F
COUNT 1 1 1 1
WIDTH 1349
HEIGHT 1
VIEWPOINT 0 0 0 1 0 0 0
POINTS 1349
DATA ascii
0.68742269 2.3549929 0.065323025 0
0.68409187 2.3520477 0.18409847 0
0.69093055 2.3580945 0.30652079 0
0.63249809 2.3064289 0.4112348 0
0.63590795 2.3094437 0.53594363 0
0.63768166 2.3110123 0.6664921 0
0.60052711 2.3044331 -0.049807705 0
0.65735823 2.3559723 0.064546734 0
0.65295452 2.3519788 0.18160057 0
0.64694077 2.346525 0.29921851 0
0.62043065 2.3224833 0.41167367 0
0.62201232 2.3239176 0.535712 0
0.61856562 2.320792 0.663297 0
0.59183079 2.3232245 -0.050032847 0
0.63646501 2.3647387 0.064209051 0
0.64743763 2.3749444 0.18283342 0
0.64554042 2.3731799 0.30228424 0
0.60996991 2.3400958 0.41274753 0
0.61962897 2.3490796 0.54079062 0
0.61502141 2.344794 0.66893852 0
0.57221037 2.3318198 -0.049733333 0
0.63088292 2.3877852 0.064628132 0
0.63147634 2.3883512 0.18257265 0
0.61748546 2.375006 0.29882687 0
0.59709221 2.3555536 0.41305998 0
0.60119921 2.3594711 0.53869766 0
0.59824163 2.3566499 0.66724688 0
0.56735414 2.3545661 -0.050172843 0
0.6167745 2.402909 0.064640991 0
0.61064512 2.3969135 0.18160175 0
0.61926216 2.4053426 0.30285856 0
0.58292156 2.3697941 0.41298383 0
0.57637709 2.3633924 0.53366435 0
0.58687204 2.3736584 0.66875374 0
0.5486266 2.3638408 -0.049930874 0
0.60652 2.4219167 0.064858481 0
0.59740072 2.4127688 0.18178973 0
0.60147685 2.4168577 0.30204129 0
0.57763964 2.3929453 0.41618335 0
0.57394189 2.389236 0.53913981 0
0.57563072 2.3909302 0.67047983 0
0.53578573 2.3789313 -0.049993206 0
0.60356241 2.4486556 0.06546472 0
0.59959179 2.444571 0.18439063 0
0.5972839 2.4421968 0.30476758 0
0.5621739 2.4060776 0.41580302 0
0.56614989 2.4101679 0.54228413 0
0.55832511 2.4021184 0.66875446 0
0.52148026 2.3925447 -0.049990166 0
0.61810702 2.4944859 0.067004725 0
0.61677974 2.4930856 0.18943128 0
0.61478716 2.4909835 0.31330127 0
0.54176956 2.41395 0.41364697 0
0.54800898 2.4205327 0.54059231 0
0.55054718 2.4232104 0.67282462 0
0.51159936 2.4109471 -0.050228763 0
0.53442425 2.435643 0.41640711 0
0.52911812 2.4299018 0.53857327 0
0.53264469 2.4337175 0.67093545 0
0.4847382 2.4107628 -0.049577441 0
0.51837963 2.4480941 0.41599405 0
0.51705366 2.4466226 0.53997648 0
0.51418501 2.4434392 0.66875643 0
0.47979638 2.4348354 -0.050102212 0
0.49913141 2.4568419 0.41439688 0
0.50195533 2.4600561 0.53997618 0
0.49678788 2.4541748 0.66728872 0
0.45776138 2.4395256 -0.049713179 0
0.48674843 2.4733677 0.41551149 0
0.481989 2.4678111 0.53757209 0
0.48848578 2.4753962 0.67167336 0
0.44559953 2.4556174 -0.049871478 0
0.47815403 2.4946077 0.41823339 0
0.46408424 2.4777563 0.53625202 0
0.47272238 2.4881022 0.67147589 0
0.43237785 2.4705887 -0.049983673 0
0.45511696 2.4985309 0.41526723 0
0.45800897 2.5020847 0.54121202 0
0.45270321 2.4955649 0.66858786 0
0.41643229 2.4822578 -0.049951911 0
0.43738928 2.508683 0.41445372 0
0.44482216 2.5180552 0.54260653 0
0.43468407 2.5052719 0.66704845 0
0.40431687 2.4988518 -0.050151765 0
0.43346706 2.5365739 0.41944009 0
0.4251326 2.5257885 0.54059434 0
0.42512462 2.5257783 0.67129415 0
0.38709703 2.5089052 -0.050064303 0
0.4024764 2.5293336 0.413176 0
0.40740123 2.5358753 0.53968489 0
0.40852359 2.5373662 0.67094034 0
0.36573884 2.513216 -0.049733061 0
0.39417741 2.5519979 0.41655466 0
0.39660874 2.5553133 0.54273438 0
0.3920413 2.5490849 0.67076486 0
0.35505715 2.5320811 -0.050055124 0
0.37068167 2.5539608 0.41344598 0
0.37824276 2.564549 0.54164135 0
0.37748691 2.5634904 0.67206401 0
0.34299162 2.5493591 -0.050311245 0
0.36374566 2.5792096 0.41769257 0
0.35970965 2.5734046 0.54049814 0
0.36402938 2.5796177 0.67431289 0
0.31616929 2.5451598 -0.049645919 0
0.33991632 2.5802495 0.41447222 0
0.33916607 2.5791409 0.53820562 0
0.34174278 2.5829484 0.67023033 0
0.30406317 2.5624592 -0.049919609 0
0.32711056 2.5974567 0.41630936 0
0.32538143 2.594831 0.54000068 0
0.32311496 2.5913894 0.66885453 0
0.28793958 2.5738516 -0.049947128 0
0.30824265 2.6055434 0.41541731 0
0.30665842 2.6030705 0.53890634 0
0.30783412 2.6049056 0.67010123 0
0.27366832 2.5882595 -0.050109856 0
0.28313425 2.6034529 0.4115448 0
0.28516492 2.6067123 0.53611124 0
0.28564963 2.6074903 0.66609985 0
0.25597313 2.5972421 -0.050052419 0
0.27190921 2.623553 0.41441533 0
0.26759759 2.6164343 0.53580791 0
0.27270356 2.6248646 0.66942352 0
0.23308684 2.5973313 -0.049636267 0
0.25728092 2.6384358 0.41576216 0
0.25482008 2.6342552 0.53871906 0
0.25064668 2.6271646 0.66555929 0
0.22277857 2.6188343 -0.050115619 0
0.23378898 2.6380908 0.41267827 0
0.23605074 2.6420467 0.53782767 0
0.23395057 2.6383736 0.66610456 0
0.20227005 2.6226671 -0.049875412 0
0.21521355 2.6459811 0.41210568 0
0.21641155 2.648139 0.53638613 0
0.22198124 2.6581714 0.67081338 0
0.18787552 2.6374965 -0.050093289 0
0.19820108 2.6566596 0.41241306 0
0.20224686 2.6641684 0.53880346 0
0.20064487 2.661195 0.66767246 0
0.17258604 2.6509519 -0.050261725 0
0.1816292 2.6682534 0.41304377 0
0.18108596 2.6672142 0.53639811 0
0.1798705 2.6648886 0.66499096 0
0.14957924 2.6494484 -0.0498381 0
0.16016193 2.6703317 0.41100875 0
0.16270341 2.6753469 0.53600508 0
0.16099305 2.6719718 0.66402161 0
0.13503094 2.6645 -0.050087102 0
0.14495309 2.6847069 0.4125585 0
0.14029093 2.6752121 0.53263634 0
0.14154018 2.6777565 0.6625694 0
0.11454227 2.667475 -0.049864464 0
0.124729 2.6888983 0.41127628 0
0.12243899 2.6840825 0.5327093 0
0.12295153 2.6851602 0.66198075 0
0.098953567 2.6807306 -0.050057296 0
0.097990058 2.6786366 0.40601406 0
0.10315111 2.6898527 0.53172904 0
0.1021172 2.6876059 0.65924269 0
0.076054417 2.6778996 -0.049628153 0
0.083089791 2.6937101 0.4079504 0
0.082676135 2.6927805 0.52980798 0
0.080924533 2.688844 0.65609205 0
0.06310191 2.697443 -0.050082069 0
0.062552772 2.6961658 0.40642443 0
0.063146971 2.6975477 0.52865708 0
0.067896567 2.7085941 0.66142201 0
0.043578885 2.7020025 -0.049960725 0
0.041655086 2.6973684 0.40463179 0
0.047822557 2.7122247 0.53117067 0
0.04807695 2.7128377 0.65984654 0
0.025174638 2.7091339 -0.049948376 0
0.029094955 2.7189236 0.4085142 0
0.02545788 2.709841 0.52762675 0
0.025937518 2.7110388 0.65569562 0
0.0087259626 2.7213171 -0.050138302 0
0.0049908967 2.7116385 0.40453422 0
0.0085707521 2.7209148 0.52899975 0
0.0070531578 2.7169824 0.6551249 0
-0.012695887 2.7205076 -0.049840424 0
-0.007961967 2.7332499 0.40852034 0
-0.013475099 2.7184105 0.52562296 0
-0.012824514 2.7201614 0.65344113 0
-0.029979685 2.7306664 -0.049969941 0
-0.030531982 2.7291203 0.40555897 0
-0.032220103 2.724395 0.52535868 0
-0.035634615 2.7148373 0.64813668 0
-0.050522126 2.7316186 -0.049759645 0
-0.050591506 2.7314165 0.40442047 0
-0.053003587 2.7243867 0.52307075 0
-0.052783169 2.725029 0.64977276 0
-0.065340884 2.7494986 -0.050196182 0
-0.073716857 2.7240477 0.40075865 0
-0.07183639 2.7297616 0.52276969 0
-0.073965378 2.7232924 0.6462971 0
-0.08561752 2.7510977 -0.050028551 0
-0.092780955 2.7283711 0.40031725 0
-0.0935008 2.7260873 0.51939613 0
-0.087553836 2.7449546 0.65310901 0
-0.10476808 2.7560337 -0.049995527 0
-0.1146015 2.7234094 0.39746732 0
-0.11330298 2.7277176 0.51797348 0
-0.11308894 2.7284276 0.64345503 0
-0.12331442 2.7629969 -0.050046906 0
-0.10463739 2.8279083 0.064458348 0
-0.10489962 2.8269968 0.18187149 0
-0.10748471 2.8180125 0.2994512 0
-0.13046588 2.7381423 0.39992934 0
-0.13199152 2.7328398 0.51785129 0
-0.13266222 2.7305088 0.64199173 0
-0.14493494 2.7588952 -0.049697161 0
-0.13275178 2.8033357 0.063342288 0
-0.13510506 2.7947516 0.17765725 0
-0.13442908 2.7972174 0.29452625 0
-0.15097024 2.7368803 0.39820454 0
-0.15160455 2.7345667 0.51663959 0
-0.15093221 2.7370191 0.64254087 0
-0.16172715 2.772352 -0.050006423 0
-0.15582825 2.7949829 0.062841378 0
-0.15714116 2.7899461 0.17654656 0
-0.15687929 2.7909508 0.2923885 0
-0.16897519 2.7445447 0.39890701 0
-0.17312698 2.7286162 0.51287746 0
-0.1706643 2.7380645 0.64084864 0
-0.1795408 2.7825992 -0.050204482 0
-0.17988463 2.7812085 0.062153339 0
-0.17671926 2.7940109 0.17645207 0
-0.17642941 2.7951829 0.2922605 0
-0.18782751 2.7490835 0.39884552 0
-0.18975835 2.7412744 0.51559734 0
-0.19189613 2.7326281 0.63650322 0
-0.20063721 2.7794404 -0.049918659 0
-0.19967385 2.7835584 0.062069654 0
-0.19527157 2.8023772 0.17685992 0
-0.19633679 2.7978237 0.29188374 0
-0.20791997 2.7483079 0.39745408 0
-0.210851 2.7357786 0.51217812 0
-0.20819496 2.7471325 0.64076364 0
-0.21936826 2.7860787 -0.050001547 0
-0.21721239 2.7958477 0.0623587 0
-0.2180009 2.7922745 0.17525975 0
-0.21778636 2.7932467 0.29022139 0
-0.22748999 2.7492766 0.39658839 0
-0.22859634 2.7442634 0.51362234 0
-0.22980906 2.7387683 0.63540304 0
-0.23895444 2.7888994 -0.049953628 0
-0.23496468 2.8081255 0.062654644 0
-0.23427157 2.8114655 0.17691045 0
-0.2357067 2.8045499 0.29153812 0
-0.24592413 2.7553134 0.39710987 0
-0.24926765 2.7392015 0.51053578 0
-0.25292397 2.7215822 0.62644136 0
-0.25863007 2.7910993 -0.049892232 0
-0.25250751 2.8225911 0.063037582 0
-0.2526665 2.8217733 0.17760703 0
-0.25288382 2.8206556 0.29377553 0
-0.26830497 2.7413359 0.39248851 0
-0.26979277 2.7336833 0.50739044 0
-0.27021989 2.7314863 0.62905079 0
-0.27775997 2.796083 -0.049940977 0
-0.26865762 2.8462663 0.063761823 0
-0.26723608 2.8541036 0.18073271 0
-0.26694721 2.8556962 0.29951814 0
-0.2877776 2.7408533 0.39145011 0
-0.28904533 2.7338638 0.50626671 0
-0.29050484 2.7258174 0.62519306 0
-0.29733521 2.7986479 -0.049910791 0
-0.30619848 2.7460172 0.39193824 0
-0.30935943 2.7272472 0.50293392 0
-0.30995977 2.7236824 0.62293458 0
-0.31516758 2.812304 -0.050290298 0
-0.32714692 2.7352581 0.38837412 0
-0.32728249 2.734386 0.50432527 0
-0.32817876 2.7286215 0.62374747 0
-0.33717349 2.7986135 -0.04969104 0
-0.34757969 2.7256444 0.38517961 0
-0.34758317 2.72562 0.50044501 0
-0.34652743 2.7330229 0.62443 0
-0.35539648 2.8108101 -0.050034709 0
-0.36493111 2.7373462 0.38754043 0
-0.36521068 2.7351918 0.50280905 0
-0.3658078 2.7305911 0.62235498 0
-0.37590158 2.8056149 -0.049760975 0
-0.38596845 2.7195756 0.38238335 0
-0.38564923 2.7223036 0.49772066 0
-0.38605306 2.7188523 0.61650473 0
-0.39442962 2.8175514 -0.050111815 0
-0.4039973 2.7257812 0.38345125 0
-0.40464994 2.7195213 0.49610555 0
-0.40556255 2.7107677 0.61228949 0
-0.41386133 2.8223653 -0.05021527 0
-0.4233841 2.7183421 0.38108036 0
-0.42372128 2.7146587 0.4938772 0
-0.42327192 2.7195673 0.61520112 0
-0.43425193 2.8159878 -0.049926605 0
-0.4424389 2.7121735 0.37909955 0
-0.44259611 2.7101798 0.49185935 0
-0.4426282 2.7097731 0.61048019 0
-0.45400286 2.8162384 -0.049884517 0
-0.46073532 2.7145448 0.37936527 0
-0.46205452 2.6946185 0.48622733 0
-0.46151528 2.7027638 0.60701996 0
-0.47379762 2.8151739 -0.049804334 0
-0.4798311 2.7025383 0.3760162 0
-0.48076832 2.6850424 0.48267493 0
-0.48033237 2.6931806 0.60259348 0
-0.49337909 2.818012 -0.049872547 0
-0.49820879 2.7000613 0.37516361 0
-0.49844879 2.6941998 0.48544058 0
-0.49839246 2.6955755 0.60323095 0
-0.51288712 2.8252504 -0.050106701 0
-0.51659352 2.6944678 0.37357494 0
-0.51660252 2.6941483 0.48521429 0
-0.51670432 2.690556 0.60089147 0
-0.53273672 2.8214846 -0.049956672 0
-0.5346846 2.6977472 0.37430975 0
-0.5349043 2.6837885 0.48163432 0
-0.53489262 2.6845298 0.59823096 0
-0.55246997 2.8220432 -0.049969964 0
-0.55291682 2.6801436 0.36977467 0
-0.55294406 2.6714892 0.47748581 0
-0.55293143 2.6755049 0.59442389 0
-0.57221431 2.8224504 -0.049986716 0
-0.57086325 2.6793725 0.36959234 0
-0.57077152 2.6696558 0.47689444 0
-0.57074648 2.6670039 0.59092736 0
-0.59190488 2.819741 -0.049901061 0
-0.58860999 2.6702261 0.36733031 0
-0.58837396 2.6595178 0.4736141 0
-0.58865768 2.6723914 0.59327441 0
-0.61178625 2.8241928 -0.050080039 0
-0.60602802 2.6579585 0.36432755 0
-0.60567003 2.6476235 0.46982145 0
-0.60587412 2.6535158 0.58566415 0
-0.63091499 2.8099766 -0.049600858 0
-0.62327981 2.6483922 0.36206892 0
-0.6234464 2.6519186 0.47149122 0
-0.62297505 2.6419425 0.58116603 0
-0.65090531 2.8157506 -0.04984488 0
-0.64035064 2.6394868 0.36003304 0
-0.63994163 2.6326559 0.46538523 0
-0.64038652 2.6400862 0.58078414 0
-0.64044011 2.6409807 0.70104402 0
-0.67065352 2.815764 -0.049891926 0
-0.6576075 2.6358855 0.35940701 0
-0.65680039 2.6247571 0.46313348 0
-0.65673977 2.6239216 0.57455307 0
-0.65696341 2.6270051 0.69461268 0
-0.69063485 2.8180864 -0.050030671 0
-0.67462975 2.6302257 0.46541363 0
-0.67370045 2.6193185 0.57320511 0
-0.67340165 2.6158111 0.68967569 0
-0.70933276 2.8062618 -0.049671121 0
-0.69201529 2.6293612 0.46565446 0
-0.68895286 2.598078 0.56502301 0
-0.68991375 2.6078937 0.68648392 0
-0.72962439 2.8111219 -0.049918819 0
-0.70623535 2.5996909 0.5664292 0
-0.70704931 2.607049 0.68695259 0
-0.74932021 2.809701 -0.049950149 0
-0.72229391 2.5906634 0.56348944 0
-0.72253209 2.5925941 0.68066931 0
-0.76867819 2.8056126 -0.049894352 0
-0.73871332 2.5855908 0.67823648 0
-0.78894204 2.8078477 -0.05007549 0
-0.75448114 2.5766263 0.67490971 0
-0.80930561 2.80988 -0.050258882 0
-0.82775325 2.8001883 -0.050027039 0
-0.84608948 2.7907715 -0.049813069 0
-0.86572278 2.7885594 -0.049869318 0
-0.88341099 2.7770576 -0.049595565 0
-0.90546489 2.7856202 -0.050063759 0
-0.92084873 2.7650323 -0.049473148 0
-0.9437114 2.7755756 -0.050034482 0
-0.96078038 2.7629061 -0.049750481 0
-0.9832741 2.7702761 -0.050216559 0
-1.0002382 2.7576988 -0.049952503 0
-1.0193207 2.7526145 -0.049975317 0
-1.0372514 2.743892 -0.049870756 0
-1.055213 2.7354832 -0.049786054 0
-1.0763247 2.7362418 -0.05005629 0
-1.0961123 2.7328 -0.050178245 0
-1.1121113 2.7191029 -0.049918763 0
-1.1312853 2.7139726 -0.049994342 0
-1.1490325 2.7051938 -0.049938928 0
-1.1714772 2.7076247 -0.050326318 0
-1.1881936 2.6962714 -0.050189693 0
-1.2053696 2.6861601 -0.050109174 0
-1.2206786 2.672184 -0.049884357 0
-1.2403502 2.6675935 -0.050037935 0
-1.2589142 2.6605327 -0.05010378 0
-1.2743813 2.6473465 -0.049933456 0
-1.2931535 2.6406376 -0.050031636 0
-1.3121176 2.6341286 -0.050148215 0
-1.3325015 2.6299658 -0.050371516 0
-1.3445741 2.6111565 -0.050002493 0
-1.3621467 2.6020601 -0.050040845 0
-1.3769169 2.5883441 -0.049895182 0
-1.3927028 2.5764222 -0.049831942 0
-1.4059863 2.560724 -0.049615849 0
-1.4237399 2.5519905 -0.049704053 0
-1.442703 2.5449047 -0.049873985 0
-1.4617382 2.5377076 -0.050050966 0
-1.4757524 2.5233538 -0.04992469 0
-1.4923517 2.5126233 -0.049966197 0
-1.5048672 2.4964857 -0.04977465 0
-1.5268868 2.4927022 -0.050148468 0
-1.5398667 2.4772403 -0.050003905 0
-1.5517761 2.4606352 -0.049812462 0
-1.5704068 2.4521825 -0.050007112 0
-1.5808462 2.4340727 -0.04975852 0
-1.5978173 2.4235628 -0.049876552 0
-1.6131706 2.4111521 -0.049914349 0
-1.6310357 2.4013813 -0.050091084 0
-1.6441256 2.3864512 -0.050025724 0
-1.6581131 2.3724945 -0.0500165 0
-1.6760578 2.3624623 -0.05021514 0
-1.6871219 2.3455844 -0.050076146 0
-1.7063916 2.336566 -0.050351728 0
-1.7141763 2.3167312 -0.050072953 0
-1.733368 2.3073709 -0.050356016 0
-1.732204 2.2799699 -0.049676873 0
-1.750091 2.2694082 -0.049914371 0
-1.7590009 2.2511771 -0.049739182 0
-1.7770761 2.2405119 -0.049997151 0
-1.2229952 1.7924974 0.51361603 0
-1.7879312 2.2239218 -0.049930539 0
-1.2243711 1.7798606 0.50957847 0
-1.8077254 2.2142501 -0.050276365 0
-1.2366273 1.775791 0.51383418 0
-1.812027 2.1926823 -0.049933705 0
-1.2408571 1.7654904 0.51214391 0
-1.825626 2.1781828 -0.050016895 0
-1.2271316 1.7421967 0.49739066 0
-1.8337981 2.1597576 -0.04986982 0
-1.2424265 1.7402552 0.50408375 0
-1.8431995 2.1423039 -0.049787477 0
-1.2339313 1.7215365 0.49359033 0
-1.8608289 2.1304469 -0.050069261 0
-1.2402411 1.7133044 0.4939338 0
-1.8799123 2.1192997 -0.050417155 0
-1.2438593 1.7032923 0.49244082 0
-1.8766658 2.0936513 -0.049823374 0
-1.2365621 1.6864089 0.48337635 0
-1.8955965 2.082212 -0.05017883 0
-1.2438962 1.6790282 0.48473445 0
-1.9069415 2.0659146 -0.050221615 0
-1.2378124 1.6635088 0.47686124 0
-1.9167094 2.0486569 -0.050207388 0
-1.2344052 1.6499388 0.47101897 0
-1.9180726 2.0266366 -0.049857188 0
-1.2408959 1.6422704 0.47208488 0
-1.9320898 2.011868 -0.050036576 0
-1.241834 1.6314888 0.46944922 0
-1.9366578 1.9918994 -0.049839757 0
-1.952404 1.9778814 -0.050103933 0
-1.965632 1.9623853 -0.050272886 0
-1.9719137 1.9433693 -0.050172728 0
-1.9834222 1.9268932 -0.050288968 0
-1.9886485 1.9074566 -0.050166171 0
-1.9906161 1.8866736 -0.049926471 0
-2.0022922 1.8702091 -0.050075013 0
-2.0024889 1.8489047 -0.049787655 0
-2.0022023 1.8276234 -0.049493499 0
-1.9969028 1.8046443 -0.049019419 0
-1.9894304 1.7812188 -0.048475906 0
-1.9985243 1.7640562 -0.048573349 0
-2.0036025 1.7454542 -0.048527133 0
-1.9969853 1.7230749 -0.048050798 0
-2.004745 1.7055264 -0.048124533 0
-1.997301 1.6833899 -0.047639858 0
-2.0029168 1.665319 -0.04765201 0
-1.9909511 1.6424756 -0.047022268 0
-1.9939165 1.6239295 -0.046955608 0
-2.0047228 1.6073413 -0.047185887 0
-1.9974116 1.5864052 -0.046759363 0
-1.9898413 1.5657176 -0.046334185 0
-1.9929965 1.5475236 -0.046310425 0
-2.0082862 1.5316633 -0.046736114 0
-2.0072575 1.5125883 -0.046576347 0
-1.995608 1.4918702 -0.046041306 0
-1.9937599 1.4730232 -0.045870669 0
-2.000025 1.4554257 -0.046001345 0
-2.0081966 1.4379739 -0.046208397 0
-2.0060716 1.4192002 -0.046053089 0
-1.997141 1.3998457 -0.045662262 0
-2.0030065 1.3820727 -0.045810893 0
-1.9975481 1.3633345 -0.045561984 0
-1.9910465 1.3447036 -0.04528439 0
-2.0008547 1.3270879 -0.045598384 0
-2.0080867 1.3091503 -0.045828115 0
-1.9899464 1.2904087 -0.045159727 0
-1.9930892 1.2724038 -0.04525977 0
-2.0069449 1.2543254 -0.045750368 0
-1.1356285 0.26436791 -0.049985722 0
-0.39139771 0.26436988 0.41825038 0
-0.38263202 0.2643699 0.48943752 0
-1.1290998 0.2447034 -0.049757063 0
-0.39904225 0.25389838 0.42210826 0
-1.1320844 0.22495745 -0.049876913 0
-0.40583974 0.24325232 0.35323051 0
-0.40880954 0.24317752 0.4270958 0
-1.1442306 0.20477751 -0.050333023 0
-0.51002866 0.22874735 0.10736978 0
-0.50890583 0.22878979 0.17591019 0
-1.2470875 0.20089002 0.43483335 0
-1.2320789 0.20145726 0.56020522 0
-1.2420633 0.20107991 0.69984198 0
-1.1310149 0.18555085 -0.049891897 0
-0.50946021 0.21688433 0.10736493 0
-0.50801921 0.21695699 0.17584446 0
-1.2319415 0.180463 0.43120241 0
-1.2342957 0.18034431 0.56125152 0
-1.2421031 0.17995073 0.70024389 0
-1.1323417 0.16571599 -0.049979299 0
-0.50775784 0.20509207 0.10725403 0
-0.51183909 0.20483477 0.1766561 0
-1.246094 0.15854463 0.43512413 0
-1.2354882 0.15921326 0.56204581 0
-1.1317863 0.14595865 -0.05000833 0
-0.51412886 0.19271284 0.10802916 0
-0.51986283 0.1922788 0.17825644 0
-1.2349299 0.13815109 0.43264267 0
-1.2407575 0.13770998 0.56428975 0
-1.1193751 0.12722532 -0.049621385 0
-0.51860154 0.18031715 0.10861715 0
-0.51226556 0.18087709 0.17705896 0
-1.2422383 0.11636762 0.43495545 0
-1.2418957 0.11639789 0.56524688 0
-1.1390953 0.10551544 -0.050395388 0
-0.51308739 0.16879052 0.108144 0
-0.51697361 0.16839771 0.17811652 0
-1.2400838 0.09530782 0.43491489 0
-1.2366358 0.095656343 0.5641554 0
-1.1205448 0.087608702 -0.049805187 0
-0.51337564 0.15671317 0.039988518 0
-0.51757145 0.15623562 0.10876729 0
-0.51614237 0.15639827 0.17819865 0
-1.242476 0.073731206 0.43610981 0
-1.2547129 0.072338469 0.57096404 0
-1.1183546 0.068047382 -0.04981089 0
-0.51283205 0.14469917 0.040020436 0
-0.50765204 0.1453549 0.1078484 0
-0.50823218 0.14528145 0.17702149 0
-1.2455482 0.051946227 0.43755135 0
-1.2456199 0.051937152 0.56877041 0
-1.1239804 0.047389302 -0.050107215 0
-0.50942051 0.13306032 0.03995448 0
-0.51024652 0.13294517 0.10830062 0
-0.51225775 0.1326648 0.17804113 0
-1.2416512 0.030985732 0.43727073 0
-1.2381557 0.031473 0.56720626 0
-1.1281103 0.026744384 -0.05035948 0
-0.51077241 0.12074132 0.040065706 0
-0.50805819 0.1211546 0.10825074 0
-0.51673371 0.11983364 0.17917387 0
-1.2371185 0.010146608 0.43689361 0
-1.2421052 0.0093873339 0.56956685 0
-1.1168557 0.0084569948 -0.050064977 0
-0.50840122 0.10895582 0.040048048 0
-0.51123703 0.10848743 0.10880154 0
-0.50915492 0.10883134 0.17813495 0
-1.2318258 -0.010532658 0.43638694 0
-1.2425966 -0.012311677 0.57085991 0
-1.1085293 -0.010144155 -0.049884338 0
-0.51395357 0.095769592 0.040323064 0
-0.50641984 0.09711159 0.10849812 0
-0.50265187 0.097782798 0.1773161 0
-1.2368324 -0.032999229 0.43861559 0
-1.2467922 -0.034773391 0.57349986 0
-1.10964 -0.030422729 -0.050054781 0
-0.51230878 0.083759703 0.040343169 0
-0.51847899 0.082580231 0.11005615 0
-0.50943446 0.084309138 0.17896023 0
-1.239622 -0.055269372 0.44034716 0
-1.2433047 -0.055973332 0.57363951 0
-1.1036717 -0.049381446 -0.049977016 0
-0.50341702 0.073213466 0.040104765 0
-0.51355684 0.071142517 0.10977559 0
-0.50925845 0.072020419 0.17935891 0
-1.2462399 -0.078499295 0.44315299 0
-1.2451478 -0.078276254 0.57568008 0
-1.1030631 -0.069452353 -0.050103564 0
-0.50878471 0.059737507 0.04039152 0
-0.50624293 0.060290057 0.10924704 0
-0.5073632 0.060046513 0.1794699 0
-1.2348453 -0.098100372 0.44133988 0
-1.2517473 -0.10177467 0.57944113 0
-1.1009089 -0.089261599 -0.050183095 0
-0.50533313 0.048085842 0.040362198 0
-0.51288188 0.046345014 0.11027087 0
-0.51568103 0.045699496 0.18149933 0
-1.2427202 -0.12196515 0.44463137 0
-1.2371207 -0.12067381 0.57606691 0
-1.0855985 -0.10592289 -0.049788564 0
-0.52746671 0.030212943 0.04127837 0
-0.50425398 0.035874847 0.10962841 0
-0.51299471 0.033742864 0.18152572 0
-1.2347891 -0.14231248 0.44386086 0
-1.2430825 -0.14433534 0.57981408 0
-1.0857186 -0.12627028 -0.049969308 0
-0.54663813 0.012432923 0.0420966 0
-0.55737591 0.0096701281 0.11585084 0
-0.56404531 0.0079541402 0.19158724 0
-1.2469881 -0.16776423 0.4484584 0
-1.245839 -0.16746859 0.58257449 0
-1.0915196 -0.14829116 -0.050370246 0
-0.61726773 -0.019880157 0.044829167 0
-0.62294972 -0.021418672 0.12351758 0
-1.2371038 -0.18771033 0.31796139 0
-1.2439739 -0.18957047 0.44913507 0
-1.2452928 -0.18992759 0.58430618 0
-1.0695541 -0.16271453 -0.049752302 0
-0.69318593 -0.055702906 0.047782902 0
-0.69340062 -0.055763941 0.13180037 0
-1.2454994 -0.21274053 0.32062766 0
-1.2398875 -0.21114491 0.44960248 0
-1.2447003 -0.21251331 0.58612579 0
-1.0885416 -0.18888982 -0.050664403 0
-0.77570772 -0.095669694 0.051010516 0
-0.77294576 -0.094846614 0.14118253 0
-1.2490286 -0.23671268 0.3224473 0
-1.2447367 -0.2354338 0.4525227 0
-1.2347623 -0.23246153 0.58480644 0
-1.0578372 -0.20025094 -0.049734116 0
-0.86884284 -0.14133228 0.054666497 0
-0.87568128 -0.14346416 0.15326744 0
-1.2366806 -0.25600496 0.32133174 0
-1.2348934 -0.25544783 0.45160946 0
-1.2356642 -0.25568816 0.58734685 0
-1.0622485 -0.22235955 -0.050123829 0
-0.98320282 -0.19662081 0.05915596 0
-0.98794103 -0.19816364 0.16654749 0
-1.2401966 -0.28030273 0.32326645 0
-1.2428471 -0.28116581 0.45553523 0
-1.2236292 -0.2749081 0.58547336 0
-1.0541272 -0.24050568 -0.050053164 0
-1.1306719 -0.2665005 0.064939193 0
-1.1355063 -0.26814231 0.18396956 0
-1.2383001 -0.30305138 0.32423672 0
-1.2477431 -0.30625823 0.45874098 0
-1.0276912 -0.25212428 -0.049297266 0
-1.2930059 -0.34596816 0.20270206 0
-1.2489471 -0.33038422 0.32766557 0
-1.2320902 -0.32442179 0.45648542 0
-1.0434914 -0.27871826 -0.050150115 0
-1.2552407 -0.3566291 0.19927314 0
-1.2388502 -0.35059842 0.32718995 0
-1.2347852 -0.34910277 0.45926937 0
-1.0353971 -0.29682478 -0.050106574 0
-1.2564214 -0.38132295 0.20032401 0
-1.2435039 -0.37638453 0.3296091 0
-1.2429097 -0.37615737 0.46363443 0
-1.0115232 -0.30864027 -0.049465474 0
-1.2538778 -0.40480772 0.2009854 0
-1.2370353 -0.39812449 0.32994518 0
-1.2418127 -0.40002021 0.46558353 0
-1.0152345 -0.33132008 -0.049891703 0
-1.256268 -0.43049404 0.20225789 0
-1.2436367 -0.42529681 0.33288518 0
-1.2458314 -0.42619982 0.46903673 0
-1.010309 -0.35064861 -0.049996089 0
-1.2512417 -0.45334706 0.20270845 0
-1.2383091 -0.44783452 0.3335692 0
-1.2329592 -0.44555411 0.46791515 0
-1.0057986 -0.37024423 -0.050126731 0
-1.2503973 -0.47816464 0.20368648 0
-1.2413623 -0.47417828 0.33596489 0
-1.24219 -0.47454342 0.4730188 0
-0.98634911 -0.38312724 -0.049681522 0
-1.2440741 -0.50073791 0.20405972 0
-1.2393973 -0.49860367 0.33744511 0
-1.2413875 -0.49951187 0.47544014 0
-0.98206496 -0.40281913 -0.049838666 0
-1.2387719 -0.52389348 0.20459019 0
-1.2322805 -0.52083182 0.33796805 0
-1.2373493 -0.52322251 0.47705162 0
-0.98165429 -0.42452469 -0.050160419 0
-1.5098014 -0.68180066 0.083134137 0
-1.2327635 -0.54684746 0.20507425 0
-1.2457931 -0.55319446 0.34268862 0
-1.2469009 -0.55373418 0.48261419 0
-0.97712743 -0.44441816 -0.050330628 0
-1.4437572 -0.67904228 0.080977216 0
-1.2423896 -0.57779354 0.20747671 0
-1.2296109 -0.57136834 0.3415269 0
-1.2473904 -0.58030796 0.4857336 0
-0.96215165 -0.45903072 -0.050091751 0
-1.397516 -0.6848464 0.079601213 0
-1.2444565 -0.60545719 0.20902678 0
-1.2409557 -0.60364133 0.34599644 0
-0.94826019 -0.47403559 -0.049902584 0
-1.3576208 -0.69294816 0.078475781 0
-1.2395924 -0.62983048 0.20978495 0
-1.241172 -0.6306752 0.34830305 0
-0.94138479 -0.49275813 -0.050005779 0
-1.307713 -0.69463062 0.076938517 0
-1.2458743 -0.66055316 0.21195363 0
-1.2472314 -0.66130096 0.35189876 0
-0.93649483 -0.51269484 -0.050200861 0
-1.2583817 -0.69539809 0.075414754 0
-1.2444334 -0.68748099 0.21323113 0
-1.2357094 -0.68252927 0.35195404 0
-0.91731381 -0.52444327 -0.049816787 0
-1.2467593 -0.71696126 0.075439416 0
-1.2453767 -0.71615326 0.21485691 0
-1.2445184 -0.71565175 0.35631219 0
-0.90904069 -0.5424391 -0.049890358 0
-1.2494706 -0.74716932 0.076072671 0
-1.2388628 -0.74078995 0.21560498 0
-1.2391243 -0.74094731 0.35780188 0
-0.90109015 -0.56069922 -0.049987525 0
-1.2530359 -0.77843565 0.076762639 0
-1.2505679 -0.7769087 0.21870033 0
-1.2375094 -0.76882988 0.36017194 0
-0.8943342 -0.5798043 -0.050145715 0
-1.2513878 -0.80696648 0.077254154 0
-1.2404032 -0.79997796 0.21909262 0
-1.2478772 -0.8047331 0.36519721 0
-0.87755311 -0.5924896 -0.049887769 0
-1.2535759 -0.83842546 0.07792864 0
-1.2368461 -0.82748336 0.22037381 0
-1.2389697 -0.82887226 0.36620724 0
-0.86531961 -0.60801607 -0.04983009 0
-1.2468537 -0.86447316 0.078242533 0
-1.2466582 -0.86434168 0.22344175 0
-1.2426392 -0.86164027 0.37002468 0
-0.84882283 -0.62055278 -0.04959539 0
-1.2393935 -0.89028507 0.078541316 0
-1.245003 -0.89415914 0.22509913 0
-1.2399627 -0.89067823 0.37257463 0
-0.84852123 -0.64437872 -0.050074354 0
-1.2388704 -0.92128152 0.079160601 0
-1.2399086 -0.92201787 0.22636744 0
-1.6063973 -1.1819947 0.45684478 0
-0.82381737 -0.65085012 -0.049493078 0
-1.2324381 -0.94851857 0.079541743 0
-1.2423204 -0.9557175 0.22869195 0
-1.5775696 -1.199937 0.45451209 0
-0.8200146 -0.67244583 -0.049841736 0
-1.2420946 -0.98812968 0.08065898 0
-1.2342929 -0.98229462 0.22969414 0
-0.80302227 -0.68422931 -0.049612306 0
-1.2348423 -1.0157578 0.081048355 0
-1.239727 -1.019508 0.23257509 0
-0.7927717 -0.70112294 -0.04969373 0
-1.1605641 -0.9909274 0.078410849 0
-1.1639328 -0.99358195 0.22443466 0
-1.1598505 -0.99036521 0.37162694 0
-0.78509367 -0.72017449 -0.049903814 0
-1.1426365 -1.0092736 0.078319237 0
-1.1363807 -1.0042152 0.22283335 0
-1.1466502 -1.0125189 0.37225884 0
-0.77436733 -0.73689371 -0.049985774 0
-1.2404189 -1.1235353 0.083604835 0
-1.2427175 -1.1254421 0.23992981 0
-1.3433926 -1.2089633 0.42215878 0
-0.75613022 -0.74730057 -0.049726319 0
-1.236117 -1.1558145 0.084228635 0
-1.2383821 -1.1577424 0.24180631 0
-1.3221248 -1.2290154 0.42154875 0
-1.0296744 -0.98011249 0.49588141 0
-0.74547982 -0.76409215 -0.049829729 0
-1.2824219 -1.2328657 0.41657853 0
-0.9868356 -0.97480625 0.48671889 0
-0.73364341 -0.77992386 -0.049887553 0
-1.1994201 -1.1970174 0.084209137 0
-1.1926209 -1.1909289 0.2404471 0
-1.1925215 -1.1908399 0.39941135 0
-0.97122741 -0.99267548 0.48675555 0
-0.71674478 -0.79116577 -0.04971027 0
-0.91707766 -0.97515732 0.47351909 0
-0.70416927 -0.80631238 -0.04974981 0
-0.89417577 -0.98528212 0.47099987 0
-0.70362437 -0.83312315 -0.050396409 0
-0.85075462 -0.97524554 0.46121609 0
-0.67580187 -0.83355886 -0.049697209 0
-0.82890511 -0.98522371 0.45901129 0
-0.67029738 -0.8559683 -0.050125085 0
-0.82192838 -1.0100054 0.4622325 0
-0.64978325 -0.86318129 -0.049799249 0
-0.64220786 -0.88388604 -0.050149683 0
-0.62072551 -0.88972408 -0.049782179 0
-1.7608877 -2.1390326 0.12216637 0
-0.60763133 -0.90460354 -0.049863853 0
-1.6986097 -2.1306748 0.12045623 0
-0.60654151 -0.93341357 -0.05061087 0
-1.6815978 -2.1726656 0.12118158 0
-0.58332539 -0.93688041 -0.050165683 0
-1.672501 -2.2248182 0.12238443 0
-0.57084572 -0.9528833 -0.050318696 0
-1.6634485 -2.2783685 0.12364486 0
-0.54717302 -0.95513099 -0.049847476 0
-1.6500019 -2.3278797 0.12471288 0
-0.5365777 -0.97354919 -0.050127637 0
-0.52219695 -0.9873355 -0.050203163 0
-0.50560087 -0.99823481 -0.050157674 0
-0.48756421 -1.0070941 -0.050031949 0
-0.47376984 -1.0218254 -0.050173752 0
-0.45432222 -1.0284979 -0.049972992 0
-0.44240308 -1.0461977 -0.050257832 0
-0.41921854 -1.0469288 -0.049824383 0
-0.37591094 -0.98025602 0.49976745 0
-0.40422404 -1.0600564 -0.049930252 0
-0.35184091 -0.9771449 0.49457607 0
-0.39187443 -1.0776383 -0.05022987 0
-0.33328968 -0.98227233 0.49276024 0
-0.37123781 -1.0817597 -0.049974039 0
-0.30621821 -0.97286803 0.48541802 0
-0.35693228 -1.0964407 -0.050166667 0
-0.28908175 -0.97948712 0.48442388 0
-0.33350772 -1.0952202 -0.049713735 0
-0.27541459 -0.99211603 0.48581439 0
-0.32241815 -1.1158922 -0.050166819 0
-0.2490247 -0.9817099 0.47852579 0
-0.2990284 -1.1140761 -0.049713638 0
-0.22988893 -0.98380142 0.47611845 0
-0.28395712 -1.1277306 -0.049896426 0
-0.20885582 -0.98181456 0.47229114 0
-0.26583606 -1.1355673 -0.049853556 0
-0.18977441 -0.98309737 0.46980223 0
-0.24866487 -1.1453074 -0.049895495 0
-0.16816457 -0.97872144 0.46532652 0
-0.23011489 -1.1521773 -0.049832605 0
-0.15112795 -0.98332864 0.46427679 0
-0.20970024 -1.1548268 -0.049613867 0
-0.13179334 -0.98267168 0.46138927 0
-0.19543184 -1.1711491 -0.049939178 0
-0.11385955 -0.98467845 0.45957363 0
-0.17513056 -1.1737909 -0.049739528 0
-0.10380264 -1.0049812 0.46445739 0
-0.15591069 -1.1787204 -0.049638979 0
-0.073256388 -0.97602326 0.3477639 0
-0.084273174 -1.0030401 0.46136975 0
-0.14040609 -1.192914 -0.049903624 0
-0.052156135 -0.96845168 0.34396923 0
-0.06574516 -1.003015 0.45907044 0
-0.12101097 -1.1973702 -0.049802747 0
-0.032031313 -0.96240586 0.14697796 0
-0.031571195 -0.96119076 0.24234664 0
-0.016057504 -0.92022461 0.32917395 0
-0.054919824 -1.0228463 0.46392921 0
-0.10759051 -1.218025 -0.050327137 0
-0.0089538824 -0.94731647 0.14459406 0
-0.00700043 -0.94195515 0.23755136 0
0.0042939349 -0.91095763 0.32514933 0
-0.083481684 -1.2092848 -0.049743712 0
0.010085212 -0.94207734 0.14337544 0
0.010579662 -0.9406653 0.23626563 0
0.021932201 -0.90824479 0.32298356 0
0.00097282394 -0.96810037 0.44044825 0
-0.065424487 -1.2172685 -0.049804095 0
0.026125835 -0.9448716 0.14310002 0
0.017322766 -0.97106403 0.24105667 0
0.024510281 -0.94967848 0.33276916 0
0.013957994 -0.98107558 0.44312933 0
-0.048810288 -1.2298808 -0.050046388 0
0.035177097 -0.96916062 0.14527549 0
0.035370812 -0.96855921 0.23961003 0
0.020619737 -1.0143507 0.3487528 0
0.020123051 -1.0158925 0.45349127 0
-0.031588778 -1.2411139 -0.050244048 0
0.023384081 -1.0628004 0.36033028 0
-0.012458397 -1.2463712 -0.050226647 0
0.068186745 -0.97258717 0.33499405 0
0.010562347 -1.237746 -0.04970346 0
0.081151232 -0.98647147 0.3374837 0
0.02589898 -1.2564424 -0.050202448 0
0.099787638 -0.98010474 0.33465996 0
0.043718681 -1.2668033 -0.050399926 0
0.1176755 -0.9755637 0.33238775 0
0.065589771 -1.2609327 -0.050009042 0
0.08638157 -1.2585808 -0.049758203 0
0.10480399 -1.266466 -0.049891364 0
0.12394367 -1.2712744 -0.049920611 0
0.14191364 -1.2824371 -0.05018938 0
-0.065704003 -2.3874373 0.10232961 0
0.16255434 -1.2794468 -0.049952824 0
0.0036684738 -2.1879721 0.094880618 0
0.18258151 -1.2792212 -0.049826138 0
0.032214388 -2.2077889 0.095409051 0
0.20187542 -1.2833304 -0.049865279 0
0.065547839 -2.1980455 0.094882481 0
0.22082415 -1.2902021 -0.050012644 0
0.097813293 -2.1934283 0.094556659 0
0.24189028 -1.2807872 -0.049582511 0
0.12757851 -2.2072384 0.094908841 0
0.25956228 -1.2993236 -0.050166495 0
0.15918349 -2.206722 0.094759405 0
0.27984223 -1.2954794 -0.049954914 0
0.19112375 -2.2017496 0.094464593 0
0.29951692 -1.2970184 -0.049945597 0
0.22269091 -2.1987655 0.094255753 0
0.31836432 -1.3099161 -0.050351746 0
0.25375941 -2.2006891 0.094237015 0
0.33900899 -1.297645 -0.049865913 0
0.28477076 -2.2034285 0.094261467 0
0.3587983 -1.2962817 -0.049779523 0
0.31570348 -2.2083013 0.094376124 0
0.37828603 -1.3019545 -0.049953416 0
0.34702405 -2.2044561 0.094193213 0
0.39777496 -1.313283 -0.050337996 0
0.37831238 -2.1964428 0.093875594 0
0.41770852 -1.3065836 -0.050087646 0
0.43750188 -1.3104466 -0.050223336 0
0.45719329 -1.3015521 -0.049912438 0
0.47686526 -1.2996017 -0.049858298 0
0.496517 -1.2980146 -0.049825963 0
0.51627678 -1.2988123 -0.049887706 0
0.53582644 -1.2957293 -0.049819555 0
0.55527961 -1.291995 -0.049736828 0
0.5753265 -1.2953513 -0.049916979 0
0.59417421 -1.2859505 -0.049648508 0
0.61377031 -1.2845488 -0.049675692 0
0.6351912 -1.2970337 -0.050211728 0
0.65479308 -1.2940637 -0.050201103 0
0.67328054 -1.2839541 -0.049941417 0
0.69144785 -1.273028 -0.049660031 0
0.71294987 -1.2815813 -0.050093081 0
0.73186058 -1.2751892 -0.049993467 0
0.75067604 -1.2686685 -0.049897578 0
0.76995593 -1.2645515 -0.04989795 0
0.7883383 -1.2565832 -0.049766004 0
0.80708122 -1.2504476 -0.049709547 0
0.82845801 -1.2545624 -0.050039779 0
0.84799516 -1.2510741 -0.050099645 0
0.86449492 -1.2368652 -0.049770582 0
0.88378352 -1.2327024 -0.049822599 0
0.90754628 -1.2426015 -0.050410278 0
0.92239469 -1.2240778 -0.049943347 0
0.94238609 -1.2215482 -0.05008512 0
0.95924401 -1.209941 -0.049892917 0
0.97949833 -1.2078562 -0.050070543 0
0.99958152 -1.2049712 -0.050228149 0
0.92663884 -1.0159581 0.46257675 0
1.0122716 -1.1833171 -0.04967444 0
0.94263691 -1.0094264 0.46250185 0
1.0365024 -1.1904728 -0.050237652 0
0.95705926 -0.99910671 0.46113446 0
1.0484374 -1.1680185 -0.049665045 0
0.97376287 -0.99434763 0.46183899 0
1.0722315 -1.1732012 -0.050175037 0
0.98866731 -0.98540741 0.46110126 0
1.0887554 -1.1617161 -0.050044689 0
1.0031899 -0.97576433 0.46017042 0
1.1094135 -1.1591322 -0.050273649 0
1.0257297 -0.98313957 0.46557057 0
1.1248412 -1.145523 -0.050075825 0
1.0444316 -0.98176557 0.46786621 0
1.1370915 -1.1259453 -0.04964561 0
1.0623622 -0.97847885 0.46955073 0
1.1545535 -1.1169872 -0.049646545 0
1.082651 -0.97942251 0.47291896 0
1.1776605 -1.1184974 -0.050080903 0
1.1036087 -0.98106426 0.47667015 0
1.1913897 -1.1024787 -0.049814381 0
1.1308782 -0.9934842 0.057363663 0
1.1311965 -0.99405771 0.16068722 0
1.1297516 -0.9914549 0.26505017 0
1.1289027 -0.98992592 0.37202165 0
1.1303222 -0.99248284 0.4842681 0
1.2108696 -1.0968902 -0.049981948 0
1.1439625 -0.97987252 0.057169594 0
1.1440619 -0.98004633 0.16005404 0
1.1448667 -0.98145407 0.26481694 0
1.147662 -0.98634273 0.37357464 0
1.1495659 -0.98967272 0.48659641 0
1.2255338 -1.082881 -0.049812045 0
1.1650277 -0.98008412 0.057553526 0
1.1618059 -0.97461039 0.16050568 0
1.159757 -0.97112948 0.26455393 0
1.1651239 -0.98024756 0.3744652 0
1.162441 -0.97568935 0.48472187 0
1.2460933 -1.0788301 -0.05006418 0
1.2608557 -1.0651326 -0.049923372 0
1.2802039 -1.0587714 -0.050100334 0
1.2917435 -1.0403202 -0.049772322 0
1.3116474 -1.0346355 -0.04999809 0
1.324253 -1.0181695 -0.049767889 0
1.3380426 -1.0036355 -0.049627308 0
1.3581471 -0.99787575 -0.04988151 0
1.3739387 -0.98608345 -0.049879827 0
1.3889437 -0.97327036 -0.049840994 0
1.4031618 -0.95950395 -0.049766906 0
1.2062944 -0.71126944 0.050455898 0
1.2053952 -0.7101357 0.13966721 0
1.4227753 -0.95244557 -0.050009012 0
1.2064083 -0.68656951 0.049770977 0
1.2012382 -0.68021637 0.13688068 0
1.4371314 -0.93881887 -0.049959619 0
1.2056381 -0.66156065 0.049064521 0
1.2111521 -0.66816479 0.13655896 0
1.457454 -0.93220693 -0.050247889 0
1.2015982 -0.6334967 0.048206341 0
1.2019515 -0.63390911 0.13310939 0
1.4699552 -0.91638011 -0.050113533 0
1.2087207 -0.6190508 0.047983393 0
1.2043405 -0.61406541 0.13166671 0
1.4882709 -0.90714234 -0.050301831 0
1.208656 -0.59686095 0.047390014 0
1.2041297 -0.5918383 0.12986708 0
1.4979812 -0.88839346 -0.050041113 0
1.50915 -0.87144619 -0.049871854 0
1.5255154 -0.8600114 -0.049981944 0
1.5370982 -0.84366471 -0.049856134 0
1.5483778 -0.82714111 -0.049727067 0
1.5691593 -0.81980258 -0.050078675 0
1.5825766 -0.80527169 -0.050071672 0
1.5984541 -0.79297429 -0.050192185 0
1.6037445 -0.77119809 -0.049814258 0
1.6240584 -0.76272005 -0.050161526 0
1.6295661 -0.7414766 -0.049819704 0
1.6426077 -0.72671121 -0.049841471 0
1.6596513 -0.7151165 -0.050054364 0
1.6707011 -0.6986658 -0.050000735 0
1.6904181 -0.68882644 -0.050345171 0
1.6896839 -0.66358513 -0.049784441 0
1.7059711 -0.65106332 -0.049991217 0
1.715562 -0.6336726 -0.049911264 0
1.7286003 -0.6186952 -0.049990434 0
1.7372907 -0.60076416 -0.049890805 0
1.7567992 -0.58989167 -0.050261229 0
1.7610725 -0.56914842 -0.04999242 0
1.7749964 -0.55451035 -0.050140221 0
1.7855036 -0.53772187 -0.05015279 0
1.7997668 -0.52308285 -0.050328758 0
1.8041903 -0.50279456 -0.050108556 0
1.8044223 -0.48040393 -0.049729992 0
1.8157568 -0.46415928 -0.049813345 0
1.831399 -0.45004502 -0.05007707 0
1.8343824 -0.42945442 -0.049842004 0
1.8452687 -0.41283253 -0.04993153 0
1.8616804 -0.39870116 -0.050246261 0
1.8617538 -0.37699124 -0.049926866 0
1.8724494 -0.3601304 -0.050033234 0
1.8764989 -0.3404012 -0.049890034 0
1.8784126 -0.31991449 -0.049674913 0
1.9010326 -0.30765304 -0.050264101 0
1.8964572 -0.2847434 -0.049819443 0
1.9093554 -0.26846841 -0.050050974 0
1.9188603 -0.25084099 -0.050161038 0
1.930917 -0.23397724 -0.050375018 0
1.9152945 -0.2081313 -0.049558975 0
1.9272419 -0.19128852 -0.049787227 0
1.9377528 -0.17385663 -0.049969133 0
1.9524446 -0.1574486 -0.050313454 0
1.9487848 -0.1359411 -0.049986653 0
1.9510864 -0.11616183 -0.049890272 0
1.9618993 -0.09846849 -0.05011563 0
1.9568634 -0.077059157 -0.049768679 0
1.9625664 -0.058160435 -0.049824309 0
1.9741795 -0.040386956 -0.05010356 0
1.9859271 -0.022434782 -0.05039518 0
1.9781362 -0.0009170876 -0.049986612 0
1.9869701 0.017673511 -0.050189625 0
1.9852207 0.037955303 -0.050018884 0
1.9994793 0.055989895 -0.050434176 0
1.9918369 0.076955043 -0.050069489 0
1.9864404 0.097423337 -0.049795426 0
1.9887128 0.11697424 -0.04980595 0
1.9979916 0.13596098 -0.050076265 0
1.9965827 0.15588333 -0.049972422 0
2.0027835 0.17530382 -0.050149746 0
2.000335 0.19523406 -0.05002661 0
1.9995762 0.21502733 -0.049972858 0
1.9960057 0.23483893 -0.049827609 0
1.9910063 0.2545602 -0.049640272 0
1.9956808 0.27421337 -0.049807161 0
1.9944916 0.29387659 -0.049773544 0
2.0058603 0.31391469 -0.050197318 0
2.007266 0.33381572 -0.050274301 0
1.9969902 0.35311171 -0.049942583 0
2.0031712 0.37331781 -0.050208207 0
1.9964968 0.39266056 -0.050022721 0
1.9992907 0.41277182 -0.050185282 0
1.9995627 0.43273064 -0.050266601 0
1.9902797 0.45160195 -0.050013497 0
1.9905863 0.47157159 -0.05011389 0
1.9904498 0.49155137 -0.050207548 0
1.9831399 0.51046276 -0.050051171 0
1.9842924 0.53071791 -0.050209615 0
1.9751127 0.54918224 -0.050002567 0
1.970505 0.56840467 -0.049969837 0
1.9639115 0.58718812 -0.049873389 0
1.9629139 0.60715848 -0.049990039 0
1.9636962 0.627639 -0.050181568 0
1.9453462 0.64346755 -0.049679004 0
1.9438227 0.66337514 -0.049803428 0
1.9492136 0.68529606 -0.050193746 0
1.9286571 0.6999526 -0.049630918 0
1.9242854 0.71913135 -0.04967688 0
1.9253956 0.7400943 -0.049937461 0
1.9154146 0.75756538 -0.049791753 0
1.9173499 0.77906162 -0.050103966 0
1.9044908 0.79545736 -0.049866341 0
1.9031862 0.81601161 -0.050076023 0
1.8955972 0.83427989 -0.050055847 0
1.8812733 0.84981465 -0.049785066 0
1.8722147 0.86735094 -0.049724206 0
1.8734298 0.88929975 -0.050071385 0
1.8645866 0.90700662 -0.050037716 0
1.8557829 0.92470908 -0.050014157 0
1.8413632 0.93970454 -0.049776908 0
1.8419008 0.96191972 -0.050141498 0
1.8300288 0.97808933 -0.05002214 0
1.826759 0.99869812 -0.050257284 0
1.8178325 1.0164284 -0.050274756 0
1.808874 1.0341583 -0.050300147 0
1.7873515 1.0446763 -0.049817253 0
1.7823131 1.0645746 -0.050020374 0
1.772061 1.0814639 -0.050017461 0
1.7656626 1.1007723 -0.050185874 0
1.7548232 1.1173611 -0.050177276 0
1.7368016 1.129184 -0.049869858 0
1.7294453 1.1480151 -0.050026938 0
1.7140219 1.1613387 -0.04984415 0
1.6996846 1.1752882 -0.049714807 0
1.6971231 1.1978204 -0.050114542 0
1.681237 1.2106133 -0.04993391 0
1.6686957 1.2258501 -0.049910028 0
1.6556042 1.2406303 -0.049869496 0
1.6414071 1.254472 -0.049786068 0
1.6370716 1.2765276 -0.050169706 0
1.6244432 1.291796 -0.050179664 0
1.6089453 1.3045409 -0.050062105 0
1.5955849 1.3191164 -0.050053902 0
1.5812342 1.3327672 -0.050006222 0
1.5654626 1.3450207 -0.049896285 0
1.5482671 1.355777 -0.049721539 0
1.5468192 1.3821605 -0.050347716 0
1.5248613 1.3880827 -0.049948443 0
1.5149692 1.4063295 -0.050173845 0
1.497566 1.4166883 -0.050019268 0
1.04535 0.92740732 0.30637494 0
1.4831988 1.430258 -0.050031334 0
1.4365299 1.3784708 0.059542496 0
1.4378588 1.3799455 0.16738887 0
1.4411535 1.3836015 0.27772096 0
1.0505807 0.95019311 0.31314754 0
1.4724087 1.4479167 -0.050246239 0
1.4112978 1.3783622 0.058940765 0
1.4112185 1.3782719 0.16535127 0
1.4146035 1.3821245 0.2743389 0
1.0557041 0.97363609 0.32010737 0
1.4499195 1.4521546 -0.049834389 0
1.3901634 1.3823898 0.05855494 0
1.3957225 1.38888 0.16512112 0
1.3893424 1.3814312 0.27125898 0
1.0601623 0.99711514 0.32697994 0
1.4438093 1.4755613 -0.050331607 0
1.3606762 1.3759931 0.057700764 0
1.3694685 1.3865236 0.1631058 0
1.3648566 1.3809999 0.26834801 0
1.0553643 1.0103226 0.32930431 0
1.4149053 1.471519 -0.049563874 0
1.3386511 1.3778163 0.057250828 0
1.3419113 1.3818225 0.16083215 0
1.3437042 1.3840256 0.26634258 0
1.0582281 1.0332271 0.33579051 0
1.4093373 1.496035 -0.050121717 0
1.3274244 1.3927492 0.057415418 0
1.3119432 1.3732285 0.158095 0
1.3281186 1.3936245 0.2659317 0
1.0570844 1.0518714 0.34038794 0
1.3935587 1.5079867 -0.050110452 0
1.3016765 1.3890854 0.056745764 0
1.2927477 1.3775311 0.15718742 0
1.2953773 1.3809338 0.26048946 0
1.0487806 1.0618224 0.34129179 0
1.3791785 1.5217878 -0.050190859 0
1.2805854 1.3908267 0.056338526 0
1.2757881 1.3844544 0.15667363 0
1.2721238 1.3795871 0.25775293 0
1.0416616 1.0734644 0.34293506 0
1.3617818 1.5315764 -0.050100945 0
1.2492501 1.3781167 0.055307068 0
1.2503111 1.3795638 0.15461874 0
1.2528977 1.3830912 0.25619218 0
1.0334613 1.0838456 0.34408021 0
1.3401097 1.5352744 -0.049754292 0
1.24459 1.4015144 0.055886261 0
1.2406886 1.396051 0.15544793 0
1.2519081 1.4117621 0.26027656 0
1.0249965 1.0940089 0.34516847 0
1.3260361 1.5494784 -0.049879409 0
1.2524173 1.4435929 0.057275265 0
1.2442316 1.4318194 0.15880957 0
1.2505463 1.440902 0.26443115 0
1.0106957 1.0959263 0.34294933 0
1.3107125 1.5619982 -0.049938533 0
1.2432306 1.4622837 0.057640009 0
1.2444834 1.4641351 0.16168882 0
1.2503146 1.4727516 0.2691443 0
1.0041265 1.1089723 0.3452923 0
1.2859154 1.5602144 -0.049394004 0
1.2518296 1.5084553 0.059181441 0
1.2395431 1.4897983 0.16368788 0
1.2358427 1.4841793 0.26940921 0
1.1721463 1.3874567 0.34908694 0
0.99577516 1.1196378 0.34670073 0
1.2751356 1.5796043 -0.049764901 0
1.2488009 1.5384974 0.060022 0
1.2388848 1.5230192 0.16664343 0
1.2204189 1.494195 0.26940876 0
1.1479061 1.3810073 0.34433812 0
0.98073971 1.1200716 0.34409687 0
1.2610838 1.5942429 -0.049938772 0
1.2508584 1.5778304 0.061248414 0
1.2473025 1.5721228 0.17158805 0
1.2036493 1.5020562 0.26899195 0
1.1288813 1.3820481 0.34197 0
0.97737479 1.1388687 0.34878588 0
1.2498922 1.6138467 -0.050325982 0
1.1859283 1.5082399 0.26826927 0
1.1017947 1.3693322 0.33558828 0
0.96405858 1.1419247 0.34733322 0
0.84084433 0.93849349 0.47339937 0
1.231459 1.6216917 -0.050229069 0
1.1750389 1.5258368 0.26998729 0
1.088128 1.3781794 0.33573869 0
0.95633268 1.1542656 0.34954068 0
0.84030235 0.95713592 0.48272714 0
1.2167352 1.6358932 -0.050403841 0
1.1582243 1.5335602 0.26967034 0
1.0695401 1.378455 0.33341968 0
0.94726163 1.1645948 0.3509987 0
0.84976417 0.99407578 0.35402218 0
0.84098691 0.97872466 0.41771844 0
0.84032637 0.9775694 0.49321628 0
1.1927345 1.6336452 -0.049913287 0
1.1392653 1.5373355 0.26858506 0
1.0549052 1.3853843 0.33312699 0
0.9324562 1.1648266 0.34864792 0
0.84957552 1.0155405 0.36172667 0
0.84119433 1.0004441 0.42723724 0
0.8395015 0.99739486 0.50321972 0
1.1745131 1.6414005 -0.049844027 0
1.1288761 1.5567024 0.27075031 0
1.0358003 1.3839624 0.33046961 0
0.92346358 1.175476 0.35032061 0
0.85011947 1.039356 0.37048587 0
0.83778381 1.0164622 0.43344989 0
0.84093475 1.02231 0.51659125 0
1.1602867 1.6567001 -0.050088406 0
1.110046 1.5605791 0.26977584 0
1.0173848 1.3832985 0.32811737 0
0.91662288 1.1905198 0.35367474 0
0.85148382 1.0658952 0.38045681 0
0.84016639 1.0442425 0.44628662 0
0.83506298 1.0344785 0.52133328 0
1.1425457 1.6654524 -0.05007638 0
1.0911567 1.5640444 0.26877248 0
0.99748248 1.3791928 0.32486221 0
0.90445143 1.1956106 0.35332751 0
0.84985203 1.0878673 0.38823652 0
0.83856326 1.0655906 0.45541695 0
0.83798945 1.0644583 0.53793627 0
1.1309559 1.68672 -0.050571114 0
1.0787978 1.580498 0.27043286 0
0.97690958 1.3729982 0.32110485 0
0.89151347 1.1990855 0.35244051 0
0.84533447 1.1050402 0.39376408 0
0.84006184 1.0943022 0.46860665 0
0.83673871 1.0875345 0.54985148 0
1.1060189 1.6807374 -0.049991425 0
0.96416324 1.3824055 0.3218509 0
0.87944067 1.2042284 0.35223347 0
0.83727527 1.1155517 0.39623094 0
0.840312 1.1219383 0.48111141 0
0.8389498 1.1190735 0.56726319 0
1.0873781 1.6874673 -0.049927067 0
0.94227445 1.3721265 0.31710905 0
0.86563182 1.205566 0.35068986 0
0.83701396 1.1433734 0.40661919 0
0.83912653 1.1479644 0.49265537 0
0.83856583 1.1467459 0.58203202 0
1.0712181 1.6996682 -0.050086048 0
0.92906374 1.3802044 0.31759709 0
0.8556987 1.2153311 0.35228723 0
0.84079605 1.1818405 0.42177525 0
0.84173459 1.1839496 0.50959706 0
0.84126347 1.1828909 0.60222107 0
1.0511966 1.7031798 -0.049914427 0
0.91429275 1.3847817 0.31715661 0
0.84985209 1.2349117 0.35747603 0
0.84224242 1.217214 0.43543369 0
0.83863598 1.2088264 0.52037936 0
0.83926249 1.2102834 0.616629 0
1.0341358 1.7135162 -0.050017282 0
0.89311862 1.3738281 0.31247962 0
0.85079145 1.2718685 0.36892363 0
0.84052551 1.2471393 0.44657037 0
0.83678925 1.2381393 0.53352994 0
0.8430649 1.2532564 0.64098263 0
1.0162749 1.7220583 -0.050058898 0
0.87638694 1.3727324 0.31060889 0
0.85229725 1.3125761 0.38165367 0
0.84263361 1.2884442 0.46273598 0
0.84161115 1.2858909 0.55656475 0
0.83905709 1.279513 0.65450412 0
0.99516904 1.7222816 -0.049790602 0
0.86706722 1.390337 0.31391898 0
0.8499518 1.3459866 0.39171305 0
0.83826178 1.3156947 0.47257414 0
0.84156078 1.3242433 0.57441443 0
0.84242463 1.3264817 0.68115848 0
0.98229635 1.7441317 -0.050357375 0
0.84965444 1.3871026 0.31157386 0
0.84670287 1.379158 0.40165108 0
0.83753711 1.3544868 0.48748854 0
0.83895385 1.3583002 0.58988839 0
0.84080845 1.3632921 0.70123488 0
0.96309888 1.7494756 -0.050301988 0
0.83060807 1.3786149 0.30787557 0
0.84450746 1.4175212 0.41339326 0
0.84151155 1.4091352 0.50931144 0
0.83796644 1.3992121 0.60895258 0
0.94039226 1.7444814 -0.04986579 0
0.81787264 1.3874027 0.30891779 0
0.84062856 1.453724 0.42433462 0
0.84083766 1.4543334 0.52688169 0
0.84041411 1.4530989 0.63480455 0
0.92212403 1.7519996 -0.049912434 0
1.0287229 2.0759077 0.34994593 0
0.8035928 1.3918343 0.30882883 0
0.83964908 1.5013938 0.43926424 0
0.83761334 1.495208 0.54249847 0
0.83780336 1.4957854 0.6546337 0
0.90276891 1.7561892 -0.049842924 0
1.0031074 2.0745184 0.34829092 0
0.78460145 1.3812971 0.30478424 0
0.84056789 1.5588533 0.45755392 0
0.84068555 1.5592268 0.56811827 0
0.84034491 1.5581459 0.68472278 0
0.88500786 1.7655084 -0.049974054 0
0.97903132 2.0774484 0.34751663 0
0.76929903 1.3816234 0.30371353 0
0.84154981 1.6213285 0.47751316 0
0.84202671 1.6229106 0.59347957 0
0.86554313 1.7692524 -0.049905922 0
0.9603675 2.0988114 0.35026139 0
0.7529698 1.3780073 0.30165136 0
0.8426978 1.6898543 0.49949065 0
0.84128571 1.6849465 0.61803174 0
0.84769654 1.7787288 -0.050059315 0
0.738038 1.3787277 0.047251847 0
0.74006808 1.3861328 0.13100298 0
0.73768371 1.3774352 0.2141462 0
0.74254012 1.3951499 0.3051424 0
