# .PCD v0.7 - Point Cloud Data file format
VERSION 0.7
FIELDS x y z intensity
SIZE 4 4 4 4
TYPE F F F F
COUNT 1 1 1 1
WIDTH 1315
HEIGHT 1
VIEWPOINT 0 0 0 1 0 0 0
POINTS 1315
DATA ascii
0.92979521 -0.57856023 -0.090315692 0
1.0633404 -0.51950544 -0.089940645 0
1.2086388 -0.45525333 -0.084601961 0
1.2110386 -0.45419213 -0.05366442 0
1.2025822 -0.45793161 -0.02166496 0
1.1998522 -0.4591389 0.0093284715 0
1.2002894 -0.45894554 0.039921213 0
1.2182208 -0.4510161 0.070025198 0
1.2097815 -0.45474806 0.10100813 0
0.81181133 -0.60599089 -0.089670204 0
0.92287636 -0.5534879 -0.091094874 0
1.0609338 -0.48822501 -0.091719396 0
1.2364366 -0.40526083 -0.091077305 0
1.4840851 -0.28819159 -0.090757392 0
1.8586842 -0.11111 -0.090827323 0
3.1198878 0.48509017 -0.14020625 0
4.6869164 1.2258606 -0.14032896 0
9.4046354 3.4560354 -0.14086752 0
0.8067981 -0.58317721 -0.090840347 0
0.91586989 -0.52820772 -0.091998212 0
1.0445696 -0.46334633 -0.091096528 0
1.2098747 -0.38003662 -0.089278094 0
1.4605432 -0.25370601 -0.090053238 0
1.8311082 -0.06695047 -0.09032277 0
3.0886872 0.56683809 -0.14075366 0
4.6497512 1.3535752 -0.14138293 0
9.2914848 3.6928933 -0.14091969 0
0.7897718 -0.56647134 -0.089267142 0
0.89361119 -0.51081008 -0.089789815 0
1.0330915 -0.43604413 -0.09149266 0
1.2012094 -0.34592757 -0.090408854 0
1.4371169 -0.21947351 -0.0894695 0
1.8114134 -0.018838432 -0.090763263 0
3.0485137 0.64428729 -0.14075936 0
4.5830579 1.4668527 -0.14106071 0
9.1645784 3.9226954 -0.14076634 0
0.7835288 -0.54404312 -0.090410791 0
0.89413226 -0.48111323 -0.09258049 0
1.0192465 -0.40992716 -0.09157633 0
1.1785345 -0.31929728 -0.089428999 0
1.2036358 -0.30501536 -0.060747359 0
1.2128921 -0.29974887 -0.029178804 0
3.0042386 0.71947175 -0.14059143 0
4.5202646 1.5820434 -0.1410948 0
9.0430136 4.1553464 -0.14090775 0
0.77370036 -0.52344269 -0.090821497 0
0.87356895 -0.46323541 -0.090940438 0
1.0066893 -0.38298181 -0.09203402 0
1.1631759 -0.28864148 -0.089744218 0
1.1394012 -0.30297443 -0.054389704 0
1.1954901 -0.26916042 -0.029220408 0
2.9576662 0.79319435 -0.14038715 0
4.4411931 1.687561 -0.14040139 0
8.912611 4.3832231 -0.14096966 0
0.76679301 -0.50084633 -0.092105396 0
0.8474049 -0.44943139 -0.088122614 0
0.9824903 -0.3632727 -0.09036129 0
1.1485884 -0.2573339 -0.090321042 0
1.1365089 -0.26503822 -0.056439463 0
1.17546 -0.24019495 -0.02905654 0
2.9195313 0.87218934 -0.14103226 0
4.3856602 1.8072991 -0.14114241 0
8.7748871 4.6067872 -0.14098804 0
0.7612192 -0.47696629 -0.09389811 0
0.84853983 -0.41812125 -0.091535352 0
0.96453959 -0.33994946 -0.089996003 0
1.1246302 -0.23206505 -0.089452557 0
1.1461301 -0.21757635 -0.060421739 0
1.1704597 -0.20118073 -0.030663183 0
2.866276 0.94162339 -0.14058049 0
4.308229 1.9133496 -0.14083509 0
8.6131659 4.8144298 -0.14049086 0
0.73578537 -0.46667114 -0.090698801 0
0.8322435 -0.39806703 -0.091162018 0
0.95036227 -0.3140572 -0.090502821 0
1.1097782 -0.20067552 -0.090247788 0
1.1414806 -0.17812774 -0.062599741 0
1.128709 -0.18721136 -0.028201288 0
2.8278487 1.0212712 -0.14154162 0
4.2304754 2.0188644 -0.14065538 0
8.4759016 5.0383477 -0.1408307 0
0.7202819 -0.44985983 -0.090145297 0
0.81248689 -0.3807123 -0.090084948 0
0.94101322 -0.28432617 -0.092144229 0
1.0926783 -0.17058757 -0.090801246 0
1.0965978 -0.16764823 -0.059085865 0
1.0930665 -0.1702964 -0.026445827 0
1.1023781 -0.16331336 0.0047253612 0
1.0977623 -0.16677484 0.037146714 0
1.0930948 -0.17027518 0.069231056 0
1.1036444 -0.16236374 0.10100974 0
1.0955135 -0.16846141 0.13285819 0
1.0945728 -0.16916677 0.16468669 0
1.0939813 -0.16961041 0.19656007 0
0.70690507 -0.43151721 -0.090270616 0
0.79855418 -0.35910282 -0.090488411 0
0.9141115 -0.2677978 -0.090297721 0
1.0549729 -0.15649948 -0.087809928 0
1.1106578 -0.11250123 -0.064320035 0
1.0930136 -0.1264424 -0.028939104 0
1.1018968 -0.1194236 0.002880173 0
1.0971242 -0.12319455 0.03593253 0
1.0943667 -0.12537333 0.068570726 0
1.1014732 -0.11975828 0.10101043 0
1.1004838 -0.12054011 0.13363138 0
1.1031404 -0.11844108 0.1664456 0
1.0975107 -0.12288919 0.19875002 0
0.69117057 -0.41507861 -0.089873396 0
0.78452921 -0.33740827 -0.091010101 0
0.89061022 -0.24915341 -0.089227356 0
1.0289195 -0.1340861 -0.086949684 0
1.1007603 -0.074317545 -0.066232301 0
1.1001849 -0.074796289 -0.032495428 0
1.1033273 -0.072182029 0.00072228373 0
1.1023353 -0.073007315 0.034272436 0
1.1066967 -0.069378823 0.067528017 0
1.1020578 -0.073238164 0.10101128 0
1.1053629 -0.070488423 0.1344545 0
1.1032128 -0.072277158 0.16780356 0
1.0999365 -0.075002998 0.20099217 0
0.68089569 -0.39396581 -0.091125779 0
0.7694717 -0.31641033 -0.091420569 0
0.87186551 -0.22675624 -0.089273877 0
0.99935704 -0.115127 -0.085519336 0
1.1055875 -0.022113707 -0.070622735 0
1.1008241 -0.026284363 -0.035480727 0
1.0901741 -0.035609331 -0.00023826002 0
1.1011983 -0.025956716 0.032890547 0
1.0930867 -0.033059087 0.067220457 0
1.1023479 -0.024950173 0.10101219 0
1.1033998 -0.024029221 0.13512275 0
1.1052548 -0.022404995 0.16938524 0
1.0943389 -0.031962778 0.20264943 0
1.1073529 -0.02056792 0.23831621 0
1.0873427 -0.038088467 0.37302473 0
0.66259521 -0.37982216 -0.090240456 0
0.74647647 -0.30255267 -0.089942165 0
0.85451168 -0.20303306 -0.089757197 0
0.96081811 -0.10510603 -0.082430609 0
1.0574681 -0.016074266 -0.066909976 0
1.0930685 0.016719971 -0.037624467 0
1.0955436 0.019000087 -0.0030687356 0
1.1005071 0.02357224 0.031373646 0
1.1005104 0.02357522 0.066212103 0
1.1030952 0.025956307 0.10101318 0
1.1024417 0.0253543 0.1358753 0
1.0925387 0.016231928 0.1701477 0
1.0936996 0.017301355 0.20491949 0
1.0901374 0.01401988 0.23927858 0
1.0364829 -0.035405304 0.36623272 0
0.64881152 -0.36157444 -0.090774544 0
0.72632307 -0.28647009 -0.089263164 0
0.84882867 -0.16776904 -0.093058728 0
0.84235543 -0.17404124 -0.063674636 0
0.84535497 -0.1711348 -0.03644203 0
0.83779889 -0.17845628 -0.0077913534 0
0.84327054 -0.1731545 0.018978106 0
0.82651711 -0.18938765 0.047455452 0
0.83777428 -0.17848012 0.073879376 0
0.8404783 -0.17586008 0.10100377 0
0.84563071 -0.17086771 0.12838295 0
0.83894646 -0.17734435 0.15535782 0
0.83846557 -0.17781028 0.18256186 0
1.0928315 0.068655998 0.24296619 0
1.0075315 -0.013994899 0.29801938 0
1.010693 -0.010931697 0.33212414 0
0.98470497 -0.036112513 0.35904944 0
0.63514066 -0.34301004 -0.091494821 0
0.71066433 -0.26604345 -0.089883052 0
0.82271844 -0.15184847 -0.09185905 0
0.84441531 -0.12973711 -0.068269052 0
0.84279686 -0.13138649 -0.039504696 0
0.84023792 -0.13399437 -0.010878375 0
0.84432286 -0.12983134 0.016790906 0
0.83873439 -0.13552657 0.045284376 0
0.83706021 -0.13723275 0.07321512 0
0.83726597 -0.13702306 0.10100449 0
0.85072815 -0.12330362 0.12924872 0
0.8406226 -0.13360223 0.15685053 0
0.84236717 -0.1318244 0.18502361 0
0.84057826 -0.13364747 0.21293359 0
1.1036856 0.13448647 0.28507113 0
0.95091671 -0.021200981 0.2916587 0
0.95006299 -0.02207103 0.32376179 0
0.95059162 -0.021532264 0.35642648 0
0.62296808 -0.32256767 -0.092845835 0
0.69955164 -0.24047664 -0.091915675 0
0.7878561 -0.14582172 -0.088613413 0
0.83809388 -0.09197101 -0.071490027 0
0.84298211 -0.086731285 -0.043290932 0
0.84094661 -0.088913172 -0.013964741 0
0.84070939 -0.089167506 0.014911355 0
0.83979475 -0.090147883 0.043723684 0
0.84388047 -0.085768312 0.072240837 0
0.83490062 -0.095393986 0.1010053 0
0.8405143 -0.089376599 0.12965554 0
0.83747298 -0.092636615 0.15812883 0
0.84271586 -0.087016672 0.18730587 0
0.835428 -0.094828635 0.21522087 0
1.0999993 0.18876937 0.28935975 0
0.93129772 0.0079355575 0.29271173 0
0.92823803 0.0046558115 0.32445619 0
0.93082619 0.0074301097 0.35779488 0
0.60878038 -0.3038924 -0.093753256 0
0.67171037 -0.2329286 -0.089438669 0
0.77400643 -0.11757329 -0.090516411 0
0.85186905 -0.02977052 -0.079259716 0
0.83598608 -0.047681179 -0.04611716 0
0.83838326 -0.044977929 -0.01683767 0
0.84225482 -0.040612128 0.01232736 0
0.84637028 -0.03597131 0.041651741 0
0.83305955 -0.050981309 0.071811765 0
0.84012699 -0.043011572 0.1010065 0
0.83568859 -0.048016634 0.13029303 0
0.83675641 -0.046812501 0.15968657 0
0.83462358 -0.049217608 0.18888144 0
0.84303594 -0.03973129 0.2195061 0
1.1066325 0.25751641 0.29582882 0
1.1008219 0.25096396 0.3340283 0
0.58133298 -0.30059502 -0.090467654 0
0.65912968 -0.20827559 -0.091401882 0
0.72863233 -0.12579855 -0.084616251 0
0.84220296 0.0089728571 -0.082490556 0
0.83771908 0.0036519503 -0.0507886 0
0.84572142 0.013148103 -0.021390377 0
0.83670634 0.0024501418 0.010303469 0
0.83809465 0.0040976736 0.040492438 0
0.83909899 0.0052894684 0.070730098 0
0.83643031 0.0021226143 0.10100741 0
0.84667557 0.014280472 0.13155904 0
0.83859032 0.0046857926 0.16155854 0
0.83702755 0.0028313731 0.19174662 0
0.84228396 0.0090689994 0.22290845 0
0.83770216 0.0036318635 0.25280148 0
1.0997806 0.31463364 0.34070492 0
0.56296831 -0.28717503 -0.090194352 0
0.630427 -0.20289668 -0.088753261 0
0.72720098 -0.081993788 -0.090030767 0
0.84917682 0.070394546 -0.089783557 0
0.85384834 0.076230794 -0.058540631 0
0.84093368 0.060096059 -0.024493327 0
0.84561169 0.065940529 0.0064780656 0
0.83813453 0.056599054 0.038602345 0
0.83723819 0.055479322 0.069855727 0
0.83716685 0.055390034 0.1010086 0
0.83760095 0.055932436 0.13217504 0
0.83735269 0.055622254 0.1633568 0
0.84024221 0.059232268 0.19493909 0
0.83818054 0.056656513 0.22610006 0
0.83794785 0.056365762 0.25758511 0
1.0971321 0.380173 0.34758961 0
1.1000065 0.38376406 0.39012432 0
0.54774779 -0.26970032 -0.091133676 0
0.61818033 -0.17700621 -0.091180108 0
0.69988966 -0.069471091 -0.088893034 0
0.72734618 -0.033336427 -0.067757137 0
0.73155195 -0.027801301 -0.040161494 0
0.72557247 -0.035670724 -0.010821445 0
0.73331708 -0.02547821 0.016346375 0
0.73336589 -0.025414016 0.04461313 0
0.73351729 -0.025214817 0.072818488 0
0.73167098 -0.027644601 0.10100488 0
0.72614247 -0.03492054 0.12890737 0
0.73091346 -0.028641548 0.157208 0
0.73050606 -0.029177751 0.18533878 0
0.72233397 -0.039932813 0.21233127 0
0.73363024 -0.025066104 0.24257387 0
0.72867113 -0.031592634 0.27007574 0
0.72945416 -0.030562129 0.29893577 0
0.72448647 -0.037099984 0.32628715 0
0.53177887 -0.25285795 -0.091992013 0
0.60269797 -0.15446535 -0.092858009 0
0.67625481 -0.052413132 -0.088835604 0
0.72655904 0.017378602 -0.073420592 0
0.95195842 0.33009604 -0.089111619 0
0.85203767 0.19146672 -0.034887139 0
0.83494908 0.16775814 0.0012598506 0
0.84190166 0.17740408 0.034016784 0
0.83438396 0.1669741 0.067831181 0
0.84335214 0.17941657 0.10101152 0
0.83916235 0.17360356 0.13438152 0
0.8378908 0.17183951 0.16768657 0
0.84152603 0.17688301 0.20154977 0
0.84066778 0.17569223 0.23509564 0
0.84831333 0.18629959 0.27041978 0
0.83811015 0.17214385 0.30225554 0
1.0932554 0.52613026 0.40809527 0
0.51021326 -0.24382153 -0.090930961 0
0.58075845 -0.14055094 -0.09262947 0
0.65668774 -0.029398765 -0.090084486 0
0.76562351 0.13007143 -0.089539044 0
0.92242074 0.35960558 -0.089951701 0
1.1572735 0.70340472 -0.090371646 0
0.84832543 0.25113812 -0.0040491056 0
0.84266007 0.24284473 0.031502541 0
0.83580917 0.23281565 0.066558972 0
0.84157592 0.24125758 0.10101294 0
0.83909494 0.23762563 0.13560215 0
0.84119266 0.24069658 0.17040238 0
0.84309906 0.24348727 0.20542783 0
0.8461448 0.24794593 0.24091379 0
0.84018964 0.23922816 0.27494046 0
0.84082681 0.24016097 0.31030315 0
1.10279 0.62364656 0.42212036 0
1.0961053 0.61386102 0.46676815 0
0.48944893 -0.23398307 -0.090229057 0
0.54661286 -0.14559272 -0.088277884 0
0.63064271 -0.01566061 -0.089595057 0
0.74263507 0.15750876 -0.090961762 0
0.8847506 0.37725642 -0.089232288 0
1.1165397 0.73566276 -0.090774305 0
1.4874796 1.3092325 -0.090394013 0
0.84972769 0.32310179 0.028208571 0
0.84126049 0.31000927 0.064994015 0
0.83715403 0.30365971 0.10101435 0
0.83939582 0.30712608 0.13695514 0
0.8372016 0.30373326 0.17274651 0
0.84104234 0.30967203 0.20920484 0
0.83692807 0.3033103 0.24474379 0
0.84024233 0.30843499 0.28168362 0
0.83815765 0.30521157 0.31771231 0
0.84274346 0.31230238 0.35581776 0
1.104998 0.71781629 0.48400807 0
0.46582344 -0.22911516 -0.088431068 0
0.53215897 -0.12063536 -0.090807728 0
0.61142099 0.0089833476 -0.091341726 0
0.70956695 0.16948345 -0.089911945 0
0.8523317 0.40294948 -0.089756913 0
1.0698669 0.75868899 -0.090274148 0
1.4266763 1.3421865 -0.090080954 0
0.84724873 0.39463726 0.025450746 0
0.85127848 0.40122715 0.063074581 0
0.8405422 0.38366988 0.10101634 0
0.83944589 0.38187709 0.13843068 0
0.83999354 0.38277259 0.17593464 0
0.84704047 0.39429668 0.21444064 0
0.83544892 0.37534073 0.25036541 0
0.838413 0.38018802 0.28867245 0
0.84428126 0.38978449 0.32823652 0
0.83950949 0.38198116 0.36523265 0
1.1022296 0.81161255 0.49869075 0
0.44835064 -0.21441528 -0.089219756 0
0.50812751 -0.11087885 -0.090074949 0
0.58252364 0.017978702 -0.090186171 0
0.68100679 0.1885561 -0.090165608 0
0.81710798 0.42428985 -0.089797802 0
1.0282166 0.78993994 -0.090795614 0
1.3713547 1.3842711 -0.090634324 0
1.3740458 1.3889325 -0.026875144 0
0.84988958 0.48106924 0.061495136 0
0.83860064 0.46151617 0.10101822 0
0.84194863 0.46731499 0.14017248 0
0.83872414 0.46173003 0.17906846 0
0.84013331 0.46417084 0.21839678 0
0.83728445 0.45923653 0.25718945 0
0.83779448 0.46011987 0.29667085 0
0.84405309 0.47096005 0.33803183 0
0.83861887 0.46154776 0.37640426 0
0.84184873 0.46714202 0.41782841 0
0.42833176 -0.20397243 -0.089074977 0
0.48757035 -0.095114559 -0.090771429 0
0.55641305 0.031392012 -0.090010457 0
0.65373701 0.21023634 -0.09094914 0
0.77628636 0.43543521 -0.088600747 0
0.98131889 0.81220669 -0.090467758 0
1.2880782 1.3759131 -0.087277316 0
1.2937729 1.3863778 -0.024943685 0
1.2907096 1.3807485 0.038235065 0
0.85086119 0.57247525 0.10102116 0
0.83978397 0.55211955 0.14187205 0
0.8373397 0.54762787 0.1825296 0
0.84263593 0.55736035 0.22417018 0
0.83644617 0.545986 0.26421902 0
0.84180802 0.555839 0.30666402 0
0.84259951 0.55729347 0.34852013 0
0.83790147 0.54866022 0.38884029 0
0.83796668 0.54878014 0.43088844 0
0.4119809 -0.18640819 -0.090754099 0
0.47013703 -0.072802693 -0.092954941 0
0.53160483 0.04727212 -0.090414949 0
0.6218583 0.22357836 -0.090515636 0
0.74832362 0.47062305 -0.090711944 0
0.93809259 0.8413288 -0.090987928 0
1.2449257 1.4407141 -0.089875259 0
1.2470741 1.444911 -0.026338583 0
1.2503449 1.4513004 0.037222531 0
1.2455752 1.441983 0.10104837 0
0.85049832 0.6702171 0.14442301 0
0.83806014 0.64591962 0.1865972 0
0.84110773 0.65187305 0.22996855 0
0.83741736 0.64466411 0.27241224 0
0.84207338 0.6537593 0.3168048 0
0.83883047 0.6474244 0.35947958 0
0.84538209 0.66022271 0.4056361 0
0.84359354 0.65672892 0.44937086 0
0.39205733 -0.17532626 -0.090982251 0
0.43634835 -0.083142787 -0.088381611 0
0.50303435 0.055651579 -0.089561827 0
0.59075207 0.23821965 -0.090416126 0
0.71439749 0.49556437 -0.091561206 0
0.89078254 0.8626768 -0.09081047 0
1.1841457 1.4732568 -0.09002497 0
1.7829361 2.719527 -0.090587877 0
4.5028505 8.3805189 -0.14072272 0
0.85048521 0.77880543 0.19240382 0
0.83637768 0.74944323 0.23593745 0
0.84069574 0.75843054 0.28206772 0
0.84087485 0.75880331 0.32774669 0
0.83606482 0.74879211 0.37207466 0
0.83545178 0.74751621 0.4177683 0
0.84150308 0.7601108 0.46664619 0
0.36903417 -0.17096838 -0.089758508 0
0.41653013 -0.065368503 -0.08984337 0
0.47621092 0.067322403 -0.089442171 0
0.5604775 0.25467601 -0.090719156 0
0.67180133 0.50218731 -0.090163745 0
0.84494048 0.88713533 -0.091076307 0
1.1197364 1.498101 -0.089701138 0
1.6856973 2.756427 -0.090236701 0
4.2676501 8.4969978 -0.14087249 0
1.0693153 1.3859975 0.22237045 0
0.85102391 0.90066081 0.24596396 0
0.84186047 0.88028735 0.2924343 0
0.84018505 0.87656218 0.34019935 0
0.84038526 0.87700742 0.38867736 0
0.83928525 0.87456173 0.43697539 0
0.83836812 0.87252265 0.48560321 0
0.35100731 -0.15542111 -0.091261856 0
0.39748695 -0.044694271 -0.091984846 0
0.44926903 0.078664213 -0.089386471 0
0.52742875 0.26486138 -0.090180315 0
0.63894409 0.53052038 -0.091669865 0
0.79605716 0.90480524 -0.090769894 0
1.065571 1.5468581 -0.091317706 0
1.598596 2.8166645 -0.091192104 0
4.0253477 8.5978289 -0.14077663 0
0.99609095 1.3813384 0.2208105 0
0.84782863 1.0281384 0.25405529 0
0.83878934 1.0066044 0.30314055 0
0.83578336 0.99944347 0.35317272 0
0.83864468 1.0062599 0.4052467 0
0.84036124 1.0103492 0.45752168 0
0.83864033 1.0062495 0.50873238 0
0.32788748 -0.15189853 -0.09011098 0
0.37146345 -0.040277984 -0.090915777 0
0.42298239 0.091688663 -0.089748763 0
0.49559802 0.27769485 -0.090172715 0
0.59729737 0.53819948 -0.090674467 0
0.74935228 0.92769068 -0.091113366 0
0.99940985 1.5682173 -0.090965427 0
1.4969666 2.8427172 -0.090540133 0
3.7819598 8.6957664 -0.14076293 0
0.92408967 1.3752835 0.21928895 0
0.85224235 1.1912453 0.26474956 0
0.83580315 1.1491361 0.31537545 0
0.84206229 1.165169 0.37141106 0
0.83941078 1.1583772 0.42511123 0
0.84319609 1.1680732 0.48173356 0
0.83553755 1.1484556 0.5333485 0
0.30619049 -0.14520183 -0.089820512 0
0.34444281 -0.03941318 -0.08927726 0
0.3998163 0.11372498 -0.091799252 0
0.43410689 0.20855728 -0.078036107 0
0.43479934 0.21047226 -0.048135359 0
0.43371657 0.20747784 -0.017815037 0
0.93227082 1.5862539 -0.090494059 0
1.3979188 2.8740263 -0.090281911 0
3.5336871 8.7805986 -0.14057794 0
0.85887098 1.3832631 0.21856733 0
0.85118258 1.3620005 0.27590746 0
0.83835536 1.3265262 0.33096883 0
0.84160179 1.3355043 0.39003727 0
0.83943927 1.3295238 0.44763756 0
0.84174484 1.3359001 0.50747937 0
0.83945912 1.3295786 0.56555396 0
0.28846997 -0.12674728 -0.09229017 0
0.31912073 -0.034788754 -0.088534869 0
0.36472514 0.10203364 -0.088091321 0
0.40707263 0.22908452 -0.079514541 0
0.40465403 0.22182837 -0.048232947 0
0.40180743 0.21328786 -0.017349912 0
0.86626923 1.6067669 -0.090334542 0
1.3039 2.9197471 -0.090856276 0
3.2916408 8.8833704 -0.14098839 0
0.79250723 1.3854661 0.21764916 0
0.85432541 1.5709331 0.28978956 0
0.84152484 1.5325286 0.34924218 0
0.84293836 1.5367694 0.4123213 0
0.83787107 1.5215666 0.47307196 0
0.83985513 1.5275192 0.53713936 0
0.84031719 1.5289056 0.60108536 0
0.26504341 -0.12491426 -0.091146387 0
0.29766613 -0.018130329 -0.090294607 0
0.34120503 0.12438563 -0.090415023 0
0.38216949 0.25847474 -0.082384668 0
0.38088551 0.25427189 -0.051000167 0
0.3809551 0.25449958 -0.020422442 0
0.72620165 1.3845959 -0.072558545 0
0.7237829 1.3766785 -0.014201997 0
0.72905082 1.3939219 0.043031491 0
0.72608578 1.3842165 0.10104125 0
0.72537386 1.381886 0.15875834 0
0.72751123 1.3888824 0.21687916 0
0.84525859 1.7743049 0.3031525 0
0.83761221 1.7492762 0.36841682 0
0.83465111 1.7395835 0.43461955 0
0.8330397 1.734309 0.50136 0
0.83642256 1.7453821 0.57109147 0
0.24267842 -0.12022331 -0.09077207 0
0.27728659 0.004213545 -0.093259789 0
0.31313178 0.13309816 -0.090497367 0
0.36511129 0.31999519 -0.090013571 0
0.44366291 0.60243469 -0.092120714 0
0.54823321 0.97842664 -0.089668207 0
0.6616382 1.3861845 -0.071400888 0
0.65853816 1.3750379 -0.013277886 0
0.65995216 1.3801219 0.043789536 0
0.66118562 1.384557 0.10104074 0
0.66178113 1.3866982 0.15845086 0
0.66203487 1.3876107 0.21596737 0
0.81479234 1.9368637 0.31347477 0
0.81105971 1.9234428 0.38333917 0
0.8105433 1.921586 0.45426154 0
0.81328535 1.9314454 0.52719086 0
0.81011885 1.9200599 0.59745175 0
0.22240596 -0.10750458 -0.092283614 0
0.25090122 0.0059696171 -0.09230835 0
0.28245288 0.13161507 -0.088971965 0
0.3314406 0.32669452 -0.089713417 0
0.39665538 0.58639354 -0.088902839 0
0.49858689 0.99230641 -0.089735411 0
0.59627038 1.3813026 -0.06990201 0
0.59609234 1.3805938 -0.012784315 0
0.59946221 1.3940132 0.043837029 0
0.59741187 1.3858483 0.10104031 0
0.60067177 1.3988297 0.1583599 0
0.59647757 1.3821278 0.21493866 0
0.77020067 2.0739298 0.32194856 0
0.77146184 2.0789518 0.39643538 0
0.76811326 2.0656171 0.4692753 0
0.76779419 2.0643468 0.54361981 0
0.1997765 -0.10358205 -0.091982163 0
0.22428957 0.0056293341 -0.091086544 0
0.25488645 0.14194563 -0.089575894 0
0.29790711 0.33361271 -0.089569263 0
0.35698628 0.59682411 -0.08901649 0
0.44736814 0.9994964 -0.089282505 0
0.5519408 1.4653919 -0.074904807 0
0.55122364 1.4621966 -0.015997393 0
0.55398375 1.4744935 0.042261016 0
0.55121201 1.4621449 0.10104212 0
0.55487597 1.4784687 0.15991899 0
0.54850847 1.4500999 0.21750408 0
0.71260494 2.1811879 0.32831797 0
0.71228862 2.1797786 0.40431935 0
0.71391952 2.1870449 0.48162419 0
0.71083915 2.173321 0.55667424 0
0.17612679 -0.10510311 -0.090626739 0
0.19804199 0.0055272314 -0.090045892 0
0.22401434 0.13663843 -0.087673686 0
0.26666331 0.3519353 -0.091181256 0
0.31849176 0.61357087 -0.090001725 0
0.39687762 1.0092714 -0.08920116 0
0.41449636 1.0982127 -0.047801692 0
0.41583738 1.1049821 0.0015776029 0
0.41615456 1.1065836 0.051293436 0
0.41507202 1.1011188 0.10103124 0
0.41469866 1.0992339 0.15059479 0
0.41467759 1.0991275 0.20020716 0
0.41601455 1.1058767 0.25041124 0
0.41476426 1.099565 0.29985642 0
0.41573897 1.1044855 0.35055575 0
0.40866193 1.0687599 0.39594045 0
0.29683107 0.50422543 0.35129109 0
0.27056846 0.37164894 0.36236808 0
0.15484661 -0.094659716 -0.091986753 0
0.17469822 0.020759974 -0.092067383 0
0.19765109 0.15421072 -0.089725412 0
0.23240553 0.35627738 -0.090905391 0
0.27790865 0.62083811 -0.089974009 0
0.34860572 1.0318794 -0.090456598 0
0.36806607 1.1450243 -0.050429348 0
0.88118196 4.1283426 -0.14077763 0
1.7634614 9.2580223 -0.14078261 0
0.58055425 2.3804564 0.26034701 0
0.58299303 2.3946359 0.3412095 0
0.5832274 2.3959985 0.42179215 0
0.26289538 0.53354925 0.28165269 0
0.27142656 0.58315045 0.32529077 0
0.27444986 0.60072821 0.36622411 0
0.23654853 0.38036516 0.36281684 0
0.12994947 -0.10663614 -0.088641174 0
0.14823653 0.018513355 -0.090866588 0
0.16885889 0.15964475 -0.089864217 0
0.19839104 0.36175135 -0.090914361 0
0.23850469 0.63627356 -0.091032393 0
0.29664382 1.0341551 -0.089904569 0
0.39611274 1.7148819 -0.090084441 0
0.74875486 4.1282277 -0.13980396 0
1.5058254 9.3093233 -0.14101979 0
0.5076102 2.4779272 0.26430023 0
0.50520146 2.4614425 0.34497121 0
0.50503951 2.4603343 0.42657983 0
0.22285366 0.52916402 0.2804108 0
0.27839327 0.90925556 0.37072727 0
0.20158422 0.3836042 0.36238486 0
0.10931917 -0.089705318 -0.091629468 0
0.1234438 0.027571473 -0.091940992 0
0.1393635 0.15975252 -0.089241408 0
0.16523847 0.37459221 -0.092087813 0
0.19717269 0.63974172 -0.090796076 0
0.24811071 1.0626798 -0.091945507 0
0.32726258 1.7198772 -0.089794792 0
0.62227076 4.1693277 -0.14092289 0
1.2450216 9.340023 -0.14092633 0
0.42679375 2.5462837 0.26696116 0
0.4245514 2.5276656 0.34881896 0
0.42657703 2.5444844 0.43340296 0
0.42488337 2.5304217 0.51550895 0
0.23087749 0.91959244 0.37128547 0
0.16560638 0.37764695 0.36037675 0
0.086062185 -0.092789859 -0.090448342 0
0.096867025 0.021051917 -0.090184145 0
0.11125799 0.17267779 -0.090859182 0
0.13008589 0.37105206 -0.091064297 0
0.15561001 0.63997895 -0.090303652 0
0.19504915 1.0555172 -0.090750568 0
0.25796419 1.7184019 -0.089173637 0
0.49187097 4.182888 -0.14090075 0
0.98323327 9.359973 -0.14073598 0
0.34031835 2.5861008 0.26837513 0
0.34045917 2.5875845 0.35235772 0
0.34061489 2.5892253 0.43669856 0
0.33898118 2.5720122 0.51926935 0
0.34028807 2.5857816 0.60585916 0
0.17407973 0.83457941 0.4021807 0
0.13120744 0.38286892 0.36066124 0
0.063239895 -0.093454331 -0.089910127 0
0.071599074 0.02681211 -0.090875603 0
0.081231542 0.16539791 -0.089262359 0
0.095818631 0.37526742 -0.091260217 0
0.11437196 0.64220065 -0.090167619 0
0.14262797 1.0487299 -0.08971826 0
0.19202684 1.759449 -0.091656141 0
0.36037791 4.1815758 -0.14033835 0
0.72186071 9.3823566 -0.14075685 0
0.25296116 2.6361327 0.27036595 0
0.252949 2.635958 0.35522953 0
0.13261373 0.90465146 0.27828762 0
0.13287562 0.90841931 0.32340741 0
0.1330962 0.91159302 0.36886612 0
0.12463866 0.78991145 0.39419499 0
0.096558601 0.38591364 0.36069822 0
0.040095091 -0.10398415 -0.087396123 0
0.046164818 0.033374343 -0.091837846 0
0.051853526 0.16211036 -0.08844886 0
0.061200537 0.37363401 -0.090754919 0
0.073287904 0.64717239 -0.090475284 0
0.091225982 1.0531125 -0.089854427 0
0.12192819 1.7479064 -0.09057235 0
0.23014361 4.1968312 -0.1407034 0
0.46001676 9.3988819 -0.14079499 0
0.16319819 2.6818502 0.27225623 0
0.16249402 2.6659148 0.35696313 0
0.087032609 0.95821625 0.28304118 0
0.085791551 0.93013114 0.32562986 0
0.0863306 0.9423297 0.37280774 0
0.076994635 0.73105615 0.38408887 0
0.061785389 0.38686934 0.36050618 0
0.018075673 -0.085833162 -0.091105096 0
0.020219931 0.0274469 -0.090567745 0
0.023292707 0.18978003 -0.092846461 0
0.026924836 0.38166335 -0.09173093 0
0.032021612 0.65092355 -0.090761386 0
0.039463844 1.0440927 -0.08886046 0
0.052674171 1.7419872 -0.090006001 0
0.099071085 4.1931124 -0.14033785 0
0.19779108 9.4084377 -0.14082475 0
0.071141832 2.7176239 0.27378768 0
0.070697196 2.6941342 0.35873416 0
0.070777334 2.6983681 0.44545195 0
0.070746794 2.6967545 0.5320614 0
0.032456305 0.67388803 0.37446284 0
0.026819583 0.37610307 0.35827076 0
-0.0047283173 -0.085152358 -0.091219239 0
-0.0053639766 0.015631232 -0.088311724 0
-0.0062529845 0.15658322 -0.08735954 0
-0.0076622544 0.38002256 -0.091469653 0
-0.0094120782 0.6574567 -0.091494434 0
-0.011810628 1.037746 -0.088237815 0
-0.016314873 1.7518928 -0.090668105 0
-0.03185321 4.2154918 -0.14134133 0
-0.064528756 9.3961887 -0.14050147 0
-0.022439273 2.7229145 0.27400675 0
-0.022464877 2.726974 0.36099085 0
-0.022360273 2.7103891 0.44651988 0
-0.022455608 2.7255044 0.53535461 0
-0.0093446821 0.64677101 0.3699609 0
-0.00764383 0.37710145 0.3584179 0
-0.027685719 -0.080928713 -0.092209272 0
-0.031019788 0.024742994 -0.090119205 0
-0.035420761 0.16422966 -0.088706858 0
-0.042285666 0.3818095 -0.091812827 0
-0.050693333 0.6482864 -0.090514071 0
-0.063844517 1.0651066 -0.090883337 0
-0.085258678 1.743818 -0.090194874 0
-0.11888293 2.8095222 -0.075970106 0
-0.11900459 2.8133781 0.012512611 0
-0.11897994 2.8125968 0.10107899 0
-0.11879897 2.8068609 0.18949355 0
-0.11694253 2.7480223 0.27526033 0
-0.11641373 2.7312622 0.36141524 0
-0.11646445 2.7328699 0.44878566 0
-0.11647549 2.7332196 0.53646475 0
-0.050757218 0.65031117 0.37067172 0
-0.041638557 0.36129978 0.35556221 0
-0.050098974 -0.090677112 -0.090349309 0
-0.057296019 0.035952363 -0.09244708 0
-0.065653749 0.18300357 -0.092008956 0
-0.076711744 0.37756506 -0.091430448 0
-0.092786662 0.66039759 -0.092145465 0
-0.11592294 1.067472 -0.09131851 0
-0.15450886 1.7463777 -0.090587385 0
-0.21477082 2.8066654 -0.076034315 0
-0.21463403 2.8042588 0.012626292 0
-0.21444663 2.8009615 0.10107878 0
-0.21400844 2.7932518 0.18927461 0
-0.21060428 2.7333567 0.27477008 0
-0.21148445 2.748843 0.36293787 0
-0.21097834 2.7399383 0.44983494 0
-0.077507429 0.39156476 0.26269624 0
-0.076801047 0.37913623 0.2936722 0
-0.077532947 0.39201382 0.32843742 0
-0.076779932 0.37876478 0.35914215 0
-0.073128045 -0.087721199 -0.091315605 0
-0.083158806 0.034318838 -0.09247791 0
-0.093775213 0.16348413 -0.089128859 0
-0.11083377 0.37102845 -0.090846486 0
-0.13402028 0.65312892 -0.091632105 0
-0.16653237 1.0486896 -0.089897014 0
-0.22245042 1.7290208 -0.08970616 0
-0.42478973 4.1907978 -0.14100011 0
-0.85029089 9.3676901 -0.14064609 0
-0.30649871 2.7516007 0.27592844 0
-0.30518627 2.7356329 0.36247036 0
-0.30550998 2.7395713 0.45041299 0
-0.3050268 2.7336924 0.5377714 0
-0.11361837 0.40490749 0.29764596 0
-0.11341464 0.40242866 0.33055481 0
-0.11243235 0.39047757 0.36180961 0
-0.094985582 -0.097925812 -0.089595042 0
-0.10781982 0.021290932 -0.090473779 0
-0.12326802 0.16478863 -0.089800321 0
-0.14443678 0.36142436 -0.08994893 0
-0.17460553 0.64166051 -0.090745844 0
-0.21785912 1.0434411 -0.089861967 0
-0.29083478 1.7213087 -0.089621104 0
-0.55515033 4.1765246 -0.14091198 0
-1.1117352 9.3466177 -0.14073266 0
-0.39878824 2.7240837 0.27505791 0
-0.39930895 2.7289205 0.36262503 0
-0.39946684 2.7303872 0.45038813 0
-0.39830068 2.7195547 0.53715611 0
-0.14942299 0.40774098 0.29851824 0
-0.1492238 0.40589073 0.33167782 0
-0.14684945 0.38383558 0.3611764 0
-0.11737576 -0.1011509 -0.089483477 0
-0.13263245 0.013340864 -0.089545868 0
-0.15405202 0.17408112 -0.091921739 0
-0.17766023 0.35124567 -0.089086957 0
-0.21633321 0.64146191 -0.091305964 0
-0.27075368 1.0498526 -0.091046564 0
-0.35854733 1.708688 -0.08931113 0
-0.68518949 4.1599298 -0.14086884 0
-1.3721607 9.3152122 -0.14073172 0
-0.49227676 2.7122424 0.275031 0
-0.48974165 2.693218 0.36090139 0
-0.2417347 0.83208388 0.27258688 0
-0.2410998 0.82731932 0.31526661 0
-0.18545993 0.40977755 0.29940841 0
-0.18420729 0.40037718 0.33146557 0
-0.18115106 0.37744215 0.36075321 0
-0.13888456 -0.10984126 -0.088316597 0
-0.15807433 0.010826502 -0.089770131 0
-0.17964116 0.14644161 -0.088034637 0
-0.21431199 0.36445644 -0.091668956 0
-0.25642097 0.62924343 -0.090570308 0
-0.32015401 1.0300052 -0.089880042 0
-0.42815819 1.7091501 -0.090046756 0
-0.8147186 4.1398945 -0.14081776 0
-1.6306728 9.2707243 -0.14057726 0
-0.58090782 2.6696606 0.27366424 0
-0.57928878 2.6594796 0.35947138 0
-0.27805209 0.7652629 0.26690149 0
-0.27990282 0.77690035 0.3100886 0
-0.27989143 0.77682883 0.3523947 0
-0.21760416 0.38515821 0.36318493 0
-0.16202468 -0.10827073 -0.089479424 0
-0.18464197 0.013977442 -0.091203339 0
-0.20971891 0.14952019 -0.089371286 0
-0.2463537 0.34753397 -0.09008833 0
-0.29520223 0.61156398 -0.08930213 0
-0.36942744 1.0127568 -0.089072891 0
-0.49616444 1.6977799 -0.090069242 0
-0.94158542 4.1053143 -0.14023228 0
-1.8900173 9.2316608 -0.14070424 0
-0.6673038 2.6228011 0.27219412 0
-0.66690111 2.6206248 0.35783109 0
-0.66768646 2.6248693 0.44425416 0
-0.66650242 2.6184695 0.52998948 0
-0.28975582 0.58212572 0.36371168 0
-0.25113264 0.37336448 0.3620657 0
-0.18583201 -0.10494646 -0.091156043 0
-0.20935787 0.0064255926 -0.090712599 0
-0.238161 0.14278033 -0.089193009 0
-0.28027681 0.34215763 -0.090273552 0
-0.33851802 0.61787313 -0.091009296 0
-0.42029551 1.0050099 -0.089286216 0
-0.56339633 1.6824532 -0.089931481 0
-0.61780983 1.940048 -0.038413394 0
-0.61747074 1.9384427 0.031397123 0
-0.61895436 1.9454663 0.10105603 0
-0.75262427 2.5782633 0.27093038 0
-0.75036544 2.5675697 0.3553243 0
-0.75227153 2.5765932 0.44136608 0
-0.75262606 2.5782716 0.52733535 0
-0.28614578 0.3699415 0.36271501 0
-0.20554641 -0.12062111 -0.088822655 0
-0.23471527 0.0020695662 -0.090958051 0
-0.26898852 0.14623025 -0.090855978 0
-0.31481892 0.339003 -0.090904154 0
-0.37616277 0.59702867 -0.089595698 0
-0.47324976 1.0053979 -0.090404116 0
-0.522672 1.2132788 -0.057301912 0
-0.62174606 1.6300061 -0.024368918 0
-0.61891967 1.6181176 0.038657229 0
-0.61818182 1.6150141 0.10104682 0
-0.83547407 2.5289929 0.26953518 0
-0.83226538 2.5154963 0.3530241 0
-0.83385932 2.5222011 0.43807784 0
-0.83443433 2.5246196 0.52330869 0
-0.83430022 2.5240552 0.60868973 0
-0.23028915 -0.11518094 -0.091225319 0
-0.26138654 0.0023584699 -0.092234425 0
-0.29227245 0.11909869 -0.08746288 0
-0.3434799 0.31264856 -0.088292755 0
-0.41432723 0.58043188 -0.088800661 0
-0.51939994 0.97757751 -0.088934578 0
-0.57845443 1.2007871 -0.057404701 0
-0.64827025 1.4646714 -0.017203776 0
-0.64636344 1.457464 0.042124886 0
-0.64733899 1.4611516 0.10104276 0
-0.91188431 2.4610593 0.2673313 0
-0.91029269 2.4550433 0.3502512 0
-0.91197264 2.4613931 0.43434611 0
-0.90960646 2.4524496 0.51726419 0
-0.91196084 2.4613488 0.60279787 0
-0.25232491 -0.12110677 -0.091266833 0
-0.2855069 -0.0073751477 -0.091685392 0
-0.32359669 0.12317792 -0.089488395 0
-0.34604135 0.20010737 -0.073150374 0
-0.45825037 0.58470494 -0.09065745 0
-0.56913561 0.96476537 -0.08902631 0
-0.71353716 1.4597032 -0.077375464 0
-0.70887268 1.4437156 -0.017019806 0
-0.71292537 1.4576063 0.041706994 0
-0.71089315 1.4506407 0.10104296 0
-0.98398077 2.3866518 0.26489007 0
-0.98512489 2.390573 0.34730801 0
-0.97951031 2.3713291 0.42793155 0
-0.97964203 2.3717804 0.51037014 0
-0.97970414 2.3719933 0.59324574 0
-0.27083567 -0.13815084 -0.088951401 0
-0.31065953 -0.013447013 -0.09197583 0
-0.35342905 0.12048081 -0.090497039 0
-0.37995264 0.20353642 -0.075003795 0
-0.39314732 0.244854 -0.050444771 0
-0.39734256 0.25799099 -0.021243876 0
-0.39676952 0.25619653 0.0095668528 0
-0.40051109 0.26791278 0.039529625 0
-0.39428866 0.24842802 0.070761055 0
-0.39508492 0.2509214 0.10100757 0
-0.39167657 0.24024847 0.13105384 0
-0.40019676 0.26692858 0.16243853 0
-0.39800599 0.26006845 0.19273333 0
-0.3940936 0.24781719 0.22226259 0
-0.39462957 0.24949542 0.2530303 0
-0.39597943 0.25372246 0.28442433 0
-0.4017112 0.27167073 0.31860003 0
-0.3944521 0.24893978 0.34587315 0
-0.29626313 -0.13365349 -0.091567598 0
-0.33049247 -0.03511956 -0.089284219 0
-0.38179061 0.11254922 -0.090734296 0
-0.42722359 0.24333432 -0.082411028 0
-0.42872402 0.24765351 -0.052070085 0
-0.43103886 0.25431719 -0.021913147 0
-0.43120772 0.25480321 0.0088979248 0
-0.43239263 0.25821415 0.039488647 0
-0.43230823 0.2579712 0.070271 0
-0.42915592 0.24889687 0.10100782 0
-0.42702529 0.24276355 0.13136999 0
-0.43017197 0.25182167 0.16221228 0
-0.43088043 0.2538611 0.19304866 0
-0.43384448 0.2623935 0.22472832 0
-0.430751 0.25348857 0.25480896 0
-0.42864433 0.24742416 0.2850365 0
-0.43168405 0.25617447 0.31774113 0
-0.42803976 0.24568382 0.3472923 0
-0.31557691 -0.14722499 -0.090250604 0
-0.35693502 -0.037207033 -0.090608157 0
-0.40623236 0.093930274 -0.089222424 0
-0.47689527 0.28190282 -0.089882545 0
-0.48589298 0.3058379 -0.060737748 0
-0.5112431 0.37327257 -0.034901533 0
-0.51274377 0.37726453 -0.0010921934 0
-0.51220989 0.37584427 0.033074688 0
-0.51395261 0.3804802 0.066946588 0
-0.51317799 0.37841967 0.10101211 0
-1.2001671 2.2059002 0.18053085 0
-1.1941701 2.1899476 0.25928575 0
-1.1565815 2.0899572 0.33113581 0
-1.1616868 2.1035378 0.40957078 0
-1.1601472 2.0994422 0.48681644 0
-1.163274 2.10776 0.56614393 0
-0.33721557 -0.1542621 -0.090529911 0
-0.38286611 -0.041545596 -0.091623195 0
-0.4335677 0.083642513 -0.089281194 0
-0.5079844 0.26738611 -0.089570962 0
-0.50824022 0.2680178 -0.057569791 0
-0.51467884 0.28391543 -0.027247986 0
-0.50863361 0.26898912 0.0060640741 0
-0.5104118 0.27337971 0.037549075 0
-0.51493728 0.28455368 0.069016062 0
-0.51269132 0.27900806 0.10100946 0
-1.2748414 2.160846 0.25938961 0
-1.2007809 1.977982 0.32496181 0
-1.2004396 1.9771392 0.3998892 0
-1.1973423 1.9694915 0.47424221 0
-1.2008488 1.9781497 0.55108929 0
-0.35789728 -0.16370317 -0.090381004 0
-0.40430588 -0.056939568 -0.090512596 0
-0.46277732 0.077574879 -0.090219833 0
-0.51145273 0.18955329 -0.079673149 0
-0.51249892 0.19196001 -0.049565498 0
-0.51131362 0.18923321 -0.018976903 0
-0.51634079 0.20079842 0.010251479 0
-0.51282167 0.19270256 0.040969081 0
-0.51376265 0.19486728 0.070949502 0
-0.51063287 0.18766728 0.10100704 0
-1.3512151 2.121439 0.25907376 0
-1.230219 1.8430855 0.31705573 0
-1.2244576 1.8298316 0.38807058 0
-1.2280684 1.8381381 0.46146959 0
-1.2235798 1.827812 0.53283572 0
-1.2291954 1.8407307 0.60831171 0
-0.37393588 -0.18307945 -0.088023014 0
-0.42602184 -0.071072966 -0.089762531 0
-0.49064034 0.06788376 -0.090645678 0
-0.5109151 0.11148289 -0.069635265 0
-0.50977457 0.10903028 -0.04059482 0
-0.51222211 0.11429361 -0.012631832 0
-0.50986445 0.10922351 0.01627625 0
-0.50568897 0.10024455 0.045031186 0
-0.51428664 0.11873308 0.072559021 0
-0.51074493 0.11111692 0.10100504 0
-1.4307432 2.0894964 0.25923645 0
-1.2499853 1.7007918 0.30854261 0
-1.2403991 1.6801775 0.37593299 0
-1.2411555 1.6818039 0.44542435 0
-1.2425811 1.6848698 0.51560199 0
-1.239615 1.6784914 0.58468604 0
-0.40283233 -0.17531016 -0.09217196 0
-0.45384616 -0.072477847 -0.091793783 0
-0.5098868 0.040487323 -0.087956853 0
-0.51335561 0.047479663 -0.061675731 0
-0.51123971 0.043214474 -0.03373507 0
-0.51150686 0.043753061 -0.0066676345 0
-0.50826299 0.037214193 0.020862663 0
-0.5082444 0.037176643 0.047626361 0
-0.51505029 0.050895724 0.073973112 0
-0.51093942 0.042609129 0.10100328 0
-1.2463591 1.5250483 0.29734853 0
-1.2404122 1.5130606 0.36186361 0
-1.238943 1.5100989 0.42721364 0
-1.2405741 1.513387 0.49374694 0
-1.2389072 1.5100269 0.55966848 0
-0.42050633 -0.19093826 -0.090926729 0
-0.47474915 -0.088193387 -0.090952881 0
-0.53190929 0.020077381 -0.0866201 0
-0.53056955 0.017539773 -0.059032474 0
-0.52954197 0.015593324 -0.031836066 0
-0.53494656 0.025830422 -0.0061754268 0
-0.53312999 0.022389565 0.020993041 0
-0.52780098 0.012295637 0.048242621 0
-0.53129804 0.018919621 0.074462801 0
-0.53540254 0.026694212 0.10100319 0
-1.2538127 1.3874822 0.2890178 0
-1.2381053 1.3577299 0.34885055 0
-1.2458044 1.3723133 0.41323662 0
-1.2396463 1.3606489 0.47457105 0
-1.2385912 1.3586502 0.53748924 0
-1.2415712 1.3642948 0.60241359 0
-0.44511414 -0.19362423 -0.092925601 0
-0.50112939 -0.0937123 -0.092414953 0
-0.56119215 0.013418946 -0.087959401 0
-0.56152159 0.014006529 -0.06067564 0
-0.55991507 0.011141095 -0.033075888 0
-0.55772585 0.0072362754 -0.0056672227 0
-0.56642306 0.0227491 0.019858362 0
-0.56394351 0.018326554 0.047191657 0
-0.55621147 0.0045352313 0.074479684 0
-0.55759925 0.0070104334 0.10100301 0
-1.2963891 1.3247573 0.1628035 0
-1.2914697 1.3159828 0.22415903 0
-1.2480235 1.2384899 0.2796669 0
-1.2351606 1.2155468 0.33705381 0
-1.2413309 1.2265525 0.39801449 0
-1.2386115 1.2217019 0.45734128 0
-1.2405871 1.2252257 0.51837641 0
-1.2376435 1.2199755 0.57817411 0
-0.45885107 -0.21555945 -0.090347432 0
-0.52197778 -0.10933819 -0.091829456 0
-0.582578 -0.0073682335 -0.08675801 0
-0.58613658 -0.0013803508 -0.060532559 0
-0.58754766 0.00099405984 -0.033663649 0
-0.58580166 -0.0019438531 -0.0062354859 0
-0.58727282 0.0005315874 0.020474734 0
-0.58892721 0.0033153628 0.047215316 0
-0.58384442 -0.0052373079 0.074355215 0
-0.58611351 -0.0014191534 0.10100321 0
-1.3517855 1.2869518 0.16268596 0
-1.3527818 1.2886283 0.22448376 0
-1.2532809 1.1212013 0.27274337 0
-1.2356426 1.091522 0.32704374 0
-1.2413255 1.1010845 0.38530758 0
-1.2390755 1.0972986 0.44222572 0
-1.2369148 1.0936625 0.49934059 0
-1.2377599 1.0950847 0.5578053 0
-0.47666419 -0.22989193 -0.089723609 0
-0.54419112 -0.12253043 -0.091892324 0
-0.60900366 -0.019484486 -0.087324925 0
-0.61223245 -0.014351096 -0.060890693 0
-0.61260802 -0.013753977 -0.033721123 0
-0.60920763 -0.019160237 -0.0060042422 0
-0.60986394 -0.018116798 0.020763071 0
-0.613428 -0.012450185 0.047246434 0
-0.60874927 -0.019888964 0.074343756 0
-0.60875732 -0.019876208 0.10100309 0
-1.2538917 1.0058272 0.26587832 0
-1.2387887 0.98181492 0.3184548 0
-1.2411638 0.98559111 0.37377539 0
-1.2397646 0.98336655 0.42860961 0
-1.2375301 0.97981375 0.48342323 0
-1.2423642 0.98749954 0.54096335 0
-0.49444482 -0.24403182 -0.089252196 0
-0.55414885 -0.15421888 -0.087898724 0
-0.63980138 -0.025371518 -0.08926136 0
-0.63323408 -0.035250749 -0.060027111 0
-0.63779587 -0.028388407 -0.033883546 0
-0.64247555 -0.021348741 -0.0075191315 0
-0.63980544 -0.025365438 0.020051824 0
-0.63699597 -0.029591706 0.047320701 0
-0.63201827 -0.037079599 0.074385583 0
-0.632788 -0.035921719 0.10100308 0
-1.2468984 0.88788658 0.25868288 0
-1.239707 0.8770687 0.31028587 0
-1.2396009 0.87690896 0.36300412 0
-1.2397164 0.87708277 0.4160575 0
-1.2387825 0.87567788 0.4691574 0
-1.2378333 0.87424999 0.52258128 0
-0.51824284 -0.24942747 -0.091158666 0
-0.58153188 -0.15924296 -0.090026729 0
-0.66071242 -0.046413686 -0.088344194 0
-0.65901476 -0.048832741 -0.06049468 0
-0.66130877 -0.045563843 -0.033776063 0
-0.66464835 -0.040805127 -0.0071869101 0
-0.66268075 -0.04360893 0.020202914 0
-0.66283584 -0.043387856 0.047172491 0
-0.66355747 -0.042359557 0.0740733 0
-0.67470753 -0.026471104 0.10100397 0
-1.299597 0.86397296 0.25938115 0
-1.2545897 0.79983932 0.30511343 0
-1.2425703 0.78271216 0.35410419 0
-1.2421358 0.78209287 0.40522093 0
-1.2344298 0.77111226 0.45455691 0
-1.2417951 0.78160745 0.50858825 0
-0.53218848 -0.26891991 -0.089530565 0
-0.60870171 -0.16554049 -0.092056923 0
-0.69190705 -0.053119268 -0.090448104 0
-0.68942583 -0.056471672 -0.062122885 0
-0.69716716 -0.046012189 -0.03618424 0
-0.68934649 -0.056578901 -0.0073404964 0
-0.69430864 -0.049874391 0.019265311 0
-0.69215524 -0.052783873 0.0467292 0
-0.69730568 -0.045824971 0.073679827 0
-0.69450212 -0.049612965 0.10100377 0
-1.3425556 0.82599205 0.25898281 0
-1.2492005 0.69985706 0.29724306 0
-1.2384869 0.68538159 0.34459159 0
-1.235116 0.68082696 0.39309311 0
-1.2422719 0.69049555 0.4445577 0
-1.2373066 0.68378681 0.49314108 0
-0.55458981 -0.27696583 -0.091049753 0
-0.62185979 -0.19071439 -0.0897808 0
-0.71415639 -0.072374672 -0.090140603 0
-0.71849602 -0.066810519 -0.063437752 0
-0.72271752 -0.061397877 -0.036559138 0
-0.71159828 -0.075654596 -0.0071793403 0
-0.71822274 -0.067160934 0.019216092 0
-0.7212019 -0.063341171 0.046302389 0
-0.71026522 -0.077363819 0.074081428 0
-0.71872741 -0.066513866 0.1010038 0
-1.3905339 0.79485518 0.25927913 0
-1.2528191 0.61828154 0.29138064 0
-1.2359155 0.59660834 0.33614388 0
-1.2416873 0.60400873 0.38505208 0
-1.2433175 0.60609895 0.4336127 0
-1.2396462 0.60139173 0.48104617 0
-0.57378292 -0.28950879 -0.091517694 0
-0.64747727 -0.19978377 -0.091462471 0
-0.73077333 -0.098368436 -0.088511817 0
-0.74410319 -0.082138926 -0.064004831 0
-0.74642265 -0.079314917 -0.036655594 0
-0.7356593 -0.092419654 -0.0073610898 0
-0.7398783 -0.087282866 0.019368285 0
-0.74157286 -0.085219651 0.046504963 0
-0.7373274 -0.090388685 0.073924653 0
-0.75077909 -0.074010819 0.10100421 0
-1.4292642 0.75206465 0.25863507 0
-1.2560952 0.54122621 0.28595281 0
-1.2432394 0.52557403 0.33019391 0
-1.2389479 0.52034897 0.37562802 0
-1.2400304 0.52166694 0.42243671 0
-1.2389202 0.52031535 0.46903393 0
-0.5879091 -0.30810496 -0.090429835 0
-0.66486293 -0.21908906 -0.090792023 0
-0.75542098 -0.11433652 -0.089115389 0
-0.77193218 -0.095237285 -0.065117486 0
-0.77078795 -0.096560925 -0.036949325 0
-0.77540362 -0.09122178 -0.0098373424 0
-0.77093589 -0.0963898 0.018455939 0
-0.77753949 -0.088751107 0.04555162 0
-0.7728712 -0.094151169 0.073458977 0
-0.77207166 -0.095075995 0.10100415 0
-1.4811693 0.72516865 0.25953633 0
-1.2475834 0.45496944 0.27927947 0
-1.2410731 0.44743887 0.32304356 0
-1.2369893 0.44271484 0.36710343 0
-1.2371995 0.44295803 0.41224048 0
-1.2394205 0.44552711 0.45831865 0
-0.60553664 -0.32248953 -0.090628214 0
-0.68201309 -0.23841074 -0.090212338 0
-0.78008026 -0.13059488 -0.089805178 0
-0.7999289 -0.10877314 -0.066304825 0
-0.80083108 -0.10778126 -0.03829794 0
-0.80635828 -0.10170463 -0.011022372 0
-0.80395514 -0.10434666 0.017340476 0
-0.80155909 -0.10698089 0.045444664 0
-0.80394143 -0.10436174 0.073157273 0
-0.80451834 -0.10372749 0.10100457 0
-1.2565407 0.3932294 0.27551988 0
-1.2468792 0.38260761 0.31782171 0
-1.2409674 0.37610808 0.36046758 0
-1.2405446 0.37564328 0.40432435 0
-1.2355227 0.37012222 0.44720095 0
-0.62123984 -0.33897439 -0.090342931 0
-0.70100802 -0.25560328 -0.09028504 0
-0.79453731 -0.15784946 -0.088150524 0
-0.83542401 -0.11511603 -0.069056012 0
-0.82953066 -0.12127551 -0.039432902 0
-0.82841104 -0.12244573 -0.011010906 0
-0.83658707 -0.11390045 0.016272599 0
-0.83601826 -0.11449495 0.044606056 0
-0.82871622 -0.12212679 0.073066354 0
-0.82941163 -0.12139997 0.10100469 0
-1.2536995 0.32205203 0.2704775 0
-1.2427309 0.31058803 0.31133252 0
-1.231173 0.29850808 0.35155004 0
-1.2383943 0.30605546 0.39571676 0
-1.2398854 0.307614 0.43914941 0
-0.63826334 -0.35407218 -0.0905867 0
-0.7244519 -0.26842526 -0.091654055 0
-0.82959223 -0.1639457 -0.091470771 0
-0.85816169 -0.13555577 -0.069243751 0
-0.84650886 -0.14713541 -0.038665373 0
-0.86217386 -0.13156882 -0.012610426 0
-0.85659933 -0.13710836 0.016450794 0
-0.85964197 -0.13408485 0.044486724 0
-0.85991031 -0.13381812 0.072752379 0
-0.85799325 -0.1357232 0.10100497 0
-1.2720721 0.27575341 0.14280076 0
-1.2703148 0.27400711 0.18450977 0
-1.2766863 0.28033867 0.22699574 0
-1.2572764 0.26105073 0.26664457 0
-1.2548925 0.25868168 0.30799606 0
-1.2357843 0.23969367 0.34610161 0
-1.2431523 0.24701527 0.38933572 0
-1.2419933 0.24586371 0.43112269 0
-0.65607548 -0.36852434 -0.091168158 0
-0.74521989 -0.28430244 -0.092382364 0
-0.83912814 -0.19557968 -0.088978238 0
-0.88442683 -0.15278235 -0.070210062 0
-0.88456827 -0.15264878 -0.041411702 0
-0.89326483 -0.1444324 -0.013859166 0
-0.88981056 -0.14769593 0.015298339 0
-0.88861126 -0.14882901 0.043995775 0
-0.88189781 -0.15517172 0.07273072 0
-0.88325596 -0.15388861 0.10100512 0
-1.2866093 0.22719195 0.14225642 0
-1.2948165 0.23494604 0.18406296 0
-1.2925282 0.23278406 0.22547631 0
-1.2498136 0.19242814 0.26168361 0
-1.2529403 0.19538215 0.30268112 0
-1.230528 0.17420748 0.33916354 0
-1.2432548 0.18623152 0.38239315 0
-1.2455862 0.18843415 0.42407876 0
-0.67274672 -0.38420627 -0.0915161 0
-0.76191014 -0.30412623 -0.092164703 0
-0.86385924 -0.21256313 -0.090076678 0
-0.91647959 -0.16530344 -0.072331078 0
-0.9160198 -0.16571638 -0.043080647 0
-0.91526735 -0.16639218 -0.013980931 0
-0.92293042 -0.15950975 0.014154846 0
-0.91642141 -0.16535571 0.043564782 0
-0.91164953 -0.16964146 0.072449863 0
-0.92495871 -0.15768817 0.10100593 0
-1.3279461 0.20424524 0.14260271 0
-1.3370967 0.21246365 0.18480249 0
-1.3294785 0.20562151 0.22609022 0
-1.2548016 0.13855234 0.25861678 0
-1.2520869 0.13611415 0.29791188 0
-1.2445602 0.12935427 0.3363418 0
-1.2384992 0.1239107 0.37487543 0
-1.2397219 0.12500885 0.41516897 0
-0.6925506 -0.39734194 -0.092843957 0
-0.77644038 -0.32573876 -0.091542087 0
-0.88451195 -0.23349544 -0.090364136 0
-0.94589585 -0.18110195 -0.073978879 0
-0.94475865 -0.18207255 -0.044348497 0
-0.95737767 -0.17130175 -0.016636474 0
-0.94784898 -0.17943481 0.01376179 0
-0.95497203 -0.17335501 0.042459756 0
-0.94839376 -0.17896983 0.071949944 0
-0.95193428 -0.17594793 0.10100617 0
-1.3985076 0.20521978 0.14385512 0
-1.4058326 0.21147206 0.18718272 0
-1.4100026 0.2150313 0.23076309 0
-1.2495402 0.078070313 0.25452551 0
-1.2489567 0.077572256 0.2931267 0
-1.2302575 0.061611924 0.32855427 0
-1.2341648 0.06494692 0.36795264 0
-1.2422384 0.071838051 0.40892586 0
-0.69759583 -0.422869 -0.090197839 0
-0.79435647 -0.34441236 -0.091886766 0
-0.89824432 -0.26017669 -0.089294501 0
-0.97143722 -0.20082954 -0.074965186 0
-0.98140824 -0.1927447 -0.046843771 0
-0.98234159 -0.1919879 -0.017192891 0
-0.98515117 -0.18970981 0.012216376 0
-0.98039591 -0.19356552 0.042151608 0
-0.97515357 -0.19781616 0.071751885 0
-0.97884256 -0.19482502 0.10100641 0
-1.2542644 0.028495941 0.25190324 0
-1.2510263 0.025870476 0.28944594 0
-1.2483267 0.023681555 0.32709643 0
-1.2352099 0.01304606 0.36262688 0
-1.2352875 0.013108883 0.40084159 0
-0.70930713 -0.44249001 -0.089565374 0
-0.80954272 -0.36532471 -0.091689117 0
-0.91464746 -0.28441098 -0.088940479 0
-1.007201 -0.21315971 -0.077834733 0
-1.0002075 -0.2185435 -0.046698395 0
-1.0145875 -0.20747319 -0.018658547 0
-1.0163906 -0.20608518 0.01121244 0
-1.0141867 -0.2077817 0.041327529 0
-1.0147989 -0.20731053 0.071165442 0
-1.0086973 -0.21200773 0.10100678 0
-1.2487962 -0.027170148 0.24827899 0
-1.2425209 -0.032001104 0.2844699 0
-1.2322582 -0.039901819 0.31978121 0
-1.2415454 -0.032752182 0.35877576 0
-1.2402976 -0.033712771 0.39611277 0
-0.72240031 -0.4609336 -0.089439802 0
-0.82378966 -0.38687798 -0.091400288 0
-0.93219495 -0.30769792 -0.088951491 0
-1.0490236 -0.22236523 -0.081761025 0
-1.0435246 -0.22638175 -0.050199274 0
-1.0376652 -0.23066148 -0.019083327 0
-1.0445654 -0.22562155 0.010456005 0
-1.0505341 -0.22126189 0.040350217 0
-1.0468017 -0.22398815 0.070802778 0
-1.0376363 -0.2306827 0.10100711 0
-1.2545185 -0.072270066 0.24617918 0
-1.2405258 -0.082490414 0.28074092 0
-1.2407199 -0.082348615 0.31715232 0
-1.232981 -0.088001281 0.35219893 0
-1.2343836 -0.086976796 0.38919982 0
-0.74052978 -0.47587135 -0.090739943 0
-0.83232123 -0.4123145 -0.089932851 0
-0.96273935 -0.32201239 -0.091678999 0
-1.0752025 -0.24414232 -0.082985409 0
-1.0773529 -0.24265328 -0.052319068 0
-1.0802903 -0.24061945 -0.021787031 0
-1.0869852 -0.23598388 0.0084590781 0
-1.0769701 -0.24291834 0.03993161 0
-1.0790038 -0.24151024 0.070428737 0
-1.0825484 -0.23905596 0.10100802 0
-1.2522495 -0.12155405 0.20762193 0
-1.24781 -0.12462804 0.24283405 0
-1.2266606 -0.13927189 0.27557111 0
-1.2372708 -0.13192543 0.31271696 0
-1.2348175 -0.13362405 0.34809723 0
-1.2386359 -0.13098022 0.38504717 0
-0.75235361 -0.49533001 -0.090512656 0
-0.85904038 -0.42537472 -0.092731737 0
