# .PCD v0.7 - Point Cloud Data file format
VERSION 0.7
FIELDS x y z intensity
SIZE 4 4 4 4
TYPE F F F F
COUNT 1 1 1 1
WIDTH 1361
HEIGHT 1
VIEWPOINT 0 0 0 1 0 0 0
POINTS 1361
DATA ascii
-1.238376 0.48903006 0.61351669 0
-1.585394 0.069327705 -0.050006296 0
-1.3311723 0.36237729 0.048155915 0
-1.3237016 0.37098902 0.13167402 0
-1.3238888 0.37077343 0.21695027 0
-1.3242826 0.37031937 0.30457622 0
-1.2422717 0.46485609 0.35370845 0
-1.2374046 0.47046649 0.43564594 0
-1.2327607 0.47581959 0.52165824 0
-1.2390045 0.46862215 0.62285501 0
-1.5702313 0.056668039 -0.049997412 0
-1.3099535 0.36444384 0.047607072 0
-1.311165 0.3630113 0.13144872 0
-1.3104507 0.3638559 0.2163212 0
-1.3062701 0.36879933 0.30188116 0
-1.2517593 0.43325782 0.36374617 0
-1.2344668 0.45370603 0.44012517 0
-1.2453645 0.44081944 0.53906107 0
-1.2389339 0.44842362 0.63192564 0
-1.5485264 0.051950213 -0.049630061 0
-1.2976073 0.35635144 0.047546342 0
-1.3027847 0.35007042 0.13193907 0
-1.3035696 0.34911823 0.21756613 0
-1.2949638 0.35955834 0.30184221 0
-1.247664 0.41693985 0.36704031 0
-1.2293553 0.43915087 0.44339481 0
-1.2412293 0.4247461 0.54390836 0
-1.2417718 0.42408794 0.6440829 0
-1.5374418 0.034421083 -0.049865682 0
-1.2940322 0.33740586 0.047990412 0
-1.289346 0.34323895 0.13159691 0
-1.2883164 0.34452051 0.21647291 0
-1.2890335 0.34362793 0.30403966 0
-1.2480149 0.39468586 0.37285668 0
-1.2415631 0.40271682 0.45828575 0
-1.2365308 0.40898079 0.5485428 0
-1.2385092 0.40651816 0.65094358 0
-1.5275586 0.01508295 -0.050187364 0
-1.2845908 0.32544166 0.048115633 0
-1.2852077 0.32465363 0.13288555 0
-1.2761633 0.33620661 0.21628578 0
-1.2843211 0.32578617 0.3068592 0
-1.2493985 0.37039524 0.37947467 0
-1.2468474 0.37365389 0.46907353 0
-1.2369471 0.38630027 0.5575636 0
-1.239871 0.3825652 0.6625756 0
-1.511356 0.0036503025 -0.050156631 0
-1.264042 0.32789052 0.047597863 0
-1.2781779 0.3093577 0.13372432 0
-1.28345 0.30244571 0.22190729 0
-1.2756121 0.31272143 0.3081381 0
-1.2494102 0.34707355 0.38561663 0
-1.2395496 0.36000115 0.47169888 0
-1.2420202 0.35676193 0.57081038 0
-1.2419989 0.35679001 0.67544281 0
-1.4926764 -0.0044174246 -0.04998564 0
-1.2679613 0.29801708 0.048534092 0
-1.2721477 0.29238272 0.13479201 0
-1.2733494 0.2907654 0.2224946 0
-1.2681385 0.29777855 0.31003708 0
-1.2540678 0.31671572 0.39461771 0
-1.2429245 0.33171308 0.48189658 0
-1.2335849 0.34428275 0.57326025 0
-1.2428495 0.33181387 0.68757999 0
-1.4727762 -0.010598069 -0.049743447 0
-1.2723025 0.2664302 0.049535159 0
-1.2781506 0.25834894 0.13812312 0
-1.2846729 0.249336 0.22972772 0
-1.2818474 0.25324035 0.32126901 0
-1.2487272 0.29900819 0.39831784 0
-1.2440305 0.3054983 0.49092031 0
-1.2358687 0.31677687 0.58503437 0
-1.2439693 0.30558288 0.70051783 0
-1.4625219 -0.030176645 -0.050099537 0
-1.1746035 0.37842417 0.044254191 0
-1.1763906 0.37588793 0.12148757 0
-1.1790777 0.37207448 0.20064582 0
-1.3310726 0.15637028 0.34868091 0
-1.2376207 0.28899294 0.39888212 0
-1.2446153 0.2790665 0.49996722 0
-1.2382842 0.28805131 0.59743345 0
-1.4426202 -0.036140803 -0.049868759 0
-1.1498567 0.39064938 0.043391477 0
-1.1553708 0.38261086 0.11960477 0
-1.1576248 0.37932497 0.19736351 0
-1.3131908 0.15254116 0.34687865 0
-1.244079 0.25329232 0.40986085 0
-1.2365336 0.26429188 0.50307971 0
-1.2416601 0.25681841 0.61122859 0
-1.4233568 -0.042773489 -0.049679413 0
-1.13993 0.38176781 0.043455452 0
-1.1432551 0.37678719 0.11939333 0
-1.1377385 0.38505059 0.19449817 0
-1.296245 0.14762568 0.34549409 0
-1.2392292 0.23302889 0.41453978 0
-1.2405199 0.23109555 0.51538783 0
-1.2410644 0.23027992 0.62205851 0
-1.4182281 -0.070927508 -0.050418183 0
-1.1207359 0.38706708 0.042920548 0
-1.1239928 0.38205296 0.11778212 0
-1.1275079 0.37664139 0.19475 0
-1.279573 0.14253449 0.34423947 0
-1.2408974 0.20207632 0.42344558 0
-1.2387487 0.20538425 0.52387536 0
-1.2387421 0.20539439 0.63181853 0
-1.4018523 -0.082260735 -0.0504435 0
-1.1038694 0.38938451 0.042526055 0
-1.1088285 0.38153517 0.11694985 0
-1.112492 0.37573671 0.19342652 0
-1.2709506 0.12492966 0.34683484 0
-1.2371509 0.17842746 0.42939824 0
-1.239441 0.17480266 0.53469187 0
-1.2433711 0.16858208 0.64857727 0
-1.3796951 -0.084223278 -0.050084665 0
-1.0950896 0.37906599 0.042672973 0
-1.0966899 0.37646085 0.11672287 0
-1.0928578 0.38269889 0.19048829 0
-1.2518082 0.12395465 0.34446341 0
-1.2385296 0.14557004 0.4389191 0
-1.2448759 0.13523936 0.54978514 0
-1.2400718 0.14305949 0.65854305 0
-1.3621106 -0.093356498 -0.050038334 0
-1.0789727 0.38082904 0.042321038 0
-1.0803101 0.37858915 0.11561526 0
-1.0784471 0.38170922 0.18929452 0
-1.2456671 0.1016575 0.3485176 0
-1.2380886 0.11434948 0.44772762 0
-1.240178 0.11085033 0.55741483 0
-1.2365086 0.11699557 0.66877413 0
-1.345871 -0.10474885 -0.050094757 0
-1.0662379 0.37725288 0.042200446 0
-1.0650492 0.37930202 0.11471727 0
-1.0620098 0.38454092 0.18735066 0
-1.2500122 0.060482498 0.35813338 0
-1.2402523 0.077305548 0.45871407 0
-1.240641 0.076635353 0.56972075 0
-1.2347716 0.086752407 0.68137407 0
-1.3299539 -0.11680115 -0.050186232 0
-1.0491526 0.3815673 0.041763958 0
-1.0468649 0.38562763 0.11315709 0
-1.0399145 0.39796329 0.1832712 0
-1.2489779 0.026915783 0.36543703 0
-1.2402064 0.042483564 0.46876389 0
-1.241124 0.040854927 0.58268088 0
-1.3090395 -0.11985791 -0.04991921 0
-1.0278455 0.39423776 0.040999223 0
-1.0358371 0.37962723 0.11314562 0
-1.0346246 0.38184386 0.18534985 0
-1.2486297 -0.0094131287 0.37349766 0
-1.2376933 0.010581369 0.47763774 0
-1.2422414 0.0022662827 0.59687448 0
-1.2926439 -0.13103426 -0.049992826 0
-1.0210726 0.38066876 0.041310996 0
-1.0240741 0.37501323 0.1129825 0
-1.0141224 0.39376462 0.18170324 0
-1.2434626 -0.038365249 0.37937516 0
-1.2400695 -0.031971935 0.49047616 0
-1.2402377 -0.032288913 0.60907632 0
-1.2665668 -0.12352038 -0.04932382 0
-1.0065786 0.38161653 0.041041307 0
-1.0109229 0.37317568 0.11250282 0
-1.0080812 0.37869698 0.18360688 0
-1.2401811 -0.072255142 0.38665032 0
-1.2393563 -0.070652612 0.50177139 0
-1.2376629 -0.067362435 0.62145245 0
-1.2554119 -0.14486885 -0.049823672 0
-0.99471742 0.37770802 0.04097436 0
-0.99216533 0.38282388 0.11066666 0
-0.99462378 0.37789571 0.1826387 0
-1.239224 -0.11241926 0.39568064 0
-1.2411163 -0.11621261 0.51555693 0
-1.238266 -0.11049903 0.63749695 0
-1.243174 -0.16479361 -0.05026963 0
-0.98330063 0.37298423 0.040946092 0
-0.97987556 0.380072 0.11034998 0
-0.98270559 0.37421554 0.18228708 0
-1.2442139 -0.16694558 0.40872929 0
-1.2429478 -0.16432571 0.5301941 0
-1.2262224 -0.17539167 -0.050351452 0
-0.963449 0.3863337 0.04021132 0
-0.966546 0.37971342 0.10976962 0
-0.96882707 0.3748371 0.18111099 0
-1.2453851 -0.21635544 0.42024237 0
-1.2403234 -0.20553541 0.54220116 0
-1.1993252 -0.16416013 -0.04958576 0
-0.95017844 0.38639307 0.040011343 0
-0.95248646 0.381293 0.10898378 0
-0.94714117 0.39310467 0.17648315 0
-1.2391828 -0.25223577 0.42789713 0
-1.2424698 -0.25949907 0.55880958 0
-1.186295 -0.18328834 -0.050020568 0
-0.93600953 0.38885319 0.039725445 0
-0.94085592 0.3777746 0.10882109 0
-0.9400878 0.37953043 0.17820269 0
-1.2398014 -0.30560136 0.4404009 0
-1.2390627 -0.30391264 0.57184893 0
-1.1674017 -0.1893363 -0.049952492 0
-0.92377412 0.38725066 0.039605457 0
-0.92486829 0.38466114 0.10746246 0
-0.92808777 0.37704158 0.17776018 0
-1.2406096 -0.36259556 0.45384115 0
-1.1481434 -0.19437015 -0.049854863 0
-0.90918815 0.3916316 0.039261341 0
-0.91158813 0.385746 0.10680757 0
-0.91299665 0.38229179 0.17584212 0
-1.2387351 -0.41653264 0.46636745 0
-1.1268711 -0.19410193 -0.049563639 0
-0.90129727 0.37964183 0.039553992 0
-0.90212584 0.37753451 0.10724878 0
-0.89932197 0.38466603 0.17452778 0
-1.2410241 -0.48444843 0.48267058 0
-1.1130948 -0.21305692 -0.050017912 0
-0.8882668 0.38063586 0.039353393 0
-0.88682604 0.38444048 0.10596436 0
-0.88999146 0.37608165 0.17536631 0
-1.2378093 -0.54238439 0.49616563 0
-1.0954111 -0.22223258 -0.050105125 0
-0.87664586 0.37816948 0.039291449 0
-0.87353963 0.38669443 0.10524 0
-0.87291217 0.38841659 0.1722082 0
-1.0765522 -0.22824812 -0.050080854 0
-0.86381501 0.37928456 0.039099846 0
-0.86419636 0.37819558 0.10576233 0
-0.86174029 0.38520956 0.17207505 0
-1.0562553 -0.22994149 -0.049902864 0
-0.85523492 0.36817056 0.039375745 0
-0.8527078 0.3756898 0.10561635 0
-0.84996915 0.38383824 0.17161998 0
-1.0346868 -0.22728789 -0.049572155 0
-0.83645827 0.38806891 0.038491376 0
-0.83788967 0.38362539 0.1043084 0
-0.83921975 0.3794964 0.17175776 0
-1.020502 -0.24780309 -0.050118469 0
-0.82382041 0.39016593 0.038284335 0
-0.82551563 0.38466722 0.10380184 0
-0.82594621 0.38327062 0.17038889 0
-1.0003932 -0.24958158 -0.049972076 0
-0.81571871 0.3773737 0.10424848 0
-0.81354153 0.38476497 0.16948523 0
-0.98344368 -0.26223648 -0.050238941 0
-0.80300766 0.38005966 0.038420498 0
-0.80163503 0.38494587 0.1030479 0
-0.80507702 0.37269342 0.17115535 0
-0.96185482 -0.25828111 -0.049898971 0
-0.79025173 0.38350081 0.038181607 0
-0.79095817 0.38085872 0.10316814 0
-0.79218131 0.37628442 0.16991585 0
-0.94295841 -0.26396716 -0.049925249 0
-0.780007 0.37773025 0.038288716 0
-0.7795915 0.37936634 0.10301523 0
-0.77979219 0.37857604 0.16895235 0
-0.92416531 -0.27017522 -0.049979374 0
-0.76601797 0.38719261 0.16684748 0
-0.90816092 -0.28883862 -0.050498027 0
-0.75396621 0.3895492 0.16593856 0
-0.88566196 -0.27892888 -0.049979445 0
-0.74430245 0.38134921 0.1670071 0
-0.86801624 -0.29132915 -0.050284915 0
-0.73395336 0.37579322 0.16760899 0
-0.84506547 -0.27667844 -0.049615096 0
-0.72117043 0.38272643 0.16594158 0
-0.8268699 -0.28649402 -0.049843971 0
-0.8081333 -0.29399788 -0.049997069 0
-0.78892463 -0.29908788 -0.050071273 0
-0.7692461 -0.30113947 -0.050044596 0
-0.74956089 -0.3030082 -0.050020307 0
-0.72949851 -0.30134034 -0.04987793 0
-0.70957011 -0.30004263 -0.049758073 0
-0.68953896 -0.2965796 -0.04956976 0
-0.67019516 -0.30080104 -0.049665712 0
-0.65221369 -0.32895768 -0.05062636 0
-0.63161033 -0.3160485 -0.050126791 0
-0.61175185 -0.31455696 -0.050044578 0
-0.5919227 -0.31190634 -0.049929932 0
-0.57222855 -0.31531823 -0.050040662 0
-0.55247676 -0.3112396 -0.049892832 0
-0.5327549 -0.31168377 -0.04991534 0
-0.51299584 -0.31277096 -0.049969688 0
-0.49372628 -0.30088961 -0.04956957 0
-0.47285992 -0.324036 -0.050430186 0
-0.47548568 -0.27501714 0.06067764 0
-0.47421324 -0.29877186 0.17314915 0
-0.45412323 -0.30577695 -0.049819451 0
-0.49573109 0.32270825 0.039332606 0
-0.45493266 -0.29355073 0.17271289 0
-0.43357649 -0.31590986 -0.050233334 0
-0.48418927 0.32588446 0.039249316 0
-0.43545166 -0.29213214 0.1727123 0
-0.41397986 -0.31242728 -0.050168846 0
-0.47384155 0.34148097 0.03872586 0
-0.4160884 -0.28939462 0.17259581 0
-0.394638 -0.3069098 -0.050040074 0
-0.46225232 0.34162611 0.038761016 0
-0.39737564 -0.28065097 0.17185654 0
-0.37434602 -0.31026709 -0.05023887 0
-0.44913885 0.32897323 0.03926149 0
-0.44287315 0.2754215 0.11191935 0
-0.44136494 0.26253122 0.18608825 0
-0.4434399 0.28026545 0.25620815 0
-0.44139579 0.26279473 0.33812547 0
-0.44114217 0.26062721 0.42023176 0
-0.35551995 -0.30121577 -0.050000459 0
-0.43481362 0.30974078 0.040005587 0
-0.43064284 0.277605 0.11184741 0
-0.42954192 0.26912254 0.18516956 0
-0.42972162 0.27050704 0.25910777 0
-0.42987847 0.27171558 0.33564907 0
-0.42810637 0.25806147 0.42194706 0
-0.43178958 0.28644073 0.4943313 0
-0.33547252 -0.30189741 -0.050121162 0
-0.41954035 0.28759134 0.040862717 0
-0.41957316 0.28782141 0.11092002 0
-0.42036557 0.29337788 0.18105841 0
-0.41992968 0.29032147 0.25443575 0
-0.42022872 0.2924183 0.32925752 0
-0.419101 0.28451067 0.41159925 0
-0.42042607 0.29380214 0.49144897 0
-0.31543529 -0.30193925 -0.050228093 0
-0.40807441 0.29387677 0.040701114 0
-0.40665063 0.28471959 0.11145446 0
-0.40592641 0.2800616 0.18381767 0
-0.40647465 0.28358763 0.25664109 0
-0.40728399 0.28879309 0.33108532 0
-0.40755799 0.2905553 0.40982839 0
-0.40904373 0.300111 0.48916638 0
-0.2976974 -0.28785419 -0.049832925 0
-0.39191589 0.27162242 0.041577641 0
-0.39277881 0.27674651 0.11253864 0
-0.3908298 0.26517308 0.18690355 0
-0.39191312 0.27160597 0.26025262 0
-0.3907465 0.2646786 0.33988458 0
-0.39068657 0.2643227 0.42166683 0
-0.39725012 0.30329752 0.48853579 0
-0.27789575 -0.28669119 -0.049913816 0
-0.30068305 -0.1610595 0.057355419 0
-0.38679025 0.31367022 0.48432502 0
-0.25898704 -0.2806201 -0.049825452 0
-0.27723622 -0.18675423 0.058411576 0
-0.37487268 0.31544483 0.48455346 0
-0.23787282 -0.28546846 -0.050143674 0
-0.26327175 -0.16307461 0.057680964 0
-0.36840349 0.34354031 0.47140917 0
-0.21946727 -0.27698684 -0.049985141 0
-0.23637398 -0.20037746 0.059184279 0
-0.35719451 0.34709734 0.47084296 0
-0.19998778 -0.2735734 -0.050020449 0
-0.20215051 -0.26432812 0.061681472 0
-0.34689716 0.35443437 0.46840516 0
-0.18019252 -0.27132022 -0.050107546 0
0.29805687 -2.2055964 0.13324317 0
-0.0061655431 -0.97517109 0.25281712 0
-0.0028459218 -0.98859715 0.42268834 0
-0.33825222 0.36795133 0.4628413 0
-0.15777539 -0.27886975 -0.050565775 0
0.34204534 -2.1964376 0.13331278 0
-0.32770473 0.37306601 0.46165985 0
-0.14216299 -0.26036346 -0.050071467 0
0.39077488 -2.2043598 0.13403542 0
-0.31712446 0.37784314 0.46071818 0
-0.12380172 -0.25266016 -0.049983986 0
-0.29943159 0.35773599 0.47279814 0
-0.10493515 -0.2468363 -0.049974859 0
-0.30335161 0.41144645 0.44646499 0
-0.088008739 -0.23486817 -0.049744576 0
-0.29045391 0.40739936 0.45030132 0
-0.065101989 -0.24158132 -0.050223466 0
-0.28534716 0.42764884 0.441441 0
-0.049010552 -0.22738111 -0.049925927 0
-0.26097366 0.39037752 0.46300322 0
-0.031307556 -0.2183063 -0.049829029 0
-0.011586704 -0.21485031 -0.049954135 0
0.0052269907 -0.20360732 -0.049791344 0
0.028044721 -0.20765781 -0.050224006 0
0.040980481 -0.18710017 -0.049718771 0
0.064995371 -0.19320357 -0.050253201 0
0.080867134 -0.18007195 -0.050050784 0
-0.18766572 0.42340183 0.38255343 0
0.094703577 -0.16285133 -0.049694322 0
0.11278715 -0.15514088 -0.049718548 0
-0.16031195 0.41920447 0.3888669 0
-0.20471589 0.51258886 0.49307922 0
0.13528456 -0.1563735 -0.050107643 0
0.55573303 -1.0126343 0.46147132 0
-0.15822537 0.44137162 0.38097894 0
-0.19245248 0.51107651 0.49705127 0
0.14868452 -0.13903975 -0.049767438 0
0.58721429 -1.0044098 0.46267855 0
-0.15123548 0.45280546 0.37803462 0
-0.18769692 0.52475643 0.49105045 0
0.17033036 -0.13799322 -0.050087877 0
0.60849279 -0.97629023 0.45992559 0
-0.13932191 0.45443666 0.37969148 0
-0.17675559 0.52605522 0.49333513 0
0.1871437 -0.12749505 -0.050038207 0
0.648426 -0.98359203 0.46446505 0
-0.12010289 0.4427259 0.38770488 0
-0.16897498 0.53342789 0.4916361 0
0.20214827 -0.11380471 -0.049866457 0
0.68052572 -0.97546768 0.46595767 0
-0.11604784 0.45933658 0.38247666 0
-0.16586117 0.5490613 0.48438802 0
0.21986271 -0.10509146 -0.049905896 0
0.71855098 -0.9772768 0.46960843 0
-0.080940403 0.42100096 0.40344083 0
-0.15768234 0.55521941 0.48358727 0
0.23470338 -0.091434725 -0.049750041 0
0.75269955 -0.97148442 0.47179541 0
-0.056693174 0.40363348 0.41469872 0
-0.14476009 0.55325484 0.48844081 0
0.26473567 -0.10306621 -0.050656274 0
0.80393094 -0.99329734 0.47990999 0
-0.057500489 0.42895752 0.40552485 0
-0.13613077 0.558779 0.48825163 0
0.26949617 -0.072919734 -0.049828172 0
0.84470302 -0.99616981 0.48420042 0
-0.12893404 0.56659043 0.48653841 0
0.28737864 -0.06433285 -0.049910001 0
0.88248736 -0.99325824 0.48739627 0
-0.12290532 0.5760932 0.48368365 0
0.30080608 -0.048870329 -0.049708188 0
0.91677529 -0.98421621 0.48939726 0
0.01365783 0.38716263 0.4358961 0
-0.11249418 0.57872379 0.48573869 0
0.32013288 -0.042373542 -0.049898401 0
0.95137435 -0.97512627 0.49149853 0
0.032160245 0.38314861 0.44153196 0
-0.1092631 0.59212255 0.48019385 0
0.33816656 -0.033776287 -0.050009489 0
0.99353892 -0.97639418 0.49598873 0
0.041848682 0.39241588 0.44063696 0
-0.10678823 0.60619938 0.47413978 0
0.35306004 -0.020641452 -0.049932435 0
0.060528897 0.38900149 0.4462477 0
-0.099318333 0.61284184 0.47347134 0
0.37358311 -0.015270239 -0.050206643 0
0.076395713 0.3900044 0.44976276 0
-0.090646543 0.6178 0.47410426 0
0.39014766 -0.0043143085 -0.050245386 0
1.1292748 -0.98609614 0.10611884 0
1.1321229 -0.98987889 0.30789021 0
0.085295521 0.40062046 0.4484323 0
-0.088879831 0.63197738 0.46798018 0
0.40051678 0.014708871 -0.049929891 0
0.10865363 0.39239782 0.45700461 0
-0.0772985 0.63303137 0.47164866 0
0.41242024 0.031444188 -0.049721397 0
0.12790693 0.39019352 0.46263728 0
-0.070790775 0.64073598 0.47042987 0
0.43228242 0.038171645 -0.049978275 0
-0.066714652 0.65134913 0.46703702 0
0.45058486 0.047054883 -0.05014918 0
-0.051895238 0.64887267 0.47376055 0
0.46633002 0.059113737 -0.050183434 0
-0.042704441 0.65340889 0.47522607 0
0.48132285 0.072070234 -0.050184775 0
-0.043675818 0.66960806 0.46759161 0
0.49560162 0.085825317 -0.050156787 0
1.2064261 -0.70295811 0.10006495 0
-0.037463821 0.6773541 0.46660873 0
0.50205475 0.1080228 -0.049726732 0
1.2068037 -0.6544894 0.098795876 0
-0.02566109 0.67899197 0.47060978 0
0.51123589 0.12690604 -0.049458522 0
0.38477942 0.26031727 0.054895911 0
-0.021958033 0.68942422 0.46759352 0
0.53803104 0.12740207 -0.050108213 0
0.38226381 0.28764588 0.054129831 0
0.84874457 -0.19224095 0.22280598 0
-0.01245568 0.69370908 0.46966276 0
0.5502339 0.14318979 -0.050012153 0
0.38803348 0.30590147 0.053809859 0
0.83427256 -0.14174402 0.21784735 0
-0.010202327 0.70539236 0.46566239 0
0.56597978 0.15542138 -0.050104205 0
0.40761819 0.31033123 0.054195307 0
0.75000376 -0.024591332 0.20255256 0
0.74476594 -0.019467717 0.33452156 0
0.74896806 -0.023578173 0.4722459 0
-0.0012984065 0.7103346 0.46735114 0
0.57356304 0.17553318 -0.049800076 0
0.42987511 0.31259149 0.054710764 0
0.8397705 -0.078391798 0.21350844 0
0.19338079 0.53817421 0.35119319 0
0.0033785317 0.71941 0.46560678 0
0.60103387 0.17685878 -0.050481554 0
0.46255085 0.30566144 0.055729605 0
0.84203631 -0.047297005 0.2113944 0
0.19364943 0.55576593 0.34724531 0
0.6047042 0.20042181 -0.050009023 0
0.83686835 -0.010124093 0.073198386 0
0.84481174 -0.01732791 0.20943543 0
0.19340427 0.57342297 0.34321153 0
0.020151159 0.73054343 0.46839374 0
0.61810678 0.21493888 -0.050019737 0
0.83502048 0.023144955 0.07235688 0
0.84613436 0.013318175 0.20734419 0
0.83872098 0.019873137 0.34209934 0
0.21395667 0.57228619 0.34855777 0
0.028139373 0.73658472 0.46953294 0
0.63087183 0.23001969 -0.050008949 0
0.83852357 0.051023003 0.071796514 0
0.83678144 0.052524682 0.20381585 0
0.84238726 0.047692414 0.33929777 0
0.23621984 0.57021159 0.35459146 0
0.04159721 0.73797715 0.4750022 0
0.63858098 0.24934316 -0.049771413 0
0.84339303 0.077241294 0.071322225 0
0.83948296 0.080526941 0.20208643 0
0.83996087 0.080125324 0.3351734 0
0.92708701 0.0069138953 0.5007028 0
0.26603869 0.56238723 0.36383361 0
0.27718553 0.5530206 0.45735008 0
0.041040264 0.75145143 0.46957144 0
0.65282696 0.26310003 -0.049849264 0
0.84932321 0.10216319 0.07091707 0
0.84969527 0.10185849 0.20146737 0
0.83955389 0.11016452 0.3316578 0
0.94409102 0.024545187 0.50116956 0
0.29462841 0.55647647 0.37240979 0
0.24735369 0.59519607 0.4366942 0
0.045933388 0.76016587 0.468505 0
0.65799016 0.2841813 -0.049519379 0
0.84593982 0.13415825 0.070104927 0
0.84821147 0.13234508 0.19928332 0
0.84110171 0.13802016 0.32871613 0
0.98072118 0.026574606 0.50811124 0
0.26846704 0.59510189 0.35756168 0
0.24598898 0.61304408 0.43160841 0
0.05768206 0.76335222 0.47273496 0
0.68164843 0.29058617 -0.050041296 0
0.84853858 0.16077936 0.06958957 0
0.83834749 0.16870594 0.19603211 0
0.83378905 0.17225146 0.32385927 0
0.26067659 0.61801744 0.43511063 0
0.064236127 0.77080846 0.47305122 0
0.69593149 0.30456132 -0.050141931 0
0.85299307 0.18554258 0.06917733 0
0.83529502 0.19895375 0.19379228 0
0.83514291 0.19906914 0.3211076 0
0.25751886 0.63678348 0.42934191 0
0.070466183 0.77852905 0.47319356 0
0.70445889 0.32287705 -0.049994085 0
0.85069054 0.21493638 0.068482973 0
0.84120208 0.22194028 0.19282106 0
0.84445542 0.21953881 0.32024145 0
0.27994582 0.63623077 0.43691498 0
0.079774044 0.78398728 0.47567528 0
0.71947032 0.33640707 -0.050142851 0
0.84459096 0.24646103 0.067644268 0
0.8317228 0.25571162 0.18986058 0
0.84146422 0.24870872 0.31670779 0
0.081445359 0.79506689 0.47260746 0
0.73225194 0.35162967 -0.0502006 0
0.85070103 0.2687217 0.067362361 0
0.83514017 0.27961344 0.18867391 0
0.83890623 0.27697742 0.31338173 0
0.83673245 0.27849889 0.44016358 0
0.088473104 0.80224019 0.47354555 0
0.73589844 0.37312961 -0.04987153 0
0.88685209 0.2702775 0.068392813 0
0.83576852 0.30508327 0.18717398 0
0.8400355 0.302176 0.31096676 0
0.8462134 0.2979666 0.43933147 0
0.11027797 0.79939526 0.48514503 0
0.74669486 0.38961393 -0.049863122 0
0.91230112 0.27980578 0.068957105 0
0.85086852 0.32053971 0.18759415 0
0.83924705 0.32824558 0.30822587 0
0.85554844 0.31743664 0.43853697 0
0.11352285 0.80944973 0.48341572 0
0.75883132 0.40523046 -0.049920566 0
0.95455319 0.27897239 0.070235834 0
0.84089285 0.35229349 0.18482895 0
0.84392887 0.35033494 0.30675191 0
0.84125239 0.35206151 0.43064898 0
0.10638233 0.82611823 0.47446075 0
0.76997036 0.42152429 -0.049943846 0
0.99478799 0.28047359 0.071419038 0
0.8472181 0.37305897 0.18420458 0
0.83954269 0.37787455 0.30341837 0
0.83623642 0.37994891 0.42574993 0
0.12377336 0.82694858 0.48289847 0
0.78187376 0.43737477 -0.050007522 0
1.0260887 0.28840631 0.07222037 0
0.84785455 0.39712721 0.18290186 0
0.83886105 0.40261316 0.30096644 0
0.84226519 0.40053666 0.42429447 0
0.13900961 0.82951492 0.48978207 0
0.79085821 0.45501155 -0.049957894 0
1.0812804 0.28283679 0.07401146 0
0.84360999 0.42373806 0.18103702 0
0.83480376 0.42895871 0.29789063 0
0.84090072 0.42534417 0.42073423 0
0.13566251 0.84343994 0.48382485 0
0.79319865 0.47643822 -0.049644079 0
0.84666556 0.4456439 0.18013275 0
0.83878201 0.4501844 0.29657868 0
0.84484071 0.44669491 0.41885373 0
0.1425875 0.85115868 0.48506114 0
0.81610924 0.48610985 -0.050184987 0
0.8410216 0.47217637 0.17819768 0
0.83717245 0.47432917 0.2941767 0
0.83535665 0.47534472 0.41314113 0
0.15073802 0.85825396 0.4871878 0
0.810875 0.51149875 -0.049583841 0
0.85630065 0.48683774 0.17887534 0
0.83514196 0.49832451 0.2917673 0
0.84836429 0.49114627 0.41410196 0
0.8309117 0.52310181 -0.050019309 0
0.85403508 0.51092279 0.17744 0
0.84783608 0.51418781 0.29243702 0
0.84303612 0.51671588 0.40982679 0
0.84235102 0.53944403 -0.050113212 0
0.84569985 0.53773373 0.17531812 0
0.84227306 0.53948385 0.28944582 0
0.83719379 0.5420779 0.40552425 0
0.83136183 0.5450564 0.52480412 0
0.84384912 0.56078398 -0.04981875 0
0.85719389 0.55417919 0.1756278 0
0.8377406 0.56380731 0.28674489 0
0.842614 0.56139535 0.40454575 0
0.84356028 0.56092697 0.52605808 0
0.84977967 0.57977235 -0.049712215 0
0.87343174 0.56843454 0.17652573 0
0.84358627 0.5827412 0.28619727 0
0.8318668 0.58835912 0.39906794 0
0.84249538 0.58326423 0.52248502 0
0.86084193 0.59630042 -0.049817707 0
0.90295368 0.5767619 0.17901358 0
0.84461981 0.60382694 0.28474367 0
0.84457368 0.60384834 0.40031439 0
0.84477001 0.6037572 0.52026111 0
0.87147385 0.61310655 -0.049913932 0
0.93137246 0.58622682 0.18136986 0
0.84627813 0.62441319 0.28347436 0
0.85429031 0.62081772 0.40077233 0
0.84054655 0.62698525 0.51577443 0
0.8771444 0.63214183 -0.049824826 0
0.9639464 0.59449494 0.18421403 0
0.84449083 0.64630401 0.28158575 0
0.8441506 0.64645159 0.39576539 0
0.8467409 0.64532816 0.5151965 0
0.89155036 0.64745373 -0.0500836 0
1.0045615 0.6001212 0.18799232 0
0.8425408 0.66798043 0.27972928 0
0.82446867 0.67554957 0.38823491 0
0.8392567 0.66935587 0.50977135 0
0.88947147 0.66962749 -0.049713746 0
1.0387903 0.60928673 0.19101943 0
0.83957773 0.68978995 0.27773842 0
0.84017819 0.68954724 0.39058262 0
0.84398955 0.68800706 0.50886637 0
0.8964898 0.68798101 -0.049704973 0
1.0825753 0.61549461 0.19514725 0
0.84848398 0.70668083 0.27810788 0
0.84120125 0.70951766 0.388946 0
0.83579344 0.71162421 0.50343376 0
0.26992342 0.93204921 0.45024326 0
0.91160482 0.70329416 -0.050013799 0
0.84966224 0.72652882 0.27702811 0
0.84071678 0.72988433 0.38697496 0
0.83916205 0.7304675 0.50224191 0
0.28120211 0.93975866 0.45413703 0
0.90992945 0.72490019 -0.049691308 0
0.83917791 0.75042766 0.27376521 0
0.84286946 0.74909574 0.38579789 0
0.84284216 0.74910563 0.50124979 0
0.26222762 0.95859385 0.44197288 0
0.92935687 0.73895389 -0.050177891 0
0.84038204 0.76979578 0.27280515 0
0.84150678 0.76940596 0.38374215 0
0.84315163 0.76883578 0.49915797 0
0.83661455 0.77110177 0.61686754 0
0.26927724 0.96776199 0.44376859 0
0.93002588 0.75961137 -0.049963351 0
0.85661703 0.78402668 0.27475232 0
0.84142548 0.78907925 0.38210848 0
0.83974868 0.78963697 0.49586052 0
0.84727663 0.78713322 0.61891323 0
0.28897157 0.97282171 0.45228523 0
0.93807214 0.77776247 -0.05003586 0
0.85166961 0.80529606 0.27271622 0
0.83741957 0.8098371 0.3794969 0
0.84790879 0.80649453 0.4967055 0
0.83273524 0.81132984 0.61008644 0
0.31508532 0.97628748 0.46417227 0
0.94632524 0.79590732 -0.050124366 0
0.84434837 0.82699502 0.27029094 0
0.83783203 0.82898158 0.37814364 0
0.84698445 0.82619143 0.49446157 0
0.83326036 0.83037525 0.60794705 0
0.30757657 0.99063045 0.45844969 0
0.95398432 0.81429332 -0.050198961 0
0.86918277 0.83898258 0.27396595 0
0.82977563 0.85045558 0.37460914 0
0.83686787 0.84839076 0.48912677 0
0.83586365 0.84868312 0.60681534 0
0.33223948 0.99530888 0.46960738 0
0.95315582 0.83509284 -0.049967427 0
0.90302712 0.8490051 0.2793428 0
0.8366397 0.86742967 0.37510929 0
0.83192784 0.8687374 0.48569456 0
0.83726579 0.86725593 0.60527062 0
0.31882939 1.0111383 0.46098739 0
0.96351343 0.85277331 -0.050159387 0
0.91903621 0.86451602 0.28139859 0
0.83587819 0.88647109 0.37365204 0
0.84255236 0.884709 0.48771772 0
0.84419793 0.88427454 0.6061995 0
0.32369974 1.0216948 0.46195912 0
0.97129554 0.87124199 -0.050264161 0
0.96107167 0.87380403 0.28832328 0
0.83418113 0.90560168 0.37201652 0
0.82869226 0.90697712 0.48140585 0
0.84265786 0.90347749 0.6036008 0
0.32250974 1.0338221 0.45987052 0
0.97094685 0.89171892 -0.050078832 0
0.98762912 0.88776106 0.29238006 0
0.84773034 0.92095208 0.3744469 0
0.8431024 0.92205006 0.48487523 0
0.84398979 0.92183954 0.60233498 0
0.33971909 1.041478 0.46732825 0
0.96621174 0.91304761 -0.049742989 0
1.0255382 0.89975911 0.29855597 0
0.84827477 0.93946421 0.37352091 0
0.83994824 0.94132924 0.48241132 0
0.8391667 0.9415043 0.5985595 0
0.34081945 1.0531286 0.46655479 0
0.99003202 0.92811787 -0.05045972 0
1.0525584 0.9149372 0.3027364 0
0.83553141 0.96068698 0.36919358 0
0.83890361 0.95997608 0.4807539 0
0.83421439 0.96096462 0.59484416 0
0.35316017 1.062372 0.47160614 0
0.97593862 0.95120162 -0.049801819 0
1.0849075 0.92966008 0.30792129 0
0.84075469 0.97792554 0.36961916 0
0.83972985 0.97812808 0.47981474 0
0.84212643 0.97765434 0.5966711 0
0.36418352 1.0721366 0.47603241 0
0.98878556 0.96884257 -0.050134074 0
0.85141093 0.99420655 0.37150973 0
0.84152359 0.99603212 0.47928253 0
0.83577603 0.99709326 0.5925774 0
0.3864263 1.0800583 0.4862195 0
0.9896341 0.98878396 -0.050039046 0
0.8425594 1.0140282 0.36839947 0
0.84556884 1.0135117 0.47958764 0
0.8289234 1.0163687 0.58838445 0
0.38727543 1.0921742 0.48557466 0
0.98812097 1.0090355 -0.049867924 0
0.43391499 1.0969918 0.041834421 0
0.43150213 1.0973748 0.11360751 0
0.43341002 1.097072 0.18692902 0
0.42964903 1.0976689 0.26098144 0
0.44379315 1.0954241 0.34326234 0
0.43799153 1.0963448 0.42328888 0
0.40051916 1.1022919 0.49128759 0
0.99242932 1.0283192 -0.049916357 0
0.39943132 1.1147921 0.040521655 0
0.39890131 1.1148695 0.10986075 0
0.40561262 1.1138908 0.18151623 0
0.40668729 1.1137341 0.25457281 0
0.41070309 1.1131485 0.33149108 0
0.40544006 1.1139159 0.40886959 0
0.40695491 1.113695 0.49361226 0
0.99403435 1.0480001 -0.049876098 0
0.3906298 1.128245 0.040144123 0
0.43662509 1.1221282 0.11376845 0
0.42992452 1.1230193 0.18563163 0
0.4290581 1.1231346 0.25989464 0
0.43161342 1.1227947 0.33793822 0
0.4303163 1.1229672 0.41855341 0
0.40421119 1.1264389 0.49137223 0
0.9987933 1.0672765 -0.049958233 0
0.37000886 1.1428522 0.039348248 0
0.42474595 1.1362731 0.11231099 0
0.42255118 1.136537 0.1840062 0
0.42487159 1.1362581 0.25841448 0
0.42394826 1.1363691 0.33484107 0
0.4266769 1.136041 0.41637868 0
1.0009749 1.0868911 -0.049956426 0
0.36876956 1.1548144 0.039255992 0
0.84817749 1.1033075 0.36667344 0
0.8407765 1.1041026 0.47384456 0
0.84008032 1.1041774 0.58793992 0
1.003585 1.106467 -0.049978856 0
0.85554057 1.1204896 0.36810166 0
0.83733636 1.1222138 0.47209987 0
0.84693235 1.1213049 0.59004939 0
1.0082558 1.125893 -0.05008392 0
0.36493394 1.1786635 0.039039362 0
0.84654695 1.1391577 0.36539668 0
0.83485001 1.1401172 0.47075155 0
0.83706182 1.1399357 0.58529937 0
0.99863356 1.1463877 -0.049686141 0
0.36106482 1.1906123 0.038869422 0
0.85223502 1.1565425 0.36650902 0
0.84077519 1.1573374 0.47228485 0
0.84056526 1.1573521 0.58620155 0
0.99065512 1.1665114 -0.049356654 0
0.85697323 1.1740942 0.36743379 0
0.84237033 1.1749225 0.47244638 0
0.84429771 1.1748132 0.58728904 0
1.001756 1.1855642 -0.049718231 0
0.84820932 1.1923354 0.3649663 0
0.84573048 1.1924447 0.4732694 0
0.83244067 1.1930307 0.58200622 0
1.0123409 1.2048913 -0.050069802 0
0.84994918 1.2100049 0.36523962 0
0.84327358 1.2102152 0.4722293 0
0.83875722 1.2103574 0.58434874 0
1.0140735 1.224637 -0.050113887 0
0.85613364 1.2276204 0.36670384 0
0.8344658 1.2280297 0.46915063 0
0.8466863 1.2277988 0.58744884 0
1.0079092 1.2444665 -0.049884912 0
0.85172623 1.2454499 0.36552218 0
0.83814472 1.2455354 0.47030115 0
0.84444457 1.2454957 0.58642846 0
1.0084788 1.2641802 -0.049905248 0
0.84356636 1.2631419 0.36344028 0
0.83416432 1.2630827 0.46897686 0
0.84040266 1.263122 0.58475494 0
1.0104853 1.2839384 -0.049985763 0
0.85714382 1.2810419 0.36696163 0
0.83899754 1.280699 0.47065857 0
0.83599514 1.2806423 0.58302152 0
1.0159121 1.3038642 -0.050197359 0
0.84771341 1.2985678 0.36466894 0
0.83816832 1.2982672 0.47052997 0
0.8405785 1.2983431 0.58510315 0
1.0177263 1.3237833 -0.050288942 0
0.85035604 1.3164024 0.36551452 0
0.83259469 1.3156192 0.46889496 0
0.84935695 1.3163584 0.58901691 0
1.0053596 1.3429658 -0.049882468 0
0.84975594 1.3341396 0.36558944 0
0.83385807 1.3332379 0.46960983 0
0.82526594 1.3327504 0.57939655 0
1.0191218 1.3636765 -0.050419349 0
1.3080271 1.3837163 0.072758429 0
1.3035594 1.3834064 0.20647733 0
1.2988834 1.383082 0.341584 0
0.85021263 1.3519603 0.3659918 0
0.83957464 1.3512224 0.47188443 0
0.84051985 1.351288 0.58618271 0
1.0038522 1.3823889 -0.04992618 0
1.2411602 1.4018549 0.070426829 0
1.252188 1.4027596 0.20112909 0
1.0105467 1.3829381 0.28972816 0
0.85955828 1.3705528 0.36872745 0
0.84104675 1.3690343 0.4728201 0
0.84584433 1.3694278 0.58894789 0
1.0000373 1.4018401 -0.049851637 0
1.2466441 1.4251982 0.070695221 0
1.2458034 1.4251186 0.20065711 0
0.90928715 1.3932444 0.27170032 0
0.85461336 1.3880658 0.36786404 0
0.83286852 1.3860061 0.4706068 0
0.83750492 1.3864453 0.58612865 0
1.0037332 1.4220483 -0.05005547 0
0.63076228 1.381977 0.048663303 0
0.64802581 1.3838316 0.13629256 0
0.63962168 1.3829287 0.22312497 0
0.65751749 1.3848515 0.31775001 0
0.83957583 1.4044116 0.47344279 0
0.83117396 1.4035089 0.58423114 0
0.9947868 1.4408852 -0.049814165 0
0.55456883 1.3879738 0.045984704 0
0.55715078 1.3882842 0.12664287 0
0.55920237 1.3885307 0.20882843 0
0.54918748 1.3873271 0.29035974 0
0.83951277 1.4222223 0.47409207 0
0.83782524 1.4220194 0.587834 0
0.99640232 1.460958 -0.049961381 0
0.55438405 1.4021753 0.046041831 0
0.55055302 1.4016658 0.12612 0
0.554133 1.4021419 0.20822969 0
0.5560953 1.4024029 0.29259124 0
0.8371461 1.4397789 0.47404444 0
0.83751756 1.4398284 0.58863366 0
0.99532038 1.4807456 -0.050020665 0
0.55984253 1.4172426 0.046309114 0
0.55692559 1.4168173 0.12702313 0
0.56269151 1.4176581 0.21014482 0
0.54806763 1.4155257 0.29102498 0
0.82255358 1.4555521 0.46996054 0
0.84996814 1.4595498 0.59486681 0
0.99141389 1.5001303 -0.049986955 0
0.55067068 1.4301813 0.046054922 0
0.55769616 1.4312962 0.12733923 0
0.54874974 1.4298764 0.20799074 0
0.55228764 1.4304379 0.29266208 0
0.84316951 1.4766029 0.47779551 0
0.8381198 1.4758015 0.59102982 0
0.99198836 1.5202633 -0.050124325 0
0.54341251 1.4432687 0.045875397 0
0.54218751 1.4430585 0.12590078 0
0.54968625 1.4443456 0.20858262 0
0.54931885 1.4442825 0.29249036 0
0.84334832 1.4947504 0.47883815 0
0.84093672 1.4943364 0.59343112 0
0.97861654 1.537923 -0.04976489 0
0.54925996 1.4586494 0.046177227 0
0.56182474 1.4609692 0.12831607 0
0.54747087 1.4583191 0.20863123 0
0.55094022 1.4589596 0.29355434 0
0.82574445 1.5096977 0.47394416 0
0.83333069 1.5110984 0.59154779 0
0.97988528 1.5582217 -0.049945448 0
0.5501923 1.4732777 0.046307977 0
0.56068331 1.4753516 0.12848578 0
0.54000729 1.4712642 0.20774743 0
0.54934257 1.4731097 0.2938318 0
0.84349686 1.5312597 0.48109227 0
0.84735459 1.5320224 0.59887761 0
0.97474104 1.5773019 -0.049901813 0
0.54748124 1.4872346 0.046312854 0
0.53750581 1.4851317 0.12625557 0
0.55225223 1.4882402 0.21052381 0
0.55722207 1.489288 0.29662746 0
0.8379249 1.5484607 0.48042113 0
0.84585184 1.5501317 0.5997684 0
0.98412889 1.5996088 -0.050398502 0
0.5535931 1.5031735 0.04664696 0
0.54145867 1.5004555 0.12702054 0
0.54264039 1.5007201 0.20930798 0
0.54733306 1.5017712 0.29483855 0
0.85537905 1.5707701 0.48767227 0
0.84167749 1.5677012 0.59962481 0
0.96453923 1.615404 -0.049843721 0
0.55104715 1.5173028 0.046671744 0
0.56406957 1.5203924 0.12986991 0
0.55952996 1.5193154 0.21302979 0
0.55927199 1.5192542 0.29880905 0
0.84788412 1.5877275 0.48651025 0
0.83954114 1.5857482 0.60044199 0
0.95653051 1.6337011 -0.049720734 0
0.54334456 1.5301603 0.046513356 0
0.55368084 1.5327505 0.12909994 0
0.54512197 1.5306058 0.21098779 0
0.54583389 1.5307841 0.29617521 0
0.8440122 1.605505 0.4866603 0
0.85231704 1.6075861 0.60772371 0
0.96156019 1.6553541 -0.050087266 0
0.54701549 1.5459075 0.04678037 0
0.54568452 1.5455561 0.12861058 0
0.54575139 1.5455737 0.21177037 0
0.54616052 1.5456817 0.29720303 0
0.84346491 1.624175 0.48803172 0
0.84458488 1.6244707 0.6063652 0
0.95042199 1.6727916 -0.049866136 0
0.5462628 1.5606247 0.046891753 0
0.54117483 1.5592126 0.12852634 0
0.55030805 1.5617473 0.21332596 0
0.54907602 1.5614054 0.29896948 0
0.8332842 1.6402822 0.48616287 0
0.84134144 1.6425183 0.60702193 0
0.95453149 1.6945091 -0.050219312 0
0.54881889 1.5763894 0.047133457 0
0.53842992 1.5733649 0.12865856 0
0.55038172 1.5768445 0.2140834 0
0.54572731 1.5754894 0.29913041 0
0.83073813 1.6584678 0.48700273 0
0.84159249 1.6616279 0.60928577 0
0.93541032 1.7094084 -0.049716983 0
0.84930927 1.6831604 0.3812049 0
0.83379477 1.6784308 0.48987406 0
0.84255368 1.681101 0.61196965 0
0.93541187 1.7300329 -0.049936179 0
0.84606069 1.7015597 0.38181075 0
0.8390637 1.69933 0.49361697 0
0.85190719 1.7034228 0.61841762 0
0.9256869 1.7475886 -0.049800098 0
0.85048348 1.7225765 0.38454393 0
0.84107167 1.7194462 0.49632439 0
0.83887905 1.718717 0.6152491 0
0.91907686 1.7661258 -0.049789459 0
0.83850914 1.7381982 0.38293275 0
0.84568936 1.740687 0.5000515 0
0.83338338 1.7364213 0.61545163 0
0.9114117 1.7842777 -0.04974756 0
0.83779961 1.7577181 0.38442278 0
0.83378524 1.7562697 0.49804649 0
0.83549982 1.7568884 0.61910361 0
0.90321881 1.8022034 -0.049694043 0
0.83558124 1.7768325 0.38557559 0
0.8363114 1.7771064 0.50122899 0
0.83411223 1.7762815 0.62133712 0
0.90617603 1.8244352 -0.05007609 0
0.83551949 1.7969122 0.38739029 0
0.829503 1.7945685 0.5011878 0
0.82276624 1.7919444 0.6192649 0
0.89386314 1.8407903 -0.049882848 0
0.84595937 1.821432 0.39217344 0
0.82686931 1.8137176 0.5027231 0
0.83243901 1.8159684 0.62665617 0
0.88957518 1.8603622 -0.050007153 0
0.83947343 1.839378 0.3923853 0
0.8211723 1.831713 0.50324839 0
0.8285107 1.8347865 0.62811679 0
0.89678127 1.885018 -0.050588984 0
0.84217745 1.8613358 0.3952167 0
0.81611103 1.8500304 0.50408894 0
0.82774824 1.8550776 0.63112068 0
0.86818796 1.894062 -0.049785353 0
0.82856137 1.8762795 0.3935774 0
0.82373828 1.8741151 0.50964516 0
0.82214755 1.8734013 0.6320616 0
0.85784119 1.9109504 -0.049699608 0
0.82735878 1.8968077 0.39547262 0
0.81129688 1.8893554 0.50798452 0
0.81975085 1.8932778 0.63457543 0
0.84969825 1.9288317 -0.049708992 0
0.83128494 1.9200051 0.39890334 0
0.81704944 1.9131812 0.51309693 0
0.82111055 1.9151279 0.63894379 0
0.85512811 1.9534416 -0.050268047 0
0.80874079 1.9304826 0.39490306 0
0.8169089 1.9345254 0.51616472 0
0.81739765 1.9347672 0.64112276 0
0.84493762 1.9705201 -0.050216902 0
0.81311458 1.9542676 0.39862606 0
0.80871338 1.9520198 0.5163433 0
0.81687087 1.9561859 0.64491171 0
0.83625895 1.9883577 -0.05023507 0
0.80582494 1.9723283 0.3990967 0
0.79846972 1.9684544 0.51583552 0
0.80254537 1.970601 0.64239448 0
0.82477564 2.0046909 -0.050148528 0
0.79817337 1.9902488 0.3995313 0
0.78734809 1.9843719 0.5150699 0
0.78995413 1.9857867 0.64076227 0
0.81052881 2.019412 -0.049956713 0
0.79029363 2.0080945 0.39996803 0
0.78397566 2.0045607 0.51732904 0
0.79119366 2.0085979 0.64577013 0
0.79498047 2.033231 -0.04971749 0
0.78613693 2.0281377 0.40156999 0
0.77517849 2.0218263 0.51761913 0
0.77427059 2.0213032 0.64227319 0
0.78970438 2.0529475 -0.049910005 0
0.77804416 2.0460348 0.40209115 0
0.76394492 2.0376763 0.51705289 0
0.77577919 2.044692 0.6476984 0
0.77626866 2.0678494 -0.049773123 0
0.7738722 2.0663874 0.40385512 0
0.77367729 2.0662687 0.52473027 0
0.77599555 2.0676827 0.65268105 0
0.76957256 2.0868692 -0.049927078 0
0.76213521 2.0822031 0.40343148 0
0.76161462 2.0818765 0.52404928 0
0.7676937 2.0856905 0.65368062 0
0.76109785 2.1048748 -0.050016861 0
0.7563315 2.1018 0.40486598 0
0.75341135 2.0999162 0.52496827 0
0.76033968 2.1043856 0.65526664 0
0.75383884 2.1237662 -0.050169144 0
0.75052863 2.1215713 0.40638807 0
0.74304408 2.1166084 0.52512145 0
0.75135583 2.1221197 0.65617275 0
0.73808891 2.137006 -0.04996616 0
0.74039274 2.1385758 0.40666205 0
0.74367589 2.1408126 0.5297882 0
0.74049574 2.1386459 0.65625805 0
0.7273497 2.1535821 -0.04998697 0
0.73164159 2.1565862 0.40743613 0
0.73191148 2.1567752 0.52958548 0
0.72860473 2.1544607 0.65592784 0
0.71154124 2.1665361 -0.049794219 0
0.72195739 2.1740239 0.40799496 0
0.71106511 2.1661937 0.52574158 0
0.72077006 2.1731706 0.65776414 0
0.6967693 2.18009 -0.049652863 0
0.70982188 2.1897247 0.40785104 0
0.71068174 2.1903594 0.53037244 0
0.71404773 2.1928442 0.66031063 0
0.6870591 2.1973584 -0.049744505 0
0.7028603 2.2093325 0.40942493 0
0.70364374 2.2099261 0.53239632 0
0.70208949 2.2087483 0.6602897 0
0.67620939 2.2138264 -0.049795292 0
0.69782108 2.2306359 0.41171509 0
0.69169253 2.2258692 0.53247261 0
0.69951862 2.2319562 0.66529703 0
0.66881102 2.2330992 -0.05001368 0
0.68014115 2.2421429 0.40998903 0
0.67622489 2.239017 0.53113776 0
0.67932957 2.2414951 0.66117561 0
0.66139382 2.2525597 -0.050244603 0
0.67231733 2.2615063 0.41154301 0
0.67902106 2.2669969 0.53771412 0
0.67808944 2.2662337 0.66721654 0
0.64199692 2.2621703 -0.049930707 0
0.66261715 2.2794974 0.41256911 0
0.66200882 2.2789862 0.53590488 0
0.66159552 2.2786388 0.66524005 0
0.63211006 2.2796907 -0.050067317 0
0.72226936 2.3574085 0.066316925 0
0.72192878 2.3571148 0.18751986 0
0.72635525 2.3609304 0.31167001 0
0.65437323 2.2988818 0.41417277 0
0.65316504 2.2978401 0.5377298 0
0.65290183 2.2976134 0.66759074 0
0.6190452 2.294534 -0.050064459 0
0.67746645 2.3461897 0.064848557 0
0.67797893 2.3466427 0.18322153 0
0.67916507 2.3476915 0.30368838 0
0.64105707 2.3139968 0.41414967 0
0.63630873 2.3097982 0.53612167 0
0.64001459 2.3130751 0.66778147 0
0.60872227 2.3118653 -0.050202679 0
0.65524346 2.3540547 0.06444481 0
0.6614185 2.3596547 0.18282855 0
0.66186255 2.3600574 0.30285147 0
0.62476927 2.3264179 0.41316801 0
0.61549038 2.3180032 0.53278285 0
0.62227517 2.324156 0.66537046 0
0.58457977 2.3164804 -0.049679309 0
0.63956696 2.3676238 0.064360298 0
0.64377218 2.3715351 0.18229544 0
0.63614815 2.364444 0.29997092 0
0.61624354 2.3459308 0.41493347 0
0.61464244 2.3444417 0.53852499 0
0.60124642 2.3319819 0.66114956 0
0.57179493 2.3314233 -0.049712837 0
0.61811107 2.3756025 0.063997999 0
0.6278165 2.3848603 0.18202908 0
0.62583846 2.3829734 0.30090874 0
0.59884983 2.3572299 0.41367966 0
0.6122039 2.3699679 0.54375732 0
0.60761672 2.3655925 0.67261112 0
0.56706518 2.3542833 -0.050158411 0
0.61635727 2.4025011 0.06462016 0
0.6170308 2.4031599 0.18256176 0
0.60960382 2.3958948 0.30042186 0
0.58768708 2.3744557 0.41468468 0
0.585504 2.3723202 0.53791201 0
0.58642632 2.3732226 0.66849554 0
0.55377084 2.3690014 -0.050191011 0
0.61052269 2.4259319 0.065060884 0
0.59830171 2.4136727 0.18192688 0
0.59921259 2.4145863 0.30146289 0
0.57663065 2.3919332 0.41581872 0
0.57024866 2.3855312 0.53739941 0
0.56903487 2.3843133 0.66661161 0
0.5295729 2.3725398 -0.049674988 0
0.603553 2.4486461 0.065464236 0
0.60611552 2.4512823 0.18539649 0
0.60267431 2.4477422 0.30616233 0
0.55386227 2.3975272 0.4127607 0
0.56476313 2.4087415 0.54162222 0
0.55599695 2.3997233 0.66737151 0
0.51841134 2.3893073 -0.049830902 0
0.6207214 2.4972439 0.0671404 0
0.60916048 2.4850471 0.18824099 0
0.60991746 2.4858458 0.31202462 0
0.54705995 2.4195313 0.41560897 0
0.54386812 2.4161639 0.53858978 0
0.54735249 2.4198401 0.67090189 0
0.50970834 2.408901 -0.050129298 0
0.54157788 2.4433827 0.41909605 0
0.53410143 2.4352934 0.5410158 0
0.53635007 2.4377265 0.67319578 0
0.489876 2.4164643 -0.049851444 0
0.5203293 2.4502575 0.41673708 0
0.51154035 2.4405046 0.53723651 0
0.51887935 2.4486485 0.67165977 0
0.47497997 2.4293535 -0.049841691 0
0.50587481 2.4645171 0.41700351 0
0.50597006 2.4646256 0.54199982 0
0.50215787 2.4602866 0.67065722 0
0.45994887 2.4420795 -0.049833231 0
0.49533603 2.4833937 0.41887948 0
0.4862909 2.4728336 0.53977221 0
0.4852272 2.4715917 0.66959935 0
0.45044753 2.4614239 -0.050141532 0
0.47006628 2.484921 0.41501385 0
0.46952233 2.4842694 0.5390749 0
0.46748373 2.481828 0.6680916 0
0.42660746 2.4634979 -0.049657293 0
0.46112248 2.5059106 0.41769469 0
0.45441374 2.4976668 0.53931701 0
0.45271191 2.4955757 0.66859359 0
0.41599455 2.4817059 -0.049926762 0
0.43781945 2.5092254 0.41463035 0
0.44532773 2.5186927 0.54287726 0
0.44174877 2.5141799 0.67175579 0
0.39695778 2.4893286 -0.049722094 0
0.42672595 2.5278506 0.41662735 0
0.43247911 2.5352955 0.54459155 0
0.42580256 2.5266557 0.67175317 0
0.3860018 2.5074503 -0.049999293 0
0.40976158 2.5390105 0.41626635 0
0.40643427 2.5345907 0.53915 0
0.40721211 2.535624 0.67003757 0
0.36815372 2.5165093 -0.049878854 0
0.39183524 2.5488038 0.41554415 0
0.39374772 2.5514119 0.54112476 0
0.39932612 2.5590191 0.67586541 0
0.35321477 2.5295012 -0.049941938 0
0.38180116 2.5695319 0.41832763 0
0.37954769 2.5663762 0.54238838 0
0.38040981 2.5675836 0.67414647 0
0.33204713 2.5336177 -0.049626775 0
0.35778084 2.5706303 0.41502669 0
0.36298314 2.5781128 0.54240596 0
0.35646376 2.5687361 0.66882557 0
0.3214654 2.5529857 -0.049983278 0
0.34659091 2.5901122 0.41751057 0
0.34077188 2.5815136 0.53915882 0
0.3407189 2.5814354 0.66947389 0
0.29998454 2.5562661 -0.049654864 0
0.32521257 2.5945747 0.41542894 0
0.32191852 2.5895727 0.53790599 0
0.32262895 2.5906513 0.66848868 0
0.28529301 2.5697205 -0.049771972 0
0.31038609 2.6088891 0.4164311 0
0.30385372 2.5986924 0.53717655 0
0.30757657 2.6045036 0.66990352 0
0.26550022 2.5751491 -0.049558386 0
0.28928921 2.6133323 0.41451445 0
0.28890398 2.6127138 0.53846365 0
0.29168299 2.6171744 0.67082381 0
0.25636229 2.5978844 -0.050079238 0
0.27081695 2.6217496 0.4138774 0
0.26727781 2.6159065 0.53560257 0
0.2705169 2.6212542 0.66767597 0
0.23816456 2.6059582 -0.049993642 0
0.25233576 2.6300344 0.41327488 0
0.25572273 2.6357887 0.53931111 0
0.25329527 2.6316645 0.66772115 0
0.22029276 2.6144867 -0.049936827 0
0.23528852 2.6407135 0.41344905 0
0.2356046 2.6412663 0.53752863 0
0.24225862 2.652904 0.67303467 0
0.20639683 2.6301003 -0.050178941 0
0.21835847 2.6516459 0.41375872 0
0.21805795 2.6511045 0.53751457 0
0.21910985 2.6529992 0.66836405 0
0.1800722 2.6230142 -0.049505979 0
0.19426246 2.6493499 0.41029462 0
0.20546712 2.6701448 0.54106206 0
0.20428057 2.6679425 0.67084587 0
0.17183037 2.6495063 -0.050203487 0
0.18164922 2.6682918 0.41305482 0
0.17700787 2.6594119 0.53346914 0
0.18295397 2.670788 0.66774702 0
0.15081002 2.6518772 -0.049935311 0
0.16193773 2.6738358 0.412011 0
0.16163428 2.6732371 0.53521818 0
0.16034974 2.6707022 0.66343242 0
0.13127936 2.6568599 -0.049783226 0
0.14210398 2.6789045 0.4109093 0
0.14235677 2.6794195 0.53419572 0
0.14378358 2.6823251 0.66467679 0
0.11575385 2.670023 -0.049965188 0
0.11919679 2.6772637 0.40798944 0
0.12143668 2.6819744 0.53193277 0
0.12478592 2.689018 0.6637494 0
0.097697996 2.6780019 -0.049950067 0
0.1045027 2.69279 0.40998897 0
0.10192414 2.6871862 0.53075254 0
0.10313454 2.6898167 0.66025037 0
0.080885731 2.6887569 -0.050052419 0
0.084754251 2.6974506 0.40899497 0
0.081539534 2.6902261 0.52887785 0
0.08455386 2.6970003 0.65978831 0
0.060993634 2.6925399 -0.049891524 0
0.066875778 2.7062199 0.40921661 0
0.067018412 2.7065518 0.53191781 0
0.06349989 2.6983685 0.65681356 0
0.043355249 2.7014637 -0.049939901 0
0.044314049 2.7037733 0.40640116 0
0.045284711 2.7061114 0.52896851 0
0.045775793 2.7072945 0.65736151 0
0.024420103 2.7072496 -0.049875911 0
0.02706035 2.7138426 0.40711787 0
0.026607236 2.7127113 0.52865535 0
0.026310286 2.7119696 0.65611082 0
0.0077529163 2.7187958 -0.050041821 0
0.0071866722 2.7173283 0.4060902 0
0.0063815922 2.7152421 0.52697682 0
0.0029345963 2.70631 0.6503886 0
-0.012152829 2.7219696 -0.049896099 0
-0.0098165059 2.7282581 0.40716171 0
-0.012536445 2.720937 0.52651966 0
-0.013116696 2.7193751 0.65309381 0
-0.031236688 2.7271478 -0.049836546 0
-0.035188831 2.7160852 0.40202743 0
-0.030213693 2.7300112 0.5273428 0
-0.031971134 2.7250919 0.65264517 0
-0.046979286 2.7419443 -0.050149381 0
-0.056061544 2.7154744 0.40012038 0
-0.053790845 2.7220922 0.52226371 0
-0.053880133 2.721832 0.64837331 0
-0.066060074 2.7473133 -0.050114047 0
-0.072355874 2.728183 0.40186942 0
-0.07069204 2.7332387 0.52398753 0
-0.074044354 2.7230525 0.64619249 0
-0.084983446 2.7531092 -0.050103851 0
-0.093751021 2.7252936 0.39949396 0
-0.090904184 2.7343254 0.52226973 0
-0.08844436 2.7421293 0.65188253 0
-0.10615522 2.7514315 -0.049823925 0
-0.11005298 2.7385001 0.40148851 0
-0.11187426 2.7324576 0.51962054 0
-0.1115093 2.7336683 0.64572132 0
-0.12443293 2.7591095 -0.049902491 0
-0.10645495 2.8215914 0.064223677 0
-0.10558221 2.8246245 0.1816062 0
-0.10795272 2.816386 0.29914597 0
-0.1299044 2.7400937 0.40044743 0
-0.13231231 2.731725 0.51746535 0
-0.13443588 2.7243445 0.63933593 0
-0.14143248 2.7716713 -0.050170109 0
-0.13405181 2.7985935 0.063166738 0
-0.13100912 2.8096924 0.17932215 0
-0.13383146 2.7993975 0.29493392 0
-0.14915968 2.7434847 0.39995167 0
-0.15269516 2.7305882 0.51526719 0
-0.15142469 2.7352226 0.64176965 0
-0.15973203 2.7800062 -0.050288819 0
-0.15560849 2.7958262 0.062872484 0
-0.15779383 2.7874422 0.17626846 0
-0.15733583 2.7891994 0.29206207 0
-0.16738243 2.7506554 0.40051812 0
-0.17138343 2.7353055 0.51517725 0
-0.17250235 2.7310126 0.63783139 0
-0.18323781 2.7676466 -0.049654581 0
-0.18140797 2.7750473 0.061926756 0
-0.17880179 2.785588 0.17551963 0
-0.18080939 2.7774682 0.28896946 0
-0.18810548 2.7479594 0.39855006 0
-0.1903954 2.7386978 0.51471436 0
-0.19132139 2.7349527 0.63749468 0
-0.20266016 2.7707925 -0.049601588 0
-0.19945125 2.7845099 0.062104542 0
-0.19748683 2.7929075 0.17581473 0
-0.19722326 2.7940342 0.29118186 0
-0.20959516 2.7411468 0.39557773 0
-0.20770453 2.749229 0.51677382 0
-0.20825885 2.7468593 0.64064747 0
-0.22081743 2.7795119 -0.049761467 0
-0.21613486 2.8007302 0.062537208 0
-0.21718954 2.7959511 0.17566437 0
-0.21761106 2.7940412 0.29036808 0
-0.22905634 2.7421789 0.39473397 0
-0.23021112 2.7369463 0.51112938 0
-0.23098497 2.7334399 0.63314384 0
-0.23907782 2.7883048 -0.049931951 0
-0.23442172 2.8107419 0.062750049 0
-0.23524873 2.8067567 0.17639361 0
-0.23616873 2.8023233 0.29112804 0
-0.24852459 2.7427821 0.3938446 0
-0.25088745 2.7313957 0.50788355 0
-0.25099123 2.7308958 0.63037968 0
-0.25655338 2.8017809 -0.05028072 0
-0.2510983 2.8298395 0.063301206 0
-0.25269243 2.82164 0.17759244 0
