# .PCD v0.7 - Point Cloud Data file format
VERSION 0.7
FIELDS x y z intensity
SIZE 4 4 4 4
TYPE F F F F
COUNT 1 1 1 1
WIDTH 1346
HEIGHT 1
VIEWPOINT 0 0 0 1 0 0 0
POINTS 1346
DATA ascii
0.63738567 1.3826885 0.048901122 0
0.63355964 1.3822775 0.13472895 0
0.64598542 1.3836125 0.22427927 0
0.6462608 1.3836421 0.31486154 0
0.85210842 1.405758 0.47763631 0
0.83821458 1.4042653 0.58716291 0
0.99500543 1.4409114 -0.049822025 0
0.54427594 1.3867366 0.045614585 0
0.54584926 1.3869258 0.12541954 0
0.54354542 1.3866489 0.20598441 0
0.56335002 1.3890293 0.29399905 0
0.84568673 1.4229643 0.47616085 0
0.84413022 1.4227772 0.59046328 0
0.99760121 1.4611174 -0.050004564 0
0.5615136 1.4031235 0.046298604 0
0.5610128 1.4030569 0.12725401 0
0.54815525 1.4013469 0.20714211 0
0.55835491 1.4027034 0.29317281 0
0.84212786 1.4404415 0.47571644 0
0.83201689 1.4390968 0.58633614 0
0.98658282 1.4794713 -0.04970542 0
0.56028599 1.4173074 0.046325114 0
0.53949791 1.414276 0.12513039 0
0.54583901 1.4152006 0.20707335 0
0.55957228 1.4172033 0.29399121 0
0.83673042 1.4576194 0.47472695 0
0.83837038 1.4578586 0.5900141 0
0.99852973 1.5012597 -0.050244179 0
0.55451936 1.4307921 0.046194047 0
0.54672378 1.4295548 0.12614529 0
0.54325479 1.4290043 0.20698732 0
0.55770451 1.4312975 0.29406139 0
0.84174401 1.4763767 0.47731534 0
0.83845407 1.4758545 0.59116989 0
0.99705392 1.5211327 -0.050307814 0
0.53938764 1.4425778 0.045729604 0
0.54709691 1.4439011 0.1264361 0
0.55260569 1.4448466 0.20911685 0
0.55341202 1.444985 0.29354995 0
0.84707612 1.4953902 0.48009643 0
0.83924752 1.4940464 0.59272152 0
0.98622662 1.5393281 -0.050041173 0
0.5513404 1.4590335 0.046252757 0
0.54951233 1.458696 0.1269705 0
0.55221039 1.4591942 0.20950045 0
0.55850095 1.4603555 0.29551592 0
0.83735019 1.5118405 0.47787058 0
0.83808964 1.5119771 0.59355152 0
0.98554057 1.5593396 -0.050151255 0
0.56263024 1.4757365 0.046760619 0
0.54881614 1.4730057 0.12718576 0
0.55349392 1.4739304 0.2102268 0
0.55651456 1.4745275 0.295697 0
0.83810133 1.5301931 0.47926244 0
0.84453446 1.5314648 0.59768742 0
0.98059994 1.578537 -0.050115582 0
0.55481499 1.4887805 0.046580434 0
0.55671185 1.4891803 0.12836501 0
0.54987484 1.4877391 0.21008565 0
0.55391508 1.4885908 0.29576519 0
0.83671504 1.5482057 0.48000976 0
0.83892995 1.5486726 0.59683949 0
0.98313934 1.599387 -0.0503623 0
0.55865449 1.5043072 0.046832137 0
0.54062206 1.5002681 0.1269284 0
0.55197102 1.5028101 0.21103245 0
0.54879695 1.5020992 0.29522127 0
0.82690936 1.5643933 0.47796589 0
0.83405727 1.5659944 0.59639156 0
0.95941657 1.6141887 -0.049655758 0
0.55914909 1.519225 0.046969023 0
0.54397017 1.5156238 0.12764986 0
0.55989105 1.5194011 0.21309669 0
0.55407411 1.518021 0.2974461 0
0.84491938 1.5870241 0.48549652 0
0.83928376 1.585687 0.60033244 0
0.9700827 1.6370972 -0.050219525 0
0.54929072 1.5316504 0.046732206 0
0.53610653 1.5283465 0.12715283 0
0.55530804 1.5331583 0.21288164 0
0.53564948 1.528232 0.29349652 0
0.84421712 1.6055564 0.48673058 0
0.838489 1.604121 0.60182136 0
0.95309335 1.6531187 -0.049774632 0
0.54471105 1.5452991 0.046695281 0
0.54907757 1.5464519 0.12898771 0
0.55263525 1.5473912 0.21305442 0
0.55443758 1.5478669 0.29938713 0
0.83215362 1.6211886 0.48413959 0
0.84910172 1.6256632 0.60829943 0
0.95508879 1.6740868 -0.050039046 0
0.55892164 1.5641379 0.04736077 0
0.54397863 1.5599908 0.12883906 0
0.55353123 1.5626419 0.21392924 0
0.54755908 1.5609845 0.29856783 0
0.84629005 1.6438917 0.4906534 0
0.84009522 1.6421725 0.60648644 0
0.94881779 1.6928456 -0.050006855 0
0.5454405 1.5754058 0.047007836 0
0.55340928 1.5777259 0.13033521 0
0.5669778 1.5816762 0.21720074 0
0.55282515 1.5775559 0.30101648 0
0.8313399 1.6586429 0.48721126 0
0.83671933 1.6602091 0.60718435 0
0.94338161 1.7118385 -0.0500145 0
0.84419435 1.6816012 0.37984061 0
0.84879714 1.6830043 0.49509203 0
0.83354086 1.6783534 0.60806853 0
0.94061655 1.7316915 -0.050131198 0
0.84887189 1.7024555 0.38256353 0
0.84692425 1.7018349 0.49636173 0
0.83966833 1.6995226 0.61309922 0
0.9316445 1.7495701 -0.050024249 0
0.86053735 1.7259203 0.38724715 0
0.84046441 1.7192442 0.49611145 0
0.8430261 1.7200962 0.61705858 0
0.92875987 1.7694824 -0.050155334 0
0.84387583 1.7400583 0.38438186 0
0.8365007 1.7375019 0.49681607 0
0.82625598 1.7339506 0.61232835 0
0.91433424 1.7853322 -0.049858484 0
0.84695905 1.7610229 0.38690713 0
0.83469719 1.7565988 0.49836904 0
0.83602959 1.7570795 0.61933684 0
0.91579884 1.8069222 -0.050173718 0
0.84252232 1.7794361 0.38746697 0
0.83326262 1.7759627 0.50014567 0
0.84127742 1.7789692 0.62450558 0
0.90827674 1.8252535 -0.050156575 0
0.83821434 1.797962 0.38812816 0
0.83836454 1.7980204 0.50435174 0
0.82800609 1.7939855 0.62159312 0
0.89762658 1.8423111 -0.050027765 0
0.84138602 1.8195839 0.39091498 0
0.83395797 1.8165822 0.50526673 0
0.82580405 1.8132871 0.62369323 0
0.88515371 1.8585103 -0.04983601 0
0.83771938 1.8386433 0.39190012 0
0.83105057 1.8358502 0.50681138 0
0.83362907 1.8369302 0.63041425 0
0.87444121 1.8753289 -0.049719635 0
0.83450288 1.8580072 0.39308244 0
0.83421737 1.8578835 0.51065499 0
0.81773108 1.8507332 0.62659991 0
0.88552994 1.9018444 -0.050463971 0
0.82533437 1.8748313 0.39267498 0
0.823955 1.8742124 0.5097242 0
0.82283491 1.8737097 0.63237351 0
0.86694163 1.9151728 -0.050057776 0
0.82749313 1.8968699 0.39551041 0
0.80954927 1.8885447 0.50734359 0
0.82019955 1.893486 0.63478023 0
0.85696596 1.9323156 -0.04999673 0
0.82492584 1.9169568 0.39710414 0
0.81267887 1.9110861 0.51148444 0
0.81808072 1.9136755 0.63755268 0
0.84478229 1.948321 -0.049855921 0
0.82165557 1.9368746 0.39857951 0
0.8031823 1.9277315 0.51106924 0
0.80828029 1.9302547 0.63691086 0
0.83828002 1.9671199 -0.049950015 0
0.81296319 1.9541903 0.3985827 0
0.80444103 1.9498379 0.51474726 0
0.81217903 1.9537898 0.64273047 0
0.83490425 1.9876442 -0.050180413 0
0.80975658 1.9743991 0.40023041 0
0.80179614 1.9702064 0.51708627 0
0.79413277 1.9661701 0.63845778 0
0.81580919 1.9998231 -0.049784288 0
0.78617138 1.9837332 0.39604709 0
0.79029697 1.9859729 0.51618624 0
0.79201144 1.9869035 0.6417315 0
0.81174225 2.0200908 -0.050006349 0
0.79252106 2.0093403 0.40061918 0
0.78456181 2.0048885 0.51755244 0
0.79186815 2.008975 0.64609015 0
0.80169719 2.0370996 -0.049994212 0
0.7861101 2.0281222 0.40156212 0
0.78071684 2.0250161 0.51974547 0
0.77018887 2.0189524 0.64032292 0
0.7883628 2.0521522 -0.049854323 0
0.78216749 2.0484793 0.40331408 0
0.77994841 2.0471637 0.52324247 0
0.78184909 2.0482905 0.65061998 0
0.77391201 2.0664117 -0.049674571 0
0.77580625 2.0675673 0.4044331 0
0.76287895 2.0596817 0.52052206 0
0.77747983 2.068588 0.6534009 0
0.76652521 2.0849574 -0.049798645 0
0.76011389 2.0809348 0.40282264 0
0.76528198 2.0841773 0.52548969 0
0.7647683 2.0838552 0.65225077 0
0.77178854 2.1117713 -0.050471056 0
0.76465446 2.1071692 0.40739295 0
0.75333339 2.0998662 0.52493745 0
0.76230699 2.1056547 0.65623593 0
0.75331789 2.1234207 -0.050146826 0
0.74481088 2.11778 0.40463772 0
0.74905211 2.1205921 0.52751976 0
0.75528675 2.1247263 0.65812558 0
0.74488443 2.1416361 -0.050259732 0
0.7256127 2.1285052 0.4020991 0
0.73579711 2.1354444 0.52661639 0
0.74429077 2.1412315 0.65815943 0
0.72900349 2.1547396 -0.050059039 0
0.73180014 2.1566973 0.40748551 0
0.73151749 2.1564994 0.52942544 0
0.72820479 2.1541808 0.65572572 0
0.71272928 2.1673901 -0.049846455 0
0.71992642 2.172564 0.40735683 0
0.71962756 2.1723492 0.52925003 0
0.71698803 2.1704516 0.65583557 0
0.69735473 2.1805222 -0.049678847 0
0.71195334 2.191298 0.40852693 0
0.70928067 2.1893253 0.52979308 0
0.70639771 2.1871972 0.65637386 0
0.69541723 2.2036922 -0.050118901 0
0.69227666 2.2013123 0.40603697 0
0.69896632 2.2063816 0.53044385 0
0.69924158 2.2065902 0.65881026 0
0.68126231 2.2177565 -0.050023831 0
0.69901973 2.2315683 0.41210249 0
0.69482321 2.2283044 0.53379214 0
0.690898 2.2252512 0.6607753 0
0.66427332 2.2294772 -0.049806397 0
0.67826658 2.2406466 0.4093771 0
0.68479103 2.2458546 0.53478426 0
0.68574423 2.2466154 0.66457385 0
0.65964526 2.2511275 -0.05016391 0
0.6768381 2.265209 0.4130339 0
0.66731459 2.2574089 0.53267992 0
0.669496 2.2591956 0.6626175 0
0.64042073 2.2608459 -0.049857207 0
0.66421205 2.2808375 0.4131006 0
0.65741068 2.2751224 0.53390676 0
0.66295999 2.2797854 0.66597795 0
0.62744957 2.2756734 -0.049847648 0
0.72193855 2.3571234 0.066301338 0
0.71922225 2.3547819 0.18713585 0
0.71301073 2.3494275 0.30849257 0
0.65596741 2.3002558 0.41470975 0
0.65089899 2.295887 0.53673446 0
0.65204281 2.2968729 0.66712123 0
0.61221558 2.2884953 -0.049738988 0
0.68051225 2.3488827 0.064993702 0
0.67892748 2.3474815 0.18335763 0
0.68340605 2.3514414 0.30470935 0
0.64267534 2.3154275 0.41470081 0
0.63239235 2.3063354 0.53438246 0
0.63150793 2.3055534 0.66308004 0
0.59765893 2.301832 -0.049669471 0
0.65422517 2.3531311 0.064395733 0
0.65891427 2.3573835 0.18246523 0
0.6624729 2.3606107 0.30300003 0
0.62394851 2.3256736 0.41288531 0
0.6245392 2.3262093 0.53684694 0
0.62020785 2.3222814 0.66421491 0
0.58675331 2.3185019 -0.049785286 0
0.64123958 2.3691795 0.064441845 0
0.64131838 2.3692529 0.18193531 0
0.64418286 2.371917 0.30194986 0
0.61017197 2.3402836 0.41281798 0
0.61237079 2.3423288 0.53749281 0
0.61410934 2.3439457 0.66842282 0
0.57398421 2.3335116 -0.049820852 0
0.62503964 2.3822114 0.064339839 0
0.62694246 2.3840265 0.18189928 0
0.62188333 2.3792007 0.29992297 0
0.60375756 2.3619113 0.41541007 0
0.59724456 2.3556988 0.53687948 0
0.59501117 2.3535686 0.66539848 0
0.56777591 2.3549786 -0.050193902 0
0.61293012 2.3991487 0.064449005 0
0.60780627 2.3941364 0.18117496 0
0.61256641 2.398793 0.30116934 0
0.5819599 2.3688536 0.41264063 0
0.59287304 2.3795288 0.54134154 0
0.59362942 2.3802686 0.6726675 0
0.54850656 2.3637204 -0.049924802 0
0.61025172 2.4256604 0.06504719 0
0.60975939 2.4251664 0.18367101 0
0.60102612 2.4164057 0.30192617 0
0.57131296 2.3865988 0.41389704 0
0.57021171 2.385494 0.53738201 0
0.5750367 2.3903341 0.67013139 0
0.54397541 2.3873563 -0.050412681 0
0.59977502 2.4447596 0.065270737 0
0.59409994 2.4389215 0.18354388 0
0.59838372 2.4433281 0.30505213 0
0.55871254 2.4025168 0.41453606 0
0.55937511 2.4031985 0.53905046 0
0.56853539 2.412622 0.67481947 0
0.52199763 2.3930907 -0.050017014 0
0.60782546 2.4836388 0.066471152 0
0.61379534 2.4899371 0.18896504 0
0.614232 2.4903977 0.31315574 0
0.54278404 2.4150202 0.41402319 0
0.54701835 2.4194875 0.54011321 0
0.54443485 2.4167619 0.66914588 0
0.50675815 2.4057093 -0.049974125 0
0.53264302 2.4337156 0.41573757 0
0.53621322 2.4375784 0.54205096 0
0.54505903 2.4471493 0.67850822 0
0.49382707 2.4208486 -0.050062153 0
0.52319449 2.4534371 0.41782907 0
0.5191825 2.4489849 0.54103446 0
0.51672345 2.4462562 0.67032641 0
0.47726688 2.4319565 -0.049965389 0
0.50211889 2.4602423 0.41555169 0
0.50417954 2.4625876 0.54109728 0
0.50636107 2.4650705 0.67329389 0
0.46993145 2.4537339 -0.050381079 0
0.49268565 2.4802995 0.41784003 0
0.48508748 2.4714286 0.53915673 0
0.49295041 2.4806085 0.67451495 0
0.45133862 2.462491 -0.050191164 0
0.47536334 2.4912653 0.41712248 0
0.47156236 2.4867129 0.54013389 0
0.47002837 2.4848757 0.66973555 0
0.42758086 2.464694 -0.049712349 0
0.45545301 2.4989438 0.41540304 0
0.4564527 2.5001721 0.54039168 0
0.46005842 2.5046031 0.67341256 0
0.41797671 2.484205 -0.050040644 0
0.4427987 2.5155039 0.41667479 0
0.44436297 2.5174763 0.54236072 0
0.44692656 2.5207086 0.67520589 0
0.39670381 2.4890001 -0.049707267 0
0.43260369 2.5354567 0.41907984 0
0.41915467 2.5180528 0.53734177 0
0.41845682 2.5171497 0.66677922 0
0.38042304 2.5000401 -0.049668144 0
0.40967438 2.5388947 0.41622934 0
0.40877107 2.5376949 0.54044265 0
0.41060486 2.5401306 0.67237312 0
0.36549285 2.5128806 -0.049718212 0
0.39507416 2.5532207 0.41694155 0
0.39573768 2.5541255 0.54224432 0
0.39087048 2.5474882 0.66994506 0
0.35544297 2.5326214 -0.050078824 0
0.37722591 2.5631249 0.41631901 0
0.37790486 2.5640757 0.54144788 0
0.37678793 2.5625117 0.67156601 0
0.3328357 2.5347519 -0.049676094 0
0.35657886 2.5689015 0.41448948 0
0.35842529 2.5715573 0.53974962 0
0.36174622 2.5763338 0.67265689 0
0.32045618 2.5514944 -0.049918991 0
0.3412939 2.5822852 0.41509932 0
0.34000924 2.5803869 0.53870612 0
0.34022227 2.5807016 0.66910702 0
0.30379346 2.5620499 -0.049902104 0
0.32380858 2.5924428 0.41477764 0
0.3271589 2.5975301 0.54107589 0
0.32525578 2.5946403 0.67046613 0
0.28636107 2.5713875 -0.049842656 0
0.30240414 2.5964298 0.41265595 0
0.3023096 2.5962822 0.53622425 0
0.30561301 2.6014385 0.66839641 0
0.27129444 2.5844493 -0.049949579 0
0.2882354 2.6116407 0.41400599 0
0.28855005 2.6121459 0.53824103 0
0.28763929 2.6106839 0.66765767 0
0.25865594 2.6016715 -0.050237298 0
0.27159795 2.6230392 0.41426203 0
0.27385214 2.626761 0.53982455 0
0.26931718 2.6192734 0.66671711 0
0.23915346 2.6076384 -0.050063245 0
0.25983801 2.6427803 0.41704828 0
0.25708029 2.6380951 0.54020149 0
0.25328198 2.6316419 0.6677103 0
0.22259374 2.618511 -0.050102323 0
0.23913683 2.647444 0.41542709 0
0.23211826 2.635169 0.53519183 0
0.23761173 2.6447768 0.66915846 0
0.20146473 2.6212165 -0.04981618 0
0.21585859 2.6471431 0.41244474 0
0.21387108 2.643563 0.53464484 0
0.21434243 2.644412 0.66429752 0
0.18453248 2.6312921 -0.04984168 0
0.20040615 2.6607521 0.41359907 0
0.20078941 2.6614633 0.53778118 0
0.20182694 2.663389 0.66870421 0
0.16671617 2.6397216 -0.049809325 0
0.17534007 2.6562209 0.40957987 0
0.18231328 2.6695621 0.53727961 0
0.17632551 2.6581063 0.66182238 0
0.15086581 2.6519873 -0.049939714 0
0.1635579 2.6770329 0.41292548 0
0.1662543 2.682354 0.53861856 0
0.16090067 2.6717894 0.66393697 0
0.13676353 2.6680286 -0.050227437 0
0.14244397 2.6795969 0.41110608 0
0.14066674 2.6759775 0.53292 0
0.13802017 2.6705878 0.65926278 0
0.11563756 2.6697786 -0.049955525 0
0.12029078 2.6795645 0.4086394 0
0.12284955 2.6849458 0.53302735 0
0.12142786 2.6819558 0.66051167 0
0.097593807 2.6777754 -0.049941167 0
0.10163482 2.6865575 0.40823862 0
0.10516467 2.6942286 0.53333163 0
0.098327003 2.679369 0.65548861 0
0.079058014 2.6846495 -0.049891911 0
0.08454641 2.6969836 0.40886453 0
0.083698653 2.6950784 0.53064477 0
0.083180092 2.693913 0.65838921 0
0.062021278 2.6949298 -0.049984399 0
0.061458789 2.6936216 0.40571785 0
0.066428743 2.7051804 0.53142112 0
0.0657809 2.7036736 0.65920448 0
0.04343202 2.7016487 -0.049947049 0
0.046807788 2.7097802 0.40806052 0
0.046109043 2.7080972 0.52968377 0
0.043909393 2.7027986 0.65534604 0
0.027935347 2.7160277 -0.050213505 0
0.027461907 2.7148454 0.40739346 0
0.027286312 2.714407 0.52926308 0
0.025830409 2.7107713 0.65557635 0
0.009053967 2.722167 -0.050170831 0
0.0059318752 2.714077 0.40520105 0
0.0089313602 2.7218494 0.529333 0
0.0060081691 2.7142746 0.65392315 0
-0.011285403 2.7243044 -0.049985021 0
-0.012044706 2.7222605 0.40552932 0
-0.012709656 2.7204707 0.52635413 0
-0.011399367 2.7239976 0.65513545 0
-0.029598812 2.7317326 -0.050010361 0
-0.034392871 2.7183132 0.40263107 0
-0.032645024 2.7232056 0.52493846 0
-0.031846978 2.7254395 0.652798 0
-0.048735417 2.7368262 -0.049956195 0
-0.055235542 2.7178817 0.40076968 0
-0.052149929 2.7268746 0.52394587 0
-0.05439464 2.7203324 0.64771694 0
-0.066967256 2.7445567 -0.050010443 0
-0.072934695 2.7264242 0.40139702 0
-0.073549129 2.7245572 0.52094686 0
-0.075267591 2.7193356 0.64457232 0
-0.084754355 2.7538359 -0.050131056 0
-0.09012074 2.7368109 0.4025749 0
-0.091518022 2.732378 0.52159041 0
-0.091979839 2.7309127 0.64701325 0
-0.10542531 2.7538531 -0.049914222 0
-0.11354185 2.7269251 0.39840415 0
-0.11113802 2.7349002 0.52046925 0
-0.11117382 2.7347815 0.64620262 0
-0.1229238 2.7643545 -0.050097339 0
-0.10715831 2.8191469 0.064132869 0
-0.10540692 2.8252337 0.18167432 0
-0.10584749 2.8237026 0.30051905 0
-0.13089509 2.7366505 0.3995333 0
-0.13313209 2.7288759 0.51647902 0
-0.13310133 2.7289827 0.64133418 0
-0.14254446 2.7676151 -0.050019957 0
-0.13377489 2.7996037 0.063204132 0
-0.13377447 2.7996051 0.17819808 0
-0.13272141 2.8034465 0.29569113 0
-0.14837824 2.746335 0.40070575 0
-0.15022804 2.7395875 0.5183717 0
-0.15040635 2.7389371 0.64336437 0
-0.16458534 2.7613864 -0.04960186 0
-0.1565318 2.792284 0.062741801 0
-0.15860705 2.784322 0.17592196 0
-0.15797575 2.7867441 0.29160449 0
-0.17061459 2.7382553 0.39724872 0
-0.16994707 2.7408161 0.51707184 0
-0.17292775 2.7293806 0.63713306 0
-0.18347169 2.7667007 -0.049619794 0
-0.17576401 2.7978742 0.062766246 0
-0.17713164 2.7923429 0.17626743 0
-0.17639332 2.7953291 0.29228762 0
-0.18990166 2.7406945 0.39664081 0
-0.19278614 2.7290285 0.51140052 0
-0.18979053 2.7411442 0.64013541 0
-0.20200141 2.7736084 -0.049704839 0
-0.199111 2.7859645 0.062157869 0
-0.19830902 2.7893927 0.17542681 0
-0.19940276 2.7847173 0.28945619 0
-0.20921277 2.7427816 0.39600605 0
-0.2103966 2.7377207 0.51284182 0
-0.20957436 2.7412357 0.63825625 0
-0.2194946 2.7855062 -0.049980618 0
-0.21817045 2.7915063 0.062199984 0
-0.21780829 2.7931473 0.17535581 0
-0.21810924 2.7917838 0.28995118 0
-0.22894923 2.7426643 0.39486077 0
-0.23217909 2.7280288 0.50809121 0
-0.23159973 2.7306542 0.63196272 0
-0.23826711 2.7922115 -0.050074399 0
-0.23619537 2.8021948 0.062438414 0
-0.23375107 2.8139737 0.17718574 0
-0.23583303 2.803941 0.29142597 0
-0.24903001 2.7403467 0.39320999 0
-0.24780421 2.7462537 0.51293194 0
-0.24938224 2.7386494 0.63365829 0
-0.25892043 2.7896059 -0.049837917 0
-0.25417519 2.8140132 0.062725604 0
-0.25248331 2.8227155 0.17771019 0
-0.25242054 2.8230383 0.29421332 0
-0.2687501 2.7390463 0.39189345 0
-0.26953006 2.7350345 0.50784838 0
-0.26916736 2.7369001 0.63133425 0
-0.27771518 2.7963297 -0.049949937 0
-0.26812127 2.8492234 0.063869119 0
-0.26670998 2.8570042 0.18104953 0
-0.26723084 2.8541324 0.29923153 0
-0.28758121 2.741936 0.39173084 0
-0.29092112 2.7235222 0.50276995 0
-0.2908228 2.7240644 0.62445533 0
-0.29627457 2.8049462 -0.050138809 0
-0.30533201 2.7511623 0.39326942 0
-0.31005147 2.7231379 0.50154752 0
-0.30995929 2.7236853 0.62293577 0
-0.31815869 2.7930665 -0.049595241 0
-0.32838377 2.727303 0.38632014 0
-0.32783121 2.7308569 0.50313705 0
-0.32765657 2.7319803 0.62515479 0
-0.3345595 2.8169427 -0.050352041 0
-0.34588841 2.7375038 0.38823593 0
-0.34846631 2.7194273 0.49836391 0
-0.3470698 2.7292197 0.62283945 0
-0.35659191 2.8015995 -0.049703114 0
-0.36585209 2.7302499 0.38571477 0
-0.36656108 2.724787 0.49931842 0
-0.36731398 2.718986 0.61750984 0
-0.37478501 2.8151581 -0.050104003 0
-0.38502935 2.7276018 0.38444507 0
-0.38515213 2.7265525 0.49914387 0
-0.38539034 2.7245164 0.61886591 0
-0.39483431 2.8136699 -0.049972486 0
-0.40450618 2.7209003 0.38219923 0
-0.40479431 2.7181365 0.49564236 0
-0.40378743 2.7277942 0.61937726 0
-0.41460985 2.8141887 -0.049922131 0
-0.42273864 2.7253926 0.38288671 0
-0.42369431 2.7149534 0.49397564 0
-0.42349333 2.7171488 0.61419564 0
-0.43363956 2.8237534 -0.050204698 0
-0.44301409 2.7048798 0.37723285 0
-0.44263121 2.7097349 0.4917109 0
-0.44367975 2.6964388 0.60494214 0
-0.45387706 2.8181388 -0.049952511 0
-0.4610104 2.7103899 0.37830287 0
-0.46194768 2.6962323 0.48676544 0
-0.46114716 2.7083237 0.60932702 0
-0.47333667 2.8237791 -0.05011199 0
-0.47908312 2.716502 0.3795839 0
-0.48050272 2.6900008 0.48432687 0
-0.48005322 2.6983919 0.60475427 0
-0.49337772 2.8180456 -0.049873747 0
-0.49850088 2.6929276 0.37334204 0
-0.49862084 2.6899984 0.48404154 0
-0.49871951 2.6875882 0.59992123 0
-0.51326555 2.811897 -0.049629778 0
-0.51633739 2.7035046 0.37588146 0
-0.51663589 2.6929715 0.48482266 0
-0.51688278 2.6842597 0.59828347 0
-0.53283149 2.8154633 -0.049741682 0
-0.53471404 2.6958745 0.3738319 0
-0.53497314 2.6794159 0.48017934 0
-0.53498554 2.6786292 0.59578764 0
-0.55249333 2.8146141 -0.049704731 0
-0.55289322 2.6876304 0.37168482 0
-0.55293006 2.6759515 0.47897035 0
-0.55293393 2.6747131 0.59409612 0
-0.57226509 2.8278279 -0.050178714 0
-0.57077467 2.669991 0.36719877 0
-0.57071167 2.6633172 0.47478554 0
-0.57072806 2.6650567 0.59012115 0
-0.5917263 2.811636 -0.049611628 0
-0.58849585 2.6650465 0.36600849 0
-0.58849609 2.6650591 0.47545817 0
-0.58856791 2.6683173 0.59158719 0
-0.61159766 2.8187487 -0.049885567 0
-0.60615796 2.6617103 0.36528531 0
-0.60637379 2.6679409 0.47658497 0
-0.60592711 2.6550448 0.58629763 0
-0.63157922 2.8240337 -0.050103273 0
-0.62317079 2.6460848 0.36147958 0
-0.62358689 2.6548913 0.47248131 0
-0.62373585 2.6580441 0.58784002 0
-0.65048486 2.8087287 -0.049593739 0
-0.64032918 2.639128 0.35994136 0
-0.64074135 2.6460118 0.46983662 0
-0.64064556 2.6444118 0.58257824 0
-0.64011073 2.6354802 0.69828701 0
-0.67089546 2.8191004 -0.050011355 0
-0.65779346 2.6384492 0.36006287 0
-0.6564064 2.6193244 0.46132138 0
-0.65717852 2.6299706 0.57706422 0
-0.65778214 2.6382933 0.70027554 0
-0.69111794 2.8237567 -0.050233837 0
-0.67354792 2.6175277 0.46117374 0
-0.67322797 2.6137726 0.57090068 0
-0.67313695 2.6127038 0.68811548 0
-0.71029776 2.8161192 -0.050024729 0
-0.6904965 2.613847 0.46046829 0
-0.69073069 2.6162388 0.57257825 0
-0.69028175 2.6116531 0.68837386 0
-0.7292586 2.8078153 -0.04980005 0
-0.70678061 2.6046197 0.5684824 0
-0.70643622 2.6015067 0.68416268 0
-0.75012451 2.8162196 -0.050184634 0
-0.72242379 2.5917163 0.5639286 0
-0.72270173 2.5939684 0.68136221 0
-0.76825738 2.8025224 -0.04978301 0
-0.73884177 2.586534 0.67871273 0
-0.78868598 2.8061299 -0.050013486 0
-0.75550842 2.583519 0.67839658 0
-0.80761307 2.7994285 -0.049880881 0
-0.82669771 2.7941523 -0.049808282 0
-0.84683555 2.7947423 -0.04995732 0
-0.86477953 2.7838659 -0.049698401 0
-0.88465065 2.7828484 -0.049806979 0
-0.90273899 2.7736278 -0.049624685 0
-0.92446464 2.7800624 -0.050025061 0
-0.9452678 2.7817044 -0.050260231 0
-0.96147275 2.7654955 -0.049846172 0
-0.98048747 2.7603564 -0.049848713 0
-1.0008621 2.7598171 -0.050031345 0
-1.0165198 2.7435293 -0.049635898 0
-1.0399243 2.7521892 -0.05018197 0
-1.0549575 2.7347229 -0.049757421 0
-1.0768989 2.7378817 -0.050118323 0
-1.0966221 2.7341995 -0.050231423 0
-1.1156374 2.7284141 -0.050274223 0
-1.1326629 2.7174764 -0.050128754 0
-1.1528299 2.7145061 -0.050297972 0
-1.1671888 2.6974752 -0.049932953 0
-1.1869401 2.6934061 -0.050078034 0
-1.2006501 2.6757309 -0.049700495 0
-1.2216322 2.6742227 -0.049964711 0
-1.2378069 2.6623302 -0.049829245 0
-1.2554686 2.6536257 -0.049828209 0
-1.2754837 2.6494884 -0.050019462 0
-1.2912771 2.6371019 -0.049888734 0
-1.3112651 2.63257 -0.050084792 0
-1.3308296 2.6269984 -0.050249919 0
-1.3417443 2.6062787 -0.049801163 0
-1.3628093 2.6031699 -0.050086994 0
-1.3781322 2.5903225 -0.049978077 0
-1.3913124 2.5742214 -0.049739003 0
-1.4085289 2.5646384 -0.049782496 0
-1.4335008 2.5666111 -0.05033166 0
-1.4511554 2.5572267 -0.050407447 0
-1.4601151 2.5354042 -0.049950361 0
-1.4776324 2.5259519 -0.05003918 0
-1.4936637 2.5143893 -0.050044734 0
-1.5090164 2.5019255 -0.050018903 0
-1.5193105 2.4830244 -0.04970967 0
-1.5428263 2.4809244 -0.050172612 0
-1.5549462 2.4644811 -0.049990393 0
-1.5765998 2.4595056 -0.050349515 0
-1.5800318 2.4331341 -0.049714152 0
-1.5996959 2.4256742 -0.049977448 0
-1.6103925 2.408108 -0.049767215 0
-1.6247327 2.3946471 -0.049761787 0
-1.6464849 2.3889091 -0.050147351 0
-1.6594278 2.3738298 -0.050083403 0
-1.6729985 2.3594315 -0.050061401 0
-1.6857108 2.3442214 -0.050006106 0
-1.692467 2.3234501 -0.049668796 0
-1.7117794 2.3145299 -0.049956769 0
-1.7304589 2.3047657 -0.050216593 0
-1.7440211 2.2902868 -0.050236914 0
-1.7576513 2.2758427 -0.05026881 0
-1.7644348 2.2556851 -0.049991243 0
-1.781773 2.2443097 -0.050212793 0
-1.2262905 1.795162 0.5161292 0
-1.7930962 2.2279916 -0.050165296 0
-1.2333506 1.7869362 0.51635832 0
-1.7971599 2.2061384 -0.049800813 0
-1.2299531 1.7706668 0.50884402 0
-1.8089703 2.1903963 -0.049797431 0
-1.2315377 1.7585202 0.50524223 0
-1.820542 2.1744792 -0.049792331 0
-1.2309859 1.7450044 0.50021863 0
-1.8351574 2.160722 -0.049929321 0
-1.2352668 1.7351763 0.49887782 0
-1.8432096 2.1423109 -0.049787916 0
-1.243204 1.7279404 0.50027347 0
-1.8605496 2.1302593 -0.050057247 0
-1.2373991 1.711394 0.49190295 0
-1.8674933 2.111177 -0.049887367 0
-1.2335522 1.696551 0.48513696 0
-1.8812878 2.0965919 -0.050018948 0
-1.2344631 1.6850735 0.48190093 0
-1.8942797 2.0813973 -0.050123554 0
-1.242986 1.6784649 0.48409963 0
-1.9047947 2.0646236 -0.050132178 0
-1.2343792 1.6614441 0.47448531 0
-1.9064629 2.0426691 -0.049783692 0
-1.2337652 1.6495649 0.47057945 0
-1.9246351 2.0303614 -0.05012659 0
-1.239107 1.641255 0.47086498 0
-1.9323399 2.0120058 -0.050046772 0
-1.2423433 1.6317694 0.46979403 0
-1.9469595 1.9974083 -0.050256826 0
-1.9466301 1.9748865 -0.049871717 0
-1.9603407 1.9597248 -0.050061446 0
-1.9666046 1.940783 -0.049961895 0
-1.9706252 1.9208575 -0.04978383 0
-1.9959822 1.9108033 -0.050453965 0
-1.999198 1.89046 -0.050261352 0
-1.9866568 1.8635445 -0.049468219 0
-1.9908931 1.8441337 -0.049340002 0
-1.9904574 1.822963 -0.049042389 0
-1.99878 1.805362 -0.049091171 0
-2.0115764 1.7893672 -0.049318366 0
-2.0043745 1.7661254 -0.048794884 0
-2.0025043 1.7450812 -0.048485726 0
-1.9924114 1.7215855 -0.047879066 0
-1.991227 1.7013122 -0.047619015 0
-2.0043466 1.6854894 -0.047902323 0
-2.0004513 1.664618 -0.047560498 0
-2.0081949 1.6471447 -0.04766006 0
-1.9995224 1.6253719 -0.047162268 0
-2.0074213 1.6079994 -0.047285043 0
-1.9961175 1.5861068 -0.046711948 0
-2.0014594 1.5682433 -0.046758652 0
-2.0104063 1.5510794 -0.046944804 0
-2.0095458 1.5319041 -0.046781901 0
-2.0070055 1.5125433 -0.046567213 0
-1.9919733 1.4912697 -0.045909781 0
-2.0021448 1.4742999 -0.046173472 0
-1.9919634 1.454302 -0.045710754 0
-1.9864695 1.4352235 -0.045426529 0
-1.9974957 1.4182241 -0.045744944 0
-1.9999694 1.4001316 -0.04576375 0
-2.0063245 1.3823659 -0.045929823 0
-2.0050619 1.3639033 -0.045831002 0
-1.9997563 1.3452526 -0.045595963 0
-2.0008399 1.3270872 -0.045597848 0
-1.9929675 1.308579 -0.045287956 0
-2.0039809 1.2907623 -0.045660935 0
-2.0052257 1.2725567 -0.045693092 0
-1.9978166 1.2543254 -0.04542448 0
-1.1340817 0.26436791 -0.049930505 0
-0.38801122 0.2643699 0.416556 0
-0.38771909 0.2643699 0.49245444 0
-1.134127 0.24464008 -0.049936555 0
-0.39826214 0.25390819 0.42171791 0
-1.1309626 0.22498572 -0.049836852 0
-0.40740496 0.24321289 0.35387877 0
-0.41065836 0.24313094 0.42802113 0
-1.1333251 0.20518969 -0.049943406 0
-0.49585479 0.22928305 0.10584544 0
-0.50676674 0.22887063 0.17552413 0
-1.2392318 0.20118693 0.43282768 0
-1.2388084 0.20120293 0.5624457 0
-1.2429847 0.20104508 0.70022374 0
-1.1255074 0.18582849 -0.049695022 0
-0.50936472 0.21688914 0.10735465 0
-0.51353174 0.21667908 0.1768399 0
-1.2393333 0.18009037 0.43309069 0
-1.2411643 0.17999806 0.56353956 0
-1.2401257 0.18005042 0.69942415 0
-1.1310787 0.16579562 -0.049934115 0
-0.50657272 0.20516679 0.10712641 0
-0.51079333 0.2049007 0.17646712 0
-1.2432823 0.15872189 0.43440539 0
-1.2423909 0.15877809 0.56434685 0
-1.1357183 0.14566103 -0.050149105 0
-0.50488704 0.19341241 0.1070331 0
-0.50858933 0.19313216 0.17621745 0
-1.2393006 0.13782024 0.43376097 0
-1.2350979 0.13813837 0.56240141 0
-1.1443682 0.12501663 -0.050517146 0
-0.51577914 0.18056658 0.10831264 0
-0.51106691 0.18098301 0.17684194 0
-1.2455225 0.11607739 0.43579665 0
-1.2305806 0.11739784 0.56146771 0
-1.130909 0.1063429 -0.050101634 0
-0.5112974 0.16897145 0.10795065 0
-0.51364088 0.16873458 0.17751241 0
-1.2334616 0.09597718 0.43321675 0
-1.2422141 0.095092498 0.56602073 0
-1.11666 0.08805085 -0.049665596 0
-0.51008886 0.15708725 0.039870419 0
-0.51307976 0.15674683 0.10828145 0
-0.52328533 0.1555853 0.17949519 0
-1.2365966 0.074400358 0.43460011 0
-1.2319053 0.074934296 0.56332707 0
-1.1277287 0.066860743 -0.050148226 0
-0.50517529 0.14566842 0.039744899 0
-0.52005392 0.14378497 0.10919185 0
-0.50708854 0.14542623 0.17681359 0
-1.2356796 0.053195465 0.43501344 0
-1.2468506 0.051781345 0.56918311 0
-1.1237768 0.047417674 -0.05009988 0
-0.51278359 0.1325915 0.040075704 0
-0.51242262 0.13264182 0.10853674 0
-0.52030134 0.1315435 0.17950581 0
-1.2321233 0.032313947 0.43481636 0
-1.2385697 0.031415287 0.56734532 0
-1.1194307 0.028065968 -0.050046034 0
-0.51894879 0.11949637 0.040360976 0
-0.50616777 0.12144243 0.10804524 0
-0.51573646 0.1199855 0.17899194 0
-1.241907 0.0094175236 0.43812937 0
-1.2441581 0.0090747373 0.57025772 0
-1.1126844 0.0091459947 -0.049914032 0
-0.50374681 0.10972459 0.039879631 0
-0.51398551 0.10803346 0.10910093 0
-0.50629503 0.10930371 0.17761219 0
-1.2389324 -0.011706482 0.43822464 0
-1.2357831 -0.011186282 0.56856233 0
-1.1190034 -0.012009929 -0.050264161 0
-0.50532877 0.097305946 0.0400103 0
-0.51432222 0.095703922 0.10936075 0
-0.51111257 0.096275665 0.178866 0
-1.2407247 -0.03369255 0.43962428 0
-1.234744 -0.032627206 0.56942838 0
-1.1124991 -0.030969303 -0.050158709 0
-0.50751698 0.084675662 0.040169001 0
-0.50911194 0.084370784 0.10903126 0
-0.50787693 0.084606849 0.17867425 0
-1.2406341 -0.055462819 0.44061005 0
-1.2302336 -0.053474706 0.56921208 0
-1.1050957 -0.049672287 -0.050028909 0
-0.50931084 0.07200972 0.040319525 0
-0.50166923 0.073570438 0.10847165 0
-0.50196409 0.073510207 0.17801623 0
-1.2397 -0.077163585 0.44145 0
-1.2397566 -0.077175148 0.57384944 0
-1.1004519 -0.068884708 -0.050008167 0
-0.51856577 0.057611201 0.040748876 0
-0.51418698 0.058563102 0.11012071 0
-0.50550956 0.060449485 0.1791278 0
-1.2537222 -0.102204 0.44626847 0
-1.2406288 -0.099357672 0.5756557 0
-1.0897876 -0.0866969 -0.04977563 0
-0.51747656 0.045285422 0.040807113 0
-0.51140392 0.046685848 0.11010785 0
-0.51158851 0.046643276 0.18074188 0
-1.2341585 -0.11999068 0.44238964 0
-1.2406073 -0.12147785 0.57725734 0
-1.088953 -0.10674108 -0.049911834 0
-0.50597322 0.035455499 0.040488526 0
-0.51530451 0.033179466 0.11085083 0
-0.51356077 0.033604804 0.18163081 0
-1.2396411 -0.14349593 0.44513506 0
-1.2485863 -0.14567779 0.58169883 0
-1.0798603 -0.12476296 -0.049753346 0
-0.55242234 0.010944684 0.042309828 0
-0.55141872 0.011202921 0.11518977 0
-0.56336546 0.00812905 0.19146064 0
-1.2430234 -0.16674416 0.44741395 0
-1.2415013 -0.16635253 0.58108437 0
-1.0766618 -0.14426817 -0.049820703 0
-0.61977518 -0.020559113 0.044921912 0
-0.62247872 -0.021291118 0.12346513 0
-1.2506542 -0.19137929 0.32049319 0
-1.239872 -0.18845983 0.44805089 0
-1.2479506 -0.19064723 0.5852223 0
-1.073995 -0.16397719 -0.049917135 0
-0.68207872 -0.052544814 0.047370642 0
-0.69144166 -0.055206936 0.1315815 0
-1.2360269 -0.21004723 0.31885156 0
-1.2419403 -0.21172856 0.45014697 0
-1.2385038 -0.21075149 0.58398253 0
-1.0636746 -0.1814798 -0.049738042 0
-0.77781653 -0.096298046 0.051089071 0
-0.77688038 -0.096019126 0.14162377 0
-1.2455057 -0.23566292 0.32178438 0
-1.2443137 -0.23530774 0.45241007 0
-1.2368226 -0.23307548 0.5855217 0
-1.0508872 -0.19808425 -0.049474213 0
-0.87050509 -0.14185049 0.054728661 0
-0.87402344 -0.14294733 0.15308082 0
-1.2423 -0.2577568 0.3223933 0
-1.2388408 -0.25667843 0.45266438 0
-1.2434862 -0.25812659 0.59007269 0
-1.0727311 -0.2257729 -0.050517414 0
-0.99538147 -0.20058639 0.059613224 0
-0.99061596 -0.19903468 0.16684984 0
-1.2449592 -0.28185353 0.32416978 0
-1.2336433 -0.27816883 0.45306566 0
-1.2465168 -0.2823607 0.59348142 0
-1.0486017 -0.23862921 -0.049844831 0
-1.1135503 -0.26068595 0.064293645 0
-1.1204654 -0.26303431 0.18226245 0
-1.2322705 -0.30100372 0.32308829 0
-1.2356793 -0.30216137 0.45549047 0
-1.0457182 -0.25850049 -0.049979921 0
-1.2999121 -0.34841093 0.20348933 0
-1.2382097 -0.32658628 0.3256115 0
-1.2351586 -0.32550707 0.4573158 0
-1.0360372 -0.27597561 -0.04986655 0
-1.2506944 -0.35495636 0.19875254 0
-1.2372358 -0.3500044 0.32687971 0
-1.2414758 -0.3515645 0.46108824 0
-1.0311253 -0.29519174 -0.049943306 0
-1.2554379 -0.38094696 0.20021085 0
-1.2491938 -0.37855986 0.33070773 0
-1.2395836 -0.37488583 0.46272597 0
-1.0310944 -0.31640616 -0.050217189 0
-1.2485765 -0.40270415 0.20037247 0
-1.240865 -0.39964417 0.33068827 0
-1.2470263 -0.40208903 0.46701458 0
-1.022851 -0.33445391 -0.050185736 0
-1.2471492 -0.42674211 0.20119819 0
-1.23351 -0.42113021 0.3309103 0
-1.2546467 -0.42982689 0.47146872 0
-1.00009 -0.3462927 -0.049599495 0
-1.2499665 -0.45280352 0.20255947 0
-1.2383335 -0.44784489 0.33357397 0
-1.2368381 -0.44720754 0.46899095 0
-1.0061213 -0.37038663 -0.050139319 0
-1.2533355 -0.47946098 0.20403159 0
-1.2390928 -0.47317693 0.3355175 0
-1.2275969 -0.46810481 0.46894935 0
-0.99653625 -0.38777605 -0.050081298 0
-1.2351691 -0.49667415 0.20300776 0
-1.2354877 -0.49681953 0.33667007 0
-1.2452646 -0.5012812 0.47652745 0
-0.98932254 -0.40624216 -0.050125144 0
-1.2454336 -0.52703542 0.20538174 0
-1.2363704 -0.52276087 0.33878359 0
-1.2412767 -0.5250749 0.47815949 0
-0.96656883 -0.41717616 -0.049561352 0
-1.5044566 -0.67919713 0.082921892 0
-1.2415457 -0.55112547 0.20612408 0
-1.2323636 -0.54665256 0.33999452 0
-1.2276617 -0.54436219 0.47715425 0
-0.97706294 -0.44438574 -0.05032805 0
-1.4424478 -0.67838395 0.080924898 0
-1.2449285 -0.57907009 0.2077821 0
-1.2355276 -0.57434326 0.34272125 0
-1.242386 -0.57779175 0.48430452 0
-0.95076644 -0.45312539 -0.049633861 0
-1.3980266 -0.68511117 0.079621747 0
-1.2353284 -0.60072261 0.20792168 0
-1.2380224 -0.60211998 0.34540051 0
-0.9454174 -0.47251531 -0.049787492 0
-1.3478221 -0.68770814 0.078079075 0
-1.2427641 -0.63152665 0.21017149 0
-1.2480433 -0.6343497 0.34970835 0
-0.93982077 -0.49189618 -0.049942024 0
-1.3105582 -0.69619852 0.077054493 0
-1.2414075 -0.65809166 0.21140552 0
-1.2283213 -0.65088022 0.34800482 0
-0.9202925 -0.50349832 -0.049535729 0
-1.2581112 -0.69524461 0.075403653 0
-1.2303081 -0.67946351 0.21148561 0
-1.2294117 -0.67895472 0.35064805 0
-0.9386996 -0.53694046 -0.050701093 0
-1.2454201 -0.71617866 0.075384036 0
-1.2452281 -0.71606648 0.21483842 0
-1.2336625 -0.70930791 0.35404456 0
-0.91316783 -0.5449211 -0.050062295 0
-1.2502036 -0.74761015 0.07610321 0
-1.2398506 -0.74138409 0.21572886 0
-1.2429676 -0.74325854 0.35861069 0
-0.89998829 -0.56001753 -0.049941272 0
-1.2513292 -0.77737969 0.076690987 0
-1.2506925 -0.77698582 0.2187161 0
-1.2415822 -0.77134961 0.36103567 0
-0.88984084 -0.5769456 -0.049955584 0
-1.2461692 -0.80364639 0.077033333 0
-1.2324034 -0.79488832 0.21807364 0
-1.2414329 -0.80063313 0.36381969 0
-0.87917948 -0.5935533 -0.049957149 0
-1.2514123 -0.83701032 0.077836342 0
-1.2471142 -0.83419913 0.22169238 0
-1.2412405 -0.83035749 0.3666966 0
-0.87434471 -0.61408257 -0.050218329 0
-1.2443864 -0.86281472 0.078136399 0
-1.2303705 -0.85339361 0.22133264 0
-1.2535055 -0.86894423 0.37238598 0
-0.86138916 -0.62923121 -0.050140612 0
-1.2468108 -0.89540762 0.078863136 0
-1.2384342 -0.88962263 0.2242412 0
-1.2305729 -0.88419348 0.3705166 0
-0.8394599 -0.63795084 -0.049677718 0
-1.2279992 -0.91356975 0.078684747 0
-1.2467903 -0.92689961 0.22727421 0
-1.6036006 -1.1800108 0.45622638 0
-0.83086658 -0.65598524 -0.049804438 0
-1.2381277 -0.95266324 0.079793051 0
-1.2394569 -0.95363158 0.22831123 0
-1.5641173 -1.1901373 0.45151049 0
-0.82820499 -0.67857164 -0.050206881 0
-1.2382214 -0.98523289 0.080486313 0
-1.239215 -0.98597604 0.2303547 0
-0.81160307 -0.69081712 -0.049998518 0
-1.2409619 -1.0204561 0.081323795 0
-1.2340355 -1.0151384 0.23180395 0
-0.80257678 -0.70884889 -0.050139394 0
-1.1504564 -0.98296314 0.077951431 0
-1.1607102 -0.99104267 0.22399373 0
-1.1645374 -0.99405831 0.37270311 0
-0.79324305 -0.72676384 -0.050277967 0
-1.1365013 -1.0043128 0.078037553 0
-1.1345997 -1.0027752 0.22258721 0
-1.1465255 -1.012418 0.37222993 0
-0.76983595 -0.73313445 -0.049775574 0
-1.241551 -1.1244744 0.083657354 0
-1.2364643 -1.1202544 0.23905663 0
-1.338748 -1.2051101 0.42107037 0
-0.76505673 -0.75489789 -0.050144807 0
-1.2439177 -1.1624538 0.084594347 0
-1.2390044 -1.1582719 0.24189413 0
-1.3159133 -1.2237288 0.42007768 0
-1.0250839 -0.97620553 0.49434343 0
-0.74768126 -0.76601416 -0.049934063 0
-1.2847371 -1.234887 0.41713279 0
-0.99773991 -0.98432618 0.490412 0
-0.74784112 -0.79263765 -0.050567955 0
-1.1895413 -1.1881713 0.083735719 0
-1.1945853 -1.192688 0.24073048 0
-1.192587 -1.1908987 0.39942724 0
-0.96660721 -0.98853821 0.48517323 0
-0.72676802 -0.80037147 -0.050196137 0
-0.92463827 -0.98210114 0.47613811 0
-0.71542895 -0.81691808 -0.05030204 0
-0.88344181 -0.97517163 0.46723771 0
-0.69700968 -0.82673353 -0.050068069 0
-0.8535161 -0.97791296 0.46219563 0
-0.68377566 -0.84145778 -0.050097913 0
-0.83230901 -0.98859555 0.46023366 0
-0.66050887 -0.84602457 -0.049626935 0
-0.81397748 -1.0019284 0.4593409 0
-0.64841461 -0.86175543 -0.049728688 0
-0.64441466 -0.88624376 -0.050264977 0
-0.62972116 -0.8995809 -0.050258599 0
-0.6095562 -0.90676683 -0.049967233 0
-0.59789491 -0.92344636 -0.050139792 0
-0.58859169 -0.94310778 -0.050456852 0
-0.56892061 -0.95054787 -0.05021064 0
-0.5393995 -0.94545478 -0.049404353 0
-0.5348748 -0.97137398 -0.050029013 0
-0.51198429 -0.97394627 -0.049601968 0
-0.50121003 -0.99232548 -0.04989484 0
-0.48785555 -1.0074968 -0.050049692 0
-0.46971208 -1.0160669 -0.049922254 0
-0.45156413 -1.0244771 -0.049798921 0
-0.44057471 -1.0434589 -0.050140269 0
-0.42128706 -1.0501133 -0.049959954 0
-0.37606609 -0.9804948 0.49986222 0
-0.402363 -1.0571108 -0.049805857 0
-0.34763789 -0.9704923 0.49195808 0
-0.38515705 -1.0667036 -0.049771708 0
-0.33071834 -0.97808653 0.49112588 0
-0.37222165 -1.0834073 -0.050042551 0
-0.30859566 -0.97684973 0.48696089 0
-0.358634 -1.0993738 -0.050287735 0
-0.28896195 -0.97928065 0.48434442 0
-0.33671224 -1.1009077 -0.0499468 0
-0.27378517 -0.98922426 0.4847101 0
-0.32348228 -1.1178377 -0.050245985 0
-0.24961288 -0.98278528 0.47893354 0
-0.29973352 -1.1154048 -0.049767338 0
-0.23201181 -0.98780149 0.47762507 0
-0.27961963 -1.1193031 -0.049558043 0
-0.20757802 -0.97933191 0.4713622 0
-0.26175064 -1.1273779 -0.049526822 0
-0.18730594 -0.97814924 0.46796253 0
-0.24945416 -1.1469408 -0.049960259 0
-0.16883971 -0.98011857 0.46584275 0
-0.23105891 -1.1541954 -0.049912147 0
-0.15090342 -0.98284858 0.46410048 0
-0.21209456 -1.1601176 -0.049821202 0
-0.13462992 -0.98893982 0.4636783 0
-0.19810863 -1.177268 -0.050177623 0
-0.11622621 -0.99008864 0.46153823 0
-0.17647864 -1.1769814 -0.049863186 0
-0.10717662 -1.0129664 0.46734142 0
-0.15872659 -1.1856258 -0.049905222 0
-0.07764633 -0.98678881 0.35073012 0
-0.084158614 -1.0027592 0.46126884 0
-0.14303865 -1.1996099 -0.05016049 0
-0.055648044 -0.97733325 0.34640408 0
-0.070399359 -1.014853 0.46330231 0
-0.12433173 -1.2061391 -0.050137505 0
-0.032979414 -0.96490949 0.14726567 0
-0.033115759 -0.96526939 0.2431332 0
-0.012732072 -0.91144317 0.32677826 0
-0.051996425 -1.0151267 0.46118292 0
-0.1047553 -1.2102437 -0.050031472 0
-0.0096243154 -0.94915646 0.14480452 0
-0.014597906 -0.9628064 0.24155372 0
0.0033094154 -0.91365975 0.32588306 0
-0.08706589 -1.2195204 -0.050130896 0
0.0069849356 -0.95093101 0.14438361 0
0.011566387 -0.93784744 0.23572718 0
0.019641088 -0.91478771 0.32475224 0
-0.0022656752 -0.97734886 0.44370833 0
-0.068528607 -1.2265046 -0.050151959 0
0.025166588 -0.94772571 0.14342362 0
0.022435205 -0.95585257 0.23816252 0
0.026907491 -0.94254583 0.33084935 0
0.018750804 -0.96681505 0.43812418 0
-0.046953484 -1.2241168 -0.049830191 0
0.035122052 -0.96933156 0.14529479 0
0.03544797 -0.96831983 0.23956466 0
0.019909846 -1.0165544 0.34934348 0
0.020584868 -1.0144589 0.45299017 0
-0.033395007 -1.2469727 -0.050462928 0
0.026484268 -1.0527445 0.35764554 0
-0.0088608395 -1.2341577 -0.049772091 0
0.068216309 -0.97248679 0.33496732 0
0.0062782927 -1.2529958 -0.050268978 0
0.080757961 -0.98787147 0.33785471 0
0.027530657 -1.2503401 -0.04997693 0
0.10247947 -0.9700374 0.33200127 0
0.046444103 -1.2560706 -0.050004594 0
0.11727412 -0.97714442 0.33280382 0
0.067099467 -1.2546574 -0.049778614 0
0.084262088 -1.2679057 -0.050099604 0
0.10461374 -1.2673547 -0.049923815 0
0.12349077 -1.2735282 -0.050002687 0
0.14232956 -1.2802235 -0.050108969 0
-0.063960478 -2.3781579 0.10199253 0
0.16280867 -1.2779925 -0.049900115 0
0.0001458691 -2.2081149 0.095610648 0
0.18253846 -1.279487 -0.049835756 0
0.03283523 -2.2039552 0.095270395 0
0.20091501 -1.2897745 -0.050097883 0
0.065278605 -2.199852 0.094947688 0
0.21965303 -1.2988012 -0.05032248 0
0.12261157 -2.0113432 0.087995976 0
0.2401395 -1.2949767 -0.050092936 0
0.13798903 -2.1228654 0.091873765 0
0.26044542 -1.2913406 -0.049879752 0
0.16580276 -2.1468854 0.092610128 0
0.2784726 -1.3094705 -0.050456803 0
0.21460827 -1.9618523 0.085859008 0
0.29967186 -1.2951995 -0.049880426 0
0.24193686 -1.9728658 0.086161628 0
0.32011855 -1.2857289 -0.049485963 0
0.26943004 -1.9846222 0.086502895 0
0.33956233 -1.2884041 -0.049535409 0
0.29975748 -1.9531486 0.085310154 0
0.35884479 -1.2952976 -0.049744345 0
0.31959888 -2.1258621 0.091429658 0
0.37829611 -1.3016636 -0.049943026 0
0.34961596 -2.1296301 0.091520227 0
0.39790756 -1.3072655 -0.050123114 0
0.38379538 -1.947639 0.084990822 0
0.41771355 -1.3060483 -0.050068535 0
0.41117623 -1.9983692 0.086786382 0
0.43749323 -1.3077034 -0.050125398 0
0.45703551 -1.2915285 -0.049554538 0
0.476832 -1.2984284 -0.049816392 0
0.49624166 -1.2912896 -0.049585667 0
0.5164932 -1.3028527 -0.050032165 0
0.53668624 -1.3087164 -0.050284225 0
0.55636442 -1.3057507 -0.050229445 0
0.57519448 -1.2939095 -0.049865291 0
0.59483844 -1.2923216 -0.049877197 0
0.61312622 -1.2790438 -0.049477816 0
0.63376421 -1.2860388 -0.049815904 0
0.65388989 -1.2877302 -0.049972702 0
0.67380041 -1.2872977 -0.050062221 0
0.6925053 -1.2793071 -0.049887359 0
0.71143055 -1.2732048 -0.049789149 0
0.73134464 -1.2725356 -0.049896955 0
0.75253242 -1.2776141 -0.050223749 0
0.77124238 -1.270381 -0.050111078 0
0.79182434 -1.2714852 -0.050312389 0
0.80932623 -1.2595274 -0.050043471 0
0.8288238 -1.2559657 -0.050091553 0
0.84893292 -1.2544947 -0.050226267 0
0.86631656 -1.2431962 -0.050005782 0
0.88482785 -1.236167 -0.049951788 0
0.90580863 -1.2370887 -0.050203916 0
0.92265975 -1.2248832 -0.049973615 0
0.94116592 -1.2179921 -0.049950894 0
0.95526963 -1.1988162 -0.049471162 0
0.9828524 -1.2168844 -0.050414383 0
0.99723172 -1.1988822 -0.049995139 0
0.92300111 -1.006532 0.45921531 0
1.0202032 -1.2031236 -0.050436147 0
0.94387853 -1.012527 0.46361306 0
1.0331702 -1.1824461 -0.049927376 0
0.95785052 -1.0010126 0.46182102 0
1.0513976 -1.174903 -0.049932592 0
0.97574556 -0.99895877 0.46350884 0
1.0695955 -1.1672772 -0.049943548 0
0.98768306 -0.98319548 0.46029583 0
1.0943588 -1.1738936 -0.050523259 0
1.0067061 -0.98340589 0.46296898 0
1.1097106 -1.1597569 -0.050298344 0
1.0223266 -0.97598261 0.46293402 0
1.1203685 -1.1364139 -0.049713533 0
1.0465997 -0.9861812 0.46950281 0
1.1453249 -1.1421927 -0.050295889 0
1.059443 -0.9727183 0.46740219 0
1.1588331 -1.125175 -0.049976379 0
1.0853928 -0.9846682 0.47488821 0
1.1756082 -1.1146885 -0.049926441 0
1.1051763 -0.9839738 0.4777697 0
1.1932898 -1.1059011 -0.049954131 0
1.1318229 -0.99518591 0.057433151 0
1.1315486 -0.99469191 0.16076519 0
1.1348702 -1.0006746 0.26695201 0
1.1333799 -0.99799055 0.37437499 0
1.1250359 -0.982961 0.48064476 0
1.209613 -1.0946923 -0.049891561 0
1.1443217 -0.98050076 0.057195429 0
1.1417269 -0.97596246 0.15954848 0
1.1379282 -0.96931881 0.2622959 0
1.1390344 -0.97125345 0.36914003 0
1.1505547 -0.99140185 0.48725906 0
1.2242626 -1.0807211 -0.049722571 0
1.1590154 -0.96986955 0.057130374 0
1.1619095 -0.97478646 0.16052763 0
1.1628827 -0.97643977 0.26566523 0
1.1705415 -0.98945171 0.37719005 0
1.1680888 -0.98528486 0.48842615 0
1.2464867 -1.0794797 -0.050091293 0
1.2584249 -1.0612308 -0.049759254 0
1.2795068 -1.0576831 -0.050054189 0
1.2935846 -1.0431156 -0.049891822 0
1.3121872 -1.0354333 -0.050032478 0
1.3312044 -1.0281677 -0.050202638 0
1.3425515 -1.0099494 -0.049904294 0
1.3570507 -0.99638039 -0.049815308 0
1.3702184 -0.98114187 -0.049658999 0
1.3878543 -0.97186059 -0.049777389 0
1.4069161 -0.96423799 -0.049982615 0
1.1999381 -0.70325464 0.050090697 0
1.2084241 -0.71395493 0.14019108 0
1.4199723 -0.94900125 -0.049850471 0
1.2047703 -0.68455678 0.049678337 0
1.2096704 -0.6905781 0.13831638 0
1.4332284 -0.93414432 -0.049742207 0
1.2135324 -0.67101562 0.049504269 0
1.2100741 -0.66687357 0.13637818 0
1.4482729 -0.92148823 -0.049744029 0
1.2084842 -0.64153606 0.048584249 0
1.211274 -0.64479315 0.13464952 0
1.4702035 -0.91666275 -0.050126966 0
1.2120571 -0.62284827 0.048163861 0
1.210434 -0.62100089 0.13265887 0
1.4781497 -0.89591104 -0.04976207 0
1.203827 -0.59150231 0.047132485 0
1.213156 -0.60185444 0.13131611 0
1.4921016 -0.88203198 -0.049731847 0
1.5158571 -0.8785221 -0.050219927 0
1.5180264 -0.85230726 -0.049598359 0
1.5390755 -0.84564823 -0.049956124 0
1.559544 -0.8380639 -0.050284728 0
1.5644261 -0.81528777 -0.049845144 0
1.5884752 -0.81075794 -0.050359268 0
1.6026065 -0.79674 -0.050392315 0
1.5979327 -0.76605934 -0.04953729 0
1.6273823 -0.76558536 -0.050318196 0
1.6290817 -0.74106961 -0.049797121 0
1.6460248 -0.72950995 -0.049999166 0
1.6526258 -0.70950878 -0.049733445 0
1.6725354 -0.70009255 -0.050083697 0
1.6968055 -0.69366658 -0.050631281 0
1.6851718 -0.66025448 -0.049584217 0
1.7041637 -0.64976394 -0.049911745 0
1.7121519 -0.63128567 -0.049762659 0
1.7262598 -0.61710054 -0.049889322 0
1.7413996 -0.60348862 -0.050066818 0
1.7461526 -0.58302367 -0.049808905 0
1.7650727 -0.57165813 -0.050161015 0
1.7686267 -0.55062491 -0.049873844 0
1.7804081 -0.53470105 -0.049941309 0
1.7997966 -0.52309996 -0.050329983 0
1.8058499 -0.50372279 -0.050176442 0
1.8094593 -0.48313847 -0.049934611 0
1.8279883 -0.47060147 -0.05030689 0
1.8323807 -0.45054635 -0.050116424 0
1.8332294 -0.42888376 -0.049796075 0
1.8494549 -0.41483924 -0.050097268 0
1.8563441 -0.39622536 -0.050036244 0
1.8577927 -0.37521371 -0.049771864 0
1.8710865 -0.3595393 -0.049980197 0
1.869663 -0.33753815 -0.049625445 0
1.8914717 -0.32519183 -0.050177772 0
1.8965787 -0.30591813 -0.05009345 0
1.8963614 -0.28470746 -0.049815793 0
1.9059103 -0.26722535 -0.049920212 0
1.9139603 -0.24914251 -0.049975887 0
1.9174445 -0.22949634 -0.049868125 0
1.9279134 -0.21215253 -0.050031807 0
1.9298025 -0.19206913 -0.049882799 0
1.9303468 -0.1717004 -0.049693748 0
1.9488703 -0.15645663 -0.050181024 0
1.9377042 -0.13301562 -0.049577504 0
1.9595082 -0.11827222 -0.050200235 0
1.9526191 -0.096266754 -0.049775116 0
1.9615057 -0.07809896 -0.049938522 0
1.9710919 -0.059957664 -0.050135374 0
1.9735209 -0.04025672 -0.050079592 0
1.9780053 -0.020972144 -0.05010758 0
1.973169 -6.450279e-05 -0.049806684 0
1.9845589 0.018056188 -0.050102465 0
1.976953 0.039160911 -0.0497206 0
1.989617 0.057301436 -0.050078981 0
1.9848734 0.077792011 -0.049819093 0
1.9827318 0.097821794 -0.049662258 0
1.9916624 0.11669486 -0.049911723 0
1.99358 0.13632286 -0.049918234 0
2.0002649 0.15562792 -0.050104201 0
1.984761 0.1763261 -0.049505282 0
1.9987389 0.19530444 -0.049969573 0
2.0026724 0.21492983 -0.050083455 0
2.0001123 0.23476136 -0.049974252 0
2.0038152 0.25447956 -0.050097577 0
1.994815 0.27420792 -0.049776252 0
1.9967021 0.29391837 -0.049852479 0
2.0067675 0.31394327 -0.050229721 0
1.9994682 0.33347186 -0.049995638 0
1.9915543 0.35280338 -0.049748201 0
1.9930707 0.37261719 -0.049846739 0
1.993803 0.39243957 -0.049926225 0
1.9975607 0.41260797 -0.050123245 0
1.9864124 0.43131781 -0.049794421 0
1.9932672 0.45196101 -0.05012092 0
1.9933002 0.47193253 -0.050211634 0
1.983651 0.49055997 -0.049962256 0
1.9753617 0.50922829 -0.049770009 0
1.9652364 0.5274471 -0.049519341 0
1.9746444 0.54909575 -0.049985565 0
1.9777169 0.56983036 -0.050232299 0
1.9641374 0.58723575 -0.04988163 0
1.9616961 0.60688573 -0.049945485 0
1.9651798 0.62799096 -0.050235998 0
1.9600412 0.64714992 -0.050219852 0
1.9470931 0.66423857 -0.049924184 0
1.9355937 0.68151611 -0.049689114 0
1.9491177 0.70590949 -0.050391719 0
1.9343415 0.72219694 -0.050052207 0
1.9237155 0.73955894 -0.049874511 0
1.9212317 0.75950009 -0.050010622 0
1.9056236 0.77499682 -0.04966088 0
1.9092672 0.79718071 -0.050047625 0
1.9019536 0.81554925 -0.050029024 0
1.8927106 0.83315545 -0.049945246 0
1.8882518 0.85263473 -0.050053783 0
1.8860492 0.87314528 -0.050259687 0
1.8655694 0.88589054 -0.049765497 0
1.8576787 0.90390664 -0.049767401 0
1.8581866 0.92582434 -0.050108761 0
1.8495777 0.9436422 -0.05010213 0
1.8432212 0.96257323 -0.050194096 0
1.8274308 0.97676259 -0.049917996 0
1.8297654 1.0002817 -0.050378598 0
1.8050531 1.0094906 -0.049755618 0
