# .PCD v0.7 - Point Cloud Data file format
VERSION 0.7
FIELDS x y z intensity
SIZE 4 4 4 4
TYPE F F F F
COUNT 1 1 1 1
WIDTH 1365
HEIGHT 1
VIEWPOINT 0 0 0 1 0 0 0
POINTS 1365
DATA ascii
-0.6316337 -0.31654346 -0.050144479 0
-0.61163586 -0.31120908 -0.049924985 0
-0.59206706 -0.31845737 -0.050163869 0
-0.5721342 -0.30532813 -0.049683988 0
-0.55245113 -0.31938124 -0.050183497 0
-0.53250271 -0.32770371 -0.050487339 0
-0.51301169 -0.31221092 -0.049949683 0
-0.49367702 -0.30209327 -0.049612578 0
-0.4738214 -0.30608654 -0.049788449 0
-0.45401454 -0.30741906 -0.049878206 0
-0.49604076 0.32738572 0.039165247 0
-0.43463099 -0.30253851 -0.049754478 0
-0.4844479 0.32916391 0.039131872 0
-0.41444355 -0.30736232 -0.04998726 0
-0.4739987 0.34319758 0.038664319 0
-0.39469329 -0.30637944 -0.050021037 0
-0.46179873 0.33727551 0.03891718 0
-0.37559777 -0.29956853 -0.049854312 0
-0.44819468 0.3209036 0.039551549 0
-0.44191682 0.26724797 0.11280373 0
-0.44059566 0.25595611 0.18728215 0
-0.44096842 0.25914222 0.26163414 0
-0.44274536 0.2743293 0.3342618 0
-0.44092429 0.25876486 0.42100808 0
-0.35674897 -0.29174626 -0.04965955 0
-0.43500176 0.31119037 0.039953399 0
-0.42934611 0.26761377 0.11293016 0
-0.42903271 0.26519912 0.18588307 0
-0.43020171 0.27420622 0.25815609 0
-0.42820928 0.25885439 0.33996382 0
-0.42939052 0.26795596 0.41781601 0
-0.43169445 0.28570759 0.49470118 0
-0.33411676 -0.31140423 -0.050464001 0
-0.41828185 0.27876669 0.041180957 0
-0.41812456 0.27766377 0.11202271 0
-0.42027178 0.29272026 0.1811782 0
-0.41856959 0.28078437 0.25689358 0
-0.42080015 0.2964251 0.32791099 0
-0.42003539 0.29106265 0.40885904 0
-0.420755 0.2961086 0.49028331 0
-0.3152616 -0.30305636 -0.050268453 0
-0.40722474 0.28841203 0.040898554 0
-0.40702748 0.28714329 0.11119087 0
-0.40606353 0.28094345 0.18365671 0
-0.4065879 0.28431612 0.25645298 0
-0.40829754 0.29531187 0.3288905 0
-0.40662849 0.28457707 0.41233334 0
-0.40817645 0.29453295 0.49199083 0
-0.2955845 -0.30040073 -0.050287161 0
-0.39209378 0.27267879 0.041539393 0
-0.38970873 0.25851619 0.11452543 0
-0.3909727 0.26602179 0.18674834 0
-0.39117759 0.26723832 0.26138264 0
-0.39202026 0.27224219 0.33733281 0
-0.39075604 0.26473522 0.42149365 0
-0.39808929 0.30828047 0.48600751 0
-0.27501506 -0.3025732 -0.050490074 0
0.069488667 -2.2019048 0.13140506 0
-0.38549629 0.30653632 0.48795262 0
-0.25858006 -0.28271353 -0.04990159 0
0.11632957 -2.2110844 0.13203596 0
-0.37275708 0.30456299 0.49010003 0
-0.23696478 -0.28984416 -0.050303221 0
0.15884961 -2.1972175 0.13184968 0
-0.36997694 0.3511225 0.46753466 0
-0.21793933 -0.28391039 -0.050238267 0
0.20631213 -2.2063236 0.13252233 0
-0.35974303 0.35864544 0.46492594 0
-0.19784205 -0.28274596 -0.050356761 0
0.251237 -2.2024677 0.13274358 0
-0.34821704 0.36007667 0.4655059 0
-0.17817615 -0.27947533 -0.050407462 0
0.29759458 -2.2037268 0.13317442 0
-0.0056202798 -0.97737646 0.25306126 0
-0.0054680496 -0.97799206 0.42071813 0
-0.33785629 0.36635 0.46366668 0
-0.16120787 -0.26570106 -0.050079923 0
0.34405431 -2.2041447 0.13359714 0
-0.32871395 0.37693799 0.45965782 0
-0.14162503 -0.26232576 -0.05014411 0
0.39013311 -2.2020187 0.13394876 0
-0.31930688 0.385804 0.45658809 0
-0.12461183 -0.24984467 -0.049879394 0
-0.3008509 0.36266869 0.47022998 0
-0.10418413 -0.2493279 -0.050067768 0
-0.30300403 0.41029322 0.44706762 0
-0.084220804 -0.24688566 -0.050194424 0
-0.29434294 0.41973746 0.44382867 0
-0.06649176 -0.23735845 -0.050064746 0
-0.28696758 0.43257254 0.43884748 0
-0.050497927 -0.22304618 -0.049762309 0
-0.26334044 0.39727539 0.45935443 0
-0.028760234 -0.22543657 -0.050099343 0
-0.010523238 -0.21771276 -0.050063156 0
0.0090595102 -0.21353829 -0.050171383 0
0.021180352 -0.19051635 -0.049564786 0
0.044046484 -0.19448566 -0.050004262 0
0.061892651 -0.18598759 -0.049972773 0
0.080030046 -0.17819083 -0.049977276 0
-0.18731456 0.42261267 0.38291106 0
0.095373176 -0.16430652 -0.049751513 0
0.12148859 -0.17344046 -0.050441962 0
-0.15883617 0.4161008 0.39028978 0
-0.20209692 0.50708103 0.49669611 0
0.13972546 -0.16541755 -0.050467353 0
0.55321413 -1.0075045 0.46044064 0
-0.16056959 0.44614571 0.37877685 0
-0.19317751 0.51255304 0.49607572 0
0.15103479 -0.14367759 -0.049953058 0
0.59100026 -1.0118806 0.46418905 0
-0.1525137 0.45532787 0.37686381 0
-0.18666132 0.52271283 0.49240914 0
0.16627146 -0.13022768 -0.049775049 0
0.61184388 -0.98270154 0.46123025 0
-0.14217757 0.45990014 0.37713906 0
-0.17882331 0.53001118 0.49068788 0
0.19238634 -0.13722491 -0.050432798 0
0.64438754 -0.97609711 0.46292964 0
-0.12499184 0.45179933 0.38343754 0
-0.17056732 0.53638315 0.48964524 0
0.19999059 -0.10991824 -0.049707755 0
0.68437165 -0.98239517 0.46738666 0
-0.11349327 0.45473522 0.38465568 0
-0.1641718 0.54601836 0.48645207 0
0.22161283 -0.10815228 -0.05003177 0
0.7181372 -0.9765532 0.46945807 0
-0.077647723 0.41524214 0.40618739 0
-0.15414704 0.54903632 0.48781118 0
0.23437633 -0.09087909 -0.049727023 0
0.75667626 -0.97824073 0.47320929 0
-0.055303551 0.40127259 0.41583297 0
-0.14930446 0.56097555 0.4831278 0
0.26397559 -0.1018113 -0.050603893 0
0.80357391 -0.99270797 0.47978571 0
-0.06224332 0.43678814 0.40173435 0
-0.13923632 0.56390631 0.4846966 0
0.27407691 -0.080272205 -0.050137438 0
0.84573191 -0.99782133 0.48455134 0
-0.12846117 0.56583142 0.48706874 0
0.29191181 -0.071408875 -0.050210018 0
0.88086861 -0.99073148 0.48685509 0
-0.12034137 0.57209098 0.48650244 0
0.30541483 -0.055868749 -0.050007351 0
0.91633135 -0.9835422 0.4892517 0
0.016544184 0.38277972 0.43806893 0
-0.11501042 0.58254468 0.48302552 0
0.32388565 -0.0479188 -0.050137445 0
0.95263427 -0.97698784 0.49190393 0
0.031991981 0.38339728 0.44140765 0
-0.1033856 0.58343774 0.486413 0
0.34106681 -0.037947658 -0.05019087 0
0.9934122 -0.97621179 0.49594867 0
0.046213411 0.38613814 0.44380268 0
-0.1045898 0.60303742 0.47642368 0
0.35215971 -0.019380694 -0.049877126 0
0.058921538 0.39125234 0.44510254 0
-0.099206425 0.61268514 0.47358555 0
0.37269893 -0.014064556 -0.050153267 0
0.076528512 0.38982326 0.44985574 0
-0.095537581 0.62446988 0.46919915 0
0.38729689 -0.0005276255 -0.050076168 0
1.1308712 -0.9882164 0.10621358 0
1.1329857 -0.99102521 0.30804437 0
0.091815673 0.39195973 0.45292071 0
-0.086308427 0.62856179 0.47051564 0
0.40190944 0.012906665 -0.050011206 0
0.10560944 0.39633721 0.4549433 0
-0.071762033 0.62586689 0.47701839 0
0.41189674 0.03210425 -0.049691323 0
0.12601306 0.39258152 0.46137539 0
-0.075290985 0.64641041 0.46613485 0
0.42964116 0.041417357 -0.04982888 0
-0.061857976 0.64538115 0.47160017 0
0.4495264 0.048322555 -0.05009022 0
-0.051143147 0.64797193 0.47445646 0
0.46787927 0.057304975 -0.05026846 0
-0.048769154 0.66048938 0.46969721 0
0.47218058 0.082475774 -0.049690273 0
-0.040396847 0.66587603 0.47053781 0
0.48810646 0.09414243 -0.049757071 0
1.2060804 -0.70257461 0.10004651 0
-0.038147606 0.67811286 0.46600297 0
0.49677727 0.11373293 -0.049449138 0
1.2038124 -0.65125299 0.098638535 0
-0.020495931 0.6734035 0.47512278 0
0.52011651 0.11753701 -0.049919393 0
0.3840923 0.26104224 0.054860249 0
-0.021343926 0.68877637 0.46812293 0
0.52841657 0.13729274 -0.049615763 0
0.37783483 0.29220212 0.05390298 0
0.83565968 -0.17878008 0.22078851 0
-0.015486219 0.69682664 0.46708429 0
0.55265206 0.14076412 -0.050134432 0
0.39630052 0.29760838 0.054227915 0
0.84510309 -0.15260863 0.21949601 0
-0.0027215269 0.6978879 0.47194645 0
0.56812412 0.15332389 -0.050211295 0
0.40418002 0.31369448 0.054023597 0
0.74347478 -0.018204695 0.201571 0
0.743671 -0.018396622 0.33424532 0
0.74138361 -0.016159063 0.46953905 0
0.0011452051 0.70794421 0.46937838 0
0.58152813 0.16793549 -0.05019306 0
0.43107215 0.31144965 0.054769825 0
0.83643025 -0.075205691 0.21301235 0
0.19556285 0.53609282 0.35219643 0
0.0088132834 0.71422601 0.47006094 0
0.58423823 0.19248033 -0.049662661 0
0.46856174 0.30007076 0.056022674 0
0.84263247 -0.047851447 0.2114819 0
0.19242223 0.55690736 0.3466877 0
0.60372132 0.20131314 -0.049961653 0
0.83105105 -0.0048484853 0.072918013 0
0.84070665 -0.013605004 0.20883985 0
0.19032963 0.57621133 0.34183061 0
0.026536128 0.72475302 0.47350559 0
0.61092263 0.22129107 -0.049677376 0
0.83836859 0.02018475 0.072516426 0
0.83824223 0.02029633 0.20621203 0
0.84210032 0.016885156 0.34291288 0
0.20586057 0.57944471 0.34496236 0
0.022890231 0.74122602 0.46537754 0
0.62607211 0.23415709 -0.049782719 0
0.83629066 0.052947756 0.071691267 0
0.83718377 0.052177902 0.20387293 0
0.83611637 0.05309796 0.33780465 0
0.23098655 0.57472265 0.35229281 0
0.032890402 0.7454825 0.46818501 0
0.6414209 0.24695671 -0.049903847 0
0.84376949 0.076924913 0.071339779 0
0.83944434 0.080559365 0.20208102 0
0.84096366 0.079282634 0.33540961 0
0.9294638 0.004916782 0.50149482 0
0.26204529 0.56574285 0.36209825 0
0.28507814 0.54638857 0.46161839 0
0.040131234 0.75221533 0.46886727 0
0.66034991 0.25693858 -0.050196424 0
0.83914262 0.1105014 0.070447259 0
0.83743733 0.11189818 0.19976456 0
0.85068911 0.10104441 0.33425361 0
0.94002265 0.027877325 0.49982786 0
0.28905681 0.56103987 0.37001374 0
0.25239941 0.59106344 0.43939456 0
0.047066651 0.75923771 0.46937373 0
0.66758817 0.27652007 -0.049957819 0
0.85394961 0.12776482 0.07047081 0
0.84025365 0.13869703 0.19818906 0
0.84277743 0.13668251 0.32910281 0
0.98565 0.022640342 0.50972027 0
0.27366206 0.5909552 0.3597731 0
0.24507566 0.61377311 0.4311246 0
0.052760266 0.76728088 0.46900025 0
0.67691976 0.29426414 -0.049827423 0
0.85131162 0.15862238 0.069715001 0
0.84939069 0.16011655 0.19753563 0
0.82873172 0.17618501 0.32270378 0
0.25146356 0.62518328 0.43027812 0
0.063668929 0.77124965 0.47262505 0
0.69536549 0.30499023 -0.05011658 0
0.85006458 0.18776166 0.069046155 0
0.83687729 0.19775486 0.19400561 0
0.84371263 0.1925751 0.32304674 0
0.26049706 0.63452673 0.43088901 0
0.07424017 0.77566922 0.47600174 0
0.71185881 0.31741482 -0.050322451 0
0.85106546 0.21465957 0.06849961 0
0.83703297 0.22501767 0.19226415 0
0.83771366 0.2245152 0.31873021 0
0.28664008 0.63128942 0.44035995 0
0.081400476 0.78278673 0.47687414 0
0.70936829 0.34366912 -0.049698677 0
0.84999329 0.24257743 0.0678818 0
0.83441621 0.25377536 0.19021708 0
0.83714849 0.25181127 0.3157492 0
0.0864143 0.79149485 0.47623673 0
0.72629768 0.35579735 -0.049941126 0
0.85215253 0.26770574 0.067425609 0
0.8415882 0.27510017 0.18951975 0
0.83374256 0.28059167 0.31224501 0
0.83720642 0.27816713 0.44031116 0
0.087161146 0.80315852 0.47259581 0
0.73990422 0.37040025 -0.050044585 0
0.88141018 0.27398539 0.068157718 0
0.83761889 0.30382252 0.1874146 0
0.84318584 0.30002952 0.31165427 0
0.84187037 0.30092579 0.43799064 0
0.11391928 0.79691428 0.4877581 0
0.74785048 0.38884765 -0.049912624 0
0.91628987 0.27716094 0.069127969 0
0.83048266 0.33405697 0.18496542 0
0.83804864 0.32904017 0.30796656 0
0.84188551 0.32649606 0.43435442 0
0.12116053 0.80438542 0.48885047 0
0.7619676 0.40320724 -0.050053813 0
0.95497304 0.27870154 0.07025367 0
0.84108943 0.35216665 0.18485411 0
0.83984834 0.35296726 0.30587614 0
0.83734435 0.35458255 0.42946243 0
0.12739404 0.81256378 0.48928949 0
0.76563865 0.42424202 -0.049761277 0
0.99542314 0.28007507 0.071445808 0
0.83858782 0.3784737 0.18310964 0
0.83736926 0.37923819 0.30295563 0
0.84211606 0.37626004 0.42752081 0
0.13738151 0.81841087 0.49242559 0
0.78471678 0.43564051 -0.050126415 0
1.0305951 0.28565753 0.072408818 0
0.8406412 0.40152723 0.18199381 0
0.83385259 0.40566826 0.2999084 0
0.84466547 0.39907247 0.42501181 0
0.13945319 0.82924438 0.49009019 0
0.78521854 0.45835501 -0.04972383 0
1.06745 0.29103601 0.073437452 0
0.84734446 0.42152405 0.18150361 0
0.83735937 0.42744368 0.29842642 0
0.83395129 0.42946416 0.41867301 0
0.14100738 0.84027123 0.48750982 0
0.79710561 0.47418803 -0.049805045 0
0.84310824 0.44769275 0.17969157 0
0.83671468 0.45137513 0.29614842 0
0.84242147 0.44808829 0.41814145 0
0.14448871 0.85006368 0.48636231 0
0.81151754 0.48867804 -0.049997158 0
0.85214716 0.46595377 0.17956764 0
0.83708721 0.47437686 0.29415908 0
0.84131855 0.47201025 0.41488397 0
0.15562482 0.85552073 0.49050838 0
0.82074946 0.50613803 -0.049984969 0
0.85347241 0.4883731 0.1785295 0
0.84025091 0.49555093 0.29281572 0
0.84360069 0.49373233 0.4127191 0
0.8261767 0.52559566 -0.04982825 0
0.84885842 0.51364934 0.17681122 0
0.83889824 0.51889533 0.29061517 0
0.83694631 0.51992339 0.40807074 0
0.838983 0.54116416 -0.049978197 0
0.84962624 0.53572851 0.17579192 0
0.84600884 0.5375759 0.29020235 0
0.84098023 0.54014409 0.406609 0
0.8404389 0.54042059 0.52819502 0
0.85312027 0.55619532 -0.050188065 0
0.83458561 0.56536889 0.17291678 0
0.84107393 0.56215757 0.28741565 0
0.83228248 0.56650883 0.40160468 0
0.84179515 0.5618006 0.52540284 0
0.85577887 0.57689661 -0.049949732 0
0.86862308 0.57073963 0.17595264 0
0.84623319 0.5814724 0.28672665 0
0.84352416 0.582771 0.40236616 0
0.83343345 0.5876081 0.51914167 0
0.87009889 0.59200549 -0.050182033 0
0.90303987 0.57672197 0.17902379 0
0.84301311 0.60457242 0.28442419 0
0.8355878 0.6080175 0.39778706 0
0.83853954 0.60664797 0.51797605 0
0.88063484 0.6089955 -0.050272416 0
0.93774837 0.58336562 0.1821209 0
0.84756655 0.62383503 0.28372905 0
0.82760376 0.63279337 0.39330962 0
0.84483784 0.62505955 0.51733929 0
0.87582213 0.63271528 -0.049773373 0
0.96243018 0.5951525 0.18403642 0
0.83981615 0.64833146 0.2806668 0
0.8365609 0.64974332 0.39365473 0
0.83588666 0.65003574 0.51126033 0
0.89166301 0.64740652 -0.050087966 0
1.0026302 0.60093009 0.1877673 0
0.83308214 0.671942 0.27787986 0
0.83738846 0.67013842 0.3918086 0
0.84370333 0.66749352 0.51137519 0
0.9114936 0.66072822 -0.05056173 0
1.0383927 0.60944742 0.19097334 0
0.83866423 0.69015908 0.27756074 0
0.84502238 0.6875897 0.39191562 0
0.84049839 0.6894179 0.5076136 0
0.89431447 0.68882835 -0.049621627 0
1.0731392 0.61917031 0.19405892 0
0.85257071 0.70508897 0.27889886 0
0.84354275 0.70860565 0.3895871 0
0.84112412 0.70954776 0.50533706 0
0.28128466 0.92762357 0.45634383 0
0.91344851 0.70260257 -0.050084103 0
0.85135609 0.7258935 0.27735439 0
0.83496672 0.73204112 0.38540816 0
0.83474821 0.73212314 0.50067359 0
0.27655575 0.9415015 0.45165411 0
0.90977627 0.7249555 -0.049685489 0
0.84492916 0.74835265 0.27486789 0
0.84214813 0.74935603 0.38560227 0
0.83654159 0.75137889 0.49902135 0
0.26133147 0.95891714 0.44149625 0
0.93096155 0.7383976 -0.050238524 0
0.85454756 0.76488549 0.275509 0
0.84241647 0.76909059 0.38398781 0
0.83402282 0.77200019 0.49594355 0
0.83484381 0.77171558 0.61609161 0
0.26123801 0.97054869 0.43951145 0
0.93357176 0.75843203 -0.050096761 0
0.84236628 0.78876638 0.27204379 0
0.84362179 0.78834879 0.38269901 0
0.84089333 0.78925627 0.49626184 0
0.84061784 0.78934789 0.61600775 0
0.29946169 0.96933275 0.45781654 0
0.93301719 0.77937335 -0.049846452 0
0.84728831 0.80669224 0.27188691 0
0.82604378 0.81346214 0.37645078 0
0.84904402 0.80613279 0.49710187 0
0.83883768 0.80938518 0.61273825 0
0.3095887 0.97803909 0.46128583 0
0.94714564 0.79565722 -0.05015498 0
0.85266691 0.82445914 0.27185932 0
0.83677191 0.82930475 0.37786087 0
0.83416337 0.83009994 0.49000227 0
0.84402972 0.82709217 0.61260855 0
0.31323221 0.98890632 0.46140799 0
0.95030636 0.81536412 -0.050062206 0
0.87239045 0.8380487 0.27456847 0
0.84256834 0.84673113 0.37800848 0
0.8442325 0.8462466 0.49167866 0
0.84454614 0.84615529 0.61055946 0
0.32626548 0.99704814 0.46649426 0
0.9477635 0.83658934 -0.049767639 0
0.90019625 0.84979075 0.27881297 0
0.83495873 0.86789626 0.37466419 0
0.85150868 0.86330307 0.49245524 0
0.84453195 0.86523938 0.60839283 0
0.31850716 1.0112278 0.46082005 0
0.95370251 0.85536355 -0.049797129 0
0.92498976 0.86294419 0.28250912 0
0.83790916 0.88593495 0.37418795 0
0.84231919 0.88477063 0.48763746 0
0.84213847 0.88481832 0.60531759 0
0.31650022 1.0235956 0.45823348 0
0.95677334 0.87488115 -0.049729668 0
0.96269995 0.87339598 0.28862602 0
0.83803087 0.90463698 0.37302905 0
0.84165007 0.90373003 0.48585013 0
0.82970744 0.90672272 0.59807307 0
0.32139018 1.0341027 0.45929304 0
0.9789204 0.88982719 -0.050371397 0
0.98698634 0.88791358 0.29226092 0
0.8552044 0.9191789 0.3764067 0
0.82768542 0.92570776 0.47960374 0
0.84140342 0.92245317 0.60123444 0
0.33602241 1.0423551 0.46542728 0
0.96613616 0.91306454 -0.049740225 0
1.031727 0.89837295 0.29969972 0
0.83647233 0.94210786 0.37043509 0
0.84346634 0.94054127 0.48361078 0
0.84124058 0.9410398 0.59943944 0
0.33585164 1.0542414 0.46400762 0
0.98031551 0.93016613 -0.050105203 0
1.0526505 0.91491777 0.30275336 0
0.84359628 0.95898688 0.37129641 0
0.83079368 0.96168566 0.47799647 0
0.83757788 0.96025556 0.5962674 0
0.36110309 1.0606976 0.4756676 0
0.97986454 0.95042551 -0.049944695 0
1.0884885 0.92895216 0.30857962 0
0.84035462 0.97800457 0.36951515 0
0.83767194 0.97853494 0.47911683 0
0.84217423 0.97764486 0.59669131 0
0.35997751 1.0729681 0.47388726 0
0.98414725 0.96969897 -0.049965683 0
0.84913343 0.99462706 0.37091884 0
0.84724945 0.99497491 0.48121968 0
0.84138674 0.99605733 0.59493971 0
0.38670346 1.0800072 0.48636052 0
0.99343294 0.98813188 -0.050176654 0
0.84602755 1.0134329 0.36929727 0
0.83598381 1.0151569 0.47635216 0
0.84285003 1.0139782 0.59423494 0
0.38050213 1.0933367 0.48213616 0
0.99496764 1.0079489 -0.050115418 0
0.43108007 1.0974418 0.041731946 0
0.42604354 1.0982411 0.11301354 0
0.43447718 1.0969026 0.18712388 0
0.42328933 1.0986782 0.25933856 0
0.42751327 1.0980078 0.33777836 0
0.42654261 1.0981618 0.41848928 0
0.39722803 1.1028143 0.48962033 0
0.9947328 1.0279833 -0.049999464 0
0.40970179 1.1132945 0.040892202 0
0.40332863 1.1142238 0.11034159 0
0.41283247 1.1128379 0.18283208 0
0.41064945 1.1131563 0.25559437 0
0.39770541 1.1150439 0.32712108 0
0.40616837 1.1138097 0.40917432 0
0.40639231 1.113777 0.49332777 0
0.9954024 1.0478182 -0.049925372 0
0.38580868 1.1288862 0.039970487 0
0.43101493 1.1228744 0.11316023 0
0.43510076 1.1223309 0.18657339 0
0.42699608 1.1234088 0.25936392 0
0.42723265 1.1233773 0.33646795 0
0.42982146 1.123033 0.41834673 0
0.413986 1.125139 0.49630597 0
0.98994583 1.0683398 -0.049640093 0
0.37085572 1.1427504 0.039378699 0
0.42968825 1.1356791 0.11284595 0
0.42085949 1.1367403 0.18369891 0
0.42770007 1.1359181 0.2591413 0
0.43889669 1.1345724 0.33985013 0
0.43429908 1.1351249 0.41955724 0
1.0043015 1.0865337 -0.050075877 0
0.36038789 1.1557149 0.038955033 0
0.85397643 1.1026844 0.36816144 0
0.84124845 1.1040518 0.47400248 0
0.83720785 1.104486 0.58674371 0
1.0064609 1.1061946 -0.050081994 0
0.34905216 1.1684632 0.038506608 0
0.84497207 1.1214906 0.36539322 0
0.83697969 1.1222476 0.47198069 0
0.84046024 1.121918 0.5873577 0
1.0157051 1.1252819 -0.050350759 0
0.34990415 1.1798964 0.038500976 0
0.84749252 1.13908 0.36563873 0
0.83292288 1.1402752 0.47010824 0
0.83957654 1.1397294 0.58634406 0
1.0032579 1.146067 -0.04985163 0
0.36878744 1.1900766 0.03914579 0
0.8571766 1.1561998 0.36777282 0
0.83685666 1.1576093 0.47097802 0
0.83994514 1.157395 0.58594424 0
1.0071563 1.1655754 -0.049946714 0
0.85709423 1.1740873 0.36746466 0
0.84300631 1.1748863 0.47265831 0
0.83270735 1.1754706 0.58248246 0
1.005583 1.1853954 -0.04985499 0
0.8516112 1.1921853 0.36583507 0
0.84861845 1.1923174 0.47423112 0
0.84246427 1.1925887 0.5861603 0
1.0130918 1.2048677 -0.050096624 0
0.84939903 1.2100223 0.36509919 0
0.84478945 1.2101674 0.47273389 0
0.84671086 1.210107 0.58764344 0
1.0110151 1.2246947 -0.05000468 0
0.85029632 1.2277306 0.36521429 0
0.85234267 1.227692 0.47509921 0
0.84640867 1.2278041 0.58733386 0
1.016754 1.2444109 -0.050200693 0
0.84160644 1.2455136 0.36294022 0
0.83780736 1.2455375 0.47018892 0
0.83770138 1.2455381 0.58363646 0
1.009988 1.2641897 -0.049959131 0
0.85720605 1.2632278 0.36692026 0
0.84146267 1.2631286 0.47140506 0
0.84219533 1.2631333 0.5854972 0
1.0099802 1.2839289 -0.049967729 0
0.85190326 1.2809428 0.36562434 0
0.84109396 1.2807386 0.47135615 0
0.84096569 1.2807362 0.58507985 0
1.0102566 1.3036861 -0.049995355 0
0.85188133 1.298699 0.36573282 0
0.83345157 1.2981187 0.46895996 0
0.83672339 1.2982217 0.58350623 0
1.01197 1.3235295 -0.050083239 0
0.85709625 1.3166997 0.36723584 0
0.84535962 1.3161821 0.47314587 0
0.83629817 1.3157825 0.58360487 0
1.0129492 1.3433963 -0.050153863 0
0.84373742 1.3337982 0.36405146 0
0.83819479 1.3334838 0.47105497 0
0.83374792 1.3332316 0.58291399 0
1.0033331 1.3625814 -0.04985432 0
1.3011011 1.3832359 0.072510563 0
1.3043568 1.3834617 0.2065632 0
1.294401 1.3827711 0.34077364 0
0.8381241 1.3511218 0.36290023 0
0.83730417 1.3510649 0.47112724 0
0.84177405 1.351375 0.58670324 0
1.0168461 1.3834548 -0.050391633 0
1.25717 1.4031682 0.071000323 0
1.2407616 1.4018222 0.19989699 0
1.0274253 1.3843226 0.29278246 0
0.84763497 1.3695748 0.36567524 0
0.82850593 1.3680056 0.46863386 0
0.85078043 1.3698328 0.59099847 0
1.0029209 1.4021132 -0.049955044 0
1.23847 1.4244241 0.070402086 0
1.2536272 1.4258597 0.2015017 0
0.89487273 1.3918791 0.26908904 0
0.86236447 1.3887999 0.36985043 0
0.84474844 1.3871313 0.47457689 0
0.84666699 1.3873131 0.58993906 0
1.0016973 1.4218297 -0.049982365 0
0.6375013 1.3827009 0.048905276 0
0.64546245 1.3835562 0.1360155 0
0.63853866 1.3828124 0.22292851 0
0.63901979 1.3828641 0.31300348 0
0.83552164 1.403976 0.47208625 0
0.84016317 1.4044746 0.58797443 0
0.98876852 1.4401618 -0.049597759 0
0.55616599 1.3881658 0.046042137 0
0.55322927 1.3878129 0.12621838 0
0.55110282 1.3875573 0.20735718 0
0.55999285 1.3886257 0.29313636 0
0.83794349 1.4220337 0.4735662 0
0.84126323 1.4224327 0.58926773 0
0.99507207 1.4607811 -0.049913473 0
0.56233603 1.4032328 0.046328228 0
0.55613679 1.4024084 0.12672538 0
0.55700666 1.4025241 0.20875251 0
0.55058604 1.4016702 0.29117331 0
0.84194738 1.4404174 0.47565582 0
0.83994085 1.4401506 0.58964586 0
0.99119669 1.4801441 -0.049871884 0
0.56722695 1.4183195 0.046575531 0
0.55204123 1.416105 0.12649266 0
0.55230552 1.4161437 0.20825189 0
0.55128056 1.4159942 0.29185337 0
0.835316 1.4574132 0.47425139 0
0.83599979 1.4575129 0.58902216 0
0.98761326 1.4995271 -0.04984957 0
0.5469864 1.4295965 0.045921743 0
0.54968935 1.4300256 0.12646797 0
0.54641932 1.4295065 0.20756517 0
0.55599171 1.4310257 0.29361892 0
0.84292334 1.4765638 0.47771257 0
0.84643406 1.477121 0.59451526 0
0.98097068 1.5183722 -0.049725227 0
0.55748647 1.4456844 0.046385203 0
0.552872 1.4448924 0.12706584 0
0.55452901 1.4451767 0.20946878 0
0.55337077 1.444978 0.29353929 0
0.84137183 1.4944111 0.47817093 0
0.83584589 1.4934626 0.5912925 0
0.98111552 1.5383843 -0.049855616 0
0.55492574 1.4596955 0.046382919 0
0.54983097 1.4587548 0.12700532 0
0.54899043 1.4585996 0.2089099 0
0.5524618 1.4592406 0.2939491 0
0.82731372 1.5099875 0.47447509 0
0.83073515 1.5106192 0.590455 0
0.97691745 1.5576349 -0.049837444 0
0.55950242 1.4751182 0.046646792 0
0.53657359 1.4705855 0.1258446 0
0.55767256 1.4747565 0.210995 0
0.55010194 1.4732598 0.29402927 0
0.83923906 1.530418 0.47964829 0
0.83396202 1.5293748 0.59322536 0
0.98143071 1.5787121 -0.050145894 0
0.56780714 1.4915193 0.047054462 0
0.55607539 1.4890462 0.12829509 0
0.55090076 1.4879553 0.21027473 0
0.54381067 1.4864608 0.29313055 0
0.84065253 1.5490357 0.48134854 0
0.84547323 1.5500519 0.59960824 0
0.97277921 1.5970665 -0.049983267 0
0.54639226 1.5015606 0.046383511 0
0.55403084 1.5032715 0.12840514 0
0.5477137 1.5018566 0.21024564 0
0.54950911 1.5022587 0.29540747 0
0.84800237 1.5691179 0.48515728 0
0.84704572 1.5689036 0.60190248 0
0.9654265 1.6156145 -0.049876276 0
0.54439908 1.5157255 0.046427809 0
0.54570824 1.5160362 0.12784185 0
0.55843073 1.5190545 0.21282601 0
0.54478151 1.5158163 0.29500943 0
0.83025235 1.5835444 0.48048142 0
0.84552556 1.587168 0.60298848 0
0.9654389 1.6359335 -0.050048608 0
0.54408067 1.5303448 0.04654045 0
0.54693228 1.5310594 0.12835224 0
0.55489045 1.5330536 0.212804 0
0.55331606 1.5326591 0.29814318 0
0.83892137 1.6042293 0.48491424 0
0.83811659 1.6040276 0.60166246 0
0.96235973 1.6555653 -0.050116792 0
0.54697198 1.5458959 0.046778761 0
0.54857427 1.546319 0.12893179 0
0.56088549 1.5495694 0.21459332 0
0.54621059 1.5456949 0.29721624 0
0.83720428 1.6225221 0.48587745 0
0.84809071 1.6253964 0.60786653 0
0.95152956 1.6730989 -0.04990717 0
0.54395157 1.5599833 0.046806119 0
0.54484946 1.5602324 0.12893619 0
0.55233401 1.5623096 0.21370517 0
0.55198079 1.5622116 0.29973862 0
0.83629876 1.6411188 0.48720369 0
0.84106821 1.6424425 0.60690451 0
0.9577356 1.695442 -0.050338451 0
0.56035584 1.5797483 0.047562443 0
0.54894954 1.5764275 0.12983604 0
0.55305535 1.5776229 0.21458559 0
0.55383235 1.577849 0.30128413 0
0.83180159 1.6587774 0.48737124 0
0.84668428 1.6631104 0.61148149 0
0.94185966 1.7113745 -0.049957693 0
0.84774834 1.6826845 0.38078856 0
0.8397674 1.6802516 0.49195141 0
0.832771 1.6781187 0.60773528 0
0.93494493 1.7298841 -0.049918685 0
0.84341198 1.7007157 0.38110149 0
0.85073215 1.7030483 0.49769139 0
0.85463554 1.7042922 0.61960316 0
0.93333274 1.7501316 -0.050087769 0
0.8495025 1.7222502 0.38428015 0
0.83880383 1.7186919 0.49552923 0
0.83684117 1.7180392 0.61435986 0
0.92555588 1.7683717 -0.05003427 0
0.85101944 1.7425346 0.38631082 0
0.84380513 1.7400339 0.49938804 0
0.84525734 1.7405373 0.62065488 0
0.92192608 1.7880713 -0.050146624 0
0.84491318 1.7602848 0.38635221 0
0.8382054 1.7578646 0.49960983 0
0.84318095 1.7596598 0.62248456 0
0.90434223 1.8026248 -0.049736876 0
0.83668202 1.7772454 0.38587552 0
0.8286894 1.7742474 0.4985207 0
0.83501238 1.7766191 0.62173516 0
0.90037662 1.8221762 -0.049853891 0
0.84623057 1.8010845 0.39032304 0
0.839526 1.7984729 0.50476646 0
0.83198398 1.795535 0.62336069 0
0.89910632 1.8429091 -0.050084744 0
0.84020215 1.8191055 0.39058921 0
0.81633168 1.8094593 0.49894187 0
0.8240177 1.8125653 0.62289554 0
0.89301664 1.8618035 -0.050140355 0
0.84014565 1.8396596 0.39257127 0
0.82442433 1.8330749 0.50442135 0
0.82753581 1.8343781 0.62767911 0
0.87141985 1.8740185 -0.049602062 0
0.8260662 1.8543482 0.39073622 0
0.83211023 1.8569695 0.50989085 0
0.82879907 1.8555335 0.6315949 0
0.88125974 1.899928 -0.050296869 0
0.82904679 1.8764973 0.39371312 0
0.82228655 1.8734636 0.50911582 0
0.82543033 1.8748745 0.63355136 0
0.86992925 1.916559 -0.050175358 0
0.8182407 1.8925771 0.3929081 0
0.81605822 1.8915645 0.50973076 0
0.8298623 1.8979691 0.63919055 0
0.85384041 1.9308174 -0.049872987 0
0.82891911 1.918871 0.39823395 0
0.81703264 1.9131731 0.51309073 0
0.81255168 1.9110252 0.635014 0
0.8568905 1.9543139 -0.05033825 0
0.81034714 1.9312776 0.39536032 0
0.81268758 1.932436 0.51459771 0
0.81169921 1.9319469 0.63849026 0
0.83810788 1.9670321 -0.049943112 0
0.81710356 1.9563048 0.39976883 0
0.80322796 1.9492184 0.51429415 0
0.80347329 1.9493437 0.63868314 0
0.83233374 1.9862903 -0.05007669 0
0.80915481 1.9740821 0.4000569 0
0.80664891 1.9727623 0.518911 0
0.80123955 1.9699132 0.64178342 0
0.82392961 2.0042315 -0.050114159 0
0.80304831 1.9928954 0.40094653 0
0.79325384 1.9875782 0.51730561 0
0.79692799 1.9895728 0.64404774 0
0.8132115 2.0209124 -0.050066449 0
0.79275244 2.0094697 0.4006868 0
0.79298836 2.0096016 0.52076465 0
0.78201884 2.0034664 0.64141768 0
0.80192572 2.0372312 -0.050003629 0
0.78601915 2.0280697 0.40153533 0
0.78465003 2.0272813 0.52125549 0
0.77844471 2.0237074 0.64426756 0
0.79013366 2.0532019 -0.049927823 0
0.77827173 2.0461698 0.40215862 0
0.78153032 2.0481017 0.52385426 0
0.77630728 2.0450051 0.64795262 0
0.77359647 2.0662193 -0.049661372 0
0.77690369 2.0682366 0.40476108 0
0.77274185 2.0656979 0.52436566 0
0.77430075 2.066649 0.6518591 0
0.77193481 2.0883512 -0.050026633 0
0.75814527 2.0796998 0.40222976 0
0.7655732 2.0843601 0.52560401 0
0.76698428 2.0852454 0.6533339 0
0.75064749 2.0981333 -0.049572878 0
0.76350814 2.1064296 0.40704492 0
0.76313728 2.1061904 0.52881885 0
0.75339562 2.0999062 0.65184528 0
0.74504036 2.1179321 -0.049792249 0
0.75213569 2.1226368 0.40688002 0
0.74292034 2.1165264 0.52507204 0
0.74353534 2.1169343 0.65228766 0
0.73033601 2.1317236 -0.049631227 0
0.7434687 2.1406715 0.40761167 0
0.74270278 2.1401496 0.52939641 0
0.73305804 2.1335783 0.65253174 0
0.72365659 2.1509972 -0.049826037 0
0.72123915 2.1493051 0.40419656 0
0.73385185 2.1581333 0.53037339 0
0.72819012 2.1541703 0.65571833 0
0.71832699 2.1714141 -0.050092578 0
0.72842306 2.1786718 0.41002658 0
0.72155398 2.1737339 0.53003931 0
0.71542042 2.1693246 0.65503627 0
0.71409458 2.1928787 -0.050421659 0
0.70478135 2.1860042 0.40625262 0
0.70644552 2.1872325 0.52862072 0
0.70769948 2.188158 0.6570437 0
0.70277792 2.20927 -0.050448611 0
0.70249504 2.2090554 0.40930799 0
0.70346147 2.2097878 0.5323202 0
0.69594151 2.2040894 0.65709597 0
0.6743961 2.2124162 -0.049713284 0
0.69120055 2.2254865 0.40957519 0
0.69521219 2.2286067 0.53395605 0
0.69365197 2.2273934 0.66221982 0
0.66280025 2.2283013 -0.049739107 0
0.68627113 2.247036 0.41199011 0
0.67972678 2.2418122 0.53262848 0
0.68330926 2.2446718 0.66328388 0
0.65908867 2.2506716 -0.050138224 0
0.67220086 2.261411 0.4115046 0
0.67918843 2.267134 0.53778619 0
0.67215091 2.2613699 0.66403836 0
0.64254338 2.2626295 -0.049956188 0
0.66496092 2.2814667 0.41335014 0
0.65909225 2.2765355 0.53463751 0
0.66832513 2.2842937 0.66887945 0
0.62225145 2.2711926 -0.049602635 0
0.7216782 2.3568988 0.066289067 0
0.71878976 2.354409 0.18707447 0
0.71105224 2.3477392 0.30802625 0
0.64687258 2.2924161 0.41164628 0
0.65257806 2.2973342 0.53747195 0
0.65657145 2.3007765 0.66959667 0
0.61717886 2.2928839 -0.049975522 0
0.6868102 2.3544514 0.065293834 0
0.67235059 2.3416662 0.18241413 0
0.69119793 2.358331 0.30658513 0
0.63847572 2.3117144 0.41327059 0
0.64039534 2.3134117 0.53793651 0
0.63817638 2.3114498 0.66676551 0
0.60341877 2.3070555 -0.049947072 0
0.66581589 2.3636425 0.064954355 0
0.65801042 2.3565638 0.1823341 0
0.66232997 2.3604813 0.30296525 0
0.62465304 2.3263125 0.41312796 0
0.61952645 2.3216634 0.53459555 0
0.6347205 2.3354425 0.67232662 0
0.59479231 2.325979 -0.050177239 0
0.64669782 2.3742564 0.064707972 0
0.63879114 2.3669024 0.18156438 0
0.64286584 2.370692 0.30162549 0
0.60882121 2.3390274 0.41234732 0
0.6106016 2.3406832 0.53668904 0
0.60829455 2.3385375 0.66513491 0
0.57525152 2.3347206 -0.049883381 0
0.62004131 2.3774438 0.064093232 0
0.62371641 2.3809493 0.18142015 0
0.62050956 2.3778903 0.29958057 0
0.60422605 2.3623583 0.41557527 0
0.60156518 2.3598201 0.53886598 0
0.6005128 2.3588164 0.66854644 0
0.56771356 2.3549175 -0.050190791 0
0.61958712 2.4056604 0.064781457 0
0.6107102 2.3969769 0.18161152 0
0.60979122 2.3960781 0.30046916 0
0.58389193 2.3707433 0.4133302 0
0.5822354 2.369123 0.53639078 0
0.58486074 2.371691 0.66758877 0
0.54062742 2.3558164 -0.04952636 0
0.60547811 2.4208715 0.064805783 0
0.59551579 2.4108777 0.18150277 0
0.6097222 2.4251289 0.3041476 0
0.57308024 2.3883717 0.4145357 0
0.5719313 2.387219 0.53819233 0
0.57147378 2.38676 0.66804194 0
0.53241748 2.3754661 -0.049820684 0
0.60497361 2.4501076 0.065537006 0
0.60156828 2.4466043 0.18469538 0
0.60023695 2.4452348 0.30553165 0
0.56767112 2.4117329 0.41781518 0
0.56547803 2.4094768 0.54196346 0
0.55748397 2.401253 0.66825485 0
0.51958114 2.3905413 -0.04989161 0
0.60637766 2.4821115 0.06639602 0
0.61678177 2.4930878 0.18943159 0
0.62126952 2.4978223 0.31500065 0
0.5433355 2.415602 0.41422772 0
0.54723579 2.4197168 0.54021841 0
0.54503173 2.4173915 0.66950512 0
0.51114386 2.4104543 -0.05020481 0
0.54002541 2.4417031 0.41851252 0
0.53286153 2.4339521 0.54040807 0
0.53495425 2.4362164 0.67234433 0
0.49178991 2.4185879 -0.049953509 0
0.51556784 2.4449739 0.41492245 0
0.51870841 2.4484589 0.54079884 0
0.519247 2.4490566 0.67188716 0
0.47574231 2.4302211 -0.049882926 0
0.50033098 2.4582074 0.41486058 0
0.49797174 2.4555221 0.53796816 0
0.5018999 2.4599931 0.67049545 0
0.45937595 2.4414105 -0.049801789 0
0.48753044 2.4742808 0.41581818 0
0.48869833 2.4756441 0.54100341 0
0.48664245 2.473244 0.6705001 0
0.45331857 2.4648623 -0.050301459 0
0.4754965 2.4914248 0.41717547 0
0.47292539 2.4883454 0.5408414 0
0.47695825 2.4931755 0.67421228 0
0.43399224 2.4725723 -0.050074983 0
0.45608887 2.4997253 0.41566008 0
0.45936319 2.5037489 0.54192579 0
0.45710239 2.5009706 0.67147356 0
0.41414198 2.4793699 -0.049820319 0
0.44119254 2.5134785 0.41601533 0
0.44042382 2.5125091 0.54025155 0
0.44520566 2.5185387 0.67405921 0
0.40649322 2.5016682 -0.050278839 0
0.42259029 2.5224986 0.41490176 0
0.4208124 2.5201981 0.53824377 0
0.41962937 2.5186672 0.66757321 0
0.38433298 2.5052338 -0.049900237 0
0.41275582 2.5429878 0.41753647 0
0.41101936 2.5406811 0.54168624 0
0.41392341 2.5445387 0.67465752 0
0.36994573 2.5189531 -0.049987048 0
0.39299223 2.5503817 0.41604334 0
0.39111677 2.5478239 0.53964454 0
0.39210591 2.5491729 0.6708101 0
0.3537778 2.5302896 -0.049976531 0
0.38432601 2.5730674 0.41943607 0
0.37834737 2.5646954 0.54170126 0
0.37452856 2.5593476 0.66995633 0
0.33152017 2.5328598 -0.049593817 0
0.36009827 2.5739636 0.41606241 0
0.36022547 2.5741465 0.54079872 0
0.35993049 2.5737221 0.67133993 0
0.32057723 2.5516732 -0.049926702 0
0.34538826 2.5883353 0.41696313 0
0.34004018 2.5804327 0.53872448 0
0.33963826 2.5798388 0.6686756 0
0.3037177 2.5619347 -0.049897186 0
0.32293728 2.5911195 0.41437346 0
0.32625446 2.5961566 0.54052877 0
0.32982603 2.6015801 0.67390662 0
0.28831252 2.5744338 -0.049971808 0
0.30674776 2.60321 0.41471028 0
0.31020239 2.6086023 0.54109204 0
0.30420652 2.5992432 0.66731691 0
0.26863077 2.580174 -0.049769744 0
0.28769884 2.6107795 0.41374713 0
0.28895691 2.6127989 0.53849703 0
0.28881237 2.6125667 0.66857618 0
0.25972173 2.603431 -0.050310746 0
0.27101627 2.6220789 0.4139756 0
0.26924691 2.6191576 0.53686708 0
0.268096 2.6172574 0.66574115 0
0.2347606 2.6001751 -0.049754068 0
0.24694701 2.6208792 0.41056454 0
0.25502643 2.6346056 0.53885436 0
0.25185183 2.6292121 0.66654295 0
0.22211696 2.617677 -0.050068032 0
0.23625322 2.6424007 0.4139449 0
0.22995366 2.6313832 0.533741 0
0.2338527 2.6382024 0.66602296 0
0.19688787 2.6129725 -0.049479548 0
0.22199215 2.658191 0.41566867 0
0.2183627 2.6516535 0.53772348 0
0.21505989 2.6457043 0.66490942 0
0.18624224 2.6344652 -0.049970366 0
0.20397474 2.6673751 0.41551849 0
0.19696875 2.6543725 0.53510147 0
0.20205887 2.6638193 0.66890663 0
0.16772158 2.6416452 -0.049886815 0
0.17835982 2.6619985 0.41124308 0
0.18243058 2.6697867 0.53736389 0
0.18560298 2.6758561 0.6701147 0
0.15720613 2.6644988 -0.050440475 0
0.16106482 2.6721134 0.41151834 0
0.15805008 2.6661642 0.5325802 0
0.16005613 2.6701229 0.66316342 0
0.13442238 2.6632607 -0.050037809 0
0.14328827 2.6813164 0.41159481 0
0.14324082 2.6812198 0.534863 0
0.13938524 2.6733677 0.66054505 0
0.1187767 2.6763804 -0.050216507 0
0.12402954 2.6874273 0.41086069 0
0.12562765 2.6907883 0.53517967 0
0.11929759 2.6774757 0.65845776 0
0.095284842 2.6727576 -0.049743969 0
0.10405042 2.691807 0.40971291 0
0.10377356 2.6912055 0.53222448 0
0.099335216 2.68156 0.65648723 0
0.080225967 2.6872742 -0.04999448 0
0.083231352 2.6940281 0.40803924 0
0.083278798 2.694135 0.53030115 0
0.083178185 2.6939087 0.65838724 0
0.060838364 2.6921787 -0.049877483 0
0.063274287 2.697844 0.40689045 0
0.061799787 2.6944146 0.52752239 0
0.064688884 2.7011337 0.65805984 0
0.040853463 2.6954372 -0.049706943 0
0.045446716 2.7065017 0.40715483 0
0.043976746 2.702961 0.52783358 0
0.048838459 2.7146719 0.66066885 0
0.025554618 2.7100828 -0.049984869 0
0.024611553 2.7077277 0.40543729 0
0.024463257 2.7073572 0.52673662 0
0.024411222 2.7072272 0.65399569 0
0.0085101342 2.7207577 -0.050116904 0
0.0058044405 2.7137465 0.40511072 0
0.0059675188 2.714169 0.52659416 0
0.0046115131 2.7106555 0.65231705 0
-0.010551908 2.7262785 -0.050060213 0
-0.012540259 2.7209268 0.4051663 0
-0.010808029 2.7255893 0.52817082 0
-0.012325563 2.7215044 0.65403438 0
-0.03224168 2.7243347 -0.049729902 0
-0.03033779 2.7296638 0.40570623 0
-0.03596846 2.713903 0.52165186 0
-0.034777559 2.7172363 0.64919138 0
-0.051729716 2.7280993 -0.049626809 0
-0.049792029 2.7337465 0.40504897 0
-0.051479496 2.7288284 0.52463311 0
-0.050783075 2.7308583 0.65232438 0
-0.065324046 2.7495496 -0.050198104 0
-0.070668913 2.733309 0.40324622 0
-0.074793585 2.7207758 0.51962245 0
-0.07316146 2.7257352 0.64736181 0
-0.084159322 2.7557237 -0.050201721 0
-0.092497416 2.7292707 0.40055788 0
-0.0929612 2.7277994 0.51999331 0
-0.093988486 2.7245402 0.64424682 0
-0.10178576 2.765928 -0.050364468 0
-0.11285532 2.7292027 0.39901105 0
-0.11325455 2.7278783 0.51802927 0
-0.11202321 2.7319634 0.64498401 0
-0.12446848 2.758986 -0.049897898 0
-0.10579715 2.8238776 0.064308606 0
-0.10555349 2.8247244 0.18161736 0
-0.10316414 2.8330286 0.30226919 0
-0.13165714 2.7340019 0.39883018 0
-0.1316786 2.7339275 0.51822788 0
-0.13185166 2.733326 0.6432054 0
-0.1424291 2.7680359 -0.050035533 0
-0.13199784 2.8060858 0.063444093 0
-0.13395001 2.798965 0.17812674 0
-0.13563432 2.7928212 0.29370412 0
-0.15010129 2.7400501 0.39904305 0
-0.1502067 2.7396655 0.51839858 0
-0.15106429 2.7365372 0.64233404 0
-0.16256599 2.7691336 -0.049887691 0
-0.15574093 2.7953181 0.062853739 0
-0.15734701 2.7891564 0.17645885 0
-0.1580915 2.7863002 0.29152176 0
-0.17105381 2.7365701 0.39680445 0
-0.17137752 2.735328 0.51518506 0
-0.17181523 2.7336488 0.63895929 0
-0.18194927 2.7728581 -0.049846239 0
-0.17731987 2.7915816 0.062534824 0
-0.17753677 2.7907043 0.17608604 0
-0.17833047 2.7874942 0.29083207 0
-0.19095655 2.7364283 0.39551952 0
-0.18802644 2.7482789 0.51799792 0
-0.19240998 2.7305498 0.63561684 0
-0.19781263 2.7915149 -0.050361373 0
-0.19677554 2.795948 0.062523924 0
-0.19783963 2.7913992 0.17564829 0
-0.19801773 2.790638 0.29055282 0
-0.20857017 2.7455285 0.39672577 0
-0.21194853 2.7310867 0.51057512 0
-0.20976682 2.740413 0.63790643 0
-0.22074999 2.7798176 -0.049772639 0
-0.21496524 2.80603 0.062730975 0
-0.21692751 2.7971385 0.17579503 0
-0.21655338 2.7988336 0.29125321 0
-0.22812213 2.7464123 0.39583999 0
-0.23020141 2.7369905 0.5111444 0
-0.22963588 2.739553 0.63573581 0
-0.24072607 2.7803621 -0.049642347 0
-0.23667534 2.7998822 0.06235408 0
-0.23390014 2.8132553 0.1771069 0
-0.23486026 2.8086288 0.29228941 0
-0.25012833 2.735054 0.39183089 0
-0.25147894 2.7285457 0.50691509 0
-0.25094056 2.7311399 0.63048291 0
-0.25761256 2.7963331 -0.050082579 0
-0.25316504 2.8192091 0.06291458 0
-0.25305271 2.8197868 0.17738955 0
-0.25373584 2.816273 0.29297036 0
-0.26892886 2.7381268 0.39165449 0
-0.27142748 2.725275 0.50454068 0
-0.26909614 2.7372665 0.6314888 0
-0.276703 2.8019102 -0.050152414 0
-0.26616642 2.8600011 0.06426017 0
-0.2663039 2.8592429 0.18129405 0
-0.2660518 2.8606329 0.30042297 0
-0.28592607 2.7510612 0.39409694 0
-0.28984657 2.7294464 0.50477308 0
-0.29088721 2.7237093 0.62430596 0
-0.29675049 2.80212 -0.05003649 0
-0.30486521 2.7539341 0.39398658 0
-0.3106021 2.7198682 0.50044435 0
-0.3097963 2.724653 0.6233421 0
-0.31633055 2.8048244 -0.050020058 0
-0.32651559 2.7393186 0.38942251 0
-0.32971939 2.718713 0.49904829 0
-0.32877871 2.7247629 0.62213069 0
-0.33548638 2.8104436 -0.050117664 0
-0.34538433 2.7410383 0.38914686 0
-0.34773615 2.7245471 0.50008452 0
-0.34692261 2.730252 0.62327111 0
-0.35536745 2.811034 -0.050042763 0
-0.36563957 2.7318873 0.38613605 0
-0.36694971 2.7217927 0.49831387 0
-0.36755425 2.7171347 0.61673695 0
-0.3764751 2.8007133 -0.049584784 0
-0.38515213 2.7265525 0.38417551 0
-0.38486117 2.729039 0.49997678 0
-0.38589731 2.7201834 0.61705965 0
-0.39432201 2.8185837 -0.050148863 0
-0.40340677 2.7314453 0.38490421 0
-0.40469456 2.7190933 0.49596241 0
-0.40461785 2.7198291 0.61606157 0
-0.41474983 2.8126597 -0.049867317 0
-0.42294186 2.7231729 0.38231802 0
-0.42361698 2.7157981 0.4942579 0
-0.42257246 2.7272079 0.61837786 0
-0.43293899 2.8326371 -0.050522842 0
-0.44249758 2.7114294 0.37890908 0
-0.44218752 2.7153609 0.49358842 0
-0.44296429 2.7055113 0.60871023 0
-0.45408034 2.815068 -0.049842637 0
-0.46089152 2.7121856 0.37876201 0
-0.46145543 2.7036674 0.48924449 0
-0.46111214 2.708853 0.6095466 0
-0.47354409 2.8199067 -0.04997354 0
-0.47963262 2.7062442 0.37696302 0
-0.48018226 2.6959827 0.48631993 0
-0.48074651 2.6854494 0.59938782 0
-0.49320859 2.8221765 -0.050021347 0
-0.49780896 2.7098255 0.37765682 0
-0.49881575 2.6852379 0.48245648 0
-0.49896207 2.6816642 0.59746635 0
-0.51293159 2.8236814 -0.050050665 0
-0.51610959 2.7115417 0.37793279 0
-0.51676512 2.6884115 0.48330492 0
-0.5170331 2.6789558 0.59608656 0
-0.53280807 2.8169503 -0.049794778 0
-0.5348894 2.6847367 0.37098995 0
-0.53508145 2.6725349 0.47788984 0
-0.53485429 2.6869645 0.59923911 0
-0.55245602 2.8264711 -0.050128043 0
-0.55287302 2.6940486 0.37332231 0
-0.55294746 2.6704106 0.47712693 0
-0.5529207 2.6789219 0.59583867 0
-0.57229787 2.8313017 -0.050302736 0
-0.57082742 2.6755767 0.36862385 0
-0.57080412 2.6731062 0.47804245 0
-0.57080811 2.673532 0.59363031 0
-0.59189951 2.8194962 -0.049892318 0
-0.58871585 2.6750314 0.36855659 0
-0.58833283 2.6576498 0.47299251 0
-0.58852851 2.6665311 0.59084743 0
-0.61159325 2.8186219 -0.049881034 0
-0.60645199 2.6701984 0.3674522 0
-0.60599411 2.6569793 0.472936 0
-0.60595632 2.6558897 0.58664763 0
-0.63138825 2.8199918 -0.049958814 0
-0.62354422 2.6539879 0.36349812 0
-0.62327766 2.6483476 0.47030184 0
-0.62313193 2.645263 0.5825423 0
-0.65119326 2.8205593 -0.050016865 0
-0.64118302 2.6533871 0.3635858 0
-0.64035648 2.6395841 0.46769434 0
-0.64007819 2.6349363 0.57864803 0
-0.64052194 2.6423476 0.70172924 0
-0.67037028 2.8118587 -0.049752142 0
-0.65760458 2.6358457 0.35939685 0
-0.6569593 2.6269484 0.46386445 0
-0.65721285 2.630444 0.57726073 0
-0.65719944 2.6302593 0.69624525 0
-0.69041723 2.8155315 -0.04993913 0
-0.6729905 2.610985 0.4589892 0
-0.67381507 2.6206636 0.57376415 0
-0.67348742 2.6168177 0.6901812 0
-0.71153718 2.8287799 -0.050478891 0
-0.68969196 2.6056285 0.45772099 0
-0.69018596 2.6106744 0.57026327 0
-0.68944895 2.6031458 0.68409699 0
-0.72923303 2.807584 -0.049791742 0
-0.70654124 2.6024561 0.56758106 0
-0.70714104 2.6078782 0.68737 0
-0.7489723 2.806881 -0.049848706 0
-0.72349274 2.6003795 0.56754267 0
-0.72297567 2.596189 0.68248171 0
-0.76894259 2.8075538 -0.049964294 0
-0.73773289 2.578392 0.67460126 0
-0.78828901 2.8034661 -0.049917333 0
-0.75407755 2.5739181 0.67353982 0
-0.80617005 2.7905173 -0.049558595 0
-0.82918644 2.808383 -0.050324045 0
-0.84614801 2.7910831 -0.049824387 0
-0.86575294 2.7887096 -0.049874786 0
-0.88613206 2.7897677 -0.050059609 0
-0.90291512 2.7744024 -0.04965305 0
-0.92674297 2.7895327 -0.050372805 0
-0.94256103 2.7710454 -0.049867615 0
-0.96227932 2.768512 -0.049957648 0
-0.98123473 2.7630165 -0.049947355 0
-1.0019381 2.7634697 -0.050167285 0
-1.0180286 2.7484233 -0.049818743 0
-1.0367436 2.7423155 -0.049811631 0
-1.0566289 2.739696 -0.049944732 0
-1.0740641 2.7297859 -0.049812082 0
-1.0951622 2.7301927 -0.050079174 0
-1.1136715 2.7232227 -0.050076041 0
-1.1248268 2.6975453 -0.049364176 0
-1.1447539 2.6947012 -0.049534384 0
-1.1682203 2.6999166 -0.050027575 0
-1.1818268 2.6817172 -0.049622547 0
-1.2022463 2.6792583 -0.049838718 0
-1.2233009 2.6777897 -0.050105304 0
-1.2342447 2.6549585 -0.049536947 0
-1.2579226 2.6585448 -0.050024472 0
-1.2726047 2.6438947 -0.049794856 0
-1.2933407 2.6409903 -0.050045889 0
-1.3111838 2.6324215 -0.05007875 0
-1.3245448 2.615844 -0.04979283 0
-1.3388109 2.6012225 -0.049592476 0
-1.3688986 2.6133678 -0.050511036 0
-1.3812045 2.5953236 -0.050187621 0
-1.3929491 2.576812 -0.049848408 0
-1.4132241 2.5718668 -0.050090216 0
-1.4294893 2.5606024 -0.050073728 0
-1.4484692 2.5533106 -0.050237905 0
-1.4635887 2.5403337 -0.050165657 0
-1.4794314 2.5284379 -0.050148737 0
-1.4903672 2.5099528 -0.049847409 0
-1.5117505 2.5055099 -0.050179854 0
-1.5229936 2.4877291 -0.04992298 0
-1.5436717 2.4819767 -0.050220802 0
-1.5526341 2.4616764 -0.049860623 0
-1.5696427 2.4512789 -0.049964868 0
-1.5850292 2.438895 -0.049986426 0
-1.6016946 2.4279203 -0.050084788 0
-1.6195933 2.4181898 -0.050254501 0
-1.6289228 2.3991239 -0.0499807 0
-1.6421965 2.3844416 -0.049926266 0
-1.655326 2.369663 -0.049874663 0
-1.6737901 2.3602157 -0.05010118 0
-1.6828316 2.34144 -0.049863189 0
-1.7007265 2.3312299 -0.050073888 0
-1.716681 2.3190315 -0.050194371 0
-1.7281619 2.3027089 -0.050106518 0
-1.7370067 2.284163 -0.049904488 0
-1.7482778 2.2678649 -0.049829368 0
-1.7654994 2.2565684 -0.050040629 0
-1.7751492 2.2389538 -0.049908683 0
-1.220906 1.7908082 0.51202273 0
-1.7893701 2.2250555 -0.049995936 0
-1.2360501 1.7890632 0.5183965 0
-1.7996149 2.2080231 -0.049911309 0
-1.2236018 1.7657907 0.50409538 0
-1.8190392 2.197927 -0.050246324 0
-1.2357718 1.761687 0.50837785 0
-1.8234466 2.1765952 -0.04992063 0
-1.2289296 1.7435066 0.49870992 0
-1.8301581 2.1571755 -0.049710494 0
-1.2382243 1.7372743 0.50102824 0
-1.8442035 2.1429973 -0.049831036 0
-1.2391766 1.725159 0.49737078 0
-1.8543321 2.1260798 -0.04978979 0
-1.237516 1.7114726 0.49198651 0
-1.869172 2.1122749 -0.049958982 0
-1.2409303 1.7013767 0.4903653 0
-1.8830087 2.0976868 -0.050091766 0
-1.2333089 1.6843393 0.48108974 0
-1.8874302 2.0771599 -0.049835999 0
-1.2385056 1.6756932 0.48097521 0
-1.8973291 2.0601337 -0.049821161 0
-1.2452898 1.6680056 0.48203588 0
-1.9103272 2.0449274 -0.049943481 0
-1.236622 1.6512343 0.47254163 0
-1.9292148 2.0329609 -0.05031459 0
-1.2411253 1.6424007 0.47224131 0
-1.9241729 2.0075054 -0.049713857 0
-1.2436622 1.6324962 0.47068715 0
-1.9393957 1.9933634 -0.0499506 0
-1.9486763 1.975948 -0.049954012 0
-1.9632834 1.9612044 -0.050179038 0
-1.9623197 1.9386958 -0.049791738 0
-1.975517 1.9231647 -0.049976926 0
-1.9908042 1.9084404 -0.050250765 0
-2.0034728 1.8923461 -0.050428163 0
-1.9979928 1.8683765 -0.049908161 0
-2.0042591 1.8496331 -0.049855996 0
-1.9969628 1.8255444 -0.049292251 0
-2.0020528 1.8066132 -0.049216259 0
-2.0035172 1.7864017 -0.049011778 0
-1.9980413 1.7638854 -0.048555054 0
-1.9989566 1.7438763 -0.048351958 0
-2.0013616 1.7244998 -0.04821511 0
-2.007796 1.7064775 -0.048238631 0
-1.9997463 1.6841186 -0.047730953 0
-1.9948666 1.6630301 -0.047353219 0
-2.000144 1.6449648 -0.047362287 0
-1.9995775 1.6253861 -0.047164295 0
-1.9943891 1.6048207 -0.046806142 0
-1.9906509 1.5848461 -0.046511665 0
-1.9936249 1.5665401 -0.046472423 0
-2.001745 1.5493104 -0.046629202 0
-2.0041375 1.5308703 -0.046585325 0
-2.0027306 1.5117818 -0.046412189 0
-2.0016112 1.4928616 -0.046258532 0
-2.0010815 1.4741379 -0.046135072 0
-1.9935154 1.4545183 -0.045766696 0
-1.9900033 1.4356709 -0.045553695 0
-1.9953624 1.4179813 -0.045668293 0
-1.9987466 1.4000081 -0.045719877 0
-2.0105634 1.3827405 -0.046081737 0
-2.0015862 1.3636402 -0.045706555 0
-2.0006866 1.3453113 -0.045629237 0
-2.0004551 1.3270677 -0.045584098 0
-1.9942917 1.308629 -0.045335259 0
-2.0031385 1.2907411 -0.045630854 0
-1.9997157 1.2724873 -0.045496363 0
-1.9920307 1.2543254 -0.045217916 0
-1.1382357 0.26436791 -0.050078806 0
-0.39198726 0.26436988 0.41854537 0
-0.38657576 0.2643699 0.49177635 0
-1.1297847 0.24469477 -0.04978152 0
-0.39802665 0.25391117 0.42160007 0
-1.1408284 0.22473718 -0.050189186 0
-0.41007733 0.24314559 0.35498556 0
-0.40003884 0.24339846 0.42270604 0
-1.1387571 0.2049844 -0.050137471 0
-0.50496328 0.22893879 0.10682502 0
-0.51876342 0.22841722 0.17768925 0
-1.2441722 0.2010002 0.43408903 0
-1.2325259 0.20144036 0.56035405 0
-1.238873 0.20120049 0.69852012 0
-1.1372474 0.18523666 -0.050114688 0
-0.51658469 0.21652518 0.10813155 0
-0.51485878 0.21661219 0.17707954 0
-1.246765 0.17971572 0.43498918 0
-1.2369652 0.18020974 0.56214076 0
-1.2352418 0.18029663 0.69739944 0
-1.1341145 0.16560422 -0.050042715 0
-0.50592619 0.20520754 0.1070568 0
-0.50534874 0.20524395 0.17548326 0
-1.2359641 0.15918326 0.43253455 0
-1.2337959 0.15931995 0.56148165 0
-1.1326478 0.14589344 -0.050039168 0
-0.50414193 0.19346881 0.10695279 0
-0.51318288 0.19278444 0.17704827 0
-1.2351158 0.13813701 0.43269023 0
-1.2362291 0.13805275 0.56277883 0
-1.1278154 0.12647945 -0.049923886 0
-0.51696265 0.18046199 0.10844032 0
-0.50030363 0.18193419 0.17489323 0
-1.2316562 0.11730278 0.43224511 0
-1.2496688 0.11571097 0.56784302 0
-1.1200424 0.10744125 -0.049711712 0
-0.50731581 0.1693739 0.10752056 0
-0.50827289 0.16927716 0.17653936 0
-1.2392954 0.095387526 0.43471271 0
-1.2343543 0.095886953 0.56339252 0
-1.1232903 0.087296225 -0.049903836 0
