# .PCD v0.7 - Point Cloud Data file format
VERSION 0.7
FIELDS x y z intensity
SIZE 4 4 4 4
TYPE F F F F
COUNT 1 1 1 1
WIDTH 1313
HEIGHT 1
VIEWPOINT 0 0 0 1 0 0 0
POINTS 1313
DATA ascii
-0.61889625 -1.6371609 -0.089622356 0
-0.70966089 -1.7320251 -0.092642538 0
-0.80445749 -1.8311034 -0.090508886 0
-0.93568486 -1.9682581 -0.089437447 0
-1.1321689 -2.1736169 -0.090596251 0
-1.4186475 -2.4730351 -0.090703018 0
-1.8884737 -2.9640822 -0.090098716 0
-3.5811303 -4.7331915 -0.14025395 0
-7.1850653 -8.4999075 -0.14070958 0
-0.60668182 -1.6573542 -0.090989985 0
-0.68685061 -1.7454923 -0.091566451 0
-0.78512388 -1.8535348 -0.091037102 0
-0.91506875 -1.9963973 -0.090352722 0
-1.1039473 -2.2040517 -0.090947248 0
-1.3825384 -2.5103371 -0.090949811 0
-1.8465109 -3.020432 -0.090978153 0
-3.4968789 -4.8348594 -0.14103931 0
-6.9954948 -8.6812658 -0.1407862 0
-0.58926904 -1.6720529 -0.090871833 0
-0.66802138 -1.7631491 -0.091701649 0
-0.75991845 -1.8694506 -0.090245612 0
-0.88838673 -2.0180554 -0.090142109 0
-1.0736272 -2.2323315 -0.091069005 0
-1.3404416 -2.5409675 -0.090481825 0
-1.7891543 -3.0600133 -0.090388007 0
-3.395211 -4.91781 -0.14078824 0
-6.7974267 -8.853303 -0.14072345 0
-0.56409407 -1.6772795 -0.088272877 0
-0.64539623 -1.7762672 -0.090844907 0
-0.744542 -1.89698 -0.092077143 0
-0.86855191 -2.0479658 -0.091560312 0
-1.0404284 -2.2572303 -0.090793945 0
-1.3042918 -2.5784917 -0.090985887 0
-1.7403095 -3.1093559 -0.090825446 0
-3.2822452 -4.9867072 -0.139852 0
-6.593884 -9.0187235 -0.14061496 0
-0.55395585 -1.700806 -0.090830632 0
-0.63254267 -1.8015676 -0.093052559 0
-0.720236 -1.9140052 -0.091765322 0
-0.83538359 -2.0616436 -0.090148054 0
-1.0070519 -2.2817514 -0.090593733 0
-1.2604176 -2.6066089 -0.090475671 0
-1.6894799 -3.156739 -0.091191031 0
-3.1920352 -5.0832667 -0.14073721 0
-6.3925166 -9.1868219 -0.14074057 0
-0.53168166 -1.70898 -0.089349471 0
-0.60255539 -1.8047397 -0.09011095 0
-0.6903379 -1.9233453 -0.090014599 0
-0.81466162 -2.0913229 -0.091707356 0
-0.9764508 -2.3099213 -0.091051422 0
-1.2244172 -2.6449564 -0.091292761 0
-1.6283139 -3.1906734 -0.090492867 0
-3.0897501 -5.1652641 -0.14089577 0
-6.1824641 -9.3439255 -0.14069425 0
-0.51887316 -1.7300555 -0.091391899 0
-0.58281231 -1.8211663 -0.090446569 0
-0.67021424 -1.9457108 -0.091062762 0
-0.78446412 -2.1085126 -0.091185637 0
-0.94331056 -2.3348627 -0.091151468 0
-1.1823779 -2.675525 -0.091313042 0
-1.5795891 -3.2415361 -0.091385774 0
-2.9779589 -5.2341599 -0.14045464 0
-5.9724035 -9.5011311 -0.14080366 0
-0.49300539 -1.7323875 -0.088699512 0
-0.56346059 -1.8383734 -0.09106683 0
-0.64284456 -1.9577911 -0.090164818 0
-0.74353993 -2.1092675 -0.088028915 0
-0.91173923 -2.3622901 -0.091717102 0
-1.1330353 -2.6951866 -0.090230487 0
-1.5226401 -3.2812705 -0.091433831 0
-2.8756826 -5.3166566 -0.14094022 0
-5.7558637 -9.6493225 -0.14080888 0
-0.4781521 -1.7510583 -0.090317629 0
-0.53782004 -1.8459249 -0.089638419 0
-0.62354755 -1.9822236 -0.091814511 0
-0.71924663 -2.1343763 -0.089138009 0
-0.8730005 -2.3788304 -0.090881608 0
-1.0917213 -2.7265761 -0.090596609 0
-1.460171 -3.3123767 -0.090888225 0
-2.7640646 -5.3854451 -0.14080742 0
-5.531044 -9.7846832 -0.14061296 0
-0.45874041 -1.762839 -0.090301387 0
-0.51402175 -1.8558592 -0.088896252 0
-0.5876115 -1.9796861 -0.088377275 0
-0.69018537 -2.1522837 -0.0891544 0
-0.8363803 -2.3982811 -0.090588205 0
-1.0471188 -2.7528839 -0.090519644 0
-1.3987936 -3.3446355 -0.090573676 0
-2.6481369 -5.4468637 -0.14043123 0
-5.3097582 -9.9254856 -0.1407218 0
-0.43596274 -1.7686375 -0.08894787 0
-0.49613732 -1.8759683 -0.090492256 0
-0.56916106 -2.0062175 -0.090637557 0
-0.66092813 -2.1698983 -0.089242391 0
-0.7946732 -2.4084535 -0.089180462 0
-1.0018919 -2.7780604 -0.090444036 0
-1.3446633 -3.3894467 -0.091394655 0
-2.5357623 -5.513957 -0.1405205 0
-5.0840707 -10.059261 -0.14079179 0
-0.42097986 -1.7885433 -0.091142319 0
-0.4701176 -1.8816184 -0.089084364 0
-0.53934526 -2.012747 -0.089237787 0
-0.6364221 -2.1966267 -0.090895735 0
-0.76151305 -2.4335697 -0.089906432 0
-0.95865649 -2.8069921 -0.090887122 0
-1.2794738 -3.4146736 -0.09076532 0
-1.9176511 -4.623487 -0.090348817 0
-4.8608212 -10.198339 -0.14115104 0
-0.39919531 -1.7959431 -0.090432353 0
-0.449617 -1.8975818 -0.090001367 0
-0.51745468 -2.0343273 -0.090755619 0
-0.60214448 -2.2050426 -0.089753352 0
-0.71993041 -2.4424722 -0.088617973 0
-0.91131461 -2.8282592 -0.090640537 0
-1.2214261 -3.4533739 -0.091324516 0
-1.8264774 -4.6730194 -0.090467326 0
-4.6163073 -10.296682 -0.14059579 0
-0.38219091 -1.813257 -0.092184402 0
-0.43085942 -1.9179145 -0.091923393 0
-0.4904272 -2.04601 -0.090562604 0
-0.57336247 -2.2243555 -0.090448119 0
-0.68959409 -2.4743018 -0.090435751 0
-0.86391836 -2.8491716 -0.09048406 0
-1.161757 -3.4896488 -0.091803841 0
-1.7333874 -4.7188921 -0.090515442 0
-4.3829188 -10.416488 -0.14075659 0
-0.35774043 -1.8145207 -0.090297379 0
-0.4070498 -1.9279575 -0.091809027 0
-0.45976216 -2.0492232 -0.088976778 0
-0.538791 -2.23103 -0.089310579 0
-0.65049464 -2.4880059 -0.09002196 0
-0.82087564 -2.8799698 -0.091457896 0
-1.0926945 -3.5052934 -0.090820767 0
-1.6414492 -4.7677112 -0.090832554 0
-4.1394124 -10.514312 -0.1405085 0
-0.3379356 -1.8261005 -0.090937622 0
-0.3794826 -1.9286848 -0.089925505 0
-0.4346633 -2.0649323 -0.089760862 0
-0.51011217 -2.2512245 -0.090367533 0
-0.61251342 -2.5040653 -0.090034477 0
-0.77286536 -2.8999929 -0.091446705 0
-1.0291563 -3.5328054 -0.090874992 0
-1.5463217 -4.8097472 -0.090922914 0
-3.9061685 -10.636485 -0.14102876 0
-0.31617144 -1.8329412 -0.090609722 0
-0.35731724 -1.9423944 -0.090812735 0
-0.40763697 -2.0762515 -0.089878477 0
-0.47377706 -2.2521927 -0.088637181 0
-0.57275969 -2.5154994 -0.089589678 0
-0.72333503 -2.9160495 -0.091161512 0
-0.96344584 -3.5547755 -0.090635143 0
-1.4476745 -4.8428869 -0.09068995 0
-3.6571295 -10.720325 -0.14073889 0
-0.29480118 -1.8407228 -0.0906206 0
-0.33358869 -1.952378 -0.091061391 0
-0.38074178 -2.0881147 -0.090208985 0
-0.44362238 -2.2691252 -0.089434035 0
-0.54063779 -2.5483975 -0.091929071 0
-0.67081356 -2.9231265 -0.090115629 0
-0.89884514 -3.5795472 -0.090728022 0
-1.3462812 -4.8675537 -0.090164714 0
-3.4111512 -10.811567 -0.14078918 0
-0.27210286 -1.844402 -0.089836828 0
-0.30760136 -1.9555614 -0.090082385 0
-0.35364354 -2.0997372 -0.090612926 0
-0.41048858 -2.2777407 -0.089110263 0
-0.49620414 -2.5461493 -0.090037547 0
-0.62107348 -2.9371634 -0.089890517 0
-0.83159685 -3.5963931 -0.090358682 0
-1.2518624 -4.9124064 -0.090755798 0
-3.1616924 -10.892818 -0.14074737 0
-0.25069627 -1.8518958 -0.090030812 0
-0.28827825 -1.9807085 -0.09354911 0
-0.32457048 -2.1051004 -0.090059824 0
-0.37687907 -2.2843885 -0.08862371 0
-0.45786089 -2.5619547 -0.090494923 0
-0.57726854 -2.9712257 -0.091736726 0
-0.76594651 -3.6179216 -0.090457134 0
-1.155445 -4.9529319 -0.091248713 0
-2.9118385 -10.972989 -0.14083275 0
-0.22981147 -1.8615983 -0.090828337 0
-0.25769472 -1.9669892 -0.089515738 0
-0.29598865 -2.1117296 -0.089850806 0
-0.34733629 -2.3058093 -0.090411671 0
-0.41928753 -2.577765 -0.091067262 0
-0.5249691 -2.977212 -0.090966962 0
-0.69996518 -3.6386485 -0.090617202 0
-1.0519845 -4.9691839 -0.090687029 0
-2.6567121 -11.034608 -0.14062361 0
-0.20752543 -1.8662878 -0.090641387 0
-0.2348084 -1.981046 -0.091033883 0
-0.26919493 -2.1256833 -0.091002651 0
-0.31215045 -2.3063636 -0.089282788 0
-0.38013375 -2.5923162 -0.091602229 0
-0.47539961 -2.9930253 -0.091271691 0
-0.63253981 -3.6539915 -0.090509497 0
-0.94627404 -4.9736266 -0.089688949 0
-2.402976 -11.100835 -0.14068024 0
-0.18753466 -1.8816986 -0.092907183 0
-0.21059144 -1.9908501 -0.091836788 0
-0.24188796 -2.1390085 -0.092156731 0
-0.27839324 -2.3118255 -0.088992767 0
-0.33947551 -2.6009905 -0.091550745 0
-0.42316133 -2.9971616 -0.090580501 0
-0.56572896 -3.6720805 -0.090720497 0
-0.84720081 -5.0045757 -0.090084724 0
-2.145205 -11.149363 -0.14046857 0
-0.16313019 -1.8762894 -0.090771116 0
-0.18522705 -1.9957246 -0.091809087 0
-0.21059336 -2.1328313 -0.090161286 0
-0.24439116 -2.315511 -0.088572271 0
-0.29816157 -2.606144 -0.09120328 0
-0.36998504 -2.9943554 -0.089358978 0
-0.49771667 -3.6847546 -0.090665735 0
-0.94279915 -6.0904589 -0.14054288 0
-1.8897388 -11.20874 -0.14066865 0
-0.14013544 -1.8766091 -0.090009533 0
-0.15970668 -1.9996758 -0.091727741 0
-0.18106215 -2.1339617 -0.089521624 0
-0.21252529 -2.3318062 -0.090070225 0
-0.25693542 -2.611063 -0.090953119 0
-0.32044947 -3.010448 -0.090055652 0
-0.43022746 -3.7007468 -0.090967841 0
-0.8146643 -6.1181369 -0.14080167 0
-1.631653 -11.255471 -0.14072233 0
-0.11892805 -1.8890827 -0.091981493 0
-0.13409227 -2.0028806 -0.091627501 0
-0.15135162 -2.132401 -0.088561751 0
-0.17895789 -2.3395686 -0.090467609 0
-0.21712862 -2.6260154 -0.092009746 0
-0.26826504 -3.0097618 -0.089287959 0
-0.36184451 -3.7120161 -0.091056205 0
-0.68572509 -6.1425333 -0.14105761 0
-1.3724205 -11.295746 -0.14077745 0
-0.09527719 -1.8833677 -0.090174146 0
-0.10825551 -2.0039227 -0.091240473 0
-0.12239247 -2.1352403 -0.088455923 0
-0.14464699 -2.3419616 -0.090224914 0
-0.17404942 -2.6150794 -0.090138622 0
-0.21758305 -3.0194614 -0.089621209 0
-0.29189163 -3.7097104 -0.090311371 0
-0.55503792 -6.1540642 -0.14086309 0
-1.1110135 -11.318499 -0.14057592 0
-0.073240772 -1.892235 -0.091608129 0
-0.082507104 -2.0049746 -0.090979435 0
-0.094074361 -2.1457083 -0.089729048 0
-0.11017553 -2.3416045 -0.089717202 0
-0.1340863 -2.6325169 -0.091726296 0
-0.16658698 -3.0279388 -0.089959241 0
-0.22365485 -3.7222595 -0.090734057 0
-0.42386812 -6.1581693 -0.14047633 0
-0.85115629 -11.356803 -0.1408917 0
-0.049561407 -1.8784493 -0.088335596 0
-0.056695811 -2.0039766 -0.090454809 0
-0.064311422 -2.1379704 -0.088121079 0
-0.076315723 -2.3491819 -0.090449654 0
-0.081136815 -2.4340072 -0.068150707 0
-0.081014596 -2.4318569 -0.033896375 0
-0.081342809 -2.4376316 -0.00044557988 0
-0.080442019 -2.4217825 0.034173686 0
-0.081601836 -2.4421892 0.067135379 0
-0.081314191 -2.4371281 0.1010118 0
-0.027614556 -1.8954005 -0.091729619 0
-0.030849773 -1.9979392 -0.089103766 0
-0.03599029 -2.1608653 -0.091675021 0
-0.040598977 -2.3069353 -0.084296279 0
-0.040852625 -2.3149745 -0.05404358 0
-0.040629756 -2.3079109 -0.022171153 0
-0.040427148 -2.3014894 0.0091898013 0
-0.040621985 -2.3076646 0.039563492 0
-0.04061522 -2.3074503 0.070307389 0
-0.040944405 -2.3178835 0.10100835 0
-0.0047209929 -1.8922712 -0.090972401 0
-0.0054064291 -2.0009468 -0.0895795 0
-0.0062867464 -2.1405208 -0.088239335 0
-0.0066944826 -2.2051673 -0.069905587 0
-0.0066763493 -2.2022922 -0.040799726 0
-0.0067313416 -2.2110114 -0.013067542 0
-0.0067151017 -2.2084365 0.015739033 0
-0.0066961967 -2.2054391 0.04435198 0
-0.006737615 -2.2120059 0.072541192 0
-0.0066620857 -2.2000308 0.10100497 0
0.018053971 -1.891605 -0.090861343 0
0.02027072 -2.0087147 -0.091073208 0
0.023090556 -2.157685 -0.09109094 0
0.023763016 -2.1932108 -0.068252198 0
0.023949653 -2.2030709 -0.040913317 0
0.023777293 -2.1939652 -0.011494314 0
0.024134926 -2.2128587 0.015416244 0
0.023861036 -2.1983893 0.04467123 0
0.023836967 -2.1971176 0.072882891 0
0.023943778 -2.2027605 0.10100505 0
0.040328365 -1.8798796 -0.088519342 0
0.045402609 -1.9947102 -0.088585831 0
0.052653432 -2.158797 -0.091426842 0
0.055082962 -2.2137775 -0.071280144 0
0.054508705 -2.2007818 -0.040758569 0
0.054829393 -2.208039 -0.01289886 0
0.053868502 -2.1862941 0.017207028 0
0.054183118 -2.193414 0.044858232 0
0.054558016 -2.2018979 0.072749265 0
0.054450117 -2.1994562 0.10100498 0
0.063177854 -1.8842376 -0.089719929 0
0.071596824 -2.0053644 -0.090869494 0
0.081261836 -2.1444185 -0.089334168 0
0.085733183 -2.2087493 -0.070819028 0
0.085694574 -2.2081938 -0.041830335 0
0.084838599 -2.1958785 -0.011924496 0
0.085567117 -2.2063599 0.01568062 0
0.084291704 -2.1880102 0.045029867 0
0.085301906 -2.2025442 0.072693691 0
0.085455865 -2.2047594 0.10100518 0
0.086920336 -1.8948365 -0.092378892 0
0.096980549 -2.0008328 -0.090410449 0
0.11089552 -2.1474435 -0.090228729 0
0.11615069 -2.2028129 -0.070337735 0
0.11584064 -2.1995461 -0.041111622 0
0.11530414 -2.1938937 -0.011972791 0
0.11699507 -2.2117095 0.015127862 0
0.11516262 -2.1924024 0.044708319 0
0.11535493 -2.1944287 0.072824523 0
0.11664014 -2.2079699 0.10100535 0
0.10912084 -1.8872325 -0.091276906 0
0.12345823 -2.0062759 -0.091963716 0
0.13846684 -2.130892 -0.088008963 0
0.14749147 -2.2058237 -0.071229927 0
0.14730553 -2.2042799 -0.042055372 0
0.14719108 -2.2033296 -0.013167156 0
0.14631876 -2.1960866 0.015994417 0
0.14623767 -2.1954134 0.044414073 0
0.1467111 -2.1993442 0.072632834 0
0.14782496 -2.2085927 0.10100546 0
0.13118458 -1.8804011 -0.09045694 0
0.14906208 -2.0027478 -0.091942035 0
0.17010053 -2.1467266 -0.091275595 0
0.1787269 -2.2057624 -0.071801253 0
0.17881772 -2.2063837 -0.042785663 0
0.17816626 -2.2019255 -0.013419172 0
0.17630985 -2.1892209 0.01619325 0
0.17768145 -2.1986077 0.04407328 0
0.17579958 -2.1857288 0.072857305 0
0.17810108 -2.2014794 0.10100537 0
0.15488151 -1.8841279 -0.092030518 0
0.17312965 -1.9902248 -0.090324424 0
0.19711994 -2.1297073 -0.089210413 0
0.20902763 -2.19894 -0.071523182 0
0.20945331 -2.2014151 -0.042774502 0
0.20827749 -2.1945786 -0.013183346 0
0.21006803 -2.204989 0.014733816 0
0.2099975 -2.2045791 0.043562405 0
0.20994696 -2.2042851 0.072306484 0
0.20884021 -2.1978502 0.10100541 0
0.17655578 -1.8756472 -0.091096021 0
0.19831546 -1.9854923 -0.090310954 0
0.2262658 -2.1265888 -0.089577936 0
0.24060053 -2.198952 -0.072332121 0
0.24117011 -2.2018273 -0.043496314 0
0.24268579 -2.2094786 -0.015135361 0
0.24155764 -2.2037838 0.014416153 0
0.23945099 -2.1931491 0.043836206 0
0.23908192 -2.1912861 0.072480448 0
0.24344112 -2.2132916 0.10100602 0
0.19752999 -1.8649938 -0.089801751 0
0.22405151 -1.9831533 -0.090881817 0
0.25562531 -2.1238222 -0.090130366 0
0.27323171 -2.2022626 -0.073735245 0
0.27451158 -2.2079649 -0.045003626 0
0.27110392 -2.1927829 -0.014158754 0
0.27332956 -2.2026987 0.014031271 0
0.27334738 -2.2027779 0.043071408 0
0.27205223 -2.1970079 0.072191827 0
0.27413881 -2.2063041 0.10100601 0
0.21998543 -1.8614411 -0.090171106 0
0.25377235 -1.9959878 -0.094528712 0
0.28117093 -2.1050947 -0.088106908 0
0.30324429 -2.1929955 -0.073443748 0
0.30442366 -2.1976919 -0.044644136 0
0.30335301 -2.1934285 -0.014913691 0
0.30796474 -2.2117934 0.012852566 0
0.30534518 -2.2013617 0.042790979 0
0.30748844 -2.2098966 0.071709678 0
0.30366805 -2.1946831 0.10100587 0
0.24209316 -1.8562571 -0.09030778 0
0.27206069 -1.9640081 -0.08958631 0
0.31497276 -2.1183023 -0.091626562 0
0.3391636 -2.2052827 -0.076404415 0
0.33906564 -2.2049303 -0.046497677 0
0.33825487 -2.2020152 -0.016521892 0
0.33888328 -2.2042747 0.012807855 0
0.33685699 -2.1969891 0.042612538 0
0.33736536 -2.1988168 0.071781054 0
0.33704323 -2.1976585 0.1010062 0
0.26252091 -1.8454134 -0.08931119 0
0.30165747 -1.9735193 -0.092867665 0
0.34264234 -2.1076751 -0.09122353 0
0.36966544 -2.1961298 -0.076370217 0
0.37037951 -2.1984673 -0.046797592 0
0.37227988 -2.2046876 -0.01765096 0
0.37059575 -2.1991751 0.012529137 0
0.36876851 -2.1931939 0.042366028 0
0.37299231 -2.2070196 0.07136593 0
0.37130293 -2.2014899 0.10100658 0
0.28620297 -1.845036 -0.090766244 0
0.32381436 -1.9578778 -0.09133064 0
0.3694548 -2.0948081 -0.090549596 0
0.42859527 -2.2722416 -0.089079984 0
0.5181073 -2.5407956 -0.090166204 0
0.64707559 -2.9277265 -0.089749612 0
0.86463195 -3.5804393 -0.089972563 0
1.3040148 -4.8986759 -0.090873174 0
3.289227 -10.854712 -0.14081089 0
0.30836675 -1.8394014 -0.091180898 0
0.348977 -1.9517111 -0.091788746 0
0.3978202 -2.0867894 -0.090834491 0
0.45877987 -2.2553763 -0.088233046 0
0.55646014 -2.5255158 -0.089950196 0
0.70159841 -2.926903 -0.091347165 0
0.93062788 -3.5602951 -0.090156294 0
1.4019461 -4.8637486 -0.090833269 0
3.5359445 -10.765426 -0.14073229 0
0.32726946 -1.825103 -0.089749746 0
0.37317416 -1.9426887 -0.0918018 0
0.42384869 -2.0724924 -0.090140276 0
0.49242312 -2.248147 -0.088945813 0
0.59794247 -2.5184364 -0.090881787 0
0.74905121 -2.9055042 -0.091036089 0
0.99813938 -3.5435479 -0.090721197 0
1.4954072 -4.8173075 -0.090340517 0
3.78092 -10.671687 -0.14069645 0
0.34868312 -1.8176267 -0.089985467 0
0.39642674 -1.9313647 -0.091468908 0
0.44949472 -2.0577865 -0.0894823 0
0.52586162 -2.2397127 -0.089611284 0
0.63261145 -2.494019 -0.089757673 0
0.79465401 -2.8800471 -0.090431504 0
1.0607539 -3.5139675 -0.090447657 0
1.5967689 -4.7908964 -0.090972327 0
4.0265751 -10.579336 -0.14085035 0
0.36757317 -1.804368 -0.089001425 0
0.42050698 -1.9220581 -0.091669448 0
0.4790208 -2.0521545 -0.090567999 0
0.55576438 -2.2227819 -0.089104421 0
0.66925567 -2.4751122 -0.089438431 0
0.84284663 -2.8610647 -0.090599842 0
1.1253695 -3.4892101 -0.090661205 0
1.6857182 -4.7350578 -0.090239055 0
4.2681284 -10.476645 -0.14089958 0
0.39178655 -1.8026948 -0.090849333 0
0.44468588 -1.9127949 -0.092007764 0
0.50570828 -2.0398016 -0.090576597 0
0.58703971 -2.2090776 -0.089211442 0
0.70368028 -2.451843 -0.08866895 0
0.89118546 -2.8421001 -0.090897314 0
1.1856586 -3.4549906 -0.090269201 0
1.7861254 -4.7047496 -0.090930738 0
4.5049605 -10.363495 -0.14083599 0
0.41562808 -1.7993011 -0.092455409 0
0.46796292 -1.901535 -0.092056297 0
0.53075331 -2.0241933 -0.090107836 0
0.61842239 -2.1954513 -0.08945597 0
0.74246794 -2.4377689 -0.089210071 0
0.93799311 -2.8197191 -0.090967558 0
1.25334 -3.4357359 -0.091166176 0
1.8828803 -4.6655164 -0.091296338 0
4.7397928 -10.246374 -0.14082304 0
0.42998716 -1.7776543 -0.089811139 0
0.48765868 -1.8836324 -0.090806238 0
0.5537039 -2.0049984 -0.089078955 0
0.64941883 -2.1808858 -0.089679547 0
0.78221774 -2.4249196 -0.090051033 0
0.98146021 -2.7910511 -0.09049537 0
1.3119041 -3.3982806 -0.090762012 0
1.9672917 -4.6026325 -0.090542085 0
4.9722228 -10.124548 -0.14084119 0
0.45250043 -1.7713571 -0.090983935 0
0.50634897 -1.8646252 -0.089404963 0
0.58474928 -2.0004182 -0.090917744 0
0.67993063 -2.1652768 -0.089863129 0
0.81195486 -2.393949 -0.088593282 0
1.0326986 -2.7762876 -0.091632314 0
1.3760403 -3.3709717 -0.091289468 0
2.5992656 -5.489656 -0.14095435 0
5.1979265 -9.9906597 -0.14069216 0
0.47236693 -1.7601702 -0.091097184 0
0.5244326 -1.8453143 -0.088018231 0
0.61083943 -1.9866171 -0.091158532 0
0.70315784 -2.1375873 -0.088185452 0
0.85138512 -2.3799863 -0.089544855 0
1.0717285 -2.7403178 -0.090607218 0
1.4251544 -3.3182826 -0.089877017 0
2.7132726 -5.424768 -0.14106905 0
5.4247923 -9.8589706 -0.14075485 0
0.48972246 -1.7450246 -0.090336107 0
0.55112529 -1.8399693 -0.089842953 0
0.63506114 -1.9697561 -0.090932272 0
0.74070591 -2.1331103 -0.090462513 0
0.8888796 -2.3622255 -0.090120904 0
1.1164101 -2.7140472 -0.090752043 0
1.4873275 -3.2875819 -0.090374418 0
2.8222668 -5.3517466 -0.14089301 0
5.6482577 -9.7214651 -0.14081486 0
0.51309335 -1.7389793 -0.092016287 0
0.57781339 -1.8337225 -0.091646053 0
0.65893382 -1.952474 -0.090738945 0
0.76309049 -2.104948 -0.08890795 0
0.92356128 -2.33986 -0.090188019 0
1.1610537 -2.6875231 -0.090997167 0
1.5445907 -3.2489798 -0.090343229 0
2.9297652 -5.2767253 -0.14075497 0
5.8676128 -9.5774164 -0.14084914 0
0.52543873 -1.7169305 -0.089687206 0
0.59559911 -1.8142705 -0.090571322 0
0.68828762 -1.9428658 -0.092217751 0
0.79922432 -2.0967786 -0.090885364 0
0.95216292 -2.3089645 -0.089152493 0
1.2024688 -2.6562369 -0.090827383 0
1.6055137 -3.2154183 -0.09086933 0
3.0363278 -5.2005191 -0.14070074 0
6.0848498 -9.4300165 -0.14094529 0
0.54719794 -1.7081606 -0.090940483 0
0.61883426 -1.8024391 -0.091383703 0
0.70761377 -1.9192791 -0.090991341 0
0.82738942 -2.0769122 -0.090996005 0
0.9869141 -2.2868576 -0.089491971 0
1.2427982 -2.6236188 -0.090619601 0
1.6560392 -3.1674728 -0.090276428 0
3.1409183 -5.1216769 -0.14064713 0
6.2920804 -9.2688255 -0.14079924 0
0.56596369 -1.6951519 -0.091213264 0
0.6369617 -1.7838521 -0.090722896 0
0.72404981 -1.8926541 -0.089201994 0
0.85242569 -2.0530381 -0.090514205 0
1.021515 -2.2642868 -0.089898922 0
1.2868948 -2.5958343 -0.091106005 0
1.7182735 -3.1347697 -0.091149427 0
3.2399509 -5.0358505 -0.14033186 0
6.4984145 -9.1067543 -0.14077824 0
0.57848996 -1.674616 -0.08952985 0
0.66333282 -1.7752968 -0.092630409 0
0.75577664 -1.8849976 -0.091539316 0
0.88085461 -2.0334244 -0.090919979 0
1.051518 -2.2359464 -0.089564927 0
1.3178558 -2.5520029 -0.089778565 0
1.7638289 -3.081228 -0.090278231 0
3.3412511 -4.9531159 -0.14034869 0
6.6950502 -8.9329863 -0.1405579 0
0.6035592 -1.6688045 -0.092080556 0
0.67776066 -1.7524787 -0.091156237 0
0.78027695 -1.8680825 -0.092069693 0
0.89865679 -2.001575 -0.089169942 0
1.0888555 -2.2160547 -0.090660177 0
1.3663732 -2.529001 -0.091116153 0
1.8183305 -3.038656 -0.090518601 0
3.4447684 -4.8727283 -0.14066932 0
6.9022341 -8.7715816 -0.14086935 0
0.6205529 -1.6534282 -0.092093252 0
0.69675165 -1.7351067 -0.091142558 0
0.80239803 -1.8483508 -0.092117019 0
0.93395245 -1.9893659 -0.091238461 0
1.1177493 -2.1863806 -0.090366833 0
1.4050754 -2.4943697 -0.091155641 0
1.8597878 -2.9817827 -0.089527421 0
3.5501487 -4.7937064 -0.14124897 0
7.0867629 -8.5846577 -0.14054117 0
0.63430244 -1.6347204 -0.091240428 0
0.7017836 -1.7034909 -0.087494813 0
0.81876534 -1.8227075 -0.090931408 0
0.95261335 -1.9591128 -0.089979388 0
1.1428975 -2.1530323 -0.089582525 0
1.4374584 -2.4532208 -0.090470009 0
1.9098427 -2.9346302 -0.089564778 0
3.6360426 -4.6938095 -0.14065306 0
7.2876048 -8.4151363 -0.14092156 0
0.65347701 -1.6215309 -0.092155434 0
0.73416448 -1.6997125 -0.091319703 0
0.8463304 -1.808395 -0.092487 0
0.97982377 -1.9377426 -0.090575017 0
1.1734428 -2.1253486 -0.089834221 0
1.4730102 -2.4156125 -0.090349488 0
1.9569198 -2.8844936 -0.089428686 0
3.7314832 -4.6039462 -0.14085591 0
7.4704375 -8.2267828 -0.14085005 0
0.6629464 -1.599086 -0.090341948 0
0.74793375 -1.6773745 -0.090315349 0
0.85003614 -1.7714289 -0.08875712 0
1.0029675 -1.9123057 -0.090484239 0
1.2040272 -2.0975173 -0.090198703 0
1.5116305 -2.3808744 -0.090743102 0
2.5436132 -3.3315136 -0.14070816 0
3.8142772 -4.5020204 -0.14039893 0
7.6415157 -8.027586 -0.14056072 0
0.683878 -1.5872301 -0.091968365 0
0.76992536 -1.6625717 -0.091534145 0
0.88045561 -1.7593498 -0.091150366 0
1.0301392 -1.8904099 -0.091269188 0
1.1146386 -1.964396 -0.072028764 0
1.1253796 -1.9738005 -0.038527165 0
2.5998905 -3.2648549 -0.14052139 0
3.9036803 -4.4064288 -0.14052191 0
7.8233275 -7.8383985 -0.14076658 0
0.69390702 -1.5657827 -0.090630032 0
0.78383499 -1.6405989 -0.090840019 0
0.89717227 -1.7348906 -0.090630271 0
1.0560217 -1.8670465 -0.091904275 0
1.1482326 -1.9437619 -0.073449604 0
1.1147892 -1.9159386 -0.034268681 0
1.1165066 -1.9173673 -0.00047624647 0
1.1082121 -1.9104667 0.033916537 0
1.103108 -1.9062203 0.067636557 0
0.70969504 -1.5492719 -0.091026433 0
0.79338825 -1.6154002 -0.089248337 0
0.91205162 -1.7091593 -0.089866258 0
1.0737358 -1.8369104 -0.091170542 0
1.2765775 -1.9971811 -0.089034222 0
1.5962515 -2.2497642 -0.088804521 0
1.1149263 -1.8694562 0.0017192534 0
1.3210791 -2.0323429 0.022644611 0
1.1137844 -1.8685539 0.067995332 0
1.1184186 -1.8722154 0.10101105 0
0.72876066 -1.5350834 -0.092398055 0
0.81372297 -1.5987995 -0.090375967 0
0.93285477 -1.6881403 -0.09046822 0
1.0880315 -1.8045124 -0.089984976 0
1.3073946 -1.96902 -0.089880534 0
1.6394736 -2.2180569 -0.090196066 0
1.1339029 -1.8389128 0.0019705913 0
1.3539482 -2.003932 0.02223889 0
1.1449022 -1.8471615 0.067725427 0
1.1425732 -1.845415 0.10101113 0
0.72983217 -1.5076795 -0.089145966 0
0.84077823 -1.5865879 -0.093134649 0
0.94685888 -1.6620358 -0.089796253 0
1.1074387 -1.7762452 -0.089844339 0
1.2119709 -1.8505919 -0.072709389 0
1.1791457 -1.8272456 -0.033978347 0
1.1733978 -1.8231575 0.00039047957 0
1.1697333 -1.8205512 0.034200754 0
1.1637878 -1.8163226 0.067793757 0
0.74621391 -1.4915065 -0.090051912 0
0.83916324 -1.5541446 -0.089405678 0
0.96364444 -1.638032 -0.089818589 0
1.1369413 -1.7548161 -0.091538884 0
1.2263583 -1.8150738 -0.071728684 0
1.2327354 -1.8193713 -0.037672732 0
2.8706872 -2.9231808 -0.14095236 0
4.3098121 -3.8930013 -0.14092396 0
8.6301842 -6.8044829 -0.14096801 0
0.75484359 -1.470117 -0.089092754 0
0.86065096 -1.5376018 -0.091081791 0
0.98491657 -1.6168596 -0.090834267 0
1.1526432 -1.723837 -0.090996943 0
1.3705865 -1.8628432 -0.088887714 0
1.7336344 -2.0943983 -0.090851836 0
2.9145219 -2.847579 -0.14061689 0
4.3777962 -3.7808685 -0.14070821 0
8.7638617 -6.5783391 -0.14068399 0
0.76941156 -1.4525564 -0.089757003 0
0.86746979 -1.5116723 -0.089599036 0
0.99746585 -1.5900425 -0.090263985 0
1.1652143 -1.6911721 -0.090078719 0
1.3997514 -1.8325664 -0.08991947 0
1.7556597 -2.0471311 -0.090273552 0
2.9666662 -2.7772048 -0.14112182 0
4.4399753 -3.6654115 -0.1403352 0
8.9008045 -6.3546896 -0.14064912 0
0.77424455 -1.4292591 -0.088140227 0
0.88417882 -1.4918083 -0.090423547 0
1.0110052 -1.5639684 -0.090017967 0
1.1846642 -1.6627752 -0.090420119 0
1.4096158 -1.7907655 -0.088444777 0
1.7742962 -1.9982574 -0.089468621 0
3.0071392 -2.6997066 -0.14082472 0
4.5129433 -3.5564623 -0.14070262 0
9.0324478 -6.1279197 -0.14062512 0
0.79705387 -1.4160168 -0.091023393 0
0.90592563 -1.4743755 -0.092421465 0
1.0268555 -1.5391978 -0.090329789 0
1.2018477 -1.6329993 -0.090510629 0
1.4467857 -1.764294 -0.090751626 0
1.8089945 -1.9584497 -0.090507098 0
3.0503891 -2.6238773 -0.14090812 0
4.5689325 -3.4378657 -0.14031458 0
9.1688433 -5.9035664 -0.14087886 0
0.80524212 -1.3946233 -0.090469979 0
0.9189651 -1.4519368 -0.092651047 0
1.0422102 -1.5140493 -0.090662293 0
1.221236 -1.6042738 -0.09106604 0
1.4573269 -1.7232578 -0.089632295 0
1.8450245 -1.9186476 -0.091777347 0
3.0900662 -2.5461178 -0.1408616 0
4.6442375 -3.3293812 -0.14109547 0
9.2877502 -5.6695952 -0.14082243 0
0.81298864 -1.3731503 -0.089947008 0
0.92818511 -1.4276063 -0.092200883 0
1.0632478 -1.4914535 -0.092140056 0
1.2243291 -1.5676005 -0.089195259 0
1.4872925 -1.6919093 -0.091172032 0
1.8590863 -1.8676648 -0.090868838 0
3.1298516 -2.468385 -0.14097673 0
4.7018852 -3.2115216 -0.14109978 0
9.3933325 -5.4292765 -0.14057682 0
0.8182351 -1.3506917 -0.088975467 0
0.93282866 -1.4013659 -0.090940438 0
1.0621859 -1.4585687 -0.089733161 0
1.2405705 -1.5374519 -0.08950866 0
1.5086454 -1.6559967 -0.091695763 0
1.8860996 -1.82291 -0.091424309 0
3.173177 -2.392066 -0.14151199 0
4.7449937 -3.0871363 -0.14051624 0
9.5206003 -5.1989479 -0.14104037 0
0.83989674 -1.3352361 -0.091919281 0
0.9410482 -1.3769475 -0.090557225 0
1.0701472 -1.4301836 -0.089103617 0
1.2496871 -1.5042199 -0.08885204 0
1.5229586 -1.616908 -0.091439329 0
1.900364 -1.7725374 -0.090801515 0
3.1986525 -2.3079083 -0.14083835 0
4.7938161 -2.9657006 -0.1403854 0
9.6159019 -4.9541678 -0.14084214 0
0.84100229 -1.3111408 -0.090244867 0
0.95431411 -1.354555 -0.091320522 0
1.0812179 -1.4031769 -0.089154117 0
1.2677869 -1.474659 -0.089680545 0
1.5178063 -1.5704515 -0.088873185 0
1.9103348 -1.7208449 -0.08988326 0
3.2289777 -2.2260697 -0.14069411 0
4.8571825 -2.8499002 -0.14113449 0
9.710187 -4.7092805 -0.14077511 0
0.84481514 -1.2884114 -0.089333691 0
0.96335697 -1.3304313 -0.091346599 0
1.0952194 -1.3771729 -0.089834623 0
1.2829701 -1.4437256 -0.090178587 0
1.5513533 -1.5388603 -0.091274641 0
1.93093 -1.6734101 -0.090155132 0
3.2570355 -2.1434791 -0.1405369 0
4.8960032 -2.7244492 -0.14080957 0
9.7914915 -4.4597688 -0.14054167 0
0.86381763 -1.270851 -0.091955118 0
0.97969657 -1.308664 -0.092939265 0
1.1007633 -1.3481698 -0.089161389 0
1.295627 -1.4117568 -0.090415008 0
1.5735261 -1.5024394 -0.092356525 0
1.964118 -1.6298953 -0.091779225 0
3.2818289 -2.0598841 -0.14029486 0
4.943305 -2.6020482 -0.14105836 0
9.8880377 -4.2155881 -0.14083759 0
0.86022806 -1.2458797 -0.089643814 0
0.97937953 -1.2814603 -0.091354214 0
1.1107317 -1.3206842 -0.089378141 0
1.3011934 -1.3775592 -0.089728512 0
1.5554845 -1.4534947 -0.088637792 0
1.9644268 -1.5756116 -0.090295695 0
3.326185 -1.9822551 -0.14163649 0
4.9764342 -2.4750466 -0.14076738 0
9.9684973 -3.965759 -0.14089109 0
0.86651891 -1.2241428 -0.089663751 0
0.98292297 -1.2557269 -0.090667881 0
1.1268841 -1.2947882 -0.090765066 0
1.3113488 -1.3448395 -0.08984106 0
1.5647361 -1.4135917 -0.088399746 0
1.9584852 -1.5204287 -0.088350765 0
3.344358 -1.896461 -0.14121477 0
5.0035934 -2.3466654 -0.1403456 0
10.047212 -3.715163 -0.14105463 0
0.88515788 -1.2054042 -0.092505984 0
0.99720818 -1.2327915 -0.092194892 0
1.1291814 -1.2650484 -0.089910291 0
1.3137953 -1.3101716 -0.088957541 0
1.5749698 -1.3740078 -0.08840286 0
1.9772555 -1.4723343 -0.088926561 0
3.3502522 -1.8079218 -0.14006832 0
5.0498772 -2.2233434 -0.14099874 0
10.110826 -3.4603388 -0.14100762 0
0.89239961 -1.1834776 -0.092956416 0
1.0001354 -1.2069465 -0.091635995 0
1.1277899 -1.2347543 -0.088566341 0
1.3330441 -1.2794662 -0.090621747 0
1.596121 -1.336774 -0.089831717 0
1.9804797 -1.4205016 -0.088130392 0
3.3771768 -1.7247536 -0.1405932 0
5.079597 -2.0956035 -0.14100784 0
10.163993 -3.203172 -0.14086576 0
0.89276624 -1.1601104 -0.092036806 0
0.99548703 -1.179786 -0.089752398 0
1.1335173 -1.2062249 -0.088548414 0
1.328612 -1.2435943 -0.08900062 0
1.6005483 -1.2956823 -0.089375697 0
2.5454845 -1.4766798 -0.14085278 0
3.4031789 -1.6409667 -0.14119969 0
5.0973196 -1.9654703 -0.14060141 0
10.211598 -2.9450831 -0.14074698 0
0.88809347 -1.1361156 -0.090162627 0
1.0115682 -1.1565512 -0.09196534 0
1.1485757 -1.1792268 -0.090205185 0
1.3341744 -1.2099444 -0.088939212 0
1.625177 -1.2581069 -0.091437839 0
2.5486555 -1.4109478 -0.14006598 0
3.4155531 -1.5544242 -0.14098816 0
5.1170001 -1.8360232 -0.14044444 0
10.264148 -2.6879046 -0.14089906 0
0.89271283 -1.1138531 -0.090419598 0
1.0153552 -1.1309842 -0.091944151 0
1.147463 -1.1494374 -0.089285918 0
1.3539962 -1.1782866 -0.091022126 0
1.6205157 -1.2155149 -0.090148397 0
2.5633259 -1.3472095 -0.14052238 0
3.4277284 -1.4679519 -0.14091782 0
5.1394362 -1.7070485 -0.14057139 0
10.283836 -2.4256341 -0.14043185 0
0.89057899 -1.0907446 -0.089351438 0
1.0275341 -1.1063633 -0.093636431 0
1.1502897 -1.1203626 -0.089145504 0
1.3427995 -1.1423168 -0.088824861 0
1.6354516 -1.1756915 -0.091294564 0
2.5723009 -1.2825316 -0.1405938 0
3.4377468 -1.3812288 -0.14084974 0
5.1652312 -1.5782347 -0.14100815 0
10.326941 -2.1668863 -0.14066909 0
0.90328676 -1.0691905 -0.091577403 0
1.01794 -1.0793427 -0.091325574 0
1.1228074 -1.0886285 -0.084125794 0
1.1391752 -1.0900779 -0.059612144 0
1.6357456 -1.1340483 -0.090838306 0
2.5749888 -1.2172165 -0.14022908 0
3.4532237 -1.2949826 -0.14131869 0
5.1663804 -1.4466795 -0.1404442 0
10.357751 -1.9063655 -0.14077145 0
0.89976704 -1.0460672 -0.090459578 0
1.029012 -1.0542314 -0.093047448 0
1.142907 -1.0614259 -0.087081857 0
1.132712 -1.060782 -0.058394987 0
1.6421305 -1.0929608 -0.091219254 0
2.5845222 -1.1524898 -0.14065948 0
3.4450438 -1.2068472 -0.14028242 0
5.1893139 -1.3170291 -0.14105238 0
10.368405 -1.6441817 -0.14055742 0
0.89812624 -1.0232662 -0.089866705 0
1.0241225 -1.0280375 -0.09187869 0
1.1366957 -1.0323005 -0.085820742 0
1.125212 -1.0318656 -0.057137195 0
1.6394552 -1.0513393 -0.090661533 0
2.5932136 -1.0874567 -0.14116354 0
3.4491434 -1.1198696 -0.14026192 0
5.1819396 -1.1854881 -0.14040051 0
10.385623 -1.3825442 -0.14065038 0
0.90638113 -1.0007163 -0.091500022 0
1.0141649 -1.0020763 -0.08988025 0
1.1361665 -1.0036156 -0.085614823 0
1.1268675 -1.0034983 -0.057269234 0
1.1364439 -1.0036191 -0.031746242 0
1.1380206 -1.003639 -0.0051703434 0
1.1340609 -1.003589 0.021750661 0
1.1350002 -1.003601 0.048172012 0
1.1292427 -1.0035282 0.074735567 0
1.1247523 -1.0034716 0.10100248 0
1.1275231 -1.0035065 0.1272296 0
1.1210474 -1.0034249 0.15318325 0
1.1246521 -1.0034703 0.1795968 0
1.1292896 -1.0035288 0.20636111 0
1.1230185 -1.0034498 0.2321828 0
1.1292599 -1.0035285 0.25961196 0
1.1288626 -1.0035235 0.28642127 0
1.1396437 -1.0036595 0.31552428 0
0.90643835 -0.97786766 -0.091512196 0
1.0226715 -0.97640109 -0.091482587 0
1.1301986 -0.97504437 -0.084633909 0
1.1172749 -0.97520745 -0.055921022 0
1.6392241 -0.96862173 -0.090512507 0
2.5880857 -0.95664948 -0.14053069 0
3.4641328 -0.94559598 -0.1411563 0
5.1891699 -0.92383033 -0.14058349 0
10.40301 -0.85804468 -0.14090082 0
0.91642654 -0.95462549 -0.09375944 0
1.0234902 -0.95057112 -0.091759525 0
1.1265107 -0.94666988 -0.084145628 0
1.1321661 -0.94645572 -0.058115218 0
1.6318452 -0.92753363 -0.089771487 0
2.5814528 -0.89157331 -0.140065 0
3.4540179 -0.85853052 -0.14060293 0
5.1885519 -0.7928462 -0.14070858 0
10.393961 -0.59572482 -0.14084436 0
0.90866035 -0.9319557 -0.092353724 0
1.0225776 -0.92475975 -0.091833107 0
1.1289006 -0.91804355 -0.084775291 0
1.1392336 -0.91739082 -0.059313316 0
1.6474336 -0.88528889 -0.091840275 0
2.5897987 -0.82576162 -0.14115298 0
3.4498529 -0.77143371 -0.14061929 0
5.1818609 -0.66202635 -0.14070471 0
10.372915 -0.3341181 -0.14066249 0
0.89919221 -0.90975684 -0.090703659 0
1.0161979 -0.89939618 -0.090996154 0
1.1549729 -0.88710791 -0.089432932 0
1.3553507 -0.86936486 -0.090111189 0
1.6403713 -0.84412682 -0.091381036 0
2.5832632 -0.76063544 -0.14100444 0
3.4445078 -0.68437386 -0.14070699 0
5.1708193 -0.5315122 -0.14065166 0
10.365273 -0.071553081 -0.14094701 0
0.8938303 -0.88746923 -0.090047039 0
1.0214473 -0.87291557 -0.092482544 0
1.1488432 -0.85838705 -0.088906221 0
1.3483851 -0.83563089 -0.08961492 0
1.6307094 -0.80343407 -0.090736724 0
2.571965 -0.69609135 -0.14056225 0
3.4314194 -0.59807748 -0.14040452 0
5.1577439 -0.40120396 -0.14065731 0
10.329969 0.18864706 -0.14073996 0
0.88946718 -0.8651849 -0.089722998 0
1.0088207 -0.84851325 -0.090701409 0
1.1419917 -0.82991153 -0.08837799 0
1.3457838 -0.80144519 -0.089856811 0
1.6231778 -0.76269799 -0.090462543 0
2.568639 -0.630633 -0.14102313 0
3.421386 -0.51151866 -0.14047013 0
5.1432109 -0.27100888 -0.14074883 0
10.298954 0.44916108 -0.14078675 0
0.88742518 -0.84257978 -0.090018637 0
1.0101017 -0.82227612 -0.091685362 0
1.1387693 -0.80098093 -0.088571586 0
1.3316354 -0.76906055 -0.088577516 0
1.6299691 -0.7196846 -0.092005529 0
2.5590637 -0.56591427 -0.1410507 0
3.4052496 -0.4258658 -0.14025806 0
5.130826 -0.1402733 -0.14109685 0
10.265922 0.70961362 -0.14094087 0
0.89355552 -0.81832314 -0.092207633 0
0.99096483 -0.79966491 -0.088885151 0
1.145806 -0.77000588 -0.09060479 0
1.3369044 -0.73340201 -0.090187185 0
1.3463356 -0.73159546 -0.059124906 0
1.3477445 -0.73132563 -0.027022889 0
1.3532698 -0.73026729 0.0047135372 0
1.347136 -0.73144221 0.037160996 0
1.3462969 -0.73160291 0.069122404 0
1.3460872 -0.73164308 0.1010095 0
0.8838405 -0.79697156 -0.091094412 0
0.99662346 -0.7724033 -0.090959005 0
1.1321201 -0.74288714 -0.089294709 0
1.1991898 -0.72827685 -0.071369432 0
1.2026461 -0.72752398 -0.04276656 0
1.2155752 -0.72470754 -0.015059596 0
1.2022531 -0.72760957 0.015020216 0
1.2114937 -0.72559661 0.043293472 0
1.2161468 -0.72458297 0.072054513 0
1.2050612 -0.72699785 0.10100558 0
0.87933815 -0.77460295 -0.091232516 0
0.99049628 -0.74743372 -0.090893485 0
1.1315504 -0.71295732 -0.090311088 0
1.2087156 -0.69409662 -0.07375548 0
1.202529 -0.69560879 -0.043593112 0
1.2133511 -0.6929636 -0.01552449 0
1.203948 -0.6952619 0.014395544 0
1.2032707 -0.69542748 0.043350235 0
1.2152988 -0.69248754 0.071905695 0
1.2062811 -0.69469166 0.10100582 0
0.87560189 -0.75197744 -0.091664247 0
0.98108524 -0.72335637 -0.09030924 0
1.1226496 -0.6849454 -0.090043955 0
1.2057421 -0.66239971 -0.074463047 0
1.2103827 -0.66114056 -0.045487855 0
1.1994574 -0.66410494 -0.014941206 0
1.1963385 -0.66495115 0.014381627 0
1.204807 -0.66265339 0.042899996 0
1.2062093 -0.66227293 0.071934946 0
1.2053499 -0.6625061 0.10100602 0
0.86724907 -0.7306084 -0.091201343 0
0.96753001 -0.70066285 -0.089024968 0
1.1180477 -0.65571582 -0.090632997 0
1.2093922 -0.62843883 -0.076264329 0
1.1992067 -0.6314804 -0.045181531 0
1.2089883 -0.62855947 -0.01670604 0
1.2023926 -0.63052905 0.013315098 0
1.2099693 -0.62826651 0.042230144 0
1.2043065 -0.6299575 0.071771599 0
1.2080607 -0.62883645 0.10100636 0
0.84931052 -0.71246761 -0.088711418 0
0.9607265 -0.67611092 -0.08918082 0
1.1007947 -0.63040459 -0.089166813 0
1.2098041 -0.5948332 -0.077728011 0
1.2053442 -0.59628856 -0.047092859 0
1.2091525 -0.59504586 -0.01765356 0
1.1983345 -0.59857595 0.012919733 0
1.215868 -0.59285444 0.041476361 0
1.2120091 -0.59411371 0.071352109 0
1.2046392 -0.59651858 0.10100655 0
0.84352797 -0.69062954 -0.089043416 0
0.95295209 -0.65184164 -0.089267336 0
1.0864736 -0.60451186 -0.088309608 0
1.2046005 -0.56263906 -0.078493483 0
1.199556 -0.5644272 -0.047652218 0
1.2060759 -0.56211603 -0.018372064 0
1.2068372 -0.5618462 0.011529611 0
1.2063038 -0.56203526 0.041435607 0
1.2130709 -0.55963653 0.071070448 0
1.2046479 -0.56262225 0.10100686 0
0.84809363 -0.66472697 -0.091859065 0
0.94723165 -0.6267432 -0.089891978 0
1.0851867 -0.57388711 -0.089852653 0
1.2071116 -0.5271728 -0.080549128 0
1.2023163 -0.52901012 -0.049387101 0
1.2075714 -0.52699667 -0.01963724 0
1.2038559 -0.52842021 0.010916652 0
1.2060523 -0.52757865 0.040891577 0
1.1989481 -0.53030056 0.071142562 0
1.2048123 -0.52805376 0.1010072 0
0.82032692 -0.65141857 -0.087419681 0
0.95122892 -0.59743893 -0.092631422 0
1.0722405 -0.54753786 -0.089475758 0
1.2091296 -0.49108934 -0.082686715 0
1.201295 -0.49432006 -0.050774518 0
1.2160149 -0.48825011 -0.021706192 0
1.2053158 -0.49266204 0.0098979641 0
1.2018988 -0.4940711 0.040494781 0
1.2041633 -0.4931373 0.070710555 0
1.2129303 -0.48952207 0.10100782 0
0.82551044 -0.62467575 -0.090666391 0
0.93436176 -0.57654083 -0.091256164 0
1.0752488 -0.51423949 -0.092080601 0
1.2026668 -0.45789424 -0.083684288 0
1.2005364 -0.45883635 -0.052322317 0
1.196226 -0.46074238 -0.021016246 0
1.204734 -0.45698014 0.0089553092 0
1.203934 -0.45733383 0.039735686 0
1.2061589 -0.45635 0.070331834 0
1.1964011 -0.46066496 0.10100771 0
0.81404048 -0.60493714 -0.090194307 0
0.92843896 -0.55085832 -0.092253767 0
1.0609155 -0.48823366 -0.091716073 0
1.228058 -0.4092215 -0.089774884 0
1.4835407 -0.28844896 -0.090687014 0
1.8544638 -0.11310503 -0.090391599 0
3.12568 0.48782828 -0.14065415 0
4.702024 1.2330024 -0.1411069 0
9.4065542 3.4569423 -0.14091687 0
0.80777174 -0.58268648 -0.091072105 0
0.91221064 -0.53005189 -0.091226406 0
1.0399067 -0.46569631 -0.090238355 0
1.2152101 -0.3773478 -0.090117715 0
1.4615366 -0.25320533 -0.090183266 0
1.8401603 -0.062388506 -0.091268919 0
3.0906544 0.56782943 -0.14090765 0
4.6471467 1.3522627 -0.14124717 0
9.2928848 3.693599 -0.14095612 0
0.79714537 -0.56251884 -0.091045476 0
0.88735729 -0.51416236 -0.08845333 0
1.0250616 -0.44034848 -0.089995287 0
1.1966031 -0.34839669 -0.089674376 0
1.4330229 -0.22166803 -0.088926606 0
1.8189634 -0.014791396 -0.091562845 0
3.0550845 0.64780957 -0.14128056 0
4.5833516 1.4670103 -0.14107622 0
9.1684113 3.9247501 -0.14086744 0
0.79313964 -0.53857487 -0.092761211 0
0.8961519 -0.47996411 -0.093018167 0
1.0034728 -0.41890189 -0.088593654 0
1.1797578 -0.31860122 -0.089626797 0
1.2147429 -0.29869577 -0.062240887 0
1.2209815 -0.2951462 -0.030047541 0
3.0090425 0.72220498 -0.14097783 0
4.5188484 1.5812376 -0.14101894 0
9.033741 4.1500711 -0.14065972 0
0.77669966 -0.52163452 -0.091565929 0
0.86882317 -0.46609649 -0.089896686 0
1.0057344 -0.38355747 -0.09185078 0
1.1692331 -0.2849898 -0.090738185 0
1.1406479 -0.30222288 -0.054559831 0
1.1961364 -0.26877078 -0.029290846 0
2.9693325 0.80022746 -0.14133947 0
4.4427438 1.6884956 -0.14048567 0
8.9042091 4.3781581 -0.14074156 0
0.76111853 -0.50446558 -0.090674765 0
0.8541289 -0.44514272 -0.08962477 0
0.98976004 -0.35863599 -0.09177842 0
1.1413788 -0.26193228 -0.089119293 0
1.1413774 -0.26193306 -0.057114337 0
1.1810262 -0.23664477 -0.029672777 0
2.917259 0.87074012 -0.14084385 0
4.3732886 1.7994087 -0.14045931 0
8.7760925 4.6075563 -0.1410213 0
0.75075132 -0.48402056 -0.091214947 0
0.84472352 -0.42069301 -0.090668567 0
0.96449417 -0.3399801 -0.089987002 0
1.1273067 -0.23026142 -0.089906134 0
1.1407688 -0.22118935 -0.059666146 0
1.1534687 -0.2126309 -0.028750738 0
2.8693597 0.94370133 -0.14084044 0
4.315403 1.9181843 -0.14123784 0
8.6242065 4.8218699 -0.1408004 0
0.72959644 -0.47107288 -0.089084484 0
0.84025788 -0.39236692 -0.093014382 0
0.9515512 -0.31321153 -0.09074261 0
1.1078087 -0.20207629 -0.089908145 0
1.1414447 -0.17815325 -0.0625946 0
1.135974 -0.18204418 -0.029033428 0
2.8160009 1.0128448 -0.14052524 0
4.2271323 2.0164866 -0.14046438 0
8.4756193 5.038147 -0.14082265 0
0.7212652 -0.44912246 -0.090406545 0
0.81807488 -0.37652168 -0.091400541 0
0.93585706 -0.2881929 -0.091084994 0
1.0945864 -0.16915664 -0.091136418 0
1.0995178 -0.16545835 -0.059512455 0
1.1107808 -0.1570119 -0.028512588 0
1.1035568 -0.16242948 0.0046223644 0
1.1026334 -0.16312197 0.036863271 0
1.0925758 -0.17066446 0.069246143 0
1.0957353 -0.168295 0.10100947 0
1.1065055 -0.16021809 0.13317843 0
1.0922321 -0.17092219 0.16455032 0
1.1050105 -0.16133925 0.19752465 0
0.71657437 -0.42387727 -0.092890091 0
0.80513126 -0.35390607 -0.092067234 0
0.91628468 -0.26608071 -0.090752922 0
1.058362 -0.15382168 -0.088416941 0
1.1014313 -0.11979142 -0.062945716 0
1.1006337 -0.12042156 -0.029845601 0
1.1037083 -0.11799231 0.0027187711 0
1.1012193 -0.11995891 0.035689559 0
1.0998876 -0.12101111 0.068407133 0
1.0989764 -0.12173107 0.10101034 0
1.1011659 -0.12000117 0.13365164 0
1.1105783 -0.11256412 0.16688746 0
1.0977581 -0.12269369 0.19877207 0
0.70787382 -0.40118226 -0.094491951 0
0.78163886 -0.3398129 -0.090301938 0
0.89949179 -0.24176434 -0.091126166 0
1.0214255 -0.14032075 -0.085579701 0
1.1075534 -0.068666011 -0.067265071 0
1.1036646 -0.071901292 -0.032917935 0
1.1007718 -0.074308068 0.00095468969 0
1.0984595 -0.076231807 0.034507159 0
1.0976025 -0.076944739 0.06780307 0
1.1039277 -0.071682423 0.10101136 0
1.1044307 -0.071264058 0.13442624 0
1.1084409 -0.067927748 0.16812055 0
1.0957212 -0.078509897 0.20060852 0
0.67688298 -0.39747927 -0.089992084 0
0.77115095 -0.31494001 -0.091840975 0
0.87039644 -0.22804251 -0.088952951 0
1.0060035 -0.10930762 -0.086760812 0
1.1086171 -0.019461002 -0.071093358 0
1.0992168 -0.027691748 -0.035281319 0
1.1052175 -0.022437658 -0.0016360932 0
1.0984342 -0.028376903 0.033061583 0
1.1022105 -0.025070515 0.066938505 0
1.0942733 -0.032020118 0.10101188 0
1.1058358 -0.02189621 0.13519822 0
1.0981542 -0.028622117 0.16894533 0
1.1018748 -0.025364425 0.20335025 0
1.1029484 -0.024424341 0.23776944 0
1.080228 -0.044317987 0.37124303 0
0.66186929 -0.38049087 -0.090030663 0
0.75609559 -0.29369178 -0.092405476 0
0.85756189 -0.2002233 -0.090438776 0
0.96294808 -0.1031439 -0.082837604 0
1.066936 -0.0073526767 -0.068414472 0
1.1045587 0.027304444 -0.03908265 0
1.1051304 0.02783123 -0.0039799642 0
1.1012937 0.024296913 0.031323861 0
1.1040701 0.026854429 0.066099577 0
1.1056681 0.028326426 0.10101327 0
1.0968646 0.020216856 0.13569856 0
1.0963442 0.019737516 0.17038888 0
1.1062592 0.028870974 0.20611426 0
1.1060971 0.028721604 0.24130523 0
1.0342432 -0.037468459 0.365659 0
0.64513755 -0.36513427 -0.089687131 0
0.73029631 -0.28262022 -0.090305217 0
0.84227258 -0.17412147 -0.091558389 0
0.83754879 -0.17869857 -0.062734045 0
0.84453958 -0.17192492 -0.03630932 0
0.84610051 -0.17041251 -0.0088703167 0
0.84713393 -0.16941115 0.018602038 0
0.85129714 -0.16537723 0.045849115 0
0.83449084 -0.18166158 0.073985681 0
0.8344481 -0.181703 0.10100353 0
0.83797747 -0.17828324 0.12813458 0
0.85108799 -0.16557989 0.15614586 0
0.83968353 -0.17663011 0.18268052 0
1.1000448 0.075645238 0.24390428 0
1.0132796 -0.0084254406 0.29914463 0
1.0112338 -0.010407653 0.33224794 0
0.99076426 -0.030241396 0.3606391 0
0.62951636 -0.34874174 -0.089787893 0
0.70766425 -0.26910087 -0.089076258 0
0.81829089 -0.15636066 -0.090820067 0
0.84129429 -0.13291779 -0.067642815 0
0.83763289 -0.1366491 -0.038642976 0
0.84162587 -0.13257983 -0.01106335 0
0.84272957 -0.13145509 0.016949946 0
0.83832812 -0.13594058 0.04531138 0
0.84196866 -0.13223055 0.073052175 0
0.83394891 -0.14040348 0.10100435 0
0.83679539 -0.13750264 0.12878506 0
0.84211862 -0.13207766 0.15695009 0
0.8413142 -0.13289747 0.18491842 0
0.84702599 -0.1270766 0.21379338 0
1.1048862 0.13571003 0.28527158 0
0.94423246 -0.028012898 0.29031694 0
0.93891948 -0.033427443 0.32114595 0
0.96179491 -0.010114994 0.35944027 0
0.60954982 -0.33695093 -0.088664643 0
0.70164186 -0.2382361 -0.092492811 0
0.79569745 -0.13741645 -0.090502642 0
0.83719701 -0.092932433 -0.071305253 0
0.841205 -0.08863619 -0.042986456 0
0.84738457 -0.082012266 -0.01484566 0
0.8344081 -0.095921904 0.015557127 0
0.83571535 -0.094520658 0.044002086 0
0.83788836 -0.092191368 0.072445072 0
0.83743054 -0.092682093 0.10100541 0
0.84050936 -0.089381844 0.12965536 0
0.83929664 -0.090681821 0.15825343 0
0.83819664 -0.09186092 0.18684235 0
0.84334821 -0.086338907 0.21630529 0
1.0932169 0.18149915 0.28819713 0
0.9303841 0.0069561931 0.29252344 0
0.92933279 0.0058293077 0.32472005 0
0.9329384 0.0096942522 0.35837826 0
0.60168475 -0.31189385 -0.091480039 0
0.67786515 -0.22598818 -0.091185875 0
0.77178991 -0.12007275 -0.089967363 0
0.84983194 -0.032067683 -0.078828238 0
0.84374845 -0.03892782 -0.047484506 0
0.84655845 -0.035759058 -0.017987786 0
0.84353691 -0.039166357 0.012192266 0
0.84304416 -0.039721992 0.041885123 0
0.84008187 -0.043062475 0.07156568 0
0.84069538 -0.042370643 0.10100653 0
0.84517151 -0.037323084 0.13062616 0
0.83217168 -0.051982488 0.15936448 0
0.84384334 -0.03882077 0.1898537 0
0.83959758 -0.043608572 0.2190221 0
1.0975813 0.24730971 0.29423368 0
1.1031957 0.2536408 0.33453131 0
0.58374286 -0.2977353 -0.091262572 0
0.6600064 -0.20723525 -0.091658123 0
0.72746736 -0.12718102 -0.084319137 0
0.85408014 0.023067269 -0.085080825 0
0.84213799 0.0088957883 -0.051590044 0
0.8390981 0.0052883956 -0.020430995 0
0.83894759 0.0051097604 0.01006032 0
0.83993345 0.00627974 0.040359594 0
0.84843236 0.016365085 0.070393346 0
0.83532733 0.00081375579 0.10100736 0
0.8386662 0.0047759148 0.13126935 0
0.83086449 -0.0044822362 0.1609997 0
0.84382361 0.010896001 0.19248451 0
0.84623528 0.013757978 0.22348116 0
0.84737211 0.01510695 0.25455618 0
1.1002765 0.31522229 0.34081313 0
0.56864625 -0.28008136 -0.092125736 0
0.64094281 -0.18975893 -0.091922842 0
0.72804266 -0.080942303 -0.090252124 0
0.86009967 0.084040791 -0.092240013 0
0.85071158 0.072311908 -0.057953972 0
0.83666533 0.054763589 -0.023855774 0
0.84201932 0.061452422 0.0068799574 0
0.83915287 0.057871375 0.038526475 0
0.83818674 0.056664262 0.069820441 0
0.8387062 0.057313237 0.10100867 0
0.84099215 0.060169134 0.13230152 0
0.83328533 0.050540838 0.16305341 0
0.83821034 0.056693707 0.1947116 0
0.84190595 0.061310802 0.22665685 0
0.83534104 0.053109083 0.25709733 0
1.0990541 0.38257411 0.34802201 0
1.0966357 0.37955275 0.38923746 0
0.54799169 -0.26937941 -0.091219358 0
0.61431193 -0.18209735 -0.089975782 0
0.70233613 -0.066251367 -0.08955764 0
0.72541809 -0.035873916 -0.067309268 0
0.73003232 -0.029801276 -0.039867941 0
0.72981089 -0.030092623 -0.011475353 0
0.73571575 -0.022321429 0.016069205 0
0.73230833 -0.026805844 0.044694509 0
0.72663611 -0.034270849 0.073082931 0
0.73190707 -0.027333941 0.10100489 0
0.72226238 -0.040026989 0.12875789 0
0.72421765 -0.037453797 0.15669212 0
0.72915918 -0.030950334 0.18518302 0
0.72946316 -0.030550327 0.21343185 0
0.72339648 -0.038534489 0.24059595 0
0.73024535 -0.029520836 0.27044156 0
0.73181236 -0.027458575 0.29957661 0
0.73209977 -0.027080324 0.3286581 0
0.52921122 -0.25642028 -0.091058604 0
0.5984813 -0.16031548 -0.091499738 0
0.680121 -0.047049191 -0.089922301 0
0.72702742 0.018028412 -0.07353317 0
0.95737284 0.33760801 -0.090193845 0
0.84738547 0.18501237 -0.034144495 0
0.83819312 0.17225888 0.00087198825 0
0.83641744 0.1697953 0.034453433 0
0.84117335 0.17639366 0.067561209 0
0.8393935 0.17392436 0.10101133 0
0.84295297 0.1788626 0.13453262 0
0.84388041 0.18014947 0.16816404 0
0.84244496 0.17815796 0.20165974 0
0.84105986 0.17623618 0.23515826 0
0.84124595 0.17649439 0.26900646 0
0.84029043 0.17516866 0.30277979 0
1.0981398 0.53290695 0.40946868 0
0.50886804 -0.24579075 -0.090424038 0
0.57209396 -0.15323487 -0.089736231 0
0.66306764 -0.020059194 -0.091943406 0
0.76347905 0.12693217 -0.089004762 0
0.92336106 0.36098221 -0.090146549 0
1.1539158 0.69848925 -0.089815997 0
0.85379946 0.25915149 -0.0047275405 0
0.83488816 0.23146752 0.032143991 0
0.84256279 0.24270228 0.066280589 0
