# .PCD v0.7 - Point Cloud Data file format
VERSION 0.7
FIELDS x y z intensity
SIZE 4 4 4 4
TYPE F F F F
COUNT 1 1 1 1
WIDTH 1359
HEIGHT 1
VIEWPOINT 0 0 0 1 0 0 0
POINTS 1359
DATA ascii
1.7848854 -0.51451182 -0.049715649 0
1.8018146 -0.50146586 -0.050011374 0
1.8168632 -0.48715797 -0.050235383 0
1.8258574 -0.46947917 -0.050220907 0
1.8352151 -0.45199391 -0.050230049 0
1.8476084 -0.4360005 -0.05036886 0
1.8497006 -0.41495702 -0.050106995 0
1.8582225 -0.39709684 -0.050110169 0
1.8686776 -0.38009831 -0.050197799 0
1.8625424 -0.35583362 -0.049647707 0
1.8786256 -0.34129193 -0.049972352 0
1.8805568 -0.32078096 -0.049757477 0
1.9014614 -0.30782011 -0.05028053 0
1.912755 -0.29085675 -0.050440885 0
1.905954 -0.26724121 -0.049921878 0
1.9179347 -0.25052014 -0.050126061 0
1.9189595 -0.23000024 -0.04992513 0
1.9235494 -0.21076183 -0.049868286 0
1.9415694 -0.19565628 -0.050321978 0
1.937811 -0.17387353 -0.049971294 0
1.9556084 -0.15832667 -0.050430674 0
1.9495097 -0.13613246 -0.050013419 0
1.9494579 -0.11575372 -0.049830336 0
1.9593772 -0.097870119 -0.05002309 0
1.958111 -0.077338584 -0.049814325 0
1.9686341 -0.059439551 -0.050045699 0
1.9760631 -0.040759306 -0.050172113 0
1.9743258 -0.0202928 -0.049973994 0
1.9709518 0.00031604306 -0.049726374 0
1.9769139 0.0192695 -0.049826115 0
1.992395 0.036909107 -0.050277729 0
1.9779571 0.05885205 -0.049659044 0
1.9984571 0.076159336 -0.050307538 0
1.9811605 0.09799061 -0.049605839 0
2.0081425 0.11513389 -0.050502717 0
2.0041213 0.13545816 -0.050295845 0
2.0002215 0.15563093 -0.050102647 0
1.9891871 0.17607504 -0.049663555 0
1.9942499 0.1955024 -0.049809158 0
2.0023005 0.21494155 -0.050070167 0
1.9961194 0.23483679 -0.04983167 0
1.992269 0.25455225 -0.049685352 0
2.0071473 0.27428555 -0.050216537 0
1.989219 0.29377702 -0.049585272 0
2.0052991 0.31389701 -0.050177269 0
2.0017426 0.33357215 -0.050076917 0
1.9990081 0.35322616 -0.050014738 0
1.9968971 0.3728826 -0.049983673 0
1.9915627 0.39225581 -0.049845975 0
1.9953935 0.41240269 -0.050045524 0
1.9971197 0.43246818 -0.050178885 0
1.9799783 0.45036379 -0.049643077 0
1.9756469 0.46958485 -0.049575839 0
1.9872959 0.49109146 -0.050093755 0
1.9817342 0.51023966 -0.050000358 0
1.978508 0.52972502 -0.050000083 0
1.9723012 0.54866314 -0.049900498 0
1.963884 0.56709582 -0.049728885 0
1.9599427 0.58635151 -0.049728584 0
1.965626 0.60776603 -0.050089266 0
1.9677367 0.62859756 -0.050329823 0
1.9544543 0.64574993 -0.050014228 0
1.9491334 0.66477722 -0.049999524 0
1.9400716 0.68275887 -0.049855027 0
1.93808 0.70269597 -0.049981296 0
1.926731 0.71987689 -0.049768157 0
1.9284604 0.74107093 -0.0500523 0
1.9066931 0.75466466 -0.049463615 0
1.9223062 0.78077966 -0.050291244 0
1.9041798 0.79534519 -0.049854539 0
1.9025871 0.81578684 -0.050053179 0
1.9044154 0.83771491 -0.050393708 0
1.8851004 0.85136116 -0.049932431 0
1.8766876 0.86922437 -0.049897339 0
1.8730251 0.88912416 -0.050055634 0
1.8697629 0.90932947 -0.050240271 0
1.8566357 0.92510474 -0.050047718 0
1.8570127 0.94720632 -0.050396491 0
1.8336066 0.95781457 -0.049811102 0
1.8236622 0.97483784 -0.049766921 0
1.8213881 0.99586934 -0.050040569 0
1.811034 1.0127375 -0.049998581 0
1.8063867 1.0327672 -0.050198402 0
1.7958521 1.0495722 -0.050167475 0
1.7936734 1.0713094 -0.050491866 0
1.7772068 1.0846027 -0.050232653 0
1.7546589 1.0938686 -0.049722116 0
1.7490565 1.113641 -0.049932275 0
1.7376248 1.1297299 -0.049905118 0
1.7267295 1.1461647 -0.04990961 0
1.7137748 1.1611657 -0.049833383 0
1.7042619 1.1785787 -0.049916059 0
1.6922151 1.1941975 -0.049896758 0
1.6820291 1.2112135 -0.049969394 0
1.6585543 1.2179621 -0.049451344 0
1.6622568 1.2459404 -0.050173387 0
1.6403061 1.2535703 -0.049735263 0
1.6419178 1.2805998 -0.05039569 0
1.623238 1.2907572 -0.050122861 0
1.6067953 1.3026397 -0.049959645 0
1.59435 1.3179965 -0.049994387 0
1.5842255 1.3355495 -0.050152063 0
1.563683 1.3433232 -0.049808487 0
1.5546477 1.3620186 -0.050040197 0
1.5320191 1.3673139 -0.049599297 0
1.5213906 1.3845123 -0.049770676 0
1.5104582 1.4015704 -0.049939744 0
1.0269575 0.89147842 0.29346621 0
1.5033826 1.4229816 -0.050325215 0
1.0491891 0.93156099 0.30825669 0
1.4857705 1.4331119 -0.050168488 0
1.4484226 1.3916677 0.060176726 0
1.4420955 1.3846469 0.16806901 0
1.4476318 1.3907903 0.27946624 0
1.0595385 0.96013319 0.31759927 0
1.4690645 1.4441104 -0.05006535 0
1.4199096 1.3881639 0.059406579 0
1.4190166 1.3871475 0.16662098 0
1.4197689 1.3880038 0.27575034 0
1.0492691 0.96631193 0.31686375 0
1.4517219 1.4542589 -0.049933307 0
1.3961183 1.3893421 0.058881748 0
1.3957325 1.3888917 0.16512279 0
1.3895699 1.3816968 0.27132207 0
1.0551792 0.99129736 0.32443145 0
1.4397873 1.470744 -0.050107565 0
1.3647361 1.3808557 0.057926916 0
1.3667066 1.3832157 0.16264267 0
1.3679936 1.3847572 0.26923075 0
1.0596539 1.0154603 0.33153105 0
1.41603 1.472901 -0.049627487 0
1.340803 1.3804605 0.05737254 0
1.3396057 1.3789893 0.16043961 0
1.3460566 1.3869163 0.26701471 0
1.0593128 1.03456 0.33636221 0
1.4094112 1.4961282 -0.050125968 0
1.3231974 1.3874192 0.057172552 0
1.3200505 1.3834512 0.15949719 0
1.3212168 1.384922 0.26392853 0
1.061146 1.0569928 0.34256256 0
1.3968092 1.512193 -0.050300237 0
1.2956791 1.3813243 0.056395594 0
1.2988784 1.3854645 0.15826494 0
1.2952601 1.3807821 0.26045489 0
1.0492723 1.0624586 0.34155932 0
1.3765343 1.5182755 -0.050033905 0
1.2713443 1.3785517 0.055789988 0
1.2763186 1.3851589 0.1567684 0
1.2730373 1.3808006 0.25802687 0
1.0381174 1.0687567 0.34097457 0
1.3661714 1.5375625 -0.050365958 0
1.250232 1.3794559 0.055366356 0
1.2510301 1.3805442 0.15474939 0
1.2528285 1.3829967 0.25617105 0
1.0362192 1.0876065 0.34563181 0
1.3420731 1.5380238 -0.049874909 0
1.244586 1.4015087 0.055886015 0
1.2520778 1.4119999 0.1575541 0
1.2452422 1.4024278 0.25820795 0
1.0199209 1.0869013 0.3422628 0
1.3279243 1.5521941 -0.049997497 0
1.2459503 1.4342916 0.056870818 0
1.2432036 1.430341 0.15861607 0
1.2439642 1.4314349 0.26235163 0
1.0165492 1.1043454 0.3463608 0
1.3118472 1.5636749 -0.050010815 0
1.2460729 1.4664838 0.057821065 0
1.246639 1.4673202 0.16210216 0
1.2421613 1.4607037 0.26652068 0
1.0069951 1.1132109 0.346995 0
1.2909061 1.5677927 -0.049717959 0
1.2416626 1.4930168 0.058521479 0
1.2410911 1.492149 0.16399036 0
1.2408686 1.491811 0.27105722 0
1.17106 1.385807 0.34858298 0
0.99725193 1.1218803 0.34759402 0
1.2764277 1.5816212 -0.049850415 0
1.2457613 1.5337528 0.059820831 0
1.2457629 1.5337554 0.16801372 0
1.2263968 1.5035261 0.27140734 0
1.1507165 1.3853943 0.34566733 0
0.98595363 1.1282103 0.34731251 0
1.2646441 1.5999573 -0.050179143 0
1.2500019 1.5764555 0.061190579 0
1.247628 1.5726452 0.17165418 0
1.2134175 1.5177349 0.27232343 0
1.1278427 1.380381 0.34146884 0
0.97415453 1.1336999 0.34675983 0
1.2494714 1.6131519 -0.050296981 0
1.19268 1.519387 0.27061963 0
1.1111693 1.38481 0.34020498 0
0.96751446 1.1476305 0.34955251 0
0.83952826 0.9363206 0.47189277 0
1.2250261 1.6107626 -0.049776312 0
1.1696408 1.5166656 0.26806802 0
1.0899364 1.3812519 0.33664829 0
0.9541052 1.1504813 0.34807971 0
0.84131962 0.95886421 0.48391649 0
1.2105196 1.6250222 -0.049956765 0
1.157663 1.5325783 0.26946637 0
1.070457 1.3800585 0.33389091 0
0.95015687 1.1696584 0.35293928 0
0.85309315 0.99989802 0.35679901 0
0.8388207 0.97493607 0.41553488 0
0.84002644 0.97704482 0.49285793 0
1.1926546 1.6335013 -0.049907412 0
1.1444504 1.5466751 0.2705116 0
1.0529195 1.3818076 0.33208326 0
0.94083416 1.1799172 0.35439029 0
0.84998405 1.0162762 0.36207509 0
0.83840483 0.99541944 0.4243618 0
0.8399263 0.99816 0.50373876 0
1.1774043 1.6467662 -0.050061624 0
1.1251433 1.5497746 0.26933107 0
1.0346853 1.3818929 0.32986984 0
0.92249584 1.1736798 0.34964186 0
0.84923643 1.0377172 0.36971512 0
0.84293473 1.0260218 0.43888313 0
0.84422982 1.0284255 0.52071095 0
1.1611315 1.6583163 -0.050153513 0
1.1140121 1.5681671 0.27131999 0
1.0155329 1.3797555 0.32709742 0
0.90958411 1.1770532 0.3486194 0
0.85083437 1.0646526 0.37987632 0
0.83899975 1.0420105 0.44502652 0
0.84566736 1.054767 0.53490978 0
1.1393315 1.6591096 -0.049822517 0
1.0899992 1.5617601 0.26831067 0
0.99783713 1.3798927 0.32506239 0
0.89584601 1.1786293 0.34699392 0
0.85077798 1.0896945 0.38908467 0
0.8390578 1.0665666 0.45596436 0
0.83977222 1.0679764 0.54027522 0
1.1208678 1.6661752 -0.049753983 0
1.0802556 1.5834668 0.27102932 0
0.98129523 1.3819299 0.32364345 0
0.89000487 1.1960133 0.35130182 0
0.84356433 1.1014352 0.39210129 0
0.83863735 1.0914011 0.46698961 0
0.84146279 1.0971552 0.55620772 0
1.1058207 1.6803205 -0.049974948 0
0.963162 1.3802999 0.32125604 0
0.8775866 1.2003293 0.35079706 0
0.83620983 1.1133112 0.39520371 0
0.83775306 1.1165566 0.47812986 0
0.84492671 1.1316433 0.57551754 0
1.089798 1.6927261 -0.050133735 0
0.94964379 1.3881416 0.32160684 0
0.86413747 1.2023184 0.34950051 0
0.83814675 1.1458352 0.40774125 0
0.84137076 1.1528416 0.4953416 0
0.83727527 1.1439413 0.58020109 0
1.0660784 1.6881175 -0.049634695 0
0.92917752 1.3804603 0.3176685 0
0.85481691 1.2133495 0.35156563 0
0.83968478 1.1793431 0.42064351 0
0.84231925 1.1852636 0.51031667 0
0.83915704 1.1781571 0.59914827 0
1.0574062 1.7176216 -0.050475653 0
0.91323131 1.3823133 0.31647107 0
0.85253114 1.2411424 0.35973245 0
0.84085786 1.2139939 0.43398243 0
0.84035563 1.2128258 0.52255756 0
0.84294003 1.2188363 0.6221503 0
1.0362307 1.7185626 -0.05021235 0
0.89867204 1.3872052 0.31617498 0
0.85044408 1.2710316 0.36862218 0
0.83888912 1.2431976 0.44480327 0
0.83771968 1.2403805 0.53474408 0
0.83931363 1.2442201 0.63518029 0
1.0171148 1.7241553 -0.050139546 0
0.88139641 1.3852421 0.31404689 0
0.85125548 1.3099746 0.38072136 0
0.83996898 1.2817901 0.45976827 0
0.8391366 1.2797115 0.55323422 0
0.83912522 1.2796831 0.65461278 0
0.99495095 1.7217164 -0.049768977 0
0.86342031 1.380887 0.31133467 0
0.85350072 1.3551828 0.39499247 0
0.8398065 1.3196975 0.47435057 0
0.84391272 1.3303379 0.57768297 0
0.84006858 1.3203766 0.67727762 0
0.97731209 1.7307158 -0.049846418 0
0.85032576 1.3889097 0.31206566 0
0.84392148 1.3716714 0.39899403 0
0.83912122 1.3587507 0.48937181 0
0.83828378 1.3564966 0.58892572 0
0.83997238 1.3610418 0.69981116 0
0.96150339 1.7450095 -0.050132677 0
0.83004487 1.3770385 0.30744845 0
0.84220374 1.4110729 0.41111511 0
0.83941346 1.4032625 0.50672942 0
0.83870447 1.4012778 0.61005008 0
0.93542838 1.7300143 -0.049319737 0
0.81460238 1.3778715 0.30634695 0
0.83895719 1.4488529 0.42262128 0
0.84259349 1.4594506 0.5291217 0
0.84145314 1.4561272 0.63640642 0
0.92465144 1.7596793 -0.050201073 0
1.0288115 2.0761766 0.34999701 0
0.79887956 1.3775128 0.30498222 0
0.84181535 1.5079761 0.44156963 0
0.84312981 1.5119702 0.54980475 0
0.83897364 1.4993414 0.65650684 0
0.90421152 1.760766 -0.050014246 0
1.0068015 2.0862377 0.35050699 0
0.78380346 1.3787653 0.30410695 0
0.84115082 1.5607027 0.45819905 0
0.8399955 1.5570374 0.56716788 0
0.84076178 1.5594685 0.68541664 0
0.88241953 1.7569213 -0.049653862 0
0.98197007 2.0871983 0.34935313 0
0.77111512 1.3876486 0.30531907 0
0.84122878 1.6202635 0.47714311 0
0.84216666 1.6233749 0.59368032 0
0.86481565 1.7667241 -0.049811997 0
0.96129322 2.1020288 0.35086519 0
0.75563222 1.3872606 0.30410793 0
0.83977306 1.6796893 0.49597162 0
0.84042555 1.6819571 0.61674386 0
0.8453033 1.7699991 -0.049736153 0
0.73979235 1.3851269 0.047488738 0
0.738855 1.3817079 0.13050988 0
0.74004376 1.386044 0.21575607 0
0.74039549 1.3873271 0.30307287 0
0.83312863 1.7255896 0.51007569 0
0.83538377 1.7338157 0.63685077 0
0.8270458 1.7778887 -0.049839888 0
0.72567654 1.3889844 0.047491603 0
0.72409588 1.3829203 0.13022602 0
0.72664928 1.3927163 0.21629457 0
0.72521329 1.3872072 0.30204275 0
0.83376896 1.8036821 0.53523034 0
0.83174896 1.7959323 0.66130817 0
0.80926085 1.7880071 -0.050033744 0
0.70885098 1.3819001 0.047098607 0
0.70899475 1.3824817 0.12978087 0
0.70764351 1.3770165 0.21270652 0
0.70856446 1.3807414 0.29939833 0
0.82399601 1.8476034 0.54859322 0
0.82338899 1.8451484 0.68020701 0
0.78991878 1.7920835 -0.050013717 0
0.69623071 1.3915859 0.04732943 0
0.69367754 1.3806717 0.12920672 0
0.69362277 1.3804376 0.21271494 0
0.69599915 1.390596 0.30109301 0
0.81796968 1.9119953 0.56895316 0
0.76989359 1.7930132 -0.049887624 0
0.67865825 1.3795981 0.046773031 0
0.67914742 1.3818147 0.12898038 0
0.67871702 1.3798645 0.21201828 0
0.67924654 1.3822639 0.29807267 0
0.80323637 1.9440998 0.57828224 0
0.75094342 1.7987012 -0.049944557 0
0.66424966 1.3809363 0.046712052 0
0.66464484 1.3828406 0.1287619 0
0.66415602 1.3804851 0.21157795 0
0.66581821 1.3884948 0.29890996 0
0.79207003 1.9968843 0.59467679 0
0.73291141 1.8093386 -0.05019005 0
0.65111309 1.3886037 0.046888027 0
0.65192306 1.3927698 0.12953871 0
0.65060437 1.385987 0.21206927 0
0.649266 1.3791032 0.29572871 0
0.77659225 2.0340135 0.60577303 0
0.71274537 1.8091979 -0.050052166 0
0.6366877 1.3898739 0.046837494 0
0.63445705 1.3775756 0.12758723 0
0.63399166 1.3750098 0.20957029 0
0.63716906 1.3925277 0.29852498 0
0.76303387 2.0864503 0.62208581 0
0.69203591 1.8052644 -0.049786456 0
0.62148154 1.3863069 0.046618525 0
0.62207294 1.3898188 0.12865408 0
0.6227445 1.3938065 0.21256019 0
0.62084532 1.3825291 0.29529464 0
0.74736845 2.1338332 0.63671654 0
0.67360884 1.81481 -0.050017707 0
0.6044687 1.3701295 0.045951292 0
0.60534739 1.3757812 0.12687749 0
0.60702431 1.3865662 0.21081795 0
0.60705668 1.3867743 0.29580146 0
0.72905529 2.1714184 0.64808643 0
0.65333885 1.8126106 -0.049833365 0
0.59142435 1.378462 0.046176877 0
0.59152603 1.3791752 0.1270193 0
0.5921669 1.383669 0.20990615 0
0.59209609 1.3831726 0.29432991 0
0.70750749 2.1924443 0.65394861 0
0.63479614 1.8227339 -0.050102141 0
0.57825315 1.387071 0.04641797 0
0.57718217 1.3788192 0.12677336 0
0.57549769 1.3658402 0.20631441 0
0.57873976 1.3908204 0.29580343 0
0.68816429 2.2339346 0.6667577 0
0.61520815 1.8255819 -0.050117418 0
0.5636425 1.3848598 0.046275739 0
0.56448507 1.3920612 0.12801868 0
0.5644176 1.3914849 0.21065994 0
0.56310815 1.3802929 0.29264927 0
0.66803771 2.2771065 0.68019289 0
0.59360188 1.8092054 -0.049451467 0
0.55247438 1.414723 0.13029748 0
0.55097353 1.4003271 0.21197838 0
0.55270332 1.4169191 0.30164543 0
0.6456731 2.3086562 0.68980771 0
0.57581949 1.8294811 -0.050110053 0
0.5523259 1.5728451 0.14720868 0
0.55252177 1.5749849 0.24335566 0
0.55178362 1.5669215 0.33971164 0
0.62150645 2.3285499 0.69561142 0
0.55599004 1.8297473 -0.050059423 0
0.60351211 2.4323504 0.23971447 0
0.59856308 2.3695941 0.38685283 0
0.59782189 2.3601954 0.54237175 0
0.5354836 1.8192953 -0.049634282 0
0.57410073 2.4026053 0.39247173 0
0.573264 2.389966 0.54949421 0
0.51669592 1.8353813 -0.050167464 0
0.54852009 2.4294868 0.39703542 0
0.547759 2.4152784 0.55555183 0
0.49685094 1.8349142 -0.050117362 0
0.52171218 2.4420748 0.39907494 0
0.52195895 2.448101 0.56360602 0
0.47703594 1.834368 -0.050073378 0
0.45633432 1.1038921 0.35373104 0
0.4561882 1.0987356 0.42363325 0
0.45708865 1.8236496 -0.049675114 0
0.44594708 1.1158906 0.35860297 0
0.4456526 1.0971839 0.42274088 0
0.43748835 1.8348932 -0.050069906 0
0.43512905 1.0857272 0.41695908 0
0.43514302 1.0901569 0.49573243 0
0.41777304 1.828494 -0.049843654 0
0.42472872 1.0918679 0.42004791 0
0.42483944 1.0801418 0.48981211 0
0.39803833 1.8300759 -0.049911212 0
0.41397217 1.1070405 0.35497972 0
0.41400647 1.1054846 0.42694458 0
0.41460344 1.0783947 0.48887163 0
0.37828904 1.8306118 -0.049950317 0
0.35236084 2.5791326 0.4237144 0
0.35254455 2.5738292 0.59556985 0
0.40518847 1.0540529 0.47459948 0
0.35875586 1.8259242 -0.049811624 0
0.32239282 2.5954783 0.42688105 0
0.32229173 2.5976174 0.60194975 0
0.3956551 1.0450222 0.46947953 0
0.33887479 1.8286301 -0.049946059 0
0.29203457 2.6108663 0.42994517 0
0.29227054 2.6069252 0.60473084 0
0.38612238 1.0395912 0.46656561 0
0.31890845 1.8311577 -0.05008319 0
0.26150647 2.622617 0.4324235 0
0.26141065 2.6239378 0.60958195 0
0.29916221 1.8299261 -0.050094776 0
0.35535464 1.1703658 0.038462322 0
0.230542 2.6353571 0.43515316 0
0.2291283 2.6519506 0.61735445 0
0.27975374 1.8251275 -0.049987335 0
0.19755724 2.6647749 0.44097891 0
0.19849646 2.6551807 0.6188876 0
0.26092172 1.8157791 -0.049725097 0
0.16591276 2.6746354 0.44333947 0
0.16646616 2.6696329 0.62340236 0
0.34669226 1.0404353 0.4690502 0
0.24129301 1.8143722 -0.049756642 0
0.13425089 2.6819057 0.44530538 0
0.13482834 2.6772256 0.62626445 0
0.22002123 1.8248419 -0.050225064 0
0.10316436 2.6828816 0.4462015 0
0.10328649 2.6819847 0.62850434 0
0.20200846 1.8111821 -0.049833063 0
0.069830105 2.6980569 0.44975978 0
0.06872578 2.7054667 0.63568032 0
0.18112855 1.8169379 -0.050150644 0
0.0349143 2.7198603 0.45461282 0
0.036358133 2.7109444 0.63833004 0
0.16250645 1.8084649 -0.049962748 0
0.0051505729 2.7082415 0.45343786 0
0.0029431151 2.7208641 0.64224154 0
0.1411169 1.8154217 -0.05034342 0
-0.030409349 2.7283332 0.45814785 0
-0.029160423 2.7216861 0.64390969 0
0.12286671 1.8053778 -0.050115768 0
-0.08810021 2.8551898 0.1003447 0
-0.089578047 2.8625436 0.29080594 0
-0.062724218 2.728914 0.45936289 0
-0.061987564 2.7252481 0.64640021 0
0.10284011 1.8043833 -0.050226279 0
-0.11439545 2.8190718 0.09927287 0
-0.11404999 2.8174584 0.286596 0
-0.095447615 2.7305684 0.4608542 0
-0.093059197 2.7194121 0.64655304 0
0.082933083 1.8024969 -0.050313674 0
-0.14335878 2.79808 0.098763861 0
-0.14285727 2.7958736 0.28499794 0
-0.1255122 2.719563 0.46008447 0
-0.12886854 2.7343295 0.65223843 0
0.065680191 1.789301 -0.049995244 0
-0.17446537 2.7875094 0.09864936 0
-0.17368682 2.7842731 0.28453869 0
-0.15882029 2.7224779 0.46196467 0
-0.1605797 2.7297912 0.65295386 0
0.043863431 1.7949775 -0.05037893 0
-0.21067221 2.7973309 0.099300005 0
-0.20967187 2.7933912 0.28641823 0
-0.19595022 2.739356 0.46652699 0
-0.19529118 2.7367606 0.65680575 0
0.029804872 1.770579 -0.049662612 0
-0.25290877 2.8279057 0.10073663 0
-0.25234801 2.8258088 0.29094633 0
-0.2272426 2.7319164 0.46665207 0
-0.23108245 2.7462769 0.66145837 0
0.006904827 1.7795099 -0.050186273 0
-0.26079565 2.7324405 0.46834314 0
-0.26280504 2.7395933 0.66195369 0
-0.0090153646 1.7634264 -0.049791615 0
-0.29585814 2.7372355 0.47092274 0
-0.29309112 2.7278416 0.66120893 0
-0.02887748 1.7610637 -0.049915489 0
-0.32836396 2.7324975 0.47179642 0
-0.32972515 2.7369127 0.66612214 0
-0.048669145 1.7581868 -0.050029952 0
-0.35938913 2.7227483 0.47180161 0
-0.35750282 2.7168927 0.6633811 0
-0.068879202 1.7562919 -0.050191242 0
-0.39164698 2.7166486 0.47257528 0
-0.39184147 2.7172272 0.66620094 0
-0.084773734 1.7417188 -0.049883284 0
-0.42631882 2.7170999 0.47468171 0
-0.42938393 2.7258534 0.67139131 0
-0.10294749 1.7340264 -0.049842946 0
-0.45893282 2.7110295 0.47562957 0
-0.45693815 2.7055552 0.66887945 0
-0.12290056 1.731104 -0.049993228 0
-0.48956835 2.6993463 0.47557855 0
-0.49044353 2.7016575 0.67092431 0
-0.13988073 1.720322 -0.049852367 0
-0.51883286 2.6841812 0.47492713 0
-0.52182221 2.6917846 0.67145663 0
-0.16317607 1.7252817 -0.050325926 0
-0.54611117 2.6643724 0.47343948 0
-0.55110794 2.6766262 0.67064399 0
-0.17500593 1.7022403 -0.049728099 0
-0.58412778 2.6704979 0.47708857 0
-0.58292246 2.6676452 0.67163992 0
-0.19764961 1.704963 -0.050136734 0
-0.61378562 2.6562314 0.47683769 0
-0.61774099 2.6652732 0.67459297 0
-0.2121795 1.6890496 -0.049828555 0
-0.64559674 2.6467953 0.47761527 0
-0.64017236 2.634809 0.6698184 0
-0.231214 1.6832712 -0.049925212 0
-0.66440403 2.609293 0.4728888 0
-0.66704702 2.6149428 0.66808009 0
-0.24803515 1.6727484 -0.049843822 0
-0.69717216 2.6021857 0.47426897 0
-0.69978845 2.6075995 0.66997528 0
-0.26482987 1.6622946 -0.049773086 0
-0.7257899 2.5863152 0.47397459 0
-0.73077643 2.5963111 0.67087471 0
-0.28712356 1.662627 -0.05014345 0
-0.755656 2.5729489 0.47425908 0
-0.76142681 2.584161 0.67164445 0
-0.29900551 1.6427772 -0.049711891 0
-0.78334403 2.5553827 0.47376448 0
-0.78603828 2.5604594 0.66919386 0
-0.31975222 1.6397624 -0.049968485 0
-0.81240857 2.5404663 0.47388262 0
-0.8110311 2.5379479 0.6671623 0
-0.33409113 1.6249999 -0.049756166 0
-0.61989462 2.1322463 0.082542248 0
-0.84209406 2.526608 0.47429612 0
-0.83178008 2.5083025 0.66311896 0
-0.35681504 1.6249828 -0.050158329 0
-0.61611617 2.0719385 0.08060614 0
-0.86325705 2.4979336 0.47170117 0
-0.85966015 2.4917338 0.6629799 0
-0.37511617 1.6169991 -0.050244123 0
-0.61686516 2.0218685 0.079079151 0
-0.89137435 2.4816031 0.47173524 0
-0.89128685 2.4814565 0.66481322 0
-0.38599938 1.5968188 -0.049829155 0
-0.62251222 1.9818214 0.077960663 0
-0.91312087 2.4548831 0.46964517 0
-0.91605091 2.4596524 0.66332817 0
-0.40655953 1.5924972 -0.050086357 0
-0.61839759 1.9277933 0.076245807 0
-0.93999231 2.4368112 0.46944153 0
-0.93706906 2.4321845 0.66021568 0
-0.41871876 1.5749035 -0.049791627 0
-0.61793745 1.8816042 0.074848413 0
-0.96250987 2.4120793 0.4678764 0
-0.9545573 2.3998363 0.65567315 0
-0.43755406 1.5676786 -0.049946044 0
-0.61189854 1.828827 0.073156163 0
-0.97806072 2.3772967 0.46417981 0
-0.9849062 2.3875504 0.65731394 0
-0.45367783 1.5563027 -0.04993232 0
-0.62357044 1.8039719 0.072654814 0
-1.0005261 2.353497 0.46289584 0
-0.99378705 2.343673 0.64931262 0
-0.4742533 1.5512558 -0.050203722 0
-0.61963189 1.7575705 0.071214363 0
-1.0167375 2.321125 0.45977125 0
-1.0251983 2.3331323 0.6516794 0
-0.48835462 1.5369307 -0.050080087 0
-0.62013495 1.7190338 0.070105143 0
-0.62302423 1.7230263 0.19950123 0
-1.0456463 2.3070345 0.46073312 0
-1.041845 2.3017814 0.6476382 0
-0.075277463 0.96611232 0.4393999 0
-0.51179874 1.5353205 -0.050528683 0
-0.61934483 1.6800622 0.068966433 0
-0.61724949 1.6772422 0.19516626 0
-1.0628219 2.2769189 0.4581849 0
-1.0716332 2.2887778 0.64945704 0
-0.086645082 0.96312428 0.44155768 0
-0.51669657 1.5088683 -0.049879368 0
-0.62311471 1.6483876 0.068143941 0
-0.62488282 1.6507055 0.19338124 0
-1.0882728 2.2582312 0.45825303 0
-1.0821218 2.2501671 0.64319646 0
-0.1018659 0.96500611 0.44689038 0
-0.52726358 1.4903958 -0.0495882 0
-0.62488663 1.6150962 0.067242146 0
-0.61888158 1.6074256 0.18930638 0
-1.097525 2.2188284 0.45365024 0
-1.0974424 2.2187228 0.63923848 0
-0.10268314 0.94805104 0.44042769 0
-0.55125773 1.4889596 -0.050080318 0
-0.6199584 1.5744749 0.06599652 0
-0.61996448 1.5744824 0.18660469 0
-1.1129593 2.1881387 0.45104319 0
-1.1164852 2.1925275 0.63702095 0
-0.12699111 0.96085262 0.45300379 0
-0.5655297 1.4751782 -0.050020311 0
-0.6191802 1.5402641 0.065031633 0
-0.62046731 1.5418255 0.18391661 0
-1.1294606 2.1593082 0.44888869 0
-1.1331276 2.1637568 0.63400757 0
-0.13608791 0.95420307 0.45329612 0
-0.57865608 1.460103 -0.049907524 0
-0.61638319 1.5047148 0.063993394 0
-0.62157083 1.5108492 0.18143718 0
-1.1419295 2.1261675 0.44574192 0
-1.1439439 2.1285496 0.62888104 0
-0.15121503 0.95465869 0.45832205 0
-0.59782994 1.4521155 -0.050136253 0
-0.61480296 1.471681 0.063060969 0
-0.62260652 1.4806763 0.17904676 0
-1.1666992 2.1078694 0.4461416 0
-1.1599897 2.1001351 0.62603825 0
-0.60963309 1.4355974 -0.049971361 0
-0.62930167 1.4577014 0.063027687 0
-0.63327873 1.462171 0.17830975 0
-1.1693394 2.0646105 0.44059485 0
-1.1704726 2.0658841 0.62123871 0
-0.62462473 1.4227407 -0.049988687 0
-0.66102517 1.4626256 0.063916489 0
-0.65592027 1.4570322 0.17952845 0
-1.1771131 2.0281181 0.43664426 0
-1.1863947 2.0382881 0.61872786 0
-0.64609182 1.4167799 -0.050352599 0
-0.50447023 1.2654721 0.054953668 0
-0.69170308 1.4655107 0.1828078 0
-1.1889806 1.9967997 0.43394896 0
-1.199542 2.0080833 0.61534524 0
-0.65245783 1.3947117 -0.049937133 0
-0.50928426 1.2455553 0.05455583 0
-0.720276 1.465364 0.18490885 0
-1.2007198 1.9658843 0.43135878 0
-1.2010062 1.9661825 0.60784334 0
-0.68104792 1.3956337 -0.0506722 0
-0.51409715 1.2260336 0.054175839 0
-0.74073219 1.4562651 0.18574002 0
-1.2161084 1.9391849 0.42984045 0
-1.2020142 1.9248669 0.60046411 0
-0.68139529 1.367844 -0.049978293 0
-0.52959681 1.2174717 0.054350026 0
-0.77631903 1.4618758 0.18886718 0
-1.2253246 1.9066628 0.42685992 0
-1.221543 1.9029168 0.6000154 0
-0.69872296 1.3571327 -0.05015311 0
-0.54032969 1.2041306 0.05429088 0
-0.81111312 1.4656975 0.19182751 0
-1.2189015 1.8596059 0.4200972 0
-1.2256237 1.8660994 0.59419107 0
-0.71184421 1.3422858 -0.050126225 0
-0.56367505 1.202723 0.054859295 0
-0.83712804 1.4602922 0.19344963 0
-1.2319112 1.8321439 0.41837645 0
-1.2196676 1.8206115 0.58508104 0
-0.72582436 1.328249 -0.050150394 0
-0.87362909 1.463997 0.069315046 0
-0.8708241 1.4614208 0.19618392 0
-1.2307715 1.7920067 0.41329592 0
-1.2270815 1.7886177 0.58090681 0
-0.23230822 0.87498969 0.37975323 0
-0.73102105 1.3063197 -0.049761876 0
-0.90219522 1.4596027 0.069965124 0
-0.90395629 1.4611799 0.19880417 0
-1.2278298 1.751202 0.40795913 0
-1.2413193 1.7632815 0.57925516 0
-0.235658 0.86273205 0.37737122 0
-0.75158262 1.2981644 -0.05011896 0
-0.94324708 1.4654957 0.071202464 0
-1.2334447 1.7188507 0.40485293 0
-1.2333232 1.7187446 0.57019997 0
-0.23448898 0.84671921 0.37261689 0
-0.76698518 1.2852833 -0.050235212 0
-0.96436369 1.453271 0.071488537 0
-1.2375737 1.6857986 0.40152493 0
-1.2407583 1.688509 0.56660002 0
-0.22460766 0.82366878 0.36328664 0
-0.25564456 0.85008413 0.45815364 0
-0.76812267 1.2604572 -0.049696095 0
-1.0028576 1.4551959 0.072584905 0
-1.2489327 1.6593425 0.40002379 0
-1.2328147 1.6459708 0.55806637 0
-0.25600278 0.83559686 0.37641582 0
-0.79145801 1.2540646 -0.050196011 0
-1.0470886 1.4607605 0.073932461 0
-1.2458849 1.6215014 0.39527413 0
-1.2296138 1.6083452 0.5513519 0
-0.2503832 0.81656665 0.36962312 0
-0.80191243 1.2370695 -0.050109196 0
-1.08796 1.4624628 0.075110808 0
-1.2528192 1.5923648 0.39297336 0
-1.2331202 1.5768428 0.54703695 0
-0.27469528 0.82164502 0.37880218 0
-0.80450773 1.214114 -0.049679164 0
-1.1213834 1.4573944 0.075941615 0
-1.2489812 1.5553572 0.38832924 0
-1.243076 1.5508235 0.54496622 0
-0.26157653 0.79727995 0.36832097 0
-0.24134524 0.7817474 0.43108368 0
-0.83463931 1.2121282 -0.050493736 0
-1.164508 1.458845 0.077200003 0
-1.2529554 1.524997 0.38559344 0
-1.234521 1.5112095 0.53712237 0
-0.2690497 0.78910989 0.36874405 0
-0.2705493 0.79023147 0.44529361 0
-0.83491719 1.1876801 -0.049983349 0
-1.211225 1.4618096 0.078604765 0
-1.2465346 1.4875315 0.38064891 0
-1.2340956 1.4784701 0.53207427 0
-1.2315758 1.4766346 0.69096792 0
-0.27782905 0.78185737 0.36988527 0
-0.27593106 0.78047472 0.44456089 0
-0.84045911 1.1674037 -0.049721457 0
-1.2541397 1.4608573 0.079828963 0
-1.2463641 1.4553415 0.37723523 0
-1.2442968 1.4538749 0.53052479 0
-1.2451934 1.454511 0.69035023 0
-0.27583855 0.76687771 0.36559579 0
-0.28681642 0.77466512 0.44728652 0
-0.85184753 1.1513858 -0.049726624 0
-1.2944436 1.4570475 0.080929816 0
-1.249612 1.4260863 0.37468952 0
-1.2355975 1.4164077 0.52322483 0
-1.2430501 1.4215546 0.68347853 0
-0.27682841 0.75427133 0.43734095 0
-0.8737632 1.1424358 -0.05019331 0
-1.27855 1.4145228 0.079606012 0
-1.2780287 1.4141723 0.22750396 0
-1.2472612 1.3934911 0.37102905 0
-1.2465327 1.3930016 0.52216792 0
-1.2309135 1.3825028 0.67282587 0
-0.27383184 0.73917794 0.43184957 0
-0.87778795 1.1213872 -0.049897783 0
-1.2636175 1.3737372 0.078357004 0
-1.264215 1.3741281 0.22388838 0
-1.242282 1.3597828 0.36692104 0
-1.2349426 1.3549825 0.5143429 0
-1.2368799 1.3562497 0.66965336 0
-0.29716754 0.74163532 0.44226021 0
-0.89632738 1.1098166 -0.050230056 0
-1.2807351 1.3543818 0.078495957 0
-1.2875495 1.3587172 0.22509792 0
-1.2577077 1.3397315 0.36729848 0
-1.2408059 1.3289783 0.51200342 0
-1.2479464 1.3335211 0.66864812 0
-0.29889518 0.72972226 0.43975538 0
-0.89742243 1.0871743 -0.049833555 0
-1.2884506 1.3290896 0.078249395 0
-1.2904464 1.3303243 0.22373992 0
-1.2535996 1.3075285 0.36358425 0
-1.2352803 1.296195 0.50636393 0
-1.2371131 1.2973289 0.65919566 0
-0.9136759 1.0739708 -0.050083466 0
-1.2989097 1.3056456 0.078132302 0
-1.3071123 1.3105785 0.2241639 0
-1.2473689 1.2746496 0.35953695 0
-1.2358501 1.2677222 0.5027051 0
-1.2346815 1.2670196 0.65325373 0
-0.92261302 1.0562841 -0.050035913 0
-1.3300623 1.2943852 0.078884006 0
-1.3422767 1.3015229 0.22691841 0
-1.2496063 1.2473691 0.35737497 0
-1.2420138 1.2429323 0.50083238 0
-1.2370541 1.240034 0.64935422 0
-0.92896426 1.0371646 -0.049891721 0
-1.3777853 1.2919159 0.080316439 0
-1.3722272 1.288761 0.22902316 0
-1.2503847 1.2196031 0.35499734 0
-1.2410314 1.2142942 0.49696851 0
-1.2397938 1.2135917 0.64575332 0
-0.94180477 1.0217336 -0.050022896 0
-1.2390127 1.1855161 0.35020638 0
-1.2341015 1.1828097 0.49150422 0
-1.2458082 1.1892608 0.64354831 0
-0.94629252 1.0017276 -0.049822923 0
-1.253091 1.1657932 0.3507407 0
-1.2353424 1.1563019 0.48855567 0
-1.2348763 1.1560526 0.63508052 0
-0.95772696 0.98547983 -0.049913798 0
-1.2675484 1.1461787 0.35139915 0
-1.246951 1.1354951 0.48870233 0
-1.2355481 1.1295807 0.63117403 0
-0.96321619 0.96616763 -0.049774729 0
-1.2639983 1.1174027 0.34846842 0
-1.2352781 1.102962 0.48227474 0
-1.2325928 1.1016117 0.62606603 0
-0.97960913 0.95227259 -0.050079204 0
-1.2840588 1.100579 0.35036504 0
-1.236726 1.0775218 0.47972661 0
-1.239087 1.0786719 0.62461692 0
-0.98684013 0.93381548 -0.050027158 0
-1.284204 1.0740654 0.34832168 0
-1.2353837 1.0510396 0.47649717 0
-1.2583581 1.0618753 0.62798291 0
-1.0023578 0.91917682 -0.050309751 0
-1.2938086 1.0521779 0.34823158 0
-1.233982 1.0248766 0.47336334 0
-1.2388642 1.0271045 0.61723089 0
-1.0091085 0.90044874 -0.050255887 0
-1.3129166 1.0344932 0.35006988 0
-1.2436119 1.003915 0.47341532 0
-1.2467701 1.0053084 0.61666167 0
-1.0039278 0.87667274 -0.049748439 0
-1.3257976 1.013871 0.35072124 0
-1.2390195 0.97688144 0.46959594 0
-1.2481037 0.98075366 0.61381811 0
-1.0143389 0.85969567 -0.049857125 0
-1.3316391 0.99024981 0.35004723 0
-1.2373782 0.9514659 0.46670467 0
-1.2463095 0.95514071 0.60997558 0
-1.0201781 0.84081864 -0.0497979 0
-1.3372744 0.96664405 0.34939444 0
-1.2341708 0.92573202 0.46348593 0
-1.2386751 0.92751938 0.60417747 0
-1.0332271 0.82473934 -0.050023638 0
-1.3373511 0.94100666 0.347729 0
-1.231948 0.90071082 0.46064037 0
-1.236195 0.90233445 0.60036731 0
-1.0407852 0.80646676 -0.05004717 0
-1.3619256 0.92462677 0.35084122 0
-1.2427449 0.88077557 0.46143326 0
-1.2428175 0.88080227 0.59991425 0
-1.0369085 0.78412861 -0.049646311 0
-1.371981 0.90264636 0.35120168 0
-1.2382435 0.85534239 0.45815063 0
-1.239754 0.85587662 0.59614098 0
-1.0605186 0.77142036 -0.050294146 0
-1.3718425 0.87714696 0.34967187 0
-1.2352672 0.83076555 0.45537946 0
-1.2366742 0.83124334 0.59248871 0
-1.0563978 0.74919862 -0.04990416 0
-1.383352 0.85566097 0.3504186 0
-1.2400355 0.80899441 0.45478085 0
-1.2393142 0.80875951 0.59096134 0
-1.0587564 0.72928154 -0.049768485 0
-1.3940001 0.83379316 0.35105085 0
-1.2318903 0.78325576 0.45080692 0
-1.232547 0.7834605 0.58626056 0
-1.0704461 0.71224171 -0.049990296 0
-1.4001228 0.81048077 0.35088104 0
-1.2380233 0.76217741 0.45073542 0
-1.238897 0.76243776 0.58624178 0
-1.0759693 0.69328272 -0.049990416 0
-1.4030721 0.78628683 0.35017204 0
-1.2369505 0.73905396 0.44882345 0
-1.2369971 0.7390672 0.5834614 0
-1.0795816 0.67380291 -0.049928699 0
-1.406939 0.76243991 0.34969386 0
-1.2356416 0.71605855 0.4469327 0
-1.2454836 0.71872342 0.58437204 0
-1.100863 0.65891099 -0.050527591 0
-1.4115447 0.73884809 0.34941086 0
-1.232699 0.69283187 0.4446941 0
-1.2362911 0.69375604 0.5792945 0
-1.0912316 0.63604099 -0.049995571 0
-1.4222721 0.71678621 0.35032034 0
-1.2384331 0.67194545 0.44481784 0
-1.2334222 0.6707232 0.5765059 0
-1.0904609 0.61559629 -0.049800299 0
-1.4208391 0.69178575 0.34902805 0
-1.240634 0.65022814 0.44408509 0
-1.2454538 0.65133965 0.57891202 0
-1.1077447 0.5992142 -0.050274607 0
-1.4376123 0.67092395 0.35115761 0
-1.2444141 0.62892467 0.44383821 0
-1.2391952 0.62779015 0.57516766 0
-1.1161252 0.58066905 -0.050430804 0
-1.4351522 0.64582652 0.34978977 0
-1.2386394 0.60569113 0.44117382 0
-1.2405814 0.60608774 0.57412952 0
-1.1062731 0.5585233 -0.049932402 0
-1.4460249 0.62346834 0.35093147 0
-1.2428696 0.5846343 0.44119072 0
-1.2328641 0.58272171 0.57010311 0
-1.1169558 0.5403893 -0.050189905 0
-1.4299092 0.59613675 0.34717828 0
-1.2419437 0.56265384 0.43994021 0
-1.2366723 0.56171483 0.57008004 0
-1.1206043 0.52090627 -0.050200615 0
-1.4538487 0.57594848 0.35081762 0
-1.2303878 0.53903931 0.4360151 0
-1.2370054 0.54013228 0.56897449 0
-1.1116651 0.49949577 -0.049765598 0
-1.4562265 0.55195928 0.35056299 0
-1.240072 0.51904726 0.43765584 0
-1.2404622 0.51910663 0.56901389 0
-1.1105753 0.47948614 -0.049624011 0
-1.4673219 0.52921742 0.35195127 0
-1.2340823 0.4967033 0.43532103 0
-1.245706 0.49832365 0.5697425 0
-1.1192367 0.46080843 -0.049842633 0
-1.4650043 0.50457841 0.35095114 0
-1.2409519 0.47621608 0.43636933 0
-1.2458113 0.47683123 0.5688346 0
-1.1324995 0.44249606 -0.050234735 0
-0.51003444 0.3716507 0.039868463 0
-0.50568938 0.37115616 0.10748209 0
-0.51286989 0.3719734 0.17760465 0
-1.2418724 0.45494425 0.43595484 0
-1.2362117 0.45429996 0.56476903 0
-1.1331667 0.42262945 -0.050182652 0
-0.5107488 0.35971725 0.039848309 0
-0.5087288 0.35951304 0.10767319 0
-0.51526767 0.360174 0.17780729 0
-1.2330973 0.43273017 0.43312335 0
-1.2503922 0.43447828 0.56875539 0
-1.1290865 0.40237704 -0.049969446 0
-0.46958202 0.34409499 0.038332526 0
-0.50968838 0.34763929 0.10765552 0
-0.51233661 0.34787333 0.17707182 0
-1.2433653 0.41247612 0.43524411 0
-1.2434036 0.41247952 0.56575048 0
-1.1313843 0.38275504 -0.049993932 0
-0.50375628 0.33524612 0.10691123 0
-0.50541162 0.33537143 0.17564273 0
-1.2446853 0.39133149 0.4351387 0
-1.2404159 0.39100832 0.56417578 0
-1.136018 0.36325991 -0.050110806 0
-0.5093767 0.32375413 0.10742835 0
-0.51749486 0.32426593 0.17767814 0
-1.239614 0.369791 0.43346763 0
-1.2517092 0.37055352 0.56745315 0
-1.241663 0.36992016 0.70055735 0
-1.1347381 0.34338099 -0.050024986 0
-0.5053314 0.31165168 0.10692063 0
-0.50544751 0.31165752 0.17538007 0
-1.2429757 0.34883741 0.43402115 0
-1.2412956 0.34875271 0.56358325 0
-1.2457267 0.34897608 0.70174611 0
-0.35613906 0.30413067 0.47431988 0
-1.1405612 0.32382795 -0.05020193 0
-0.52297556 0.30048612 0.10876217 0
-0.52213585 0.30045438 0.17829791 0
-1.2535547 0.32809857 0.43648452 0
-1.2408917 0.32761997 0.56313926 0
-1.2309903 0.32724574 0.69525409 0
-0.35672992 0.29420283 0.47441053 0
-1.1272167 0.30366406 -0.049703076 0
-0.41643858 0.28575882 0.35762021 0
-0.40068537 0.28536198 0.42302963 0
-0.38215858 0.28489527 0.48931003 0
-1.1374013 0.2841453 -0.050053462 0
-0.40812427 0.27496016 0.42665273 0
-0.36729175 0.27444586 0.48037761 0
-1.1365103 0.26437622 -0.050017204 0
-0.38939834 0.26437426 0.41725001 0
-0.39475846 0.26437426 0.49662909 0
-0.90323406 -0.98929477 -0.091229923 0
-1.0166359 -0.98929507 -0.09069749 0
-1.128327 -0.98929536 -0.084631808 0
-1.122305 -0.9892953 -0.056889299 0
-1.1341254 -0.98929536 -0.031692449 0
-1.1334109 -0.98929536 -0.0049134996 0
-1.1354256 -0.98929536 0.021525333 0
-1.1245681 -0.98929536 0.048571162 0
-1.1371508 -0.98929536 0.074508481 0
-1.1265595 -0.98929536 0.10100259 0
-1.1402025 -0.98929536 0.12756847 0
-1.1323916 -0.98929536 0.1537987 0
-1.1307116 -0.98929536 0.18015084 0
-1.1264645 -0.98929536 0.20627084 0
-1.1216911 -0.9892953 0.232245 0
-1.12447 -0.98929536 0.25919986 0
-1.1335267 -0.98929536 0.28749371 0
-1.1307355 -0.98929536 0.31419596 0
-0.89074403 -1.0118008 -0.088635392 0
-1.0228176 -1.0151346 -0.091923244 0
-1.1329117 -1.0179136 -0.085444666 0
-1.1308074 -1.0178604 -0.058134828 0
-1.1402882 -1.0180997 -0.03245521 0
-1.1254249 -1.0177245 -0.0042015743 0
-1.1163414 -1.0174953 0.022834623 0
-1.1310319 -1.017866 0.048253458 0
-1.1312689 -1.0178721 0.074636854 0
-1.1375917 -1.0180316 0.10100291 0
-1.1328954 -1.0179131 0.12740657 0
-1.1373714 -1.0180261 0.15404773 0
-1.1213162 -1.0176208 0.17951849 0
-1.136577 -1.0180061 0.20724918 0
-1.1234637 -1.017675 0.23249415 0
-1.1297387 -1.0178335 0.25999123 0
-1.1154819 -1.0174736 0.28458539 0
-1.124144 -1.0176922 0.31302157 0
-0.89374566 -1.0344872 -0.089455537 0
-1.0103966 -1.0403796 -0.089765169 0
-1.1347288 -1.0466599 -0.085921921 0
-1.1228181 -1.0460583 -0.057162751 0
-1.2456789 -1.0522643 -0.044915844 0
-1.2426518 -1.0521115 -0.015258087 0
-1.2358732 -1.051769 0.014392847 0
-1.2291249 -1.0514282 0.04363054 0
-1.2274278 -1.0513425 0.072373085 0
-1.2341647 -1.0516827 0.1010057 0
-1.254389 -1.0527043 0.13026717 0
-1.2319499 -1.0515709 0.15851258 0
-1.2359095 -1.0517709 0.18762153 0
-1.2323824 -1.0515927 0.21631023 0
-0.89799225 -1.0574777 -0.090664588 0
-1.0087504 -1.0658785 -0.089758523 0
-1.1189119 -1.0742341 -0.08361309 0
-1.13016 -1.0750873 -0.058449794 0
-1.2466967 -1.0839264 -0.045267884 0
-1.2460203 -1.0838751 -0.01575884 0
-1.2375126 -1.0832298 0.014139796 0
-1.2521238 -1.0843381 0.042465281 0
-1.2410984 -1.0835018 0.072008699 0
-1.2434932 -1.0836834 0.10100602 0
-1.2435986 -1.0836915 0.1300617 0
-1.2382512 -1.0832858 0.15889893 0
-1.2343616 -1.0829908 0.18765117 0
-1.245038 -1.0838006 0.21767965 0
-0.88545543 -1.0790713 -0.088414811 0
-1.0145546 -1.0921466 -0.091284029 0
-1.142771 -1.1051326 -0.087967359 0
-1.2338444 -1.1143566 -0.073452227 0
-1.2514431 -1.1161391 -0.046152595 0
-1.2318426 -1.1141539 -0.014689853 0
-1.2379867 -1.1147761 0.013912233 0
-1.2451291 -1.1154995 0.042661708 0
-1.2425532 -1.1152387 0.071909919 0
-1.2537909 -1.1163768 0.1010064 0
-1.2397783 -1.1149576 0.13003728 0
-1.2385416 -1.1148323 0.15904213 0
-1.244113 -1.1153966 0.18853085 0
-2.0021858 -1.1921753 0.28901854 0
-1.9909357 -1.1910359 0.33507836 0
-1.931164 -1.1849822 0.37400499 0
-1.4719484 -1.1384721 0.37990361 0
-0.89868766 -1.1034098 -0.091795839 0
-1.0073123 -1.1171882 -0.09046308 0
-1.1573778 -1.1362232 -0.090931781 0
-1.2019662 -1.141879 -0.069439031 0
-1.2422942 -1.1469944 -0.045498777 0
-1.240608 -1.1467805 -0.015847912 0
-1.2360049 -1.1461966 0.013800973 0
-1.2456719 -1.1474228 0.042468183 0
-1.2473803 -1.1476395 0.07171303 0
-1.2412496 -1.1468619 0.10100614 0
-1.2399927 -1.1467025 0.13012609 0
-1.2465912 -1.1475395 0.15958771 0
-1.2490894 -1.1478564 0.18913417 0
-1.6039885 -1.1928734 0.36695662 0
-1.4764906 -1.1767009 0.38157019 0
-0.89477855 -1.1259593 -0.091635995 0
-1.0064584 -1.1429986 -0.090976365 0
-1.1439713 -1.1639792 -0.08938054 0
-1.191146 -1.1711768 -0.068502568 0
-1.6151416 -1.2358667 -0.090096168 0
-2.5525603 -1.3788908 -0.14013559 0
-3.4190528 -1.5110934 -0.14088854 0
-5.1345596 -1.772832 -0.14087932 0
-10.27757 -2.5575123 -0.14077587 0
-1.3503132 -1.1954613 0.29315031 0
-1.3506891 -1.1955186 0.32576901 0
-1.3629111 -1.1973833 0.36091387 0
-0.89039683 -1.1484008 -0.091495998 0
-0.99827158 -1.1676563 -0.090213351 0
-1.1405884 -1.1930597 -0.089612447 0
-1.1980745 -1.2033209 -0.070200942 0
-1.6127365 -1.2773374 -0.090610318 0
-2.5421941 -1.4432442 -0.14016183 0
-3.4002318 -1.5964028 -0.14056425 0
-5.1079168 -1.9012221 -0.14063159 0
-10.228405 -2.8152218 -0.14062649 0
-1.3359697 -1.227935 0.29190618 0
-1.3286239 -1.2266237 0.32302478 0
-1.313293 -1.2238872 0.35250553 0
-0.8862642 -1.1708742 -0.091531925 0
-0.99734133 -1.1936072 -0.090960883 0
-1.134594 -1.2216972 -0.089530282 0
-1.1825917 -1.2315204 -0.068809368 0
-1.6094689 -1.318885 -0.091148801 0
-2.527962 -1.5068634 -0.13997424 0
-3.3820319 -1.681657 -0.14043586 0
-5.0895596 -2.0311189 -0.14092991 0
-10.185458 -3.0740435 -0.1407779 0
-1.2484279 -1.2449945 0.31064242 0
-1.2211087 -1.2394034 0.33599585 0
-0.87307775 -1.1912791 -0.089716248 0
-0.98793775 -1.2178223 -0.090201013 0
-1.1247058 -1.2494283 -0.08891242 0
-1.1903952 -1.2646086 -0.070870839 0
-1.5989372 -1.3590195 -0.090944506 0
-2.5241427 -1.5728275 -0.14093652 0
-3.3735347 -1.7691153 -0.14115687 0
-5.0609407 -2.1590619 -0.1408959 0
-10.132792 -3.3311279 -0.14085373 0
-0.87561452 -1.2153077 -0.091452904 0
-0.98340249 -1.2430992 -0.090501644 0
-1.1188383 -1.2780193 -0.089091368 0
-1.3129065 -1.3280569 -0.089714177 0
-1.578562 -1.3965523 -0.089672707 0
-2.0028574 -1.5059506 -0.092184968 0
-3.3388488 -1.8504161 -0.14015077 0
-5.0348587 -2.2877069 -0.14113839 0
-10.07221 -3.5865133 -0.14089526 0
-0.86057419 -1.2347718 -0.089450739 0
-0.9762665 -1.267736 -0.090419628 0
-1.1172773 -1.3079139 -0.090130456 0
-1.2979776 -1.3594005 -0.088842787 0
-1.5821931 -1.4403815 -0.091423802 0
-1.9776822 -1.5530677 -0.091068693 0
-3.330765 -1.9385992 -0.14121981 0
-4.9958053 -2.4130163 -0.14091136 0
-9.9941149 -3.8371763 -0.14066902 0
-0.85564208 -1.2569113 -0.089792766 0
-0.96733689 -1.2918062 -0.090105258 0
-1.107666 -1.3356471 -0.089921065 0
-1.298878 -1.3953844 -0.090411134 0
-1.5750203 -1.4816551 -0.092000835 0
-1.9747736 -1.6065437 -0.092236884 0
-3.2905324 -2.0176051 -0.14010507 0
-4.9637203 -2.5403323 -0.14117607 0
-9.9262533 -4.0906973 -0.14084381 0
-0.85739166 -1.2814256 -0.091762967 0
-0.95875984 -1.3159249 -0.089978717 0
-1.0982107 -1.3633852 -0.089857958 0
-1.289526 -1.4284967 -0.090605281 0
-1.5429336 -1.5147407 -0.089635141 0
-1.9495651 -1.6531322 -0.091348924 0
-3.2688742 -2.1021411 -0.14049904 0
-4.9099994 -2.6606762 -0.14053649 0
-9.8355837 -4.3370328 -0.14061645 0
-0.85141116 -1.3036035 -0.092139862 0
-0.9522692 -1.3407942 -0.090391465 0
-1.0880288 -1.3908546 -0.08978907 0
-1.280966 -1.4619988 -0.091044538 0
-1.5318198 -1.5544995 -0.089963414 0
-1.9273226 -1.7003384 -0.090864234 0
-3.2424121 -2.1852682 -0.14069703 0
-4.872932 -2.7865109 -0.14086726 0
-9.7669725 -4.5911546 -0.14108697 0
-0.82455039 -1.3175895 -0.087871529 0
-0.95822561 -1.37075 -0.093458034 0
-1.0801613 -1.4192418 -0.090250887 0
-1.2538347 -1.4883087 -0.088806711 0
-1.5278674 -1.5972869 -0.091321342 0
-1.9114321 -1.7498242 -0.091131814 0
-3.2127068 -2.267319 -0.1408101 0
-4.8266139 -2.9091425 -0.14089629 0
-9.6572351 -4.8301992 -0.14069289 0
-0.82999444 -1.3442905 -0.09110529 0
-0.93997192 -1.391274 -0.091753148 0
-1.0620763 -1.4434383 -0.089018993 0
-1.2489742 -1.523283 -0.090049095 0
-1.513898 -1.6364611 -0.091557421 0
-1.885287 -1.7951223 -0.090487547 0
-3.1815131 -2.3488829 -0.14096785 0
-4.7754612 -3.0298338 -0.14083676 0
-9.5633173 -5.075254 -0.14084627 0
-0.81953561 -1.3645778 -0.090816073 0
-0.91882986 -1.4099931 -0.089536972 0
-1.043788 -1.4671465 -0.087845825 0
-1.2266039 -1.550763 -0.088735662 0
-1.4938284 -1.6729864 -0.091138624 0
-1.8660847 -1.8432492 -0.090665109 0
-3.1441646 -2.4278183 -0.14081167 0
-4.7310395 -3.1536245 -0.14127618 0
-9.4550838 -5.314311 -0.14079268 0
-0.8106395 -1.3855677 -0.091013335 0
-0.91886377 -1.4384089 -0.091830336 0
-1.0378832 -1.4965209 -0.089031823 0
-1.212566 -1.5818108 -0.088816874 0
-1.4669931 -1.7060364 -0.089953877 0
-1.8473896 -1.8917673 -0.091022991 0
-3.1155126 -2.510936 -0.14148422 0
-4.6625776 -3.2663 -0.14063649 0
-9.3388453 -5.5495162 -0.14068651 0
-0.79663903 -1.403973 -0.090116449 0
-0.91002637 -1.4629233 -0.092421986 0
-1.034549 -1.527663 -0.090846114 0
-1.2126595 -1.6202629 -0.091260828 0
-1.4443094 -1.7406981 -0.089409553 0
-1.812175 -1.9319521 -0.089775749 0
-3.068495 -2.5851152 -0.1408828 0
-4.6058197 -3.3843732 -0.14075077 0
-9.2295446 -5.7882571 -0.14091533 0
-0.78840411 -1.4253365 -0.090719111 0
-0.88508475 -1.4787419 -0.089688934 0
-1.0145043 -1.5502318 -0.08969488 0
-1.1906041 -1.6475075 -0.09033782 0
-1.4309546 -1.7802745 -0.090219222 0
-1.7965614 -1.9822319 -0.090708561 0
-3.024605 -2.6605899 -0.14067125 0
-4.5459337 -3.5009556 -0.14085771 0
-9.0970659 -6.0149522 -0.14069067 0
-0.77833998 -1.4458109 -0.091012038 0
-0.87566245 -1.502822 -0.090389438 0
-0.99323928 -1.571698 -0.088401802 0
-1.1677155 -1.6739054 -0.089376591 0
-1.4045811 -1.8126601 -0.089411877 0
-1.7788619 -2.0319121 -0.091565929 0
-2.9850161 -2.7384715 -0.14095829 0
-4.4813819 -3.6150355 -0.14087214 0
-8.9775105 -6.248847 -0.140964 0
-0.76613772 -1.4650582 -0.090903036 0
-0.86423928 -1.5259012 -0.090791203 0
-0.98316228 -1.5996578 -0.089356042 0
-1.1667688 -1.7135313 -0.092138045 0
-1.3962164 -1.8558356 -0.091180079 0
-1.7447939 -2.0720248 -0.090775661 0
-2.9393914 -2.8129187 -0.14091381 0
-4.4177451 -3.7297997 -0.14109348 0
-8.8377552 -6.4711075 -0.14084928 0
-0.75439292 -1.4845918 -0.091031007 0
-0.86178052 -1.5550067 -0.093348898 0
-0.97981673 -1.6324039 -0.09178672 0
-1.1371928 -1.7355965 -0.090301074 0
-1.364942 -1.8849332 -0.08992704 0
-1.721391 -2.1186593 -0.091274731 0
-2.8879681 -2.8835919 -0.14053969 0
-4.3325996 -3.8308473 -0.14028108 0
-8.6891069 -6.6874394 -0.14064011 0
-0.74839401 -1.5081586 -0.092773177 0
-0.83862555 -1.5706353 -0.091377132 0
-0.96055812 -1.6550621 -0.091242976 0
-1.1159227 -1.7626373 -0.089945905 0
-1.3284427 -1.9097872 -0.088012703 0
-1.6844368 -2.1562791 -0.090376593 0
-2.835851 -2.9535239 -0.14025037 0
-4.2655883 -3.9434812 -0.14062443 0
-8.5486107 -6.9090672 -0.14081092 0
-0.72259861 -1.5177959 -0.089492001 0
-0.82059509 -1.5893734 -0.09065517 0
-0.93635666 -1.6739266 -0.089798503 0
-1.1047579 -1.7969283 -0.091460489 0
-1.3213438 -1.9551244 -0.090407871 0
-1.6616031 -2.2036526 -0.091202714 0
-2.7911503 -3.0286832 -0.1407492 0
-4.1926227 -4.05233 -0.14079332 0
-8.4002571 -7.1256208 -0.14091831 0
-0.71078324 -1.5372311 -0.089961343 0
-0.80283207 -1.6080939 -0.090093993 0
-0.91430449 -1.6939096 -0.088869341 0
-1.0716132 -1.8150121 -0.089258574 0
-1.2987838 -1.9898969 -0.090736754 0
-1.6247652 -2.24085 -0.090534918 0
-2.7494395 -3.1066682 -0.14168739 0
-4.1158557 -4.1585884 -0.14090209 0
-8.2417278 -7.334847 -0.14088812 0
-0.69550717 -1.5540221 -0.08962626 0
-0.80159789 -1.640044 -0.093642719 0
-0.90439767 -1.7233974 -0.09059649 0
-1.0613453 -1.8506557 -0.091232009 0
-1.2816823 -2.0293119 -0.092024513 0
-1.5944118 -2.2828834 -0.090744279 0
-2.6858711 -3.1678741 -0.14085312 0
-4.0344081 -4.2613115 -0.14089175 0
-8.0710554 -7.5343566 -0.14065033 0
-0.67911416 -1.5697743 -0.089088969 0
-0.77358401 -1.6504079 -0.090834759 0
-0.88268191 -1.7435273 -0.089968704 0
-1.036916 -1.875172 -0.090796299 0
-1.2433251 -2.0513504 -0.09022548 0
-1.557952 -2.3198965 -0.090337656 0
-2.6334434 -3.2378702 -0.1411652 0
-3.9491067 -4.3608398 -0.14080235 0
-7.914916 -7.7458124 -0.14100395 0
-0.67623848 -1.5975145 -0.092513718 0
-0.75626427 -1.6693878 -0.090735368 0
-0.86784536 -1.7696016 -0.090957232 0
-1.0139529 -1.9008245 -0.090743206 0
-1.2186514 -2.0846696 -0.090621211 0
-1.5250659 -2.3598683 -0.090486027 0
-2.5732439 -3.3012638 -0.14091834 0
-3.8635364 -4.4601088 -0.14084958 0
-7.7267847 -7.9297915 -0.14053088 0
-0.65196705 -1.6061788 -0.089966737 0
-0.74623364 -1.69524 -0.092645042 0
-0.85123914 -1.7944473 -0.09171655 0
-0.99514866 -1.9304101 -0.091616638 0
-1.1906898 -2.1151538 -0.090631522 0
-1.4964389 -2.4040196 -0.091312967 0
-1.9886646 -2.869065 -0.090384983 0
-3.7766516 -4.558321 -0.14097241 0
-7.5527978 -8.1259518 -0.14064568 0
-0.64443642 -1.6306468 -0.092436559 0
-0.72719938 -1.7128897 -0.092383586 0
-0.82719195 -1.8122538 -0.090914629 0
-0.96136773 -1.9455863 -0.089691184 0
-1.1656277 -2.1485627 -0.091245078 0
-1.4594325 -2.440521 -0.091203116 0
-1.9306903 -2.9088171 -0.089408047 0
-3.68558 -4.652678 -0.14098428 0
-7.3750772 -8.3189878 -0.14080134 0
-0.62494475 -1.6434826 -0.091482095 0
-0.70169926 -1.7237039 -0.090473376 0
-0.80247432 -1.8290308 -0.090037428 0
-0.94085354 -1.9736602 -0.090488143 0
-1.1254203 -2.1665635 -0.089455359 0
-1.4182856 -2.4726567 -0.090654127 0
-1.8843784 -2.9598019 -0.089684583 0
-3.5843515 -4.7365584 -0.14047086 0
-7.1924019 -8.507576 -0.14095633 0
-0.61099559 -1.6620969 -0.092352711 0
-0.6876986 -1.7464247 -0.091803826 0
-0.7770288 -1.844635 -0.089059852 0
-0.91739708 -1.998957 -0.090839021 0
-1.0964766 -2.1958385 -0.08964964 0
-1.3822782 -2.510051 -0.090913706 0
-1.8395442 -3.0127728 -0.090254344 0
-3.4937055 -4.8313708 -0.14081976 0
-6.99016 -8.6754007 -0.14060187 0
-0.58720797 -1.6696687 -0.090201952 0
-0.66993648 -1.7653644 -0.092253216 0
-0.76023436 -1.8698159 -0.090325005 0
-0.8879227 -2.0175188 -0.09004239 0
-1.0763264 -2.2354536 -0.091551356 0
-1.3435496 -2.5445626 -0.090925403 0
-1.7927495 -3.064172 -0.090772323 0
-3.3924568 -4.9146237 -0.14059219 0
-6.7963223 -8.852025 -0.14068419 0
-0.57105637 -1.6857562 -0.090604566 0
-0.64917314 -1.7808657 -0.091965728 0
-0.74023205 -1.8917326 -0.090961091 0
-0.86640221 -2.0453484 -0.091084309 0
-1.0440532 -2.2616436 -0.091461442 0
-1.303795 -2.5778868 -0.090912811 0
-1.7372838 -3.1056721 -0.090492181 0
-3.2952192 -5.0025034 -0.14080364 0
