# .PCD v0.7 - Point Cloud Data file format
VERSION 0.7
FIELDS x y z intensity
SIZE 4 4 4 4
TYPE F F F F
COUNT 1 1 1 1
WIDTH 1365
HEIGHT 1
VIEWPOINT 0 0 0 1 0 0 0
POINTS 1365
DATA ascii
-0.097591855 0.61042422 0.47523317 0
0.36840376 -0.0082072075 -0.049893953 0
0.073170803 0.39440215 0.44750482 0
-0.089111961 0.61570728 0.47564325 0
0.38948616 -0.0034356168 -0.050206117 0
1.130363 -0.98754144 0.10618342 0
1.1357195 -0.99465656 0.30853286 0
0.098276936 0.38337725 0.45736861 0
-0.080457397 0.62078989 0.47628492 0
0.40572152 0.0079736654 -0.050233778 0
0.10845455 0.39265549 0.45686978 0
-0.078224011 0.63422906 0.47075105 0
0.41519395 0.027946824 -0.049880762 0
0.12673391 0.39167261 0.46185568 0
-0.069205679 0.63873732 0.47194269 0
0.43380442 0.03630149 -0.050064363 0
-0.058013357 0.64065677 0.47521245 0
0.45109114 0.046448465 -0.050177384 0
-0.05326537 0.65051365 0.47249275 0
0.45976648 0.066776626 -0.049823225 0
-0.049825884 0.66172314 0.46873382 0
0.47794542 0.075914375 -0.050002091 0
-0.037891306 0.66302425 0.47278908 0
0.48435435 0.098306052 -0.049556971 0
1.2047353 -0.70108187 0.099974774 0
-0.0352147 0.67485833 0.46860117 0
0.50547642 0.10432064 -0.049906708 0
1.2073041 -0.65503097 0.098822199 0
-0.027329246 0.68079692 0.46915221 0
0.53233033 0.10465144 -0.05055324 0
0.38867107 0.25621158 0.055097874 0
0.5356887 0.12981176 -0.049988236 0
0.38861391 0.28111327 0.054455083 0
0.84171718 -0.18501163 0.22172247 0
-0.016518394 0.69788849 0.4662061 0
0.5456472 0.14779091 -0.049780209 0
0.39572975 0.29818094 0.054199051 0
0.84472173 -0.15222609 0.21943797 0
-0.0056620627 0.70083773 0.46947631 0
0.55735523 0.16385806 -0.049673475 0
0.40921703 0.3087672 0.054275159 0
0.7410211 -0.015804535 0.20120212 0
0.74322194 -0.017957335 0.33413205 0
0.73688275 -0.011756307 0.46793264 0
-0.0023778465 0.71139044 0.46645567 0
0.5803526 0.16905689 -0.050135057 0
0.42423388 0.31797242 0.054432441 0
0.83712262 -0.075866111 0.21311519 0
0.18923743 0.54212642 0.34928817 0
0.0035700414 0.71922731 0.46576369 0
0.58987898 0.18723381 -0.049937684 0
0.46027693 0.30777639 0.055618741 0
0.83528632 -0.041018847 0.21040373 0
0.19267757 0.55666989 0.34680372 0
0.017911931 0.71921891 0.47195864 0
0.60806555 0.19737339 -0.050171029 0
0.83863026 -0.011721974 0.0732833 0
0.83529538 -0.0086976346 0.2080548 0
0.20388712 0.56391627 0.3479197 0
0.021220466 0.72957373 0.46924984 0
0.6186499 0.2144587 -0.050045621 0
0.83658808 0.021759028 0.072431579 0
0.83497185 0.023187989 0.20574288 0
0.83234495 0.025510782 0.3405644 0
0.21129473 0.57463986 0.34737563 0
0.029774567 0.73513895 0.47082734 0
0.63150007 0.22947812 -0.050038565 0
0.83779472 0.051651236 0.071762159 0
0.83285934 0.055905577 0.20325936 0
0.84360021 0.04664683 0.33958659 0
0.23475565 0.57147372 0.35394832 0
0.034396254 0.74418437 0.46936408 0
0.63778847 0.25000906 -0.049734458 0
0.8366788 0.082883231 0.071009129 0
0.8433525 0.077275388 0.20262961 0
0.84689969 0.074294679 0.33680794 0
0.93139988 0.0032899329 0.50213999 0
0.26845607 0.5603559 0.36488408 0
0.27150312 0.55779546 0.45427701 0
0.039877318 0.75242865 0.46867055 0
0.64920479 0.26606673 -0.049682111 0
0.84413606 0.10641157 0.070677698 0
0.84729272 0.10382616 0.20113362 0
0.83514363 0.11377668 0.33062968 0
0.94974416 0.019915098 0.50303388 0
0.29859933 0.55322421 0.37411743 0
0.24341805 0.59841949 0.4345879 0
0.047937952 0.75852412 0.47004163 0
0.6691919 0.27523994 -0.050031077 0
0.84811324 0.1324234 0.070204206 0
0.82741243 0.148947 0.19642328 0
0.83563656 0.14238238 0.32745501 0
0.9842456 0.023761386 0.50926179 0
0.2732425 0.59129012 0.35959449 0
0.24382801 0.61476904 0.43046361 0
0.049499832 0.76988333 0.46652621 0
0.67647773 0.29460794 -0.049807429 0
0.85392588 0.15658903 0.069833241 0
0.84053689 0.16700292 0.1963302 0
0.84451967 0.16390526 0.32631099 0
0.26334253 0.61594391 0.43650898 0
0.055485271 0.77761489 0.4664765 0
0.68639463 0.3117882 -0.04971474 0
0.85086745 0.18715322 0.069082119 0
0.83642942 0.19809425 0.19394523 0
0.84097511 0.19464946 0.3224273 0
0.25728115 0.63696367 0.42921841 0
0.064898811 0.78274798 0.46905091 0
0.70416802 0.3230918 -0.049981177 0
0.8495689 0.21576428 0.068433203 0
0.83732718 0.22480047 0.19230346 0
0.83769923 0.22452593 0.31872696 0
0.29817173 0.62277734 0.44629431 0
0.074610792 0.78779852 0.47186938 0
0.72093111 0.33535689 -0.050207082 0
0.84648973 0.24509609 0.067727752 0
0.84230536 0.2481041 0.19126125 0
0.84038693 0.24948323 0.31646851 0
0.081470154 0.79504907 0.47262561 0
0.72761971 0.35487193 -0.049998738 0
0.85267287 0.26734149 0.067448288 0
0.85074455 0.26869118 0.19072089 0
0.83562773 0.2792722 0.31266001 0
0.84586698 0.27210522 0.44300824 0
0.093286656 0.79887098 0.47703001 0
0.73784763 0.37180156 -0.049955737 0
0.88745028 0.26986998 0.068418652 0
0.83703774 0.30421847 0.18733904 0
0.84754413 0.29705995 0.31260541 0
0.83680516 0.30437696 0.43642691 0
0.11181393 0.79834872 0.48624724 0
0.74708885 0.38935268 -0.049879998 0
0.93400031 0.26541775 0.069886625 0
0.83698362 0.32974637 0.18580371 0
0.83729357 0.32954091 0.30780315 0
0.84225875 0.32624865 0.43446869 0
0.1158758 0.80788952 0.48509002 0
0.77085513 0.39747405 -0.050431397 0
0.94621199 0.28435326 0.069881454 0
0.8409763 0.35223961 0.18483964 0
0.84117502 0.3521114 0.30616087 0
0.84146589 0.35192376 0.4307138 0
0.12362381 0.81499588 0.48662871 0
0.77716404 0.41701096 -0.050247028 0
0.99318379 0.28148001 0.071351431 0
0.83517236 0.38061649 0.18267633 0
0.84162194 0.37657005 0.30386105 0
0.84113079 0.3768782 0.42722407 0
0.13174053 0.82195002 0.48847631 0
0.77513391 0.441486 -0.049725667 0
1.0421646 0.27860022 0.072892644 0
0.83694094 0.40378433 0.181528 0
0.83727401 0.40358126 0.3006312 0
0.84827524 0.39687061 0.42609057 0
0.13945176 0.82924521 0.49008924 0
0.79040152 0.45528233 -0.049938936 0
1.0729368 0.28778321 0.073665172 0
0.84712332 0.42165518 0.18147597 0
0.83679408 0.42777884 0.2983079 0
0.83707517 0.42761213 0.41959956 0
0.1431684 0.83899009 0.48899966 0
0.80350703 0.47050112 -0.050068777 0
0.84887964 0.44436872 0.18040735 0
0.83004338 0.45521742 0.29475996 0
0.83633798 0.45159209 0.41635033 0
0.14002503 0.85263449 0.48330748 0
0.80866092 0.4902758 -0.049880303 0
0.85006708 0.46711719 0.1793115 0
0.84117335 0.4720915 0.29500344 0
0.84766811 0.46845895 0.41674009 0
0.1535178 0.85669923 0.48907664 0
0.81415766 0.50971657 -0.049717195 0
0.84528345 0.49281883 0.17752811 0
0.84845775 0.49109554 0.29449984 0
0.84266657 0.49423945 0.4124479 0
0.8339209 0.52151686 -0.050140731 0
0.84870309 0.51373112 0.17679235 0
0.83302897 0.5219866 0.28941882 0
0.83996266 0.51833469 0.40894055 0
0.83502108 0.5431875 -0.049819373 0
0.84506327 0.53805882 0.17524131 0
0.85055858 0.53525227 0.29112372 0
0.84321982 0.53900033 0.40725058 0
0.83861595 0.54135162 0.52751404 0
0.83871275 0.56332618 -0.049614146 0
0.84534091 0.56004566 0.17420648 0
0.84341246 0.56100017 0.28788623 0
0.84186727 0.5617649 0.4043332 0
0.84411043 0.5606547 0.52626228 0
0.85667843 0.57646543 -0.049985345 0
0.86130446 0.5742479 0.17508042 0
0.83319277 0.58772349 0.28411856 0
0.83605272 0.58635253 0.40025228 0
0.83998853 0.58446586 0.52156019 0
0.86157221 0.59596157 -0.049846452 0
0.89314622 0.5813123 0.17785165 0
0.83442742 0.60855591 0.28271726 0
0.84476465 0.60375977 0.40036809 0
0.84472853 0.60377651 0.52024585 0
0.86773306 0.61478519 -0.049767554 0
0.93307227 0.58546406 0.18157007 0
0.84750444 0.62386286 0.28371677 0
0.84980935 0.62282854 0.39951926 0
0.83077818 0.63136888 0.51221234 0
0.88932806 0.62685764 -0.050298948 0
0.96283907 0.59497517 0.18408431 0
0.8396731 0.64839351 0.28063866 0
0.8378827 0.64917004 0.39402235 0
0.83191627 0.65175778 0.50982052 0
0.89976507 0.64401311 -0.050401565 0
0.99553043 0.60390365 0.18694009 0
0.84241861 0.66803163 0.27970538 0
0.84452921 0.66714764 0.39378378 0
0.85162252 0.6641767 0.51423162 0
0.89561731 0.66714394 -0.049950395 0
1.033269 0.61151791 0.19037946 0
0.83884543 0.69008583 0.277596 0
0.84370774 0.68812096 0.39155385 0
0.83514386 0.69158167 0.5056923 0
0.89971751 0.68672371 -0.049828637 0
1.0775088 0.61746818 0.1945629 0
0.84407598 0.70839792 0.2772547 0
0.84049839 0.70979148 0.38875356 0
0.84447998 0.70824057 0.50653523 0
0.27657399 0.92945856 0.45381439 0
0.9003008 0.70753431 -0.049582776 0
0.84362 0.72879529 0.27586424 0
0.83967668 0.73027444 0.38669157 0
0.83888525 0.73057127 0.50214356 0
0.27923426 0.9404968 0.45308548 0
0.91965455 0.72139132 -0.050060414 0
0.84909254 0.74685043 0.27566612 0
0.83561629 0.75171274 0.38383061 0
0.84138209 0.74963242 0.50073338 0
0.26930693 0.95603961 0.44573846 0
0.92508012 0.74043632 -0.050016295 0
0.8569327 0.76405877 0.27596426 0
0.85134703 0.76599497 0.38639927 0
0.84043568 0.76977724 0.49820164 0
0.85259002 0.76556408 0.62386811 0
0.2663596 0.96877337 0.44222358 0
0.92358965 0.76175201 -0.049721196 0
0.85314065 0.78518289 0.2740916 0
0.83257645 0.79202241 0.37972921 0
0.84408337 0.78819525 0.49738032 0
0.84565395 0.78767288 0.61820519 0
0.29813531 0.96977395 0.45711717 0
0.94270438 0.77628636 -0.050209433 0
0.85448521 0.80439883 0.27324918 0
0.84000891 0.80901194 0.38019025 0
0.8498196 0.80588561 0.49737272 0
0.83655173 0.81011367 0.61174488 0
0.3078759 0.97858489 0.4603864 0
0.93401009 0.79966158 -0.049664717 0
0.84468132 0.82689357 0.2703537 0
0.84601992 0.82648546 0.38032755 0
0.84469217 0.82689023 0.49366429 0
0.83468837 0.8299399 0.60856521 0
0.31510392 0.98833573 0.46238706 0
0.94757229 0.81616014 -0.049960539 0
0.87054771 0.8385852 0.27422231 0
0.84258026 0.84672767 0.37801164 0
0.83605784 0.84862655 0.48884609 0
0.8507548 0.84434772 0.61323678 0
0.32906088 0.99623424 0.467951 0
0.95029134 0.83588779 -0.049861297 0
0.89183801 0.85211045 0.27724859 0
0.84050852 0.86635596 0.37613365 0
0.83710176 0.86730146 0.48748094 0
0.83593851 0.86762428 0.60470033 0
0.31923643 1.0110254 0.46119875 0
0.95959646 0.85380745 -0.050014757 0
0.93596929 0.86004543 0.2845571 0
0.84488314 0.88409364 0.37602821 0
0.83727807 0.88610154 0.48590288 0
0.83694893 0.88618839 0.60309535 0
0.31882522 1.0229818 0.45943666 0
0.96380776 0.8731184 -0.049988572 0
0.95742208 0.87471855 0.28764474 0
0.83861417 0.90449083 0.37318248 0
0.84890038 0.90191317 0.48833686 0
0.83745581 0.9047811 0.60138035 0
0.32955191 1.0320574 0.46350294 0
0.96254736 0.89371169 -0.049770635 0
0.97725874 0.89022142 0.29045787 0
0.84016198 0.92274767 0.37246236 0
0.83627504 0.92366987 0.48254076 0
0.83999056 0.92278838 0.6006332 0
0.32918695 1.0439768 0.4619123 0
0.97629493 0.91078907 -0.050111894 0
1.0077835 0.903736 0.29527459 0
0.84376496 0.94047433 0.37234178 0
0.82829517 0.94393945 0.47843835 0
0.84639996 0.93988413 0.60162854 0
0.33890161 1.0535582 0.46557146 0
0.96861416 0.9326328 -0.04967827 0
1.0529293 0.914859 0.30280474 0
0.84049934 0.95963973 0.37048891 0
0.83727223 0.96032 0.48019919 0
0.84426898 0.95884508 0.59909862 0
0.35259625 1.0624908 0.47131777 0
0.97658604 0.95107365 -0.049825378 0
1.0814631 0.93034101 0.30728808 0
0.84382445 0.97731864 0.37041751 0
0.84767669 0.97655714 0.48250979 0
0.83619362 0.97882718 0.59416717 0
0.3695173 1.0710822 0.47875279 0
0.98058671 0.9703564 -0.04983642 0
0.85445243 0.99364495 0.37229884 0
0.83816928 0.99665141 0.47814772 0
0.83773333 0.99673188 0.59340143 0
0.37743446 1.0817186 0.48164448 0
0.99202567 0.98837346 -0.050125677 0
0.84641308 1.0133667 0.36939707 0
0.83198279 1.0158436 0.47500154 0
0.84249777 1.0140388 0.59408695 0
0.38323757 1.0928673 0.48352483 0
0.98991436 1.0087508 -0.049932748 0
0.43552998 1.0967355 0.0418928 0
0.42611995 1.0982289 0.11302185 0
0.43538007 1.0967593 0.18728875 0
0.42754504 1.0980028 0.26043791 0
0.44208106 1.0956959 0.34268564 0
0.42833617 1.0978773 0.41924119 0
0.38840851 1.104214 0.48515233 0
0.99931556 1.027315 -0.050164804 0
0.4093934 1.1133394 0.040881075 0
0.4021298 1.1143987 0.11021139 0
0.41108534 1.1130928 0.18251365 0
0.39713469 1.1151271 0.25210986 0
0.4075183 1.1136129 0.33042032 0
0.40978584 1.1132822 0.41068792 0
0.39833334 1.1149523 0.4892529 0
1.0034225 1.0467516 -0.050214216 0
0.39664665 1.1274449 0.04036082 0
0.43699434 1.1220791 0.11380849 0
0.429912 1.123021 0.18562935 0
0.43817058 1.1219227 0.26223999 0
0.43621948 1.1221821 0.33948416 0
0.425387 1.1236228 0.41649455 0
0.41022518 1.1256391 0.49440774 0
0.99341136 1.0679233 -0.049764708 0
0.37890807 1.1417826 0.039668247 0
0.4405463 1.134374 0.11402126 0
0.42275926 1.1365119 0.184044 0
0.42548546 1.1361843 0.25857222 0
0.41935506 1.1369212 0.33330196 0
0.42978606 1.1356674 0.41767523 0
1.0025264 1.0867244 -0.050012138 0
0.36882469 1.1548085 0.039257973 0
0.85481578 1.1025943 0.36837682 0
0.83658952 1.1045524 0.47244358 0
0.84553891 1.103591 0.59021294 0
1.0080969 1.1060396 -0.050140664 0
0.34347871 1.1689912 0.038306739 0
0.84609121 1.1213846 0.36568004 0
0.84170431 1.1218001 0.47355959 0
0.84159726 1.1218102 0.5878306 0
1.0195047 1.1249702 -0.050486866 0
0.36805031 1.1784079 0.039150994 0
0.85183865 1.1387236 0.36675131 0
0.83725125 1.1399201 0.47155315 0
0.83291453 1.1402758 0.5835765 0
1.010607 1.1455572 -0.050114632 0
0.37763759 1.1894628 0.03946251 0
0.84993702 1.1567019 0.36592129 0
0.83587426 1.1576774 0.4706504 0
0.83355516 1.1578383 0.58329213 0
1.00137 1.1659036 -0.049739804 0
0.84694117 1.1746632 0.36487013 0
0.83649307 1.1752559 0.47048792 0
0.83316559 1.1754446 0.58267254 0
1.012464 1.1850919 -0.050100893 0
0.84374362 1.1925323 0.36382583 0
0.83282274 1.1930139 0.46897087 0
0.83519346 1.1929094 0.58314705 0
1.0031397 1.2051811 -0.049741145 0
0.84638458 1.2101172 0.36432973 0
0.83774799 1.2103891 0.47039005 0
0.84629077 1.2101202 0.58746946 0
1.0177106 1.2245682 -0.050243758 0
0.85521024 1.2276379 0.36646819 0
0.84274274 1.2278733 0.47190478 0
0.84357053 1.2278577 0.58615857 0
1.0158154 1.2444168 -0.050167181 0
0.84688503 1.2454803 0.36428699 0
0.84983343 1.2454618 0.47419003 0
0.83841008 1.2455337 0.58392996 0
1.0072156 1.2641722 -0.04986015 0
0.84249097 1.2631351 0.36316589 0
0.8416087 1.2631296 0.47145367 0
0.83790141 1.2631062 0.58371931 0
1.0036216 1.2838087 -0.049740676 0
0.85227817 1.28095 0.36572003 0
0.83934814 1.2807057 0.47077522 0
0.84060866 1.2807295 0.58493197 0
1.0045063 1.3035051 -0.049789958 0
0.85986131 1.2989503 0.36776978 0
0.83309001 1.2981073 0.46883959 0
0.84141964 1.2983695 0.5854516 0
1.0155638 1.3236879 -0.050211664 0
0.84007972 1.3159493 0.36289015 0
0.84986013 1.3163806 0.47464463 0
0.83021015 1.3155141 0.58108175 0
1.0008531 1.3427103 -0.049721319 0
0.8492021 1.3341082 0.36544791 0
0.83472568 1.333287 0.46989897 0
0.83555096 1.3333338 0.58366174 0
0.99760848 1.3621843 -0.049649455 0
1.2998276 1.3831476 0.072464988 0
1.2975644 1.3829906 0.2058315 0
1.2959733 1.3828802 0.3410579 0
0.84113604 1.3513306 0.3636705 0
0.83861643 1.3511559 0.47156489 0
0.83386368 1.3508263 0.58342022 0
1.0007001 1.3821304 -0.049813263 0
1.2442489 1.4021083 0.07053747 0
1.2486304 1.4024677 0.20074546 0
1.0172763 1.3834901 0.29094592 0
0.85571557 1.3702376 0.36774376 0
0.84056503 1.3689948 0.47265932 0
0.83638877 1.3686522 0.58501977 0
1.006183 1.4024222 -0.050072026 0
1.2500036 1.4255165 0.07081569 0
1.2500242 1.4255184 0.20111275 0
0.89202946 1.3916098 0.26857397 0
0.85322112 1.3879339 0.36750725 0
0.84069306 1.3867472 0.47322163 0
0.84115404 1.3867909 0.58764631 0
0.99505168 1.4211156 -0.049743745 0
0.64424294 1.3834252 0.049147345 0
0.64034671 1.3830067 0.13546255 0
0.63805085 1.3827599 0.22284004 0
0.63664705 1.3826091 0.31239465 0
0.84451884 1.4049426 0.47509676 0
0.84550637 1.4050487 0.59019935 0
1.0078351 1.4424535 -0.050283358 0
0.5526039 1.3877376 0.045914046 0
0.56413299 1.3891234 0.12739864 0
0.54691631 1.3870541 0.20659672 0
0.55340821 1.3878343 0.29144433 0
0.83415061 1.4215777 0.47229522 0
0.84465545 1.4228404 0.59068233 0
1.0087259 1.4625969 -0.050405223 0
0.54333586 1.4007061 0.045643922 0
0.55881709 1.4027648 0.12701595 0
0.55189377 1.4018441 0.20782229 0
0.55003279 1.4015967 0.29103088 0
0.83718401 1.439784 0.47405717 0
0.83650237 1.4396933 0.58820963 0
0.9885301 1.4797554 -0.049775679 0
0.55813032 1.416993 0.046247341 0
0.55879301 1.4170896 0.12722595 0
0.54080921 1.4144672 0.20615663 0
0.5510729 1.4159639 0.29179981 0
0.84332961 1.4585817 0.47694567 0
0.84206682 1.4583976 0.59156072 0
1.0029323 1.5019584 -0.050403323 0
0.55270535 1.4305042 0.04612847 0
0.54794365 1.4297484 0.12627803 0
0.54874641 1.4298759 0.20799011 0
0.54385895 1.4291002 0.29048473 0
0.84339434 1.4766386 0.47787127 0
0.83713347 1.4756449 0.59061629 0
0.98259133 1.5186503 -0.049783934 0
0.56222576 1.4464979 0.046556879 0
0.53422862 1.4416924 0.12503292 0
0.53671855 1.4421197 0.2062097 0
0.55557925 1.4453571 0.29411095 0
0.8375048 1.4937474 0.47686556 0
0.84469956 1.4949822 0.59501183 0
0.99238831 1.5404657 -0.050264873 0
0.54090017 1.4571059 0.045873728 0
0.55191594 1.4591398 0.12723319 0
0.55634969 1.4599584 0.21025959 0
0.54744309 1.4583139 0.29264703 0
0.84610671 1.5134572 0.48083305 0
0.84016067 1.5123594 0.59442347 0
0.99001271 1.5602237 -0.050314005 0
0.54946905 1.4731348 0.046281658 0
0.55868453 1.4749565 0.12826683 0
0.5473482 1.4727155 0.20909698 0
0.55106372 1.4734499 0.2942794 0
0.84245437 1.5310537 0.48073873 0
0.84022766 1.5306134 0.59586972 0
0.9714188 1.5766015 -0.0497806 0
0.55660254 1.4891573 0.046645656 0
0.55685395 1.4892104 0.12838061 0
0.54612583 1.4869488 0.20939465 0
0.54873163 1.4874982 0.29441366 0
0.84144789 1.5492034 0.48161894 0
0.84202307 1.5493246 0.59814829 0
0.97699517 1.5980109 -0.050137509 0
0.55383354 1.5032274 0.046655755 0
0.55315036 1.5030743 0.12830818 0
0.54905325 1.5021566 0.21049321 0
0.5608179 1.5047917 0.29836422 0
0.83672875 1.5665927 0.48131368 0
0.83862609 1.5670177 0.59833014 0
0.966654 1.6159058 -0.049921315 0
0.54956073 1.5169501 0.046617206 0
0.55688864 1.5186887 0.12907675 0
0.55548745 1.5183562 0.21228047 0
0.5624916 1.520018 0.29965326 0
0.83995765 1.585847 0.48379996 0
0.8494702 1.5881038 0.60466707 0
0.97517866 1.6383742 -0.050407082 0
0.5541696 1.532873 0.046911772 0
0.54245728 1.529938 0.12785645 0
0.55754846 1.5337197 0.21329819 0
0.55762261 1.5337383 0.29927588 0
0.83758432 1.6038942 0.48445567 0
0.8526563 1.6076711 0.60786849 0
0.96559399 1.6564192 -0.050236214 0
0.55660194 1.5484384 0.047134344 0
0.55550379 1.5481485 0.12970202 0
0.55827397 1.5488799 0.2141062 0
0.54478389 1.5453182 0.29683977 0
0.83679527 1.6224141 0.48573673 0
0.84601551 1.6248484 0.60697788 0
0.95057231 1.6728333 -0.049871705 0
0.54310006 1.559747 0.046774574 0
0.55578464 1.5632674 0.1301558 0
0.55651218 1.5634692 0.21448717 0
0.55909902 1.5641872 0.30162331 0
0.84380955 1.6432033 0.48979694 0
0.84188086 1.642668 0.60725367 0
0.95235914 1.6938766 -0.050138537 0
0.5661872 1.5814461 0.047779277 0
0.55194992 1.577301 0.13017188 0
0.55076224 1.5769552 0.21415487 0
0.55238694 1.5774282 0.30090001 0
0.84223205 1.6618141 0.49098548 0
0.8432011 1.6620963 0.60997945 0
0.94029921 1.7108988 -0.049899448 0
0.85453886 1.6847546 0.38259974 0
0.84087366 1.6805888 0.49233615 0
0.8399244 1.6802994 0.61083156 0
0.93461257 1.7297782 -0.049906228 0
0.84621197 1.7016078 0.38185126 0
0.83346957 1.6975473 0.49166363 0
0.84133595 1.700054 0.61382383 0
0.92403883 1.7470405 -0.049738094 0
0.83844215 1.7185717 0.38130635 0
0.84394342 1.7204013 0.49733123 0
0.83036226 1.7158843 0.61153287 0
0.92874438 1.769477 -0.050154749 0
0.85091132 1.7424972 0.38628164 0
0.82828385 1.7346536 0.4939228 0
0.84547955 1.7406143 0.62075227 0
0.92015344 1.7874317 -0.050079346 0
0.8411625 1.7589315 0.38533494 0
0.84112495 1.7589179 0.50064242 0
0.82822126 1.7542622 0.61589986 0
0.92015785 1.8085573 -0.05033993 0
0.83111089 1.7751557 0.38435748 0
0.8331942 1.7759371 0.50012136 0
0.83549184 1.776799 0.62194717 0
0.9089238 1.8255056 -0.050181367 0
0.83248371 1.7957296 0.3865591 0
0.82870561 1.7942579 0.50090307 0
0.82997912 1.794754 0.6224699 0
0.8918348 1.8399707 -0.049804747 0
0.84167677 1.8197014 0.390995 0
0.81666714 1.8095949 0.49906227 0
0.83040136 1.8151449 0.62574625 0
0.88902098 1.8601301 -0.049985703 0
0.84076828 1.8399203 0.39274347 0
0.83164901 1.8361009 0.50702727 0
0.82969528 1.8352826 0.62864846 0
0.86825162 1.8726444 -0.049478766 0
0.82457918 1.8537033 0.39032272 0
0.83130938 1.8566222 0.50960046 0
0.81892186 1.8512496 0.6271373 0
0.87064856 1.8951663 -0.049881641 0
0.83100647 1.8773767 0.39426115 0
0.83285195 1.8782049 0.51296854 0
0.82176 1.8732274 0.63188571 0
0.8628518 1.9132752 -0.049896814 0
0.82676035 1.8965299 0.39530432 0
0.81745893 1.8922144 0.51024449 0
0.8252849 1.8958454 0.63710129 0
0.86830658 1.9377518 -0.050445717 0
0.826639 1.917778 0.39758885 0
0.82298177 1.9160249 0.51528561 0
0.82140344 1.9152683 0.63907826 0
0.84889883 1.9503584 -0.050019905 0
0.82518429 1.9386212 0.39958403 0
0.81578916 1.9339712 0.5157491 0
0.80526084 1.9287603 0.63551593 0
0.83734077 1.9666404 -0.049912363 0
0.81986409 1.9577147 0.40055966 0
0.80627269 1.9507734 0.51543152 0
0.80972952 1.9525388 0.64159167 0
0.83093888 1.9855556 -0.050020408 0
0.81196779 1.9755638 0.40086806 0
0.80596298 1.972401 0.51865309 0
0.78735346 1.9625995 0.63528538 0
0.82635981 2.0055509 -0.050212882 0
0.80633193 1.994678 0.40189978 0
0.79881746 1.9905986 0.51941174 0
0.78978354 1.9856941 0.64068186 0
0.81310564 2.0208533 -0.050062124 0
0.78973204 2.0077803 0.39980385 0
0.79053825 2.0082314 0.51983064 0
0.78412169 2.0046425 0.64241523 0
0.79830712 2.0351472 -0.049854543 0
0.77513069 2.0217986 0.39832953 0
0.78332657 2.0265191 0.52074736 0
0.78774196 2.029062 0.64870977 0
0.79231149 2.0544932 -0.05001821 0
0.76620799 2.0390179 0.39858055 0
0.77843302 2.0462654 0.52265632 0
0.77871591 2.046433 0.64911193 0
0.78193778 2.0713074 -0.050010197 0
0.77963489 2.0699027 0.40557733 0
0.77048832 2.0643234 0.52348751 0
0.76647824 2.0618773 0.64806527 0
0.77688557 2.0914574 -0.050235294 0
0.76789051 2.085814 0.4051649 0
0.7484706 2.0736299 0.51888692 0
0.76834482 2.0860989 0.65399891 0
0.75682884 2.1021209 -0.049835488 0
0.76119393 2.1049368 0.4063423 0
0.76311499 2.1061759 0.52881002 0
0.74554914 2.0948446 0.6479792 0
0.75217563 2.1226633 -0.050097894 0
0.74881321 2.1204338 0.40586293 0
0.75088161 2.1218052 0.52825004 0
0.7522065 2.1226838 0.65659541 0
0.73914856 2.137728 -0.050011937 0
0.74118656 2.1391165 0.40690714 0
0.73117787 2.132297 0.52475673 0
0.73615021 2.135685 0.65408093 0
0.72427565 2.1514304 -0.049853008 0
0.72576803 2.1524751 0.40560699 0
0.72979754 2.1552956 0.52872699 0
0.7329306 2.1574886 0.65811408 0
0.71009916 2.1654994 -0.049730815 0
0.72863811 2.1788266 0.41009417 0
0.72237009 2.1743207 0.53037369 0
0.72438318 2.1757679 0.65960652 0
0.7033475 2.1849456 -0.049944766 0
0.7096557 2.1896021 0.40779835 0
0.70500547 2.1861694 0.52802521 0
0.71731883 2.1952586 0.66199404 0
0.6896401 2.1993144 -0.04986012 0
0.70180601 2.2085333 0.40908742 0
0.69913381 2.2065086 0.53051376 0
0.69261009 2.201565 0.65536529 0
0.67714125 2.2145512 -0.04983744 0
0.68620831 2.2216036 0.40796158 0
0.70016462 2.2324588 0.53604341 0
0.68894631 2.2237332 0.65975159 0
0.67255622 2.2360885 -0.05018476 0
0.68043154 2.2423749 0.41008386 0
0.69140142 2.2511311 0.53759819 0
0.68117934 2.2429717 0.66215557 0
0.65370649 2.2462635 -0.049889851 0
0.67369884 2.2626376 0.4119986 0
0.67761809 2.2658477 0.53711081 0
0.67959684 2.2674685 0.66802329 0
0.64560777 2.2652047 -0.05009909 0
0.66248518 2.2793865 0.41252509 0
0.6640088 2.2806668 0.53677404 0
0.66025585 2.2775133 0.66451555 0
0.63553268 2.2826409 -0.05022864 0
0.71235353 2.348861 0.065849558 0
0.719495 2.3550169 0.18717454 0
0.72057837 2.3559508 0.31029448 0
0.64599603 2.2916605 0.41135103 0
0.6493898 2.2945859 0.53607154 0
0.64698237 2.2925107 0.66435498 0
0.60670787 2.2836254 -0.049476519 0
0.68400639 2.3519723 0.065160222 0
0.68350166 2.351526 0.1840138 0
0.6857242 2.3534911 0.30526742 0
0.63583428 2.3093786 0.41237098 0
0.63317603 2.3070283 0.53473043 0
0.63914782 2.3123085 0.66730243 0
0.59882087 2.3028858 -0.049725473 0
0.65465277 2.353519 0.064416341 0
0.65740055 2.3560109 0.18224561 0
0.66244632 2.3605866 0.30299357 0
0.61827618 2.3205295 0.41093165 0
0.6193009 2.3214588 0.53449428 0
0.63305372 2.333931 0.671395 0
0.58391315 2.3158605 -0.04964681 0
0.63691241 2.3651547 0.064230867 0
0.64882594 2.3762357 0.18303719 0
0.64649588 2.3740685 0.30251959 0
0.61509198 2.3448598 0.41453224 0
0.61041731 2.3405118 0.5366053 0
0.61670166 2.3463569 0.66988856 0
0.57955152 2.3388221 -0.050095536 0
0.6255911 2.3827376 0.064367048 0
0.62824506 2.3852689 0.18209274 0
0.61711162 2.3746493 0.29873371 0
0.60463649 2.3627498 0.41571999 0
0.59470469 2.3532763 0.53571171 0
0.59755975 2.3559995 0.66685671 0
0.56420499 2.3514855 -0.050015569 0
0.60915679 2.3954575 0.06426055 0
0.60893673 2.3952422 0.18134491 0
0.60970348 2.3959923 0.30044702 0
0.59074813 2.3774502 0.41577718 0
0.59100217 2.3776987 0.5404709 0
0.58700222 2.3737857 0.66882914 0
0.55046672 2.3656867 -0.050023925 0
0.60004908 2.4154253 0.064531244 0
0.60484558 2.4202371 0.182923 0
0.59867698 2.4140491 0.30132607 0
0.56805497 2.3833306 0.41271967 0
0.5743379 2.3896332 0.53932643 0
0.57016641 2.3854485 0.66727519 0
0.53943676 2.3826871 -0.050180208 0
0.59641653 2.4413044 0.06509871 0
0.60104972 2.4460709 0.18461542 0
0.6020928 2.4471438 0.30601186 0
0.55144328 2.3950386 0.41187528 0
0.55711323 2.4008718 0.5379709 0
0.56469697 2.4086733 0.67253941 0
0.52127916 2.3923326 -0.049979728 0
0.62181526 2.4983981 0.067197174 0
0.61076194 2.4867368 0.18849117 0
0.61045128 2.4864092 0.31216457 0
0.54767138 2.4201765 0.41583574 0
0.54864854 2.4212074 0.5409016 0
0.55151182 2.424228 0.67340517 0
0.50730556 2.4063013 -0.050002914 0
0.54056913 2.4422915 0.41871691 0
0.53426152 2.4354668 0.5410943 0
0.53775972 2.4392517 0.6740557 0
0.49865279 2.4262035 -0.050319504 0
0.52595109 2.4564958 0.4188796 0
0.51684672 2.446393 0.53987366 0
0.52308995 2.4533207 0.67426389 0
0.48106262 2.4362767 -0.050170701 0
0.49819025 2.4557707 0.41403309 0
0.49976918 2.4575679 0.53887421 0
0.49767086 2.4551797 0.66784257 0
0.4579179 2.4397082 -0.049721766 0
0.48882827 2.475796 0.41632721 0
0.48666272 2.4732676 0.53996235 0
0.47960934 2.4650331 0.66602385 0
0.44554672 2.455554 -0.049868535 0
0.46829328 2.4827974 0.41430804 0
0.47552976 2.4914646 0.54219335 0
0.46916911 2.4838464 0.66918039 0
0.42716494 2.4641829 -0.049688824 0
0.4556683 2.4992085 0.41549006 0
0.45038566 2.492717 0.53719389 0
0.45339367 2.4964132 0.66904074 0
0.42038789 2.4872456 -0.05017918 0
0.43521819 2.5059452 0.4135623 0
0.44319651 2.5160053 0.54173607 0
0.44196054 2.514447 0.67189693 0
0.40020493 2.4935308 -0.049911682 0
0.42497823 2.5255888 0.41589811 0
0.42949691 2.5314364 0.54296899 0
0.42644361 2.5274851 0.67218727 0
0.38081893 2.500566 -0.049691647 0
0.41474232 2.5456264 0.41837913 0
0.40608075 2.5341213 0.53895444 0
0.40651456 2.5346975 0.66955733 0
0.36873576 2.517303 -0.049913995 0
0.40014485 2.5601356 0.41912928 0
0.39530811 2.5535398 0.54200262 0
0.39588222 2.5543227 0.67345411 0
0.35181972 2.5275476 -0.049856238 0
0.37774977 2.5638585 0.416549 0
0.380362 2.5675166 0.54285461 0
0.37114254 2.5546062 0.66754395 0
0.33991912 2.54494 -0.050119095 0
0.36055908 2.5746264 0.41626838 0
0.36494961 2.5809412 0.54355198 0
0.3515797 2.5617113 0.66528314 0
0.31808165 2.5479856 -0.049767736 0
0.3410525 2.5819285 0.41498941 0
0.34266719 2.5843143 0.54028392 0
0.34768316 2.5917261 0.6746186 0
0.30280712 2.5605521 -0.049838081 0
0.32350293 2.5919785 0.41463587 0
0.31962946 2.5860968 0.53652132 0
0.32751957 2.5980778 0.67217034 0
0.28634754 2.5713665 -0.049841758 0
0.30932888 2.6072388 0.41593108 0
0.30605212 2.602124 0.53853244 0
0.31013831 2.6085024 0.67186975 0
0.26788601 2.5789785 -0.049719464 0
0.28349093 2.6040254 0.41171688 0
0.28927162 2.6133039 0.53869498 0
0.2879115 2.6111209 0.66787088 0
0.25155529 2.5899479 -0.049747974 0
0.26633272 2.614346 0.41166905 0
0.26818123 2.617398 0.53618276 0
0.27146545 2.6228204 0.66843408 0
0.23603155 2.6023343 -0.049843524 0
0.25619987 2.6365993 0.41521838 0
0.25463691 2.6339438 0.5385989 0
0.25385842 2.6326213 0.66818082 0
0.22352274 2.6201358 -0.050169144 0
0.23489161 2.6400194 0.41324505 0
0.23855259 2.6464224 0.53950459 0
0.23498894 2.6401896 0.66697073 0
0.20697476 2.6311412 -0.050221451 0
0.21755214 2.6501935 0.41333491 0
0.2209831 2.6563735 0.53951955 0
0.21919008 2.6531439 0.66843253 0
0.1841975 2.6306703 -0.049816467 0
0.20090981 2.6616869 0.41386998 0
0.20433541 2.6680443 0.5402683 0
0.20171036 2.6631725 0.66860247 0
0.17365946 2.6530056 -0.050344456 0
0.18194605 2.6688597 0.41321829 0
0.18061747 2.6663177 0.53606164 0
0.17965807 2.6644821 0.66480106 0
0.15074588 2.6517506 -0.049930245 0
0.16035135 2.6707053 0.41111562 0
0.16304196 2.6760149 0.53625429 0
0.16109313 2.6721692 0.66411328 0
0.13874264 2.6720591 -0.050387744 0
0.14169826 2.6780784 0.41067445 0
0.14061435 2.6758709 0.53288049 0
0.14577474 2.6863801 0.66654718 0
0.11507615 2.6685977 -0.049908847 0
0.12742145 2.6945608 0.41287595 0
0.11840048 2.6755891 0.52958041 0
0.12065669 2.6803341 0.65976816 0
0.095964931 2.6742356 -0.04980205 0
0.10145243 2.686161 0.40812728 0
0.099992476 2.6829884 0.52921522 0
0.10351887 2.6906519 0.66063106 0
0.078042649 2.6823678 -0.04980275 0
0.086502694 2.70138 0.41009223 0
0.080479883 2.687845 0.52801073 0
0.081480347 2.6900933 0.65665811 0
0.063536011 2.6984527 -0.0501213 0
0.066988371 2.7064817 0.40928933 0
0.062688373 2.6964812 0.52827084 0
0.064131938 2.6998386 0.65747607 0
0.048507772 2.7138753 -0.050419673 0
0.04416021 2.7034028 0.40629879 0
0.048597358 2.7140911 0.53184295 0
0.046682678 2.7094789 0.65834087 0
0.02353557 2.7050407 -0.049790967 0
0.028986773 2.7186534 0.40843999 0
0.024435421 2.7072878 0.52671176 0
0.025887391 2.7109137 0.65563977 0
0.006137392 2.7146094 -0.049881618 0
0.0054852576 2.7129195 0.40488452 0
0.0046407194 2.7107313 0.52536821 0
0.0088718152 2.7216949 0.65721631 0
-0.011578419 2.7235155 -0.049954984 0
-0.011045971 2.7249489 0.40626103 0
-0.012918093 2.7199097 0.52615505 0
-0.0095363045 2.7290125 0.65735048 0
-0.031846561 2.7254407 -0.04977183 0
-0.029703477 2.7314394 0.40618727 0
-0.031128684 2.7274501 0.52643794 0
-0.032244004 2.724328 0.65230936 0
-0.04985372 2.7335668 -0.049833175 0
-0.053976335 2.7215517 0.40175959 0
-0.056024469 2.7155824 0.51997405 0
-0.052240767 2.7266097 0.65046471 0
-0.06603054 2.7474029 -0.050117422 0
-0.07380382 2.7237833 0.40068766 0
-0.071478911 2.7308478 0.52315015 0
-0.071149446 2.7318487 0.65002668 0
-0.083544828 2.7576733 -0.0502747 0
-0.093976714 2.7245777 0.39930242 0
-0.093961425 2.7246261 0.51888639 0
-0.091415353 2.7327037 0.64779067 0
-0.10934625 2.7408447 -0.049429167 0
-0.11452586 2.7236605 0.39753422 0
-0.11076007 2.7361541 0.52090496 0
-0.11236311 2.7308357 0.64449638 0
-0.12127746 2.7700763 -0.0503099 0
-0.10613406 2.8227067 0.06426511 0
-0.10369057 2.8311989 0.18234141 0
-0.10763342 2.8174956 0.29935423 0
-0.12744708 2.7486339 0.40271473 0
-0.13183044 2.7333999 0.51804519 0
-0.12869893 2.7442832 0.64792615 0
-0.14331992 2.7647865 -0.049915243 0
-0.13084374 2.8102956 0.063599929 0
-0.13371296 2.7998297 0.1782231 0
-0.13237576 2.8047073 0.2959269 0
-0.14958511 2.7419329 0.39954114 0
-0.15006687 2.7401755 0.51857454 0
-0.15194528 2.7333236 0.64095438 0
-0.15733002 2.7892215 -0.050628815 0
-0.1581708 2.785996 0.062509805 0
-0.15724115 2.7895625 0.17650396 0
-0.15793581 2.7868974 0.29163307 0
-0.16941662 2.7428513 0.39846048 0
-0.17145382 2.7350354 0.51508445 0
-0.1707903 2.737581 0.64064175 0
-0.18160369 2.7742558 -0.049897645 0
-0.17847617 2.7869051 0.062362839 0
-0.17755516 2.7906301 0.17607781 0
-0.17982058 2.7814674 0.28971243 0
-0.18804024 2.7482233 0.39861944 0
-0.19104494 2.7360706 0.51381397 0
-0.19123615 2.7352972 0.63764167 0
-0.20077042 2.7788708 -0.049897779 0
-0.19866835 2.7878568 0.062227253 0
-0.19779728 2.7915804 0.17566825 0
-0.20013897 2.7815702 0.28887329 0
-0.20822267 2.7470138 0.39711502 0
-0.20809577 2.7475564 0.51620245 0
-0.20766391 2.7494025 0.64172888 0
-0.21999304 2.7832475 -0.04989804 0
-0.21624361 2.8002374 0.062519193 0
-0.21838893 2.7905164 0.17506625 0
-0.21903719 2.7875788 0.28917459 0
-0.22925316 2.741287 0.39450094 0
-0.22836386 2.745317 0.51398122 0
-0.2297775 2.7389112 0.63546365 0
-0.23786227 2.7941625 -0.050145529 0
-0.23750333 2.795892 0.062208597 0
-0.23502927 2.8078144 0.17650969 0
-0.23671715 2.7996805 0.29064125 0
-0.24818791 2.7444046 0.39426735 0
-0.25191906 2.7264247 0.50619441 0
-0.24778755 2.7463338 0.63690782 0
-0.25787845 2.7949653 -0.050032835 0
-0.25551236 2.8071356 0.062475465 0
-0.2523587 2.8233564 0.17778036 0
-0.25187024 2.8258688 0.29473335 0
-0.2660549 2.7529092 0.39549655 0
-0.2702097 2.7315388 0.50666356 0
-0.26988053 2.7332318 0.62978703 0
-0.27724868 2.7989018 -0.050043255 0
-0.2680043 2.8498683 0.063892514 0
-0.26752576 2.8525066 0.18055828 0
-0.26464152 2.868408 0.30184811 0
-0.28698757 2.745209 0.3925795 0
-0.29096404 2.7232857 0.50268996 0
-0.29022053 2.7273848 0.62585264 0
-0.29894802 2.7890708 -0.04956406 0
-0.30540162 2.7507489 0.39316246 0
-0.30962542 2.7256677 0.50240105 0
-0.30952057 2.7262905 0.62402964 0
-0.31462818 2.8157732 -0.050415646 0
-0.32702777 2.7360244 0.38857198 0
-0.32831702 2.7277324 0.50208503 0
-0.3300257 2.7167428 0.61877012 0
-0.3357484 2.8086061 -0.050051402 0
-0.34660134 2.7325048 0.38694763 0
-0.34669012 2.7318821 0.50254947 0
-0.34881836 2.7169588 0.6177116 0
-0.35554874 2.8096371 -0.049992479 0
-0.36578578 2.7307608 0.38584623 0
-0.36683342 2.7226887 0.49861446 0
-0.36677924 2.7231061 0.61923003 0
-0.37471467 2.8157592 -0.05012561 0
-0.38610548 2.7184043 0.38208246 0
-0.38631344 2.7166269 0.49581915 0
-0.38595346 2.7197034 0.61685956 0
-0.3952603 2.8095837 -0.049825817 0
-0.40418738 2.723958 0.38298362 0
-0.40415105 2.7243066 0.49770617 0
-0.40551737 2.7112012 0.61246997 0
-0.41433769 2.8171616 -0.050028712 0
-0.42434502 2.7078452 0.37839112 0
-0.4245154 2.7059841 0.49097916 0
-0.4226639 2.7262089 0.61796254 0
-0.43325454 2.8286357 -0.050379548 0
-0.44192633 2.7186732 0.38076296 0
-0.44188404 2.7192094 0.49487278 0
-0.4422659 2.7143672 0.61238825 0
-0.45437318 2.8106449 -0.049684379 0
-0.46131825 2.7057397 0.37711391 0
-0.46205083 2.694674 0.48624593 0
-0.46095723 2.7111928 0.61051756 0
-0.4734022 2.8225553 -0.050068237 0
-0.47985733 2.702049 0.37589118 0
-0.48014507 2.696677 0.48655125 0
-0.48006791 2.6981177 0.60464048 0
-0.49311486 2.824465 -0.050103124 0
-0.4980236 2.7045836 0.37631837 0
-0.4984746 2.6935697 0.48523074 0
-0.49874189 2.6870415 0.59969461 0
-0.51285547 2.8263671 -0.050146591 0
-0.5163675 2.7024417 0.37561017 0
-0.5167107 2.6903327 0.48394436 0
-0.51679087 2.6875029 0.59962684 0
-0.53273052 2.821878 -0.04997072 0
-0.53467792 2.6981702 0.37441766 0
-0.53490824 2.6835403 0.48155174 0
-0.53497082 2.6795652 0.59617525 0
-0.55251354 2.8082039 -0.049475878 0
-0.55289972 2.6855741 0.37116018 0
-0.55290633 2.6834674 0.48147082 0
-0.55291492 2.6807449 0.59659344 0
-0.57221562 2.8225906 -0.049991719 0
-0.57082057 2.6748502 0.36843851 0
-0.57065088 2.6568825 0.47264469 0
-0.57076502 2.6689706 0.59174168 0
-0.59202749 2.8253047 -0.050099742 0
-0.58862436 2.6708791 0.36749694 0
-0.58827662 2.6550987 0.47214359 0
-0.58849281 2.6649106 0.59017634 0
-0.61158812 2.8184733 -0.049875733 0
-0.606148 2.6614223 0.36521176 0
-0.60618281 2.6624272 0.47474951 0
-0.60586911 2.6533706 0.58560407 0
-0.63148952 2.8221347 -0.050035402 0
-0.62357575 2.6546555 0.36366865 0
-0.6230945 2.6444707 0.46901056 0
-0.62337375 2.6503806 0.58466357 0
-0.65086126 2.8150153 -0.049818583 0
-0.64063221 2.6441891 0.3612349 0
-0.63980168 2.6303186 0.46460626 0
-0.64046061 2.6413236 0.58129734 0
-0.64067417 2.6448901 0.70300359 0
-0.67042917 2.8126707 -0.049781211 0
-0.65725005 2.6309574 0.3581464 0
-0.65772915 2.6375625 0.46740502 0
-0.65704203 2.6280885 0.57628286 0
-0.65694481 2.6267486 0.69448406 0
-0.69127637 2.8256164 -0.050300475 0
-0.67340142 2.6158085 0.46059975 0
-0.67395544 2.6223114 0.57444882 0
-0.6734128 2.615942 0.68974143 0
-0.71037918 2.816951 -0.050054565 0
-0.69071919 2.6161215 0.46122867 0
-0.69061935 2.6151018 0.57210511 0
-0.69059229 2.6148255 0.68996876 0
-0.729904 2.8136492 -0.050009601 0
-0.70689034 2.6056118 0.56889564 0
-0.7059468 2.5970824 0.68193543 0
-0.74889332 2.806241 -0.049825687 0
-0.72303504 2.5966702 0.56599522 0
-0.72335941 2.599299 0.68404943 0
-0.77002114 2.8154731 -0.050249632 0
-0.73827124 2.5823445 0.67659718 0
-0.78882998 2.8070962 -0.050048362 0
-0.75561756 2.5842514 0.67876703 0
-0.80631858 2.7914345 -0.049591772 0
-0.8269555 2.7956266 -0.049861714 0
-0.84793276 2.8005819 -0.050169446 0
-0.8656081 2.7879889 -0.049848542 0
-0.88330758 2.7765749 -0.049577933 0
-0.90493035 2.7832685 -0.049977656 0
-0.92439061 2.7797549 -0.050013762 0
-0.94418049 2.7774229 -0.050102524 0
-0.96101785 2.7637942 -0.049783297 0
-0.9801929 2.7593079 -0.049809825 0
-1.0006104 2.7589622 -0.049999524 0
-1.0181676 2.7488742 -0.049835585 0
-1.0368525 2.7426536 -0.049824312 0
-1.0612724 2.7535119 -0.050465088 0
-1.077919 2.7407947 -0.050228514 0
-1.0936631 2.7260783 -0.049922839 0
-1.1110189 2.716218 -0.049808633 0
-1.1291424 2.7085221 -0.049785253 0
-1.1523572 2.713347 -0.05025328 0
-1.1666383 2.6961725 -0.049882464 0
-1.1849111 2.6887677 -0.049897291 0
-1.2014321 2.677459 -0.049768206 0
-1.2238449 2.6789525 -0.050151132 0
-1.2419097 2.6708205 -0.050165888 0
-1.2595932 2.6618938 -0.050158087 0
-1.2778295 2.6540461 -0.050202463 0
-1.2945529 2.6432743 -0.050138205 0
-1.3074696 2.6256309 -0.049802419 0
-1.3261112 2.6186242 -0.049906757 0
-1.3462427 2.6140327 -0.050121203 0
-1.3595306 2.5976787 -0.049858663 0
-1.3743584 2.5841792 -0.049720678 0
-1.3940612 2.5785723 -0.049922742 0
-1.4098921 2.5667369 -0.049871832 0
-1.42549 2.5546119 -0.049816582 0
-1.4458672 2.5495174 -0.050073691 0
-1.4611605 2.5368876 -0.050015155 0
-1.4721489 2.5183744 -0.049705252 0
-1.495515 2.516881 -0.050155561 0
-1.5119505 2.5057721 -0.05019163 0
-1.524135 2.489187 -0.049989086 0
-1.5394773 2.4767556 -0.04998171 0
-1.5518872 2.4607701 -0.049818695 0
-1.5726184 2.4547975 -0.050129384 0
-1.5814302 2.434746 -0.049790341 0
-1.6019351 2.4281907 -0.050097711 0
-1.6162132 2.4144859 -0.050075486 0
-1.6307362 2.4010613 -0.050075442 0
-1.6416501 2.3838723 -0.049898092 0
-1.6621732 2.3766189 -0.05022312 0
-1.6724645 2.3589027 -0.050034564 0
-1.6921985 2.3504882 -0.050328139 0
-1.693446 2.3243723 -0.049716819 0
-1.7108786 2.3137023 -0.049913105 0
-1.7316475 2.3058302 -0.05027356 0
-1.7364738 2.2836976 -0.049879231 0
-1.7475168 2.2672172 -0.04979369 0
-1.7647861 2.2559767 -0.050007541 0
-1.7698203 2.2346451 -0.049664024 0
-1.2276121 1.7962306 0.51713717 0
-1.7865293 2.2228172 -0.049866818 0
-1.2304735 1.784669 0.51418602 0
-1.7997061 2.2080932 -0.049915418 0
-1.232686 1.772765 0.51088732 0
-1.8121717 2.1927905 -0.049940154 0
-1.2296597 1.7571156 0.50385141 0
-1.8227133 2.1760609 -0.049888238 0
-1.2366191 1.7491081 0.50435179 0
-1.8449007 2.1676335 -0.050355803 0
-1.2346905 1.7347676 0.4984588 0
-1.846716 2.1447325 -0.049940053 0
-1.237325 1.7238803 0.49603623 0
-1.8511693 2.1239541 -0.049653735 0
-1.2276824 1.7048627 0.48495969 0
-1.8679811 2.1114962 -0.04990818 0
-1.2457002 1.7044964 0.49374542 0
-1.885758 2.0994358 -0.050208103 0
-1.2409261 1.6891854 0.48644382 0
-1.9007137 2.0853779 -0.050393656 0
-1.243282 1.6786481 0.4843061 0
-1.8979176 2.0604877 -0.049845681 0
-1.2351905 1.661932 0.47504684 0
-1.9242156 2.0530434 -0.050517768 0
-1.2415141 1.654093 0.47590196 0
-1.9207078 2.0281324 -0.049965367 0
-1.2408469 1.6422427 0.47205147 0
-1.9248116 2.0078573 -0.049739894 0
-1.9484936 1.9982287 -0.050318934 0
-1.9499109 1.9765882 -0.050003663 0
-1.961635 1.9603755 -0.050113164 0
-1.9797523 1.9471878 -0.050484017 0
-1.9743786 1.9226278 -0.049931992 0
-1.9876444 1.9069984 -0.050126765 0
-1.9946388 1.8884485 -0.050083444 0
-1.9974353 1.8681389 -0.049886525 0
-1.9988121 1.847392 -0.049645714 0
-1.9968919 1.8255161 -0.049289528 0
-2.0047653 1.8076501 -0.04931993 0
-2.0071356 1.7877332 -0.049149431 0
-2.0034051 1.7657826 -0.048758179 0
-2.0016513 1.7447915 -0.048453562 0
-2.002605 1.7249048 -0.048261799 0
-2.0084293 1.7066749 -0.048262309 0
-1.999517 1.6840503 -0.04772241 0
-2.0018575 1.6650178 -0.047612689 0
-2.0000827 1.6449481 -0.047360018 0
-1.9988796 1.6252065 -0.047138568 0
-1.9972872 1.6055276 -0.04691264 0
-1.9919662 1.5851494 -0.046559855 0
-2.0007029 1.5680788 -0.046731014 0
-1.9991707 1.5487846 -0.046535399 0
-2.0068095 1.5313811 -0.046682443 0
-1.9993259 1.5111754 -0.046288725 0
-1.996895 1.4920827 -0.046087872 0
-1.9971763 1.4735433 -0.045994043 0
-1.993566 1.4545254 -0.045768522 0
-1.9945805 1.4362502 -0.045718409 0
-1.991555 1.4175479 -0.045531485 0
-1.9961543 1.3997461 -0.045626853 0
-1.9958529 1.3814405 -0.045554515 0
-2.0075963 1.3640951 -0.045921739 0
-2.0036316 1.3454969 -0.045734581 0
-1.9933872 1.3267114 -0.045331448 0
-2.0028601 1.3089528 -0.045641378 0
-2.0081079 1.2908663 -0.045808315 0
-2.0129607 1.2726541 -0.045969263 0
-1.99368 1.2543254 -0.045276798 0
-1.1214529 0.26436794 -0.049479641 0
-0.39565015 0.26436988 0.42037806 0
-0.39014113 0.26436988 0.49389079 0
-1.1257318 0.24474582 -0.049636811 0
-0.39327317 0.25397104 0.41922152 0
-1.1367579 0.22483972 -0.050043818 0
-0.41175824 0.24310324 0.35568175 0
-0.4016546 0.24335776 0.42351472 0
-1.1357605 0.20509765 -0.050030418 0
-0.51208371 0.22866967 0.10759079 0
-0.51321405 0.22862695 0.17668773 0
-1.2365942 0.20128661 0.43215424 0
-1.2531967 0.20065911 0.56723601 0
-1.2460622 0.20092876 0.70149887 0
-1.150229 0.18458225 -0.050578736 0
-0.51661861 0.21652347 0.10813521 0
-0.51752329 0.21647787 0.17756069 0
-1.2390287 0.18010572 0.4330129 0
-1.2419413 0.17995889 0.56379843 0
-1.2389987 0.18010724 0.69895691 0
-1.1259776 0.16611721 -0.049751639 0
-0.50194579 0.20545848 0.10662816 0
-0.51256102 0.20478925 0.17678656 0
-1.2519311 0.15817665 0.43661633 0
-1.2425294 0.15876935 0.56439298 0
-1.1229682 0.14662614 -0.049692608 0
-0.51921743 0.19232766 0.10857759 0
-0.52239054 0.19208747 0.17871362 0
-1.2281364 0.13866533 0.43090448 0
-1.2476336 0.13718948 0.56658393 0
-1.1324836 0.12606689 -0.0500912 0
-0.52184409 0.18003061 0.10896698 0
-0.51477975 0.1806549 0.17751415 0
-1.2312514 0.11733856 0.43214139 0
-1.2485044 0.11581386 0.5674541 0
-1.1291934 0.10651629 -0.050040081 0
-0.51742041 0.16835256 0.10861203 0
-0.51613897 0.16848208 0.17796522 0
-1.2413461 0.095180221 0.4352386 0
-1.2334236 0.095981024 0.56308126 0
-1.1163278 0.088088654 -0.049653657 0
-0.5217036 0.15576532 0.040287755 0
-0.51090604 0.15699424 0.10804633 0
-0.5215736 0.15578014 0.17918448 0
-1.238315 0.07420478 0.43504137 0
-1.2332637 0.074779682 0.56378192 0
-1.1238732 0.067348801 -0.050009485 0
-0.51762795 0.14409207 0.040193021 0
-0.50400954 0.14581598 0.10745382 0
-0.50799614 0.14531134 0.17697857 0
-1.2399206 0.052658606 0.43610412 0
-1.2423972 0.052345101 0.56768966 0
-1.117337 0.04831541 -0.049867745 0
-0.50623816 0.13350394 0.039839767 0
-0.51056617 0.13290061 0.10833529 0
-0.51284987 0.13258226 0.17814896 0
-1.2452794 0.030479927 0.43820539 0
-1.2498279 0.029845882 0.57112706 0
-1.1201845 0.02795117 -0.050073259 0
-0.51126331 0.12066659 0.040083434 0
-0.51733065 0.11974276 0.10925873 0
-0.50887442 0.12103032 0.17774011 0
-1.2455308 0.0088657336 0.43906462 0
-1.2384732 0.0099403458 0.56834453 0
-1.1219275 0.0076193106 -0.0502485 0
-0.5197475 0.10708175 0.040458616 0
-0.5192588 0.10716247 0.10967532 0
-0.50396568 0.10968845 0.17718638 0
-1.2349371 -0.011046569 0.43719149 0
-1.2357458 -0.011180113 0.56854975 0
-1.1100841 -0.010421137 -0.04994072 0
-0.5052011 0.0973287 0.040005673 0
-0.50868696 0.096707754 0.1087456 0
-0.50997043 0.096479125 0.17865677 0
-1.2398894 -0.033543747 0.4394078 0
-1.2401735 -0.033594381 0.57126319 0
-1.1099235 -0.030476939 -0.050065085 0
-0.51289952 0.083646767 0.040364642 0
-0.49379832 0.087298043 0.10735571 0
-0.50901788 0.084388755 0.17888375 0
-1.239491 -0.055244338 0.44031313 0
-1.2339389 -0.054183017 0.57046717 0
-1.0985044 -0.048326086 -0.049788728 0
-0.51134932 0.071593396 0.040393803 0
-0.5100162 0.071865655 0.10938723 0
-0.50171208 0.073561676 0.17796984 0
-1.2375811 -0.076730855 0.44089827 0
-1.2342747 -0.076055564 0.57198805 0
-1.1026553 -0.069363691 -0.050088666 0
-0.51677209 0.058001135 0.04068334 0
-0.51383823 0.058638934 0.11008236 0
-0.50405431 0.060765836 0.1788592 0
-1.2468415 -0.10070825 0.44447201 0
-1.2365205 -0.098464556 0.57425702 0
-1.0899138 -0.086726017 -0.049780257 0
-0.51556861 0.045725409 0.040737208 0
-0.51243591 0.046447862 0.11022167 0
-0.51429242 0.046019722 0.18124233 0
-1.2374024 -0.12073878 0.443239 0
-1.243191 -0.12207369 0.57813942 0
-1.0907902 -0.10718922 -0.049979351 0
-0.50920606 0.034666959 0.040607326 0
-0.51320922 0.033690546 0.11061904 0
-0.51142353 0.034126092 0.18123406 0
-1.2359917 -0.14260583 0.4441767 0
-1.2441915 -0.14460586 0.58019388 0
-1.0865586 -0.12648641 -0.050000273 0
-0.56134439 0.0086490707 0.04263873 0
-0.56094277 0.0087523954 0.11624665 0
-0.55227679 0.010982116 0.18939568 0
-1.2384688 -0.16557227 0.44621408 0
-1.2453232 -0.16733588 0.58239728 0
-1.0858067 -0.1467443 -0.05015894 0
-0.61918795 -0.020400088 0.04490019 0
-0.61272013 -0.018648814 0.12237861 0
-1.2348442 -0.18709849 0.31753922 0
-1.2391207 -0.18825643 0.44785231 0
-1.2354648 -0.18726651 0.58091879 0
-1.0758348 -0.16450028 -0.049985416 0
-0.68656218 -0.053819578 0.047537051 0
-0.69515383 -0.056262415 0.13199624 0
-1.2388821 -0.21085905 0.31938693 0
-1.2404013 -0.211291 0.44973877 0
-1.2373077 -0.21041138 0.58356881 0
-1.0632147 -0.18134274 -0.049720906 0
-0.77552307 -0.095614649 0.051003635 0
-0.77385843 -0.09511859 0.14128488 0
-1.2412397 -0.23439173 0.32098156 0
-1.2437706 -0.23514591 0.4522655 0
-1.2347454 -0.23245652 0.5848006 0
-1.0688103 -0.20367177 -0.050144468 0
-0.86148608 -0.13903882 0.054391384 0
-0.86719894 -0.1408198 0.15231258 0
-1.2295829 -0.25379226 0.3199909 0
-1.23476 -0.25540623 0.45157382 0
-1.2286637 -0.25350574 0.58490729 0
-1.0630558 -0.22262241 -0.050154138 0
-0.99585152 -0.20073946 0.059630871 0
-0.99769485 -0.20133968 0.16764991 0
-1.236622 -0.27913877 0.32258844 0
-1.2348737 -0.27856949 0.45339581 0
-1.2458123 -0.28213128 0.5932349 0
-1.0545448 -0.24064754 -0.050068911 0
-1.1330171 -0.26729694 0.065027617 0
-1.1304411 -0.26642212 0.18339467 0
-1.2449269 -0.30530187 0.32549891 0
-1.2429713 -0.30463776 0.45745528 0
-1.0401207 -0.2565206 -0.049767949 0
-1.2934549 -0.34612694 0.20275325 0
-1.2462411 -0.32942703 0.3271479 0
-1.2454598 -0.32915071 0.46010351 0
-1.0345188 -0.27541694 -0.049808789 0
-1.2371789 -0.34998348 0.19720483 0
-1.2435044 -0.35231087 0.32808435 0
-1.2361279 -0.34959677 0.45963436 0
-1.0352775 -0.29677907 -0.050102007 0
-1.2332181 -0.37245229 0.19765437 0
-1.2471657 -0.37778446 0.33031613 0
-1.238016 -0.3742865 0.4622978 0
-1.0250478 -0.31400684 -0.049984939 0
-1.2478973 -0.40243462 0.20029393 0
-1.2410898 -0.39973339 0.3307319 0
-1.243994 -0.40088579 0.46618226 0
-1.0131117 -0.33044669 -0.049809754 0
-1.2461578 -0.42633411 0.20108296 0
-1.2430862 -0.42507032 0.3327778 0
-1.2428436 -0.42497054 0.46821246 0
-1.0033952 -0.34770158 -0.049727768 0
-1.2506377 -0.45308962 0.20263788 0
-1.2446417 -0.45053378 0.3348107 0
-1.244681 -0.45055053 0.47116613 0
-0.99664938 -0.36620745 -0.049769707 0
-1.2457838 -0.47612908 0.20314455 0
-1.2447414 -0.47566918 0.33663097 0
-1.2333883 -0.47066006 0.47056437 0
-1.0017768 -0.39016756 -0.050286949 0
-1.2345176 -0.49637684 0.20293079 0
-1.2401972 -0.49896869 0.33760369 0
-1.2458665 -0.50155592 0.47669628 0
-0.99196732 -0.40748957 -0.050229542 0
-1.2456152 -0.52712113 0.20540334 0
-1.2421696 -0.52549601 0.33993995 0
-1.2366853 -0.52290934 0.47686434 0
-0.98191547 -0.42465195 -0.050170794 0
-1.5036734 -0.6788156 0.082890786 0
-1.2390176 -0.54989398 0.20582189 0
-1.2296076 -0.54531008 0.33944169 0
-1.2399079 -0.5503276 0.48062959 0
-0.95658875 -0.43409118 -0.049509894 0
-1.444976 -0.67965513 0.081025921 0
-1.2449232 -0.57906747 0.20778148 0
-1.2350417 -0.57409894 0.34262317 0
-1.2427874 -0.57799357 0.48441914 0
-0.95498586 -0.45531395 -0.049803559 0
-1.3877087 -0.6797595 0.07920678 0
-1.2335135 -0.59978122 0.20770195 0
-1.2374471 -0.60182154 0.34528363 0
-0.95365357 -0.4769198 -0.050120942 0
