# .PCD v0.7 - Point Cloud Data file format
VERSION 0.7
FIELDS x y z intensity
SIZE 4 4 4 4
TYPE F F F F
COUNT 1 1 1 1
WIDTH 1323
HEIGHT 1
VIEWPOINT 0 0 0 1 0 0 0
POINTS 1323
DATA ascii
-0.78469336 2.5579252 0.66846192 0
-0.31546128 1.6319175 -0.04964925 0
-0.80666625 2.5299678 0.47172451 0
-0.81307769 2.5416896 0.66825038 0
-0.33765644 1.6313276 -0.050015468 0
-0.61922765 2.1310625 0.082493737 0
-0.83434021 2.5128462 0.47144735 0
-0.83157146 2.5079322 0.66301054 0
-0.35772669 1.6265541 -0.050223187 0
-0.62038898 2.0793035 0.080910124 0
-0.85663068 2.4865117 0.4693197 0
-0.86293483 2.4973783 0.66464484 0
-0.36869419 1.606244 -0.049796905 0
-0.61774576 2.0233433 0.079140477 0
-0.88237584 2.4665327 0.46856967 0
-0.88718379 2.4745851 0.66277134 0
-0.38759452 1.5994155 -0.049937956 0
-0.62092721 1.9792414 0.077852555 0
-0.91649365 2.4603734 0.47080725 0
-0.91500974 2.4579575 0.6628207 0
-0.40134364 1.5842415 -0.049737722 0
-0.61860967 1.9281288 0.076259986 0
-0.94007993 2.43695 0.4694711 0
-0.93515038 2.4291475 0.65929914 0
-0.42803228 1.5892419 -0.050402034 0
-0.6194464 1.8839273 0.074947312 0
-0.95676053 2.4032283 0.4659729 0
-0.96039104 2.4088175 0.65840554 0
-0.43619829 1.5656478 -0.049858872 0
-0.62227547 1.8443704 0.073823385 0
-0.9814024 2.382302 0.46526521 0
-0.97927654 2.379118 0.65472716 0
-0.45810515 1.5627568 -0.050211746 0
-0.61597848 1.7929043 0.072175652 0
-1.0016915 2.355196 0.46326742 0
-1.0034261 2.3577249 0.65366012 0
-0.46970004 1.544794 -0.049921505 0
-0.62081945 1.7592559 0.071287975 0
-1.0247077 2.3324358 0.46226674 0
-1.0242081 2.3317268 0.65124077 0
-0.47835755 1.523116 -0.049471289 0
-0.61574388 1.7129658 0.069837734 0
-0.61628544 1.7137141 0.19826593 0
-1.0421019 2.3021364 0.45964274 0
-1.04222 2.3022995 0.6478014 0
-0.07813932 0.97006702 0.44184235 0
-0.49723858 1.5157245 -0.049657106 0
-0.62101638 1.6823119 0.069066502 0
-0.62269413 1.6845698 0.19614735 0
-1.0629989 2.2771573 0.45823842 0
-1.0670557 2.2826171 0.64749885 0
-0.09636195 0.97620183 0.44970942 0
-0.51959103 1.5126631 -0.050049759 0
-0.61249328 1.6344624 0.067518689 0
-0.62103224 1.6456573 0.1926989 0
-1.0814675 2.2493093 0.4562293 0
-1.0759389 2.2420609 0.64059538 0
-0.095450655 0.95659542 0.44159779 0
-0.53344965 1.4982977 -0.049946472 0
-0.61935556 1.6080309 0.0669218 0
-0.6154604 1.6030555 0.18870991 0
-1.1003199 2.2223983 0.45446792 0
-1.097693 2.2190428 0.63934219 0
-0.10686578 0.95339382 0.44382262 0
-0.54419225 1.4801648 -0.049677558 0
-0.61845148 1.5725992 0.065910615 0
-0.62100673 1.5757798 0.18678355 0
-1.1109649 2.1856563 0.4504689 0
-1.1097562 2.1841516 0.63427985 0
-0.1259581 0.95956683 0.45217854 0
-0.56331003 1.4724855 -0.049895726 0
-0.62496495 1.5472819 0.065356322 0
-0.61746275 1.5381806 0.18340896 0
-1.1302782 2.1603 0.44912052 0
-1.1368982 2.1683309 0.63551998 0
-0.13855244 0.9571929 0.4552348 0
-0.58048379 1.4622643 -0.050008573 0
-0.6157254 1.5039371 0.063957028 0
-0.61480308 1.5028465 0.18031082 0
-1.1431791 2.1276453 0.44609091 0
-1.1440903 2.1287227 0.62893885 0
-0.14848866 0.95143485 0.45620957 0
-0.59987533 1.4544734 -0.050247692 0
-0.6198231 1.4774679 0.063334472 0
-0.6168927 1.4740899 0.17810969 0
-1.1633937 2.1040592 0.44523188 0
-1.1618624 2.102294 0.62676734 0
-0.61581993 1.4425502 -0.050303631 0
-0.63230491 1.4610765 0.063188978 0
-0.62866735 1.4569886 0.17756423 0
-1.1702107 2.0655897 0.44083121 0
-1.17392 2.0697582 0.62256181 0
-0.62801147 1.4264517 -0.050168052 0
-0.66218925 1.4639013 0.063978143 0
-0.65922022 1.4606479 0.18005455 0
-1.1817385 2.0331862 0.43788171 0
-1.1815134 2.0329397 0.61688042 0
-0.63487184 1.4047924 -0.049766418 0
-0.51017779 1.27157 0.055251855 0
-0.68598592 1.4594026 0.18190867 0
-1.1931388 2.0012424 0.4350464 0
-1.1935194 2.0016489 0.61309665 0
-0.65148914 1.3937025 -0.049887192 0
-0.50521952 1.2413207 0.054346271 0
-0.71467447 1.4595282 0.18403952 0
-1.2030678 1.9683303 0.43197027 0
-1.2022908 1.9675208 0.60831666 0
-0.66994894 1.3843586 -0.050107356 0
-0.51653653 1.2285117 0.05429998 0
-0.74709952 1.4627334 0.18671547 0
-1.2149601 1.9380183 0.42954522 0
-1.2093492 1.9323183 0.60313165 0
-0.68271351 1.3691498 -0.05004454 0
-0.52428764 1.2122123 0.054083224 0
-0.77619612 1.4617541 0.1888486 0
-1.2207071 1.9020888 0.42568773 0
-1.2158035 1.8972311 0.59795427 0
-0.69619799 1.3546937 -0.05002778 0
-0.53914803 1.2029892 0.054232225 0
-0.80145013 1.4563633 0.19038364 0
-1.2225147 1.8630962 0.42100319 0
-1.2186944 1.859406 0.5917331 0
-0.70756292 1.338253 -0.049916249 0
-0.56784821 1.2066538 0.05506397 0
-0.83294213 1.4563495 0.19283165 0
-1.2278497 1.8283184 0.4173702 0
-1.2303189 1.8306441 0.5888142 0
-0.71595645 1.319186 -0.04967206 0
-0.88262594 1.47226 0.069751151 0
-0.8681674 1.4589808 0.19579627 0
-1.235471 1.7963229 0.41444668 0
-1.2258878 1.7875214 0.58049327 0
-0.23364665 0.87621897 0.38050568 0
-0.7345196 1.3094527 -0.049929544 0
-0.90335715 1.4606433 0.07002081 0
-0.90498364 1.4620998 0.19895236 0
-1.2336727 1.7564342 0.40937364 0
-1.2345634 1.7572317 0.57694143 0
-0.2381462 0.86496019 0.37875411 0
-0.75676012 1.3026845 -0.050364334 0
-0.94249058 1.4648353 0.071166612 0
-1.2474453 1.731074 0.40820482 0
-1.2376571 1.7225283 0.57166779 0
-0.24088247 0.85230106 0.37613091 0
-0.755548 1.2755492 -0.049699023 0
-0.96949816 1.457641 0.07172925 0
-1.2386017 1.6866734 0.40176839 0
-1.2433233 1.6906921 0.5674594 0
-0.23557706 0.83300477 0.36925063 0
-0.2586779 0.85266584 0.46014664 0
-0.77229285 1.2639169 -0.049889542 0
-1.0138351 1.4643029 0.07309413 0
-1.2534772 1.6631128 0.40108871 0
-1.2440791 1.6553159 0.56180054 0
-0.24961831 0.83030021 0.37298116 0
-0.78806484 1.251321 -0.050040226 0
-1.0466607 1.4604144 0.073912814 0
-1.2408527 1.6174326 0.39410704 0
-1.2356154 1.6131979 0.553321 0
-0.25818509 0.82287502 0.37377724 0
-0.80505431 1.2395452 -0.050252005 0
-1.0850949 1.4602052 0.074980579 0
-1.2541382 1.5934042 0.39327621 0
-1.2377446 1.5804867 0.54853904 0
-0.2672565 0.81578362 0.374881 0
-0.81303978 1.2206643 -0.050063185 0
-1.1295248 1.4636449 0.076308064 0
-1.2496531 1.555873 0.38848197 0
-1.2320867 1.5423864 0.54143149 0
-0.26469201 0.79967183 0.3699472 0
-0.24842329 0.78718156 0.43554842 0
-0.82247639 1.2030312 -0.049951483 0
-1.1664038 1.4602629 0.077284515 0
-1.2467723 1.5203724 0.38420093 0
-1.2394711 1.5149118 0.53869945 0
-0.27094626 0.79052836 0.3697246 0
-0.28006953 0.79735184 0.45124188 0
-0.83208644 1.185618 -0.049858317 0
-1.2000668 1.4536812 0.078111909 0
-1.2591484 1.4967204 0.38346341 0
-1.2378579 1.4812109 0.5332619 0
-1.2326648 1.477428 0.6914162 0
-0.25928146 0.76834595 0.36038432 0
-0.27864063 0.78244853 0.44623816 0
-0.84686267 1.1719463 -0.050001755 0
-1.2514319 1.4589365 0.079710439 0
-1.2522466 1.4595144 0.37853593 0
-1.2413374 1.4517757 0.52959907 0
-1.2349588 1.4472508 0.68617547 0
-0.28131884 0.7707653 0.36837777 0
-0.28269172 0.77173913 0.44475621 0
-0.86748147 1.1621828 -0.050404944 0
-1.3018954 1.4621937 0.081253126 0
-1.2494076 1.4259452 0.37464476 0
-1.2427582 1.421353 0.52544504 0
-1.24358 1.4219205 0.68369275 0
-0.27765006 0.75483876 0.43784055 0
-0.87286246 1.1418303 -0.050154567 0
-1.2742008 1.4115993 0.07941892 0
-1.2757704 1.4126543 0.22721152 0
-1.2472548 1.393487 0.37102771 0
-1.2371502 1.3866948 0.51928359 0
-1.2426894 1.3904182 0.67754638 0
-0.29394299 0.75269616 0.4439739 0
-0.88299906 1.1247956 -0.050120085 0
-1.2669364 1.375908 0.078498587 0
-1.2699198 1.3778592 0.22462095 0
-1.2543277 1.3676612 0.36951685 0
-1.2351294 1.3551047 0.51439989 0
-1.233696 1.3541672 0.66838759 0
-0.28862989 0.73605132 0.4371559 0
-0.88539648 1.1028621 -0.04976752 0
-1.2726287 1.3492243 0.07815294 0
-1.2822732 1.3553604 0.22442584 0
-1.2480791 1.3336055 0.36524034 0
-1.2377893 1.3270591 0.51109123 0
-1.2410693 1.3291459 0.66593641 0
-0.29499215 0.72723913 0.43744081 0
-0.90688455 1.0930282 -0.050230786 0
-1.2946178 1.3329049 0.078508295 0
-1.2883737 1.329042 0.22347799 0
-1.246423 1.3030887 0.36206228 0
-1.2356348 1.2964143 0.50647032 0
-1.2415878 1.3000972 0.66094619 0
-0.91566217 1.0751653 -0.050166212 0
-1.3081166 1.3111825 0.078515865 0
-1.3095918 1.3120697 0.22447485 0
-1.2429975 1.2720207 0.35861698 0
-1.2435112 1.2723296 0.50498593 0
-1.2369334 1.2683737 0.6541279 0
-0.9179635 1.0535671 -0.049843654 0
-1.3389715 1.2995914 0.079252407 0
-1.329596 1.2941127 0.22534001 0
-1.2465852 1.2456037 0.3567439 0
-1.2372223 1.2401323 0.49941653 0
-1.2454113 1.2449176 0.65257448 0
-0.93877614 1.0427338 -0.050294507 0
-1.3841891 1.2955507 0.080579326 0
-1.3811532 1.2938275 0.23012619 0
-1.2559028 1.2227352 0.35614166 0
-1.2479028 1.2181944 0.49898431 0
-1.2384185 1.2128111 0.64522725 0
-0.94461787 1.0232838 -0.050137568 0
-1.2414088 1.1868365 0.35069978 0
-1.2422754 1.187314 0.49388531 0
-1.2396299 1.1858561 0.64120132 0
-0.96049416 1.009322 -0.050397888 0
-1.2439163 1.1608869 0.34886429 0
-1.2401125 1.1588528 0.48993579 0
-1.2258931 1.1512487 0.6316914 0
-0.95403242 0.98356354 -0.049765211 0
-1.2544622 1.1393911 0.34874049 0
-1.2442694 1.1341043 0.48793164 0
-1.2418258 1.1328368 0.6335268 0
-0.97750044 0.97334981 -0.050345529 0
-1.2663913 1.1186059 0.34895149 0
-1.2407683 1.1057224 0.48384255 0
-1.2408551 1.1057662 0.62914276 0
-0.98038304 0.95264959 -0.050109942 0
-1.2759023 1.0966057 0.34872878 0
-1.2388281 1.0785458 0.4803232 0
-1.2437276 1.0809325 0.62633431 0
-0.98754966 0.93415016 -0.050055169 0
-1.2871104 1.0754362 0.34890121 0
-1.2335926 1.0501949 0.47599193 0
-1.2526737 1.0591943 0.62589198 0
-0.98181641 0.90980291 -0.049503647 0
-1.3037113 1.056697 0.35019472 0
-1.2399054 1.0275797 0.47502449 0
-1.2397281 1.0274987 0.6175468 0
-1.0011287 0.89692795 -0.049944501 0
-1.3239864 1.0393773 0.35225198 0
-1.24604 1.0049863 0.47409242 0
-1.2409017 1.0027192 0.6145277 0
-1.0011891 0.87550539 -0.049642153 0
-1.3244641 1.0133026 0.35045981 0
-1.2425538 0.97838801 0.47057617 0
-1.2443558 0.97915608 0.6124627 0
-1.0186328 0.86146241 -0.050022893 0
-1.3319719 0.99038678 0.35011214 0
-1.2422737 0.95348012 0.46805522 0
-1.2375995 0.95155698 0.6068421 0
-1.0188341 0.84028536 -0.049746282 0
-1.3413424 0.96825826 0.35018373 0
-1.2439985 0.92963171 0.46618351 0
-1.2432598 0.92933857 0.60581845 0
-1.0251018 0.82163304 -0.049713075 0
-1.3506937 0.94610763 0.3503052 0
-1.243538 0.90514171 0.46380606 0
-1.2425408 0.90476048 0.60262752 0
-1.0462337 0.80847138 -0.050254434 0
-1.3637329 0.92529178 0.35118854 0
-1.2361716 0.87835699 0.45964625 0
-1.2321268 0.87686878 0.59612447 0
-1.0569904 0.79123169 -0.050406784 0
-1.3594099 0.89819992 0.34879687 0
-1.2425941 0.8568812 0.459328 0
-1.2424618 0.85683441 0.59709662 0
-1.0578549 0.77051574 -0.050193712 0
-1.3756492 0.87843972 0.3503969 0
-1.2395108 0.83220667 0.45652285 0
-1.2382501 0.83177853 0.59304243 0
-1.0590793 0.75007176 -0.05000484 0
-1.3725855 0.85215515 0.34837651 0
-1.245031 0.81062102 0.45612118 0
-1.2469125 0.8112337 0.59361988 0
-1.0516638 0.72707051 -0.049503256 0
-1.3874121 0.83173937 0.34980631 0
-1.2363558 0.78464782 0.45200026 0
-1.242986 0.78671479 0.58989841 0
-1.0763717 0.7140075 -0.050211042 0
-1.3865205 0.80642748 0.34832132 0
-1.2520435 0.76635522 0.45446789 0
-1.2345779 0.76115072 0.58474243 0
-1.0729614 0.69242746 -0.049878769 0
-1.4059973 0.78711849 0.35072049 0
-1.2376002 0.73923868 0.4489958 0
-1.2463595 0.7417292 0.58669966 0
-1.0721638 0.67179441 -0.049654339 0
-1.4152404 0.76468766 0.35124493 0
-1.2452447 0.71865875 0.449471 0
-1.2377727 0.71663553 0.58171421 0
-1.093671 0.6570605 -0.050262462 0
-1.4162848 0.74006772 0.35029358 0
-1.234225 0.69322449 0.44509608 0
-1.2492703 0.69709557 0.58375323 0
-1.0885291 0.63538182 -0.049896259 0
-1.4180472 0.7157557 0.34953606 0
-1.2442831 0.67337233 0.44635409 0
-1.243794 0.67325306 0.58005774 0
-1.0976112 0.61724526 -0.050062273 0
-1.4144021 0.69030136 0.34783667 0
-1.2374483 0.64949352 0.44325101 0
-1.2343212 0.64877236 0.57511109 0
-1.1035002 0.59829152 -0.050119538 0
-1.4322046 0.66974837 0.35015953 0
-1.2363051 0.62716186 0.44172102 0
-1.241977 0.62839484 0.57611471 0
-1.0976158 0.57688874 -0.049756352 0
-1.4436635 0.64756483 0.35135648 0
-1.2295463 0.60383397 0.438806 0
-1.2364397 0.60524184 0.57272315 0
-1.1083518 0.55892062 -0.050007962 0
-1.4486588 0.62397182 0.3514151 0
-1.2382748 0.58375597 0.43999723 0
-1.2328596 0.58272088 0.57010156 0
-1.1096448 0.539087 -0.049924787 0
-1.4431858 0.59850174 0.34961036 0
-1.2371881 0.56180668 0.43870777 0
-1.2347237 0.56136769 0.56942153 0
-1.1183672 0.52053678 -0.050119668 0
-1.4449142 0.57447273 0.34918448 0
-1.2353208 0.53985405 0.43729073 0
-1.2429303 0.54111093 0.57097244 0
-1.1201861 0.50079322 -0.050073314 0
-1.4556828 0.55187649 0.35046381 0
-1.246935 0.52009219 0.43942696 0
-1.2446461 0.51974368 0.57042187 0
-1.123561 0.48129639 -0.050092101 0
-1.4610161 0.52833837 0.35080305 0
-1.2375008 0.49717984 0.4362016 0
-1.2468028 0.49847656 0.57011092 0
-1.119302 0.46081668 -0.049844984 0
-1.4610531 0.50407821 0.35023287 0
-1.2473596 0.47702721 0.43801719 0
-1.2446632 0.47668588 0.56844956 0
-1.1269363 0.44186291 -0.050034843 0
-0.5115276 0.37182063 0.039922114 0
-0.51463121 0.37217388 0.10844926 0
-0.50311214 0.37086284 0.17583349 0
-1.2446753 0.45526326 0.43667454 0
-1.2479293 0.45563361 0.56869256 0
-1.1404374 0.42336434 -0.050443549 0
-0.52444923 0.36110204 0.040339924 0
-0.51671499 0.36032027 0.10853583 0
-0.51183397 0.35982692 0.17718486 0
-1.2423422 0.43366459 0.43549404 0
-1.2424861 0.43367913 0.56611174 0
-1.1266187 0.40215895 -0.049881004 0
-0.47417128 0.34450057 0.038497008 0
-0.51530653 0.3481358 0.10826166 0
-0.50105023 0.34687594 0.1750284 0
-1.2366538 0.41188303 0.43352515 0
-1.2373384 0.41194353 0.56372476 0
-1.1439483 0.38370609 -0.050443772 0
-0.51306444 0.33595073 0.10791444 0
-0.51211172 0.33587861 0.17685454 0
-1.2430776 0.39120981 0.43472737 0
-1.2488847 0.39164937 0.56700134 0
-1.1227568 0.36242387 -0.049636424 0
-0.51428139 0.32406333 0.1079565 0
-0.50368404 0.32339525 0.17518243 0
-1.2410901 0.36988404 0.43384495 0
-1.241329 0.36989909 0.5639928 0
-1.2452637 0.37014717 0.70205116 0
-1.1341183 0.34334973 -0.050002832 0
-0.51306003 0.31204128 0.10775228 0
-0.51486695 0.31213236 0.17708102 0
-1.2404912 0.34871215 0.4333865 0
-1.236824 0.34852728 0.56209373 0
-1.2380681 0.34858999 0.69857115 0
-0.34508771 0.30357355 0.46775758 0
-1.1413096 0.32385623 -0.050228667 0
-0.51239073 0.30008608 0.10762381 0
-0.51190072 0.30006754 0.1764507 0
-1.2509413 0.32799977 0.43581727 0
-1.2410485 0.32762587 0.56319147 0
-1.2354531 0.32741439 0.6971032 0
-0.34781921 0.29386604 0.46912232 0
-1.1307589 0.30375329 -0.049829576 0
-0.4084788 0.28555828 0.35432351 0
-0.40634453 0.28550452 0.42586207 0
-0.38169426 0.28488356 0.48903459 0
-1.1292813 0.28404301 -0.049763545 0
-0.40440333 0.27491328 0.42479083 0
-0.37767988 0.27457669 0.48653877 0
-1.143087 0.26437625 -0.050252002 0
-0.39077348 0.26437426 0.41793805 0
-0.38685185 0.26437426 0.49194011 0
-0.9042145 -0.98929477 -0.091438331 0
-1.0168115 -0.98929507 -0.090730555 0
-1.1317139 -0.98929536 -0.085188441 0
-1.1277806 -0.98929536 -0.05765878 0
-1.1341518 -0.98929536 -0.031695548 0
-1.1382277 -0.98929536 -0.0053631123 0
-1.1264845 -0.98929536 0.022150399 0
-1.1228089 -0.9892953 0.048653059 0
-1.1231948 -0.9892953 0.074832961 0
-1.126804 -0.98929536 0.1010026 0
-1.1328243 -0.98929536 0.12739649 0
-1.1240305 -0.98929536 0.15340897 0
-1.1403733 -0.98929536 0.18082684 0
-1.1351475 -0.98929536 0.20708182 0
-1.1274271 -0.98929536 0.23291571 0
-1.1250633 -0.98929536 0.25928327 0
-1.12857 -0.98929536 0.28667876 0
-1.1383654 -0.98929536 0.31563351 0
-0.90481091 -1.0121559 -0.091626428 0
-1.0187021 -1.0150307 -0.091147833 0
-1.1294633 -1.0178264 -0.084877737 0
-1.1337738 -1.0179353 -0.058551837 0
-1.1333771 -1.0179253 -0.031647224 0
-1.1264772 -1.0177511 -0.0042998325 0
-1.1374868 -1.018029 0.021355877 0
-1.1386582 -1.0180585 0.047898304 0
-1.1443142 -1.0182014 0.074333452 0
-1.1312776 -1.0178723 0.10100273 0
-1.1449577 -1.0182176 0.1276878 0
-1.1361858 -1.0179962 0.15399244 0
-1.1374224 -1.0180274 0.18064575 0
-1.1240075 -1.0176888 0.20607483 0
-1.1228434 -1.0176594 0.23242159 0
-1.126328 -1.0177473 0.25951156 0
-1.1336524 -1.0179322 0.28757378 0
-1.1375376 -1.0180303 0.31554586 0
-0.90193802 -1.034901 -0.091199137 0
-1.0129218 -1.0405072 -0.090241395 0
-1.1300128 -1.0464218 -0.085145853 0
-1.1314542 -1.0464946 -0.05837797 0
-1.2404442 -1.0519999 -0.044303272 0
-1.2555423 -1.0527626 -0.016462823 0
-1.2288553 -1.0514146 0.014884101 0
-1.2444212 -1.0522008 0.042917516 0
-1.233905 -1.0516696 0.0722223 0
-1.2260509 -1.0512729 0.10100547 0
-1.2368357 -1.0518177 0.12985753 0
-1.2410986 -1.0520329 0.15893956 0
-1.2382203 -1.0518876 0.18778342 0
-1.2383327 -1.0518932 0.2168667 0
-0.89775795 -1.05746 -0.090614639 0
-1.0102267 -1.0659904 -0.090037398 0
-1.1325034 -1.075265 -0.085853301 0
-1.1256613 -1.074746 -0.057815734 0
-1.2352384 -1.0830573 -0.043924872 0
-1.2356695 -1.0830901 -0.014789915 0
-1.235505 -1.0830775 0.014280545 0
-1.2443726 -1.0837501 0.042827174 0
-1.241647 -1.0835434 0.071995907 0
-1.2344302 -1.082996 0.10100577 0
-1.2440995 -1.0837294 0.1300734 0
-1.2379723 -1.0832647 0.1588859 0
-1.2439259 -1.0837163 0.18832228 0
-1.2337292 -1.0829428 0.21662042 0
-0.89185029 -1.0797189 -0.089781053 0
-1.0138702 -1.0920773 -0.091154464 0
-1.1569036 -1.1065639 -0.090301953 0
-1.2507905 -1.1160729 -0.07584592 0
-1.2440237 -1.1153876 -0.045281027 0
-1.2364357 -1.114619 -0.01512075 0
-1.2444879 -1.1154345 0.013455415 0
-1.2403332 -1.1150138 0.042886119 0
-1.2360787 -1.1145829 0.072061218 0
-1.2358891 -1.1145637 0.10100589 0
-1.2408611 -1.1150672 0.13006264 0
-1.2387441 -1.1148529 0.15905163 0
-1.2314413 -1.1141132 0.18763971 0
-1.9976559 -1.1917166 0.28859329 0
-1.9976959 -1.1917206 0.33587286 0
-1.9246999 -1.1843275 0.37309155 0
-1.4694382 -1.1382179 0.37942827 0
-0.89990973 -1.1035647 -0.092057683 0
-1.0002174 -1.1162882 -0.089116059 0
-1.1602312 -1.1365851 -0.09140449 0
-1.1972063 -1.1412753 -0.068764739 0
-1.2486765 -1.1478039 -0.046250675 0
-1.2426182 -1.1470355 -0.01603703 0
-1.2378949 -1.1464363 0.013667794 0
-1.2398493 -1.1466843 0.042741422 0
-1.224637 -1.1447546 0.07224606 0
-1.235901 -1.1461835 0.10100599 0
-1.2418362 -1.1469363 0.13016939 0
-1.2288584 -1.1452901 0.15875453 0
-1.2349787 -1.1460664 0.18813898 0
-1.6051511 -1.1930209 0.36714929 0
-1.4793997 -1.17707 0.3821227 0
-0.88312376 -1.1241812 -0.089129947 0
-0.99990553 -1.1419988 -0.089727841 0
-1.134401 -1.162519 -0.087789439 0
-1.1956788 -1.1718683 -0.069146954 0
-1.6212955 -1.2368056 -0.090823717 0
-2.5549064 -1.3792486 -0.14035711 0
-3.4164422 -1.510695 -0.14070392 0
-5.1402693 -1.7737031 -0.14114818 0
-10.280599 -2.5579746 -0.14084712 0
-1.3479517 -1.1951009 0.29281446 0
-1.3536617 -1.1959721 0.3262634 0
-1.3692595 -1.1983519 0.36212382 0
-0.88997996 -1.1483264 -0.091405995 0
-0.99616152 -1.1672796 -0.089809649 0
-1.1389309 -1.1927638 -0.089335732 0
-1.2024434 -1.2041006 -0.070824645 0
-1.6229167 -1.2791545 -0.091818921 0
-2.549207 -1.444496 -0.14082673 0
-3.396009 -1.5956489 -0.14026436 0
-5.1096654 -1.9015342 -0.14071427 0
-10.235868 -2.8165538 -0.14080274 0
-1.3388448 -1.2284482 0.29231679 0
-1.3232229 -1.2256596 0.32212278 0
-1.3135606 -1.2239349 0.35255674 0
-0.8803739 -1.1696687 -0.090253912 0
-0.99591249 -1.1933148 -0.09068618 0
-1.1396044 -1.2227228 -0.090370841 0
-1.1870548 -1.2324339 -0.069449596 0
-1.6070348 -1.3183868 -0.090858422 0
-2.5387714 -1.5090756 -0.14100409 0
-3.386472 -1.6825657 -0.1407527 0
-5.0864754 -2.0304878 -0.14078337 0
-10.195334 -3.0760648 -0.14101228 0
-1.2525192 -1.2458318 0.31132901 0
-1.2358657 -1.2424235 0.33883387 0
-0.87410945 -1.1915175 -0.08994133 0
-0.99043155 -1.2183986 -0.090683095 0
-1.1321033 -1.2511379 -0.090160273 0
-1.1830057 -1.2629009 -0.069804989 0
-1.604439 -1.360291 -0.091604464 0
-2.5088599 -1.5692956 -0.13947241 0
-3.3657613 -1.767319 -0.14059913 0
-5.060318 -2.1589179 -0.14086613 0
-10.128934 -3.3302362 -0.14076166 0
-0.86838323 -1.2134433 -0.089865543 0
-0.98822153 -1.2443417 -0.091439001 0
-1.1210576 -1.2785916 -0.089468069 0
-1.3255758 -1.3313236 -0.091552906 0
-1.5805144 -1.3970557 -0.089908354 0
-1.9872558 -1.501928 -0.090681084 0
-3.3425782 -1.8513776 -0.14042 0
-5.0241704 -2.284951 -0.14062451 0
-10.070193 -3.5859933 -0.14084685 0
-0.87833983 -1.2398338 -0.093377344 0
-0.97318381 -1.2668575 -0.089815892 0
-1.1037096 -1.3040481 -0.08781185 0
-1.3005028 -1.3601201 -0.089211784 0
-1.573983 -1.4380423 -0.09042608 0
-1.974839 -1.5522575 -0.090792738 0
-3.3314953 -1.9388072 -0.14127289 0
-4.9932938 -2.4123006 -0.14078978 0
-10.000084 -3.8388772 -0.14081334 0
-0.85088629 -1.2554255 -0.088733666 0
-0.96993619 -1.2926184 -0.090618171 0
-1.0938199 -1.3313214 -0.087536968 0
-1.2891406 -1.3923423 -0.088977464 0
-1.56267 -1.4777967 -0.09048862 0
-1.9576023 -1.601179 -0.090557702 0
-3.301827 -2.0211337 -0.14093229 0
-4.9608402 -2.5394325 -0.1410356 0
-9.9212561 -4.0891361 -0.1407221 0
-0.84773093 -1.2781377 -0.08959379 0
-0.96839434 -1.3192039 -0.091895588 0
-1.0942279 -1.3620297 -0.0891665 0
-1.2728751 -1.4228299 -0.088133447 0
-1.5591686 -1.5202661 -0.091639467 0
-1.9382209 -1.6492714 -0.090230413 0
-3.2708015 -2.1027973 -0.14064138 0
-4.9175572 -2.6632483 -0.14090815 0
-9.8520632 -4.3426414 -0.14102118 0
-0.8383866 -1.2988007 -0.089189105 0
-0.95160794 -1.3405503 -0.090258725 0
-1.0999224 -1.3952403 -0.091872446 0
-1.2713912 -1.4584682 -0.089610361 0
-1.5358045 -1.5559688 -0.090459771 0
-1.9295514 -1.7011602 -0.091085963 0
-3.2465847 -2.1868069 -0.14100792 0
-4.8709259 -2.7857714 -0.14076774 0
-9.7588844 -4.5881715 -0.14088652 0
-0.84107673 -1.3241618 -0.091651998 0
-0.93671322 -1.3621948 -0.089097492 0
-1.0689282 -1.4147745 -0.088264085 0
-1.2611614 -1.4912224 -0.089914806 0
-1.5172932 -1.5930817 -0.089991353 0
-1.9138911 -1.750802 -0.091378801 0
-3.2070527 -2.2650704 -0.14038472 0
-4.8283849 -2.909847 -0.14098503 0
-9.6608286 -4.8316283 -0.1407828 0
-0.82988244 -1.3442427 -0.091079406 0
-0.93046123 -1.387211 -0.089805193 0
-1.0723511 -1.4478278 -0.090855323 0
-1.2481935 -1.5229495 -0.089929797 0
-1.4968297 -1.6291693 -0.089388184 0
-1.8909948 -1.7975606 -0.091066889 0
-3.1711266 -2.3444457 -0.14017826 0
-4.7671261 -3.026273 -0.14041479 0
-9.5527163 -5.070725 -0.14057824 0
-0.82709116 -1.3680335 -0.092582129 0
-0.92710263 -1.4137769 -0.091250412 0
-1.060558 -1.4748168 -0.090876617 0
-1.2387826 -1.5563333 -0.090617724 0
-1.4968594 -1.6743727 -0.09152817 0
-1.8571072 -1.839143 -0.089743651 0
-3.1477518 -2.4294591 -0.14108746 0
-4.7304497 -3.1533546 -0.14124599 0
-9.4511251 -5.3125005 -0.14069147 0
-0.80880666 -1.3846729 -0.0905798 0
-0.91987562 -1.438903 -0.092042424 0
-1.0452226 -1.5001044 -0.090374194 0
-1.2260703 -1.5884044 -0.090928845 0
-1.4697834 -1.7073988 -0.090316795 0
-1.841158 -1.8887247 -0.090375714 0
-3.1055384 -2.5060661 -0.14070825 0
-4.6686158 -3.2692482 -0.14094932 0
-9.3452187 -5.5526285 -0.14085142 0
-0.80703998 -1.4093804 -0.092608236 0
-0.89919192 -1.4572904 -0.090121977 0
-1.0330443 -1.5268806 -0.090567388 0
-1.2055789 -1.6165817 -0.090139322 0
-1.4441111 -1.740595 -0.089383446 0
-1.820709 -1.936389 -0.090673544 0
-3.0677638 -2.5847352 -0.1408252 0
-4.5963235 -3.3794363 -0.1402525 0
-9.2262135 -5.7865248 -0.14082801 0
-0.7933898 -1.4280906 -0.091929831 0
-0.90492284 -1.4897002 -0.093957625 0
-1.0130435 -1.549425 -0.089420609 0
-1.1923361 -1.6484642 -0.090615891 0
-1.4349276 -1.7824692 -0.090749688 0
-1.7984517 -1.983276 -0.090910129 0
-3.0130348 -2.6541986 -0.13974719 0
-4.5486507 -3.5024564 -0.14100222 0
-9.0906267 -6.0113955 -0.14051963 0
-0.78016692 -1.4468812 -0.091462083 0
-0.86832672 -1.4985248 -0.088788129 0
-1.00664 -1.579548 -0.090954281 0
-1.1611645 -1.6700678 -0.088309593 0
-1.4075599 -1.8144051 -0.089815371 0
-1.7709247 -2.0272624 -0.09070731 0
-2.983582 -2.7376313 -0.14084211 0
-4.4811521 -3.6149008 -0.14085974 0
-8.9632502 -6.2404928 -0.14057972 0
-0.76540619 -1.4646045 -0.090720065 0
-0.86521411 -1.5265058 -0.09100727 0
-0.99422002 -1.6065158 -0.091494538 0
-1.1526371 -1.7047668 -0.08980111 0
-1.3879378 -1.8507011 -0.090041555 0
-1.742856 -2.070823 -0.090562813 0
-2.937113 -2.8115056 -0.14072639 0
-4.408421 -3.7240169 -0.1405827 0
-8.8375549 -6.470983 -0.14084378 0
-0.75892305 -1.4875623 -0.092182495 0
-0.85122424 -1.5480849 -0.090971299 0
-0.96633857 -1.6235662 -0.08913783 0
-1.1336161 -1.7332512 -0.089699991 0
-1.3719237 -1.8895111 -0.090902783 0
-1.7203341 -2.1179662 -0.091156758 0
-2.8891225 -2.8843489 -0.14063621 0
-4.3459463 -3.8395987 -0.1410241 0
-8.6913671 -6.6889219 -0.14070296 0
-0.75293547 -1.5113032 -0.093947344 0
-0.82820642 -1.5634211 -0.088990174 0
-0.96204162 -1.6560892 -0.091539524 0
-1.1196656 -1.765229 -0.090585701 0
-1.3400646 -1.9178343 -0.089664809 0
-1.695395 -2.1638668 -0.091620691 0
-2.8410046 -2.9570923 -0.1406886 0
-4.2699995 -3.9465353 -0.14087419 0
-8.5485907 -6.9090528 -0.14081036 0
-0.73124611 -1.5241121 -0.091768228 0
-0.82314628 -1.5912367 -0.091250218 0
-0.94206351 -1.6780949 -0.090959974 0
-1.1122218 -1.80238 -0.092759438 0
-1.3157625 -1.9510478 -0.089600094 0
-1.6496127 -2.1948946 -0.089816771 0
-2.7923729 -3.0295761 -0.14085504 0
-4.1977954 -4.056108 -0.14109154 0
-8.3942862 -7.1212602 -0.14074641 0
-0.71304643 -1.5389733 -0.090568446 0
-0.79952639 -1.605549 -0.08930824 0
-0.79313016 -1.6006249 -0.063736342 0
-0.78933448 -1.5977029 -0.03919496 0
-0.82572997 -1.6257216 -0.02096392 0
-0.81255019 -1.6155752 0.0051406268 0
-0.83330119 -1.6315502 0.027365679 0
-0.8184936 -1.6201507 0.052824922 0
-0.83243859 -1.6308861 0.076516286 0
-0.8479858 -1.6428549 0.10100099 0
-0.7007755 -1.5582938 -0.091067977 0
-0.7912215 -1.6316304 -0.091126584 0
-0.78168702 -1.6238996 -0.064632244 0
-0.77563763 -1.6189945 -0.039539728 0
-1.2715997 -2.0211368 -0.090507425 0
-0.78114092 -1.6234567 0.0069850329 0
-0.79094911 -1.6314095 0.029695103 0
-0.79998362 -1.6387351 0.052964687 0
-0.81205487 -1.6485229 0.07663393 0
-0.81889856 -1.6540719 0.10100053 0
-0.84497482 -1.6752154 0.12635447 0
-0.68570906 -1.5754032 -0.090931989 0
-0.77332711 -1.6501887 -0.090771131 0
-0.75437444 -1.6340119 -0.06224421 0
-0.74882632 -1.6292763 -0.037567157 0
-0.75403333 -1.6337206 -0.015042132 0
-0.75840402 -1.6374513 0.0077811424 0
-0.76551914 -1.6435243 0.030520165 0
-0.77395552 -1.650725 0.053539239 0
-0.80301154 -1.6755254 0.076394014 0
-0.81167907 -1.6829236 0.1010009 0
-0.67088526 -1.5927067 -0.090984277 0
-0.75860268 -1.6714879 -0.091327362 0
-0.86203951 -1.7643872 -0.089674674 0
-0.73351318 -1.6489544 -0.037769828 0
-0.74297291 -1.6574504 -0.015896631 0
-0.74541813 -1.6596465 0.0073282886 0
-0.74658281 -1.6606926 0.030725518 0
-0.75551158 -1.6687118 0.053633641 0
-0.76752561 -1.6795019 0.076953903 0
-0.76233894 -1.6748435 0.10099969 0
-0.64912903 -1.6034975 -0.089136831 0
-0.73733848 -1.6868361 -0.090340145 0
-0.69204044 -1.6440394 -0.055721436 0
-0.68528271 -1.6376548 -0.0317082 0
-0.69300175 -1.6449476 -0.010610653 0
-0.71230561 -1.6631855 0.0093778763 0
-0.72065371 -1.6710726 0.03156716 0
-0.72365785 -1.6739109 0.054560423 0
-0.73042947 -1.6803086 0.077575609 0
-0.74633712 -1.6953378 0.10099975 0
-0.64173013 -1.6279576 -0.091625564 0
-0.65770674 -1.6438338 -0.073931016 0
-0.6456818 -1.6318843 -0.048858959 0
-0.65554392 -1.6416845 -0.029100617 0
-1.1611936 -2.1441565 -0.090514489 0
-0.66426867 -1.6503544 0.013431722 0
-0.68504465 -1.6709999 0.03335866 0
-0.69327307 -1.6791766 0.055405792 0
-0.70928413 -1.6950871 0.077689596 0
-0.73076695 -1.7164348 0.10099985 0
-0.62532485 -1.6438798 -0.09159895 0
-0.63426906 -1.653228 -0.072101973 0
-0.63069439 -1.6494919 -0.049199317 0
-0.63157064 -1.6504078 -0.027615866 0
-0.75921065 -1.783813 -0.027544757 0
-0.6388967 -1.6580647 0.014576802 0
-0.66558206 -1.6859554 0.033565354 0
-0.68212754 -1.7032481 0.054969288 0
-0.70769608 -1.7299716 0.077136487 0
-0.6062851 -1.656918 -0.090864651 0
-0.60867733 -1.659548 -0.069684096 0
-0.61013341 -1.6611489 -0.048294995 0
-0.61951041 -1.671458 -0.028622931 0
-0.60515261 -1.655673 -0.0043098759 0
-0.61496079 -1.6664562 0.015528196 0
-0.65379125 -1.7091467 0.03294209 0
-0.68408442 -1.7424513 0.053572509 0
-6.993834 -8.6794395 -0.1407288 0
-0.58823347 -1.6708549 -0.090535261 0
-0.66941416 -1.7647603 -0.092102773 0
-0.70174265 -1.802156 -0.075625755 0
-0.59981972 -1.6842573 -0.028132683 0
-0.60299373 -1.6879288 -0.0069632363 0
-0.62740505 -1.7161664 0.011285605 0
-0.64620334 -1.7379112 0.031789411 0
-3.3943732 -4.9168406 -0.14072861 0
-6.7966657 -8.8524227 -0.14069641 0
-0.57050079 -1.6850798 -0.090418495 0
-0.64503717 -1.77583 -0.090738364 0
-0.66650116 -1.8019631 -0.071868874 0
-0.60198301 -1.7234102 -0.03253654 0
-0.60561311 -1.7278301 -0.01072686 0
-0.62820882 -1.7553409 0.0084408838 0
-1.7461474 -3.1164639 -0.091468461 0
-3.2904584 -4.996707 -0.14045443 0
-6.6048579 -9.0320845 -0.14101698 0
-0.55465466 -1.701702 -0.091072164 0
-0.62433839 -1.7910483 -0.090539895 0
-0.66541994 -1.8437217 -0.077116318 0
-0.64940691 -1.8231903 -0.047649998 0
-0.58774173 -1.7441252 -0.01090849 0
-0.6394996 -1.8104875 0.0037633276 0
-1.6843804 -3.1502004 -0.090611346 0
-3.1916957 -5.0828314 -0.1407115 0
-6.3940229 -9.1887531 -0.14079751 0
-0.53503209 -1.7135069 -0.090546601 0
-0.59743601 -1.7978228 -0.088490121 0
-0.69411218 -1.9284449 -0.091057293 0
-0.8134461 -2.0896804 -0.091420211 0
-0.98064345 -2.3155861 -0.091875099 0
-1.2179652 -2.6362388 -0.090280451 0
-1.6328925 -3.1968598 -0.091030918 0
-3.091855 -5.1681085 -0.14106052 0
-6.1879153 -9.3512897 -0.14090729 0
-0.51551551 -1.7252709 -0.090149455 0
-0.58101583 -1.8186064 -0.089857511 0
-0.67090183 -1.9466906 -0.091259502 0
-0.78054124 -2.1029227 -0.090225913 0
-0.93948317 -2.3294089 -0.090372749 0
-1.1791739 -2.6709595 -0.090792425 0
-1.5773984 -3.2384143 -0.091119163 0
-2.9803643 -5.2375879 -0.14064959 0
-5.9749165 -9.5047121 -0.14090538 0
-0.49946773 -1.7421088 -0.091180809 0
-0.56321907 -1.8380102 -0.09098468 0
-0.64325911 -1.9584147 -0.090287887 0
-0.74841666 -2.1166034 -0.089266889 0
-0.91437072 -2.3662486 -0.092272647 0
-1.1376424 -2.702117 -0.09100727 0
-1.5182093 -3.2746053 -0.090874292 0
-2.8763351 -5.3176379 -0.14099509 0
-5.7505665 -9.6413536 -0.14058639 0
-0.48465613 -1.7613991 -0.092914321 0
-0.54288048 -1.8539704 -0.091428645 0
-0.62153852 -1.9790294 -0.091194339 0
-0.72174853 -2.1383538 -0.089798398 0
-0.87405521 -2.3805072 -0.091113128 0
-1.0931511 -2.7288494 -0.090847291 0
-1.4624068 -3.3159313 -0.091181792 0
-2.7651477 -5.387167 -0.14090212 0
-5.5331588 -9.7880459 -0.14070532 0
-0.45698997 -1.7598937 -0.089573093 0
-0.51786524 -1.8623264 -0.090313248 0
-0.59436798 -1.991055 -0.090550832 0
-0.69180155 -2.1550033 -0.089598976 0
-0.82856566 -2.3851316 -0.088800468 0
-1.0459789 -2.7509658 -0.090311386 0
-1.3899952 -3.3298309 -0.089369707 0
-2.6524618 -5.4541411 -0.14082535 0
-5.3067284 -9.9203873 -0.14058392 0
-0.44168633 -1.7788464 -0.091435678 0
-0.49549496 -1.8748225 -0.090244852 0
-0.56702465 -2.0024068 -0.08991956 0
-0.65988481 -2.1680374 -0.08894258 0
-0.79974359 -2.4174974 -0.090392224 0
-1.0014687 -2.7773056 -0.090363272 0
-1.3410058 -3.3829229 -0.090871803 0
-2.5379536 -5.5178657 -0.14072911 0
-5.0816441 -10.054934 -0.14067644 0
-0.41780859 -1.7825365 -0.089698456 0
-0.47598523 -1.8927327 -0.091451578 0
-0.54644203 -2.0261896 -0.091736056 0
-0.63419145 -2.1924014 -0.090224259 0
-0.75940996 -2.4295859 -0.089379944 0
-0.95855922 -2.8068078 -0.090867676 0
-1.2767553 -3.4095242 -0.090358265 0
-1.9281622 -4.6433969 -0.091396935 0
-4.8484092 -10.174829 -0.1405329 0
-0.39884678 -1.7952406 -0.090265639 0
-0.45028603 -1.8989304 -0.090284906 0
-0.51257223 -2.0244851 -0.088949971 0
-0.60268956 -2.2061412 -0.089925744 0
-0.72592688 -2.4545596 -0.090194948 0
-0.90948588 -2.8245728 -0.09025643 0
-1.2203933 -3.4512918 -0.091162033 0
-1.8335464 -4.6872687 -0.091207854 0
-4.6176276 -10.299343 -0.14066486 0
-0.37371668 -1.7950338 -0.087912522 0
-0.42554161 -1.906479 -0.089548014 0
-0.48344979 -2.0310056 -0.087843008 0
-0.56906641 -2.2151172 -0.089016296 0
-0.68241525 -2.4588642 -0.088445969 0
-0.86640465 -2.8545182 -0.09103442 0
-1.1554583 -3.476104 -0.090759553 0
-1.7352601 -4.7229195 -0.090722211 0
-4.3812256 -10.412847 -0.14066322 0
-0.35713562 -1.8131293 -0.089974888 0
-0.40691188 -1.9276403 -0.091743849 0
-0.46135029 -2.0528765 -0.089631505 0
-0.54177892 -2.2379038 -0.090363912 0
-0.65211523 -2.491734 -0.090497084 0
-0.81529492 -2.8671315 -0.090151213 0
-1.0952419 -3.5111535 -0.091267489 0
-1.6424006 -4.7699003 -0.090943657 0
-4.1455164 -10.528354 -0.14086451 0
-0.3404409 -1.8322864 -0.092356242 0
-0.37826535 -1.9256793 -0.089314736 0
-0.43432999 -2.0641096 -0.089614935 0
-0.50768113 -2.2452221 -0.089457445 0
-0.61462665 -2.5092831 -0.090692423 0
-0.76782852 -2.8875563 -0.090194277 0
-1.028285 -3.5306542 -0.090712734 0
-1.5429771 -4.8014894 -0.090508111 0
-3.9041386 -10.631474 -0.14090304 0
-0.31489336 -1.8295413 -0.089837693 0
-0.35693884 -1.9413878 -0.090610184 0
-0.41045365 -2.083744 -0.091194056 0
-0.47667706 -2.259907 -0.089795388 0
-0.57652879 -2.5255256 -0.090841539 0
-0.72084963 -2.9094379 -0.090502225 0
-0.96544164 -3.5600846 -0.091031648 0
-1.4499696 -4.8489923 -0.090993591 0
-3.6577523 -10.721981 -0.14078005 0
-0.29338086 -1.8366343 -0.089700587 0
-0.33204797 -1.947943 -0.090177067 0
-0.37669435 -2.0764637 -0.088181891 0
-0.44687036 -2.278475 -0.090825029 0
-0.53731561 -2.5388343 -0.090745859 0
-0.67067271 -2.9227209 -0.09007556 0
-0.89736503 -3.5752864 -0.090412684 0
-1.3496127 -4.8771439 -0.090637363 0
-3.4126155 -10.815784 -0.14089294 0
-0.27436253 -1.8514777 -0.091415711 0
-0.30824417 -1.9575742 -0.090480365 0
-0.35153362 -2.0931301 -0.089473017 0
-0.40957057 -2.2748661 -0.088686191 0
-0.49958444 -2.5567343 -0.091336213 0
-0.62208617 -2.9403343 -0.090201236 0
-0.82953352 -3.589932 -0.089884512 0
-1.251792 -4.9121861 -0.090745024 0
-3.1624496 -10.89519 -0.14080526 0
-0.25191748 -1.8560815 -0.090957619 0
-0.28295481 -1.9624622 -0.089969136 0
-0.3236143 -2.1018231 -0.089498736 0
-0.37840417 -2.2896159 -0.089388944 0
-0.45625341 -2.5564451 -0.089824148 0
-0.57322246 -2.9573576 -0.090388305 0
-0.76785791 -3.6244729 -0.090934224 0
-1.1517222 -4.9401722 -0.090629928 0
-2.9090495 -10.963429 -0.14060123 0
-0.23013411 -1.8628178 -0.091096483 0
-0.2649045 -1.9942402 -0.094825096 0
-0.29480454 -2.1072538 -0.089089923 0
-0.3479133 -2.3079903 -0.090728708 0
-0.4177483 -2.5719471 -0.090363912 0
-0.523772 -2.9726872 -0.090530105 0
-0.70239633 -3.6478376 -0.09128172 0
-1.0518969 -4.968853 -0.090671115 0
-2.6593006 -11.044391 -0.14085893 0
-0.20948087 -1.8745128 -0.092438437 0
-0.23348519 -1.9754802 -0.089956366 0
-0.26713499 -2.1170187 -0.089538924 0
-0.31176984 -2.3047626 -0.089051537 0
-0.37935734 -2.5890505 -0.091209911 0
-0.47660431 -2.9980927 -0.091757856 0
-0.63194454 -3.6514878 -0.09032958 0
-0.94577056 -4.971509 -0.089587621 0
-2.4020498 -11.096938 -0.14058712 0
-0.18793139 -1.8835768 -0.093315206 0
-0.21061182 -1.9909465 -0.091855355 0
-0.24010044 -2.1305463 -0.090735294 0
-0.28035164 -2.3210967 -0.090324439 0
-0.33558154 -2.5825565 -0.089348741 0
-0.42238161 -2.9934704 -0.090228356 0
-0.56531602 -3.6701257 -0.090580828 0
-0.84582442 -4.9980597 -0.089774691 0
-2.1475179 -11.160311 -0.14072874 0
-0.16293421 -1.8752301 -0.090542145 0
-0.1849986 -1.9944898 -0.09157256 0
-0.21072148 -2.1335239 -0.090277024 0
-0.24283266 -2.3070872 -0.087368347 0
-0.29794371 -2.6049666 -0.091063343 0
-0.37404484 -3.016299 -0.091441952 0
-0.49900964 -3.6917431 -0.0911626 0
-0.94381732 -6.0959625 -0.14080344 0
-1.8888333 -11.203846 -0.14055292 0
-0.14047799 -1.8787631 -0.090473138 0
-0.16049375 -2.0046248 -0.09267164 0
-0.18021969 -2.1286643 -0.088640042 0
-0.21142636 -2.3248959 -0.089086883 0
-0.25802013 -2.6178837 -0.091760315 0
-0.31830755 -2.9969792 -0.088782676 0
-0.42838326 -3.6891501 -0.090146936 0
-0.8163864 -6.1289659 -0.14131212 0
-1.6327717 -11.262507 -0.14088796 0
-0.11600368 -1.8671372 -0.087275468 0
-0.13256334 -1.9914069 -0.089447312 0
-0.15125664 -2.1316884 -0.088443585 0
-0.17822093 -2.334038 -0.08968351 0
-0.21504667 -2.6103919 -0.090167619 0
-0.26856315 -3.0119989 -0.089498617 0
-0.36075541 -3.7038431 -0.090479784 0
-0.68616205 -6.1458125 -0.14121163 0
-1.3718181 -11.291225 -0.14067142 0
-0.09617193 -1.8916788 -0.09195099 0
-0.10853578 -2.006526 -0.091733642 0
-0.12410962 -2.1511908 -0.091092579 0
-0.14433722 -2.3390841 -0.089818202 0
-0.17386702 -2.6133852 -0.089939453 0
-0.21880193 -3.0307837 -0.090684138 0
-0.29253548 -3.7156913 -0.090731911 0
-0.55543083 -6.1577144 -0.14103398 0
-1.1122192 -11.329698 -0.14083779 0
-0.072950587 -1.8887044 -0.090855114 0
-0.082511358 -2.0050263 -0.090989225 0
-0.094162054 -2.1467755 -0.089905001 0
-0.10998777 -2.3393202 -0.089395098 0
-0.13363433 -2.627018 -0.091081448 0
-0.16619053 -3.0231156 -0.089507513 0
-0.22422723 -3.7292235 -0.091222547 0
-0.42465854 -6.1677861 -0.14092554 0
-0.8499189 -11.341748 -0.14054048 0
-0.049210206 -1.87227 -0.087020002 0
-0.056509975 -2.0007069 -0.089837961 0
-0.065398179 -2.1570916 -0.091268726 0
-0.075831562 -2.3406632 -0.089250542 0
-0.081672825 -2.4434383 -0.069254704 0
-0.081233703 -2.4357119 -0.03425679 0
-0.080954053 -2.4307916 3.3365792e-05 0
-0.080382608 -2.4207373 0.034222428 0
-0.081191331 -2.4349663 0.067303583 0
-0.08081267 -2.428304 0.10101154 0
-0.027183985 -1.8817538 -0.088827394 0
-0.031099658 -2.0058591 -0.090596236 0
-0.035727855 -2.1525476 -0.090307303 0
-0.040795293 -2.3131576 -0.085171126 0
-0.040950377 -2.3180728 -0.054405857 0
-0.040699191 -2.3101115 -0.02237667 0
-0.040904362 -2.3166144 0.0081318934 0
-0.040585395 -2.306505 0.039617505 0
-0.04125163 -2.327621 0.069838174 0
-0.040988475 -2.3192804 0.10100839 0
-0.0047857864 -1.9025441 -0.093156092 0
-0.0055281338 -2.0202429 -0.093214042 0
-0.0063824183 -2.1556897 -0.090732388 0
-0.0067202272 -2.209249 -0.070479222 0
-0.0067218058 -2.2094994 -0.041642074 0
-0.0067153443 -2.2084749 -0.012830785 0
-0.0067266403 -2.2102659 0.015611136 0
-0.0067144707 -2.2083364 0.044217095 0
-0.0067243087 -2.2098961 0.072590247 0
-0.0067394702 -2.2123001 0.10100532 0
0.018027315 -1.8901969 -0.090561964 0
0.020387998 -2.0149105 -0.092240386 0
0.023053374 -2.1557209 -0.090768062 0
0.023766791 -2.1934104 -0.068280242 0
0.023723416 -2.1911187 -0.039516199 0
0.023916371 -2.2013125 -0.012180252 0
0.023777857 -2.193995 0.016735243 0
0.023777332 -2.1939671 0.044877131 0
0.02381444 -2.1959276 0.072910562 0
0.023877146 -2.1992402 0.10100494 0
0.040661436 -1.887417 -0.090123065 0
0.045899555 -2.0059562 -0.090706088 0
0.052570917 -2.1569297 -0.09111964 0
0.054454468 -2.1995544 -0.06927938 0
0.054589298 -2.2026057 -0.040971939 0
0.05416584 -2.193023 -0.011495871 0
0.054666713 -2.2043576 0.015942978 0
0.054156948 -2.1928217 0.044885829 0
0.054567497 -2.2021124 0.072744273 0
0.054503594 -2.2006662 0.10100501 0
0.063090764 -1.8829846 -0.08945293 0
0.072172821 -2.0136514 -0.092434146 0
0.080708362 -2.1364553 -0.088022269 0
0.085456192 -2.2047641 -0.070257626 0
0.086211264 -2.2156277 -0.042701233 0
0.08526361 -2.2019932 -0.012496626 0
0.084904023 -2.1968198 0.016349176 0
0.085688271 -2.2081032 0.044092193 0
0.084745266 -2.1945357 0.072880343 0
0.084638886 -2.1930051 0.10100485 0
0.085996389 -1.8851016 -0.090300314 0
0.096835949 -1.9993093 -0.090122201 0
0.11067036 -2.145071 -0.089837037 0
0.11580907 -2.1992135 -0.069829606 0
0.11695316 -2.2112679 -0.042487744 0
0.11559377 -2.1969452 -0.0122589 0
0.11634518 -2.2048621 0.015608707 0
0.11571462 -2.1982183 0.044436339 0
0.11561166 -2.1971338 0.072761342 0
0.11556908 -2.1966851 0.10100502 0
0.10875379 -1.8841851 -0.090624444 0
0.12403156 -2.0110362 -0.092866816 0
0.13946202 -2.1391551 -0.08937683 0
0.14532937 -2.1878717 -0.068688817 0
0.14658219 -2.1982739 -0.041348372 0
0.14679763 -2.2000628 -0.012860036 0
0.14665796 -2.1989031 0.015796097 0
0.14640835 -2.1968305 0.044347622 0
0.14671654 -2.1993895 0.072631776 0
0.14781751 -2.2085307 0.10100546 0
0.13089468 -1.8784173 -0.090030767 0
0.14839746 -1.9981995 -0.091076218 0
0.16783839 -2.1312456 -0.088704236 0
0.17812952 -2.201674 -0.071220614 0
0.17725442 -2.1956851 -0.041522 0
0.17892466 -2.2071157 -0.013908787 0
0.17752504 -2.1975372 0.01560569 0
0.17716241 -2.1950555 0.044240404 0
0.17778952 -2.1993473 0.07253731 0
0.1782515 -2.2025089 0.1010054 0
0.15438481 -1.88124 -0.091407664 0
0.17477903 -1.9998145 -0.092157163 0
0.19760314 -2.1325166 -0.089678921 0
0.21002504 -2.2047391 -0.072350107 0
0.20790403 -2.1924074 -0.041706283 0
0.21253629 -2.2193398 -0.015528491 0
0.20992939 -2.2041831 0.014790991 0
0.2088103 -2.1976764 0.043888472 0
0.21055509 -2.2078209 0.072223067 0
0.21026433 -2.2061303 0.10100564 0
0.17629983 -1.8743551 -0.090816028 0
0.19750282 -1.9813901 -0.089523263 0
0.22500905 -2.1202445 -0.088515006 0
0.24364053 -2.2142982 -0.074530713 0
0.24080764 -2.1999977 -0.04327831 0
0.24034449 -2.1976595 -0.014010711 0
0.24095203 -2.2007265 0.014634037 0
0.24028628 -2.1973658 0.043636087 0
0.23988813 -2.1953559 0.072383985 0
0.24221122 -2.207083 0.10100584 0
0.19982682 -1.8752267 -0.092030995 0
0.2234401 -1.9804294 -0.090355985 0
0.25543126 -2.1229575 -0.089984752 0
0.27274442 -2.2000916 -0.073422544 0
0.27157679 -2.1948898 -0.04343747 0
0.27314639 -2.2018826 -0.015029265 0
0.2710366 -2.1924829 0.014763216 0
0.2701349 -2.1884656 0.043754291 0
0.27312005 -2.2017653 0.072078466 0
0.2711499 -2.1929879 0.10100561 0
0.22136739 -1.8669443 -0.091377206 0
0.24936548 -1.9784386 -0.091120698 0
0.28407678 -2.1166663 -0.090067782 0
0.30221432 -2.188894 -0.072849445 0
0.30489206 -2.1995573 -0.04486892 0
0.30555952 -2.2022152 -0.01575931 0
0.30589005 -2.2035315 0.013448084 0
0.30292752 -2.1917341 0.043253105 0
0.30437559 -2.1975005 0.072006844 0
0.30366546 -2.1946726 0.10100587 0
0.24183968 -1.8553456 -0.090106688 0
0.27177969 -1.9629978 -0.089388795 0
0.31040889 -2.1018925 -0.08882723 0
0.33781886 -2.2004476 -0.075699128 0
0.33651465 -2.1957581 -0.045384992 0
0.33907828 -2.2049758 -0.016808717 0
0.33599928 -2.1939049 0.013560304 0
0.33660042 -2.1960664 0.042657115 0
0.339396 -2.2061183 0.071604848 0
0.33820117 -2.201822 0.10100633 0
0.26335827 -1.8481544 -0.089920379 0
0.29744112 -1.9597179 -0.090149544 0
0.34258312 -2.1074812 -0.091190226 0
0.37067789 -2.1994438 -0.076857187 0
0.36870763 -2.1929946 -0.046128798 0
0.37101752 -2.2005556 -0.01724766 0
0.36938903 -2.195225 0.012817869 0
0.37241912 -2.2051435 0.041784339 0
0.36959526 -2.1959002 0.07163626 0
0.36949602 -2.1955752 0.1010064 0
0.28664598 -1.8463651 -0.091064058 0
0.32004696 -1.9465748 -0.08908657 0
0.37245634 -2.1038134 -0.092109643 0
0.4301506 -2.2769079 -0.089771233 0
0.5201571 -2.5469456 -0.090923838 0
0.65150678 -2.941021 -0.091057651 0
0.86178541 -3.5718992 -0.089343227 0
1.3019291 -4.8924184 -0.090566091 0
3.2875338 -10.849633 -0.14068641 0
0.30906257 -1.8413258 -0.091615863 0
0.34450668 -1.9393482 -0.089312635 0
0.40030292 -2.0936553 -0.092034437 0
0.46201926 -2.2643349 -0.089571826 0
0.55758518 -2.5286272 -0.090336867 0
0.70284319 -2.9303453 -0.091688834 0
0.93437696 -3.5706635 -0.090927072 0
1.4021182 -4.8642244 -0.090856843 0
3.5379002 -10.770834 -0.140866 0
0.32574296 -1.821193 -0.088857494 0
0.37146389 -1.9383079 -0.090916 0
0.4229863 -2.0702834 -0.089750536 0
0.49300894 -2.2496476 -0.089172192 0
0.60156643 -2.5277193 -0.092046447 0
0.74612391 -2.898006 -0.090284757 0
0.9968496 -3.5402439 -0.090473242 0
1.5011153 -4.8319287 -0.091071241 0
3.7809069 -10.671654 -0.1406956 0
0.35006505 -1.8209189 -0.090744399 0
0.39350417 -1.9244024 -0.090046711 0
0.449267 -2.0572441 -0.089385606 0
0.52725893 -2.2430415 -0.090118639 0
0.63061452 -2.4892616 -0.089154668 0
0.79816157 -2.8884029 -0.091277383 0
1.060331 -3.5129597 -0.090371259 0
1.5941033 -4.7845464 -0.090651713 0
4.0253 -10.576299 -0.14077376 0
0.37152287 -1.8131496 -0.091048159 0
0.41990298 -1.9207152 -0.091392107 0
0.48263365 -2.0601871 -0.092015557 0
0.55987364 -2.2319181 -0.090512268 0
0.67173266 -2.4806194 -0.090144195 0
0.83876121 -2.8519812 -0.089670189 0
1.1281335 -3.4953556 -0.091132276 0
1.6936101 -4.7526045 -0.091134749 0
4.2637305 -10.466867 -0.14065032 0
0.39033788 -1.7996798 -0.090138309 0
0.44343734 -1.9101963 -0.09146475 0
0.50759476 -2.0437279 -0.091292508 0
0.58983094 -2.2148871 -0.090117209 0
0.7081098 -2.4610624 -0.089864336 0
0.88799185 -2.835453 -0.090208985 0
1.1882 -3.4602799 -0.090679444 0
1.7855844 -4.7036233 -0.090872578 0
4.5064526 -10.366601 -0.14091611 0
0.41255635 -1.7933006 -0.091022529 0
0.45747522 -1.8810477 -0.087721281 0
0.53602844 -2.034498 -0.092010431 0
0.62476647 -2.207844 -0.091412537 0
0.73899758 -2.4309897 -0.088319995 0
0.93723267 -2.8182337 -0.090811782 0
1.2492304 -3.4277079 -0.090535678 0
1.881279 -4.6623883 -0.091132738 0
4.7398477 -10.246482 -0.14082582 0
0.43213969 -1.7816098 -0.090768375 0
0.48655996 -1.8816134 -0.090373285 0
0.55250388 -2.0027931 -0.088666342 0
0.65428376 -2.1898258 -0.091109894 0
0.78874415 -2.4369125 -0.091646798 0
0.98132491 -2.7908025 -0.090468951 0
1.3120668 -3.3985796 -0.090785809 0
1.9721698 -4.6115966 -0.091017179 0
4.9742646 -10.128301 -0.1409405 0
0.44584718 -1.7598333 -0.088155486 0
0.51017654 -1.8712548 -0.090846814 0
0.58485913 -2.0006084 -0.090953849 0
0.68048191 -2.1662316 -0.090018086 0
0.82213587 -2.4115832 -0.090973057 0
1.0269123 -2.7662654 -0.090552114 0
1.3736925 -3.3669052 -0.090961196 0
2.5990067 -5.4892068 -0.14093022 0
5.19906 -9.9926224 -0.14074486 0
0.47471091 -1.7640034 -0.092052244 0
0.52713633 -1.8497357 -0.088994376 0
0.60867608 -1.9830793 -0.090476997 0
0.70969248 -2.1482735 -0.089945771 0
0.84976947 -2.3773441 -0.089182906 0
1.0730957 -2.7425539 -0.090851851 0
1.4306467 -3.3272641 -0.090613 0
2.7062302 -5.4132514 -0.14044061 0
5.422749 -9.855629 -0.14066379 0
0.49284363 -1.7498507 -0.091557808 0
0.55358756 -1.8437766 -0.090696953 0
0.63482916 -1.9693974 -0.090862073 0
0.7440263 -2.1382446 -0.091321804 0
0.89148748 -2.3662581 -0.090682171 0
1.1165421 -2.714251 -0.090774707 0
1.4884187 -3.2892694 -0.090514906 0
2.8187137 -5.3462524 -0.1405884 0
5.6448336 -9.7161703 -0.14066824 0
0.51002246 -1.7344838 -0.090859063 0
0.57178336 -1.8248951 -0.089632533 0
0.6563831 -1.94874 -0.089995734 0
0.77227437 -2.1183922 -0.091196083 0
0.91694152 -2.3301694 -0.088816427 0
1.1569861 -2.6815686 -0.090324081 0
1.5488489 -3.2552133 -0.090870969 0
2.9311457 -5.2787461 -0.14086892 0
5.8663602 -9.5755825 -0.1407975 0
0.53224176 -1.726369 -0.092160307 0
0.59551865 -1.8141588 -0.090545394 0
0.68402761 -1.9369556 -0.091020368 0
0.79376203 -2.0892003 -0.089572527 0
0.96068865 -2.3207929 -0.090856604 0
1.2033986 -2.657527 -0.090975814 0
1.6084571 -3.219502 -0.091221236 0
3.0388162 -5.2039714 -0.14089887 0
6.0776806 -9.4200697 -0.1406602 0
0.54127526 -1.700366 -0.08885961 0
0.61429489 -1.7964649 -0.089970477 0
0.71544117 -1.9295805 -0.093117677 0
0.83090603 -2.0815403 -0.091812856 0
0.99437851 -2.2966814 -0.090933941 0
1.2484101 -2.6310046 -0.091485433 0
1.6586086 -3.1708543 -0.090573318 0
3.146208 -5.1286387 -0.14105418 0
6.2932887 -9.2704153 -0.14084567 0
0.56354231 -1.6921268 -0.090389602 0
0.63986176 -1.7874752 -0.091597013 0
0.7281329 -1.8977551 -0.090275861 0
0.8526172 -2.0532775 -0.09055727 0
1.0243292 -2.2678027 -0.090425245 0
1.2879109 -2.5971038 -0.091257788 0
1.7208358 -3.1379709 -0.091436096 0
3.2428615 -5.0394869 -0.14054872 0
6.4940319 -9.1012793 -0.1406152 0
0.58415014 -1.6813327 -0.09139692 0
0.661461 -1.7730756 -0.092083283 0
0.75045282 -1.87868 -0.090181492 0
0.87655103 -2.0283177 -0.089981429 0
1.0519856 -2.2365015 -0.089649759 0
1.3288295 -2.5650251 -0.091368102 0
1.7677393 -3.0858686 -0.090702467 0
3.3448203 -4.9573512 -0.14060654 0
6.6941609 -8.9319315 -0.14052582 0
0.59425133 -1.6583084 -0.089098565 0
0.67179948 -1.7457565 -0.089463957 0
0.7804721 -1.8683026 -0.092118032 0
0.90213442 -2.0054965 -0.089906551 0
1.0860652 -2.212908 -0.090168647 0
1.3565497 -2.5179234 -0.089734174 0
1.8231167 -3.0440533 -0.091022901 0
3.4517317 -4.8805809 -0.1411579 0
6.9012728 -8.7704973 -0.14083566 0
0.61880225 -1.6515516 -0.09154775 0
0.69481212 -1.7330277 -0.090607025 0
0.7932502 -1.838545 -0.089913018 0
0.9292751 -1.9843522 -0.090274848 0
