# .PCD v0.7 - Point Cloud Data file format
VERSION 0.7
FIELDS x y z intensity
SIZE 4 4 4 4
TYPE F F F F
COUNT 1 1 1 1
WIDTH 1319
HEIGHT 1
VIEWPOINT 0 0 0 1 0 0 0
POINTS 1319
DATA ascii
-0.60543907 -2.2116835 -0.090795197 0
-0.72641188 -2.4555373 -0.090322502 0
-0.91377175 -2.8332121 -0.091156609 0
-1.2176412 -3.4457443 -0.090729095 0
-1.8321295 -4.6844125 -0.091059424 0
-4.6242018 -10.312595 -0.14100882 0
-0.38187611 -1.8125801 -0.09202572 0
-0.42957157 -1.9151452 -0.091348149 0
-0.4944948 -2.0547571 -0.092148028 0
-0.57361388 -2.2248962 -0.090531908 0
-0.68524814 -2.464956 -0.089231156 0
-0.87064886 -2.8636451 -0.091973923 0
-1.1523312 -3.4693797 -0.090241112 0
-1.7364296 -4.7254343 -0.090851329 0
-4.3842382 -10.419325 -0.14082932 0
-0.36016989 -1.8201096 -0.091592766 0
-0.40776363 -1.9295998 -0.092146285 0
-0.46051264 -2.0509496 -0.089286171 0
-0.5381642 -2.229588 -0.089089625 0
-0.6480152 -2.482302 -0.089295082 0
-0.81987369 -2.877665 -0.091223292 0
-1.0952326 -3.5111322 -0.091265865 0
-1.6459953 -4.7781696 -0.091363437 0
-4.1509523 -10.540859 -0.14118154 0
-0.33700499 -1.8238027 -0.090410657 0
-0.38036224 -1.9308568 -0.090366863 0
-0.44037795 -2.0790427 -0.092262872 0
-0.5096963 -2.2501976 -0.090211861 0
-0.61293352 -2.5051024 -0.090165265 0
-0.77104914 -2.8955085 -0.090995096 0
-1.0305896 -3.5363445 -0.091141917 0
-1.5465745 -4.8103714 -0.090954252 0
-3.9028409 -10.628269 -0.14082266 0
-0.31350166 -1.8258393 -0.088996984 0
-0.36159268 -1.9537677 -0.093101256 0
-0.40716165 -2.0749869 -0.08965648 0
-0.47502273 -2.2555063 -0.089134671 0
-0.5779804 -2.529387 -0.091323666 0
-0.71832532 -2.9027228 -0.089832611 0
-0.96717983 -3.5647085 -0.091376983 0
-1.4489628 -4.846314 -0.090860389 0
-3.6607277 -10.729897 -0.14097665 0
-0.29395661 -1.8382916 -0.090073533 0
-0.33295819 -1.9505631 -0.090699486 0
-0.38088349 -2.0885227 -0.090279974 0
-0.4435631 -2.2689545 -0.089408644 0
-0.53866434 -2.5427167 -0.091226213 0
-0.67554319 -2.9367414 -0.091460936 0
-0.89974695 -3.5821431 -0.090920143 0
-1.3494465 -4.8766656 -0.09061379 0
-3.4109221 -10.810907 -0.14077294 0
-0.27590886 -1.8563199 -0.092496179 0
-0.30841109 -1.958097 -0.090583734 0
-0.35616669 -2.1076381 -0.091976054 0
-0.41249251 -2.2840159 -0.090036012 0
-0.49922752 -2.5556169 -0.091199107 0
-0.62638229 -2.9537873 -0.091519408 0
-0.82651478 -3.5804791 -0.089190789 0
-1.249362 -4.9045768 -0.090373166 0
-3.1665404 -10.908 -0.14111792 0
-0.25333253 -1.8609315 -0.092031531 0
-0.28443548 -1.9675372 -0.090964861 0
-0.32512423 -2.1069984 -0.090384774 0
-0.3789531 -2.2914975 -0.089664392 0
-0.45753828 -2.560849 -0.090360291 0
-0.57372129 -2.9590673 -0.090554543 0
-0.77136153 -3.6364815 -0.091808729 0
-1.155277 -4.9523559 -0.091220789 0
-2.9109356 -10.969894 -0.14075781 0
-0.2330692 -1.8739115 -0.093535729 0
-0.25931066 -1.973097 -0.09070573 0
-0.29903054 -2.1232271 -0.091805451 0
-0.34431052 -2.2943728 -0.088749148 0
-0.41740835 -2.5706623 -0.090208568 0
-0.52393568 -2.9733059 -0.090589844 0
-0.69881189 -3.6342895 -0.090301983 0
-1.053977 -4.9767156 -0.091049723 0
-2.6565869 -11.034135 -0.14061224 0
-0.20836358 -1.8698132 -0.091411643 0
-0.23413819 -1.9782269 -0.090488128 0
-0.26699317 -2.1164222 -0.089438148 0
-0.31062713 -2.2999561 -0.088357233 0
-0.37780121 -2.582505 -0.090423606 0
-0.47268915 -2.9816246 -0.090177886 0
-0.63032472 -3.6446745 -0.089839987 0
-0.94668287 -4.9753461 -0.089771248 0
-2.4039087 -11.104757 -0.14077398 0
-0.18650982 -1.876847 -0.091853149 0
-0.2098133 -1.9871663 -0.091127627 0
-0.23880067 -2.1243932 -0.08970169 0
-0.27941835 -2.3166783 -0.089689814 0
-0.33606109 -2.5848265 -0.089619912 0
-0.42292362 -2.9960363 -0.090473138 0
-0.56571209 -3.6720006 -0.090714805 0
-0.84644753 -5.0010095 -0.089915045 0
-2.1504021 -11.173965 -0.14105321 0
-0.16234402 -1.87204 -0.089852549 0
-0.18451506 -1.9918762 -0.091071941 0
-0.21045245 -2.1320696 -0.090033971 0
-0.24692604 -2.3292122 -0.090530448 0
-0.29867515 -2.6089201 -0.091533221 0
-0.37102395 -2.9999709 -0.089892022 0
-0.49724224 -3.6821904 -0.09048342 0
-0.9421227 -6.0868025 -0.14036977 0
-1.8903089 -11.211822 -0.1407415 0
-0.13988984 -1.8750647 -0.089677133 0
-0.15762725 -1.9865999 -0.089233972 0
-0.18189377 -2.1391909 -0.090391867 0
-0.21219648 -2.3297386 -0.089776002 0
-0.25720742 -2.6127734 -0.091155536 0
-0.31905958 -3.001708 -0.089229606 0
-0.43208918 -3.7124534 -0.091796525 0
-0.8143695 -6.1162834 -0.14071427 0
-1.6338545 -11.269316 -0.14104827 0
-0.11909357 -1.8903247 -0.092247836 0
-0.13368288 -1.9998084 -0.091043733 0
-0.15057632 -2.1265829 -0.087597094 0
-0.17725605 -2.3267972 -0.08865694 0
-0.21516167 -2.6112547 -0.090269364 0
-0.26805177 -3.0081613 -0.089137249 0
-0.36108655 -3.7063282 -0.090655051 0
-0.68513173 -6.1380806 -0.1408485 0
-1.3729316 -11.299581 -0.14086741 0
-0.095226079 -1.882893 -0.090072654 0
-0.10727025 -1.9947706 -0.089506678 0
-0.12357874 -2.1462595 -0.090277441 0
-0.14583506 -2.3529975 -0.091784813 0
-0.17482232 -2.6222589 -0.090982549 0
-0.21819158 -3.0251141 -0.090151884 0
-0.29287574 -3.7188518 -0.090954117 0
-0.55496436 -6.1533813 -0.1408311 0
-1.1128529 -11.335584 -0.14097546 0
-0.072782204 -1.8866558 -0.090418182 0
-0.082112692 -2.000176 -0.090072565 0
-0.095340289 -2.1611104 -0.092268936 0
-0.11127148 -2.3549385 -0.091597416 0
-0.13413189 -2.6330717 -0.091791354 0
-0.16627024 -3.0240853 -0.089598335 0
-0.22385481 -3.7246923 -0.090904705 0
-0.42447856 -6.165596 -0.14082326 0
-0.85136002 -11.359282 -0.14094953 0
-0.050320033 -1.8917971 -0.091177396 0
-0.056804981 -2.0058973 -0.090817176 0
-0.064813904 -2.1468115 -0.089576446 0
-0.075727791 -2.3388374 -0.088993542 0
-0.080358624 -2.4203153 -0.066547908 0
-0.081120193 -2.4337149 -0.034070078 0
-0.080987021 -2.4313717 -7.2398739e-06 0
-0.080843911 -2.4288538 0.033843961 0
-0.080365993 -2.420445 0.067641757 0
-0.081253208 -2.4360552 0.10101177 0
-0.027313247 -1.8858507 -0.08969868 0
-0.030816399 -1.9968814 -0.088904433 0
-0.035715524 -2.1521568 -0.090243049 0
-0.040853661 -2.3150074 -0.08543124 0
-0.040438835 -2.3018599 -0.052510042 0
-0.040612489 -2.3073637 -0.022120057 0
-0.040541053 -2.3050995 0.0089373011 0
-0.040866632 -2.3154185 0.039202332 0
-0.040748637 -2.3116789 0.070209019 0
-0.040902816 -2.3165655 0.10100831 0
-0.0047453782 -1.8961374 -0.09179423 0
-0.0054386146 -2.0060499 -0.090540685 0
-0.006329278 -2.1472642 -0.089347638 0
-0.0067389635 -2.2122197 -0.070896707 0
-0.0067379354 -2.2120566 -0.041940961 0
-0.0067050071 -2.206836 -0.012677817 0
-0.0067237401 -2.2098062 0.015643278 0
-0.0066971011 -2.2055824 0.044345308 0
-0.0066596922 -2.1996512 0.072828449 0
-0.0066656149 -2.2005904 0.10100498 0
0.018251708 -1.9020513 -0.093082227 0
0.020206442 -2.0053189 -0.090433501 0
0.022985511 -2.1521356 -0.090178706 0
0.023862643 -2.1984742 -0.068992011 0
0.024090597 -2.2105167 -0.041783709 0
0.0239102 -2.2009866 -0.012149816 0
0.02385873 -2.1982675 0.016436504 0
0.023668552 -2.1882203 0.045144722 0
0.023941288 -2.2026289 0.072754726 0
0.023997148 -2.20558 0.10100513 0
0.040608849 -1.886227 -0.089869864 0
0.046044275 -2.0092311 -0.091323547 0
0.052452043 -2.1542394 -0.09067709 0
0.05465414 -2.2040732 -0.069915019 0
0.054781068 -2.2069457 -0.041479636 0
0.05411547 -2.1918831 -0.011389373 0
0.054013986 -2.1895864 0.016976634 0
0.054627895 -2.2034793 0.044389185 0
0.054863181 -2.2088039 0.072588541 0
0.054375008 -2.1977563 0.10100493 0
0.063424803 -1.8877907 -0.090476982 0
0.071905062 -2.009799 -0.09170679 0
0.081613332 -2.1494756 -0.090167306 0
0.085536554 -2.2059202 -0.070420496 0
0.085125513 -2.2000065 -0.040871147 0
0.085106678 -2.1997354 -0.012285365 0
0.085630104 -2.2072661 0.015617112 0
0.085217372 -2.201328 0.044408362 0
0.084253691 -2.1874633 0.073045179 0
0.084839113 -2.1958859 0.10100493 0
0.086724244 -1.8927704 -0.091937743 0
0.096860297 -1.9995658 -0.090170734 0
0.11123925 -2.1510651 -0.090826593 0
0.11596651 -2.2008724 -0.070063792 0
0.11565463 -2.1975865 -0.040881563 0
0.11708208 -2.2126262 -0.013729161 0
0.11603899 -2.2016361 0.015835257 0
0.1160835 -2.202105 0.044254582 0
0.11639196 -2.2053552 0.072569333 0
0.11573991 -2.1984849 0.10100507 0
0.10920171 -1.8879042 -0.091420673 0
0.12419592 -2.0124009 -0.093125708 0
0.14132921 -2.1546586 -0.091943227 0
0.14694737 -2.2013061 -0.070590444 0
0.14611286 -2.1943772 -0.040889654 0
0.14722264 -2.2035916 -0.013191795 0
0.14728256 -2.2040892 0.015430929 0
0.14693546 -2.2012072 0.044142395 0
0.14639868 -2.1967502 0.072693586 0
0.14685942 -2.2005758 0.10100523 0
0.13211147 -1.8867444 -0.091819607 0
0.14771542 -1.9935318 -0.090187751 0
0.167493 -2.1288819 -0.08831162 0
0.17725833 -2.1957119 -0.070373826 0
0.17816021 -2.201884 -0.042254183 0
0.17616238 -2.1882117 -0.012125535 0
0.17854637 -2.2045267 0.015111865 0
0.17796986 -2.2005813 0.043980416 0
0.17624578 -2.1887825 0.072785556 0
0.17751685 -2.1974812 0.10100526 0
0.1548069 -1.8836942 -0.091936968 0
0.1736633 -1.9933275 -0.090917401 0
0.19580458 -2.1220596 -0.087935068 0
0.20940885 -2.2011566 -0.071839236 0
0.21263494 -2.2199135 -0.044968206 0
0.20889303 -2.1981575 -0.013522295 0
0.20620054 -2.182503 0.016328888 0
0.20888466 -2.1981087 0.04386805 0
0.20813294 -2.1937382 0.072555304 0
0.20917791 -2.1998138 0.10100546 0
0.17756651 -1.8807495 -0.092201643 0
0.19785194 -1.9831525 -0.089861669 0
0.22824188 -2.1365643 -0.09124928 0
0.24035293 -2.1977022 -0.072153054 0
0.24030484 -2.1974595 -0.042975891 0
0.23832172 -2.1874483 -0.01303908 0
0.2418825 -2.2054236 0.014299283 0
0.23906653 -2.1912081 0.043928318 0
0.24096014 -2.2007675 0.072255716 0
0.23938614 -2.1928217 0.10100542 0
0.19948441 -1.8737013 -0.091698669 0
0.22486553 -1.98678 -0.091581903 0
0.25521755 -2.1220055 -0.089824371 0
0.27265233 -2.1996815 -0.073363446 0
0.2715238 -2.1946535 -0.043409187 0
0.27409536 -2.2061105 -0.015433704 0
0.27296865 -2.2010906 0.014146486 0
0.2724196 -2.1986446 0.043268625 0
0.27195117 -2.1965575 0.072202556 0
0.27501637 -2.2102137 0.10100612 0
0.22088562 -1.8650259 -0.090956755 0
0.24769087 -1.97177 -0.089825667 0
0.28560999 -2.122772 -0.091102399 0
0.30478945 -2.1991487 -0.074335329 0
0.30192471 -2.1877406 -0.04344498 0
0.30464602 -2.1985774 -0.015409222 0
0.30538669 -2.2015271 0.013592565 0
0.30410185 -2.1964104 0.043028638 0
0.30662456 -2.2064564 0.071792148 0
0.30827644 -2.2130346 0.10100642 0
0.23929839 -1.8462082 -0.08809071 0
0.27499267 -1.9745504 -0.091647319 0
0.31348589 -2.112956 -0.090714566 0
0.3395372 -2.2066259 -0.076600365 0
0.33623669 -2.1947587 -0.045263741 0
0.33477256 -2.1894941 -0.01530881 0
0.33739105 -2.1989093 0.013197185 0
0.33850178 -2.202903 0.042326763 0
0.33849478 -2.2028778 0.071683049 0
0.33645675 -2.1955497 0.10100614 0
0.26051307 -1.8388413 -0.087850444 0
0.29916266 -1.965353 -0.091259353 0
0.3393915 -2.0970342 -0.08939489 0
0.37203375 -2.203882 -0.077509366 0
0.36954871 -2.1957476 -0.046465252 0
0.36870801 -2.192996 -0.016509866 0
0.37045196 -2.1987045 0.012563536 0
0.37146974 -2.2020359 0.041935615 0
0.37390891 -2.2100201 0.071292989 0
0.36926106 -2.1948061 0.10100638 0
0.28521356 -1.8420675 -0.090101145 0
0.32002446 -1.9465072 -0.089073159 0
0.37427977 -2.1092839 -0.093057387 0
0.42774528 -2.2696912 -0.088702224 0
0.52003682 -2.5465846 -0.090879373 0
0.65396768 -2.9484041 -0.091784067 0
0.86715448 -3.5880075 -0.090530254 0
1.3045506 -4.9002838 -0.090952061 0
3.2906137 -10.858872 -0.14091286 0
0.30857998 -1.8399912 -0.091314204 0
0.34535927 -1.9417061 -0.089784883 0
0.39557076 -2.0805683 -0.089747272 0
0.46356943 -2.2686222 -0.090212487 0
0.5607034 -2.5372508 -0.091408618 0
0.7004258 -2.92366 -0.091025285 0
0.93270737 -3.566046 -0.090583824 0
1.3998839 -4.8580451 -0.090550937 0
3.5383599 -10.772106 -0.14089744 0
0.33136153 -1.835585 -0.092141561 0
0.3706736 -1.9362836 -0.090506695 0
0.4269079 -2.0803287 -0.091522835 0
0.49765679 -2.261553 -0.090968318 0
0.59677404 -2.5154436 -0.090506278 0
0.74519885 -2.8956363 -0.090047322 0
0.99851328 -3.5445054 -0.090793066 0
1.5022763 -4.8349028 -0.091219865 0
3.7845342 -10.680945 -0.14092751 0
0.34778535 -1.8154881 -0.089492418 0
0.39702749 -1.9327958 -0.091761254 0
0.44916943 -2.0570116 -0.089344181 0
0.52735186 -2.2432628 -0.090152375 0
0.63423234 -2.4978805 -0.090247102 0
0.79389018 -2.8782275 -0.090247311 0
1.0661482 -3.5268178 -0.091421969 0
1.5982884 -4.7945166 -0.091155104 0
4.0250897 -10.575798 -0.14076112 0
0.3715938 -1.8133073 -0.09108492 0
0.42028025 -1.921554 -0.091565333 0
0.47383624 -2.0406275 -0.088490702 0
0.55635363 -2.224092 -0.089306302 0
0.67073625 -2.4784038 -0.089860283 0
0.84165072 -2.8584056 -0.090327702 0
1.1318365 -3.5035887 -0.091763385 0
1.6913978 -4.7476854 -0.09088365 0
4.2730742 -10.487641 -0.14117992 0
0.39469984 -1.8087584 -0.092279248 0
0.44216871 -1.9075559 -0.09091299 0
0.50523651 -2.0388196 -0.090397544 0
0.59058434 -2.2164552 -0.090361692 0
0.70862055 -2.4621255 -0.090002187 0
0.89579314 -2.8516901 -0.091890402 0
1.1906823 -3.4654465 -0.091080166 0
1.7870353 -4.7066436 -0.091028549 0
4.5078225 -10.369452 -0.14098965 0
0.41430834 -1.7967231 -0.091839798 0
0.46706304 -1.8997772 -0.091684334 0
0.53628516 -2.0349996 -0.092103027 0
0.61677527 -2.1922338 -0.088947989 0
0.74414879 -2.4410524 -0.089641191 0
0.94151372 -2.8265965 -0.091688715 0
1.2479614 -3.4252291 -0.090340994 0
1.8767917 -4.6536222 -0.090674289 0
4.7397676 -10.246325 -0.14082173 0
0.43346056 -1.784037 -0.091355763 0
0.48662958 -1.8817414 -0.090400733 0
0.56240869 -2.0209944 -0.092071988 0
0.65238917 -2.1863441 -0.090552874 0
0.77574432 -2.4130237 -0.088468216 0
0.98214763 -2.7923143 -0.0906296 0
1.310024 -3.3948257 -0.090487026 0
1.9705396 -4.6086011 -0.090858407 0
4.9758816 -10.131271 -0.14101915 0
0.45439175 -1.7746329 -0.091787972 0
0.50758523 -1.8667666 -0.089870669 0
0.58378857 -1.9987544 -0.090601958 0
0.68265259 -2.1699915 -0.090628199 0
0.81388277 -2.3972883 -0.089043923 0
1.0297509 -2.7711821 -0.091082044 0
1.3669544 -3.3552346 -0.090019099 0
2.6046801 -5.4990339 -0.14145848 0
5.1942792 -9.9843416 -0.14052255 0
0.47157297 -1.7588718 -0.090773694 0
0.53314644 -1.8595642 -0.091164254 0
0.60577255 -1.9783311 -0.089562289 0
0.70621115 -2.1425803 -0.089007951 0
0.8541227 -2.3844631 -0.090158157 0
1.0732629 -2.7428272 -0.090881772 0
1.4334254 -3.3318083 -0.09098538 0
2.7073698 -5.4151149 -0.1405423 0
5.4268765 -9.8623781 -0.14084773 0
0.49189565 -1.748385 -0.09118674 0
0.55138093 -1.8403647 -0.08993163 0
0.63774884 -1.973912 -0.091745682 0
0.73568022 -2.1253393 -0.08916194 0
0.88423806 -2.3550487 -0.089121975 0
1.1135303 -2.709594 -0.090257041 0
1.4893355 -3.2906871 -0.090632923 0
2.8188717 -5.3464966 -0.14060195 0
5.6453919 -9.7170343 -0.14069217 0
0.51254582 -1.7381779 -0.091809981 0
0.56826621 -1.8197464 -0.088458084 0
0.65381181 -1.944976 -0.089246549 0
0.76525778 -2.1081207 -0.089447923 0
0.92603332 -2.3434787 -0.090700231 0
1.1606187 -2.6868863 -0.090925194 0
1.5473268 -3.2529852 -0.090682335 0
2.9264054 -5.2718072 -0.14047767 0
5.8689861 -9.5794268 -0.14090574 0
0.52760959 -1.7199423 -0.090476371 0
0.59994924 -1.8203058 -0.091972597 0
0.68523884 -1.9386359 -0.091360815 0
0.79535115 -2.0914049 -0.089954473 0
0.95605665 -2.3143666 -0.089930765 0
1.2036487 -2.6578739 -0.091015734 0
1.6013647 -3.2096622 -0.09037327 0
3.033483 -5.1965723 -0.14047424 0
6.0784631 -9.421155 -0.14069133 0
0.547355 -1.7083673 -0.090995662 0
0.61719698 -1.8002843 -0.090873979 0
0.7055642 -1.9165817 -0.090434559 0
0.82163155 -2.0693343 -0.089658506 0
0.98845822 -2.2888899 -0.089790277 0
1.2451721 -2.6267431 -0.090985857 0
1.6577919 -3.1697793 -0.090478949 0
3.1458614 -5.1281824 -0.14102751 0
6.2969851 -9.27528 -0.14098772 0
0.56893742 -1.6988671 -0.092224784 0
0.64147806 -1.7894945 -0.092084177 0
0.72806507 -1.8976705 -0.090258025 0
0.86226285 -2.0653279 -0.092726491 0
1.0213344 -2.2640612 -0.089865141 0
1.2903199 -2.6001134 -0.091617592 0
1.71919 -3.1359148 -0.091251977 0
3.2470603 -5.0447326 -0.14086153 0
6.4966936 -9.1046038 -0.14071423 0
0.58155906 -1.6782579 -0.09054222 0
0.661228 -1.7727991 -0.092015184 0
0.75706643 -1.8865283 -0.091868274 0
0.88341069 -2.0364578 -0.091477416 0
1.0567285 -2.2421296 -0.090509944 0
1.331216 -2.567857 -0.091713779 0
1.7663689 -3.0842423 -0.090553798 0
3.3479011 -4.9610076 -0.14082912 0
6.6983004 -8.9368429 -0.14067517 0
0.59575999 -1.6600097 -0.089581899 0
0.67207843 -1.7460711 -0.089543156 0
0.77383894 -1.8608226 -0.090474941 0
0.90736049 -2.0113897 -0.091013499 0
1.0812376 -2.2074642 -0.089318283 0
1.3688874 -2.531836 -0.091469847 0
1.8197799 -3.0402906 -0.090671323 0
3.4456146 -4.8736825 -0.14072868 0
6.9065175 -8.776412 -0.14101946 0
0.61995822 -1.6527908 -0.091907956 0
0.70334882 -1.7421783 -0.09296412 0
0.79577345 -1.8412497 -0.090520941 0
0.93012565 -1.9852638 -0.090450071 0
1.1134948 -2.1818199 -0.089637883 0
1.4024984 -2.4916072 -0.090803005 0
1.8554662 -2.9771504 -0.089084543 0
3.540746 -4.7836275 -0.14060728 0
7.085588 -8.5833979 -0.14050111 0
0.62984478 -1.6301776 -0.089887567 0
0.7180472 -1.7200651 -0.091868497 0
0.82542092 -1.8294903 -0.092493199 0
0.95060098 -1.9570619 -0.089575581 0
1.1467298 -2.1569378 -0.090222023 0
1.4365968 -2.4523427 -0.09035518 0
1.9135009 -2.9383583 -0.089929916 0
3.6436336 -4.7015457 -0.14115763 0
7.292429 -8.4200525 -0.14108171 0
0.65429622 -1.6223247 -0.092397891 0
0.73219872 -1.6978078 -0.090804137 0
0.83501291 -1.797429 -0.089897029 0
0.9815492 -1.9394144 -0.090912662 0
1.1733263 -2.1252356 -0.089815237 0
1.4832727 -2.4255562 -0.091683321 0
1.9573196 -2.884881 -0.089467607 0
3.7295594 -4.6020818 -0.1407312 0
7.4730272 -8.2292919 -0.14093389 0
0.65838373 -1.594883 -0.089023314 0
0.74681467 -1.6763436 -0.09002877 0
0.86379391 -1.7841022 -0.091831364 0
1.0036926 -1.9129736 -0.09062279 0
1.2059157 -2.099257 -0.090498798 0
1.5180641 -2.386801 -0.091559581 0
2.5459073 -3.3336267 -0.1409262 0
3.8183386 -4.5057616 -0.14065601 0
7.644083 -8.0299511 -0.14064188 0
0.67707002 -1.5812693 -0.090044923 0
0.76655829 -1.6596235 -0.090691216 0
0.87809908 -1.7572865 -0.09063559 0
1.0239316 -1.8849746 -0.090109639 0
1.2221261 -2.0585101 -0.088726126 0
1.5289377 -2.3271484 -0.088593967 0
2.6077967 -3.2717774 -0.14125605 0
3.9029706 -4.4058075 -0.14047799 0
7.8232064 -7.8382926 -0.14076284 0
0.70238191 -1.5728334 -0.092973404 0
0.78473729 -1.6413496 -0.091061078 0
0.90279651 -1.7395698 -0.091832705 0
1.0570405 -1.8678941 -0.09209051 0
1.2488502 -2.0274715 -0.088746719 0
1.5702567 -2.294868 -0.089571409 0
2.660722 -3.2020884 -0.14090738 0
3.9901962 -4.3081536 -0.14061521 0
7.9951296 -7.6400862 -0.14081141 0
0.69878137 -1.5406487 -0.088069849 0
0.80008614 -1.6206924 -0.090856157 0
0.91497064 -1.7114657 -0.090477683 0
1.0739604 -1.8370878 -0.09121076 0
1.2785448 -1.9987355 -0.089327253 0
1.5952117 -2.2489426 -0.088680826 0
2.7110233 -3.1305759 -0.14049014 0
4.0776348 -4.2103724 -0.1409101 0
8.1637821 -7.4389482 -0.14091191 0
0.7282874 -1.5347284 -0.092272304 0
0.82012516 -1.6036006 -0.09188325 0
0.92838746 -1.68479 -0.089550488 0
1.0871627 -1.8038609 -0.089832373 0
1.3099189 -1.9709131 -0.090249307 0
1.6237653 -2.2062767 -0.088363342 0
2.767899 -3.0643005 -0.14081448 0
4.1539021 -4.1037097 -0.14069447 0
8.3217182 -7.2292919 -0.14084806 0
0.74137646 -1.5158901 -0.092157207 0
0.83101016 -1.5796405 -0.090876944 0
0.95005232 -1.6643071 -0.090440311 0
1.1102788 -1.7782652 -0.090334125 0
1.320009 -1.9274322 -0.088204093 0
1.6797636 -2.183301 -0.091319554 0
2.8237243 -2.9969227 -0.14118782 0
4.2200356 -3.9900241 -0.14005895 0
8.4645929 -7.0088887 -0.14050804 0
0.75010878 -1.4941312 -0.091050245 0
0.84215719 -1.5561622 -0.090085678 0
0.96490991 -1.6388848 -0.090069391 0
1.1249664 -1.7467462 -0.089509539 0
1.3552489 -1.9019327 -0.08989384 0
1.6972424 -2.1324008 -0.089956172 0
2.8647027 -2.9191477 -0.14044785 0
4.3184605 -3.8988292 -0.14140947 0
8.6286736 -6.8034644 -0.14092565 0
0.7552731 -1.4703909 -0.089201041 0
0.85261983 -1.5324795 -0.089287646 0
0.98776627 -1.6186771 -0.091389768 0
1.1534607 -1.7243584 -0.0911332 0
1.3673773 -1.8607963 -0.08844284 0
1.735909 -2.095849 -0.09110368 0
2.9153321 -2.8480957 -0.14068407 0
4.379169 -3.781744 -0.140784 0
8.7678232 -6.5808663 -0.14079326 0
0.77299476 -1.4547166 -0.090646364 0
0.86994189 -1.5131627 -0.090142734 0
0.99980903 -1.591455 -0.090713657 0
1.1665787 -1.6919947 -0.090302594 0
1.4024932 -1.8342193 -0.090293638 0
1.760785 -2.050221 -0.090832151 0
2.9636874 -2.775409 -0.14087865 0
4.4524183 -3.6729131 -0.14101161 0
8.9007301 -6.3546443 -0.1406471 0
0.78474295 -1.4352324 -0.090707727 0
0.88712865 -1.4934866 -0.091062777 0
1.0032988 -1.5595838 -0.088560738 0
1.1911985 -1.6664929 -0.091476642 0
1.4064183 -1.7889463 -0.088014834 0
1.7822224 -2.0027671 -0.090319835 0
3.0017338 -2.6966312 -0.14038996 0
4.5146017 -3.5574062 -0.14079148 0
9.041832 -6.1332588 -0.14087616 0
0.7899012 -1.4121827 -0.08929836 0
0.90502304 -1.4738917 -0.092228584 0
1.0260224 -1.5387514 -0.090174459 0
1.2064657 -1.6354747 -0.09124697 0
1.4532033 -1.7677341 -0.091602646 0
1.8117331 -1.9599175 -0.090797119 0
3.051456 -2.624449 -0.14099275 0
4.57441 -3.4408019 -0.14060391 0
9.1619673 -5.8998804 -0.14069745 0
0.80628014 -1.3951465 -0.090717055 0
0.91764271 -1.4512705 -0.092372127 0
1.0448459 -1.5153776 -0.0911474 0
1.2182566 -1.6027722 -0.090597145 0
1.4639609 -1.7266011 -0.090500526 0
1.821201 -1.9066412 -0.089287229 0
3.0774221 -2.5397453 -0.13987176 0
4.6374855 -3.3259785 -0.14074351 0
9.2936363 -5.6725616 -0.14097568 0
0.80693901 -1.3702905 -0.088524632 0
0.91947824 -1.4234904 -0.090386935 0
1.0549406 -1.4875265 -0.090629898 0
1.2360569 -1.5731444 -0.091018297 0
1.4833958 -1.6900673 -0.090668298 0
1.862792 -1.8694166 -0.091251425 0
3.1284525 -2.4677236 -0.14086853 0
4.6894445 -3.2056406 -0.14045915 0
9.3979702 -5.431469 -0.14069611 0
0.823659 -1.3530902 -0.090236075 0
0.93727565 -1.4033324 -0.091856264 0
1.0603921 -1.4577755 -0.089410804 0
1.2470925 -1.5403359 -0.090510823 0
1.4933642 -1.6492393 -0.089742981 0
1.8720098 -1.8166794 -0.089986317 0
3.1586599 -2.3856466 -0.1404023 0
4.7420731 -3.0858445 -0.14036754 0
9.5117273 -5.195024 -0.14081478 0
0.83000404 -1.3311566 -0.089644693 0
0.93961567 -1.3763568 -0.090265371 0
1.0867472 -1.4370289 -0.092054702 0
1.2568294 -1.5071652 -0.089937784 0
1.518603 -1.6151118 -0.090888686 0
1.8968067 -1.7710705 -0.090442352 0
3.2002735 -2.3085768 -0.14096095 0
4.8041821 -2.9699752 -0.14090739 0
9.6256056 -4.9581695 -0.14108618 0
0.84096247 -1.3111255 -0.090235807 0
0.95440936 -1.3545915 -0.091339745 0
1.085517 -1.4048241 -0.089910783 0
1.2628219 -1.4727567 -0.088933356 0
1.5231566 -1.5725014 -0.089542843 0
1.9170835 -1.7234305 -0.090557836 0
3.2387915 -2.2298298 -0.14142881 0
4.8532119 -2.8483789 -0.14093652 0
9.7170115 -4.7118955 -0.14094505 0
0.83939153 -1.2864889 -0.088110559 0
0.9532063 -1.3268331 -0.089318149 0
1.0992646 -1.3786069 -0.090540014 0
1.2802892 -1.4427752 -0.089778863 0
1.5513831 -1.5388708 -0.091278352 0
1.9374162 -1.6757092 -0.090797447 0
3.2548456 -2.1427028 -0.14037448 0
4.8982272 -2.7252376 -0.1409194 0
9.8060093 -4.4649148 -0.14089981 0
0.86621445 -1.271633 -0.092491023 0
0.9758234 -1.3074001 -0.0921719 0
1.10768 -1.3504269 -0.090357147 0
1.297945 -1.4125131 -0.090757675 0
1.5535195 -1.4959109 -0.089896955 0
1.9546953 -1.6268206 -0.090854071 0
3.2974513 -2.0649817 -0.14144368 0
4.9284773 -2.5972097 -0.14033224 0
9.8938427 -4.2174821 -0.14097956 0
0.86203784 -1.2464201 -0.090045296 0
0.96625203 -1.2775402 -0.08877375 0
1.1101731 -1.3205174 -0.089282326 0
1.3020842 -1.3778251 -0.089859165 0
1.5432223 -1.449833 -0.087142132 0
1.9575272 -1.5735513 -0.089623593 0
3.3170624 -1.9795309 -0.1409709 0
4.9737902 -2.4742572 -0.14063892 0
9.9760017 -3.9679999 -0.14107318 0
0.86867988 -1.2247291 -0.09013968 0
0.98700577 -1.2568347 -0.091464691 0
1.1217304 -1.2933899 -0.089887433 0
1.311592 -1.3449055 -0.089876465 0
1.5721599 -1.415606 -0.089298747 0
1.9657346 -1.5223957 -0.089051895 0
3.3411148 -1.895581 -0.14097984 0
5.0194125 -2.3509576 -0.14110868 0
10.043356 -3.7141168 -0.14096174 0
0.87580919 -1.2031192 -0.090460323 0
0.99034792 -1.2311147 -0.090864725 0
1.1272467 -1.2645755 -0.089582957 0
1.3171653 -1.3109952 -0.089445077 0
1.5755394 -1.3741469 -0.08847139 0
1.9774734 -1.4723876 -0.088947497 0
3.3638172 -1.8112373 -0.14104456 0
5.0479178 -2.2228646 -0.14090483 0
10.098978 -3.457443 -0.14072405 0
0.88142568 -1.1810871 -0.090569071 0
0.996333 -1.2061181 -0.090903006 0
1.1303403 -1.2353098 -0.08899533 0
1.3255446 -1.2778325 -0.089543097 0
1.5980347 -1.3371909 -0.090060644 0
1.9944819 -1.4235517 -0.08946801 0
3.381274 -1.7256461 -0.14088635 0
5.0772486 -2.0950918 -0.14089595 0
10.161763 -3.2026863 -0.14081271 0
0.88917136 -1.1594218 -0.091258787 0
1.0009902 -1.1808401 -0.090807743 0
1.1349609 -1.2065015 -0.088789977 0
1.3386745 -1.2455218 -0.090440474 0
1.6136484 -1.2981915 -0.090934582 0
2.553967 -1.4783046 -0.14165893 0
3.4016359 -1.6406711 -0.14108986 0
5.0981231 -1.9656242 -0.1406395 0
10.215143 -2.9457622 -0.1408309 0
0.89253736 -1.1368511 -0.091120072 0
1.0066321 -1.1557343 -0.091022976 0
1.1539671 -1.180119 -0.091103353 0
1.3353724 -1.2101427 -0.08910986 0
1.6131613 -1.2561183 -0.090014435 0
2.5551209 -1.4120178 -0.14067768 0
3.4130542 -1.5540106 -0.1408111 0
5.1194057 -1.8364213 -0.14055794 0
10.267123 -2.6883972 -0.14096919 0
0.89519918 -1.1142005 -0.090953238 0
1.0102043 -1.1302648 -0.090964578 0
1.1572471 -1.150804 -0.090909563 0
1.3518109 -1.1779814 -0.090712048 0
1.6368071 -1.2177905 -0.092070915 0
2.5729299 -1.348551 -0.14142753 0
3.4266272 -1.4677981 -0.1408401 0
5.1451511 -1.7078469 -0.14084002 0
10.306269 -2.4287674 -0.14095847 0
0.89692533 -1.0914685 -0.090709187 0
1.013027 -1.1047089 -0.090886287 0
1.1479349 -1.1200941 -0.088755973 0
1.3527832 -1.1434554 -0.090236999 0
1.6396613 -1.1761715 -0.091789745 0
2.5793397 -1.2833344 -0.14125507 0
3.4230523 -1.3795531 -0.13981581 0
5.1733613 -1.5791618 -0.1413891 0
10.326941 -2.1668866 -0.14066911 0
0.91097343 -1.0698711 -0.093217693 0
1.0159285 -1.0791646 -0.090945207 0
1.1325634 -1.0894924 -0.085735478 0
1.1403133 -1.0901787 -0.059772704 0
1.6408045 -1.1344962 -0.091431879 0
2.5837691 -1.217994 -0.14105184 0
3.4434266 -1.2941151 -0.14063112 0
5.1798363 -1.447871 -0.14107309 0
10.360758 -1.9066318 -0.14084165 0
0.89529318 -1.0457846 -0.089506708 0
1.029408 -1.0542564 -0.093122177 0
1.1265723 -1.060394 -0.084391855 0
1.1275066 -1.0604531 -0.057661999 0
1.652011 -1.093585 -0.092376314 0
2.5818298 -1.1523197 -0.14040768 0
3.4455991 -1.2068822 -0.14032131 0
5.1872711 -1.3169001 -0.14095709 0
10.375506 -1.6446303 -0.14072284 0
0.91060883 -1.0237389 -0.092521943 0
1.0184644 -1.0278232 -0.090812229 0
1.1322458 -1.032132 -0.085088871 0
1.1261278 -1.0319003 -0.057266016 0
1.6411633 -1.051404 -0.090861313 0
2.5959878 -1.0875618 -0.14142267 0
3.4678278 -1.1205771 -0.14156908 0
5.1911893 -1.1858383 -0.14083146 0
10.394447 -1.3828783 -0.14085567 0
0.90277731 -1.0006708 -0.090733923 0
1.0258173 -1.0022233 -0.092075147 0
1.1360775 -1.0036145 -0.085600205 0
1.1346048 -1.0035959 -0.058356676 0
1.1367233 -1.0036227 -0.031778891 0
1.1294856 -1.0035313 -0.0043736156 0
1.1274698 -1.0035059 0.022211472 0
1.1393423 -1.0036557 0.047969848 0
1.1236616 -1.0034579 0.074865334 0
1.1428057 -1.0036994 0.101003 0
1.1329715 -1.0035753 0.1273566 0
1.1273952 -1.003505 0.15347916 0
1.1313218 -1.0035545 0.1800635 0
1.1234405 -1.003455 0.20581478 0
1.1348541 -1.003599 0.23356687 0
1.1224555 -1.0034426 0.25865522 0
1.1317273 -1.0035596 0.28689229 0
1.1240734 -1.003463 0.31259045 0
0.90795392 -0.97784853 -0.091834359 0
1.020046 -0.97643423 -0.090988033 0
1.1433231 -0.97487879 -0.086791106 0
1.1259732 -0.97509766 -0.057143543 0
1.6450336 -0.96854842 -0.091191538 0
2.5968623 -0.95653874 -0.14134997 0
3.4569905 -0.9456861 -0.14065696 0
5.1863132 -0.92386633 -0.14045048 0
10.396434 -0.85812765 -0.1407479 0
0.90468317 -0.9550702 -0.091261469 0
1.0226154 -0.95060426 -0.091594644 0
1.1249921 -0.9467274 -0.08389587 0
1.1176205 -0.94700658 -0.056069572 0
1.6440717 -0.92707062 -0.091201477 0
2.5882549 -0.89131576 -0.14070036 0
3.4637985 -0.85816014 -0.14128718 0
5.1935434 -0.7926572 -0.14094114 0
10.384498 -0.59608316 -0.1406242 0
0.90068364 -0.93245953 -0.090654798 0
1.0174445 -0.92508399 -0.090864338 0
1.1251966 -0.9182775 -0.084165312 0
1.1329162 -0.91778988 -0.058423731 0
1.6481009 -0.88524675 -0.091918416 0
2.593864 -0.82550478 -0.1415332 0
3.4606478 -0.77075183 -0.14137547 0
5.1860371 -0.66176254 -0.14089951 0
10.380454 -0.33364186 -0.14083812 0
0.90701455 -0.90906417 -0.092372902 0
1.0134944 -0.89963555 -0.090484954 0
1.1591804 -0.88673532 -0.090127148 0
1.3473954 -0.87006927 -0.088988803 0
1.636516 -0.84446818 -0.090928681 0
2.5834639 -0.76061767 -0.14102323 0
3.451968 -0.68371326 -0.14123058 0
5.1745129 -0.53118515 -0.14082429 0
10.353826 -0.072566718 -0.14067982 0
0.89547729 -0.88728142 -0.090399392 0
1.019568 -0.8731299 -0.092126273 0
1.1565419 -0.85750908 -0.090179719 0
1.3602362 -0.83427936 -0.091291182 0
1.635036 -0.80294067 -0.091245674 0
2.5736527 -0.69589889 -0.1407208 0
3.430207 -0.5982157 -0.14031923 0
5.1598682 -0.40096167 -0.14075686 0
10.331255 0.18879357 -0.14077003 0
0.88935405 -0.8652007 -0.089698724 0
0.99963081 -0.84979689 -0.088953711 0
1.1503003 -0.82875097 -0.089756764 0
1.3418208 -0.80199879 -0.089294471 0
1.6243333 -0.76253659 -0.090598904 0
2.5643735 -0.6312288 -0.14062113 0
3.4157908 -0.51230025 -0.14007518 0
5.1440835 -0.27088699 -0.14078985 0
10.297692 0.44898489 -0.14075713 0
0.88710701 -0.84263241 -0.089950092 0
1.003327 -0.8233974 -0.090392001 0
1.1518064 -0.79882324 -0.0907434 0
1.3371614 -0.76814592 -0.0893647 0
1.6219367 -0.72101402 -0.091053985 0
2.55214 -0.56706017 -0.14039564 0
3.4187264 -0.42363527 -0.14121303 0
5.1151633 -0.14286551 -0.14035776 0
10.254622 0.70774335 -0.14067456 0
0.87859428 -0.82118887 -0.088969626 0
1.0114155 -0.7957477 -0.092807047 0
1.1502308 -0.76915836 -0.091345213 0
1.3266256 -0.73537087 -0.08871638 0
1.3468368 -0.73149949 -0.05918454 0
1.3593726 -0.72909832 -0.028128004 0
1.3456534 -0.73172617 0.0052556712 0
1.3479067 -0.73129457 0.037124466 0
1.3465347 -0.73155737 0.069116779 0
1.3501513 -0.73086464 0.10100961 0
0.88158906 -0.79746199 -0.090604611 0
0.99338478 -0.77310878 -0.090334691 0
1.1276563 -0.74385953 -0.088543855 0
1.2026312 -0.7275272 -0.071864419 0
1.2069581 -0.72658467 -0.043282319 0
1.2059512 -0.72680402 -0.014140217 0
1.2114048 -0.72561598 0.014365422 0
1.214112 -0.72502625 0.04316872 0
1.2047664 -0.72706211 0.072325319 0
1.1988391 -0.72835326 0.1010054 0
0.87412989 -0.77587593 -0.090092845 0
0.98659998 -0.74838603 -0.090138011 0
1.1494948 -0.70857137 -0.093347095 0
1.2137126 -0.69287527 -0.074478395 0
1.2054058 -0.69490558 -0.043939251 0
1.2004162 -0.69612515 -0.014281606 0
1.2104166 -0.69368088 0.013930025 0
1.2106935 -0.69361317 0.042994495 0
1.2061259 -0.69472963 0.072125249 0
1.2056777 -0.69483912 0.1010058 0
0.87421447 -0.75235391 -0.091358669 0
0.9867028 -0.72183216 -0.091405563 0
1.1223286 -0.68503249 -0.089989297 0
1.2125335 -0.66055697 -0.075451978 0
1.2021406 -0.66337687 -0.044489745 0
1.212092 -0.66067672 -0.016163161 0
1.2114778 -0.66084343 0.013284983 0
1.2046902 -0.6626851 0.042905636 0
1.2192025 -0.65874743 0.071621925 0
1.2026635 -0.66323501 0.10100594 0
0.86444694 -0.73144513 -0.090579726 0
0.98005313 -0.69692326 -0.091486625 0
1.1083868 -0.65860075 -0.088975914 0
1.2201709 -0.62522012 -0.077845208 0
1.2040442 -0.63003582 -0.045771588 0
1.2105184 -0.62810254 -0.016855096 0
1.20841 -0.62873214 0.012876065 0
1.2071497 -0.62910849 0.042367138 0
1.201581 -0.6307714 0.071837731 0
1.20708 -0.62912929 0.10100633 0
0.84980494 -0.71230626 -0.088821985 0
0.96504062 -0.67470312 -0.09003555 0
1.1010498 -0.63032138 -0.089210905 0
1.1960071 -0.59933537 -0.075688444 0
1.2086773 -0.5952009 -0.047502611 0
1.2066258 -0.59587032 -0.017405486 0
1.2034364 -0.59691107 0.012544552 0
1.2075968 -0.59555352 0.041881409 0
1.2170899 -0.59245574 0.071227849 0
1.2119644 -0.59412831 0.10100676 0
0.83927524 -0.69213706 -0.088084333 0
0.96561527 -0.64735287 -0.091797881 0
1.0933458 -0.60207587 -0.08950793 0
1.207399 -0.56164706 -0.078910731 0
1.2024868 -0.56338829 -0.048015628 0
1.2005433 -0.5640772 -0.017824171 0
1.2026682 -0.56332397 0.011838825 0
1.2042481 -0.56276399 0.041537147 0
1.2118914 -0.5600546 0.071099542 0
1.2178577 -0.55793971 0.10100725 0
0.84652001 -0.66532987 -0.091500871 0
0.9496327 -0.62582326 -0.09037628 0
1.0886738 -0.57255107 -0.090466388 0
1.2106948 -0.52579999 -0.081088386 0
1.2052914 -0.52787018 -0.049759466 0
1.2098005 -0.5261426 -0.01986005 0
1.2042964 -0.52825147 0.010883676 0
1.2040167 -0.52835864 0.040993065 0
1.207948 -0.52685237 0.070918478 0
1.2137388 -0.52463371 0.10100748 0
0.83304048 -0.64617592 -0.090342857 0
0.94294024 -0.60085696 -0.090942703 0
1.0796717 -0.54447347 -0.090796851 0
1.1995729 -0.49503019 -0.081233971 0
1.1988277 -0.49533749 -0.050462607 0
1.2105517 -0.49050289 -0.02115461 0
1.2005473 -0.4946284 0.010258565 0
1.2067984 -0.49205065 0.040248044 0
1.2181808 -0.48735693 0.070358016 0
1.2039452 -0.49322724 0.10100754 0
0.82782906 -0.62365043 -0.091205277 0
0.93532795 -0.57611358 -0.091455139 0
1.0679741 -0.51745641 -0.090773322 0
1.1991079 -0.45946798 -0.08313743 0
1.2050595 -0.45683613 -0.052900348 0
1.2077109 -0.45566365 -0.022188386 0
1.2072192 -0.45588109 0.0087653417 0
1.2073821 -0.45580909 0.039560169 0
1.2031337 -0.45768771 0.070408739 0
1.2024813 -0.45797625 0.1010079 0
0.81915575 -0.60251904 -0.091396995 0
0.92277825 -0.55353427 -0.091074444 0
1.0609938 -0.48819664 -0.091730304 0
1.2262524 -0.41007504 -0.089494221 0
1.4750648 -0.2924557 -0.089591302 0
1.8546025 -0.11303952 -0.090405904 0
3.1348302 0.49215379 -0.1413617 0
4.7012854 1.2326534 -0.14106889 0
9.3971109 3.4524782 -0.14067401 0
0.80637759 -0.5833891 -0.090740256 0
0.9115181 -0.53040093 -0.09108033 0
1.0442857 -0.46348938 -0.091044284 0
1.2163811 -0.37675759 -0.090302013 0
1.4611173 -0.25341669 -0.090128385 0
1.829929 -0.067544788 -0.090199508 0
3.0976448 0.57135242 -0.14145489 0
4.6376047 1.3474538 -0.14074971 0
9.2934513 3.6938841 -0.14097087 0
0.79335672 -0.56454968 -0.090131737 0
0.89575952 -0.50965852 -0.09024892 0
1.0311906 -0.43706307 -0.091138192 0
1.1909423 -0.35143104 -0.088771738 0
1.4410601 -0.21735987 -0.089992382 0
1.8059705 -0.021756019 -0.090186842 0
3.0548272 0.64767152 -0.14126015 0
4.5693889 1.4595256 -0.14033869 0
9.1696825 3.9254315 -0.14090097 0
0.79114133 -0.53971189 -0.092272498 0
0.88882989 -0.48413011 -0.091431446 0
1.0127798 -0.41360649 -0.090353541 0
1.185974 -0.3150644 -0.090631895 0
1.2174369 -0.29716304 -0.062603138 0
1.2139503 -0.29914674 -0.029292455 0
2.9973023 0.71552521 -0.14003353 0
4.5242348 1.5843019 -0.14130743 0
9.0286388 4.1471682 -0.14052323 0
0.76850981 -0.52657187 -0.089533187 0
0.87268913 -0.46376583 -0.090746932 0
0.9900856 -0.39299157 -0.08884766 0
1.1614883 -0.28965893 -0.08946728 0
1.1469957 -0.29839596 -0.055426124 0
1.1925594 -0.27092722 -0.028900987 0
2.9571514 0.79288393 -0.14034511 0
4.4434423 1.6889169 -0.14052366 0
8.9010048 4.3762259 -0.14065455 0
0.76381576 -0.50274527 -0.09135478 0
0.85929877 -0.44184533 -0.090779714 0
0.98556125 -0.36131397 -0.090959929 0
1.1416639 -0.26175037 -0.089166827 0
1.1447446 -0.2597855 -0.057581101 0
1.1822097 -0.23588988 -0.029803803 0
2.9092884 0.86565644 -0.14018294 0
4.3821573 1.8050652 -0.14094901 0
8.7666817 4.6015534 -0.14076176 0
0.75259078 -0.4827809 -0.09168645 0
0.84357435 -0.42146745 -0.090407543 0
0.97536641 -0.33265331 -0.09214174 0
1.1194428 -0.2355608 -0.088573478 0
1.1354252 -0.2247903 -0.058913056 0
1.1622379 -0.20672134 -0.029737761 0
2.8673525 0.94234878 -0.14067124 0
4.3055015 1.9115117 -0.14068197 0
8.6256361 4.8228331 -0.14084047 0
0.73431909 -0.46771398 -0.090316348 0
0.8278631 -0.4011825 -0.090149559 0
0.96073985 -0.3066763 -0.092595778 0
1.101984 -0.20621899 -0.088903658 0
1.1431805 -0.17691872 -0.062843539 0
1.1380365 -0.18057725 -0.029269671 0
2.8182943 1.0144761 -0.14072198 0
4.2299452 2.0184875 -0.14062509 0
8.4684172 5.0330238 -0.14061715 0
0.71569049 -0.45330307 -0.088925384 0
0.81370836 -0.37979624 -0.09037254 0
0.92721164 -0.29467645 -0.08930894 0
1.0933784 -0.17006257 -0.090924226 0
1.1089343 -0.15839663 -0.060888071 0
1.1015035 -0.16396925 -0.027430182 0
1.1031331 -0.16274717 0.0046593864 0
1.0993657 -0.16557243 0.037053417 0
1.1000153 -0.16508535 0.069029935 0
1.0974902 -0.16697899 0.10100953 0
1.1012136 -0.16418663 0.13302425 0
1.1015788 -0.1639128 0.16509488 0
1.0973423 -0.16708991 0.19685401 0
0.70854932 -0.43021807 -0.090716042 0
0.80367053 -0.35506025 -0.09171658 0
0.91891843 -0.26399973 -0.091304593 0
1.0540892 -0.15719768 -0.087651663 0
1.1017835 -0.11951306 -0.062998183 0
1.0935634 -0.12600806 -0.029004505 0
1.0990422 -0.12167916 0.0031345135 0
1.0941193 -0.12556878 0.036110815 0
1.0947422 -0.12507662 0.068559602 0
1.0998194 -0.12106499 0.10101037 0
1.1015797 -0.11967418 0.13366394 0
1.1049784 -0.11698869 0.16655479 0
1.1021432 -0.11922893 0.19916309 0
0.69480962 -0.41205111 -0.090879612 0
0.79116625 -0.3318865 -0.092636265 0
0.89135695 -0.24853215 -0.089387007 0
1.0314828 -0.13195351 -0.087418281 0
1.1038247 -0.071768135 -0.066698186 0
1.1008714 -0.074225157 -0.032578785 0
1.1037455 -0.071834117 0.00068425597 0
1.1003108 -0.074691623 0.034395043 0
1.1058495 -0.070083648 0.067553639 0
1.1038814 -0.071721047 0.10101136 0
1.0946845 -0.079372436 0.13413075 0
1.1043823 -0.071304291 0.16787446 0
1.103076 -0.072391003 0.20127791 0
0.68247366 -0.39258417 -0.091571607 0
0.7676425 -0.31801191 -0.090962641 0
0.87953568 -0.22004035 -0.090949394 0
0.99488384 -0.11904362 -0.084683783 0
1.1063024 -0.021487679 -0.070733793 0
1.0923924 -0.033666994 -0.034434665 0
1.0997583 -0.027217593 -0.0011288205 0
1.0982953 -0.028498497 0.033070181 0
1.098644 -0.028193202 0.067048714 0
1.103724 -0.023745265 0.10101224 0
1.1063191 -0.021473076 0.1352132 0
1.0982404 -0.028546657 0.16895066 0
1.0994407 -0.027495708 0.20312388 0
1.0916923 -0.034279969 0.23637211 0
1.0900239 -0.035740878 0.37369618 0
0.66266787 -0.37975517 -0.090261467 0
0.75019526 -0.29912695 -0.090894498 0
0.85567164 -0.20196453 -0.090016402 0
0.96825349 -0.098256677 -0.08385133 0
1.0595194 -0.01418462 -0.067235939 0
1.1005839 0.023642931 -0.038578231 0
1.1027638 0.025651012 -0.0037550011 0
1.1049328 0.027649198 0.03109351 0
1.0949912 0.018491182 0.066386573 0
1.1028805 0.025758658 0.10101317 0
1.1011502 0.024164591 0.13583437 0
1.0996006 0.022737179 0.17059524 0
1.104807 0.027533207 0.20597611 0
1.0955364 0.018993292 0.23996417 0
1.0421979 -0.030140784 0.3676967 0
0.64878154 -0.36160347 -0.090765662 0
0.73588514 -0.27720496 -0.091770969 0
0.83794659 -0.17831311 -0.090568401 0
0.83351147 -0.18261054 -0.061943997 0
0.84546268 -0.17103049 -0.036459554 0
0.84144682 -0.17492166 -0.008265486 0
0.83646113 -0.1797525 0.019640962 0
0.84143388 -0.17493418 0.04648849 0
0.83544964 -0.18073252 0.073954634 0
0.84374344 -0.17269632 0.1010039 0
0.84320527 -0.17321774 0.12830424 0
0.842704 -0.17370346 0.15560171 0
0.84301746 -0.17339972 0.18300532 0
1.1088848 0.084210783 0.24505393 0
1.0037407 -0.017668035 0.29727724 0
1.007329 -0.014191117 0.33135405 0
0.98206848 -0.038667109 0.35835779 0
0.6333974 -0.34478655 -0.09096577 0
0.72704929 -0.24934545 -0.094289385 0
0.81613958 -0.15855309 -0.090315245 0
0.84033954 -0.13389078 -0.067451246 0
0.83835769 -0.13591048 -0.038763914 0
0.83507681 -0.139254 -0.01019056 0
0.84130067 -0.13291129 0.017092565 0
0.83344388 -0.14091817 0.045636036 0
0.84125155 -0.1329613 0.07307598 0
0.83783042 -0.13644776 0.10100451 0
0.84304065 -0.131138 0.1289929 0
0.84062481 -0.13360003 0.15685068 0
0.83820552 -0.13606551 0.18460786 0
0.83878237 -0.13547763 0.21269409 0
1.0926988 0.12328985 0.28323689 0
0.95320356 -0.018870439 0.29211777 0
0.94677705 -0.025419738 0.32299045 0
0.94805372 -0.024118628 0.35574377 0
0.62046182 -0.32525417 -0.092064865 0
0.70124227 -0.23866442 -0.092382468 0
0.79411644 -0.13911119 -0.090121724 0
0.83854109 -0.091491669 -0.071582161 0
0.84299809 -0.086714178 -0.043293659 0
0.83741957 -0.092693835 -0.013482137 0
0.84338015 -0.086304635 0.014637643 0
0.83894193 -0.091062039 0.043781888 0
0.84020835 -0.089704543 0.072365999 0
0.84468621 -0.084904641 0.1010057 0
0.83311111 -0.097312182 0.12940258 0
0.8363471 -0.09384343 0.15805189 0
0.84209013 -0.087687403 0.18724169 0
0.84253317 -0.087212533 0.21619368 0
1.0992854 0.18800405 0.28923738 0
0.92423505 0.00036499245 0.29125613 0
0.92730284 0.0036533808 0.32423079 0
0.92475468 0.00092193822 0.35611793 0
0.59942812 -0.31443855 -0.090757079 0
0.66755539 -0.23761407 -0.088259138 0
0.77177238 -0.12009248 -0.089963026 0
0.85203356 -0.02958497 -0.07929457 0
0.83860391 -0.04472908 -0.046578307 0
0.83943647 -0.043790247 -0.016985847 0
0.83599746 -0.047668304 0.012986677 0
0.8385219 -0.044821586 0.042202435 0
0.83890253 -0.044392373 0.071607009 0
0.84220177 -0.040671971 0.10100659 0
0.8360185 -0.047644582 0.13030462 0
0.82975531 -0.054707374 0.15919471 0
0.83920258 -0.044053998 0.18936431 0
0.83785403 -0.045574751 0.21877666 0
1.0979542 0.24773017 0.29429939 0
1.097622 0.24735585 0.33335027 0
0.58305353 -0.29855332 -0.09103518 0
0.66191882 -0.2049658 -0.09221711 0
0.73326606 -0.12029985 -0.085798062 0
0.84929627 0.017390285 -0.08403752 0
0.83790469 0.003872249 -0.050822262 0
0.84982592 0.018018875 -0.021984911 0
0.84093791 0.0074717137 0.009844387 0
0.84226573 0.009047363 0.040191099 0
0.8419773 0.0087050535 0.070626251 0
0.83522779 0.00069561938 0.10100736 0
0.83878565 0.0049175951 0.13127366 0
0.83898228 0.0051510069 0.1615869 0
0.84342325 0.010420952 0.19244105 0
0.83926332 0.0054844948 0.22247066 0
0.83778334 0.0037281846 0.2528162 0
1.099205 0.31395069 0.34057933 0
0.56755841 -0.28144041 -0.091755711 0
0.64053917 -0.19026318 -0.091801189 0
0.72017545 -0.090771049 -0.088183008 0
0.84723145 0.067964107 -0.089346059 0
0.85273862 0.07484439 -0.058333088 0
0.8427822 0.06240562 -0.024769446 0
0.83858025 0.057155881 0.0072646979 0
0.84019345 0.059171353 0.038448956 0
0.84014839 0.059115086 0.069747455 0
0.84665179 0.06723991 0.10100903 0
0.84379256 0.063667804 0.13240598 0
0.84251094 0.062066589 0.16374154 0
0.84077173 0.059893761 0.19499838 0
0.83480245 0.052436147 0.22559516 0
0.83753896 0.05585495 0.25750861 0
1.1064947 0.39186993 0.34969604 0
1.0983223 0.38166001 0.38968122 0
0.54021198 -0.27961805 -0.088486023 0
0.62190032 -0.17211047 -0.092338227 0
0.69852781 -0.071263343 -0.088523097 0
0.73017615 -0.029611971 -0.068414517 0
0.72627199 -0.03475007 -0.039141525 0
0.72876412 -0.031470325 -0.011313854 0
0.73158705 -0.027755108 0.016546289 0
0.72667491 -0.034219828 0.045127999 0
0.73107499 -0.028428998 0.072912343 0
0.72669482 -0.034193601 0.10100465 0
0.72635764 -0.034637358 0.12891565 0
0.72609895 -0.03497782 0.15683706 0
0.73083615 -0.028743353 0.18537696 0
0.72951156 -0.03048661 0.21343932 0
0.7261821 -0.034868386 0.24113435 0
0.72785538 -0.032666232 0.26988617 0
0.72906059 -0.031080093 0.29882881 0
0.73312324 -0.025733378 0.32897684 0
0.5295493 -0.25595126 -0.091181509 0
0.59863007 -0.16010913 -0.091547646 0
0.68149948 -0.045136716 -0.090309761 0
0.72652185 0.017326985 -0.073411651 0
0.95466256 0.33384767 -0.089652114 0
0.85007095 0.18873814 -0.034573186 0
0.83867788 0.17293146 0.00081403018 0
0.8438502 0.1801075 0.033861648 0
0.84506273 0.18178979 0.06740655 0
0.83557624 0.16862825 0.10101114 0
0.83833081 0.17244998 0.13434836 0
0.83777249 0.17167535 0.16767713 0
0.83906698 0.17347136 0.20125553 0
0.83232194 0.16411319 0.23376255 0
0.83921927 0.17368248 0.26860115 0
0.83602554 0.16925159 0.30175433 0
1.1020583 0.53834337 0.41057044 0
0.50688881 -0.24868819 -0.089678176 0
0.57196307 -0.15342644 -0.08969254 0
0.65693814 -0.029032197 -0.090157457 0
0.77053827 0.13726607 -0.090763532 0
0.92368436 0.36145547 -0.09021353 0
1.1559865 0.70152074 -0.090158679 0
0.85084623 0.25482836 -0.0043615308 0
0.83546746 0.23231545 0.032096181 0
0.83699989 0.23455885 0.066509888 0
0.83997387 0.23891237 0.10101286 0
0.83956587 0.23831514 0.13562161 0
0.84100479 0.24042144 0.17038685 0
0.84209788 0.24202159 0.20530362 0
0.84152287 0.24117985 0.2401485 0
0.83814329 0.23623267 0.27451625 0
0.8452853 0.24668768 0.31141442 0
1.098925 0.61798877 0.42099386 0
1.1020653 0.62258583 0.46875891 0
0.49473876 -0.22580358 -0.092299603 0
0.5533855 -0.13512042 -0.090626888 0
0.62785369 -0.019973245 -0.088750981 0
0.74211091 0.15669826 -0.090826117 0
0.88278157 0.37421182 -0.088808514 0
1.1099567 0.72548383 -0.089642815 0
1.4835129 1.3030989 -0.08988335 0
0.85070461 0.32461241 0.028124826 0
0.84388334 0.31406489 0.06488172 0
0.84041321 0.30869928 0.10101452 0
0.83816302 0.30521992 0.13690223 0
0.83682579 0.30315223 0.17271425 0
0.83896166 0.30645481 0.20893677 0
0.84115911 0.30985263 0.24547148 0
0.84641153 0.31797424 0.283012 0
0.83745551 0.30412582 0.31753051 0
0.83346206 0.29795089 0.35300782 0
1.1007416 0.71123475 0.48253134 0
0.47099665 -0.22065535 -0.090538867 0
0.53738624 -0.1120871 -0.092694975 0
0.60569453 -0.0003811981 -0.089537703 0
0.7105934 0.17116204 -0.090188451 0
0.8517952 0.40207222 -0.089636721 0
1.068524 0.75649303 -0.090033896 0
1.4235464 1.3370681 -0.089661546 0
0.8454904 0.39176181 0.025607655 0
0.84878409 0.39714804 0.063185751 0
0.84164888 0.38547972 0.1010164 0
0.84047478 0.38355961 0.13847665 0
0.83831567 0.38002875 0.17578472 0
0.83520204 0.37493697 0.21285294 0
0.83430314 0.37346712 0.25016028 0
0.84076202 0.38402942 0.28919894 0
0.83952445 0.3820056 0.32695457 0
0.84146881 0.38518515 0.36585012 0
1.1019489 0.81115335 0.49858934 0
0.44841704 -0.2143003 -0.089247979 0
0.51037997 -0.10697761 -0.090923436 0
0.579849 0.01334611 -0.089307018 0
0.68103766 0.18860963 -0.09017428 0
0.81574196 0.42192379 -0.0894785 0
1.0247829 0.78399259 -0.090154611 0
1.3682216 1.3788447 -0.090196274 0
1.3711554 1.3839262 -0.026606029 0
0.84588969 0.47414115 0.061681136 0
0.83706552 0.45885721 0.10101814 0
0.8381685 0.46076778 0.13999628 0
0.84760553 0.47711316 0.17989643 0
0.83561641 0.45634738 0.21776471 0
0.83808607 0.46062484 0.25733918 0
0.83590877 0.45685378 0.29622987 0
0.84181666 0.46708646 0.33740297 0
0.83946598 0.46301499 0.37668282 0
0.84408176 0.47100976 0.41866985 0
0.4281792 -0.20425275 -0.089007147 0
0.48692209 -0.096305817 -0.090515979 0
0.55647713 0.031509791 -0.09003251 0
0.64470845 0.19364527 -0.088294648 0
0.78428936 0.4501417 -0.090557553 0
0.98174602 0.81299168 -0.090551175 0
1.2883424 1.3763983 -0.087315939 0
1.2879119 1.3756075 -0.024372851 0
1.2905588 1.3804715 0.038242396 0
0.85312581 0.57663685 0.10102129 0
0.83981854 0.55218309 0.14187373 0
0.83737749 0.54769737 0.18253329 0
0.84171355 0.55566543 0.22403517 0
0.84161073 0.55547649 0.26522815 0
0.83996117 0.55244523 0.30621222 0
0.83929145 0.55121452 0.34754711 0
0.8423481 0.55683154 0.39036974 0
0.83902293 0.55072111 0.43130478 0
0.40924636 -0.19175002 -0.0894785 0
0.4602108 -0.092193097 -0.088852011 0
0.52530795 0.03497139 -0.088143818 0
0.61713862 0.21435872 -0.089060046 0
0.74844968 0.47086933 -0.090744279 0
0.93884158 0.84279186 -0.091141351 0
1.2442509 1.4393959 -0.08977174 0
1.2466576 1.4440975 -0.02629604 0
1.2448756 1.4406161 0.0375016 0
1.2476351 1.446007 0.1010485 0
0.845249 0.65996283 0.1441545 0
0.83810216 0.64600176 0.1866015 0
0.8386566 0.64708477 0.22959219 0
0.83550817 0.64093453 0.27202091 0
0.83847231 0.64672476 0.31588072 0
0.83827287 0.64633518 0.35930753 0
0.83845025 0.64668173 0.40313506 0
0.84398931 0.657502 0.44953448 0
0.39041474 -0.178745 -0.090176024 0
0.4433749 -0.068518311 -0.091437601 0
0.50367332 0.056981478 -0.089804314 0
0.59115005 0.23904791 -0.090545274 0
0.70851636 0.48332396 -0.089974068 0
0.88951796 0.8600449 -0.090537928 0
1.1830486 1.4709735 -0.08984787 0
1.7878342 2.7297213 -0.091114424 0
4.5049505 8.3848896 -0.14083546 0
0.84721869 0.77200681 0.19205225 0
0.83954608 0.75603765 0.23644933 0
0.84014869 0.75729185 0.28194973 0
0.84431893 0.76597148 0.32867661 0
0.83986771 0.75670713 0.37330925 0
0.84239078 0.7619583 0.42040256 0
0.83876276 0.75440735 0.46545401 0
0.37172636 -0.16498271 -0.091153614 0
0.41413087 -0.07070294 -0.088741682 0
0.47740638 0.069980413 -0.089921154 0
0.55498451 0.24246314 -0.088837214 0
