# .PCD v0.7 - Point Cloud Data file format
VERSION 0.7
FIELDS x y z intensity
SIZE 4 4 4 4
TYPE F F F F
COUNT 1 1 1 1
WIDTH 1360
HEIGHT 1
VIEWPOINT 0 0 0 1 0 0 0
POINTS 1360
DATA ascii
0.13814928 0.81792915 0.49296314 0
0.77544254 0.44129771 -0.049738575 0
1.0355949 0.28260761 0.072617911 0
0.8439905 0.39948422 0.18241543 0
0.83027869 0.40784824 0.29915342 0
0.84798151 0.39704973 0.42600283 0
0.14417328 0.82636517 0.4933691 0
0.80032033 0.44940203 -0.050350606 0
1.0626456 0.29388434 0.073238045 0
0.84417933 0.42340046 0.18110818 0
0.84194249 0.42472661 0.29938731 0
0.83856875 0.42672664 0.42004257 0
0.1494195 0.83528417 0.49330941 0
0.80410105 0.47015893 -0.050093252 0
0.84887558 0.44437104 0.18040684 0
0.84053499 0.44917482 0.29694349 0
0.83666176 0.45140558 0.41644567 0
0.13913162 0.85314912 0.482696 0
0.80822462 0.49051976 -0.049862459 0
0.84942907 0.46747398 0.17923295 0
0.8388148 0.47341067 0.29451606 0
0.84712595 0.46876216 0.4165816 0
0.14895375 0.85925192 0.48597538 0
0.82299882 0.50491685 -0.050076347 0
0.8529585 0.48865211 0.17846666 0
0.83949119 0.49596334 0.29265982 0
0.82551366 0.50355154 0.40746835 0
0.84269005 0.51689816 -0.050494574 0
0.84677249 0.51474798 0.17655785 0
0.8308782 0.52311939 0.28898042 0
0.84460312 0.5158906 0.41027865 0
0.83499736 0.54319966 -0.049818419 0
0.84969336 0.53569418 0.17580003 0
0.83796936 0.54168183 0.28857428 0
0.83962935 0.54083407 0.40622199 0
0.83824688 0.54154009 0.52737617 0
0.84877187 0.55834758 -0.050014846 0
0.84420949 0.56060565 0.17407081 0
0.83831114 0.56352502 0.28685969 0
0.83765823 0.56384814 0.403135 0
0.84385175 0.56078273 0.52616626 0
0.84866589 0.58030629 -0.049668118 0
0.8749252 0.56771863 0.17670372 0
0.84155887 0.58371311 0.28579178 0
0.84334534 0.58285671 0.40231559 0
0.84137779 0.5837999 0.52207273 0
0.85494298 0.59903735 -0.049585544 0
0.89461452 0.58063102 0.17802562 0
0.8441698 0.60403574 0.28465417 0
0.84134108 0.60534817 0.39940521 0
0.84474176 0.60377038 0.52025074 0
0.87202936 0.61285722 -0.049935672 0
0.94133705 0.58175516 0.18254362 0
0.84101051 0.62677705 0.28243309 0
0.84016019 0.62715864 0.39682093 0
0.83043808 0.63152146 0.5120883 0
0.8863892 0.62813228 -0.050184581 0
0.97976524 0.58763409 0.18606707 0
0.84098297 0.64782542 0.28089616 0
0.84963852 0.64407146 0.39729157 0
0.84375066 0.64662504 0.51411211 0
0.88930851 0.64839268 -0.049996831 0
1.009982 0.59785092 0.18862391 0
0.8477158 0.66581297 0.28074116 0
0.83064598 0.67296237 0.3899436 0
0.83156818 0.67257613 0.50699806 0
0.89846081 0.66599482 -0.050059889 0
1.0408838 0.60844076 0.1912621 0
0.83785301 0.69048691 0.27740294 0
0.83881837 0.6900968 0.39020842 0
0.84315377 0.68834484 0.5085665 0
0.9088524 0.68316537 -0.050178632 0
1.0787246 0.61699456 0.19470313 0
0.84325308 0.70871848 0.27709544 0
0.83892852 0.71040303 0.38832369 0
0.83372444 0.71243012 0.50269508 0
0.28423896 0.92647278 0.45793015 0
0.90338975 0.70637566 -0.049700554 0
0.84822017 0.7270698 0.27675033 0
0.84238011 0.72926039 0.38742819 0
0.83968288 0.73027211 0.50242698 0
0.28622016 0.93787634 0.45681861 0
0.91460186 0.72321439 -0.049868643 0
0.83958417 0.7502811 0.27384311 0
0.84199721 0.74941045 0.38556132 0
0.84120876 0.74969494 0.50067204 0
0.26171109 0.95878023 0.44169813 0
0.92522377 0.74038655 -0.050021723 0
0.85559744 0.7645216 0.27570942 0
0.83667213 0.77108181 0.38243669 0
0.8441605 0.76848602 0.49951321 0
0.83944803 0.77011961 0.61810923 0
0.2633836 0.96980494 0.44064766 0
0.93986791 0.756338 -0.050333649 0
0.8531118 0.78519249 0.27408612 0
0.83364612 0.79166663 0.38001683 0
0.84343415 0.7884112 0.49715272 0
0.84559208 0.7876935 0.61817819 0
0.28730538 0.97337586 0.45140669 0
0.94149548 0.77667159 -0.050164137 0
0.84802777 0.80645663 0.27202687 0
0.83866221 0.80944109 0.37982965 0
0.84109002 0.80866742 0.49432454 0
0.83854371 0.80947888 0.61261052 0
0.30786601 0.97858804 0.46038121 0
0.93838805 0.79832697 -0.049828123 0
0.84272426 0.82749015 0.26998472 0
0.84534591 0.82669097 0.38014778 0
0.83865732 0.82872999 0.49156532 0
0.84900433 0.82557565 0.61476183 0
0.30454531 0.99155456 0.45686412 0
0.94423085 0.81713301 -0.049836293 0
0.87095469 0.83846664 0.27429879 0
0.83595544 0.84865642 0.37625128 0
0.83686572 0.84839135 0.48912603 0
0.84547859 0.84588385 0.61096156 0
0.31403324 1.0006094 0.46011987 0
0.9584071 0.83363539 -0.050161995 0
0.88886768 0.85293478 0.27669266 0
0.83964139 0.86659664 0.37590405 0
0.84239024 0.86583376 0.4893069 0
0.843566 0.86550742 0.60797781 0
0.31962076 1.0109187 0.4613983 0
0.95004338 0.85632962 -0.049662016 0
0.91467363 0.86566782 0.28058487 0
0.83900124 0.88564658 0.37447613 0
0.84005922 0.88536727 0.48685986 0
0.84007365 0.88536346 0.60443342 0
0.32018623 1.0226223 0.46014097 0
0.96761745 0.87216371 -0.050128791 0
0.95016676 0.87653673 0.28629577 0
0.84253925 0.90350723 0.37421486 0
0.83650154 0.90502024 0.48408428 0
0.8413555 0.90380383 0.60304493 0
0.32910159 1.0321702 0.46327066 0
0.97701496 0.89027929 -0.050301485 0
0.99714059 0.88550442 0.29414308 0
0.83494955 0.92398435 0.3710956 0
0.83701605 0.9234941 0.48279414 0
0.84877211 0.92070496 0.60437 0
0.33224216 1.0432519 0.46348339 0
0.97934777 0.91010529 -0.050223585 0
1.0231082 0.90030342 0.29810685 0
0.84778196 0.9395746 0.37339208 0
0.84127659 0.94103169 0.48286423 0
0.84233588 0.94079447 0.59990412 0
0.33771935 1.053823 0.46496525 0
0.97953206 0.93033129 -0.050076619 0
1.0538874 0.91465706 0.30298135 0
0.83948141 0.9598543 0.37022349 0
0.8345266 0.96089876 0.47926566 0
0.84298116 0.95911652 0.59855372 0
0.34752163 1.0635605 0.46872291 0
0.98360819 0.94968545 -0.050080933 0
1.0858887 0.92946613 0.30810165 0
0.84106869 0.97786343 0.36970085 0
0.84234887 0.97761035 0.48070294 0
0.84560829 0.97696602 0.59814066 0
0.35753313 1.0734513 0.47264054 0
0.9876526 0.96905178 -0.050092943 0
0.84281427 0.99579376 0.36927938 0
0.83879441 0.99653602 0.47835919 0
0.84582967 0.99523705 0.59681028 0
0.38211671 1.0808541 0.48402679 0
0.98391622 0.98976541 -0.049831927 0
0.84963638 1.0128134 0.37023145 0
0.84430414 1.0137287 0.47916076 0
0.84199089 1.0141258 0.59387398 0
0.38861427 1.0919443 0.48625433 0
0.9944405 1.0080324 -0.050096359 0
0.43348262 1.0970604 0.041818794 0
0.4286907 1.097821 0.11330159 0
0.42417052 1.0985383 0.18524182 0
0.42583463 1.0982742 0.25999609 0
0.44079509 1.0958999 0.34225243 0
0.4275097 1.0980084 0.41889471 0
0.39419869 1.1032951 0.48808566 0
0.99510962 1.0279284 -0.050013058 0
0.40431806 1.1140796 0.040697962 0
0.40493277 1.1139899 0.11051581 0
0.40944961 1.1133313 0.18221554 0
0.39052138 1.1160915 0.25040475 0
0.41735306 1.1121788 0.33372688 0
0.40105489 1.1145554 0.40703478 0
0.40563044 1.1138881 0.49294254 0
0.99317759 1.0481141 -0.049845245 0
0.39030662 1.128288 0.040132482 0
0.43212172 1.1227272 0.11328021 0
0.42182228 1.1240969 0.18415755 0
0.43409118 1.1224653 0.26119003 0
0.42710182 1.1233947 0.33642405 0
0.43350598 1.1225431 0.41988567 0
0.40913084 1.1257846 0.49385539 0
1.012612 1.0656155 -0.050455123 0
0.37534907 1.1422104 0.039540272 0
0.42814526 1.1358646 0.11267893 0
0.42740479 1.1359535 0.18488784 0
0.41960731 1.1368908 0.25706172 0
0.4371182 1.1347861 0.33925417 0
0.43783715 1.1346997 0.42103267 0
1.0050986 1.0864481 -0.050104495 0
0.35812882 1.1559576 0.038873918 0
0.84313244 1.1038494 0.36537886 0
0.83705753 1.1045022 0.47260019 0
0.83994848 1.1041915 0.58788496 0
0.99964553 1.1068401 -0.049837589 0
0.35638675 1.1677686 0.038769633 0
0.8504476 1.1209719 0.36679646 0
0.83661157 1.1222825 0.47185767 0
0.83558792 1.1223794 0.58533138 0
1.0197903 1.1249468 -0.050497096 0
0.34801456 1.1800514 0.038433287 0
0.84201461 1.1395295 0.36423647 0
0.82997531 1.140517 0.46912432 0
0.84179634 1.1395473 0.58726627 0
1.0061187 1.1458685 -0.049954008 0
0.37748215 1.1894735 0.039456949 0
0.84741944 1.1568766 0.36527744 0
0.84069771 1.1573428 0.47225899 0
0.84275991 1.1571999 0.58711243 0
1.0051485 1.1656892 -0.04987492 0
0.85478121 1.1742185 0.36687362 0
0.84236497 1.1749228 0.47244459 0
0.83690995 1.1752322 0.58422536 0
1.0064697 1.1853563 -0.049886677 0
0.85193115 1.1921712 0.36591679 0
0.84515315 1.1924701 0.47307712 0
0.83271319 1.1930187 0.58211911 0
1.0057293 1.2050996 -0.04983364 0
0.849379 1.2100229 0.3650941 0
0.83882254 1.2103553 0.47074771 0
0.83919758 1.2103435 0.58453113 0
0.99866122 1.2249281 -0.049563557 0
0.84090716 1.227908 0.36281839 0
0.83341247 1.2280496 0.46880013 0
0.8398158 1.2279286 0.58460367 0
1.0087342 1.2444614 -0.049914371 0
0.85189205 1.2454488 0.3655645 0
0.83774394 1.2455379 0.47016782 0
0.84122688 1.2455159 0.58509618 0
1.0160657 1.2642279 -0.050176118 0
0.86259943 1.2632617 0.36829633 0
0.82959133 1.2630539 0.46745548 0
0.84506768 1.2631514 0.58668649 0
1.0083897 1.2838988 -0.049910933 0
0.84163982 1.280749 0.36300534 0
0.84118813 1.2807404 0.47138748 0
0.84798259 1.2808688 0.58798563 0
1.0024967 1.3034418 -0.049718179 0
0.84239954 1.2984004 0.36331251 0
0.8410365 1.2983575 0.47148466 0
0.84917277 1.2986138 0.58866328 0
1.0158879 1.3237022 -0.050223242 0
0.85135597 1.3164465 0.36576989 0
0.85025746 1.3163981 0.47477692 0
0.84980148 1.316378 0.58920115 0
1.0211979 1.3438642 -0.050448824 0
0.85114092 1.3342181 0.36594337 0
0.83421355 1.333258 0.46972832 0
0.82823104 1.3329186 0.58062613 0
0.99942118 1.3623101 -0.049714323 0
1.3071455 1.3836552 0.072726876 0
1.2888803 1.3823882 0.20489597 0
1.2964758 1.382915 0.3411487 0
0.85215789 1.3520952 0.36648929 0
0.84236747 1.3514161 0.47281584 0
0.84400219 1.3515295 0.58762795 0
1.0027452 1.3822981 -0.049886517 0
1.2526032 1.4027935 0.07083673 0
1.2449361 1.4021647 0.20034713 0
1.0097108 1.3828695 0.28957692 0
0.85550183 1.3702201 0.36768904 0
0.84467989 1.3693323 0.47403291 0
0.8348189 1.3685235 0.58436763 0
1.0093628 1.4027233 -0.05018606 0
1.2413526 1.424697 0.070505463 0
1.2519374 1.4256996 0.20131928 0
0.89250249 1.3916546 0.26865968 0
0.85285681 1.3878994 0.36741388 0
0.83907133 1.3865937 0.47267967 0
0.84575838 1.3872271 0.58956116 0
1.0024165 1.4219069 -0.050008193 0
0.62910193 1.3817985 0.048603684 0
0.6466822 1.3836873 0.13614734 0
0.65113336 1.3841655 0.22521304 0
0.64855415 1.3838885 0.31545001 0
0.83414441 1.403828 0.47162542 0
0.83941954 1.4043947 0.58766472 0
1.0055906 1.4421837 -0.050202649 0
0.55789977 1.3883742 0.046104476 0
0.53873724 1.386071 0.12464972 0
0.54611522 1.3869578 0.20645121 0
0.56045932 1.3886819 0.29325625 0
0.83497626 1.421677 0.47257191 0
0.85033768 1.4235233 0.59305191 0
0.98635238 1.4596214 -0.049599431 0
0.5493657 1.401508 0.045861091 0
0.56042844 1.4029791 0.12719065 0
0.55312949 1.4020084 0.20804712 0
0.5567376 1.4024884 0.29275656 0
0.83673817 1.4397247 0.47390753 0
0.8320604 1.4391026 0.58635432 0
0.99507791 1.4807101 -0.050011914 0
0.54716307 1.4153937 0.045851652 0
0.54785162 1.4154941 0.12603766 0
0.55638629 1.4167386 0.20899566 0
0.55513638 1.4165564 0.29284751 0
0.84558553 1.4589107 0.47770417 0
0.83173281 1.4568906 0.58723682 0
0.99063867 1.5000073 -0.049958937 0
0.55470318 1.4308213 0.046200689 0
0.54902703 1.4299204 0.12639591 0
0.55348247 1.4306275 0.20885494 0
0.55206102 1.4304019 0.29260355 0
0.82915205 1.4743782 0.47307363 0
0.84554487 1.4769799 0.5941425 0
0.9850443 1.5190713 -0.04987279 0
0.5604704 1.4461966 0.046493292 0
0.55467683 1.4452021 0.12726262 0
0.55831188 1.4458261 0.21016099 0
0.55858582 1.4458731 0.29488924 0
0.85078543 1.4960269 0.48134857 0
0.83830649 1.4938849 0.59232622 0
0.9769749 1.5376198 -0.049705293 0
0.55607551 1.4599078 0.046424665 0
0.55749458 1.4601698 0.12784286 0
0.54669589 1.458176 0.20848911 0
0.5585683 1.460368 0.29553342 0
0.84435731 1.5131342 0.48024124 0
0.84213704 1.5127243 0.59525555 0
0.97841245 1.5579306 -0.049891848 0
0.55045611 1.4733299 0.046317577 0
0.56015557 1.4752473 0.12842798 0
0.55131608 1.4734999 0.20982644 0
0.54691941 1.4726307 0.2932016 0
0.83338267 1.5292603 0.47766221 0
0.83400649 1.5293837 0.59324408 0
0.97303921 1.5769432 -0.04983972 0
0.54019171 1.4856979 0.04604689 0
0.53497225 1.4845976 0.12597732 0
0.54708737 1.4871515 0.20957188 0
0.55924839 1.4897151 0.2971558 0
0.85024828 1.5510585 0.48461112 0
0.84055191 1.5490144 0.59752584 0
0.97325677 1.5971736 -0.050000738 0
0.54795736 1.501911 0.046440773 0
0.55018514 1.5024101 0.12798162 0
0.55083233 1.502555 0.210822 0
0.55952197 1.5045015 0.29802537 0
0.83492333 1.5661883 0.48069814 0
0.84334785 1.5680753 0.60033351 0
0.96935004 1.6165453 -0.05002024 0
0.55388385 1.5179758 0.046775833 0
0.547463 1.5164524 0.12803566 0
0.54781431 1.5165358 0.21085823 0
0.55493456 1.5182251 0.29767171 0
0.83883017 1.5855795 0.48341447 0
0.83936745 1.5857069 0.60036802 0
0.97229069 1.6376505 -0.050300788 0
0.55540746 1.5331832 0.046957336 0
0.55654258 1.5334677 0.12941699 0
0.55292135 1.5325602 0.21243788 0
0.55970603 1.5342604 0.29982388 0
0.83388931 1.6029683 0.48318836 0
0.84996456 1.6069967 0.60671955 0
0.95767587 1.6543286 -0.049943842 0
0.55221182 1.5472794 0.046972241 0
0.55976444 1.5492734 0.13017559 0
0.55200142 1.5472238 0.21293618 0
0.55078262 1.5469021 0.29842269 0
0.8397941 1.6232059 0.4867686 0
0.83905512 1.6230108 0.60399729 0
0.95968562 1.6753626 -0.050209362 0
0.55165178 1.5621203 0.047091417 0
0.5476802 1.5610181 0.12925191 0
0.55100888 1.5619419 0.21345715 0
0.551925 1.5621961 0.29972383 0
0.83980638 1.6420922 0.48841479 0
0.84288949 1.6429479 0.60768706 0
0.95711106 1.69526 -0.050315227 0
0.54917699 1.5764937 0.047146771 0
0.55705184 1.5787864 0.13074294 0
0.56238049 1.5803378 0.21633719 0
0.55305749 1.5776235 0.30107823 0
0.83551115 1.6598574 0.48865664 0
0.84190005 1.6617174 0.60941839 0
0.93807298 1.7102201 -0.049816363 0
0.85452133 1.6847492 0.38259506 0
0.83704764 1.6794224 0.49100542 0
0.8379243 1.6796896 0.60996586 0
0.94231206 1.7322317 -0.050194729 0
0.85270804 1.703678 0.38359073 0
0.83610493 1.6983871 0.49258384 0
0.83535165 1.6981471 0.61122334 0
0.93843263 1.7518278 -0.050279647 0
0.84147543 1.7195804 0.38212189 0
0.84606403 1.7211066 0.49807477 0
0.83546716 1.7175822 0.61376035 0
0.92347103 1.7676491 -0.049955495 0
0.83863968 1.7382433 0.38296798 0
0.83981353 1.7386502 0.49798256 0
0.83002311 1.7352566 0.61397916 0
0.91270918 1.7847458 -0.049796805 0
0.84749097 1.7612149 0.38705137 0
0.82522386 1.7531807 0.49501845 0
0.8302018 1.7549767 0.61677164 0
0.90378147 1.8024144 -0.049715493 0
0.84784573 1.7814329 0.38891754 0
0.83364874 1.7761075 0.50028288 0
0.83254474 1.7756935 0.62064397 0
0.91444284 1.8276554 -0.050392829 0
0.83546561 1.7968912 0.38737553 0
0.84112281 1.7990949 0.50533658 0
0.83445698 1.7964983 0.62445951 0
0.90301579 1.844489 -0.050235283 0
0.83957118 1.8188505 0.39041558 0
0.83866102 1.8184828 0.50695437 0
0.83042675 1.8151553 0.62575763 0
0.88999814 1.8605393 -0.050023526 0
0.83570868 1.8378012 0.39134395 0
0.82325202 1.8325839 0.50399846 0
0.83005291 1.8354324 0.62880898 0
0.89225918 1.8830568 -0.050413013 0
0.83973664 1.8602772 0.3945379 0
0.82121783 1.8522453 0.50594091 0
0.82528442 1.854009 0.63000876 0
0.87564141 1.8974068 -0.050077014 0
0.8324725 1.8780346 0.39467111 0
0.82074469 1.8727717 0.50855356 0
0.82131177 1.8730261 0.63168228 0
0.85961682 1.9117743 -0.049769491 0
0.82686311 1.8965777 0.39533323 0
0.82501012 1.8957179 0.51301396 0
0.82686597 1.896579 0.63782299 0
0.85019451 1.9290695 -0.049728636 0
0.82943279 1.9191172 0.3983793 0
0.81755894 1.9134254 0.51328486 0
0.82450503 1.9167551 0.64050233 0
0.83277947 1.9423803 -0.049377792 0
0.82353359 1.9378041 0.3991141 0
0.82010788 1.9361086 0.51735222 0
0.81796306 1.935047 0.64138401 0
0.84288198 1.9694703 -0.050134495 0
0.81409758 1.9547696 0.39890766 0
0.79939777 1.9472622 0.51286328 0
0.81764954 1.9565837 0.64527375 0
0.82929808 1.9846915 -0.049954202 0
0.80448586 1.9716229 0.39871058 0
0.80236048 1.9705036 0.51729852 0
0.80527729 1.9720398 0.64367294 0
0.82113403 2.0027139 -0.050000593 0
0.79125112 1.9864908 0.39752176 0
0.78743047 1.9844167 0.51510108 0
0.78987509 1.9857439 0.64072502 0
0.8001743 2.0136209 -0.049533151 0
0.78957874 2.0076947 0.39975905 0
0.79084736 2.0084043 0.51994848 0
0.79048556 2.0082018 0.64543426 0
0.80452996 2.0387311 -0.050110925 0
0.78236991 2.0259681 0.4004609 0
0.78874499 2.0296397 0.52282768 0
0.7753101 2.0219018 0.64276987 0
0.79648858 2.0569694 -0.050191574 0
0.77680784 2.0453019 0.40172443 0
0.77083451 2.0417607 0.51971745 0
0.77184635 2.0423605 0.64580548 0
0.7764805 2.0679786 -0.049781978 0
0.77997011 2.0701072 0.40567747 0
0.7699191 2.063976 0.52326566 0
0.77553314 2.0674007 0.65245676 0
0.77706665 2.0915711 -0.050242923 0
0.75887698 2.0801589 0.40245014 0
0.76145679 2.0817773 0.52398729 0
0.76171952 2.0819423 0.65076059 0
0.758753 2.1033621 -0.04991724 0
0.76174837 2.1052945 0.40651065 0
0.76243991 2.1057405 0.52854282 0
0.75962204 2.1039226 0.65491301 0
0.74952012 2.1209025 -0.049984142 0
0.75464565 2.1243012 0.40764838 0
0.75010175 2.1212883 0.52793878 0
0.75072807 2.1217034 0.6558609 0
0.73949033 2.1379609 -0.050026704 0
0.73134297 2.1324096 0.40386817 0
0.73399311 2.1342154 0.52589011 0
0.73672456 2.1360765 0.6543687 0
0.73408657 2.1582975 -0.050280549 0
0.7381981 2.1611755 0.40947795 0
0.73523384 2.1591005 0.53093463 0
0.7350046 2.1589401 0.65916222 0
0.71555871 2.1694241 -0.049970865 0
0.71210641 2.1669424 0.40489966 0
0.71425313 2.1684856 0.52704787 0
0.72281951 2.1746438 0.65880913 0
0.70858163 2.1888094 -0.05017703 0
0.70897323 2.1890984 0.4075819 0
0.71074206 2.1904039 0.53039742 0
0.71384925 2.1926975 0.66020846 0
0.68867105 2.19858 -0.049816709 0
0.70651358 2.2121007 0.4105944 0
0.70746452 2.2128215 0.53399122 0
0.69766861 2.2053981 0.65799314 0
0.68746597 2.2225819 -0.050304417 0
0.68889397 2.2236924 0.40882966 0
0.69449252 2.2280471 0.53365272 0
0.6886037 2.2234666 0.65957183 0
0.66653007 2.2312784 -0.049909484 0
0.68121976 2.2430038 0.41034114 0
0.67360312 2.2369242 0.53002173 0
0.68369228 2.2449775 0.66348684 0
0.66081804 2.2520881 -0.050218027 0
0.66729289 2.2573912 0.40988606 0
0.66938406 2.2591038 0.53356987 0
0.67627221 2.2647455 0.66624403 0
0.64975435 2.2686889 -0.050292451 0
0.6580084 2.2756248 0.41103324 0
0.66390961 2.2805834 0.53673095 0
0.66185266 2.2788551 0.66537917 0
0.62674493 2.2750659 -0.049814429 0
0.71860069 2.3542461 0.066144012 0
0.71675032 2.3526511 0.18678512 0
0.7265442 2.3610933 0.31171498 0
0.65611678 2.3003848 0.41476005 0
0.64502591 2.2908242 0.53415477 0
0.64989036 2.2950175 0.66594458 0
0.62420493 2.2990961 -0.050310351 0
0.67759222 2.3463008 0.064854555 0
0.68739265 2.3549664 0.18457198 0
0.68406147 2.352021 0.30486715 0
0.63810307 2.3113847 0.41314366 0
0.63891584 2.3121033 0.53727943 0
0.63988835 2.3129632 0.66771162 0
0.60307306 2.306742 -0.049930409 0
0.65371281 2.3526664 0.064371035 0
0.6557408 2.3545055 0.18200482 0
0.65877444 2.3572567 0.30209959 0
0.63333398 2.3341854 0.41611788 0
0.61619264 2.31864 0.53309822 0
0.62382799 2.3255644 0.66623837 0
0.59037513 2.3218706 -0.049961872 0
0.63935429 2.3674262 0.064349927 0
0.64587218 2.3734882 0.18260366 0
0.6363005 2.3645859 0.30000845 0
0.61025387 2.3403599 0.41284651 0
0.6157555 2.3454769 0.53903073 0
0.61031467 2.3404164 0.66627717 0
0.57777375 2.3371265 -0.050007828 0
0.62692446 2.3840094 0.06443283 0
0.62860566 2.385613 0.1821463 0
0.62065309 2.3780272 0.29961634 0
0.59645277 2.3549438 0.41283453 0
0.59660155 2.3550856 0.53658384 0
0.59899431 2.3573678 0.66767752 0
0.5596934 2.3470724 -0.049790252 0
0.61712343 2.4032505 0.064658426 0
0.61349672 2.3997028 0.18203044 0
0.61804467 2.4041517 0.30255142 0
0.59351677 2.3801584 0.4167653 0
0.58926433 2.3759987 0.53966206 0
0.59028774 2.3769996 0.67073202 0
0.54964894 2.3648665 -0.049982574 0
0.60966486 2.4250715 0.065017506 0
0.60781687 2.4232178 0.18337531 0
0.60617739 2.4215729 0.30324206 0
0.57445055 2.3897462 0.4150309 0
0.56903607 2.3843145 0.53682792 0
0.57775825 2.3930643 0.67172754 0
0.54284889 2.3861973 -0.05035498 0
0.60210842 2.44716 0.065390252 0
0.60575062 2.4509068 0.18534021 0
0.60661751 2.4517987 0.30718258 0
0.55763811 2.4014115 0.41414279 0
0.55939931 2.4032233 0.53906202 0
0.55758315 2.401355 0.66831374 0
0.52130538 2.3923604 -0.049981087 0
0.61293393 2.4890282 0.066736266 0
0.61908954 2.4955225 0.18979211 0
0.61763853 2.4939916 0.3140488 0
0.54614598 2.4185672 0.41527003 0
0.55104476 2.4237354 0.54206043 0
0.54599875 2.4184117 0.6700871 0
0.51245362 2.4118714 -0.050273702 0
0.53347403 2.4346147 0.4160499 0
0.5340181 2.4352033 0.54097497 0
0.53640014 2.4377806 0.6732263 0
0.49383077 2.4208529 -0.050062351 0
0.52730268 2.4579957 0.4193947 0
0.52356023 2.4538429 0.54321009 0
0.52141315 2.4514601 0.67322683 0
0.47740969 2.4321189 -0.049973115 0
0.50404805 2.4624381 0.41629741 0
0.5047043 2.4631848 0.54136181 0
0.49778029 2.4553041 0.66791123 0
0.46794567 2.4514158 -0.050272103 0
0.48157176 2.467324 0.41348121 0
0.48708734 2.4737635 0.54017949 0
0.48910174 2.4761152 0.67206538 0
0.44793972 2.4584203 -0.050001837 0
0.47088525 2.4859018 0.41533986 0
0.47741815 2.4937263 0.54317361 0
0.47381029 2.4894052 0.67217869 0
0.43468633 2.4734254 -0.050114244 0
0.45110223 2.4935975 0.41364446 0
0.44873008 2.4906826 0.53632122 0
0.45372161 2.4968162 0.66925591 0
0.41871652 2.4851379 -0.050083153 0
0.44150409 2.5138714 0.41614324 0
0.44224772 2.5148091 0.54122812 0
0.44561538 2.5190554 0.6743322 0
0.3969377 2.4893026 -0.049720924 0
0.42607757 2.5270114 0.41635683 0
0.41827455 2.5169139 0.53686291 0
0.42448124 2.5249457 0.6708585 0
0.39362803 2.5175803 -0.050451975 0
0.40571353 2.5336335 0.4145492 0
0.40615633 2.5342216 0.53899628 0
0.41336504 2.543797 0.67427313 0
0.36541346 2.5127723 -0.049713418 0
0.39093187 2.5475719 0.4151544 0
0.39229342 2.5494287 0.54030657 0
0.39442334 2.5523331 0.67243266 0
0.35600397 2.533407 -0.050113287 0
0.37527028 2.5603864 0.41546047 0
0.37915817 2.5658307 0.5421654 0
0.3795037 2.5663147 0.6735009 0
0.33976528 2.5447187 -0.050109472 0
0.35591999 2.5679541 0.414195 0
0.36435089 2.58008 0.54320306 0
0.35930505 2.5728228 0.67088634 0
0.32035014 2.5513377 -0.049912237 0
0.34472558 2.5873559 0.41666144 0
0.34330246 2.585253 0.54066098 0
0.34240815 2.5839317 0.67072183 0
0.30874929 2.5695753 -0.050223798 0
0.3210077 2.5881896 0.41347837 0
0.3223553 2.5902359 0.53817016 0
0.32090637 2.5880356 0.66719192 0
0.29245058 2.5808928 -0.050245676 0
0.30577645 2.6016936 0.41425091 0
0.30225936 2.5962038 0.53619325 0
0.30412242 2.5991118 0.66725236 0
0.27736351 2.5941906 -0.050359331 0
0.28413352 2.605057 0.41202694 0
0.28829965 2.6117439 0.53808343 0
0.28746685 2.6104071 0.66752273 0
0.2545242 2.5948498 -0.04995257 0
0.27239719 2.6243587 0.41465563 0
0.26743379 2.616164 0.53570276 0
0.27643296 2.631022 0.67240405 0
0.2359748 2.6022379 -0.049839526 0
0.25210282 2.6296387 0.4131577 0
0.25538918 2.635222 0.5390923 0
0.25102428 2.6278062 0.66586745 0
0.22009827 2.6141465 -0.049922835 0
0.23648842 2.6428123 0.41406584 0
0.23480262 2.6398637 0.53699106 0
0.23643239 2.6427143 0.66817474 0
0.20498426 2.6275558 -0.050075047 0
0.21872433 2.6523049 0.41395104 0
0.22007455 2.654737 0.5388968 0
0.21903373 2.6528621 0.66829914 0
0.18341775 2.6292231 -0.049757779 0
0.20151354 2.6628072 0.4141947 0
0.20084436 2.6615653 0.53781974 0
0.19875254 2.6576831 0.66602069 0
0.16914769 2.6443737 -0.049996726 0
0.17984779 2.6648452 0.41206264 0
0.17638434 2.6582189 0.53302133 0
0.18459143 2.6739209 0.66921061 0
0.151859 2.6539471 -0.050018162 0
0.16690733 2.6836426 0.41481596 0
0.16116126 2.6723037 0.53487009 0
0.1662028 2.6822524 0.6687935 0
0.13240643 2.6591551 -0.049874514 0
0.13836296 2.6712859 0.40874383 0
0.14291723 2.6805608 0.53461874 0
0.14003117 2.6746833 0.66115183 0
0.1138465 2.6660118 -0.049806621 0
0.11883529 2.6765037 0.40777469 0
0.12531359 2.6901278 0.53493637 0
0.12267395 2.6845765 0.66171312 0
0.094779871 2.6716602 -0.049700838 0
0.10039511 2.6838634 0.40748194 0
0.10326191 2.6900935 0.53181726 0
0.10404851 2.691803 0.66115558 0
0.079632066 2.6859396 -0.04994233 0
0.082372092 2.6920972 0.4075 0
0.086456798 2.7012768 0.53290188 0
0.084358715 2.6965618 0.65958959 0
0.063167416 2.6975954 -0.050087988 0
0.062590562 2.6962538 0.40644884 0
0.065860473 2.7038586 0.5309425 0
0.063233756 2.6977496 0.65653461 0
0.047072314 2.7104175 -0.050286014 0
0.045060538 2.7055717 0.4068979 0
0.042789005 2.7000997 0.52680296 0
0.043026708 2.7006724 0.6543929 0
0.030234953 2.7217703 -0.050434347 0
0.027423462 2.7147493 0.40736708 0
0.025681218 2.7103989 0.52782667 0
0.026062509 2.7113509 0.65583485 0
0.0059771151 2.7141941 -0.049865726 0
0.010762892 2.7265952 0.40862447 0
0.0099637723 2.7245245 0.53028697 0
0.0084998822 2.7207313 0.65678865 0
-0.011165955 2.7246258 -0.049997266 0
-0.015222707 2.7137065 0.40320119 0
-0.0090544606 2.7303092 0.52984601 0
-0.015771249 2.71223 0.64993787 0
-0.025657455 2.7427649 -0.050428614 0
-0.030559877 2.7290423 0.40553781 0
-0.031975366 2.72508 0.52560067 0
-0.03409294 2.7191527 0.65003389 0
-0.04977683 2.7337909 -0.049841635 0
-0.054719843 2.7193847 0.40117508 0
-0.052699246 2.7252736 0.52338278 0
-0.053222753 2.723748 0.64921194 0
-0.068386562 2.7402439 -0.049848352 0
-0.071570106 2.7305706 0.4025107 0
-0.074475534 2.7217424 0.519961 0
-0.072238274 2.7285404 0.64858454 0
-0.085740812 2.7507064 -0.050013911 0
-0.091275461 2.7331474 0.40159491 0
-0.094623484 2.7225256 0.51815367 0
-0.092195369 2.7302289 0.64671636 0
-0.10314453 2.76142 -0.050196376 0
-0.10945264 2.7404919 0.40201923 0
-0.11148063 2.7337637 0.52007431 0
-0.11330602 2.7277076 0.64314359 0
-0.1219219 2.7678366 -0.050226696 0
-0.10880096 2.8134379 0.063920781 0
-0.10593907 2.8233843 0.18146749 0
-0.10284261 2.834146 0.30247888 0
-0.12922646 2.7424498 0.40107295 0
-0.12898727 2.7432811 0.52146602 0
-0.1309032 2.7366223 0.6446256 0
-0.14600135 2.7550054 -0.049553163 0
-0.13471399 2.7961781 0.063077323 0
-0.13521315 2.7943573 0.1776133 0
-0.13510151 2.7947645 0.29406756 0
-0.14901702 2.7440052 0.40008935 0
-0.15036194 2.7390993 0.51820326 0
-0.15218617 2.732445 0.64057714 0
-0.16188984 2.7717278 -0.049983393 0
-0.16003211 2.7788548 0.062246349 0
-0.15539308 2.7966526 0.17729138 0
-0.15937574 2.781373 0.29060349 0
-0.16859074 2.7460196 0.3992959 0
-0.1698675 2.7411213 0.51717681 0
-0.16883437 2.745085 0.64385247 0
-0.18205051 2.7724485 -0.049831182 0
-0.17683487 2.7935431 0.062606968 0
-0.18099777 2.7767065 0.17453639 0
-0.17876755 2.7857265 0.29050365 0
-0.18693705 2.7526851 0.39979205 0
-0.18849073 2.7464011 0.51735437 0
-0.19078042 2.7371407 0.63842785 0
-0.20028912 2.7809284 -0.04997322 0
-0.19763808 2.7922609 0.062388729 0
-0.19802289 2.790616 0.17556182 0
-0.19815992 2.7900302 0.29044023 0
-0.20868535 2.7450361 0.39659679 0
-0.21042012 2.7376204 0.51280749 0
-0.21307145 2.7262864 0.6318996 0
-0.2185701 2.7896953 -0.050133772 0
-0.21882819 2.7885258 0.062091019 0
-0.21792705 2.7926092 0.17529657 0
-0.21617277 2.8005583 0.29157177 0
-0.22909321 2.7420118 0.39469033 0
-0.2291667 2.741679 0.5127418 0
-0.23073702 2.7345634 0.6336202 0
-0.23915546 2.7879307 -0.049918309 0
-0.2356412 2.8048656 0.062535785 0
-0.23349173 2.8152235 0.17732291 0
-0.23514523 2.8072555 0.29203647 0
-0.24896701 2.7406502 0.39328909 0
-0.25033608 2.7340527 0.50878632 0
-0.2508266 2.731689 0.63071513 0
-0.26053882 2.7812815 -0.049535163 0
-0.25263572 2.8219316 0.063013591 0
-0.25279656 2.8211043 0.17753379 0
-0.2523059 2.8236282 0.29432166 0
-0.26797903 2.7430124 0.39292428 0
-0.26987669 2.7332516 0.50724417 0
-0.26834309 2.7411399 0.6331225 0
-0.2765263 2.8028843 -0.050187763 0
-0.26782361 2.8508644 0.063928656 0
-0.26652035 2.8580496 0.18116371 0
-0.2650094 2.8663797 0.30147636 0
-0.28646266 2.7481029 0.39332989 0
-0.29113796 2.7223268 0.50236571 0
-0.28998321 2.7286932 0.62640321 0
-0.29549822 2.809556 -0.050305706 0
-0.30824557 2.7338614 0.38879326 0
-0.30790961 2.7358563 0.50583845 0
-0.30843958 2.7327092 0.62672466 0
-0.31600526 2.8069165 -0.050095644 0
-0.32532167 2.7469971 0.39140514 0
-0.32775924 2.7313199 0.50329292 0
-0.3284058 2.7271614 0.62313569 0
-0.33628851 2.8048189 -0.049914822 0
-0.3464101 2.7338457 0.38729322 0
-0.34780112 2.7240918 0.49993145 0
-0.34682834 2.7309129 0.62354755 0
-0.35576171 2.8079963 -0.049933404 0
-0.36710006 2.7206345 0.383241 0
-0.36704484 2.7210598 0.49806795 0
-0.36603054 2.7288749 0.62163854 0
-0.37524232 2.8112497 -0.049963515 0
-0.38430867 2.7337613 0.38602728 0
-0.38614741 2.7180459 0.49629447 0
-0.38604227 2.7189443 0.61654311 0
-0.39495894 2.8124745 -0.049929574 0
-0.40475291 2.7185335 0.38159215 0
-0.40551212 2.7112515 0.49333927 0
-0.40382668 2.7274177 0.61922055 0
-0.41417712 2.8189156 -0.050091594 0
-0.42295644 2.7230134 0.38227719 0
-0.42356914 2.7163208 0.49443248 0
-0.4237549 2.7142913 0.61300755 0
-0.43351775 2.8252978 -0.050260011 0
-0.44243029 2.7122824 0.37912738 0
-0.44303071 2.7046688 0.49002019 0
-0.44244924 2.7120423 0.61142266 0
-0.45363766 2.8217549 -0.05008189 0
-0.46013173 2.7236619 0.3816964 0
-0.4610649 2.7095664 0.49121132 0
-0.46185586 2.6976192 0.60488522 0
-0.47295207 2.8309588 -0.050368685 0
-0.47955346 2.7077215 0.37734047 0
-0.48025075 2.6947043 0.48589396 0
-0.48037997 2.692292 0.60222495 0
-0.49288774 2.8300123 -0.050301328 0
-0.49795854 2.7061729 0.37672421 0
-0.49830917 2.6976099 0.48657599 0
-0.49863982 2.6895347 0.60072774 0
-0.51263899 2.8340051 -0.050419383 0
-0.51645225 2.6994514 0.37484694 0
-0.51700562 2.6799259 0.4804807 0
-0.51692301 2.6828403 0.59769565 0
-0.53261679 2.8291001 -0.050228596 0
-0.53472829 2.6949704 0.37360117 0
-0.53494292 2.6813347 0.48081779 0
-0.53479803 2.690541 0.60072011 0
-0.55244565 2.829752 -0.050245173 0
-0.55290967 2.6824102 0.37035295 0
-0.55294847 2.6700981 0.47702298 0
-0.55293036 2.6758437 0.5945642 0
-0.57222867 2.8239717 -0.050041039 0
-0.57090402 2.6836913 0.37069425 0
-0.570822 2.6750014 0.47867298 0
-0.5707168 2.6638637 0.58962709 0
-0.59183145 2.8164082 -0.049782045 0
-0.58855307 2.6676431 0.36667117 0
-0.5886479 2.6719468 0.47775015 0
-0.58838731 2.6601222 0.5881933 0
-0.61216199 2.835041 -0.050467573 0
-0.60633993 2.6669629 0.36662623 0
-0.60567534 2.6477783 0.46987295 0
-0.60592502 2.6549854 0.58627301 0
-0.63153994 2.8232019 -0.050073549 0
-0.6239059 2.6616428 0.3654533 0
-0.6233896 2.6507161 0.4710907 0
-0.62313795 2.6453905 0.58259517 0
-0.65058285 2.8103652 -0.049652271 0
-0.64044482 2.6410589 0.36043486 0
-0.64057928 2.6433053 0.46893457 0
-0.64004147 2.6343234 0.57839382 0
-0.64019227 2.6368415 0.69896942 0
-0.67140824 2.8261704 -0.050264429 0
-0.65757322 2.6354127 0.3592861 0
-0.65675062 2.6240711 0.46290469 0
-0.65748459 2.6341906 0.578816 0
-0.65683818 2.625278 0.69374633 0
-0.69074792 2.8194134 -0.050078221 0
-0.67237508 2.6037621 0.45657742 0
-0.67444968 2.6281123 0.57685935 0
-0.6739862 2.6226721 0.69312102 0
-0.70909435 2.8038261 -0.049583752 0
-0.68997896 2.6085601 0.45870095 0
-0.69115168 2.6205394 0.57436728 0
-0.69019508 2.6107676 0.68792874 0
-0.73099315 2.8234949 -0.05036325 0
-0.70740628 2.6102755 0.57083833 0
-0.70670897 2.6039722 0.68540376 0
-0.74951851 2.8113081 -0.050007965 0
-0.72186381 2.587178 0.56203532 0
-0.72388417 2.6035516 0.68619341 0
-0.7682628 2.8025625 -0.049784455 0
-0.73847228 2.5838211 0.67734277 0
-0.78839403 2.8041711 -0.049942777 0
-0.75510085 2.5807843 0.67701316 0
-0.8074913 2.7986765 -0.049853683 0
-0.82846522 2.8042593 -0.05017459 0
-0.84712356 2.7962751 -0.050012995 0
-0.86848658 2.8023129 -0.050370149 0
-0.8878606 2.7978415 -0.050354391 0
-0.90517175 2.7843308 -0.050016545 0
-0.92646492 2.7883768 -0.050330363 0
-0.94086587 2.7643697 -0.04962172 0
-0.96332347 2.7724171 -0.050101958 0
-0.98078156 2.7614033 -0.049887531 0
-0.99887985 2.7530873 -0.049780875 0
-1.0204115 2.7561526 -0.050107498 0
-1.0432264 2.7624402 -0.050566461 0
-1.0566787 2.7398441 -0.049950309 0
-1.0754058 2.7336175 -0.049957022 0
-1.0929319 2.7240715 -0.049846582 0
-1.1146439 2.7257905 -0.050174069 0
-1.130322 2.7115223 -0.049900349 0
-1.1485156 2.7039261 -0.049890056 0
-1.1693121 2.7025006 -0.050127722 0
-1.1836394 2.6858606 -0.049784008 0
-1.2054089 2.6862466 -0.050112572 0
-1.2208707 2.6725948 -0.049900543 0
-1.2363439 2.6593027 -0.049709193 0
-1.2553957 2.6534793 -0.049822375 0
-1.2773398 2.6530945 -0.05016426 0
-1.2976544 2.6491182 -0.050374407 0
-1.3120211 2.6339521 -0.050141037 0
-1.3251113 2.6168494 -0.049834032 0
-1.3448488 2.61163 -0.050022028 0
-1.3612535 2.600564 -0.049978644 0
-1.3764808 2.5876341 -0.04986544 0
-1.3921864 2.5756049 -0.049797431 0
-1.4073654 2.5628471 -0.049706239 0
-1.4286627 2.5593643 -0.050020579 0
-1.4407769 2.5420966 -0.049752422 0
-1.4577519 2.5320504 -0.04980389 0
-1.4781693 2.5266938 -0.050071873 0
-1.4924712 2.5127842 -0.049973357 0
-1.5082891 2.500972 -0.049976092 0
-1.5203364 2.4843347 -0.049769085 0
-1.5336411 2.469491 -0.049649019 0
-1.5505419 2.4591379 -0.04974319 0
-1.5670986 2.4482706 -0.049824208 0
-1.5796763 2.4327242 -0.04969478 0
-1.604422 2.4309855 -0.050231267 0
-1.6088456 2.4064131 -0.049685288 0
-1.6316373 2.402024 -0.050122518 0
-1.6461395 2.3885493 -0.050129548 0
-1.6626534 2.3771067 -0.050247565 0
-1.6754041 2.3618145 -0.050182283 0
-1.6895207 2.3479016 -0.050195221 0
-1.7049598 2.3352172 -0.050281506 0
-1.7116251 2.314388 -0.049949292 0
-1.7279253 2.3024971 -0.050095178 0
-1.7429045 2.2893121 -0.050184004 0
-1.7540058 2.2727401 -0.050097901 0
-1.7627968 2.2543261 -0.049915262 0
-1.7726401 2.2369249 -0.049793486 0
-1.2252285 1.7943034 0.51531941 0
-1.7882102 2.2241416 -0.04994322 0
-1.2312559 1.7852855 0.51477671 0
-1.7975881 2.2064672 -0.04982008 0
-1.2363218 1.7755564 0.51360571 0
-1.8097126 2.1909513 -0.049830526 0
-1.2390147 1.7641126 0.51077956 0
-1.8296272 2.1810975 -0.050193623 0
-1.2369115 1.7493211 0.50456637 0
-1.8384534 2.1630602 -0.050073598 0
-1.2322196 1.7330147 0.4966622 0
-1.8473673 2.1451821 -0.04996831 0
-1.2391294 1.7251264 0.49733675 0
-1.854332 2.1260798 -0.049789779 0
-1.2384504 1.7121007 0.49265423 0
-1.8735759 2.1151555 -0.050146852 0
-1.2377735 1.699312 0.48812824 0
-1.876645 2.0936379 -0.049822487 0
-1.2395798 1.6883289 0.48549747 0
-1.8923345 2.080194 -0.050041888 0
-1.237764 1.6752343 0.48045805 0
-1.9044062 2.0643899 -0.050115995 0
-1.238618 1.6639932 0.47741872 0
-1.9120036 2.045907 -0.050012805 0
-1.2468041 1.6571845 0.47953564 0
-1.9174832 2.0263021 -0.049832996 0
-1.2417217 1.6427393 0.47264805 0
-1.923882 2.007345 -0.049702 0
-1.9414123 1.9944419 -0.050032247 0
-1.9407883 1.9718566 -0.04963677 0
-1.9540032 1.9565382 -0.049808197 0
-1.974396 1.9445785 -0.05027131 0
-1.9769431 1.9238373 -0.050033215 0
-1.9881002 1.9072064 -0.05014465 0
-1.9853668 1.8843575 -0.049721632 0
-2.0062914 1.8719138 -0.050230224 0
-1.9947647 1.8457266 -0.049489461 0
-1.9925094 1.8237772 -0.049121201 0
-1.9964541 1.8044728 -0.049002267 0
-2.0075107 1.7878712 -0.049163703 0
-2.002485 1.7654572 -0.048723333 0
-2.0084839 1.7471119 -0.048711177 0
-1.9924097 1.721585 -0.047879007 0
-2.0074296 1.7063633 -0.048224922 0
-1.9981003 1.6836281 -0.04766963 0
-2.0058942 1.6661656 -0.047762521 0
-1.9916123 1.6426547 -0.047046725 0
-2.0015461 1.6258926 -0.047236867 0
-1.9964937 1.6053342 -0.046883482 0
-2.0020809 1.587482 -0.04693044 0
-2.0017145 1.5682987 -0.046767972 0
-1.9913479 1.547187 -0.046250351 0
-1.9978826 1.5296746 -0.046357974 0
-1.9976177 1.5108711 -0.046226785 0
-1.9964552 1.4920101 -0.046071962 0
-2.0039442 1.4745739 -0.046238448 0
-2.0007522 1.4555271 -0.046027552 0
-1.9866668 1.4352485 -0.045433626 0
-1.9914224 1.4175329 -0.045526724 0
-2.0034134 1.4004798 -0.045887336 0
-2.0110371 1.3827823 -0.04609872 0
-2.00476 1.3638804 -0.045820192 0
-2.001164 1.3453413 -0.04564631 0
-1.98826 1.326453 -0.045148168 0
-2.0044265 1.3090121 -0.045697343 0
-1.9973295 1.2905947 -0.045423396 0
-2.0144296 1.2726725 -0.046021707 0
-2.0009761 1.2543254 -0.045537271 0
-1.1411587 0.26436791 -0.050183162 0
-0.397066 0.26436988 0.42108646 0
-0.38930106 0.26436988 0.49339262 0
-1.1230841 0.24477917 -0.049542278 0
-0.40240163 0.25385606 0.42378923 0
-1.1450489 0.22463086 -0.050339911 0
-0.40653718 0.24323475 0.35351935 0
-0.41144001 0.24311125 0.42841232 0
-1.132688 0.20521377 -0.049920641 0
-0.51000422 0.22874828 0.10736715 0
-0.5175932 0.22846144 0.17747806 0
-1.2399564 0.20115954 0.43301266 0
-1.2326611 0.20143525 0.56039906 0
-1.2420813 0.20107922 0.69984943 0
-1.1392137 0.18513754 -0.050184976 0
-0.5104962 0.21683212 0.1074764 0
-0.52499008 0.21610145 0.17890902 0
-1.2335385 0.18038249 0.43161038 0
-1.239778 0.18006794 0.56307775 0
-1.2383729 0.18013878 0.69869751 0
-1.1400578 0.16522954 -0.050255317 0
-0.52072483 0.20427458 0.10865035 0
-0.50845623 0.20504804 0.17604479 0
-1.2360685 0.15917666 0.43256125 0
-1.239659 0.15895031 0.56343609 0
-1.1318244 0.14595577 -0.05000969 0
-0.51425022 0.19270366 0.10804224 0
-0.51544023 0.19261359 0.17745654 0
-1.2351915 0.13813129 0.43270957 0
-1.2408838 0.13770039 0.56433189 0
-1.1291189 0.12636425 -0.049970608 0
-0.50531209 0.18149158 0.10718337 0
-0.51063037 0.18102159 0.17676291 0
-1.2386802 0.11668206 0.43404415 0
-1.2398194 0.11658137 0.56455338 0
-1.1203991 0.10740521 -0.049724508 0
-0.50813013 0.16929159 0.10760853 0
-0.50357455 0.16975206 0.1756877 0
-1.2424592 0.095067732 0.43552402 0
-1.2232915 0.097005136 0.55969322 0
-1.12813 0.086745404 -0.050077733 0
-0.50998932 0.15709858 0.039866842 0
-0.51361239 0.15668622 0.10833906 0
-0.50887609 0.15722528 0.17687972 0
-1.2342116 0.074671812 0.43398768 0
-1.2463114 0.073294677 0.56815088 0
-1.1342102 0.066040255 -0.050381474 0
-0.51986164 0.14380932 0.040273406 0
-0.51390177 0.14456375 0.10852541 0
-0.50948131 0.14512333 0.17724855 0
-1.2410359 0.052517418 0.43639094 0
-1.2358103 0.053178925 0.56548071 0
-1.1134139 0.048862282 -0.049726333 0
-0.52110732 0.13143115 0.040375747 0
-0.51098454 0.13284229 0.1083807 0
-0.50654197 0.13346159 0.17700033 0
-1.2403779 0.031163219 0.43694276 0
-1.2517992 0.02957106 0.57178926 0
-1.1121114 0.029180396 -0.049781717 0
-0.5211643 0.11915904 0.040440984 0
-0.51454222 0.12016732 0.10895561 0
-0.51178193 0.12058761 0.17827053 0
-1.238273 0.0099708335 0.43719155 0
-1.230636 0.011133631 0.56570709 0
-1.1213934 0.0077075255 -0.050229173 0
-0.50266397 0.10990345 0.039840449 0
-0.51291615 0.10821009 0.10898444 0
-0.52390003 0.10639588 0.18083023 0
-1.236123 -0.01124243 0.43749815 0
-1.2508701 -0.013678233 0.57364976 0
-1.106703 -0.0098188324 -0.04981811 0
-0.51395911 0.095768608 0.040323265 0
-0.50869936 0.096705548 0.10874696 0
-0.51135409 0.096232645 0.17891024 0
-1.2500867 -0.035360258 0.44205043 0
-1.2391044 -0.033403914 0.57090193 0
-1.1095018 -0.030396324 -0.050049759 0
-0.50607526 0.084951259 0.040116593 0
-0.51201999 0.083814897 0.10934944 0
-0.52412683 0.081500612 0.18165797 0
-1.2392049 -0.055189621 0.4402388 0
-1.2324275 -0.053894114 0.56995523 0
-1.0967928 -0.047976505 -0.049726363 0
-0.5181039 0.070213847 0.040639929 0
-0.50877625 0.072118901 0.10925122 0
-0.50058216 0.07379245 0.17776185 0
-1.2336587 -0.075929739 0.43987685 0
-1.2486696 -0.078995533 0.57687598 0
-1.1092815 -0.070804156 -0.050330754 0
-0.50282544 0.061032984 0.040173799 0
-0.49847424 0.061978895 0.10839264 0
-0.51529574 0.058322076 0.18093394 0
-1.241238 -0.099490114 0.44300896 0
-1.2430953 -0.099893846 0.57649547 0
-1.0942193 -0.087718911 -0.049938001 0
-0.50706464 0.047686536 0.040425636 0
-0.50872505 0.047303621 0.10981241 0
-0.50591522 0.047951613 0.17969185 0
-1.2333667 -0.11980812 0.44218233 0
-1.2469286 -0.12293563 0.57941556 0
-1.0815569 -0.10493711 -0.049640048 0
-0.50608134 0.035429124 0.040492501 0
-0.5104993 0.034351531 0.11031926 0
-0.50423658 0.035879094 0.1798999 0
-1.2376486 -0.14300998 0.44461182 0
-1.2417798 -0.14401759 0.57936794 0
-1.0764281 -0.12387986 -0.04962682 0
-0.56001443 0.008991261 0.042589705 0
-0.55846685 0.0093894498 0.1159719 0
-0.55959475 0.0090992348 0.19075845 0
-1.2417766 -0.16642334 0.44708547 0
-1.2365353 -0.16507478 0.57937837 0
-1.0776165 -0.14452668 -0.049856011 0
-0.62672532 -0.022440951 0.045178972 0
-0.61310577 -0.018753242 0.12242155 0
-1.2355695 -0.18729486 0.3176747 0
-1.2407104 -0.18868686 0.4482725 0
-1.2412478 -0.18883236 0.58291203 0
-1.0755113 -0.16440834 -0.049973413 0
-0.69052589 -0.054946583 0.04768417 0
-0.69029963 -0.05488224 0.1314539 0
-1.2456527 -0.2127841 0.32065636 0
-1.2366155 -0.2102146 0.44873461 0
-1.2418625 -0.21170647 0.58514428 0
-1.0755827 -0.18502824 -0.05018165 0
-0.77314782 -0.094906874 0.050915152 0
-0.787027 -0.099042661 0.14276159 0
-1.240109 -0.23405479 0.32076877 0
-1.2447112 -0.23542617 0.4525159 0
-1.2454132 -0.23563538 0.58850396 0
-1.0603138 -0.201023 -0.04982673 0
-0.86793935 -0.14105062 0.054632712 0
-0.86863399 -0.14126717 0.15247412 0
-1.2346045 -0.25535771 0.32093954 0
-1.2426438 -0.25786403 0.45368072 0
-1.2290425 -0.25362381 0.58503926 0
-1.0556875 -0.22022317 -0.049877491 0
-0.98799765 -0.19818209 0.059335988 0
-0.98610914 -0.19756715 0.16634046 0
-1.2347106 -0.27851638 0.32222593 0
-1.2388289 -0.27985737 0.45445707 0
-1.2364227 -0.27907386 0.58994961 0
-1.0547872 -0.24072979 -0.050078046 0
-1.134799 -0.26790205 0.065094799 0
-1.1292912 -0.26603159 0.18326417 0
-1.2431177 -0.30468747 0.3251543 0
-1.2306113 -0.30044022 0.45412496 0
-1.0456939 -0.2584919 -0.049978998 0
-1.2962354 -0.34711048 0.20307021 0
-1.2294497 -0.32348785 0.32393575 0
-1.2388183 -0.32680157 0.45830619 0
-1.0524414 -0.28201136 -0.050490584 0
-1.2537796 -0.35609153 0.19910583 0
-1.243196 -0.35219744 0.32802507 0
-1.2337322 -0.34871528 0.45898309 0
-1.025647 -0.29309735 -0.049733918 0
-1.2531137 -0.38005844 0.19994345 0
-1.2523409 -0.37976298 0.33131537 0
-1.238855 -0.37460724 0.46252695 0
-1.0253975 -0.31414565 -0.04999838 0
-1.2575195 -0.40625277 0.20140646 0
-1.2386391 -0.39876094 0.33025637 0
-1.2350248 -0.3973268 0.46372035 0
-1.0081106 -0.32838896 -0.049616687 0
-1.2463439 -0.4264107 0.20110458 0
-1.2402719 -0.42391238 0.33222899 0
-1.2445618 -0.42567745 0.46868646 0
-1.0090547 -0.35011396 -0.049947407 0
-1.2487782 -0.452297 0.20242065 0
-1.2457724 -0.45101574 0.33503234 0
-1.2454188 -0.45086506 0.47137076 0
-1.0000638 -0.36771396 -0.049902946 0
-1.2489334 -0.47751877 0.20351452 0
-1.2440727 -0.47537407 0.33649915 0
-1.2400278 -0.47358945 0.47241583 0
-0.99510324 -0.38712212 -0.050025061 0
-1.2381158 -0.49801883 0.20335585 0
-1.235548 -0.49684706 0.33668202 0
-1.2483895 -0.50270718 0.47740379 0
-0.98709106 -0.40518966 -0.05003706 0
-1.2478318 -0.52816653 0.20566671 0
-1.2423295 -0.52557141 0.33997184 0
-1.2521785 -0.53021663 0.48123473 0
-0.97680676 -0.42216334 -0.049967919 0
-1.5043329 -0.67913687 0.082916975 0
-1.2372258 -0.54902112 0.20560768 0
-1.2413026 -0.55100703 0.34178779 0
-1.2440845 -0.5523622 0.48181492 0
-0.97214615 -0.44191352 -0.050131571 0
-1.447147 -0.68074679 0.081112675 0
-1.2366817 -0.57492357 0.20679012 0
-1.2390134 -0.576096 0.34342495 0
-1.233122 -0.57313371 0.481659 0
-0.95681357 -0.45626196 -0.049877062 0
-1.4030252 -0.68770391 0.079822779 0
-1.2474685 -0.60701942 0.20939143 0
-1.2516555 -0.60919112 0.34817025 0
-0.95294333 -0.47654 -0.050092183 0
-1.3494521 -0.68857986 0.078145072 0
-1.2366639 -0.62826443 0.20942804 0
-1.2345035 -0.62710911 0.34693924 0
-0.93474388 -0.48909846 -0.049735073 0
-1.2998149 -0.69027823 0.076616563 0
-1.2335726 -0.65377408 0.21044412 0
-1.2448993 -0.66001582 0.35141855 0
-0.92133868 -0.50409216 -0.049578678 0
-1.2666215 -0.70007497 0.075753011 0
-1.2282391 -0.67828912 0.21122994 0
-1.2415673 -0.6858542 0.35316882 0
-0.92060483 -0.52636641 -0.049952872 0
-1.2584018 -0.72376478 0.075920835 0
-1.2380797 -0.71188915 0.21394862 0
-1.2510874 -0.71949047 0.35768434 0
-0.91851509 -0.54813689 -0.050285064 0
-1.2551966 -0.75061291 0.076311216 0
-1.2448276 -0.74437708 0.21635301 0
-1.2441094 -0.74394518 0.35885099 0
-0.90646327 -0.56402338 -0.050213099 0
-1.2443981 -0.77309173 0.076400019 0
-1.2451799 -0.77357537 0.21801944 0
-1.2354475 -0.76755434 0.35973468 0
-0.89614642 -0.58095723 -0.050222397 0
-1.2461052 -0.80360562 0.077030621 0
-1.2358725 -0.79709548 0.21851553 0
-1.2402271 -0.7998659 0.36356196 0
-0.88431847 -0.59691441 -0.050176375 0
-1.2537636 -0.83854812 0.077936642 0
-1.2381999 -0.82836884 0.22054766 0
-1.2382996 -0.82843405 0.36606285 0
-0.86398721 -0.60712051 -0.049772777 0
-1.2439969 -0.86255282 0.078119636 0
-1.2406218 -0.86028415 0.22266008 0
-1.2397784 -0.85971731 0.369403 0
-0.85458326 -0.62453103 -0.049845323 0
-1.2437553 -0.89329749 0.078730568 0
-1.2443734 -0.89372438 0.22501689 0
-1.24569 -0.89463359 0.37382993 0
-0.84903955 -0.64474636 -0.050097037 0
-1.2387712 -0.92121118 0.079156257 0
-1.2379957 -0.92066103 0.22611541 0
-1.6083275 -1.183364 0.45727158 0
-0.83441603 -0.65857089 -0.049961213 0
-1.2389657 -0.95327371 0.079830065 0
-1.242498 -0.95584697 0.22871557 0
-1.5630603 -1.1893673 0.45127463 0
-0.83239233 -0.68170345 -0.050393563 0
-1.2332462 -0.98151189 0.080264501 0
-1.2409019 -0.98723775 0.23058109 0
-0.80525935 -0.68594676 -0.049712993 0
-1.2353199 -1.0161245 0.081069857 0
-1.2458775 -1.0242301 0.23340842 0
-0.80337429 -0.70947725 -0.050175644 0
-1.1576308 -0.98861629 0.078277528 0
-1.1566261 -0.98782462 0.22343494 0
-1.1537123 -0.98552865 0.37021756 0
-0.79020202 -0.72430491 -0.050138343 0
-1.1448621 -1.0110731 0.078421414 0
-1.1372427 -1.0049123 0.22295249 0
-1.1417016 -1.0085176 0.37111112 0
-0.7825824 -0.74370903 -0.050366852 0
-1.2358687 -1.1197603 0.08339376 0
-1.23068 -1.1154556 0.23824891 0
-1.3347728 -1.2018123 0.42013887 0
-0.76385081 -0.7538715 -0.050088268 0
-1.2388493 -1.1581401 0.084356733 0
-1.2370322 -1.1565934 0.24161582 0
-1.3232214 -1.2299486 0.42180842 0
-1.0295223 -0.97998303 0.49583042 0
-0.75021017 -0.76822203 -0.050053917 0
-1.2854271 -1.2354894 0.41729802 0
-0.98915982 -0.97683531 0.48750603 0
-0.74771285 -0.79252273 -0.050561808 0
-1.1967307 -1.1946092 0.084080257 0
-1.1973802 -1.1951907 0.24113367 0
-1.1930485 -1.1913117 0.39953893 0
-0.97573912 -0.99671572 0.48830071 0
-0.72292638 -0.79684323 -0.050009917 0
-0.92560124 -0.98298556 0.47647172 0
-0.70799565 -0.80991656 -0.049937475 0
-1.3964829 -1.4584121 0.095704198 0
-0.88596094 -0.97754437 0.46812063 0
-0.697402 -0.8271125 -0.050087541 0
-1.3635639 -1.4706002 0.095154114 0
-0.8595798 -0.98377031 0.46434659 0
-0.68569613 -0.84336025 -0.050194424 0
-1.3396639 -1.4911836 0.095058016 0
-0.84023535 -0.9964475 0.4630802 0
-0.66207814 -0.84761864 -0.049706794 0
-1.4284358 -1.6261374 0.10070783 0
-0.81599855 -1.0039816 0.46007591 0
-0.65992939 -0.87375134 -0.050322328 0
-1.2130001 -1.4499334 0.090835862 0
-0.64486849 -0.8867287 -0.050288688 0
-1.2042615 -1.4843816 0.091513842 0
-0.62702775 -0.89662951 -0.050115947 0
-1.194922 -1.5188876 0.092192225 0
-0.61069107 -0.90804213 -0.050028179 0
-1.1674876 -1.5337852 0.091931649 0
-0.60047805 -0.92642409 -0.05028053 0
-0.57889259 -0.93163866 -0.049920604 0
-0.56602162 -0.94703096 -0.050047923 0
-0.55135691 -0.96033889 -0.050085973 0
-0.53396201 -0.97020787 -0.049976144 0
-0.52031803 -0.98487204 -0.050092556 0
-0.49868542 -0.98892766 -0.049743716 0
-0.48289591 -1.0006433 -0.049747664 0
-0.47360939 -1.0215977 -0.050163809 0
-0.45533818 -1.0299789 -0.050037112 0
-0.43986011 -1.0423886 -0.050094321 0
-0.42470354 -1.055373 -0.050183866 0
-0.38118708 -0.9883787 0.50298989 0
-0.40605181 -1.0629494 -0.050052419 0
-0.35083079 -0.97554606 0.49394685 0
-0.38624722 -1.0684781 -0.049846064 0
-0.32971179 -0.97644812 0.49048615 0
-0.36855823 -1.0772721 -0.049787432 0
-0.31034881 -0.97978586 0.48809859 0
-0.35254663 -1.0888811 -0.049854655 0
-0.28816664 -0.97790986 0.48381716 0
-0.33775562 -1.1027595 -0.05002268 0
-0.27836734 -0.99735671 0.48781562 0
-0.32321137 -1.1173425 -0.050225835 0
-0.25456631 -0.99184138 0.48236772 0
-0.30090922 -1.11762 -0.049856875 0
-0.22472627 -0.97407383 0.47245461 0
-0.28301215 -1.1258945 -0.049822703 0
-0.20358224 -0.97156852 0.46845731 0
-0.26564944 -1.1351932 -0.049838632 0
-0.18341948 -0.97035867 0.46506599 0
-0.25090307 -1.1499392 -0.050079148 0
-0.17311193 -0.98895949 0.46910948 0
-0.23076899 -1.1535757 -0.04988772 0
-0.14791979 -0.97647053 0.46175784 0
-0.21444423 -1.1653099 -0.050024666 0
-0.12747325 -0.97312528 0.45790321 0
-0.19025232 -1.1593089 -0.049477793 0
-0.11382909 -0.98460883 0.45954835 0
-0.17724498 -1.1787951 -0.049933478 0
-0.10539289 -1.0087448 0.46581671 0
-0.16048326 -1.1899338 -0.050071318 0
-0.069765404 -0.96746212 0.34540504 0
