# .PCD v0.7 - Point Cloud Data file format
VERSION 0.7
FIELDS x y z intensity
SIZE 4 4 4 4
TYPE F F F F
COUNT 1 1 1 1
WIDTH 1364
HEIGHT 1
VIEWPOINT 0 0 0 1 0 0 0
POINTS 1364
DATA ascii
-0.35727471 0.34746075 0.47065675 0
-0.20006491 -0.27324355 -0.050008357 0
0.2497154 -2.1959634 0.1325051 0
-0.34893346 0.36313927 0.46393216 0
-0.18137954 -0.26651931 -0.049930982 0
0.29509422 -2.193614 0.13280252 0
-0.0030297425 -0.98785377 0.25422114 0
-0.0033963707 -0.98637104 0.42227474 0
-0.33808953 0.36729324 0.46318051 0
-0.16057362 -0.26813436 -0.050169699 0
0.3443189 -2.2051599 0.1336346 0
-0.32908407 0.37835795 0.45892361 0
-0.14197229 -0.26105905 -0.050097216 0
0.3910248 -2.2052712 0.13406917 0
-0.31702796 0.37749118 0.46090081 0
-0.12334604 -0.25424385 -0.050042823 0
-0.29926831 0.3571685 0.47309357 0
-0.10357792 -0.2513392 -0.050142761 0
-0.30133036 0.40474057 0.44996932 0
-0.086637206 -0.23921943 -0.049907457 0
-0.29116851 0.40966642 0.44911203 0
-0.065250643 -0.24112964 -0.050206486 0
-0.28747424 0.43411207 0.43803656 0
-0.048468806 -0.22895992 -0.049985521 0
-0.26259455 0.39510149 0.46050435 0
-0.028756062 -0.22544825 -0.050099786 0
-0.0097059393 -0.21991265 -0.050146937 0
0.0056639523 -0.20473945 -0.049834672 0
0.023777565 -0.19700205 -0.049814209 0
0.05281087 -0.26950347 0.064602427 0
0.026518663 -0.20384693 0.17480634 0
0.048244797 -0.20459878 -0.050395187 0
0.072815619 -0.26378608 0.064683095 0
0.031789683 -0.1649611 0.17115049 0
0.060535274 -0.18283069 -0.049850091 0
0.040151261 -0.13542342 0.06000777 0
0.045186602 -0.1471343 0.16994609 0
0.077164374 -0.1717509 -0.049725626 0
0.063535534 -0.1411227 0.060528792 0
0.06548401 -0.14550149 0.17065959 0
-0.18524809 0.41796875 0.38501558 0
0.094433032 -0.16226339 -0.049671218 0
0.15761687 -0.29957509 0.067067511 0
0.085456453 -0.14275539 0.17127568 0
0.11344548 -0.15652537 -0.049773276 0
0.097325109 -0.12262309 0.060433064 0
0.12402024 -0.1787647 0.1765372 0
-0.166418 0.43204588 0.38297963 0
-0.20081417 0.50438333 0.49846762 0
0.13199963 -0.14968371 -0.049841568 0
0.11776694 -0.1206981 0.060688727 0
0.14997341 -0.18628788 0.17847878 0
0.55351013 -1.0081072 0.46056178 0
-0.16200806 0.44907516 0.37742561 0
-0.19600321 0.51830769 0.49227369 0
0.14978369 -0.14120865 -0.049854249 0
0.13487948 -0.11179758 0.060677111 0
0.17662133 -0.19416857 0.18051511 0
0.5915888 -1.013042 0.46442387 0
-0.15431942 0.45889121 0.37520987 0
-0.18813883 0.52562851 0.49047068 0
0.16859908 -0.13468099 -0.049954444 0
0.1677735 -0.13310146 0.061890818 0
0.613648 -0.98615313 0.46193266 0
-0.13616173 0.4483906 0.38251612 0
-0.17845474 0.52930605 0.49115974 0
0.18568315 -0.12478448 -0.049928285 0
0.20818444 -0.1665448 0.063621834 0
0.64650697 -0.9800303 0.4637354 0
-0.12618102 0.45400631 0.38239953 0
-0.17365347 0.54211074 0.4857868 0
0.20526458 -0.11941779 -0.050095666 0
0.2243814 -0.15385139 0.063501738 0
0.68213838 -0.97837234 0.46655685 0
-0.11439643 0.45636201 0.38388529 0
-0.16011529 0.53871173 0.49140829 0
0.22239484 -0.10951997 -0.050088018 0
0.24597891 -0.15076745 0.063784324 0
0.72311217 -0.98525405 0.47126567 0
-0.077337958 0.41470039 0.40644577 0
-0.15466921 0.54994959 0.48718733 0
0.23752029 -0.09622062 -0.049948301 0
0.26954296 -0.15062535 0.064202107 0
0.75558788 -0.97639155 0.47282231 0
-0.058737345 0.40710652 0.41303018 0
-0.14879651 0.56011254 0.48372164 0
0.25421479 -0.08569587 -0.049931251 0
0.30069473 -0.16243589 0.065134317 0
0.79942161 -0.98585224 0.47834018 0
-0.057899363 0.42961603 0.40520605 0
-0.1343912 0.55590689 0.49024296 0
0.26803777 -0.07057894 -0.049729709 0
0.8423956 -0.99246621 0.48341343 0
-0.12870549 0.56622356 0.48679474 0
0.29465052 -0.07568372 -0.050391272 0
0.8858673 -0.9985342 0.48852628 0
-0.11229096 0.55952483 0.49535292 0
0.30427316 -0.054135207 -0.049933244 0
0.90963453 -0.97337317 0.48705575 0
0.017617246 0.38115025 0.43887675 0
-0.11238039 0.57855099 0.48586139 0
0.32166252 -0.04463375 -0.049995836 0
0.95337588 -0.97808385 0.49214259 0
0.028268656 0.38889909 0.4386571 0
-0.10419679 0.58463633 0.48555467 0
0.33865568 -0.034479741 -0.050040077 0
1.0008966 -0.98697639 0.49831319 0
0.046043359 0.3863827 0.44367936 0
-0.10093064 0.59777445 0.48022512 0
0.34793696 -0.013467437 -0.049617711 0
0.049004816 0.40513909 0.43803743 0
-0.095077284 0.60690296 0.47779924 0
0.3683376 -0.0081169661 -0.049889959 0
0.074684046 0.39233857 0.44856432 0
-0.089019753 0.61558151 0.47573572 0
0.38261023 0.0056976029 -0.049797978 0
1.1337729 -0.99207067 0.10638583 0
1.1294117 -0.98627782 0.30740577 0
0.096852981 0.38526875 0.45638835 0
-0.085734494 0.62779945 0.47108155 0
0.392131 0.025560612 -0.049440276 0
0.11039176 0.39014852 0.45818153 0
-0.07808385 0.63404769 0.47088695 0
0.42699119 0.013071293 -0.050558574 0
0.12374356 0.3954432 0.45986316 0
-0.067713447 0.63685572 0.47336689 0
0.43486735 0.034995314 -0.050124481 0
-0.063750394 0.64770657 0.46982214 0
0.44585344 0.052721616 -0.049885623 0
-0.051856197 0.64882594 0.47379667 0
0.46254918 0.063527815 -0.049975935 0
-0.046912886 0.65832222 0.47138944 0
0.47946176 0.074188463 -0.050084114 0
-0.045242168 0.67139083 0.46618423 0
0.49211821 0.089690797 -0.049971018 0
1.2082709 -0.70500529 0.10016333 0
-0.033706941 0.67318517 0.46993688 0
0.49861392 0.11174583 -0.049545743 0
1.2079844 -0.65576696 0.098857984 0
-0.031121889 0.6849004 0.46583843 0
0.52684599 0.11043739 -0.050268624 0
0.38256308 0.2626555 0.054780889 0
0.53282386 0.13275886 -0.049841501 0
0.39580283 0.2737177 0.054823298 0
0.84302968 -0.18636179 0.22192483 0
-0.011424937 0.69264865 0.47053978 0
0.54484612 0.14859462 -0.0497397 0
0.39345112 0.30046672 0.054083824 0
0.84785455 -0.15536869 0.21991485 0
-0.0046847849 0.69985741 0.47029725 0
0.5629378 0.15839708 -0.049952284 0
0.41516766 0.30294633 0.054572344 0
0.75139099 -0.025948292 0.2027611 0
0.73961073 -0.014424926 0.33322099 0
0.73683184 -0.011706477 0.46791449 0
0.0034030292 0.70573562 0.47125152 0
0.57529229 0.17388368 -0.049885392 0
0.42131558 0.32075608 0.054288454 0
0.8397916 -0.078411944 0.21351157 0
0.18649156 0.54474556 0.34802568 0
0.0067649693 0.71617979 0.46838221 0
0.58778018 0.18918598 -0.049835354 0
0.45891008 0.30904776 0.055552095 0
0.84200197 -0.047265057 0.21138936 0
0.19077207 0.55844212 0.34593797 0
0.015534184 0.72143048 0.47003287 0
0.60202259 0.20285368 -0.049879778 0
0.83381397 -0.0073541454 0.073051177 0
0.83390599 -0.0074375919 0.20785321 0
0.20072921 0.56678015 0.34650138 0
0.026058933 0.72518575 0.47312355 0
0.6243456 0.20942259 -0.050317056 0
0.83459169 0.02352416 0.072336443 0
0.83341223 0.024567002 0.20551914 0
0.84034294 0.01843893 0.34248984 0
0.21211447 0.573915 0.3477397 0
0.023248157 0.74090958 0.4656609 0
0.63493997 0.22651303 -0.050200701 0
0.83614022 0.053077456 0.071684174 0
0.85073394 0.040497538 0.20579551 0
0.84454042 0.045836445 0.33981046 0
0.22735412 0.57785386 0.35069728 0
0.030169388 0.74782801 0.46605453 0
0.64740282 0.24193013 -0.050182797 0
0.83873159 0.081158273 0.071104854 0
0.84227175 0.078183524 0.2024779 0
0.8469432 0.074258201 0.33681819 0
0.92762762 0.0064597079 0.50088292 0
0.26566342 0.56270254 0.36367053 0
0.26940414 0.55955923 0.45314187 0
0.045501374 0.74770278 0.47302711 0
0.65826732 0.25864422 -0.050100323 0
0.83624071 0.1128782 0.070313342 0
0.84140259 0.10865044 0.2003154 0
0.84102589 0.10895895 0.33200091 0
0.95170993 0.018305058 0.50368214 0
0.28795525 0.56194204 0.36954004 0
0.24997415 0.59304976 0.43809664 0
0.050785981 0.75619143 0.47222486 0
0.67116398 0.27366579 -0.050121162 0
0.84199506 0.13730705 0.069924727 0
0.83982211 0.13904142 0.19812971 0
0.84245294 0.13694155 0.32902792 0
0.98975402 0.019364471 0.51106 0
0.27163735 0.59257138 0.35891122 0
0.25030872 0.60959601 0.43389687 0
0.055689834 0.76494247 0.47122321 0
0.6725468 0.29766542 -0.04962964 0
0.84721047 0.16181231 0.069529504 0
0.83624107 0.17034435 0.1957453 0
0.84451193 0.16391122 0.3263092 0
0.25947556 0.61895162 0.43448064 0
0.058411859 0.77533859 0.46867532 0
0.6927107 0.30700201 -0.049997661 0
0.84834903 0.18906164 0.068969309 0
0.84268886 0.19335091 0.19478926 0
0.843198 0.19296503 0.32293031 0
0.26066414 0.63440007 0.43097582 0
0.072552823 0.77694786 0.4747462 0
0.7102657 0.31859076 -0.05025176 0
0.85168082 0.2142055 0.068526909 0
0.84075397 0.22227097 0.1927612 0
0.83886665 0.22366416 0.31898865 0
0.29208711 0.62726873 0.44316307 0
0.081002139 0.78308076 0.47658053 0
0.7190482 0.33671051 -0.050124288 0
0.85255772 0.24073398 0.06799455 0
0.84294218 0.24764633 0.19134554 0
0.83839554 0.25091469 0.31602618 0
0.084303997 0.79301184 0.47469541 0
0.70640093 0.36972398 -0.049074069 0
0.85147268 0.26818156 0.067395985 0
0.8447389 0.2728948 0.18993306 0
0.83171195 0.282013 0.31179801 0
0.83192962 0.28186071 0.43866783 0
0.097334765 0.79603755 0.47996038 0
0.7351591 0.37363338 -0.04983959 0
0.87958294 0.27523035 0.068078779 0
0.84450573 0.29913014 0.18831021 0
0.84171277 0.30103314 0.31133282 0
0.83752936 0.30388349 0.43665048 0
0.10880014 0.80040216 0.48408449 0
0.74419099 0.39127415 -0.049755864 0
0.9194482 0.27506679 0.069263265 0
0.83206886 0.33300519 0.18516997 0
0.8424744 0.32610559 0.30892426 0
0.84045798 0.32744265 0.4339174 0
0.11499818 0.8084715 0.48446551 0
0.76838082 0.39907014 -0.050326277 0
0.95329922 0.27978128 0.070182562 0
0.84179431 0.35171193 0.18494424 0
0.8367427 0.35497063 0.30520961 0
0.8455413 0.34929478 0.43195114 0
0.13185354 0.80968702 0.49243674 0
0.77128643 0.42069858 -0.049999312 0
0.99419314 0.28084677 0.071393967 0
0.83941895 0.37795222 0.1832151 0
0.83913177 0.37813234 0.30333087 0
0.83085221 0.38332695 0.42412829 0
0.12660052 0.82517487 0.48487779 0
0.78266186 0.436894 -0.05004048 0
1.035405 0.28272343 0.072609968 0
0.8272894 0.40967172 0.18031301 0
0.838054 0.40310544 0.30079597 0
0.83880132 0.40264958 0.42325929 0
0.14059962 0.82854503 0.4908866 0
0.79771847 0.45094448 -0.050242618 0
1.0776446 0.28499222 0.073860563 0
0.83918434 0.4263618 0.1804841 0
0.84718698 0.42161745 0.30048689 0
0.8376444 0.4272747 0.41976839 0
0.13484325 0.84392565 0.48326004 0
0.80602723 0.46904957 -0.050172608 0
0.84877211 0.44443065 0.18039401 0
0.84396583 0.44719881 0.29765755 0
0.83565241 0.45198697 0.41614848 0
0.14390911 0.85039747 0.48596564 0
0.8182109 0.48493445 -0.050270952 0
0.85008079 0.4671095 0.1793132 0
0.84748155 0.46856326 0.29630697 0
0.85160142 0.46625906 0.41788989 0
0.13365532 0.86780834 0.47558004 0
0.81887144 0.50715756 -0.049908683 0
0.85385722 0.48816419 0.17857656 0
0.83482689 0.49849558 0.29170263 0
0.84268826 0.49422765 0.41245422 0
0.8215732 0.52802032 -0.049642496 0
0.84966296 0.51322562 0.17690894 0
0.83772784 0.5195117 0.29037663 0
0.84127742 0.5176422 0.40931964 0
0.83847314 0.54142451 -0.04995776 0
0.84873873 0.53618175 0.17568482 0
0.84453839 0.53832692 0.28990456 0
0.84455687 0.53831744 0.40763363 0
0.84201294 0.5396167 0.52878302 0
0.85749823 0.55402851 -0.05036246 0
0.85224313 0.55662948 0.17503414 0
0.83867878 0.56334305 0.28693366 0
0.84402233 0.56069827 0.40494668 0
0.845285 0.56007332 0.52669829 0
0.85464531 0.57743996 -0.049904853 0
0.86783057 0.57111955 0.17585818 0
0.84348768 0.58278853 0.28617755 0
0.83996016 0.58447945 0.40135783 0
0.8353011 0.58671284 0.51983076 0
0.86121994 0.59612501 -0.049832586 0
0.90259796 0.57692701 0.17897142 0
0.83515948 0.60821623 0.28286278 0
0.83768088 0.60704637 0.39837575 0
0.84103304 0.6054911 0.5188905 0
0.8678475 0.61473387 -0.049772032 0
0.92492467 0.58912033 0.18061033 0
0.83552939 0.6292367 0.2813496 0
0.83311468 0.63032031 0.3948507 0
0.83887237 0.62773657 0.5151639 0
0.88514179 0.62867326 -0.050136041 0
0.95345443 0.5990454 0.18298498 0
0.83968168 0.64838982 0.28064036 0
0.8447414 0.64619535 0.39592969 0
0.84078115 0.64791292 0.51303524 0
0.88232619 0.65131706 -0.049726572 0
0.99882847 0.60252237 0.18732435 0
0.83756906 0.67006278 0.27875715 0
0.84529644 0.66682625 0.393996 0
0.85349637 0.66339189 0.51490748 0
0.89024204 0.66931611 -0.049743418 0
1.0319985 0.61203134 0.19023217 0
0.85107583 0.68514347 0.27997503 0
0.8405574 0.689394 0.39068696 0
0.83346587 0.69225979 0.50509018 0
0.90477985 0.68475175 -0.050022598 0
1.0778861 0.61732119 0.19460642 0
0.84208947 0.70917171 0.27687025 0
0.8366639 0.71128517 0.38770363 0
0.83609158 0.7115081 0.50354022 0
0.28076485 0.92782611 0.45606467 0
0.91758925 0.70104939 -0.050241988 0
0.85131794 0.7259078 0.27734703 0
0.84224683 0.72931039 0.3873919 0
0.84094375 0.72979915 0.50287503 0
0.28556958 0.93812042 0.45647091 0
0.91826767 0.72189176 -0.050007772 0
0.85584122 0.74441546 0.27696005 0
0.83461469 0.75207412 0.38355896 0
0.84234649 0.74928445 0.50107449 0
0.26286963 0.95836216 0.44231439 0
0.9192006 0.74247444 -0.049794134 0
0.8515026 0.76594102 0.27492779 0
0.83071834 0.77314562 0.38082901 0
0.83443063 0.77185881 0.49608716 0
0.84843844 0.76700318 0.62204885 0
0.26057562 0.97077829 0.4391607 0
0.92883331 0.76000804 -0.04991848 0
0.86055166 0.78271806 0.27550015 0
0.84568733 0.78766179 0.38325438 0
0.84415561 0.78817123 0.49740565 0
0.84167379 0.7889967 0.61646849 0
0.29275784 0.97156245 0.45428169 0
0.93357545 0.77919543 -0.049867369 0
0.85428804 0.80446166 0.27321184 0
0.83380109 0.81099015 0.37852797 0
0.85075146 0.80558866 0.4976981 0
0.85064477 0.80562264 0.61786902 0
0.30871984 0.97831595 0.46082959 0
0.93706542 0.79873019 -0.049778756 0
0.85095149 0.82498205 0.2715359 0
0.8373149 0.82913917 0.37800571 0
0.83197266 0.83076781 0.48924032 0
0.83995932 0.82833308 0.6108467 0
0.31024697 0.98981637 0.4598465 0
0.94747347 0.81618893 -0.049956866 0
0.87600321 0.83699685 0.2752471 0
0.84265512 0.84670585 0.37803155 0
0.84558886 0.84585172 0.49214867 0
0.84502882 0.84601474 0.6107676 0
0.33103535 0.99565941 0.46897992 0
0.9597699 0.8332572 -0.050212484 0
0.89445049 0.85138535 0.27773756 0
0.84784359 0.86432028 0.37807581 0
0.83895952 0.86678588 0.48812237 0
0.84287161 0.86570013 0.60767943 0
0.3248221 1.0094752 0.46409911 0
0.94786423 0.85690498 -0.04958155 0
0.93199021 0.86109596 0.28381491 0
0.84366065 0.88441646 0.37570563 0
0.84610456 0.88377118 0.48894003 0
0.84470445 0.88414085 0.6064164 0
0.3205798 1.0225185 0.46034461 0
0.9626171 0.87341678 -0.049944751 0
0.94811612 0.87705058 0.28591454 0
0.83424455 0.90558583 0.37203318 0
0.84420592 0.90308958 0.4867267 0
0.84536856 0.90279818 0.60475785 0
0.3221052 1.0339235 0.45966184 0
0.95615476 0.89522839 -0.049536075 0
0.9745869 0.89085531 0.28996262 0
0.83450621 0.92408955 0.37097934 0
0.83630115 0.92366368 0.48254967 0
0.84030777 0.9227131 0.60076821 0
0.33247486 1.0431967 0.46360305 0
0.98090333 0.90975684 -0.050280496 0
1.0199475 0.90101141 0.29752269 0
0.82886046 0.94381279 0.36844495 0
0.84782225 0.93956554 0.48509589 0
0.84038883 0.9412306 0.599078 0
0.34453192 1.0522971 0.46845832 0
0.98283595 0.92963481 -0.050197162 0
1.038108 0.91798335 0.300073 0
0.83939821 0.95987183 0.3702018 0
0.84104913 0.9595238 0.48148337 0
0.84803313 0.95805156 0.60069144 0
0.3535125 1.0622977 0.47178626 0
0.9726966 0.95184249 -0.049683839 0
1.0813639 0.93036062 0.30726984 0
0.85439354 0.97522932 0.37316623 0
0.84161383 0.97775567 0.48045364 0
0.82921773 0.98020619 0.591223 0
0.36448345 1.0720774 0.47618538 0
0.99443084 0.96780032 -0.050339025 0
0.86028177 0.99256873 0.37381122 0
0.83922583 0.99645633 0.47850513 0
0.8491233 0.99462891 0.59819704 0
0.38631836 1.0800782 0.48616457 0
0.9937945 0.98806983 -0.050189748 0
0.83876747 1.0146791 0.3674179 0
0.82601303 1.0168682 0.47298643 0
0.8415466 1.014202 0.59368736 0
0.39345375 1.0911137 0.48871115 0
0.98239034 1.0099449 -0.049660772 0
0.4425312 1.0956243 0.042145886 0
0.43727824 1.0964581 0.11423603 0
0.43009058 1.0975988 0.18632287 0
0.42943957 1.0977021 0.26092732 0
0.43110749 1.0974374 0.33898908 0
0.43484971 1.0968435 0.42197177 0
0.39294681 1.1034938 0.48745143 0
0.99898106 1.0273638 -0.050152734 0
0.40596464 1.1138395 0.040757369 0
0.4040949 1.1141121 0.11042481 0
0.39994302 1.1147176 0.18048289 0
0.40326819 1.1142327 0.25369126 0
0.40465745 1.1140301 0.32945848 0
0.41255495 1.1128784 0.41184658 0
0.4009321 1.1145734 0.49056691 0
0.99262828 1.048187 -0.04982546 0
0.39555874 1.1275896 0.040321641 0
0.42779639 1.1233023 0.11281129 0
0.43494079 1.1223522 0.18654427 0
0.4243919 1.1237551 0.25869367 0
0.43303469 1.1226057 0.33841527 0
0.42677906 1.1234376 0.41707599 0
0.41437516 1.1250871 0.4965024 0
0.99378401 1.0678785 -0.049778108 0
0.37739715 1.1419642 0.039613917 0
0.42410454 1.1363503 0.11224154 0
0.4245955 1.1362913 0.18437755 0
0.42345646 1.1364281 0.25805083 0
0.41411516 1.137551 0.3315461 0
0.42446926 1.1363064 0.41545805 0
1.0134784 1.0855477 -0.050405391 0
0.36629656 1.1550801 0.039167196 0
0.85493535 1.1025814 0.36840749 0
0.84455341 1.1036968 0.47510836 0
0.84700257 1.1034336 0.59082246 0
1.0092301 1.1059324 -0.050181303 0
0.36097959 1.1673335 0.038934339 0
0.85409898 1.1206261 0.3677322 0
0.83919483 1.1220378 0.47272098 0
0.83331639 1.1225946 0.58438665 0
1.0007167 1.1265113 -0.049813859 0
0.3427138 1.1804862 0.038243409 0
0.86034578 1.1380258 0.36892903 0
0.84252208 1.1394879 0.47331259 0
0.83897609 1.1397787 0.58609462 0
1.0084254 1.1457086 -0.050036557 0
0.37756237 1.189468 0.039459821 0
0.84510106 1.1570374 0.36468452 0
0.84409028 1.1571075 0.4733904 0
0.83212131 1.1579378 0.58269703 0
1.0102251 1.1654013 -0.05005645 0
0.85334963 1.1742997 0.36650777 0
0.83767563 1.1751888 0.47088197 0
0.83221132 1.1754987 0.58227682 0
1.0039679 1.1854665 -0.049797274 0
0.85203797 1.1921666 0.36594406 0
0.84183377 1.1926165 0.47197172 0
0.84473318 1.1924887 0.58710063 0
1.009835 1.2049702 -0.049980298 0
0.84846812 1.2100517 0.36486158 0
0.83677083 1.2104199 0.47006479 0
0.84530884 1.2101511 0.58706266 0
1.0182422 1.2245582 -0.050262745 0
0.84843463 1.2277658 0.36473924 0
0.83178478 1.2280804 0.4682585 0
0.83889121 1.2279462 0.58422077 0
1.0191694 1.2443957 -0.050286926 0
0.85036927 1.2454584 0.36517593 0
0.83225459 1.2455724 0.4683415 0
0.84566706 1.245488 0.58693463 0
1.0096247 1.2641873 -0.049946159 0
0.85117835 1.2631898 0.36538237 0
0.83805746 1.2631072 0.47027212 0
0.84043139 1.2631222 0.58476681 0
1.0060469 1.2838545 -0.049827278 0
0.85190648 1.2809429 0.36562514 0
0.84026819 1.2807231 0.47108138 0
0.82787496 1.280489 0.57965887 0
1.0056449 1.3035409 -0.04983063 0
0.83884102 1.2982883 0.3624042 0
0.83813483 1.2982662 0.4705188 0
0.83860618 1.298281 0.58428615 0
1.0155596 1.3236878 -0.050211512 0
0.84952456 1.3163658 0.36530218 0
0.84412175 1.3161275 0.47273365 0
0.83598953 1.315769 0.58347696 0
1.0036368 1.3428681 -0.049820863 0
0.85228258 1.3342829 0.36623511 0
0.84251934 1.3337291 0.47249603 0
0.82540208 1.3327582 0.57945299 0
1.0111111 1.3631209 -0.050132673 0
1.2950928 1.3828192 0.072295547 0
1.2931247 1.3826826 0.20535322 0
1.2875566 1.3822964 0.33953631 0
0.85059148 1.3519865 0.36608866 0
0.84340638 1.3514882 0.47316232 0
0.83378822 1.350821 0.58338886 0
1.0145427 1.3832659 -0.050309122 0
1.2453101 1.4021953 0.070575483 0
1.2471305 1.4023447 0.20058374 0
1.0105598 1.3829392 0.28973055 0
0.84581763 1.3694257 0.36521 0
0.85355622 1.3700604 0.47699592 0
0.84872478 1.3696641 0.59014452 0
1.0037889 1.4021955 -0.049986172 0
1.2444247 1.424988 0.070615634 0
1.25644 1.4261261 0.20180535 0
0.90160853 1.3925171 0.2703093 0
0.84751385 1.3873934 0.36604461 0
0.83848625 1.3865383 0.47248414 0
0.83601171 1.3863039 0.58550763 0
1.0077492 1.4224799 -0.050199673 0
0.64342064 1.3833369 0.049117818 0
0.63896006 1.3828577 0.13531268 0
0.63593835 1.382533 0.22245686 0
0.63623589 1.382565 0.31228915 0
0.8388049 1.4043287 0.47318485 0
0.84229487 1.4047037 0.58886206 0
1.0045471 1.4420583 -0.050165128 0
0.54969639 1.3873882 0.045809496 0
0.5478614 1.3871677 0.12563737 0
0.54283494 1.3865635 0.20585535 0
0.54654413 1.3870093 0.28968048 0
0.84340745 1.4226904 0.47539711 0
0.83957428 1.4222296 0.58856338 0
0.99387723 1.4606222 -0.049870439 0
0.54677922 1.4011639 0.045767941 0
0.54427928 1.4008315 0.12543984 0
0.54748613 1.401258 0.20702039 0
0.55318254 1.4020156 0.2918416 0
0.8379634 1.4398876 0.47431874 0
0.84430152 1.4407306 0.5914672 0
0.98887533 1.4798057 -0.049788132 0
0.54852873 1.4155929 0.045900926 0
0.55204684 1.4161059 0.12649328 0
0.55969423 1.4172211 0.20959854 0
0.54797822 1.4155126 0.29100189 0
0.83178514 1.4568982 0.4730643 0
0.84187013 1.4583689 0.59147841 0
0.99648947 1.5009358 -0.050170425 0
0.54508072 1.4292941 0.045852859 0
0.56071728 1.4317757 0.12766798 0
0.55210811 1.4304094 0.20860398 0
0.55620021 1.4310589 0.29367277 0
0.82764274 1.4741386 0.47256517 0
0.85442978 1.47839 0.59786725 0
0.97800237 1.5178627 -0.049617704 0
0.55502421 1.4452617 0.046296015 0
0.54897982 1.4442242 0.12664141 0
0.55644649 1.4455059 0.20981966 0
0.54495209 1.4435329 0.29135999 0
0.83814389 1.493857 0.4770813 0
0.83940166 1.4940729 0.59278625 0
0.98542863 1.5391808 -0.050012205 0
0.54389328 1.4576585 0.045982394 0
0.55134052 1.4590335 0.12717029 0
0.55378157 1.4594842 0.20978859 0
0.55347747 1.4594281 0.29421261 0
0.83961266 1.5122582 0.47863603 0
0.84124619 1.5125598 0.59488046 0
0.98562628 1.5593566 -0.050154377 0
0.55400711 1.4740318 0.046446804 0
0.54745573 1.4727367 0.12703672 0
0.55367643 1.4739665 0.21026035 0
0.54321104 1.4718976 0.29223716 0
0.83697969 1.5299714 0.47888207 0
0.84775585 1.5321016 0.59904701 0
0.98746914 1.579985 -0.050366208 0
0.55666012 1.4891695 0.046647754 0
0.55285567 1.4883674 0.12794147 0
0.54730803 1.487198 0.20961255 0
0.54797465 1.4873385 0.29421628 0
0.83964115 1.5488225 0.48100466 0
0.83959407 1.5488126 0.59712052 0
0.96777672 1.5959461 -0.049800247 0
0.55042678 1.5024643 0.046531118 0
0.560072 1.5046246 0.12907048 0
0.5515998 1.5027269 0.21096385 0
0.55697817 1.5039316 0.29736027 0
0.84321219 1.5680449 0.48352414 0
0.84564441 1.5685897 0.60130793 0
0.96556038 1.6156462 -0.04988119 0
0.5566389 1.5186294 0.046876919 0
0.54682988 1.5163022 0.12796573 0
0.55102247 1.5172969 0.21145287 0
0.54747719 1.5164558 0.29571629 0
0.84240776 1.5864283 0.48463771 0
0.83831495 1.5854572 0.59992021 0
0.96412843 1.6356051 -0.050000377 0
0.54814059 1.5313622 0.046689875 0
0.54659134 1.5309739 0.12831447 0
0.54966038 1.531743 0.2118316 0
0.55717772 1.5336268 0.29915887 0
0.83911186 1.604277 0.48497957 0
0.85005909 1.6070203 0.60675991 0
0.95498735 1.6536188 -0.049844567 0
0.55789727 1.5487804 0.047182176 0
0.55273479 1.5474174 0.12939425 0
0.55712956 1.5485778 0.21389274 0
0.54913992 1.5464684 0.29798922 0
0.8442381 1.6243792 0.48829779 0
0.84657365 1.6249957 0.60721684 0
0.93986446 1.6698616 -0.049474973 0
0.55642718 1.5634457 0.047268353 0
0.56009573 1.5644637 0.13063662 0
0.54831797 1.5611951 0.21295351 0
0.55099958 1.5619394 0.2994788 0
0.84000152 1.6421465 0.48848215 0
0.84014398 1.6421859 0.60650742 0
0.95292574 1.6940416 -0.050159603 0
0.54986089 1.5766928 0.047172207 0
0.54682201 1.575808 0.12959789 0
0.55710989 1.5788033 0.21534719 0
0.55426735 1.5779757 0.30139971 0
0.83703333 1.6603005 0.48918408 0
0.8419655 1.6617365 0.60944664 0
0.9481979 1.7133067 -0.050194256 0
0.84479624 1.6817846 0.38000116 0
0.83750325 1.6795614 0.49116391 0
0.84313148 1.6812772 0.61221981 0
0.93255275 1.7291218 -0.049829047 0
0.85101026 1.7031369 0.38313609 0
0.83429641 1.6978108 0.49195239 0
0.8454935 1.7013789 0.61563051 0
0.93640274 1.7511526 -0.050203275 0
0.8492617 1.7221701 0.38421544 0
0.83360869 1.716964 0.49370778 0
0.83893329 1.718735 0.61527276 0
0.93204588 1.7706214 -0.050279494 0
0.84520012 1.7405174 0.38473946 0
0.83850354 1.7381961 0.49752128 0
0.84267372 1.7396417 0.61952275 0
0.91490358 1.7855376 -0.049880091 0
0.84650308 1.7608584 0.38678342 0
0.82695419 1.753805 0.49563041 0
0.83805472 1.7578102 0.62022817 0
0.9161827 1.8070661 -0.050188355 0
0.83240396 1.7756406 0.38470981 0
0.83006102 1.7747618 0.49900809 0
0.83530813 1.7767301 0.62186593 0
0.89902371 1.8216492 -0.049802054 0
0.83206969 1.7955683 0.38644573 0
0.81521136 1.7890015 0.49608508 0
0.82606643 1.7932299 0.62073129 0
0.9038195 1.8448137 -0.050266229 0
0.84117013 1.8194968 0.39085558 0
0.83611935 1.8174556 0.5060423 0
0.82712227 1.8138199 0.62428194 0
0.88732272 1.8594187 -0.049919967 0
0.83926731 1.8392917 0.39232832 0
0.83472675 1.8373899 0.50813735 0
0.82336563 1.8326316 0.62580717 0
0.8756004 1.8758316 -0.049764741 0
0.8352384 1.8583262 0.39328697 0
0.82035476 1.851871 0.50562787 0
0.82474154 1.8537736 0.62976372 0
0.87637836 1.8977375 -0.050105855 0
0.83619303 1.8797042 0.39571154 0
0.82049793 1.872661 0.50846356 0
0.83147079 1.8775851 0.63629264 0
0.86939985 1.9163133 -0.050154522 0
0.83130699 1.8986394 0.39658308 0
0.82862526 1.8973953 0.51433986 0
0.82412905 1.8953091 0.63657373 0
0.85407048 1.9309276 -0.049882095 0
0.82696205 1.9179329 0.39768025 0
0.818937 1.914086 0.51379335 0
0.81758887 1.9134398 0.63732684 0
0.84837133 1.9500973 -0.049998891 0
0.81866199 1.935393 0.39772734 0
0.81954914 1.9358321 0.51714486 0
0.8164925 1.9343193 0.64070463 0
0.83860987 1.9672884 -0.04996324 0
0.81062657 1.9529969 0.39791328 0
0.8166768 1.9560869 0.51931816 0
0.80512649 1.9501879 0.63945168 0
0.82743484 1.9837101 -0.049879014 0
0.8120243 1.9755934 0.40088433 0
0.80801922 1.973484 0.51942629 0
0.80058175 1.9695667 0.64147562 0
0.81905526 2.0015852 -0.049916148 0
0.79378742 1.9878677 0.39825803 0
0.79135603 1.9865478 0.51658714 0
0.79046685 1.9860651 0.64100385 0
0.80486137 2.0162423 -0.049724881 0
0.79037827 2.0081418 0.39999276 0
0.7901836 2.0080328 0.51969546 0
0.79035944 2.0081313 0.64537442 0
0.8036409 2.0382192 -0.050074294 0
0.77992135 2.0245578 0.39974001 0
0.78157407 2.0255098 0.52007461 0
0.77629012 2.0224664 0.64323813 0
0.79590231 2.056622 -0.050167244 0
0.78338951 2.0492039 0.40367654 0
0.78998691 2.0531149 0.527125 0
0.77539569 2.0444648 0.64751387 0
0.78199917 2.0713449 -0.050012764 0
0.76385444 2.0602767 0.40086129 0
0.76813787 2.0628896 0.5225715 0
0.77155715 2.0649753 0.65052849 0
0.78464264 2.0963242 -0.050562222 0
0.76483113 2.0838945 0.40424344 0
0.76402515 2.0833888 0.52499604 0
0.76375669 2.0832205 0.65175635 0
0.76234502 2.1056793 -0.050069846 0
0.76041144 2.1044319 0.40610471 0
0.75633401 2.1018016 0.52612543 0
0.75841266 2.1031425 0.6543172 0
0.75070959 2.1216912 -0.0500351 0
0.74627489 2.1187508 0.40508589 0
0.75112623 2.1219676 0.52834773 0
0.74587196 2.1184835 0.65344846 0
0.73052496 2.1318521 -0.049639393 0
0.74618441 2.1425219 0.40845007 0
0.73761767 2.1366849 0.52734929 0
0.7410751 2.1390407 0.65654832 0
0.73594362 2.1595974 -0.050361477 0
0.72691482 2.1532779 0.40596411 0
0.736247 2.1598098 0.53134608 0
0.72717673 2.153461 0.6552062 0
0.70854908 2.1643851 -0.049662653 0
0.71367854 2.1680725 0.40539363 0
0.71068293 2.1659191 0.52558506 0
0.72105628 2.1733761 0.65791005 0
0.71055526 2.1902661 -0.050264604 0
0.71518534 2.1936839 0.40955183 0
0.71694261 2.1949809 0.53296143 0
0.70910662 2.1891968 0.65776789 0
0.6981383 2.205754 -0.050240785 0
0.69469184 2.2031424 0.40681013 0
0.70652241 2.2121074 0.53359795 0
0.69839996 2.2059524 0.65837306 0
0.6897977 2.2243955 -0.050409883 0
0.69187266 2.2260094 0.40979242 0
0.69307536 2.2269447 0.53305542 0
0.69608098 2.2292826 0.66349393 0
0.66497463 2.230037 -0.049838431 0
0.67943984 2.2415831 0.40976009 0
0.67531008 2.2382867 0.53074837 0
0.67772096 2.2402112 0.66032344 0
0.65433031 2.2467744 -0.049918637 0
0.67623037 2.2647111 0.41283351 0
0.67181426 2.2610941 0.53461492 0
0.67917329 2.2671216 0.66779661 0
0.63724762 2.2581797 -0.049709238 0
0.66386122 2.2805426 0.41298366 0
0.66620713 2.2825141 0.53772932 0
0.66151959 2.2785749 0.66519898 0
0.6295951 2.2775228 -0.049948774 0
0.71996385 2.3554211 0.066208266 0
0.71263415 2.3491027 0.18620107 0
0.71345788 2.349813 0.30859905 0
0.65784663 2.3018758 0.41534275 0
0.64200801 2.2882228 0.53282923 0
0.65143627 2.29635 0.66678965 0
0.61596304 2.2918086 -0.049917579 0
0.68419558 2.3521395 0.065169238 0
0.6762988 2.3451574 0.18298052 0
0.67924172 2.3477592 0.30370685 0
0.64244395 2.315223 0.41462198 0
0.63750738 2.310858 0.536654 0
0.6342048 2.3079379 0.66457051 0
0.60694641 2.3102548 -0.050117087 0
0.66540653 2.3632712 0.064934634 0
0.65752047 2.3561196 0.18226302 0
0.65153068 2.3506875 0.30033597 0
0.62232536 2.3242016 0.41232625 0
0.63301235 2.3338935 0.54065245 0
0.62858862 2.3298817 0.6688993 0
0.59484619 2.3260291 -0.050179865 0
0.64394039 2.3716917 0.064573534 0
0.64161772 2.3695314 0.18197924 0
0.63525289 2.3636115 0.29975045 0
0.614088 2.343926 0.41418242 0
0.62156433 2.3508797 0.54166996 0
0.61529487 2.3450484 0.66909313 0
0.5748952 2.3343806 -0.049865801 0
0.61931676 2.3767526 0.064057484 0
0.62711996 2.3841958 0.18192564 0
0.62164432 2.3789728 0.29986343 0
0.60299975 2.3611887 0.41514289 0
0.60671359 2.3647311 0.54123306 0
0.59867841 2.3570666 0.6674968 0
0.57169455 2.3588119 -0.05038961 0
0.60622317 2.3925879 0.064114034 0
0.60576469 2.3921394 0.18086804 0
0.60791415 2.3942418 0.2999956 0
0.58856279 2.3753123 0.41499722 0
0.57813638 2.3651133 0.53448313 0
0.58827025 2.3750262 0.66956353 0
0.54407722 2.3592772 -0.049700819 0
0.61263591 2.4280519 0.065167747 0
0.60262495 2.4180095 0.18258497 0
0.60469526 2.4200861 0.30286345 0
0.57669669 2.3919995 0.41584262 0
0.57199889 2.3872869 0.53822416 0
0.57460219 2.3898983 0.66987658 0
0.53431422 2.3774173 -0.049917839 0
0.59606344 2.4409411 0.06508062 0
0.59813756 2.4430749 0.18416642 0
0.60454482 2.4496665 0.30664629 0
0.55745775 2.401226 0.41407675 0
0.56168789 2.4055779 0.5401544 0
0.56123918 2.4051161 0.67048544 0
0.51930982 2.390255 -0.049877528 0
0.61658591 2.4928811 0.066925786 0
0.61733431 2.4936705 0.1895179 0
0.61089808 2.4868805 0.31228173 0
0.54554957 2.417938 0.41504887 0
0.54870969 2.4212718 0.54093117 0
0.54843754 2.4209847 0.67155492 0
0.50708038 2.4060578 -0.049991071 0
0.53360754 2.4347591 0.41610011 0
0.53920585 2.4408164 0.54351783 0
0.5348745 2.43613 0.67229569 0
0.49483702 2.4219694 -0.05011601 0
0.52032012 2.4502473 0.41673359 0
0.5220204 2.4521341 0.54244483 0
0.51940006 2.4492264 0.67198187 0
0.47977683 2.434813 -0.05010115 0
0.50397724 2.4623575 0.41627002 0
0.49633929 2.4536641 0.53714538 0
0.50428182 2.4627042 0.67198962 0
0.45482287 2.4360948 -0.049551912 0
0.4900094 2.4771748 0.4167904 0
0.48504695 2.4713812 0.53913599 0
0.48582336 2.4722877 0.6699788 0
0.44449326 2.4542923 -0.049809851 0
0.46956763 2.4843237 0.41481534 0
0.47077045 2.4857645 0.5397228 0
0.47053263 2.4854796 0.67006129 0
0.43587175 2.4748821 -0.050181296 0
0.45597574 2.4995863 0.41561437 0
0.45444617 2.4977067 0.53933406 0
0.46036896 2.5049846 0.67361623 0
0.42098197 2.4879947 -0.050213315 0
0.43837759 2.5099292 0.4148595 0
0.43751583 2.5088425 0.53869462 0
0.43905237 2.5107799 0.66995913 0
0.39283976 2.4839997 -0.04948166 0
0.42383823 2.5241137 0.41542247 0
0.41826448 2.5169008 0.53685749 0
0.41754016 2.5159636 0.66615856 0
0.38834742 2.5105662 -0.050138526 0
0.41100225 2.5406585 0.4167926 0
0.40528968 2.5330706 0.53851688 0
0.41229573 2.5423765 0.67353708 0
0.3665562 2.5143309 -0.04978241 0
0.39389768 2.5516164 0.41643396 0
0.39597633 2.554451 0.5423786 0
0.39532503 2.5535629 0.67306399 0
0.34611902 2.5195646 -0.049506027 0
0.37541243 2.5605855 0.41552287 0
0.37625638 2.5617673 0.54050416 0
0.3795791 2.5664203 0.6735546 0
0.33985177 2.5448432 -0.050114878 0
0.36163208 2.5761697 0.41674793 0
0.36473349 2.5806303 0.54342604 0
0.35605088 2.5681422 0.66852605 0
0.32104656 2.5523667 -0.049956597 0
0.3431032 2.5849586 0.41592294 0
0.34423849 2.5866361 0.54121661 0
0.3381916 2.5777011 0.66760689 0
0.30422804 2.5627096 -0.049930312 0
0.32538375 2.5948346 0.41550833 0
0.32715806 2.5975289 0.54107541 0
0.32237002 2.5902581 0.66829371 0
0.29248419 2.5809453 -0.0502479 0
0.30371413 2.5984745 0.41327551 0
0.30167213 2.5952871 0.53583109 0
0.30785128 2.6049325 0.6701144 0
0.27216563 2.5858476 -0.050008398 0
0.29017499 2.614754 0.41494182 0
0.28655043 2.6089363 0.53698289 0
0.2837632 2.6044626 0.66462278 0
0.25339791 2.5929902 -0.049874954 0
0.26844218 2.6178288 0.4127079 0
0.27380893 2.6266897 0.53979677 0
0.27174154 2.6232762 0.66865468 0
0.23995979 2.6090083 -0.050119996 0
0.24996187 2.6260011 0.41208088 0
0.24887688 2.6241579 0.53482103 0
0.24658056 2.6202564 0.66224039 0
0.22016884 2.61427 -0.049927913 0
0.23979802 2.6486006 0.41576695 0
0.23689742 2.6435275 0.53839517 0
0.23634203 2.6425562 0.66809934 0
0.20559968 2.6286645 -0.050120313 0
0.20956065 2.6357992 0.40913442 0
0.21763058 2.6503348 0.53722167 0
0.22098006 2.6563678 0.66995931 0
0.18671973 2.6353514 -0.0500063 0
0.19758035 2.6555076 0.41207919 0
0.19880404 2.6577787 0.53638875 0
0.19699784 2.6544266 0.66448909 0
0.16994728 2.6459036 -0.050058354 0
0.18114497 2.6673269 0.4127771 0
0.18352051 2.6718719 0.53814667 0
0.18345548 2.6717474 0.66819525 0
0.14822866 2.6467834 -0.049731433 0
0.16821702 2.6862271 0.41555515 0
0.16313232 2.6761932 0.53632081 0
0.15726312 2.6646113 0.66060519 0
0.13232209 2.6589835 -0.049867686 0
0.13634379 2.6671739 0.40757501 0
0.14293827 2.6806037 0.53463465 0
0.13974752 2.6741056 0.66088545 0
0.11547425 2.669435 -0.049941946 0
0.12209591 2.6833608 0.4097119 0
0.11624291 2.6710515 0.52790886 0
0.12344154 2.6861908 0.66245323 0
0.1009772 2.6851285 -0.050230134 0
0.10239085 2.6882005 0.40870002 0
0.10848948 2.7014539 0.53597778 0
0.10249963 2.688437 0.65962154 0
0.081139646 2.6893275 -0.050074715 0
0.081923567 2.6910892 0.40721855 0
0.08303269 2.6935818 0.53009975 0
0.084721528 2.697377 0.65995902 0
0.063028954 2.6972735 -0.050075475 0
0.061730467 2.6942534 0.40589333 0
0.068146132 2.7091744 0.53286755 0
0.065478526 2.7029703 0.65888751 0
0.044786356 2.704911 -0.050073154 0
0.044368349 2.7039042 0.40643728 0
0.048831187 2.7146544 0.5320459 0
0.042368673 2.6990874 0.65368229 0
0.029042086 2.7187915 -0.050319787 0
0.025477668 2.7098906 0.4060317 0
0.027379712 2.7146404 0.5293467 0
0.024843117 2.7083061 0.65447676 0
0.0087645268 2.721417 -0.050142128 0
0.0071213455 2.717159 0.40604395 0
0.008618555 2.7210388 0.52904391 0
0.0055371136 2.7130539 0.65338147 0
-0.0099903727 2.7277901 -0.050117783 0
-0.0069793253 2.7358949 0.40924025 0
-0.0079881931 2.7331793 0.53086466 0
-0.016026536 2.7115428 0.64963436 0
-0.028069297 2.7360139 -0.050172668 0
-0.02709184 2.7387497 0.40816781 0
-0.033980884 2.7194664 0.52361745 0
-0.033514537 2.7207718 0.65074575 0
-0.050955214 2.7303565 -0.049712006 0
-0.051674105 2.7282615 0.40356943 0
-0.052246012 2.7265944 0.52384734 0
-0.053621329 2.7225862 0.64870346 0
-0.068649657 2.7394445 -0.049818303 0
-0.071084894 2.7320449 0.40290672 0
-0.074597813 2.7213707 0.51983082 0
-0.074044056 2.7230535 0.64619291 0
-0.087307431 2.7457361 -0.049827859 0
-0.094779797 2.7220297 0.39862087 0
-0.09507791 2.7210839 0.51765078 0
-0.088567145 2.7417397 0.65171337 0
-0.10303176 2.7617941 -0.050210327 0
-0.11204431 2.7318935 0.39972803 0
-0.11392502 2.7256539 0.51725638 0
-0.11265618 2.7298634 0.64407587 0
-0.12384085 2.7611673 -0.049978934 0
-0.10675777 2.820539 0.064184576 0
-0.1069176 2.8199835 0.1810872 0
-0.10529096 2.8256369 0.30088204 0
-0.12747665 2.7485311 0.40268743 0
-0.13227434 2.7318568 0.51751101 0
-0.13037007 2.7384751 0.64542389 0
-0.13872625 2.7815428 -0.050535537 0
-0.13553961 2.7931666 0.06296584 0
-0.1338066 2.7994881 0.17818503 0
-0.13411267 2.7983716 0.29474208 0
-0.15020899 2.7396572 0.3989391 0
-0.15166669 2.73434 0.51656139 0
-0.14887072 2.7445388 0.64576918 0
-0.15871181 2.7839203 -0.05043323 0
-0.15608995 2.7939792 0.062804341 0
-0.1586249 2.7842536 0.17591435 0
-0.15797491 2.7867475 0.29160511 0
-0.16915812 2.7438428 0.39872196 0
-0.17005341 2.7404079 0.51693159 0
-0.16963784 2.7420025 0.64253354 0
-0.18044783 2.7789307 -0.050069567 0
-0.17592172 2.7972364 0.062742792 0
-0.18054242 2.778548 0.17474025 0
-0.17875297 2.7857854 0.29051462 0
-0.1896296 2.7417951 0.39693001 0
-0.18884335 2.7449751 0.51686561 0
-0.18946283 2.7424695 0.6407007 0
-0.19946821 2.7844374 -0.05010188 0
-0.19586672 2.7998331 0.062666364 0
-0.19802301 2.7906156 0.17556177 0
-0.20158435 2.7753913 0.28772888 0
-0.20916967 2.7429657 0.3960543 0
-0.21036659 2.7378492 0.51288569 0
-0.20980377 2.7402551 0.63783926 0
-0.21789633 2.7927485 -0.050245397 0
-0.21883433 2.7884982 0.062090002 0
-0.21964224 2.784837 0.17444122 0
-0.21759604 2.7941091 0.29038066 0
-0.23028807 2.7365975 0.39327571 0
-0.23361497 2.7215223 0.50587451 0
-0.23041011 2.7360446 0.63424826 0
-0.2387322 2.7899704 -0.049992677 0
-0.23617618 2.8022873 0.062441781 0
-0.23620938 2.8021276 0.17588553 0
-0.2367952 2.7993045 0.29057199 0
-0.24900423 2.7404709 0.39324239 0
-0.24979521 2.7366593 0.50967199 0
-0.24754746 2.7474909 0.63739705 0
-0.26029524 2.7825344 -0.04958073 0
-0.25352177 2.8173742 0.062847845 0
-0.25354311 2.8172646 0.1771134 0
-0.25542307 2.8075948 0.29137594 0
-0.26782513 2.743804 0.39313 0
-0.26924768 2.7364872 0.50834072 0
-0.26981235 2.7335825 0.62993497 0
-0.27617291 2.8048329 -0.050258458 0
-0.26520368 2.8653088 0.064452752 0
-0.26778832 2.851059 0.18040016 0
-0.26787236 2.8505957 0.29858327 0
-0.28872085 2.7356529 0.3901017 0
-0.28982753 2.7295516 0.5048086 0
-0.28918597 2.7330885 0.62825269 0
-0.29556859 2.8091383 -0.050290581 0
-0.30860659 2.7317176 0.38823861 0
-0.30977109 2.7248027 0.50210923 0
-0.30788425 2.736007 0.62810928 0
-0.31611779 2.8061926 -0.050069492 0
-0.32536602 2.746712 0.39133149 0
-0.32819641 2.7285082 0.50234622 0
-0.32869107 2.7253268 0.62236691 0
-0.33717099 2.798631 -0.049691673 0
-0.34596258 2.7369835 0.38810191 0
-0.34645054 2.733562 0.50311404 0
-0.34796131 2.7229686 0.62022501 0
-0.3544921 2.8177786 -0.050285574 0
-0.36610141 2.7283289 0.38522059 0
-0.36627725 2.726974 0.50005209 0
-0.3657589 2.730968 0.6225124 0
-0.37648186 2.8006556 -0.049582712 0
-0.38564047 2.7223785 0.38310337 0
-0.38595125 2.7197223 0.49685603 0
-0.38589847 2.7201734 0.61705548 0
-0.39460078 2.8159099 -0.050052892 0
-0.40406573 2.7251248 0.38328287 0
-0.40618575 2.7047904 0.49117804 0
-0.40419981 2.7238388 0.61773074 0
-0.4141359 2.819366 -0.05010774 0
-0.42287248 2.7239306 0.38251212 0
-0.42329389 2.7193272 0.49543691 0
-0.42416286 2.7098348 0.61115468 0
-0.43326107 2.828553 -0.050376579 0
-0.44192511 2.7186885 0.38076687 0
-0.44228652 2.7141058 0.49316961 0
-0.44277772 2.7078769 0.60969269 0
-0.45416695 2.8137596 -0.049795825 0
-0.46112111 2.7087176 0.37787527 0
-0.46142948 2.7040598 0.48937529 0
-0.46097752 2.7108865 0.61039042 0
-0.47347891 2.8211234 -0.050017044 0
-0.47894415 2.7190964 0.38024673 0
-0.48007104 2.6980591 0.4870117 0
-0.47982898 2.7025781 0.60648996 0
-0.49339533 2.8176155 -0.049858376 0
-0.49776849 2.7108142 0.3779093 0
-0.49841988 2.6949058 0.48567563 0
-0.49837294 2.6960523 0.60342854 0
-0.5127812 2.8289886 -0.050240219 0
-0.51640379 2.7011604 0.37528315 0
-0.51700354 2.6799994 0.48050514 0
-0.51666927 2.691793 0.60140377 0
-0.53276533 2.819664 -0.049891673 0
-0.53472084 2.6954439 0.37372199 0
-0.53506696 2.6734564 0.47819644 0
-0.53513694 2.6690125 0.59180546 0
-0.55246609 2.8232753 -0.050013956 0
-0.55291545 2.6805828 0.36988673 0
-0.55293137 2.6755269 0.47882912 0
-0.55292839 2.6764648 0.59482133 0
-0.57230866 2.8324444 -0.050343532 0
-0.57088524 2.6816995 0.37018606 0
-0.57085586 2.6785882 0.47986639 0
-0.57076216 2.6686645 0.5916149 0
-0.5917443 2.8124533 -0.049640819 0
-0.58846462 2.6636302 0.36564708 0
-0.58871752 2.6751053 0.47880125 0
-0.58849192 2.6648703 0.59015965 0
-0.61196446 2.8293371 -0.050263815 0
-0.60619473 2.6627712 0.36555615 0
-0.60573745 2.64957 0.47046944 0
-0.6058715 2.65344 0.58563274 0
-0.63160163 2.824508 -0.050120227 0
-0.62377959 2.6589696 0.36477056 0
-0.62346286 2.6522663 0.47160703 0
-0.62344003 2.6517835 0.58524507 0
-0.65052706 2.8094342 -0.049618974 0
-0.64087981 2.6483235 0.3622916 0
-0.63986903 2.6314437 0.46498117 0
-0.64009172 2.6351624 0.57874173 0
-0.64102966 2.6508265 0.70597905 0
-0.67126352 2.8241749 -0.050192997 0
-0.65784651 2.6391807 0.36024997 0
-0.65746212 2.6338813 0.46617708 0
-0.65730029 2.6316497 0.57776123 0
-0.65728706 2.6314673 0.69685125 0
-0.69069976 2.8188481 -0.050057966 0
-0.6739096 2.6217735 0.46259144 0
-0.67472219 2.6313109 0.57818848 0
-0.67424971 2.6257651 0.69467413 0
-0.71013993 2.8145065 -0.049966879 0
-0.69070244 2.6159501 0.46117139 0
-0.68887663 2.5972993 0.56469911 0
-0.68927521 2.6013708 0.68320465 0
-0.72873598 2.8030908 -0.049630351 0
-0.70737517 2.6099944 0.57072127 0
-0.70608568 2.5983377 0.68256742 0
-0.74840999 2.8023241 -0.049684789 0
-0.72211123 2.5891831 0.56287187 0
-0.72278798 2.5946674 0.68171459 0
-0.76812285 2.8015349 -0.04974743 0
-0.73908633 2.5883298 0.67961949 0
-0.78792971 2.8010554 -0.049830317 0
-0.75564033 2.5844042 0.67884433 0
-0.80898088 2.8078749 -0.050186362 0
-0.82671326 2.7942414 -0.049811509 0
-0.84644818 2.7926805 -0.049882419 0
-0.86706299 2.7952287 -0.050112177 0
-0.88535416 2.7861342 -0.049926948 0
-0.90715134 2.79304 -0.050335407 0
-0.92197394 2.7697093 -0.049644895 0
-0.94315928 2.7734015 -0.049954392 0
-0.96164548 2.7661417 -0.049870048 0
-0.98450583 2.7746606 -0.050379157 0
-1.0010358 2.7604065 -0.05005328 0
-1.018491 2.7499232 -0.049874775 0
-1.0354179 2.7382002 -0.04965727 0
-1.059311 2.7476764 -0.050245296 0
-1.0719863 2.7238519 -0.049587626 0
-1.093341 2.7251942 -0.049889248 0
-1.1111834 2.7166524 -0.049825214 0
-1.1256082 2.6995327 -0.04944041 0
-1.1487256 2.7044411 -0.049909908 0
-1.1698009 2.7036574 -0.050172556 0
-1.1813692 2.680671 -0.049581781 0
-1.2041833 2.6835384 -0.050006445 0
-1.2281795 2.6882186 -0.050516352 0
-1.2398071 2.6664693 -0.049993366 0
-1.259128 2.6609612 -0.050120872 0
-1.2732095 2.6450698 -0.049842041 0
-1.2911043 2.6367764 -0.04987558 0
-1.3114194 2.6328521 -0.050096273 0
-1.3257972 2.618067 -0.049883924 0
-1.3485783 2.6180584 -0.050287366 0
-1.3654549 2.6076005 -0.050271232 0
-1.3806404 2.5944052 -0.050149143 0
-1.3935517 2.5777659 -0.049888689 0
-1.4077516 2.5634415 -0.049731545 0
-1.4320277 2.5644045 -0.05023694 0
-1.4453347 2.5487411 -0.050040081 0
-1.4622154 2.5383849 -0.050080542 0
-1.4719654 2.5181208 -0.049694076 0
-1.486551 2.5048168 -0.049618974 0
-1.5051526 2.4968598 -0.049791448 0
-1.5258076 2.4913235 -0.050085958 0
-1.5328571 2.4685152 -0.049604326 0
-1.5512656 2.460016 -0.049783807 0
-1.5689754 2.4504898 -0.049927972 0
-1.589685 2.4442616 -0.050240073 0
-1.5968982 2.4225299 -0.049827192 0
-1.6124264 2.4103367 -0.049874935 0
-1.6242317 2.3941121 -0.049735617 0
-1.6490836 2.3916163 -0.050281331 0
-1.6564192 2.3707736 -0.049930293 0
-1.6709619 2.357414 -0.049959052 0
-1.6804711 2.33916 -0.049746018 0
-1.7040626 2.3343723 -0.050237503 0
-1.7110028 2.3138165 -0.049919128 0
-1.7233022 2.2983572 -0.049873628 0
-1.7453767 2.2914703 -0.050301168 0
-1.745645 2.2656243 -0.049705941 0
-1.7673751 2.2581246 -0.050127644 0
-1.7767379 2.2402384 -0.049981624 0
-1.2313864 1.7992824 0.52001572 0
-1.7832319 2.2202189 -0.049716942 0
-1.2350134 1.7882462 0.51761365 0
-1.8016561 2.2095904 -0.050003186 0
-1.2304342 1.7710363 0.50920367 0
-1.8074467 2.1892567 -0.049729507 0
-1.2326201 1.7593298 0.50604385 0
-1.8255936 2.178159 -0.050015457 0
-1.2378027 1.7499703 0.50522029 0
-1.8333722 2.1594555 -0.049851179 0
-1.2342595 1.7344618 0.49814543 0
-1.8635215 2.1563385 -0.050669197 0
-1.233637 1.7213333 0.49337819 0
-1.8623952 2.1314998 -0.050136637 0
-1.2347322 1.7096014 0.48999727 0
-1.8615875 2.1073143 -0.049635436 0
-1.2382365 1.6996148 0.48845634 0
-1.8719959 2.0906804 -0.049625769 0
-1.2382249 1.6874669 0.48454514 0
-1.8896592 2.0785389 -0.049929578 0
-1.2442677 1.6792579 0.48499349 0
-1.8989842 2.0611291 -0.049890108 0
-1.2404668 1.6651051 0.47869822 0
-1.9168979 2.0487671 -0.050215181 0
-1.2392007 1.6527412 0.47431296 0
-1.9174451 2.0262804 -0.049831428 0
-1.2398366 1.6416692 0.47136247 0
-1.9353261 2.0136514 -0.050168499 0
-1.2429938 1.6321279 0.47023451 0
-1.9449071 1.9963107 -0.050173733 0
-1.9462702 1.9747 -0.049857244 0
-1.9498084 1.954429 -0.049640574 0
-1.9626061 1.9388353 -0.049803108 0
-1.9782633 1.9244601 -0.050085329 0
-1.9791877 1.9031394 -0.049794901 0
-1.9892951 1.8860908 -0.04987492 0
-2.0020566 1.8701087 -0.050065875 0
-2.0002105 1.8479674 -0.049699698 0
-2.0047517 1.828635 -0.049591418 0
-1.9965805 1.8045211 -0.049007099 0
-1.9963379 1.7837603 -0.048738673 0
-2.0104308 1.7682676 -0.049024228 0
-1.9948666 1.7424874 -0.048197754 0
-1.9874883 1.7199825 -0.047694221 0
-2.0016546 1.7045629 -0.048008963 0
-1.9924302 1.6819385 -0.047458407 0
-1.9949344 1.6630495 -0.047355738 0
-2.0018911 1.6454378 -0.047426905 0
-2.0121317 1.6286162 -0.047627095 0
-2.0004394 1.6062965 -0.047028478 0
-2.0069025 1.588594 -0.047107089 0
-2.0082757 1.569725 -0.047007687 0
-1.9987696 1.5487027 -0.046520788 0
-1.9982879 1.5297521 -0.046372708 0
-1.9966747 1.5107031 -0.046192583 0
-1.9963157 1.491987 -0.04606691 0
-2.000077 1.473985 -0.046098795 0
-2.0002301 1.4554543 -0.04600874 0
-2.0036366 1.4373966 -0.046044305 0
-1.9999455 1.4185029 -0.045832973 0
-2.0006227 1.4001976 -0.045787193 0
-1.9964492 1.3814932 -0.045575883 0
-2.0038168 1.363809 -0.045786422 0
-1.9986705 1.3451841 -0.045557115 0
-2.0041902 1.327256 -0.045717608 0
-2.0036352 1.3089821 -0.045669071 0
-1.997203 1.2905916 -0.045418881 0
-1.9880099 1.2723398 -0.045078419 0
-1.9942279 1.2543254 -0.045296356 0
-1.1380267 0.26436791 -0.050071344 0
-0.38171452 0.2643699 0.41340551 0
-0.39222699 0.26436988 0.49512783 0
-1.1286128 0.24470954 -0.049739674 0
-0.40119654 0.25387123 0.42318621 0
-1.1453288 0.22462381 -0.050349906 0
-0.41047823 0.24313548 0.35515159 0
-0.41866726 0.24292919 0.43202955 0
-1.1339935 0.20516443 -0.049967285 0
-0.50735432 0.22884843 0.10708217 0
-0.50430751 0.22896358 0.1750803 0
-1.2454246 0.20095286 0.43440881 0
-1.2368021 0.20127875 0.56177771 0
-1.2397071 0.20116895 0.69886571 0
-1.1333389 0.1854337 -0.049974974 0
-0.51801014 0.21645333 0.10828495 0
-0.50757736 0.21697925 0.17576468 0
-1.2338068 0.18036896 0.43167895 0
-1.2461654 0.17974594 0.56520551 0
-1.2399455 0.18005951 0.69934946 0
-1.1364032 0.16545995 -0.050124586 0
-0.51285231 0.20477089 0.10780261 0
-0.51526707 0.20461866 0.17727555 0
-1.2443324 0.15865569 0.43467385 0
-1.234055 0.15930361 0.56156802 0
-1.1371624 0.1455517 -0.050200813 0
-0.51226455 0.19285397 0.10782823 0
-0.51081729 0.19296351 0.17662042 0
-1.2371325 0.13798437 0.43320623 0
-1.233387 0.13826787 0.56183064 0
-1.1388152 0.12550737 -0.050318126 0
-0.51394707 0.18072848 0.10811499 0
-0.51744062 0.18041976 0.17799591 0
-1.2421213 0.11637796 0.4349255 0
-1.2431791 0.11628448 0.5656755 0
-1.1210499 0.10733942 -0.049747862 0
-0.50938636 0.16916461 0.10774422 0
-0.50283241 0.16982706 0.17555317 0
-1.2523766 0.094065316 0.43806714 0
-1.2366556 0.095654331 0.56416208 0
-1.1273519 0.086833961 -0.050049774 0
-0.50632155 0.15751602 0.039735053 0
-0.50244504 0.15795723 0.10713116 0
-0.51178199 0.15689455 0.17740718 0
-1.2369281 0.074362628 0.43468523 0
-1.2450819 0.073434614 0.56773913 0
-1.1156077 0.068395101 -0.049712043 0
-0.51129311 0.14489399 0.039965056 0
-0.51707035 0.14416265 0.10886864 0
-0.51520723 0.1443985 0.17828947 0
-1.2414966 0.05245911 0.4365094 0
-1.2426609 0.052311737 0.56777805 0
-1.1293322 0.046643246 -0.050300129 0
-0.50685126 0.13341847 0.039861869 0
-0.51145339 0.13277693 0.10843157 0
-0.49978632 0.13440335 0.17577018 0
-1.238683 0.031399492 0.43650615 0
-1.2409786 0.03107949 0.56815451 0
-1.1279811 0.026764069 -0.050354809 0
-0.51796788 0.11964572 0.040325552 0
-0.51148081 0.12063346 0.1086228 0
-0.51464021 0.12015241 0.17879196 0
-1.2306015 0.011138876 0.43521178 0
-1.2374812 0.010091384 0.56801069 0
-1.1109099 0.0094390707 -0.049849827 0
-0.51019192 0.10866005 0.040112846 0
-0.50355667 0.109756 0.10796496 0
-0.51027954 0.10864558 0.17834051 0
-1.2439641 -0.012537549 0.43952575 0
-1.2295504 -0.010156821 0.56646067 0
-1.1112926 -0.0106364 -0.049984545 0
-0.51427978 0.095711477 0.040334895 0
-0.51196587 0.096123673 0.10910353 0
-0.51332361 0.095881812 0.17927104 0
-1.2383566 -0.033270728 0.43901059 0
-1.2311678 -0.031990152 0.5682199 0
-1.1197324 -0.032351952 -0.050421618 0
-0.50840741 0.084505461 0.040201362 0
-0.51029861 0.084143944 0.10916109 0
-0.51308399 0.083611511 0.17963034 0
-1.2402077 -0.055381309 0.44049928 0
-1.2496322 -0.05718286 0.57578278 0
-1.1004556 -0.048724603 -0.049859829 0
-0.5102753 0.071812741 0.040354669 0
-0.51388806 0.071074881 0.10981192 0
