# .PCD v0.7 - Point Cloud Data file format
VERSION 0.7
FIELDS x y z intensity
SIZE 4 4 4 4
TYPE F F F F
COUNT 1 1 1 1
WIDTH 1360
HEIGHT 1
VIEWPOINT 0 0 0 1 0 0 0
POINTS 1360
DATA ascii
-1.11069 0.37858891 0.042981949 0
-1.1115129 0.37728655 0.11748993 0
-1.1126444 0.37549549 0.19347797 0
-1.2660091 0.13275075 0.34447452 0
-1.2373863 0.17805481 0.42954493 0
-1.2451881 0.16570616 0.53914684 0
-1.2329795 0.18502975 0.638843 0
-1.3759004 -0.07804621 -0.049825851 0
-1.0933158 0.38195318 0.042552002 0
-1.094355 0.38026172 0.11624347 0
-1.0909054 0.38587701 0.18981561 0
-1.2560954 0.11697578 0.34655309 0
-1.2444061 0.13600397 0.44265422 0
-1.241382 0.14092684 0.54702151 0
-1.2462564 0.13299215 0.66445476 0
-1.3624071 -0.093852885 -0.050058976 0
-1.0778068 0.38278157 0.042239852 0
-1.0678469 0.39946193 0.11300262 0
-1.0761968 0.38547784 0.18850291 0
-1.2556641 0.084914915 0.35349271 0
-1.2359855 0.11787152 0.44636288 0
-1.2402793 0.11068057 0.55749667 0
-1.2397896 0.11150061 0.67197621 0
-1.3452221 -0.10363031 -0.05004859 0
-1.0601352 0.38777202 0.041766275 0
-1.0622158 0.38418579 0.11411048 0
-1.0656103 0.3783347 0.18864466 0
-1.2528603 0.055573102 0.35958144 0
-1.2408305 0.076308601 0.4590975 0
-1.241014 0.075992458 0.57002848 0
-1.2361435 0.084387772 0.68274188 0
-1.3257413 -0.1093247 -0.04987986 0
-1.0491208 0.38162398 0.041761637 0
-1.0502002 0.37970805 0.11388729 0
-1.0539497 0.37305337 0.18842769 0
-1.2503747 0.024436707 0.36616302 0
-1.2434427 0.036739703 0.47095728 0
-1.2387947 0.044988986 0.58071619 0
-1.3115537 -0.12445451 -0.050106261 0
-1.0344987 0.38207406 0.041494198 0
-1.034726 0.38165838 0.11289681 0
-1.0355089 0.38022709 0.18568219 0
-1.2463048 -0.0051626018 0.37226158 0
-1.2366533 0.012482757 0.47691673 0
-1.2420977 0.0025289007 0.5967505 0
-1.2927186 -0.13117516 -0.049998518 0
-1.0194508 0.38372457 0.041187484 0
-1.0259787 0.3714245 0.11341914 0
-1.0265876 0.37027723 0.18649875 0
-1.2401226 -0.032071833 0.37755743 0
-1.2434256 -0.03829563 0.49285796 0
-1.2369112 -0.02602089 0.60613829 0
-1.2777098 -0.14517057 -0.050193131 0
-1.008176 0.37851292 0.041165922 0
-1.0082365 0.3783952 0.11187195 0
-1.0101665 0.37464523 0.18442872 0
-1.2412273 -0.07428778 0.38723359 0
-1.2368699 -0.065821655 0.49996379 0
-1.2377777 -0.067585476 0.62155634 0
-1.2575275 -0.14910972 -0.049992874 0
-0.98990256 0.38735968 0.040589288 0
-0.99260753 0.38193744 0.11077312 0
-0.99393559 0.37927532 0.18236065 0
-1.2439251 -0.12184299 0.39836752 0
-1.2348292 -0.10360969 0.51087123 0
-1.2431915 -0.1203723 0.64206535 0
-1.2386875 -0.15550935 -0.049901497 0
-0.97873616 0.38242984 0.040571563 0
-0.976219 0.38763875 0.10944681 0
-0.97846639 0.3829881 0.18052992 0
-1.243446 -0.1653564 0.40827897 0
-1.2432477 -0.1649462 0.53042334 0
-1.2175802 -0.15691745 -0.049623296 0
-0.96465331 0.38375932 0.040312789 0
-0.95832419 0.39728892 0.10768434 0
-0.96397215 0.38521534 0.17904462 0
-1.239772 -0.20435631 0.41686261 0
-1.2410796 -0.20715153 0.54279476 0
-1.205775 -0.1784128 -0.050144281 0
-0.95159429 0.38326442 0.040133946 0
-0.95517397 0.37535417 0.10968433 0
-0.95384496 0.37829101 0.17941561 0
-1.2382287 -0.25012743 0.42730674 0
-1.2397422 -0.25347173 0.5566085 0
-1.1848195 -0.17991519 -0.049889129 0
-0.93859524 0.38294238 0.03995578 0
-0.94210446 0.37492049 0.10915588 0
-0.93566221 0.38964719 0.17621121 0
-1.2398846 -0.30579162 0.44045386 0
-1.2364216 -0.29787552 0.56965661 0
-1.1718737 -0.19991994 -0.050362684 0
-0.92941338 0.37390435 0.040122725 0
-0.92742634 0.37860709 0.10816878 0
-0.9259814 0.38202673 0.17678414 0
-1.2402089 -0.36164701 0.45357844 0
-1.1446838 -0.18588603 -0.049527753 0
-0.91410434 0.37957537 0.039726175 0
-0.91078556 0.38771415 0.10657914 0
-0.91463715 0.37826878 0.17662567 0
-1.2401445 -0.41998899 0.46731979 0
-1.1292502 -0.20015299 -0.049795769 0
-0.90287048 0.37564051 0.039707489 0
-0.90199435 0.37786889 0.10721017 0
-0.90245402 0.37669969 0.17607154 0
-1.2411892 -0.48486853 0.48278573 0
-1.1125125 -0.21151912 -0.049959205 0
-0.88695973 0.38408744 0.039221626 0
-0.88710254 0.38371038 0.10604826 0
-0.88956553 0.3772065 0.17514938 0
-1.2351162 -0.53527284 0.4942255 0
-1.0954459 -0.22232807 -0.050108753 0
-0.87441194 0.38430035 0.039058488 0
-0.87186491 0.39129078 0.10471427 0
-0.87316167 0.38773179 0.17233965 0
-1.0778792 -0.23203802 -0.050224215 0
-0.86410987 0.37844253 0.039131697 0
-0.86510354 0.37560481 0.10605734 0
-0.86453104 0.37723988 0.17359793 0
-1.0571386 -0.23256934 -0.050001841 0
-0.84921479 0.38608283 0.038701102 0
-0.85068071 0.3817212 0.10493253 0
-0.84747976 0.39124513 0.17021073 0
-1.0391037 -0.24099898 -0.050086435 0
-0.83749872 0.38483906 0.038612522 0
-0.83854884 0.3815791 0.10453945 0
-0.83779275 0.38392627 0.17091841 0
-1.0177511 -0.23888016 -0.049785111 0
-0.82452196 0.38789034 0.03836935 0
-0.8261916 0.38247454 0.10404842 0
-0.82490367 0.38665229 0.16975069 0
-1.0002143 -0.2489748 -0.049949493 0
-0.81516737 0.37924528 0.038568478 0
-0.81600183 0.37641245 0.10435617 0
-0.81422478 0.38244545 0.16992131 0
-0.98018044 -0.25062048 -0.049808186 0
-0.80230486 0.38256145 0.038327724 0
-0.80395639 0.37668246 0.10397033 0
-0.80145049 0.38560271 0.16873705 0
-0.96570057 -0.27266407 -0.050430499 0
-0.79162687 0.37835801 0.038371664 0
-0.78955942 0.38609004 0.16808529 0
-0.94609916 -0.27633548 -0.05038083 0
-0.77934474 0.38033813 0.038192656 0
-0.77894348 0.38191825 0.16833045 0
-0.92375398 -0.26846552 -0.049916591 0
-0.7677595 0.3799538 0.10264873 0
-0.76740539 0.38142574 0.16791722 0
-0.90595961 -0.27915382 -0.05014345 0
-0.75583965 0.38130689 0.16746296 0
-0.88447875 -0.27340221 -0.049777661 0
-0.7461319 0.37280416 0.16858311 0
-0.86595011 -0.2810477 -0.049910519 0
-0.73234129 0.38381529 0.1661333 0
-0.84813899 -0.29303646 -0.050209317 0
-0.72235274 0.37643373 0.16709632 0
-0.82718384 -0.28828919 -0.049909033 0
-0.80621856 -0.28217387 -0.049569435 0
-0.78747106 -0.28933513 -0.049719244 0
-0.77009904 -0.30740213 -0.050270248 0
-0.75057775 -0.31124961 -0.050316766 0
-0.73024708 -0.30810773 -0.050121009 0
-0.70973873 -0.30176532 -0.049819872 0
-0.68966353 -0.29804194 -0.049622156 0
-0.67082548 -0.30949211 -0.049976811 0
-0.65103823 -0.30932772 -0.049924288 0
-0.63198334 -0.32394278 -0.050408937 0
-0.61185545 -0.31754744 -0.050151408 0
-0.59178239 -0.30553818 -0.049702525 0
-0.57224888 -0.31746757 -0.0501174 0
-0.55248076 -0.30997789 -0.049847782 0
-0.53272921 -0.31331789 -0.049973685 0
-0.51295704 -0.31414056 -0.050018601 0
-0.49340618 -0.30870748 -0.04984891 0
-0.47333694 -0.31513107 -0.050111812 0
-0.45343304 -0.31620252 -0.050192475 0
-0.49569541 0.32216907 0.039351899 0
-0.43379763 -0.31310582 -0.050132915 0
-0.48403573 0.32393777 0.039319031 0
-0.41452065 -0.30651999 -0.049957063 0
-0.47487578 0.35277855 0.038320836 0
-0.39490399 -0.30435848 -0.049948499 0
-0.4625046 0.34404606 0.038674153 0
-0.37452167 -0.30876577 -0.050184906 0
-0.44702062 0.31086916 0.039912235 0
-0.44200107 0.267968 0.11272582 0
-0.44170609 0.2654469 0.18555881 0
-0.44193673 0.26741821 0.25950825 0
-0.44186413 0.26679778 0.3367846 0
-0.44289693 0.27562493 0.4139798 0
-0.35613012 -0.29651439 -0.049831208 0
-0.43534508 0.31383586 0.039858162 0
-0.42937216 0.26781446 0.11290842 0
-0.42995763 0.27232558 0.18458705 0
-0.42778295 0.2555697 0.26295072 0
-0.42897725 0.2647717 0.33797863 0
-0.42987242 0.27166897 0.41626582 0
-0.42987967 0.2717247 0.50175607 0
-0.33440349 -0.30939364 -0.050391495 0
-0.4200778 0.29136014 0.040726807 0
-0.42141587 0.30074275 0.10951733 0
-0.41960317 0.28803194 0.18203229 0
-0.41902262 0.28396106 0.25607491 0
-0.41994554 0.29043263 0.32992482 0
-0.42054763 0.29465449 0.40735686 0
-0.41950724 0.2873593 0.49470523 0
-0.31813982 -0.28454483 -0.049599625 0
-0.40581891 0.27937025 0.041225236 0
-0.40587014 0.27969974 0.11200043 0
-0.40495953 0.27384311 0.18495263 0
-0.40593773 0.28013444 0.25753269 0
-0.40617257 0.28164488 0.33349207 0
-0.40592986 0.28008384 0.41421604 0
-0.40984607 0.30527121 0.48655349 0
-0.2957868 -0.29919934 -0.050243668 0
-0.39141077 0.26862299 0.041686229 0
-0.39084968 0.26529109 0.11378708 0
-0.39100707 0.26622576 0.18671103 0
-0.39212433 0.27286023 0.25992814 0
-0.3908276 0.26516014 0.33972213 0
-0.38938871 0.25661594 0.42490265 0
-0.39848256 0.31061578 0.4848226 0
-0.27646008 -0.29460633 -0.050201006 0
-0.06055332 -1.4849522 0.10539129 0
-0.38597271 0.30916297 0.48661694 0
-0.2598708 -0.27607453 -0.049660131 0
-0.019355992 -1.5131772 0.10665325 0
-0.37487134 0.31543785 0.48455703 0
-0.23610927 -0.29396677 -0.05045354 0
0.014908574 -1.5035861 0.10655855 0
-0.36835414 0.34330249 0.47153068 0
-0.21888839 -0.27961004 -0.050081044 0
0.04620596 -1.4808333 0.10599817 0
-0.35783243 0.34998798 0.46936184 0
-0.19758771 -0.28383315 -0.050396621 0
0.086733662 -1.4992495 0.10696001 0
-0.34849602 0.36126935 0.46489304 0
-0.18226005 -0.26295805 -0.049800016 0
0.29516557 -2.1939027 0.13281313 0
-0.0037444022 -0.98496342 0.25390118 0
-0.0052073388 -0.97904634 0.42091399 0
-0.33847359 0.3688466 0.4623799 0
-0.16359602 -0.25653887 -0.049741894 0
0.3394548 -2.1864986 0.1329461 0
-0.32988894 0.38144577 0.45732704 0
-0.14210509 -0.2605747 -0.050079286 0
0.38956133 -2.1999331 0.13387156 0
-0.31493783 0.36986703 0.46485621 0
-0.12405879 -0.25176668 -0.049950793 0
-0.30061656 0.36185431 0.47065395 0
-0.10270438 -0.25423729 -0.050250825 0
-0.30399069 0.41356665 0.44535702 0
-0.085721351 -0.24212503 -0.050016221 0
-0.29367107 0.41760594 0.44494689 0
-0.066856124 -0.23625124 -0.050023135 0
-0.28687602 0.43229437 0.43899402 0
-0.048891164 -0.22772908 -0.049939062 0
-0.26401731 0.39924806 0.45831093 0
-0.030173698 -0.22148025 -0.049949355 0
-0.011284449 -0.21566391 -0.049985122 0
0.0072263093 -0.20878792 -0.049989596 0
0.028123042 -0.20785344 -0.050231528 0
0.041515909 -0.1883899 -0.049768627 0
0.064808391 -0.19276869 -0.0502363 0
0.080434464 -0.17909968 -0.05001279 0
-0.18926658 0.42699945 0.38092306 0
0.099037014 -0.17226875 -0.050064426 0
0.11687597 -0.16373992 -0.050058484 0
-0.16080974 0.42025131 0.38838693 0
-0.20196433 0.5068022 0.49687922 0
0.13088675 -0.14741719 -0.049751423 0
0.55274194 -1.0065427 0.46024743 0
-0.16096739 0.44695586 0.37840316 0
-0.19536884 0.51701581 0.49312723 0
0.15477474 -0.15105784 -0.050248444 0
0.58672231 -1.0034387 0.46248224 0
-0.1500171 0.45040125 0.37915057 0
-0.18934275 0.52800423 0.48889118 0
0.16746123 -0.13250411 -0.049866751 0
0.61392182 -0.98667717 0.46203929 0
-0.13954358 0.45486081 0.37949336 0
-0.18203254 0.53615111 0.48657924 0
0.18573494 -0.12488056 -0.049932182 0
0.64666015 -0.98031473 0.46379367 0
-0.12657662 0.45474052 0.38205424 0
-0.1737787 0.5423432 0.48563024 0
0.20497365 -0.11889375 -0.050074268 0
0.68078703 -0.97593832 0.46605477 0
-0.11522741 0.4578588 0.38317651 0
-0.16919895 0.55507338 0.48030993 0
0.22361644 -0.11165655 -0.050175883 0
0.72190338 -0.98313999 0.47082648 0
-0.075657763 0.41176182 0.40784729 0
-0.15379025 0.54841232 0.48823747 0
0.2409782 -0.10209537 -0.050191671 0
0.75943607 -0.98292947 0.4741905 0
-0.056688584 0.40362573 0.41470245 0
-0.14814596 0.55900723 0.48448226 0
0.25785288 -0.091702469 -0.050181959 0
0.80219573 -0.9904325 0.47930592 0
-0.061698265 0.43588817 0.40216997 0
-0.12936442 0.54760748 0.49599734 0
0.27342656 -0.079228409 -0.050093532 0
0.84478205 -0.99629664 0.48422736 0
-0.12945329 0.56742382 0.48595604 0
0.29170069 -0.071079262 -0.050196044 0
0.8803429 -0.98991084 0.48667932 0
-0.12028126 0.57199717 0.48656851 0
0.30157092 -0.050031785 -0.049757835 0
0.91705137 -0.98463559 0.48948783 0
0.020124396 0.37734318 0.4407641 0
-0.1118601 0.57776093 0.48642239 0
0.31686816 -0.03754938 -0.04969044 0
0.95523375 -0.98082924 0.49274042 0
0.031883799 0.38355714 0.44132772 0
-0.10689331 0.58862084 0.48270139 0
0.33165941 -0.024417048 -0.049602527 0
0.99608094 -0.98005033 0.49679181 0
0.039805852 0.39535403 0.43915534 0
-0.10458285 0.6030274 0.47643089 0
0.35372338 -0.02157033 -0.049973186 0
0.053349935 0.39905447 0.44113308 0
-0.098757572 0.61205661 0.47404358 0
0.37580076 -0.018294459 -0.05034053 0
0.069272123 0.39971882 0.44477513 0
-0.082585402 0.60680699 0.48218861 0
0.38723263 -0.00044227162 -0.050072353 0
1.1392387 -0.999331 0.10671028 0
1.131956 -0.9896574 0.3078604 0
0.093434773 0.38980913 0.45403528 0
-0.085464574 0.62744087 0.47134772 0
0.39924309 0.016357059 -0.049855527 0
0.10748025 0.39391625 0.45621008 0
-0.072974987 0.62743646 0.47584197 0
0.41529301 0.027821893 -0.049886454 0
0.12171575 0.39800018 0.45851198 0
-0.072035141 0.64230502 0.46924224 0
0.42374846 0.048658367 -0.049495582 0
-0.060281642 0.64344406 0.47308126 0
0.44326648 0.055820104 -0.049741518 0
-0.057405986 0.65547287 0.46866134 0
0.46235856 0.063750498 -0.049965475 0
-0.052012123 0.66427553 0.46674076 0
0.47971436 0.07390105 -0.050097775 0
-0.041545428 0.66718328 0.46950582 0
0.49394056 0.087668531 -0.050068203 0
1.2141271 -0.71150362 0.10047563 0
-0.031887092 0.67116576 0.47154903 0
0.51338392 0.095764987 -0.050322637 0
1.2066674 -0.65434206 0.098788708 0
-0.027161697 0.6806156 0.46929863 0
0.52803367 0.1091845 -0.050330259 0
0.37864104 0.26679331 0.054577351 0
0.54028314 0.12508523 -0.050223567 0
0.38069794 0.28925669 0.05404963 0
0.83570808 -0.17882979 0.22079596 0
-0.0057759075 0.68683732 0.47534615 0
0.55656081 0.13684297 -0.050332099 0
0.39408401 0.29983187 0.054115828 0
0.83803636 -0.14551961 0.21842028 0
-0.0074983626 0.70267981 0.4679338 0
0.56403095 0.15732777 -0.050006878 0
0.41248772 0.3055678 0.054438502 0
0.7407915 -0.015579825 0.2011676 0
0.74705058 -0.021702534 0.33509794 0
0.74624771 -0.020917064 0.47127503 0
0.57125896 0.17773092 -0.049686395 0
0.43156686 0.31097782 0.054794233 0
0.84303957 -0.081510074 0.21399397 0
0.19787957 0.53388298 0.35326159 0
0.0076062889 0.71537733 0.46907172 0
0.5915181 0.18570936 -0.050017599 0
0.46852633 0.30010366 0.056020949 0
0.8408367 -0.046181325 0.21121834 0
0.18784036 0.56116891 0.34460592 0
0.010896406 0.72574407 0.46627668 0
0.60940653 0.19615734 -0.050235659 0
0.84493178 -0.017436748 0.073587015 0
0.84210688 -0.014874822 0.20904301 0
0.20094205 0.56658715 0.34659696 0
0.025825998 0.72539705 0.47293702 0
0.61215085 0.22020507 -0.049735907 0
0.83604985 0.022234911 0.072405927 0
0.84600228 0.013435001 0.20732522 0
0.83688778 0.021494025 0.34165803 0
0.21006913 0.57572347 0.34683138 0
0.029422542 0.73545021 0.47054869 0
0.63553554 0.22599959 -0.050228775 0
0.83844262 0.05109274 0.071792699 0
0.83659571 0.05268478 0.20378949 0
0.84356076 0.046680924 0.33957717 0
0.22976191 0.57577831 0.35175487 0
0.037659965 0.74137104 0.47191948 0
0.64583474 0.24324787 -0.050109673 0
0.84276432 0.07776963 0.071292907 0
0.83701974 0.082596652 0.20174067 0
0.83979982 0.080260627 0.33513546 0
0.91800326 0.014546985 0.49767566 0
0.26322034 0.56475544 0.36260888 0
0.27282354 0.55668598 0.45499107 0
0.036094271 0.75560749 0.46574014 0
0.66043097 0.25687218 -0.050200164 0
0.83163184 0.11665296 0.070100658 0
0.84358865 0.10686003 0.20061907 0
0.83252198 0.11592387 0.33001852 0
0.94049734 0.027488584 0.49998441 0
0.29566196 0.55563003 0.37285423 0
0.25868019 0.58591926 0.44275594 0
0.047403716 0.75896162 0.46963209 0
0.6671502 0.27686965 -0.049937811 0
0.84272951 0.13672078 0.069958277 0
0.83260804 0.14479983 0.19713773 0
0.83761257 0.14080513 0.32791102 0
0.98403174 0.023932213 0.50919193 0
0.26864508 0.5949598 0.35763747 0
0.2533308 0.60718381 0.43549782 0
0.054130875 0.76618683 0.47004029 0
0.68366653 0.28901649 -0.050132573 0
0.84745771 0.16162002 0.069540687 0
0.84047431 0.16705167 0.19632168 0
0.83850819 0.16858101 0.32493749 0
0.25079897 0.62570024 0.42992949 0
0.059427939 0.77454829 0.4694387 0
0.69859701 0.30254143 -0.050261334 0
0.85937768 0.18070436 0.069463328 0
0.83702344 0.197644 0.19402534 0
0.84421951 0.19219089 0.32316145 0
0.25696418 0.63720381 0.42905375 0
0.075711571 0.77455419 0.47709659 0
0.70456368 0.32279974 -0.049998734 0
0.85013288 0.21534801 0.068458229 0
0.83281666 0.22812998 0.19170097 0
0.84322304 0.22044849 0.31996518 0
0.28346393 0.63363391 0.43872544 0
0.072930239 0.78903902 0.47063062 0
0.71415848 0.34022558 -0.049909294 0
0.85305411 0.24037707 0.06801638 0
0.83831233 0.25097454 0.19073275 0
0.84521919 0.24600947 0.31754181 0
0.077997051 0.79754579 0.4700889 0
0.73443741 0.35009998 -0.050295837 0
0.84924442 0.26974118 0.067298889 0
0.84146792 0.27518439 0.18950397 0
0.8491568 0.26980257 0.31563827 0
0.84727019 0.27112305 0.44344524 0
0.094126247 0.79828334 0.47763777 0
0.73332268 0.37488455 -0.04976026 0
0.89097065 0.26747131 0.068570741 0
0.83258444 0.30725276 0.1867599 0
0.8354302 0.30531371 0.30996177 0
0.84130555 0.30131066 0.43781626 0
0.10876098 0.80042887 0.48405638 0
0.7485674 0.3883723 -0.049943332 0
0.92289585 0.27278078 0.06941095 0
0.83865494 0.32863814 0.18601923 0
0.84480768 0.3245585 0.30942914 0
0.83699709 0.32973748 0.43285796 0
0.11963674 0.80539578 0.48776621 0
0.76129812 0.40363914 -0.05002537 0
0.96215445 0.27406895 0.070558771 0
0.83819836 0.35403168 0.18448435 0
0.84070927 0.35241187 0.30606091 0
0.84266514 0.35115016 0.4310779 0
0.13253744 0.80924582 0.49291939 0
0.7667442 0.4235484 -0.049807869 0
0.98999244 0.28348231 0.071216926 0
0.83406085 0.38131386 0.18253531 0
0.83568889 0.38029248 0.30259785 0
0.83182341 0.38271767 0.42442077 0
0.13520749 0.81977481 0.49090356 0
0.78308481 0.43663603 -0.050058167 0
1.0447385 0.27703011 0.073000289 0
0.84057349 0.40156859 0.18198527 0
0.83735746 0.4035303 0.30064881 0
0.84349018 0.39978939 0.42466056 0
0.13469489 0.83214688 0.48678476 0
0.79277915 0.4538728 -0.050037619 0
1.0726502 0.28795308 0.073653281 0
0.84044343 0.42561531 0.18064141 0
0.83341354 0.42978293 0.29759914 0
0.84315783 0.4240061 0.42140365 0
0.14111705 0.84020621 0.4875854 0
0.79737419 0.4740333 -0.049816109 0
0.84117121 0.44880837 0.17945135 0
0.83898777 0.45006591 0.2966215 0
0.84388334 0.44724631 0.41857183 0
0.14164729 0.85170019 0.48441771 0
0.81106001 0.48893392 -0.049978442 0
0.85528356 0.4641996 0.17995384 0
0.84624547 0.46925461 0.29605156 0
0.83368164 0.47628158 0.41265148 0
0.14474781 0.86160433 0.4831174 0
0.82635385 0.50309545 -0.05021264 0
0.85382932 0.48817933 0.17857315 0
0.84173375 0.49474585 0.29312003 0
0.83903056 0.49621344 0.41139236 0
0.8329342 0.52203655 -0.050100915 0
0.85708755 0.50931507 0.17781077 0
0.83798927 0.51937407 0.29042989 0
0.83857983 0.519063 0.4085418 0
0.83573431 0.54282331 -0.049847964 0
0.85514671 0.5329091 0.17645811 0
0.83802134 0.54165524 0.28858483 0
0.83742577 0.5419594 0.40559071 0
0.8436293 0.53879118 0.52938688 0
0.84263164 0.56138659 -0.049770251 0
0.85438555 0.55556911 0.17529105 0
0.83793157 0.56371284 0.28678331 0
0.83199173 0.56665266 0.40152192 0
0.84489161 0.56026804 0.52655226 0
0.85590047 0.57683831 -0.049954545 0
0.86248106 0.57368386 0.17522064 0
0.83298951 0.58782089 0.28407794 0
0.84061593 0.58416516 0.40154335 0
0.83965629 0.58462512 0.52143759 0
0.86414915 0.59476596 -0.049947869 0
0.90748912 0.57465768 0.1795509 0
0.83529371 0.60815394 0.28288946 0
0.83584386 0.60789865 0.3978591 0
0.8420946 0.60499853 0.5192799 0
0.8750214 0.61151457 -0.050052755 0
0.94328195 0.58088237 0.18277273 0
0.84886438 0.62325263 0.28398558 0
0.84412473 0.62537956 0.39792958 0
0.83993965 0.62725759 0.51555312 0
0.87076634 0.63490808 -0.049576625 0
0.96407658 0.59443843 0.18422928 0
0.83909565 0.64864397 0.28052515 0
0.83635277 0.64983362 0.39359686 0
0.83475238 0.65052772 0.510849 0
0.89335471 0.646698 -0.050153445 0
1.0036262 0.60051292 0.18788335 0
0.84031242 0.66891378 0.27929357 0
0.83547133 0.67094135 0.3912783 0
0.83042878 0.67305332 0.50658709 0
0.89466578 0.66752845 -0.049913757 0
1.0333936 0.61146754 0.19039389 0
0.84116787 0.68914735 0.27804774 0
0.83702523 0.69082141 0.38971499 0
0.83752471 0.69061953 0.50654662 0
0.9089275 0.68313611 -0.050181508 0
1.0750115 0.61844099 0.19427487 0
0.84953612 0.70627099 0.27831152 0
0.84306508 0.70879167 0.3894563 0
0.83558756 0.71170443 0.50336027 0
0.27977732 0.92821074 0.45553443 0
0.90218741 0.70682663 -0.049654711 0
0.85032934 0.7262786 0.27715662 0
0.83950597 0.73033851 0.38664502 0
0.83620328 0.73157734 0.5011906 0
0.28805819 0.9371869 0.45780081 0
0.92646533 0.718934 -0.050318908 0
0.85454112 0.74488455 0.27671078 0
0.83652514 0.75138479 0.38407713 0
0.83704561 0.75119704 0.49919966 0
0.26221177 0.95859957 0.44196448 0
0.926732 0.73986369 -0.050078712 0
0.86058336 0.7627933 0.2766611 0
0.84573573 0.76794004 0.38488409 0
0.83699352 0.7709704 0.49698958 0
0.83284193 0.7724095 0.61521435 0
0.25916114 0.97126859 0.43841165 0
0.93018895 0.75955713 -0.049969487 0
0.84751934 0.78705245 0.27302322 0
0.83263773 0.79200202 0.37974569 0
0.83837694 0.79009318 0.49537957 0
0.84105152 0.78920364 0.61619699 0
0.29075655 0.97222805 0.45322642 0
0.92954081 0.78048116 -0.04971619 0
0.8475824 0.80659854 0.27194259 0
0.84168416 0.80847812 0.38063884 0
0.83897561 0.80934119 0.49358624 0
0.84137219 0.80857754 0.61383963 0
0.31067196 0.97769392 0.4618547 0
0.94090313 0.79756021 -0.049921989 0
0.85172409 0.82474655 0.27168158 0
0.82889169 0.831707 0.37575907 0
0.84331697 0.82730949 0.493186 0
0.82723051 0.83221346 0.60533708 0
0.30977944 0.98995894 0.45960194 0
0.93667585 0.81933254 -0.049555372 0
0.87014931 0.83870119 0.27414751 0
0.83513659 0.84889477 0.37603369 0
0.84734052 0.84534174 0.49275559 0
0.84197193 0.84690475 0.60944945 0
0.33614215 0.99417263 0.47164115 0
0.95583349 0.83434969 -0.050066635 0
0.89374501 0.85158116 0.2776055 0
0.83831018 0.86696613 0.37555158 0
0.83923548 0.86670929 0.48821765 0
0.82829124 0.86974669 0.60141444 0
0.31952766 1.0109446 0.46134996 0
0.95724016 0.85442954 -0.049927749 0
0.9346233 0.8604008 0.28430605 0
0.84630042 0.8837195 0.3764022 0
0.84311324 0.88456094 0.48791072 0
0.8340922 0.88694263 0.60187203 0
0.32287833 1.0219116 0.46153408 0
0.96462363 0.8729139 -0.050018601 0
0.95803219 0.87456566 0.28775817 0
0.83651954 0.90501571 0.37263155 0
0.84314603 0.90335518 0.4863632 0
0.83362037 0.90574223 0.59974325 0
0.32154223 1.0340645 0.45937148 0
0.96980232 0.89199048 -0.05003684 0
0.99747771 0.88542444 0.29420558 0
0.84643489 0.92125946 0.37410718 0
0.83108383 0.92490149 0.48076573 0
0.83470827 0.92404157 0.59838545 0
0.32896504 1.0440294 0.46179822 0
0.97847182 0.91030151 -0.050191537 0
1.015469 0.90201455 0.29669496 0
0.83905309 0.94152975 0.37110987 0
0.8421604 0.94083375 0.48316556 0
0.83784419 0.94180053 0.59799832 0
0.35509422 1.0499313 0.473874 0
0.98045784 0.93013614 -0.050110396 0
1.0558691 0.91423929 0.3033466 0
0.83303982 0.96121216 0.36854392 0
0.83480185 0.96084076 0.47935924 0
0.83583397 0.9606232 0.5955295 0
0.35971358 1.0609905 0.47495711 0
0.97942859 0.95051169 -0.049928825 0
1.0880823 0.9290325 0.30850494 0
0.85701388 0.9747113 0.37384769 0
0.83950204 0.97817314 0.47973749 0
0.83648473 0.9787696 0.59429008 0
0.37013397 1.0709603 0.4790673 0
0.99498826 0.96769738 -0.050359264 0
0.85867375 0.99286556 0.37339404 0
0.83873886 0.99654627 0.47834042 0
0.84504741 0.99538147 0.59648091 0
0.38947269 1.0794958 0.48776951 0
0.98151594 0.99017739 -0.049744979 0
0.85344559 1.0121597 0.37121752 0
0.84976214 1.0127919 0.48100317 0
0.83377081 1.0155367 0.59042078 0
0.39505419 1.090839 0.48952362 0
0.98057634 1.0102328 -0.0495952 0
0.42112949 1.099021 0.041372251 0
0.43818924 1.0963135 0.11433516 0
0.43615034 1.096637 0.18742941 0
0.42754564 1.0980027 0.26043805 0
0.42168662 1.0989325 0.33581561 0
0.42704615 1.0980819 0.4187004 0
0.39724198 1.1028121 0.48962739 0
0.99443775 1.0280263 -0.049988821 0
0.41681334 1.1122575 0.041148778 0
0.40596828 1.1138389 0.11062827 0
0.40364167 1.1141782 0.18115701 0
0.40028694 1.1146674 0.25292259 0
0.40955284 1.1133162 0.33110434 0
0.41709843 1.1122159 0.41374764 0
0.40543786 1.1139163 0.49284518 0
0.98979157 1.0485643 -0.049723294 0
0.39208302 1.1280518 0.04019646 0
0.44032833 1.1216358 0.11416994 0
0.43013933 1.1229907 0.18567072 0
0.43458679 1.1223993 0.26131761 0
0.4232268 1.1239101 0.33512351 0
0.43306556 1.1226016 0.41970173 0
0.41406086 1.125129 0.49634379 0
1.0043601 1.0666074 -0.0501584 0
0.36764178 1.1431367 0.039263133 0
0.42728183 1.1359683 0.11258547 0
0.43490079 1.1350527 0.18624946 0
0.4355205 1.1349782 0.2611509 0
0.42122081 1.1366969 0.33392712 0
0.4263207 1.136084 0.41623011 0
0.99843305 1.0871642 -0.04986516 0
0.36029711 1.1557246 0.038951777 0
0.86134475 1.1018927 0.37005216 0
0.84804779 1.1033213 0.47627759 0
0.84408361 1.1037472 0.58960694 0
1.014254 1.1054565 -0.050361462 0
0.34888694 1.168479 0.038500682 0
0.85451812 1.1205864 0.3678396 0
0.83576638 1.1223625 0.4715752 0
0.83946449 1.1220123 0.58694363 0
1.0019171 1.1264129 -0.04985686 0
0.36999515 1.1782484 0.039220657 0
0.84683639 1.1391339 0.36547077 0
0.84035128 1.1396658 0.47258794 0
0.84341699 1.1394144 0.5879395 0
1.0042453 1.1459985 -0.049886964 0
0.37526545 1.1896273 0.039377619 0
0.84468085 1.1570666 0.36457705 0
0.84181279 1.1572655 0.47263086 0
0.83786875 1.1575391 0.58508247 0
1.0028548 1.1658194 -0.049792897 0
0.84444374 1.1748048 0.36423194 0
0.83504599 1.1753379 0.47000569 0
0.83340722 1.1754309 0.58277273 0
1.0046248 1.1854376 -0.049820751 0
0.84593254 1.1924357 0.36438483 0
0.84112376 1.1926478 0.47173527 0
0.83493418 1.1929208 0.58303958 0
1.0129561 1.204872 -0.050091777 0
0.85520774 1.2098393 0.36658192 0
0.83906084 1.2103478 0.47082701 0
0.83176857 1.2105775 0.58145374 0
1.0101869 1.2247105 -0.049975108 0
0.8515231 1.2277075 0.36552733 0
0.83577436 1.2280049 0.46958604 0
0.84094852 1.2279073 0.58507276 0
0.99925405 1.244521 -0.04957591 0
0.84238285 1.2455087 0.36313832 0
0.8405028 1.2455206 0.4710857 0
0.82777923 1.2456006 0.57952827 0
1.0178251 1.264239 -0.05023893 0
0.86526662 1.2632785 0.36897683 0
0.83720356 1.2631018 0.46998802 0
0.84297174 1.2631382 0.58581865 0
1.0073826 1.2838798 -0.049874973 0
0.84629613 1.2808369 0.36419353 0
0.84248573 1.2807649 0.47181928 0
0.84137005 1.2807438 0.58524728 0
1.0062385 1.3035597 -0.049851831 0
0.84870356 1.298599 0.36492166 0
0.8454662 1.298497 0.47295913 0
0.83604282 1.2982002 0.5832243 0
1.005429 1.323241 -0.049849488 0
0.84734923 1.3162699 0.36474666 0
0.85153955 1.3164546 0.4752039 0
0.8395893 1.3159276 0.58496886 0
1.0112729 1.3433013 -0.050093919 0
0.84144527 1.3336682 0.36346573 0
0.8421151 1.3337061 0.47236133 0
0.84655637 1.3339581 0.58822572 0
1.0135809 1.3632922 -0.050221059 0
1.2923815 1.3826311 0.072198518 0
1.3004863 1.3831933 0.20614627 0
1.2981622 1.3830321 0.34145358 0
0.85269684 1.3521326 0.3666271 0
0.84590369 1.3516614 0.47399512 0
0.8340922 1.3508421 0.58351505 0
1.0104755 1.3829323 -0.050163433 0
1.2451116 1.402179 0.070568375 0
1.2515272 1.4027053 0.20105784 0
1.0111167 1.3829849 0.28983134 0
0.85725147 1.3703636 0.36813694 0
0.83968455 1.3689226 0.47236538 0
0.8449598 1.3693553 0.58858043 0
1.0091059 1.402699 -0.050176848 0
1.2612466 1.4265814 0.071218878 0
1.2427827 1.4248325 0.20033103 0
0.89830321 1.392204 0.26971051 0
0.84874099 1.3875096 0.36635908 0
0.82537276 1.3852961 0.46810183 0
0.83300716 1.3860192 0.58425808 0
0.99590975 1.4212079 -0.049774557 0
0.65107507 1.3841593 0.049392667 0
0.64274782 1.3832647 0.13572207 0
0.63995224 1.3829643 0.22318493 0
0.63603395 1.3825433 0.31223732 0
0.84156543 1.4046253 0.47410855 0
0.83893365 1.4043425 0.58746243 0
1.0060724 1.4422417 -0.050219975 0
0.56192487 1.388858 0.046249215 0
0.55275732 1.3877561 0.1261673 0
0.55897611 1.3885036 0.20878734 0
0.55088395 1.3875309 0.29079565 0
0.8354221 1.4217305 0.47272131 0
0.82402474 1.4203607 0.58207899 0
0.99592036 1.4608939 -0.049944028 0
0.54231888 1.4005708 0.045607295 0
0.5500651 1.401601 0.1260671 0
0.54930896 1.4015003 0.20735203 0
0.54991478 1.4015809 0.29100052 0
0.85357612 1.4419639 0.47955874 0
0.85258096 1.4418316 0.5949254 0
0.9891935 1.4798521 -0.04979961 0
0.55322176 1.4162772 0.046070244 0
0.54475337 1.4150423 0.12570116 0
0.54498726 1.4150764 0.20691809 0
0.54768568 1.4154699 0.29092649 0
0.83261544 1.4570193 0.47334346 0
0.84333462 1.4585824 0.5920912 0
0.99341887 1.5004485 -0.050059434 0
0.55215675 1.4304172 0.046108641 0
0.54509777 1.4292969 0.12596834 0
0.54501337 1.4292834 0.20730846 0
0.55384213 1.4306846 0.29306364 0
0.83545429 1.4753784 0.47519657 0
0.84052199 1.4761827 0.59203684 0
0.98246616 1.5186288 -0.0497794 0
0.55347091 1.4449952 0.046239749 0
0.56033796 1.4461738 0.12787992 0
0.54489821 1.4435238 0.20770648 0
0.55070513 1.4445205 0.29284924 0
0.83893174 1.4939923 0.47734722 0
0.84368855 1.4948088 0.59458715 0
0.9832719 1.5387825 -0.049933903 0
0.55139631 1.4590439 0.046254788 0
0.54708546 1.4582479 0.12670527 0
0.56051284 1.460727 0.21102308 0
0.54994887 1.4587766 0.29329714 0
0.84185272 1.5126718 0.47939387 0
0.84603447 1.5134439 0.59689653 0
0.989039 1.5600313 -0.050278574 0
0.55231065 1.4736965 0.046385068 0
0.54863852 1.4729705 0.1271663 0
0.55233604 1.4737015 0.21001394 0
0.54929 1.4730994 0.29381812 0
0.8328653 1.529158 0.47748673 0
0.83644718 1.5298661 0.59427422 0
0.97746962 1.577877 -0.050001372 0
0.54507571 1.4867275 0.046225086 0
0.54518777 1.4867511 0.12709931 0
0.56527001 1.4909844 0.21292315 0
0.5505293 1.4878771 0.29488239 0
0.83967382 1.5488294 0.48101577 0
0.84043854 1.5489906 0.59747785 0
0.96613234 1.5955777 -0.049740087 0
0.55574888 1.5036563 0.046725832 0
0.55774564 1.5041035 0.12881427 0
0.55424517 1.5033195 0.21145275 0
0.54752594 1.5018145 0.29488897 0
0.83858722 1.567009 0.4819473 0
0.83903855 1.5671101 0.59850508 0
0.97036952 1.6167872 -0.05005765 0
0.54990298 1.5170313 0.04662976 0
0.56067473 1.5195869 0.12949494 0
0.54824513 1.516638 0.21093808 0
0.55159205 1.5174321 0.29679525 0
0.83513767 1.5847034 0.48215187 0
0.83442181 1.5845336 0.59826356 0
0.95246929 1.6326834 -0.049571261 0
0.55003947 1.5318381 0.046759762 0
0.55329782 1.5326545 0.1290575 0
0.54528266 1.530646 0.21101765 0
0.56353122 1.535219 0.30082998 0
0.841443 1.6048611 0.48577911 0
0.83650059 1.6036227 0.60097265 0
0.94931251 1.6521206 -0.049635027 0
0.55245858 1.5473446 0.046981353 0
0.5453065 1.5454563 0.12856856 0
0.5504958 1.5468264 0.21265535 0
0.55585665 1.5482416 0.29976159 0
0.84056872 1.6234103 0.48703519 0
0.84734505 1.6251994 0.60754716 0
0.95823175 1.6749591 -0.050155491 0
0.5556404 1.5632273 0.047239199 0
0.55468184 1.5629612 0.13003281 0
0.54559654 1.5604398 0.21244414 0
0.5625394 1.5651419 0.30253425 0
0.84011644 1.6421783 0.48852181 0
0.83148688 1.6397834 0.60278755 0
0.94269425 1.6910628 -0.049779158 0
0.54738158 1.575971 0.047080018 0
0.55477256 1.5781229 0.13048781 0
0.54847175 1.5762883 0.21372463 0
0.5481512 1.576195 0.2997745 0
0.83267254 1.6590309 0.48767304 0
0.83653194 1.6601546 0.60710353 0
0.94703037 1.7129507 -0.050150678 0
0.84741038 1.6825815 0.38069841 0
0.84211582 1.6809675 0.49276823 0
0.83199209 1.6778812 0.60739809 0
0.93252367 1.7291125 -0.049827959 0
0.84694499 1.7018415 0.38204753 0
0.84187025 1.7002243 0.49459699 0
0.84113485 1.6999899 0.61373645 0
0.92867666 1.748583 -0.049912587 0
0.84548467 1.7209139 0.3831999 0
0.83200556 1.7164309 0.49314567 0
0.8361724 1.7178167 0.61406809 0
0.91957456 1.7662983 -0.049808264 0
0.83623892 1.7374111 0.38231972 0
0.82642812 1.7340103 0.49326935 0
0.83587211 1.7372841 0.61654222 0
0.92227429 1.7881969 -0.050159842 0
0.8321653 1.7556852 0.38289461 0
0.83452898 1.756538 0.49830955 0
0.83427292 1.7564456 0.61856359 0
0.90964872 1.8046153 -0.049939215 0
0.83824497 1.7778317 0.38630143 0
0.82805485 1.7740093 0.49829522 0
0.83918446 1.7781841 0.6235801 0
0.91258246 1.8269308 -0.050321549 0
0.84273833 1.7997241 0.38936684 0
0.82520264 1.7928934 0.49965242 0
0.83375317 1.7962241 0.62414682 0
0.89733464 1.8421931 -0.050016522 0
0.83573812 1.8173016 0.38936082 0
0.83122844 1.8154792 0.5042873 0
0.83918887 1.818696 0.62967044 0
0.89215606 1.861443 -0.050107047 0
0.83237082 1.8364033 0.39042071 0
0.8307876 1.8357401 0.50671655 0
0.82666558 1.8340137 0.62728852 0
0.87893587 1.8772782 -0.049894538 0
0.83154637 1.856725 0.39226025 0
0.82191962 1.8525497 0.50619537 0
0.83042699 1.8562394 0.63232958 0
0.88293093 1.900678 -0.050362263 0
0.83039778 1.8771036 0.39409092 0
0.82886189 1.8764143 0.51151353 0
0.82229275 1.8734664 0.63212746 0
0.86704224 1.9152194 -0.050061733 0
0.83831745 1.9018921 0.3985548 0
0.82240766 1.8945105 0.51205951 0
0.8133356 1.8903013 0.63164729 0
0.84944993 1.9287127 -0.049699161 0
0.81944114 1.9143276 0.39555234 0
0.8158682 1.9126149 0.51266116 0
0.81424445 1.9118366 0.63579124 0
0.84648234 1.9491624 -0.049923643 0
0.82471246 1.9383876 0.39944971 0
0.81270856 1.9324465 0.51460552 0
0.81981629 1.9359643 0.64224017 0
0.83248228 1.964159 -0.049717598 0
0.81239027 1.9538977 0.39841858 0
0.7981711 1.9466357 0.51240498 0
0.81169325 1.9535416 0.64250457 0
0.82711869 1.9835436 -0.049866259 0
1.0262609 2.0884306 0.46266079 0
0.79875666 1.9686055 0.51594341 0
0.7924419 1.9652795 0.63766652 0
0.81568331 1.9997548 -0.049779169 0
0.80458301 1.9937286 0.40139207 0
0.79653519 1.9893595 0.51854777 0
0.79439205 1.988196 0.64285302 0
0.80804449 2.0180225 -0.049855091 0
0.78613001 2.0057657 0.3987509 0
0.789074 2.0074124 0.51927251 0
0.78381306 2.0044699 0.64226884 0
0.78992051 2.0303168 -0.049509022 0
0.77114469 2.0195029 0.39715594 0
0.78177959 2.0256281 0.52015346 0
0.77772099 2.0232906 0.64392179 0
0.79170913 2.054136 -0.04999321 0
0.78581303 2.0506406 0.40439537 0
0.7693128 2.0408585 0.51912892 0
0.77530414 2.0444105 0.64746976 0
0.78100771 2.07074 -0.049971301 0
0.77092057 2.0645871 0.402973 0
0.76678807 2.0620663 0.52204549 0
0.77236515 2.0654683 0.65092033 0
0.77153546 2.0881007 -0.050009806 0
0.76665479 2.0850387 0.40479273 0
0.76444417 2.0836518 0.52516061 0
0.76900941 2.0865159 0.6543237 0
0.75882751 2.1034102 -0.049920406 0
0.75867933 2.1033146 0.40557882 0
0.77037507 2.1108594 0.5316844 0
0.75628179 2.101768 0.65326726 0
0.74580747 2.1184409 -0.049825106 0
0.75078684 2.1217425 0.40646711 0
0.74619931 2.1187005 0.52638096 0
0.74849671 2.120224 0.65475237 0
0.73037726 2.1317515 -0.049633011 0
0.7424733 2.1399934 0.40730441 0
0.74215442 2.139776 0.5291757 0
0.73118478 2.1323018 0.65159321 0
0.72750825 2.1536932 -0.04999388 0
0.73164982 2.1565919 0.40743867 0
0.72040981 2.1487246 0.52491468 0
0.73678023 2.160183 0.66005957 0
0.7142027 2.1684494 -0.049911238 0
0.7221809 2.1741846 0.4080652 0
0.72414881 2.1755993 0.53110254 0
0.71869928 2.1716819 0.65670818 0
0.70114917 2.1833229 -0.049847215 0
0.70896119 2.1890895 0.40757808 0
0.72028702 2.1974494 0.53434438 0
0.70862335 2.1888402 0.65751922 0
0.68523914 2.1959794 -0.049662977 0
0.70471078 2.2107346 0.41001728 0
0.70419866 2.2103465 0.53262794 0
0.70128769 2.2081406 0.65987313 0
0.67873174 2.2157884 -0.049909376 0
0.69441873 2.2279897 0.41061535 0
0.69934899 2.2318244 0.53569967 0
0.69233495 2.2263689 0.661529 0
0.66595072 2.2308161 -0.049883019 0
0.67808813 2.2405043 0.40931883 0
0.68069679 2.2425864 0.53304142 0
0.68862349 2.2489135 0.66609919 0
0.64059681 2.2355261 -0.049284872 0
0.6776852 2.2659028 0.41331327 0
0.66790408 2.2578917 0.53293341 0
0.67632335 2.2647874 0.66627145 0
0.62954599 2.251708 -0.049350098 0
0.65222043 2.2707613 0.40910444 0
0.66546088 2.2818871 0.53740507 0
0.65810865 2.2757089 0.66335434 0
0.63306397 2.280513 -0.050112281 0
0.7159825 2.3519893 0.0660206 0
0.71408468 2.3503532 0.1864069 0
0.72170514 2.3569221 0.31056276 0
0.65058583 2.2956169 0.41289702 0
0.65275031 2.2974827 0.53754765 0
0.65381616 2.2984014 0.66809052 0
0.60342664 2.280724 -0.04932015 0
0.67831093 2.3469362 0.064888798 0
0.68719476 2.3547914 0.18454359 0
0.6851669 2.3529983 0.30513325 0
0.64028257 2.3133118 0.41388589 0
0.63966256 2.3127637 0.53761113 0
0.63642138 2.3098979 0.66579556 0
0.60344499 2.3070793 -0.049948338 0
0.65970379 2.3580995 0.064659782 0
0.65690237 2.3555589 0.18217333 0
0.66053373 2.3588521 0.30252793 0
0.61734444 2.3196845 0.41061074 0
0.61919779 2.3213654 0.53444797 0
0.62745029 2.3288493 0.66826302 0
0.58547443 2.3173125 -0.049722932 0
0.63904363 2.3671372 0.06433478 0
0.63853878 2.3666675 0.18152736 0
0.63726908 2.3654866 0.30024701 0
0.60813648 2.3383906 0.41210875 0
0.61462897 2.344429 0.53851891 0
0.61052603 2.3406129 0.66639668 0
0.57831925 2.3376467 -0.050034739 0
0.62113518 2.3784871 0.064147204 0
0.62103337 2.3783901 0.18102166 0
0.62275463 2.3800321 0.30014014 0
0.59029752 2.3490722 0.41066426 0
0.59930223 2.3576615 0.53782547 0
0.60470575 2.3628159 0.67094553 0
0.56672782 2.3539534 -0.050141562 0
0.6198476 2.4059153 0.064794473 0
0.61753339 2.4036515 0.18263732 0
0.61162621 2.3978732 0.30093211 0
0.59141511 2.3781025 0.41601518 0
0.58702713 2.3738103 0.53862089 0
0.58344656 2.3703077 0.66676968 0
0.54988891 2.3651073 -0.049994707 0
0.60512298 2.4205153 0.064787827 0
0.59696001 2.4123266 0.18172263 0
0.60888618 2.4242904 0.30393404 0
0.56928188 2.3845613 0.41316304 0
0.57650095 2.391803 0.54034573 0
0.57157689 2.3868635 0.66810238 0
0.54144269 2.3847508 -0.050282959 0
0.60487765 2.4500089 0.065532088 0
0.60201365 2.4470625 0.18476404 0
0.60132319 2.446352 0.30581269 0
0.56130081 2.4051795 0.41548344 0
0.5567053 2.4004519 0.53777611 0
0.55497307 2.39867 0.66676331 0
0.52230757 2.3934176 -0.0500331 0
0.62549478 2.5022798 0.067388125 0
0.61565679 2.4919009 0.18925585 0
0.61498207 2.491189 0.31335238 0
0.54262286 2.4148502 0.41396344 0
0.54162234 2.4137948 0.53750366 0
0.55025214 2.422899 0.672647 0
0.50416297 2.4029012 -0.049837619 0
0.53778392 2.4392779 0.41766998 0
0.5367462 2.4381552 0.5423122 0
0.53284544 2.4339347 0.67105794 0
0.49213859 2.4189749 -0.049972102 0
0.52126771 2.451299 0.41709474 0
0.51874739 2.4485021 0.54081821 0
0.52271694 2.4529071 0.67403328 0
0.47401592 2.4282563 -0.049789548 0
0.50281817 2.4610381 0.41582197 0
0.50591177 2.4645593 0.54197043 0
0.50147086 2.4595048 0.67022634 0
0.47026035 2.454118 -0.050399136 0
0.48319075 2.4692142 0.41411617 0
0.49177608 2.4792376 0.54257745 0
0.49328312 2.4809971 0.67472672 0
0.44805512 2.4585583 -0.050008263 0
0.4720653 2.4873152 0.4158096 0
0.47194692 2.4871736 0.54033351 0
0.47401139 2.489646 0.67230856 0
0.42937449 2.4668982 -0.0498138 0
0.45435902 2.4975996 0.41496086 0
0.45693073 2.5007598 0.54064369 0
0.45435223 2.4975913 0.66966951 0
0.41380212 2.4789414 -0.049800795 0
0.43640336 2.5074399 0.41404891 0
0.44520721 2.5185406 0.54281271 0
0.43303612 2.5031939 0.66595042 0
0.40117821 2.4947901 -0.049968511 0
0.42347857 2.5236483 0.41527238 0
0.42764279 2.529037 0.54196012 0
0.4249123 2.5255036 0.67115039 0
0.38477376 2.5058193 -0.0499264 0
0.40991113 2.5392091 0.41632977 0
0.41267642 2.5428822 0.5426029 0
0.40828153 2.5370445 0.67077368 0
0.36779377 2.5160184 -0.049857125 0
0.38797852 2.5435443 0.4138802 0
0.39409927 2.5518913 0.54132253 0
0.38748702 2.5428741 0.66757613 0
0.34937468 2.5241237 -0.049706034 0
0.37779924 2.5639279 0.41657072 0
0.3824968 2.5705061 0.54407674 0
0.37531188 2.5604446 0.6705144 0
0.3399435 2.544975 -0.050120614 0
0.35840288 2.5715251 0.41530469 0
0.35783431 2.5707073 0.53940517 0
0.35702714 2.5695465 0.66923416 0
0.32265821 2.5547481 -0.050059259 0
0.34532008 2.5882344 0.41693208 0
0.34282491 2.5845475 0.5403775 0
0.3387467 2.5785213 0.66801697 0
0.30308989 2.5609815 -0.049856436 0
0.32320681 2.5915289 0.41449851 0
0.32809737 2.5989552 0.54164356 0
0.32327458 2.5916319 0.6689747 0
0.28861347 2.5749035 -0.049991727 0
0.30451319 2.5997219 0.41365343 0
0.30631867 2.60254 0.53869683 0
0.29869661 2.5906427 0.66308784 0
0.27219686 2.5858977 -0.050010506 0
0.28686324 2.6094382 0.41334397 0
0.29107353 2.6161962 0.53982866 0
0.29099056 2.6160631 0.67028171 0
0.25781372 2.600281 -0.050179262 0
0.26994899 2.6203167 0.41344997 0
0.27099457 2.6220429 0.53798944 0
0.27046177 2.6211631 0.66763186 0
0.236591 2.6032848 -0.049882893 0
0.25274071 2.6307223 0.41347855 0
0.25037983 2.6267114 0.53580678 0
0.25350049 2.6320131 0.66788864 0
0.21890213 2.6120543 -0.0498368 0
0.23764743 2.6448393 0.41466156 0
0.23035403 2.6320834 0.53400934 0
0.23717298 2.6440094 0.66879255 0
0.20296939 2.6239266 -0.049926851 0
0.21396156 2.6437261 0.41144761 0
0.21882899 2.6524935 0.53804308 0
0.21769555 2.6504517 0.66715765 0
0.18661739 2.6351614 -0.049998596 0
0.20130034 2.6624117 0.41408002 0
0.19824471 2.6567407 0.53599644 0
0.19913508 2.6583931 0.6663546 0
0.1693662 2.6447916 -0.050013568 0
0.17761178 2.6605673 0.41083106 0
0.17741056 2.6601822 0.53375834 0
0.1794873 2.6641555 0.66464841 0
0.15162487 2.6534851 -0.049999665 0
0.16279544 2.6755285 0.41249514 0
0.16314544 2.6762192 0.53633046 0
0.16294052 2.6758149 0.66580546 0
0.1326942 2.6597412 -0.049897823 0
0.14227469 2.6792524 0.41100812 0
0.14280196 2.680326 0.53453171 0
0.13521947 2.6648841 0.65663189 0
0.11005964 2.6580479 -0.049491789 0
0.11885365 2.6765423 0.40778556 0
0.12316104 2.685601 0.53326869 0
0.1235676 2.686456 0.66257477 0
0.097211085 2.6769438 -0.049908478 0
0.10230549 2.688015 0.40864792 0
0.10311946 2.6897838 0.53170389 0
0.10422089 2.6921775 0.66132635 0
0.082067274 2.6914122 -0.050156176 0
0.084046923 2.6958611 0.40855107 0
0.083518527 2.6946738 0.53049737 0
0.084656857 2.6972318 0.65989316 0
0.061343335 2.6933532 -0.049923126 0
0.0633386 2.6979935 0.406932 0
0.066499136 2.705344 0.53148043 0
0.066391252 2.7050931 0.65984422 0
0.040546142 2.6946969 -0.049678326 0
0.044737302 2.7047927 0.40668279 0
0.043125652 2.7009106 0.52709502 0
0.046922348 2.7100563 0.65859967 0
0.023777863 2.7056458 -0.049814235 0
0.024332544 2.7070308 0.40524578 0
0.029501816 2.7199395 0.53124583 0
0.029412946 2.7197177 0.6595664 0
0.0028891179 2.7061923 -0.049559515 0
0.0086876368 2.7212176 0.40715384 0
0.0093944883 2.7230494 0.52976096 0
0.0046277852 2.7106977 0.65233576 0
-0.0086180354 2.7314839 -0.050258461 0
-0.016111651 2.7113137 0.40254992 0
-0.012443283 2.7211878 0.52660865 0
-0.012190499 2.721868 0.65419489 0
-0.031224111 2.7271829 -0.04983788 0
-0.031138638 2.7274222 0.40509892 0
-0.032432474 2.7238007 0.52514863 0
-0.035276927 2.7158387 0.64857686 0
-0.047580458 2.7401922 -0.050083246 0
-0.054174282 2.7209747 0.40160394 0
-0.053566493 2.7227461 0.52249372 0
-0.051169194 2.7297328 0.65183175 0
-0.06707073 2.7442422 -0.049998626 0
-0.075725891 2.717943 0.39911899 0
-0.073279567 2.7253764 0.5212338 0
-0.072699137 2.7271399 0.64797419 0
-0.087011524 2.746675 -0.049863003 0
-0.092272528 2.7299843 0.40074873 0
-0.094234981 2.7237582 0.51858366 0
-0.09328974 2.726757 0.64520919 0
-0.10431127 2.7575493 -0.050052039 0
-0.11222602 2.7312906 0.3995674 0
-0.11198283 2.7320974 0.51949531 0
-0.11038367 2.7374029 0.64733624 0
-0.12484846 2.7576654 -0.04984884 0
-0.10675231 2.8205578 0.064185284 0
-0.10668204 2.8208022 0.18117873 0
-0.10569037 2.8242488 0.30062151 0
-0.13250558 2.7310534 0.39804736 0
-0.13113059 2.735832 0.51888722 0
-0.13228901 2.731806 0.64255053 0
-0.14420275 2.7615662 -0.049796034 0
-0.13379638 2.7995253 0.063201234 0
-0.13478874 2.7959056 0.17778581 0
-0.13272847 2.8034208 0.2956863 0
-0.14960127 2.741874 0.39952555 0
-0.14888491 2.744487 0.52006185 0
-0.15021797 2.7396245 0.64365941 0
-0.16247232 2.7694929 -0.049900945 0
-0.15735199 2.7891374 0.062625706 0
-0.15700309 2.7904758 0.17660539 0
-0.15694894 2.7906835 0.2923387 0
-0.17073222 2.7378039 0.39712974 0
-0.17179288 2.7337346 0.51463717 0
-0.17060794 2.7382805 0.64094108 0
-0.18043305 2.7789903 -0.050071765 0
-0.17906965 2.7845047 0.06227456 0
-0.17715223 2.7922597 0.17625821 0
-0.17737274 2.7913678 0.29155171 0
-0.18982579 2.7410016 0.39672148 0
-0.19006006 2.7400539 0.5151791 0
-0.18672468 2.7535441 0.64542395 0
-0.20226739 2.7724717 -0.049663149 0
-0.19807635 2.7903874 0.062320039 0
-0.19699056 2.7950289 0.17604887 0
-0.19723199 2.7939968 0.29117492 0
-0.20949639 2.741569 0.39568833 0
-0.20944865 2.7417731 0.51422638 0
-0.2129605 2.7267606 0.6321013 0
-0.21831362 2.7908576 -0.050176267 0
-0.21901159 2.7876949 0.062060636 0
-0.21729006 2.7954955 0.17561424 0
-0.21712105 2.7962613 0.29077816 0
-0.22883178 2.7431965 0.39499983 0
-0.23228033 2.7275701 0.50793493 0
-0.22907047 2.742115 0.63682204 0
-0.23953466 2.7861035 -0.049851682 0
-0.23504533 2.8077369 0.062640481 0
-0.23415916 2.8120072 0.1769699 0
-0.2338946 2.813282 0.29314652 0
-0.2479883 2.7453666 0.39451802 0
-0.25028902 2.7342796 0.50886339 0
-0.24892716 2.7408423 0.63458562 0
-0.26026475 2.7826912 -0.04958643 0
-0.25161651 2.8271739 0.063204259 0
-0.25114983 2.8295743 0.1784611 0
-0.2539385 2.8152308 0.29277888 0
-0.26664397 2.7498794 0.39470908 0
-0.27079555 2.7285254 0.50564235 0
-0.26931936 2.7361183 0.63100451 0
-0.27713886 2.7995071 -0.050065223 0
-0.26773098 2.8513751 0.063947186 0
-0.26675272 2.8567684 0.18102378 0
-0.26716983 2.8544688 0.29929319 0
-0.28807634 2.7392063 0.39102304 0
-0.28953421 2.7311687 0.50535536 0
-0.28830287 2.7379572 0.63030142 0
-0.29770467 2.796454 -0.049831361 0
-0.30673012 2.7428601 0.39112145 0
-0.3089672 2.7295761 0.50371969 0
-0.30934113 2.7273557 0.62447697 0
-0.31627795 2.8051627 -0.05003228 0
-0.32629898 2.7407117 0.38978222 0
-0.32795632 2.7300522 0.50286615 0
-0.32801068 2.7297027 0.62420046 0
-0.33658716 2.8027248 -0.049839303 0
-0.34767208 2.7249966 0.38501269 0
-0.34736165 2.7271733 0.50096703 0
-0.34870228 2.7177727 0.61805201 0
-0.35483789 2.815114 -0.050189652 0
-0.36592638 2.7296774 0.38556749 0
-0.36552334 2.7327828 0.50200081 0
-0.36695477 2.7217536 0.6186654 0
-0.37520441 2.8115737 -0.049975161 0
-0.38422266 2.7344964 0.38621607 0
-0.3849709 2.7281013 0.49966267 0
-0.38536233 2.7247558 0.61896563 0
-0.39477476 2.8142409 -0.049992982 0
-0.40480706 2.7180142 0.38145891 0
-0.40434682 2.7224286 0.497078 0
-0.40495291 2.7166152 0.61472368 0
-0.41421187 2.8185363 -0.050077993 0
-0.42303902 2.7221117 0.38204613 0
-0.42369768 2.7149165 0.49396336 0
-0.42345974 2.7175157 0.61434817 0
-0.43379295 2.8218083 -0.050135046 0
-0.44236115 2.7131596 0.37935188 0
-0.44230345 2.713891 0.49309787 0
-0.44164148 2.7222853 0.61567676 0
-0.45403427 2.8157642 -0.049867544 0
-0.46104929 2.7098024 0.37815264 0
-0.46203643 2.6948915 0.48631838 0
-0.46145692 2.7036448 0.60738552 0
-0.47305739 2.8289928 -0.050298393 0
-0.47933647 2.7117724 0.3783755 0
-0.48069385 2.6864324 0.48313802 0
-0.47976956 2.7036874 0.60694987 0
-0.49323404 2.8215549 -0.049999136 0
-0.49792558 2.7069781 0.37692976 0
-0.49835026 2.6966059 0.48624173 0
-0.49888152 2.6836317 0.59828168 0
-0.51279116 2.8286371 -0.050227661 0
-0.51649201 2.6980491 0.37448901 0
-0.51644987 2.6995351 0.4870072 0
-0.51668918 2.6910903 0.60111278 0
-0.53285241 2.8141341 -0.049694221 0
-0.53466612 2.6989191 0.37460876 0
-0.53493869 2.6816034 0.4809072 0
-0.53495014 2.6808765 0.59671819 0
-0.55246514 2.8235698 -0.050024465 0
-0.55286747 2.6958094 0.37377155 0
-0.5529567 2.6674769 0.47615093 0
-0.55293089 2.6756778 0.59449553 0
-0.5722115 2.8221574 -0.049976256 0
-0.57089156 2.6823709 0.37035736 0
-0.57075107 2.6674907 0.47617418 0
-0.57078415 2.6709938 0.59257936 0
-0.5918811 2.8186617 -0.049862523 0
-0.58859128 2.6693783 0.36711395 0
-0.58845609 2.6632445 0.47485426 0
-0.58865935 2.6724672 0.59330583 0
-0.61151558 2.8163788 -0.049800906 0
-0.60613436 2.6610293 0.36511147 0
-0.60621065 2.6632304 0.47501689 0
-0.60590386 2.6543753 0.58602023 0
-0.63151783 2.8227341 -0.05005683 0
-0.62344855 2.6519632 0.36298105 0
-0.62299186 2.642298 0.4682869 0
-0.62286448 2.6396024 0.58019602 0
-0.65105408 2.8182354 -0.049933754 0
-0.64109552 2.651926 0.36321235 0
-0.64001584 2.6338952 0.46579823 0
-0.6405766 2.6432607 0.58210081 0
-0.64096069 2.6496747 0.70540172 0
-0.67080808 2.8178954 -0.049968228 0
-0.65752447 2.6347408 0.35911423 0
-0.65736413 2.63253 0.46572629 0
-0.65712595 2.6292455 0.57676321 0
-0.6568222 2.6250582 0.69363606 0
-0.69007283 2.8114896 -0.049794305 0
-0.67352706 2.6172833 0.46109214 0
-0.67368805 2.6191728 0.57314467 0
-0.67378968 2.6203656 0.69196278 0
-0.71046191 2.8177962 -0.050084881 0
-0.69074082 2.6163425 0.46130258 0
-0.69028044 2.6116395 0.57066476 0
-0.69178689 2.6270282 0.69610345 0
-0.72970229 2.8118258 -0.049944103 0
-0.70653009 2.602355 0.56753892 0
-0.70752704 2.6113672 0.68912631 0
-0.74849296 2.8029964 -0.049708974 0
-0.72233689 2.5910118 0.56363469 0
-0.72318834 2.5979123 0.68335044 0
-0.77085018 2.8215606 -0.05046897 0
-0.7389285 2.5871708 0.67903429 0
-0.78780621 2.8002272 -0.049800415 0
-0.75525743 2.5818348 0.67754459 0
