# .PCD v0.7 - Point Cloud Data file format
VERSION 0.7
FIELDS x y z intensity
SIZE 4 4 4 4
TYPE F F F F
COUNT 1 1 1 1
WIDTH 1357
HEIGHT 1
VIEWPOINT 0 0 0 1 0 0 0
POINTS 1357
DATA ascii
1.8497295 0.92190057 -0.049775917 0
1.8616539 0.94943106 -0.050580241 0
1.8239973 0.95305848 -0.04942831 0
1.8297395 0.97794157 -0.050010543 0
1.8235624 0.99701452 -0.050128303 0
1.8077587 1.0109594 -0.049865529 0
1.8079598 1.0336471 -0.050262749 0
1.7961656 1.0497528 -0.050180387 0
1.782496 1.064683 -0.050027959 0
1.7732296 1.0821767 -0.05006633 0
1.7610517 1.0978794 -0.049991541 0
1.7482892 1.1131461 -0.049899679 0
1.7391722 1.1307559 -0.049971405 0
1.7267088 1.1461506 -0.04990872 0
1.722088 1.1669846 -0.050195657 0
1.7105722 1.183115 -0.050193518 0
1.6904151 1.1928689 -0.049816888 0
1.681659 1.210933 -0.049952812 0
1.6629008 1.2213429 -0.049647935 0
1.6586156 1.243034 -0.050007056 0
1.6464505 1.2586027 -0.05001881 0
1.6289812 1.2697293 -0.049792431 0
1.6164151 1.2848758 -0.049801268 0
1.6019962 1.2983965 -0.049730938 0
1.5903946 1.3144094 -0.049803749 0
1.5796633 1.3313061 -0.049929626 0
1.5635672 1.3432126 -0.049802765 0
1.549096 1.3565878 -0.049762931 0
1.5380669 1.3733807 -0.049905121 0
1.5219749 1.3851134 -0.049800601 0
1.5140584 1.4053686 -0.050126575 0
1.0201929 0.88434172 0.29019475 0
1.4960816 1.4150823 -0.04994119 0
1.0385038 0.9199999 0.30301914 0
1.4837877 1.4309115 -0.050062738 0
1.4354312 1.3772517 0.059483904 0
1.4415619 1.3840548 0.16798335 0
1.4331762 1.3747492 0.27557185 0
1.0493722 0.948852 0.31254691 0
1.4753697 1.4512869 -0.050406404 0
1.4174913 1.3854115 0.059275772 0
1.4169078 1.3847474 0.16627763 0
1.4168483 1.3846797 0.27495229 0
1.0575092 0.97569048 0.32101718 0
1.4533004 1.4561018 -0.050019931 0
1.387274 1.3790164 0.058396362 0
1.392082 1.3846296 0.1645197 0
1.3881013 1.3799822 0.27091491 0
1.0616547 0.99885738 0.32774311 0
1.4392002 1.4700408 -0.05007486 0
1.3641729 1.3801812 0.057895549 0
1.3711884 1.3885835 0.1633942 0
1.361246 1.3766756 0.26733202 0
1.0530218 1.0075171 0.32808837 0
1.415983 1.4728432 -0.049624827 0
1.3400669 1.3795559 0.057330903 0
1.3368721 1.3756301 0.15997416 0
1.3380297 1.3770528 0.26472124 0
1.0583694 1.0334007 0.33586496 0
1.4041457 1.4894888 -0.049823437 0
1.3201772 1.3836111 0.056999031 0
1.3169047 1.3794847 0.15895312 0
1.3222967 1.3862836 0.26424199 0
1.0591074 1.0544223 0.34147108 0
1.3857576 1.4978915 -0.049654968 0
1.2899764 1.3739446 0.056062631 0
1.2955906 1.3812099 0.15768707 0
1.3006612 1.3877716 0.26204795 0
1.054189 1.0688213 0.3442345 0
1.370841 1.5107131 -0.049695961 0
1.279052 1.3887898 0.056247506 0
1.2743818 1.3825864 0.15642233 0
1.2762929 1.3851249 0.25900304 0
1.0409256 1.0724868 0.34252793 0
1.3609843 1.530489 -0.050052803 0
1.2505622 1.3799062 0.055386286 0
1.2584962 1.3907257 0.15610625 0
1.2516565 1.3813986 0.2558136 0
1.026188 1.073927 0.33998823 0
1.3395363 1.5344715 -0.049719069 0
1.2441032 1.4008328 0.055856358 0
1.2430729 1.3993899 0.15588886 0
1.2398928 1.3949367 0.25654784 0
1.0196303 1.0864944 0.34209645 0
1.3311743 1.5568684 -0.050200745 0
1.2521971 1.4432762 0.057261493 0
1.2519367 1.4429016 0.16026014 0
1.2433308 1.430524 0.26215154 0
1.0190182 1.1078964 0.34779969 0
1.3122692 1.5642986 -0.050037701 0
1.2407976 1.4586887 0.057485033 0
1.2441169 1.4635935 0.16161855 0
1.2423604 1.4609979 0.26658475 0
1.0061073 1.111899 0.34646803 0
1.2961273 1.575721 -0.050056878 0
1.2449324 1.4979819 0.058733724 0
1.2430434 1.4951135 0.16437183 0
1.2414049 1.4926255 0.27123308 0
1.170042 1.3842613 0.34811077 0
0.9919613 1.1138465 0.3443937 0
1.2773653 1.5830846 -0.049912464 0
1.2446961 1.5320902 0.059750341 0
1.246905 1.5355381 0.16824125 0
1.2235463 1.4990766 0.27045432 0
1.1516402 1.3868361 0.34610417 0
0.99099231 1.1360753 0.35042009 0
1.2613629 1.5946908 -0.049957614 0
1.2476814 1.5727309 0.061033908 0
1.2509775 1.5780215 0.17233494 0
1.2068076 1.5071255 0.27006906 0
1.1252955 1.3762925 0.34023985 0
0.977718 1.1394196 0.34900182 0
1.2452375 1.6061615 -0.050005209 0
1.1909592 1.516546 0.2700206 0
1.1067084 1.3774449 0.33800814 0
0.96110934 1.1370554 0.34543923 0
0.83827949 0.93425882 0.47046328 0
1.2297629 1.6188102 -0.050109699 0
1.1737115 1.5235816 0.26951531 0
1.0949478 1.3897661 0.33916888 0
0.95699495 1.1553909 0.34997505 0
0.84086382 0.95808989 0.48338363 0
1.2103628 1.6247481 -0.0499455 0
1.1644047 1.5443692 0.27191588 0
1.0762336 1.3901616 0.33686015 0
0.94008428 1.152042 0.34618801 0
0.8523497 0.9985978 0.35617888 0
0.84058601 0.97802359 0.41731438 0
0.83613443 0.97023791 0.48820782 0
1.1930029 1.6341288 -0.049933035 0
1.1432797 1.5445662 0.27007657 0
1.0528313 1.3816488 0.33203691 0
0.93309081 1.1659697 0.34908289 0
0.84823906 1.0131332 0.36058667 0
0.8351351 0.98953003 0.42099142 0
0.8377232 0.99419171 0.50104696 0
1.1740031 1.6404541 -0.049805641 0
1.1253402 1.5501401 0.26940593 0
1.0335824 1.3798463 0.32927674 0
0.92474788 1.1778594 0.35122135 0
0.85189855 1.0426579 0.37203878 0
0.84240991 1.0250478 0.43832955 0
0.84152722 1.0234096 0.51733196 0
1.1609215 1.6579145 -0.05013733 0
1.1096008 1.5597273 0.26960251 0
1.0170462 1.3826509 0.32793093 0
0.9145022 1.1864625 0.35215163 0
0.84810382 1.0594285 0.37743568 0
0.84254259 1.0487887 0.44885322 0
0.84030622 1.0445101 0.52804613 0
1.1383851 1.6572422 -0.049747776 0
1.0940812 1.5698154 0.2699393 0
1.0057598 1.3955271 0.32953414 0
0.8999843 1.1867955 0.35003969 0
0.84907466 1.0863333 0.38752449 0
0.84104806 1.0704941 0.45816737 0
0.83853394 1.0655328 0.53865063 0
1.1207559 1.6659473 -0.049744919 0
1.0736501 1.5700144 0.26832649 0
0.97734773 1.3738905 0.32135847 0
0.8869822 1.1898574 0.34902021 0
0.84629011 1.1069863 0.39466178 0
0.83776635 1.0896274 0.46600091 0
0.84187657 1.0979979 0.55676448 0
1.1055048 1.679656 -0.049948681 0
0.96608865 1.3864548 0.32299486 0
0.87857878 1.2024158 0.35156575 0
0.83858794 1.1183125 0.39749658 0
0.84395778 1.1296057 0.48535928 0
0.83482027 1.1103889 0.56156015 0
1.089052 1.6911049 -0.050070021 0
0.94532537 1.3787568 0.31897116 0
0.86738884 1.2093843 0.35208824 0
0.83835298 1.1462833 0.40794545 0
0.8429687 1.1563143 0.49725422 0
0.84089726 1.1518126 0.58533961 0
1.0718274 1.7010372 -0.050139546 0
0.93154484 1.3857802 0.31915414 0
0.85320705 1.2097318 0.35024825 0
0.83920884 1.1782734 0.42015877 0
0.83975011 1.17949 0.50715476 0
0.83967358 1.179318 0.59990174 0
1.0521456 1.7053871 -0.050000202 0
0.91522312 1.3869456 0.31775755 0
0.84939945 1.2338591 0.35709479 0
0.83990192 1.2117707 0.43298045 0
0.84233141 1.2174208 0.52506018 0
0.8406015 1.2133975 0.61863929 0
1.0346148 1.7146702 -0.050061885 0
0.89592844 1.3805964 0.31434932 0
0.84953016 1.2688302 0.36782914 0
0.83953553 1.2447547 0.44550136 0
0.84352845 1.2543731 0.54232442 0
0.83647603 1.2373848 0.63079113 0
1.0187318 1.7281935 -0.050294843 0
0.87964219 1.3808614 0.31284297 0
0.84859854 1.3033398 0.37834361 0
0.83784086 1.2764759 0.45739812 0
0.84182149 1.2864162 0.55684787 0
0.83859426 1.2783571 0.65376574 0
0.9966113 1.7260189 -0.04993362 0
0.8628397 1.3793824 0.31092319 0
0.85005784 1.3462614 0.39181104 0
0.83726877 1.3131216 0.47143218 0
0.83777869 1.3144429 0.56915843 0
0.84050822 1.3215158 0.67800176 0
0.97675085 1.729205 -0.049788885 0
0.85009062 1.3882768 0.31189343 0
0.8427521 1.3685238 0.39787689 0
0.84150207 1.3651592 0.49220237 0
0.83896482 1.3583297 0.58990413 0
0.84327686 1.3699362 0.70543832 0
0.95961529 1.7397245 -0.049932316 0
0.83076411 1.3790517 0.30799392 0
0.84086245 1.4073185 0.40978873 0
0.83852017 1.400762 0.50563008 0
0.8402862 1.4057053 0.6124025 0
0.94084209 1.7457925 -0.049915273 0
0.82124835 1.3972411 0.31157154 0
0.840119 1.4522388 0.42381224 0
0.84246475 1.4590755 0.52895743 0
0.84266496 1.459659 0.63827467 0
0.92155224 1.7502621 -0.04984713 0
1.0297771 2.0791109 0.35055411 0
0.80317038 1.3905507 0.30848411 0
0.83899516 1.4994067 0.43856823 0
0.8413229 1.5064797 0.54741162 0
0.8388685 1.4990219 0.65633845 0
0.90394437 1.7599185 -0.049982522 0
1.0056088 2.082454 0.3497915 0
0.78156143 1.3716525 0.30220422 0
0.83959699 1.5557731 0.45647949 0
0.83934778 1.5549825 0.56627578 0
0.8398124 1.5564564 0.68383646 0
0.88657373 1.7707036 -0.050167773 0
0.98498118 2.097188 0.35123482 0
0.76983571 1.3834039 0.30418798 0
0.83987206 1.6157624 0.47557908 0
0.84012759 1.6166102 0.59075499 0
0.86377239 1.7630984 -0.049677297 0
0.96075988 2.1001751 0.3505173 0
0.75309402 1.3784391 0.30176598 0
0.84099042 1.6839203 0.49743634 0
0.83960527 1.6791061 0.61551553 0
0.84407592 1.7655221 -0.049570419 0
0.73893774 1.3820095 0.047373336 0
0.73880464 1.3815242 0.13048941 0
0.73939085 1.3836625 0.21531071 0
0.74206793 1.3934276 0.30468675 0
0.83708262 1.7400125 0.51505113 0
0.83676058 1.7388378 0.63900685 0
0.82856077 1.7837007 -0.050054323 0
0.72343832 1.3803974 0.047174796 0
0.72629124 1.3913426 0.13116141 0
0.72342533 1.3803476 0.21398938 0
0.72377443 1.3816869 0.3005873 0
0.83325112 1.8016956 0.53454733 0
0.83216822 1.797541 0.66199648 0
0.80841321 1.7845788 -0.049907666 0
0.71093851 1.3903432 0.047409117 0
0.70989007 1.3861028 0.13018174 0
0.71001589 1.3866118 0.21448913 0
0.70823091 1.3793924 0.2990438 0
0.82156879 1.8377867 0.5452289 0
0.82301319 1.8436284 0.67955869 0
0.78973585 1.7913016 -0.049985051 0
0.69548684 1.3884063 0.047212847 0
0.69707018 1.3951746 0.13080741 0
0.69455701 1.3844312 0.21345462 0
0.6947602 1.3852998 0.2997053 0
0.81906003 1.9166565 0.57054579 0
0.7704277 1.7954335 -0.04997611 0
0.67973965 1.3844981 0.046952177 0
0.67985046 1.3850002 0.12933098 0
0.68037963 1.3873981 0.21340968 0
0.67904919 1.3813697 0.29783905 0
0.80438644 1.9493109 0.58005762 0
0.74892342 1.7889673 -0.049589638 0
0.66490746 1.384106 0.046827633 0
0.66720992 1.3952013 0.13011859 0
0.66372824 1.3784235 0.21119824 0
0.6667186 1.3928337 0.30004051 0
0.79192966 1.9962082 0.59444708 0
0.73004615 1.794601 -0.049654048 0
0.64930654 1.3793117 0.046550084 0
0.65112132 1.3886461 0.12908725 0
0.65138036 1.3899785 0.21280262 0
0.65041131 1.3849939 0.29725981 0
0.77627802 2.0323973 0.60522527 0
0.71325839 1.8120265 -0.050154798 0
0.63641119 1.3883495 0.046782184 0
0.6349678 1.3803917 0.12789482 0
0.63405949 1.3753839 0.20963885 0
0.63649148 1.3887922 0.29755637 0
0.76349372 2.0889859 0.6229431 0
0.69263464 1.8088194 -0.049915165 0
0.62167764 1.3874712 0.04666068 0
0.62060505 1.3811022 0.12770411 0
0.61907744 1.3720312 0.20857774 0
0.62022543 1.378848 0.29434222 0
0.74593258 2.1253068 0.63383991 0
0.67412436 1.8181256 -0.050137501 0
0.60668045 1.3843547 0.046465252 0
0.60579526 1.3786614 0.12719074 0
0.60613394 1.3808398 0.2097728 0
0.60588431 1.3792341 0.29385459 0
0.72653002 2.1551769 0.64261806 0
0.65182114 1.8019682 -0.04944957 0
0.59214354 1.3835053 0.046358753 0
0.59136224 1.3780268 0.12689464 0
0.59292626 1.3889936 0.21087615 0
0.59216011 1.3836213 0.29444551 0
0.70679402 2.1874418 0.6522674 0
0.63478249 1.8226287 -0.050098356 0
0.57795608 1.3847823 0.046335571 0
0.57760441 1.3820724 0.1271259 0
0.57751477 1.381382 0.20914085 0
0.57795584 1.3847803 0.29424945 0
0.68865663 2.2377284 0.66803044 0
0.61483216 1.8223686 -0.050001916 0
0.56426013 1.3901389 0.046465494 0
0.56341654 1.3829287 0.12703052 0
0.56295407 1.378976 0.2083886 0
0.56276739 1.3773803 0.29190111 0
0.66718197 2.2697926 0.67774302 0
0.59444749 1.8173162 -0.049742606 0
0.55196857 1.4098712 0.12977323 0
0.55163252 1.4066484 0.2131246 0
0.55256116 1.4155555 0.30129564 0
0.64460695 2.2984304 0.68638718 0
0.57462496 1.8164322 -0.049642242 0
0.55152446 1.5640906 0.14626391 0
0.55229747 1.572535 0.24291198 0
0.55156523 1.5645357 0.33910042 0
0.62266755 2.3412333 0.69984877 0
0.55547714 1.8232439 -0.049826521 0
0.60296232 2.4253783 0.23896286 0
0.5982843 2.3660588 0.38621327 0
0.5975222 2.3563955 0.5413993 0
0.53576201 1.8235003 -0.049784731 0
0.57326919 2.3900447 0.39020145 0
0.57360429 2.3951066 0.55080861 0
0.51622766 1.8266392 -0.049854912 0
0.54821855 2.423857 0.39601865 0
0.54795432 2.4189243 0.55648327 0
0.49680504 1.833793 -0.050077301 0
0.52206349 2.450654 0.4006235 0
0.52184343 2.4452803 0.56288576 0
0.47741786 1.8478451 -0.050554723 0
0.45665058 1.1150513 0.3583532 0
0.45635518 1.1046283 0.42658278 0
0.45727873 1.8357226 -0.050106186 0
0.44590193 1.1130233 0.35741562 0
0.44584119 1.109165 0.42873621 0
0.43748716 1.8345141 -0.050056372 0
0.4351584 1.0950431 0.42162013 0
0.4351179 1.0821869 0.49100581 0
0.41771945 1.8341688 -0.050046265 0
0.4247224 1.0925348 0.42038161 0
0.42489761 1.0739821 0.48615897 0
0.39811909 1.826411 -0.049780339 0
0.41414991 1.0989747 0.35163939 0
0.41397345 1.1069828 0.42769441 0
0.414765 1.071064 0.48452315 0
0.37813699 1.8350017 -0.050107133 0
0.3525078 2.5748901 0.42294887 0
0.35244936 2.5765774 0.5962714 0
0.40505177 1.0579996 0.47694147 0
0.35822919 1.83707 -0.050209988 0
0.32258514 2.5914085 0.42614624 0
0.32244012 2.5944769 0.60114759 0
0.39552113 1.0478573 0.47116271 0
0.33813006 1.8410671 -0.050390869 0
0.29170173 2.6164246 0.43094939 0
0.29150259 2.6197498 0.60800868 0
0.38615617 1.0390266 0.46623018 0
0.31951693 1.8227682 -0.049782887 0
0.26121852 2.6265869 0.43314138 0
0.26118967 2.6269848 0.6103614 0
0.29937112 1.8274739 -0.050006911 0
0.23027813 2.6384544 0.43571377 0
0.23103835 2.6295316 0.61161387 0
0.28099799 1.8124175 -0.049531408 0
0.19860899 2.6540313 0.43903202 0
0.19814278 2.6587937 0.6198138 0
0.25952715 1.8283856 -0.050177909 0
0.16686039 2.666069 0.44178513 0
0.16522424 2.6808596 0.62628412 0
0.34725717 1.0353287 0.4660033 0
0.24057667 1.8201778 -0.049965482 0
0.13519783 2.6742313 0.44391081 0
0.13499145 2.6759038 0.62592465 0
0.21992238 1.8255677 -0.050251219 0
0.10212977 2.6904781 0.44758418 0
0.10191076 2.6920865 0.63110536 0
0.20111261 1.8171929 -0.050050028 0
0.06840165 2.7076414 0.45150739 0
0.070551589 2.6932161 0.63252032 0
0.18090539 1.818316 -0.050200485 0
0.03676407 2.7084374 0.45252588 0
0.036334768 2.7110887 0.6383673 0
0.16141553 1.8147029 -0.050188832 0
0.0030055509 2.7205071 0.4556835 0
0.0012752281 2.7304013 0.64471173 0
0.14120077 1.8149754 -0.050327204 0
-0.02805881 2.7158232 0.45585218 0
-0.030876799 2.7308211 0.64628112 0
0.12440334 1.7977313 -0.049837321 0
-0.087051824 2.8499727 0.10015472 0
-0.090025082 2.8647683 0.29104978 0
-0.061497852 2.7228112 0.45824027 0
-0.064512148 2.7378111 0.64966947 0
0.10527916 1.7929908 -0.049810335 0
-0.11418517 2.81809 0.09923701 0
-0.11262335 2.8107948 0.28586367 0
-0.09645243 2.7352617 0.46171981 0
-0.095614985 2.7313502 0.6496678 0
0.084344462 1.7962874 -0.050086331 0
-0.14287831 2.7959661 0.098686472 0
-0.14344563 2.7984622 0.28528324 0
-0.12812932 2.7310772 0.46221399 0
-0.12735642 2.7276769 0.65049785 0
0.066861287 1.7843916 -0.049814969 0
-0.1776578 2.8007793 0.099136621 0
-0.17455865 2.7878973 0.28493929 0
-0.15805824 2.7193103 0.46137708 0
-0.16352154 2.7420194 0.65616268 0
0.044795886 1.7913054 -0.050243672 0
-0.21002944 2.7947993 0.099206768 0
-0.20812316 2.7872927 0.28574201 0
-0.19759817 2.7458456 0.46773449 0
-0.19655885 2.7417526 0.65811974 0
0.030879932 1.7665583 -0.049514025 0
-0.25670606 2.8421073 0.10126146 0
-0.25105679 2.8209794 0.29040912 0
-0.22734268 2.7322905 0.46672192 0
-0.23023202 2.7430964 0.66061842 0
0.0074966713 1.7774031 -0.05010815 0
-0.26106042 2.7333829 0.46851969 0
-0.26169533 2.7356431 0.66090685 0
-0.010269715 1.7676849 -0.049950104 0
-0.29247606 2.7257535 0.46876401 0
-0.29482937 2.7337427 0.66277844 0
-0.027447743 1.7564261 -0.049742233 0
-0.32671297 2.7271421 0.47078574 0
-0.3274827 2.7296388 0.66418022 0
-0.047577903 1.7547994 -0.049902894 0
-0.35918826 2.7221248 0.47168344 0
-0.36072022 2.7268806 0.66605824 0
-0.066994175 1.7506832 -0.04998 0
-0.39537644 2.7277451 0.47468653 0
-0.39311355 2.7210121 0.6672197 0
-0.086734012 1.7473168 -0.050095044 0
-0.42949933 2.7261829 0.4764173 0
-0.42570513 2.7153475 0.66855133 0
-0.1006815 1.7278073 -0.04960664 0
-0.45691615 2.7054949 0.4745672 0
-0.45545465 2.7014837 0.66777384 0
-0.12186278 1.7283638 -0.049888618 0
-0.48747444 2.6938171 0.47451225 0
-0.49109375 2.7033744 0.67139274 0
-0.14031382 1.7214236 -0.049894623 0
-0.51565564 2.6761 0.4733611 0
-0.52175534 2.6916144 0.67141002 0
-0.1622922 1.7231143 -0.050242357 0
-0.54739207 2.6675136 0.47405127 0
-0.55174059 2.6781776 0.67107147 0
-0.17642106 1.7055894 -0.049857903 0
-0.58584809 2.6745694 0.47788575 0
-0.57971346 2.6600506 0.66953635 0
-0.19450732 1.6977798 -0.049856819 0
-0.61241043 2.6530876 0.47621885 0
-0.61433649 2.6574907 0.67242569 0
-0.213506 1.6919807 -0.049943417 0
-0.63832378 2.630724 0.47443384 0
-0.64120817 2.6370978 0.67045939 0
-0.2310176 1.6828513 -0.049908664 0
-0.67025697 2.6218047 0.47537994 0
-0.66922283 2.6195939 0.66939014 0
-0.24924912 1.6752607 -0.049943432 0
-0.69924998 2.6064854 0.4751302 0
-0.70204473 2.6122687 0.67129833 0
-0.26759291 1.6678333 -0.049994063 0
-0.73069572 2.5961492 0.47595659 0
-0.73156214 2.5978858 0.67132372 0
-0.28688717 1.6621677 -0.05012501 0
-0.75536811 2.5723896 0.47414559 0
-0.75863087 2.5787289 0.67008567 0
-0.30316603 1.6506165 -0.050028741 0
-0.78313422 2.5549874 0.4736838 0
-0.78167498 2.552238 0.66681921 0
-0.3204571 1.6410511 -0.050020922 0
-0.81601906 2.5470672 0.47523955 0
-0.80817747 2.5327308 0.66564512 0
-0.33846825 1.6327685 -0.05007451 0
-0.61293662 2.1198971 0.082036205 0
-0.83553445 2.5149658 0.47188613 0
-0.83653152 2.5167353 0.6655885 0
-0.35367757 1.6195747 -0.049935114 0
-0.62022257 2.0790167 0.080898277 0
-0.86016607 2.4926059 0.47059032 0
-0.86266506 2.4969134 0.66450769 0
-0.37237346 1.6124059 -0.050053123 0
-0.61635458 2.0210135 0.079043597 0
-0.88914073 2.4778624 0.47094947 0
-0.88783646 2.475678 0.66309619 0
-0.39249641 1.6073949 -0.050272293 0
-0.60819757 1.9585197 0.076984324 0
-0.9114362 2.4521406 0.46906471 0
-0.9134742 2.4554579 0.66207224 0
-0.40651858 1.5924325 -0.050083622 0
-0.61852348 1.9279925 0.076254226 0
-0.93668199 2.4315717 0.4683238 0
-0.93479776 2.4285893 0.65913075 0
-0.42112041 1.5786009 -0.049949031 0
-0.6234777 1.8901336 0.075211525 0
-0.96200502 2.4113023 0.46770927 0
-0.95323074 2.397794 0.65505183 0
-0.43726623 1.5672474 -0.04992754 0
-0.61724913 1.8368416 0.073500201 0
-0.98144889 2.3823717 0.46528032 0
-0.98069239 2.3812387 0.65537769 0
-0.45449793 1.5574982 -0.049984079 0
-0.61420918 1.7903249 0.07206399 0
-1.0039461 2.3584828 0.46398625 0
-1.0025036 2.3563802 0.65324408 0
-0.46575749 1.539199 -0.049677145 0
-0.61925864 1.7570409 0.071191236 0
-1.0197076 2.32534 0.4607012 0
-1.021584 2.3280029 0.65007854 0
-0.48393911 1.530829 -0.049811192 0
-0.61620462 1.7136025 0.0698658 0
-0.61505532 1.7120143 0.19804043 0
-1.0414864 2.301286 0.4594534 0
-1.037143 2.295284 0.64559197 0
-0.072294369 0.96199006 0.43685398 0
-0.50718528 1.5291115 -0.05025252 0
-0.62177968 1.6833391 0.069112189 0
-0.61594081 1.6754808 0.19493045 0
-1.0654494 2.2804551 0.45897943 0
-1.0611321 2.2746449 0.64496481 0
-0.096000925 0.97571599 0.44940653 0
-0.51795936 1.5105239 -0.049953707 0
-0.61684155 1.6401631 0.067774661 0
-0.62041211 1.6448442 0.192589 0
-1.0789977 2.2460713 0.45549485 0
-1.0819615 2.2499568 0.64312899 0
-0.094182327 0.95493257 0.4405514 0
-0.53071398 1.4948032 -0.049788032 0
-0.61779153 1.6060331 0.066831216 0
-0.62116194 1.6103383 0.18970391 0
-1.091439 2.2110543 0.45186967 0
-1.0904022 2.2097299 0.63632464 0
-0.11101855 0.95869845 0.44719332 0
-0.53941733 1.4742212 -0.04940537 0
-0.6172415 1.5710931 0.065841645 0
-0.60827875 1.5599366 0.18459949 0
-1.1158732 2.1917658 0.4518823 0
-1.1102223 2.184732 0.63446969 0
-0.12403525 0.95717335 0.45064241 0
-0.56108946 1.4697917 -0.049771089 0
-0.61796331 1.538788 0.064963333 0
-0.61830044 1.5391968 0.18355051 0
-1.1275927 2.157042 0.44835904 0
-1.1232989 2.1518331 0.6300652 0
-0.1370088 0.95532024 0.4540205 0
-0.58081591 1.462657 -0.050026935 0
-0.6260401 1.5161341 0.06452731 0
-0.62012887 1.5091442 0.1811972 0
-1.1440475 2.1286721 0.44633347 0
-1.1488845 2.1343918 0.63083309 0
-0.14875861 0.95175409 0.45641875 0
-0.59758699 1.4518355 -0.050123017 0
-0.61447978 1.4713085 0.063043363 0
-0.62132967 1.4792044 0.17883736 0
-1.1592416 2.0992727 0.44408911 0
-1.163097 2.1037171 0.62724805 0
-0.6133883 1.4398175 -0.050173037 0
-0.63214719 1.4608994 0.063180506 0
-0.63754547 1.466966 0.17899954 0
-1.1693658 2.06464 0.440602 0
-1.165682 2.0605001 0.61940002 0
-0.61976683 1.4174178 -0.049731407 0
-0.6607039 1.4622736 0.063899472 0
-0.6547817 1.4557844 0.17934692 0
-1.1805325 2.0318646 0.43755904 0
-1.1773154 2.0283396 0.61529154 0
-0.64629769 1.4169998 -0.050363354 0
-0.50385076 1.2648102 0.054921303 0
-0.69003177 1.4637251 0.18254496 0
-1.1878339 1.9955746 0.43364632 0
-1.189824 1.9977007 0.61171699 0
-0.65952432 1.4020736 -0.050301451 0
-0.5079658 1.2441818 0.054487858 0
-0.72121787 1.4663451 0.18505502 0
-1.202723 1.9679711 0.43188047 0
-1.2038872 1.9691839 0.60890484 0
-0.67063069 1.385051 -0.050142046 0
-0.51587546 1.2278401 0.054266337 0
-0.7530998 1.4688289 0.18763469 0
-1.2142016 1.9372478 0.42935023 0
-1.2131242 1.9361532 0.60450459 0
-0.68473852 1.3711557 -0.050146297 0
-0.53355724 1.2213949 0.054549046 0
-0.77119637 1.4568013 0.18809228 0
-1.2144045 1.8958453 0.42408773 0
-1.2195092 1.900902 0.59928507 0
-0.69831419 1.3567379 -0.050132826 0
-0.54438543 1.2080483 0.054492198 0
-0.80740798 1.4621184 0.19127387 0
-1.2208607 1.8614985 0.42058846 0
-1.218047 1.8587805 0.59150344 0
-0.71093917 1.3414332 -0.050081838 0
-0.55938411 1.1986814 0.05464885 0
-0.8351624 1.4584408 0.19315943 0
-1.2255549 1.8261569 0.41680166 0
-1.2256973 1.826291 0.58719438 0
-0.72155333 1.3243264 -0.049943365 0
-0.87789583 1.4679157 0.069521867 0
-0.86348903 1.4546841 0.19511361 0
-1.2267026 1.7882696 0.41229954 0
-1.2230313 1.7848978 0.57950377 0
-0.22627093 0.86944491 0.37635931 0
-0.73677254 1.31147 -0.050037511 0
-0.90224743 1.4596496 0.069967628 0
-0.90375066 1.4609957 0.1987745 0
-1.239059 1.7612574 0.41067758 0
-1.2353523 1.7579383 0.57721162 0
-0.2433861 0.86965239 0.38166633 0
-0.75090063 1.297569 -0.05008664 0
-0.93601573 1.4591824 0.070859753 0
-1.2355762 1.7207116 0.40536323 0
-1.234437 1.719717 0.5705772 0
-0.23814805 0.84991378 0.37462801 0
-0.76614523 1.2845684 -0.050195836 0
-0.97762012 1.4645536 0.07211002 0
-1.2341107 1.6828513 0.40070483 0
-1.2362819 1.6846991 0.56510031 0
-0.22358908 0.82280189 0.36273289 0
-0.24916334 0.84456795 0.45389533 0
-0.77802336 1.2686709 -0.050155368 0
-1.0029284 1.4552547 0.072588198 0
-1.2448258 1.6559354 0.39906141 0
-1.2384611 1.6506553 0.55993819 0
-0.24629445 0.82754266 0.37119299 0
-0.79064906 1.2534105 -0.050158869 0
-1.0474298 1.4610362 0.073948123 0
-1.2447168 1.6205571 0.39500323 0
-1.2411227 1.6176509 0.55512792 0
-0.24902464 0.81546813 0.36889976 0
-0.80236185 1.2374237 -0.050129626 0
-1.0808471 1.4568582 0.074787505 0
-1.2515907 1.5913968 0.39269128 0
-1.2302129 1.5745519 0.54609263 0
-0.26734895 0.8158564 0.37492973 0
-0.81123197 1.2192763 -0.049981818 0
-1.1265284 1.4613444 0.076173186 0
-1.2511005 1.5569842 0.38881108 0
-1.2421753 1.550132 0.54467654 0
-0.25016952 0.78852224 0.36236668 0
-0.24526562 0.78475726 0.43355659 0
-0.82098114 1.2019128 -0.049884822 0
-1.1703746 1.4632328 0.077461548 0
-1.2479633 1.5212632 0.38446918 0
-1.242189 1.5169445 0.53956532 0
-0.25688547 0.78001195 0.36245477 0
-0.26555288 0.78649449 0.44217184 0
-0.8332715 1.1864814 -0.049910665 0
-1.2135228 1.4634835 0.078706257 0
-1.2472488 1.4880519 0.38080826 0
-1.2357172 1.4796515 0.53258616 0
-1.2371026 1.4806608 0.69324285 0
-0.26086044 0.7694962 0.36119312 0
-0.27970314 0.78322256 0.44689587 0
-0.84047556 1.1674155 -0.04972218 0
-1.2622225 1.466591 0.080182768 0
-1.2528987 1.4599769 0.37868014 0
-1.2466012 1.4555097 0.53124565 0
-1.2422384 1.4524148 0.68914485 0
-0.2840479 0.7727012 0.36976311 0
-0.2740494 0.76560855 0.43945464 0
-0.85667264 1.154718 -0.049935974 0
-1.290246 1.4541485 0.080747686 0
-1.2519149 1.4276767 0.37519425 0
-1.2352279 1.4161525 0.52311021 0
-1.2322311 1.4140829 0.67910415 0
-0.27728742 0.75458831 0.43762004 0
-0.87617993 1.1440603 -0.050297271 0
-1.2757388 1.4126332 0.079485089 0
-1.2770443 1.4135106 0.22737648 0
-1.2574652 1.4003501 0.37324643 0
-1.232087 1.3832916 0.51772714 0
-1.237198 1.386727 0.67534506 0
-0.28472292 0.7464987 0.43841547 0
-0.8835578 1.1251611 -0.050143924 0
-1.2708595 1.3784739 0.078665942 0
-1.2694877 1.3775767 0.22456548 0
-1.249464 1.3644803 0.36846873 0
-1.2374508 1.3566231 0.51510757 0
-1.246309 1.3624167 0.67340177 0
-0.28194809 0.73168111 0.4331612 0
-0.89486647 1.1088871 -0.050168239 0
-1.2790897 1.353335 0.078426331 0
-1.2760527 1.3514028 0.2236335 0
-1.248883 1.3341171 0.36541218 0
-1.2426208 1.330133 0.51255226 0
-1.2442093 1.3311436 0.66717458 0
-0.29477799 0.72710288 0.4373138 0
-0.89717925 1.0870239 -0.04982334 0
-1.2958784 1.3336849 0.078561224 0
-1.2927445 1.3317461 0.22403035 0
-1.2549266 1.3083495 0.36386564 0
-1.2314521 1.2938266 0.50521547 0
-1.2449362 1.3021688 0.66225612 0
-0.91141677 1.0726122 -0.049989346 0
-1.3072853 1.3106825 0.078481235 0
-1.3010339 1.306923 0.22340164 0
-1.2556844 1.2796504 0.36128694 0
-1.2410094 1.270825 0.50424105 0
-1.2418013 1.2713013 0.65601778 0
-0.9196465 1.0545505 -0.049913242 0
-1.3254085 1.2916657 0.078691572 0
-1.3288417 1.2936718 0.22524612 0
-1.2620711 1.2546532 0.35997868 0
-1.2463055 1.2454402 0.50210059 0
-1.2382543 1.2407353 0.64981669 0
-0.91648197 1.0300796 -0.049379308 0
-1.3822051 1.2944245 0.080497876 0
-1.3969154 1.3027742 0.23207401 0
-1.2531772 1.2211882 0.35557643 0
-1.2434505 1.2156672 0.49767819 0
-1.2462864 1.2172769 0.64823711 0
-0.93807709 1.0196794 -0.049870942 0
-1.2531977 1.1933329 0.35312736 0
-1.2424173 1.1873922 0.49392667 0
-1.242817 1.1876125 0.64241201 0
-0.94447088 1.0007534 -0.049749173 0
-1.2532947 1.1659021 0.35078233 0
-1.2378317 1.1576331 0.4892759 0
-1.2492342 1.1637307 0.64049745 0
-0.96416163 0.98881739 -0.050172586 0
-1.2578975 1.1411729 0.34943843 0
-1.240199 1.1319931 0.48676175 0
-1.2368624 1.1302624 0.6316666 0
-0.97495079 0.97206783 -0.050243642 0
-1.2761676 1.1235214 0.35092497 0
-1.2415483 1.1061146 0.48406529 0
-1.2311299 1.1008762 0.6255213 0
-0.97656047 0.95078748 -0.04995814 0
-1.2800157 1.0986094 0.34955397 0
-1.2447873 1.0814487 0.48201436 0
-1.2409322 1.0795708 0.62529981 0
-0.98932588 0.93498784 -0.050125279 0
-1.2909275 1.0772365 0.34966236 0
-1.2455065 1.0558139 0.47935265 0
-1.2454629 1.0557934 0.62323958 0
-0.99480987 0.91573232 -0.050013546 0
-1.2992344 1.054654 0.34930721 0
-1.2336813 1.0247394 0.47327903 0
-1.2395512 1.027418 0.61748213 0
-1.0031368 0.89781392 -0.050022859 0
-1.3114648 1.0338526 0.34978369 0
-1.2419004 1.0031599 0.47293803 0
-1.2383676 1.0016011 0.61360621 0
-1.0068803 0.8779313 -0.049863026 0
-1.3170907 1.0101596 0.34901428 0
-1.2393428 0.97701925 0.46968561 0
-1.2292262 0.97270703 0.60699093 0
-1.0226243 0.86310476 -0.050176986 0
-1.3450027 0.99574834 0.35265338 0
-1.2322468 0.94935459 0.46528897 0
-1.2393486 0.95227665 0.60747135 0
-1.0224351 0.84171426 -0.049884591 0
-1.3397232 0.96761578 0.34986955 0
-1.251201 0.93248969 0.46816048 0
-1.2281065 0.92332566 0.60039467 0
-1.0339969 0.82503366 -0.05005306 0
-1.3477694 0.94498962 0.34974056 0
-1.2377601 0.90293282 0.46222788 0
-1.2448194 0.9056316 0.60343909 0
-1.0319663 0.80322194 -0.049711689 0
-1.3579774 0.92317408 0.35008252 0
-1.2363474 0.87842166 0.45969409 0
-1.2430921 0.8809033 0.60001159 0
-1.0471293 0.78774375 -0.050033353 0
-1.362819 0.89940572 0.34944901 0
-1.2430233 0.85703301 0.45944417 0
-1.2402779 0.85606194 0.59632587 0
-1.0562294 0.76996374 -0.050132424 0
-1.3677084 0.87574303 0.34888446 0
-1.2381315 0.83173829 0.45615125 0
-1.23985 0.83232188 0.59360456 0
-1.0582809 0.74981177 -0.049974866 0
-1.3840014 0.85587239 0.35054174 0
-1.2390555 0.80867529 0.45451787 0
-1.2432808 0.81005114 0.59234917 0
-1.0647686 0.73115587 -0.049993318 0
-1.3766881 0.8283962 0.34778047 0
-1.2409486 0.78607965 0.45322767 0
-1.2461325 0.78769571 0.59099489 0
-1.0669373 0.71119618 -0.049859587 0
-1.4017419 0.81096327 0.35118577 0
-1.2311832 0.76013917 0.4489145 0
-1.2313428 0.76018673 0.58361936 0
-1.0746391 0.69290447 -0.049941041 0
-1.4096022 0.78814352 0.35139641 0
-1.2461995 0.74168372 0.45127669 0
-1.2414287 0.7403273 0.58499426 0
-1.0804517 0.67403847 -0.049960878 0
-1.4062045 0.76224107 0.34955662 0
-1.240059 0.71725464 0.4481003 0
-1.2353061 0.71596771 0.58086407 0
-1.0933115 0.65696806 -0.050249215 0
-1.4163948 0.74009603 0.35031408 0
-1.2376436 0.69410408 0.44599667 0
-1.2367535 0.69387507 0.57945335 0
-1.0888914 0.63547021 -0.049909569 0
-1.4264791 0.71781236 0.35110134 0
-1.23563 0.67126173 0.44408172 0
-1.2466365 0.67394638 0.58103114 0
-1.08735 0.61487889 -0.04968632 0
-1.4186388 0.69127834 0.3486208 0
-1.2447029 0.6511665 0.44515046 0
-1.2336065 0.64860755 0.57486707 0
-1.0896125 0.59527242 -0.049612142 0
-1.431769 0.66965365 0.35007915 0
-1.2448137 0.62901157 0.44394255 0
-1.2436973 0.62876886 0.57670045 0
-1.1027695 0.5779413 -0.049944144 0
-1.4393557 0.64668506 0.35056353 0
-1.236792 0.60531384 0.44069278 0
-1.2323072 0.60439783 0.57131988 0
-1.1056448 0.55840319 -0.049909569 0
-1.4341893 0.62120587 0.34875828 0
-1.2489985 0.58580583 0.44278273 0
-1.2335547 0.58285373 0.570337 0
-1.1060717 0.53845054 -0.049795214 0
-1.4482979 0.59941238 0.35054684 0
-1.235677 0.56153756 0.4383162 0
-1.241658 0.56260294 0.57176489 0
-1.1040488 0.51817179 -0.049601559 0
-1.4420632 0.57400185 0.34866333 0
-1.2342231 0.53967273 0.43700686 0
-1.2336491 0.53957796 0.56784278 0
-1.1191951 0.5006423 -0.050037526 0
-1.4601359 0.55255455 0.35127619 0
-1.2368002 0.51854908 0.43681148 0
-1.2342763 0.51816475 0.56693214 0
-1.1291807 0.48207977 -0.050294671 0
-1.4451758 0.5261302 0.34791863 0
-1.2383354 0.49729618 0.4364166 0
-1.2396455 0.49747881 0.5677067 0
-1.1288778 0.46202886 -0.050189577 0
-1.4636674 0.50440913 0.35070813 0
-1.2374728 0.47577566 0.4354746 0
-1.2435728 0.47654787 0.56808388 0
-1.1250287 0.44164577 -0.049966302 0
-0.50575089 0.37116316 0.039714549 0
-0.52009135 0.37279531 0.10903985 0
-0.50988245 0.37163341 0.17706239 0
-1.241293 0.4548783 0.43580607 0
-1.24893 0.45574751 0.56902766 0
-1.1272165 0.42202801 -0.049969137 0
-0.51575172 0.36022291 0.040027827 0
-0.51265538 0.35990995 0.10809733 0
-0.50612462 0.35924983 0.17614993 0
-1.2343591 0.43285769 0.43344691 0
-1.2395358 0.43338093 0.56512511 0
-1.1248724 0.40200463 -0.049818411 0
-0.5116356 0.34781137 0.10786559 0
-0.5145933 0.34807277 0.1774804 0
-1.2411422 0.41227967 0.43467471 0
-1.2372801 0.41193837 0.56370533 0
-1.1313723 0.38275415 -0.049993508 0
-0.510584 0.33576295 0.10764711 0
-0.51906854 0.33640522 0.17811278 0
-1.242396 0.39115819 0.43455297 0
-1.2450167 0.39135659 0.56571078 0
-1.1276028 0.3627294 -0.049809776 0
-0.51601338 0.32417253 0.10814301 0
-0.51293248 0.3239783 0.17685369 0
-1.2422349 0.36995623 0.43413764 0
-1.2389679 0.36975026 0.56320578 0
-1.231787 0.36929753 0.69646019 0
-1.134807 0.34338444 -0.050027452 0
-0.5122236 0.31199911 0.10766228 0
-0.51154351 0.31196484 0.17648087 0
-1.2411422 0.34874496 0.43355277 0
-1.2401786 0.34869638 0.5632112 0
-1.2357221 0.34847173 0.69759858 0
-0.34746021 0.30369315 0.46916637 0
-1.1351349 0.32362285 -0.050008062 0
-0.51182324 0.30006462 0.10756278 0
-0.51131368 0.30004537 0.17634475 0
-1.2340026 0.32735959 0.43149257 0
-1.2302074 0.32721615 0.55958217 0
-1.2404553 0.32760346 0.69917572 0
-0.34986454 0.29394335 0.47033617 0
-1.1235104 0.30357069 -0.049570713 0
-0.42191267 0.28589672 0.35988739 0
-0.40883529 0.28556728 0.42710865 0
-0.38329297 0.28492382 0.48998299 0
-1.1323731 0.28408197 -0.049873933 0
-0.38245201 0.27463681 0.41380683 0
-0.37303579 0.27451822 0.48378441 0
-1.1466507 0.26437625 -0.050379228 0
-0.38521767 0.26437423 0.41515827 0
-0.39198399 0.26437426 0.4949837 0
-0.89918584 -0.98929477 -0.090369426 0
-1.008096 -0.98929501 -0.089088969 0
-1.1262901 -0.98929536 -0.084297024 0
-1.1274866 -0.98929536 -0.057617474 0
-1.130101 -0.98929536 -0.031222096 0
-1.1214987 -0.9892953 -0.0038016194 0
-1.1317112 -0.98929536 0.021785 0
-1.121116 -0.9892953 0.048731867 0
-1.1263974 -0.98929536 0.0747585 0
-1.1254597 -0.98929536 0.10100255 0
-1.1253866 -0.98929536 0.12722313 0
-1.1304852 -0.98929536 0.15370984 0
-1.1321447 -0.98929536 0.18025112 0
-1.1371576 -0.98929536 0.20726956 0
-1.1314524 -0.98929536 0.2333864 0
-1.1263542 -0.98929536 0.25946477 0
-1.1318864 -0.98929536 0.28722399 0
-1.129649 -0.98929536 0.31399125 0
-0.90557307 -1.0121751 -0.091788478 0
-1.0219897 -1.0151137 -0.091767259 0
-1.1315587 -1.0178794 -0.085222222 0
-1.1378143 -1.0180373 -0.059119854 0
-1.1283072 -1.0177974 -0.031054502 0
-1.1315455 -1.017879 -0.0047730636 0
-1.1514195 -1.0183806 0.020381542 0
-1.1281039 -1.0177922 0.048389811 0
-1.1361585 -1.0179955 0.074523129 0
-1.1321988 -1.0178956 0.10100276 0
-1.1349691 -1.0179654 0.12745492 0
-1.1301805 -1.0178446 0.15371244 0
-1.1331538 -1.0179197 0.180347 0
-1.13403 -1.0179417 0.20701122 0
-1.1322786 -1.0178975 0.23352522 0
-1.134227 -1.0179467 0.26062247 0
-1.1344079 -1.0179513 0.28769803 0
-1.1337703 -1.0179352 0.31483585 0
-0.90358061 -1.034984 -0.091548733 0
-1.0139182 -1.0405575 -0.090429313 0
-1.1243062 -1.0461335 -0.084206767 0
-1.1278086 -1.0463104 -0.057864968 0
-1.2330291 -1.0516254 -0.043435533 0
-1.2450323 -1.0522317 -0.015480576 0
-1.2343199 -1.0516906 0.014501581 0
-1.2406385 -1.0520097 0.043093849 0
-1.2480775 -1.0523856 0.071892358 0
-1.2402712 -1.0519912 0.10100587 0
-1.2413365 -1.052045 0.12996256 0
-1.2488101 -1.0524225 0.15929946 0
-1.238198 -1.0518864 0.18778187 0
-1.2381012 -1.0518816 0.21684505 0
-0.89216918 -1.057036 -0.089423262 0
-1.0179696 -1.0665778 -0.091499947 0
-1.1240979 -1.0746275 -0.084467866 0
-1.1249818 -1.0746945 -0.057719979 0
-1.2519033 -1.0843214 -0.045878146 0
-1.2285377 -1.0825491 -0.01412232 0
-1.2353337 -1.0830646 0.014292555 0
-1.2481974 -1.0840403 0.042648595 0
-1.2389598 -1.0833396 0.072058566 0
-1.2305717 -1.0827034 0.10100566 0
-1.2317101 -1.0827897 0.12978381 0
-1.2408968 -1.0834866 0.15902261 0
-1.2453038 -1.0838208 0.18841895 0
-1.2307174 -1.0827144 0.21633829 0
-0.90363127 -1.0809121 -0.092298053 0
-1.0210562 -1.0928051 -0.092514865 0
-1.1572719 -1.1066012 -0.09036278 0
-1.2387739 -1.1148559 -0.074148528 0
-1.2447848 -1.1154647 -0.045370433 0
-1.2372559 -1.1147021 -0.015197715 0
-1.240768 -1.1150578 0.013716796 0
-1.2371866 -1.1146951 0.043033358 0
-1.2411247 -1.1150939 0.071943298 0
-1.2343675 -1.1144096 0.10100584 0
-1.2356158 -1.114536 0.12993976 0
-1.2438709 -1.1153721 0.15929182 0
-1.2291921 -1.1138854 0.18748154 0
-1.9913186 -1.1910747 0.28799838 0
-1.9884101 -1.1907802 0.33478153 0
-1.9359415 -1.1854661 0.37468013 0
-1.4670467 -1.1379757 0.37897539 0
-0.89771199 -1.1032859 -0.091586791 0
-1.0139937 -1.1180357 -0.091731615 0
-1.1482904 -1.1350706 -0.089426272 0
-1.2080566 -1.1426516 -0.070301794 0
-1.2332133 -1.1458426 -0.044428963 0
-1.2440058 -1.1472116 -0.016167602 0
-1.2443787 -1.1472588 0.01321088 0
-1.2455639 -1.1474091 0.042473253 0
-1.2391318 -1.1465932 0.071906351 0
-1.2344172 -1.1459953 0.10100595 0
-1.2347407 -1.1460363 0.13000269 0
-1.2422336 -1.1469867 0.15938297 0
-1.2476041 -1.1476679 0.18902943 0
-1.5896821 -1.1910588 0.36458567 0
-1.4732145 -1.1762854 0.38094798 0
-0.88683993 -1.1247481 -0.089929007 0
-0.99874347 -1.1418215 -0.089506425 0
-1.142687 -1.1637832 -0.089167006 0
-1.2020268 -1.1728369 -0.070049398 0
-1.6222228 -1.2369471 -0.090933345 0
-2.5597682 -1.3799905 -0.14081617 0
-3.422683 -1.5116472 -0.14114527 0
-5.1317792 -1.7724078 -0.14074837 0
-10.295877 -2.5603054 -0.14120643 0
-1.3509854 -1.1955638 0.29324591 0
-1.3486729 -1.1952109 0.3254337 0
-1.3596382 -1.1968839 0.36029011 0
-0.88869643 -1.1480973 -0.091128834 0
-0.99919468 -1.167821 -0.090389974 0
-1.1424603 -1.1933938 -0.089924954 0
-1.2043859 -1.2044474 -0.071101941 0
-1.6142836 -1.2776135 -0.09079399 0
-2.5392592 -1.4427203 -0.13988353 0
-3.396385 -1.5957161 -0.14029106 0
-5.1150622 -1.9024974 -0.14096949 0
-10.231635 -2.8157985 -0.14070278 0
-1.3381333 -1.2283211 0.29221517 0
-1.3199474 -1.225075 0.32157573 0
-1.3308465 -1.2270205 0.35586506 0
-0.88887388 -1.1714083 -0.092098154 0
-1.0052401 -1.1952238 -0.09247946 0
-1.1353077 -1.2218434 -0.089650013 0
-1.1927135 -1.233592 -0.070261322 0
-1.6005915 -1.3170681 -0.090089761 0
-2.5369051 -1.5086937 -0.14082628 0
-3.3891475 -1.6831132 -0.14094362 0
-5.0727487 -2.0276783 -0.14013106 0
-10.185063 -3.0739627 -0.14076853 0
-1.2477983 -1.2448657 0.31053674 0
-1.2363151 -1.2425154 0.3389203 0
-0.87187856 -1.1910019 -0.089454629 0
-0.98614019 -1.2174069 -0.089853518 0
-1.129768 -1.2505982 -0.089766331 0
-1.1893744 -1.2643727 -0.070723601 0
-1.5851732 -1.3558388 -0.089293472 0
-2.5150294 -1.5707214 -0.14006345 0
-3.3753457 -1.7695339 -0.14128684 0
-5.0539584 -2.1574483 -0.14056227 0
-10.135468 -3.3317459 -0.14091754 0
-0.87330866 -1.2147132 -0.090946741 0
-0.97996855 -1.2422138 -0.089833714 0
-1.1143963 -1.2768741 -0.088337474 0
-1.3246406 -1.3310825 -0.091417171 0
-1.587646 -1.3988944 -0.09076909 0
-1.9824429 -1.500687 -0.090217151 0
-3.3454394 -1.8521154 -0.14062659 0
-5.0235763 -2.2847979 -0.14059596 0
-10.078784 -3.5882084 -0.14105313 0
-0.87129176 -1.2378256 -0.091819547 0
-0.98274636 -1.2695822 -0.091688685 0
-1.1118459 -1.3063663 -0.089202277 0
-1.3140187 -1.3639711 -0.091186844 0
-1.583545 -1.4407667 -0.091588102 0
-1.9693912 -1.5507053 -0.090264015 0
-3.3103161 -1.9327728 -0.13973334 0
-4.9866471 -2.4104068 -0.14046803 0
-9.9965086 -3.8378582 -0.14072689 0
-0.8584516 -1.257789 -0.090418436 0
-0.96874595 -1.2922465 -0.090383314 0
-1.1023986 -1.3340015 -0.089014105 0
-1.2855643 -1.391225 -0.088450901 0
-1.5691922 -1.4798343 -0.091287218 0
-1.9626949 -1.6027701 -0.091055699 0
-3.3024783 -2.021337 -0.14098001 0
-4.9610772 -2.5395067 -0.14104718 0
-9.9223528 -4.0894785 -0.1407488 0
-0.85929465 -1.2820733 -0.092190243 0
-0.95803475 -1.3156781 -0.089834444 0
-1.1002946 -1.3640944 -0.090219744 0
-1.284386 -1.4267474 -0.089842252 0
-1.5500242 -1.5171539 -0.090510525 0
-1.947631 -1.652474 -0.091158234 0
-3.2856991 -2.1078675 -0.14174151 0
-4.925457 -2.6659369 -0.14129665 0
-9.8426523 -4.3394384 -0.14079005 0
-0.84180784 -1.3000623 -0.089964189 0
-0.94711506 -1.3388937 -0.089356788 0
-1.0816103 -1.3884878 -0.088664748 0
-1.2739712 -1.4594196 -0.089996807 0
-1.5455182 -1.5595506 -0.091669761 0
-1.9402585 -1.7051083 -0.092151143 0
-3.2445533 -2.1860578 -0.14085658 0
-4.8704801 -2.7856069 -0.14074561 0
-9.7504539 -4.585063 -0.14067762 0
-0.8307364 -1.3200496 -0.089286588 0
-0.95079124 -1.3677934 -0.091951095 0
-1.0749687 -1.4171767 -0.089332469 0
-1.2623245 -1.4916849 -0.090090699 0
-1.5283828 -1.5974919 -0.091386147 0
-1.9075552 -1.7482823 -0.090742372 0
-3.2131021 -2.2674761 -0.14083983 0
-4.8240776 -2.908134 -0.14076921 0
-9.6562023 -4.8297882 -0.14066704 0
-0.82577944 -1.3424898 -0.090131022 0
-0.93704283 -1.3900228 -0.091153227 0
-1.0635908 -1.4440852 -0.089289658 0
-1.2566952 -1.5265814 -0.091229044 0
-1.5097151 -1.6346741 -0.091025807 0
-1.8812031 -1.7933775 -0.090073012 0
-3.1786683 -2.3476677 -0.14075159 0
-4.7837358 -3.0333688 -0.14125565 0
-9.5635576 -5.075357 -0.14085235 0
-0.82018232 -1.3648735 -0.090967245 0
-0.92446411 -1.41257 -0.090703927 0
-1.0553335 -1.4724271 -0.089932404 0
-1.2320763 -1.5532659 -0.089581348 0
-1.4755545 -1.6646281 -0.088790096 0
-1.8673286 -1.8438182 -0.090792798 0
-3.1445169 -2.4279795 -0.14083877 0
-4.7129054 -3.1453302 -0.14034784 0
-9.4536848 -5.3136711 -0.14075692 0
-0.81110859 -1.3857968 -0.091124289 0
-0.91528112 -1.4366596 -0.091079392 0
-1.0406759 -1.4978844 -0.08954259 0
-1.2220936 -1.5864627 -0.0903069 0
-1.4800885 -1.7124302 -0.091657065 0
-1.8427117 -1.8894833 -0.090537094 0
-3.107301 -2.5069268 -0.14084537 0
-4.6741309 -3.2719409 -0.14123504 0
-9.3524151 -5.5561419 -0.1410376 0
-0.79696041 -1.4041401 -0.090193458 0
-0.90000153 -1.4577113 -0.090293847 0
-1.0215321 -1.5208954 -0.088434882 0
-1.2074573 -1.6175582 -0.090436853 0
-1.440394 -1.7386625 -0.088893808 0
-1.8188329 -1.9354136 -0.090476163 0
-3.0835307 -2.5929322 -0.14206751 0
-4.6014266 -3.3820896 -0.14052027 0
-9.2321463 -5.7896094 -0.14098349 0
-0.79648799 -1.4298019 -0.092682175 0
-0.87976795 -1.4758049 -0.088544883 0
-1.0215241 -1.5541095 -0.091012888 0
-1.1895671 -1.6469346 -0.09017133 0
-1.4292837 -1.7793516 -0.089996122 0
-1.8000312 -1.9841485 -0.091078572 0
-3.0238452 -2.6601701 -0.14061058 0
-4.5401211 -3.4977448 -0.14054859 0
-9.1074638 -6.0206957 -0.14096685 0
-0.76923215 -1.4404756 -0.088768326 0
-0.86564082 -1.4969513 -0.088201828 0
-1.0051353 -1.5786667 -0.090667687 0
-1.1716036 -1.676183 -0.090009831 0
-1.4051785 -1.8130101 -0.089492805 0
-1.7743767 -2.0292847 -0.091080748 0
-2.9838388 -2.7377818 -0.14086291 0
-4.4716063 -3.6093092 -0.14034471 0
-8.9668808 -6.24262 -0.14067757 0
-0.76450974 -1.4640485 -0.090495847 0
-0.8608011 -1.5237689 -0.090029188 0
-0.9925189 -1.6054608 -0.09116555 0
-1.1548625 -1.706147 -0.090169109 0
-1.3827834 -1.8475044 -0.089332692 0
-1.7493393 -2.0748439 -0.09127491 0
-2.9404621 -2.8135829 -0.14100191 0
-4.4078364 -3.7236543 -0.14055067 0
-8.8320608 -6.467576 -0.14069349 0
-0.75269932 -1.4834814 -0.090600513 0
-0.85296702 -1.5492276 -0.091363825 0
-0.97210908 -1.6273499 -0.090271927 0
-1.1295851 -1.7306081 -0.089022584 0
-1.3625038 -1.8833344 -0.089586265 0
-1.7151431 -2.1145625 -0.090577357 0
-2.8890059 -2.8842723 -0.14062645 0
-4.3422928 -3.837203 -0.14082071 0
-8.6982346 -6.6934247 -0.14089389 0
-0.74720103 -1.5073326 -0.092464752 0
-0.83992875 -1.5715377 -0.091675691 0
-0.96477491 -1.6579818 -0.09208592 0
-1.1168554 -1.7632831 -0.090105332 0
-1.3467536 -1.9224658 -0.090615682 0
-1.6953516 -2.1638367 -0.091615774 0
-2.8385053 -2.9553618 -0.14047608 0
-4.2699795 -3.9465215 -0.14087306 0
-8.5484352 -6.9089456 -0.14080597 0
-0.726484 -1.5206338 -0.090514727 0
-0.82368749 -1.591632 -0.091376461 0
-0.93373352 -1.6720107 -0.089264639 0
-1.105805 -1.7976931 -0.091642715 0
-1.3210551 -1.9549135 -0.090366073 0
-1.6550517 -2.1988673 -0.090445451 0
-2.7910461 -3.0286071 -0.14074019 0
-4.1926479 -4.0523486 -0.14079478 0
-8.3945827 -7.1214762 -0.14075494 0
-0.71748662 -1.5423915 -0.091759555 0
-0.80035454 -1.6061865 -0.089505099 0
-0.92081004 -1.6989179 -0.090218671 0
-1.0841717 -1.8246801 -0.091485895 0
-1.3004258 -1.991161 -0.090978943 0
-1.6207491 -2.2377584 -0.090061836 0
-2.7464602 -3.1043746 -0.14142454 0
-4.1174159 -4.15979 -0.14099377 0
-8.2349043 -7.3295937 -0.1406879 0
-0.70373386 -1.5606925 -0.091877557 0
-0.78777993 -1.6288399 -0.090292044 0
-0.90727705 -1.7257321 -0.091205738 0
-1.0625449 -1.8516283 -0.091449045 0
-1.2785187 -2.0267467 -0.091548495 0
-1.5911486 -2.2802374 -0.09035214 0
-2.6820798 -3.1647999 -0.1405119 0
-4.0355139 -4.262208 -0.14095803 0
-8.0757704 -7.5381804 -0.14079148 0
-0.68268049 -1.5728183 -0.090085618 0
-0.77374381 -1.6505443 -0.090874322 0
-0.88160616 -1.742609 -0.08973626 0
-1.0434477 -1.8807471 -0.092003144 0
-1.2457091 -2.053385 -0.090591796 0
-1.5633695 -2.3245206 -0.091002487 0
-2.6336198 -3.2380207 -0.14118141 0
-3.9526567 -4.3638701 -0.14101964 0
-7.9091396 -7.7408814 -0.14082737 0
-0.67145467 -1.5932181 -0.091146953 0
-0.75286055 -1.6663308 -0.089873664 0
-0.86358875 -1.7657787 -0.090016909 0
-1.0123985 -1.8994285 -0.090449579 0
-1.2179095 -2.0840032 -0.090504654 0
-1.5262647 -2.360945 -0.090636425 0
-2.5668187 -3.2954934 -0.14031461 0
-3.8606668 -4.4575315 -0.14067002 0
-7.7405405 -7.9421458 -0.14096077 0
-0.64861721 -1.603014 -0.088987164 0
-0.73751396 -1.6870019 -0.090385623 0
-0.84064072 -1.7844341 -0.089320235 0
-0.9893502 -1.924932 -0.090495594 0
-1.1940613 -2.1183391 -0.091173597 0
-1.4921179 -2.3999372 -0.090758108 0
-1.9818499 -2.8626266 -0.08972957 0
-3.7717764 -4.5537148 -0.14066015 0
-7.5546999 -8.1277485 -0.14070652 0
-0.64508235 -1.6312888 -0.092630111 0
-0.72358543 -1.7092985 -0.091423981 0
-0.82299095 -1.8080792 -0.089941271 0
-0.96493363 -1.9491298 -0.090397678 0
-1.1633018 -2.1462514 -0.090861849 0
-1.4507983 -2.431941 -0.090066962 0
-1.7057784 -2.6853187 -0.067241482 0
-1.6038902 -2.5840707 -0.0043595266 0
-7.3675294 -8.3114882 -0.14055395 0
-0.62347507 -1.6419466 -0.091030203 0
-0.70151418 -1.7235105 -0.090422951 0
-0.79683208 -1.8231336 -0.08869607 0
-0.94165045 -1.9744931 -0.090650149 0
-1.13429 -2.1758337 -0.090954833 0
-1.4200963 -2.4745493 -0.090898611 0
-1.5649673 -2.6259637 -0.057384346 0
-1.6872017 -2.7537193 -0.01271393 0
-1.6035433 -2.6662822 0.047007464 0
-0.60691762 -1.6576135 -0.091064475 0
-0.68214315 -1.740317 -0.090248741 0
-0.78251857 -1.8506705 -0.090400733 0
-0.91586101 -1.9972683 -0.090518199 0
-1.1010473 -2.2008636 -0.090443544 0
-1.3853689 -2.513449 -0.091342457 0
-1.5450397 -2.6889923 -0.059656132 0
-1.5490654 -2.6934183 -0.0062738638 0
-1.5592901 -2.7046592 0.047056887 0
-1.5736582 -2.7204556 0.1010372 0
-0.58447498 -1.6665074 -0.089313664 0
-0.66108239 -1.7551225 -0.08970321 0
-0.76523882 -1.8756049 -0.091582648 0
-0.89670473 -2.0276773 -0.091929547 0
-1.0754875 -2.2344832 -0.09140145 0
-1.341651 -2.5423663 -0.090654425 0
-1.4908944 -2.7150028 -0.058505092 0
-1.497799 -2.7229898 -0.005720323 0
-1.5082321 -2.7350581 0.047315735 0
-0.57938427 -1.6958957 -0.093393616 0
-0.64778739 -1.7791785 -0.091554515 0
-0.73772436 -1.8886794 -0.090311758 0
-0.86276627 -2.0409214 -0.090279244 0
-1.0432472 -2.2606623 -0.091313012 0
-1.3040941 -2.5782509 -0.0909568 0
-1.4665407 -2.7760344 -0.060670841 0
-1.5556043 -2.8844719 -0.013203813 0
-1.4792671 -2.7915292 0.046745628 0
-1.4965163 -2.8125305 0.10103776 0
-0.55390936 -1.7007464 -0.090814568 0
-0.62813425 -1.7959151 -0.091702424 0
-0.71774715 -1.9108139 -0.091100194 0
-0.83844024 -2.0655627 -0.090846546 0
-1.0033131 -2.2769575 -0.089883201 0
-1.2626718 -2.609499 -0.090817802 0
-1.6880089 -3.1548526 -0.09102381 0
-3.1915004 -5.082581 -0.14069672 0
-6.3930321 -9.1874828 -0.14076006 0
-0.5356704 -1.7143693 -0.090774663 0
-0.60708869 -1.8108648 -0.09154623 0
-0.6936757 -1.9278551 -0.090936713 0
-0.80519956 -2.0785384 -0.089472137 0
-0.97975725 -2.3143885 -0.091700993 0
-1.2188158 -2.637388 -0.090413906 0
-1.6255441 -3.1869311 -0.090167366 0
-3.0871012 -5.161685 -0.14068849 0
-6.1859355 -9.3486147 -0.14082992 0
-0.5143823 -1.7236562 -0.089730121 0
-0.58226448 -1.8203857 -0.09026695 0
-0.67318976 -1.9499508 -0.091914095 0
-0.78312677 -2.106607 -0.090858467 0
-0.94090879 -2.3314404 -0.0906628 0
-1.1840092 -2.6778495 -0.091578119 0
-1.5816561 -3.2444813 -0.091637321 0
-2.9818876 -5.2397585 -0.14077303 0
-5.9712853 -9.4995384 -0.14075841 0
-0.49904001 -1.7414653 -0.091016568 0
-0.56097293 -1.8346313 -0.090220474 0
-0.64759696 -1.9649402 -0.091575705 0
-0.74765462 -2.1154573 -0.089073442 0
-0.90696305 -2.3551054 -0.090708785 0
-1.1343048 -2.6970963 -0.090444528 0
-1.5174161 -3.273412 -0.090774126 0
-2.8774543 -5.3193216 -0.1410892 0
-5.750299 -9.6409512 -0.14057516 0
-0.47350863 -1.7436757 -0.088463761 0
-0.5458113 -1.8586302 -0.092465483 0
-0.61852872 -1.9742441 -0.090265237 0
-0.72641909 -2.1457796 -0.091031231 0
-0.87693286 -2.3850825 -0.091744833 0
-1.0920445 -2.7270899 -0.090653263 0
-1.4576812 -3.308418 -0.090561278 0
-2.767108 -5.3902836 -0.14107352 0
-5.5335174 -9.7886162 -0.14072096 0
-0.45876119 -1.762874 -0.09031003 0
-0.51944923 -1.8649918 -0.09089724 0
-0.59090799 -1.9852331 -0.089437746 0
-0.69237655 -2.1559708 -0.089757152 0
-0.83349526 -2.3934267 -0.089928202 0
-1.0390702 -2.7393408 -0.089049138 0
-1.4014938 -3.349179 -0.090943165 0
-2.652246 -5.4537783 -0.14080568 0
-5.3096223 -9.9252567 -0.14071561 0
-0.43966192 -1.7752355 -0.09055575 0
-0.49908978 -1.8812344 -0.091629393 0
-0.5670166 -2.0023925 -0.089916863 0
-0.66780114 -2.1821573 -0.09121751 0
-0.7960698 -2.4109445 -0.089514248 0
-1.0029693 -2.7799821 -0.090649672 0
-1.3446977 -3.389508 -0.091399573 0
-2.5337853 -5.5104308 -0.14033231 0
-5.0866089 -10.063789 -0.14091247 0
-0.42029193 -1.7872403 -0.090829112 0
-0.47609228 -1.8929354 -0.091494761 0
-0.53772581 -2.0096796 -0.088667698 0
-0.63279206 -2.1897507 -0.089803018 0
-0.76165307 -2.433835 -0.089941479 0
-0.96106219 -2.8115489 -0.091368087 0
-1.2813067 -3.4181452 -0.091039784 0
-1.9256279 -4.6385965 -0.091144226 0
-4.8505907 -10.178961 -0.14064154 0
-0.40286687 -1.8033441 -0.09218847 0
