# .PCD v0.7 - Point Cloud Data file format
VERSION 0.7
FIELDS x y z intensity
SIZE 4 4 4 4
TYPE F F F F
COUNT 1 1 1 1
WIDTH 1364
HEIGHT 1
VIEWPOINT 0 0 0 1 0 0 0
POINTS 1364
DATA ascii
-0.14281069 -0.25800073 -0.049984004 0
0.39085844 -2.2046645 0.1340467 0
-0.31501782 0.37015879 0.46470484 0
-0.12468604 -0.2495867 -0.049869809 0
-0.30199012 0.36662805 0.46816856 0
-0.1061149 -0.24292219 -0.049828913 0
-0.30235413 0.40813708 0.44819438 0
-0.090449966 -0.22712326 -0.049454663 0
-0.29491174 0.42154205 0.44288197 0
-0.067656614 -0.23381901 -0.049931716 0
-0.28796616 0.43560684 0.43724921 0
-0.045180298 -0.23854423 -0.050347272 0
-0.26275352 0.39556485 0.46025926 0
-0.029735127 -0.22270787 -0.049995892 0
-0.0097740674 -0.2197293 -0.050139956 0
0.0049993605 -0.20301735 -0.049768772 0
0.026809892 -0.20457423 -0.050105419 0
0.045833372 -0.19879007 -0.050170649 0
0.056851052 -0.17426229 -0.04951711 0
0.082518302 -0.1837827 -0.050195787 0
-0.18840988 0.42507416 0.38179556 0
0.095099948 -0.16371274 -0.049728174 0
0.11158051 -0.15260327 -0.049618229 0
-0.16338347 0.42566407 0.38590541 0
-0.20309375 0.50917739 0.49531946 0
0.13442977 -0.15463269 -0.050038405 0
0.55426925 -1.0096531 0.46087235 0
-0.16442446 0.4539963 0.37515569 0
-0.19365607 0.51352769 0.49543178 0
0.15237732 -0.1463269 -0.050059095 0
0.58728474 -1.0045485 0.46270663 0
-0.1517372 0.45379555 0.37757507 0
-0.1886705 0.52667767 0.48977312 0
0.16442032 -0.1266861 -0.049632382 0
0.61075562 -0.98061943 0.46080655 0
-0.14164944 0.45888978 0.3776111 0
-0.17857848 0.52954274 0.49100134 0
0.19120528 -0.13503301 -0.050343901 0
0.64604062 -0.97916508 0.46355814 0
-0.12848528 0.45828283 0.38038823 0
-0.17371865 0.54223174 0.48570532 0
0.20083906 -0.11144651 -0.049770162 0
0.68341368 -0.9806695 0.46703073 0
-0.11557815 0.45849055 0.38287732 0
-0.162973 0.54385906 0.48791677 0
0.2209834 -0.10705138 -0.0499865 0
0.7200039 -0.97981763 0.47013631 0
-0.08361546 0.4256795 0.40120947 0
-0.15617429 0.55258191 0.48538905 0
0.23618276 -0.093948133 -0.049854163 0
0.76027352 -0.98435235 0.47448826 0
-0.059067197 0.40766686 0.41276094 0
-0.14746787 0.55785525 0.48527503 0
0.25784037 -0.091681726 -0.050181095 0
0.80167848 -0.98957849 0.47912586 0
-0.054327883 0.42371941 0.40806037 0
-0.13164483 0.55137253 0.49338683 0
0.27467039 -0.081224807 -0.050177507 0
0.84055156 -0.98950648 0.48278454 0
-0.13270499 0.57264304 0.48230925 0
0.28596893 -0.062132362 -0.049816702 0
0.88031989 -0.98987484 0.48667163 0
-0.12016217 0.57181132 0.48669943 0
0.30224648 -0.0510577 -0.049801689 0
0.9043532 -0.96535349 0.48532397 0
0.019713124 0.37796766 0.44045451 0
-0.10967273 0.57443941 0.48878101 0
0.31822339 -0.039551977 -0.049776766 0
0.95904726 -0.98646402 0.49396753 0
0.032363556 0.38284826 0.44168213 0
-0.10368947 0.58388668 0.48609149 0
0.33800539 -0.033544425 -0.049999405 0
0.99404782 -0.97712612 0.49614951 0
0.043479644 0.39007002 0.44181991 0
-0.10363776 0.60166812 0.47741273 0
0.3557314 -0.024382239 -0.050096545 0
0.052478872 0.40027428 0.44051245 0
-0.10109351 0.61532772 0.47165981 0
0.37149116 -0.01241756 -0.050080348 0
0.072375916 0.39548612 0.44694826 0
-0.088428862 0.61477572 0.47632831 0
0.38590685 0.0013188072 -0.04999366 0
1.1311002 -0.98852062 0.10622717 0
1.1326575 -0.99058914 0.30798575 0
0.091177307 0.39280772 0.45248127 0
-0.084060289 0.6255756 0.47273237 0
0.39917859 0.016440505 -0.04985176 0
0.11035087 0.39020145 0.45815384 0
-0.076794155 0.63237876 0.47213781 0
0.41851553 0.023758525 -0.050071605 0
0.12288149 0.39653021 0.45928875 0
-0.068369038 0.63768238 0.47274119 0
0.42668208 0.045053478 -0.04966151 0
-0.059799053 0.64285105 0.47353467 0
0.44370565 0.055294033 -0.049765982 0
-0.054252841 0.65169638 0.47157902 0
0.46307299 0.062916391 -0.050004683 0
-0.048386432 0.66004258 0.4700461 0
0.47949979 0.07414519 -0.05008617 0
-0.040107884 0.66554713 0.47079742 0
0.49198183 0.089842074 -0.049963742 0
1.2095407 -0.70641422 0.10023104 0
-0.035901107 0.67562002 0.46799308 0
0.50757939 0.10204541 -0.050017316 0
1.2131854 -0.66139436 0.099131554 0
-0.025933841 0.67928708 0.47037148 0
0.51815397 0.11960744 -0.049817543 0
0.38198015 0.26327056 0.05475064 0
-0.021617332 0.6890648 0.46788722 0
0.53229016 0.13330793 -0.049814165 0
0.38385269 0.28601128 0.054211218 0
0.84121197 -0.18449187 0.22164457 0
-0.0080233002 0.68914926 0.473434 0
0.54583758 0.14759994 -0.049789835 0
0.39785132 0.29605269 0.054306339 0
0.8419463 -0.14944184 0.21901548 0
-0.0099890018 0.70517832 0.46584159 0
0.57515222 0.14644897 -0.050562296 0
0.41039136 0.3076185 0.054333806 0
0.74547356 -0.020159846 0.20187148 0
0.74369806 -0.018423086 0.33425215 0
0.73951179 -0.014328009 0.46887097 0
0.0063684196 0.70283484 0.47371161 0
0.58207339 0.16741538 -0.050219961 0
0.42579636 0.31648207 0.054509528 0
0.84302312 -0.081494339 0.21399152 0
0.19271429 0.53880996 0.35088673 0
0.0058642239 0.71703899 0.46764398 0
0.59229845 0.18498349 -0.050055649 0
0.45513532 0.31255859 0.055368051 0
0.84234506 -0.047584061 0.21143971 0
0.19037195 0.55881429 0.34575617 0
0.0095782494 0.72697002 0.4652091 0
0.60225552 0.20264244 -0.049891006 0
0.83617812 -0.0094982442 0.073165126 0
0.83473259 -0.0081872996 0.20797314 0
0.18556751 0.58053005 0.33969182 0
0.023167571 0.72780788 0.47080868 0
0.61834413 0.21472907 -0.050031051 0
0.83430356 0.02377891 0.072322711 0
0.83871323 0.019879932 0.20627958 0
0.83817762 0.02035355 0.34196857 0
0.21355595 0.57264048 0.34837985 0
0.028155109 0.73657084 0.46954536 0
0.62974411 0.23099184 -0.049955796 0
0.83756191 0.051851865 0.071751185 0
0.83832222 0.051196571 0.20403446 0
0.83608407 0.053125735 0.33779696 0
0.23406662 0.57206762 0.35364568 0
0.031958602 0.74628568 0.46745548 0
0.64573687 0.24333012 -0.05010511 0
0.83952802 0.080489032 0.071141988 0
0.84204501 0.078374021 0.20244609 0
0.84198171 0.078427188 0.33564943 0
0.92842299 0.0057914206 0.50114799 0
0.27022573 0.55886889 0.3656531 0
0.27530566 0.55460024 0.45633343 0
0.042576455 0.75016063 0.47076136 0
0.66175324 0.25578922 -0.050261185 0
0.83367389 0.11498045 0.070194893 0
0.84288365 0.10743736 0.20052113 0
0.83757192 0.11178791 0.33119574 0
0.95213181 0.017959589 0.50382125 0
0.29484084 0.55630249 0.37250113 0
0.23923941 0.60184193 0.43235159 0
0.045558833 0.76047266 0.46821785 0
0.66470557 0.27882093 -0.049826141 0
0.84332246 0.13624752 0.06998536 0
0.84143108 0.13775718 0.19835097 0
0.83571917 0.14231646 0.32747409 0
0.98927337 0.019748205 0.51090306 0
0.27332124 0.59122723 0.35962802 0
0.24526156 0.61362475 0.43122306 0
0.054984353 0.76550561 0.4706879 0
0.68744785 0.28607535 -0.050303601 0
0.85119718 0.15871143 0.069709823 0
0.84105259 0.1666019 0.1964004 0
0.8442046 0.16415024 0.32623902 0
0.25443509 0.62287205 0.43183678 0
0.06879171 0.76726514 0.47647387 0
0.69658834 0.30406356 -0.050171357 0
0.85213321 0.18619406 0.069138817 0
0.84202975 0.19385028 0.19470039 0
0.84860319 0.18886912 0.32415339 0
0.26127186 0.63393956 0.43129152 0
0.069202386 0.77948678 0.4722532 0
0.70133764 0.32518101 -0.049855582 0
0.84404951 0.2198385 0.06818828 0
0.83677787 0.22520602 0.19223008 0
0.84692377 0.21771681 0.32079473 0
0.29367432 0.62609714 0.44397989 0
0.078413211 0.78499174 0.4746722 0
0.71453243 0.33995676 -0.049925741 0
0.8542915 0.23948753 0.068070784 0
0.83848518 0.25085032 0.19075564 0
0.84369999 0.24710143 0.31720439 0
0.084652744 0.79276115 0.47495013 0
0.72503108 0.35668391 -0.049885929 0
0.86250299 0.26046091 0.067876667 0
0.84451157 0.273054 0.18990323 0
0.83725864 0.27813059 0.31301904 0
0.84313816 0.27401525 0.44215843 0
0.091727637 0.79996222 0.47590142 0
0.73868901 0.37122822 -0.049992088 0
0.87284356 0.27982223 0.067787632 0
0.83099848 0.30833334 0.18655366 0
0.84406418 0.29943109 0.31184596 0
0.83704108 0.30421621 0.43649974 0
0.1108944 0.79897523 0.48558739 0
0.7437703 0.3915531 -0.049737841 0
0.91931909 0.27515239 0.069257736 0
0.83429283 0.33153057 0.18545674 0
0.83807784 0.32902086 0.30797285 0
0.83082074 0.3338328 0.43096727 0
0.11881616 0.80593991 0.48718229 0
0.76138765 0.40358144 -0.05002917 0
0.96085244 0.27490884 0.070503458 0
0.8410812 0.35217196 0.18485305 0
0.84478492 0.34978271 0.30693561 0
0.83904201 0.35348743 0.42997786 0
0.12603582 0.81343997 0.48833096 0
0.77403027 0.41897708 -0.050114952 0
0.99309236 0.28153741 0.071347572 0
0.83953279 0.37788075 0.18322954 0
0.83735281 0.3792485 0.30295211 0
0.84521836 0.37431365 0.42845517 0
0.12804623 0.8242678 0.48588991 0
0.78820378 0.43351352 -0.050272234 0
1.0305673 0.28567439 0.072407655 0
0.83952671 0.40220708 0.1818535 0
0.84634954 0.39804518 0.30254844 0
0.82751828 0.40953207 0.41988733 0
0.13608123 0.83130121 0.48774779 0
0.78378934 0.45920229 -0.049664512 0
1.0697763 0.28965688 0.073534004 0
0.84633511 0.42212248 0.1813775 0
0.8343752 0.42921287 0.29780075 0
0.83853239 0.42674828 0.42003176 0
0.14185609 0.83976811 0.4880949 0
0.80259675 0.47102541 -0.050031275 0
0.84575611 0.44616765 0.18001996 0
0.84473819 0.44675392 0.2978183 0
0.84781581 0.4449814 0.41972968 0
0.14280494 0.85103345 0.48520994 0
0.80724901 0.49106544 -0.04982255 0
0.85590476 0.46385217 0.18003033 0
0.83578652 0.47510433 0.2938903 0
0.83523864 0.47541076 0.41310665 0
0.15209033 0.85749757 0.4881067 0
0.82411224 0.5043124 -0.050121579 0
0.84077162 0.49526823 0.17697637 0
0.83847708 0.4965139 0.29245171 0
0.84049469 0.49541855 0.4118174 0
0.83709973 0.51984257 -0.050269 0
0.85197347 0.51200867 0.17718959 0
0.84205312 0.51723361 0.29125828 0
0.83337778 0.5218029 0.40704176 0
0.83872992 0.54129338 -0.049968053 0
0.8562991 0.5323205 0.17659718 0
0.84117275 0.5400458 0.28922302 0
0.83486849 0.54326546 0.40485811 0
0.83694237 0.54220629 0.52688885 0
0.83517772 0.56507587 -0.049473323 0
0.85021383 0.55763388 0.1747908 0
0.84749955 0.55897725 0.28870869 0
0.82690471 0.56917048 0.4000738 0
0.84608692 0.55967641 0.52699602 0
0.85190791 0.57875216 -0.049796477 0
0.86090225 0.57444066 0.17503248 0
0.83302349 0.58780462 0.28408471 0
0.84087867 0.58403915 0.40161768 0
0.8364988 0.58613867 0.52027267 0
0.86284488 0.59537113 -0.049896538 0
0.90426856 0.57615191 0.17916936 0
0.83562237 0.60800147 0.28295481 0
0.84772807 0.60238481 0.40120158 0
0.83811921 0.60684299 0.51782185 0
0.87953252 0.60949022 -0.050229277 0
0.93580955 0.58423567 0.1818925 0
0.84023541 0.62712485 0.28227988 0
0.8465274 0.62430131 0.39860147 0
0.8369115 0.62861651 0.51444888 0
0.88606244 0.62827396 -0.050171867 0
0.96724457 0.59306449 0.18460038 0
0.83582932 0.65006059 0.27988306 0
0.83649856 0.64977038 0.39363742 0
0.84091944 0.64785296 0.51308542 0
0.88812548 0.64888817 -0.049951039 0
0.99586898 0.60376185 0.18697953 0
0.84521991 0.66685832 0.28025314 0
0.83999473 0.66904682 0.39252949 0
0.83919841 0.66938037 0.50975031 0
0.90773743 0.66224611 -0.050417095 0
1.0427547 0.60768467 0.19147895 0
0.83537894 0.69148672 0.27692169 0
0.83454138 0.69182515 0.3890315 0
0.84332699 0.68827486 0.50862861 0
0.90492064 0.68469691 -0.050027993 0
1.076784 0.61775053 0.1944793 0
0.86032742 0.70206743 0.28040016 0
0.84885699 0.70653552 0.39104217 0
0.84194595 0.70922762 0.50563049 0
0.2745941 0.93022978 0.45275125 0
0.91048759 0.70371324 -0.049971201 0
0.84095186 0.72979611 0.27535033 0
0.84346253 0.72885436 0.38772318 0
0.83172137 0.73325849 0.49959809 0
0.27971706 0.94031572 0.45334345 0
0.9122116 0.72407681 -0.049777921 0
0.84812421 0.74719983 0.27548048 0
0.83187085 0.7530641 0.38281474 0
0.85023671 0.74643761 0.50386518 0
0.2653828 0.9574554 0.4436512 0
0.92174679 0.74159175 -0.049890343 0
0.85165983 0.76588655 0.27495781 0
0.84249812 0.76906228 0.38400987 0
0.84214658 0.76918417 0.49880403 0
0.84024423 0.76984358 0.61845815 0
0.26829818 0.96810138 0.44325012 0
0.93344754 0.75847334 -0.050092086 0
0.84436673 0.78810102 0.27242401 0
0.85020965 0.78615773 0.38447028 0
0.8413617 0.78910047 0.49642608 0
0.83154315 0.79236603 0.61204815 0
0.29000887 0.97247672 0.45283216 0
0.92864746 0.78076583 -0.049682718 0
0.85044259 0.80568707 0.27248397 0
0.84585088 0.8071503 0.38175458 0
0.84723085 0.80671054 0.49646878 0
0.84086162 0.8087402 0.61361778 0
0.30153045 0.98060697 0.45705423 0
0.94996732 0.794797 -0.050260294 0
0.84485835 0.82683957 0.27038708 0
0.83964843 0.82842785 0.37862813 0
0.84539789 0.82667512 0.49390975 0
0.8485046 0.825728 0.61454552 0
0.31641141 0.98793715 0.46307096 0
0.94769222 0.81612521 -0.049965002 0
0.87129909 0.83836639 0.27436349 0
0.83729368 0.84826678 0.37660688 0
0.84282285 0.84665704 0.4911902 0
0.84237891 0.84678626 0.60962486 0
0.33851716 0.99348116 0.47287878 0
0.93661779 0.83968264 -0.04935468 0
0.89748365 0.85054362 0.27830523 0
0.84140033 0.86610848 0.37636977 0
0.84132534 0.86612928 0.48893923 0
0.82979292 0.86932993 0.60205966 0
0.31971893 1.0108914 0.4614493 0
0.96269757 0.85298872 -0.050129265 0
0.935978 0.86004311 0.28455874 0
0.82959205 0.88813078 0.37199327 0
0.84695524 0.88354659 0.48923275 0
0.84118992 0.88506871 0.60491145 0
0.31735834 1.023369 0.45867756 0
0.96384245 0.8731097 -0.049989853 0
0.95280355 0.87587595 0.28678602 0
0.84385437 0.90317768 0.37456077 0
0.83369619 0.90572321 0.48312208 0
0.8323099 0.90607059 0.59918392 0
0.33108458 1.0316733 0.46429351 0
0.96433479 0.89328766 -0.049836218 0
0.99396139 0.88625872 0.2935538 0
0.84530669 0.92152709 0.37381139 0
0.84421402 0.92178637 0.48525533 0
0.83985931 0.9228195 0.60057735 0
0.33818129 1.0418428 0.46653748 0
0.97500807 0.91107732 -0.050064813 0
1.0097588 0.90329355 0.29563966 0
0.82704884 0.94421858 0.3679713 0
0.83218008 0.94306922 0.47976291 0
0.84231168 0.94079989 0.59989387 0
0.34388199 1.0524427 0.46812508 0
0.97548467 0.93118447 -0.049928948 0
1.0539478 0.9146443 0.30299249 0
0.83879954 0.95999801 0.37004572 0
0.83034974 0.9617793 0.47784549 0
0.83848935 0.9600634 0.5966531 0
0.35919729 1.0610993 0.47469309 0
0.97309524 0.95176375 -0.049698342 0
1.0860987 0.92942458 0.30814028 0
0.84725863 0.97663975 0.37131068 0
0.83398181 0.97926444 0.47786537 0
0.83512038 0.97903931 0.59371418 0
0.36044982 1.0728748 0.47412816 0
0.98299581 0.96991158 -0.049923878 0
0.85079366 0.99432051 0.37134957 0
0.84265429 0.99582332 0.47966504 0
0.84757835 0.99491417 0.59754652 0
0.38454387 1.0804058 0.48526171 0
0.99859279 0.98724627 -0.050363563 0
0.84215027 1.0140984 0.36829358 0
0.84425491 1.0137372 0.47914416 0
0.84463447 1.013672 0.59498453 0
0.3876408 1.0921115 0.48576015 0
0.98655611 1.0092838 -0.049811356 0
0.42842522 1.0978631 0.041635979 0
0.45128319 1.0942353 0.11575997 0
0.42847833 1.0978546 0.18602845 0
0.42288622 1.0987421 0.25923443 0
0.43026367 1.0975713 0.33870485 0
0.41875979 1.0993971 0.41522661 0
0.38264903 1.105128 0.48223457 0
1.0010425 1.0270633 -0.050227106 0
0.4049485 1.1139877 0.040720709 0
0.40889445 1.1134123 0.11094607 0
0.4097009 1.1132946 0.18226133 0
0.41643605 1.1123124 0.25708634 0
0.40909854 1.1133825 0.3309516 0
0.39127031 1.1159822 0.40294078 0
0.40411022 1.1141099 0.49217388 0
0.98230809 1.0495595 -0.049453773 0
0.40112773 1.1268489 0.04052221 0
0.42449453 1.1237415 0.1124533 0
0.43604192 1.1222059 0.18674462 0
0.44555709 1.1209404 0.26414111 0
0.44047257 1.1216166 0.34091157 0
0.43343464 1.1225525 0.41985586 0
0.41704914 1.1247315 0.49785212 0
0.99800974 1.0673707 -0.049930058 0
0.38424483 1.1411412 0.039860148 0
0.41780993 1.1371069 0.11156021 0
0.42636642 1.1360784 0.18469922 0
0.42382702 1.1363837 0.25814605 0
0.4183971 1.1370363 0.33298093 0
0.43389753 1.1351732 0.41938978 0
1.0051109 1.0864468 -0.050104938 0
0.35560659 1.1562285 0.038783353 0
0.85742432 1.102314 0.36904618 0
0.82903439 1.1053641 0.46991557 0
0.84313697 1.1038489 0.58921272 0
1.0079688 1.1060518 -0.050136067 0
0.35967931 1.1674567 0.038887709 0
0.85768098 1.1202868 0.36865017 0
0.8368991 1.1222552 0.47195378 0
0.85044128 1.1209725 0.59150869 0
1.0045795 1.1261945 -0.049952228 0
0.35093495 1.1798118 0.038537901 0
0.85479397 1.1384811 0.36750782 0
0.84458715 1.1393183 0.47400194 0
0.83899552 1.1397771 0.58610266 0
1.0123515 1.1454362 -0.050177064 0
0.37693951 1.1895112 0.039437529 0
0.84862691 1.1567929 0.36558625 0
0.8385548 1.1574914 0.47154436 0
0.83564156 1.1576936 0.58415806 0
1.0103648 1.1653934 -0.050061442 0
0.85658652 1.1741161 0.36733496 0
0.83655888 1.1752521 0.47050986 0
0.83661288 1.1752491 0.58410209 0
1.0112597 1.185145 -0.050057851 0
0.84316701 1.1925577 0.3636786 0
0.84993082 1.1922594 0.47466817 0
0.84107667 1.1926498 0.5855853 0
1.0221344 1.2045829 -0.050419617 0
0.85066205 1.2099825 0.36542159 0
0.83629805 1.2104348 0.46990743 0
0.8418656 1.2102596 0.58563638 0
1.0096841 1.2247199 -0.049957152 0
0.84761459 1.2277813 0.36452997 0
0.841304 1.2279005 0.47142607 0
0.83923405 1.2279396 0.58436275 0
1.0053521 1.2444826 -0.049793623 0
0.8445918 1.2454948 0.36370188 0
0.82767791 1.2456013 0.46681887 0
0.84078616 1.2455188 0.58491373 0
1.0027287 1.2641439 -0.049699958 0
0.84411865 1.2631453 0.36358118 0
0.83433515 1.2630838 0.46903372 0
0.8336336 1.2630794 0.58195221 0
1.017081 1.284063 -0.050221279 0
0.85286695 1.280961 0.36587027 0
0.84672683 1.280845 0.47323054 0
0.8410334 1.2807375 0.58510792 0
1.0147883 1.3038288 -0.050157223 0
0.85077542 1.2986642 0.36545053 0
0.84067863 1.2983463 0.47136551 0
0.83827299 1.2982705 0.58414811 0
1.0029737 1.3231328 -0.049761742 0
0.84103614 1.3159914 0.36313438 0
0.84173876 1.3160224 0.47194007 0
0.83777291 1.3158475 0.58421606 0
1.0135608 1.343431 -0.05017573 0
0.85240608 1.3342899 0.36626667 0
0.83618909 1.3333701 0.47038659 0
0.84547514 1.3338968 0.58777732 0
1.0145482 1.3633593 -0.050255675 0
1.3019923 1.3832977 0.072542459 0
1.2867246 1.3822386 0.20466374 0
1.29572 1.3828627 0.34101209 0
0.84851307 1.3518424 0.36555713 0
0.83471423 1.3508853 0.47026354 0
0.83608311 1.3509802 0.58434135 0
1.0000198 1.3820746 -0.049788896 0
1.244962 1.4021667 0.070563011 0
1.2465298 1.4022954 0.20051897 0
1.0063186 1.3825912 0.28896308 0
0.85837668 1.3704559 0.36842498 0
0.84217447 1.3691268 0.47319657 0
0.84038824 1.3689803 0.58668125 0
0.99750847 1.4016006 -0.049760949 0
1.2555051 1.4260375 0.071012981 0
1.2518305 1.4256895 0.20130774 0
0.89585751 1.3919723 0.26926744 0
0.8429262 1.3869588 0.36486894 0
0.84231728 1.3869011 0.47376442 0
0.82883912 1.3856245 0.58252466 0
1.0079323 1.4224995 -0.050206244 0
0.6340403 1.3823291 0.048781004 0
0.65153474 1.3842087 0.13667184 0
0.64199752 1.383184 0.22355591 0
0.64063126 1.3830372 0.31341702 0
0.8409273 1.4045568 0.47389504 0
0.83099014 1.4034891 0.58415455 0
1.0018734 1.4417369 -0.050068982 0
0.55593508 1.3881381 0.046033829 0
0.55578738 1.3881203 0.12649529 0
0.55178887 1.3876396 0.20748182 0
0.55034465 1.3874661 0.29065707 0
0.84013146 1.4222966 0.47429937 0
0.8353675 1.421724 0.5868091 0
1.0009704 1.4615655 -0.050125904 0
0.54608554 1.4010717 0.045742955 0
0.55440682 1.4021783 0.12653781 0
0.54716593 1.4012154 0.20696212 0
0.54876572 1.4014281 0.29070476 0
0.84252495 1.4404943 0.47584972 0
0.83677047 1.439729 0.58832163 0
1.0012215 1.481606 -0.050233569 0
0.55251926 1.4161748 0.046044897 0
0.54194862 1.4146333 0.12539653 0
0.55554813 1.4166164 0.20884289 0
0.54559618 1.4151652 0.29038775 0
0.83112758 1.4568024 0.47284323 0
0.8487131 1.4593668 0.59434164 0
0.9910267 1.5000689 -0.049972959 0
0.55418712 1.4307394 0.046182036 0
0.55506128 1.430878 0.12705252 0
0.54535145 1.429337 0.20737018 0
0.55659956 1.4311222 0.29377598 0
0.83969218 1.476051 0.47662416 0
0.82874769 1.474314 0.5871008 0
0.9882223 1.5196168 -0.049987905 0
0.55412573 1.4451076 0.046263468 0
0.54987222 1.4443774 0.12673871 0
0.55245703 1.4448211 0.20908964 0
0.54899389 1.4442267 0.29240623 0
0.84161228 1.4944524 0.47825208 0
0.84034461 1.4942348 0.59318238 0
0.99524373 1.540993 -0.05036854 0
0.55445284 1.4596082 0.046365753 0
0.54918534 1.4586356 0.12693477 0
0.55267936 1.4592807 0.20958644 0
0.56124669 1.4608625 0.29622829 0
0.84456533 1.5131726 0.4803116 0
0.84015328 1.5123581 0.59442037 0
0.98885173 1.5599942 -0.050271757 0
0.55563229 1.4743531 0.046505954 0
0.54766506 1.4727781 0.12705967 0
0.54809839 1.4728638 0.20923489 0
0.54616934 1.4724824 0.29300651 0
0.82956094 1.5285047 0.47636613 0
0.84174937 1.5309143 0.59651196 0
0.96793669 1.5758675 -0.049653552 0
0.54589099 1.4868993 0.046254832 0
0.55149561 1.4880807 0.12779209 0
0.55705136 1.489252 0.21140836 0
0.55775219 1.4893997 0.29676569 0
0.83773547 1.5484208 0.48035672 0
0.85247725 1.5515283 0.60257185 0
0.97640699 1.5978792 -0.050115991 0
0.55087227 1.5025641 0.046547417 0
0.55306643 1.5030555 0.12829894 0
0.55054528 1.5024908 0.21076895 0
0.55731183 1.5040064 0.29744753 0
0.83107537 1.5653265 0.47938624 0
0.83653706 1.5665498 0.5974437 0
0.97739023 1.6184529 -0.050315257 0
0.54378611 1.5155802 0.046405323 0
0.54896075 1.5168078 0.1282011 0
0.55474001 1.5181789 0.21214195 0
0.55304509 1.5177768 0.29717627 0
0.83580524 1.5848618 0.48238012 0
0.83230311 1.5840309 0.59736198 0
0.97019285 1.6371248 -0.050223578 0
0.56062764 1.5344913 0.047149464 0
0.5397982 1.5292716 0.12756184 0
0.55976349 1.5342748 0.21371001 0
0.54460341 1.5304757 0.29585159 0
0.84084266 1.6047108 0.48557323 0
0.84764618 1.6064156 0.60573 0
0.95130533 1.6526467 -0.049708612 0
0.54257673 1.5447356 0.046616472 0
0.54662091 1.5458033 0.12871467 0
0.55249196 1.5473534 0.21302769 0
0.54684204 1.5458616 0.29738286 0
0.84484893 1.6245404 0.48850799 0
0.83714253 1.6225058 0.6031782 0
0.95978111 1.6753891 -0.050212897 0
0.55145639 1.5620661 0.047084179 0
0.56236631 1.5650939 0.13088988 0
0.55358332 1.5626564 0.213939 0
0.5571081 1.5636346 0.3010962 0
0.84889406 1.6446145 0.49155247 0
0.84542125 1.6436505 0.60877496 0
0.95071381 1.6933976 -0.050077353 0
0.55997652 1.5796379 0.047548339 0
0.55052716 1.5768868 0.13001262 0
0.55340189 1.5777237 0.21465071 0
0.54688209 1.5758256 0.29943725 0
0.83874041 1.6607976 0.48977563 0
0.84054404 1.6613226 0.60883361 0
0.94737679 1.7130563 -0.050163612 0
0.84965819 1.6832668 0.38129798 0
0.83807725 1.6797363 0.49136353 0
0.84078783 1.6805626 0.61120534 0
0.93712455 1.7305787 -0.050000355 0
0.85501081 1.7044117 0.38420734 0
0.83668441 1.6985718 0.4927862 0
0.83426028 1.6977992 0.61074913 0
0.93647856 1.7511779 -0.050206129 0
0.83855277 1.7186084 0.38133606 0
0.82755417 1.7149503 0.49158496 0
0.83786124 1.7183784 0.61480492 0
0.91642135 1.7652054 -0.049689118 0
0.85438114 1.7436999 0.38721856 0
0.82939225 1.7350378 0.49431309 0
0.84565204 1.740674 0.62082779 0
0.92188138 1.7880552 -0.050144929 0
0.8396154 1.7583733 0.38491529 0
0.83719224 1.757499 0.49925151 0
0.83887845 1.7581074 0.62059075 0
0.9093675 1.8045098 -0.04992849 0
0.844356 1.7801239 0.38796663 0
0.84183055 1.7791766 0.5031901 0
0.82241017 1.7718921 0.61616242 0
0.89975744 1.8219349 -0.049830168 0
0.84436804 1.800359 0.38981307 0
0.83331662 1.7960541 0.50254941 0
0.83079988 1.7950737 0.62283456 0
0.90150684 1.8438792 -0.050177179 0
0.83368438 1.8164717 0.38879567 0
0.82560855 1.8132082 0.5022707 0
0.83258003 1.8160254 0.62671918 0
0.89497668 1.8626244 -0.05021622 0
0.82639402 1.8339 0.38876748 0
0.81403345 1.828723 0.50067341 0
0.83463246 1.8373505 0.63086474 0
0.87661284 1.8762708 -0.04980414 0
0.83673221 1.8589741 0.39370242 0
0.82964927 1.8559022 0.50899845 0
0.82039505 1.8518885 0.62780219 0
0.87433809 1.896822 -0.050026018 0
0.83508521 1.8792071 0.39540175 0
0.82055396 1.8726861 0.50848401 0
0.82514602 1.8747468 0.63342232 0
0.86157912 1.9126848 -0.049846724 0
0.82858437 1.8973763 0.39581734 0
0.81757742 1.8922694 0.51028794 0
0.8300634 1.8980625 0.63928235 0
0.8507939 1.9293569 -0.04975237 0
0.82145756 1.9152943 0.39612287 0
0.81686646 1.9130934 0.5130294 0
0.82358736 1.9163152 0.64008099 0
0.85480791 1.9532831 -0.050255291 0
0.81060892 1.9314072 0.39543486 0
0.81211585 1.932153 0.51438546 0
0.81186777 1.9320303 0.63856816 0
0.84247667 1.9692633 -0.050118249 0
0.81476003 1.9551079 0.39909744 0
0.80106753 1.948115 0.51348704 0
0.80485648 1.9500501 0.63932616 0
0.82347625 1.9816251 -0.049719285 0
0.81327087 1.9762501 0.40124378 0
0.79980785 1.9691591 0.51633865 0
0.8000167 1.9692692 0.64121115 0
0.81707603 2.0005109 -0.049835745 0
0.80373257 1.9932669 0.40114519 0
0.80560261 1.9942821 0.52198035 0
0.8016296 1.9921252 0.64626276 0
0.81231087 2.0204089 -0.050029613 0
0.78995436 2.0079048 0.39986885 0
0.78841299 2.0070426 0.5190205 0
0.78279585 2.003901 0.64178628 0
0.80380028 2.038311 -0.050080862 0
0.78589851 2.0280004 0.40149981 0
0.78325266 2.0264764 0.52071905 0
0.77560192 2.0220699 0.64290929 0
0.7960456 2.0567069 -0.050173189 0
0.77039105 2.0414977 0.39982125 0
0.77573496 2.0446658 0.52161282 0
0.77767354 2.045815 0.64861023 0
0.77848917 2.0692039 -0.04986598 0
0.76951867 2.0637319 0.40255406 0
0.77751821 2.0686114 0.52622706 0
0.76839358 2.0630457 0.64899421 0
0.763336 2.0829563 -0.049664229 0
0.76553875 2.0843384 0.40445656 0
0.7585519 2.0799549 0.5228464 0
0.76515538 2.0840979 0.65243995 0
0.75147539 2.0986674 -0.049608048 0
0.75593227 2.1015425 0.40474477 0
0.76009768 2.1042295 0.52761549 0
0.75343448 2.0999312 0.65186441 0
0.73846549 2.1135726 -0.049510602 0
0.74782163 2.1197762 0.40555939 0
0.74601167 2.1185763 0.52630609 0
0.74369723 2.1170416 0.65236807 0
0.73701829 2.1362765 -0.049919911 0
0.73955458 2.1380045 0.4064033 0
0.74410504 2.1411052 0.52996099 0
0.73720855 2.1364062 0.65461117 0
0.72692794 2.1532869 -0.049968593 0
0.726888 2.153259 0.40595576 0
0.72056168 2.1488309 0.52497637 0
0.72738522 2.1536071 0.65531152 0
0.72778469 2.1782131 -0.050508425 0
0.72121841 2.1734927 0.40776277 0
0.72831517 2.1785944 0.53280962 0
0.71996921 2.1725948 0.65735573 0
0.70877177 2.1889496 -0.050185464 0
0.71001917 2.1898704 0.4079136 0
0.70554894 2.1865706 0.52824998 0
0.71097213 2.1905739 0.65872794 0
0.69581705 2.203995 -0.050136805 0
0.7049337 2.2109034 0.41008863 0
0.69986254 2.2070608 0.53081793 0
0.70401877 2.2102103 0.66129196 0
0.67086536 2.2096698 -0.049553584 0
0.69275373 2.2266946 0.41007721 0
0.69789797 2.2306957 0.53508806 0
0.69649965 2.2296081 0.66371351 0
0.6660735 2.2309141 -0.049888626 0
0.68473989 2.2458136 0.41149026 0
0.68774086 2.248209 0.53603995 0
0.68685037 2.2474983 0.66515982 0
0.65544134 2.2476842 -0.049969908 0
0.6702444 2.2598085 0.41085941 0
0.66981381 2.2594557 0.53375465 0
0.669182 2.2589383 0.66244942 0
0.64699513 2.2663703 -0.050163783 0
0.66185325 2.2788556 0.41231453 0
0.6586861 2.2761941 0.53446102 0
0.65962237 2.2769809 0.66417295 0
0.63227838 2.2798357 -0.050075248 0
0.72203106 2.357203 0.066305697 0
0.71783394 2.353585 0.18693885 0
0.7204079 2.355804 0.31025392 0
0.65230769 2.2971013 0.41347703 0
0.64823335 2.2935891 0.53556365 0
0.65098053 2.2959571 0.6665405 0
0.62090725 2.2961805 -0.0501532 0
0.68739825 2.3549714 0.065321863 0
0.68418473 2.3521299 0.1841118 0
0.68601686 2.35375 0.30533788 0
0.64039904 2.3134148 0.41392559 0
0.63686556 2.3102906 0.53636897 0
0.63155693 2.3055968 0.6631071 0
0.60496467 2.3084576 -0.050021578 0
0.66360039 2.3616333 0.064847581 0
0.66136438 2.3596056 0.18282068 0
0.6585564 2.357059 0.30204651 0
0.62805003 2.3293931 0.41429794 0
0.62287444 2.3246996 0.53609926 0
0.62335509 2.3251355 0.66597402 0
0.59000212 2.3215237 -0.049943686 0
0.639543 2.3676016 0.064359128 0
0.64418072 2.3719151 0.1823554 0
0.6407904 2.3687618 0.30111432 0
0.61914498 2.3486295 0.41594443 0
0.61600834 2.3457122 0.53914565 0
0.60322326 2.3338206 0.66226733 0
0.57423466 2.3337505 -0.049833212 0
0.61593717 2.373529 0.06389074 0
0.62267512 2.379956 0.18126549 0
0.63088614 2.3877883 0.30216679 0
0.60488516 2.362987 0.41580766 0
0.59902984 2.3574018 0.53770024 0
0.59937936 2.3577352 0.66789788 0
0.56084973 2.3482034 -0.049847998 0
0.6125719 2.3987982 0.064431109 0
0.6172089 2.4033341 0.18258853 0
0.62424523 2.410217 0.30411574 0
0.57927758 2.3662295 0.41168332 0
0.58535618 2.3721757 0.53784323 0
0.58223099 2.3691187 0.66606569 0
0.54566425 2.3608692 -0.049781069 0
0.60426694 2.4196565 0.06474454 0
0.60642892 2.4218254 0.18316403 0
0.60925967 2.424665 0.30402943 0
0.56840271 2.3836794 0.41284531 0
0.57300299 2.388294 0.53869736 0
0.57136172 2.3866477 0.6679762 0
0.5311051 2.3741159 -0.049753465 0
0.59905475 2.4440184 0.065233834 0
0.59487289 2.4397166 0.18366306 0
0.59846491 2.4434116 0.30507314 0
0.56012803 2.4039731 0.41505417 0
0.55772883 2.401505 0.53826469 0
0.5577125 2.4014881 0.66839063 0
0.52345377 2.3946269 -0.050092582 0
0.61510676 2.4913206 0.066849031 0
0.61607271 2.4923396 0.1893208 0
0.62172967 2.4983077 0.31512129 0
0.54655772 2.4190016 0.41542274 0
0.54397851 2.4162805 0.53864312 0
0.54901165 2.4215903 0.67190045 0
0.50701588 2.405988 -0.049987677 0
0.53078789 2.4317083 0.41504022 0
0.52771479 2.4283836 0.53788537 0
0.5333814 2.4345145 0.67138487 0
0.49340329 2.4203784 -0.050039552 0
0.51213485 2.4411645 0.41361412 0
0.51972276 2.4495845 0.54130298 0
0.52754313 2.4582624 0.67701811 0
0.48421595 2.4398656 -0.050341263 0
0.51119906 2.470577 0.41906154 0
0.49610612 2.4533987 0.53702784 0
0.50356215 2.461885 0.67153811 0
0.46083054 2.4431088 -0.049881618 0
0.48486122 2.4711645 0.41477132 0
0.48669395 2.4733043 0.53997833 0
0.49168155 2.4791272 0.67370737 0
0.45476863 2.4665992 -0.050382234 0
0.47156557 2.4867167 0.41561067 0
0.47025761 2.4851501 0.53945655 0
0.46950921 2.4842539 0.6694001 0
0.43441686 2.4730942 -0.050099004 0
0.45863959 2.5028596 0.41669109 0
0.45844468 2.5026202 0.54144168 0
0.45753857 2.5015066 0.67175961 0
0.41833112 2.484652 -0.050061006 0
0.44319424 2.5160027 0.41683719 0
0.43770054 2.5090754 0.5387935 0
0.43943343 2.5112605 0.67021304 0
0.40210369 2.4959879 -0.05002255 0
0.42641839 2.5274525 0.41649902 0
0.42043069 2.5197041 0.53803605 0
0.41856596 2.5172911 0.66685313 0
0.38183001 2.501909 -0.049751662 0
0.41254005 2.542701 0.41744494 0
0.40783116 2.5364463 0.53992271 0
0.4082236 2.5369678 0.67073387 0
0.36925688 2.5180137 -0.049945455 0
0.39509299 2.5532465 0.41694969 0
0.39057651 2.5470872 0.53934062 0
0.39629057 2.5548794 0.67374003 0
0.35290036 2.5290608 -0.049922623 0
0.37903222 2.5656543 0.41711202 0
0.38019755 2.5672863 0.54276043 0
0.38193843 2.5697241 0.67523551 0
0.33599511 2.5392962 -0.049873684 0
0.36784002 2.5850985 0.41952246 0
0.36157331 2.5760851 0.54158425 0
0.35906902 2.5724833 0.67071515 0
0.32452574 2.5575078 -0.050178219 0
0.33814535 2.5776327 0.41366607 0
0.34268013 2.5843334 0.54029161 0
0.3408998 2.5817027 0.66960758 0
0.31351593 2.5768132 -0.050533209 0
0.32674333 2.596899 0.41613901 0
0.32926127 2.6007226 0.54234761 0
0.327288 2.5977261 0.671996 0
0.29037544 2.5776536 -0.050108336 0
0.30673662 2.6031926 0.41470501 0
0.30415753 2.5991666 0.53736395 0
0.29992542 2.5925608 0.66403103 0
0.27335271 2.5877528 -0.050088543 0
0.2858682 2.6078413 0.41286391 0
0.29104486 2.6161501 0.53981066 0
0.28958824 2.6138122 0.66918373 0
0.25524172 2.5960343 -0.050002016 0
0.26740977 2.6161244 0.41219947 0
0.27985433 2.6366708 0.54367906 0
0.27774265 2.6331842 0.67345083 0
0.23749955 2.6048284 -0.049946841 0
0.25259373 2.6304727 0.41340464 0
0.2537649 2.6324625 0.53802699 0
0.25493577 2.6344516 0.66906017 0
0.228543 2.6289158 -0.050530229 0
0.23547496 2.6410396 0.41354489 0
0.23835297 2.6460731 0.53937078 0
0.23184784 2.634696 0.66435057 0
0.19901176 2.6167982 -0.049635764 0
0.21203549 2.6402566 0.41043523 0
0.22071458 2.6558897 0.53933549 0
0.21456571 2.6448143 0.66448796 0
0.181273 2.6252427 -0.049596358 0
0.20086493 2.6616035 0.41384584 0
0.20069988 2.6612971 0.53771842 0
0.19534262 2.6513546 0.66304427 0
0.16528173 2.6369772 -0.049698774 0
0.18084301 2.6667492 0.41261077 0
0.18182828 2.6686342 0.53693128 0
0.17914303 2.663497 0.66434073 0
0.15043302 2.6511331 -0.049905531 0
0.15782209 2.6657143 0.40968806 0
0.15855063 2.6671519 0.53294861 0
0.15944989 2.6689265 0.66260815 0
0.13582946 2.6661263 -0.050151777 0
0.14102204 2.6767011 0.410283 0
0.14344718 2.6816401 0.53501874 0
0.14654483 2.6879485 0.6672706 0
0.11699262 2.6726284 -0.050068181 0
0.12663288 2.6929026 0.41240746 0
0.12149557 2.6820984 0.53197837 0
0.12397989 2.6873231 0.66297233 0
0.096830927 2.6761177 -0.049876012 0
0.10156598 2.6864078 0.40819657 0
0.10376932 2.6911962 0.53222108 0
0.10751703 2.6993408 0.66459113 0
0.078240238 2.6828117 -0.049820099 0
0.085899316 2.7000239 0.40971357 0
0.080024503 2.6868215 0.52763802 0
0.082918905 2.693326 0.6581232 0
0.058516346 2.6867783 -0.049667619 0
0.071915291 2.7179403 0.41247156 0
0.067325138 2.7072651 0.53217614 0
0.065929554 2.7040193 0.65936029 0
0.045133077 2.7057462 -0.050105441 0
0.041645728 2.6973457 0.40462559 0
0.0462332 2.7083962 0.52979153 0
0.048721395 2.71439 0.66054243 0
0.029991468 2.7211623 -0.05041096 0
0.024501523 2.707453 0.40536177 0
0.024445137 2.7073121 0.5267204 0
0.028528651 2.7175095 0.6585815 0
0.0086742854 2.7211833 -0.050133184 0
0.0079030609 2.7191846 0.40659788 0
0.0053000064 2.7124395 0.52597737 0
0.0052190037 2.7122295 0.65301561 0
-0.011077204 2.7248647 -0.050006367 0
-0.014406838 2.7159023 0.40379885 0
-0.015165188 2.7138612 0.52400833 0
-0.01068435 2.7259221 0.65598553 0
-0.030910054 2.7280622 -0.04987121 0
-0.034384467 2.7183366 0.40263742 0
-0.030673066 2.7287254 0.52688855 0
-0.034184135 2.7188976 0.64992172 0
-0.047752358 2.7396913 -0.050064337 0
-0.052204944 2.7267141 0.40315211 0
-0.055830933 2.7161465 0.52017248 0
-0.052069403 2.7271092 0.65068334 0
-0.065014906 2.750489 -0.050233413 0
-0.07177899 2.7299359 0.40234023 0
-0.070846952 2.7327681 0.52382272 0
-0.074453451 2.7218094 0.64565063 0
-0.083977319 2.7563012 -0.050223339 0
-0.092825182 2.728231 0.4002797 0
-0.094314672 2.7235055 0.51849544 0
-0.091244347 2.7332461 0.64802617 0
-0.10445065 2.7570868 -0.050034799 0
-0.11314235 2.7282505 0.39875731 0
-0.10887349 2.7424133 0.52307987 0
-0.10950691 2.7403116 0.64859408 0
-0.12346119 2.7624867 -0.050027952 0
-0.10199318 2.8370981 0.064799748 0
-0.104244 2.8292754 0.1821263 0
-0.10377593 2.8309023 0.30187017 0
-0.12998907 2.7397993 0.40036929 0
-0.13519453 2.7217081 0.51399755 0
-0.13408266 2.7255721 0.6398648 0
-0.1428047 2.7666657 -0.049984813 0
-0.13275583 2.8033209 0.063341737 0
-0.13429175 2.7977183 0.17798783 0
-0.13571341 2.7925327 0.29365018 0
-0.15089051 2.7371712 0.39828146 0
-0.15159352 2.7346067 0.51665348 0
-0.14953266 2.7421241 0.64473253 0
-0.16297607 2.7675605 -0.049829643 0
-0.15774266 2.7876384 0.062570408 0
-0.15594001 2.7945542 0.17705834 0
-0.1581677 2.7860079 0.29146725 0
-0.16920452 2.743665 0.39867502 0
-0.16951536 2.7424724 0.51764131 0
-0.17169674 2.7341034 0.63915384 0
-0.18215604 2.7720218 -0.049815483 0
-0.18002404 2.7806447 0.062132604 0
-0.17804925 2.7886317 0.17585658 0
-0.17753948 2.7906933 0.29142642 0
-0.18849905 2.7463675 0.39813173 0
-0.19081457 2.7370024 0.51413333 0
-0.18903257 2.7442098 0.64144289 0
-0.20073296 2.779031 -0.04990365 0
-0.19628604 2.7980406 0.062600642 0
-0.19630013 2.7979803 0.17637463 0
-0.19743375 2.7931345 0.29101521 0
-0.20941581 2.7419136 0.3957786 0
-0.20919506 2.7428572 0.51459682 0
-0.20838054 2.7463391 0.64042628 0
-0.21976872 2.7842641 -0.049935203 0
-0.21630336 2.7999666 0.062509298 0
-0.21645387 2.7992847 0.17603125 0
-0.21749784 2.7945542 0.29046282 0
-0.22825082 2.7458291 0.39568764 0
-0.23218231 2.7280142 0.50808626 0
-0.23119886 2.7324705 0.63273287 0
-0.2365834 2.8003252 -0.050370235 0
-0.23648413 2.8008034 0.062387675 0
-0.23592271 2.803509 0.17603713 0
-0.23418061 2.8119037 0.29289266 0
-0.24955793 2.7378027 0.3925471 0
-0.25039336 2.7337768 0.50869256 0
-0.24994858 2.7359202 0.63250428 0
-0.2563408 2.8028743 -0.050320487 0
-0.24980105 2.8365119 0.063543878 0
-0.25322089 2.8189218 0.17729484 0
-0.24985869 2.8362155 0.29663429 0
-0.26906106 2.7374468 0.39147773 0
-0.27052429 2.7299206 0.5061152 0
-0.27020299 2.7315733 0.62908751 0
-0.27686092 2.8010397 -0.050120827 0
-0.26690656 2.8559203 0.064112104 0
-0.26762637 2.8519518 0.18049771 0
-0.26549441 2.8637059 0.30098623 0
-0.28663492 2.7471533 0.39308363 0
-0.29126796 2.7216101 0.50212342 0
-0.28835902 2.7376478 0.63017118 0
-0.29706272 2.800266 -0.049969368 0
-0.30524588 2.7516737 0.39340171 0
-0.3085719 2.7319236 0.50451165 0
-0.30901209 2.7293098 0.62529731 0
-0.31608313 2.8064156 -0.050077546 0
-0.32578948 2.7439885 0.39062831 0
-0.32770893 2.7316434 0.50340188 0
-0.32756165 2.7325907 0.62541056 0
-0.33479881 2.8152647 -0.050291527 0
-0.34446853 2.7474601 0.39080182 0
-0.34762806 2.7253053 0.50033927 0
-0.34733424 2.7273655 0.62206393 0
-0.35437855 2.8186533 -0.050317068 0
-0.36618438 2.7276895 0.38505608 0
-0.36717033 2.7200928 0.49774352 0
-0.36585116 2.7302568 0.62221551 0
-0.37532428 2.810549 -0.049938332 0
-0.38485426 2.7290981 0.38482943 0
-0.38568819 2.7219708 0.4976092 0
-0.38599148 2.7193785 0.61672413 0
-0.39538044 2.8084316 -0.049784463 0
-0.40350088 2.7305427 0.38467264 0
-0.40383583 2.72733 0.49871755 0
-0.40491766 2.7169535 0.61486447 0
-0.41342312 2.827152 -0.050386876 0
-0.42250091 2.7279897 0.38355207 0
-0.42471355 2.7038195 0.49025604 0
-0.42464408 2.7045782 0.60896915 0
-0.43455878 2.8120973 -0.049787268 0
-0.4418287 2.7199111 0.38107976 0
-0.44199732 2.717773 0.49439341 0
-0.44205663 2.717021 0.6134904 0
-0.45343539 2.82481 -0.050191198 0
-0.46043751 2.7190433 0.38051549 0
-0.46138409 2.7047453 0.48960388 0
-0.46195152 2.6961741 0.6042856 0
-0.47322762 2.825815 -0.050184775 0
-0.47915092 2.7152362 0.37926048 0
-0.48065752 2.6871104 0.48336396 0
-0.48000878 2.6992214 0.60509819 0
-0.49291584 2.8293254 -0.050276786 0
-0.49845275 2.6941032 0.37364224 0
-0.49886119 2.6841283 0.48208702 0
-0.49851596 2.6925592 0.6019811 0
-0.5129692 2.8223538 -0.050003257 0
-0.5161106 2.7115071 0.37792394 0
-0.5168283 2.6861823 0.48256299 0
-0.5169934 2.6803565 0.59666675 0
-0.53283173 2.8154459 -0.04974106 0
-0.53470683 2.6963344 0.37394923 0
-0.53485775 2.6867447 0.48261791 0
-0.53490466 2.6837668 0.59791511 0
-0.55243891 2.8319077 -0.050322145 0
-0.5528729 2.6940887 0.3733325 0
-0.552948 2.6702464 0.47707227 0
-0.55292511 2.6775067 0.59525269 0
-0.57215583 2.8162625 -0.049765788 0
-0.57093704 2.6871827 0.37158504 0
-0.57076693 2.6691725 0.47673365 0
-0.57087189 2.6802888 0.59642798 0
-0.59197241 2.8228047 -0.050010465 0
-0.58880472 2.6790645 0.36958581 0
-0.58853465 2.6668091 0.47604051 0
-0.5883953 2.6604836 0.58834302 0
-0.61155719 2.8175797 -0.049843807 0
-0.60625839 2.6646101 0.36602557 0
-0.60580033 2.6513865 0.47107413 0
-0.60584861 2.6527798 0.58535928 0
-0.63135457 2.8192797 -0.049933363 0
-0.62361234 2.6554294 0.36386633 0
-0.62328947 2.6485972 0.47038502 0
-0.62248242 2.6315167 0.57684451 0
-0.65106112 2.8183529 -0.049937956 0
-0.64053619 2.6425858 0.36082509 0
-0.63993204 2.6324959 0.46533191 0
-0.63992971 2.6324573 0.57761979 0
-0.64004421 2.6343696 0.6977303 0
-0.67137522 2.8257148 -0.050248127 0
-0.65754145 2.634975 0.35917416 0
-0.65696901 2.6270819 0.463909 0
-0.65687007 2.6257176 0.57529867 0
-0.6571945 2.6301913 0.6962111 0
-0.68992448 2.8097484 -0.049731914 0
-0.67436171 2.6270797 0.46436322 0
-0.67374927 2.6198909 0.57344306 0
-0.67437816 2.6272726 0.69543123 0
-0.71056539 2.8188531 -0.050122794 0
-0.69097811 2.6187665 0.46211284 0
-0.69067651 2.6156857 0.57234806 0
-0.69069183 2.6158421 0.69047993 0
-0.72969407 2.8117516 -0.049941439 0
-0.70696324 2.606271 0.56917018 0
-0.70686162 2.6053524 0.68609852 0
-0.74856037 2.8035429 -0.049728628 0
-0.72355729 2.600903 0.56776106 0
-0.72256422 2.592854 0.68080044 0
-0.76862031 2.8051877 -0.049879041 0
-0.73974758 2.5931849 0.68207109 0
-0.78867036 2.8060253 -0.050009705 0
-0.75476789 2.5785503 0.67588305 0
-0.80966038 2.8120711 -0.050338123 0
-0.82690573 2.795342 -0.049851395 0
-0.84810758 2.8015125 -0.050203249 0
-0.8666147 2.7929981 -0.050030947 0
-0.88417864 2.7806435 -0.049726479 0
-0.90423936 2.7802286 -0.049866356 0
-0.92352581 2.77616 -0.04988176 0
-0.94201076 2.7688785 -0.04978779 0
-0.96383065 2.7743137 -0.050172053 0
-0.9802686 2.7595775 -0.04981982 0
-1.0014591 2.7618437 -0.050106768 0
-1.0175213 2.7467778 -0.049757261 0
-1.0368457 2.7426326 -0.049823523 0
-1.0556623 2.7368197 -0.049836397 0
-1.0736593 2.7286298 -0.049768351 0
-1.0915902 2.7203894 -0.049706668 0
-1.1144015 2.7251501 -0.050149623 0
-1.136083 2.7261751 -0.050462455 0
-1.148209 2.7031739 -0.049861055 0
-1.1679801 2.699348 -0.050005537 0
-1.1859119 2.6910555 -0.049986444 0
-1.2022432 2.6792514 -0.049838446 0
-1.222008 2.6750257 -0.049996365 0
-1.243866 2.6748686 -0.050326403 0
-1.2624036 2.6675272 -0.050382845 0
-1.276794 2.652034 -0.050121676 0
-1.2968615 2.6476243 -0.05031402 0
-1.3071557 2.625057 -0.049779065 0
-1.327855 2.6217191 -0.050033577 0
-1.3445925 2.6111882 -0.050003801 0
-1.3619107 2.6016648 -0.050024413 0
-1.3764249 2.587543 -0.049861625 0
-1.3992976 2.5868604 -0.050272744 0
-1.4081018 2.5639808 -0.049754497 0
-1.4284468 2.5590408 -0.050006691 0
-1.4427977 2.5450428 -0.049879961 0
-1.4585943 2.533246 -0.049856108 0
-1.4746275 2.5217993 -0.049856186 0
-1.4932828 2.5138767 -0.050021935 0
-1.5094372 2.5024772 -0.05004368 0
-1.5218587 2.4862795 -0.049857255 0
-1.5372049 2.473927 -0.049852166 0
-1.5534493 2.4626651 -0.049906377 0
-1.5693072 2.4508822 -0.049946319 0
-1.5882039 2.4425542 -0.05015938 0
-1.5983367 2.4241467 -0.049904447 0
-1.608639 2.4061866 -0.049674347 0
-1.6272783 2.397367 -0.049894784 0
-1.6411844 2.3833873 -0.04987409 0
-1.6584132 2.3727992 -0.05003177 0
-1.6722602 2.3587003 -0.050024297 0
-1.683082 2.341682 -0.049875617 0
-1.7055919 2.3358128 -0.050312508 0
-1.7225965 2.3244646 -0.050481118 0
-1.7331485 2.3071742 -0.050345492 0
-1.7357595 2.2830741 -0.049845379 0
-1.7473086 2.26704 -0.04978393 0
-1.7631502 2.2546194 -0.049931657 0
-1.7786261 2.241765 -0.050068311 0
-1.2291068 1.7974392 0.51827717 0
-1.7897385 2.2253458 -0.050012682 0
-1.2330984 1.7867373 0.51616782 0
-1.7996322 2.2080364 -0.049912088 0
-1.2387494 1.7774202 0.51542073 0
-1.8135871 2.1938491 -0.050003257 0
-1.2269729 1.7551061 0.50186169 0
-1.8290648 2.1806879 -0.050168786 0
-1.235243 1.7481056 0.50334209 0
-1.8403647 2.1644158 -0.050157253 0
-1.2411512 1.7393506 0.50315642 0
-1.8492074 2.1464529 -0.050048143 0
-1.2317214 1.7200104 0.49199763 0
-1.8588666 2.129128 -0.04998485 0
-1.2373449 1.7113576 0.4918642 0
-1.8778328 2.1179395 -0.050328448 0
-1.2413056 1.701622 0.49063119 0
-1.881546 2.0967562 -0.050029874 0
-1.2429473 1.6904713 0.48786452 0
-1.8970981 2.0831409 -0.050241865 0
-1.2392282 1.6761402 0.48147917 0
-1.9091392 2.0672362 -0.050313167 0
-1.2365116 1.6627264 0.475961 0
-1.9135457 2.0468082 -0.05007657 0
-1.2356247 1.6506516 0.47185668 0
-1.924124 2.0300715 -0.050105609 0
-1.2427709 1.6433347 0.47336349 0
-1.9312335 2.0113962 -0.05000167 0
-1.2381182 1.629441 0.46693301 0
-1.9327686 1.9898195 -0.049682297 0
-1.9516902 1.9775112 -0.050075222 0
-1.9575496 1.9583213 -0.04994991 0
-1.9695561 1.9422208 -0.050079107 0
-1.9794279 1.9250094 -0.050131302 0
-1.9929353 1.9094129 -0.050334394 0
-1.9921685 1.8873585 -0.049987048 0
-2.002466 1.8702832 -0.050081763 0
-1.9946009 1.8456593 -0.049483143 0
-2.0036528 1.8281989 -0.049549211 0
-2.0035267 1.8071767 -0.049272593 0
-2.0045671 1.7867882 -0.049051724 0
-2.0019341 1.7652622 -0.048702471 0
-1.99447 1.7423527 -0.048182804 0
-2.0019512 1.7246919 -0.048237249 0
-2.0159647 1.7090241 -0.048544105 0
-2.0016356 1.6846815 -0.047801331 0
-2.0105953 1.6675022 -0.047937006 0
-2.0044575 1.6461327 -0.047521826 0
-2.0086598 1.627723 -0.047499109 0
-1.998968 1.6059376 -0.046974409 0
-2.0006764 1.5871581 -0.046878979 0
-1.9968939 1.5672507 -0.046591856 0
-2.0061717 1.5502145 -0.046790507 0
-1.9887285 1.5279248 -0.046025243 0
-2.0071208 1.5125638 -0.046571393 0
-2.0053885 1.4934856 -0.046395209 0
-1.997007 1.4735175 -0.04598793 0
-2.0106988 1.4569137 -0.046386097 0
-2.0098298 1.4381806 -0.04626717 0
-2.0011628 1.4186414 -0.045876708 0
-1.9990287 1.4000366 -0.045729998 0
-2.0014448 1.3819348 -0.045754932 0
-1.993606 1.363036 -0.04542084 0
-2.0082984 1.3457911 -0.045901529 0
-2.0038078 1.3272368 -0.045703944 0
-1.9929981 1.3085802 -0.045289047 0
-1.9897069 1.2904028 -0.045151174 0
-2.0016155 1.2725111 -0.045564197 0
-2.0058804 1.2543254 -0.045712359 0
-1.1396402 0.26436791 -0.050128948 0
-0.3895843 0.26436988 0.41734305 0
-0.38902241 0.26436988 0.49322736 0
-1.1388786 0.24458024 -0.050106205 0
-0.40060329 0.25387871 0.42288938 0
-1.1385479 0.22479463 -0.050107744 0
-0.41427034 0.24303995 0.35672218 0
-0.41632313 0.24298824 0.43085632 0
-1.1384162 0.20499727 -0.05012529 0
-0.50635689 0.22888613 0.1069749 0
-0.51638687 0.22850704 0.17726034 0
-1.242269 0.20107213 0.43360314 0
-1.2347176 0.20135753 0.56108373 0
-1.2339963 0.2013848 0.69649959 0
-1.1381526 0.18519104 -0.050147045 0
-0.50914019 0.21690047 0.10733048 0
-0.51006693 0.21685375 0.17621423 0
-1.2444754 0.17983115 0.43440428 0
-1.2350687 0.18030535 0.56150901 0
-1.2398225 0.18006571 0.69929844 0
-1.136655 0.16544408 -0.05013359 0
-0.4996652 0.20560226 0.1063826 0
-0.50709283 0.20513399 0.17579842 0
-1.2340548 0.15930362 0.43204647 0
-1.2490742 0.15835676 0.56657475 0
-1.131876 0.14595185 -0.050011538 0
-0.50071526 0.19372821 0.10658349 0
-0.50500041 0.19340383 0.17556836 0
-1.2303643 0.1384967 0.43147451 0
-1.2450434 0.13738555 0.56571972 0
-1.1283239 0.1264345 -0.049942113 0
-0.50406379 0.1816019 0.1070487 0
-0.51012677 0.1810661 0.17667173 0
-1.2359648 0.11692203 0.43334863 0
-1.2274367 0.11767568 0.56041765 0
-1.1259558 0.10684355 -0.049923901 0
-0.51676714 0.16841859 0.10854147 0
-0.51521415 0.16857556 0.17779759 0
-1.2350329 0.095818348 0.43361971 0
-1.2343421 0.095888175 0.56338841 0
-1.1191161 0.087771319 -0.049753845 0
-0.50481927 0.15768699 0.039681073 0
-0.50224257 0.15798026 0.10710926 0
-0.50962907 0.15713958 0.17701639 0
-1.2390808 0.074117623 0.435238 0
-1.2337493 0.074724413 0.56394452 0
-1.1230984 0.06744688 -0.049981602 0
-0.50438237 0.14576881 0.039716367 0
-0.51223606 0.14477462 0.10834496 0
-0.52543151 0.14310423 0.18014811 0
-1.2484308 0.051581312 0.43829268 0
-1.2470285 0.051758844 0.56924272 0
-1.1204895 0.047875945 -0.049981382 0
-0.5030697 0.13394563 0.039725557 0
-0.50874054 0.13315511 0.10813721 0
-0.51441848 0.13236359 0.1784346 0
-1.2416109 0.030991349 0.43726036 0
-1.2363094 0.031730372 0.56658608 0
-1.1234013 0.027461383 -0.050189424 0
-0.50749046 0.12124104 0.039947186 0
-0.51325339 0.12036356 0.10881551 0
-0.50251567 0.12199851 0.1765801 0
-1.2262877 0.011795719 0.43409848 0
-1.242028 0.009399076 0.5695408 0
-1.1227336 0.0074861539 -0.050277665 0
-0.50919783 0.10882425 0.040076874 0
-0.50983 0.10871983 0.10864829 0
-0.51590174 0.10771696 0.17936821 0
-1.2411482 -0.012072454 0.43879762 0
-1.2318721 -0.010540317 0.56724358 0
-1.1151774 -0.011328409 -0.050125416 0
-0.51004452 0.096465923 0.040181309 0
-0.51385009 0.095788024 0.10930922 0
-0.52425045 0.093935378 0.1812727 0
-1.2411119 -0.033761542 0.43972462 0
-1.2348908 -0.032653373 0.56947803 0
-1.1123736 -0.030945282 -0.050154142 0
-0.5008077 0.085958175 0.039925132 0
-0.51886433 0.082506575 0.11009831 0
-0.51458764 0.083324082 0.17990643 0
-1.2316446 -0.053744446 0.43827501 0
-1.2460002 -0.056488585 0.57455254 0
-1.1009393 -0.048823368 -0.04987745 0
-0.5141325 0.071024962 0.040495217 0
-0.51452529 0.070944734 0.10988182 0
-0.50465572 0.072960474 0.17851168 0
-1.2476628 -0.078789897 0.4435235 0
-1.2406435 -0.077356316 0.57415062 0
-1.0925406 -0.067164846 -0.049719121 0
-0.50957382 0.05956595 0.040420353 0
-0.50323242 0.060944501 0.10891595 0
-0.51049608 0.05936547 0.18004811 0
-1.2493953 -0.10126338 0.44513875 0
-1.2370741 -0.098584898 0.57444549 0
-1.1039298 -0.089958258 -0.050293773 0
-0.51765019 0.045245383 0.040813472 0
-0.51754624 0.045269359 0.11078529 0
-0.50701112 0.047698889 0.17989469 0
-1.2476425 -0.12310029 0.44592014 0
-1.2353164 -0.12025771 0.57545084 0
-1.0987117 -0.10912136 -0.050270449 0
-0.49665874 0.037727419 0.040146239 0
-0.50818074 0.03491706 0.11006279 0
-0.5120492 0.033973489 0.1813502 0
-1.2446041 -0.1447065 0.44643843 0
-1.2413156 -0.14390437 0.57920897 0
-1.0789541 -0.12452979 -0.049719941 0
-0.55601138 0.010021229 0.042442136 0
-0.55670649 0.0098423855 0.11577655 0
-0.55032158 0.011485179 0.18903157 0
-1.2454643 -0.16737218 0.448057 0
-1.2448809 -0.16722207 0.58224535 0
-1.0701935 -0.14251678 -0.049581461 0
-0.61758971 -0.019967359 0.044841077 0
-0.61497784 -0.01926012 0.12262999 0
-1.2402835 -0.18857126 0.3185555 0
-1.2443771 -0.1896797 0.44924167 0
-1.2362907 -0.18749015 0.58120346 0
