# .PCD v0.7 - Point Cloud Data file format
VERSION 0.7
FIELDS x y z intensity
SIZE 4 4 4 4
TYPE F F F F
COUNT 1 1 1 1
WIDTH 1348
HEIGHT 1
VIEWPOINT 0 0 0 1 0 0 0
POINTS 1348
DATA ascii
0.54272038 1.5447735 0.046621777 0
0.55881077 1.5490216 0.13006958 0
0.55403215 1.5477599 0.21331497 0
0.55074662 1.5468925 0.29841316 0
0.84477705 1.6245215 0.48848325 0
0.83640105 1.62231 0.60286075 0
0.95698267 1.6746124 -0.050109215 0
0.54874521 1.5613136 0.046983726 0
0.55640382 1.5634391 0.13022485 0
0.5525344 1.5623653 0.21374267 0
0.55704194 1.5636163 0.30107865 0
0.83652705 1.6411822 0.48728251 0
0.83900231 1.6418691 0.60601681 0
0.94627219 1.6921045 -0.049912199 0
0.54683548 1.575812 0.047059711 0
0.55395383 1.5778844 0.13039617 0
0.56357068 1.5806843 0.21656077 0
0.55639547 1.5785953 0.30196521 0
0.85065502 1.6642663 0.49390411 0
0.836438 1.6601272 0.607063 0
0.94450909 1.7121822 -0.050056577 0
0.85441607 1.6847172 0.38256699 0
0.84301227 1.6812408 0.49307999 0
0.83946091 1.6801581 0.61063093 0
0.92867643 1.7278866 -0.049683802 0
0.84891349 1.7024688 0.38257468 0
0.83620113 1.6984178 0.49261746 0
0.84697419 1.7018508 0.61627394 0
0.9230389 1.7467079 -0.049700473 0
0.85460538 1.7239474 0.38565218 0
0.83806258 1.7184454 0.49526936 0
0.84078389 1.7193505 0.61608022 0
0.91599232 1.7650566 -0.049672909 0
0.8422479 1.7394941 0.38394228 0
0.84042555 1.7388624 0.49819809 0
0.84021002 1.7387877 0.61844313 0
0.91323501 1.7849356 -0.049816765 0
0.84308773 1.7596262 0.38585708 0
0.83225805 1.7557187 0.49750635 0
0.84569758 1.7605678 0.62359226 0
0.92142171 1.8090312 -0.05038812 0
0.84284073 1.7795556 0.38755375 0
0.83017582 1.7748049 0.49904886 0
0.83422273 1.7763228 0.62138593 0
0.89425427 1.8197913 -0.049619317 0
0.85321397 1.8038048 0.39223513 0
0.83344561 1.7961043 0.50259548 0
0.84000033 1.7986577 0.62692267 0
0.89318782 1.8405174 -0.049856845 0
0.84510714 1.8210876 0.39193892 0
0.83744591 1.8179917 0.5065183 0
0.84085494 1.8193693 0.63041443 0
0.89572948 1.8629397 -0.05024536 0
0.84181648 1.8403593 0.39303342 0
0.82341272 1.8326513 0.50405645 0
0.83485037 1.8374417 0.63096249 0
0.87951618 1.87753 -0.049917124 0
0.83731431 1.8592266 0.39386427 0
0.81907672 1.8513167 0.50516444 0
0.81433016 1.8492581 0.62506509 0
0.88460428 1.9014289 -0.050427746 0
0.82922477 1.8765771 0.39376292 0
0.82292503 1.8737501 0.50934863 0
0.81959528 1.8722559 0.6309033 0
0.8762551 1.9194939 -0.050424322 0
0.8258844 1.8961235 0.39505795 0
0.81920224 1.8930233 0.51088387 0
0.81357461 1.8904122 0.63175637 0
0.85194415 1.9299084 -0.049797911 0
0.82708055 1.9179896 0.39771375 0
0.81634575 1.9128438 0.51283729 0
0.80775493 1.9087257 0.63281161 0
0.84973067 1.9507701 -0.050053041 0
0.81933981 1.9357285 0.39792028 0
0.80697113 1.9296068 0.51247573 0
0.80392176 1.9280975 0.63489735 0
0.83963507 1.9678121 -0.050004337 0
0.81529278 1.95538 0.39925006 0
0.80539995 1.9503276 0.51510549 0
0.79747289 1.9462792 0.63589346 0
0.8263188 1.9831222 -0.049833983 0
0.80747062 1.9731951 0.39957124 0
0.80185348 1.9702365 0.51710784 0
0.79215199 1.9651269 0.63753086 0
0.81837314 2.001215 -0.049888439 0
0.80053288 1.9915298 0.40021631 0
0.80273253 1.9927239 0.52089387 0
0.78640705 1.9838611 0.63909113 0
0.81170708 2.020071 -0.050004911 0
0.79425162 2.0103083 0.40112507 0
0.78211695 2.0035212 0.51662046 0
0.79061514 2.0082743 0.64549571 0
0.79668289 2.0342116 -0.049787626 0
0.78230256 2.0259292 0.40044108 0
0.78879017 2.0296657 0.52284503 0
0.78908104 2.0298333 0.64934963 0
0.79165024 2.0541012 -0.049990766 0
0.77677613 2.0452831 0.40171504 0
0.77692384 2.0453706 0.52207261 0
0.77511662 2.0442994 0.64737952 0
0.78072327 2.0705667 -0.049959406 0
0.76190025 2.0590847 0.40027726 0
0.76739913 2.062439 0.52228361 0
0.77947205 2.0698032 0.65436709 0
0.76163894 2.0818918 -0.049592707 0
0.75668353 2.0787826 0.40178949 0
0.76595896 2.0846021 0.52575552 0
0.76891667 2.0864577 0.6542784 0
0.75563711 2.1013522 -0.049784858 0
0.76040691 2.104429 0.40610334 0
0.76154774 2.105165 0.5281896 0
0.75749248 2.1025491 0.65386379 0
0.74510843 2.1179774 -0.049795162 0
0.75461239 2.124279 0.40763819 0
0.74263316 2.1163361 0.52495742 0
0.74873966 2.1203849 0.65487307 0
0.73947102 2.1379476 -0.050025865 0
0.7465418 2.1427653 0.40856043 0
0.73432761 2.1344433 0.52602476 0
0.73216397 2.1329691 0.65208381 0
0.72698468 2.1533267 -0.049971063 0
0.73066157 2.1559002 0.40713093 0
0.73299938 2.1575365 0.53002721 0
0.72745365 2.1536551 0.65534616 0
0.71106952 2.1661971 -0.049773477 0
0.7263419 2.177176 0.40937266 0
0.71822208 2.1713388 0.52867413 0
0.72618717 2.1770647 0.66052639 0
0.70432919 2.1856704 -0.049988326 0
0.709719 2.1896489 0.40781841 0
0.71327144 2.192271 0.53144336 0
0.7047345 2.1859696 0.65551788 0
0.68495256 2.1957622 -0.049650144 0
0.70345813 2.2097855 0.40961629 0
0.70119244 2.2080684 0.53137302 0
0.70551008 2.2113404 0.66206664 0
0.67947143 2.2163637 -0.049942829 0
0.69640762 2.2295365 0.41125822 0
0.6861977 2.2215953 0.53015661 0
0.69268638 2.2266424 0.66171336 0
0.67923802 2.2414222 -0.050489984 0
0.68315178 2.2445462 0.41097182 0
0.68390328 2.245146 0.53440636 0
0.68071467 2.2426007 0.66190934 0
0.65644771 2.2485085 -0.050016351 0
0.67029208 2.2598474 0.41087511 0
0.67567712 2.2642581 0.53627616 0
0.68021053 2.267971 0.66835171 0
0.64544851 2.2650707 -0.050091665 0
0.66153139 2.278585 0.41220725 0
0.66069537 2.2778826 0.53533417 0
0.65633446 2.2742181 0.66239488 0
0.63196534 2.279566 -0.050060496 0
0.71948558 2.3550088 0.066185713 0
0.72504264 2.3597991 0.18796168 0
0.71158713 2.3482003 0.30815363 0
0.65562385 2.2999597 0.41459402 0
0.64224023 2.2884231 0.53293121 0
0.65987378 2.3036232 0.67140186 0
0.61756283 2.2932231 -0.049993813 0
0.6833567 2.3513978 0.065129258 0
0.67732853 2.3460677 0.18312824 0
0.6795463 2.3480287 0.30378017 0
0.64130729 2.314218 0.41423491 0
0.63101643 2.3051188 0.5337714 0
0.63855487 2.3117843 0.66697472 0
0.60314804 2.3068099 -0.049934022 0
0.65790433 2.3564675 0.06457305 0
0.65771586 2.3562968 0.18229136 0
0.65919882 2.3576415 0.30220291 0
0.62746686 2.3288643 0.41409713 0
0.63231128 2.3332577 0.54033762 0
0.62363511 2.3253894 0.6661306 0
0.59573203 2.326853 -0.050223056 0
0.63307136 2.3615823 0.064043596 0
0.64261311 2.3704572 0.18212533 0
0.64700347 2.3745406 0.30264458 0
0.61499995 2.3447742 0.41450018 0
0.61038929 2.3404858 0.5365926 0
0.61241239 2.3423674 0.66746324 0
0.57537943 2.3348424 -0.049889691 0
0.62160593 2.3789361 0.064170428 0
0.62726885 2.3843379 0.18194777 0
0.61907417 2.3765213 0.29922283 0
0.59577638 2.3542984 0.41259602 0
0.5963313 2.3548276 0.53645957 0
0.59514409 2.3536952 0.66547447 0
0.56360918 2.3509028 -0.049985811 0
0.61284369 2.3990641 0.064444683 0
0.6101293 2.3964088 0.1815242 0
0.61683244 2.4029658 0.30224559 0
0.58096272 2.367878 0.41228476 0
0.58834308 2.3750975 0.53923327 0
0.58271688 2.3695939 0.66634709 0
0.54508728 2.3602903 -0.049751893 0
0.60727435 2.4226735 0.064896621 0
0.60432965 2.4197195 0.18284446 0
0.60556751 2.4209614 0.30308628 0
0.57415754 2.3894522 0.41492501 0
0.57797915 2.393286 0.54104233 0
0.57621592 2.3915172 0.67082304 0
0.5413335 2.3846383 -0.05027736 0
0.60080415 2.4458182 0.065323442 0
0.59467298 2.4395108 0.18363222 0
0.59711045 2.4420183 0.3047227 0
0.56334358 2.4072809 0.41623116 0
0.56491143 2.4088938 0.54169297 0
0.56194395 2.4058414 0.67090416 0
0.52748853 2.3988836 -0.050301973 0
0.61075324 2.4867277 0.066623092 0
0.61573428 2.4919825 0.18926793 0
0.61767918 2.4940345 0.31405944 0
0.54369086 2.415977 0.41435951 0
0.54883963 2.4214089 0.54099399 0
0.54578906 2.4181905 0.66996092 0
0.50128812 2.3997908 -0.049686406 0
0.52986163 2.4307063 0.41469204 0
0.53442127 2.4356396 0.54117262 0
0.53123313 2.4321902 0.6700744 0
0.49944457 2.4270823 -0.05036173 0
0.5265128 2.4571192 0.4190937 0
0.51712507 2.4467018 0.540012 0
0.51640087 2.4458983 0.67012686 0
0.47854552 2.4334118 -0.050034553 0
0.50510818 2.4636445 0.41670716 0
0.50065345 2.4585743 0.53931999 0
0.50268346 2.4608848 0.67098695 0
0.45875379 2.4406841 -0.049767643 0
0.4785088 2.463748 0.41227993 0
0.48969755 2.4768107 0.54151446 0
0.48850891 2.4754231 0.67168802 0
0.45190951 2.4631748 -0.050222971 0
0.46885046 2.483465 0.41452986 0
0.47258553 2.4879384 0.54066503 0
0.4773353 2.4936271 0.67445588 0
0.43078211 2.4686277 -0.049893416 0
0.45585474 2.4994376 0.41556546 0
0.4590306 2.50334 0.54175049 0
0.45502004 2.4984119 0.6701076 0
0.42311165 2.49068 -0.050335672 0
0.44445655 2.5175943 0.41735548 0
0.437363 2.5086498 0.53861278 0
0.44434139 2.5174489 0.67348331 0
0.39425215 2.4858274 -0.049564123 0
0.42485461 2.5254288 0.41584653 0
0.42050561 2.5198011 0.53807688 0
0.42270747 2.5226502 0.66965741 0
0.38956031 2.5121772 -0.050210521 0
0.40381721 2.5311146 0.41374478 0
0.40723571 2.5356553 0.53959334 0
0.40597454 2.5339801 0.66918558 0
0.36847296 2.5169446 -0.049898129 0
0.38981989 2.5460556 0.41467464 0
0.39735797 2.5563352 0.54315591 0
0.39693943 2.5557644 0.67419434 0
0.34852967 2.5229404 -0.049654122 0
0.37614682 2.5616138 0.41584527 0
0.37581626 2.561151 0.54025221 0
0.37649348 2.5620992 0.67135626 0
0.33838138 2.5427284 -0.050022922 0
0.35987744 2.5736458 0.41596371 0
0.35834518 2.5714421 0.53970289 0
0.35980812 2.5735462 0.67125118 0
0.32353649 2.556046 -0.050115202 0
0.34025189 2.5807455 0.41462499 0
0.34067598 2.581372 0.5391019 0
0.34137335 2.5824025 0.6699574 0
0.30678251 2.5665886 -0.050096132 0
0.31910107 2.5852942 0.41259393 0
0.3224096 2.5903182 0.538203 0
0.32915625 2.600563 0.67340237 0
0.28968927 2.5765827 -0.050062925 0
0.30805454 2.6052496 0.41532835 0
0.30726877 2.604023 0.53928274 0
0.30589744 2.6018827 0.66861475 0
0.26854494 2.5800362 -0.049763948 0
0.29122743 2.6164432 0.41544962 0
0.28405628 2.604933 0.53541374 0
0.29114965 2.6163185 0.67040628 0
0.25625965 2.5977151 -0.050072167 0
0.27046731 2.6211724 0.41370523 0
0.27123609 2.6224418 0.53814453 0
0.26933488 2.6193027 0.6667313 0
0.24254937 2.6134079 -0.050302256 0
0.25274137 2.6307235 0.41347888 0
0.2551817 2.6348696 0.53895622 0
0.25194582 2.6293719 0.66661966 0
0.22537853 2.6233814 -0.050302625 0
0.2337115 2.6379554 0.41263849 0
0.24094929 2.650614 0.54111099 0
0.23458685 2.6394863 0.66663533 0
0.20085151 2.6201119 -0.049771074 0
0.2182668 2.6514807 0.41371053 0
0.2185988 2.6520786 0.53788531 0
0.21514298 2.645854 0.66498035 0
0.19067784 2.6426971 -0.050304204 0
0.20102085 2.6618929 0.4139297 0
0.19564135 2.6519091 0.53417051 0
0.19590856 2.652405 0.66353834 0
0.17036422 2.6467011 -0.050090488 0
0.18257459 2.6700621 0.41356447 0
0.18401493 2.6728179 0.53850174 0
0.17737181 2.6601081 0.66275764 0
0.1517057 2.6536446 -0.050006047 0
0.16400619 2.6779177 0.4131785 0
0.16136016 2.6726961 0.53501648 0
0.1599576 2.6699286 0.66307324 0
0.13225473 2.6588461 -0.049862228 0
0.1378106 2.670161 0.40842408 0
0.14212902 2.6789556 0.53402376 0
0.14275743 2.6802354 0.6637128 0
0.11750671 2.6737094 -0.050110921 0
0.12405302 2.6874769 0.41087466 0
0.12480529 2.6890588 0.53454256 0
0.12488838 2.6892335 0.66384822 0
0.10351052 2.6906338 -0.050446492 0
0.09906622 2.6809754 0.40667087 0
0.098405443 2.6795394 0.52795208 0
0.10807773 2.7005591 0.66514647 0
0.079579376 2.6858213 -0.049937703 0
0.087706171 2.7040846 0.41084749 0
0.086484812 2.7013397 0.53292483 0
0.084704243 2.6973383 0.65994149 0
0.058725081 2.687264 -0.049686488 0
0.065446518 2.7028959 0.40829349 0
0.068093143 2.7090511 0.53282297 0
0.066869222 2.7062047 0.6603452 0
0.044052683 2.7031438 -0.05000484 0
0.045698307 2.7071078 0.40732226 0
0.047451518 2.7113309 0.53084868 0
0.046312355 2.7085869 0.65794098 0
0.02200391 2.701216 -0.049643874 0
0.025037369 2.708791 0.40572953 0
0.026426991 2.7122612 0.52849406 0
0.026654741 2.7128298 0.65649444 0
0.0074659796 2.7180521 -0.05001336 0
0.004853508 2.7112825 0.40443686 0
0.0066427202 2.7159188 0.52721816 0
0.0094192838 2.7231138 0.65784597 0
-0.015100935 2.7140341 -0.049593877 0
-0.01303617 2.7195919 0.40480298 0
-0.015052536 2.7141645 0.52411598 0
-0.011054852 2.724925 0.65554512 0
-0.029535631 2.7319093 -0.050017063 0
-0.030339697 2.7296586 0.40570483 0
-0.031954326 2.7251391 0.52562153 0
-0.034507133 2.7179933 0.64952421 0
-0.048300959 2.7380924 -0.050003987 0
-0.053799011 2.7220683 0.40189898 0
-0.054929353 2.7187741 0.52109659 0
-0.053161301 2.723927 0.64929032 0
-0.065920778 2.7477365 -0.050129954 0
-0.071239986 2.7315738 0.40278015 0
-0.073526837 2.7246251 0.52097064 0
-0.075418748 2.7188764 0.64437217 0
-0.084627219 2.7542393 -0.050146155 0
-0.092294104 2.7299156 0.4007304 0
-0.093631126 2.7256739 0.51925194 0
-0.093944795 2.7246788 0.64430696 0
-0.1049305 2.7554948 -0.049975436 0
-0.10903648 2.7418725 0.40238717 0
-0.11365465 2.7265508 0.51756805 0
-0.11157856 2.7334387 0.64562196 0
-0.12420497 2.7599018 -0.049931921 0
-0.1091334 2.8122826 0.063877858 0
-0.10717506 2.8190887 0.18098712 0
-0.10636649 2.8218987 0.30018052 0
-0.13237514 2.7315066 0.3981677 0
-0.13069059 2.7373612 0.51941657 0
-0.13124354 2.7354395 0.64411598 0
-0.14412777 2.7618396 -0.049806155 0
-0.13440473 2.7973063 0.063119084 0
-0.13500114 2.7951307 0.17769948 0
-0.13306059 2.8022094 0.29545975 0
-0.14998405 2.7404776 0.39915618 0
-0.1506833 2.737927 0.51779884 0
-0.15208365 2.7328188 0.64073771 0
-0.16083534 2.7757733 -0.050132655 0
-0.15883563 2.7834451 0.062415704 0
-0.15710272 2.7900934 0.17656292 0
-0.15594213 2.7945461 0.2930586 0
-0.1683854 2.7468076 0.39950359 0
-0.17154421 2.7346888 0.51496518 0
-0.1724457 2.73123 0.63792437 0
-0.18235277 2.7712262 -0.049786225 0
-0.17739274 2.7912869 0.062523983 0
-0.1785896 2.7864463 0.17561464 0
-0.17888196 2.7852638 0.2904177 0
-0.18894552 2.7445617 0.39765716 0
-0.1905594 2.7380345 0.51448703 0
-0.1913247 2.7349391 0.63748896 0
-0.19986509 2.7827408 -0.050039675 0
-0.19870542 2.7876983 0.062221441 0
-0.19636832 2.7976887 0.17634246 0
-0.19830744 2.7893996 0.29032344 0
-0.20789744 2.7484043 0.39747933 0
-0.20914395 2.7430756 0.51467144 0
-0.21003069 2.739285 0.63742679 0
-0.21984203 2.7839317 -0.049923055 0
-0.21673621 2.7980051 0.062437586 0
-0.21628211 2.8000629 0.1761169 0
-0.2161202 2.8007967 0.29161575 0
-0.22723536 2.7504303 0.39688984 0
-0.23092522 2.7337105 0.51002693 0
-0.23213114 2.7282462 0.63094175 0
-0.23609377 2.8026845 -0.050456259 0
-0.23266761 2.8191948 0.063058257 0
-0.23310284 2.8170974 0.1775286 0
-0.23708637 2.7979014 0.29031354 0
-0.24826403 2.7440379 0.39417177 0
-0.24988191 2.7362413 0.50953001 0
-0.24971296 2.7370555 0.6329844 0
-0.25923645 2.7879803 -0.049778793 0
-0.25100848 2.8303013 0.063317999 0
-0.25197208 2.825345 0.17799808 0
-0.2527782 2.8211987 0.29387534 0
-0.2689406 2.7380664 0.39163879 0
-0.26846996 2.7404873 0.50969648 0
-0.26910678 2.7372117 0.63146573 0
-0.27785724 2.7955465 -0.04992152 0
-0.26802015 2.8497808 0.063889347 0
-0.26719064 2.8543541 0.18076009 0
-0.26609755 2.8603806 0.30037674 0
-0.28763252 2.7416532 0.3916575 0
-0.29053268 2.7256639 0.50349408 0
-0.28938794 2.7319751 0.62778419 0
-0.29737914 2.7983871 -0.049901344 0
-0.30591252 2.7477152 0.39237756 0
-0.3072679 2.7396667 0.50712401 0
-0.30997902 2.723568 0.62288654 0
-0.31581739 2.8081248 -0.050139301 0
-0.32703677 2.7359664 0.38855705 0
-0.32722676 2.7347445 0.50444597 0
-0.32898787 2.7234178 0.62156701 0
-0.33512586 2.8129714 -0.050208822 0
-0.34497073 2.7439384 0.38989428 0
-0.34643501 2.7336709 0.50315064 0
-0.34778529 2.7242029 0.62074119 0
-0.35567585 2.8086576 -0.04995722 0
-0.36600813 2.7290475 0.38540548 0
-0.36680639 2.7228968 0.49868429 0
-0.366638 2.7241943 0.6196844 0
-0.37465417 2.8162763 -0.050144196 0
-0.38503662 2.7275395 0.3844291 0
-0.38519642 2.7261739 0.49901706 0
-0.38506073 2.7273335 0.62004024 0
-0.39483225 2.8136897 -0.049973197 0
-0.40325344 2.7329161 0.38528147 0
-0.40453294 2.7206435 0.49648091 0
-0.40424046 2.723449 0.61756843 0
-0.41391626 2.8217654 -0.050193761 0
-0.42184547 2.7351494 0.38538641 0
-0.42428747 2.7084737 0.49181095 0
-0.423379 2.7183976 0.6147148 0
-0.43279585 2.8344519 -0.050587844 0
-0.4414351 2.7249022 0.38235709 0
-0.44260064 2.7101226 0.49184027 0
-0.44244489 2.7120974 0.61144555 0
-0.45396519 2.8168075 -0.049904875 0
-0.46115169 2.7082555 0.37775716 0
-0.46152931 2.7025518 0.48887253 0
-0.46217737 2.6927626 0.60287005 0
-0.4738791 2.8136525 -0.049749937 0
-0.47968578 2.7052512 0.37670934 0
-0.47988817 2.701473 0.48814914 0
-0.47976282 2.7038131 0.60700202 0
-0.49368361 2.8105752 -0.049606822 0
-0.49803117 2.7043986 0.37627113 0
-0.49879962 2.685632 0.4825877 0
-0.49835294 2.6965408 0.60363102 0
-0.51310641 2.8175125 -0.04983034 0
-0.5161497 2.7101264 0.37757155 0
-0.51671731 2.6900976 0.48386613 0
-0.51655269 2.6959083 0.60310841 0
-0.53262663 2.8284757 -0.050206296 0
-0.53468543 2.6976924 0.37429577 0
-0.53502595 2.6760602 0.4790628 0
-0.53491527 2.6830907 0.59763509 0
-0.55244493 2.8299882 -0.050253615 0
-0.55292118 2.6787605 0.36942181 0
-0.55291307 2.6813421 0.48076379 0
-0.5529539 2.6683657 0.59146804 0
-0.57213509 2.8140643 -0.049687307 0
-0.57080191 2.6728764 0.36793488 0
-0.57083851 2.6767521 0.47925547 0
-0.57080632 2.6733458 0.59355319 0
-0.5919767 2.8229983 -0.050017383 0
-0.58834207 2.6580703 0.36422825 0
-0.58853495 2.6668212 0.47604454 0
-0.58856606 2.6682334 0.5915525 0
-0.61219442 2.8359759 -0.050500967 0
-0.60613161 2.660949 0.36509097 0
-0.6061523 2.6615472 0.47445658 0
-0.60599422 2.6569831 0.58710063 0
-0.63110071 2.8139064 -0.04974132 0
-0.62328726 2.6485498 0.36210915 0
-0.62336534 2.6502028 0.47091976 0
-0.62308097 2.6441844 0.58209521 0
-0.65060627 2.8107572 -0.049666289 0
-0.63998407 2.6333654 0.35846847 0
-0.64015108 2.6361544 0.46655118 0
-0.64024568 2.6377335 0.57980824 0
-0.63999259 2.6335073 0.69729811 0
-0.67142421 2.82639 -0.05027229 0
-0.65831882 2.6456933 0.36191589 0
-0.65648919 2.6204667 0.46170235 0
-0.65581322 2.6111457 0.56924957 0
-0.6566956 2.6233125 0.69276029 0
-0.69077599 2.8197427 -0.050090019 0
-0.67320228 2.6134706 0.45981908 0
-0.67353582 2.6173859 0.57240206 0
-0.67381686 2.6206844 0.69212294 0
-0.70964497 2.8094511 -0.049785525 0
-0.69035047 2.6123552 0.45996964 0
-0.68933082 2.601939 0.56662923 0
-0.68939239 2.6025677 0.68380642 0
-0.72879827 2.8036537 -0.049650569 0
-0.70562238 2.5941496 0.56412089 0
-0.70650113 2.6020935 0.68445802 0
-0.74879891 2.8054762 -0.049798172 0
-0.72291988 2.5957367 0.56560582 0
-0.72164041 2.585367 0.67702585 0
-0.76773071 2.7986553 -0.049643677 0
-0.73759788 2.5774007 0.6741007 0
-0.78799176 2.8014717 -0.049845345 0
-0.75457048 2.5772257 0.67521298 0
-0.80844223 2.8045485 -0.050066061 0
-0.8276087 2.7993617 -0.049997084 0
-0.84657836 2.7933736 -0.049907591 0
-0.86508054 2.7853637 -0.049752947 0
-0.88575834 2.788022 -0.049995873 0
-0.90520412 2.7844729 -0.050021753 0
-0.92529941 2.7835321 -0.050152466 0
-0.94231939 2.7700939 -0.049832564 0
-0.96370417 2.7738407 -0.050154578 0
-0.98106265 2.762404 -0.049924638 0
-1.0016962 2.7626486 -0.050136723 0
-1.0199878 2.7547784 -0.050056163 0
-1.0393509 2.7504094 -0.050115209 0
-1.0585847 2.7455153 -0.050163906 0
-1.0747527 2.7317524 -0.049886469 0
-1.0973147 2.7361002 -0.050303645 0
-1.1126016 2.7203975 -0.049968187 0
-1.1315647 2.7146833 -0.050021607 0
-1.1486619 2.7042847 -0.049903881 0
-1.1675349 2.6982946 -0.049964715 0
-1.1874843 2.6946499 -0.050126508 0
-1.1990638 2.6722255 -0.049563129 0
-1.2186431 2.6678329 -0.049712855 0
-1.2410717 2.6690865 -0.05009713 0
-1.2554282 2.6535447 -0.049824975 0
-1.2745956 2.6477628 -0.049950175 0
-1.2900717 2.6348307 -0.049796939 0
-1.3139244 2.6374321 -0.050282642 0
-1.3298751 2.6253045 -0.050180502 0
-1.3394946 2.602401 -0.04964111 0
-1.3581583 2.5953805 -0.04976311 0
-1.3818978 2.596452 -0.050234906 0
-1.3944169 2.5791354 -0.04994652 0
-1.4106216 2.5678601 -0.04991965 0
-1.4315169 2.5636396 -0.050204102 0
-1.443298 2.5457721 -0.049911536 0
-1.4574794 2.5316637 -0.049786992 0
-1.4700218 2.515435 -0.049575716 0
-1.4981953 2.5204883 -0.050316002 0
-1.5059539 2.4979103 -0.049838621 0
-1.5255367 2.4909773 -0.050070267 0
-1.5410508 2.4787142 -0.0500714 0
-1.5565549 2.4664326 -0.050080691 0
-1.5675111 2.4487584 -0.049847011 0
-1.5783311 2.4311738 -0.0496215 0
-1.5983979 2.4242153 -0.049907733 0
-1.6148132 2.4129519 -0.050001346 0
-1.6269416 2.3970072 -0.049877189 0
-1.6417247 2.38395 -0.04990194 0
-1.6581471 2.3725288 -0.050018229 0
-1.6656493 2.3521514 -0.049692083 0
-1.683125 2.3417237 -0.049877755 0
-1.7064043 2.3365779 -0.050352354 0
-1.7061572 2.3093662 -0.049684238 0
-1.7254859 2.3003125 -0.049978271 0
-1.7379034 2.2849457 -0.049946982 0
-1.7522012 2.2712042 -0.050013304 0
-1.7600734 2.2520669 -0.049788933 0
-1.7767385 2.2402389 -0.049981654 0
-1.23182 1.799633 0.5203464 0
-1.7843862 2.2211285 -0.049769405 0
-1.2347735 1.7880572 0.51743257 0
-1.8005114 2.2087114 -0.049951658 0
-1.2293432 1.7701987 0.50838804 0
-1.8108989 2.1918385 -0.04988341 0
-1.2377522 1.7631682 0.50984448 0
-1.8169196 2.1718404 -0.049632333 0
-1.2298688 1.7441907 0.49939898 0
-1.8308873 2.1576929 -0.049742412 0
-1.2361248 1.735785 0.49950171 0
-1.8462476 2.1444089 -0.049919721 0
-1.2411492 1.7265214 0.49879247 0
-1.8637226 2.1323919 -0.050193738 0
-1.2351885 1.7099081 0.49032336 0
-1.8675156 2.1111915 -0.04988832 0
-1.2443446 1.7036097 0.49278468 0
-1.8798919 2.0957038 -0.049959879 0
-1.2406011 1.6889786 0.48621535 0
-1.8875847 2.0772552 -0.049842484 0
-1.2402741 1.6767873 0.48220846 0
-1.9014951 2.0626392 -0.049994718 0
-1.2317301 1.659851 0.47265208 0
-1.9079082 2.0435138 -0.049843453 0
-1.240702 1.6536186 0.47534424 0
-1.9224131 2.0291004 -0.050035376 0
-1.2427266 1.6433096 0.47333321 0
-1.9372495 2.0147114 -0.050246902 0
-1.247337 1.6345212 0.47317544 0
-1.9504657 1.9992833 -0.050398778 0
-1.9562422 1.9798722 -0.050258294 0
-1.964425 1.9617784 -0.050224654 0
-1.968655 1.9417819 -0.050043322 0
-1.9811277 1.9258111 -0.050198399 0
-1.9940065 1.9099017 -0.05037643 0
-1.9880168 1.8855268 -0.049825042 0
-2.0003049 1.869362 -0.049997889 0
-1.9998487 1.8478185 -0.049685732 0
-1.9929624 1.823957 -0.049138602 0
-2.0005798 1.8060501 -0.049159959 0
-2.00243 1.7860018 -0.04897042 0
-2.0004115 1.7647238 -0.048644811 0
-1.9848955 1.7391012 -0.047821805 0
-1.9977025 1.7233084 -0.048077729 0
-1.994997 1.7024875 -0.047759995 0
-2.0075858 1.6864547 -0.048022985 0
-2.002696 1.6652563 -0.047643818 0
-2.0004468 1.6450467 -0.047373489 0
-2.0038686 1.6264901 -0.047322482 0
-1.9913267 1.6040739 -0.046693608 0
-1.9987072 1.586704 -0.046806835 0
-2.0087714 1.5698328 -0.047025803 0
-2.0047214 1.5499183 -0.04673766 0
-1.9917057 1.5284939 -0.046133459 0
-2.0023611 1.511716 -0.046398789 0
-1.9959689 1.4919298 -0.046054367 0
-2.001682 1.4742293 -0.04615676 0
-2.0046763 1.4560741 -0.046169005 0
-2.0097804 1.4381744 -0.046265393 0
-1.9957613 1.4180267 -0.045682624 0
-1.991623 1.3992879 -0.045464259 0
-1.9963568 1.3814851 -0.045572571 0
-1.9919958 1.3629142 -0.045363192 0
-2.003031 1.345459 -0.045713101 0
-2.0060544 1.32735 -0.04578425 0
-1.9944367 1.3086345 -0.045340445 0
-2.0057917 1.290808 -0.045725599 0
-2.0017533 1.2725129 -0.045569114 0
-2.0123265 1.2543254 -0.045942497 0
-1.1402557 0.26436791 -0.05015092 0
-0.39753747 0.26436988 0.42132235 0
-0.39394087 0.26436988 0.49614424 0
-1.1377038 0.24459504 -0.050064258 0
-0.40586698 0.25381243 0.42552322 0
-1.1220779 0.22520952 -0.049519561 0
-0.40626204 0.2432417 0.35340542 0
-0.40835941 0.24318886 0.4268705 0
-1.1253563 0.20549087 -0.049658705 0
-0.51493967 0.22856173 0.10789794 0
-0.5053308 0.2289249 0.17526498 0
-1.2431014 0.20104067 0.43381563 0
-1.2385817 0.2012115 0.56237018 0
-1.2370949 0.20126769 0.69778341 0
-1.1442255 0.18488489 -0.050364129 0
-0.50417084 0.21715099 0.10679575 0
-0.50750691 0.21698281 0.17575195 0
-1.2431482 0.17989805 0.43406525 0
-1.2346709 0.1803254 0.56137651 0
-1.2384905 0.18013285 0.69874626 0
-1.1306792 0.16582079 -0.049919829 0
-0.5002135 0.20556769 0.10644162 0
-0.51487583 0.20464332 0.17720486 0
-1.2392858 0.15897384 0.4333837 0
-1.2364099 0.15915515 0.56235301 0
-1.1339487 0.14579497 -0.050085749 0
-0.4967317 0.19402973 0.10615414 0
-0.51558179 0.19260286 0.17748216 0
-1.2382312 0.1379012 0.43348733 0
-1.2467345 0.13725753 0.56628394 0
-1.1352788 0.12581988 -0.050191384 0
-0.50701672 0.18134093 0.10736728 0
-0.51542741 0.18059766 0.17763141 0
-1.2457548 0.11605685 0.43585613 0
-1.2406548 0.11650755 0.56483245 0
-1.1245364 0.10698702 -0.049872968 0
-0.52458131 0.16762875 0.10938554 0
-0.5119676 0.16890371 0.17720909 0
-1.2389024 0.095427237 0.43461195 0
-1.2343132 0.095891096 0.56337881 0
-1.1319678 0.086308591 -0.050215635 0
-0.504444 0.15772972 0.039667588 0
-0.51289225 0.15676817 0.10826117 0
-0.50443089 0.15773121 0.17607285 0
-1.2423551 0.07374496 0.43607879 0
-1.2327844 0.074834235 0.56362146 0
-1.1264971 0.067016654 -0.05010391 0
-0.51027697 0.14502262 0.039928488 0
-0.50354385 0.14587493 0.10740338 0
-0.51534653 0.14438085 0.17831479 0
-1.2431742 0.052246753 0.43694082 0
-1.2420142 0.052393589 0.56756121 0
-1.1292757 0.046651114 -0.050298095 0
-0.5115447 0.13276419 0.040031049 0
-0.50835109 0.13320939 0.10809494 0
-0.51181382 0.13272668 0.17796029 0
-1.2385994 0.031411145 0.43648461 0
-1.2426347 0.030848626 0.5687108 0
-1.1237038 0.027415324 -0.050200351 0
-0.50715238 0.12129251 0.039934974 0
-0.51265371 0.12045487 0.10875032 0
-0.51321971 0.1203687 0.17853282 0
-1.2396592 0.0097597437 0.43754929 0
-1.2494093 0.0082751708 0.57202488 0
-1.1015337 0.010987778 -0.049510546 0
-0.51238346 0.10829807 0.040192146 0
-0.51451695 0.10794569 0.10915881 0
-0.51832014 0.10731751 0.17981027 0
-1.2321308 -0.010583024 0.4364658 0
-1.2484612 -0.013280342 0.57283747 0
-1.1143185 -0.011175404 -0.050094273 0
-0.50366884 0.097601645 0.039950106 0
-0.52027017 0.09464439 0.11001004 0
-0.51487309 0.095605798 0.17955488 0
-1.2442155 -0.034314405 0.44052893 0
-1.2480416 -0.034995954 0.5739221 0
-1.1164494 -0.031724375 -0.050302286 0
-0.51238245 0.083745606 0.040345848 0
-0.51529604 0.08318866 0.10970788 0
-0.51753277 0.082761116 0.18044719 0
-1.2416464 -0.055656355 0.44087303 0
-1.2312446 -0.053668004 0.56955457 0
-1.0953397 -0.047679733 -0.049673412 0
-0.50390255 0.073114298 0.040122457 0
-0.5089184 0.072089873 0.10926681 0
-0.51195824 0.071469016 0.17985587 0
-1.2464062 -0.078533269 0.4431963 0
-1.2462268 -0.078496613 0.57604647 0
-1.1037252 -0.069596238 -0.050127752 0
-0.51439005 0.058518965 0.040596314 0
-0.51251036 0.058927584 0.10993633 0
-0.51400334 0.058603037 0.1806954 0
-1.2477566 -0.10090715 0.44471091 0
-1.2423865 -0.099739768 0.57625413 0
-1.0925643 -0.087337233 -0.049877368 0
-0.51509327 0.045835037 0.040719792 0
-0.51132095 0.046704981 0.1100987 0
-0.5118866 0.046574537 0.18079706 0
-1.2300969 -0.11905403 0.4413262 0
-1.2425786 -0.12193248 0.57793039 0
-1.0898815 -0.10696758 -0.049945958 0
-0.50854021 0.034829382 0.040582858 0
-0.51747799 0.032649327 0.11109125 0
-0.50531203 0.035616759 0.18009955 0
-1.242969 -0.14430769 0.44600901 0
-1.2422014 -0.14412044 0.57951236 0
-1.0873358 -0.12668638 -0.050028928 0
-0.57195807 0.0059182239 0.043029994 0
-0.54771173 0.012156715 0.1147784 0
-0.55428618 0.010465105 0.18976988 0
-1.2297758 -0.16333561 0.44392398 0
-1.2477049 -0.16794868 0.58321548 0
-1.0706285 -0.14263456 -0.04959755 0
-0.6137619 -0.018930893 0.044699494 0
-0.62876415 -0.02299298 0.12416494 0
-1.246591 -0.19027908 0.31973401 0
-1.2366958 -0.18759982 0.44721133 0
-1.2402118 -0.18855186 0.58255494 0
-1.0814859 -0.16610704 -0.050195165 0
-0.69198179 -0.055360537 0.047738213 0
-0.69125032 -0.055152547 0.13156012 0
-1.2501533 -0.21406378 0.32150024 0
-1.2422531 -0.21181749 0.45022994 0
-1.2411972 -0.21151732 0.58491415 0
-1.0687088 -0.18297993 -0.049925577 0
-0.77928054 -0.096734323 0.051143613 0
-0.76600289 -0.092777736 0.14040396 0
-1.2384982 -0.23357479 0.32046565 0
-1.2436254 -0.23510264 0.45222685 0
-1.2425227 -0.23477404 0.58750051 0
-1.0650305 -0.20249338 -0.050003111 0
-0.88317382 -0.14579992 0.055202417 0
-0.87119734 -0.14206629 0.15276268 0
-1.2486285 -0.25972971 0.32358879 0
-1.2436029 -0.25816301 0.45393702 0
-1.231985 -0.25454113 0.5860647 0
-1.0545447 -0.21985106 -0.049834583 0
-0.98206496 -0.19625033 0.059113242 0
-0.9844147 -0.19701542 0.16614895 0
-1.2384514 -0.27973446 0.32293543 0
-1.2270666 -0.27602735 0.45130104 0
-1.2421962 -0.28095385 0.59196973 0
-1.0646504 -0.2440794 -0.05044993 0
-1.1285949 -0.26579514 0.06486088 0
-1.1234176 -0.26403692 0.18259753 0
-1.231949 -0.30089453 0.32302704 0
-1.2338988 -0.30155668 0.45501074 0
-1.0494641 -0.2598255 -0.050121773 0
-1.3006151 -0.3486596 0.20356947 0
-1.2436224 -0.32850078 0.32664695 0
-1.2200783 -0.32017311 0.45323476 0
-1.0398405 -0.27737495 -0.050011229 0
-1.2551579 -0.35659871 0.19926368 0
-1.2311373 -0.34776053 0.32570776 0
-1.2313679 -0.34784541 0.45834038 0
-1.0328503 -0.29585114 -0.050009236 0
-1.2522936 -0.37974486 0.19984908 0
-1.2471069 -0.37776199 0.33030477 0
-1.2421371 -0.37586197 0.4634234 0
-1.0333407 -0.31729755 -0.050303467 0
-1.2415186 -0.39990357 0.19955644 0
-1.242548 -0.40031198 0.33101481 0
-1.2442883 -0.40100262 0.46626306 0
-1.0174628 -0.33223698 -0.049977731 0
-1.2569865 -0.43078968 0.20234138 0
-1.2514664 -0.42851838 0.3344121 0
-1.2358186 -0.42208007 0.46627438 0
-1.0076429 -0.34951219 -0.049892619 0
-1.259702 -0.45695332 0.20369683 0
-1.2340419 -0.44601557 0.33273262 0
-1.2462786 -0.45123157 0.47160923 0
-1.0003474 -0.36783907 -0.049914014 0
-1.2637327 -0.4840484 0.2052529 0
-1.2482107 -0.47719988 0.33731484 0
-1.2228994 -0.46603218 0.46763939 0
-0.99026263 -0.38491318 -0.049835101 0
-1.2345426 -0.49638829 0.20293376 0
-1.2495381 -0.50323135 0.33945543 0
-1.2420756 -0.49982587 0.47563311 0
-0.99306905 -0.40800914 -0.050273031 0
-1.2319773 -0.52068889 0.20378284 0
-1.2589444 -0.53340775 0.34328488 0
-1.24131 -0.52509058 0.47816887 0
-0.98258746 -0.4249793 -0.050197482 0
-1.499872 -0.67696381 0.082739823 0
-1.2423068 -0.55149627 0.20621508 0
-1.2427534 -0.55171376 0.3420788 0
-1.2453218 -0.55296493 0.48216602 0
-0.97445965 -0.44307676 -0.050224021 0
-1.4501705 -0.68226701 0.081233494 0
-1.2479193 -0.58057392 0.20814188 0
-1.2366806 -0.57492304 0.34295401 0
-1.2354996 -0.57432926 0.48233798 0
-0.95229447 -0.45391795 -0.049695313 0
-1.3979431 -0.68506795 0.079618394 0
-1.2420087 -0.60418755 0.20873043 0
-1.2305877 -0.59826368 0.34389004 0
-0.95432401 -0.47727832 -0.050148081 0
-1.3476784 -0.68763131 0.078073256 0
-1.2495295 -0.63514447 0.21099599 0
-1.2284992 -0.62389815 0.34571123 0
-0.94882512 -0.49685821 -0.050309069 0
-1.3059225 -0.69364393 0.076865524 0
-1.2373086 -0.65583283 0.21090254 0
-1.2402755 -0.65746784 0.35046643 0
-0.9355334 -0.5121491 -0.050161391 0
-1.2617601 -0.69731569 0.075553447 0
-1.2349931 -0.68212271 0.21206456 0
-1.232688 -0.68081427 0.35132748 0
-0.92180049 -0.52706516 -0.050002314 0
-1.2466403 -0.71689177 0.075434491 0
-1.2346389 -0.7098785 0.21352035 0
-1.2387034 -0.71225357 0.3550975 0
-0.91627276 -0.54678833 -0.050191648 0
-1.2469358 -0.74564499 0.075967073 0
-1.2368243 -0.739564 0.21534933 0
-1.2305558 -0.73579425 0.35599864 0
-0.89833319 -0.55899358 -0.049871787 0
-1.2416767 -0.77140802 0.076285765 0
-1.2450391 -0.77348834 0.21800166 0
-1.2356912 -0.76770502 0.35978633 0
-0.89466453 -0.58001447 -0.050159693 0
-1.2551457 -0.80935723 0.077413157 0
-1.2380693 -0.79849309 0.21879534 0
-1.2420163 -0.80100423 0.36394441 0
-0.88285732 -0.59595871 -0.050114039 0
-1.255367 -0.83959693 0.078005046 0
-1.2376209 -0.82799011 0.2204733 0
-1.2459905 -0.83346432 0.36772022 0
-0.8757726 -0.61504233 -0.050279748 0
-1.2348518 -0.85640579 0.077726252 0
-1.2391068 -0.85926586 0.22246391 0
-1.2315011 -0.85415345 0.36760432 0
-0.85770369 -0.62668598 -0.049980707 0
-1.2373816 -0.88889569 0.078454025 0
-1.2459844 -0.89483684 0.2252273 0
-1.2426839 -0.89255744 0.37317103 0
-0.84082878 -0.63892192 -0.04973764 0
-1.2359041 -0.91917735 0.07903076 0
-1.2422721 -0.92369455 0.22667889 0
-1.6060339 -1.1817369 0.4567644 0
-0.83887815 -0.66182142 -0.050158307 0
-1.2382939 -0.95278436 0.07980039 0
-1.2393029 -0.9535194 0.22829074 0
-1.5736858 -1.1971078 0.4536455 0
-0.82851326 -0.67880219 -0.050220624 0
-1.2456021 -0.99075311 0.08081536 0
-1.2355813 -0.98325831 0.22986704 0
-0.81877053 -0.69632 -0.050321128 0
-1.2430111 -1.0220294 0.081416033 0
-1.2404659 -1.0200753 0.23267521 0
-0.7951237 -0.70297617 -0.049800631 0
-1.153221 -0.98514146 0.078077093 0
-1.1572046 -0.98828036 0.22351409 0
-1.1568992 -0.98803979 0.37094933 0
-0.78215802 -0.71780074 -0.049769029 0
-1.1342975 -1.0025308 0.077936374 0
-1.1371005 -1.0047973 0.22293285 0
-1.1389341 -1.0062798 0.37046927 0
-0.77585614 -0.73812884 -0.050054833 0
-1.2476429 -1.1295283 0.08393994 0
-1.2312922 -1.1159636 0.23833442 0
-1.334245 -1.2013743 0.42001519 0
-0.77083123 -0.75981253 -0.050415516 0
-1.2387779 -1.1580793 0.084353387 0
-1.2470237 -1.1650971 0.24302584 0
-1.3127 -1.2209939 0.41931671 0
-1.0321423 -0.98221296 0.49670821 0
-0.75015879 -0.76817709 -0.050051481 0
-1.2863048 -1.2362558 0.41750816 0
-0.99213791 -0.97943538 0.48851469 0
-0.7367419 -0.78269845 -0.050036043 0
-1.1934505 -1.1916717 0.083923057 0
-1.1972144 -1.1950423 0.24110976 0
-1.1927191 -1.1910168 0.39945921 0
-0.97035348 -0.99189287 0.48645625 0
-0.71708143 -0.79147512 -0.049726594 0
-0.92673743 -0.98402911 0.47686529 0
-0.69837081 -0.80085081 -0.049465425 0
-0.88169122 -0.97352272 0.46662417 0
-0.68696201 -0.81702787 -0.049569327 0
-0.85247254 -0.97690493 0.46182546 0
-0.68029487 -0.83800966 -0.049922995 0
-0.83753896 -0.9937765 0.46211189 0
-0.67192364 -0.85762042 -0.05020785 0
-0.82026339 -1.008314 0.46162698 0
-0.65394163 -0.86751348 -0.050013632 0
-0.64394593 -0.88574308 -0.050240491 0
-0.62929547 -0.89911443 -0.050236054 0
-0.61883414 -0.91719359 -0.050465517 0
-0.59090483 -0.91538876 -0.049758967 0
-0.57766092 -0.93018216 -0.049852505 0
-0.56590945 -0.94689482 -0.050041627 0
-0.54955304 -0.95809346 -0.049983144 0
-0.53575099 -0.97249311 -0.050079755 0
-0.51659101 -0.97998577 -0.049873155 0
-0.5084995 -1.002136 -0.050331187 0
-0.48851484 -1.0084078 -0.050089844 0
-0.47390532 -1.0220177 -0.050182153 0
-0.45943493 -1.0359511 -0.05029567 0
-0.43941414 -1.0417205 -0.050065648 0
-0.41278934 -1.0370309 -0.049403012 0
-0.3713454 -0.9732272 0.49697903 0
-0.40073174 -1.0545288 -0.049696822 0
-0.34971106 -0.97377366 0.49324939 0
-0.38690746 -1.0695528 -0.049891092 0
-0.32939124 -0.97592634 0.49028242 0
-0.3659603 -1.0729212 -0.049606521 0
-0.31152385 -0.98175377 0.48886114 0
-0.35481459 -1.0927904 -0.050016008 0
-0.28811663 -0.97782356 0.48378399 0
-0.33817887 -1.1035106 -0.050053466 0
-0.27599525 -0.99314672 0.48620796 0
-0.32538027 -1.1213077 -0.050387193 0
-0.25606787 -0.99458665 0.48340878 0
-0.3031894 -1.1219164 -0.050030522 0
-0.23360832 -0.99080962 0.47875807 0
-0.28809798 -1.1357759 -0.050219465 0
-0.20541097 -0.97512156 0.46978679 0
-0.26679754 -1.1374947 -0.049930453 0
-0.18551119 -0.97455162 0.46662495 0
-0.25144267 -1.1510558 -0.050123423 0
-0.1669897 -0.97629029 0.46442816 0
-0.22866191 -1.1490713 -0.049710181 0
-0.14714195 -0.9748078 0.4611471 0
-0.21575023 -1.1681958 -0.050137758 0
-0.12803872 -0.97437483 0.45835951 0
-0.20005257 -1.1817119 -0.050350789 0
-0.11656411 -0.990861 0.46181872 0
-0.17828442 -1.1812552 -0.050028823 0
-0.10509296 -1.0080349 0.46556035 0
-0.15795852 -1.1837423 -0.049832601 0
-0.074244216 -0.97844571 0.34843135 0
-0.086069658 -1.0074458 0.46295267 0
-0.14169128 -1.1961828 -0.050029021 0
-0.94628847 -3.2426639 0.14053503 0
-0.055084303 -0.9758994 0.34601098 0
-0.067216262 -1.0067568 0.46040806 0
-0.12379374 -1.2047184 -0.050083268 0
-0.92362404 -3.3167925 0.14271276 0
-0.03035046 -0.95796722 0.14646789 0
-0.031264856 -0.96038181 0.24219064 0
-0.011993213 -0.90949219 0.32624599 0
-0.051188216 -1.0129925 0.46042365 0
-0.10196801 -1.2025939 -0.049740799 0
-0.81980181 -3.1726916 0.13659927 0
-0.0090626609 -0.94761497 0.14462821 0
-0.010961337 -0.95282584 0.23963797 0
0.0029831694 -0.91455513 0.32612619 0
-0.088370577 -1.2232463 -0.050271835 0
0.0044050082 -0.95829874 0.14522254 0
0.010058688 -0.94215304 0.23654991 0
0.019784169 -0.91437918 0.32464179 0
-0.0036622419 -0.98133725 0.44511423 0
-0.062822893 -1.2095277 -0.04951255 0
0.025641041 -0.94631404 0.14326356 0
0.023128944 -0.95378846 0.23776978 0
0.023541318 -0.95256156 0.33354512 0
0.012547629 -0.98527187 0.44460219 0
-0.04799132 -1.2273386 -0.049951032 0
0.034223661 -0.97212034 0.14560966 0
0.036878303 -0.96387964 0.23872337 0
0.018864976 -1.019798 0.3502129 0
0.021721499 -1.0109305 0.45175692 0
-0.030312939 -1.2369756 -0.050089438 0
0.024997937 -1.0575656 0.3589327 0
-0.012019617 -1.2448815 -0.050171208 0
0.069419608 -0.96840173 0.33388081 0
0.0068079396 -1.2511106 -0.050199065 0
0.085277602 -0.97178286 0.3335911 0
0.027210491 -1.2515374 -0.050021179 0
0.10138835 -0.97411817 0.33307895 0
0.04688324 -1.2543414 -0.049940895 0
0.11717112 -0.97754997 0.3329106 0
0.062915191 -1.2720501 -0.050417274 0
0.085450336 -1.262678 -0.049908206 0
0.10699032 -1.2562538 -0.049518518 0
0.12558098 -1.2631269 -0.049623922 0
0.14164315 -1.2838768 -0.050241679 0
-0.066459373 -2.3914576 0.10247565 0
0.16423978 -1.2698094 -0.049603529 0
0.0019604431 -2.1977389 0.095234588 0
0.18167205 -1.2848374 -0.050029255 0
0.031257167 -2.2137003 0.095622838 0
0.20076765 -1.2907633 -0.050133575 0
0.064166412 -2.2073143 0.095217049 0
0.22284158 -1.2753888 -0.049478907 0
0.096153632 -2.2056146 0.094995745 0
0.23991677 -1.2967818 -0.050157867 0
0.12796636 -2.2040951 0.094795763 0
0.26011565 -1.2943215 -0.049986824 0
0.15894918 -2.2088399 0.094835475 0
0.28017566 -1.2920736 -0.049832739 0
0.19124579 -2.2005031 0.094419874 0
0.30004337 -1.290839 -0.04972418 0
0.22294682 -2.1957617 0.094148129 0
0.31962705 -1.292506 -0.04972855 0
0.2536149 -2.2026813 0.094308332 0
0.33857578 -1.3048795 -0.050124656 0
0.28482905 -2.2024548 0.094226651 0
0.35855424 -1.3014464 -0.049964111 0
0.31595376 -2.2030046 0.094186813 0
0.37841573 -1.2982104 -0.049819667 0
0.34762096 -2.1872239 0.093577631 0
0.39809746 -1.2986481 -0.049815387 0
0.37844309 -2.1905105 0.093663752 0
0.41779163 -1.2977815 -0.049773384 0
0.43746713 -1.2994056 -0.049829155 0
0.45748281 -1.3199426 -0.050569087 0
0.47678918 -1.2969168 -0.049762405 0
0.49697414 -1.3091781 -0.050224848 0
0.51589686 -1.2917196 -0.049634125 0
0.53605813 -1.2992289 -0.049944773 0
0.55631781 -1.3051597 -0.050208282 0
0.57568282 -1.2992438 -0.050056525 0
0.59477955 -1.291757 -0.049856931 0
0.61423373 -1.2885096 -0.049818065 0
0.63429356 -1.2901176 -0.049962744 0
0.65213364 -1.2754153 -0.049528595 0
0.67281979 -1.2809911 -0.049834359 0
0.69348842 -1.2851449 -0.050098713 0
0.71009469 -1.2658401 -0.049521931 0
0.73075378 -1.2694964 -0.049786422 0
0.75040299 -1.2673526 -0.049849596 0
0.76945263 -1.262271 -0.049814578 0
0.79194474 -1.2719998 -0.050331257 0
0.80882376 -1.2574952 -0.049968734 0
0.82802355 -1.2528956 -0.049978286 0
0.84873074 -1.2537571 -0.050198968 0
0.86757886 -1.2475833 -0.050168756 0
0.88289887 -1.2297672 -0.049713153 0
0.90457529 -1.2331758 -0.050057445 0
0.92237884 -1.2240295 -0.049941529 0
0.94453847 -1.2278212 -0.050321892 0
0.96033072 -1.2129829 -0.050008237 0
0.97999883 -1.2092034 -0.050121851 0
0.99758184 -1.1997895 -0.050029859 0
0.92414218 -1.0094886 0.46026969 0
1.0141519 -1.1880126 -0.049855016 0
0.94200486 -1.007848 0.46193624 0
1.0355912 -1.188278 -0.050152805 0
0.96235043 -1.0118521 0.46572569 0
1.053571 -1.1799579 -0.05012903 0
0.97266656 -0.99179798 0.46091563 0
1.0688224 -1.1655399 -0.049875662 0
0.98953164 -0.98734981 0.46180859 0
1.0892349 -1.1627581 -0.050085645 0
1.0062342 -0.98238021 0.46259335 0
1.1078531 -1.1558505 -0.050143916 0
1.0299414 -0.99199742 0.46883366 0
1.1240925 -1.1439981 -0.050015178 0
1.0375211 -0.96769196 0.46265 0
1.1390808 -1.1298709 -0.049802724 0
1.0643882 -0.98247665 0.4710418 0
1.1585132 -1.1245627 -0.049951717 0
1.0821697 -0.9785015 0.47257322 0
1.1785638 -1.1201739 -0.050148897 0
1.1044066 -0.9825452 0.4772298 0
1.1925782 -1.1046196 -0.049901798 0
1.1316479 -0.99487084 0.057420284 0
1.1290901 -0.99026352 0.16022085 0
1.1318538 -0.99524158 0.26583129 0
1.1346041 -1.0001955 0.37501845 0
1.1310525 -0.99379832 0.48476866 0
1.2120764 -1.0990009 -0.050068751 0
1.140155 -0.97321326 0.056895725 0
1.1454229 -0.9824267 0.16034873 0
1.1413836 -0.97536224 0.26355138 0
1.1460028 -0.98344094 0.37272182 0
1.1475862 -0.98621029 0.48526949 0
1.2275826 -1.0863616 -0.04995624 0
1.1613299 -0.97380155 0.057293262 0
1.1688941 -0.98665291 0.16200742 0
1.1642869 -0.97882551 0.26616451 0
1.1663918 -0.98240167 0.37510291 0
1.1624488 -0.9757027 0.48472703 0
1.2508771 -1.0867286 -0.050393857 0
1.2590159 -1.0621796 -0.049799159 0
1.2771428 -1.053993 -0.049897734 0
1.2965256 -1.0475817 -0.050082732 0
1.3077698 -1.0289059 -0.049751088 0
1.3273799 -1.0226671 -0.049963456 0
1.34253 -1.0099194 -0.049902979 0
1.3572187 -0.99660975 -0.049825463 0
1.3778731 -0.99130946 -0.050113365 0
1.3819985 -0.96428293 -0.049435493 0
1.4058765 -0.96292716 -0.049922884 0
1.20383 -0.70816213 0.050314311 0
1.2124852 -0.71907568 0.14089346 0
1.4243886 -0.95442814 -0.050100267 0
1.2073747 -0.68775707 0.049825642 0
1.2104213 -0.69150084 0.13844423 0
1.4371735 -0.9388693 -0.049961966 0
1.2056979 -0.6616323 0.049067855 0
1.2087387 -0.6652742 0.13615426 0
1.4494773 -0.92289418 -0.049810119 0
1.2108017 -0.64424181 0.048711438 0
1.2076274 -0.64053577 0.13404709 0
1.4681442 -0.91431886 -0.050015572 0
1.203068 -0.61261714 0.04767764 0
1.1992046 -0.60821986 0.13083047 0
1.4823034 -0.90052027 -0.049983583 0
1.2045513 -0.5923062 0.04717112 0
1.2085404 -0.5967328 0.13057517 0
1.4926033 -0.88257486 -0.049758241 0
1.5009527 -0.86279792 -0.049446441 0
1.5208313 -0.85519284 -0.049742032 0
1.5427916 -0.84937614 -0.050144047 0
1.5553484 -0.83395988 -0.050075192 0
1.5670066 -0.8177492 -0.049972463 0
1.5791882 -0.80212015 -0.049906462 0
1.5851935 -0.78094846 -0.049553081 0
1.60738 -0.77441269 -0.049987514 0
1.622635 -0.76149327 -0.050094441 0
1.6331515 -0.74448937 -0.049986899 0
1.6501762 -0.73291004 -0.050190739 0
1.6560355 -0.71223044 -0.049889199 0
1.6670308 -0.69581097 -0.049834728 0
1.683792 -0.68380517 -0.050048359 0
1.6910385 -0.66458493 -0.049844548 0
1.7082506 -0.65270197 -0.050091442 0
1.7186503 -0.63583422 -0.050045848 0
1.7234451 -0.6151827 -0.049767721 0
1.733914 -0.59852523 -0.049746163 0
1.757478 -0.59032947 -0.050290063 0
1.7622136 -0.56986427 -0.050040513 0
1.7742741 -0.55406976 -0.050110012 0
1.7825809 -0.53598911 -0.050031483 0
1.7902964 -0.51762837 -0.049938582 0
1.8026139 -0.50191289 -0.050044071 0
1.8052005 -0.48082641 -0.049761605 0
1.8190439 -0.4658905 -0.049945977 0
1.8283235 -0.44847432 -0.049953781 0
1.843191 -0.43381414 -0.050192893 0
1.8524014 -0.41625169 -0.050213926 0
1.8628166 -0.39922836 -0.050290979 0
1.8622084 -0.37719527 -0.049944654 0
1.8724982 -0.36015156 -0.05003513 0
1.8837062 -0.34341982 -0.050169002 0
1.8930137 -0.32581493 -0.050237149 0
1.891664 -0.30400369 -0.049905151 0
1.8992555 -0.2857931 -0.049926147 0
1.9113535 -0.26918933 -0.050126806 0
1.9089416 -0.24740283 -0.049786255 0
1.9297736 -0.23359694 -0.050331999 0
1.9300988 -0.21284892 -0.050113693 0
1.9265804 -0.19108687 -0.04976254 0
1.9305913 -0.17177163 -0.049702846 0
1.9420818 -0.15457262 -0.049929507 0
1.9499525 -0.13624938 -0.05002977 0
1.9440993 -0.11441091 -0.049633108 0
1.9681041 -0.099940605 -0.050343301 0
1.9657192 -0.07904274 -0.050092675 0
1.9546217 -0.056485694 -0.049534444 0
1.9597645 -0.037537288 -0.049578965 0
1.9813237 -0.02158485 -0.050228056 0
1.9784137 -0.00096474151 -0.04999667 0
1.9897885 0.017226193 -0.050291508 0
1.9819154 0.038437296 -0.049899634 0
1.9926105 0.056903366 -0.050186791 0
1.9925593 0.076868199 -0.050095469 0
1.9942714 0.096582003 -0.050076608 0
1.9979808 0.11609638 -0.050138313 0
1.9885457 0.13673581 -0.0497379 0
1.9887333 0.1564278 -0.049691517 0
1.9954156 0.17572175 -0.049886275 0
2.0147803 0.19459704 -0.050542831 0
2.0044539 0.21487375 -0.050147083 0
1.9918306 0.2349178 -0.049678527 0
2.0025127 0.25448775 -0.050051074 0
2.0087018 0.27429533 -0.050272033 0
1.9911107 0.29381275 -0.049652822 0
1.994943 0.31357092 -0.049807362 0
1.9944379 0.33325002 -0.049815878 0
2.0020437 0.35339835 -0.050123289 0
2.0046587 0.37342098 -0.050261438 0
2.0069199 0.39351553 -0.050396089 0
1.9950207 0.41236737 -0.050032157 0
1.9949906 0.43223941 -0.050102431 0
1.9826142 0.45068061 -0.04973786 0
1.9837806 0.47066653 -0.049868781 0
1.9802333 0.49006158 -0.049838945 0
1.9749461 0.50916237 -0.049754985 0
1.9721894 0.52864051 -0.049771201 0
1.9844475 0.5509057 -0.050341461 0
1.9667214 0.5676567 -0.049832143 0
1.9699681 0.58846492 -0.05009437 0
1.959687 0.60643572 -0.049871981 0
1.9622581 0.62729776 -0.050128795 0
1.9557302 0.64606965 -0.050061189 0
1.9565403 0.66673279 -0.05027302 0
1.9466404 0.68458188 -0.050098401 0
1.941373 0.70365471 -0.050103743 0
1.9267023 0.71986812 -0.049767088 0
1.9200057 0.73837668 -0.049735501 0
1.9238416 0.76036811 -0.050108813 0
1.9158349 0.77853644 -0.05004672 0
1.9055396 0.79583579 -0.04990615 0
1.8967847 0.81361037 -0.049831934 0
1.893142 0.83332354 -0.049961776 0
1.8814429 0.8498832 -0.049791601 0
1.88404 0.87230378 -0.050181922 0
1.8770275 0.89086014 -0.050211389 0
1.8677986 0.90844798 -0.050163407 0
1.8462551 0.9202885 -0.049639169 0
1.8443495 0.941136 -0.049895138 0
1.8357773 0.95888895 -0.04989757 0
1.8350927 0.98067558 -0.050225142 0
1.8146596 0.99232554 -0.049769074 0
1.8190917 1.0171119 -0.050325908 0
1.810914 1.0352993 -0.050383594 0
1.8036468 1.0540617 -0.05048861 0
1.7823899 1.06462 -0.050023556 0
1.7654338 1.0774214 -0.049740318 0
1.7574811 1.0956392 -0.049841054 0
1.7402546 1.1079631 -0.04955833 0
1.7392688 1.1308199 -0.049975537 0
1.7242253 1.1444584 -0.049801432 0
1.7126253 1.1603612 -0.049783289 0
1.7002075 1.1756641 -0.049737792 0
1.6928082 1.1946354 -0.049923074 0
1.6805276 1.2100756 -0.049902134 0
1.6702688 1.2270737 -0.049981177 0
1.6534619 1.2389203 -0.04977164 0
1.6473222 1.2593167 -0.050059035 0
1.6391566 1.2782795 -0.050266929 0
1.6184639 1.2866418 -0.049897835 0
1.6140815 1.3090822 -0.050306872 0
1.5875719 1.3118495 -0.049667709 0
1.5740473 1.3260827 -0.04965581 0
1.5648689 1.3444543 -0.049866997 0
1.5534291 1.3608265 -0.04997934 0
1.5368788 1.3721888 -0.049845044 0
1.5325763 1.3960195 -0.050343607 0
1.5115151 1.4026855 -0.049994595 0
1.0284173 0.8930186 0.29417223 0
1.495653 1.4146187 -0.049918652 0
1.0441209 0.92607743 0.30577245 0
1.4856455 1.4329731 -0.05016182 0
1.4384 1.3805461 0.059642233 0
1.4413277 1.3837948 0.16794574 0
1.4442641 1.3870533 0.27855897 0
1.0500994 0.94965899 0.31290832 0
1.4705064 1.4457517 -0.05014335 0
1.4178004 1.3857633 0.059292488 0
1.4110146 1.37804 0.16531807 0
1.413324 1.3806684 0.27398929 0
1.0599811 0.978504 0.32226318 0
1.4514065 1.4538907 -0.049915999 0
1.397832 1.3913429 0.058975797 0
1.385394 1.3768214 0.16341481 0
1.3897219 1.3818742 0.27136418 0
1.055283 0.99141848 0.3244845 0
1.4368786 1.4672602 -0.049945537 0
1.3654649 1.3817286 0.057967518 0
1.3646024 1.3806956 0.16228986 0
1.3678479 1.3845826 0.26918975 0
1.0513899 1.0055627 0.3272413 0
1.4265397 1.4858155 -0.050221931 0
1.3395803 1.3789581 0.057303384 0
1.3432974 1.3835257 0.16106816 0
1.342773 1.3828813 0.26607648 0
1.0565951 1.0312203 0.33492973 0
1.4125433 1.5000776 -0.050305925 0
1.3183036 1.3812486 0.056891385 0
1.3202138 1.3836572 0.15952544 0
1.3192233 1.3824083 0.26334992 0
1.0573741 1.0522366 0.340543 0
1.3918805 1.505815 -0.050012466 0
1.2910496 1.3753335 0.056125298 0
1.3008723 1.3880448 0.15861538 0
1.2948806 1.3802912 0.26034299 0
1.0553806 1.0703632 0.34488282 0
1.3751906 1.5164907 -0.049954142 0
1.267223 1.3730774 0.055545352 0
1.2847139 1.3963106 0.15826853 0
1.2815791 1.3921466 0.26058814 0
1.0399632 1.0712085 0.3419956 0
1.3546342 1.5218292 -0.049669422 0
1.2564696 1.3879621 0.055742934 0
1.2535057 1.3839202 0.1551993 0
1.2568301 1.3884537 0.25739145 0
1.0313535 1.0809711 0.34289435 0
1.3454914 1.5428106 -0.050084904 0
1.2495846 1.4085084 0.056193091 0
1.2427418 1.3989264 0.15582764 0
1.2469225 1.4047806 0.25872937 0
1.0286446 1.0991175 0.34725693 0
1.3334897 1.5601988 -0.050345555 0
1.2472001 1.436089 0.056948978 0
1.2415107 1.427906 0.15829735 0
1.2396994 1.4253008 0.26100424 0
1.0125273 1.0985608 0.34401685 0
1.312488 1.5646218 -0.05005163 0
