# .PCD v0.7 - Point Cloud Data file format
VERSION 0.7
FIELDS x y z intensity
SIZE 4 4 4 4
TYPE F F F F
COUNT 1 1 1 1
WIDTH 1361
HEIGHT 1
VIEWPOINT 0 0 0 1 0 0 0
POINTS 1361
DATA ascii
-1.23976 0.28595686 0.49647725 0
-1.2402399 0.28527606 0.59913212 0
-1.4409971 -0.033774737 -0.049766324 0
-1.1531882 0.38579267 0.043601744 0
-1.1576487 0.37929028 0.12003752 0
-1.1595317 0.37654513 0.19797146 0
-1.3203269 0.14213812 0.35009721 0
-1.244272 0.25301099 0.40997437 0
-1.2430323 0.25481802 0.5078364 0
-1.237147 0.26339769 0.60723668 0
-1.4307326 -0.053821687 -0.050153673 0
-1.1411958 0.3798719 0.043536838 0
-1.1386349 0.3837077 0.11849907 0
-1.1399015 0.38181061 0.19520076 0
-1.2981529 0.14476764 0.34637082 0
-1.2401493 0.23165071 0.41509113 0
-1.2354568 0.23867953 0.51161236 0
-1.231665 0.24435914 0.61358857 0
-1.4109412 -0.059709195 -0.049940597 0
-1.1177905 0.39160162 0.042727508 0
-1.1219352 0.38522065 0.11737618 0
-1.1237555 0.38241827 0.19350764 0
-1.2881727 0.12929523 0.34826726 0
-1.241341 0.20139337 0.42371652 0
-1.2394787 0.20426035 0.52443022 0
-1.2381461 0.20631206 0.63127106 0
-1.3918768 -0.066471823 -0.049776737 0
-1.1102926 0.37921804 0.04295538 0
-1.10225 0.39194781 0.11562618 0
-1.11211 0.37634134 0.19329752 0
-1.2698466 0.12667692 0.34630752 0
-1.2436768 0.16809833 0.4334631 0
-1.2427032 0.16963935 0.53722054 0
-1.2427539 0.169559 0.64799905 0
-1.3770509 -0.079919107 -0.04990432 0
-1.0906746 0.38625264 0.042371854 0
-1.0866829 0.39275062 0.11466828 0
-1.0889447 0.38906872 0.18914005 0
-1.2571532 0.11525392 0.34706867 0
-1.2378787 0.14662957 0.43850538 0
-1.2372198 0.14770222 0.54372919 0
-1.2417759 0.14028573 0.66017187 0
-1.360193 -0.090145119 -0.049904797 0
-1.0831808 0.37378144 0.042614087 0
-1.0771593 0.38386607 0.11495475 0
-1.0796731 0.37965608 0.18972579 0
-1.2534716 0.0885868 0.35240158 0
-1.2411733 0.10918342 0.44972941 0
-1.2359895 0.11786496 0.55403215 0
-1.2417461 0.10822415 0.67388564 0
-1.3394382 -0.09366072 -0.049637102 0
-1.0625979 0.38352716 0.041941479 0
-1.0640813 0.3809703 0.11451 0
-1.0629965 0.38284004 0.18770529 0
-1.2487845 0.06259834 0.35750926 0
-1.2381586 0.080914371 0.45732599 0
-1.2394004 0.078773849 0.56869709 0
-1.2410394 0.075948708 0.68762344 0
-1.3264703 -0.11061836 -0.049932875 0
-1.0491368 0.38159549 0.041762803 0
-1.0445848 0.38967443 0.11265789 0
-1.0491732 0.38153088 0.18667281 0
-1.2481734 0.028343672 0.3650189 0
-1.2378904 0.046594139 0.4671942 0
-1.2375304 0.047232863 0.57964987 0
-1.307171 -0.11644185 -0.049780201 0
-1.0358075 0.37968123 0.04159157 0
-1.0341088 0.38278681 0.11275858 0
-1.0344223 0.38221371 0.18527383 0
-1.2526911 -0.016838675 0.37565702 0
-1.2394578 0.0073553273 0.47886109 0
-1.2393694 0.0075170943 0.59439647 0
-1.2906215 -0.12722361 -0.049838807 0
-1.025373 0.37256593 0.041638494 0
-1.0217673 0.37935996 0.11245365 0
-1.0195177 0.38359857 0.18377888 0
-1.2361208 -0.024531847 0.37537959 0
-1.2426542 -0.036842111 0.49231049 0
-1.244558 -0.040429357 0.61289203 0
-1.2719867 -0.13405085 -0.049746647 0
-1.009604 0.37573826 0.041277334 0
-1.0133741 0.36841321 0.11307846 0
-1.0092094 0.37650496 0.18405151 0
-1.240615 -0.07309819 0.38689223 0
-1.2411094 -0.074058659 0.50304586 0
-1.2447215 -0.081076749 0.62783867 0
-1.2572446 -0.14854264 -0.049970243 0
-0.99406427 0.37901729 0.040922124 0
-0.99284172 0.38146806 0.11082949 0
-0.99221754 0.38271928 0.18166654 0
-1.2412095 -0.1163993 0.39681542 0
-1.2393955 -0.11276305 0.51427442 0
-1.2376665 -0.10929716 0.6369409 0
-1.2356535 -0.14923084 -0.049652543 0
-0.97973073 0.38037169 0.040653169 0
-0.97790098 0.38415819 0.10986225 0
-0.97996473 0.37988746 0.18115099 0
-1.2412664 -0.16084611 0.40700093 0
-1.238153 -0.15440321 0.5265277 0
-1.2200153 -0.16212296 -0.04982847 0
-0.96279871 0.3877238 0.040156528 0
-0.9681589 0.37626553 0.11017869 0
-0.96416873 0.38479513 0.17912829 0
-1.2379187 -0.20039487 0.41574681 0
-1.2375203 -0.19954312 0.5400002 0
-1.2028133 -0.17186797 -0.04988781 0
-0.95403582 0.37786919 0.040345367 0
-0.95170307 0.3830241 0.10877956 0
-0.95285171 0.38048583 0.17898114 0
-1.2342769 -0.24139488 0.42486125 0
-1.2471122 -0.26975763 0.56255573 0
-1.1909261 -0.1938746 -0.050433096 0
-0.93877894 0.38252246 0.039972141 0
-0.93450338 0.3922962 0.10711767 0
-0.93556535 0.38986862 0.17616762 0
-1.2391366 -0.30408156 0.43997768 0
-1.2410569 -0.30847156 0.57350445 0
-1.1648965 -0.18340719 -0.049722694 0
-0.92886382 0.37520492 0.040072318 0
-0.92648363 0.38083804 0.10790849 0
-0.92770153 0.37795573 0.17758119 0
-1.241456 -0.36459863 0.45439595 0
-1.1478508 -0.19365239 -0.049827185 0
-0.91513932 0.37703717 0.039824035 0
-0.91175836 0.38532853 0.10685601 0
-0.91462469 0.3782993 0.17661972 0
-1.2379968 -0.4147222 0.46586862 0
-1.1304458 -0.20319414 -0.049912434 0
-0.90153021 0.37904942 0.03957672 0
-0.90012902 0.38261336 0.10666229 0
-0.90276861 0.37589955 0.1762266 0
-1.2413658 -0.48531759 0.48290884 0
-1.1129047 -0.21255457 -0.049998734 0
-0.88489187 0.389548 0.039013166 0
-0.88519627 0.38874424 0.10546979 0
-0.88706017 0.38382226 0.17387356 0
-1.2422193 -0.55402958 0.49934262 0
-1.0961283 -0.2242012 -0.050179925 0
-0.87686986 0.37755454 0.039314814 0
-0.87397802 0.38549125 0.10537762 0
-0.87671036 0.37799233 0.17420912 0
-1.0783533 -0.23339164 -0.050275423 0
-0.86471164 0.376724 0.039196704 0
-0.86083561 0.38779324 0.10466947 0
-0.86280453 0.38217038 0.17265578 0
-1.0576173 -0.23399365 -0.050055485 0
-0.85018361 0.38320017 0.038809676 0
-0.85416889 0.37134248 0.10610922 0
-0.84981257 0.38430417 0.17153133 0
-1.0400239 -0.24385571 -0.050193585 0
-0.83947229 0.37871248 0.038842317 0
-0.83982843 0.37760693 0.10498793 0
-0.83719808 0.38577229 0.17056863 0
-1.0200061 -0.2461946 -0.050058376 0
-0.82605147 0.38292927 0.038554691 0
-0.82811618 0.37623203 0.10475047 0
-0.82713127 0.3794266 0.17111436 0
-1.0000638 -0.24846339 -0.049930461 0
-0.81262273 0.38788426 0.038246956 0
-0.81854361 0.36778337 0.10532293 0
-0.81600654 0.37639642 0.1710586 0
-0.98137414 -0.2548697 -0.049965758 0
-0.80393392 0.37676257 0.038542766 0
-0.80148441 0.38548189 0.10298806 0
-0.80108255 0.38691252 0.16849168 0
-0.96229368 -0.2599225 -0.04995963 0
-0.7901817 0.38376278 0.10284508 0
-0.79091483 0.38102078 0.16903163 0
-0.94459349 -0.27040613 -0.050162431 0
-0.77905667 0.38147247 0.038150873 0
-0.77915192 0.3810975 0.10282328 0
-0.78142577 0.37214315 0.17014933 0
-0.92601645 -0.27786982 -0.050261918 0
-0.76785743 0.37954676 0.10269372 0
-0.76783198 0.37965256 0.16824612 0
-0.9075653 -0.28621817 -0.050402086 0
-0.75630182 0.37927353 0.16783904 0
-0.88552016 -0.27826655 -0.04995526 0
-0.86745495 -0.28853619 -0.050183211 0
-0.73337996 0.37864667 0.1670841 0
-0.84851658 -0.29504621 -0.050282322 0
-0.72199821 0.37832057 0.16675007 0
-0.8258906 -0.28089428 -0.049641021 0
-0.80839795 -0.29563212 -0.050056174 0
-0.78925169 -0.30128241 -0.050150488 0
-0.77018136 -0.30800664 -0.050292026 0
-0.7494238 -0.30189741 -0.04998035 0
-0.72995591 -0.30547535 -0.050026454 0
-0.71089798 -0.31360722 -0.050244663 0
-0.69031781 -0.30572188 -0.049897332 0
-0.67078859 -0.30898356 -0.049958605 0
-0.6516065 -0.31881762 -0.050263699 0
-0.63148761 -0.31345105 -0.050033957 0
-0.6117295 -0.31391227 -0.050021548 0
-0.59194428 -0.31288481 -0.049964871 0
-0.5722819 -0.32097006 -0.05024245 0
-0.55245453 -0.31829703 -0.050144792 0
-0.5328899 -0.30310881 -0.049609158 0
-0.51290065 -0.31612968 -0.050089642 0
-0.49338716 -0.30917203 -0.04986551 0
-0.47310096 -0.31953633 -0.050269313 0
-0.45320749 -0.31960928 -0.050314367 0
-0.49587423 0.32487005 0.039255258 0
-0.43490484 -0.29906559 -0.049630109 0
-0.48344997 0.31650996 0.039585035 0
-0.41411567 -0.31094384 -0.05011566 0
-0.47494096 0.35349023 0.038295321 0
-0.39376274 -0.31530511 -0.050341424 0
-0.46207473 0.33992296 0.038822152 0
-0.3745797 -0.30826974 -0.050167076 0
-0.44865409 0.32483011 0.039410412 0
-0.44205818 0.26845604 0.11267301 0
-0.44225207 0.27011323 0.18471152 0
-0.44201404 0.26807904 0.2593385 0
-0.44201723 0.2681061 0.33634636 0
-0.44200674 0.2680164 0.41715151 0
-0.35480294 -0.3067404 -0.050199352 0
-0.43486771 0.31015766 0.039990578 0
-0.42822644 0.25898677 0.11386508 0
-0.43027872 0.27479947 0.18413715 0
-0.42943889 0.26832861 0.25966823 0
-0.42905498 0.26537055 0.33777776 0
-0.42795539 0.25689828 0.42243269 0
-0.43172958 0.28597832 0.49456459 0
-0.33652517 -0.29451621 -0.049854975 0
-0.42083234 0.29665083 0.040536013 0
-0.41925406 0.28558403 0.1111629 0
-0.42022094 0.2923637 0.18124315 0
-0.41995153 0.29047471 0.25439626 0
-0.41941181 0.28669018 0.33118254 0
-0.42035067 0.29327351 0.40793443 0
-0.41892049 0.28324497 0.49678463 0
-0.31669721 -0.29382312 -0.049934853 0
-0.40562597 0.27812934 0.04127007 0
-0.40465796 0.27190351 0.11284835 0
-0.40534878 0.27634656 0.18449572 0
-0.40582594 0.27941555 0.25771829 0
-0.40749413 0.29014462 0.33063027 0
-0.40846249 0.29637265 0.40739083 0
-0.41005337 0.30660462 0.48587829 0
-0.29668185 -0.29388452 -0.05005125 0
-0.39206707 0.27252018 0.041545134 0
-0.390681 0.2642895 0.11389624 0
-0.39047837 0.26308632 0.1872852 0
-0.39064062 0.26404977 0.2622076 0
-0.39025819 0.26177889 0.3408629 0
-0.39183193 0.27112395 0.41881123 0
-0.39971262 0.31791997 0.48111656 0
-0.27724645 -0.29027092 -0.050043702 0
0.070446216 -2.2071838 0.13159661 0
-0.38524604 0.30515671 0.48865417 0
-0.25935218 -0.27874207 -0.049757149 0
0.1109344 -2.1833336 0.13102669 0
-0.37468418 0.3144753 0.48504764 0
-0.23834376 -0.28319907 -0.050060928 0
0.15943612 -2.2000439 0.13195273 0
-0.36747313 0.33905703 0.47370011 0
-0.21974738 -0.27571774 -0.049938738 0
0.20454939 -2.1983361 0.1322303 0
-0.35825536 0.35190439 0.46837991 0
-0.19912739 -0.27725136 -0.050155304 0
0.24994434 -2.1969419 0.13254099 0
-0.34700578 0.35489887 0.46816647 0
-0.18191703 -0.26434541 -0.049851038 0
0.29686645 -2.2007821 0.13306612 0
-0.0052523999 -0.97886443 0.25322598 0
-0.0058460026 -0.97646332 0.42043415 0
-0.3356939 0.35760415 0.46817434 0
-0.15899418 -0.27419388 -0.050393261 0
0.34571961 -2.2105339 0.13383286 0
-0.32674542 0.36938572 0.46356279 0
-0.14185058 -0.26150298 -0.050113652 0
0.38949683 -2.1996977 0.13386284 0
-0.31779423 0.38028628 0.45945069 0
-0.12440831 -0.25055194 -0.049905669 0
-0.30335942 0.37138706 0.46569085 0
-0.10360596 -0.25124621 -0.050139293 0
-0.30099991 0.40364426 0.45054224 0
-0.084001519 -0.24758124 -0.050220463 0
-0.29090145 0.4088192 0.44955647 0
-0.066728301 -0.23663962 -0.05003773 0
-0.28463906 0.42549723 0.44257435 0
-0.048184313 -0.22978914 -0.05001682 0
-0.25994131 0.38736874 0.46459478 0
-0.030166725 -0.2214998 -0.049950093 0
-0.0077630668 -0.22514224 -0.05034611 0
0.011650047 -0.22025096 -0.050428256 0
0.025886318 -0.20226789 -0.050016724 0
0.041607462 -0.18861043 -0.04977715 0
0.063593648 -0.18994355 -0.050126512 0
0.079699956 -0.17744899 -0.049948286 0
-0.18800308 0.42415994 0.38220984 0
0.098243259 -0.17054379 -0.049996637 0
0.11621656 -0.16235316 -0.050003663 0
-0.16230358 0.42339301 0.38694662 0
-0.20498525 0.51315534 0.49270722 0
0.1339487 -0.15365303 -0.049999442 0
0.55542845 -1.0120139 0.46134669 0
-0.15797411 0.44085991 0.38121495 0
-0.19493516 0.51613253 0.49371079 0
0.15478899 -0.15108597 -0.050249569 0
0.58465201 -0.99935341 0.46165627 0
-0.15379854 0.45786327 0.37568697 0
-0.18995263 0.52920777 0.48809102 0
0.16851939 -0.1345284 -0.049948301 0
0.6118663 -0.98274446 0.46123898 0
-0.14033793 0.45638055 0.37878335 0
-0.17740037 0.52728879 0.49250963 0
0.19193216 -0.13638198 -0.050398611 0
0.64481562 -0.97689152 0.46309239 0
-0.12589161 0.45346916 0.38265216 0
-0.17384402 0.54246444 0.48554856 0
0.20988937 -0.12774813 -0.050435826 0
0.67991823 -0.97437334 0.46573198 0
-0.11745469 0.46187061 0.38127664 0
-0.16574748 0.54885656 0.4845269 0
0.2174169 -0.10081375 -0.049729977 0
0.71780044 -0.97596407 0.46933571 0
-0.080804713 0.42076361 0.40355399 0
-0.15415235 0.54904562 0.48780486 0
0.23456468 -0.091199048 -0.049740277 0
0.75885218 -0.98193741 0.4739829 0
-0.05920995 0.40790945 0.41264442 0
-0.14727245 0.55752325 0.48550349 0
0.256659 -0.089731343 -0.050099686 0
0.92524725 -1.1935949 0.10817407 0
0.80672497 -0.99791026 0.48088264 0
-0.060432948 0.43379915 0.4031812 0
-0.13080166 0.54998046 0.49435204 0
0.27120635 -0.075664766 -0.049943633 0
0.95410603 -1.1717699 0.10804944 0
0.84383577 -0.99477768 0.48390463 0
-0.12742029 0.5641607 0.4882361 0
0.28503481 -0.060674313 -0.049754884 0
0.97034353 -1.1303959 0.10711031 0
0.8757388 -0.98272419 0.48514003 0
-0.11957816 0.57089967 0.48734149 0
0.31027356 -0.063246734 -0.050322741 0
1.0739172 -1.2228353 0.11189225 0
0.9126305 -0.97792244 0.48803815 0
0.017931184 0.38067359 0.43911305 0
-0.10989276 0.57477355 0.48854375 0
0.32432958 -0.048574809 -0.050165724 0
1.0971258 -1.1904955 0.11139205 0
0.94709533 -0.96880341 0.4901216 0
0.028505882 0.38854855 0.43883234 0
-0.1063057 0.58775258 0.48332316 0
0.34233865 -0.039776925 -0.050270408 0
1.0256324 -1.0225539 0.10500384 0
0.9993673 -0.98477697 0.49783009 0
0.041733406 0.3925817 0.44055334 0
-0.10538486 0.60418093 0.47559771 0
0.35380051 -0.021678334 -0.049977925 0
1.0616063 -1.0128465 0.10546032 0
0.05841019 0.39196837 0.44473827 0
-0.099190988 0.61266357 0.47360128 0
0.36823943 -0.0079830941 -0.049884032 0
1.1349285 -1.0535173 0.10817133 0
0.070593975 0.3979162 0.44570062 0
-0.0945426 0.62311304 0.47019699 0
0.37694922 0.013217205 -0.049461946 0
1.1286736 -0.98529744 0.10608314 0
1.1373144 -0.99677491 0.30881783 0
0.095548533 0.38700145 0.45549038 0
-0.082662083 0.62371838 0.47411102 0
0.40778503 0.0053032585 -0.050354261 0
0.10511532 0.39697665 0.45460871 0
-0.0719584 0.62612098 0.47682792 0
0.41167447 0.032384511 -0.049678553 0
0.12105449 0.39883387 0.45807138 0
-0.067590512 0.63670075 0.47348422 0
0.42975309 0.041279789 -0.049835213 0
-0.060377963 0.64356244 0.47299075 0
0.45724258 0.039080855 -0.050520044 0
-0.057224609 0.65525562 0.46882918 0
0.46668574 0.058698412 -0.050202955 0
-0.04794196 0.65952367 0.4704513 0
0.48083314 0.072627656 -0.050158288 0
-0.036529161 0.66147393 0.47401297 0
0.49764475 0.083558075 -0.050265748 0
1.2018443 -0.69787371 0.099820592 0
-0.033985414 0.67349422 0.46969014 0
0.50792164 0.10167515 -0.05003532 0
1.2043872 -0.65187502 0.098668776 0
-0.030018905 0.683707 0.46680215 0
0.52453786 0.11287247 -0.050148845 0
0.37664935 0.26889449 0.054473989 0
-0.0170692 0.68426651 0.47180805 0
0.53258163 0.13300812 -0.049829092 0
0.38415948 0.28569573 0.054226927 0
0.83440322 -0.17748749 0.22059478 0
-0.00800524 0.68913072 0.47344935 0
0.54879969 0.14462852 -0.049939625 0
0.39287189 0.3010478 0.054054532 0
0.83794922 -0.14543223 0.21840703 0
-0.0040457039 0.69921631 0.47083408 0
0.56068259 0.16060317 -0.049839653 0
0.40789512 0.31006038 0.054209135 0
0.73907846 -0.0139041 0.20091006 0
0.75200647 -0.026550418 0.33634827 0
0.73815185 -0.012997752 0.46838561 0
0.00020923343 0.70885974 0.46860194 0
0.56853205 0.18033195 -0.049551856 0
0.42193338 0.32016683 0.054318935 0
0.84144253 -0.079986699 0.21375677 0
0.18972488 0.54166144 0.34951228 0
0.0054821582 0.71740341 0.46733084 0
0.5968762 0.18072581 -0.050278842 0
0.45176837 0.31569022 0.055203889 0
0.84192497 -0.047193412 0.21137807 0
0.18871637 0.56035417 0.34500393 0
0.013393483 0.72342151 0.46829906 0
0.60329813 0.20169687 -0.049941257 0
0.83783144 -0.010997539 0.073244803 0
0.83828348 -0.0114075 0.20848832 0
0.18591948 0.5802108 0.33984992 0
0.021409592 0.72940218 0.46940124 0
0.62041992 0.21289372 -0.050129972 0
0.84342438 0.015714401 0.072757371 0
0.84377974 0.015400166 0.20700639 0
0.83866495 0.019922609 0.3420859 0
0.21441545 0.57188052 0.34876153 0
0.63217717 0.22889447 -0.05007048 0
0.83918208 0.050455328 0.071827553 0
0.8392151 0.050426837 0.20416115 0
0.84833616 0.042564388 0.34071425 0
0.23967601 0.56723231 0.35610956 0
0.65013605 0.23963344 -0.050310254 0
0.83735305 0.08231663 0.071040571 0
0.8425824 0.077922456 0.20252152 0
0.84058017 0.079604976 0.33531925 0
0.92574507 0.0080416147 0.50025558 0
0.25890198 0.56838411 0.36073232 0
0.27031419 0.55879456 0.45363402 0
0.036564313 0.75521255 0.46610424 0
0.65203649 0.26374751 -0.049812783 0
0.84550101 0.10529374 0.070740677 0
0.84598619 0.1048963 0.20095213 0
0.83830804 0.11118495 0.33136734 0
0.94965953 0.019984478 0.50300592 0
0.29717585 0.55439007 0.37350526 0
0.24791206 0.59473872 0.43699303 0
0.049238466 0.75745893 0.47103858 0
0.67029804 0.27435702 -0.050081607 0
0.85183316 0.12945414 0.070374131 0
0.832627 0.14478469 0.19714034 0
0.84642595 0.13377023 0.32994473 0
0.98106807 0.026297802 0.50822449 0
0.2761232 0.58899075 0.36082077 0
0.24679966 0.61239702 0.43203789 0
0.057376169 0.76359642 0.47250283 0
0.67774469 0.29362249 -0.049864735 0
0.84319383 0.16493642 0.069347836 0
0.8411141 0.16655409 0.19640878 0
0.83918279 0.16805625 0.32509163 0
0.26146355 0.6174053 0.43552342 0
0.068375371 0.76758897 0.47616106 0
0.68809384 0.31050056 -0.049790852 0
0.85316604 0.18541145 0.069185086 0
0.84363264 0.19263566 0.19491652 0
0.83560306 0.19872034 0.32121173 0
0.25908777 0.63559461 0.43015692 0
0.072986566 0.77661914 0.47506896 0
0.70753795 0.32060426 -0.050130714 0
0.84677547 0.21782625 0.068309247 0
0.84144884 0.22175813 0.192854 0
0.84134275 0.22183645 0.31954372 0
0.28995851 0.62883991 0.44206768 0
0.078834318 0.7846809 0.47498262 0
0.71790057 0.3375355 -0.050073832 0
0.84598619 0.24545801 0.067705609 0
0.8356126 0.25291538 0.19037542 0
0.84351331 0.24723566 0.3171629 0
0.089708649 0.78912663 0.47864288 0
0.72909731 0.35383773 -0.05006313 0
0.846093 0.27194703 0.067161553 0
0.83676475 0.2784763 0.18888701 0
0.84437209 0.27315164 0.31458497 0
0.83708876 0.27824956 0.44027451 0
0.10217877 0.79264694 0.48346692 0
0.74199218 0.36897767 -0.050134785 0
0.88581604 0.27098346 0.068348058 0
0.83766383 0.30379188 0.18742044 0
0.8481608 0.2966398 0.31273997 0
0.83809298 0.30349946 0.4368245 0
0.11642613 0.79520625 0.48955706 0
0.74190062 0.39279288 -0.049657751 0
0.92187864 0.2734552 0.069367371 0
0.84228557 0.32623076 0.18648739 0
0.83920687 0.32827222 0.30821717 0
0.83533555 0.33083916 0.43234935 0
0.12573762 0.80135047 0.49210742 0
0.75840551 0.40550518 -0.049902473 0
0.96453315 0.27253443 0.070659831 0
0.84702569 0.34833723 0.18561329 0
0.83957475 0.35314375 0.30581743 0
0.83950287 0.35319012 0.43011779 0
0.11777195 0.81877089 0.48249885 0
0.75834304 0.42881924 -0.049453799 0
0.98814386 0.28464216 0.071139008 0
0.8406052 0.37720793 0.1833656 0
0.83542889 0.38045555 0.30254251 0
0.83603984 0.38007224 0.42569071 0
0.13270201 0.82134676 0.48914945 0
0.78645927 0.43457764 -0.050199285 0
1.0321029 0.28473771 0.072471879 0
0.83460659 0.40520829 0.18123414 0
0.83731884 0.40355384 0.30064067 0
0.84573656 0.39841914 0.42533189 0
0.13059534 0.83464754 0.48393691 0
0.79363531 0.45336521 -0.050073151 0
1.0756909 0.28615046 0.073779479 0
0.84169155 0.42487532 0.18079735 0
0.84565002 0.42252862 0.30016464 0
0.84388024 0.42357779 0.42161793 0
0.14002933 0.84085107 0.48683548 0
0.80211252 0.4713043 -0.050011326 0
0.8540085 0.44141465 0.18104343 0
0.84570545 0.44619685 0.29801962 0
0.83973974 0.44963282 0.4173519 0
0.14052977 0.8523438 0.48365286 0
0.81546468 0.4864704 -0.05015862 0
0.84904522 0.46768868 0.17918569 0
0.83453006 0.47580707 0.29363066 0
0.84636575 0.46918732 0.41635939 0
0.15441658 0.85619652 0.48968741 0
0.8272534 0.50260711 -0.050249182 0
0.86048514 0.48456603 0.17938705 0
0.8389315 0.4962672 0.29254496 0
0.8396197 0.4958936 0.41156337 0
0.82627267 0.52554512 -0.049832124 0
0.84514207 0.5156067 0.17635982 0
0.8402366 0.51819038 0.29088798 0
0.83894032 0.51887316 0.40864575 0
0.83971304 0.54079127 -0.050007463 0
0.84937102 0.53585881 0.17576113 0
0.83286697 0.54428768 0.287541 0
0.83599848 0.54268837 0.40518183 0
0.8393355 0.54098409 0.52778286 0
0.85602492 0.55475771 -0.050303768 0
0.85706037 0.55424523 0.17561178 0
0.84168404 0.56185555 0.28753844 0
0.84041184 0.56248528 0.40391886 0
0.84715313 0.55914867 0.52739179 0
0.85650355 0.57654923 -0.049978424 0
0.86524898 0.572357 0.17555052 0
0.84166569 0.58366185 0.28581315 0
0.83202416 0.58828366 0.39911249 0
0.8451454 0.58199388 0.52346277 0
0.86318928 0.59521133 -0.049910091 0
0.90397447 0.57628834 0.1791345 0
0.84095806 0.60552585 0.28401563 0
0.83656961 0.60756195 0.39806324 0
0.84446174 0.60390025 0.52014804 0
0.87323016 0.6123184 -0.04998266 0
0.93649751 0.58392698 0.18197355 0
0.8421461 0.62626749 0.28265756 0
0.84585863 0.62460142 0.39841446 0
0.83007294 0.63168532 0.51195514 0
0.88454145 0.62893361 -0.05011268 0
0.96751136 0.59294873 0.18463165 0
0.8359924 0.64998984 0.27991512 0
0.84350628 0.64673102 0.39558622 0
0.83499163 0.65042394 0.51093572 0
0.89182311 0.64733946 -0.050094161 0
0.99160665 0.60554707 0.18648289 0
0.84207028 0.66817749 0.27963728 0
0.8406629 0.66876698 0.39271432 0
0.83503681 0.67112333 0.50824922 0
0.88829654 0.6701023 -0.049668498 0
1.0447704 0.60687011 0.19171259 0
0.84250957 0.68860513 0.27830872 0
0.86074513 0.68123603 0.39624214 0
0.85080463 0.68525302 0.51131183 0
0.90642053 0.68411267 -0.050085459 0
1.0610826 0.62386674 0.19266838 0
0.83945674 0.71019721 0.27636069 0
0.84804457 0.70685202 0.39081973 0
0.83996743 0.70999831 0.50492406 0
0.27773789 0.92900521 0.45443934 0
0.91400367 0.70239437 -0.050105266 0
0.85010499 0.72636276 0.27711338 0
0.83821636 0.73082221 0.38629365 0
0.83436316 0.73226756 0.50053674 0
0.27792993 0.94098604 0.45238844 0
0.90175515 0.72784954 -0.049381055 0
0.84878308 0.74696213 0.27560678 0
0.84057087 0.74992508 0.38517445 0
0.83706862 0.7511887 0.49920779 0
0.25932607 0.95964074 0.44042954 0
0.92978698 0.73880476 -0.050194144 0
0.84574646 0.76793629 0.27382907 0
0.84134036 0.76946366 0.38369721 0
0.84343535 0.76873744 0.49925786 0
0.82637209 0.77465218 0.61237925 0
0.25751522 0.97183913 0.43754008 0
0.93890244 0.75665909 -0.050297327 0
0.85494727 0.78458202 0.27443495 0
0.84480256 0.78795606 0.38301647 0
0.84246212 0.7887345 0.49681187 0
0.83594722 0.7909013 0.6139698 0
0.28643754 0.97366452 0.45094907 0
0.94149226 0.7766726 -0.050164014 0
0.85806197 0.80325907 0.2739262 0
0.84437305 0.80762124 0.38135883 0
0.84830493 0.80636829 0.49684384 0
0.85297424 0.80488032 0.61888129 0
0.30296454 0.98014998 0.4578073 0
0.94466668 0.79641289 -0.050062463 0
0.85180598 0.82472157 0.27169701 0
0.83490831 0.82987291 0.3773638 0
0.85044128 0.82513762 0.49566388 0
0.83955544 0.82845616 0.61067194 0
0.32258108 0.98605633 0.46629813 0
0.94422716 0.81713402 -0.049836159 0
0.86794859 0.83934188 0.27373412 0
0.84512585 0.84598649 0.3786881 0
0.84019178 0.84742302 0.49027851 0
0.83322424 0.8494516 0.60567713 0
0.32050774 0.99872446 0.46349382 0
0.94727701 0.83672434 -0.049749613 0
0.89009279 0.85259479 0.27692196 0
0.84593934 0.86484879 0.37757158 0
0.84850234 0.86413741 0.49141723 0
0.827007 0.87010306 0.60086262 0
0.31823298 1.0113039 0.46067771 0
0.95899886 0.85396522 -0.049992692 0
0.92100865 0.86399525 0.28176653 0
0.83895403 0.88565904 0.37446371 0
0.83587152 0.88647288 0.48541889 0
0.83184475 0.88753605 0.60090959 0
0.31969902 1.022751 0.45988882 0
0.96463484 0.87291116 -0.050019015 0
0.95695204 0.87483639 0.28755733 0
0.83822542 0.90458822 0.37308025 0
0.84891301 0.90191001 0.48834118 0
0.83588463 0.90517479 0.60070974 0
0.32065663 1.0342865 0.45891467 0
0.96244448 0.89373612 -0.049766861 0
0.98200959 0.88909429 0.29133847 0
0.82676011 0.92592728 0.36894819 0
0.84815103 0.9208523 0.4866015 0
0.84504718 0.92158866 0.60278493 0
0.32868358 1.0440962 0.46165347 0
0.97576088 0.9109087 -0.050092354 0
1.0291944 0.89894021 0.29923168 0
0.84097844 0.94109851 0.37161326 0
0.83043808 0.94345945 0.47916895 0
0.83992594 0.94133425 0.59888166 0
0.35208842 1.0506046 0.47233284 0
0.96945506 0.93245554 -0.049708951 0
1.0472125 0.91606414 0.30175108 0
0.83035797 0.96177751 0.36784467 0
0.84362847 0.95898008 0.48236033 0
0.83676237 0.96042746 0.59592229 0
0.36011216 1.0609064 0.47516093 0
0.9805885 0.95028239 -0.04997104 0
1.0934997 0.92796153 0.30950084 0
0.84640557 0.97680843 0.37108877 0
0.83311218 0.97943634 0.47757047 0
0.83601242 0.978863 0.5940907 0
0.35640898 1.0736736 0.47206724 0
0.97961456 0.97053587 -0.049801126 0
0.85196859 0.99410361 0.37165442 0
0.84368128 0.99563372 0.48001251 0
0.8422212 0.99590331 0.59529102 0
0.39265636 1.0789081 0.48938933 0
0.9954403 0.98778737 -0.050249364 0
0.8436839 1.0138352 0.36869055 0
0.83550483 1.015239 0.47619045 0
0.84694129 1.0132761 0.59595358 0
0.38105646 1.0932416 0.48241755 0
0.98886055 1.008918 -0.049894657 0
0.42526725 1.0983642 0.041521821 0
0.43052879 1.0975293 0.11350159 0
0.44505402 1.095224 0.18905528 0
0.42254391 1.0987965 0.259146 0
0.43578532 1.0966949 0.34056485 0
0.43083569 1.0974805 0.42028901 0
0.39395389 1.103334 0.48796165 0
1.0008564 1.0270903 -0.050220393 0
0.41299358 1.1128144 0.041010968 0
0.40487036 1.113999 0.11050903 0
0.39616147 1.1152689 0.17979369 0
0.40827897 1.113502 0.25498319 0
0.4089981 1.1133971 0.33091784 0
0.40570769 1.1138769 0.40898159 0
0.41059056 1.1131649 0.49545053 0
0.99710125 1.0475922 -0.049986556 0
0.39244786 1.1280032 0.040209599 0
0.42471614 1.1237119 0.11247734 0
0.42663351 1.123457 0.18503287 0
0.43006149 1.1230011 0.26015291 0
0.43733892 1.1220334 0.33985984 0
0.42928472 1.1231045 0.41812256 0
0.40841481 1.1258799 0.49349394 0
0.99615425 1.0675936 -0.049863338 0
0.37271902 1.1425265 0.039445702 0
0.42817232 1.1358614 0.11268186 0
0.42426577 1.1363308 0.18431765 0
0.42583141 1.1361427 0.25866112 0
0.42312405 1.1364682 0.33456489 0
0.43847516 1.1346231 0.42129874 0
1.0060688 1.0863438 -0.050139334 0
0.36775967 1.1549228 0.039219733 0
0.85149068 1.1029515 0.36752358 0
0.83480519 1.1047442 0.47184652 0
0.83747917 1.1044569 0.58685672 0
0.99418932 1.107357 -0.049641922 0
0.35502568 1.1678975 0.038720824 0
0.84954518 1.1210574 0.3665652 0
0.83719152 1.1222275 0.4720515 0
0.8445695 1.1215287 0.58906674 0
1.0072296 1.1259772 -0.050047159 0
0.35627392 1.1793739 0.03872915 0
0.84389609 1.1393751 0.36471808 0
0.84927779 1.1389337 0.47556773 0
0.83334011 1.140241 0.58375329 0
1.0070567 1.1458035 -0.049987577 0
0.36704662 1.1901973 0.039083492 0
0.85370463 1.1564406 0.36688486 0
0.83880538 1.1574742 0.47162792 0
0.84181279 1.1572655 0.58671933 0
1.0069978 1.1655843 -0.049941044 0
0.84488648 1.1747798 0.36434507 0
0.84306055 1.1748834 0.4726764 0
0.83283776 1.1754632 0.58253658 0
1.0154101 1.184962 -0.050206173 0
0.85357398 1.1920987 0.36633635 0
0.83757955 1.1928041 0.47055501 0
0.83822924 1.1927755 0.58440518 0
1.0220437 1.2045858 -0.050416376 0
0.84441775 1.2101791 0.36382768 0
0.84077257 1.2102939 0.4713968 0
0.84739715 1.2100853 0.58792776 0
1.0121573 1.2246732 -0.050045464 0
0.85159034 1.2277062 0.3655445 0
0.83905751 1.2279429 0.47067854 0
0.84542805 1.2278227 0.58692777 0
1.0118141 1.244442 -0.050024327 0
0.84936601 1.2454647 0.36491999 0
0.83804792 1.245536 0.47026896 0
0.83214313 1.2455732 0.58133513 0
1.0058903 1.2641639 -0.049812835 0
0.84365219 1.2631425 0.36346218 0
0.84223121 1.2631335 0.47166076 0
0.84007186 1.2631199 0.58461797 0
1.0213461 1.2841436 -0.050373577 0
0.8441425 1.2807962 0.36364397 0
0.83700877 1.2806615 0.46999678 0
0.84262389 1.2807676 0.58576649 0
1.0146207 1.3038236 -0.050151233 0
0.84686118 1.2985409 0.36445138 0
0.83414179 1.2981404 0.46918967 0
0.83777064 1.2982547 0.58394003 0
1.0149498 1.3236609 -0.050189722 0
0.84121269 1.3159993 0.3631795 0
0.84343606 1.3160973 0.47250533 0
0.84383708 1.316115 0.58672929 0
1.0086855 1.3431545 -0.050001394 0
0.85526389 1.334452 0.36699694 0
0.83809 1.3334779 0.47102007 0
0.83286566 1.3331815 0.58254814 0
1.0070775 1.3628411 -0.049988322 0
1.2912818 1.3825548 0.072159164 0
1.2921627 1.3826159 0.20524958 0
1.3034734 1.3834004 0.34241375 0
0.85253853 1.3521216 0.36658663 0
0.84455353 1.3515677 0.47354487 0
0.83304745 1.3507696 0.58308148 0
1.0117254 1.3830348 -0.050208207 0
1.2391664 1.4016914 0.070355415 0
1.2513922 1.4026942 0.20104329 0
1.0187777 1.3836132 0.29121763 0
0.84257919 1.3691601 0.36438099 0
0.84039718 1.368981 0.47260329 0
0.83576137 1.3686007 0.58475918 0
0.99076408 1.4009618 -0.049519092 0
1.2379328 1.4243731 0.070382819 0
1.2345319 1.424051 0.19944036 0
0.88730842 1.3911626 0.26771873 0
0.85085267 1.3877096 0.36690027 0
0.8353743 1.3862435 0.47144419 0
0.83766729 1.3864607 0.58619618 0
1.0066359 1.4223603 -0.050159696 0
0.64561123 1.3835722 0.049196478 0
0.64061731 1.3830357 0.1354918 0
0.6429041 1.3832814 0.22372036 0
0.64755362 1.383781 0.3151933 0
0.84005016 1.4044625 0.47360152 0
0.83433312 1.4038483 0.58554667 0
0.99903578 1.4413959 -0.049966954 0
0.53919047 1.3861254 0.045431726 0
0.54391795 1.3866937 0.12521049 0
0.55096751 1.3875409 0.20733261 0
0.55545753 1.3880806 0.29197094 0
0.84032673 1.42232 0.47436482 0
0.83665127 1.4218783 0.58734447 0
0.98936838 1.4600226 -0.049708053 0
0.5547139 1.4022192 0.046053708 0
0.54987162 1.4015752 0.12604614 0
0.53525943 1.399632 0.20479591 0
0.53934544 1.4001753 0.28828019 0
0.83670706 1.4397206 0.4738971 0
0.84566337 1.4409117 0.59203601 0
1.0030073 1.4818665 -0.050297998 0
0.55789214 1.4169582 0.046238746 0
0.54796225 1.4155103 0.12604967 0
0.55787164 1.4169552 0.20926638 0
0.5492602 1.4156995 0.29133242 0
0.83283466 1.4570513 0.47341716 0
0.84295601 1.4585272 0.59193277 0
0.99722105 1.5010519 -0.050196875 0
0.55278546 1.430517 0.046131369 0
0.54889339 1.4298992 0.12638137 0
0.55478793 1.4308348 0.20909335 0
0.55467004 1.4308161 0.29327753 0
0.83512944 1.4753269 0.47508714 0
0.8327288 1.4749459 0.58876979 0
0.9942314 1.5206482 -0.050205577 0
0.54450125 1.4434556 0.045914833 0
0.55055588 1.4444948 0.12681326 0
0.54306298 1.4432087 0.20737065 0
0.54911345 1.4442472 0.2924372 0
0.84570593 1.495155 0.47963396 0
0.83327693 1.4930217 0.59021336 0
0.97895664 1.5379858 -0.04977724 0
0.55486327 1.4596839 0.046380654 0
0.54707605 1.4582461 0.12670426 0
0.55564326 1.4598279 0.21013002 0
0.54295975 1.4574862 0.29148385 0
0.83409864 1.5112401 0.47677055 0
0.8471995 1.513659 0.59738702 0
0.9689948 1.5560688 -0.049549118 0
0.55756146 1.4747344 0.046576157 0
0.54742998 1.4727316 0.1270339 0
0.55447441 1.4741242 0.21040705 0
0.55686015 1.4745959 0.29578689 0
0.83576053 1.5297303 0.4784686 0
0.84343559 1.5312476 0.59722364 0
0.97198337 1.5767206 -0.049801201 0
0.55421072 1.4886532 0.046558388 0
0.54422694 1.4865485 0.12699378 0
0.54861921 1.4874744 0.2098542 0
0.54328829 1.4863507 0.29299438 0
0.83573121 1.5479983 0.47967526 0
0.84215671 1.5493528 0.59820485 0
0.97624677 1.5978433 -0.050110132 0
0.55156821 1.5027199 0.046572879 0
0.55356234 1.5031666 0.12835355 0
0.55716497 1.5039735 0.21199238 0
0.55524069 1.5035425 0.29690602 0
0.84303612 1.5680056 0.48346409 0
0.84321421 1.5680454 0.60027683 0
0.96434885 1.6153588 -0.049836736 0
0.56251615 1.5200238 0.047092572 0
0.56697363 1.5210813 0.13019066 0
0.55492538 1.5182229 0.21217628 0
0.54738444 1.5164338 0.29569194 0
0.84400517 1.5868073 0.48518392 0
0.82661825 1.5826821 0.59494293 0
0.97077733 1.6372713 -0.050245091 0
0.54735428 1.5311651 0.046660934 0
0.54920131 1.531628 0.12860364 0
0.55392855 1.5328126 0.21262515 0
0.54837412 1.5314207 0.29684335 0
0.83329159 1.6028185 0.48298335 0
0.8350454 1.603258 0.60035151 0
0.96298581 1.6557305 -0.050139908 0
0.55637199 1.5483778 0.047125854 0
0.546426 1.5457518 0.12869298 0
0.54172844 1.5445116 0.21101998 0
0.55763835 1.548712 0.30023172 0
0.84067196 1.6234376 0.48707068 0
0.83565289 1.6221125 0.60254031 0
0.94323343 1.6707965 -0.049599797 0
0.54906756 1.5614032 0.046995673 0
0.5532729 1.5625702 0.12987567 0
0.54662317 1.5607247 0.21263629 0
0.55491382 1.5630256 0.3005152 0
0.8459 1.6437835 0.49051872 0
0.83497447 1.6407512 0.60428613 0
0.95287544 1.6940269 -0.050157733 0
0.55296773 1.5775974 0.047287729 0
0.55139822 1.5771405 0.13011011 0
0.55155689 1.5771866 0.21430412 0
0.55349356 1.5777504 0.3011941 0
0.82814878 1.6577139 0.48610553 0
0.84134978 1.6615572 0.60918111 0
0.93944877 1.7106395 -0.049867712 0
0.85789698 1.6857784 0.38349542 0
0.84985584 1.6833271 0.49546027 0
0.83715838 1.6794562 0.60963434 0
0.93627769 1.7303088 -0.049968623 0
0.8465367 1.7017114 0.38193822 0
0.84174603 1.7001847 0.4945536 0
0.83576995 1.6982803 0.61140513 0
0.93766683 1.7515731 -0.050250836 0
0.83939058 1.7188871 0.38156134 0
0.83820611 1.7184931 0.49531969 0
0.84003574 1.7191017 0.61575377 0
0.92354971 1.7676764 -0.049958467 0
0.84671658 1.7410431 0.38514894 0
0.84530813 1.7405548 0.49991727 0
0.84111398 1.7391011 0.61883926 0
0.91885549 1.7869635 -0.050030082 0
0.84534758 1.7604414 0.38647002 0
0.8327015 1.7558787 0.4976632 0
0.83964294 1.7583832 0.62092727 0
0.91817254 1.8078126 -0.050264232 0
0.84709829 1.7811526 0.3887139 0
0.83175927 1.7753989 0.49961156 0
0.83406037 1.776262 0.62131417 0
0.899795 1.8219496 -0.049831606 0
0.84338349 1.7999755 0.3895435 0
0.82863027 1.7942287 0.50087619 0
0.83002776 1.794773 0.62249148 0
0.90597385 1.8456843 -0.050349187 0
0.83354276 1.8164145 0.38875672 0
0.82932287 1.8147092 0.50360352 0
0.82305521 1.8121763 0.62246573 0
0.89004618 1.8605593 -0.050025381 0
0.83356494 1.8369033 0.390751 0
0.83299023 1.8366627 0.50751102 0
0.82188922 1.8320131 0.62514448 0
0.88221973 1.8787025 -0.05002233 0
0.82731229 1.8548886 0.39108276 0
0.83010608 1.8561003 0.50916409 0
0.82550007 1.8541026 0.63010609 0
0.86904246 1.8944455 -0.049818791 0
0.8288011 1.876387 0.39364442 0
0.82458228 1.8744938 0.50995296 0
0.83203012 1.8778361 0.63654643 0
0.86527938 1.9144015 -0.049992353 0
0.82745427 1.8968519 0.39549947 0
0.82014495 1.8934606 0.51122963 0
0.82697958 1.8966317 0.63787484 0
0.85754317 1.9325923 -0.050019581 0
0.82491499 1.9169515 0.39710107 0
0.81762534 1.9134573 0.51330936 0
0.81416661 1.9117993 0.63575554 0
0.84392852 1.9478984 -0.04982191 0
0.83243328 1.9422089 0.4016476 0
0.81411463 1.9331423 0.51512748 0
0.81376845 1.932971 0.6394462 0
0.83195609 1.9638902 -0.049696501 0
0.82226294 1.9589398 0.40124688 0
0.79952925 1.9473294 0.51291239 0
0.80950636 1.9524249 0.64148796 0
0.8242082 1.9820107 -0.049748819 0
0.80907422 1.9740397 0.40003365 0
0.80018479 1.9693576 0.51648039 0
0.80815727 1.9735568 0.6450206 0
0.8200013 2.002099 -0.049954582 0
0.80070621 1.9916239 0.40026659 0
0.79543573 1.9887626 0.51813155 0
0.78809565 1.9847778 0.63988674 0
0.80679673 2.0173247 -0.04980405 0
0.78838867 2.0070291 0.39941114 0
0.79706854 2.0118837 0.52231997 0
0.78464705 2.0049362 0.64266449 0
0.80589002 2.0395145 -0.050166957 0
0.78767806 2.0290253 0.40202376 0
0.77703172 2.0228934 0.51833063 0
0.78381199 2.0267987 0.64683205 0
0.79212493 2.0543826 -0.050010465 0
0.78857416 2.0522776 0.40521431 0
0.78046459 2.0474699 0.52344209 0
0.77363628 2.0434215 0.64666694 0
0.78410012 2.0726264 -0.050100628 0
0.77540225 2.0673208 0.40431237 0
0.76196462 2.059124 0.52016574 0
0.76329595 2.059936 0.64652193 0
0.76985937 2.0870492 -0.049939167 0
0.77059942 2.0875134 0.40598083 0
0.7668516 2.0851622 0.52610612 0
0.76316589 2.0828497 0.6514675 0
0.76415116 2.1068444 -0.05014658 0
0.75963932 2.1039338 0.40587029 0
0.75762314 2.1026332 0.52663577 0
0.75840658 2.1031387 0.65431416 0
0.75104302 2.1219122 -0.050049379 0
0.73866743 2.1137066 0.40275711 0
0.75586849 2.1251118 0.53024077 0
0.75024086 2.1213803 0.65561885 0
0.73907572 2.1376784 -0.050008792 0
0.74198216 2.1396587 0.40715274 0
0.74175662 2.1395049 0.52901554 0
0.73987991 2.1382263 0.65594953 0
0.72906655 2.1547837 -0.050061788 0
0.72884065 2.1546257 0.40656382 0
0.72631401 2.1528573 0.52731234 0
0.72739071 2.1536109 0.65531433 0
0.72259825 2.1744847 -0.050280385 0
0.71934801 2.1721482 0.40717509 0
0.71791464 2.1711178 0.52854812 0
0.72105104 2.1733725 0.65790743 0
0.70966119 2.1896062 -0.05022493 0
0.70908242 2.1891789 0.40761656 0
0.71227294 2.191534 0.53103048 0
0.71200424 2.1913357 0.65925908 0
0.68764526 2.1978025 -0.049770761 0
0.70241624 2.2089958 0.40928277 0
0.69941443 2.2067211 0.53063089 0
0.70096046 2.2078927 0.6597032 0
0.6869126 2.2221515 -0.05027939 0
0.6931712 2.2270193 0.41021213 0
0.68596452 2.2214139 0.53005832 0
0.68602175 2.2214584 0.65821755 0
0.66775161 2.2322536 -0.049965281 0
0.68051606 2.2424424 0.41011143 0
0.68377262 2.2450416 0.53435069 0
0.68875474 2.2490184 0.66616869 0
0.65319806 2.245847 -0.049866386 0
0.67725486 2.2655501 0.41317132 0
0.67151529 2.2608492 0.53448635 0
0.67487127 2.263598 0.66549426 0
0.64242929 2.2625337 -0.049950872 0
0.65649718 2.2743549 0.41052964 0
0.67277211 2.2880304 0.54058218 0
0.66604668 2.2823792 0.66764724 0
0.63115758 2.2788696 -0.05002242 0
0.71974784 2.3552349 0.066198081 0
0.72407562 2.3589654 0.18782447 0
0.71950406 2.3550248 0.31003869 0
0.65116996 2.2961204 0.41309378 0
0.65514952 2.299551 0.53860152 0
0.65447122 2.2989662 0.66844863 0
0.60926837 2.2858894 -0.049598541 0
0.67871875 2.347297 0.064908236 0
0.6866383 2.3542993 0.18446377 0
0.68168372 2.3499186 0.30429474 0
0.63848191 2.3117197 0.41327268 0
0.64356679 2.3162158 0.53934491 0
0.63658935 2.3100464 0.66588843 0
0.60410219 2.3076754 -0.049980015 0
0.66404921 2.3620403 0.06486921 0
0.65207475 2.351181 0.18147294 0
0.65132684 2.3505025 0.30028632 0
0.62860447 2.329896 0.41448891 0
0.61809272 2.3203633 0.53395164 0
0.62210602 2.3240027 0.66527587 0
0.5890618 2.3206491 -0.049897842 0
0.63879675 2.3669076 0.06432274 0
0.64373142 2.3714972 0.18228947 0
0.64594549 2.3735566 0.30238399 0
0.61250955 2.342458 0.41363245 0
0.60790259 2.3381729 0.53546274 0
0.61603755 2.3457391 0.66951305 0
0.5724383 2.332037 -0.04974458 0
0.61468822 2.3723378 0.063829124 0
0.62263125 2.3799143 0.18125898 0
0.62450379 2.3817003 0.30057609 0
0.5921405 2.3508303 0.41131407 0
0.59804755 2.3564649 0.53724867 0
0.6024527 2.3606668 0.6696564 0
0.57099241 2.358125 -0.050354544 0
0.61688691 2.4030192 0.064646609 0
0.61357003 2.3997746 0.18204147 0
0.61513287 2.4013033 0.30181679 0
0.59006375 2.3767807 0.41553292 0
0.58453137 2.3713689 0.53745937 0
0.5797376 2.3666797 0.66462153 0
0.55016035 2.3653796 -0.050008431 0
0.59718782 2.4125552 0.064386562 0
0.60216838 2.4175515 0.18251547 0
0.60262877 2.4180133 0.30233556 0
0.57248813 2.3877776 0.41432172 0
0.57588023 2.3911805 0.54005325 0
0.57294625 2.3882372 0.66890544 0
0.53392082 2.3770127 -0.049897686 0
0.60298985 2.4480667 0.065435395 0
0.60511738 2.4502554 0.18524259 0
0.60199362 2.447042 0.3059862 0
0.55932099 2.4031427 0.41475874 0
0.55197674 2.3955874 0.53551918 0
0.56644434 2.410471 0.67357737 0
0.52000386 2.3909872 -0.049913544 0
0.61958534 2.4960454 0.067081444 0
0.61242443 2.4884908 0.18875089 0
0.61142796 2.4874394 0.31242061 0
0.54756314 2.4200623 0.41579559 0
0.5486117 2.4211683 0.54088378 0
0.5485006 2.4210513 0.67159289 0
0.50513083 2.4039485 -0.049888529 0
0.52967268 2.4305019 0.41462106 0
0.54034895 2.4420531 0.54407811 0
0.53925437 2.4408689 0.67496735 0
0.50097495 2.4287806 -0.050443348 0
0.52727216 2.4579618 0.41938311 0
0.52127939 2.4513118 0.54207659 0
0.51656216 2.4460771 0.67022657 0
0.4716408 2.4255528 -0.049661074 0
0.49591658 2.4531829 0.41315421 0
0.50620109 2.4648886 0.54211628 0
0.49971685 2.4575083 0.66912603 0
0.46822831 2.4517455 -0.050287608 0
0.48862144 2.4755545 0.41624606 0
0.48705527 2.473726 0.54016316 0
0.4881247 2.4749746 0.67144352 0
0.44545338 2.4554422 -0.049863335 0
0.46598479 2.4800327 0.41338912 0
0.46698031 2.481225 0.53775531 0
0.46689829 2.4811268 0.6677134 0
0.42860714 2.465955 -0.049770396 0
0.45956859 2.5040011 0.41706657 0
0.4595513 2.5039799 0.54202497 0
0.45666465 2.5004327 0.67118639 0
0.4144375 2.4797425 -0.049837299 0
0.43663022 2.5077257 0.41414207 0
0.43688598 2.5080483 0.53835738 0
0.43847612 2.5100534 0.66957515 0
0.40228465 2.496222 -0.050033111 0
0.42294547 2.5229583 0.41504994 0
0.42469659 2.5252244 0.54035717 0
0.43014553 2.5322757 0.67469394 0
0.3769199 2.4953868 -0.049460202 0
0.40594795 2.5339448 0.41464862 0
0.41072312 2.5402877 0.54152238 0
0.40812775 2.5368402 0.67066789 0
0.36699274 2.514926 -0.049808763 0
0.39587668 2.5543151 0.4172878 0
0.39940354 2.5591247 0.54430676 0
0.39078805 2.5473757 0.66988736 0
0.35637978 2.5339334 -0.050136376 0
0.38174418 2.569452 0.4183026 0
0.37325206 2.5575602 0.53878427 0
0.37962911 2.5664902 0.67359024 0
0.33610311 2.5394516 -0.049880438 0
0.35590205 2.5679281 0.41418701 0
0.36063126 2.5747302 0.54103523 0
0.3574293 2.5701249 0.66952586 0
0.32582334 2.5594251 -0.050260872 0
0.3402786 2.5807848 0.41463715 0
0.34070006 2.5814075 0.5391162 0
0.35034755 2.5956633 0.67658687 0
0.30478767 2.5635595 -0.049966641 0
0.32449052 2.5934782 0.41509399 0
0.32302818 2.5912576 0.5385772 0
0.32596174 2.5957122 0.67099762 0
0.29471526 2.5844278 -0.050395556 0
0.30129573 2.5946996 0.41213173 0
0.3097879 2.6079555 0.54083645 0
0.30859503 2.6060934 0.67068523 0
0.27298412 2.5871613 -0.050063659 0
0.29117134 2.616353 0.41542253 0
0.29083148 2.6158075 0.53967637 0
0.2917845 2.6173372 0.67090333 0
0.2563388 2.5978458 -0.050077617 0
0.2699534 2.6203239 0.41345215 0
0.2702305 2.6207814 0.53749871 0
0.27287278 2.625144 0.66955876 0
0.23726805 2.604435 -0.049930546 0
0.25376382 2.6324606 0.41399318 0
0.25560406 2.635587 0.53923327 0
0.25461975 2.6339147 0.6688022 0
0.22014399 2.6142263 -0.049926125 0
0.23182036 2.6346478 0.41166642 0
0.23441793 2.6391909 0.53673327 0
0.23313649 2.6369498 0.66542548 0
0.20450826 2.6266985 -0.050040036 0
0.22073491 2.6559265 0.41500783 0
0.22109671 2.6565781 0.53959739 0
0.21727951 2.6497023 0.66680282 0
0.18467613 2.6315587 -0.04985249 0
0.20563163 2.67045 0.41640964 0
0.19934447 2.6587818 0.53676778 0
0.19884987 2.6578636 0.66610563 0
0.17617758 2.6578233 -0.050538532 0
0.17933108 2.6638565 0.411778 0
0.18146475 2.6679389 0.53667021 0
0.18257935 2.6700711 0.66741216 0
0.15224464 2.6547081 -0.050048616 0
0.16146834 2.6729097 0.41174611 0
0.16247804 2.6749022 0.53583926 0
0.1634499 2.67682 0.66627198 0
0.13951553 2.6736331 -0.050450351 0
0.1364819 2.667455 0.40765497 0
0.14995046 2.6948843 0.5399276 0
0.14261849 2.6799524 0.66358232 0
0.11925759 2.6773915 -0.050256483 0
0.12690093 2.6934662 0.41256666 0
0.12444606 2.6883035 0.53426427 0
0.12056156 2.6801341 0.65967649 0
0.10364046 2.6909161 -0.050457589 0
0.10662802 2.6974087 0.41128615 0
0.10544904 2.6948466 0.53355795 0
0.10210761 2.6875849 0.65923315 0
0.081728898 2.6906517 -0.050126459 0
0.085193776 2.6984384 0.40927079 0
0.083388351 2.694381 0.53039086 0
0.089421831 2.7079401 0.66474599 0
0.064372621 2.7003982 -0.050196916 0
0.061830126 2.6944852 0.4059577 0
0.06543567 2.7028706 0.53058469 0
0.062853299 2.6968648 0.65613586 0
0.046902202 2.7100077 -0.05027017 0
0.045660637 2.7070172 0.40729722 0
0.046114944 2.7081113 0.52968889 0
0.048497163 2.7138498 0.66030031 0
0.025631925 2.7102759 -0.049992293 0
0.031178853 2.7241275 0.40994442 0
0.028734287 2.7180228 0.53055894 0
0.028129598 2.7165127 0.65813702 0
0.0051731081 2.7121108 -0.049785998 0
0.011115751 2.7275095 0.40887448 0
0.0075726123 2.7183285 0.52807742 0
0.0062531442 2.7149093 0.65420491 0
-0.014146307 2.7166038 -0.049691737 0
-0.013528266 2.7182674 0.40444252 0
-0.013860562 2.7173729 0.52525473 0
-0.011974731 2.7224491 0.65445149 0
-0.032130517 2.7246459 -0.049741697 0
-0.033226348 2.7215786 0.40351573 0
-0.029405693 2.7322731 0.52814186 0
-0.03070108 2.728647 0.65420824 0
-0.04929892 2.7351837 -0.049894206 0
-0.054538406 2.7199135 0.40131772 0
-0.055426456 2.7173252 0.52058703 0
-0.05419568 2.7209122 0.64797074 0
-0.067517616 2.7428844 -0.04994759 0
-0.074205674 2.7225623 0.40035972 0
-0.073228665 2.7255309 0.52128792 0
-0.072772093 2.7269182 0.64787751 0
-0.085306622 2.7520838 -0.050065473 0
-0.09240488 2.7295642 0.4006364 0
-0.092489429 2.729296 0.52051538 0
-0.093294866 2.7267408 0.6452021 0
-0.10446877 2.7570267 -0.050032556 0
-0.11212821 2.7316151 0.39965388 0
-0.11298869 2.7287602 0.51833576 0
-0.11048815 2.7370563 0.64718634 0
-0.12492961 2.7573833 -0.04983836 0
-0.10337893 2.8322821 0.06462083 0
-0.10461319 2.8279924 0.18198282 0
-0.10330234 2.8325481 0.30217904 0
-0.13028394 2.7387745 0.40009722 0
-0.13319935 2.728642 0.51639807 0
-0.1341774 2.7252429 0.63972294 0
-0.1430385 2.7658129 -0.049953245 0
-0.13617088 2.790864 0.062880598 0
-0.13676842 2.7886844 0.17698112 0
-0.13505392 2.7949383 0.29410005 0
-0.15121616 2.7359831 0.39796719 0
-0.15140651 2.7352889 0.5168888 0
-0.15097724 2.7368548 0.64247036 0
-0.1629871 2.767518 -0.049828086 0
-0.1563711 2.7929003 0.06276454 0
-0.15745582 2.788739 0.17641249 0
-0.15489562 2.7985611 0.29380688 0
-0.17119975 2.7360101 0.39665681 0
-0.16952704 2.7424276 0.51762593 0
-0.17124684 2.7358294 0.63989234 0
-0.18329282 2.7674241 -0.0496464 0
-0.17617826 2.7961988 0.06270463 0
-0.17908542 2.7844408 0.17539263 0
-0.17716633 2.7922027 0.2917068 0
-0.18974127 2.7413433 0.39681131 0
-0.19182108 2.7329316 0.51273817 0
-0.19295354 2.7283514 0.63467926 0
-0.19914995 2.7857981 -0.050151765 0
-0.19858058 2.7882318 0.062241007 0
-0.19754215 2.792671 0.17578864 0
-0.19867952 2.7878089 0.29002884 0
-0.20997195 2.7395363 0.3951557 0
-0.21075155 2.7362034 0.51232338 0
-0.2125511 2.7285109 0.6328454 0
-0.22064029 2.7803147 -0.049790811 0
-0.21711262 2.7962997 0.062375233 0
-0.217674 2.7937558 0.17542277 0
-0.21713682 2.79619 0.29076496 0
-0.22738682 2.7497442 0.39671052 0
-0.23075859 2.7344656 0.51028419 0
-0.22991239 2.7382998 0.63520449 0
-0.23794051 2.7937853 -0.050131783 0
-0.23629923 2.8016944 0.062420163 0
-0.23516996 2.8071363 0.17643528 0
-0.23513563 2.8073018 0.292045 0
-0.24966054 2.7373083 0.39241827 0
-0.25118059 2.7299833 0.50740355 0
-0.24996047 2.735863 0.63248008 0
-0.25639591 2.8025908 -0.050310176 0
-0.25335348 2.8182397 0.062879324 0
-0.25298336 2.8201435 0.17742859 0
-0.25372338 2.8163371 0.29298213 0
-0.2657477 2.7544894 0.39590725 0
-0.26982319 2.7335267 0.50733739 0
-0.26859215 2.7398586 0.63258219 0
-0.2766695 2.8020949 -0.050159115 0
-0.26910758 2.8437858 0.063671812 0
-0.2680074 2.8498511 0.18026826 0
-0.26677296 2.8566568 0.29969424 0
-0.28701651 2.7450492 0.3925381 0
-0.28790653 2.7401426 0.50838959 0
-0.28908625 2.7336383 0.62848401 0
-0.29591846 2.8070607 -0.050215364 0
-0.30727568 2.7396204 0.39028329 0
-0.30781031 2.7364459 0.50603735 0
-0.30826715 2.7337332 0.62715459 0
-0.31703323 2.8003051 -0.049856771 0
-0.32534528 2.7468455 0.39136595 0
-0.32939231 2.7208166 0.49975657 0
-0.32853666 2.7263198 0.62278301 0
-0.33639809 2.8040504 -0.049887113 0
-0.34647241 2.7334087 0.38718063 0
-0.34583843 2.7378542 0.50455648 0
-0.34616202 2.7355852 0.62550163 0
-0.35310489 2.8284667 -0.050670359 0
-0.36562023 2.7320364 0.38617441 0
-0.36493027 2.7373526 0.5035339 0
-0.36821169 2.712069 0.614622 0
-0.3750965 2.8124959 -0.050008308 0
-0.38519356 2.7261982 0.38408452 0
-0.38539788 2.724452 0.49844033 0
-0.38670343 2.7132936 0.61418754 0
-0.39565316 2.8058157 -0.04969056 0
-0.40383992 2.7272906 0.38383847 0
-0.4064303 2.7024446 0.49039337 0
-0.40520763 2.7141719 0.61370659 0
-0.41518918 2.8078604 -0.049695261 0
-0.4233512 2.7187014 0.38117245 0
-0.42315841 2.7208076 0.49593142 0
-0.42434511 2.7078443 0.61032706 0
-0.43399963 2.8191874 -0.050041184 0
-0.44199246 2.7178342 0.38054824 0
-0.44297144 2.7054205 0.49027109 0
-0.44297832 2.7053335 0.60863626 0
-0.45428005 2.8120513 -0.049734704 0
-0.46104094 2.7099283 0.37818485 0
-0.46120253 2.7074876 0.49051821 0
-0.4615584 2.7021122 0.60674953 0
-0.4738659 2.8138993 -0.049758758 0
-0.47970486 2.7048953 0.37661842 0
-0.48008993 2.6977067 0.48689434 0
-0.4801172 2.6971974 0.60425895 0
-0.49336722 2.8183017 -0.0498829 0
-0.49781373 2.7097092 0.37762716 0
-0.49840423 2.6952884 0.48580301 0
-0.49832258 2.6972823 0.60393828 0
-0.51266885 2.8329532 -0.050381809 0
-0.51673913 2.6893282 0.37226316 0
-0.51689661 2.6837728 0.4817611 0
-0.51677161 2.6881828 0.59990847 0
-0.53287929 2.8124259 -0.04963322 0
-0.53484011 2.6878657 0.37178835 0
-0.53506845 2.6733618 0.47816491 0
-0.53504586 2.6747956 0.59420019 0
-0.55245692 2.8261762 -0.050117511 0
-0.55289876 2.6858702 0.37123573 0
-0.55293649 2.6738975 0.47828701 0
-0.55293912 2.6730745 0.59341758 0
-0.57214403 2.8150122 -0.049721155 0
-0.57088977 2.6821811 0.37030894 0
-0.57078016 2.6705735 0.47719976 0
-0.57070905 2.6630392 0.58928579 0
-0.59204012 2.8258774 -0.050120197 0
-0.58835071 2.6584604 0.36432776 0
-0.58850628 2.66552 0.47561151 0
-0.58859527 2.6695595 0.59210163 0
-0.61203527 2.8313813 -0.050336838 0
-0.60598737 2.6567852 0.36402804 0
