# .PCD v0.7 - Point Cloud Data file format
VERSION 0.7
FIELDS x y z intensity
SIZE 4 4 4 4
TYPE F F F F
COUNT 1 1 1 1
WIDTH 1327
HEIGHT 1
VIEWPOINT 0 0 0 1 0 0 0
POINTS 1327
DATA ascii
0.05455932 -2.2019274 -0.069613166 0
0.054309316 -2.1962698 -0.040230695 0
0.054617375 -2.2032411 -0.012450574 0
0.054488674 -2.2003286 0.016224923 0
0.054542955 -2.2015569 0.044478763 0
0.054122124 -2.1920335 0.072978839 0
0.054402094 -2.1983693 0.10100495 0
0.062919632 -1.8805225 -0.08892832 0
0.071483307 -2.0037313 -0.090561144 0
0.081259973 -2.1443915 -0.089329742 0
0.085364506 -2.203445 -0.070071794 0
0.084958985 -2.1976106 -0.040590454 0
0.084472016 -2.1906042 -0.011431007 0
0.085578948 -2.2065301 0.015668692 0
0.084870361 -2.1963356 0.044641349 0
0.084852554 -2.1960793 0.072844371 0
0.085552521 -2.2061501 0.10100522 0
0.085317239 -1.8779459 -0.088772468 0
0.096819483 -1.9991359 -0.090089373 0
0.11087227 -2.1471984 -0.090188272 0
0.11618779 -2.2032037 -0.070392899 0
0.11614753 -2.2027798 -0.041491229 0
0.11592145 -2.2003977 -0.012582621 0
0.11603744 -2.2016196 0.015836405 0
0.11707135 -2.2125132 0.043767858 0
0.11654781 -2.2069972 0.072530985 0
0.11469693 -2.1874959 0.10100476 0
0.10863885 -1.8832307 -0.090420105 0
0.12298433 -2.002341 -0.091217227 0
0.13982224 -2.1421461 -0.089871936 0
0.14648299 -2.1974502 -0.070044659 0
0.14696433 -2.2014468 -0.041721884 0
0.14661865 -2.1985765 -0.012720315 0
0.14739719 -2.2050407 0.015363911 0
0.14770646 -2.2076087 0.043842223 0
0.14749487 -2.2058518 0.07248044 0
0.14799187 -2.2099783 0.10100549 0
0.13311158 -1.8935888 -0.093289904 0
0.14760976 -1.9928087 -0.090050094 0
0.16907814 -2.13973 -0.090113439 0
0.17721184 -2.1953938 -0.070328645 0
0.17745313 -2.1970451 -0.041682635 0
0.17768288 -2.1986175 -0.013107127 0
0.17777872 -2.1992733 0.015483038 0
0.17812593 -2.2016494 0.043930162 0
0.1779962 -2.2007616 0.072504073 0
0.17817858 -2.2020097 0.10100538 0
0.1538361 -1.8780499 -0.090719588 0
0.17418042 -1.9963342 -0.091492005 0
0.19818243 -2.1358848 -0.090240605 0
0.20929959 -2.2005212 -0.071748652 0
0.20952976 -2.2018595 -0.042827208 0
0.21010724 -2.2052171 -0.01419091 0
0.21079665 -2.2092254 0.014433311 0
0.20963763 -2.2024868 0.043661244 0
0.20974538 -2.2031131 0.072334133 0
0.20882909 -2.1977859 0.10100541 0
0.17551804 -1.8704085 -0.089960836 0
0.19871749 -1.9875219 -0.090700634 0
0.2257842 -2.1241577 -0.089170597 0
0.2397805 -2.1948125 -0.071739055 0
0.23837863 -2.1877358 -0.041817371 0
0.23964094 -2.194108 -0.01367276 0
0.24256794 -2.2088838 0.014052683 0
0.24115333 -2.2017426 0.043428361 0
0.24057679 -2.1988323 0.072301589 0
0.24105717 -2.2012572 0.10100567 0
0.19767018 -1.8656185 -0.089937828 0
0.22466342 -1.9858797 -0.091408081 0
0.25646088 -2.1275449 -0.090757422 0
0.26946324 -2.1854734 -0.071317039 0
0.27243736 -2.1987238 -0.043896724 0
0.27028015 -2.1891129 -0.01380766 0
0.27284706 -2.2005489 0.014185296 0
0.27314419 -2.2018728 0.043114599 0
0.27144527 -2.1943038 0.072256267 0
0.27137554 -2.1939931 0.10100564 0
0.22334893 -1.8748353 -0.09310659 0
0.24609187 -1.9654025 -0.08858908 0
0.28051522 -2.1024835 -0.087664433 0
0.30620432 -2.204783 -0.075151719 0
0.30520803 -2.2008154 -0.045020524 0
0.30396655 -2.1958716 -0.015148817 0
0.30424488 -2.19698 0.013920309 0
0.30336851 -2.19349 0.043168813 0
0.30326834 -2.1930914 0.072112538 0
0.30464518 -2.1985741 0.10100599 0
0.24529237 -1.8677602 -0.092845701 0
0.2747415 -1.9736471 -0.091470756 0
0.31254238 -2.1095636 -0.090135835 0
0.33625636 -2.1948295 -0.074879624 0
0.33638239 -2.1952825 -0.045327295 0
0.33513704 -2.1908047 -0.015435791 0
0.33684868 -2.196959 0.013338694 0
0.336308 -2.195015 0.042707924 0
0.3377738 -2.2002854 0.071745612 0
0.33893067 -2.2044451 0.1010064 0
0.26248458 -1.8452946 -0.089284755 0
0.29755566 -1.9600928 -0.090223379 0
0.3407453 -2.1014655 -0.090156414 0
0.37186095 -2.2033165 -0.077426262 0
0.3737148 -2.2093847 -0.048131768 0
0.37063068 -2.1992893 -0.017124085 0
0.36710757 -2.1877573 0.013363766 0
0.37115711 -2.2010126 0.04198543 0
0.36882737 -2.1933866 0.071697362 0
0.37015212 -2.1977229 0.10100647 0
0.29136002 -1.8605082 -0.094232924 0
0.32087693 -1.9490649 -0.089580946 0
0.37097171 -2.0993593 -0.091338016 0
0.42782295 -2.2699244 -0.088736735 0
0.5204429 -2.5478029 -0.091029458 0
0.65237767 -2.9436338 -0.091314726 0
0.8658042 -3.5839565 -0.090231724 0
1.3027084 -4.8947563 -0.09068083 0
3.2869244 -10.847805 -0.1406416 0
0.30907106 -1.8413492 -0.091621153 0
0.34915325 -1.9521985 -0.091886379 0
0.39412698 -2.0765755 -0.089049481 0
0.46049115 -2.2601089 -0.088940285 0
0.55788577 -2.5294585 -0.090440176 0
0.69947743 -2.9210372 -0.090764962 0
0.93387985 -3.5692885 -0.090824865 0
1.4017843 -4.8633013 -0.090811126 0
3.5345993 -10.761705 -0.1406403 0
0.32935962 -1.8304571 -0.090971448 0
0.37017104 -1.9349962 -0.090246402 0
0.42640904 -2.0790508 -0.091297381 0
0.49381676 -2.2517169 -0.089484371 0
0.59782565 -2.5181375 -0.090844251 0
0.74601823 -2.8977351 -0.090257622 0
1.0006469 -3.5499709 -0.091203235 0
1.5020143 -4.8342314 -0.091186322 0
3.7777555 -10.663581 -0.14049412 0
0.34851998 -1.8172381 -0.089895852 0
0.39441028 -1.926561 -0.090487652 0
0.4501597 -2.0593708 -0.089764662 0
0.52296025 -2.232801 -0.088557832 0
0.63577497 -2.5015552 -0.090712912 0
0.79705244 -2.8857608 -0.091009922 0
1.0662558 -3.5270743 -0.0914414 0
1.5976537 -4.7930045 -0.091078766 0
4.0226483 -10.569982 -0.14061446 0
0.36832124 -1.8060312 -0.089389063 0
0.42048585 -1.9220111 -0.091659747 0
0.47929212 -2.0527577 -0.090676717 0
0.55851698 -2.2289019 -0.090047471 0
0.67387277 -2.4853776 -0.09075395 0
0.84223157 -2.8596971 -0.090459876 0
1.1254872 -3.4894717 -0.090681247 0
1.6878951 -4.7398982 -0.090486132 0
4.2631807 -10.465646 -0.14061916 0
0.39065015 -1.8003297 -0.090291567 0
0.44063234 -1.9043583 -0.090244807 0
0.50419933 -2.0366609 -0.09000393 0
0.59333664 -2.2221835 -0.091254823 0
0.7086795 -2.4622481 -0.090018086 0
0.89609849 -2.8523254 -0.091956221 0
1.189948 -3.463918 -0.090961613 0
1.786334 -4.7051835 -0.090953149 0
4.5071306 -10.368011 -0.14095251 0
0.41730961 -1.802586 -0.093239807 0
0.46293095 -1.8917053 -0.089976363 0
0.53157282 -2.0257943 -0.090403415 0
0.61481386 -2.1884022 -0.088343076 0
0.74409074 -2.4409389 -0.089626275 0
0.93535972 -2.814575 -0.090428121 0
1.2513003 -3.4317515 -0.090853252 0
1.8739845 -4.6481385 -0.090387486 0
4.7412038 -10.249131 -0.14089502 0
0.42678982 -1.7717787 -0.088389285 0
0.48593146 -1.8804585 -0.090125628 0
0.56206071 -2.020355 -0.091952331 0
0.64772183 -2.1777673 -0.089180611 0
0.78757036 -2.4347556 -0.091359787 0
0.97898471 -2.7865021 -0.090011962 0
1.3120992 -3.3986392 -0.090790547 0
1.9683673 -4.604609 -0.090646841 0
4.970542 -10.12146 -0.14075942 0
0.45508277 -1.7758298 -0.092081733 0
0.51292181 -1.8760097 -0.09188097 0
0.58004367 -1.992268 -0.089371003 0
0.68325669 -2.1710377 -0.090797983 0
0.81256658 -2.3950086 -0.088736273 0
1.0264678 -2.7654955 -0.090469129 0
1.3692985 -3.3592944 -0.090346821 0
2.5970268 -5.4857783 -0.14074589 0
5.2045884 -10.002198 -0.14100194 0
0.46569598 -1.7492611 -0.088379137 0
0.530738 -1.8556256 -0.090294711 0
0.60642946 -1.9794054 -0.089769237 0
0.70615995 -2.1424966 -0.088994168 0
0.85474038 -2.3854733 -0.090296529 0
1.0667877 -2.7322383 -0.089723237 0
1.4244089 -3.3170633 -0.089777119 0
2.7105322 -5.4202867 -0.14082453 0
5.4200311 -9.8511839 -0.14054266 0
0.49126595 -1.7474113 -0.090940274 0
0.55199206 -1.8413095 -0.090143584 0
0.63899708 -1.9758421 -0.092123456 0
0.7391696 -2.1307349 -0.090064935 0
0.88445437 -2.3553829 -0.089168526 0
1.112054 -2.7073112 -0.090003289 0
1.4922332 -3.2951674 -0.091005944 0
2.8157423 -5.3416581 -0.14033368 0
5.6455994 -9.7173557 -0.14070106 0
0.5186491 -1.7471124 -0.09410993 0
0.57502526 -1.829641 -0.090715058 0
0.6586982 -1.9521291 -0.090670295 0
0.77219886 -2.1182818 -0.091177262 0
0.91863728 -2.3326516 -0.089167766 0
1.1619484 -2.688833 -0.09114524 0
1.5583522 -3.2691252 -0.092048801 0
2.9275637 -5.2735023 -0.14057326 0
5.8696551 -9.5804062 -0.14093332 0
0.53333175 -1.7278812 -0.092556529 0
0.59766179 -1.8171322 -0.091235749 0
0.68795818 -1.9424088 -0.092125155 0
0.79772013 -2.0946918 -0.090523846 0
0.95438796 -2.3120515 -0.089597233 0
1.1973461 -2.6491296 -0.090009637 0
1.6031487 -3.2121372 -0.090586565 0
3.0341461 -5.1974926 -0.14052704 0
6.0716958 -9.4117661 -0.14042224 0
0.54655463 -1.7073141 -0.090714477 0
0.6131708 -1.7949857 -0.089620538 0
0.70535827 -1.9163108 -0.09037862 0
0.82844645 -2.0783033 -0.091241531 0
0.98904121 -2.2896571 -0.0899029 0
1.2411729 -2.62148 -0.090368859 0
1.6565546 -3.1681511 -0.090335988 0
3.1433606 -5.1248913 -0.14083508 0
6.2949691 -9.2726269 -0.14091025 0
0.57132256 -1.701847 -0.093036108 0
0.63576305 -1.7823545 -0.090361618 0
0.73279452 -1.9035791 -0.091501884 0
0.85419309 -2.0552461 -0.090911679 0
1.0156097 -2.2569091 -0.088794477 0
1.2829304 -2.5908816 -0.090513833 0
1.7149142 -3.1305728 -0.09077362 0
3.2425253 -5.0390668 -0.14052366 0
6.4914441 -9.0980463 -0.1405189 0
0.58238113 -1.6792334 -0.090813391 0
0.65782166 -1.7687569 -0.091019548 0
0.75231218 -1.8808864 -0.090655722 0
0.87974733 -2.0321105 -0.090678506 0
1.0460261 -2.2294295 -0.088568889 0
1.3231087 -2.5582364 -0.090539433 0
1.7672437 -3.0852804 -0.090648703 0
3.3458805 -4.9586096 -0.14068313 0
6.6899581 -8.9269438 -0.14037417 0
0.60478318 -1.6701849 -0.092472665 0
0.6750015 -1.7493674 -0.090372957 0
0.76991022 -1.8563924 -0.089501761 0
0.9004451 -2.0035915 -0.089548729 0
1.0836632 -2.2101996 -0.089745559 0
1.3621391 -2.5242264 -0.090520494 0
1.8204936 -3.0410953 -0.090746514 0
3.4393368 -4.8666034 -0.14028819 0
6.8993187 -8.7682934 -0.14076719 0
0.62240541 -1.6554139 -0.092670508 0
0.69530839 -1.7335597 -0.090744056 0
0.80225748 -1.8482001 -0.092083149 0
0.93331152 -1.9886789 -0.091106422 0
1.1128318 -2.1811094 -0.089524306 0
1.4017484 -2.4908035 -0.09070041 0
1.8582873 -2.9801745 -0.089373656 0
3.545929 -4.7891831 -0.14096101 0
7.0987039 -8.5974569 -0.14094815 0
0.62842739 -1.6287332 -0.089457385 0
0.70985359 -1.711715 -0.089665033 0
0.81625473 -1.8201489 -0.090342276 0
0.95030051 -1.9567558 -0.089515306 0
1.1430339 -2.1531713 -0.089605279 0
1.4419433 -2.4577913 -0.091067709 0
1.9175061 -2.94244 -0.090329699 0
3.6400802 -4.6979241 -0.14092143 0
7.2812443 -8.4086542 -0.14071043 0
0.64933252 -1.6175151 -0.090928741 0
0.72926515 -1.6949654 -0.090034775 0
0.83713055 -1.7994809 -0.090381645 0
0.98668236 -1.9443882 -0.091917135 0
1.1797075 -2.1314187 -0.090853713 0
1.4749538 -2.4174957 -0.090602107 0
1.9581884 -2.8857229 -0.089552172 0
3.729579 -4.6021008 -0.14073247 0
7.4689174 -8.2253103 -0.14080085 0
0.66706562 -1.6028806 -0.091532432 0
0.7532568 -1.6822779 -0.091678523 0
0.85357606 -1.7746898 -0.089548133 0
1.0038017 -1.9130741 -0.090643637 0
1.2053597 -2.0987449 -0.090410464 0
1.5091603 -2.3785989 -0.090429626 0
2.5440693 -3.3319337 -0.14075151 0
3.8196161 -4.5069385 -0.14073685 0
7.6438732 -8.0297575 -0.14063524 0
0.67920303 -1.5831368 -0.090647556 0
0.76922148 -1.6619554 -0.091357939 0
0.87612247 -1.7555559 -0.090203799 0
1.030394 -1.890633 -0.091316767 0
1.2258854 -2.0618017 -0.089310087 0
1.5320187 -2.3298461 -0.088976197 0
2.602134 -3.2668195 -0.14072987 0
3.9057734 -4.4082618 -0.14065142 0
7.8318491 -7.84586 -0.14102992 0
0.69807887 -1.5692534 -0.091783591 0
0.78676647 -1.6430378 -0.091558255 0
0.89625162 -1.7341247 -0.090433456 0
1.0492072 -1.8613771 -0.090658523 0
1.2478489 -2.0266385 -0.088594474 0
1.5639786 -2.2896447 -0.08880911 0
2.6657019 -3.2062314 -0.14136024 0
3.9937298 -4.3110933 -0.14082921 0
7.9918776 -7.6373806 -0.14071305 0
0.71031672 -1.5497631 -0.091194846 0
0.79767543 -1.6187876 -0.090277471 0
0.92130202 -1.7164683 -0.091803871 0
1.0645031 -1.8296152 -0.089516856 0
1.2797732 -1.9997061 -0.08951024 0
1.5963275 -2.2498243 -0.088813566 0
2.7117441 -3.1311452 -0.14055435 0
4.070066 -4.204392 -0.14046103 0
8.1593781 -7.4354682 -0.14078139 0
0.72180563 -1.5298675 -0.090550132 0
0.81625938 -1.6007016 -0.090973116 0
0.9370383 -1.6912776 -0.09132766 0
1.1034477 -1.8160735 -0.092693038 0
1.3166869 -1.9759886 -0.091238014 0
1.6290541 -2.210243 -0.088980384 0
2.7654817 -3.0624876 -0.14060324 0
4.15203 -4.1023059 -0.14058553 0
8.3205814 -7.2284393 -0.14081502 0
0.73802954 -1.5135096 -0.091284178 0
0.8326664 -1.5808184 -0.091259755 0
0.95057994 -1.6646824 -0.09054672 0
1.1058558 -1.7751194 -0.089571364 0
1.325852 -1.9315878 -0.08904209 0
1.6684339 -2.1752429 -0.090021841 0
2.829922 -3.0013309 -0.14171951 0
4.2369738 -4.0020709 -0.14102662 0
8.4698877 -7.0126543 -0.14065909 0
0.75004393 -1.4940875 -0.091033645 0
0.84543455 -1.5583708 -0.09083005 0
0.96607602 -1.6396706 -0.090300508 0
1.1289864 -1.7494552 -0.090190791 0
1.3471215 -1.8964556 -0.088748403 0
1.6955522 -2.1312618 -0.089765944 0
2.8626688 -2.9177771 -0.14027639 0
4.3152242 -3.8966486 -0.14122781 0
8.6304827 -6.8046837 -0.14097635 0
0.75504988 -1.4702485 -0.089144759 0
0.86469465 -1.5401809 -0.091985159 0
0.97837865 -1.6126896 -0.089559786 0
1.1452762 -1.7191383 -0.089768954 0
1.3747405 -1.8654926 -0.089463539 0
1.7335517 -2.0943456 -0.090842701 0
2.9128213 -2.8464942 -0.14047588 0
4.3846431 -3.7852354 -0.14108627 0
8.7758169 -6.5859647 -0.14101368 0
0.77380937 -1.4552077 -0.090848558 0
0.86831665 -1.5121828 -0.0897853 0
0.98697126 -1.5837156 -0.088249989 0
1.1670938 -1.6923052 -0.090387128 0
1.4067186 -1.8367667 -0.090870284 0
1.7604599 -2.050025 -0.090796717 0
2.9658689 -2.7767241 -0.14105673 0
4.4452682 -3.6686025 -0.14062291 0
8.9052334 -6.3573594 -0.14076936 0
0.78061152 -1.4328817 -0.089697324 0
0.88237381 -1.4907813 -0.090032391 0
1.018858 -1.5684365 -0.091502868 0
1.1900167 -1.6658205 -0.091285564 0
1.417088 -1.795017 -0.089449547 0
1.7830148 -2.0032179 -0.09040492 0
3.0082178 -2.7003205 -0.14091149 0
4.5096173 -3.55457 -0.14052448 0
9.0292025 -6.1260729 -0.14053831 0
0.79778528 -1.4164088 -0.091199793 0
0.89992946 -1.4711614 -0.091140054 0
1.0218979 -1.5365404 -0.089405335 0
1.1976482 -1.6307483 -0.089841016 0
1.4563313 -1.7694107 -0.092017435 0
1.8136239 -1.9609312 -0.090997376 0
3.0577335 -2.6278143 -0.1414907 0
4.5840917 -3.4459915 -0.14111529 0
9.1676531 -5.9029284 -0.14084744 0
0.79572821 -1.3898286 -0.088205375 0
0.90863425 -1.4467304 -0.090472065 0
1.0485705 -1.5172547 -0.091832884 0
1.22242 -1.6048706 -0.091252364 0
1.4587226 -1.7239612 -0.089814968 0
1.8376695 -1.914941 -0.091008581 0
3.0797749 -2.5409312 -0.14005595 0
4.6428671 -3.3286908 -0.14102405 0
9.2791815 -5.665277 -0.14059934 0
0.81126422 -1.3723351 -0.089541562 0
0.92208475 -1.4247226 -0.090929963 0
1.0593803 -1.4896253 -0.091436975 0
1.2284819 -1.5695635 -0.089840777 0
1.4832785 -1.6900117 -0.090653114 0
1.8539383 -1.8652313 -0.090337344 0
3.1298771 -2.4683969 -0.14097868 0
4.697401 -3.2094018 -0.14086886 0
9.3986273 -5.4317799 -0.14071301 0
0.82569563 -1.3539908 -0.090709426 0
0.93627763 -1.402891 -0.091650717 0
1.0685354 -1.4613765 -0.090874188 0
1.2406856 -1.5375028 -0.089526333 0
1.4981638 -1.6513617 -0.090356313 0
1.8827196 -1.8214153 -0.091079347 0
3.1548889 -2.3839788 -0.14011405 0
4.7537961 -3.0910285 -0.14096428 0
9.51931 -5.1983771 -0.14100756 0
0.8461991 -1.337835 -0.093368344 0
0.94518119 -1.3786519 -0.091399275 0
1.067472 -1.4290805 -0.088628031 0
1.2505101 -1.5045593 -0.088977151 0
1.5147022 -1.6135033 -0.090395547 0
1.898327 -1.7716974 -0.090595849 0
3.2019508 -2.3092685 -0.14108777 0
4.8075285 -2.9713552 -0.14107592 0
9.6265678 -4.9585662 -0.14111038 0
1.0784976 -1.4021347 -0.088675357 0
1.2672498 -1.4744532 -0.089599736 0
1.5071024 -1.5663503 -0.087533526 0
1.9201561 -1.7246078 -0.090864964 0
3.2317922 -2.2271481 -0.14090481 0
4.8536439 -2.8485444 -0.14095807 0
9.7004776 -4.7055607 -0.14053337 0
1.1009216 -1.3791943 -0.090828948 0
1.2814198 -1.443176 -0.08994744 0
1.5425467 -1.5357386 -0.09018264 0
1.9308163 -1.6733698 -0.090143852 0
3.2618616 -2.1451898 -0.14089485 0
4.8868809 -2.7212157 -0.14035898 0
9.8002605 -4.4628768 -0.14075798 0
1.1095653 -1.351042 -0.090683065 0
1.294323 -1.4113312 -0.090222232 0
1.5624107 -1.4988122 -0.090990014 0
1.9507049 -1.6255184 -0.090462275 0
3.2906256 -2.0627544 -0.14094175 0
4.9342618 -2.5990975 -0.14061551 0
9.8944578 -4.2176828 -0.14099462 0
1.2990823 -1.3769288 -0.089418866 0
1.5621552 -1.4554867 -0.089451455 0
1.9540009 -1.5724983 -0.089280076 0
3.3123171 -1.978114 -0.1406247 0
4.9742932 -2.4744074 -0.14066337 0
9.9635468 -3.9642806 -0.14077096 0
1.3040063 -1.3428472 -0.088771887 0
1.5660576 -1.4139503 -0.088559769 0
1.9509908 -1.5183952 -0.087625943 0
3.3355286 -1.8940654 -0.1405752 0
5.0084362 -2.3479795 -0.14057919 0
10.037169 -3.7124381 -0.1408127 0
1.5670664 -1.372076 -0.087451987 0
1.9629087 -1.4688277 -0.08754801 0
3.3570569 -1.809585 -0.14055803 0
5.0501633 -2.2234135 -0.14101245 0
10.105885 -3.459131 -0.14088935 0
1.9968488 -1.4240674 -0.08969412 0
3.3833952 -1.7261082 -0.14103812 0
5.0799012 -2.0956697 -0.14102234 0
10.158374 -3.2019479 -0.14073205 0
3.4027555 -1.6408856 -0.14116956 0
5.1126633 -1.9684093 -0.14132872 0
10.214158 -2.9455736 -0.14080757 0
5.1166935 -1.8359724 -0.14042996 0
10.259283 -2.6870995 -0.14078441 0
10.305164 -2.4286132 -0.14093255 0
10.33425 -2.1677198 -0.14084014 0
1.1265473 -1.0034943 0.12720686 0
1.1318818 -1.0035616 0.15368831 0
1.1303041 -1.0035417 0.17999229 0
1.1293958 -1.0035303 0.20637102 0
1.138167 -1.0036409 0.23395427 0
1.1356277 -1.0036088 0.26050732 0
1.1384789 -1.0036448 0.2880024 0
1.1307318 -1.0035471 0.31384507 0
0.87451971 -0.75227106 -0.091425888 0
0.98963535 -0.72103643 -0.091977887 0
1.1206944 -0.68547589 -0.089711003 0
1.2036378 -0.66297066 -0.07415662 0
1.2138771 -0.66019237 -0.045911033 0
1.1954303 -0.66519761 -0.014551705 0
1.2057022 -0.6624105 0.013703348 0
1.2009033 -0.66371262 0.043088306 0
1.2008044 -0.66373944 0.07206516 0
1.2081919 -0.661735 0.10100611 0
0.86953741 -0.72992504 -0.091708981 0
0.97973752 -0.69701749 -0.091424592 0
1.1040695 -0.65988994 -0.088235416 0
1.2032758 -0.6302653 -0.07536725 0
1.201545 -0.63078213 -0.045466755 0
1.1993538 -0.63143647 -0.01576752 0
1.2071232 -0.62911642 0.01296995 0
1.2015722 -0.63077402 0.04263813 0
1.1997157 -0.63132834 0.071882993 0
1.2051334 -0.62971056 0.10100628 0
0.85242832 -0.71145022 -0.089408539 0
0.95954114 -0.6764977 -0.088945962 0
1.1011297 -0.63029528 -0.089224719 0
1.1975567 -0.59882975 -0.075917505 0
1.2056731 -0.59618121 -0.047133286 0
1.2063884 -0.5959478 -0.017382173 0
1.2048573 -0.59644741 0.012440065 0
1.2022692 -0.59729195 0.042142302 0
1.1964169 -0.59920168 0.071733445 0
1.2028048 -0.59711719 0.10100649 0
0.8459968 -0.68975443 -0.089600183 0
0.95406777 -0.65144616 -0.089490287 0
1.0870193 -0.60431844 -0.088404782 0
1.189652 -0.56793791 -0.076264612 0
1.2054528 -0.56233692 -0.048383418 0
1.1979856 -0.56498384 -0.017570874 0
1.2030945 -0.56317288 0.011807213 0
1.2033516 -0.56308174 0.041581426 0
1.2081069 -0.56139612 0.071192898 0
1.2146245 -0.55908579 0.10100716 0
0.84556711 -0.66569495 -0.091283955 0
0.95394093 -0.62417263 -0.091245256 0
1.0882895 -0.5726983 -0.090398751 0
1.2133688 -0.52477545 -0.081490807 0
1.1941319 -0.53214586 -0.048362765 0
1.2070283 -0.52720475 -0.01958294 0
1.2094104 -0.52629203 0.010500805 0
1.206511 -0.52740294 0.040868707 0
1.2139318 -0.52455974 0.070769489 0
1.208657 -0.52658069 0.10100732 0
0.82927108 -0.64773035 -0.089476161 0
0.94537377 -0.5998534 -0.091438524 0
1.0834172 -0.54292893 -0.091462709 0
1.2081901 -0.49147677 -0.082543902 0
1.215559 -0.4884381 -0.052577768 0
1.2059046 -0.49241921 -0.02068541 0
1.1987221 -0.49538106 0.010396579 0
1.2121538 -0.4898423 0.039978366 0
1.2176338 -0.48758247 0.070371777 0
1.2106137 -0.49047732 0.10100775 0
0.83175731 -0.62191337 -0.092118271 0
0.93663436 -0.57553589 -0.091724195 0
1.0665474 -0.51808727 -0.090516932 0
1.2091663 -0.4550201 -0.084683008 0
1.2123396 -0.45361683 -0.053830672 0
1.2080332 -0.4555212 -0.022221273 0
1.2117512 -0.453877 0.0084189121 0
1.2023964 -0.4580138 0.039813954 0
1.2027777 -0.45784518 0.070417792 0
1.2072264 -0.45587793 0.10100805 0
0.82516146 -0.59968001 -0.092809014 0
0.92038953 -0.55466348 -0.09057679 0
1.0512497 -0.49280292 -0.089958929 0
1.2305994 -0.40802017 -0.090169929 0
1.4706354 -0.29454955 -0.08901871 0
1.8589242 -0.11099651 -0.090852104 0
3.1215603 0.48588076 -0.14033557 0
4.6997437 1.2319245 -0.1409895 0
9.4064102 3.4568746 -0.14091317 0
0.81520444 -0.57894063 -0.09284132 0
0.89863902 -0.53689164 -0.088363893 0
1.0418854 -0.46469912 -0.090602525 0
1.2080694 -0.38094649 -0.088993974 0
1.4481004 -0.25997683 -0.088424779 0
1.8333267 -0.065832406 -0.090554647 0
3.0927525 0.56888682 -0.1410719 0
4.6377387 1.3475213 -0.1407567 0
9.2946901 3.6945088 -0.14100313 0
0.79550427 -0.56339854 -0.090649672 0
0.89813811 -0.50838351 -0.090757243 0
1.0352547 -0.43488464 -0.091896035 0
1.1971862 -0.34808406 -0.089767359 0
1.4368024 -0.21964207 -0.089427806 0
1.8135562 -0.01768985 -0.090990208 0
3.0511005 0.64567393 -0.14096455 0
4.5779643 1.4641223 -0.14079165 0
9.1652632 3.9230626 -0.1407844 0
0.78814775 -0.5414151 -0.091540404 0
0.87595552 -0.49145526 -0.088641517 0
1.0171144 -0.41114023 -0.091173179 0
1.1783936 -0.31937745 -0.089406215 0
1.2099046 -0.30144867 -0.061590288 0
1.2257446 -0.29243615 -0.030559054 0
2.9995661 0.71681315 -0.14021559 0
4.5149846 1.5790391 -0.14081198 0
9.0472565 4.1577606 -0.14102125 0
0.77949679 -0.51994824 -0.092260174 0
0.87039578 -0.46514842 -0.090242557 0
1.0014976 -0.38611171 -0.091037698 0
1.1667274 -0.28650042 -0.090327017 0
1.1418333 -0.30150822 -0.054721612 0
1.1978296 -0.26774994 -0.029475396 0
2.959116 0.79406828 -0.14050548 0
4.4482975 1.691844 -0.14078759 0
8.9041023 4.3780932 -0.14073865 0
0.76128024 -0.5043624 -0.09071555 0
0.86579812 -0.4377 -0.092231669 0
0.98742056 -0.36012807 -0.09132237 0
1.1438556 -0.26035252 -0.089532144 0
1.1421752 -0.26142427 -0.057224918 0
1.1846215 -0.23435166 -0.030070802 0
2.916795 0.87044412 -0.14080538 0
4.3771915 1.801898 -0.14067481 0
8.7675056 4.6020794 -0.14078449 0
0.74433547 -0.48834416 -0.089570425 0
0.83992505 -0.42392674 -0.089578696 0
0.96301228 -0.34097871 -0.089693315 0
1.1325644 -0.22671816 -0.090797164 0
1.1452962 -0.21813831 -0.060304228 0
1.1553082 -0.21139124 -0.02895779 0
2.8617518 0.93857449 -0.14019908 0
4.3029432 1.9097877 -0.14053835 0
8.6243038 4.8219357 -0.14080314 0
0.73489386 -0.46730521 -0.090466268 0
0.83080298 -0.39909157 -0.090829052 0
0.94813091 -0.31564417 -0.090052806 0
1.1115466 -0.19941774 -0.09055277 0
1.1510867 -0.17129555 -0.063977443 0
1.1444802 -0.17599425 -0.030007755 0
2.8273618 1.020925 -0.14149985 0
4.2303624 2.0187838 -0.1406489 0
8.4802675 5.0414529 -0.14095525 0
0.72168964 -0.44880411 -0.090519331 0
0.80367494 -0.38732067 -0.088010348 0
0.92557311 -0.2959052 -0.088972338 0
1.0743535 -0.18432996 -0.087582253 0
1.1001254 -0.16500267 -0.059601221 0
1.0979481 -0.16663554 -0.027015379 0
1.0952678 -0.16864559 0.0053466801 0
1.1021154 -0.16351035 0.036893409 0
1.0983093 -0.1663647 0.069079511 0
1.1016134 -0.16388682 0.10100967 0
1.0944324 -0.16927215 0.13282669 0
1.1043569 -0.16182944 0.16525674 0
1.1010817 -0.16428557 0.19718105 0
0.70673621 -0.43165067 -0.090224855 0
0.80196464 -0.35640809 -0.091307096 0
0.91587198 -0.2664068 -0.09066648 0
1.0526639 -0.15832385 -0.087396376 0
1.09894 -0.12175986 -0.062574618 0
1.1008 -0.12029013 -0.02986539 0
1.1073343 -0.1151273 0.002395699 0
1.1104743 -0.11264625 0.035140429 0
1.093516 -0.12604555 0.068595938 0
1.1057924 -0.11634555 0.1010106 0
1.102591 -0.11887506 0.13369398 0
1.1013408 -0.11986288 0.1663387 0
1.1008402 -0.12025848 0.19904691 0
0.69118196 -0.41506919 -0.08987654 0
0.77630055 -0.34425417 -0.088993989 0
0.90406126 -0.23796275 -0.092103086 0
1.0268918 -0.13577303 -0.086579002 0
1.0957987 -0.078445405 -0.06547799 0
1.1031572 -0.072323531 -0.032856304 0
1.1010927 -0.074041039 0.00092549832 0
1.0977743 -0.076801866 0.034548651 0
1.0981197 -0.076514453 0.067787424 0
1.0980561 -0.076567382 0.10101114 0
1.1030427 -0.07241872 0.13438416 0
1.1024243 -0.072933227 0.16775574 0
1.1022165 -0.0731062 0.20119968 0
0.67359316 -0.40035978 -0.089062624 0
0.76752388 -0.3181158 -0.090932943 0
0.88163769 -0.21819982 -0.091408588 0
0.99893075 -0.1155003 -0.085439704 0
1.1026336 -0.024700012 -0.070163883 0
1.0999306 -0.027066674 -0.035369877 0
1.1004668 -0.026597228 -0.0011946613 0
1.1041574 -0.023365762 0.032707442 0
1.099594 -0.027361419 0.067019358 0
1.0965308 -0.030043509 0.10101197 0
1.093419 -0.032768216 0.13481355 0
1.0955173 -0.030930962 0.16878195 0
1.1088128 -0.019289639 0.20399545 0
1.0987656 -0.028086748 0.23725019 0
1.0816895 -0.043038335 0.37160903 0
0.65883869 -0.38328257 -0.089154817 0
0.7379753 -0.31038371 -0.087765135 0
0.85501987 -0.20256492 -0.089870758 0
0.96034282 -0.10554382 -0.082339801 0
1.0580924 -0.01549926 -0.067009173 0
1.0969872 0.020329867 -0.038121793 0
1.0986968 0.02190474 -0.0033684426 0
1.0973694 0.020682011 0.031572249 0
1.1020498 0.024993453 0.066163436 0
1.0999895 0.023095522 0.10101306 0
1.1069181 0.029477987 0.13601714 0
1.0958818 0.019311581 0.17035957 0
1.0974455 0.020751987 0.20527583 0
1.1012714 0.02427629 0.24069244 0
1.0359091 -0.035933997 0.36608571 0
0.64955479 -0.36085424 -0.090994529 0
0.73146963 -0.28148332 -0.09061294 0
0.83549398 -0.1806896 -0.090007119 0
0.84459209 -0.17187402 -0.064112313 0
0.84105855 -0.17529789 -0.035742823 0
0.83740079 -0.17884198 -0.0077396166 0
0.83924276 -0.17705724 0.019370193 0
0.83264101 -0.18345395 0.047058478 0
0.83723533 -0.17900231 0.073896825 0
0.84251213 -0.17388943 0.10100385 0
0.83926231 -0.17703828 0.12817627 0
0.83211172 -0.18396685 0.15491423 0
0.84329122 -0.17313454 0.18303199 0
1.0926436 0.068473846 0.24294175 0
1.016167 -0.0056275991 0.29970992 0
1.0064588 -0.015034344 0.33115482 0
0.98656273 -0.034312453 0.35953683 0
0.63807124 -0.34002343 -0.092384242 0
0.71986824 -0.25666371 -0.092358224 0
0.82509112 -0.14943048 -0.092415817 0
0.85088331 -0.12314555 -0.069566883 0
0.83997726 -0.13425997 -0.039034177 0
0.84267259 -0.13151315 -0.01120284 0
0.84445542 -0.12969628 0.016777674 0
0.83855891 -0.13570538 0.045296039 0
0.82990479 -0.14452484 0.073452652 0
0.84119654 -0.13301739 0.10100465 0
0.82887447 -0.1455749 0.12852147 0
0.8423965 -0.13179448 0.15696858 0
0.84153664 -0.13267079 0.18494064 0
0.84135813 -0.1328527 0.21303757 0
1.0987568 0.12946358 0.28424826 0
0.94792247 -0.024252381 0.29105765 0
0.94346893 -0.028791036 0.32221389 0
0.9618361 -0.010072973 0.35945135 0
0.61938971 -0.32640341 -0.091730796 0
0.6930486 -0.24744728 -0.090120099 0
0.79507405 -0.13808468 -0.090352438 0
0.84444249 -0.085165888 -0.072797947 0
0.84295309 -0.086762398 -0.043285955 0
0.83910066 -0.090891868 -0.013712166 0
0.84191817 -0.08787176 0.014787475 0
0.83760542 -0.092494696 0.043873098 0
0.83663791 -0.093531698 0.07248769 0
0.83657873 -0.093595177 0.10100537 0
0.84314102 -0.086560935 0.12974529 0
0.83603197 -0.094181269 0.15803036 0
0.84284782 -0.08687529 0.1873194 0
0.83846736 -0.091570705 0.21563701 0
1.0964041 0.18491545 0.28874347 0
0.93283564 0.0095840432 0.29302871 0
0.93439698 0.011257682 0.32594061 0
0.92342436 -0.0005040433 0.3557505 0
0.60435581 -0.30888185 -0.092335753 0
0.67316782 -0.23128513 -0.089852415 0
0.77213496 -0.11968365 -0.090052851 0
0.85193014 -0.029701617 -0.07927265 0
0.83695114 -0.046592858 -0.046287168 0
0.83691978 -0.046628263 -0.01663178 0
0.84094554 -0.042088535 0.012465315 0
0.8388986 -0.044396844 0.042176004 0
0.83848685 -0.044861104 0.071621574 0
0.83905435 -0.044221189 0.10100646 0
0.83302271 -0.051022794 0.13019939 0
0.83905309 -0.044222619 0.15984792 0
0.84522855 -0.037258711 0.18999977 0
0.84056544 -0.042517211 0.21915834 0
1.0974671 0.24718097 0.29421353 0
1.1044402 0.25504437 0.33479506 0
0.58673513 -0.29418442 -0.09224961 0
0.65869588 -0.20879039 -0.091275074 0
0.72495246 -0.13016543 -0.083677717 0
0.85658443 0.026039038 -0.085626982 0
0.83943093 0.0056833359 -0.051099066 0
0.84503341 0.012331638 -0.02129071 0
0.83744329 0.0033246612 0.010223517 0
0.83880365 0.0049390527 0.040441215 0
0.83672893 0.0024769639 0.070815615 0
0.84284526 0.0097350217 0.10100769 0
0.83949602 0.0057606432 0.13129936 0
0.84302264 0.009945605 0.16187915 0
0.83349329 -0.0013627078 0.19136287 0
0.84163105 0.0082942583 0.22281383 0
0.84374177 0.010798965 0.25389743 0
1.0925878 0.30609825 0.33913562 0
0.56870097 -0.280013 -0.092144363 0
0.63415939 -0.19823369 -0.089878254 0
0.73011333 -0.078355342 -0.090796717 0
0.84608293 0.066529185 -0.089087762 0
0.85460103 0.077171236 -0.058681417 0
0.84497774 0.065148503 -0.025097391 0
0.84416741 0.064136177 0.0066396389 0
0.84638238 0.066903383 0.037987884 0
0.84456068 0.064627439 0.069583282 0
0.83918101 0.057906423 0.10100869 0
0.83406776 0.051518355 0.13204326 0
0.83520937 0.052944575 0.16319692 0
0.83462095 0.052209411 0.19430971 0
0.84279257 0.062418494 0.22678937 0
0.83830237 0.056808744 0.25765145 0
1.0992405 0.38280717 0.34806398 0
1.0975752 0.38072661 0.38948464 0
0.55233526 -0.2636629 -0.092745446 0
0.61996675 -0.17465517 -0.091736265 0
0.70142466 -0.06745097 -0.089310028 0
0.72863448 -0.031640913 -0.068056397 0
0.73185289 -0.027405288 -0.040219624 0
0.73180431 -0.027469125 -0.01178289 0
0.73616374 -0.02173182 0.016017439 0
0.73182082 -0.027447488 0.044732027 0
0.73483211 -0.023484375 0.072767958 0
0.72850347 -0.03181329 0.10100473 0
0.72648972 -0.034463551 0.12892075 0
0.73644471 -0.021362092 0.15763414 0
0.72755051 -0.033067491 0.18499698 0
0.72707057 -0.033699121 0.21306249 0
0.7280463 -0.032414999 0.24149464 0
0.72717154 -0.033566203 0.26972726 0
0.73545909 -0.022659268 0.30056763 0
0.72522205 -0.036131885 0.32651624 0
0.52878034 -0.25701812 -0.090901963 0
0.59389651 -0.16667643 -0.090022869 0
0.68301201 -0.043038215 -0.090734906 0
0.7230202 0.012468848 -0.072570048 0
0.95769417 0.33805373 -0.090258069 0
0.85350472 0.1935021 -0.035121325 0
0.8485902 0.18668368 -0.00037109642 0
0.83788157 0.17182663 0.034336861 0
0.84193271 0.17744711 0.067531012 0
0.83689505 0.17045799 0.10101121 0
0.83628023 0.16960493 0.13426663 0
0.84108448 0.17627028 0.16794117 0
0.83815444 0.17220524 0.20114633 0
0.84416366 0.18054238 0.23565404 0
0.84249967 0.17823377 0.26925716 0
0.83816117 0.17221466 0.30226782 0
1.1024176 0.5388419 0.4106715 0
0.50685239 -0.24874148 -0.089664467 0
0.57689244 -0.1462104 -0.091338538 0
0.65477669 -0.032196309 -0.089527674 0
0.76451796 0.12845305 -0.089263611 0
0.9233163 0.36091664 -0.090137266 0
1.1517487 0.69531685 -0.0894574 0
0.84941941 0.25273958 -0.0041846912 0
0.84555417 0.24708131 0.031263683 0
0.83945918 0.23815885 0.066408522 0
0.83687526 0.23437634 0.10101271 0
0.84100825 0.24042657 0.1356812 0
0.84558052 0.24711993 0.17076497 0
0.84488606 0.24610332 0.20564948 0
0.83936077 0.23801485 0.2397905 0
0.84580481 0.24744824 0.27610448 0
0.84261292 0.24277571 0.31074834 0
1.1022103 0.62279803 0.42195141 0
1.0972571 0.61554724 0.46715289 0
0.48785967 -0.23644045 -0.089606978 0
0.55435699 -0.13361832 -0.090963833 0
0.62654793 -0.021992233 -0.088355787 0
0.73753619 0.14962462 -0.089642249 0
0.88740289 0.38135758 -0.089803107 0
1.1086348 0.72343975 -0.089415602 0
1.4825872 1.3016677 -0.089764185 0
0.85650396 0.33357981 0.027627656 0
0.83724684 0.30380324 0.065165855 0
0.83441865 0.29943004 0.10101421 0
0.84529197 0.31624308 0.13720821 0
0.83506143 0.30042401 0.17256281 0
0.84234434 0.31168535 0.20937259 0
0.83516884 0.30059007 0.24444123 0
0.84115267 0.30984262 0.28187966 0
0.83938771 0.30711356 0.31803077 0
0.8431958 0.31300178 0.35595471 0
1.1015744 0.71252245 0.48282027 0
0.47093734 -0.22075227 -0.090514712 0
0.53295815 -0.11932847 -0.091096275 0
0.60124457 -0.0076582697 -0.088135816 0
0.70668757 0.16477469 -0.089136295 0
0.85425037 0.40608719 -0.090186752 0
1.0702045 0.75924128 -0.090334572 0
1.4199928 1.3312569 -0.08918535 0
0.84748572 0.39502469 0.025429601 0
0.85336626 0.40464142 0.062981531 0
0.83893734 0.38104549 0.10101625 0
0.8398236 0.38249472 0.13844755 0
0.83927983 0.38160554 0.17587087 0
0.84464931 0.39038637 0.21411996 0
0.84225798 0.38647571 0.25158441 0
0.84067571 0.38388827 0.28917962 0
0.83776891 0.37913468 0.32648149 0
0.83939171 0.3817884 0.36519551 0
1.098199 0.80502123 0.49723509 0
0.45060343 -0.21051332 -0.090177469 0
0.51001143 -0.10761586 -0.090784632 0
0.57758641 0.0094271637 -0.088563286 0
0.67629421 0.18039373 -0.088841043 0
0.8179372 0.42572609 -0.089991622 0
1.0267055 0.78732258 -0.090513505 0
1.3676325 1.3778243 -0.090113901 0
1.375512 1.3914719 -0.027011668 0
0.85409528 0.48835352 0.06129957 0
0.83812547 0.46069315 0.1010182 0
0.84451061 0.47175243 0.14029191 0
0.84246844 0.46821538 0.17941752 0
0.8406446 0.46505645 0.21846832 0
0.8394497 0.46298686 0.2575939 0
0.84183407 0.46711662 0.29761556 0
0.84046805 0.46475068 0.33702376 0
0.83674824 0.45830777 0.37578917 0
0.83859336 0.46150354 0.41660172 0
0.43103868 -0.19899818 -0.090278752 0
0.48969382 -0.091212422 -0.091608174 0
0.55941027 0.036899839 -0.091041036 0
0.6456542 0.1953831 -0.088572703 0
0.77961016 0.44154313 -0.089413457 0
0.98540032 0.81970686 -0.091264777 0
1.2951096 1.388834 -0.088305704 0
1.2921867 1.3834629 -0.024789205 0
1.2910737 1.3814175 0.038217355 0
0.85075659 0.57228309 0.10102115 0
0.83538097 0.54402858 0.14165735 0
0.83521348 0.54372078 0.18232226 0
0.84046626 0.5533734 0.22385259 0
0.83995092 0.5524264 0.26490381 0
0.84078056 0.55395097 0.30641267 0
0.84053963 0.55350822 0.34791425 0
0.84238786 0.55690449 0.39038342 0
0.84117264 0.55467135 0.43215212 0
0.4127292 -0.18494645 -0.091103159 0
0.46679401 -0.079333097 -0.091573127 0
0.5324592 0.04894105 -0.090723105 0
0.62036186 0.22065511 -0.090054117 0
0.74909645 0.47213271 -0.090910159 0
0.93796903 0.8410874 -0.090962611 0
1.2474587 1.4456623 -0.090263866 0
1.2434341 1.4378002 -0.025966695 0
1.2484263 1.4475527 0.037320416 0
1.2515407 1.4536362 0.10104875 0
0.85067987 0.67057174 0.14443229 0
0.8438431 0.65721637 0.18718874 0
0.83827263 0.64633471 0.22953323 0
0.84614724 0.66171747 0.27420157 0
0.84354275 0.65662974 0.31718183 0
0.83392698 0.6378457 0.35796666 0
0.83736688 0.6445654 0.40274417 0
0.84226525 0.65413409 0.44882163 0
0.39385727 -0.17157999 -0.091865696 0
0.43724084 -0.081285268 -0.088769771 0
0.51199371 0.074298769 -0.0929619 0
0.58748299 0.23141566 -0.089355282 0
0.71113265 0.4887692 -0.090680115 0
0.89070737 0.8625204 -0.090794273 0
1.1868324 1.4788489 -0.090458684 0
1.7885103 2.7311287 -0.091187112 0
4.5041504 8.3832254 -0.14079252 0
0.84902996 0.77577657 0.1922472 0
0.84621936 0.76992685 0.23752746 0
0.83736914 0.75150675 0.28135028 0
0.83971316 0.75638551 0.32743305 0
0.84022844 0.75745791 0.37342635 0
0.83805281 0.75292975 0.41875574 0
0.84634387 0.77018601 0.46875221 0
0.37388003 -0.16019437 -0.092269637 0
0.41644233 -0.065563709 -0.089803047 0
0.48155198 0.079197437 -0.091582157 0
0.55953878 0.2525889 -0.090397544 0
0.67252922 0.5038057 -0.090371154 0
0.84121209 0.87884575 -0.090227894 0
1.1181192 1.4945054 -0.089425512 0
1.6906177 2.7673666 -0.090795122 0
4.2631869 8.4870739 -0.1406195 0
1.0658532 1.3783002 0.22197703 0
0.85218161 0.90323478 0.24616143 0
0.83847588 0.87276226 0.29166365 0
0.84078038 0.87788588 0.34036908 0
0.84164065 0.87979871 0.38910764 0
0.83900958 0.87394875 0.43686488 0
0.838669 0.87319165 0.48574141 0
0.34880635 -0.16066441 -0.090053134 0
0.39549276 -0.049445059 -0.091014408 0
0.44960797 0.079471618 -0.089530386 0
0.52785164 0.26586881 -0.090333857 0
0.63930243 0.53137404 -0.091778062 0
0.79855716 0.91076082 -0.091372781 0
1.0634834 1.5418849 -0.090940662 0
1.5965503 2.8117912 -0.090946041 0
4.0281491 8.6045017 -0.1409449 0
0.99684763 1.383141 0.22090162 0
0.85092241 1.0355086 0.25461456 0
0.83822942 1.0052706 0.30300543 0
0.83872509 1.0064515 0.35406142 0
0.84311044 1.0168986 0.40686885 0
0.84079772 1.011389 0.45770708 0
0.8424809 1.0153987 0.51060188 0
0.32715279 -0.15378049 -0.089681543 0
0.37183347 -0.039330091 -0.091107421 0
0.41992423 0.083855182 -0.088366695 0
0.49053162 0.26471713 -0.088214852 0
0.59742433 0.53852469 -0.090715267 0
0.74935108 0.92768759 -0.091113053 0
0.99851 1.5659125 -0.09079244 0
1.4958979 2.8399799 -0.090403341 0
3.7836258 8.7000341 -0.14086944 0
0.92733461 1.3835952 0.21970485 0
0.84795147 1.180254 0.263924 0
0.84162074 1.1640379 0.31686953 0
0.84433663 1.1709948 0.37214234 0
0.84107381 1.162637 0.42575416 0
0.83672822 1.1515055 0.47880945 0
0.84390587 1.1698911 0.53768402 0
0.30791086 -0.14044407 -0.090895928 0
0.34915906 -0.026370134 -0.091889597 0
0.39553586 0.10188714 -0.089730419 0
0.43645057 0.21503881 -0.079004712 0
0.43564498 0.2128109 -0.048426006 0
0.43830106 0.22015646 -0.01907344 0
0.93231529 1.5863769 -0.090503208 0
1.4027499 2.8873868 -0.090943314 0
3.5353763 8.7852707 -0.14069344 0
0.86153257 1.390624 0.21893217 0
0.84997594 1.3586636 0.27565917 0
0.84013313 1.3314426 0.33145711 0
0.84118748 1.3343585 0.38989481 0
0.84182733 1.3361282 0.44862494 0
0.8380543 1.3256936 0.50569504 0
0.83544677 1.3184824 0.56333083 0
0.28682816 -0.13167301 -0.091186516 0
0.32413256 -0.01975229 -0.091520183 0
0.36643505 0.1071637 -0.088980056 0
0.40160111 0.21266893 -0.07708279 0
0.40324596 0.21760371 -0.047712509 0
0.40580383 0.22527793 -0.018529592 0
0.8768819 1.638607 -0.092680849 0
1.3033301 2.9180372 -0.090772368 0
3.2919178 8.884201 -0.14100876 0
0.78974366 1.3771749 0.21724179 0
0.84926611 1.5557539 0.28867009 0
0.83909249 1.5252311 0.34852374 0
0.8396073 1.5267756 0.41108951 0
0.84021282 1.5285923 0.47411317 0
0.84032905 1.5289409 0.53738576 0
0.83714348 1.5193837 0.59919441 0
0.26884043 -0.1124855 -0.093908794 0
0.29664886 -0.021460082 -0.089638822 0
0.34198111 0.12692598 -0.090851583 0
0.38208675 0.25820389 -0.082344867 0
0.38077477 0.25390938 -0.050955851 0
0.3774907 0.24315956 -0.019315666 0
0.7284084 1.3918192 -0.073086567 0
0.72522789 1.3814085 -0.01443225 0
0.72191763 1.3705728 0.043599136 0
0.7275449 1.3889925 0.10104139 0
0.72628629 1.3848729 0.15883113 0
0.72696179 1.387084 0.21679151 0
0.84353685 1.7686694 0.30274022 0
0.83553499 1.7424767 0.36775279 0
0.83792108 1.7502871 0.43592823 0
0.83708531 1.7475514 0.50330675 0
0.83445179 1.7389312 0.56998253 0
0.24161714 -0.1240392 -0.089930169 0
0.27107781 -0.018110599 -0.088895418 0
0.3107926 0.12468746 -0.089062594 0
0.36417669 0.3166348 -0.089523382 0
0.44360971 0.60224336 -0.092097513 0
0.55126399 0.98932391 -0.090723969 0
0.65959579 1.3788407 -0.070868008 0
0.6617741 1.386673 -0.013840092 0
0.65939248 1.3781095 0.043838102 0
0.66186607 1.3870037 0.10104081 0
0.66021895 1.3810813 0.15831496 0
0.66025716 1.3812187 0.21565813 0
0.81280369 1.9297132 0.3129555 0
0.81213808 1.9273202 0.38371503 0
0.81609243 1.9415383 0.45668316 0
0.80723524 1.9096916 0.52401638 0
0.81345898 1.9320698 0.59950119 0
0.22066587 -0.11443391 -0.090764977 0
0.24893804 -0.0018481876 -0.090790145 0
0.28426632 0.13883653 -0.090195678 0
0.33127189 0.32602265 -0.089616068 0
0.39438918 0.57736903 -0.087815382 0
0.49972349 0.99683255 -0.090171002 0
0.59792423 1.3878884 -0.070376717 0
0.59724891 1.3851993 -0.013005381 0
0.59613371 1.3807583 0.044154782 0
0.598378 1.3896956 0.10104042 0
0.59448159 1.3741794 0.15776752 0
0.59686702 1.3836784 0.21501318 0
0.77202845 2.0812085 0.32247362 0
0.77100021 2.0771136 0.39625835 0
0.76782346 2.0644634 0.46913618 0
0.76757097 2.0634577 0.54349095 0
0.20005544 -0.10233936 -0.092252888 0
0.22580667 0.012388382 -0.092391305 0
0.25827453 0.15704027 -0.09211845 0
0.2963649 0.32674184 -0.088579647 0
0.35764825 0.59977347 -0.089369766 0
0.44884375 1.0060705 -0.089911409 0
0.55172336 1.4644232 -0.074835412 0
0.5544914 1.4767554 -0.016692033 0
0.55113399 1.4617972 0.042563554 0
0.55498588 1.4789586 0.10104261 0
0.55230677 1.4670224 0.15964557 0
0.55371648 1.4733028 0.21861252 0
0.71152264 2.1763661 0.32797223 0
0.7129482 2.1827171 0.40460062 0
0.71313256 2.1835387 0.48120403 0
0.71571732 2.1950543 0.55980581 0
0.17580014 -0.10675207 -0.090269439 0
0.20195982 0.025304828 -0.093843408 0
0.22496857 0.14145556 -0.088480763 0
0.2647832 0.34244433 -0.08982154 0
0.32118845 0.62718421 -0.091623671 0
0.39731038 1.011456 -0.089409031 0
0.41447309 1.0980952 -0.047793318 0
0.41628042 1.1072187 0.0014714545 0
0.41571334 1.1043561 0.051346231 0
0.41652027 1.1084297 0.10103144 0
0.41524252 1.1019795 0.15066002 0
0.41677511 1.1097162 0.2007103 0
0.41434091 1.0974281 0.24980862 0
0.41418695 1.0966508 0.29957893 0
0.41715211 1.1116192 0.35140613 0
0.40766558 1.0637302 0.39521956 0
0.27028787 0.37023249 0.36209601 0
0.1535808 -0.10201934 -0.090399422 0
0.17389673 0.016100083 -0.091176786 0
0.19656457 0.1478937 -0.088671945 0
0.23068497 0.34627369 -0.089478903 0
0.27907863 0.62764055 -0.090780698 0
0.34562811 1.0145674 -0.088816948 0
0.36888438 1.1497819 -0.050766844 0
0.88088483 4.126615 -0.14069602 0
1.7641964 9.2622967 -0.14088343 0
0.58243656 2.3914006 0.26086465 0
0.58081293 2.3819604 0.34030962 0
0.57995754 2.3769872 0.41999045 0
0.26179793 0.52716845 0.28089562 0
0.27142331 0.58313161 0.32528809 0
0.27288812 0.59164816 0.36470932 0
0.23732756 0.38489464 0.36368278 0
0.13098747 -0.099532515 -0.090167172 0
0.14879827 0.022357736 -0.091598354 0
0.16790557 0.15312055 -0.088780589 0
0.19885314 0.36491373 -0.091363512 0
0.2374883 0.6293177 -0.090210803 0
0.29672667 1.0347221 -0.089958049 0
0.39584824 1.7130716 -0.089956544 0
0.75102097 4.1437359 -0.14053363 0
1.5036471 9.2944155 -0.14066949 0
0.50801879 2.4807231 0.26443195 0
0.50474763 2.4583366 0.3447516 0
0.5047912 2.4586349 0.42641944 0
0.22150344 0.51992363 0.27931884 0
0.27674818 0.89799732 0.36912763 0
0.20143802 0.38260368 0.36219436 0
0.11028042 -0.081723958 -0.093338273 0
0.12236415 0.018607054 -0.090240352 0
0.13794018 0.14793471 -0.087285094 0
0.16423425 0.36625424 -0.090907566 0
0.19803713 0.64691931 -0.091641001 0
0.2466698 1.0507159 -0.090820722 0
0.32727495 1.71998 -0.089802034 0
0.62268949 4.1728048 -0.14108594 0
1.2443529 9.3344707 -0.14079632 0
0.42519718 2.5330274 0.2663388 0
0.42406175 2.5235999 0.34853244 0
0.42450947 2.5273175 0.43178803 0
0.42492002 2.5307262 0.51554477 0
0.23128289 0.92295855 0.37176213 0
0.16614787 0.38214293 0.36122996 0
0.086440749 -0.088801235 -0.091299973 0
0.096906565 0.021468554 -0.090262957 0
0.11205775 0.18110433 -0.092250325 0
0.13022561 0.37252417 -0.091272093 0
0.15634786 0.64775306 -0.091216318 0
0.1958513 1.0639687 -0.091542982 0
0.25912374 1.7306194 -0.090031601 0
0.49097458 4.1734433 -0.14045908 0
0.98389202 9.3669147 -0.14089811 0
0.34039664 2.5869257 0.26841375 0
0.34068796 2.5899951 0.35252711 0
0.3396692 2.5792611 0.43576375 0
0.3401089 2.583894 0.52066499 0
0.3408584 2.5917909 0.60670781 0
0.17266057 0.81962699 0.39971131 0
0.13084336 0.379033 0.35993528 0
0.063112818 -0.095282704 -0.089520551 0
0.071520187 0.025677118 -0.09066131 0
0.080674209 0.15737918 -0.087941296 0
0.095250338 0.36709121 -0.090108402 0
0.11455443 0.64482599 -0.090475194 0
0.14177179 1.0364118 -0.0885657 0
0.1916097 1.7534473 -0.091235571 0
0.36095983 4.1899481 -0.14072905 0
0.72296536 9.3982506 -0.14112727 0
0.25289065 2.6351182 0.27031857 0
0.25304255 2.6373038 0.35532391 0
0.13336726 0.91549283 0.2793026 0
0.13387683 0.9228242 0.32509586 0
0.13394982 0.9238742 0.37059695 0
0.12517591 0.79764098 0.39546886 0
0.095777199 0.37467137 0.35857493 0
0.041147485 -0.080168396 -0.092463396 0
0.046284132 0.036074433 -0.092346914 0
0.052232016 0.17067567 -0.089857943 0
0.061309803 0.37610677 -0.091102771 0
0.073642343 0.65519327 -0.091413625 0
0.090771057 1.0428176 -0.088892542 0
0.12171212 1.7430167 -0.090230174 0
0.23041742 4.2030277 -0.14099215 0
0.4601849 9.4026871 -0.14088354 0
0.1633532 2.6853583 0.2724199 0
0.16277309 2.67223 0.35740542 0
0.086522892 0.94668144 0.28196281 0
0.085836388 0.93114573 0.32574862 0
0.086772151 0.95232219 0.37421396 0
0.076714791 0.72472316 0.38304666 0
0.061655954 0.38394013 0.35995376 0
0.018096745 -0.084719926 -0.091341771 0
0.020381942 0.036005769 -0.092180111 0
0.022933077 0.17078093 -0.089723371 0
0.026865978 0.37855402 -0.091293864 0
0.032121096 0.65617925 -0.091375746 0
0.039509114 1.0464842 -0.089083739 0
0.052925855 1.7552836 -0.090935715 0
0.099210322 4.2004676 -0.14068036 0
0.19773573 9.4055128 -0.14075674 0
0.070876449 2.7036045 0.27313408 0
0.070774741 2.698231 0.35902083 0
0.070787758 2.6989188 0.44550341 0
0.070649981 2.6916399 0.53146327 0
0.032692362 0.68635875 0.37651351 0
0.02692946 0.38190773 0.35936463 0
-0.004599453 -0.1055837 -0.086876221 0
-0.0054151532 0.023745332 -0.089840032 0
-0.0063302233 0.16882935 -0.08937227 0
-0.0076513896 0.37829998 -0.091227554 0
-0.0093651898 0.65002245 -0.090625547 0
-0.011943917 1.0588789 -0.090210415 0
-0.01631769 1.7523396 -0.090699337 0
-0.031782087 4.2042155 -0.14081635 0
-0.06455379 9.4001589 -0.14059377 0
-0.022465628 2.7270932 0.27420154 0
-0.022388769 2.7149072 0.36014655 0
-0.022454727 2.7253649 0.44791862 0
-0.022485204 2.7301967 0.53590333 0
-0.0093270866 0.64398128 0.36950222 0
-0.0076624425 0.38005236 0.35897392 0
-0.027837722 -0.076110989 -0.093233846 0
-0.031159665 0.029176388 -0.090954654 0
-0.035270229 0.15945867 -0.087922327 0
-0.042269185 0.38128713 -0.091739379 0
-0.050817885 0.65223402 -0.090975679 0
-0.063783057 1.0631588 -0.090701424 0
-0.085807316 1.7612069 -0.091411106 0
-0.11914018 2.8176754 -0.076349862 0
-0.11866988 2.8027699 0.012759382 0
-0.11891329 2.8104846 0.10107893 0
-0.11852244 2.7980967 0.18928918 0
-0.11690737 2.7469077 0.27520835 0
-0.11636086 2.7295864 0.36129794 0
-0.11686657 2.7456148 0.44997659 0
-0.11659613 2.7370434 0.53691202 0
-0.050752141 0.65015024 0.37064525 0
-0.042267531 0.38123468 0.35932001 0
-0.050222348 -0.08850643 -0.090811469 0
-0.057021055 0.031114373 -0.091534384 0
-0.065534599 0.18090716 -0.09166386 0
-0.076822132 0.37950733 -0.091703855 0
-0.091866478 0.64420718 -0.090250202 0
-0.11621953 1.0726905 -0.091806389 0
-0.15438326 1.7441678 -0.090432651 0
-0.21435215 2.799299 -0.075690813 0
-0.21405204 2.7940187 0.012864763 0
-0.21395957 2.792392 0.10107853 0
-0.21409677 2.7948058 0.18931088 0
-0.21098427 2.7400427 0.27508223 0
-0.21068852 2.734839 0.36195648 0
-0.21114244 2.7428253 0.45010501 0
-0.077626802 0.39366522 0.26294222 0
-0.076338187 0.37099245 0.29252541 0
-0.076650746 0.37649181 0.32588133 0
-0.076782189 0.37880448 0.35914966 0
-0.073518269 -0.08297345 -0.092328198 0
-0.083035938 0.032823954 -0.092195414 0
-0.093309596 0.15781918 -0.088194691 0
-0.11065138 0.36880937 -0.090533577 0
-0.13286887 0.6391204 -0.089989342 0
-0.16800733 1.0666351 -0.091577686 0
-0.22443378 1.7531517 -0.091398813 0
-0.42486092 4.1916642 -0.14104056 0
-0.85055494 9.370903 -0.14072102 0
-0.30560118 2.7406809 0.27541772 0
-0.30397722 2.7209227 0.36143765 0
-0.30498663 2.7332039 0.44981626 0
-0.30540028 2.7382367 0.53830457 0
-0.11407545 0.41046873 0.29843047 0
-0.11394686 0.40890399 0.33162302 0
-0.11229116 0.38875988 0.36148489 0
-0.095832571 -0.090058118 -0.09127707 0
-0.10629164 0.0070957872 -0.08778467 0
-0.12327489 0.16485241 -0.089810871 0
-0.1450008 0.36666337 -0.090689458 0
-0.17491101 0.64449817 -0.091079392 0
-0.21825054 1.0470769 -0.090203293 0
-0.29039839 1.7172551 -0.089336075 0
-0.55387747 4.164701 -0.14035837 0
-1.1139194 9.3669062 -0.14120711 0
-0.3988606 2.7247558 0.27508944 0
-0.39759421 2.7129922 0.36150414 0
-0.39755622 2.7126396 0.44872096 0
-0.39753279 2.7124219 0.53631723 0
-0.14933026 0.40687969 0.29839644 0
-0.14920224 0.40569046 0.33164471 0
-0.14667659 0.38222972 0.36087212 0
-0.11926769 -0.086953193 -0.092528053 0
-0.13315591 0.017269049 -0.090292297 0
-0.15287216 0.16522709 -0.090453692 0
-0.17854924 0.35791722 -0.090032823 0
-0.216387 0.64186543 -0.091353558 0
-0.27090183 1.0509646 -0.09115126 0
-0.36018738 1.7209957 -0.090179153 0
-0.68393803 4.1505384 -0.14042777 0
-1.3726662 9.319006 -0.14082071 0
-0.491427 2.7058654 0.27473113 0
-0.49039599 2.6981282 0.36124799 0
-0.24199668 0.83404988 0.27277213 0
-0.24088933 0.8257398 0.31508029 0
-0.18507318 0.40687516 0.29899675 0
-0.18526009 0.40827778 0.33277598 0
-0.18192214 0.38322869 0.36185309 0
-0.14045973 -0.099936455 -0.090448447 0
-0.15819539 0.011587773 -0.089915313 0
-0.18192013 0.16077211 -0.090419464 0
-0.21485014 0.36784044 -0.092150502 0
-0.25933021 0.64753705 -0.092735209 0
-0.31953987 1.0261436 -0.089515068 0
