# .PCD v0.7 - Point Cloud Data file format
VERSION 0.7
FIELDS x y z intensity
SIZE 4 4 4 4
TYPE F F F F
COUNT 1 1 1 1
WIDTH 1332
HEIGHT 1
VIEWPOINT 0 0 0 1 0 0 0
POINTS 1332
DATA ascii
0.78769308 1.7825691 -0.04966487 0
0.69431335 1.3833896 0.04702891 0
0.69573575 1.3894701 0.13017781 0
0.69420773 1.3829381 0.21317807 0
0.69624317 1.3916391 0.30136633 0
0.8167758 1.9068917 0.56720942 0
0.76905924 1.7892326 -0.0497494 0
0.67822218 1.377622 0.046700787 0
0.67777604 1.3756003 0.12829646 0
0.67798942 1.3765674 0.21140935 0
0.68099838 1.3902018 0.30014664 0
0.80657756 1.9592396 0.58344036 0
0.74955857 1.7920278 -0.049701232 0
0.6650762 1.3849192 0.046857279 0
0.66494739 1.3842986 0.12892193 0
0.66434282 1.3813852 0.21174377 0
0.66365558 1.3780733 0.29619446 0
0.79216939 1.9973633 0.59483951 0
0.73293012 1.8094347 -0.050193548 0
0.64790159 1.3720851 0.046287253 0
0.64938909 1.3797363 0.12811179 0
0.64890552 1.377249 0.21046387 0
0.64958376 1.3807374 0.29615349 0
0.77822614 2.0424175 0.60862136 0
0.71157002 1.8027182 -0.049817059 0
0.63465083 1.3786442 0.046430036 0
0.6344831 1.3777195 0.12760295 0
0.63606215 1.3864251 0.21166262 0
0.63403171 1.3752307 0.29403996 0
0.7626949 2.0845816 0.62145394 0
0.69250029 1.8080218 -0.049886286 0
0.61932045 1.3734742 0.046153933 0
0.62120968 1.3846928 0.12809542 0
0.62227333 1.3910087 0.2120485 0
0.61900926 1.3716264 0.29247382 0
0.74670291 2.1298809 0.63538319 0
0.67333812 1.8130689 -0.049954798 0
0.60729086 1.3882806 0.046607099 0
0.60711229 1.3871319 0.12811202 0
0.60617286 1.3810899 0.20981845 0
0.60551596 1.3768653 0.29324296 0
0.72844231 2.1674759 0.64675903 0
0.65297115 1.8100322 -0.049740382 0
0.59227771 1.3844459 0.046392672 0
0.59063131 1.3729012 0.1263382 0
0.59230793 1.3846581 0.21008633 0
0.59283143 1.3883288 0.29565871 0
0.70793009 2.1954079 0.65494454 0
0.63542032 1.8275433 -0.050275281 0
0.57719284 1.3789016 0.046123866 0
0.57792854 1.38457 0.12739658 0
0.57677799 1.375705 0.20810843 0
0.57707053 1.3779589 0.29249451 0
0.68854946 2.2369027 0.66775346 0
0.61412978 1.8163656 -0.049786136 0
0.56437665 1.3911347 0.04650129 0
0.56302989 1.379624 0.12667294 0
0.56366932 1.3850893 0.20949864 0
0.56253928 1.3754307 0.29140031 0
0.66749227 2.2724445 0.67863125 0
0.59517729 1.8243164 -0.049993876 0
0.55150497 1.4054247 0.12929277 0
0.55217654 1.4118658 0.21407066 0
0.55213147 1.4114341 0.30023843 0
0.64518046 2.3039315 0.68822724 0
0.57594466 1.8308481 -0.050159063 0
0.55112135 1.5596873 0.14578868 0
0.55137932 1.5625054 0.24109557 0
0.55327874 1.583254 0.34389603 0
0.62108099 2.3239019 0.69405866 0
0.55552781 1.8238863 -0.049849525 0
0.60303658 2.4263203 0.23906441 0
0.59818697 2.3648245 0.38598999 0
0.59688509 2.3483167 0.53933167 0
0.53626156 1.831046 -0.050054714 0
0.574112 2.4027753 0.39250246 0
0.57381999 2.3983648 0.5516417 0
0.51658946 1.8333939 -0.050096408 0
0.5485692 2.4304037 0.39720103 0
0.54742885 2.4091144 0.55397683 0
0.4966532 1.8300847 -0.049944799 0
0.52226108 2.4554796 0.40149453 0
0.52213818 2.4524784 0.56472373 0
0.4768326 1.827193 -0.049817123 0
0.45651266 1.1101849 0.35633755 0
0.45647761 1.108948 0.42874494 0
0.45714837 1.8274429 -0.049810559 0
0.44587213 1.1111284 0.35663101 0
0.44573674 1.102528 0.42541504 0
0.43744612 1.8214818 -0.049591102 0
0.4351421 1.0898652 0.41902947 0
0.43513966 1.0890877 0.49509832 0
0.41775501 1.8304026 -0.049911801 0
0.4247171 1.0930978 0.4206633 0
0.42478722 1.0856725 0.49309224 0
0.39798298 1.8325875 -0.050000902 0
0.41394764 1.1081542 0.35544094 0
0.41386947 1.1117003 0.43005532 0
0.41457671 1.0796088 0.48959181 0
0.37826186 1.8313966 -0.049978346 0
0.35239491 2.5781493 0.42353699 0
0.35233554 2.5798626 0.59711009 0
0.40511119 1.0562835 0.47592312 0
0.35841712 1.8330925 -0.050067827 0
0.32229832 2.5974782 0.4272421 0
0.32270625 2.5888448 0.59970903 0
0.39548153 1.0486954 0.47166032 0
0.33875027 1.8307096 -0.05002043 0
0.29198188 2.6117463 0.43010417 0
0.29203007 2.6109414 0.6057573 0
0.31870404 1.8339763 -0.050184079 0
0.26135984 2.6246383 0.432789 0
0.26134652 2.6248221 0.60980815 0
0.2983157 1.8398618 -0.050450776 0
0.23036021 2.6374912 0.43553939 0
0.22968461 2.645421 0.61568254 0
0.28026468 1.8199085 -0.04980012 0
0.1986564 2.653547 0.43894431 0
0.19740513 2.6663289 0.62174541 0
0.26035216 1.8209276 -0.049910028 0
0.16770668 2.6584187 0.44039696 0
0.16638593 2.6703582 0.62358856 0
0.34624717 1.0444591 0.47145104 0
0.23989178 1.8257287 -0.050165158 0
0.1343805 2.6808553 0.44511449 0
0.13492765 2.6764209 0.62605757 0
0.22246842 1.806873 -0.049577631 0
0.10149406 2.6951458 0.44843379 0
0.10290815 2.6847627 0.62921965 0
0.20087986 1.8187547 -0.050106399 0
0.069885686 2.697684 0.44969177 0
0.07042934 2.6940362 0.63273185 0
0.18223403 1.8101112 -0.049903747 0
0.037856027 2.7016943 0.45129392 0
0.037778214 2.7021747 0.63606352 0
0.16329445 1.803959 -0.049799439 0
0.0031045841 2.7199407 0.45557982 0
0.0027731822 2.7218359 0.64249325 0
0.14267416 1.8071337 -0.050042346 0
-0.028647436 2.718956 0.45642707 0
-0.028486056 2.718097 0.64297801 0
0.12425889 1.79845 -0.049863491 0
-0.090532973 2.8672957 0.10078554 0
-0.089324728 2.8612831 0.29066774 0
-0.061841145 2.7245195 0.45855451 0
-0.061664447 2.7236402 0.64598179 0
0.10281317 1.8045092 -0.050230872 0
-0.11503722 2.8220696 0.099382319 0
-0.11180706 2.8069818 0.28544459 0
-0.094546869 2.7263608 0.46007818 0
-0.096476868 2.7353756 0.65071815 0
0.082214341 1.8056591 -0.050429445 0
-0.14251609 2.7943726 0.098628126 0
-0.14243187 2.7940021 0.28479168 0
-0.12592371 2.7213736 0.46041933 0
-0.1281537 2.7311842 0.65141553 0
0.065916583 1.7883185 -0.049959164 0
-0.17429449 2.7867992 0.098623268 0
-0.17346151 2.7833366 0.28443518 0
-0.16461308 2.7465568 0.46643114 0
-0.16264226 2.7383647 0.65520364 0
0.046211705 1.78573 -0.050038304 0
-0.21083583 2.7979751 0.099323735 0
-0.21181132 2.8018165 0.28735241 0
-0.19636078 2.7409728 0.46682778 0
-0.1952491 2.7365949 0.65676206 0
0.027640508 1.7786735 -0.049961749 0
-0.25321579 2.8290539 0.10077907 0
-0.25179923 2.823756 0.29071802 0
-0.22978772 2.7414348 0.468429 0
-0.2287633 2.7376037 0.65916783 0
0.0077842339 1.7763795 -0.050070185 0
-0.26086318 2.732681 0.46838817 0
-0.25914347 2.7265594 0.65849954 0
-0.0088893306 1.7629987 -0.049775694 0
-0.29299259 2.7275071 0.46909371 0
-0.29128486 2.7217095 0.65957797 0
-0.02988605 1.764335 -0.050037708 0
-0.32849801 2.7329321 0.47187847 0
-0.32747018 2.7295983 0.66416937 0
-0.047417715 1.754302 -0.049884241 0
-0.3606897 2.7267857 0.47256657 0
-0.35617429 2.7127686 0.66227567 0
-0.067901209 1.7533818 -0.050081644 0
-0.39245516 2.7190533 0.4730328 0
-0.3960644 2.7297921 0.66958284 0
-0.088442877 1.752197 -0.050279643 0
-0.42014444 2.6994674 0.47131234 0
-0.42236239 2.7058012 0.66597074 0
-0.10898836 1.7506056 -0.050472911 0
-0.4558928 2.7026863 0.47402808 0
-0.45831758 2.709341 0.66990745 0
-0.11965479 1.7225331 -0.049666028 0
-0.48699141 2.6925416 0.47426626 0
-0.48654175 2.6913543 0.66811341 0
-0.14017452 1.7210693 -0.04988103 0
-0.51529437 2.6751812 0.47318301 0
-0.52042383 2.6882279 0.67048156 0
-0.16425379 1.7279247 -0.050427828 0
-0.55396831 2.6836407 0.47719231 0
-0.54785091 2.6686389 0.66844326 0
-0.17786326 1.7090026 -0.049990192 0
-0.58464122 2.6717129 0.47732648 0
-0.58404469 2.6703012 0.6723755 0
-0.19475503 1.6983461 -0.049878892 0
-0.61211109 2.6524034 0.47608414 0
-0.61232293 2.6528878 0.67114389 0
-0.21653588 1.6986761 -0.05020579 0
-0.64167774 2.6381354 0.47590098 0
-0.64254165 2.6400445 0.6712845 0
-0.23066606 1.6820998 -0.049879044 0
-0.6733427 2.6284008 0.4766933 0
-0.66977882 2.6207826 0.66972494 0
-0.24980678 1.6764147 -0.049989194 0
-0.69745326 2.6027672 0.47438544 0
-0.69988739 2.6078043 0.67003328 0
-0.26736677 1.66738 -0.049975976 0
-0.72137344 2.5774622 0.47219029 0
-0.72655761 2.5878541 0.66846353 0
-0.28259385 1.6538261 -0.049790073 0
-0.75915265 2.5797424 0.47563705 0
-0.7563163 2.5742319 0.66879529 0
-0.3019855 1.6483922 -0.049938839 0
-0.78690338 2.5620892 0.47513381 0
-0.781973 2.5527992 0.66698134 0
-0.31573194 1.6324122 -0.049669385 0
-0.81090629 2.53772 0.47331807 0
-0.81298375 2.541518 0.66820043 0
-0.33381975 1.6245183 -0.049736433 0
-0.61865759 2.1300509 0.082452282 0
-0.83283854 2.510181 0.47089565 0
-0.83995259 2.5228071 0.66736656 0
-0.35274887 1.6179739 -0.049869042 0
-0.62074757 2.0799217 0.080935635 0
-0.86344337 2.4982548 0.47176814 0
-0.86009216 2.4924784 0.66319954 0
-0.36819428 1.6054068 -0.049762093 0
-0.61105502 2.0121379 0.07867454 0
-0.88733816 2.4748433 0.47031534 0
-0.88402891 2.4693012 0.6612013 0
-0.38906318 1.6018063 -0.050038129 0
-0.61858237 1.9754243 0.07769262 0
-0.91206646 2.4531665 0.46928188 0
-0.91685104 2.4609551 0.66371822 0
-0.40513194 1.5902377 -0.049990937 0
-0.62247646 1.9342492 0.076518446 0
-0.93657243 2.4313984 0.46828681 0
-0.93677092 2.4317124 0.66007328 0
-0.41601646 1.5707433 -0.049614519 0
-0.62235689 1.8884079 0.075138055 0
-0.95940661 2.4073019 0.466849 0
-0.95678055 2.403259 0.65671444 0
-0.4367578 1.5664859 -0.049894847 0
-0.62036967 1.8415157 0.073700845 0
-0.9786768 2.3782194 0.46437991 0
-0.97607899 2.3743284 0.65325785 0
-0.45386267 1.5565721 -0.049943987 0
-0.61595261 1.7928667 0.072174028 0
-1.0050259 2.3600569 0.46433049 0
-0.99908888 2.351402 0.65170389 0
-0.47188532 1.5478953 -0.050056949 0
-0.61757576 1.7546526 0.071086928 0
-1.0239316 2.3313346 0.46202374 0
-1.0233015 2.3304403 0.65083921 0
-0.48958343 1.5386287 -0.050154917 0
-0.62056136 1.7196229 0.070131108 0
-0.61810672 1.7162309 0.19859979 0
-1.0434229 2.303962 0.46004915 0
-1.0457265 2.3071454 0.64932746 0
-0.083241239 0.97711724 0.44619662 0
-0.49758005 1.5161842 -0.049677547 0
-0.61375237 1.6725354 0.068631671 0
-0.62050474 1.6816232 0.19575283 0
-1.060082 2.2732315 0.45735639 0
-1.0607523 2.2741334 0.64480233 0
-0.09401311 0.97304064 0.44773892 0
-0.52227861 1.5161867 -0.050207973 0
-0.62307954 1.6483414 0.06814187 0
-0.621786 1.6466455 0.19283248 0
-1.0810301 2.2487357 0.45609924 0
-1.0802456 2.2477074 0.64240718 0
-0.095566109 0.95674676 0.44169304 0
-0.53465271 1.4998344 -0.050016146 0
-0.61704075 1.6050742 0.066787742 0
-0.61312437 1.6000714 0.18830265 0
-1.093497 2.2136831 0.45247179 0
-1.10311 2.2259624 0.64158422 0
-0.10919727 0.95637196 0.44571501 0
-0.55668467 1.4957148 -0.050389674 0
-0.61790812 1.5719228 0.065879643 0
-0.62147331 1.5763606 0.18686362 0
-1.1132541 2.1885056 0.4511281 0
-1.1119587 2.1868932 0.63517702 0
-0.13071163 0.96548378 0.45597607 0
-0.56438351 1.4737878 -0.049955979 0
-0.61897838 1.5400193 0.065020308 0
-0.61803019 1.538869 0.18350485 0
-1.133443 2.1641395 0.45001787 0
-1.1302871 2.1603107 0.63286823 0
-0.14025636 0.95925999 0.4565751 0
-0.57802975 1.4593625 -0.049872898 0
-0.61500156 1.5030811 0.063917004 0
-0.61374593 1.5015965 0.18013488 0
-1.1403379 2.1242855 0.44529739 0
-1.1473485 2.1325755 0.63022619 0
-0.15340824 0.9572522 0.46002147 0
-0.59704709 1.4512131 -0.050093599 0
-0.62061024 1.4783752 0.063377358 0
-0.61782408 1.4751635 0.17826244 0
-1.1593844 2.0994375 0.44412842 0
-1.1601969 2.100374 0.6261189 0
-0.61169314 1.4379125 -0.050081994 0
-0.63206685 1.4608091 0.0631762 0
-0.63133442 1.4599859 0.17799541 0
-1.162938 2.0574164 0.43885812 0
-1.1653119 2.0600843 0.61925799 0
-0.62367225 1.421697 -0.049938243 0
-0.65986335 1.4613527 0.063854963 0
-0.66268325 1.4644425 0.18060663 0
-1.1780404 2.0291343 0.43689236 0
-1.1773783 2.0284088 0.61531538 0
-0.63535345 1.4053071 -0.049791582 0
-0.51208013 1.2736025 0.055351242 0
-0.69327211 1.467187 0.18305457 0
-1.190259 1.9981655 0.43428636 0
-1.1922196 2.0002601 0.61261141 0
-0.64540279 1.3873619 -0.04957341 0
-0.50718427 1.2433676 0.054447565 0
-0.71487844 1.4597408 0.18407117 0
-1.2072833 1.9727219 0.43306816 0
-1.196157 1.9611307 0.60605681 0
-0.67134559 1.3857774 -0.050178431 0
-0.51145208 1.2233466 0.054041225 0
-0.74775839 1.4634027 0.18681639 0
-1.2144033 1.9374527 0.42940208 0
-1.2119646 1.9349753 0.60408288 0
-0.67747712 1.3639625 -0.049781393 0
-0.52750283 1.2153974 0.054244798 0
-0.78021955 1.4657397 0.18945724 0
-1.2152398 1.8966727 0.42429981 0
-1.2201682 1.9015548 0.5995217 0
-0.68668473 1.3455043 -0.04955557 0
-0.54773897 1.2112877 0.054658655 0
-0.81332743 1.4678364 0.19215836 0
-1.2209016 1.8615381 0.42059872 0
-1.2247539 1.8652592 0.5938825 0
-0.70618355 1.3369538 -0.049848597 0
-0.56474161 1.2037276 0.054911606 0
-0.83581197 1.4590527 0.19325534 0
-1.2153035 1.816501 0.41426182 0
-1.227376 1.8278722 0.58778274 0
-0.72514749 1.3276273 -0.050117586 0
-0.86257458 1.4538442 0.068779185 0
-0.8692826 1.460005 0.19595899 0
-1.2288758 1.7902656 0.41283169 0
-1.2363453 1.7971258 0.58411586 0
-0.23679258 0.87910825 0.38227418 0
-0.73248899 1.3076344 -0.049832232 0
-0.8969866 1.4549387 0.069715507 0
-0.90352905 1.4607972 0.19874252 0
-1.2343715 1.7570599 0.40954283 0
-1.2333736 1.7561663 0.57653397 0
-0.23115404 0.8586989 0.37486804 0
-0.74752486 1.2946217 -0.04992665 0
-0.93526101 1.4585235 0.070823982 0
-1.2400637 1.7246294 0.40643758 0
-1.2433885 1.7275321 0.57360893 0
-0.2280388 0.84108794 0.36907172 0
-0.75699437 1.2767802 -0.049766831 0
-0.9801923 1.4667428 0.0722306 0
-1.2395624 1.6874912 0.4019959 0
-1.2406665 1.6884309 0.56656927 0
-0.23389204 0.83157068 0.36833453 0
-0.24962892 0.84496421 0.45420122 0
-0.77190626 1.2635962 -0.049871612 0
-1.0144395 1.4648044 0.073122166 0
-1.2520618 1.6619384 0.40075701 0
-1.2366846 1.6491814 0.55934924 0
-0.25502926 0.83478916 0.37589207 0
-0.78571713 1.2494227 -0.049932439 0
-1.0437273 1.4580425 0.07377813 0
-1.255053 1.6289146 0.3974005 0
-1.2381217 1.6152245 0.55414331 0
-0.2579354 0.82267314 0.37364429 0
-0.79110241 1.2285516 -0.049617853 0
-1.0924904 1.4660325 0.075316727 0
-1.2515143 1.5913365 0.39267373 0
-1.2375609 1.5803418 0.54847938 0
-0.27199149 0.81951451 0.37737691 0
-0.81078601 1.2189341 -0.049961749 0
-1.1214752 1.4574648 0.07594575 0
-1.2572035 1.5616697 0.39019871 0
-1.2414916 1.5496069 0.5444566 0
-0.26004428 0.7961036 0.36752117 0
-0.24826659 0.78706127 0.4354496 0
-0.81148386 1.1948096 -0.049461413 0
-1.1665117 1.4603436 0.077289328 0
-1.2441205 1.5183891 0.38360372 0
-1.2452812 1.5192572 0.54055053 0
-0.26473463 0.78588253 0.36651298 0
-0.27974927 0.79711235 0.45104176 0
-0.83079636 1.1846782 -0.049801335 0
-1.2116783 1.4621398 0.078624785 0
-1.247033 1.4878947 0.38076013 0
-1.2385197 1.481693 0.53347075 0
-1.2430006 1.4849572 0.69567049 0
-0.27170384 0.77739525 0.36674762 0
-0.27275509 0.77816111 0.44259486 0
-0.84388447 1.1698335 -0.049871389 0
-1.2463613 1.4553394 0.079488486 0
-1.2525122 1.4597027 0.37859467 0
-1.2432419 1.4531267 0.53019482 0
-1.2366954 1.4484828 0.68688387 0
-0.28399289 0.77266216 0.36973518 0
-0.27943814 0.76943117 0.44276035 0
-0.86438894 1.1600471 -0.050270766 0
-1.2902329 1.4541395 0.08074712 0
-1.2582163 1.4320285 0.37657538 0
-1.2458432 1.4234835 0.52640164 0
-1.2446396 1.4226524 0.68412119 0
-0.28727382 0.76148504 0.44369239 0
-0.86311495 1.1352783 -0.049735256 0
-1.2637 1.4045409 0.078967214 0
-1.2718432 1.4100145 0.22670297 0
-1.2558333 1.3992531 0.37289184 0
-1.2378625 1.3871735 0.51950258 0
-1.2342082 1.3847173 0.67414659 0
-0.29376912 0.75257927 0.44386908 0
-0.88696015 1.1273863 -0.050289065 0
-1.2705032 1.3782408 0.078650743 0
-1.27314 1.3799653 0.22503448 0
-1.2432986 1.3604478 0.36714011 0
-1.2359303 1.3556286 0.51464403 0
-1.2448894 1.3614882 0.67283738 0
-0.30201721 0.74480724 0.44515958 0
-0.89963591 1.1119214 -0.050370056 0
-1.2710068 1.3481926 0.078084312 0
-1.2796502 1.3536916 0.22409174 0
-1.2493241 1.3343977 0.36550647 0
-1.2415606 1.3294585 0.51223165 0
-1.2417037 1.3295496 0.66618657 0
-0.30119592 0.73118603 0.44111976 0
-0.89674902 1.0867577 -0.049805284 0
-1.2815185 1.324801 0.077958375 0
-1.2880707 1.3288546 0.22343971 0
-1.249862 1.3052162 0.3627916 0
-1.2370303 1.2972777 0.50688899 0
-1.241713 1.3001747 0.66099519 0
-0.90901434 1.0711673 -0.049889263 0
-1.2991747 1.3058048 0.078143343 0
-1.306336 1.3101116 0.22406656 0
-1.2439312 1.2725822 0.35881346 0
-1.242165 1.27152 0.50458515 0
-1.2370094 1.2684195 0.65415746 0
-0.91871369 1.0540054 -0.049874671 0
-1.3355153 1.2975718 0.07910949 0
-1.3309984 1.2949322 0.22551458 0
-1.2568412 1.2515969 0.35888621 0
-1.2392735 1.241331 0.50002265 0
-1.2406298 1.2421235 0.65073204 0
-0.92931807 1.0373654 -0.049906246 0
-1.3876771 1.2975304 0.080722503 0
-1.3901873 1.2989552 0.23124257 0
-1.257512 1.2236485 0.35647535 0
-1.2328939 1.2096753 0.49458125 0
-1.2397058 1.2135417 0.64571971 0
-0.94191074 1.0217921 -0.050027218 0
-1.2468417 1.1898304 0.35181853 0
-1.2410575 1.1866429 0.49353054 0
-1.2430893 1.1877626 0.64251548 0
-0.95516002 1.0064696 -0.050181933 0
-1.2541829 1.1663771 0.35096401 0
-1.2364725 1.1569061 0.48888263 0
-1.2425873 1.1601762 0.6379897 0
-0.9728291 0.99331301 -0.050521176 0
-1.2599888 1.1422576 0.34986329 0
-1.2447113 1.1343335 0.48805863 0
-1.2386425 1.1311857 0.63233376 0
-0.97001183 0.96958447 -0.05004628 0
-1.2720034 1.1214277 0.35008436 0
-1.2455482 1.1081258 0.48520753 0
-1.2400465 1.1053596 0.62884164 0
-0.97669852 0.95085478 -0.04996362 0
-1.2814118 1.0992895 0.34983405 0
-1.2406874 1.0794514 0.48085082 0
-1.2373713 1.0778362 0.62398201 0
-0.98470795 0.93280983 -0.049942996 0
-1.2898902 1.0767472 0.34945548 0
-1.2417572 1.0540456 0.47829503 0
-1.2454594 1.0557917 0.62323827 0
-0.99204457 0.91447049 -0.049905032 0
-1.2984968 1.0543174 0.349161 0
-1.2345973 1.0251573 0.4735359 0
-1.2317842 1.0238737 0.61464179 0
-1.0067784 0.89942068 -0.05016496 0
-1.3162161 1.035949 0.35072029 0
-1.2389662 1.0018653 0.47211981 0
-1.234025 0.99968505 0.61202705 0
-1.0110542 0.87971038 -0.050025009 0
-1.3261017 1.0140005 0.35078087 0
-1.2502028 0.98164839 0.47269756 0
-1.2398967 0.97725534 0.61084998 0
-1.0085647 0.85731995 -0.049634214 0
-1.3344479 0.99140549 0.350595 0
-1.2425071 0.95357621 0.46811962 0
-1.2292924 0.94813895 0.60385352 0
-1.02529 0.84284711 -0.049994249 0
-1.338256 0.96703357 0.34958488 0
-1.2328428 0.92520505 0.46312144 0
-1.2405021 0.92824429 0.6048314 0
-1.0232401 0.8209213 -0.049641922 0
-1.3508809 0.94617915 0.35034132 0
-1.2436235 0.90517437 0.4638294 0
-1.242873 0.9048875 0.60274583 0
-1.0493892 0.80963248 -0.050374478 0
-1.3597834 0.92383856 0.35042956 0
-1.2504112 0.8835963 0.46351734 0
-1.2403055 0.87987804 0.59902376 0
-1.0498751 0.78871495 -0.050137337 0
-1.3653526 0.90030187 0.34993368 0
-1.2310269 0.85278982 0.45619765 0
-1.2438478 0.85732472 0.59758574 0
-1.0584209 0.77070796 -0.050215054 0
-1.36418 0.87454468 0.34821239 0
-1.248986 0.83542448 0.4590759 0
-1.2317984 0.82958752 0.59077555 0
-1.0628136 0.7512877 -0.050145049 0
-1.3783286 0.85402519 0.34946579 0
-1.2321235 0.80641812 0.45265791 0
-1.2367452 0.80792308 0.5900625 0
-1.0701308 0.73282754 -0.050193846 0
-1.3835495 0.83053517 0.34907663 0
-1.2490672 0.78861058 0.45539728 0
-1.2422788 0.78649431 0.58965194 0
-1.0721954 0.71276301 -0.050055463 0
-1.3854086 0.8060962 0.34811208 0
-1.243364 0.76376885 0.45215723 0
-1.2474391 0.76498318 0.58920723 0
-1.0728238 0.6923883 -0.049873661 0
-1.4083852 0.78779751 0.35116822 0
-1.2417644 0.74042273 0.45010033 0
-1.2438964 0.7410289 0.58584774 0
-1.0805166 0.67405605 -0.049963277 0
-1.408033 0.76273614 0.34989831 0
-1.235831 0.71610981 0.44698274 0
-1.2392577 0.71703762 0.5822261 0
-1.0843391 0.65465951 -0.049918458 0
-1.4155732 0.73988467 0.35016108 0
-1.2367648 0.69387794 0.44576517 0
-1.2351263 0.69345641 0.57889438 0
-1.0913672 0.63607413 -0.050000556 0
-1.4192536 0.71604997 0.34976003 0
-1.2375337 0.67172605 0.44458163 0
-1.235261 0.67117172 0.57713562 0
-1.0957854 0.61682421 -0.049995381 0
-1.4207739 0.69177073 0.34901598 0
-1.2404267 0.65018034 0.44403085 0
-1.2439201 0.65098596 0.57838839 0
-1.0910426 0.59558332 -0.049664393 0
-1.4407613 0.67160851 0.35173878 0
-1.249357 0.62999922 0.44512874 0
-1.2378198 0.62749112 0.57469934 0
-1.1074473 0.5788967 -0.050114591 0
-1.4298192 0.6447373 0.34880814 0
-1.2413883 0.60625255 0.44188964 0
-1.2422012 0.60641861 0.57467955 0
-1.1091174 0.55906695 -0.050035786 0
-1.4360888 0.62156898 0.34910706 0
-1.2471116 0.58544517 0.4422926 0
-1.2339388 0.58292711 0.57046711 0
-1.102342 0.53778613 -0.049659964 0
-1.4450144 0.59882748 0.34994534 0
-1.2380674 0.56196338 0.43893567 0
-1.2495238 0.56400412 0.57442296 0
-1.1056775 0.51844084 -0.049660493 0
-1.4430093 0.57415813 0.34883627 0
-1.2346914 0.5397501 0.43712795 0
-1.2242774 0.53803003 0.5646826 0
-1.1110588 0.49940348 -0.049743701 0
-1.4392899 0.54938048 0.34747329 0
-1.2437719 0.51961058 0.43861067 0
-1.2343639 0.51817811 0.56696165 0
-1.1116539 0.47963652 -0.049662892 0
-1.4474475 0.52644688 0.34833232 0
-1.2362847 0.49701032 0.43588835 0
-1.2433312 0.49799263 0.56894481 0
-1.1233573 0.46133003 -0.049990918 0
-1.4508296 0.50278401 0.34837434 0
-1.2333642 0.47525558 0.43441802 0
-1.2380046 0.47584298 0.56621659 0
-1.1221719 0.44132063 -0.049863648 0
-0.52164721 0.3729724 0.040285733 0
-0.51446509 0.37215498 0.10843129 0
-0.50649399 0.37124774 0.17644733 0
-1.2366008 0.45434424 0.43460116 0
-1.2400764 0.45473984 0.56606311 0
-1.1314889 0.42245987 -0.050122447 0
-0.51396531 0.36004236 0.039963726 0
-0.51329881 0.35997498 0.10816683 0
-0.50622541 0.35926002 0.17616822 0
-1.2401042 0.43343839 0.43492013 0
-1.2319787 0.43261707 0.56259811 0
-1.1155924 0.40118453 -0.049485814 0
-0.50155246 0.34692031 0.10677775 0
-0.51972598 0.34852636 0.17840968 0
-1.242287 0.41238084 0.43496794 0
-1.2526588 0.41329741 0.56884164 0
-1.1265621 0.38239002 -0.049821284 0
-0.51364952 0.33599502 0.10797749 0
-0.5058707 0.33540618 0.17572576 0
-1.2513953 0.39183941 0.43685555 0
-1.2469777 0.39150503 0.56636512 0
-1.1461475 0.36389852 -0.050473161 0
-0.50108314 0.32323128 0.10653528 0
-0.51085973 0.32384762 0.17647912 0
-1.242049 0.36994448 0.43409008 0
-1.2375273 0.36965945 0.56272554 0
-1.2343771 0.36946085 0.6975348 0
-1.1239233 0.34283578 -0.049638398 0
-0.49749702 0.31125674 0.1060776 0
-0.51426286 0.3121019 0.17697193 0
-1.2363399 0.34850287 0.43232602 0
-1.2465768 0.34901893 0.56534255 0
-1.2429018 0.34883368 0.70057499 0
-0.3449896 0.3035686 0.46769932 0
-1.1318271 0.32349783 -0.049889885 0
-0.50530344 0.29981822 0.1068616 0
-0.50630152 0.29985592 0.17544018 0
-1.2417243 0.32765141 0.43346402 0
-1.2412704 0.32763427 0.56326538 0
-1.2352779 0.32740778 0.6970306 0
-0.35834634 0.29426393 0.47536984 0
-1.1291384 0.30371249 -0.049771704 0
-0.39902741 0.28532019 0.35040906 0
-0.40966827 0.28558826 0.42752558 0
-0.38301039 0.28491673 0.48981535 0
-1.1284286 0.28403229 -0.049733099 0
-0.39592582 0.2748065 0.42054886 0
-0.3710953 0.27449378 0.4826335 0
-1.1402913 0.26437625 -0.05015219 0
-0.38797349 0.26437426 0.41653714 0
-0.38551205 0.26437423 0.49114555 0
-0.8907935 -0.98929471 -0.088585533 0
-1.0192822 -0.98929507 -0.091195919 0
-1.1330187 -0.98929536 -0.085402884 0
-1.1386497 -0.98929536 -0.059186269 0
-1.1366777 -0.98929536 -0.031990755 0
-1.1291337 -0.98929536 -0.0045142602 0
-1.1342196 -0.98929536 0.021609636 0
-1.1354003 -0.98929536 0.048066877 0
-1.1305747 -0.98929536 0.074661374 0
-1.1189277 -0.9892953 0.10100237 0
-1.1281313 -0.98929536 0.1272871 0
-1.1273594 -0.98929536 0.15356414 0
-1.1235352 -0.98929536 0.17964873 0
-1.1347532 -0.98929536 0.207045 0
-1.1285809 -0.98929536 0.23305063 0
-1.1221021 -0.9892953 0.25886697 0
-1.1256293 -0.98929536 0.28619528 0
-1.1362964 -0.98929536 0.31524369 0
-0.89303309 -1.0118586 -0.089122124 0
-1.0156269 -1.014953 -0.090568416 0
-1.1220142 -1.0176384 -0.08365307 0
-1.1274849 -1.0177765 -0.057667751 0
-1.127602 -1.0177795 -0.030972054 0
-1.1270658 -1.017766 -0.0043547805 0
-1.1324579 -1.017902 0.021707559 0
-1.1303923 -1.0178499 0.048283242 0
-1.1321477 -1.0178943 0.074616417 0
-1.1482742 -1.0183012 0.10100321 0
-1.1273476 -1.017773 0.12727723 0
-1.1384499 -1.0180533 0.154098 0
-1.1276562 -1.0177809 0.17996223 0
-1.1249681 -1.0177131 0.20616458 0
-1.1446656 -1.0182102 0.2349741 0
-1.1294078 -1.0178251 0.25994471 0
-1.1225148 -1.0176511 0.28574207 0
-1.1304899 -1.0178524 0.3142176 0
-0.89289695 -1.0344443 -0.089274891 0
-1.0087595 -1.0402969 -0.089456432 0
-1.1215606 -1.0459948 -0.083754949 0
-1.1296295 -1.0464023 -0.058121208 0
-1.2478468 -1.0523739 -0.045169536 0
-1.2408744 -1.0520216 -0.015091976 0
-1.2357635 -1.0517635 0.014400529 0
-1.2498636 -1.0524757 0.042663831 0
-1.2291915 -1.0514315 0.072332025 0
-1.2423612 -1.0520967 0.10100593 0
-1.2404792 -1.0520017 0.12994257 0
-1.2470231 -1.0523323 0.15921606 0
-1.2399374 -1.0519743 0.18790372 0
-1.2457491 -1.0522679 0.21756025 0
-0.89351147 -1.0571378 -0.089709409 0
-1.0143615 -1.0663041 -0.090818413 0
-1.1258942 -1.0747637 -0.084763937 0
-1.1271912 -1.0748621 -0.058031369 0
-1.2392452 -1.0833613 -0.044394497 0
-1.2447863 -1.0837815 -0.015643327 0
-1.2382783 -1.0832878 0.014086107 0
-1.2468551 -1.0839385 0.042711265 0
-1.2395356 -1.0833832 0.072045147 0
-1.2422578 -1.0835897 0.10100599 0
-1.2410177 -1.0834956 0.13000137 0
-1.242758 -1.0836277 0.15910961 0
-1.2432182 -1.0836625 0.18827261 0
-1.2293487 -1.0826106 0.21621008 0
-0.89399207 -1.0799359 -0.090238653 0
-1.0171015 -1.0924046 -0.091766186 0
-1.1516968 -1.1060365 -0.089441828 0
-1.2324221 -1.1142125 -0.073251329 0
-1.2429211 -1.1152759 -0.045151506 0
-1.2310375 -1.1140723 -0.014614312 0
-1.2436287 -1.1153476 0.01351578 0
-1.2344596 -1.1144189 0.04316096 0
-1.2501802 -1.1160111 0.071731679 0
-1.2420157 -1.1151842 0.10100606 0
-1.2393646 -1.1149157 0.13002759 0
-1.2310029 -1.1140689 0.15868895 0
-1.2429637 -1.1152803 0.18845002 0
-1.9997514 -1.1919287 0.28879002 0
-1.9955838 -1.1915066 0.33562464 0
-1.9348965 -1.1853602 0.37453243 0
-1.4744643 -1.1387269 0.38038006 0
-0.89114261 -1.1024526 -0.090179183 0
-1.0052134 -1.1169219 -0.090064593 0
-1.1492599 -1.1351935 -0.089586906 0
-1.2076441 -1.1425992 -0.070243366 0
-1.2347975 -1.1460435 -0.0446156 0
-1.2493073 -1.147884 -0.01666641 0
-1.2390261 -1.1465799 0.01358808 0
-1.2413126 -1.1468699 0.042672753 0
-1.2352033 -1.1460949 0.071998417 0
-1.2430687 -1.1470927 0.10100619 0
-1.240015 -1.1467053 0.13012661 0
-1.2231315 -1.1445637 0.15848546 0
-1.2384177 -1.1465027 0.18838154 0
-1.5906554 -1.1911821 0.36474699 0
-1.4698086 -1.1758534 0.38030112 0
-0.88965839 -1.1251781 -0.090535037 0
-1.0030379 -1.1424767 -0.090324678 0
-1.1495789 -1.1648347 -0.090312831 0
-1.2055476 -1.1733741 -0.070549913 0
-1.6199863 -1.2366059 -0.090668939 0
-2.5707397 -1.3816644 -0.1418521 0
-3.4269176 -1.5122933 -0.14144473 0
-5.1395769 -1.7735975 -0.14111558 0
-10.285081 -2.5586584 -0.14095253 0
-1.3459213 -1.1947912 0.29252568 0
-1.3492233 -1.195295 0.32552522 0
-1.3551716 -1.1962025 0.35943878 0
-0.88853484 -1.1480684 -0.09109395 0
-1.0018605 -1.1682969 -0.090900026 0
-1.1362171 -1.1922793 -0.088882662 0
-1.1987108 -1.2034343 -0.070291795 0
-1.6058395 -1.2761062 -0.089791499 0
-2.545696 -1.4438692 -0.14049384 0
-3.4113266 -1.5983832 -0.14135215 0
-5.1042633 -1.9005698 -0.14045879 0
-10.230736 -2.8156378 -0.14068154 0
-1.3323361 -1.2272863 0.29138723 0
-1.3234438 -1.2256991 0.32215968 0
-1.3192883 -1.2249573 0.35365292 0
-0.88292915 -1.1701916 -0.090808325 0
-0.99665564 -1.1934669 -0.090829052 0
-1.1310086 -1.2209635 -0.088928811 0
-1.1874439 -1.2325135 -0.069505401 0
-1.6115618 -1.3193133 -0.09139847 0
-2.536341 -1.5085782 -0.14077254 0
-3.3880789 -1.6828946 -0.14086738 0
-5.0813966 -2.0294483 -0.140542 0
-10.183562 -3.0736556 -0.1407329 0
-1.2556952 -1.2464818 0.31186199 0
-1.2360157 -1.2424542 0.33886269 0
-0.88134009 -1.1931884 -0.091518797 0
-0.99677932 -1.2198654 -0.091910221 0
-1.1361074 -1.2520632 -0.090835683 0
-1.1872602 -1.2638842 -0.070418634 0
-1.5929307 -1.3576314 -0.090224005 0
-2.5161912 -1.5709898 -0.14017475 0
-3.3714724 -1.7686387 -0.14100891 0
-5.0564046 -2.1580136 -0.14067917 0
-10.125552 -3.3294547 -0.14068094 0
-0.87699401 -1.2156634 -0.091755725 0
-0.98711419 -1.2440562 -0.09122362 0
-1.1166619 -1.2774582 -0.088721998 0
-1.3225101 -1.3305331 -0.091107972 0
-1.5846478 -1.3981214 -0.090407215 0
-1.9877673 -1.5020598 -0.090730391 0
-3.3525534 -1.8539495 -0.14114018 0
-5.0242014 -2.2849591 -0.14062601 0
-10.059319 -3.5831897 -0.14058577 0
-0.87094355 -1.2377264 -0.091742598 0
-0.97687465 -1.2679092 -0.090538718 0
-1.1050228 -1.3044223 -0.088036261 0
-1.3073125 -1.3620603 -0.090206869 0
-1.5821964 -1.4403825 -0.091424204 0
-1.9751629 -1.5523498 -0.090824179 0
-3.3253272 -1.9370497 -0.14082451 0
-4.9863329 -2.4103172 -0.14045282 0
-10.000905 -3.8391111 -0.1408332 0
-0.86365396 -1.2594143 -0.091576956 0
-0.97014153 -1.2926825 -0.090658687 0
-1.1012254 -1.333635 -0.088812076 0
-1.2959369 -1.3944656 -0.089978106 0
-1.5723823 -1.4808309 -0.091677837 0
-1.9531417 -1.5997856 -0.0901215 0
-3.2980955 -2.0199678 -0.14065899 0
-4.9482541 -2.5355005 -0.14042175 0
-9.916728 -4.0877213 -0.1406118 0
-0.8399573 -1.2754921 -0.087848328 0
-0.95966154 -1.3162318 -0.090158112 0
-1.0932235 -1.3616879 -0.088992126 0
-1.2853736 -1.4270836 -0.089988865 0
-1.5486126 -1.5166734 -0.090336256 0
-1.9500974 -1.6533134 -0.091401421 0
-3.2637427 -2.1003947 -0.14012009 0
-4.928081 -2.6668301 -0.14142568 0
-9.8286648 -4.3346782 -0.14044651 0
-0.85160798 -1.303676 -0.092184447 0
-0.95879269 -1.3431996 -0.091701053 0
-1.0889806 -1.3912055 -0.089955784 0
-1.2675048 -1.4570351 -0.089028247 0
-1.5391482 -1.5572017 -0.090876274 0
-1.9301974 -1.7013984 -0.091150217 0
-3.2433009 -2.185596 -0.14076325 0
-4.866837 -2.7842636 -0.14056486 0
-9.7567406 -4.5873814 -0.14083339 0
-0.84454405 -1.3255407 -0.092445143 0
-0.93815619 -1.3627687 -0.089389972 0
-1.0862308 -1.4216554 -0.091324382 0
-1.2582009 -1.4900451 -0.089467056 0
-1.5168629 -1.5929106 -0.089937232 0
-1.9044549 -1.7470495 -0.090430953 0
-3.2208695 -2.2705653 -0.14142422 0
-4.8277655 -2.9096005 -0.14095397 0
-9.6627607 -4.832397 -0.14083116 0
-0.82850778 -1.3436555 -0.090761654 0
-0.93682086 -1.3899279 -0.091107763 0
-1.0790493 -1.4506893 -0.092052437 0
-1.2394091 -1.5191966 -0.088587351 0
-1.5049435 -1.6326356 -0.090419374 0
-1.8884758 -1.7964845 -0.0908112 0
-3.1809962 -2.3486621 -0.14092857 0
-4.7744303 -3.0293934 -0.14078455 0
-9.5599003 -5.0737944 -0.14075989 0
-0.81876999 -1.3642275 -0.090637125 0
-0.92007029 -1.4105604 -0.089793883 0
-1.0574962 -1.4734163 -0.090323277 0
-1.2370418 -1.5555371 -0.090348713 0
-1.4931308 -1.6726673 -0.091048978 0
-1.8675489 -1.8439189 -0.090815417 0
-3.144537 -2.4279885 -0.14084031 0
-4.7290473 -3.1527133 -0.1411742 0
-9.4612083 -5.3171124 -0.14094928 0
-0.8027873 -1.3817338 -0.089155935 0
-0.90705675 -1.432644 -0.089355536 0
-1.0376307 -1.4963976 -0.088985629 0
-1.2201102 -1.5854943 -0.089996733 0
-1.4787971 -1.7117997 -0.091489114 0
-1.8490565 -1.8925812 -0.091196157 0
-3.0998356 -2.5032816 -0.14026459 0
-4.67068 -3.2702563 -0.14105627 0
-9.3420715 -5.5510917 -0.14077 0
-0.80119884 -1.4063437 -0.091208868 0
-0.90768635 -1.4617068 -0.091925241 0
-1.0297953 -1.5251914 -0.089965545 0
-1.2019459 -1.6146928 -0.089563869 0
-1.4451213 -1.7411202 -0.089516513 0
-1.8164655 -1.9341828 -0.09022712 0
-3.0651507 -2.5833766 -0.14061929 0
-4.6158962 -3.3896122 -0.1412795 0
-9.2216206 -5.7841368 -0.14070766 0
-0.79471689 -1.4288236 -0.092252098 0
-0.89573818 -1.4846267 -0.091981299 0
-1.0180906 -1.5522128 -0.090368234 0
-1.1971593 -1.6511285 -0.09139026 0
-1.4226373 -1.7756802 -0.089108713 0
-1.7970303 -1.9824908 -0.09075857 0
-3.028739 -2.6628733 -0.14100142 0
-4.549387 -3.5028632 -0.14104137 0
-9.0988655 -6.0159459 -0.14073846 0
-0.77104765 -1.4415392 -0.089215584 0
-0.87983638 -1.505267 -0.091300555 0
-1.000216 -1.5757849 -0.089730702 0
-1.1683098 -1.6742535 -0.089473374 0
-1.3982219 -1.8089349 -0.088550545 0
-1.7727814 -2.0283501 -0.090908162 0
-2.9808471 -2.7360294 -0.14062051 0
-4.4819613 -3.6153748 -0.1409034 0
-8.9809999 -6.2508907 -0.14105801 0
-0.75977266 -1.4611106 -0.089310981 0
-0.86708623 -1.5276669 -0.091422193 0
-0.99310297 -1.6058229 -0.091278501 0
-1.1501837 -1.7032452 -0.089395382 0
-1.3878775 -1.8506637 -0.090033256 0
-1.7433062 -2.0711019 -0.090612255 0
-2.9404774 -2.8135922 -0.14100316 0
-4.3995905 -3.7185402 -0.14009896 0
-8.8407135 -6.4729419 -0.14093019 0
-0.7552157 -1.4851314 -0.091240145 0
-0.85391134 -1.5498468 -0.091576524 0
-0.96936548 -1.6255509 -0.089732714 0
-1.1401517 -1.7375367 -0.090798326 0
-1.3709477 -1.8888712 -0.090766378 0
-1.7209877 -2.1183949 -0.091229714 0
-2.8832598 -2.8805048 -0.14014609 0
-4.3383026 -3.8345866 -0.14059857 0
-8.6899166 -6.6879702 -0.14066263 0
-0.74401337 -1.5051254 -0.091640599 0
-0.83177394 -1.5658913 -0.089807458 0
-0.95939785 -1.6542587 -0.09101104 0
-1.1164625 -1.763011 -0.090038158 0
-1.3523141 -1.9263158 -0.091406129 0
-1.6789473 -2.1524782 -0.089753367 0
-2.8534045 -2.9656782 -0.141743 0
-4.2693086 -3.9460568 -0.14083506 0
-8.5506582 -6.9104848 -0.14086883 0
-0.73342413 -1.525703 -0.092341535 0
-0.82127351 -1.5898689 -0.090813406 0
-0.93495727 -1.6729045 -0.089513697 0
-1.0965739 -1.7909507 -0.090036236 0
-1.3333094 -1.9638642 -0.092139654 0
-1.6571143 -2.2003739 -0.090683855 0
-2.7870624 -3.0256972 -0.1403953 0
-4.1853228 -4.046998 -0.14037248 0
-8.3985233 -7.1243544 -0.1408684 0
-0.71046162 -1.5369835 -0.089875065 0
-0.80884188 -1.6127204 -0.091522522 0
-0.9273805 -1.703976 -0.091581456 0
-1.0806075 -1.8219362 -0.090853758 0
-1.2994606 -1.990418 -0.090836592 0
-1.6322649 -2.2466235 -0.091418333 0
-2.749011 -3.1063385 -0.14164959 0
-4.1156507 -4.1584311 -0.14089006 0
-8.2319326 -7.3273058 -0.1406007 0
-0.69681007 -1.5550786 -0.089982815 0
-0.79916853 -1.6380742 -0.093053631 0
-0.91088134 -1.7286545 -0.091968365 0
-1.0623219 -1.8514476 -0.091408707 0
-1.2698894 -2.0197499 -0.090250082 0
-1.6020633 -2.2890873 -0.091663726 0
-2.6826022 -3.1652234 -0.1405589 0
-4.0304594 -4.2581096 -0.14065509 0
-8.0723705 -7.5354233 -0.1406897 0
-0.68899882 -1.5782112 -0.091851361 0
-0.76701564 -1.6448015 -0.089208208 0
-0.88554597 -1.7459718 -0.090587564 0
-1.0412039 -1.8788319 -0.091588549 0
-1.2440872 -2.0520008 -0.090342574 0
-1.562192 -2.3235154 -0.090857975 0
-2.6394436 -3.2429917 -0.14171669 0
-3.954586 -4.3655167 -0.14113773 0
-7.9104018 -7.7419591 -0.14086597 0
-0.67377907 -1.5953057 -0.091811039 0
-0.7523855 -1.6659042 -0.089753397 0
-0.86718708 -1.7690104 -0.090811811 0
-1.012835 -1.8998206 -0.090532057 0
-1.2195973 -2.0855191 -0.09076982 0
-1.5334675 -2.367414 -0.091540106 0
-2.575563 -3.3033469 -0.14113627 0
-3.8641331 -4.4606447 -0.14088693 0
-7.7363734 -7.9384031 -0.14083055 0
-0.65740788 -1.6113192 -0.091557793 0
-0.74012792 -1.6894715 -0.091062941 0
-0.84535801 -1.7888908 -0.09038683 0
-0.99149525 -1.9269586 -0.090910308 0
-1.1912442 -2.1156776 -0.090720661 0
-1.4908353 -2.3987255 -0.090593405 0
-1.9925337 -2.8727205 -0.090757094 0
-3.7726455 -4.5545359 -0.14071581 0
-7.554687 -8.1277361 -0.14070611 0
-0.64307815 -1.6292971 -0.092029519 0
-0.727485 -1.7131735 -0.092459433 0
-0.81989408 -1.8050019 -0.089223735 0
-0.96772379 -1.9519025 -0.090950467 0
-1.1649208 -2.1478603 -0.09112861 0
-1.4571837 -2.4382863 -0.090907224 0
-1.9305482 -2.9086759 -0.08939404 0
-3.6832435 -4.6503558 -0.14083093 0
-7.3790574 -8.3229437 -0.14093181 0
-0.61494529 -1.6330315 -0.088407554 0
-0.7030856 -1.7251529 -0.090851091 0
-0.80416983 -1.8308028 -0.090440504 0
-0.94838679 -1.9815336 -0.092019536 0
-1.1351048 -2.1766853 -0.091092594 0
-1.4165429 -2.4708354 -0.090418853 0
-1.8849275 -2.9603758 -0.08974012 0
-3.5941789 -4.74683 -0.14113267 0
-7.1877627 -8.5027266 -0.1408003 0
-0.60458684 -1.655051 -0.090328164 0
-0.68400514 -1.742364 -0.090769954 0
-0.77439892 -1.8417437 -0.088417478 0
-0.91602588 -1.9974495 -0.090552635 0
-1.1034682 -2.2035251 -0.09086404 0
-1.3805206 -2.5081186 -0.090669893 0
-1.8462776 -3.0201757 -0.090953924 0
-3.4984829 -4.8366227 -0.1411503 0
-6.9992781 -8.6854248 -0.14091693 0
-0.5915184 -1.6746547 -0.091602929 0
-0.66082931 -1.7548298 -0.089630328 0
-0.76242435 -1.8723491 -0.09087535 0
-0.89647865 -2.0274158 -0.091880955 0
-1.0628577 -2.2198739 -0.089144401 0
-1.3408475 -2.5414369 -0.090539746 0
-1.7864991 -3.0569417 -0.09010417 0
-3.3975508 -4.9205165 -0.14095482 0
-6.8028083 -8.8595276 -0.14091478 0
-0.57426721 -1.6896656 -0.091679893 0
-0.64193034 -1.7720474 -0.089816384 0
-0.73869938 -1.8898665 -0.090564229 0
-0.87349373 -2.0539825 -0.092654519 0
-1.0397635 -2.2564206 -0.090671502 0
-1.3037111 -2.5777848 -0.090900473 0
-1.7357537 -3.1038091 -0.090323634 0
-3.2888024 -4.9946909 -0.14033297 0
-6.5942369 -9.0191536 -0.14062789 0
-0.55184239 -1.6980962 -0.090100147 0
-0.6219098 -1.7879344 -0.089796118 0
-0.71859944 -1.9119067 -0.091327958 0
-0.84114492 -2.0690308 -0.091464601 0
-1.0044913 -2.2784684 -0.090107121 0
-1.2625777 -2.6093783 -0.090803526 0
-1.6836979 -3.1493254 -0.090533771 0
-3.1951487 -5.0872588 -0.1409729 0
-6.3932176 -9.1877203 -0.14076707 0
-0.53593051 -1.7147207 -0.090867601 0
-0.60657334 -1.8101685 -0.091383047 0
-0.700746 -1.9374081 -0.092890002 0
-0.80111319 -2.0730171 -0.08850681 0
-0.97426516 -2.3069682 -0.090622045 0
-1.2222617 -2.6420438 -0.09095455 0
-1.6309824 -3.194279 -0.090806447 0
-3.0940161 -5.1710281 -0.14122961 0
-6.1900005 -9.3541079 -0.14098878 0
-0.51391566 -1.7229911 -0.089557432 0
-0.58094764 -1.8185092 -0.089835159 0
-0.67148429 -1.9475205 -0.091426127 0
-0.78395796 -2.1077912 -0.091061793 0
-0.93786383 -2.3271015 -0.090043284 0
-1.1808257 -2.6733131 -0.091060825 0
-1.575107 -3.2351491 -0.090840302 0
-2.9845848 -5.2436018 -0.14099161 0
-5.9735527 -9.5027695 -0.14085019 0
-0.50465268 -1.7499086 -0.093171634 0
-0.56513911 -1.8408985 -0.091637947 0
-0.64776373 -1.965191 -0.091625206 0
-0.7525928 -2.1228857 -0.090327032 0
-0.91186559 -2.3624804 -0.09174379 0
-1.1430408 -2.710238 -0.091917478 0
-1.5157498 -3.2709055 -0.090563707 0
-2.8783019 -5.3205967 -0.14116049 0
-5.7574377 -9.6516895 -0.14087497 0
-0.48004732 -1.7540716 -0.091074295 0
-0.54249871 -1.8533635 -0.091293596 0
-0.62481052 -1.9842316 -0.092204385 0
-0.72752941 -2.1475451 -0.091324307 0
-0.87655002 -2.3844738 -0.09166079 0
-1.0890452 -2.7223213 -0.090127446 0
-1.4603208 -3.3126149 -0.090907894 0
-2.7658944 -5.3883548 -0.14096743 0
-5.5361314 -9.7927723 -0.14083512 0
-0.46003023 -1.7650093 -0.090838037 0
-0.51783985 -1.8622837 -0.090303876 0
-0.59495258 -1.9920387 -0.090738885 0
-0.6932497 -2.1574402 -0.089997344 0
-0.83245522 -2.3916767 -0.089690275 0
-1.043316 -2.7464852 -0.089824878 0
-1.4010618 -3.3484521 -0.090884052 0
-2.6575835 -5.462759 -0.14129205 0
-5.3038535 -9.9155502 -0.14045309 0
-0.44266438 -1.780591 -0.091860808 0
-0.49445465 -1.872967 -0.089844175 0
-0.56090397 -1.9914898 -0.087862559 0
-0.66257298 -2.1728323 -0.089715086 0
-0.79885578 -2.4159138 -0.090180062 0
-1.0049442 -2.7835047 -0.091026641 0
-1.3390185 -3.3793783 -0.090587698 0
-2.5373743 -5.5168319 -0.14067395 0
-5.0848746 -10.060697 -0.14083003 0
-0.41897938 -1.7847542 -0.090231515 0
-0.47971007 -1.8997881 -0.0929543 0
-0.5469324 -2.0271184 -0.091908686 0
-0.63722181 -2.1981413 -0.091136448 0
-0.75981003 -2.4303439 -0.08948011 0
-0.95830774 -2.8063314 -0.090817399 0
-1.2815385 -3.4185841 -0.091074474 0
-1.9218858 -4.6315084 -0.090771087 0
-4.8586836 -10.19429 -0.14104459 0
-0.40094066 -1.7994614 -0.091267161 0
-0.45059735 -1.8995579 -0.090416856 0
-0.51296991 -2.0252869 -0.08909703 0
-0.60511315 -2.2110267 -0.09069214 0
-0.7257399 -2.4541829 -0.090145774 0
-0.91286784 -2.8313901 -0.090966769 0
-1.2147164 -3.4398484 -0.090269007 0
-1.8246282 -4.669292 -0.090273611 0
-4.6218929 -10.307941 -0.14088802 0
-0.37677643 -1.8016136 -0.089454956 0
-0.42964432 -1.9153016 -0.091380633 0
-0.489326 -2.043642 -0.090133391 0
-0.5714587 -2.2202616 -0.089813612 0
-0.69209695 -2.4796841 -0.091129474 0
-0.85968316 -2.840064 -0.089546539 0
-1.156642 -3.4786494 -0.090955786 0
-1.7351271 -4.7226334 -0.090707518 0
-4.3856354 -10.42233 -0.14090638 0
-0.36398298 -1.8288817 -0.093625911 0
-0.4057835 -1.9250444 -0.09121073 0
-0.45959532 -2.0488393 -0.088907994 0
-0.53844863 -2.2302425 -0.089189894 0
-0.65269119 -2.4930592 -0.090665929 0
-0.81303489 -2.8619323 -0.089622058 0
-1.0876725 -3.4937398 -0.089940064 0
-1.6423314 -4.7697406 -0.090935566 0
-4.1470952 -10.531986 -0.1409566 0
-0.33744371 -1.8248858 -0.090659074 0
-0.38023385 -1.9305398 -0.090302445 0
-0.43604648 -2.0683477 -0.09036646 0
-0.50745684 -2.2446682 -0.089373462 0
-0.61376262 -2.5071497 -0.090423413 0
-0.76691526 -2.8853014 -0.089967184 0
-1.027872 -3.5296342 -0.090635799 0
-1.5472336 -4.8119988 -0.091035999 0
-3.9029789 -10.62861 -0.14083122 0
-0.31750825 -1.8364973 -0.091417275 0
-0.35992 -1.9493181 -0.092205919 0
-0.40606064 -2.0720582 -0.089142226 0
-0.47757828 -2.2623043 -0.090155311 0
-0.57599962 -2.5241179 -0.09066578 0
-0.72209871 -2.9127607 -0.090833567 0
-0.96357191 -3.5551109 -0.090660177 0
-1.4472766 -4.8418283 -0.090637304 0
-3.6602032 -10.728501 -0.14094198 0
-0.29159132 -1.8314828 -0.088541396 0
-0.33471671 -1.9556252 -0.091708846 0
-0.38075244 -2.0881455 -0.090214349 0
-0.44603989 -2.2760844 -0.090469368 0
-0.54058874 -2.5482562 -0.091911592 0
-0.6701349 -2.9211729 -0.089922585 0
-0.9007014 -3.5848906 -0.091123469 0
-1.3535894 -4.8885913 -0.091201536 0
-3.4127908 -10.816287 -0.14090535 0
-0.27203265 -1.844182 -0.089787759 0
-0.30783355 -1.9562885 -0.090226151 0
-0.35278055 -2.0970347 -0.090146683 0
-0.40900698 -2.2731013 -0.088425823 0
-0.49693161 -2.5484273 -0.090317048 0
-0.62479234 -2.9488084 -0.091031544 0
-0.83030897 -3.5923603 -0.09006273 0
-1.2496566 -4.905499 -0.090418242 0
-3.1631496 -10.897382 -0.14085874 0
-0.25012004 -1.8499207 -0.089593478 0
-0.28523076 -1.9702631 -0.091499694 0
-0.32299763 -2.0997095 -0.089136876 0
-0.38049892 -2.2967956 -0.090440027 0
-0.45755503 -2.5609062 -0.09036728 0
-0.57269734 -2.9555578 -0.090213306 0
-0.766819 -3.6209118 -0.0906749 0
-1.1477309 -4.9264917 -0.089966483 0
-2.9148202 -10.983209 -0.14108029 0
-0.22875664 -1.8576113 -0.089951701 0
-0.25745091 -1.9660677 -0.089336209 0
-0.29925516 -2.1240761 -0.091949798 0
-0.34739336 -2.306025 -0.090443023 0
-0.41900468 -2.5766959 -0.090938009 0
-0.52657253 -2.9832726 -0.091552116 0
-0.70449597 -3.6557736 -0.091855608 0
-1.0509379 -4.9652281 -0.090496533 0
-2.6602006 -11.047793 -0.14094074 0
-0.21058555 -1.8791593 -0.093453638 0
-0.23530659 -1.9831415 -0.091439582 0
-0.26725522 -2.1175244 -0.089624353 0
-0.31217822 -2.3064804 -0.089299671 0
-0.37827531 -2.5844991 -0.090663157 0
-0.47484863 -2.9907079 -0.091049336 0
-0.63350827 -3.6580651 -0.090802215 0
-0.94597971 -4.9723887 -0.089629717 0
-2.4039505 -11.104933 -0.14077818 0
-0.18552072 -1.8721646 -0.090835892 0
-0.21040224 -1.9899544 -0.091664352 0
-0.23796569 -2.1204405 -0.089037694 0
-0.28022596 -2.3205016 -0.090238966 0
-0.33761138 -2.5921657 -0.090496577 0
-0.42240757 -2.9935932 -0.090240069 0
-0.56392473 -3.6635392 -0.090110205 0
-0.84572792 -4.9976029 -0.08975295 0
-2.1501532 -11.172787 -0.1410252 0
-0.16329084 -1.8771577 -0.090958826 0
-0.18290669 -1.9831828 -0.089406736 0
-0.20976317 -2.1283441 -0.089411281 0
-0.24502064 -2.3189135 -0.089058556 0
-0.29855791 -2.6082864 -0.091457911 0
-0.36974999 -2.9930851 -0.089238383 0
-0.49924994 -3.693042 -0.091254927 0
-0.94445115 -6.0993881 -0.14096564 0
-1.8907465 -11.214187 -0.14079742 0
-0.14034055 -1.8778988 -0.090287142 0
-0.1590531 -1.9955659 -0.090943925 0
-0.18344636 -2.1489539 -0.092016585 0
-0.21234739 -2.3306875 -0.089911036 0
-0.25749645 -2.6145906 -0.091370605 0
-0.32113078 -3.0147321 -0.090460561 0
-0.43146122 -3.7085049 -0.091517024 0
-0.81403393 -6.1141734 -0.14061481 0
-1.633545 -11.267369 -0.14100245 0
-0.11821312 -1.8837177 -0.090831019 0
-0.13267472 -1.9922428 -0.089606158 0
-0.15216608 -2.1385131 -0.089575164 0
-0.17874546 -2.3379743 -0.090241589 0
-0.21518765 -2.61145 -0.090292372 0
-0.26844141 -3.0110853 -0.089412592 0
-0.36009425 -3.6988814 -0.09012986 0
-0.68439394 -6.132544 -0.14058845 0
-1.3731135 -11.300946 -0.14089943 0
-0.09566965 -1.8870132 -0.090953521 0
-0.10722624 -1.9943619 -0.089429252 0
-0.12419832 -2.152015 -0.091228791 0
-0.14353496 -2.3316319 -0.088764869 0
-0.17508624 -2.6247106 -0.091270722 0
-0.21673697 -3.0116022 -0.088883393 0
-0.29382879 -3.7277048 -0.091576599 0
-0.55470282 -6.1509514 -0.14071734 0
-1.1126493 -11.333693 -0.14093122 0
-0.072877735 -1.8878181 -0.090666078 0
-0.083192244 -2.0133104 -0.0925548 0
-0.094381213 -2.1494417 -0.090344705 0
-0.11016288 -2.3414507 -0.089695506 0
-0.13387932 -2.6299987 -0.091430999 0
-0.16669558 -3.0292602 -0.090082981 0
-0.22395504 -3.7259116 -0.090990238 0
-0.42310035 -6.148828 -0.14004 0
-0.85084379 -11.353002 -0.14080301 0
-0.050503705 -1.8950287 -0.091865428 0
-0.056606192 -2.0023997 -0.090157337 0
-0.065323554 -2.1557784 -0.091052569 0
-0.075248078 -2.3303971 -0.087805472 0
-0.081139587 -2.434056 -0.068156414 0
-0.08060535 -2.4246564 -0.033223186 0
-0.080638535 -2.4252403 0.00042209984 0
-0.08118806 -2.4349089 0.033561606 0
-0.080917083 -2.4301412 0.067415953 0
-0.080234468 -2.4181306 0.10101125 0
-0.027477425 -1.8910543 -0.0908053 0
-0.030832462 -1.9973906 -0.089000382 0
-0.035479795 -2.1446855 -0.089014508 0
-0.040869217 -2.3155005 -0.085500576 0
-0.040641382 -2.3082793 -0.053260688 0
-0.040781446 -2.3127186 -0.02262014 0
-0.04074337 -2.3115118 0.0084887911 0
-0.040860403 -2.3152211 0.039211523 0
-0.040648684 -2.3085108 0.07028272 0
-0.04094141 -2.3177886 0.10100834 0
-0.0046945806 -1.8880835 -0.090082236 0
-0.0054324172 -2.0050671 -0.090355597 0
-0.0063846479 -2.1560431 -0.090790488 0
-0.0067370371 -2.2119143 -0.070853792 0
-0.0067571397 -2.2151015 -0.042296831 0
-0.0066785207 -2.2026365 -0.012285827 0
-0.0067357761 -2.2117143 0.015509868 0
-0.0067504374 -2.2140388 0.043951608 0
-0.0067035342 -2.2066023 0.072666831 0
-0.006763523 -2.2161136 0.10100542 0
0.018016215 -1.8896104 -0.090437301 0
0.020077929 -1.9985297 -0.089154504 0
0.02294535 -2.1500139 -0.089829959 0
0.023973612 -2.2043364 -0.069816016 0
0.024010513 -2.206286 -0.04128914 0
0.024056602 -2.2087209 -0.01287186 0
0.023876324 -2.1991968 0.016371513 0
0.02394956 -2.2030659 0.044453468 0
0.023853412 -2.1979864 0.072862685 0
0.023878708 -2.1993227 0.10100495 0
0.040515594 -1.8841166 -0.089420848 0
0.045867786 -2.0052371 -0.090570547 0
0.052524943 -2.1558893 -0.090948485 0
0.05438761 -2.1980417 -0.069066547 0
0.054571323 -2.202199 -0.040924344 0
0.054343879 -2.197052 -0.011872312 0
0.054408263 -2.198509 0.01635226 0
0.054781754 -2.2069612 0.04422693 0
0.054742809 -2.2060797 0.072651938 0
0.053900138 -2.18701 0.10100462 0
0.063476488 -1.8885343 -0.090635411 0
0.071433231 -2.0030107 -0.090425111 0
0.080263935 -2.1300611 -0.086968847 0
0.085652396 -2.207587 -0.070655294 0
0.08557082 -2.2064133 -0.041621719 0
0.084630258 -2.1928811 -0.011644026 0
0.085456029 -2.2047617 0.015792618 0
0.085721083 -2.208575 0.044070162 0
0.085158154 -2.2004762 0.072741896 0
0.084534831 -2.1915081 0.1010048 0
0.085535116 -1.8802416 -0.089262627 0
0.096817687 -1.9991169 -0.090085782 0
0.11046102 -2.1428654 -0.089472912 0
0.11685122 -2.2101939 -0.071379654 0
0.11591823 -2.2003636 -0.041207585 0
0.1161536 -2.2028434 -0.01281192 0
0.11566906 -2.1977384 0.016108969 0
0.1152115 -2.1929176 0.044684228 0
0.11568549 -2.1979115 0.072743177 0
0.11632761 -2.2046769 0.10100525 0
0.10854754 -1.8824725 -0.090257786 0
0.12187281 -1.9931123 -0.089466415 0
0.13995145 -2.143219 -0.090049528 0
0.14627112 -2.1956911 -0.069795661 0
0.14708455 -2.202445 -0.041839395 0
0.14577122 -2.1915405 -0.0120588 0
0.14575471 -2.1914034 0.016324187 0
0.14676477 -2.19979 0.044208851 0
0.1483043 -2.2125726 0.072323047 0
0.14568207 -2.1908002 0.10100494 0
0.13286263 -1.8918852 -0.092923932 0
0.14787836 -1.9946469 -0.090400003 0
0.16985472 -2.1450446 -0.090996183 0
0.17937967 -2.2102296 -0.072435744 0
0.17746742 -2.1971428 -0.041694183 0
0.17754467 -2.1976717 -0.013017906 0
0.17731135 -2.1960747 0.015709015 0
0.17943333 -2.2105968 0.0435092 0
0.17637911 -2.1896949 0.072764114 0
0.17857069 -2.2046933 0.10100546 0
0.15426446 -1.8805404 -0.091256745 0
0.17321137 -1.9907 -0.090415232 0
0.19798486 -2.1347361 -0.090049036 0
0.20909156 -2.1993117 -0.071576171 0
0.20918135 -2.1998339 -0.042586986 0
0.20894986 -2.1984878 -0.01355358 0
0.20747969 -2.1899402 0.015801327 0
0.20914482 -2.1996214 0.043796595 0
0.20945722 -2.2014377 0.072373658 0
0.20834969 -2.1949985 0.10100532 0
