# .PCD v0.7 - Point Cloud Data file format
VERSION 0.7
FIELDS x y z intensity
SIZE 4 4 4 4
TYPE F F F F
COUNT 1 1 1 1
WIDTH 1360
HEIGHT 1
VIEWPOINT 0 0 0 1 0 0 0
POINTS 1360
DATA ascii
-1.2444351 0.13595688 0.54943651 0
-1.2393647 0.14421058 0.65786719 0
-1.3545879 -0.080757745 -0.049514461 0
-1.0799556 0.37918288 0.04238949 0
-1.074976 0.38752246 0.11449708 0
-1.0775316 0.38324249 0.18897246 0
-1.2464409 0.10036146 0.3489027 0
-1.2399814 0.11117946 0.44895598 0
-1.2377203 0.11496627 0.55543 0
-1.2386371 0.11343097 0.67085135 0
-1.3441439 -0.10177196 -0.049971886 0
-1.0616211 0.38521105 0.04187198 0
-1.0573409 0.39258868 0.11306646 0
-1.0623367 0.38397753 0.18746813 0
-1.2507393 0.059228893 0.3585031 0
-1.2422354 0.073887102 0.46002892 0
-1.2457951 0.067751281 0.57397324 0
-1.2408156 0.076334469 0.68740028 0
-1.3241776 -0.10654927 -0.049766127 0
-1.0533404 0.37413472 0.042068534 0
-1.0492266 0.38143593 0.11367415 0
-1.0485967 0.38255388 0.18646103 0
-1.2473019 0.029890412 0.36456594 0
-1.2429086 0.037687656 0.4705953 0
-1.2443243 0.035175081 0.5853802 0
-1.3129486 -0.12700474 -0.050210036 0
-1.0357496 0.37978709 0.04158726 0
-1.0353534 0.38051146 0.11303731 0
-1.0344011 0.38225257 0.18526584 0
-1.2492465 -0.010540849 0.37382561 0
-1.2375666 0.010812992 0.47754991 0
-1.2380182 0.0099875871 0.59323061 0
-1.2926165 -0.13098276 -0.049990743 0
-1.0190493 0.38448107 0.04115691 0
-1.0212681 0.3803004 0.11233923 0
-1.0180281 0.38640517 0.18320584 0
-1.2426807 -0.036891941 0.37894964 0
-1.2402115 -0.03223956 0.49057698 0
-1.2424185 -0.036398057 0.61100239 0
-1.2770386 -0.1438663 -0.050140761 0
-1.0062945 0.38216835 0.041019149 0
-1.0070763 0.38064945 0.11159948 0
-1.0074728 0.37987912 0.1833671 0
-1.2402387 -0.072366841 0.38668239 0
-1.2455872 -0.082758673 0.50630116 0
-1.2397355 -0.071389206 0.62332755 0
-1.256031 -0.14610982 -0.049873188 0
-0.99034905 0.38646466 0.040624995 0
-0.99405545 0.37903506 0.11112168 0
-0.99145991 0.384238 0.18136045 0
-1.2405412 -0.11505974 0.3964335 0
-1.2332426 -0.10042942 0.50968885 0
-1.2482487 -0.13050985 0.64675593 0
-1.2369523 -0.15191865 -0.04975912 0
-0.98016971 0.37946332 0.040689185 0
-0.98131144 0.37710059 0.11070464 0
-0.9766705 0.3867045 0.1797855 0
-1.2413064 -0.16092885 0.40702435 0
-1.2406279 -0.15952468 0.52842009 0
-1.2209302 -0.16407871 -0.049905553 0
-0.96860605 0.37530959 0.04064583 0
-0.96750605 0.37766105 0.11001312 0
-0.96221876 0.38896364 0.17829832 0
-1.2417859 -0.20866156 0.41807526 0
-1.2403395 -0.20556962 0.54221374 0
-1.1996009 -0.16476941 -0.049609639 0
-0.9530248 0.38010329 0.040257823 0
-0.95137268 0.38375407 0.10869346 0
-0.94773906 0.3917836 0.17674467 0
-1.2410356 -0.25633001 0.42904371 0
-1.2374587 -0.24842584 0.55476588 0
-1.1866395 -0.18407583 -0.050051261 0
-0.9384433 0.38328975 0.039942242 0
-0.93755907 0.38531113 0.10793704 0
-0.94019747 0.37927973 0.17825204 0
-1.2414515 -0.3093735 0.44145134 0
-1.2325904 -0.28911746 0.56647629 0
-1.1676502 -0.18992424 -0.04997528 0
-0.92496318 0.38443655 0.039714523 0
-0.92179221 0.39194113 0.10661311 0
-0.92555016 0.38304728 0.17658433 0
-1.2405984 -0.36256897 0.45383379 0
-1.1519033 -0.20359051 -0.050210357 0
-0.9119615 0.38483042 0.039523564 0
-0.91283268 0.38269395 0.10716179 0
-0.914684 0.37815392 0.17664804 0
-1.2393051 -0.4179306 0.46675265 0
-1.130722 -0.20389652 -0.049939375 0
-0.90231997 0.37704068 0.039653778 0
-0.90108007 0.38019437 0.10694162 0
-0.89841211 0.3869803 0.1740793 0
-1.2394089 -0.48034012 0.48154429 0
-1.110245 -0.20553136 -0.049730618 0
-0.89015061 0.37566155 0.03954329 0
-0.8872816 0.38323754 0.1061026 0
-0.88798058 0.38139176 0.17434227 0
-1.2396383 -0.54721439 0.49748331 0
-1.0931201 -0.21594489 -0.049866211 0
-0.87567121 0.38084435 0.039189808 0
-0.87854463 0.37295818 0.10681118 0
-0.87718755 0.3766827 0.1744605 0
-1.0762223 -0.22730613 -0.050045226 0
-0.86339521 0.38048351 0.039054491 0
-0.86387235 0.37912083 0.10565697 0
-0.86279833 0.38218814 0.17265239 0
-1.057031 -0.2322495 -0.049989793 0
-0.85146177 0.37939721 0.038952906 0
-0.84838212 0.38856041 0.10415712 0
-0.85269034 0.37574178 0.17316043 0
-1.035904 -0.23106623 -0.049713876 0
-0.8393051 0.37923151 0.038822848 0
-0.83581901 0.39005345 0.10358263 0
-0.84127086 0.37312931 0.17296417 0
-1.0152154 -0.23065507 -0.049477827 0
-0.82726073 0.37900668 0.038701236 0
-0.82741475 0.37850726 0.10449459 0
-0.82577693 0.3838197 0.17028527 0
-1.0004256 -0.24969184 -0.049976181 0
-0.81541002 0.37842172 0.03859913 0
-0.81621861 0.37567645 0.10443863 0
-0.81253004 0.38819885 0.16883962 0
-0.98361796 -0.26285696 -0.050261952 0
-0.8022604 0.38271964 0.038321856 0
-0.80201167 0.38360512 0.10319756 0
-0.80305821 0.37987965 0.16980915 0
-0.96158564 -0.25727451 -0.04986177 0
-0.79210734 0.37656093 0.038438074 0
-0.7908327 0.38132799 0.10311594 0
-0.79388142 0.3699261 0.17110284 0
-0.94144481 -0.25800681 -0.049705703 0
-0.78003991 0.37760061 0.038293492 0
-0.77805316 0.3854242 0.10234353 0
-0.77878284 0.38255078 0.16821276 0
-0.9242872 -0.27068186 -0.049997978 0
-0.76488817 0.39188892 0.16597635 0
-0.90265787 -0.26462758 -0.049611617 0
-0.7564894 0.37844837 0.16799164 0
-0.8868264 -0.2843678 -0.050178017 0
-0.74574953 0.3745901 0.16825372 0
-0.86714584 -0.28699791 -0.050127197 0
-0.73209143 0.38505876 0.16590457 0
-0.84706724 -0.2873323 -0.050002106 0
-0.72356182 0.36999846 0.16827723 0
-0.82580322 -0.28039467 -0.049622912 0
-0.80685139 -0.28608155 -0.049710762 0
-0.78804994 -0.29321897 -0.049859431 0
-0.76853007 -0.29588187 -0.049855165 0
-0.74945426 -0.30214417 -0.049989223 0
-0.73052555 -0.31062472 -0.050211418 0
-0.71007723 -0.30522346 -0.04994392 0
-0.69007593 -0.30288267 -0.049795602 0
-0.67172021 -0.32182884 -0.050418407 0
-0.65118361 -0.31175506 -0.050011102 0
-0.63132715 -0.31005585 -0.049912605 0
-0.61124074 -0.29980242 -0.049517509 0
-0.59183985 -0.30814695 -0.049795683 0
-0.57224429 -0.31698346 -0.050100118 0
-0.55245185 -0.31914675 -0.050175127 0
-0.53266686 -0.31727779 -0.050115075 0
-0.51321274 -0.30511773 -0.049696345 0
-0.49335563 -0.30994177 -0.049893018 0
-0.47298345 -0.32173002 -0.050347742 0
-0.45340148 -0.316679 -0.050209522 0
-0.49605221 0.32755852 0.039159067 0
-0.43344641 -0.31755972 -0.050292421 0
-0.48437521 0.32824242 0.039164871 0
-0.41507176 -0.30049992 -0.049741242 0
-0.47440669 0.34765416 0.038504545 0
-0.39521596 -0.30136609 -0.049841084 0
-0.46090358 0.32868958 0.03922537 0
-0.37573484 -0.29839718 -0.049812209 0
-0.44790933 0.31846488 0.039639208 0
-0.44180685 0.26630825 0.11290542 0
-0.44235161 0.27096409 0.18455702 0
-0.44128719 0.26186657 0.26093432 0
-0.44121584 0.26125681 0.33864063 0
-0.44181925 0.26641399 0.4178195 0
-0.35515273 -0.3040452 -0.05010232 0
-0.43531728 0.31362158 0.039865877 0
-0.42972389 0.27052456 0.11261471 0
-0.42852902 0.26131821 0.18658887 0
-0.4292064 0.26653737 0.26012903 0
-0.42833129 0.25979447 0.33964843 0
-0.43036404 0.27545679 0.41468436 0
-0.42989415 0.2718364 0.50169969 0
-0.33695102 -0.29153025 -0.049747292 0
-0.42116103 0.2989558 0.040452886 0
-0.41940892 0.28666973 0.11104505 0
-0.41919824 0.28519255 0.18254955 0
-0.42007074 0.29131061 0.25418085 0
-0.42041758 0.29374254 0.32881251 0
-0.41923624 0.28545904 0.41120264 0
-0.42019388 0.2921741 0.49227181 0
-0.31457093 -0.30749846 -0.050428946 0
-0.40639913 0.28310192 0.04109041 0
-0.4063969 0.28308767 0.11163194 0
-0.40586007 0.27963495 0.18389554 0
-0.40797913 0.29326385 0.2541427 0
-0.40609661 0.2811563 0.33365658 0
-0.40707853 0.28747165 0.41112047 0
-0.40748462 0.29008341 0.49424386 0
-0.29882687 -0.28114712 -0.049590107 0
-0.39215347 0.27303326 0.04152656 0
-0.39281759 0.27697676 0.11251355 0
-0.3917188 0.2704522 0.18593808 0
-0.39047328 0.26305616 0.26246467 0
-0.39137149 0.2683897 0.33863255 0
-0.39256236 0.2754612 0.41699016 0
-0.40027496 0.32125932 0.47942224 0
-0.27651241 -0.29431784 -0.050190538 0
0.069893681 -2.2041378 0.13148607 0
-0.38494027 0.30347085 0.48951143 0
-0.2570723 -0.29046881 -0.050183646 0
0.11586335 -2.2086861 0.13194874 0
-0.37443867 0.31321239 0.48569137 0
-0.23755781 -0.28698647 -0.050199024 0
0.15947433 -2.2002277 0.13195944 0
-0.3679761 0.34148079 0.47246158 0
-0.21919383 -0.27822602 -0.050030444 0
0.20479907 -2.1994672 0.13227166 0
-0.35648978 0.34390402 0.47247913 0
-0.20131363 -0.26790559 -0.049812637 0
0.25082538 -2.2007082 0.13267908 0
-0.3483898 0.36081517 0.4651264 0
-0.18357636 -0.25763416 -0.049604222 0
0.29587451 -2.19677 0.13291857 0
-0.0062430887 -0.97485733 0.25278237 0
-0.0046412139 -0.98133636 0.42133939 0
-0.33929515 0.37216944 0.46066728 0
-0.16184787 -0.26324558 -0.049989332 0
0.3418645 -2.1957438 0.13328719 0
-0.3297652 0.38097101 0.45757249 0
-0.1441849 -0.2529881 -0.04979844 0
0.3889499 -2.1977026 0.13378899 0
-0.31809166 0.38137132 0.45888779 0
-0.1233182 -0.25434053 -0.050046414 0
-0.30195743 0.36651438 0.46822774 0
-0.10473026 -0.24751616 -0.050000209 0
-0.30097613 0.40356535 0.45058346 0
-0.086138614 -0.24080122 -0.049966667 0
-0.29263446 0.41431719 0.44667217 0
-0.067932911 -0.23297942 -0.049900163 0
-0.28303948 0.42063677 0.44513455 0
-0.049968876 -0.22458816 -0.049820509 0
-0.26113167 0.39083797 0.46275964 0
-0.03038303 -0.22089434 -0.049927142 0
-0.0093311453 -0.22092152 -0.05018536 0
0.0068941326 -0.20792723 -0.049956657 0
0.53528267 -1.5771172 0.11435217 0
0.025188049 -0.20052421 -0.049949668 0
0.57550412 -1.5747633 0.11479941 0
0.047454618 -0.20269537 -0.050321613 0
0.60213166 -1.5388255 0.11397029 0
0.059637509 -0.18074274 -0.049768955 0
0.62621361 -1.4984324 0.11297653 0
0.082167409 -0.18299413 -0.050164972 0
0.65424937 -1.4686339 0.11240301 0
-0.19048132 0.42972934 0.37968594 0
0.094496749 -0.16240191 -0.04967666 0
0.70025319 -1.4788373 0.11341204 0
0.11919906 -0.16862559 -0.050251622 0
0.77546948 -1.5488052 0.11681256 0
-0.16527171 0.42963517 0.38408485 0
-0.19900264 0.50057352 0.50096941 0
0.13013591 -0.14588809 -0.049690608 0
0.55652148 -1.0142398 0.46179393 0
-0.16069855 0.44640827 0.37865573 0
-0.19441341 0.51507002 0.49441278 0
0.150683 -0.14298344 -0.049925279 0
0.59286529 -1.0155609 0.46493316 0
-0.1516781 0.45367897 0.37762919 0
-0.18990205 0.52910793 0.48815739 0
0.16289611 -0.12376989 -0.049514905 0
0.61121768 -0.98150349 0.46098647 0
-0.13789158 0.45170015 0.38096994 0
-0.18053545 0.53328687 0.48849592 0
0.18704028 -0.12730312 -0.050030425 0
0.65177459 -0.98980665 0.46573821 0
-0.12979044 0.4607051 0.37924904 0
-0.17177527 0.538625 0.48813504 0
0.20494469 -0.11884166 -0.050072137 0
0.68281931 -0.979599 0.4668099 0
-0.11511407 0.45765465 0.38327315 0
-0.16275002 0.54345745 0.48818919 0
0.22374739 -0.11188556 -0.050185304 0
0.71974903 -0.97937202 0.47004372 0
-0.079550095 0.41856933 0.40460056 0
-0.15544669 0.55130941 0.48625836 0
0.24012507 -0.10064591 -0.05013163 0
0.75281912 -0.97168779 0.47183794 0
-0.060660042 0.41037303 0.41146082 0
-0.14698072 0.55702758 0.48584455 0
0.25749561 -0.091112621 -0.050157338 0
0.80422086 -0.99377608 0.4800109 0
-0.055877008 0.42627704 0.40682235 0
-0.1339751 0.55521989 0.49071932 0
0.27267614 -0.078023918 -0.050042864 0
0.83983999 -0.98836422 0.48254183 0
-0.13033737 0.56884289 0.48496455 0
0.29186979 -0.071343191 -0.050207235 0
0.88026661 -0.98979163 0.4866538 0
-0.11493102 0.56364584 0.49245045 0
0.30984208 -0.06259156 -0.050294731 0
0.91425139 -0.98038363 0.48856965 0
0.02177914 0.37483048 0.44200978 0
-0.11445976 0.58170855 0.48361924 0
0.32350746 -0.047359947 -0.050113354 0
0.95079058 -0.97426367 0.49131069 0
0.031987868 0.38340336 0.44140461 0
-0.10479612 0.58552194 0.4849205 0
0.33928493 -0.035384778 -0.050079431 0
0.99945956 -0.98490977 0.49785924 0
0.043220662 0.39044249 0.44163209 0
-0.10132802 0.59834599 0.47981229 0
0.35273644 -0.020188337 -0.049912557 0
0.053720199 0.39853597 0.44139686 0
-0.090833701 0.60096049 0.48212975 0
0.3676829 -0.0072242073 -0.04985043 0
0.070769988 0.39767617 0.44582388 0
-0.091995545 0.61963958 0.47275138 0
0.38248804 0.0058599659 -0.049790721 0
1.1265575 -0.98248649 0.10595753 0
1.1344191 -0.99292898 0.3083005 0
0.092336081 0.39126849 0.45327896 0
-0.080449618 0.62077951 0.47629261 0
0.39857772 0.017218107 -0.049816679 0
0.1075336 0.39384723 0.4562462 0
-0.079398431 0.6357488 0.46961197 0
0.41892776 0.023238773 -0.050095286 0
0.1273597 0.39088351 0.46227267 0
-0.070970275 0.64096236 0.47025853 0
0.42897221 0.042239424 -0.049791045 0
-0.056896843 0.63928479 0.4762615 0
0.44815335 0.049967047 -0.050013736 0
-0.05337242 0.65064192 0.47239366 0
0.46453592 0.061208364 -0.050084971 0
-0.047698952 0.65923995 0.47067282 0
0.481904 0.07140886 -0.050216213 0
0.4896687 0.092408888 -0.049840387 0
1.2109954 -0.70802855 0.10030863 0
-0.037326373 0.67720157 0.46673048 0
0.50735551 0.10228764 -0.050005544 0
1.2063017 -0.6539464 0.098769478 0
0.52005225 0.11760473 -0.049916059 0
0.38195589 0.26329613 0.054749381 0
-0.018093148 0.68534684 0.4709253 0
0.5326342 0.132954 -0.049831785 0
0.38085583 0.28909427 0.054057717 0
0.84433347 -0.18770313 0.22212586 0
-0.011062779 0.69227612 0.4708479 0
0.54800612 0.14542472 -0.049899492 0
0.38647369 0.30746615 0.053730983 0
0.83648998 -0.14396834 0.21818489 0
-0.0058358102 0.70101202 0.46933037 0
0.55812198 0.16310799 -0.049711771 0
0.4056147 0.31229103 0.05409525 0
0.74407202 -0.01878882 0.20166078 0
0.74151486 -0.016287452 0.33370134 0
0.74125832 -0.016036516 0.46949431 0
-0.0019461898 0.7109682 0.46681377 0
0.57687873 0.17237043 -0.049963664 0
0.43170008 0.31085068 0.054800808 0
0.84113818 -0.079696424 0.21371157 0
0.18777634 0.54352009 0.34861639 0
0.0052830786 0.71759331 0.46716768 0
0.59330302 0.18404913 -0.050104629 0
0.45710549 0.31072611 0.055464111 0
0.83642524 -0.042078141 0.21057087 0
0.18851168 0.56054455 0.34491095 0
0.01038023 0.72622412 0.46585864 0
0.60398716 0.20107198 -0.049974468 0
0.83816379 -0.01129902 0.073260821 0
0.85281056 -0.024581915 0.21059592 0
0.18667479 0.57952583 0.34018913 0
0.017999252 0.73249495 0.46667096 0
0.61440617 0.21821094 -0.049843386 0
0.84298128 0.016106123 0.072736256 0
0.84076923 0.01806199 0.20657453 0
0.83934647 0.019320006 0.34224996 0
0.21365608 0.57255191 0.34842432 0
0.027939757 0.73676127 0.46937487 0
0.62921649 0.23144662 -0.049930926 0
0.8375935 0.051824685 0.071752675 0
0.84200162 0.048024889 0.20455651 0
0.83740538 0.05198681 0.33811158 0
0.22657527 0.57852519 0.35035521 0
0.036402307 0.74245518 0.47093475 0
0.64268249 0.24589658 -0.049962681 0
0.84977382 0.071879618 0.071619779 0
0.84404641 0.076692216 0.20272703 0
0.84151095 0.078822844 0.33553854 0
0.92409009 0.0094323102 0.49970406 0
0.26623616 0.56222129 0.36391941 0
0.27853331 0.55188811 0.45807895 0
0.037609003 0.75433469 0.46691349 0
0.65710038 0.25959998 -0.05004647 0
0.83964771 0.11008774 0.070470564 0
0.83888119 0.1107155 0.19996513 0
0.8327319 0.11575197 0.33006746 0
0.94889838 0.020607824 0.50275493 0
0.29434994 0.55670458 0.37229002 0
0.24801452 0.5946548 0.43704787 0
0.043031953 0.76254225 0.46628082 0
0.66767138 0.27645367 -0.049961619 0
0.84343189 0.13616014 0.069990367 0
0.84942764 0.13137436 0.19945054 0
0.83291811 0.14455235 0.3268277 0
0.98365134 0.024235839 0.50906777 0
0.2672765 0.59605223 0.35705486 0
0.25419244 0.60649604 0.4359543 0
0.063279413 0.75888443 0.47698224 0
0.68852657 0.28523636 -0.050352387 0
0.85238999 0.15778363 0.069763772 0
0.84355992 0.16465175 0.19674177 0
0.83577305 0.1707083 0.32431257 0
0.24980284 0.62647498 0.42940703 0
0.063532375 0.77135587 0.47252244 0
0.68144375 0.3155399 -0.04949297 0
0.84327275 0.19290841 0.068741925 0
0.84352094 0.19272029 0.19490145 0
0.84729797 0.18985808 0.32385805 0
0.25773326 0.63662106 0.42945325 0
0.071439169 0.77779174 0.47391757 0
0.70855981 0.31985003 -0.050176058 0
0.85348779 0.21287167 0.068607092 0
0.83869833 0.22378838 0.1924866 0
0.84180206 0.22149742 0.31964666 0
0.28543547 0.6321786 0.43974003 0
0.066249155 0.79397064 0.46570587 0
0.71151072 0.34212905 -0.049792875 0
0.84713215 0.24463427 0.067755997 0
0.84307855 0.24754822 0.1913636 0
0.84358615 0.24718332 0.31717908 0
0.084203623 0.79308403 0.47462207 0
0.72333294 0.35787243 -0.049811933 0
0.84783715 0.2707262 0.067237556 0
0.84168535 0.27503222 0.18953249 0
0.83558565 0.27930164 0.31265074 0
0.83955926 0.27652031 0.44104391 0
0.096608602 0.7965458 0.47943473 0
0.72973603 0.37732834 -0.049605314 0
0.8875441 0.26980609 0.068422705 0
0.84259802 0.30043 0.18806212 0
0.83425254 0.30611616 0.30970475 0
0.84525639 0.29861873 0.43903598 0
0.10861351 0.80052936 0.48395059 0
0.74779719 0.38888294 -0.049910344 0
0.9251129 0.27131069 0.069505915 0
0.8453204 0.32421851 0.18687873 0
0.84277433 0.32590675 0.30898914 0
0.83283693 0.33249593 0.43158445 0
0.10898098 0.81246132 0.48018384 0
0.76624495 0.40044796 -0.050235536 0
0.95514232 0.27859235 0.070260867 0
0.83097416 0.35869187 0.18356046 0
0.84026366 0.35269934 0.30596527 0
0.83932918 0.35330212 0.43006507 0
0.11778178 0.81876457 0.48250577 0
0.76650125 0.42370081 -0.049797632 0
0.99475735 0.28049284 0.071417749 0
0.84317988 0.37559265 0.18369223 0
0.84112734 0.37688041 0.30375573 0
0.8374911 0.37916172 0.42612785 0
0.1368468 0.81874633 0.49205127 0
0.7855739 0.43511772 -0.050162256 0
1.0329745 0.28420609 0.07250832 0
0.84268552 0.40028024 0.18225116 0
0.83434933 0.40536529 0.30001333 0
0.83225566 0.40664232 0.42130312 0
0.13912393 0.82944518 0.48986149 0
0.79366022 0.45335042 -0.050074186 0
1.0677361 0.29086637 0.073449329 0
0.83461982 0.42906779 0.17991383 0
0.85241586 0.41851753 0.30158314 0
0.84766489 0.42133415 0.42274043 0
0.13892867 0.84150362 0.48607668 0
0.80283374 0.47088885 -0.050041039 0
0.84313625 0.44767654 0.17969505 0
0.83925563 0.44991165 0.29667723 0
0.83372229 0.45309854 0.41558021 0
0.13600238 0.85495138 0.48055443 0
0.80503052 0.49230623 -0.049731798 0
0.85112506 0.4665255 0.17944178 0
0.83580905 0.47509176 0.29389495 0
0.83127779 0.47762609 0.41194877 0
0.1521997 0.85743642 0.48818102 0
0.81888682 0.50714916 -0.049909309 0
0.85375208 0.48822129 0.1785637 0
0.83804864 0.49674648 0.29236379 0
0.8490203 0.49079007 0.41429242 0
0.83469433 0.52110946 -0.050171942 0
0.84587878 0.51521873 0.1764493 0
0.84977442 0.5131669 0.29283211 0
0.84421045 0.51609737 0.41016543 0
0.84493035 0.53812671 -0.050216611 0
0.8443653 0.53841531 0.17515707 0
0.84167784 0.53978783 0.28932527 0
0.84600776 0.5375765 0.40804929 0
0.83601171 0.54268163 0.52654117 0
0.84739751 0.55902779 -0.049960099 0
0.84946877 0.55800259 0.17470147 0
0.83788949 0.5637337 0.28677484 0
0.84063619 0.56237417 0.40398276 0
0.84291273 0.56124747 0.52581769 0
0.85786635 0.57589597 -0.050032377 0
0.86546224 0.57225478 0.17557593 0
0.84381765 0.58263034 0.28624353 0
0.84089988 0.58402902 0.40162367 0
0.83967429 0.58461654 0.5214442 0
0.86075491 0.59634078 -0.049814284 0
0.90841562 0.57422781 0.17966066 0
0.8470847 0.60268331 0.28523371 0
0.83813709 0.60683471 0.39850408 0
0.82540685 0.61274111 0.51315945 0
0.87501913 0.61151558 -0.050052665 0
0.93293148 0.58552724 0.18155348 0
0.84433895 0.62528342 0.28309104 0
0.83295482 0.63039207 0.39480597 0
0.84245616 0.62612832 0.51647079 0
0.88748151 0.62765849 -0.050227091 0
0.95301741 0.59923494 0.18293379 0
0.8393442 0.64853615 0.28057402 0
0.84353524 0.6467185 0.39559427 0
0.84126455 0.64770329 0.51321054 0
0.89140588 0.64751422 -0.050078012 0
0.99391991 0.60457826 0.18675242 0
0.8318966 0.67243856 0.27764803 0
0.84261733 0.66794837 0.39325497 0
0.83857828 0.66964006 0.50952661 0
0.89431733 0.66766924 -0.049900338 0
1.0435908 0.60734677 0.19157587 0
0.83855408 0.69020361 0.27753931 0
0.84180111 0.68889147 0.39102921 0
0.84557754 0.68736535 0.50943619 0
0.89790529 0.68742961 -0.049759205 0
1.0769804 0.61767399 0.19450195 0
0.8594169 0.70242214 0.28022394 0
0.84114665 0.709539 0.38893104 0
0.83904284 0.7103585 0.50459397 0
0.28218386 0.92727333 0.45682666 0
0.91653281 0.70144564 -0.050201707 0
0.85340387 0.72512537 0.27774882 0
0.84393388 0.72867757 0.3878516 0
0.82850105 0.73446643 0.49845377 0
0.27903405 0.9405719 0.45297846 0
0.90679723 0.72603035 -0.049572423 0
0.84404391 0.74867201 0.27469817 0
0.83652288 0.75138563 0.38407651 0
0.83432037 0.75218028 0.49823576 0
0.25418028 0.96149737 0.43769243 0
0.93678421 0.73637927 -0.050458536 0
0.84936804 0.76668096 0.27452034 0
0.84001559 0.76992285 0.38333952 0
0.85062677 0.76624465 0.50179005 0
0.83664078 0.77109271 0.61687905 0
0.26561359 0.96903199 0.44182852 0
0.92491347 0.76131171 -0.049771 0
0.85206777 0.78553975 0.27388769 0
0.84816974 0.78683615 0.38392183 0
0.83351892 0.79170895 0.49367628 0
0.83562654 0.79100794 0.61382985 0
0.2954956 0.97065187 0.45572525 0
0.94829684 0.77450418 -0.050418984 0
0.84451503 0.807576 0.27136195 0
0.83654159 0.81011689 0.37926179 0
0.83607596 0.81026524 0.49257374 0
0.84174496 0.80845875 0.61400157 0
0.30633017 0.97907746 0.4595747 0
0.94588894 0.7960403 -0.050108079 0
0.85621816 0.82337654 0.27252889 0
0.83335203 0.8303473 0.37694874 0
0.85206753 0.82464182 0.49622953 0
0.8421542 0.82766396 0.61179674 0
0.31644186 0.98792785 0.46308687 0
0.94634682 0.81651694 -0.049914975 0
0.86559433 0.84002727 0.27329192 0
0.83445352 0.84909368 0.37585217 0
0.83889502 0.84780055 0.48982918 0
0.83929271 0.8476848 0.60829407 0
0.33259705 0.99520475 0.46979374 0
0.95144957 0.83556634 -0.049904209 0
0.89291078 0.85181272 0.27744937 0
0.83566529 0.8677001 0.37485129 0
0.84842438 0.86415911 0.49139029 0
0.8384288 0.86693317 0.60577041 0
0.31677321 1.011709 0.45991969 0
0.96677524 0.85191214 -0.050279833 0
0.92925245 0.86181879 0.28330421 0
0.8524335 0.88210022 0.37802055 0
0.84819275 0.8832199 0.48965853 0
0.84526354 0.88399327 0.60665584 0
0.32367596 1.021701 0.46194682 0
0.96190137 0.87359607 -0.049918409 0
0.94485015 0.87786901 0.28530729 0
0.84180051 0.90369231 0.37402058 0
0.83422583 0.90559047 0.48330376 0
0.84134847 0.90380561 0.60304189 0
0.33734527 1.0301044 0.46752283 0
0.96710378 0.8926307 -0.049937822 0
0.99720317 0.88548958 0.29415467 0
0.85755938 0.91862017 0.3770242 0
0.84183639 0.92235047 0.48444235 0
0.83197874 0.92468917 0.59722394 0
0.33374777 1.0428947 0.46425763 0
0.96679443 0.91291708 -0.049764309 0
1.0260977 0.89963382 0.29865932 0
0.84081334 0.94113553 0.37157008 0
0.83683342 0.94202691 0.48134938 0
0.84655243 0.93984997 0.60169321 0
0.34183541 1.0529011 0.46707571 0
0.97280043 0.93175036 -0.04983101 0
1.0581464 0.91375923 0.30376634 0
0.83944756 0.9598614 0.37021467 0
0.84018475 0.95970601 0.48118946 0
0.84444541 0.95880789 0.59917331 0
0.34335271 1.0644393 0.46659121 0
0.98052198 0.95029557 -0.049968619 0
1.0841036 0.92981899 0.3077735 0
0.86085469 0.97395205 0.37484655 0
0.83279365 0.97949928 0.47746247 0
0.83783072 0.97850353 0.59485811 0
0.35929266 1.0731035 0.47353798 0
0.98765653 0.96905106 -0.050093085 0
0.84565204 0.99526983 0.37001562 0
0.82465643 0.99914634 0.4735761 0
0.83440107 0.99734712 0.59199846 0
0.38690731 1.0799695 0.48646426 0
0.98159641 0.99016356 -0.049747892 0
0.84511691 1.0135893 0.36906153 0
0.84206945 1.0141122 0.47840643 0
0.84633857 1.0133796 0.59570038 0
0.38560012 1.0924617 0.48472419 0
0.98546964 1.0094563 -0.049772084 0
0.4314771 1.0973787 0.0417463 0
0.43640259 1.0965971 0.11414073 0
0.43533537 1.0967664 0.1872806 0
0.42858222 1.0978382 0.26070586 0
0.43755254 1.0964146 0.34116018 0
0.43067828 1.0975055 0.42022303 0
0.39868692 1.1025828 0.4903594 0
0.99326199 1.0281978 -0.049946398 0
0.40944692 1.1133317 0.040883008 0
0.41740671 1.1121709 0.11187055 0
0.40313926 1.1142515 0.18106544 0
0.41279545 1.1128434 0.25614768 0
0.40753993 1.1136098 0.33042759 0
0.40420511 1.114096 0.40835288 0
0.39398786 1.1155859 0.48705569 0
0.98156184 1.0496588 -0.049426891 0
0.38273272 1.1292952 0.039859705 0
0.42369863 1.1238472 0.11236703 0
0.43607673 1.1222012 0.18675095 0
0.43075022 1.1229095 0.26033014 0
0.43220487 1.1227161 0.33813673 0
0.42532924 1.1236304 0.41647041 0
0.4151611 1.1249827 0.49689913 0
0.98948914 1.0683948 -0.049623668 0
0.37256095 1.1425455 0.039440017 0
0.42236844 1.1365589 0.11205364 0
0.44381163 1.1339816 0.18786809 0
0.43260333 1.1353288 0.26040128 0
0.42595556 1.1361278 0.33551371 0
0.43424782 1.1351311 0.41953588 0
0.99823481 1.0871855 -0.049858041 0
0.367089 1.154995 0.039195649 0
0.86634177 1.1013559 0.3713344 0
0.83930629 1.1042606 0.47335261 0
0.84155279 1.1040192 0.58855307 0
1.0042466 1.1064044 -0.050002586 0
0.34736672 1.168623 0.038446166 0
0.85497636 1.120543 0.36795706 0
0.83880514 1.1220747 0.47259074 0
0.84819239 1.1211855 0.59057343 0
1.0059115 1.1260853 -0.049999941 0
0.3654764 1.178619 0.039058793 0
0.85096544 1.1387953 0.3665278 0
0.84147555 1.1395737 0.47296324 0
0.83597571 1.1400248 0.58484823 0
1.0104669 1.1455669 -0.050109621 0
0.36794648 1.190135 0.039115693 0
0.85346323 1.1564574 0.36682311 0
0.84513074 1.1570354 0.47373736 0
0.8416757 1.157275 0.58666241 0
1.0030957 1.1658057 -0.049801514 0
0.84355205 1.1748555 0.36400408 0
0.82675487 1.1758082 0.46724284 0
0.84598345 1.1747175 0.58798814 0
1.0148922 1.1849848 -0.050187666 0
0.85031599 1.1922425 0.36550429 0
0.8364982 1.1928518 0.47019491 0
0.83522433 1.1929079 0.58315986 0
1.0190721 1.2046794 -0.050310232 0
0.8448655 1.210165 0.36394197 0
0.83705062 1.2104111 0.47015789 0
0.84349662 1.2102082 0.586312 0
1.005257 1.2248036 -0.049799073 0
0.85121244 1.2277133 0.36544806 0
0.83260185 1.2280649 0.46853039 0
0.84637409 1.2278048 0.58731955 0
1.0101728 1.2444524 -0.049965732 0
0.8534196 1.2454392 0.36595419 0
0.83803326 1.2455361 0.47026408 0
0.85542375 1.2454265 0.59097433 0
1.0213258 1.264261 -0.050363913 0
0.85834187 1.263235 0.36721006 0
0.83256322 1.2630726 0.46844423 0
0.83542413 1.2630906 0.58269358 0
1.0161194 1.2840447 -0.050186943 0
0.85067803 1.2809197 0.36531171 0
0.8336888 1.2805988 0.46889207 0
0.85251814 1.2809545 0.58986384 0
1.0106345 1.3036981 -0.050008852 0
0.84864157 1.298597 0.36490583 0
0.84517926 1.298488 0.47286361 0
0.83454543 1.2981532 0.58260399 0
1.0025223 1.3231128 -0.049745616 0
0.85320061 1.3165278 0.36624098 0
0.83721048 1.3158227 0.47043207 0
0.84839994 1.3163161 0.58862031 0
1.0027987 1.3428206 -0.049790893 0
0.85365516 1.3343607 0.36658585 0
0.8376109 1.3334507 0.47086039 0
0.83595592 1.3333569 0.5838297 0
1.0012314 1.3624356 -0.049779106 0
1.3063136 1.3835975 0.072697103 0
1.2897234 1.3824466 0.2049868 0
1.3021789 1.3833107 0.34217972 0
0.85559982 1.352334 0.36736956 0
0.8468712 1.3517286 0.47431782 0
0.84135252 1.3513457 0.5865283 0
1.0021852 1.3822522 -0.04986646 0
1.2510557 1.4026667 0.070781298 0
1.2514338 1.4026977 0.20104776 0
1.0105635 1.3829395 0.28973123 0
0.84910423 1.3696953 0.36605132 0
0.84394962 1.3692725 0.47378913 0
0.84681696 1.3695077 0.58935195 0
1.0132527 1.4030918 -0.050325554 0
1.241251 1.4246874 0.070501819 0
1.2412882 1.424691 0.2001697 0
0.89796406 1.3921719 0.26964906 0
0.84866601 1.3875024 0.36633989 0
0.83689243 1.3863872 0.47195151 0
0.84609908 1.3872594 0.58970284 0
0.99810725 1.4214439 -0.049853463 0
0.64482826 1.3834882 0.049168367 0
0.63598794 1.3825383 0.13499142 0
0.64357322 1.3833532 0.22384173 0
0.63908404 1.382871 0.31301999 0
0.83575994 1.4040016 0.47216597 0
0.84585387 1.405086 0.59034413 0
0.99043363 1.440362 -0.049657635 0
0.54791051 1.3871735 0.04574528 0
0.55619794 1.3881696 0.12653972 0
0.54996687 1.3874207 0.20715083 0
0.55208784 1.3876756 0.291105 0
0.83979183 1.4222558 0.47418556 0
0.83583075 1.4217796 0.58700234 0
0.9841544 1.4593291 -0.049520265 0
0.54907566 1.4014693 0.045850646 0
0.55452257 1.4021937 0.12655036 0
0.54102868 1.4003992 0.20584555 0
0.5591616 1.4028107 0.29338044 0
0.84453136 1.4407611 0.4765231 0
0.83805031 1.4398992 0.58885616 0
0.99947983 1.4813521 -0.050170735 0
0.5509941 1.4159523 0.045989871 0
0.55950922 1.417194 0.12730373 0
0.56160456 1.4174997 0.20994671 0
0.53942519 1.4142654 0.28879669 0
0.84407657 1.4586906 0.47719681 0
0.83872646 1.4579104 0.59016311 0
0.98512489 1.4991322 -0.049759619 0
0.55071253 1.4301879 0.046056435 0
0.55195683 1.4303854 0.12671471 0
0.56153601 1.4319056 0.21032558 0
0.55432338 1.430761 0.29318795 0
0.84838504 1.4774306 0.47955239 0
0.84745258 1.4772826 0.59494227 0
0.9906829 1.5200392 -0.050077036 0
0.54955941 1.4443238 0.046098057 0
0.54993111 1.4443876 0.12674513 0
0.54494089 1.443531 0.20771429 0
0.55032641 1.4444554 0.29275116 0
0.83241695 1.492874 0.47514814 0
0.8370381 1.4936672 0.59179336 0
0.99353677 1.5406778 -0.050306566 0
0.55296499 1.4593334 0.046311736 0
0.55668801 1.4600209 0.12775472 0
0.54721981 1.4582727 0.20858519 0
0.54644269 1.4581292 0.29238749 0
0.84147412 1.5126019 0.47926578 0
0.83483058 1.5113753 0.5921793 0
0.98873383 1.559971 -0.050267465 0
0.55841643 1.4749035 0.046607271 0
0.55102974 1.4734433 0.12742825 0
0.5566389 1.4745522 0.21080497 0
0.54146141 1.4715518 0.29178214 0
0.83032924 1.5286566 0.47662666 0
0.83528715 1.5296367 0.59378457 0
0.97382778 1.5771093 -0.049868494 0
0.56012064 1.4898989 0.046774015 0
0.55997616 1.4898685 0.12872352 0
0.5521422 1.4882171 0.21050355 0
0.54994732 1.4877545 0.29473063 0
0.82878572 1.5465342 0.47731373 0
0.83850056 1.5485821 0.59665781 0
0.96764642 1.5959169 -0.049795479 0
0.55478364 1.5034401 0.04669052 0
0.55006796 1.5023838 0.1279687 0
0.55192167 1.502799 0.21102333 0
0.55088156 1.5025661 0.29576629 0
0.85084313 1.5697542 0.48612583 0
0.83882672 1.5670626 0.5984152 0
0.9610551 1.6145774 -0.04971588 0
0.54976255 1.5169981 0.046624612 0
0.55453485 1.5181303 0.12881677 0
0.55090743 1.5172696 0.21143155 0
0.55075592 1.5172337 0.29657602 0
0.84803432 1.5877632 0.4865616 0
0.84204251 1.5863416 0.60150635 0
0.95657402 1.6337121 -0.049722336 0
0.55903763 1.5340929 0.047090944 0
0.54539031 1.5306729 0.1281814 0
0.54995805 1.5318177 0.21188694 0
0.55673665 1.5335163 0.29904285 0
0.83586544 1.6034635 0.4838661 0
0.84371322 1.6054301 0.60405129 0
0.96347314 1.6558592 -0.050157901 0
0.56149858 1.5497313 0.04731515 0
0.5577814 1.5487498 0.12995519 0
0.54545861 1.5454965 0.21171577 0
0.55473942 1.5479467 0.29946676 0
0.84229165 1.6238652 0.48762801 0
0.83963531 1.6231639 0.60424566 0
0.95658082 1.6745008 -0.050094325 0
0.55465513 1.5629538 0.047202695 0
0.54880887 1.5613313 0.1293778 0
0.55205387 1.5622319 0.21365272 0
0.55599362 1.5633253 0.3008011 0
0.83547539 1.6408902 0.48691943 0
0.84285551 1.6429385 0.60767251 0
0.94964784 1.6930872 -0.050037719 0
0.54764301 1.5760471 0.047089737 0
0.55883926 1.5793068 0.13094302 0
0.5511964 1.5770817 0.21423642 0
0.55525845 1.5782642 0.30166307 0
0.83419079 1.6594729 0.48819911 0
0.84995204 1.6640617 0.6128906 0
0.93768805 1.7101028 -0.049801994 0
0.85272831 1.6842027 0.38211682 0
0.83357948 1.6783651 0.48979917 0
0.84023994 1.6803956 0.61096817 0
0.93779665 1.7307929 -0.050025541 0
0.83897954 1.6993032 0.37991461 0
0.8373273 1.6987766 0.49301067 0
0.84168988 1.7001668 0.61397767 0
0.93546242 1.7508399 -0.050167896 0
0.86195165 1.7263907 0.38762739 0
0.83995992 1.7190764 0.49593458 0
0.84160632 1.719624 0.6164391 0
0.92219132 1.7672055 -0.04990714 0
0.85555071 1.7441053 0.38753438 0
0.84309465 1.7397876 0.49913788 0
0.83628005 1.7374253 0.61672097 0
0.91098815 1.7841249 -0.049731486 0
0.84598607 1.7606719 0.3866432 0
0.84529144 1.7604212 0.50211602 0
0.84326583 1.7596904 0.62252194 0
0.90868682 1.8042544 -0.04990254 0
0.83954984 1.7783211 0.386657 0
0.8268525 1.7735584 0.49786803 0
0.83354801 1.7760699 0.62108761 0
0.90403777 1.8236023 -0.049994163 0
0.83815843 1.7979401 0.38811284 0
0.82399505 1.792423 0.49922124 0
0.82732171 1.7937189 0.62128907 0
0.89928037 1.8429794 -0.050091445 0
0.8329367 1.8161695 0.38858992 0
0.82652241 1.8135774 0.50259864 0
0.8209905 1.811342 0.62154371 0
0.90416592 1.8664732 -0.050571904 0
0.84202784 1.8404479 0.39309189 0
0.81702214 1.8299747 0.50175142 0
0.81969076 1.8310924 0.62415755 0
0.87849742 1.8770881 -0.04987748 0
0.82918972 1.8557029 0.39160487 0
0.83250076 1.8571389 0.51003247 0
0.81643397 1.8501706 0.62601453 0
0.88210565 1.9003077 -0.050329968 0
0.82121032 1.8729806 0.39152169 0
0.82604378 1.8751497 0.51048589 0
0.82125229 1.8729995 0.63165528 0
0.85984951 1.9118823 -0.049778651 0
0.82706767 1.8966726 0.39539075 0
0.82347268 1.8950046 0.5124501 0
0.82260817 1.8946035 0.63587964 0
0.85510141 1.9314218 -0.049922906 0
0.82744044 1.9181622 0.39781559 0
0.81987792 1.9145371 0.51414049 0
0.81498963 1.9121938 0.63613337 0
0.84922761 1.9505211 -0.050032999 0
0.82123536 1.9366667 0.39845988 0
0.80786854 1.9300508 0.5128088 0
0.81544405 1.9338003 0.64022028 0
0.83544785 1.9656736 -0.049836479 0
0.81195289 1.9536743 0.39829326 0
0.80113703 1.9481505 0.51351303 0
0.8057403 1.9505014 0.63973701 0
0.83972126 1.9901813 -0.05037478 0
0.81713241 1.9782839 0.40235731 0
0.80377907 1.9712508 0.51783192 0
0.80080122 1.9696823 0.64157832 0
0.82447773 2.0045292 -0.050136428 0
0.7979297 1.9901166 0.39946058 0
0.79629475 1.989229 0.51845676 0
0.79345161 1.9876854 0.64240998 0
0.8195011 2.0244303 -0.050323732 0
0.79346758 2.0098696 0.40089586 0
0.78174204 2.0033116 0.51647758 0
0.78260869 2.0037963 0.64169747 0
0.80405515 2.0384576 -0.05009136 0
0.79024929 2.0305061 0.40278077 0
0.7804547 2.0248649 0.51964486 0
0.78587002 2.0279839 0.64781535 0
0.79738563 2.0575013 -0.050228804 0
0.77423698 2.0437777 0.40096194 0
0.77650601 2.0451229 0.52191103 0
0.77360374 2.0434024 0.64665133 0
0.78475565 2.0730262 -0.050128039 0
0.76848215 2.0630996 0.40224427 0
0.77945107 2.0697906 0.52698028 0
0.77729422 2.068475 0.65331089 0
0.76989442 2.0870712 -0.049940646 0
0.76031893 2.0810635 0.40288442 0
0.76437873 2.0836105 0.52513492 0
0.76385945 2.0832849 0.65180653 0
0.76168531 2.1052537 -0.050041821 0
0.75321251 2.0997882 0.40391907 0
0.76110548 2.1048796 0.52801448 0
0.76351732 2.1064355 0.65683234 0
0.74355477 2.1169472 -0.04972861 0
0.74930531 2.1207602 0.40601358 0
0.75140756 2.122154 0.52846003 0
0.74770755 2.1197007 0.65436035 0
0.73616952 2.1356981 -0.049883239 0
0.7335462 2.1339109 0.40454835 0
0.74036509 2.138557 0.52845532 0
0.73455197 2.1345961 0.6532802 0
0.7307598 2.1559691 -0.050135575 0
0.72880179 2.1545985 0.40655175 0
0.73337847 2.1578019 0.53018117 0
0.72886878 2.1546454 0.65606129 0
0.70329052 2.160605 -0.049431443 0
0.72010416 2.1726916 0.40741265 0
0.71620077 2.1698856 0.52784592 0
0.71935529 2.1721535 0.65704268 0
0.7069965 2.1876392 -0.050106689 0
0.71236485 2.1916018 0.40865743 0
0.71246237 2.1916738 0.5311088 0
0.70648926 2.1872649 0.65642095 0
0.69196171 2.2010736 -0.049964111 0
0.70402986 2.2102187 0.40979934 0
0.70086104 2.2078173 0.53123468 0
0.6974209 2.2052104 0.65786445 0
0.6725145 2.2109525 -0.049628176 0
0.69383389 2.2275348 0.41042635 0
0.69533092 2.2286992 0.53400606 0
0.68599159 2.2214351 0.65820169 0
0.6667617 2.2314634 -0.049920063 0
0.68352097 2.2448409 0.41109234 0
0.67930502 2.2414756 0.53244895 0
0.67837888 2.2407362 0.66067195 0
0.64952105 2.2428353 -0.049696703 0
0.66830152 2.2582171 0.41021866 0
0.67970079 2.2675536 0.53800648 0
0.67583698 2.264389 0.6660111 0
0.64637476 2.2658491 -0.050134853 0
0.66223341 2.279175 0.41244122 0
0.65706235 2.2748299 0.53375542 0
0.65890604 2.2763789 0.66378558 0
0.63032943 2.2781558 -0.04998339 0
0.7157566 2.3517945 0.066009954 0
0.72029477 2.3557065 0.18728802 0
0.72024578 2.355664 0.31021529 0
0.65272278 2.2974589 0.41361684 0
0.6537655 2.2983577 0.53799355 0
0.64833707 2.2936785 0.66509551 0
0.6138764 2.2899637 -0.049818136 0
0.68372411 2.3517227 0.065146767 0
0.67696494 2.3457463 0.1830761 0
0.68094867 2.3492687 0.30411777 0
0.63158065 2.3056178 0.41092238 0
0.63849181 2.3117285 0.53709114 0
0.63680452 2.3102367 0.66600734 0
0.60107809 2.3049328 -0.049834259 0
0.65657717 2.3552642 0.064509094 0
0.66351181 2.361553 0.18313223 0
0.65012819 2.3494155 0.29999453 0
0.62755018 2.3289399 0.4141258 0
0.62619025 2.3277066 0.53758848 0
0.62484509 2.3264868 0.66680682 0
0.5943839 2.3255992 -0.050157327 0
0.64485174 2.3725393 0.064617962 0
0.63833231 2.3664756 0.18149705 0
0.64209968 2.3699796 0.30143678 0
0.6055221 2.3359587 0.41119781 0
0.60769922 2.3379838 0.53537029 0
0.61074167 2.3408136 0.66651863 0
0.57904202 2.3383362 -0.050070401 0
0.61826175 2.3757463 0.064005427 0
0.62392133 2.3811448 0.18145058 0
0.63041872 2.3873425 0.30205029 0
0.59741265 2.3558593 0.41317296 0
0.59456939 2.353147 0.53564942 0
0.60613519 2.3641794 0.67176342 0
0.56980318 2.3569617 -0.050295152 0
0.61352104 2.3997266 0.064478509 0
0.6128419 2.3990624 0.18193202 0
0.60928839 2.3955863 0.30034229 0
0.58461183 2.3714476 0.41358712 0
0.58883232 2.375576 0.53946102 0
0.58535916 2.3721786 0.6678775 0
0.55092651 2.366148 -0.050047174 0
0.60133654 2.4167168 0.064596355 0
0.60250109 2.4178851 0.18256611 0
0.59945828 2.4148328 0.30152565 0
0.56739527 2.3826687 0.41248125 0
0.57987517 2.3951881 0.54193586 0
0.57206088 2.3873491 0.66838622 0
0.54066104 2.3839467 -0.050242919 0
0.59766752 2.4425914 0.065162785 0
0.60042471 2.4454279 0.18451905 0
0.60357255 2.4486661 0.3063947 0
0.56244737 2.406359 0.41590312 0
0.55434269 2.3980215 0.53664845 0
0.5581339 2.4019215 0.66864091 0
0.51845318 2.3893514 -0.04983307 0
0.60761231 2.4834139 0.066460088 0
0.61033911 2.4862907 0.18842512 0
0.60881871 2.4846866 0.31173658 0
0.53624552 2.4081221 0.41159829 0
0.54638511 2.4188194 0.53980696 0
0.54894954 2.4215248 0.67186308 0
0.50766009 2.4066851 -0.050021566 0
0.533678 2.4348354 0.41612661 0
0.53353542 2.4346812 0.5407384 0
0.53687066 2.4382896 0.67351329 0
0.49061701 2.4172864 -0.049890954 0
0.5178234 2.4474766 0.41578206 0
0.52076823 2.4507446 0.54182255 0
0.51662117 2.4461427 0.67026311 0
0.47278103 2.4268508 -0.04972275 0
0.50268 2.460881 0.41576856 0
0.50295168 2.4611902 0.54047841 0
0.5064308 2.4651499 0.67333764 0
0.46647105 2.4496939 -0.050191168 0
0.4893516 2.4764068 0.41653243 0
0.48384818 2.4699817 0.53852296 0
0.48858663 2.4755139 0.67173755 0
0.4424046 2.4517908 -0.049693506 0
0.47374603 2.4893281 0.41647866 0
0.47264919 2.4880145 0.54069799 0
0.47182903 2.4870322 0.67089874 0
0.42882887 2.4662275 -0.049782939 0
0.45564446 2.4991791 0.41548046 0
0.45602104 2.4996419 0.54016417 0
0.45801863 2.5020964 0.6720745 0
0.42273608 2.4902062 -0.050314095 0
0.44170061 2.5141191 0.41622391 0
0.44362447 2.5165448 0.54196525 0
0.44133654 2.5136602 0.67148113 0
0.40844396 2.5041924 -0.050392732 0
0.42290953 2.5229118 0.41503495 0
0.42150834 2.5210986 0.53862244 0
0.42872676 2.5304396 0.67373323 0
0.39414629 2.5182688 -0.050482739 0
0.41690144 2.5484943 0.41929501 0
0.41136971 2.5411465 0.54188007 0
0.4084495 2.5372677 0.67088932 0
0.36675134 2.5145969 -0.04979419 0
0.39386252 2.5515685 0.41641879 0
0.38864914 2.5444589 0.53825629 0
0.38882211 2.5446949 0.66851091 0
0.35648367 2.5340788 -0.050142758 0
0.3768374 2.5625808 0.41614845 0
0.38603702 2.5754635 0.54610342 0
0.38109097 2.5685372 0.67463171 0
0.3336148 2.5358725 -0.049724817 0
0.35853705 2.571718 0.41536465 0
0.35833052 2.5714209 0.53969437 0
0.36125317 2.5756247 0.67229933 0
0.31715527 2.5466168 -0.049708724 0
0.346944 2.5906341 0.41767132 0
0.34268782 2.5843449 0.54029614 0
0.33862916 2.5783477 0.66793019 0
0.30933818 2.5704694 -0.050262023 0
0.32187656 2.589509 0.41388142 0
0.32741001 2.5979114 0.54122776 0
0.32550511 2.5950189 0.67065382 0
0.28748426 2.5731409 -0.04991699 0
0.30912867 2.6069264 0.41583639 0
0.30507341 2.6005964 0.53792882 0
0.30826953 2.6055853 0.67043537 0
0.2750155 2.5904219 -0.050200805 0
0.28466913 2.6059165 0.41228536 0
0.29219326 2.6179934 0.54053319 0
0.2881538 2.6115098 0.66806054 0
0.25661483 2.5983014 -0.050096642 0
0.27104285 2.6221228 0.41398868 0
0.27105585 2.6221442 0.53802878 0
0.27327749 2.6258121 0.66988224 0
0.23553927 2.6014981 -0.049808875 0
0.25612584 2.6364734 0.41518116 0
0.24914826 2.624619 0.53499907 0
0.24946959 2.625165 0.66459852 0
0.21908619 2.6123765 -0.049850039 0
0.23835082 2.6460695 0.41502312 0
0.23594584 2.6418633 0.53775734 0
0.23459364 2.6394982 0.666641 0
0.20295294 2.6238971 -0.04992564 0
0.21545859 2.6464226 0.41223449 0
0.21855237 2.6519952 0.53785348 0
0.21830888 2.6515565 0.66768086 0
0.18784948 2.6374481 -0.05009133 0
0.20030154 2.660558 0.41354284 0
0.19674887 2.6539645 0.53494728 0
0.19585182 2.6522996 0.66348875 0
0.16854258 2.6432159 -0.049950089 0
0.17956461 2.6643033 0.41190666 0
0.17627974 2.6580188 0.53294623 0
0.17841567 2.6621053 0.66369057 0
0.15464784 2.6594505 -0.050238419 0
0.15865101 2.6673501 0.41015592 0
0.15995969 2.6699326 0.53398567 0
0.16240175 2.6747515 0.66531193 0
0.13347788 2.6613371 -0.049961306 0
0.14591976 2.6866755 0.41311806 0
0.14604647 2.6869338 0.53698081 0
0.14092685 2.6765075 0.66199327 0
0.11600938 2.6705606 -0.049986433 0
0.12327936 2.6858497 0.41041502 0
0.12474015 2.6889219 0.53449208 0
0.11947229 2.6778433 0.6586262 0
0.098578475 2.6799154 -0.050025262 0
0.10461714 2.6930387 0.4100588 0
0.099417947 2.6817396 0.52875787 0
0.10081675 2.6847796 0.65795463 0
0.079575144 2.6858115 -0.049937323 0
0.083126985 2.6937938 0.40797377 0
0.085032009 2.6980748 0.5317359 0
0.08288791 2.6932564 0.6580916 0
0.059089266 2.6881108 -0.049719404 0
0.063655578 2.6987307 0.40713671 0
0.063675486 2.698777 0.52910221 0
0.059170388 2.6882994 0.65227556 0
0.045929097 2.7076638 -0.05017956 0
0.047622465 2.7117426 0.40860263 0
0.051030122 2.7199514 0.53395391 0
0.046097539 2.7080696 0.657709 0
0.024462363 2.707355 -0.049879972 0
0.027173361 2.7141249 0.40719542 0
0.025680264 2.7103963 0.52782577 0
0.024775645 2.7081375 0.6544016 0
0.0054099769 2.7127244 -0.049809486 0
0.007022819 2.7169039 0.40597412 0
0.0077557773 2.7188032 0.5282467 0
0.011035464 2.7273016 0.65970457 0
-0.0095551992 2.7289615 -0.050162394 0
-0.010873714 2.7254126 0.40638724 0
-0.013883569 2.7173109 0.52523273 0
-0.012517133 2.720989 0.65380663 0
-0.030348042 2.7296352 -0.049930852 0
-0.034954108 2.7167423 0.40220544 0
-0.02987651 2.7309551 0.52767622 0
-0.032584406 2.7233753 0.65189046 0
-0.045917191 2.7450397 -0.050266214 0
-0.052388526 2.7261794 0.40300781 0
-0.050536253 2.7315776 0.52560008 0
-0.051420428 2.7290008 0.65151125 0
-0.068370201 2.7402937 -0.049850222 0
-0.073822804 2.7237256 0.4006722 0
-0.072111942 2.7289243 0.52247643 0
-0.074887164 2.7204914 0.64507622 0
-0.085752435 2.7506695 -0.050012529 0
-0.093727954 2.7253668 0.39951354 0
-0.094114162 2.7241416 0.51871735 0
-0.092853524 2.7281408 0.64580995 0
-0.1046559 2.7564058 -0.050009407 0
-0.10807235 2.7450712 0.40323952 0
-0.11290906 2.7290244 0.51842755 0
-0.11490006 2.722419 0.64085662 0
-0.12526526 2.7562168 -0.049795024 0
-0.10598815 2.8232138 0.064283945 0
-0.10693923 2.8199084 0.18107878 0
-0.10666183 2.8208725 0.29998791 0
-0.13351868 2.7275321 0.39711258 0
-0.13082473 2.7368951 0.51925522 0
-0.13131626 2.7351868 0.64400709 0
-0.14208265 2.7692995 -0.050082315 0
-0.1327457 2.8033581 0.063343108 0
-0.13429873 2.797693 0.177985 0
-0.13500239 2.7951262 0.29413518 0
-0.14904265 2.7439115 0.40006459 0
-0.15066476 2.7379947 0.51782221 0
-0.14861189 2.7454829 0.64617449 0
-0.16361667 2.7651026 -0.04973897 0
-0.15793134 2.7869146 0.062543698 0
-0.15844397 2.7849479 0.17599145 0
-0.15644671 2.7926104 0.29269782 0
-0.16876377 2.7453558 0.39912087 0
-0.16909756 2.7440753 0.51819241 0
-0.16965102 2.7419519 0.6425119 0
-0.180503 2.7787075 -0.050061364 0
-0.18038641 2.7791791 0.062078707 0
-0.1792147 2.7839181 0.17533475 0
-0.17744602 2.7910714 0.29149663 0
-0.18842806 2.7466545 0.39820719 0
-0.19153969 2.7340698 0.51312822 0
-0.19118111 2.7355199 0.63773668 0
-0.20149373 2.7757788 -0.049784411 0
-0.19653727 2.7969666 0.062561266 0
-0.19789346 2.7911692 0.17562288 0
-0.19733213 2.7935688 0.29109564 0
-0.20723678 2.7512283 0.39821929 0
-0.2091742 2.7429464 0.51462728 0
-0.20824106 2.7469354 0.64067984 0
-0.21883164 2.7885103 -0.050090443 0
-0.21788023 2.7928214 0.062248062 0
-0.21734424 2.7952499 0.17558722 0
-0.214709 2.8071911 0.29279676 0
-0.2286564 2.7439911 0.39520746 0
-0.23001887 2.7378175 0.51142621 0
-0.23057579 2.7352939 0.63392997 0
-0.23907502 2.7883184 -0.049932443 0
-0.23618348 2.8022523 0.062440503 0
-0.23445283 2.8105919 0.17681457 0
-0.2355087 2.8055041 0.29171389 0
-0.24848609 2.7429678 0.39389297 0
-0.24930428 2.7390251 0.51047581 0
-0.25133926 2.7292185 0.62967044 0
-0.25709814 2.7989788 -0.050178807 0
-0.25093296 2.8306899 0.063332133 0
-0.25282484 2.8209589 0.17751786 0
-0.25219297 2.824209 0.29442838 0
-0.26780045 2.7439308 0.393163 0
-0.27025801 2.7312903 0.5065794 0
-0.27043295 2.7303905 0.62858862 0
-0.27865422 2.7911527 -0.049762089 0
-0.26831821 2.8481376 0.06382972 0
-0.26678264 2.8566034 0.18100576 0
-0.2676622 2.8517544 0.29879564 0
-0.28771669 2.741189 0.39153716 0
-0.28920382 2.7329903 0.50597125 0
-0.28907523 2.7336991 0.62850964 0
-0.29717585 2.7995942 -0.049945045 0
-0.30508319 2.7526398 0.39365166 0
-0.30950013 2.7264118 0.50265205 0
-0.30856377 2.731972 0.62641507 0
-0.31823254 2.7925916 -0.049578082 0
-0.32559311 2.7452514 0.39095441 0
-0.3297821 2.7183096 0.49891251 0
-0.32908952 2.722764 0.62129313 0
-0.33600271 2.806823 -0.049987096 0
-0.34522733 2.7421393 0.38943058 0
-0.34749576 2.7262328 0.50065094 0
-0.34745798 2.7264979 0.62170106 0
-0.35501322 2.8137631 -0.050141018 0
-0.36655566 2.724829 0.38432014 0
-0.36646396 2.7255354 0.49956948 0
-0.36778477 2.7153587 0.61599535 0
-0.37587053 2.8058805 -0.049770519 0
-0.38574791 2.7214603 0.38286749 0
-0.38587829 2.720346 0.49706492 0
-0.38651112 2.7149374 0.61487281 0
-0.39448601 2.8170106 -0.050092407 0
-0.4034825 2.7307191 0.38471788 0
-0.40507051 2.7154875 0.49475619 0
-0.40504926 2.7156913 0.61433905 0
-0.41494399 2.8105388 -0.049791284 0
-0.42355835 2.7164383 0.38059264 0
-0.42361131 2.7158599 0.49427852 0
-0.42414555 2.7100239 0.61123335 0
-0.43392909 2.8200817 -0.050073214 0
-0.44209257 2.7165649 0.38022336 0
-0.44387418 2.6939733 0.48645085 0
-0.44311124 2.7036479 0.6079362 0
-0.45347717 2.8241789 -0.050168622 0
-0.46161899 2.7011969 0.37595233 0
-0.46200871 2.6953104 0.486458 0
-0.46148029 2.7032919 0.60723913 0
-0.47366413 2.8176661 -0.049893428 0
-0.47925434 2.713306 0.37876731 0
-0.48019871 2.6956761 0.48621774 0
-0.48025808 2.6945674 0.60316843 0
-0.49352059 2.8145561 -0.049749065 0
-0.49805704 2.7037673 0.3761099 0
-0.49864957 2.6892965 0.48380789 0
-0.49829376 2.6979861 0.60422993 0
-0.51334536 2.8090804 -0.049529176 0
-0.5162949 2.7050037 0.37626407 0
-0.5168047 2.6870141 0.48283982 0
-0.51670921 2.6903841 0.6008203 0
-0.53275228 2.8204937 -0.049921297 0
-0.53478831 2.6911569 0.37262815 0
-0.53503162 2.6757002 0.47894302 0
-0.53492439 2.6825142 0.59739631 0
-0.5524531 2.8273864 -0.050160721 0
-0.5529328 2.6750739 0.36848125 0
-0.55291939 2.6793342 0.48009574 0
-0.55292821 2.6765375 0.59485143 0
-0.57221591 2.8226247 -0.049992945 0
-0.57089823 2.683079 0.37053806 0
-0.57088256 2.6814146 0.48080674 0
-0.57081562 2.6743288 0.59396029 0
-0.59185463 2.8174586 -0.049819563 0
-0.58842605 2.6618803 0.36520049 0
-0.58863389 2.6713116 0.47753882 0
-0.58838332 2.6599414 0.58811849 0
-0.61183077 2.8254778 -0.050125945 0
-0.60647541 2.6708753 0.367625 0
-0.60607731 2.6593826 0.47373596 0
-0.60604799 2.6585355 0.58774376 0
-0.6319229 2.8313072 -0.050363235 0
-0.62363905 2.6559947 0.36401069 0
-0.62315381 2.6457257 0.46942863 0
-0.62302643 2.6430297 0.58161658 0
-0.6505785 2.8102932 -0.049649697 0
-0.64068609 2.6450884 0.36146477 0
-0.63989234 2.6318326 0.46511081 0
-0.64064741 2.6444433 0.5825913 0
-0.64033592 2.6392407 0.70017189 0
-0.67059046 2.8148949 -0.04986082 0
-0.6579681 2.6408577 0.36067894 0
-0.65703291 2.6279631 0.46420291 0
-0.65691519 2.6263399 0.57555705 0
-0.6567331 2.6238294 0.69301963 0
-0.68987727 2.8091941 -0.049712054 0
-0.67341781 2.6160009 0.460664 0
-0.67427951 2.6261146 0.57602924 0
-0.67320693 2.6135256 0.68852818 0
-0.71048248 2.8180058 -0.050092399 0
-0.68957698 2.6044538 0.45732835 0
-0.68973327 2.60605 0.56833947 0
-0.69040668 2.6129291 0.68901545 0
-0.72847283 2.8007119 -0.049544901 0
-0.70779473 2.6137872 0.57230115 0
-0.7064783 2.6018867 0.68435395 0
-0.75021583 2.8169594 -0.050211251 0
-0.72259545 2.5931072 0.56450886 0
-0.7232427 2.5983529 0.68357247 0
-0.76876462 2.806247 -0.04991721 0
-0.73933238 2.5901365 0.6805318 0
-0.78903657 2.8084822 -0.050098386 0
-0.75411433 2.5741651 0.67366475 0
-0.80806184 2.8021996 -0.04998111 0
-0.82707 2.7962811 -0.049885433 0
-0.84836918 2.8029048 -0.050253827 0
-0.86878741 2.8038096 -0.050424658 0
-0.88700837 2.7938609 -0.050209057 0
