# .PCD v0.7 - Point Cloud Data file format
VERSION 0.7
FIELDS x y z intensity
SIZE 4 4 4 4
TYPE F F F F
COUNT 1 1 1 1
WIDTH 1314
HEIGHT 1
VIEWPOINT 0 0 0 1 0 0 0
POINTS 1314
DATA ascii
1.1028391 0.71447808 0.48325908 0
0.4739503 -0.21582517 -0.091742329 0
0.53229779 -0.12040833 -0.090857856 0
0.60834587 0.0039545628 -0.090372957 0
0.71041244 0.17086616 -0.090139709 0
0.85366309 0.40512672 -0.090055175 0
1.0700736 0.75902718 -0.090311147 0
1.4192566 1.3300529 -0.089086674 0
0.85378748 0.40533021 0.024867246 0
0.84603077 0.39264539 0.063308463 0
0.83834755 0.38008097 0.10101622 0
0.8398068 0.3824673 0.13844681 0
0.83979923 0.3824549 0.17591728 0
0.84186614 0.38583496 0.21374668 0
0.8387754 0.38078061 0.25096095 0
0.83621705 0.37659696 0.28818026 0
0.83676767 0.37749735 0.32621163 0
0.84087986 0.38422206 0.36566451 0
1.100457 0.80871361 0.49805054 0
0.44958442 -0.21227834 -0.089744262 0
0.50481439 -0.11661735 -0.088826887 0
0.5800454 0.013686214 -0.089371569 0
0.68214095 0.19052067 -0.090484388 0
0.82244366 0.43353155 -0.091045015 0
1.0237057 0.78212684 -0.089953519 0
1.3617815 1.3676901 -0.089295827 0
1.3698137 1.3816023 -0.026481098 0
0.84842628 0.47853473 0.061563183 0
0.84360057 0.47017625 0.10101851 0
0.84002596 0.46398488 0.14008285 0
0.84288865 0.46894315 0.1794567 0
0.84362829 0.47022429 0.21888584 0
0.84314883 0.46939388 0.2582849 0
0.83821994 0.46085683 0.29677036 0
0.8356511 0.45640746 0.33566931 0
0.84015036 0.46420029 0.37690783 0
0.84241813 0.46812823 0.41804296 0
0.43383256 -0.19386408 -0.091521181 0
0.48955217 -0.091472715 -0.091552369 0
0.55652398 0.03159586 -0.090048604 0
0.64761281 0.19898227 -0.089148544 0
0.77821624 0.43898156 -0.089072622 0
0.9820106 0.81347781 -0.090602852 0
1.2958902 1.3902683 -0.088419862 0
1.2940028 1.3868001 -0.024966067 0
1.2936422 1.3861375 0.038092416 0
0.85041916 0.57166308 0.10102113 0
0.83477998 0.54292423 0.14162806 0
0.83547014 0.54419249 0.1823473 0
0.83952922 0.55165142 0.22371542 0
0.84441233 0.56062466 0.26577556 0
0.84006721 0.55264002 0.30623817 0
0.83865225 0.55003995 0.34735912 0
0.83480066 0.54296213 0.38777372 0
0.84314561 0.55829698 0.43292981 0
0.41601691 -0.17852399 -0.092636801 0
0.46494371 -0.082947582 -0.090808325 0
0.52781844 0.039875541 -0.089049287 0
0.62287009 0.22555497 -0.090827681 0
0.75115192 0.47614804 -0.091437362 0
0.93517804 0.83563536 -0.090390913 0
1.2449127 1.4406888 -0.089873277 0
1.2477549 1.4462411 -0.026408141 0
1.2444263 1.4397385 0.037524518 0
1.2423935 1.4357677 0.10104817 0
0.84171063 0.65305072 0.14397353 0
0.83663261 0.64313108 0.18645118 0
0.84145898 0.65255922 0.23002248 0
0.84125316 0.65215701 0.27319843 0
0.84033006 0.65035373 0.31635743 0
0.84652227 0.66245002 0.36185277 0
0.83566982 0.64125019 0.40213189 0
0.84143573 0.65251368 0.44847864 0
0.39247298 -0.17446116 -0.091186263 0
0.44035921 -0.074794978 -0.090126 0
0.50414377 0.057960782 -0.08998286 0
0.59053272 0.23776296 -0.090344928 0
0.71101558 0.48852554 -0.090648524 0
0.89059126 0.86227876 -0.090769254 0
1.1820245 1.468842 -0.089682557 0
1.7885033 2.7311139 -0.091186337 0
4.5050826 8.3851652 -0.14084256 0
0.84906036 0.77583987 0.19225046 0
0.83912379 0.75515872 0.2363811 0
0.83748478 0.75174743 0.2813752 0
0.83857393 0.75401443 0.32712543 0
0.842031 0.76120967 0.37401155 0
0.84334868 0.76395208 0.42076623 0
0.84123105 0.75954467 0.46652785 0
0.36666572 -0.17623428 -0.088531189 0
0.42023695 -0.057126965 -0.091545455 0
0.47632322 0.067572147 -0.089487173 0
0.55440193 0.24116805 -0.088637643 0
0.6767205 0.51312441 -0.091565348 0
0.83796227 0.87162036 -0.089488395 0
1.1178716 1.4939549 -0.089383326 0
1.6879826 2.7615077 -0.090496056 0
4.2716579 8.505908 -0.14109966 0
1.0727828 1.393707 0.22276446 0
0.84951442 0.89730471 0.24570648 0
0.84261167 0.88195747 0.29260534 0
0.84338832 0.88368422 0.34111249 0
0.83881193 0.87350935 0.38813812 0
0.83530295 0.86570781 0.43537924 0
0.83935332 0.874713 0.48605573 0
0.34818727 -0.16213921 -0.089713149 0
0.39285058 -0.055739369 -0.089728646 0
0.44791541 0.075439602 -0.088811688 0
0.52756512 0.26518622 -0.090229817 0
0.63681543 0.52544934 -0.091027088 0
0.79821062 0.9099353 -0.091289215 0
1.0654957 1.5466788 -0.091304116 0
1.5931354 2.8036559 -0.090535291 0
4.0217781 8.589324 -0.14056219 0
0.9937883 1.3758528 0.22053319 0
0.85422647 1.0433798 0.25521183 0
0.83753008 1.0036047 0.30283669 0
0.83976561 1.0089303 0.35437578 0
0.84353721 1.0179152 0.40702385 0
0.84082192 1.0114467 0.45771739 0
0.84291506 1.016433 0.51081324 0
0.33142895 -0.142827 -0.092180975 0
0.37219912 -0.038393583 -0.091296785 0
0.42593822 0.099260002 -0.091084592 0
0.49505657 0.27630785 -0.089963488 0
0.5966773 0.53661114 -0.090475194 0
0.74952102 0.92812282 -0.091156669 0
0.99955624 1.5685923 -0.090993561 0
1.500421 2.8515658 -0.09098237 0
3.7840412 8.7010975 -0.14089599 0
0.92798662 1.3852656 0.21978842 0
0.85083902 1.1876507 0.26447955 0
0.84076303 1.1618409 0.31664926 0
0.83612245 1.1499538 0.3695012 0
0.84083104 1.162015 0.42566031 0
0.8391217 1.1576366 0.47989154 0
0.83629292 1.1503906 0.53373986 0
0.30475438 -0.14917341 -0.088922806 0
0.34456751 -0.039068308 -0.089346327 0
0.39411056 0.097945482 -0.089041539 0
0.43423125 0.2089012 -0.078087501 0
0.43613473 0.21416536 -0.04859433 0
0.43414456 0.20866147 -0.01793251 0
0.9343316 1.5919533 -0.090917744 0
1.4032753 2.88884 -0.091015257 0
3.5387239 8.794529 -0.14092234 0
0.85732377 1.3789842 0.21835525 0
0.8516596 1.3633199 0.2760056 0
0.84296608 1.3392775 0.33223522 0
0.84186316 1.3362272 0.39012715 0
0.84720969 1.3510134 0.45085031 0
0.84260923 1.3382905 0.50789732 0
0.83804989 1.3256814 0.56477314 0
0.28859189 -0.12638149 -0.092372127 0
0.32688808 -0.011485185 -0.093161516 0
0.36605895 0.10603526 -0.088784568 0
0.403007 0.21688691 -0.077707641 0
0.40286794 0.21646968 -0.047572795 0
0.40451369 0.2214072 -0.018148756 0
0.86577421 1.6052816 -0.090225093 0
1.3049879 2.9230111 -0.091016449 0
3.2878711 8.8720598 -0.1407112 0
0.79415756 1.3904173 0.21789244 0
0.84799838 1.5519507 0.28838959 0
0.84061384 1.5297954 0.3489731 0
0.84150732 1.5324759 0.4117921 0
0.84062785 1.5298374 0.47429767 0
0.83995849 1.5278294 0.53719312 0
0.8383022 1.5228601 0.59988475 0
0.26371351 -0.12926742 -0.09017884 0
0.30067995 -0.0082651637 -0.092237495 0
0.33683366 0.11007681 -0.087956049 0
0.3790063 0.24812058 -0.08086317 0
0.38182402 0.25734392 -0.051375572 0
0.37987816 0.25097445 -0.020078396 0
0.72709066 1.3875058 -0.072771274 0
0.72729284 1.3881676 -0.014761275 0
0.72799128 1.3904538 0.043115806 0
0.72694135 1.387017 0.10104133 0
0.72728032 1.3881266 0.15891042 0
0.72494745 1.3804903 0.21647014 0
0.84290355 1.7665963 0.30258855 0
0.83798325 1.7504907 0.36853543 0
0.83854651 1.7523344 0.43617854 0
0.83583617 1.7434626 0.50270569 0
0.83617872 1.7445838 0.57095432 0
0.24317046 -0.11845407 -0.091162406 0
0.27575937 -0.001277652 -0.09218625 0
0.31049567 0.12361982 -0.088880457 0
0.3647725 0.31877699 -0.089835875 0
0.44270763 0.5989998 -0.091704048 0
0.55230224 0.99305707 -0.09108565 0
0.66089487 1.3835115 -0.07120695 0
0.66127908 1.3848932 -0.01375409 0
0.65712327 1.3699505 0.044035003 0
0.66119099 1.3845763 0.10104074 0
0.66114551 1.384413 0.15839556 0
0.6591509 1.3772409 0.21546568 0
0.81049711 1.9214199 0.31235322 0
0.81048048 1.92136 0.38313726 0
0.81285697 1.9299049 0.45527121 0
0.81423235 1.9348502 0.52768773 0
0.81250668 1.9286456 0.59891683 0
0.21779731 -0.12585714 -0.088261433 0
0.24943161 0.00011733513 -0.091171853 0
0.28198382 0.12974718 -0.088655449 0
0.33453283 0.33900848 -0.091497682 0
0.39813665 0.59229225 -0.089613669 0
0.49600381 0.98201996 -0.088745467 0
0.59788251 1.3877225 -0.070364751 0
0.59680784 1.3834429 -0.012921071 0
0.59714842 1.3847992 0.044057909 0
0.59499472 1.3762226 0.10104003 0
0.59494877 1.3760397 0.15781222 0
0.59977412 1.3952551 0.21556954 0
0.76484758 2.0526125 0.32041076 0
0.76742065 2.0628591 0.39488569 0
0.77014738 2.0737174 0.47025189 0
0.76699048 2.061146 0.54315585 0
0.19715491 -0.11526188 -0.089437716 0
0.22370686 0.0030332541 -0.090585418 0
0.25883964 0.15955809 -0.092542537 0
0.29782808 0.33326057 -0.089518555 0
0.35660297 0.59511644 -0.088811941 0
0.45022225 1.012212 -0.090498917 0
0.55137652 1.462878 -0.074724697 0
0.55379599 1.4736574 -0.016544221 0
0.55178797 1.464711 0.042494122 0
0.55239552 1.4674177 0.10104228 0
0.54982889 1.4559827 0.15938185 0
0.55231965 1.4670796 0.21831523 0
0.7140305 2.1875393 0.32877341 0
0.7123186 2.1799123 0.40433213 0
0.71365649 2.1858728 0.48148373 0
0.71102667 2.1741562 0.55679464 0
0.17818561 -0.094709963 -0.092878871 0
0.1979669 0.0051482054 -0.089973114 0
0.22585388 0.14592472 -0.089229546 0
0.26825473 0.35996881 -0.092332207 0
0.32013747 0.62187868 -0.090991549 0
0.39808801 1.0153816 -0.089782573 0
0.41441181 1.0977859 -0.047771279 0
0.415649 1.1040313 0.0016227311 0
0.41764343 1.1140995 0.051115293 0
0.41504705 1.1009927 0.10103123 0
0.41500512 1.100781 0.15063155 0
0.41417181 1.0965743 0.20008583 0
0.41754204 1.1135876 0.25096121 0
0.41572255 1.1044025 0.30031702 0
0.41626242 1.1071279 0.35087073 0
0.40772283 1.0640192 0.39526099 0
0.29638675 0.50198251 0.35091516 0
0.27191114 0.37842682 0.36366993 0
0.15392128 -0.10003969 -0.0908264 0
0.17263244 0.0087492801 -0.089771934 0
0.19580252 0.14346293 -0.087933071 0
0.23366757 0.36361495 -0.09195172 0
0.27923456 0.62854701 -0.090888195 0
0.34811848 1.0290465 -0.090188287 0
0.36833617 1.1465945 -0.050540734 0
0.87973213 4.1199131 -0.14037943 0
1.7645997 9.2646408 -0.14093876 0
0.58239049 2.3911324 0.26085195 0
0.58074909 2.3815892 0.34028327 0
0.58021879 2.3785059 0.4201344 0
0.26184449 0.52743918 0.28092775 0
0.27178332 0.58522481 0.32558671 0
0.2721605 0.58741766 0.3640036 0
0.23684376 0.38208178 0.36314502 0
0.13229123 -0.090610057 -0.092083894 0
0.14756434 0.013913069 -0.089990921 0
0.16847496 0.15701726 -0.089427821 0
0.19863744 0.36343756 -0.091153853 0
0.23834214 0.6351611 -0.090900995 0
0.29689202 1.0358539 -0.090064801 0
0.39538699 1.7099149 -0.089733534 0
0.75268853 4.155148 -0.14107054 0
1.5029846 9.2898817 -0.14056297 0
0.50789809 2.4798973 0.26439303 0
0.50375074 2.4515142 0.34426919 0
0.50544286 2.4630945 0.42684036 0
0.22157338 0.52040225 0.2793754 0
0.27615124 0.8939119 0.36854714 0
0.19947763 0.3691875 0.35963976 0
0.10924494 -0.090321571 -0.091497533 0
0.12206154 0.01609448 -0.089763679 0
0.13839167 0.15168348 -0.087905668 0
0.16498061 0.37245122 -0.091784753 0
0.19599028 0.62992424 -0.089640372 0
0.24762498 1.0586467 -0.091566347 0
0.3263905 1.7126365 -0.089284934 0
0.62282127 4.1738992 -0.14113724 0
1.2437345 9.3293362 -0.14067607 0
0.42594001 2.5391953 0.26662838 0
0.42470828 2.5289679 0.34891075 0
0.42418614 2.5246329 0.43153548 0
0.42442319 2.5266011 0.51505893 0
0.2310508 0.92103142 0.37148923 0
0.16560814 0.37766162 0.36037952 0
0.086996511 -0.082945615 -0.092550255 0
0.097522683 0.027960096 -0.09149114 0
0.11053987 0.16511157 -0.089610077 0
0.13054755 0.37591627 -0.091750942 0
0.15563047 0.64019459 -0.090328969 0
0.19439608 1.0486362 -0.090105407 0
0.25907171 1.7300711 -0.089993097 0
0.49205157 4.1847911 -0.14098974 0
0.9834283 9.3620281 -0.14078398 0
0.34100989 2.5933869 0.26871625 0
0.34002814 2.5830433 0.35203853 0
0.33924127 2.5747526 0.43534076 0
0.34038532 2.5868063 0.52100706 0
0.34034264 2.5863566 0.6059404 0
0.17194016 0.81203657 0.39845777 0
0.13088074 0.37942675 0.36000982 0
0.063470289 -0.090139657 -0.090616398 0
0.071863897 0.030622158 -0.091594972 0
0.081234507 0.16544047 -0.089269377 0
0.095369592 0.36880699 -0.090350099 0
0.11507194 0.65227169 -0.091347493 0
0.14222215 1.0428913 -0.089171953 0
0.19094995 1.7439551 -0.090570383 0
0.36149278 4.1976161 -0.14108689 0
0.72223699 9.3877707 -0.14088303 0
0.25283435 2.6343083 0.27028072 0
0.25217694 2.62485 0.35445046 0
0.13354252 0.91801435 0.27953866 0
0.13346258 0.91686422 0.32439727 0
0.13422564 0.92784256 0.37115619 0
0.12497569 0.79476041 0.39499414 0
0.096490026 0.38492706 0.36051187 0
0.04075351 -0.089084059 -0.090566404 0
0.0463631 0.0378615 -0.092683829 0
0.052012715 0.16571286 -0.089041509 0
0.061332684 0.37662461 -0.091175608 0
0.073512495 0.65225488 -0.09106987 0
0.091289967 1.0545607 -0.089989729 0
0.1216263 1.7410748 -0.090094276 0
0.2303151 4.2007122 -0.14088425 0
0.46015963 9.4021158 -0.14087023 0
0.16329166 2.6839657 0.27235493 0
0.16277033 2.6721678 0.35740104 0
0.086201705 0.93941289 0.28128326 0
0.085286096 0.91869253 0.32429105 0
0.086909257 0.95542485 0.3746506 0
0.076767132 0.7259075 0.38324156 0
0.061723854 0.38547674 0.36024356 0
0.018220169 -0.078199536 -0.092728011 0
0.020211663 0.027010117 -0.090485461 0
0.023038017 0.17632475 -0.090634681 0
0.026829308 0.37661675 -0.091021575 0
0.031932253 0.64620274 -0.090209551 0
0.039522447 1.0471888 -0.089149497 0
0.052688289 1.742733 -0.090058155 0
0.099247426 4.2024283 -0.14077164 0
0.19777638 9.4076595 -0.14080667 0
0.070966803 2.7083774 0.27335659 0
0.070824958 2.7008839 0.35920647 0
0.070567906 2.6873043 0.44441843 0
0.070725411 2.6956248 0.53192931 0
0.032560572 0.67939645 0.37536865 0
0.026662419 0.36780003 0.35670611 0
-0.0046836943 -0.09222725 -0.089715339 0
-0.005387241 0.019319806 -0.089006476 0
-0.0062918658 0.16274777 -0.08837273 0
-0.0075894957 0.36848679 -0.089848436 0
-0.0093614897 0.6494357 -0.090556972 0
-0.011863678 1.0461569 -0.089022927 0
-0.016362298 1.7594121 -0.091193773 0
-0.031741433 4.1977692 -0.14051625 0
-0.064607874 9.4087343 -0.14079314 0
-0.022477401 2.7289598 0.27428854 0
-0.022438189 2.7227426 0.36069477 0
-0.022448327 2.7243502 0.44782382 0
-0.022440488 2.7231071 0.53507429 0
-0.009345239 0.64685923 0.36997539 0
-0.0076221731 0.37366763 0.35777092 0
-0.027628172 -0.082752615 -0.091821395 0
-0.031105451 0.027458105 -0.090630837 0
-0.0352556 0.15899506 -0.087846108 0
-0.042071372 0.37501755 -0.090857856 0
-0.050760493 0.650415 -0.09076298 0
-0.063851364 1.0653236 -0.090903603 0
-0.085241698 1.7432797 -0.090157218 0
-0.11889408 2.8098755 -0.075986557 0
-0.11870416 2.8038561 0.012734117 0
-0.11846454 2.7962615 0.10107853 0
-0.11915673 2.8182001 0.18975797 0
-0.11665308 2.7388484 0.27483249 0
-0.11642259 2.7315428 0.36143488 0
-0.11603103 2.7191322 0.44750196 0
-0.11613012 2.7222733 0.53518414 0
-0.05014424 0.63088316 0.36747599 0
-0.04237669 0.38469449 0.35997221 0
-0.04958868 -0.099655539 -0.088437758 0
-0.056716051 0.025748048 -0.090521999 0
-0.064988554 0.17129973 -0.09008231 0
-0.076371744 0.37158278 -0.090588383 0
-0.092325896 0.65229052 -0.09119644 0
-0.1157172 1.0638521 -0.09098009 0
-0.15430264 1.7427495 -0.09033332 0
-0.2139549 2.7923098 -0.075364895 0
-0.2140754 2.7944298 0.012855189 0
-0.21410573 2.7949634 0.10107861 0
-0.21381374 2.7898259 0.18919463 0
-0.21115838 2.7431059 0.27522525 0
-0.21156418 2.7502458 0.36303619 0
-0.21140617 2.7474656 0.45053911 0
-0.077383406 0.38938263 0.26244065 0
-0.076692127 0.37721995 0.29340234 0
-0.076046854 0.36586657 0.32413161 0
-0.076942161 0.38161913 0.3596808 0
-0.072675884 -0.093222409 -0.090142302 0
-0.082685217 0.028556857 -0.091388993 0
-0.093687035 0.16241136 -0.088951953 0
-0.11143225 0.37830999 -0.091873236 0
-0.13336332 0.64513606 -0.090694793 0
-0.16736884 1.0588667 -0.090850152 0
-0.22393677 1.7471046 -0.090974636 0
-0.42480153 4.1909413 -0.1410068 0
-0.85091841 9.3753252 -0.14082418 0
-0.30611911 2.7469823 0.27571243 0
-0.30538794 2.7380867 0.36264262 0
-0.30476284 2.7304811 0.44956109 0
-0.30512798 2.7349238 0.53791589 0
-0.11308801 0.39845493 0.29673573 0
-0.11287362 0.3958464 0.329469 0
-0.11224517 0.38820031 0.36137912 0
-0.095965669 -0.088821799 -0.091541387 0
-0.10706286 0.01425961 -0.089141764 0
-0.12235668 0.15632322 -0.088400982 0
-0.14541537 0.37051442 -0.091233782 0
-0.17483655 0.6438064 -0.090998091 0
-0.21624811 1.0284765 -0.088457085 0
-0.29003993 1.7139254 -0.089101963 0
-0.55543017 4.1791239 -0.14103369 0
-1.1118513 9.3476963 -0.14075789 0
-0.39904207 2.7264416 0.27516848 0
-0.39909962 2.7269762 0.36248821 0
-0.39989924 2.7344038 0.45076546 0
-0.3981854 2.7184839 0.53703016 0
-0.14960429 0.40942505 0.29875639 0
-0.14979196 0.41116837 0.33255053 0
-0.14565887 0.3727763 0.3590807 0
-0.11751633 -0.10009596 -0.089709722 0
-0.13351838 0.019989286 -0.090809159 0
-0.15177847 0.15701953 -0.089092858 0
-0.18049012 0.37248221 -0.092097811 0
-0.21639223 0.64190477 -0.091358192 0
-0.27050123 1.0479581 -0.090868168 0
-0.35965461 1.7169976 -0.089897178 0
-0.68440562 4.1540475 -0.14059258 0
-1.3727709 9.3197918 -0.14083913 0
-0.49207816 2.710752 0.27496091 0
-0.48952502 2.6915925 0.36078665 0
-0.23984466 0.81790036 0.27125046 0
-0.24084184 0.82538348 0.31503826 0
-0.18441077 0.40190426 0.29829168 0
-0.18523258 0.40807131 0.33274174 0
-0.18270388 0.3890951 0.36296815 0
-0.14217547 -0.089147657 -0.092770539 0
-0.15779564 0.0090740658 -0.089435898 0
-0.1791358 0.14326397 -0.08750581 0
-0.21421939 0.36387435 -0.091586106 0
-0.25706813 0.63331276 -0.091051869 0
-0.31985247 1.0281091 -0.08970084 0
-0.42629302 1.6974216 -0.089216523 0
-0.81526017 4.1432996 -0.14097829 0
-1.6314464 9.275589 -0.14069177 0
-0.58336091 2.6850858 0.27439228 0
-0.58152956 2.6735697 0.36046961 0
-0.27785942 0.76405114 0.2667869 0
-0.27950701 0.77441162 0.30979395 0
-0.27885062 0.770284 0.35146302 0
-0.21771233 0.3858383 0.36331466 0
-0.16443631 -0.095235676 -0.092297219 0
-0.18449675 0.013192449 -0.091052972 0
-0.20815346 0.14105883 -0.087957047 0
-0.24861445 0.35975352 -0.091834731 0
-0.29759106 0.62447578 -0.090836786 0
-0.3726415 1.0301292 -0.090721942 0
-0.4943729 1.6880965 -0.089380793 0
-0.94480485 4.1227155 -0.14105614 0
-1.8913804 9.2390289 -0.14087845 0
-0.66940939 2.634182 0.2727336 0
-0.66663069 2.619163 0.35772708 0
-0.6677264 2.6250854 0.44427466 0
-0.66731489 2.6228611 0.53051168 0
-0.2907488 0.58749288 0.36460909 0
-0.25256664 0.38111535 0.36355084 0
-0.1848731 -0.10948601 -0.090169825 0
-0.20970966 0.0080909468 -0.091033198 0
-0.23625641 0.13376394 -0.087678455 0
-0.28021979 0.34188774 -0.090234779 0
-0.33664486 0.60900551 -0.089950033 0
-0.42126489 1.009599 -0.089724012 0
-0.56373405 1.6840518 -0.090045713 0
-0.61997873 1.9503155 -0.038901944 0
-0.62050039 1.952785 0.031056302 0
-0.61790311 1.9404898 0.10105588 0
-0.75390476 2.5843251 0.27121916 0
-0.75154144 2.5731368 0.3557224 0
-0.75353247 2.5825624 0.4419359 0
-0.75395185 2.5845478 0.52808541 0
-0.28680918 0.37308207 0.36331975 0
-0.20760953 -0.1119431 -0.090718679 0
-0.23442411 0.00084486941 -0.090720959 0
-0.26793271 0.14178935 -0.09010575 0
-0.31373259 0.3344337 -0.090244107 0
-0.37191257 0.57915145 -0.087448098 0
-0.47331887 1.0056887 -0.090432011 0
-0.5244773 1.2208722 -0.057847548 0
-0.61681473 1.6092637 -0.023376344 0
-0.61830521 1.6155329 0.038718995 0
-0.61854094 1.6165245 0.10104686 0
-0.83486527 2.526432 0.26941249 0
-0.835096 2.5274026 0.35388038 0
-0.83502555 2.5271063 0.43854877 0
-0.83302194 2.5186787 0.52259463 0
-0.83537358 2.5285702 0.60934216 0
-0.23006865 -0.11601433 -0.091042079 0
-0.25974047 -0.0038631822 -0.09102226 0
-0.29679558 0.13619485 -0.090369321 0
-0.34472197 0.31734326 -0.088975213 0
-0.41534176 0.58426648 -0.089264251 0
-0.5214386 0.98528308 -0.089678563 0
-0.58010638 1.2070308 -0.057856221 0
-0.65046203 1.4729557 -0.01760271 0
-0.64967084 1.4699652 0.041824229 0
-0.64979774 1.4704447 0.10104304 0
-0.91419333 2.4697869 0.26775208 0
-0.91120332 2.4584854 0.35050032 0
-0.90801758 2.446444 0.43290186 0
-0.91158909 2.4599435 0.5181706 0
-0.90862536 2.4487414 0.60096443 0
-0.25617602 -0.10790709 -0.094189562 0
-0.28179905 -0.020083871 -0.089191891 0
-0.32397214 0.12446478 -0.089708708 0
-0.34544763 0.19807234 -0.07285247 0
-0.45819637 0.58451992 -0.09063492 0
-0.57125866 0.97204214 -0.089733846 0
-0.71410328 1.4616435 -0.077516772 0
-0.71584159 1.4676015 -0.018178171 0
-0.71337312 1.4591408 0.041669827 0
-0.71549046 1.4663982 0.10104343 0
-0.98635799 2.3947995 0.2652857 0
-0.98411202 2.3871014 0.34705499 0
-0.9785254 2.3679533 0.42760313 0
-0.9801144 2.3733995 0.51056737 0
-0.98156118 2.3783584 0.59417796 0
-0.27321902 -0.13068768 -0.09061671 0
-0.31010681 -0.015177812 -0.091633625 0
-0.34962422 0.10856643 -0.088441454 0
-0.37987292 0.2032868 -0.074966975 0
-0.39581203 0.25319818 -0.05146851 0
-0.39605185 0.2539492 -0.02084784 0
-0.3968825 0.25655034 0.0095408875 0
-0.39800531 0.2600663 0.039913096 0
-0.39713934 0.25735453 0.070543185 0
-0.39768961 0.2590777 0.10100781 0
-0.39431775 0.24851909 0.13125619 0
-0.39312693 0.24479023 0.16135527 0
-0.39739794 0.25816432 0.19259349 0
-0.39998123 0.26625362 0.22407019 0
-0.39728066 0.25779715 0.2540493 0
-0.395293 0.251573 0.28410712 0
-0.39460286 0.24941185 0.31475836 0
-0.39781865 0.2594817 0.34795818 0
-0.29547408 -0.13592479 -0.091056488 0
-0.33246309 -0.029446807 -0.090415321 0
-0.37992537 0.10717991 -0.089800112 0
-0.42947513 0.24981573 -0.083375283 0
-0.43181854 0.25656155 -0.05317222 0
-0.42867461 0.2475113 -0.02124065 0
-0.4324533 0.25838879 0.0086325649 0
-0.42930877 0.24933687 0.039926153 0
-0.42942616 0.24967471 0.070475206 0
-0.43613979 0.26900092 0.10100842 0
-0.43185693 0.25667205 0.13171317 0
-0.42710143 0.24298266 0.16177613 0
-0.43524286 0.26641896 0.19397879 0
-0.43055874 0.25293508 0.22379312 0
-0.42876419 0.24776915 0.25410098 0
-0.42857718 0.2472308 0.28500772 0
-0.43039402 0.25246087 0.3170948 0
-0.43754393 0.27304295 0.3527492 0
-0.31857932 -0.13923827 -0.092064269 0
-0.35512567 -0.042020168 -0.089639656 0
-0.40711007 0.096265107 -0.089632384 0
-0.48115247 0.29322758 -0.091582797 0
-0.48536918 0.30444458 -0.060563777 0
-0.50891131 0.36706963 -0.034282986 0
-0.50807375 0.36484161 -0.00016438006 0
-0.51410371 0.38088217 0.032824125 0
-0.50994253 0.36981288 0.067211553 0
-0.5099833 0.36992124 0.10101185 0
-1.2008095 2.2076089 0.1805734 0
-1.1954118 2.1932507 0.25945023 0
-1.1588373 2.0959575 0.3315843 0
-1.1570659 2.0912454 0.40834427 0
-1.1596389 2.0980899 0.48664752 0
-1.1624849 2.1056607 0.56582868 0
-0.33935505 -0.14897946 -0.091741376 0
-0.383362 -0.040321138 -0.091871999 0
-0.43442655 0.085763246 -0.089657225 0
-0.50301486 0.25511566 -0.087710492 0
-0.50880349 0.26940849 -0.057745147 0
-0.51078331 0.27429703 -0.026279366 0
-0.51078361 0.27429774 0.005663665 0
-0.50930923 0.27065733 0.037685815 0
-0.51199394 0.27728608 0.069198363 0
-0.50795746 0.26731971 0.1010091 0
-1.2709107 2.1511409 0.25890154 0
-1.2016103 1.9800301 0.3251164 0
-1.1981525 1.9714923 0.39932016 0
-1.200238 1.9766414 0.47514421 0
-1.1994253 1.9746349 0.55055612 0
-0.35979113 -0.15934637 -0.091390811 0
-0.40393749 -0.057787027 -0.090338551 0
-0.45733151 0.065046698 -0.08797469 0
-0.51464039 0.19688657 -0.08079689 0
-0.51043469 0.1872113 -0.048960332 0
-0.51152623 0.18972245 -0.01902668 0
-0.5073061 0.18001392 0.011835845 0
-0.51067746 0.1877698 0.041219484 0
-0.51191521 0.19061735 0.071057253 0
-0.51266181 0.1923348 0.10100718 0
-1.354759 2.1295917 0.25948814 0
-1.2279551 1.8378775 0.31665841 0
-1.2217265 1.8235486 0.38743073 0
-1.2255107 1.8322542 0.46071938 0
-1.2245356 1.8300109 0.53317285 0
-1.2272142 1.8361731 0.60749465 0
-0.37852025 -0.17322114 -0.090334021 0
-0.4263455 -0.070376962 -0.089907102 0
-0.4922756 0.071400195 -0.091283046 0
-0.51379091 0.11766711 -0.070593737 0
-0.51170981 0.11319175 -0.041131202 0
-0.51015806 0.10985497 -0.012174925 0
-0.51302755 0.1160256 0.015751826 0
-0.51025826 0.11007038 0.044526704 0
-0.51181126 0.11341003 0.072695509 0
-0.51040125 0.11037794 0.10100502 0
-1.424703 2.0765076 0.25856876 0
-1.2522086 1.7055728 0.30891153 0
-1.2405082 1.6804121 0.37595716 0
-1.2401193 1.6795759 0.44513702 0
-1.2363985 1.6715744 0.51354057 0
-1.2378103 1.6746104 0.58398235 0
-0.40296915 -0.17503437 -0.092237391 0
-0.44711825 -0.086039811 -0.088942327 0
-0.51996446 0.060801659 -0.091683783 0
-0.5082438 0.03717545 -0.060059223 0
-0.51558334 0.051970277 -0.034877393 0
-0.51470768 0.050205145 -0.0073399227 0
-0.51117945 0.043093 0.020403886 0
-0.51467407 0.050137434 0.046952806 0
-0.50914258 0.038987074 0.074282192 0
-0.50880492 0.038306508 0.10100315 0
-1.2517027 1.5358198 0.29818982 0
-1.2387571 1.5097241 0.36151579 0
-1.2382563 1.5087149 0.42703298 0
-1.2410289 1.5143037 0.49389082 0
-1.2359234 1.5040123 0.5585646 0
-0.41866708 -0.1944221 -0.090089329 0
-0.47453749 -0.088594228 -0.090867512 0
-0.53085494 0.018080387 -0.086248957 0
-0.53374207 0.023548994 -0.059987444 0
-0.53295803 0.022063885 -0.032691229 0
-0.53704077 0.02979723 -0.0065941196 0
-0.53218436 0.020598445 0.021134639 0
-0.53511268 0.026145134 0.047513522 0
-0.53581393 0.027473483 0.074237898 0
-0.53374225 0.023549352 0.1010031 0
-1.2485911 1.3775916 0.28823525 0
-1.2419518 1.3650157 0.34962004 0
-1.2394221 1.3602242 0.41163808 0
-1.2431233 1.3672347 0.47561809 0
-1.2374461 1.3564813 0.53708595 0
-1.2446182 1.3700664 0.60364324 0
-0.4395493 -0.20355001 -0.0905068 0
-0.49469826 -0.10518321 -0.089937992 0
-0.55476028 0.0019467209 -0.085797809 0
-0.56090313 0.012903485 -0.060497928 0
-0.56433165 0.019018803 -0.034131411 0
-0.55978382 0.010906968 -0.0060600247 0
-0.55411762 0.00080046395 0.021617474 0
-0.55755538 0.0069322917 0.047799788 0
-0.55510306 0.0025580858 0.07453239 0
-0.55801141 0.0077456567 0.10100303 0
-1.2967364 1.3253767 0.16282006 0
-1.2941009 1.3206761 0.22440982 0
-1.2531885 1.2477024 0.28040585 0
-1.2428586 1.2292776 0.33852401 0
-1.2423846 1.2284317 0.39826643 0
-1.2408266 1.2256529 0.45797813 0
-1.2387624 1.2219713 0.51776296 0
-1.2393773 1.2230678 0.5788421 0
-0.45989516 -0.21380261 -0.090781845 0
-0.5194729 -0.1135532 -0.090905942 0
-0.58924043 0.0038423871 -0.088901304 0
-0.57467759 -0.020662036 -0.057380412 0
-0.58826661 0.0022037958 -0.033828128 0
-0.58884788 0.003181908 -0.0067920368 0
-0.58193135 -0.0084563158 0.021205658 0
-0.58764845 0.0011636351 0.047331847 0
-0.58602536 -0.0015674498 0.074255958 0
-0.58685035 -0.00017931718 0.10100324 0
-1.3499827 1.2839184 0.16260372 0
-1.3539343 1.2905674 0.22458892 0
-1.2540261 1.1224554 0.27284545 0
-1.2412014 1.1008756 0.32806 0
-1.2408153 1.1002259 0.38519081 0
-1.2380676 1.0956025 0.44194832 0
-1.2378643 1.0952604 0.49964619 0
-1.2395123 1.0980337 0.55845159 0
-0.48323095 -0.2194514 -0.092345335 0
-0.53934038 -0.13024268 -0.090176262 0
-0.61117959 -0.016024973 -0.087996624 0
-0.61309248 -0.012983706 -0.061117712 0
-0.61376357 -0.011916723 -0.033974785 0
-0.6162442 -0.007972803 -0.0072378647 0
-0.61575222 -0.0087549351 0.019989895 0
-0.60226876 -0.030192401 0.048222214 0
-0.61491692 -0.010083046 0.074074417 0
-0.6109038 -0.016463544 0.10100321 0
-1.2493465 0.99860078 0.26528102 0
-1.236706 0.97850364 0.31808943 0
-1.2412173 0.98567611 0.37378716 0
-1.2360004 0.97738177 0.42761561 0
-1.2440058 0.99010962 0.48542294 0
-1.2377856 0.9802199 0.53934306 0
-0.49841449 -0.23806027 -0.090776406 0
-0.56085157 -0.14413598 -0.090179183 0
-0.64099312 -0.023578729 -0.089615174 0
-0.63896543 -0.026628997 -0.061482046 0
-0.64523685 -0.017194834 -0.035454456 0
-0.63481808 -0.032867935 -0.0062280353 0
-0.64051008 -0.02430537 0.019962834 0
-0.63588268 -0.031266417 0.047414325 0
-0.6414178 -0.022939947 0.073990814 0
-0.64213258 -0.021864679 0.10100356 0
-1.2542599 0.89896065 0.25961328 0
-1.2363286 0.87198645 0.30971587 0
-1.2326915 0.86651522 0.36154473 0
-1.2377465 0.87411934 0.41555721 0
-1.2417848 0.88019425 0.47004905 0
-1.2341025 0.86863774 0.52131158 0
-0.51092678 -0.25985256 -0.088451453 0
-0.57846516 -0.16361293 -0.089021184 0
-0.66789901 -0.036173012 -0.090400361 0
-0.66126883 -0.045620766 -0.061046142 0
-0.66910052 -0.034460928 -0.035361353 0
-0.66449541 -0.041023042 -0.0071620625 0
-0.65936601 -0.04833224 0.020606318 0
-0.66492516 -0.040410724 0.047003165 0
-0.66529483 -0.039883938 0.074002981 0
-0.66983891 -0.033408727 0.10100374 0
-1.294852 0.85721153 0.25880319 0
-1.2521957 0.79642791 0.30472419 0
-1.2390692 0.77772313 0.3533915 0
-1.2419212 0.7817871 0.40516841 0
-1.242869 0.78313786 0.45697233 0
-1.2412554 0.78083843 0.50841123 0
-0.53115964 -0.27031001 -0.089162968 0
-0.60671496 -0.1682249 -0.091427885 0
-0.68511337 -0.062298443 -0.088571243 0
-0.68634814 -0.06063005 -0.061395857 0
-0.68889648 -0.057186987 -0.034559403 0
-0.68834406 -0.057933297 -0.0071831997 0
-0.69002479 -0.05566242 0.019768724 0
-0.68710881 -0.059602287 0.04712411 0
-0.69137049 -0.05384418 0.073911786 0
-0.69355154 -0.050897326 0.10100373 0
-1.3486289 0.83419782 0.25969708 0
-1.2485474 0.69897479 0.29714054 0
-1.2374713 0.68400937 0.34439197 0
-1.2366303 0.68287319 0.39345101 0
-1.243266 0.69183868 0.44483244 0
-1.2424998 0.69080371 0.49478585 0
-0.54893589 -0.28421512 -0.089095585 0
-0.62590241 -0.18553111 -0.091018893 0
-0.71287185 -0.074021667 -0.08979734 0
-0.71470416 -0.071672291 -0.062571265 0
-0.72166079 -0.062752753 -0.036358315 0
-0.71513468 -0.071120352 -0.0077160727 0
-0.71570981 -0.070382923 0.019501748 0
-0.71367764 -0.07298848 0.046871968 0
-0.71132845 -0.076000541 0.074041232 0
-0.71207601 -0.075042099 0.1010035 0
-1.3901511 0.79436439 0.25923559 0
-1.2552272 0.62136918 0.29174635 0
-1.241233 0.60342628 0.33715492 0
-1.2359693 0.59667736 0.38374493 0
-1.2425834 0.60515779 0.43341646 0
-1.2439934 0.6069656 0.48237795 0
-0.57571852 -0.28715214 -0.09216594 0
-0.64393938 -0.20409134 -0.090412579 0
-0.73641008 -0.091505498 -0.089971416 0
-0.74734586 -0.078190833 -0.064722829 0
-0.73896188 -0.088398606 -0.035281766 0
-0.74749833 -0.078005224 -0.0091021862 0
-0.74309564 -0.083365649 0.019013906 0
-0.75248551 -0.07193324 0.045704525 0
-0.73989654 -0.087260634 0.073830537 0
-0.74360204 -0.082749099 0.10100389 0
-1.4372636 0.76180416 0.25951689 0
-1.2463526 0.52936429 0.28451914 0
-1.2427342 0.52495903 0.33010086 0
-1.2381688 0.51940042 0.37545544 0
-1.2461517 0.52911979 0.42402235 0
-1.2367343 0.51765376 0.46838501 0
-0.58382636 -0.31282768 -0.089102842 0
-0.66333008 -0.22086218 -0.090350561 0
-0.75704318 -0.11246011 -0.089523055 0
-0.77680117 -0.089605182 -0.066163771 0
-0.7789703 -0.087096006 -0.038411576 0
-0.77426654 -0.092537075 -0.0096750539 0
-0.77753228 -0.088759452 0.017750809 0
-0.76342368 -0.1050795 0.046556462 0
-0.76914018 -0.098466963 0.07359162 0
-0.78040749 -0.085433632 0.1010045 0
-1.4787557 0.72237676 0.25927812 0
-1.2491429 0.45677343 0.27950218 0
-1.2380919 0.44399026 0.32251051 0
-1.2405547 0.44683912 0.36786991 0
-1.2356372 0.44115081 0.41184771 0
-1.2407684 0.44708636 0.45870697 0
-0.6106956 -0.31681773 -0.092257939 0
-0.68942976 -0.23025677 -0.092288427 0
-0.78111315 -0.12945929 -0.09005747 0
-0.81175441 -0.095772058 -0.068774678 0
-0.80373394 -0.10458985 -0.038802151 0
-0.80657232 -0.10146931 -0.011052055 0
-0.80863637 -0.0992001 0.016854117 0
-0.79705828 -0.11192909 0.045756064 0
-0.80090159 -0.10770378 0.073262312 0
-0.80029315 -0.10837266 0.10100439 0
-1.2541432 0.3905938 0.2751871 0
-1.2383766 0.37325981 0.31634414 0
-1.2357458 0.37036756 0.35937658 0
-1.2444494 0.37993625 0.40527844 0
-1.2387197 0.37363699 0.44809616 0
-0.62675822 -0.33320674 -0.092039682 0
-0.70738703 -0.24893615 -0.092023022 0
-0.80049181 -0.15162602 -0.089566104 0
-0.83196247 -0.11873391 -0.068352334 0
-0.82346034 -0.12762007 -0.038406659 0
-0.82721269 -0.1236982 -0.010849116 0
-0.83219904 -0.11848667 0.016716333 0
-0.82926112 -0.12155727 0.045061089 0
-0.82596499 -0.12500229 0.073158883 0
-0.83094925 -0.11979291 0.10100475 0
-1.2459831 0.31398717 0.26943502 0
-1.2419907 0.30981436 0.31120732 0
-1.2423532 0.31019321 0.35382372 0
-1.2443805 0.31231204 0.39714038 0
-1.2381423 0.305792 0.43867433 0
-0.63281876 -0.35948256 -0.088955142 0
-0.72362167 -0.2692503 -0.091433592 0
-0.82148498 -0.17200199 -0.089592345 0
-0.86200279 -0.13173887 -0.070004754 0
-0.8507843 -0.14288679 -0.03936981 0
-0.86151654 -0.13222203 -0.012523932 0
-0.85777712 -0.1359379 0.016334714 0
-0.85710758 -0.13660333 0.044653062 0
-0.85716844 -0.13654277 0.072842248 0
-0.85651976 -0.13718739 0.10100491 0
-1.2625628 0.26630381 0.1424883 0
-1.2734115 0.2770845 0.18471326 0
-1.2765504 0.28020361 0.22698234 0
-1.2512735 0.2550855 0.26585415 0
-1.2487159 0.25254396 0.3069779 0
-1.240943 0.24481991 0.34712407 0
-1.2490008 0.25282708 0.39069134 0
-1.2290807 0.23303226 0.42769289 0
-0.65754396 -0.36713699 -0.091597579 0
-0.73558396 -0.29340628 -0.089885511 0
-0.84105873 -0.19375572 -0.089414738 0
-0.88593221 -0.15136012 -0.070501111 0
-0.88381201 -0.15336326 -0.041290108 0
-0.88809925 -0.14931276 -0.013195841 0
-0.8895129 -0.14797714 0.015326964 0
-0.88863873 -0.14880303 0.043994017 0
-0.8914088 -0.1461859 0.072426498 0
-0.88575566 -0.15152696 0.10100523 0
-1.2916235 0.23192921 0.14241721 0
-1.2951692 0.23527923 0.18408558 0
-1.2936451 0.2338393 0.22558382 0
-1.2603306 0.20236436 0.26303494 0
-1.2605404 0.20256248 0.30390367 0
-1.2401681 0.18331531 0.34102809 0
-1.2431982 0.186178 0.38238034 0
-1.2438108 0.18675676 0.42361856 0
-0.67261672 -0.38432297 -0.091478966 0
-0.75846034 -0.3072246 -0.091291346 0
-0.86647916 -0.21021011 -0.090655424 0
-0.9131121 -0.1683279 -0.071694992 0
-0.91878718 -0.16323099 -0.043515373 0
-0.91769582 -0.16421112 -0.0142856 0
-0.9187448 -0.16326901 0.014548155 0
-0.92623222 -0.15654436 0.042950876 0
-0.90921712 -0.17182609 0.072525881 0
-0.91918612 -0.16287264 0.1010057 0
-1.3342867 0.20993987 0.14280136 0
-1.3255029 0.20205095 0.18407613 0
-1.3237855 0.20050851 0.22555482 0
-1.2491621 0.13348737 0.25790882 0
-1.2475874 0.13207319 0.2972047 0
-1.2367042 0.12229863 0.33485726 0
-1.2433 0.12822238 0.37593633 0
-1.2359619 0.12163189 0.41421679 0
-0.68673128 -0.40230897 -0.091217674 0
-0.77660543 -0.32559785 -0.091582961 0
-0.89084935 -0.22808626 -0.091733508 0
-0.94700438 -0.18015578 -0.074183695 0
-0.9500342 -0.17756966 -0.045159135 0
-0.95242161 -0.17553195 -0.016028276 0
-0.94514155 -0.18174574 0.01401064 0
-0.94970083 -0.17785421 0.042782392 0
-0.9544577 -0.17379406 0.071764581 0
-0.94586694 -0.18112656 0.10100593 0
-1.4010618 0.20739999 0.14393339 0
-1.4000134 0.20650521 0.18682611 0
-1.4119774 0.21671692 0.23094475 0
-1.2521425 0.080291659 0.25484508 0
-1.2493036 0.077868372 0.29318005 0
-1.2454304 0.074562579 0.33135885 0
-1.2450458 0.074234158 0.37030461 0
-1.2383513 0.068520218 0.40796298 0
-0.69590873 -0.42423698 -0.089736156 0
-0.7921325 -0.34621564 -0.091347493 0
-0.90378028 -0.25568798 -0.090465851 0
-0.98286086 -0.19156685 -0.077032022 0
-0.97721165 -0.19614741 -0.046212319 0
-0.98003358 -0.19385931 -0.016915536 0
-0.97790802 -0.19558278 0.01286828 0
-0.97073483 -0.201399 0.042730648 0
-0.98363048 -0.19094285 0.071498148 0
-0.96794999 -0.20365706 0.10100601 0
-1.2525185 0.02708045 0.25169331 0
-1.2521715 0.026798997 0.28961834 0
-1.2408783 0.017642174 0.32574826 0
-1.2368503 0.014376078 0.36297408 0
-1.2385161 0.015726838 0.40162474 0
-0.72708613 -0.42880306 -0.094334655 0
-0.80619895 -0.36789891 -0.090894304 0
-0.92008644 -0.28022388 -0.090068586 0
-1.0099468 -0.21104583 -0.078321718 0
-1.008913 -0.21184167 -0.047982413 0
-1.0096629 -0.21126434 -0.01807843 0
-1.020341 -0.20304397 0.010863909 0
-1.0079297 -0.21259871 0.041695148 0
-1.0085983 -0.21208397 0.071347378 0
-1.0033616 -0.21611539 0.10100658 0
-1.2594758 -0.018948641 0.24953777 0
-1.2345814 -0.038113322 0.28329828 0
-1.2404509 -0.033594754 0.32123482 0
-1.2331946 -0.039180961 0.35704309 0
-1.2411033 -0.033092465 0.39630434 0
-0.72079742 -0.46210441 -0.089017875 0
-0.8130666 -0.39471021 -0.088899203 0
-0.94461781 -0.29862413 -0.09147983 0
-1.0515822 -0.22049645 -0.082206301 0
-1.0487207 -0.22258642 -0.050951306 0
-1.050092 -0.22158489 -0.020519687 0
-1.0423332 -0.22725198 0.010649251 0
-1.0457362 -0.22476634 0.04062682 0
-1.043808 -0.2261748 0.070888974 0
-1.0462481 -0.2243925 0.10100742 0
-1.2506322 -0.075108677 0.24572968 0
-1.2314959 -0.089086026 0.27943337 0
-1.2457657 -0.0786632 0.3180308 0
-1.2431426 -0.080579132 0.35426781 0
-1.2357972 -0.085944325 0.38952965 0
-0.73817068 -0.47750476 -0.090130024 0
-0.83610117 -0.40969726 -0.090798818 0
-0.95925623 -0.32442406 -0.090982728 0
-1.0712887 -0.24685219 -0.082316406 0
-1.0874395 -0.23566929 -0.053752933 0
-1.0749462 -0.24431977 -0.0211803 0
-1.0775245 -0.24253449 0.0092635322 0
-1.0838788 -0.23813477 0.03954041 0
-1.0783731 -0.24194697 0.070446573 0
-1.0778986 -0.24227545 0.10100786 0
-1.247872 -0.12458512 0.20724939 0
-1.2430135 -0.12794915 0.24228916 0
-1.238256 -0.13124326 0.27722025 0
-1.2447667 -0.12673518 0.31399882 0
-1.2428418 -0.12806794 0.34970191 0
-1.2350843 -0.13343933 0.38423327 0
-0.75141543 -0.49594519 -0.090274177 0
-0.85353851 -0.42898235 -0.091492556 0
-0.97274411 -0.35081843 -0.090396725 0
-1.1173996 -0.25596675 -0.086974777 0
-1.1189584 -0.25494471 -0.055548895 0
-1.118587 -0.25518814 -0.02399159 0
-1.1152284 -0.25739041 0.0076579619 0
-1.115256 -0.25737241 0.038829494 0
-1.1146727 -0.25775483 0.069952041 0
-1.1045796 -0.26437297 0.10100814 0
-1.2453722 -0.17205426 0.20524812 0
-1.2368979 -0.17761084 0.23922315 0
-1.2369763 -0.17755952 0.27406931 0
-1.2326708 -0.18038264 0.30837303 0
-1.2418698 -0.17435077 0.34531659 0
-1.2408698 -0.17500654 0.38076022 0
-0.76955497 -0.51140708 -0.091757767 0
-0.86559027 -0.45184562 -0.091090627 0
-0.98441672 -0.37814894 -0.089598633 0
-1.15856 -0.27014449 -0.090780579 0
-1.1451761 -0.27844533 -0.05665544 0
-1.1579685 -0.27051142 -0.026321819 0
-1.1553779 -0.27211812 0.005845027 0
-1.1360548 -0.28410241 0.038682289 0
-1.1489836 -0.27608392 0.06950859 0
-1.1498367 -0.27555481 0.10100906 0
-1.2545393 -0.21061787 0.16983379 0
-1.2488121 -0.21416989 0.20386635 0
-1.2367353 -0.22165987 0.23699784 0
-1.2342263 -0.22321597 0.2709271 0
-1.2346907 -0.22292802 0.30539566 0
-1.240123 -0.21955886 0.34107724 0
-1.2411839 -0.21890089 0.37636253 0
-0.77818018 -0.53286731 -0.090972669 0
-0.88219005 -0.47193882 -0.091814347 0
-1.0004473 -0.40266427 -0.08977475 0
-1.1658617 -0.3057653 -0.089074649 0
-1.1935239 -0.28956088 -0.060824219 0
-1.1820424 -0.29628679 -0.027004113 0
-1.1871828 -0.29327551 0.0047044102 0
-1.181178 -0.29679313 0.037188161 0
-1.1853235 -0.29436466 0.069004402 0
-1.1850846 -0.29450461 0.10100964 0
-1.2503551 -0.25626943 0.16856803 0
-1.2370032 -0.26409093 0.20135522 0
-1.2375948 -0.26374438 0.23503706 0
-1.2399652 -0.26235583 0.26913872 0
-1.2471707 -0.25813481 0.30434263 0
-1.2449284 -0.25944844 0.33836758 0
-1.2471882 -0.25812462 0.37351561 0
-0.78165668 -0.55697542 -0.089080609 0
-0.889754 -0.49726361 -0.090693645 0
-1.014609 -0.42829505 -0.089714535 0
-1.1865307 -0.33332726 -0.089683853 0
-1.424843 -0.20168617 -0.08940322 0
-1.7943918 0.0024486517 -0.090477221 0
-3.0240405 0.68169338 -0.14062616 0
-4.5444188 1.521534 -0.14077714 0
-9.1089487 4.0429316 -0.14100629 0
-1.2439083 -0.30163255 0.13411807 0
-1.2441906 -0.30147657 0.16727611 0
-1.2417994 -0.30279747 0.20030753 0
-1.2439145 -0.3016291 0.23380016 0
-1.2424835 -0.30241957 0.26707777 0
-1.2478087 -0.29947796 0.30154589 0
-1.2359664 -0.30601957 0.33330005 0
-1.2348517 -0.30663529 0.36697495 0
-0.81042242 -0.56744564 -0.093418591 0
-0.90652531 -0.51748157 -0.091678761 0
-1.0216317 -0.45763752 -0.088453345 0
-1.194275 -0.36787996 -0.088348843 0
-1.4551145 -0.23226896 -0.090832867 0
-1.8284553 -0.038168337 -0.091488458 0
-3.0571492 0.60063189 -0.13998882 0
-4.600801 1.4031794 -0.14048743 0
-9.2249117 3.8072636 -0.1407939 0
-1.2623979 -0.3324627 0.1341584 0
-1.2360078 -0.34618297 0.16595535 0
-1.2423919 -0.34286383 0.19901957 0
-1.2400374 -0.34408793 0.23160735 0
-1.2505618 -0.33861634 0.2659106 0
-1.235252 -0.34657595 0.29686123 0
-1.2369106 -0.34571365 0.33035341 0
-1.2462074 -0.34088019 0.3658123 0
-0.81337571 -0.591681 -0.091660567 0
-0.9093492 -0.54482138 -0.089836054 0
-1.0373317 -0.48233309 -0.088930957 0
-1.2152967 -0.39544055 -0.089243941 0
-1.4641562 -0.27393344 -0.089584909 0
-1.848569 -0.086241513 -0.091145508 0
-3.1094928 0.52941221 -0.14101589 0
-4.6607218 1.2868092 -0.14054036 0
-9.3446531 3.5737679 -0.14083679 0
-1.2519799 -0.37752983 0.1010102 0
-1.2532293 -0.37691984 0.13350119 0
-1.2494127 -0.37878332 0.16582942 0
-1.2369449 -0.38487074 0.19735636 0
-1.2345637 -0.38603339 0.22938749 0
-1.248755 -0.37910441 0.26359105 0
-1.2387106 -0.38400862 0.29492679 0
-1.2424328 -0.38219121 0.32846496 0
-1.244349 -0.3812556 0.36207572 0
-0.82273012 -0.61254585 -0.09156277 0
-0.91950464 -0.56828302 -0.08967673 0
-1.0518093 -0.50776941 -0.089295499 0
-1.237834 -0.4226853 -0.090471126 0
-1.4855093 -0.30940339 -0.090069465 0
-1.8741269 -0.13165715 -0.091490574 0
-3.1447501 0.44950131 -0.14085668 0
-4.7168159 1.168534 -0.14054804 0
-9.446599 3.331846 -0.14057577 0
-1.2512805 -0.41653511 0.10100971 0
-1.2486057 -0.41775849 0.13299692 0
-1.2307962 -0.42590424 0.16410609 0
-1.2376643 -0.4227629 0.19626871 0
-1.2423837 -0.42060432 0.2286678 0
-1.2352315 -0.4238756 0.25992376 0
-1.2395669 -0.42189267 0.29275912 0
-1.2450218 -0.41939774 0.32623526 0
-1.2441614 -0.41979131 0.35894051 0
-0.83776635 -0.63097388 -0.092901744 0
-0.93338925 -0.59012282 -0.09040489 0
-1.0696815 -0.53189737 -0.090378217 0
-1.2393335 -0.45942035 -0.088575803 0
-1.5136721 -0.3422201 -0.091528706 0
-1.888724 -0.18199417 -0.090836398 0
-3.1770959 0.36841121 -0.14063205 0
-4.776248 1.0515852 -0.14087659 0
-9.5619459 3.0960839 -0.14081161 0
-1.2475986 -0.45588937 0.10100916 0
-1.2382042 -0.45990279 0.13237788 0
-1.2347553 -0.46137616 0.16360614 0
-1.2507935 -0.45452455 0.19621007 0
-1.2373719 -0.46025833 0.22674169 0
-1.2358561 -0.46090594 0.25823921 0
-1.2474332 -0.45596007 0.29183343 0
-1.2443483 -0.45727798 0.32361501 0
-1.2319427 -0.46257779 0.35357434 0
-0.82531172 -0.66069233 -0.088045694 0
-0.9445383 -0.61327797 -0.090683632 0
-1.0812918 -0.55889338 -0.090450831 0
-1.263803 -0.48631176 -0.090314336 0
-1.5174735 -0.38543132 -0.090014018 0
-1.9025868 -0.2322782 -0.090243287 0
-3.2151325 0.28969899 -0.1409926 0
-4.8226843 0.92899519 -0.14069942 0
-1.2479968 -0.49259764 0.069719218 0
-1.2453278 -0.49365905 0.10100869 0
-1.2470456 -0.49297592 0.13227451 0
-1.2433285 -0.49445418 0.16338776 0
-1.2441442 -0.49412978 0.19472346 0
-1.2396052 -0.49593484 0.22566414 0
-1.2478578 -0.49265289 0.2581214 0
-1.2391415 -0.49611926 0.28860301 0
-1.2345209 -0.49795678 0.31957135 0
-1.2449114 -0.49382463 0.35358888 0
-0.85296708 -0.67440748 -0.092492349 0
-0.95764971 -0.6358065 -0.091471605 0
-1.0848209 -0.58891302 -0.089227132 0
-1.2717245 -0.5199936 -0.089660279 0
-1.5435448 -0.41976181 -0.091423936 0
-1.9249461 -0.27912268 -0.090627812 0
-3.2446828 0.20752087 -0.14086622 0
-4.8689089 0.80644292 -0.14066766 0
-1.2438607 -0.53026813 0.070122413 0
-1.2463741 -0.52934134 0.10100835 0
-1.2373688 -0.53266197 0.13173291 0
-1.2470862 -0.52907878 0.16297385 0
-1.2470927 -0.52907634 0.19404125 0
-1.2501482 -0.52794969 0.22551382 0
-1.2397252 -0.53179306 0.25559574 0
-1.2417637 -0.53104144 0.28719053 0
-1.2383711 -0.53229237 0.31814262 0
-1.2382882 -0.532323 0.34982815 0
-0.85832268 -0.69684219 -0.091972016 0
-0.96410805 -0.66083956 -0.091042794 0
-1.0903578 -0.61787212 -0.088494606 0
-1.2860823 -0.55125993 -0.090094067 0
-1.5490954 -0.46174696 -0.09039586 0
-1.9487977 -0.32571366 -0.091273271 0
-3.2823093 0.12812904 -0.14149119 0
-1.2589058 -0.56050909 0.039013293 0
-1.2411548 -0.56655037 0.070463583 0
-1.2397423 -0.56703115 0.10100781 0
-1.246821 -0.56462193 0.13169168 0
-1.2439679 -0.565593 0.16226815 0
-1.2388636 -0.56733018 0.19260421 0
-1.2384906 -0.56745714 0.22325459 0
-1.2413287 -0.56649119 0.25441679 0
-1.2373646 -0.56784034 0.28487885 0
-1.2387471 -0.56736982 0.31627393 0
-1.2371612 -0.56790954 0.34738767 0
-0.8485837 -0.72387856 -0.088220902 0
-0.97303182 -0.68499923 -0.091229029 0
-1.1056119 -0.6435793 -0.089567386 0
-1.2960482 -0.58408439 -0.089994483 0
-1.5705739 -0.4983187 -0.091456421 0
-1.9665078 -0.37462339 -0.09142857 0
-3.30425 0.043305907 -0.14110976 0
-1.2557325 -0.59667951 0.039676163 0
-1.2483969 -0.59897131 0.070537359 0
-1.2301341 -0.60467684 0.10100722 0
-1.2531815 -0.59747654 0.13159505 0
-1.2293642 -0.60491741 0.1610523 0
-1.2434098 -0.60052937 0.19218597 0
-1.2412015 -0.60121924 0.22251701 0
-1.2328614 -0.60382479 0.25212112 0
-1.229478 -0.60488182 0.28220898 0
-1.2388085 -0.60196686 0.31451881 0
-1.2422516 -0.60089117 0.34637165 0
-0.86826122 -0.74162257 -0.09114974 0
-0.97652978 -0.71077377 -0.090471186 0
-1.1249691 -0.6684792 -0.091444947 0
-1.3080212 -0.61632246 -0.090310447 0
-1.578595 -0.53922832 -0.090986557 0
-1.9752574 -0.42620799 -0.090833358 0
-1.2603302 -0.62991095 0.0092838649 0
-1.2512211 -0.63250643 0.04035471 0
-1.2235224 -0.64039856 0.071367189 0
-1.2431476 -0.63480681 0.10100733 0
-1.233054 -0.63768274 0.13087735 0
-1.2446848 -0.63436878 0.1613438 0
-1.2404423 -0.63557762 0.1912853 0
-1.242957 -0.63486111 0.22177501 0
-1.2305443 -0.63839781 0.25070465 0
-1.2457694 -0.63405979 0.28322998 0
-1.2358788 -0.63687789 0.31241477 0
-1.2470834 -0.63368535 0.34547594 0
-0.87188339 -0.76423895 -0.090633877 0
-0.98140073 -0.73600155 -0.090112276 0
-1.1201189 -0.70023513 -0.089308716 0
-1.3133481 -0.65041387 -0.089778267 0
-1.5831636 -0.58084595 -0.090228088 0
-1.987748 -0.47652987 -0.090728544 0
-1.2413874 -0.66896784 0.011277111 0
-1.2436928 -0.66837347 0.041130278 0
-1.2462105 -0.66772431 0.07102444 0
-1.2450671 -0.66801912 0.10100713 0
-1.2409827 -0.66907221 0.1308641 0
-1.2419242 -0.66882944 0.16079894 0
-1.2329686 -0.67113853 0.190129 0
-1.2421621 -0.66876811 0.22087398 0
-1.2275953 -0.67252392 0.2493268 0
-1.23316 -0.67108917 0.28015551 0
-1.2489856 -0.66700876 0.31319728 0
-1.2477524 -0.66732675 0.34393764 0
-0.87659222 -0.78649348 -0.090482987 0
-0.9886899 -0.76058859 -0.090346418 0
-1.1274604 -0.7285198 -0.089377068 0
-1.3232622 -0.68327153 -0.090035342 0
-1.5878567 -0.62212574 -0.089615352 0
-2.5187716 -0.40699854 -0.14042196 0
-1.2556715 -0.69889116 0.010803724 0
-1.233866 -0.70393026 0.041967779 0
-1.2376556 -0.70305449 0.07141272 0
-1.2368597 -0.70323849 0.10100666 0
-1.2402847 -0.702447 0.13066359 0
-1.2461457 -0.70109254 0.160633 0
-1.2422323 -0.70199686 0.19024599 0
-1.2357577 -0.70349312 0.21952279 0
-1.2391174 -0.70271671 0.24979734 0
-1.2328677 -0.70416099 0.27901152 0
-1.2556005 -0.69890761 0.31300852 0
-1.2428424 -0.7018559 0.34149417 0
-0.88410926 -0.80815154 -0.091064386 0
-0.99845332 -0.78474993 -0.091174655 0
-1.1289362 -0.75804532 -0.088581137 0
-1.3358457 -0.71569932 -0.090793319 0
-1.6028517 -0.66105396 -0.090359382 0
-1.2482619 -0.73362416 -0.018050706 0
-1.2598401 -0.73125458 0.011000561 0
-1.2455416 -0.73418093 0.04173642 0
-1.2406186 -0.73518848 0.071504444 0
-1.2401507 -0.73528421 0.10100656 0
-1.2263224 -0.7381143 0.13016863 0
-1.2414922 -0.73500967 0.16008452 0
-1.2373296 -0.73586154 0.18940644 0
-1.2350963 -0.73631865 0.21880981 0
-1.2451301 -0.73426515 0.24969909 0
-1.2498331 -0.73330259 0.28047013 0
-1.2418478 -0.73493689 0.30953816 0
-1.2414888 -0.73501033 0.33991528 0
-0.89370453 -0.82959348 -0.092210211 0
-1.0127708 -0.80834031 -0.092987455 0
-1.1371909 -0.7861315 -0.089045249 0
-1.3388134 -0.75014216 -0.090292268 0
-1.6167641 -0.70052838 -0.091088466 0
-1.2460104 -0.76670736 -0.017263306 0
-1.2435249 -0.76715106 0.012593018 0
-1.2447025 -0.76694083 0.042061727 0
-1.23242 -0.76913321 0.07184016 0
-1.2397563 -0.7678237 0.10100638 0
-1.241515 -0.76750982 0.13038754 0
-1.2428533 -0.76727092 0.15986392 0
-1.2361742 -0.76846313 0.18889788 0
-1.2401725 -0.76774943 0.21872318 0
-1.2466352 -0.76659584 0.24916069 0
-1.2462391 -0.76666653 0.2790913 0
-1.2290506 -0.76973468 0.3063952 0
-0.89385378 -0.85276645 -0.091437139 0
-1.0075721 -0.8354162 -0.091188557 0
-1.1416537 -0.81495911 -0.088995226 0
-1.3369364 -0.78516442 -0.089228265 0
-1.2550932 -0.79765135 -0.047529165 0
-1.2507272 -0.79831749 -0.017215876 0
-1.2382393 -0.80022281 0.013335155 0
-1.2370597 -0.80040276 0.042667177 0
-1.2444488 -0.7992754 0.071678661 0
-1.2369355 -0.80042177 0.10100614 0
-1.2428817 -0.79951453 0.13029715 0
-1.2368138 -0.80044031 0.15933369 0
-1.2412456 -0.79976416 0.18889034 0
-1.2432941 -0.79945159 0.21852733 0
-1.2458876 -0.79905587 0.24845463 0
-1.2475535 -0.79880172 0.27853581 0
-1.2397923 -0.79998589 0.30732548 0
-0.89178848 -0.87605011 -0.090317585 0
-1.0068816 -0.86145115 -0.090381302 0
-1.1525475 -0.84297419 -0.090131544 0
-1.3511997 -0.8177762 -0.090579562 0
-1.2482415 -0.83083594 -0.04619943 0
-1.2536527 -0.83014953 -0.017075261 0
-1.2401986 -0.83185613 0.013505453 0
