# .PCD v0.7 - Point Cloud Data file format
VERSION 0.7
FIELDS x y z intensity
SIZE 4 4 4 4
TYPE F F F F
COUNT 1 1 1 1
WIDTH 1317
HEIGHT 1
VIEWPOINT 0 0 0 1 0 0 0
POINTS 1317
DATA ascii
1.1983112 -0.53054458 -0.01871161 0
1.2062187 -0.52751493 0.01073976 0
1.2060316 -0.52758664 0.040892612 0
1.2093481 -0.52631593 0.070883617 0
1.2087773 -0.52653462 0.10100732 0
0.83771259 -0.64424932 -0.091417082 0
0.93690377 -0.60334617 -0.089712866 0
1.069681 -0.54859328 -0.089020751 0
1.2053561 -0.49264538 -0.082113095 0
1.1983658 -0.49552801 -0.050404195 0
1.199885 -0.49490151 -0.020077644 0
1.2079426 -0.49157885 0.0096993316 0
1.2017916 -0.49411526 0.040500175 0
1.2098109 -0.49080846 0.070568524 0
1.2081863 -0.49147835 0.10100768 0
0.8295939 -0.62287003 -0.091615446 0
0.93817151 -0.5748561 -0.092040755 0
1.0602391 -0.52087688 -0.089383297 0
1.2099383 -0.45467868 -0.084801637 0
1.2100573 -0.45462611 -0.053538997 0
1.2006499 -0.45878616 -0.021467736 0
1.2093093 -0.4549568 0.008605564 0
1.2053583 -0.45670399 0.039663184 0
1.2111125 -0.45415947 0.070205905 0
1.2039633 -0.4573209 0.10100795 0
0.82477009 -0.59986502 -0.092717014 0
0.92143351 -0.55417001 -0.090794273 0
1.0468614 -0.49487734 -0.08916118 0
1.2318318 -0.40743759 -0.090361513 0
1.4808096 -0.28974 -0.090333961 0
1.8644603 -0.10837945 -0.091423683 0
3.1169429 0.48369804 -0.13997851 0
4.689817 1.227232 -0.14047833 0
9.4034805 3.4554894 -0.1408378 0
0.80228174 -0.58545333 -0.089765318 0
0.90975505 -0.53128946 -0.090708457 0
1.0394717 -0.46591547 -0.090158321 0
1.2112813 -0.3793278 -0.089499436 0
1.4599742 -0.25399277 -0.089978762 0
1.8297465 -0.067636698 -0.090180434 0
3.0878925 0.56643754 -0.14069143 0
4.642776 1.35006 -0.1410193 0
9.2793274 3.6867664 -0.14060314 0
0.7971828 -0.56249881 -0.091054492 0
0.90152788 -0.50656646 -0.091481648 0
1.0292971 -0.43807808 -0.090785109 0
1.2044586 -0.34418592 -0.090926938 0
1.4312028 -0.22264364 -0.088685267 0
1.8178535 -0.015386429 -0.09144529 0
3.0531025 0.64674705 -0.14112335 0
4.5806322 1.4655526 -0.14093259 0
9.1668758 3.9239266 -0.14082693 0
0.7887249 -0.54108673 -0.091681533 0
0.88863456 -0.48424128 -0.091389127 0
1.0147188 -0.41250327 -0.090720184 0
1.1841592 -0.31609693 -0.090338461 0
1.2210914 -0.29508367 -0.063094549 0
1.2108053 -0.30093613 -0.02895472 0
3.0125232 0.72418529 -0.14125778 0
4.5142803 1.5786386 -0.14077426 0
9.0321159 4.1491466 -0.14061625 0
0.77300853 -0.5238598 -0.090649776 0
0.87557352 -0.46202692 -0.091381304 0
1.010905 -0.38044032 -0.092843048 0
1.1576877 -0.2919502 -0.088843606 0
1.1416513 -0.30161795 -0.054696772 0
1.1938994 -0.27011934 -0.029047048 0
2.9613202 0.79539722 -0.14068542 0
4.44733 1.6912606 -0.140735 0
8.901473 4.3765082 -0.14066727 0
0.76081431 -0.50465959 -0.090598069 0
0.85487229 -0.44466856 -0.089790829 0
0.99304557 -0.35654041 -0.092418887 0
1.1456844 -0.25918606 -0.089836992 0
1.143594 -0.2605193 -0.057421599 0
1.1867542 -0.23299137 -0.030306926 0
2.9218063 0.87364048 -0.14122091 0
4.3839922 1.8062356 -0.14105032 0
8.7603559 4.5975189 -0.14058731 0
0.7467773 -0.4866986 -0.090196319 0
0.84008294 -0.42382029 -0.089614548 0
0.96588665 -0.33904168 -0.090262972 0
1.1382238 -0.22290441 -0.091756232 0
1.1396356 -0.221953 -0.059506435 0
1.1648941 -0.20493135 -0.030036738 0
2.8729327 0.94610912 -0.14114164 0
4.3142681 1.9174194 -0.14117414 0
8.6138601 4.8148971 -0.14051031 0
0.74734384 -0.45845041 -0.093713738 0
0.8362447 -0.39522126 -0.092086814 0
0.94576621 -0.31732604 -0.089575879 0
1.1080401 -0.20191172 -0.089948051 0
1.1487782 -0.17293748 -0.063646354 0
1.1397715 -0.17934331 -0.029468393 0
2.8155289 1.0125091 -0.14048474 0
4.237432 2.0238121 -0.14105278 0
8.4784107 5.040132 -0.14090228 0
0.71959293 -0.45037648 -0.089962251 0
0.82294691 -0.37286797 -0.092547573 0
0.94176322 -0.28376374 -0.092298307 0
1.087764 -0.17427292 -0.089937992 0
1.0974956 -0.16697493 -0.059217025 0
1.1008399 -0.16446695 -0.027352756 0
1.0992198 -0.16568187 0.0050013456 0
1.0985614 -0.16617563 0.037100222 0
1.1049773 -0.16136417 0.068885729 0
1.099327 -0.16560152 0.10100959 0
1.1040705 -0.1620442 0.13310748 0
1.0958132 -0.16823658 0.16475897 0
1.1021376 -0.16349372 0.1972734 0
0.70135182 -0.43590501 -0.088766195 0
0.79923463 -0.35856518 -0.090651758 0
0.91312617 -0.26857635 -0.09009134 0
1.0603218 -0.15227315 -0.088767968 0
1.0987844 -0.12188283 -0.062551446 0
1.0976431 -0.12278458 -0.029489836 0
1.0998319 -0.1210551 0.0030641428 0
1.0990802 -0.12164906 0.035816472 0
1.0951953 -0.12471864 0.068546176 0
1.103343 -0.11828092 0.10101051 0
1.1011103 -0.12004504 0.13364999 0
1.0980345 -0.1224753 0.16614228 0
1.096915 -0.12335983 0.1986969 0
0.69126493 -0.41500017 -0.089899473 0
0.78270024 -0.33892992 -0.090561979 0
0.9024387 -0.23931262 -0.091756202 0
1.0255756 -0.13686809 -0.086338378 0
1.0980237 -0.076594383 -0.065816246 0
1.1113309 -0.065523356 -0.033848766 0
1.0959196 -0.078344911 0.0013959429 0
1.0986032 -0.076112181 0.034498449 0
1.0996362 -0.075252801 0.067741558 0
1.0962337 -0.078083545 0.10101107 0
1.1094658 -0.067074925 0.1345789 0
1.09434 -0.079659015 0.16726555 0
1.1026253 -0.072766095 0.20123689 0
0.6761893 -0.39808664 -0.089796104 0
0.76373601 -0.32143238 -0.089984663 0
0.87816846 -0.22123751 -0.09065073 0
0.99792773 -0.11637852 -0.085252352 0
1.0968767 -0.029740598 -0.06926959 0
1.099637 -0.027323749 -0.035333458 0
1.1074243 -0.020505395 -0.0018411556 0
1.1044379 -0.023120191 0.032690089 0
1.1088811 -0.019229796 0.066732354 0
1.1035322 -0.02391329 0.10101224 0
1.0979192 -0.028827872 0.13495296 0
1.1043081 -0.023233857 0.16932659 0
1.097761 -0.028966334 0.20296767 0
1.101503 -0.025689986 0.23759 0
1.0887308 -0.036873069 0.37337235 0
0.67566568 -0.36778191 -0.094017871 0
0.75174469 -0.29769966 -0.091291286 0
0.85573047 -0.20191035 -0.090029545 0
0.96156019 -0.10442236 -0.082572408 0
1.0690494 -0.0054058698 -0.068750285 0
1.1019751 0.02492455 -0.03875478 0
1.1028658 0.025745068 -0.0037647167 0
1.1034645 0.02629653 0.031186448 0
1.1055949 0.028258953 0.066051371 0
1.0930405 0.016694222 0.10101279 0
1.0896025 0.013527188 0.13546842 0
1.0985309 0.021751914 0.17052746 0
1.0974226 0.020731006 0.20527366 0
1.0931258 0.016772781 0.23965806 0
1.0328177 -0.038781669 0.3652938 0
0.64327902 -0.36693504 -0.089137055 0
0.72735167 -0.28547344 -0.089532934 0
0.84462243 -0.17184463 -0.092096142 0
0.83784902 -0.1784077 -0.0627928 0
0.84110397 -0.17525384 -0.035750229 0
0.84139341 -0.17497334 -0.0082585346 0
0.83637452 -0.17983642 0.019649396 0
0.83778989 -0.17846498 0.046724711 0
0.84222931 -0.17416349 0.073735148 0
0.84164965 -0.17472509 0.10100382 0
0.84301466 -0.17340246 0.12829806 0
0.83534306 -0.18083581 0.15512395 0
0.84432119 -0.17213652 0.18313234 0
1.10335 0.078847796 0.24433413 0
1.0095503 -0.012038853 0.29841456 0
1.0102634 -0.011347856 0.33202583 0
0.99281871 -0.02825078 0.36117807 0
0.63524634 -0.34290233 -0.091526903 0
0.71661222 -0.2599819 -0.091482602 0
0.82103521 -0.15356395 -0.09146405 0
0.8417294 -0.13247433 -0.067730121 0
0.83412141 -0.14022771 -0.038057018 0
0.8359319 -0.13838258 -0.010304516 0
0.8392427 -0.1350086 0.017297985 0
0.84394562 -0.13021579 0.044937983 0
0.83573341 -0.13858494 0.07325916 0
0.83906066 -0.13519403 0.10100456 0
0.83835584 -0.13591239 0.12883699 0
0.84203047 -0.13216749 0.15694423 0
0.83967948 -0.13456342 0.18475512 0
0.83974719 -0.13449445 0.21282275 0
1.0931959 0.12379649 0.28331986 0
0.94212645 -0.030159201 0.28989416 0
0.93952036 -0.032815065 0.32128701 0
0.95235229 -0.019737985 0.3569001 0
0.61808938 -0.32779726 -0.091325603 0
0.69777352 -0.24238262 -0.091424711 0
0.79369426 -0.13956365 -0.090020008 0
0.84229046 -0.087472707 -0.072354577 0
0.84355772 -0.086114258 -0.043389548 0
0.84107798 -0.088772327 -0.013982726 0
0.84283435 -0.086889714 0.014693582 0
0.83984303 -0.090096086 0.043720387 0
0.84512669 -0.084432513 0.072198361 0
0.83826846 -0.091783971 0.10100543 0
0.83543789 -0.094818085 0.12948209 0
0.83491307 -0.095380634 0.1579539 0
0.8429088 -0.086809903 0.18732566 0
0.84231383 -0.087447613 0.21616367 0
1.099838 0.1885964 0.28933209 0
0.93488395 0.011779699 0.29345086 0
0.92631495 0.0025944447 0.3239927 0
0.92911297 0.0055936906 0.35732168 0
0.59961462 -0.31422833 -0.090816803 0
0.67481512 -0.22942755 -0.090320043 0
0.77587897 -0.11546168 -0.090980269 0
0.84496903 -0.037551429 -0.077798195 0
0.8411746 -0.041830268 -0.047031123 0
0.84230649 -0.040553834 -0.017389601 0
0.8401069 -0.043034222 0.012553679 0
0.84062743 -0.042447235 0.042054694 0
0.84364402 -0.039045539 0.071440853 0
0.83703655 -0.046496537 0.10100637 0
0.82969004 -0.054780927 0.13008231 0
0.83500892 -0.04878309 0.15956379 0
0.84290987 -0.039873447 0.18975526 0
0.84151614 -0.041445103 0.21929218 0
1.0997648 0.2497721 0.29461852 0
1.0979811 0.24776068 0.33342636 0
0.58383679 -0.29762384 -0.091293551 0
0.65703487 -0.21076152 -0.090789579 0
0.72985113 -0.12435225 -0.084927104 0
0.84455925 0.01176909 -0.083004437 0
0.847664 0.015453372 -0.052592296 0
0.8434453 0.010447118 -0.021060696 0
0.84333444 0.010315571 0.0095843989 0
0.84807765 0.015944276 0.039771214 0
0.84104264 0.0075959298 0.070659973 0
0.84073418 0.0072298977 0.1010076 0
0.84154302 0.0081897117 0.13137339 0
0.84340119 0.010394786 0.16190654 0
0.8425228 0.0093524195 0.19234328 0
0.84028262 0.0066941115 0.22261839 0
0.8361398 0.0017778609 0.25251797 0
1.1013589 0.31650665 0.34104925 0
0.56262308 -0.28760633 -0.090076931 0
0.63609374 -0.19581702 -0.090461291 0
0.72881997 -0.079971164 -0.090456568 0
0.84441364 0.064443737 -0.088712357 0
0.85090524 0.072553903 -0.057990197 0
0.8365925 0.054672513 -0.023844896 0
0.83865649 0.057251129 0.007256167 0
0.84414399 0.064106852 0.038154643 0
0.84212041 0.061578665 0.069674082 0
0.83694673 0.055115137 0.10100859 0
0.84371412 0.063569814 0.13240306 0
0.83743852 0.055729542 0.16336319 0
0.85025781 0.071745068 0.19606049 0
0.83861655 0.0572013 0.22616522 0
0.84155273 0.060869608 0.25825965 0
1.1001769 0.38397697 0.34827465 0
1.0981095 0.38139406 0.38962522 0
0.54733157 -0.27024814 -0.090987436 0
0.6179325 -0.17733237 -0.091102965 0
0.70077139 -0.068310648 -0.08913257 0
0.72921902 -0.030871596 -0.068192191 0
0.730353 -0.029379155 -0.039929885 0
0.72845286 -0.031879868 -0.011265835 0
0.72933823 -0.030714717 0.016806142 0
0.72705835 -0.033715215 0.045098495 0
0.72929245 -0.030774977 0.072980851 0
0.72486407 -0.03660306 0.10100456 0
0.72723883 -0.03347763 0.1289496 0
0.7304309 -0.029276695 0.1571708 0
0.73251265 -0.026536908 0.18557084 0
0.72924685 -0.030834999 0.21339844 0
0.72436249 -0.037263121 0.24078265 0
0.72864574 -0.031626072 0.27006984 0
0.73177654 -0.027505722 0.29956689 0
0.72505265 -0.036354806 0.32646349 0
0.52439314 -0.26310489 -0.089307092 0
0.59455621 -0.16576114 -0.090235375 0
0.67695189 -0.051445987 -0.08903154 0
0.72820848 0.019667063 -0.073817037 0
0.95631963 0.33614674 -0.089983322 0
0.8512575 0.1903843 -0.034762595 0
0.84278184 0.17862526 0.00032335729 0
0.83995795 0.17470744 0.03417154 0
0.84637129 0.18360522 0.067354523 0
0.8412689 0.17652622 0.10101143 0
0.83198184 0.16364136 0.13409528 0
0.83703476 0.17065182 0.16761833 0
0.84672785 0.18409994 0.20217222 0
0.84177887 0.17723373 0.23527311 0
0.84124064 0.176487 0.26900539 0
0.83811265 0.1721473 0.30225614 0
1.1019953 0.53825599 0.41055274 0
0.51247275 -0.24051383 -0.091782443 0
0.57352239 -0.15114382 -0.090213217 0
0.65462089 -0.032424357 -0.089482285 0
0.77027196 0.13687626 -0.090697192 0
0.92399174 0.36190537 -0.090277217 0
1.1561829 0.70180815 -0.090191163 0
0.85321033 0.25828913 -0.0046545323 0
0.84073073 0.2400203 0.031661782 0
0.84256822 0.24271026 0.066280365 0
0.83939826 0.2380698 0.10101283 0
0.8409614 0.24035802 0.13567927 0
0.84572393 0.24732986 0.17077681 0
0.84301269 0.24336079 0.20541708 0
0.84615743 0.24796441 0.24091588 0
0.84107667 0.24052671 0.27512434 0
0.84592956 0.24763086 0.311575 0
1.1025999 0.62336832 0.42206496 0
1.1039783 0.6253863 0.4693979 0
0.49062765 -0.23216048 -0.090690427 0
0.55445445 -0.13346758 -0.090997644 0
0.62852079 -0.018941727 -0.088952862 0
0.74050564 0.15421608 -0.090410702 0
0.89045864 0.38608256 -0.090460755 0
1.1097955 0.72523445 -0.089615099 0
1.4898609 1.3129146 -0.090700559 0
0.84656829 0.31821659 0.028479422 0
0.8403815 0.30865017 0.065031648 0
0.83667147 0.30291358 0.10101433 0
0.83954698 0.30735984 0.13696164 0
0.84091312 0.30947223 0.17306508 0
0.83647472 0.30260935 0.20861633 0
0.84091973 0.30948249 0.24543031 0
0.84034789 0.30859819 0.28170636 0
0.84186244 0.31094018 0.31867146 0
0.84374559 0.31385198 0.35612118 0
1.1037202 0.7158404 0.48356476 0
0.46880358 -0.22424164 -0.089645319 0
0.53505039 -0.11590692 -0.091851659 0
0.60430163 -0.0026589895 -0.089098893 0
0.7087276 0.16811088 -0.08968585 0
0.85552025 0.40816382 -0.090471245 0
1.0622358 0.7462098 -0.088908814 0
1.4243066 1.3383114 -0.089763425 0
0.84875244 0.39709619 0.025316561 0
0.8493467 0.3980681 0.063160673 0
0.84175664 0.38565591 0.10101641 0
0.84129661 0.38490358 0.13851337 0
0.83615422 0.37649408 0.1755916 0
0.83903986 0.3812131 0.21336766 0
0.83743125 0.37858251 0.25072029 0
0.84417671 0.38961354 0.28996432 0
0.84378695 0.38897613 0.3281033 0
0.83995473 0.38270918 0.36537299 0
1.1032219 0.81323522 0.4990491 0
0.44849819 -0.2141597 -0.08928249 0
0.51147002 -0.10508952 -0.091334082 0
0.58377606 0.020147953 -0.090597846 0
0.67696697 0.181559 -0.089030139 0
0.81686985 0.42387751 -0.089742146 0
1.0281458 0.78981727 -0.090782396 0
1.3669493 1.376641 -0.090018384 0
1.3667845 1.3763554 -0.026199048 0
0.84929323 0.48003617 0.061522871 0
0.84133571 0.46625343 0.10101838 0
0.83914417 0.46245757 0.14004175 0
0.84298533 0.46911064 0.17946571 0
0.83891511 0.46206084 0.21822631 0
0.84160024 0.46671167 0.25799564 0
0.83879173 0.46184722 0.29690409 0
0.84038794 0.4646118 0.33700123 0
0.84080797 0.46533933 0.37712407 0
0.83807617 0.4606078 0.41640684 0
0.43238887 -0.19651702 -0.09087918 0
0.48804003 -0.094251424 -0.090956517 0
0.55778211 0.033907924 -0.090481214 0
0.65604943 0.21448568 -0.091629021 0
0.78025067 0.44272009 -0.089570068 0
0.98067778 0.81102866 -0.090342574 0
1.292969 1.3849003 -0.087992616 0
1.2886343 1.3769348 -0.0244432 0
1.2916338 1.382447 0.038190108 0
0.85040933 0.57164484 0.10102113 0
0.84064603 0.55370373 0.14191408 0
0.84254909 0.55720085 0.18303761 0
0.83364964 0.540847 0.22285479 0
0.84224248 0.55663735 0.26535159 0
0.83605814 0.54527289 0.30525741 0
0.83854055 0.54983467 0.34732625 0
0.83924752 0.55113381 0.38930327 0
0.84009451 0.55269021 0.43172714 0
0.41419986 -0.18207356 -0.091789193 0
0.46720901 -0.078522414 -0.091744669 0
0.52931112 0.0427914 -0.089587651 0
0.62038469 0.22069982 -0.090061165 0
0.74987477 0.47365323 -0.091109805 0
0.93524313 0.83576244 -0.09040425 0
1.2434767 1.4378836 -0.089652963 0
1.2479242 1.4465716 -0.026425442 0
1.2446871 1.440248 0.037511211 0
1.2480235 1.4467657 0.10104852 0
0.8510921 0.671377 0.14445338 0
0.83633262 0.64254493 0.18642049 0
0.8366515 0.64316791 0.22928432 0
0.84079343 0.65125901 0.27310422 0
0.84114194 0.65193981 0.31656578 0
0.84375066 0.65703577 0.36099762 0
0.8365348 0.64293987 0.40244398 0
0.83985168 0.64941925 0.44782367 0
0.38886091 -0.18197897 -0.089413367 0
0.44199646 -0.071387321 -0.090838082 0
0.50108719 0.05159894 -0.088822879 0
0.59107643 0.23889473 -0.090521388 0
0.71190423 0.49037519 -0.090888344 0
0.89510423 0.8716715 -0.091741927 0
1.1820482 1.4688916 -0.089686386 0
1.7864395 2.7268186 -0.090964489 0
4.4996591 8.3738775 -0.14055139 0
0.84735352 0.77228743 0.19206676 0
0.83933568 0.7555998 0.23641534 0
0.84188902 0.76091415 0.28232506 0
0.84098881 0.75904042 0.32777745 0
0.83953661 0.75601798 0.37320176 0
0.84141165 0.75992054 0.42003086 0
0.83990896 0.75679296 0.46595266 0
0.36854663 -0.17205235 -0.089505874 0
0.41820499 -0.061644699 -0.090612434 0
0.47670564 0.068422347 -0.089640386 0
0.55978483 0.25313595 -0.09048184 0
0.67603332 0.5115965 -0.091369547 0
0.84452778 0.88621765 -0.090982385 0
1.1231571 1.5057063 -0.090284131 0
1.6907554 2.7676728 -0.090810753 0
4.2655306 8.4922857 -0.14075236 0
1.0657688 1.3781126 0.22196744 0
0.85201627 0.90286714 0.24613322 0
0.84350443 0.88394243 0.29280859 0
0.84030795 0.87683553 0.3402344 0
0.8394165 0.87485355 0.38834533 0
0.8436231 0.88420624 0.43871406 0
0.84075975 0.8778401 0.48670176 0
0.35278484 -0.15118662 -0.092238046 0
0.39352679 -0.054128435 -0.090057708 0
0.44831914 0.076401383 -0.088983126 0
0.52918839 0.26905325 -0.090819202 0
0.63416195 0.51912802 -0.090225853 0
0.7910412 0.89285582 -0.089560263 0
1.0641469 1.5434654 -0.091060482 0
1.5972435 2.8134425 -0.091029428 0
4.0241156 8.5948925 -0.14070261 0
0.99585378 1.3807735 0.22078192 0
0.84926474 1.0315597 0.2543149 0
0.84006107 1.009634 0.30344743 0
0.83907807 1.0072924 0.35416809 0
0.84240502 1.015218 0.4066126 0
0.83827049 1.0053685 0.45663357 0
0.84195685 1.0141504 0.51034677 0
0.33113384 -0.14358297 -0.092008464 0
0.37103429 -0.041377272 -0.090693496 0
0.42587537 0.09909907 -0.09105619 0
0.49348408 0.27228001 -0.089355819 0
0.59533674 0.53317732 -0.090044372 0
0.75113779 0.93226439 -0.091571651 0
0.99898869 1.5671384 -0.090884455 0
1.4983277 2.8462036 -0.090714388 0
3.7808113 8.6928244 -0.14068951 0
0.92169583 1.3691516 0.21898212 0
0.85004938 1.1856279 0.26432765 0
0.84171921 1.16429 0.31689483 0
0.84141982 1.1635232 0.37120447 0
0.84114182 1.162811 0.42578048 0
0.84150451 1.1637402 0.4809688 0
0.83653527 1.1510112 0.53386539 0
0.3087635 -0.13808599 -0.091428913 0
0.34565207 -0.036068883 -0.089947067 0
0.39693996 0.10577026 -0.090409048 0
0.43677703 0.21594158 -0.079139628 0
0.4361074 0.21408978 -0.048584942 0
0.43254045 0.20422521 -0.017492196 0
0.93384933 1.5906193 -0.090818591 0
1.4021987 2.8858626 -0.090867855 0
3.5394223 8.7964592 -0.14097007 0
0.85996139 1.3862789 0.21871682 0
0.85152858 1.3629572 0.27597862 0
0.84449202 1.3434973 0.33265433 0
0.84316969 1.3398407 0.39057645 0
0.84067535 1.3329422 0.44814864 0
0.84039354 1.3321629 0.50682604 0
0.84264636 1.3383932 0.56731993 0
0.28722319 -0.13048783 -0.09145207 0
0.3216534 -0.027190294 -0.090043448 0
0.3638159 0.09930566 -0.087618746 0
0.40345165 0.21822086 -0.077905245 0
0.40586117 0.22544995 -0.048679117 0
0.40367198 0.21888199 -0.017900301 0
0.86923361 1.6156604 -0.09098991 0
1.3045974 2.9218392 -0.090958945 0
3.2882462 8.8731861 -0.14073879 0
0.79093504 1.380749 0.2174174 0
0.84830242 1.5528626 0.28845686 0
0.83842462 1.5232275 0.34832647 0
0.83824742 1.5226958 0.41058663 0
0.8398636 1.5275447 0.4739579 0
0.84138429 1.5321069 0.53793442 0
0.83709109 1.5192263 0.59916312 0
0.26125577 -0.13731244 -0.08839076 0
0.30098495 -0.0072667864 -0.092434116 0
0.34288412 0.12988189 -0.091359533 0
0.38279402 0.26051906 -0.082685061 0
0.37958571 0.2500172 -0.05048022 0
0.3831805 0.26178411 -0.021133391 0
0.72499043 1.380631 -0.072268732 0
0.72442865 1.3787923 -0.014304897 0
0.72567546 1.3828733 0.043300096 0
0.72601676 1.3839905 0.10104124 0
0.72698015 1.3871441 0.15888648 0
0.72783309 1.389936 0.21693051 0
0.84317946 1.7674992 0.30265462 0
0.83228105 1.7318256 0.36671263 0
0.83466095 1.7396157 0.43462348 0
0.83483338 1.7401803 0.50222313 0
0.83484894 1.740231 0.57020605 0
0.24321668 -0.11828789 -0.091199078 0
0.2723054 -0.013696756 -0.089758329 0
0.3083016 0.11573091 -0.087534688 0
0.36186042 0.30830637 -0.088308536 0
0.44080979 0.5921759 -0.090876244 0
0.55118263 0.98903149 -0.090695642 0
0.65884447 1.3761392 -0.070671983 0
0.6620611 1.3877048 -0.013889967 0
0.66133296 1.3850868 0.043669723 0
0.65655249 1.3678982 0.10104024 0
0.66206175 1.3877072 0.15847526 0
0.66102487 1.3839791 0.21579167 0
0.81482917 1.9369962 0.3134844 0
0.81134641 1.9244738 0.38343909 0
0.81158233 1.9253221 0.45471498 0
0.81087816 1.9227901 0.52592778 0
0.81335306 1.9316888 0.59943616 0
0.22114705 -0.1125178 -0.091184907 0
0.25057888 0.004686031 -0.092059083 0
0.28440377 0.13938394 -0.090288438 0
0.33041716 0.32261899 -0.089122884 0
0.39798316 0.59168106 -0.089539997 0
0.49891251 0.99360305 -0.089860193 0
0.5979628 1.3880422 -0.070387803 0
0.60004616 1.3963385 -0.013540065 0
0.59763348 1.3867309 0.044011604 0
0.59737122 1.3856864 0.1010403 0
0.59719527 1.3849857 0.1580272 0
0.60169935 1.4029219 0.215938 0
0.76896024 2.06899 0.32159221 0
0.76952523 2.0712399 0.39569274 0
0.76698017 2.061105 0.46873128 0
0.77099115 2.0770776 0.54546523 0
0.19795789 -0.11168447 -0.090217061 0
0.22449154 0.0065291259 -0.091260247 0
0.25647044 0.1490027 -0.090764605 0
0.29758772 0.33218971 -0.089364313 0
0.35687816 0.59634238 -0.088958792 0
0.45008653 1.0116074 -0.090441085 0
0.55012387 1.4572971 -0.074324824 0
0.55476147 1.4779584 -0.01674944 0
0.55323821 1.4711721 0.042340163 0
0.55512875 1.4795949 0.10104264 0
0.55417538 1.4753475 0.15984443 0
0.55207026 1.4659686 0.21826217 0
0.71291828 2.1825838 0.32841808 0
0.71845835 2.2072661 0.4069505 0
0.71380228 2.1865225 0.4815616 0
0.71263355 2.1813154 0.55782616 0
0.17642099 -0.103618 -0.090948559 0
0.1963997 -0.0027631784 -0.08845403 0
0.22517325 0.14248875 -0.08865387 0
0.2674295 0.35580304 -0.091735385 0
0.3191511 0.61689931 -0.090398289 0
0.39843878 1.0171523 -0.089951061 0
0.41714481 1.1115823 -0.048754517 0
0.41565046 1.1040387 0.0016223735 0
0.41584349 1.1050131 0.051330656 0
0.41590673 1.1053324 0.10103136 0
0.41641697 1.107908 0.15080088 0
0.41547006 1.103128 0.20039725 0
0.41658306 1.1087465 0.25061592 0
0.41471392 1.0993109 0.29983222 0
0.41750929 1.1134222 0.35162103 0
0.4076668 1.0637364 0.39522046 0
0.29695192 0.50483543 0.35139334 0
0.27264801 0.38214663 0.36438441 0
0.1534757 -0.10263035 -0.090267621 0
0.17326285 0.012414608 -0.090472437 0
0.19674571 0.14894679 -0.08884757 0
0.23116896 0.34908763 -0.089880161 0
0.2786696 0.62526232 -0.090498663 0
0.34620026 1.0178938 -0.089132003 0
0.36901927 1.1505663 -0.050822485 0
0.88097501 4.1271396 -0.14072078 0
1.7607628 9.2423325 -0.14041245 0
0.58031917 2.3790896 0.26028237 0
0.581366 2.3851759 0.34053791 0
0.58001006 2.3772924 0.42001939 0
0.26181042 0.52724105 0.28090423 0
0.27254838 0.58967274 0.32622123 0
0.27205661 0.58681375 0.36390284 0
0.23360768 0.36326674 0.35954803 0
0.1317119 -0.094574779 -0.091232188 0
0.14746675 0.013245258 -0.0898638 0
0.16724817 0.14862171 -0.088033326 0
0.19803539 0.35931733 -0.090568669 0
0.23803645 0.63306922 -0.090653904 0
0.29663315 1.0340822 -0.089897685 0
0.39476681 1.7056706 -0.089433663 0
0.75094211 4.1431961 -0.14050823 0
1.5023812 9.2857533 -0.14046595 0
0.50564742 2.4644945 0.26366746 0
0.50591385 2.4663177 0.34531593 0
0.50574708 2.4651763 0.42703688 0
0.22284669 0.52911621 0.28040516 0
0.27706137 0.90014058 0.36943215 0
0.20267469 0.39106694 0.36380586 0
0.10992716 -0.084657043 -0.092710309 0
0.12114269 0.0084654428 -0.088316344 0
0.13892481 0.15611008 -0.088638432 0
0.16414559 0.365518 -0.090803348 0
0.19842646 0.65015179 -0.092021517 0
0.24739787 1.056761 -0.091389067 0
0.32833046 1.7287438 -0.090419136 0
0.62115514 4.1600652 -0.14048855 0
1.2441123 9.3324718 -0.14074951 0
0.42628396 2.5420511 0.26676244 0
0.42364421 2.5201333 0.34828812 0
0.4239212 2.522433 0.43132854 0
0.42497402 2.5311744 0.51559758 0
0.23014686 0.913526 0.37042639 0
0.16580303 0.37927976 0.3606866 0
0.086290725 -0.090381891 -0.090962492 0
0.097486407 0.027577911 -0.09141884 0
0.11169005 0.17723015 -0.091610737 0
0.12955435 0.3654516 -0.090273686 0
0.15542606 0.63804084 -0.090076111 0
0.19500682 1.0550711 -0.09070874 0
0.2584008 1.723002 -0.08949668 0
0.49152616 4.179255 -0.14073084 0
0.98238558 9.3510418 -0.1405274 0
0.34218049 2.6057208 0.26929376 0
0.33948126 2.577281 0.35163355 0
0.34065464 2.5896442 0.43673787 0
0.34118471 2.5952289 0.52199632 0
0.33929321 2.5752997 0.60437888 0
0.17342471 0.82767791 0.40104091 0
0.13008507 0.37104335 0.35842317 0
0.063389353 -0.091304094 -0.090368293 0
0.072105348 0.034096036 -0.092250861 0
0.081427366 0.16821519 -0.0897265 0
0.095711701 0.37372902 -0.091043495 0
0.11483577 0.64887375 -0.090949394 0
0.1419923 1.0395844 -0.088862531 0
0.19095579 1.7440393 -0.090576269 0
0.36140281 4.1963215 -0.14102647 0
0.72123396 9.3733397 -0.14054669 0
0.25245261 2.6288164 0.27002409 0
0.25211507 2.6239598 0.354388 0
0.13288152 0.90850443 0.27864832 0
0.13368313 0.92003745 0.3247692 0
0.13363738 0.91937917 0.36996344 0
0.12504396 0.79574257 0.395156 0
0.095866024 0.37594929 0.3588163 0
0.040548619 -0.093720704 -0.089579858 0
0.045964155 0.028833304 -0.090981714 0
0.052239008 0.17083386 -0.089883976 0
0.061466824 0.37966016 -0.091602616 0
0.072993606 0.64051253 -0.089696161 0
0.091049865 1.0491271 -0.089482062 0
0.12211599 1.7521565 -0.090869762 0
0.23022689 4.1987162 -0.14079122 0
0.46004423 9.3995037 -0.14080946 0
0.16348371 2.6883116 0.27255771 0
0.16295186 2.6762757 0.35768875 0
0.086108781 0.93731004 0.28108668 0
0.085923597 0.93311924 0.32597962 0
0.086790457 0.95273632 0.37427226 0
0.077021249 0.73165828 0.38418797 0
0.06112875 0.37200955 0.35770372 0
0.017956274 -0.092140943 -0.089764051 0
0.020268241 0.029999051 -0.091048531 0
0.022978 0.17315426 -0.090113498 0
0.026739735 0.37188461 -0.090356432 0
0.03219635 0.66015488 -0.091840483 0
0.039486792 1.045305 -0.088973634 0
0.052843817 1.7509494 -0.090632655 0
0.099339113 4.2072721 -0.14099719 0
0.19765563 9.4012823 -0.14065835 0
0.070914976 2.7056396 0.27322894 0
0.07088431 2.7040195 0.3594259 0
0.070515327 2.6845264 0.44415894 0
0.070870891 2.7033105 0.53282815 0
0.032492347 0.67579228 0.37477598 0
0.026845582 0.37747648 0.35852957 0
-0.0046914611 -0.090995818 -0.089977108 0
-0.0053907325 0.019873414 -0.089110754 0
-0.0063261553 0.16818443 -0.089266263 0
-0.0075706514 0.36549893 -0.089428522 0
-0.0093578184 0.64885372 -0.090488963 0
-0.011813848 1.0382564 -0.088285454 0
-0.016294895 1.7487254 -0.090446658 0
-0.031795979 4.2064176 -0.14091888 0
-0.064616978 9.4101763 -0.14082669 0
-0.022532823 2.737747 0.27469814 0
-0.022466162 2.7271779 0.3610051 0
-0.022436967 2.722549 0.44765559 0
-0.022417292 2.7194293 0.53464425 0
-0.0093438998 0.64664692 0.36994049 0
-0.0077306787 0.3908712 0.36101234 0
-0.027478984 -0.087481052 -0.090815805 0
-0.031128298 0.028182182 -0.090767302 0
-0.035522405 0.16745117 -0.08923658 0
-0.042105757 0.37610736 -0.091011085 0
-0.050945099 0.65626603 -0.091447152 0
-0.063795336 1.0635478 -0.090737768 0
-0.085600004 1.754636 -0.090951525 0
-0.11913457 2.8174975 -0.076341592 0
-0.11844709 2.7957082 0.012923652 0
-0.11847176 2.7964902 0.10107853 0
-0.11893281 2.8111033 0.18959248 0
-0.11679482 2.7433407 0.275042 0
-0.11662254 2.73788 0.36187848 0
-0.11640608 2.7310195 0.44861275 0
-0.11646607 2.7329209 0.53642976 0
-0.050410058 0.63930815 0.36886182 0
-0.042465534 0.38751033 0.36050302 0
-0.050079044 -0.091027766 -0.090274654 0
-0.056785662 0.026972685 -0.090753041 0
-0.065002978 0.1715534 -0.090124078 0
-0.077040039 0.38334134 -0.09224353 0
-0.091661043 0.64059263 -0.089827068 0
-0.1157264 1.064014 -0.09099523 0
-0.15494244 1.7540064 -0.091121562 0
-0.21376117 2.7889009 -0.075205944 0
-0.21444777 2.8009815 0.012702616 0
-0.21458809 2.8034506 0.10107885 0
-0.21439113 2.7999849 0.18943179 0
-0.21124488 2.744628 0.2752963 0
-0.21029831 2.7279735 0.36147532 0
-0.21051551 2.7317948 0.44907314 0
-0.07830926 0.4056727 0.26434854 0
-0.07637123 0.37157384 0.29260728 0
-0.076134354 0.36740604 0.32438514 0
-0.076709539 0.37752619 0.35890841 0
-0.073149584 -0.087459117 -0.091371499 0
-0.082934976 0.031595621 -0.091963254 0
-0.093213513 0.15665022 -0.088001914 0
-0.1117086 0.38167205 -0.092347331 0
-0.13345541 0.64625639 -0.090826176 0
-0.16716751 1.0564172 -0.090620734 0
-0.22404318 1.7483995 -0.091065459 0
-0.42510504 4.194634 -0.14117928 0
-0.85055786 9.3709383 -0.14072186 0
-0.30664802 2.7534173 0.27601337 0
-0.30457383 2.7281814 0.36194724 0
-0.30533502 2.7374427 0.45021349 0
-0.30513144 2.7349658 0.53792083 0
-0.11368383 0.40570393 0.29775831 0
-0.11390392 0.40838161 0.33153686 0
-0.11153068 0.37950733 0.35973573 0
-0.096528269 -0.083595783 -0.092658646 0
-0.10709711 0.01457778 -0.089202054 0
-0.12214225 0.15433124 -0.088071726 0
-0.14521818 0.36868265 -0.090974875 0
-0.17457506 0.64137751 -0.09071257 0
-0.2182723 1.0472791 -0.090222277 0
-0.29165033 1.7288842 -0.090153761 0
-0.55509454 4.1760058 -0.14088772 0
-1.1125619 9.3542967 -0.14091223 0
-0.39915666 2.7275057 0.27521837 0
-0.39833647 2.719887 0.36198935 0
-0.39806458 2.7173617 0.44916457 0
-0.39845312 2.7209706 0.53732264 0
-0.14822733 0.39663461 0.29694772 0
-0.14822474 0.39661053 0.33014324 0
-0.1463497 0.37919334 0.36029673 0
-0.11891907 -0.0895693 -0.091967054 0
-0.13499798 0.031092677 -0.092918999 0
-0.15284115 0.16499439 -0.090415113 0
-0.17787242 0.35283807 -0.089312725 0
-0.21558076 0.6358152 -0.09064018 0
-0.27099437 1.0516589 -0.091216646 0
-0.35877743 1.7104149 -0.089432918 0
-0.68326306 4.145473 -0.14018987 0
-1.3730614 9.3219719 -0.14089027 0
-0.49081334 2.7012603 0.27451459 0
-0.48960367 2.6921825 0.36082831 0
-0.2410861 0.82721645 0.27212825 0
-0.2425431 0.83815032 0.31654429 0
-0.18652461 0.41776732 0.30054164 0
-0.18596755 0.41358688 0.33365658 0
-0.18276955 0.38958791 0.36306182 0
-0.13922721 -0.10768673 -0.088780321 0
-0.15854448 0.013782892 -0.090333961 0
-0.18225868 0.16290095 -0.090773739 0
-0.21488199 0.36804071 -0.092179008 0
-0.25629082 0.62842494 -0.090473451 0
-0.32168895 1.0396571 -0.090792291 0
-0.4267281 1.7001574 -0.089410193 0
-0.81355709 4.1325908 -0.14047347 0
-1.6331173 9.2860956 -0.14093912 0
-0.58112931 2.6710532 0.27372995 0
-0.57961893 2.6615555 0.35961846 0
-0.27913618 0.77207965 0.26754615 0
-0.27927268 0.77293807 0.30961949 0
-0.27918908 0.77241236 0.35176599 0
-0.21866521 0.39183024 0.36445779 0
-0.16216709 -0.107501 -0.089645825 0
-0.1856183 0.019254599 -0.092214145 0
-0.20875075 0.14428726 -0.088496663 0
-0.24748892 0.35366991 -0.090965278 0
-0.29487577 0.60979944 -0.089092396 0
-0.37102306 1.0213811 -0.08989156 0
-0.49638593 1.6989772 -0.090154372 0
-0.94588786 4.1285691 -0.14133328 0
-1.8889812 9.2260609 -0.14057182 0
-0.66768616 2.6248679 0.27229208 0
-0.66705585 2.6214609 0.35789058 0
-0.67007118 2.637759 0.44547844 0
-0.66603804 2.6159596 0.52969098 0
-0.2889908 0.57799071 0.3630203 0
-0.25194269 0.37774292 0.36290464 0
-0.18637554 -0.10237339 -0.091715045 0
-0.2096746 0.0079249479 -0.091001235 0
-0.23763615 0.14029577 -0.088775657 0
-0.28035089 0.34250847 -0.090323932 0
-0.33779439 0.61444741 -0.090600081 0
-0.42124051 1.0094836 -0.089713 0
-0.5648945 1.6895454 -0.090438239 0
-0.61828572 1.9423008 -0.038520593 0
-0.618747 1.9444847 0.03125355 0
-0.61939007 1.9475288 0.10105609 0
-0.75413102 2.5853961 0.27127019 0
-0.75076395 2.5694563 0.35545921 0
-0.75249225 2.5776381 0.44146582 0
-0.75516707 2.5903008 0.52877295 0
-0.28741196 0.37593558 0.36386925 0
-0.20782296 -0.11104539 -0.090914823 0
-0.23435162 0.00053993205 -0.090661921 0
-0.26820439 0.14293209 -0.090298809 0
-0.31240582 0.32885304 -0.089437969 0
-0.3754051 0.59384173 -0.089212857 0
-0.47279528 1.0034862 -0.090220712 0
-0.52343857 1.2165031 -0.057533611 0
-0.61789572 1.6138108 -0.023593931 0
-0.61998039 1.6225793 0.0385506 0
-0.61943257 1.6202748 0.10104697 0
-0.83546925 2.5289726 0.2695342 0
-0.83330387 2.5198646 0.35333827 0
-0.83168828 2.5130689 0.43720117 0
-0.83334845 2.520052 0.52275968 0
-0.83205283 2.5146024 0.60732371 0
-0.23003171 -0.11615399 -0.091011383 0
-0.26167461 0.0034473275 -0.092446573 0
-0.29619691 0.13393202 -0.089984633 0
-0.34585381 0.32162133 -0.089597113 0
-0.41496786 0.58285326 -0.089093395 0
-0.52356523 0.993321 -0.090454631 0
-0.58067662 1.2091863 -0.058012102 0
-0.64976811 1.4703329 -0.0174764 0
-0.64704728 1.4600489 0.042062722 0
-0.64730382 1.4610186 0.10104275 0
-0.9143756 2.4704757 0.26778531 0
-0.91050428 2.4558432 0.35030907 0
-0.90891916 2.4498518 0.43323109 0
-0.91096354 2.4575791 0.51788461 0
-0.91106361 2.4579573 0.6023047 0
-0.25431579 -0.11428306 -0.092777766 0
-0.28188333 -0.019794967 -0.089248575 0
-0.32698408 0.1347883 -0.09147612 0
-0.34596279 0.19983807 -0.07311096 0
-0.457928 0.58359998 -0.090522923 0
-0.57241631 0.97600991 -0.090119638 0
-0.71425235 1.4621544 -0.07755398 0
-0.71750122 1.47329 -0.018454036 0
-0.71294564 1.4576757 0.041705314 0
-0.71519673 1.4653914 0.1010434 0
-0.98232007 2.3809595 0.26461369 0
-0.98172098 2.378906 0.34645769 0
-0.98119211 2.3770933 0.4284924 0
-0.98160625 2.3785126 0.51119018 0
-0.98177356 2.3790863 0.59428453 0
-0.27294433 -0.13154784 -0.090424769 0
-0.30909249 -0.018353965 -0.091005616 0
-0.35147893 0.11437431 -0.089443482 0
-0.37610754 0.19149593 -0.073227502 0
-0.39240426 0.24252716 -0.050159309 0
-0.39615005 0.25425676 -0.02087797 0
-0.39846778 0.26151446 0.009176584 0
-0.39388776 0.24717262 0.040543217 0
-0.40082535 0.26889685 0.070261471 0
-0.39562723 0.25261965 0.10100762 0
-0.39552674 0.25230482 0.13134882 0
-0.39752293 0.25855568 0.16202883 0
-0.39411026 0.2478694 0.19183734 0
-0.39272591 0.24353436 0.22184269 0
-0.39791778 0.25979224 0.25429419 0
-0.3966665 0.25587395 0.28474188 0
-0.39845473 0.26147357 0.31684008 0
-0.39490157 0.25034729 0.34615153 0
-0.29309225 -0.14278129 -0.089513637 0
-0.33762461 -0.01458868 -0.093377925 0
-0.37810498 0.10193971 -0.088888384 0
-0.42916062 0.24891046 -0.083240591 0
-0.43016475 0.25180092 -0.052583221 0
-0.42910492 0.24875 -0.02136304 0
-0.42735326 0.24370769 0.0097190831 0
-0.43507907 0.26594749 0.03910752 0
-0.43082696 0.2537072 0.070375957 0
-0.43229842 0.25794294 0.10100809 0
-0.43385842 0.26243368 0.13185532 0
-0.42993435 0.25113764 0.16217853 0
-0.43095797 0.25408438 0.19306518 0
-0.42933133 0.24940184 0.22344376 0
-0.43309671 0.26024106 0.2556448 0
-0.43221945 0.25771561 0.28656822 0
-0.43256247 0.25870302 0.31818125 0
-0.4319751 0.25701228 0.34955183 0
-0.31992954 -0.13564649 -0.092879914 0
-0.35576382 -0.040322628 -0.089981236 0
-0.4108721 0.10627261 -0.091389515 0
-0.47184527 0.26846913 -0.087865643 0
-0.48773995 0.31075111 -0.061351199 0
-0.50850934 0.36600044 -0.034176368 0
-0.51399374 0.38058951 -0.0013405362 0
-0.50972897 0.36924484 0.033402916 0
-0.51122069 0.37321284 0.067127101 0
-0.5123201 0.37613752 0.10101204 0
-1.2009655 2.2080243 0.18058375 0
-1.1920362 2.1842709 0.25900307 0
-1.1600925 2.0992966 0.3318339 0
-1.1590385 2.096493 0.40886787 0
-1.1616731 2.1035013 0.48732349 0
-1.1574126 2.0921679 0.56380206 0
-0.33902907 -0.1497843 -0.09155681 0
-0.38086617 -0.046483662 -0.090619721 0
-0.43617794 0.090087563 -0.090424009 0
-0.50781745 0.26697388 -0.089508466 0
-0.51338011 0.28070882 -0.059170056 0
-0.51082176 0.2743918 -0.026288917 0
-0.50799662 0.26741627 0.0061827023 0
-0.51476187 0.28412059 0.037009586 0
-0.51290256 0.2795296 0.069142088 0
-0.50695926 0.26485494 0.10100903 0
-1.2715747 2.1527801 0.25898397 0
-1.1989522 1.9734666 0.32462096 0
-1.1982625 1.9717636 0.39934751 0
-1.1990639 1.9737425 0.4747785 0
-1.197559 1.9700267 0.54985714 0
-0.35733047 -0.1650072 -0.090078779 0
-0.40688008 -0.051017608 -0.091728829 0
-0.46044314 0.072204977 -0.089257516 0
-0.51608938 0.2002199 -0.081307687 0
-0.51198411 0.19077566 -0.049414564 0
-0.50799352 0.18159536 -0.018199531 0
-0.51025176 0.1867905 0.011319282 0
-0.51686668 0.20200816 0.040496703 0
-0.51378411 0.19491675 0.070948251 0
-0.5070743 0.1794807 0.10100678 0
-1.3500458 2.1187491 0.25893706 0
-1.2201759 1.8199813 0.31529307 0
-1.2255893 1.8324349 0.3883357 0
-1.2265971 1.8347535 0.46103805 0
-1.2253829 1.8319602 0.53347164 0
-1.2259111 1.8331754 0.60695726 0
-0.37332344 -0.18439648 -0.087714292 0
-0.42884398 -0.0650042 -0.091023125 0
-0.48910052 0.064572483 -0.090045489 0
-0.50856227 0.10642341 -0.068851106 0
-0.50517446 0.099138051 -0.039319802 0
-0.5122205 0.11429015 -0.012631474 0
-0.51771647 0.12610868 0.014974425 0
-0.51109761 0.11187544 0.04443403 0
-0.51200104 0.1138182 0.072685041 0
-0.50814503 0.10552612 0.10100487 0
-1.4284914 2.0846541 0.25898752 0
-1.2518209 1.7047391 0.30884719 0
-1.2404699 1.6803298 0.37594867 0
-1.2375883 1.6741331 0.44443515 0
-1.2368472 1.6725392 0.51369017 0
-1.2397403 1.6787608 0.58473492 0
-0.39873564 -0.18356809 -0.090212487 0
-0.44858256 -0.08308807 -0.089562945 0
-0.51262188 0.046000633 -0.088968329 0
-0.51077449 0.042276774 -0.060859505 0
-0.51456589 0.049919281 -0.034609813 0
-0.50858057 0.037854347 -0.0060530212 0
-0.51240444 0.045562301 0.020211177 0
-0.51630634 0.05342773 0.046781816 0
-0.51122469 0.043184195 0.074173257 0
-0.50891894 0.038536463 0.10100316 0
-1.2481101 1.5285776 0.29762417 0
-1.239643 1.5115101 0.36170197 0
-1.2429135 1.5181026 0.42825836 0
-1.241467 1.5151868 0.49402937 0
-1.2431766 1.5186329 0.56124794 0
-0.41995609 -0.19198051 -0.090676196 0
-0.47239444 -0.092653602 -0.090002917 0
-0.5343492 0.024699006 -0.087479033 0
-0.53240073 0.021008287 -0.059583697 0
-0.53237814 0.02096549 -0.032546077 0
-0.53411007 0.02424613 -0.0060082059 0
-0.52709752 0.010963235 0.021896342 0
-0.53299969 0.022142801 0.047724221 0
-0.53624874 0.028296981 0.074216247 0
-0.53465337 0.025275145 0.10100315 0
-1.2477301 1.3759608 0.28810623 0
-1.2434096 1.3677771 0.34991169 0
-1.245947 1.3725832 0.41327229 0
-1.2401515 1.3616059 0.47472319 0
-1.2380506 1.3576262 0.5372988 0
-1.2421162 1.3653271 0.60263354 0
-0.44238266 -0.19849625 -0.091738351 0
-0.49320111 -0.10785362 -0.089361362 0
-0.55882055 0.0091888644 -0.087162368 0
-0.55379593 0.00022670966 -0.058455501 0
-0.56045008 0.012095366 -0.033203755 0
-0.55674994 0.0054955813 -0.0054809507 0
-0.55683243 0.0056427452 0.021229381 0
-0.55919504 0.0098568536 0.047643699 0
-0.55422896 0.00099900702 0.074573949 0
-0.55690145 0.0057658288 0.10100296 0
-1.2963113 1.3246186 0.16279979 0
-1.2968764 1.3256266 0.22467436 0
-1.2426376 1.2288833 0.27889633 0
-1.24054 1.2251418 0.33808118 0
-1.2398099 1.2238395 0.39765081 0
-1.2385963 1.2216752 0.45733696 0
-1.2449481 1.2330043 0.51984262 0
-1.240747 1.2255108 0.57936978 0
-0.45865503 -0.21588936 -0.090265863 0
-0.51747817 -0.11690959 -0.09017054 0
-0.58888668 0.0032471155 -0.088787489 0
-0.57870704 -0.013881769 -0.05848885 0
-0.58828777 0.0022393202 -0.033832956 0
-0.58403933 -0.0049093631 -0.0059134942 0
-0.58901453 0.0034622883 0.020236405 0
-0.58670604 -0.00042208689 0.047417723 0
-0.5902676 0.0055708024 0.074062891 0
-0.58916527 0.0037159657 0.10100337 0
-1.3574147 1.2964239 0.16294278 0
-1.3535671 1.2899499 0.22455542 0
-1.2461004 1.1091192 0.27176002 0
-1.2371205 1.0940089 0.32731396 0
-1.2391539 1.0974302 0.38481054 0
-1.239171 1.0974591 0.44225198 0
-1.2384808 1.0962977 0.49984458 0
-1.2417523 1.1018026 0.55927759 0
-0.48003921 -0.22452596 -0.091071047 0
-0.54207176 -0.1259 -0.091142558 0
-0.61265129 -0.013685133 -0.088450916 0
-0.61210233 -0.014557924 -0.060856361 0
-0.61087412 -0.016510632 -0.033340503 0
-0.61615926 -0.0081077479 -0.0072229858 0
-0.60799152 -0.021093693 0.021008926 0
-0.60783905 -0.021336224 0.047735143 0
-0.61458462 -0.010611322 0.074088924 0
-0.61671954 -0.0072170165 0.10100352 0
-1.2500211 0.99967343 0.26536968 0
-1.2427487 0.98811096 0.31914946 0
-1.2364799 0.97814399 0.37274668 0
-1.2411101 0.98550576 0.42896491 0
-1.2424846 0.98769087 0.48495317 0
-1.2458168 0.992989 0.54218519 0
-0.497922 -0.23880109 -0.09058731 0
-0.5605669 -0.14456418 -0.090082325 0
-0.64159757 -0.022669461 -0.089794613 0
-0.63665909 -0.030098464 -0.060896564 0
-0.64191175 -0.022196796 -0.034752477 0
-0.63250071 -0.036353912 -0.005837312 0
-0.63306636 -0.035502996 0.020902837 0
-0.64205354 -0.02198353 0.046895389 0
-0.63662291 -0.030152883 0.074192196 0
-0.63889408 -0.026736286 0.10100339 0
-1.2482446 0.88991183 0.25885305 0
-1.2450312 0.88507789 0.31118411 0
-1.239225 0.87634355 0.36292472 0
-1.2452433 0.88539702 0.41746113 0
-1.238778 0.87567109 0.46915606 0
-1.2407691 0.87866646 0.52358049 0
-0.51850659 -0.2490516 -0.091256253 0
-0.58170044 -0.15900275 -0.090082012 0
-0.66003269 -0.047382262 -0.088149734 0
-0.66140902 -0.04542103 -0.06108043 0
-0.66854477 -0.035252895 -0.035248283 0
-0.66465151 -0.040800598 -0.0071874317 0
-0.66762525 -0.036563125 0.019601161 0
-0.6668238 -0.037705209 0.046849292 0
-0.65918142 -0.048595276 0.074250422 0
-0.66948402 -0.033914413 0.10100371 0
-1.2965624 0.85964888 0.25901154 0
-1.2499701 0.79325646 0.30436233 0
-1.2392257 0.77794629 0.35342339 0
-1.2424709 0.78257042 0.40530297 0
-1.2383289 0.77666837 0.45567289 0
-1.2379233 0.7760902 0.50731832 0
-0.53421271 -0.2661849 -0.090253837 0
-0.6050601 -0.17046085 -0.090903945 0
-0.68685263 -0.05994847 -0.089051746 0
-0.69624746 -0.047254827 -0.06373436 0
-0.6937198 -0.050669994 -0.035506982 0
-0.69227427 -0.052623119 -0.0077998396 0
-0.68601859 -0.061075356 0.020239504 0
-0.68326503 -0.064795762 0.047424909 0
-0.69125789 -0.053996351 0.073916189 0
-0.69508791 -0.048821475 0.1010038 0
-1.3410653 0.82397836 0.25880751 0
-1.2497013 0.70053357 0.29732168 0
-1.2372292 0.68368238 0.34434441 0
-1.2378662 0.68454295 0.39374307 0
-1.2331766 0.67820674 0.44204411 0
-1.2406914 0.68836015 0.49421307 0
-0.55540013 -0.27592686 -0.09132982 0
-0.62173742 -0.19087133 -0.089743309 0
-0.71497172 -0.071329266 -0.090358503 0
-0.72162837 -0.062794358 -0.06415353 0
-0.71644181 -0.069444388 -0.035366509 0
-0.72426242 -0.059417035 -0.0091014337 0
-0.72395825 -0.059806969 0.018564107 0
-0.71832097 -0.067035049 0.046520475 0
-0.72005653 -0.06480971 0.073711261 0
-0.72424233 -0.059442785 0.10100406 0
-1.3930264 0.79805082 0.25956267 0
-1.2478026 0.61184961 0.29061878 0
-1.2360716 0.59680849 0.33617356 0
-1.2376223 0.59879678 0.38412282 0
-1.2394024 0.60107905 0.43256605 0
-1.2384404 0.59984571 0.48067674 0
-0.57538456 -0.28755876 -0.092054091 0
-0.65212196 -0.19412872 -0.092840828 0
-0.73593932 -0.092078716 -0.089849524 0
-0.7498107 -0.075189859 -0.065268598 0
-0.75108856 -0.073634058 -0.03751478 0
-0.74431145 -0.081885427 -0.0086335 0
-0.74063742 -0.086358637 0.019284675 0
-0.7411896 -0.085686296 0.046533074 0
-0.74588966 -0.079963833 0.073610991 0
-0.74062848 -0.086369485 0.10100375 0
-1.4349316 0.75896484 0.25925982 0
-1.2507443 0.53471154 0.2851654 0
-1.2372267 0.51825339 0.32908618 0
-1.2373053 0.51834899 0.37526414 0
-1.2416369 0.52362281 0.42285284 0
-1.2446499 0.52729124 0.47073478 0
-0.58434546 -0.31222722 -0.089271568 0
-0.66609269 -0.2176666 -0.091146193 0
-0.76383138 -0.10460791 -0.091228954 0
-0.7719422 -0.095225781 -0.065119632 0
-0.77400631 -0.092838138 -0.037524465 0
-0.77520049 -0.091456741 -0.0098083522 0
-0.77024597 -0.097187847 0.018529685 0
-0.76975846 -0.097751766 0.046105515 0
-0.77948987 -0.086495072 0.073223673 0
-0.77460521 -0.092145354 0.10100425 0
-1.4768058 0.7201212 0.2590695 0
-1.2571015 0.46597961 0.28063878 0
-1.244131 0.45097581 0.32359028 0
-1.2368957 0.44260648 0.36708328 0
-1.2334963 0.43867436 0.41130951 0
-1.2374949 0.4432998 0.45776394 0
-0.5948199 -0.33427158 -0.08724276 0
-0.68684858 -0.23309454 -0.0915659 0
-0.77390933 -0.13737926 -0.088297896 0
-0.80178487 -0.10673264 -0.066692449 0
-0.79827172 -0.11059502 -0.037853394 0
-0.80646485 -0.1015875 -0.011037147 0
-0.80355722 -0.10478416 0.017381826 0
-0.80385286 -0.10445908 0.045285959 0
-0.80128938 -0.10727736 0.073248908 0
-0.80066228 -0.10796687 0.10100441 0
-1.2510619 0.38720611 0.27475941 0
-1.2408329 0.37596038 0.316771 0
-1.2372382 0.37200823 0.3596884 0
-1.2406762 0.37578788 0.40435651 0
-1.2342995 0.36877742 0.44685844 0
-0.62507999 -0.33496079 -0.091523685 0
-0.7012223 -0.25537929 -0.090343438 0
-0.80680436 -0.14502838 -0.09106683 0
-0.83668697 -0.11379603 -0.069312744 0
-0.82281291 -0.1282967 -0.03829721 0
-0.82333654 -0.12774947 -0.01032575 0
-0.83401757 -0.11658594 0.01653243 0
-0.82855988 -0.12229022 0.045108315 0
-0.82629704 -0.12465522 0.073147714 0
-0.82741499 -0.12348679 0.10100461 0
-1.2510812 0.31931558 0.27012378 0
-1.2442689 0.31219545 0.31159267 0
-1.2500001 0.3181856 0.35537887 0
-1.2443483 0.31227842 0.39713275 0
-1.2388246 0.30650523 0.4388603 0
-0.64534551 -0.34703448 -0.092708983 0
-0.72307587 -0.26979259 -0.091288678 0
-0.82317978 -0.17031786 -0.08998502 0
-0.85897839 -0.13474426 -0.069405563 0
-0.84993178 -0.14373401 -0.039229352 0
-0.85344076 -0.14024708 -0.011461256 0
-0.85246503 -0.14121667 0.016858259 0
-0.8515439 -0.14213195 0.045018215 0
-0.86399907 -0.12975505 0.072618358 0
-0.85797465 -0.13574162 0.10100497 0
-1.2705604 0.27425113 0.14275108 0
-1.2784569 0.28209808 0.18504481 0
-1.2760904 0.27974644 0.22693695 0
-1.2517956 0.25560442 0.2659229 0
-1.2518783 0.25568655 0.3074992 0
-1.2379018 0.24179783 0.34652132 0
-1.2371889 0.24108937 0.38795355 0
-1.2349491 0.23886374 0.42925161 0
-0.65251124 -0.37189177 -0.090125881 0
-0.74466455 -0.28482708 -0.092238478 0
-0.83344162 -0.2009522 -0.087692507 0
-0.89255369 -0.14510426 -0.071781285 0
-0.87886924 -0.15803304 -0.040495384 0
-0.88369 -0.15347847 -0.012629656 0
-0.88448822 -0.15272436 0.015810216 0
-0.89029658 -0.14723673 0.043887839 0
-0.89248693 -0.14516732 0.072392017 0
-0.88868868 -0.14875582 0.10100534 0
-1.2927071 0.2329531 0.14245196 0
-1.2949106 0.23503485 0.18406899 0
-1.2885523 0.22902778 0.22509362 0
-1.2447946 0.18768623 0.26103872 0
-1.2544373 0.19679657 0.30292192 0
-1.2410591 0.18415704 0.34120041 0
-1.2447965 0.18768814 0.38274187 0
-1.2364789 0.17982975 0.42171815 0
-0.67491812 -0.382256 -0.092136495 0
-0.75439382 -0.31087688 -0.090261839 0
-0.86047685 -0.21560094 -0.089329474 0
-0.92577547 -0.15695462 -0.074087016 0
-0.91904634 -0.16299823 -0.043556083 0
-0.9172368 -0.16462341 -0.014228014 0
-0.9202261 -0.16193864 0.01440897 0
-0.92217344 -0.16018966 0.043204851 0
-0.91971064 -0.16240159 0.072197944 0
-0.91528797 -0.1663737 0.10100555 0
-1.3304142 0.20646182 0.14268003 0
-1.3288462 0.20505372 0.1842856 0
-1.3334967 0.20923045 0.2264681 0
-1.24419 0.12902167 0.25728464 0
-1.2515134 0.13559905 0.29782173 0
-1.2299536 0.11623576 0.33358157 0
-1.236725 0.12231722 0.37448338 0
-1.2311959 0.11735144 0.41300982 0
-0.68562216 -0.40325561 -0.090907715 0
-0.77775937 -0.32461295 -0.091868706 0
-0.8813414 -0.23620161 -0.089679055 0
-0.95606172 -0.17242494 -0.075857185 0
-0.94673663 -0.18038425 -0.044652436 0
-0.94744772 -0.17977735 -0.015417887 0
-0.94723058 -0.17996266 0.013818631 0
-0.95287162 -0.1751478 0.042588312 0
-0.94899768 -0.17845437 0.071931481 0
-0.95400941 -0.17417672 0.10100624 0
-1.4046885 0.2104955 0.14404452 0
-1.4064469 0.21199647 0.18722036 0
-1.3850648 0.193746 0.22846912 0
-1.2563739 0.083903223 0.25536466 0
-1.2458702 0.07493785 0.29265222 0
-1.239028 0.069097787 0.3301754 0
-1.2393126 0.069340736 0.36906537 0
-1.2418622 0.071516901 0.40883267 0
-0.68656051 -0.43181679 -0.087177955 0
-0.79088438 -0.3472276 -0.091044836 0
-0.89937305 -0.25926146 -0.089533336 0
-0.98350406 -0.19104531 -0.0771484 0
-0.97827601 -0.1952844 -0.046372477 0
-0.97889322 -0.19478396 -0.016778504 0
-0.97751391 -0.19590232 0.012903752 0
-0.98252463 -0.19183949 0.04202402 0
-0.98657197 -0.18855777 0.071410097 0
-0.97868484 -0.19495293 0.1010064 0
-1.2547288 0.028872523 0.25195909 0
-1.2519875 0.026649866 0.28959063 0
-1.2473015 0.022850189 0.32691085 0
-1.2467034 0.022365365 0.36505967 0
-1.2363523 0.013972316 0.40109989 0
-0.71221036 -0.44025502 -0.090344168 0
-0.80279559 -0.37051895 -0.090085335 0
-0.91134071 -0.28695664 -0.088254623 0
-1.0050735 -0.21479747 -0.077457421 0
-1.008278 -0.21233049 -0.04788876 0
-1.009809 -0.21115187 -0.01809564 0
-1.0122751 -0.2092534 0.011575529 0
-1.006958 -0.21334669 0.041752234 0
-1.0010086 -0.21792677 0.071570076 0
-1.0090384 -0.21174505 0.10100678 0
-1.2512525 -0.02527919 0.24856851 0
-1.2441858 -0.030719485 0.28471559 0
-1.2437109 -0.0310851 0.32181326 0
-1.2361206 -0.036928382 0.35765019 0
-1.2371246 -0.036155488 0.39535832 0
-0.71655679 -0.46520177 -0.087901644 0
-0.82306409 -0.38740799 -0.091231056 0
-0.93768471 -0.30368814 -0.090068795 0
-1.0506325 -0.22119012 -0.082041018 0
-1.0475372 -0.22345093 -0.050780002 0
-1.0460014 -0.22457269 -0.020046873 0
-1.0422012 -0.22734842 0.010660687 0
-1.0450238 -0.22528675 0.040667895 0
-1.0472679 -0.22364762 0.070789352 0
-1.0488677 -0.22247913 0.10100751 0
-1.2531011 -0.073305279 0.24601525 0
-1.2391056 -0.083527833 0.28053525 0
-1.2312909 -0.089235634 0.31551072 0
-1.2387033 -0.083821684 0.35336396 0
-1.2481971 -0.07688728 0.39242277 0
-0.74085414 -0.47564676 -0.090823807 0
-0.83081299 -0.41335884 -0.089587323 0
-0.95104027 -0.33011284 -0.089340322 0
-1.0702569 -0.24756655 -0.082140051 0
