# .PCD v0.7 - Point Cloud Data file format
VERSION 0.7
FIELDS x y z intensity
SIZE 4 4 4 4
TYPE F F F F
COUNT 1 1 1 1
WIDTH 1314
HEIGHT 1
VIEWPOINT 0 0 0 1 0 0 0
POINTS 1314
DATA ascii
0.8365978 -0.17962006 -0.090259723 0
0.83509845 -0.1810728 -0.062254552 0
0.84592491 -0.17058256 -0.036534775 0
0.84675175 -0.16978148 -0.0089549553 0
0.8351984 -0.180976 0.019763881 0
0.83638364 -0.17982754 0.046815865 0
0.8432591 -0.17316565 0.073701814 0
0.83941817 -0.1768873 0.10100373 0
0.84203875 -0.17434809 0.12826638 0
0.83840752 -0.17786655 0.15532285 0
0.84489977 -0.17157587 0.18318871 0
1.1048173 0.080269486 0.24452494 0
1.0037636 -0.017645862 0.29728174 0
1.0099871 -0.011615541 0.33196256 0
0.99625951 -0.024916794 0.36208075 0
0.63425672 -0.34391084 -0.09122657 0
0.71142209 -0.26527122 -0.09008684 0
0.81932122 -0.15531066 -0.091061853 0
0.83870107 -0.13556054 -0.067122482 0
0.83687973 -0.13741669 -0.0385173 0
0.84013414 -0.13410005 -0.010864547 0
0.84783053 -0.12625667 0.016440788 0
0.83208841 -0.14229956 0.045726135 0
0.8400315 -0.13420466 0.073116481 0
0.83347833 -0.14088306 0.10100433 0
0.83572251 -0.13859603 0.12874936 0
0.84387487 -0.13028792 0.15706697 0
0.8420915 -0.13210538 0.18499607 0
0.84301388 -0.13116536 0.21325837 0
1.1019324 0.13269976 0.28477845 0
0.93645167 -0.035942402 0.28875503 0
0.94373149 -0.028523471 0.32227552 0
0.96301514 -0.0088714026 0.35976851 0
0.61471015 -0.33141944 -0.090272628 0
0.69676602 -0.24346253 -0.091146536 0
0.80201375 -0.1306459 -0.092024438 0
0.83545578 -0.094798893 -0.070946537 0
0.83270186 -0.097750872 -0.0415296 0
0.83815151 -0.091909319 -0.01358228 0
0.8437289 -0.085930794 0.014601903 0
0.84032357 -0.089581043 0.043687593 0
0.83747703 -0.092632264 0.072459094 0
0.83834004 -0.0917072 0.10100544 0
0.83801228 -0.09205851 0.12957005 0
0.84124184 -0.088596731 0.15838635 0
0.83236367 -0.098113388 0.18624407 0
0.83872628 -0.091293186 0.21567246 0
1.092972 0.18123677 0.28815517 0
0.92977154 0.0062995884 0.2923972 0
0.92385995 -3.7040896e-05 0.323401 0
0.92535818 0.001568887 0.35628462 0
0.59831667 -0.31569192 -0.090400986 0
0.67612404 -0.2279515 -0.090691619 0
0.77479225 -0.11668709 -0.09071108 0
0.85240293 -0.029168513 -0.079372801 0
0.84187663 -0.041038599 -0.047154788 0
0.83957511 -0.043633964 -0.01700533 0
0.84056449 -0.042518284 0.012505466 0
0.83883256 -0.04447129 0.042180635 0
0.83286905 -0.051196124 0.071818441 0
0.83846301 -0.044887986 0.10100643 0
0.83931166 -0.043930974 0.13042031 0
0.84364194 -0.039047923 0.16017029 0
0.83965302 -0.043546047 0.18941182 0
0.84004766 -0.043101039 0.21908545 0
1.100101 0.25015119 0.29467773 0
1.1011007 0.25127843 0.3340874 0
0.57338768 -0.31002352 -0.087846808 0
0.6610409 -0.20600763 -0.091960497 0
0.72588831 -0.12905487 -0.083916403 0
0.85598117 0.025323186 -0.085495405 0
0.84218365 0.0089499094 -0.051598329 0
0.83726692 0.0031154489 -0.020165762 0
0.83911753 0.0053114626 0.010041879 0
0.84197384 0.0087010004 0.040212188 0
0.84629399 0.013827596 0.070470497 0
0.84502882 0.012326274 0.10100779 0
0.83833128 0.0043784711 0.13125724 0
0.83954817 0.0058225128 0.16162783 0
0.84408492 0.011206184 0.19251288 0
0.83982939 0.0061562392 0.2225527 0
0.84109497 0.0076580378 0.25341713 0
1.1083008 0.32474449 0.34256384 0
0.55971265 -0.29124239 -0.089086942 0
0.63577127 -0.19621995 -0.090364091 0
0.73222464 -0.075717539 -0.091352023 0
0.85339808 0.075668365 -0.09073288 0
0.84951723 0.070819885 -0.057730604 0
0.84461695 0.064697772 -0.025043493 0
0.8397097 0.058566961 0.0071383435 0
0.84789103 0.068788201 0.037875485 0
0.83539003 0.053170238 0.069924496 0
0.84702981 0.067712218 0.10100905 0
0.83778435 0.056161556 0.13218188 0
0.84125072 0.060492191 0.16364755 0
0.84115791 0.06037632 0.19504161 0
0.83241874 0.04945806 0.22523889 0
0.84091312 0.060070429 0.25813997 0
1.097391 0.38049653 0.34764788 0
1.0983971 0.38175347 0.38970092 0
0.55327612 -0.26242468 -0.093076013 0
0.61396497 -0.18255398 -0.089867763 0
0.69655401 -0.073861033 -0.087986894 0
0.72765207 -0.032933798 -0.067828201 0
0.73088533 -0.028678622 -0.040032718 0
0.72927034 -0.030804064 -0.011391951 0
0.7301566 -0.029637661 0.01671158 0
0.73590797 -0.022068527 0.044417519 0
0.73484474 -0.023467805 0.072767474 0
0.73400354 -0.024574842 0.10100499 0
0.73168492 -0.027626302 0.12912089 0
0.73089403 -0.028667118 0.15720649 0
0.72712505 -0.033627417 0.18494777 0
0.73541683 -0.022714879 0.21435095 0
0.73001808 -0.029819991 0.24187574 0
0.73446381 -0.02396908 0.27142185 0
0.72709537 -0.033666458 0.29829475 0
0.73125994 -0.028185572 0.32839656 0
0.52431327 -0.26321569 -0.08927805 0
0.59938776 -0.15905789 -0.091791727 0
0.6757217 -0.053152706 -0.088685758 0
0.72860968 0.020223651 -0.073913462 0
0.95779288 0.3381907 -0.090277813 0
0.85383952 0.19396654 -0.035174761 0
0.83826131 0.17235342 0.00086383731 0
0.8388586 0.17318216 0.03425907 0
0.84121835 0.17645612 0.067559421 0
0.8442179 0.1806176 0.10101157 0
0.83417737 0.16668752 0.13418281 0
0.84138864 0.1766924 0.16796541 0
0.84194779 0.17746809 0.20160024 0
0.83457488 0.16723898 0.23412241 0
0.84134603 0.17663315 0.26902646 0
0.84131533 0.17659059 0.3030262 0
1.0971788 0.53157359 0.40919846 0
0.51602077 -0.23531988 -0.09311948 0
0.5760287 -0.14747486 -0.091050111 0
0.65088433 -0.037894275 -0.088393576 0
0.76379561 0.12739554 -0.089083619 0
0.9164502 0.35086539 -0.088714622 0
1.15607 0.70164293 -0.090172492 0
0.84412944 0.24499562 -0.0035290623 0
0.8293705 0.22339013 0.032599386 0
0.84225565 0.24225262 0.066293247 0
0.83307385 0.22881153 0.10101251 0
0.83718121 0.23482421 0.13552307 0
0.83724499 0.23491755 0.17007616 0
0.83451957 0.23092785 0.20436361 0
0.84518915 0.24654689 0.24075556 0
0.84078747 0.24010339 0.27506438 0
0.84167027 0.24139574 0.31051338 0
1.1015249 0.62179476 0.42175165 0
1.1029831 0.62392932 0.46906546 0
0.49042645 -0.23247156 -0.090611674 0
0.55606204 -0.13098183 -0.091555215 0
0.62893182 -0.018306103 -0.089077272 0
0.74015486 0.15367368 -0.090319909 0
0.89422137 0.39190069 -0.091270544 0
1.1094791 0.72474509 -0.08956071 0
1.4776193 1.2939858 -0.089124642 0
0.84475195 0.31540802 0.028635131 0
0.84339631 0.31331185 0.064902574 0
0.83878368 0.30617955 0.10101444 0
0.84293151 0.31259325 0.1371069 0
0.84452093 0.31505087 0.17337474 0
0.83968699 0.30757633 0.20903023 0
0.83896655 0.30646232 0.24509437 0
0.83828998 0.30541626 0.28126326 0
0.83702666 0.30346277 0.3174195 0
0.84248263 0.3118991 0.35573882 0
1.0947497 0.70196968 0.48045245 0
0.47069091 -0.22115532 -0.090414293 0
0.52732348 -0.12854293 -0.089061938 0
0.60250729 -0.0055932668 -0.088533618 0
0.70398831 0.1603606 -0.088409163 0
0.84388441 0.38913551 -0.087864496 0
1.0682925 0.7561143 -0.089992456 0
1.425397 1.3400946 -0.089909531 0
0.8469547 0.39415637 0.025476987 0
0.8505038 0.39996031 0.063109107 0
0.84166628 0.38550809 0.1010164 0
0.83641422 0.37691942 0.13829523 0
0.8373211 0.37840238 0.17569587 0
0.84066933 0.3838779 0.21358618 0
0.83943075 0.38185242 0.25107825 0
0.84697443 0.39418867 0.29059139 0
0.83429378 0.37345174 0.32554495 0
0.83573449 0.37580779 0.36404297 0
1.0966851 0.80254537 0.49668834 0
0.45064372 -0.21044353 -0.090194605 0
0.51534981 -0.098369569 -0.092795588 0
0.58321118 0.019169603 -0.090412177 0
0.68545949 0.19626847 -0.091417126 0
0.81602514 0.42241433 -0.089544691 0
1.0293462 0.7918964 -0.09100648 0
1.3664738 1.3758173 -0.089951895 0
1.3732134 1.3874907 -0.026797643 0
0.85142988 0.48373702 0.06142351 0
0.83838344 0.46113995 0.10101821 0
0.84391826 0.47072664 0.1402643 0
0.83900404 0.46221486 0.17909457 0
0.83508736 0.45543101 0.21769066 0
0.83795351 0.46039525 0.25731441 0
0.84369385 0.4703379 0.29805049 0
0.84501904 0.47263315 0.33830342 0
0.83525676 0.45572439 0.37529874 0
0.84236044 0.46802834 0.41802123 0
0.43274239 -0.19586739 -0.091036387 0
0.48604304 -0.097921222 -0.090169601 0
0.55504411 0.028876457 -0.089539774 0
0.65037316 0.20405474 -0.089960121 0
0.78299481 0.44776276 -0.090241037 0
0.98267722 0.81470281 -0.090733014 0
1.291629 1.3824379 -0.087796636 0
1.2921498 1.383395 -0.024785599 0
1.2901829 1.3797808 0.03826068 0
0.85001856 0.57092685 0.1010211 0
0.83966827 0.551907 0.14186642 0
0.84456486 0.56090504 0.18323418 0
0.83437288 0.54217607 0.22296067 0
0.84060806 0.55363399 0.26503223 0
0.84121948 0.55475754 0.30652004 0
0.83560115 0.54443306 0.34646168 0
0.84155309 0.55537051 0.39009628 0
0.84108508 0.55451053 0.43211761 0
0.41715655 -0.17629775 -0.093168415 0
0.46334493 -0.086070687 -0.090147488 0
0.52822721 0.040674005 -0.089196719 0
0.6197722 0.21950331 -0.089872263 0
0.75440067 0.48249438 -0.092270605 0
0.93049151 0.82648033 -0.089430921 0
1.240137 1.4313595 -0.089140572 0
1.2464695 1.4437299 -0.026276818 0
1.2438709 1.4386537 0.03755286 0
1.2500131 1.4506521 0.10104865 0
0.85240901 0.67394954 0.14452074 0
0.84473813 0.65896481 0.1872803 0
0.84044731 0.65058285 0.22986713 0
0.83727497 0.64438576 0.27238303 0
0.84633547 0.66208524 0.31789848 0
0.84076089 0.65119547 0.36007518 0
0.84259945 0.654787 0.40463212 0
0.84041303 0.65051597 0.4480558 0
0.39226675 -0.17489037 -0.091085039 0
0.4427315 -0.069857508 -0.091157757 0
0.50177699 0.053034578 -0.089084648 0
0.59214389 0.24111632 -0.090867765 0
0.71268857 0.49200752 -0.091100015 0
0.89527911 0.87203556 -0.091779627 0
1.1820048 1.4688013 -0.089679383 0
1.7839291 2.7215936 -0.090694629 0
4.5079517 8.3911362 -0.14099658 0
0.85050267 0.77884179 0.1924057 0
0.84034443 0.75769931 0.2365783 0
0.83839983 0.75365204 0.28157255 0
0.840361 0.75773376 0.32760796 0
0.84139627 0.75988847 0.37380546 0
0.83775747 0.75231498 0.41864359 0
0.8410607 0.75919014 0.46645376 0
0.37258378 -0.16307643 -0.091597922 0
0.41896924 -0.05994555 -0.090963356 0
0.47580332 0.066416174 -0.089278854 0
0.5589456 0.25127009 -0.090194322 0
0.67840421 0.5168677 -0.092045061 0
0.84235668 0.88139051 -0.090488337 0
1.1179962 1.4942319 -0.089404561 0
1.6898407 2.7656391 -0.090706937 0
4.2650175 8.4911442 -0.14072326 0
1.0709498 1.3896315 0.22255617 0
0.85302103 0.90510112 0.24630462 0
0.84246761 0.88163728 0.29257253 0
0.84199214 0.88058013 0.34071451 0
0.8393473 0.87469965 0.38832161 0
0.83612514 0.86753565 0.43570876 0
0.83891129 0.87373024 0.48585269 0
0.34958085 -0.15881929 -0.090478472 0
0.39124098 -0.059573855 -0.088945366 0
0.45545322 0.093396574 -0.092012428 0
0.52646452 0.26256433 -0.089830197 0
0.63631791 0.52426416 -0.09087687 0
0.7968629 0.90672475 -0.090964206 0
1.0640252 1.5431757 -0.091038503 0
1.5947015 2.8073869 -0.090723671 0
4.0242314 8.5951691 -0.14070958 0
0.99751395 1.3847284 0.22098185 0
0.85200125 1.0380788 0.25480959 0
0.83928221 1.0077786 0.30325949 0
0.84164447 1.013406 0.35494339 0
0.84044862 1.0105573 0.40590194 0
0.83820105 1.005203 0.45660406 0
0.83977884 1.0089617 0.50928658 0
0.32682228 -0.15462711 -0.089488365 0
0.37013778 -0.04367372 -0.090229161 0
0.4232901 0.092476875 -0.08988782 0
0.49374887 0.27295819 -0.08945813 0
0.59503877 0.53241402 -0.089948602 0
0.74728894 0.92240542 -0.090583779 0
0.99630296 1.5602591 -0.090368174 0
1.5002433 2.8511107 -0.090959616 0
3.7818921 8.6955929 -0.14075859 0
0.92887849 1.3875501 0.21990274 0
0.84710389 1.1780829 0.26376092 0
0.84213907 1.1653655 0.31700265 0
0.83792329 1.1545668 0.37008023 0
0.84167904 1.1641872 0.42598814 0
0.84461451 1.1717064 0.48237482 0
0.83758014 1.1536877 0.53440672 0
0.31081426 -0.13241455 -0.092710845 0
0.34647551 -0.033791628 -0.090403177 0
0.39291844 0.094648629 -0.088465355 0
0.43564895 0.21282187 -0.078673415 0
0.43475869 0.21035984 -0.048121382 0
0.4337351 0.2075291 -0.017820111 0
0.93469596 1.5929608 -0.090992652 0
1.4008627 2.8821676 -0.090684943 0
3.5396738 8.7971554 -0.14098728 0
0.85746241 1.3793676 0.21837425 0
0.85011208 1.35904 0.27568719 0
0.84250712 1.3380082 0.33210915 0
0.84067553 1.3329427 0.38971877 0
0.83972931 1.3303258 0.44775748 0
0.84181815 1.3361027 0.50751483 0
0.83626342 1.3207409 0.56378329 0
0.28753689 -0.12954673 -0.091662936 0
0.31840056 -0.036949482 -0.088105895 0
0.37111825 0.12121418 -0.091414176 0
0.4063938 0.22704795 -0.079212852 0
0.40371478 0.21901038 -0.047885794 0
0.40215117 0.21431914 -0.017451374 0
0.86664635 1.6078982 -0.090417914 0
1.3002605 2.9088278 -0.090320446 0
3.2914612 8.8828316 -0.14097519 0
0.79577905 1.395282 0.21813145 0
0.84665251 1.5479128 0.28809178 0
0.84010363 1.5282648 0.34882239 0
0.84130967 1.531883 0.41171902 0
0.84137118 1.5320675 0.47462818 0
0.83621037 1.5165842 0.53524429 0
0.83824039 1.5226746 0.59984791 0
0.26397827 -0.12840077 -0.090371467 0
0.29764757 -0.018191066 -0.090282641 0
0.34210229 0.1273227 -0.090919755 0
0.38253871 0.25968328 -0.08256226 0
0.38256726 0.25977674 -0.05167288 0
0.37986732 0.25093904 -0.020074924 0
0.72470343 1.3796916 -0.072200067 0
0.72368675 1.3763638 -0.014186686 0
0.72531438 1.3816915 0.043328829 0
0.72344303 1.3755658 0.10104099 0
0.72511071 1.3810248 0.15873735 0
0.72367966 1.3763406 0.21626788 0
0.84458262 1.7720923 0.30299065 0
0.83386445 1.7370086 0.36721879 0
0.83481443 1.740118 0.4346849 0
0.83558959 1.7426555 0.50258702 0
0.83546072 1.7422338 0.57055026 0
0.24189188 -0.12305138 -0.090148114 0
0.27503762 -0.0038728381 -0.091678895 0
0.31384656 0.13566819 -0.090935789 0
0.36195025 0.30862942 -0.088355653 0
0.44176137 0.59559757 -0.091291301 0
0.55184656 0.99141878 -0.090926923 0
0.65924156 1.3775671 -0.070775591 0
0.66121662 1.3846684 -0.013743235 0
0.66130775 1.3849962 0.04367191 0
0.65983033 1.379684 0.10104059 0
0.65951014 1.3785326 0.15825331 0
0.66307044 1.3913341 0.21614751 0
0.81142855 1.9247692 0.31259644 0
0.81149548 1.9250097 0.38349107 0
0.81290704 1.9300852 0.45529309 0
0.80985343 1.9191055 0.52539015 0
0.81555867 1.9396193 0.60078955 0
0.22052644 -0.11498913 -0.090643279 0
0.25047675 0.0042793485 -0.091980107 0
0.284352 0.13917771 -0.090253495 0
0.33168292 0.3276594 -0.089853235 0
0.39651516 0.58583516 -0.088835575 0
0.50151163 1.0039532 -0.090856291 0
0.59988469 1.3956957 -0.070939459 0
0.5978896 1.3877509 -0.013127854 0
0.59751147 1.3862448 0.044023253 0
0.59529334 1.3774118 0.10104006 0
0.59621269 1.3810728 0.15793318 0
0.59651107 1.382261 0.21494506 0
0.76785713 2.0645974 0.32127532 0
0.76922768 2.070055 0.39557862 0
0.76873124 2.0680783 0.46957201 0
0.7666229 2.0596824 0.54294366 0
0.19850366 -0.1092529 -0.090746783 0
0.2229995 -0.00011822242 -0.089977063 0
0.25735745 0.15295449 -0.091430239 0
0.29989722 0.34247902 -0.090846293 0
0.35517797 0.58876771 -0.08805149 0
0.44453311 0.98686558 -0.088074215 0
0.55275732 1.4690297 -0.075165458 0
0.55307442 1.4704423 -0.016390836 0
0.55182582 1.4648795 0.04249011 0
0.55312914 1.4706862 0.10104237 0
0.55120945 1.4621334 0.15952878 0
0.5525347 1.4680376 0.21836101 0
0.71405464 2.1876469 0.32878113 0
0.71448362 2.189558 0.40525544 0
0.71364665 2.1858292 0.48147851 0
0.71255022 2.1809442 0.5577727 0
0.17535637 -0.10899231 -0.089783989 0
0.19787523 0.004685435 -0.089884259 0
0.22535329 0.1433976 -0.088806145 0
0.26583093 0.34773341 -0.090579279 0
0.31849682 0.6135965 -0.090004779 0
0.39887527 1.0193558 -0.090160735 0
0.41450223 1.0982423 -0.047803808 0
0.41528755 1.1022067 0.0017093217 0
0.41472244 1.099354 0.051464792 0
0.41459486 1.0987098 0.10103116 0
0.41564259 1.1039991 0.150708 0
0.41680205 1.1098521 0.20071676 0
0.41377184 1.0945551 0.24960372 0
0.41580006 1.104794 0.30035427 0
0.41601592 1.1058836 0.35072243 0
0.40652069 1.0579507 0.39439121 0
0.29658699 0.50299329 0.35108459 0
0.27128196 0.37525073 0.36305988 0
0.15345724 -0.10273764 -0.090244479 0
0.17381087 0.015600834 -0.091081373 0
0.19563632 0.14249662 -0.087771915 0
0.23416299 0.3664954 -0.092362471 0
0.28046328 0.63569099 -0.091735385 0
0.3483378 1.0303218 -0.090309061 0
0.36899486 1.1504245 -0.050812412 0
0.88126332 4.1288157 -0.14079997 0
1.7645819 9.2645378 -0.14093632 0
0.58301502 2.3947637 0.2610237 0
0.5796873 2.375416 0.339845 0
0.57783926 2.3646712 0.41882327 0
0.26291797 0.53368038 0.28166825 0
0.27134383 0.58266944 0.32522216 0
0.27180329 0.5853408 0.36365712 0
0.23697765 0.38286021 0.36329386 0
0.13101222 -0.099363118 -0.090203561 0
0.14582276 0.0019945239 -0.087722205 0
0.16860673 0.15791908 -0.089577593 0
0.19729723 0.35426572 -0.089851208 0
0.23902559 0.6398384 -0.091453455 0
0.29730332 1.0386686 -0.090330325 0
0.39539105 1.7099426 -0.089735486 0
0.75254035 4.1541338 -0.14102283 0
1.5037683 9.2952452 -0.140689 0
0.50767893 2.4783974 0.2643224 0
0.50512439 2.4609151 0.3449339 0
0.50426334 2.4550223 0.42607847 0
0.22144647 0.51953369 0.27927276 0
0.27627179 0.89473706 0.36866441 0
0.20175053 0.38474241 0.36260158 0
0.10793713 -0.10118029 -0.089172713 0
0.12197044 0.015338216 -0.089620195 0
0.13988645 0.1640946 -0.089960195 0
0.1634896 0.36007133 -0.090032376 0
0.1978979 0.6457631 -0.091504894 0
0.24723335 1.0553951 -0.091260634 0
0.32766336 1.7232049 -0.090029113 0
0.62082893 4.1573567 -0.14036156 0
1.2435844 9.3280897 -0.14064689 0
0.42572984 2.5374503 0.26654646 0
0.42458281 2.5279264 0.34883735 0
0.42395613 2.522723 0.4313558 0
0.42444167 2.5267544 0.51507699 0
0.23031057 0.91488534 0.37061888 0
0.16642702 0.38446072 0.36166978 0
0.086235456 -0.090964288 -0.090838142 0
0.096600838 0.018247399 -0.089653514 0
0.11074047 0.16722503 -0.089958988 0
0.12984517 0.36851576 -0.090706252 0
0.15648277 0.64917451 -0.091383196 0
0.19533274 1.0585051 -0.091030709 0
0.25923699 1.7318125 -0.090115376 0
0.49194208 4.1836371 -0.14093578 0
0.98439437 9.3722067 -0.1410217 0
0.34144151 2.5979347 0.26892921 0
0.33981693 2.5808177 0.35188213 0
0.33926153 2.574966 0.43536079 0
0.33984351 2.5810976 0.52033651 0
0.33964676 2.5790248 0.60490495 0
0.17279509 0.82104415 0.39994535 0
0.13152289 0.38619271 0.36129031 0
0.063758641 -0.085990936 -0.091500394 0
0.071233563 0.021553431 -0.089882739 0
0.08151184 0.16943052 -0.089926727 0
0.095262401 0.36726478 -0.090132855 0
0.11480988 0.64850122 -0.090905748 0
0.14147137 1.0320895 -0.088161282 0
0.1914877 1.7516921 -0.091112562 0
0.36154559 4.1983757 -0.14112234 0
0.72292572 9.3976793 -0.14111398 0
0.25351492 2.6441 0.27073821 0
0.25235522 2.6274147 0.35463035 0
0.13247485 0.90265352 0.27810055 0
0.13361225 0.91901749 0.32464966 0
0.13369413 0.92019552 0.37007847 0
0.12482817 0.79263812 0.39464435 0
0.096717171 0.38819507 0.36112908 0
0.041092571 -0.081411093 -0.09219899 0
0.045504831 0.01843885 -0.089021988 0
0.052120101 0.16814294 -0.089441292 0
0.06111325 0.37165871 -0.090477057 0
0.073605001 0.65434831 -0.091314785 0
0.090670139 1.0405338 -0.088679172 0
0.12181757 1.7454033 -0.090397172 0
0.23023756 4.1989574 -0.14080247 0
0.46015996 9.4021225 -0.14087041 0
0.16380595 2.6956036 0.27289793 0
0.1628364 2.6736629 0.35750574 0
0.086989708 0.95724553 0.28295043 0
0.085805148 0.9304387 0.32566586 0
0.086757474 0.95199007 0.37416723 0
0.077084452 0.73308867 0.38442338 0
0.061031166 0.36980119 0.35728723 0
0.01797815 -0.090985209 -0.090009771 0
0.019998532 0.015750561 -0.088364325 0
0.023227768 0.1863493 -0.092282526 0
0.026861845 0.37833562 -0.091263182 0
0.032051589 0.65250725 -0.090946518 0
0.039446477 1.0431752 -0.088774808 0
0.052978516 1.7580657 -0.091130234 0
0.099145405 4.1970382 -0.14052066 0
0.19769756 9.4034967 -0.14070986 0
0.070971735 2.708638 0.27336875 0
0.070837878 2.7015665 0.35925424 0
0.07082276 2.7007678 0.44567615 0
0.070818916 2.7005646 0.532507 0
0.032654021 0.68433326 0.37618044 0
0.026956068 0.38331345 0.35962951 0
-0.0046764025 -0.093383342 -0.089469604 0
-0.0054585128 0.030620012 -0.091134913 0
-0.006324545 0.16792908 -0.089224301 0
-0.0076440424 0.37713507 -0.09106385 0
-0.009404894 0.65631753 -0.091361292 0
-0.011880531 1.0488288 -0.089272328 0
-0.0163364 1.755306 -0.090906717 0
-0.031783242 4.2043982 -0.14082487 0
-0.064565286 9.4019804 -0.14063615 0
-0.022522975 2.7361856 0.27462536 0
-0.022484452 2.7300775 0.36120799 0
-0.022450989 2.724772 0.44786325 0
-0.02243094 2.7215934 0.53489727 0
-0.0093688127 0.65059692 0.37058994 0
-0.0077188769 0.38900009 0.36065978 0
-0.027994044 -0.071156472 -0.094287522 0
-0.030903049 0.021042977 -0.08942195 0
-0.035426516 0.16441217 -0.088736854 0
-0.042330574 0.38323286 -0.092012964 0
-0.051035989 0.65914673 -0.091783993 0
-0.063903973 1.0669911 -0.09105932 0
-0.085763983 1.7598333 -0.091315053 0
-0.11902534 2.8140361 -0.076180361 0
-0.11895164 2.8116999 0.012551652 0
-0.11889245 2.8098238 0.10107891 0
-0.11855015 2.7989748 0.18930966 0
-0.11677671 2.7427666 0.27501523 0
-0.11635958 2.7295458 0.3612951 0
-0.11623076 2.7254629 0.4480935 0
-0.1160998 2.7213123 0.53507167 0
-0.050699241 0.64847368 0.37036946 0
-0.042201921 0.37915519 0.35892805 0
-0.049965341 -0.093028337 -0.08984872 0
-0.057417113 0.038082872 -0.092849039 0
-0.064832345 0.16855112 -0.089629851 0
-0.076010227 0.36522201 -0.089693032 0
-0.092339285 0.65252608 -0.091224022 0
-0.11532299 1.0569162 -0.090331651 0
-0.15412685 1.7396564 -0.090116747 0
-0.21378392 2.7893012 -0.075224616 0
-0.21378048 2.7892408 0.012976037 0
-0.2145967 2.803602 0.10107885 0
-0.21406107 2.7941775 0.18929622 0
-0.21094783 2.7394011 0.27505228 0
-0.21031176 2.72821 0.36149192 0
-0.2104315 2.7303169 0.44893485 0
-0.077622622 0.39359155 0.26293361 0
-0.075996161 0.36497465 0.29167798 0
-0.076720044 0.37771109 0.32608214 0
-0.076621108 0.37597027 0.3586148 0
-0.072704874 -0.092869729 -0.090217523 0
-0.082275338 0.023570094 -0.090446554 0
-0.093315728 0.15789381 -0.088206984 0
-0.11111783 0.37448445 -0.091333814 0
-0.13336268 0.64512819 -0.090693869 0
-0.1668056 1.0520141 -0.090208359 0
-0.22387336 1.7463334 -0.09092053 0
-0.42493802 4.1926022 -0.14108439 0
-0.85146284 9.3819485 -0.14097872 0
-0.30574489 2.7424295 0.27549949 0
-0.30507356 2.7342615 0.36237407 0
-0.30432171 2.7251143 0.44905815 0
-0.30504784 2.7339487 0.53780144 0
-0.11338867 0.40211287 0.29725173 0
-0.11297368 0.39706376 0.3296698 0
-0.11191247 0.38415256 0.36061388 0
-0.096555531 -0.083342582 -0.092712782 0
-0.10823999 0.025193844 -0.091213144 0
-0.12210579 0.1539928 -0.088015758 0
-0.14467438 0.36363128 -0.090260886 0
-0.17461243 0.64172465 -0.090753369 0
-0.2175117 1.0402138 -0.089558981 0
-0.28969032 1.7106776 -0.088873602 0
-0.55443937 4.1699204 -0.14060275 0
-1.1119667 9.3487682 -0.14078295 0
-0.39981848 2.7336535 0.27550659 0
-0.39752156 2.7123175 0.36145666 0
-0.39789748 2.7158093 0.44901875 0
-0.3990238 2.7262716 0.53794605 0
-0.14984901 0.41169837 0.29907784 0
-0.14833213 0.39760807 0.3303082 0
-0.1453539 0.36994341 0.35854387 0
-0.1181381 -0.095430106 -0.09071026 0
-0.1332981 0.01833621 -0.090495057 0
-0.15457846 0.17803171 -0.092576765 0
-0.17956473 0.36553779 -0.091113247 0
-0.21494095 0.63101381 -0.09007407 0
-0.26942912 1.0399127 -0.090110563 0
-0.36092597 1.7265384 -0.09057007 0
-0.68310064 4.1442547 -0.14013264 0
-1.3719921 9.3139467 -0.14070204 0
-0.49071491 2.7005217 0.27447984 0
-0.48968995 2.6928301 0.360874 0
-0.24172068 0.83197862 0.27257696 0
-0.24127451 0.82863039 0.31542125 0
-0.18454444 0.40290728 0.29843396 0
-0.18503222 0.40656784 0.33249235 0
-0.18144174 0.37962356 0.36116785 0
-0.14163461 -0.092548639 -0.092038549 0
-0.15914264 0.017544184 -0.091051318 0
-0.17934258 0.14456418 -0.08772219 0
-0.21317996 0.35733822 -0.09065602 0
-0.25627941 0.6283533 -0.090464972 0
-0.31840244 1.0189912 -0.088839076 0
-0.42920268 1.715718 -0.090511687 0
-0.81435925 4.1376343 -0.14071123 0
-1.6314175 9.2754068 -0.14068748 0
-0.58189893 2.6758926 0.27395836 0
-0.5815075 2.6734312 0.3604598 0
-0.28005782 0.77787513 0.26809424 0
-0.27731618 0.76063532 0.30816284 0
-0.27957582 0.77484423 0.3521122 0
-0.21750839 0.38455597 0.36307004 0
-0.163569 -0.099923581 -0.091283821 0
-0.18444279 0.012900863 -0.090997122 0
-0.20581353 0.12841132 -0.085843138 0
-0.24875402 0.36050788 -0.091942541 0
-0.29469526 0.60882372 -0.08897642 0
-0.37157929 1.0243878 -0.090176947 0
-0.49211919 1.675915 -0.088514753 0
-0.94546866 4.1263037 -0.14122601 0
-1.8908179 9.2359886 -0.14080656 0
-0.66900504 2.6319966 0.27263001 0
-0.66676366 2.6198816 0.35777822 0
-0.66804761 2.6268218 0.44443959 0
-0.66791165 2.6260865 0.53089523 0
-0.28861931 0.57598275 0.36268458 0
-0.25229055 0.37962297 0.36326489 0
-0.1858277 -0.10496685 -0.091151617 0
-0.2111291 0.014810596 -0.092326783 0
-0.23663899 0.13557509 -0.087982707 0
-0.28095213 0.34535459 -0.090732746 0
-0.33754823 0.61328202 -0.090460874 0
-0.42074496 1.0071375 -0.089489184 0
-0.56262141 1.6787844 -0.089669354 0
-0.62008011 1.9507954 -0.038924787 0
-0.61967498 1.9488776 0.031149151 0
-0.61888158 1.9451218 0.10105602 0
-0.7538169 2.583909 0.27119935 0
-0.75181007 2.5744088 0.35581338 0
-0.75224447 2.5764654 0.44135386 0
-0.75017077 2.566648 0.5259462 0
-0.28890744 0.38301519 0.36523256 0
-0.20791271 -0.11066785 -0.090997301 0
-0.23405762 -0.00069662591 -0.090422519 0
-0.26329929 0.12230018 -0.086813398 0
-0.31209075 0.32752767 -0.089246519 0
-0.37564141 0.59483582 -0.08933226 0
-0.47416687 1.0092554 -0.090774216 0
-0.52398068 1.2187834 -0.057697449 0
-0.61953539 1.6207075 -0.023923961 0
-0.61941022 1.6201808 0.038607918 0
-0.61863399 1.6169159 0.10104688 0
-0.83507967 2.527334 0.2694557 0
-0.83238572 2.5160024 0.35306051 0
-0.83143139 2.5119884 0.43709743 0
-0.83498061 2.5269172 0.52358484 0
-0.83266836 2.5171914 0.60769784 0
-0.23020944 -0.11548218 -0.091159083 0
-0.26075488 -2.8994267e-05 -0.091769271 0
-0.29414329 0.12616983 -0.088665031 0
-0.34766719 0.32847527 -0.09059348 0
-0.4156501 0.58543199 -0.089405142 0
-0.52433527 0.99623162 -0.090735652 0
-0.58328438 1.219043 -0.058724884 0
-0.6465807 1.4582853 -0.016896246 0
-0.64646715 1.4578562 0.042115457 0
-0.64761621 1.4621992 0.10104279 0
-0.91537398 2.4742491 0.26796725 0
-0.91212517 2.4619699 0.35075247 0
-0.90840608 2.4479127 0.43304375 0
-0.90998924 2.4538963 0.51743919 0
-0.91105044 2.4579074 0.60229743 0
-0.25330856 -0.1177353 -0.092013367 0
-0.28476328 -0.0099239014 -0.091185309 0
-0.32664934 0.13364103 -0.091279708 0
-0.34520727 0.19724861 -0.072731875 0
-0.45926583 0.58818549 -0.09108118 0
-0.57221872 0.9753328 -0.090053804 0
-0.71566999 1.4670136 -0.077907838 0
-0.70994455 1.4473894 -0.017197965 0
-0.71518648 1.4653561 0.041519295 0
-0.71377754 1.4605269 0.10104325 0
-0.98331422 2.384367 0.26477915 0
-0.98205864 2.3800635 0.34654203 0
-0.98040533 2.3743968 0.42823002 0
-0.98246062 2.3814411 0.51154685 0
-0.98114711 2.3769391 0.59397006 0
-0.26921049 -0.14323995 -0.087815829 0
-0.31059471 -0.013650026 -0.091935702 0
-0.35235018 0.11710241 -0.089914165 0
-0.38127834 0.20768765 -0.075616218 0
-0.39563066 0.25263038 -0.051398832 0
-0.39425018 0.2483075 -0.020295052 0
-0.39390656 0.24723151 0.010224784 0
-0.39522478 0.25135937 0.040338609 0
-0.39665052 0.25582388 0.070580542 0
-0.39983743 0.26580337 0.10100801 0
-0.3987155 0.26229003 0.13159312 0
-0.39498392 0.25060514 0.16163981 0
-0.39994597 0.26614323 0.19317952 0
-0.399189 0.26377276 0.22382696 0
-0.3969892 0.25688437 0.25393727 0
-0.39762864 0.25888672 0.28518653 0
-0.39764342 0.2589331 0.3164016 0
-0.3964034 0.25505009 0.34708166 0
-0.29596245 -0.13451895 -0.09137284 0
-0.32989758 -0.036831941 -0.088942789 0
-0.38060465 0.1091353 -0.09014032 0
-0.42867279 0.24750617 -0.083031677 0
-0.431499 0.25564173 -0.053058419 0
-0.43012813 0.25169554 -0.02165409 0
-0.43198293 0.25703481 0.0087327752 0
-0.43309179 0.26022676 0.039389458 0
-0.43275899 0.25926879 0.070239067 0
-0.43202126 0.2571452 0.10100807 0
-0.43166468 0.25611869 0.13169952 0
-0.43141928 0.25541225 0.16238946 0
-0.43104956 0.25434795 0.19308472 0
-0.43266785 0.25900641 0.22439341 0
-0.42876396 0.24776855 0.25410089 0
-0.43158248 0.25588205 0.28629532 0
-0.43059212 0.25303116 0.31719404 0
-0.42987001 0.25095251 0.34834319 0
-0.31454331 -0.14997455 -0.089626215 0
-0.35809299 -0.034126725 -0.091227971 0
-0.40565798 0.092402369 -0.088954158 0
-0.47740126 0.28324881 -0.09008462 0
-0.48243943 0.29665104 -0.059590686 0
-0.51493156 0.38308421 -0.035879929 0
-0.51348406 0.37923375 -0.0012392604 0
-0.51006579 0.37014082 0.033358354 0
-0.5103671 0.37094226 0.067183502 0
-0.51512098 0.38358822 0.10101227 0
-1.2033091 2.2142584 0.18073897 0
-1.1943939 2.1905427 0.25931537 0
-1.1634963 2.108351 0.33251071 0
-1.1577816 2.0931494 0.40853426 0
-1.1634746 2.1082935 0.48792213 0
-1.1601331 2.0994048 0.56488901 0
-0.3370426 -0.15468916 -0.090431966 0
-0.38138273 -0.045208182 -0.090878896 0
-0.43593919 0.089498073 -0.090319492 0
-0.50853485 0.26874521 -0.089777045 0
-0.51381159 0.28177407 -0.05930439 0
-0.51123464 0.27541128 -0.026391586 0
-0.51698291 0.28960457 0.0045091454 0
-0.51421559 0.28277162 0.037077341 0
-0.50887132 0.2695761 0.069391772 0
-0.5123356 0.27812973 0.10100944 0
-1.2713567 2.1522419 0.25895691 0
-1.1955492 1.9650643 0.32398668 0
-1.197389 1.9696071 0.3991302 0
-1.2024316 1.9820576 0.47582749 0
-1.1996483 1.9751854 0.55063963 0
-0.36058247 -0.15752587 -0.091812752 0
-0.40448427 -0.05652919 -0.090596877 0
-0.46326926 0.078706533 -0.090422638 0
-0.51200753 0.19082955 -0.079868726 0
-0.51046371 0.18727806 -0.048968825 0
-0.51080287 0.18805829 -0.018857321 0
-0.51466268 0.19693795 0.010545755 0
-0.50954181 0.18515721 0.041352108 0
-0.51209646 0.19103423 0.07104668 0
-0.50832444 0.18235663 0.10100687 0
-1.3517448 2.1226573 0.25913569 0
-1.2265958 1.8347504 0.31641984 0
-1.2273526 1.8364916 0.38874885 0
-1.2274215 1.8366501 0.46127987 0
-1.225482 1.8321879 0.53350657 0
-1.2236942 1.8280754 0.60604298 0
-0.38000146 -0.17003593 -0.091080703 0
-0.42558444 -0.072013587 -0.089567147 0
-0.48818526 0.062604338 -0.089688756 0
-0.50715357 0.10339406 -0.0683816 0
-0.51464432 0.11950234 -0.041944582 0
-0.51260817 0.11512366 -0.012717282 0
-0.51213694 0.11411038 0.015899481 0
-0.51327294 0.11655334 0.044193856 0
-0.50647217 0.10192874 0.072989903 0
-0.51473683 0.11970118 0.10100532 0
-1.4303821 2.0887201 0.25919655 0
-1.2539103 1.7092323 0.30919388 0
-1.2412033 1.6819069 0.37611112 0
-1.2356205 1.6699014 0.44388947 0
-1.2380509 1.6751277 0.51409149 0
-1.240712 1.6808503 0.58511376 0
-0.39758417 -0.18588921 -0.08966174 0
-0.45272973 -0.07472834 -0.091320612 0
-0.51130211 0.043340359 -0.088480271 0
-0.50888246 0.038462792 -0.060261179 0
-0.51291996 0.046601567 -0.034176964 0
-0.5130617 0.046887193 -0.0069942009 0
-0.51540625 0.051613364 0.019738967 0
-0.50974393 0.040199433 0.047469269 0
-0.51321268 0.047191534 0.074069247 0
-0.50910193 0.038905296 0.10100316 0
-1.2494376 1.5312536 0.29783317 0
-1.238463 1.5091314 0.36145398 0
-1.2391658 1.5105481 0.42727229 0
-1.2357109 1.5035837 0.49220839 0
-1.2344943 1.5011315 0.55803591 0
-0.41988793 -0.19210961 -0.090645172 0
-0.47405544 -0.089507371 -0.090673022 0
-0.53508705 0.026096616 -0.087738775 0
-0.53519779 0.026306424 -0.060425658 0
-0.53384334 0.023740802 -0.032912854 0
-0.53268212 0.021541271 -0.0057226997 0
-0.53203511 0.020315681 0.021156991 0
-0.53070718 0.017800365 0.047952823 0
-0.53482616 0.025602493 0.074287094 0
-0.53557312 0.027017388 0.10100321 0
-1.2474571 1.3754437 0.28806531 0
-1.2415649 1.3642828 0.34954265 0
-1.2338449 1.3496599 0.41024122 0
-1.239194 1.3597922 0.47443485 0
-1.2450815 1.370944 0.53977484 0
-1.2398034 1.3609464 0.60170025 0
-0.43899828 -0.20453277 -0.090267293 0
-0.50149256 -0.093064457 -0.09255483 0
-0.56060016 0.01236311 -0.087760456 0
-0.55790669 0.0075588557 -0.05963682 0
-0.5597645 0.010872636 -0.033039916 0
-0.55697536 0.0058977338 -0.0055239853 0
-0.56342167 0.017395649 0.020287419 0
-0.55978113 0.0109022 0.047587901 0
-0.55222136 -0.0025818611 0.074669398 0
-0.55808902 0.0078839995 0.10100304 0
-1.2942961 1.3210244 0.16270375 0
-1.2958802 1.3238497 0.22457941 0
-1.2456203 1.2342031 0.27932304 0
-1.2376467 1.2199812 0.33752862 0
-1.243768 1.2308993 0.39859724 0
-1.2462003 1.2352378 0.45952302 0
-1.242564 1.2287519 0.51904106 0
-1.2350776 1.2153988 0.57718557 0
-0.46575755 -0.20393822 -0.093220986 0
-0.52038515 -0.11201814 -0.091242276 0
-0.58462906 -0.0039170054 -0.087417819 0
-0.58745259 0.00083408097 -0.060894568 0
-0.58288491 -0.0068518785 -0.032596964 0
-0.58519846 -0.0029588605 -0.0061252769 0
-0.58635736 -0.0010088946 0.020600015 0
-0.58195454 -0.0084173344 0.047850706 0
-0.58769172 0.0012364123 0.074180126 0
-0.58841217 0.0024486517 0.10100333 0
-1.3518366 1.2870378 0.16268829 0
-1.3556943 1.293529 0.22474949 0
-1.2487651 1.1136029 0.27212495 0
-1.2419572 1.1021476 0.32819816 0
-1.2404065 1.0995381 0.38509727 0
-1.2365199 1.0929983 0.44152242 0
-1.2381926 1.0958128 0.49975184 0
-1.2389184 1.0970342 0.55823255 0
-0.48102856 -0.22295299 -0.091466047 0
-0.5432198 -0.12407473 -0.091548704 0
-0.61091405 -0.016447153 -0.087914653 0
-0.60900521 -0.019482043 -0.060038853 0
-0.61335135 -0.012572136 -0.033884291 0
-0.60856003 -0.020189907 -0.0058907028 0
-0.60815358 -0.020836141 0.020987654 0
-0.60641384 -0.023602095 0.047859762 0
-0.60606897 -0.024150398 0.074460804 0
-0.61266476 -0.013663735 0.1010033 0
-1.2518793 1.0026277 0.26561385 0
-1.2402606 0.98415512 0.31871301 0
-1.2382416 0.98094493 0.3731336 0
-1.2380913 0.98070616 0.42816776 0
-1.2388531 0.9819172 0.48383176 0
-1.2448142 0.99139482 0.54183036 0
-0.50167137 -0.23316094 -0.092026912 0
-0.56252354 -0.14162078 -0.090748034 0
-0.63632536 -0.030600455 -0.08822941 0
-0.63561493 -0.031669166 -0.060631502 0
-0.63967085 -0.025567856 -0.034279395 0
-0.6390546 -0.026494887 -0.0069423299 0
-0.63978511 -0.025395956 0.020054387 0
-0.64158338 -0.022690799 0.046934929 0
-0.63854814 -0.027256753 0.074111335 0
-0.6357289 -0.031497683 0.10100323 0
-1.2509241 0.89394265 0.25919169 0
-1.2383013 0.87495393 0.3100487 0
-1.2351271 0.87017912 0.36205918 0
-1.2454047 0.88563973 0.41750214 0
-1.2376056 0.87390751 0.46880788 0
-1.2397007 0.87705916 0.52321684 0
-0.51956087 -0.24754933 -0.091646366 0
-0.58069605 -0.16043398 -0.089752667 0
-0.66058707 -0.046592321 -0.088308342 0
-0.66359526 -0.042305734 -0.061615292 0
-0.66310579 -0.043003228 -0.034141678 0
-0.66456234 -0.040927615 -0.0071729403 0
-0.66233546 -0.044100847 0.020244928 0
-0.66015804 -0.047203626 0.047389507 0
-0.66771072 -0.036441352 0.073905192 0
-0.66361392 -0.04227915 0.10100342 0
-1.2963012 0.85927671 0.25897971 0
-1.2512418 0.79506868 0.3045691 0
-1.240749 0.78011686 0.35373345 0
-1.2298871 0.76463908 0.40222308 0
-1.242552 0.78268617 0.45688158 0
-1.238731 0.77724129 0.50758326 0
-0.53389424 -0.26661518 -0.090140052 0
-0.60316598 -0.17302004 -0.090304263 0
-0.68911302 -0.056894328 -0.089676209 0
-0.6888898 -0.057195988 -0.061996255 0
-0.69328392 -0.051258888 -0.03542136 0
-0.691796 -0.053269293 -0.0077248123 0
-0.69337708 -0.051133063 0.01937479 0
-0.6937663 -0.050607111 0.046603125 0
-0.69002181 -0.055666413 0.073964499 0
-0.6925627 -0.052233364 0.10100368 0
-1.346264 0.83100253 0.25941893 0
-1.2480186 0.69826025 0.29705751 0
-1.2420719 0.69022542 0.34529623 0
-1.2466103 0.69635743 0.39580956 0
-1.2424781 0.69077426 0.44461471 0
-1.2366209 0.68286043 0.49292395 0
-0.55485231 -0.2766293 -0.091140471 0
-0.62509757 -0.18656304 -0.090772398 0
-0.71213019 -0.0749726 -0.089599125 0
-0.71579844 -0.070269257 -0.062821321 0
-0.7183907 -0.066945583 -0.035736877 0
-0.7216897 -0.062715739 -0.0087109562 0
-0.72347945 -0.060420956 0.018618533 0
-0.71980858 -0.065127641 0.046407863 0
-0.72211546 -0.062169816 0.073633417 0
-0.71751189 -0.068072349 0.10100375 0
-1.3845607 0.78719646 0.25859955 0
-1.2480916 0.61222011 0.29066268 0
-1.2447261 0.60790497 0.33781907 0
-1.2409164 0.60302025 0.38487586 0
-1.2504212 0.61520702 0.43551174 0
-1.2379967 0.59927684 0.48054081 0
-0.57507628 -0.28793415 -0.091950841 0
-0.64806628 -0.19906667 -0.091637276 0
-0.73271596 -0.096003205 -0.089014851 0
-0.75010878 -0.074826986 -0.065334581 0
-0.7488693 -0.076336056 -0.03710613 0
-0.74452239 -0.081628531 -0.0086645316 0
-0.7475574 -0.077933341 0.018522466 0
-0.7423684 -0.084251136 0.046446614 0
-0.74282646 -0.083693355 0.073723204 0
-0.74723202 -0.078329533 0.10100405 0
-1.4326341 0.75616759 0.25900656 0
-1.245609 0.52845901 0.28440973 0
-1.2426707 0.52488154 0.33008915 0
-1.2395504 0.52108246 0.37576145 0
-1.2384571 0.51975137 0.42202917 0
-1.2470298 0.53018898 0.47144127 0
-0.5927043 -0.30255815 -0.091988377 0
-0.67447281 -0.20797291 -0.093559675 0
-0.75230324 -0.11794302 -0.088331886 0
-0.77378392 -0.093095392 -0.065515392 0
-0.77585691 -0.090697438 -0.037855182 0
-0.76837331 -0.099354059 -0.0088339504 0
-0.77325255 -0.093710035 0.018208297 0
-0.76401299 -0.1043978 0.046514507 0
-0.77549011 -0.091121763 0.073365867 0
-0.77670246 -0.089719325 0.10100435 0
-1.4804076 0.72428757 0.25945485 0
-1.2468772 0.45415249 0.27917862 0
-1.239673 0.44581917 0.32279322 0
-1.2336507 0.43885294 0.3663857 0
-1.2400687 0.44627693 0.41296178 0
-1.2375249 0.44333437 0.45777252 0
-0.6000421 -0.32853022 -0.088892482 0
-0.67952454 -0.24114665 -0.089515738 0
-0.78294069 -0.12745008 -0.090503849 0
-0.79438132 -0.11487219 -0.065146156 0
-0.80159295 -0.1069437 -0.038430262 0
-0.8003754 -0.10828224 -0.01019243 0
-0.80132174 -0.10724184 0.017614083 0
-0.80047917 -0.10816821 0.045519382 0
-0.7998966 -0.10880867 0.073297039 0
-0.79765707 -0.11127082 0.10100428 0
-1.2536687 0.39007202 0.27512124 0
-1.239807 0.37483242 0.31659272 0
-1.2453465 0.38092259 0.3613826 0
-1.2396404 0.3746492 0.40410343 0
-1.2337873 0.36821428 0.44671503 0
-0.61941814 -0.3408784 -0.089782812 0
-0.71098113 -0.24517968 -0.093002222 0
-0.80325693 -0.14873603 -0.090223469 0
-0.8373208 -0.11313352 -0.069441594 0
-0.83095849 -0.11978325 -0.039674286 0
-0.82655966 -0.12438074 -0.010760931 0
-0.82980525 -0.12098852 0.016958395 0
-0.83352846 -0.11709723 0.044773724 0
-0.8246361 -0.1263912 0.073203571 0
-0.83101213 -0.11972716 0.10100476 0
-1.2541678 0.32254139 0.27054074 0
-1.2462225 0.31423727 0.31192312 0
-1.2372861 0.30489722 0.35279322 0
-1.2350175 0.30252627 0.3949137 0
-1.2389657 0.30665269 0.43889874 0
-0.63675022 -0.35557577 -0.090133272 0
-0.72370642 -0.26916602 -0.091456108 0
-0.81851637 -0.17495194 -0.088904507 0
-0.85195082 -0.14172766 -0.068013243 0
-0.85579479 -0.13790783 -0.040195365 0
-0.85581744 -0.1378853 -0.011773994 0
-0.8563391 -0.13736692 0.016476439 0
-0.85701501 -0.13669524 0.044659134 0
-0.85841113 -0.13530794 0.072801515 0
-0.85113835 -0.142535 0.10100469 0
-1.2721149 0.27579585 0.14280216 0
-1.2736728 0.27734402 0.18473043 0
-1.2780946 0.28173807 0.22713464 0
-1.2478902 0.25172356 0.26540866 0
-1.2523298 0.25613514 0.30757362 0
-1.2400662 0.24394861 0.34695029 0
-1.2364126 0.24031809 0.38777363 0
-1.2466911 0.25053182 0.43237048 0
-0.65612537 -0.3684772 -0.091182746 0
-0.74256617 -0.28680959 -0.091694735 0
-0.84115654 -0.19366333 -0.089436851 0
-0.89394861 -0.1437864 -0.072050966 0
-0.87853014 -0.15835348 -0.040440861 0
-0.88969785 -0.14780244 -0.013401126 0
-0.89436835 -0.14338985 0.014859991 0
-0.88831484 -0.14910904 0.044014759 0
-0.89393795 -0.14379641 0.0723456 0
-0.88488227 -0.15235206 0.10100519 0
-1.2871218 0.22767618 0.14227286 0
-1.284439 0.22514156 0.1833975 0
-1.301056 0.24084094 0.22629716 0
-1.2463355 0.18914202 0.26123673 0
-1.2524657 0.1949338 0.30260476 0
-1.2432231 0.18620148 0.34161898 0
-1.2499704 0.19257632 0.38391212 0
-1.2431346 0.18611792 0.42344332 0
-0.67608452 -0.38120845 -0.092469729 0
-0.75575459 -0.30965468 -0.090606339 0
-0.8627193 -0.21358696 -0.089824848 0
-0.92275912 -0.15966365 -0.073517255 0
-0.91567183 -0.16602895 -0.043025989 0
-0.92636597 -0.15642425 -0.015373355 0
-0.91359186 -0.16789702 0.01503236 0
-0.91481292 -0.16680029 0.043665435 0
-0.91874838 -0.16326579 0.072228014 0
-0.92843115 -0.15456948 0.10100606 0
-1.3297601 0.20587447 0.14265954 0
-1.3262141 0.20268968 0.18412068 0
-1.3347435 0.21035019 0.22658536 0
-1.2455008 0.13019899 0.25744918 0
-1.2616671 0.14471844 0.29941759 0
-1.2360744 0.12173298 0.33473822 0
-1.2296045 0.11592212 0.37290984 0
-1.2384856 0.12389854 0.4148559 0
-0.6864813 -0.40252236 -0.091147803 0
-0.77829623 -0.3241547 -0.092001654 0
-0.88050836 -0.23691264 -0.089499049 0
-0.93892974 -0.18704775 -0.072691776 0
-0.95139629 -0.17640707 -0.045368422 0
-0.9561528 -0.17234722 -0.016486166 0
-0.95145321 -0.17635849 0.013430515 0
-0.93990421 -0.18621603 0.043382011 0
-0.94805175 -0.17926177 0.071960397 0
-0.94612157 -0.18090925 0.10100594 0
-1.4061861 0.21177378 0.14409041 0
-1.4066746 0.21219066 0.18723433 0
-1.3980896 0.2048631 0.22966725 0
-1.2547146 0.082486898 0.2551609 0
-1.2566793 0.084163815 0.29431394 0
-1.2368383 0.067228824 0.32977068 0
-1.2380682 0.068278581 0.36879638 0
-1.24182 0.0714809 0.40882221 0
-0.69922233 -0.42155018 -0.090642951 0
-0.79224455 -0.3461248 -0.091374658 0
-0.89970392 -0.25899318 -0.089603342 0
-0.98399848 -0.19064441 -0.077237852 0
-0.97719228 -0.19616315 -0.046209414 0
-0.97779745 -0.19567242 -0.016646823 0
-0.97098559 -0.20119575 0.013491319 0
-0.98837668 -0.18709448 0.04167328 0
-0.98187 -0.19237033 0.071550839 0
-0.97847849 -0.19512025 0.1010064 0
-1.2525811 0.027131114 0.25170082 0
-1.2525749 0.027126107 0.28967908 0
-1.2307972 0.0094679929 0.32392356 0
-1.2376126 0.014994297 0.36313546 0
-1.2411084 0.017828736 0.40225354 0
-0.7174347 -0.43623313 -0.091745622 0
-0.8072747 -0.36707076 -0.091150008 0
-0.91217411 -0.28631511 -0.088427477 0
-1.0111091 -0.21015105 -0.07852786 0
-1.010832 -0.21036437 -0.048265446 0
-1.0149913 -0.20716235 -0.018706104 0
-1.0164033 -0.20607528 0.011211315 0
-1.006604 -0.21361926 0.041773036 0
-1.0137471 -0.2081202 0.071196303 0
-1.007691 -0.21278241 0.10100674 0
-1.2472078 -0.028393056 0.24809174 0
-1.2377915 -0.035641994 0.28377202 0
-1.2349622 -0.037820127 0.320261 0
-1.245549 -0.029670026 0.35960644 0
-1.2401856 -0.033798959 0.39608616 0
-0.72476161 -0.45920894 -0.090061359 0
-0.82987958 -0.38242993 -0.092820711 0
-0.94055414 -0.30159226 -0.090652786 0
-1.0406322 -0.22849432 -0.080300681 0
-1.0500172 -0.22163942 -0.051138956 0
-1.0514845 -0.22056779 -0.020680657 0
-1.0444485 -0.22570691 0.01046613 0
-1.0319481 -0.23483738 0.041421719 0
-1.0514002 -0.22062936 0.070670374 0
-1.0433868 -0.22648236 0.10100732 0
-1.24313 -0.080588311 0.24486199 0
-1.2423488 -0.081158966 0.28100488 0
-1.2404827 -0.082521945 0.31711102 0
-1.2323589 -0.088455647 0.35207227 0
-1.242421 -0.081106156 0.3910751 0
-0.74327397 -0.47397122 -0.091449447 0
-0.84130704 -0.40609267 -0.091991447 0
-0.9577257 -0.32548383 -0.090676762 0
-1.0682825 -0.24893376 -0.08180254 0
-1.0705013 -0.24739739 -0.051345069 0
-1.0774785 -0.24256638 -0.021467803 0
-1.0734026 -0.24538848 0.0096140224 0
-1.0754594 -0.24396446 0.040017162 0
-1.0806787 -0.24035051 0.070381373 0
-1.0799288 -0.24086985 0.10100793 0
-1.250493 -0.12277022 0.20747246 0
-1.2475703 -0.12479398 0.24280682 0
-1.2348634 -0.13359228 0.27673775 0
-1.2424481 -0.12834063 0.3136023 0
-1.2351353 -0.13340405 0.3481608 0
-1.2416241 -0.12891111 0.38573197 0
-0.75448626 -0.49393162 -0.09105473 0
-0.84830511 -0.43241397 -0.090313815 0
-0.96968788 -0.35282239 -0.089796074 0
-1.1130815 -0.25879827 -0.086249091 0
-1.1175964 -0.25583777 -0.055358548 0
-1.1130215 -0.25883755 -0.023370391 0
-1.1108495 -0.26026168 0.0080240313 0
-1.106003 -0.26343957 0.039344609 0
-1.1130433 -0.25882319 0.06999734 0
-1.1057353 -0.2636151 0.10100818 0
-1.2447003 -0.17249486 0.2051919 0
-1.247358 -0.17075214 0.2403914 0
-1.2383871 -0.1766344 0.27426657 0
-1.2410034 -0.17491886 0.30977392 0
-1.2399812 -0.17558923 0.34494525 0
-1.2275409 -0.18374643 0.37775719 0
-0.76598281 -0.51362252 -0.090864293 0
-0.87396097 -0.44665405 -0.092945881 0
-0.98040652 -0.38063607 -0.088823088 0
-1.1469638 -0.27733657 -0.088862918 0
-1.1526666 -0.27379969 -0.057685573 0
-1.1445925 -0.27880719 -0.024852684 0
-1.1512045 -0.27470651 0.0061883498 0
-1.1516515 -0.27442923 0.037827875 0
-1.1460611 -0.27789643 0.069588542 0
-1.1525376 -0.27387974 0.10100915 0
-1.2521299 -0.21211216 0.16970165 0
-1.2607026 -0.20679536 0.20484531 0
-1.2435673 -0.21742263 0.2377487 0
-1.2443697 -0.21692505 0.27232277 0
-1.2403492 -0.21941862 0.30633178 0
-1.2384251 -0.2206119 0.34074876 0
-1.2260593 -0.22828117 0.37300935 0
-0.77385426 -0.53540146 -0.089906983 0
-0.87992829 -0.47326377 -0.091320612 0
-1.0056026 -0.39964435 -0.090756692 0
-1.1695888 -0.30358192 -0.089681692 0
-1.1897789 -0.29175469 -0.060316969 0
-1.1902249 -0.29149345 -0.027889272 0
-1.1953881 -0.28846893 0.0040396098 0
-1.1953042 -0.28851804 0.036425989 0
-1.1957142 -0.28827783 0.068724409 0
-1.1929333 -0.28990689 0.1010099 0
-1.2544564 -0.25386694 0.16878958 0
-1.2359599 -0.26470211 0.20127062 0
-1.2438381 -0.2600871 0.23571286 0
-1.2454985 -0.25911441 0.26988858 0
-1.2354116 -0.26502326 0.30242661 0
-1.23563 -0.26489535 0.33659586 0
-1.2350409 -0.26524046 0.37086314 0
-0.78399462 -0.55568397 -0.089648344 0
-0.88979894 -0.49723881 -0.090703316 0
-1.0148406 -0.42816713 -0.089758016 0
-1.1792887 -0.33732769 -0.08852113 0
-1.4178073 -0.20557258 -0.088463821 0
-1.7951467 0.0028656458 -0.090557717 0
-3.0216861 0.68039292 -0.14043814 0
-4.5382676 1.518136 -0.14045 0
-9.0984106 4.0371108 -0.14072639 0
-1.2579994 -0.29384878 0.13449328 0
-1.2525147 -0.29687849 0.16771938 0
-1.2373813 -0.30523798 0.19995439 0
-1.2376693 -0.30507883 0.23313381 0
-1.2396674 -0.30397519 0.26670158 0
-1.2424384 -0.30244443 0.30068335 0
-1.2404176 -0.30356076 0.3341361 0
-1.2439312 -0.30161992 0.36892924 0
-0.79376763 -0.57610452 -0.089428551 0
-0.90219462 -0.51973313 -0.090759419 0
-1.0181694 -0.45943758 -0.087812014 0
-1.2004496 -0.36466977 -0.089326866 0
-1.4450096 -0.23752251 -0.089501806 0
-1.8210793 -0.04200324 -0.09071248 0
-3.0754099 0.61012572 -0.14142765 0
-4.6046076 1.4051585 -0.14068717 0
-9.2216482 3.805567 -0.1407084 0
-1.2577204 -0.33489457 0.13403553 0
-1.2434797 -0.3422983 0.16634789 0
-1.2454892 -0.34125355 0.19926381 0
-1.2403926 -0.34390333 0.23164472 0
-1.2429504 -0.34257349 0.26490748 0
-1.2380086 -0.34514275 0.29729804 0
-1.2476122 -0.34014979 0.33233646 0
-1.239198 -0.34452441 0.36432382 0
-0.80672133 -0.59493005 -0.090086512 0
-0.92135412 -0.53895986 -0.092352308 0
-1.052513 -0.47492072 -0.09170755 0
-1.2138181 -0.39616254 -0.089012705 0
-1.4597747 -0.27607271 -0.089015059 0
-1.8479067 -0.086564869 -0.091076724 0
-3.1057553 0.52758723 -0.14072512 0
-4.6654868 1.2891359 -0.14078723 0
-9.3494091 3.5760896 -0.14095984 0
-1.2566108 -0.37526873 0.10101035 0
-1.2615196 -0.37287197 0.13371621 0
-1.2359371 -0.38536283 0.16513044 0
-1.2365692 -0.3850542 0.19732709 0
-1.2254697 -0.39047351 0.2284423 0
-1.239171 -0.38378379 0.26234394 0
-1.2335598 -0.38652351 0.29412091 0
-1.2351365 -0.38575366 0.32713002 0
-1.2388531 -0.38393906 0.36092341 0
-0.82158172 -0.61307108 -0.091294341 0
-0.93540418 -0.5610109 -0.092969798 0
-1.0515298 -0.50789726 -0.089244984 0
-1.2255526 -0.42830256 -0.088573195 0
-1.4917696 -0.30654004 -0.090874024 0
-1.8711416 -0.13302258 -0.091184162 0
-3.1561656 0.45472267 -0.14173426 0
-4.7240686 1.1718514 -0.14091933 0
-9.4659967 3.340718 -0.14107169 0
-1.2473172 -0.41834787 0.10100958 0
-1.2461637 -0.41887543 0.13293433 0
-1.2371714 -0.42298833 0.16443285 0
-1.2431108 -0.42027178 0.19668774 0
-1.2373829 -0.42289165 0.2281542 0
-1.2439969 -0.41986653 0.26105079 0
-1.2399552 -0.42171511 0.29281917 0
-1.2399975 -0.42169574 0.32532692 0
-1.2350779 -0.42394587 0.35705858 0
-0.82738566 -0.63540864 -0.090502284 0
-0.93576699 -0.58910704 -0.09089192 0
-1.0611348 -0.53554857 -0.088850744 0
-1.2386481 -0.45971319 -0.088471048 0
-1.5144311 -0.34189585 -0.091625176 0
-1.883417 -0.18426135 -0.090297736 0
-3.1921208 0.37483004 -0.14177427 0
-4.7755132 1.0512712 -0.14083938 0
-9.5626822 3.0963981 -0.14083022 0
-1.2566984 -0.4520019 0.10100944 0
-1.2425522 -0.45804527 0.13248807 0
-1.2337149 -0.46182063 0.1635534 0
-1.2324222 -0.46237287 0.19481233 0
-1.2434086 -0.45767942 0.22735479 0
-1.2428528 -0.45791683 0.25912887 0
-1.2422839 -0.45815983 0.2910462 0
-1.2450418 -0.45698169 0.32373902 0
-1.2385377 -0.45976034 0.35492554 0
-0.8411268 -0.65440297 -0.091663443 0
-0.95637655 -0.6085701 -0.093083225 0
-1.0695758 -0.56355268 -0.088378601 0
-1.2635065 -0.48642966 -0.090269484 0
-1.517943 -0.38524458 -0.090073086 0
-1.9097402 -0.22943345 -0.090961851 0
-3.2153716 0.28979412 -0.14101058 0
-4.8298774 0.93185586 -0.1410598 0
-1.2419705 -0.49499416 0.069870003 0
-1.246209 -0.4933086 0.10100871 0
-1.2301205 -0.49970675 0.13184997 0
-1.2458746 -0.49344158 0.16351548 0
-1.2453219 -0.4936614 0.19481213 0
-1.2415802 -0.49514937 0.22586265 0
-1.2523791 -0.49085489 0.25869033 0
