# .PCD v0.7 - Point Cloud Data file format
VERSION 0.7
FIELDS x y z intensity
SIZE 4 4 4 4
TYPE F F F F
COUNT 1 1 1 1
WIDTH 1313
HEIGHT 1
VIEWPOINT 0 0 0 1 0 0 0
POINTS 1313
DATA ascii
-1.0190982 -0.98929507 -0.091161259 0
-1.1164291 -0.9892953 -0.082676373 0
-1.1306784 -0.98929536 -0.058066029 0
-1.1309423 -0.98929536 -0.031320427 0
-1.1309201 -0.98929536 -0.0046810117 0
-1.1230083 -0.9892953 0.022393422 0
-1.1329954 -0.98929536 0.048178833 0
-1.1319457 -0.98929536 0.074629501 0
-1.1310641 -0.98929536 0.10100272 0
-1.1364731 -0.98929536 0.12748154 0
-1.1243422 -0.98929536 0.1534235 0
-1.1475965 -0.98929542 0.18133223 0
-1.1294138 -0.98929536 0.20654632 0
-1.1385754 -0.98929536 0.2342193 0
-1.1295774 -0.98929536 0.25991791 0
-1.1268866 -0.98929536 0.28640199 0
-1.1336488 -0.98929536 0.31474483 0
-0.8982107 -1.0119892 -0.090223022 0
-1.0266578 -1.0152315 -0.092646785 0
-1.1234406 -1.0176744 -0.08388757 0
-1.1335527 -1.0179297 -0.058520753 0
-1.12006 -1.0175891 -0.030090308 0
-1.131546 -1.017879 -0.0047731157 0
-1.137799 -1.0180368 0.021334046 0
-1.128625 -1.0178053 0.048365545 0
-1.1176201 -1.0175276 0.074954294 0
-1.141155 -1.0181216 0.10100301 0
-1.1276276 -1.0177802 0.12728375 0
-1.1282544 -1.0177959 0.15362263 0
-1.1219556 -1.017637 0.17956324 0
-1.1354177 -1.0179768 0.20714088 0
-1.1393058 -1.0180749 0.23434716 0
-1.1210167 -1.0176133 0.25876459 0
-1.1332488 -1.017922 0.28750741 0
-1.1361854 -1.0179962 0.31529102 0
-0.90390438 -1.0350003 -0.091617636 0
-1.0179513 -1.0407612 -0.091189913 0
-1.1356428 -1.0467061 -0.086072333 0
-1.1251967 -1.0461785 -0.057497445 0
-1.2306168 -1.0515035 -0.04315323 0
-1.2370993 -1.051831 -0.014739154 0
-1.237295 -1.0518409 0.01429333 0
-1.239852 -1.05197 0.043130513 0
-1.2409501 -1.0520256 0.072058283 0
-1.2426257 -1.0521102 0.10100594 0
-1.2383488 -1.0518941 0.12989284 0
-1.2507746 -1.0525218 0.15939115 0
-1.2395383 -1.0519542 0.18787576 0
-1.2418945 -1.0520732 0.21719977 0
-0.89334619 -1.0571253 -0.089674167 0
-1.0140712 -1.0662822 -0.090763591 0
-1.1234287 -1.0745767 -0.084357552 0
-1.1396346 -1.0758059 -0.059785131 0
-1.2434107 -1.0836772 -0.044882733 0
-1.2449073 -1.0837907 -0.015654651 0
-1.246622 -1.0839207 0.013501132 0
-1.2450805 -1.0838038 0.042794127 0
-1.2317436 -1.0827923 0.07222683 0
-1.2476723 -1.0840005 0.10100614 0
-1.2381767 -1.0832802 0.12993497 0
-1.2278003 -1.0824932 0.1584104 0
-1.2390653 -1.0833476 0.18798122 0
-1.2463297 -1.0838985 0.21780063 0
-0.90190756 -1.0807376 -0.091929786 0
-1.0157064 -1.0922632 -0.091502078 0
-1.147334 -1.1055948 -0.088721134 0
-1.2479385 -1.115784 -0.075443067 0
-1.2261062 -1.1135728 -0.043176223 0
-1.2356399 -1.1145384 -0.01504611 0
-1.2335372 -1.1143255 0.014224881 0
-1.2345968 -1.1144328 0.043154541 0
-1.2415751 -1.1151396 0.07193277 0
-1.2415751 -1.1151396 0.10100605 0
-1.2439064 -1.1153756 0.13013399 0
-1.242008 -1.1151835 0.15920454 0
-1.2461801 -1.115606 0.18867621 0
-1.9975436 -1.1917052 0.28858277 0
-1.9931732 -1.1912625 0.33534133 0
-1.930645 -1.1849296 0.37393165 0
-1.48631 -1.1399267 0.38262334 0
-0.8921749 -1.1025836 -0.090400375 0
-1.0162742 -1.118325 -0.092164584 0
-1.1465073 -1.1348443 -0.089130871 0
-1.2089634 -1.1427666 -0.070430256 0
-1.2352153 -1.1460965 -0.044664819 0
-1.2417399 -1.1469241 -0.015954411 0
-1.2497399 -1.1479388 0.012833083 0
-1.2462572 -1.1474971 0.042440716 0
-1.2438313 -1.1471894 0.071796209 0
-1.2319466 -1.1456819 0.10100587 0
-1.2339936 -1.1459415 0.12998514 0
-1.2424436 -1.1470133 0.15939283 0
-1.2397277 -1.1466689 0.18847392 0
-1.6131051 -1.1940298 0.36846748 0
-1.4754918 -1.1765742 0.3813805 0
-0.89132845 -1.125433 -0.09089414 0
-1.0034378 -1.1425377 -0.090400837 0
-1.1437031 -1.1639383 -0.089335941 0
-1.1999755 -1.1725239 -0.069757782 0
-1.62528 -1.2374135 -0.091294788 0
-2.5695202 -1.3814783 -0.14173695 0
-3.4153705 -1.5105315 -0.14062813 0
-5.132205 -1.7724727 -0.14076842 0
-10.27925 -2.5577688 -0.14081541 0
-1.3475823 -1.1950445 0.29276192 0
-1.3450025 -1.194651 0.32482326 0
-1.3671501 -1.1980301 0.36172178 0
-0.89256215 -1.1487873 -0.091963537 0
-0.99700689 -1.1674305 -0.089971386 0
-1.1485416 -1.1944792 -0.090940215 0
-1.205442 -1.2046359 -0.071252696 0
-1.6070892 -1.2763293 -0.089939855 0
-2.5424771 -1.4432948 -0.14018866 0
-3.3941767 -1.5953219 -0.14013425 0
-5.1190271 -1.9032052 -0.141157 0
-10.233577 -2.8161449 -0.14074863 0
-1.333113 -1.227425 0.29149818 0
-1.3261142 -1.2261758 0.32260564 0
-1.3227427 -1.2255739 0.35431409 0
-0.87760925 -1.1691029 -0.089654081 0
-0.99889082 -1.1939243 -0.091258772 0
-1.1361134 -1.2220082 -0.089785196 0
-1.1890469 -1.2328416 -0.069735371 0
-1.6028321 -1.3175267 -0.090357043 0
-2.5326576 -1.5078244 -0.1404216 0
-3.3834093 -1.6819389 -0.14053415 0
-5.0892215 -2.0310497 -0.14091384 0
-10.190865 -3.07515 -0.1409062 0
-1.250831 -1.2454863 0.31104571 0
-1.2352742 -1.2423024 0.33872008 0
-0.87261069 -1.1911711 -0.089614354 0
-1.0053163 -1.2218384 -0.093560554 0
-1.1308635 -1.2508514 -0.089951135 0
-1.1907969 -1.2647015 -0.07092876 0
-1.5852627 -1.3558594 -0.089304186 0
-2.5293646 -1.5740341 -0.14143676 0
-3.3628509 -1.7666464 -0.14039031 0
-5.050561 -2.1566632 -0.14039993 0
-10.128146 -3.330054 -0.14074285 0
-0.87185961 -1.2143396 -0.090628646 0
-0.99426627 -1.2459003 -0.092614777 0
-1.1247618 -1.2795466 -0.090096749 0
-1.320555 -1.330029 -0.090824209 0
-1.5894006 -1.3993468 -0.090980865 0
-1.985448 -1.5014619 -0.090506829 0
-3.3486779 -1.8529503 -0.14086039 0
-5.0274668 -2.2858012 -0.14078301 0
-10.070267 -3.5860121 -0.14084861 0
-0.86711335 -1.2366351 -0.090896033 0
-0.97604007 -1.2676713 -0.090375267 0
-1.1084353 -1.3053945 -0.088619433 0
-1.3102031 -1.3628839 -0.090629272 0
-1.5776677 -1.4390922 -0.09087386 0
-1.9797313 -1.5536515 -0.091267563 0
-3.3274472 -1.9376539 -0.14097863 0
-4.9880066 -2.4107943 -0.14053383 0
-9.9996271 -3.838747 -0.14080231 0
-0.86422759 -1.2595935 -0.091704704 0
-0.96606976 -1.2914104 -0.089855216 0
-1.1004784 -1.3334016 -0.088683464 0
-1.2952175 -1.3942407 -0.089872189 0
-1.5724705 -1.4808586 -0.09168864 0
-1.9590647 -1.6016359 -0.090700708 0
-3.3026083 -2.0213776 -0.14098951 0
-4.9584765 -2.5386941 -0.14092033 0
-9.9199305 -4.0887218 -0.14068979 0
-0.85711014 -1.2813299 -0.091699757 0
-0.96891737 -1.319382 -0.091999657 0
-1.0984244 -1.3634579 -0.089895062 0
-1.2703546 -1.421972 -0.087759279 0
-1.5487466 -1.5167191 -0.090352811 0
-1.9428074 -1.6508324 -0.090682648 0
-3.2698219 -2.1024637 -0.14056902 0
-4.910306 -2.6607807 -0.14055157 0
-9.8444729 -4.3400578 -0.14083476 0
-0.83701515 -1.298295 -0.088878401 0
-0.95008737 -1.3399897 -0.089953475 0
-1.091898 -1.3922813 -0.09046682 0
-1.2700282 -1.4579656 -0.089406215 0
-1.5475379 -1.5602953 -0.091921352 0
-1.929879 -1.701281 -0.091118552 0
-3.2358897 -2.1828632 -0.14021103 0
-4.8704939 -2.7856121 -0.14074631 0
-9.760458 -4.5887523 -0.14092551 0
-0.83050084 -1.3199559 -0.08923272 0
-0.95264488 -1.3685306 -0.092326827 0
-1.0716438 -1.4158545 -0.08874438 0
-1.2564561 -1.4893513 -0.089203186 0
-1.5227215 -1.5952405 -0.09067411 0
-1.9051429 -1.747323 -0.090500049 0
-3.2088261 -2.2657757 -0.14051814 0
-4.8240166 -2.9081097 -0.14076616 0
-9.6579456 -4.830482 -0.14071067 0
-0.82928509 -1.3439875 -0.090941332 0
-0.93762976 -1.3902735 -0.091273434 0
-1.0694077 -1.4465704 -0.090329282 0
-1.2504271 -1.5239037 -0.090271153 0
-1.5113074 -1.6353544 -0.091228165 0
-1.8934269 -1.7985997 -0.091313757 0
-3.1823409 -2.3492367 -0.14103079 0
-4.7760587 -3.0300891 -0.14086701 0
-9.5610218 -5.0742736 -0.14078823 0
-0.81398559 -1.3620393 -0.089518808 0
-0.9264521 -1.4134793 -0.091115676 0
-1.052088 -1.4709427 -0.089345865 0
-1.2394322 -1.5566304 -0.090718113 0
-1.4892586 -1.6708962 -0.090551324 0
-1.869077 -1.8446178 -0.090972237 0
-3.1409855 -2.4263642 -0.14056729 0
-4.7222581 -3.1496079 -0.14082663 0
-9.4532318 -5.3134642 -0.14074536 0
-0.8077383 -1.3841512 -0.090327077 0
-0.90532309 -1.4317975 -0.088992171 0
-1.0440446 -1.4995292 -0.090158723 0
-1.2232292 -1.5870172 -0.090484507 0
-1.4742001 -1.7095553 -0.090891235 0
-1.8427912 -1.8895222 -0.090545364 0
-3.1141551 -2.5102732 -0.14137861 0
-4.6566 -3.2633815 -0.1403268 0
-9.3526897 -5.5562758 -0.14104471 0
-0.79049683 -1.4007796 -0.088644944 0
-0.91589141 -1.4659725 -0.093667053 0
-1.0286781 -1.5246106 -0.089758597 0
-1.2052475 -1.6164094 -0.090086825 0
-1.4394596 -1.7381767 -0.088770725 0
-1.8250167 -1.9386287 -0.091126718 0
-3.0629339 -2.5822241 -0.14044462 0
-4.6142626 -3.388763 -0.14119378 0
-9.2109098 -5.7785687 -0.14042699 0
-0.78538299 -1.4236677 -0.089985482 0
-0.88614321 -1.4793265 -0.089916684 0
-1.0184572 -1.5524154 -0.090437077 0
-1.1943897 -1.6495986 -0.090945594 0
-1.4254868 -1.7772542 -0.089489169 0
-1.8039536 -1.9863153 -0.091496848 0
-3.0201607 -2.6581349 -0.14031631 0
-4.5385613 -3.4968832 -0.14046562 0
-9.094552 -6.0135636 -0.1406239 0
-0.76968116 -1.4407387 -0.088878952 0
-0.87025857 -1.4996564 -0.089209832 0
-1.0033585 -1.5776258 -0.090329252 0
-1.1635026 -1.6714374 -0.088690393 0
-1.4036659 -1.812124 -0.089287929 0
-1.7660419 -2.0244021 -0.090179108 0
-2.9822054 -2.736825 -0.14073057 0
-4.4898267 -3.6199825 -0.14132778 0
-8.9737434 -6.2466397 -0.14086248 0
-0.76700854 -1.4655983 -0.091120847 0
-0.86585939 -1.526906 -0.091150276 0
-0.99276567 -1.6056138 -0.091213278 0
-1.1541116 -1.7056812 -0.090044923 0
-1.3855884 -1.8492441 -0.089718454 0
-1.7407465 -2.0695145 -0.090331115 0
-2.9346647 -2.8099873 -0.14052498 0
-4.4144893 -3.7277803 -0.14091513 0
-8.8274765 -6.4647326 -0.14056805 0
-0.74460167 -1.4781717 -0.08854223 0
-0.84368885 -1.5431439 -0.089274086 0
-0.97362787 -1.6283457 -0.090570398 0
-1.1322824 -1.7323767 -0.089475863 0
-1.371308 -1.8891075 -0.090816744 0
-1.7157499 -2.1149604 -0.090645082 0
-2.8952861 -2.8883903 -0.14115146 0
-4.3461494 -3.8397317 -0.14103539 0
-8.6938972 -6.6905808 -0.14077331 0
-0.74125969 -1.5032188 -0.090928666 0
-0.8393597 -1.5711436 -0.091545321 0
-0.9693616 -1.6611576 -0.093002819 0
-1.1199473 -1.7654239 -0.090633832 0
-1.3524334 -1.9263985 -0.091423087 0
-1.6880937 -2.1588113 -0.090791769 0
-2.8463013 -2.9607596 -0.14113899 0
-4.2758994 -3.9506207 -0.14120831 0
-8.5485411 -6.9090185 -0.14080895 0
-0.72811073 -1.521822 -0.090942927 0
-0.81717223 -1.5868733 -0.089856811 0
-0.94123912 -1.6774927 -0.090792201 0
-1.1051872 -1.7972418 -0.091535203 0
-1.3265779 -1.9589474 -0.091165401 0
-1.6653203 -2.2063677 -0.091632374 0
-2.7916265 -3.0290308 -0.14079042 0
-4.1889944 -4.0496798 -0.14058414 0
-8.3897743 -7.1179643 -0.14061648 0
-0.71079469 -1.5372399 -0.089964427 0
-0.80198264 -1.6074399 -0.089892097 0
-0.91850847 -1.6971461 -0.089741297 0
-1.0875467 -1.8272784 -0.09208446 0
-1.2992504 -1.9902562 -0.090805583 0
-1.6386139 -2.2515113 -0.092166238 0
-2.7354414 -3.095892 -0.1404524 0
-4.1160183 -4.1587138 -0.14091165 0
-8.2420683 -7.3351083 -0.14089809 0
-0.69650191 -1.5548288 -0.089898489 0
-0.77389765 -1.6175836 -0.086925767 0
-0.90940225 -1.7274553 -0.091655411 0
-1.0525154 -1.8434961 -0.089634441 0
-1.280372 -2.0282495 -0.09182737 0
-1.5847845 -2.2750771 -0.089587368 0
-2.6862943 -3.1682172 -0.14089121 0
-4.0341649 -4.2611141 -0.14087719 0
-8.0703859 -7.533814 -0.14063029 0
-0.68464935 -1.5744988 -0.090635844 0
-0.77911294 -1.655127 -0.092203893 0
-0.88085818 -1.7419707 -0.089574628 0
-1.0472983 -1.8840338 -0.0927146 0
-1.2554206 -2.0616741 -0.092084028 0
-1.5601273 -2.3217533 -0.090604596 0
-2.6259995 -3.2315164 -0.14048101 0
-3.9487095 -4.3605008 -0.14077805 0
-7.9061446 -7.7383256 -0.14073583 0
-0.66913235 -1.5911323 -0.090483449 0
-0.75952536 -1.6723167 -0.091560967 0
-0.86968535 -1.7712542 -0.091363691 0
-1.0179179 -1.9043857 -0.091492169 0
-1.2183363 -2.0843866 -0.090571709 0
-1.5364105 -2.3700571 -0.091909312 0
-2.5702231 -3.2985508 -0.14063449 0
-3.8579667 -4.4551063 -0.14050107 0
-7.7375455 -7.939456 -0.14086717 0
-0.65322036 -1.6073629 -0.090333246 0
-0.74156433 -1.6908286 -0.091435157 0
-0.8437444 -1.7873664 -0.090021975 0
-0.9879182 -1.923579 -0.09021873 0
-1.1880577 -2.1126668 -0.090208299 0
-1.4946917 -2.402369 -0.091088615 0
-1.9845629 -2.8651898 -0.089990489 0
-3.7780848 -4.5596747 -0.1410642 0
-7.5615063 -8.1341791 -0.14092423 0
-0.6458745 -1.6320759 -0.092867486 0
-0.72398591 -1.7096964 -0.091530316 0
-0.82740021 -1.8124608 -0.090962879 0
-0.96023273 -1.9444585 -0.089466326 0
-1.1580701 -2.1410525 -0.089999847 0
-1.4595152 -2.4406033 -0.091214009 0
-1.9294858 -2.9076202 -0.089289345 0
-3.6839299 -4.6510382 -0.140876 0
-7.3741398 -8.3180561 -0.14077061 0
-0.62407678 -1.6425754 -0.091215216 0
-0.70572734 -1.7279139 -0.091570832 0
-0.79936755 -1.8257836 -0.089298837 0
-0.9466359 -1.9797038 -0.091663606 0
-1.1365693 -2.178216 -0.091340162 0
-1.4240772 -2.4787099 -0.091436096 0
-1.8873745 -2.9629333 -0.089987554 0
-3.5858581 -4.738133 -0.14057232 0
-7.1900415 -8.5051088 -0.14087693 0
-0.60632205 -1.6569587 -0.090876333 0
-0.68819362 -1.746969 -0.091942407 0
-0.78081244 -1.8487948 -0.089984007 0
-0.91791892 -1.9995308 -0.090948008 0
-1.102226 -2.2021594 -0.090648286 0
-1.3748487 -2.501883 -0.089883097 0
-1.8462014 -3.0200918 -0.090945996 0
-3.4871404 -4.8241529 -0.14036553 0
-6.9882369 -8.6732864 -0.14053541 0
-0.5835011 -1.6653807 -0.088997118 0
-0.66568547 -1.7604471 -0.091028906 0
-0.76095927 -1.8706545 -0.090507172 0
-0.89062202 -2.0206411 -0.090622433 0
-1.0713224 -2.2296653 -0.090657108 0
-1.3447324 -2.5459306 -0.091094218 0
-1.7908108 -3.0619295 -0.090565093 0
-3.4007463 -4.9242125 -0.14118227 0
-6.8045664 -8.8615618 -0.14097728 0
-0.5714007 -1.6861755 -0.090719886 0
-0.64414585 -1.7747449 -0.090473853 0
-0.73986316 -1.8912834 -0.090865575 0
-0.86658084 -2.0455658 -0.091123872 0
-1.0458156 -2.2637894 -0.09178596 0
-1.2986485 -2.5716209 -0.090155967 0
-1.7366333 -3.1048801 -0.090420522 0
-3.2947772 -5.001965 -0.14077121 0
-6.5979252 -9.0236435 -0.140763 0
-0.55415469 -1.701061 -0.090899371 0
-0.63200104 -1.800873 -0.092886679 0
-0.72268212 -1.9171414 -0.092419021 0
-0.83745408 -2.0642984 -0.090621196 0
-1.0094403 -2.2848136 -0.091047607 0
-1.2595913 -2.6055493 -0.090350278 0
-1.6919522 -3.1599088 -0.091472067 0
-3.1930003 -5.0845041 -0.14081027 0
-6.3912144 -9.1851521 -0.14069134 0
-0.53996605 -1.7201734 -0.092309527 0
-0.60593754 -1.8093094 -0.091181748 0
-0.6963802 -1.9315093 -0.091683887 0
-0.80886465 -2.0834904 -0.09033794 0
-0.97163928 -2.3034201 -0.090106152 0
-1.2200446 -2.6390483 -0.090606697 0
-1.6352304 -3.2000186 -0.091305651 0
-3.0827675 -5.1558299 -0.14034936 0
-6.1818051 -9.3430338 -0.14066848 0
-0.51678556 -1.7270806 -0.090619408 0
-0.5778513 -1.814097 -0.088819899 0
-0.66958994 -1.9448211 -0.090884142 0
-0.78697896 -2.1120961 -0.091800891 0
-0.94310105 -2.3345642 -0.091108836 0
-1.1805245 -2.6728837 -0.091011874 0
-1.5762635 -3.2367973 -0.090981059 0
-2.9857979 -5.2453303 -0.14108993 0
-5.9688697 -9.4960957 -0.14066063 0
-0.49962473 -1.742345 -0.091241084 0
-0.56580454 -1.8418995 -0.091864325 0
-0.64790273 -1.9654001 -0.091666482 0
-0.75330734 -2.1239605 -0.090508424 0
-0.90880954 -2.357883 -0.091098614 0
-1.1352789 -2.6985619 -0.090608783 0
-1.521201 -3.2791057 -0.091252096 0
-2.8697903 -5.3077922 -0.1404447 0
-5.7515383 -9.6428156 -0.14062722 0
-0.47503561 -1.7461035 -0.089073412 0
-0.54425776 -1.8561603 -0.091915898 0
-0.62334085 -1.9818949 -0.091750689 0
-0.72587389 -2.1449127 -0.090887316 0
-0.87024707 -2.3744528 -0.090277188 0
-1.0902408 -2.7242224 -0.09033706 0
-1.4602274 -3.3124664 -0.090895616 0
-2.7680867 -5.39184 -0.1411591 0
-5.5386848 -9.7968321 -0.14094664 0
-0.46110293 -1.7668144 -0.091284357 0
-0.52232289 -1.8698272 -0.091956683 0
-0.59184355 -1.9868072 -0.089738719 0
-0.69212806 -2.1555526 -0.089688785 0
-0.83642268 -2.3983524 -0.09059789 0
-1.0458087 -2.7506795 -0.090280272 0
-1.4043829 -3.3540406 -0.091338538 0
-2.6540186 -5.4567609 -0.14096721 0
-5.3106093 -9.926918 -0.14076054 0
-0.43984148 -1.7755558 -0.090633787 0
-0.49169961 -1.8680528 -0.088783063 0
-0.56526625 -1.9992706 -0.089328624 0
-0.66297388 -2.1735473 -0.089830287 0
-0.79862118 -2.4154954 -0.090123989 0
-1.0059708 -2.785336 -0.091222592 0
-1.337543 -3.3767467 -0.090376787 0
-2.537982 -5.5179162 -0.1407318 0
-5.085278 -10.061416 -0.1408492 0
-0.42131111 -1.7891709 -0.091293134 0
-0.46925437 -1.8799833 -0.088736109 0
-0.54128033 -2.0164123 -0.089918979 0
-0.6315763 -2.1874478 -0.08943706 0
-0.763304 -2.4369621 -0.090354763 0
-0.95762956 -2.8050468 -0.090681814 0
-1.2855166 -3.4261196 -0.091670178 0
-1.9207826 -4.6294184 -0.090661071 0
-4.8548803 -10.187086 -0.14085519 0
-0.3997921 -1.7971462 -0.0907178 0
-0.4513872 -1.9011502 -0.090751626 0
-0.51334655 -2.026046 -0.089236327 0
-0.59953624 -2.199785 -0.088928573 0
-0.7248643 -2.4524179 -0.089915521 0
-0.91138184 -2.8283949 -0.090654664 0
-1.2186158 -3.4477086 -0.090882398 0
-1.8324338 -4.6850262 -0.091091312 0
-4.6155553 -10.295166 -0.14055644 0
-0.37947705 -1.8074211 -0.090816341 0
-0.42730522 -1.9102715 -0.090335794 0
-0.49009103 -2.0452871 -0.090431564 0
-0.57351881 -2.2246916 -0.090500213 0
-0.68623263 -2.4670732 -0.089504041 0
-0.86369872 -2.8486993 -0.090435438 0
-1.157485 -3.4804623 -0.091095574 0
-1.7377906 -4.7283607 -0.091001578 0
-4.3884163 -10.428309 -0.14105971 0
-0.3581934 -1.8155627 -0.090538897 0
-0.40602747 -1.9256057 -0.091326006 0
-0.45951131 -2.048646 -0.088873364 0
-0.5386554 -2.2307181 -0.089262791 0
-0.65206897 -2.4916277 -0.090483524 0
-0.81973243 -2.8773398 -0.091190211 0
-1.0905981 -3.5004704 -0.090453126 0
-1.6410803 -4.7668624 -0.09078946 0
-4.1399908 -10.515641 -0.14054222 0
-0.33408442 -1.8165915 -0.088756882 0
-0.3851465 -1.9426697 -0.092767395 0
-0.43410197 -2.0635464 -0.089515112 0
-0.51153195 -2.2547302 -0.090899073 0
-0.61870557 -2.5193543 -0.09196236 0
-0.77042204 -2.89396 -0.090839155 0
-1.0294225 -3.5334628 -0.090924568 0
-1.5431781 -4.8019853 -0.09053304 0
-3.9042971 -10.631865 -0.14091285 0
-0.31966645 -1.8422384 -0.092720993 0
-0.35701001 -1.9415771 -0.090648286 0
-0.40640295 -2.0729687 -0.089302115 0
-0.47456679 -2.2542934 -0.088952579 0
-0.57860988 -2.5310616 -0.091532759 0
-0.72287416 -2.9148235 -0.091039263 0
-0.96670049 -3.5634332 -0.091281749 0
-1.4480836 -4.8439755 -0.090744086 0
-3.6518366 -10.706245 -0.14038917 0
-0.29239586 -1.8337989 -0.089062549 0
-0.33401239 -1.9535978 -0.091304593 0
-0.37727779 -2.0781431 -0.088474087 0
-0.44555819 -2.2746978 -0.090263076 0
-0.53938806 -2.5448 -0.091483973 0
-0.67390341 -2.9320211 -0.090994529 0
-0.90052009 -3.5843685 -0.091084845 0
-1.3522227 -4.8846569 -0.091007642 0
-3.4105554 -10.809853 -0.14074697 0
-0.27310136 -1.8475287 -0.090534516 0
-0.31101996 -1.9662664 -0.09219899 0
-0.35409477 -2.10115 -0.090856694 0
-0.41658983 -2.2968462 -0.091928832 0
-0.49475002 -2.5415959 -0.089478903 0
-0.62551594 -2.9510741 -0.091253571 0
-0.82909679 -3.5885644 -0.089784153 0
-1.2497801 -4.9058857 -0.090437122 0
-3.1612883 -10.891553 -0.14071648 0
-0.25120842 -1.8536512 -0.090419494 0
-0.28339532 -1.9639721 -0.090265386 0
-0.32211089 -2.0966702 -0.088616528 0
-0.38170904 -2.3009434 -0.09104722 0
-0.4602814 -2.570251 -0.091504954 0
-0.57288635 -2.9562056 -0.090276293 0
-0.76853853 -3.6268058 -0.091104113 0
-1.1543883 -4.9493103 -0.091073073 0
-2.9115903 -10.972138 -0.14081216 0
-0.23185205 -1.8693111 -0.092524208 0
-0.26142564 -1.981091 -0.092263229 0
-0.296471 -2.1135526 -0.09016075 0
-0.34355885 -2.2915318 -0.088336132 0
-0.41735488 -2.5704601 -0.090184145 0
-0.52401572 -2.9736085 -0.090619035 0
-0.70175523 -3.6454144 -0.091106482 0
-1.0534083 -4.9745655 -0.090946205 0
-2.65994 -11.046808 -0.14091705 0
-0.20660575 -1.8624194 -0.089796193 0
-0.23370947 -1.9764236 -0.090138994 0
-0.26655668 -2.1145861 -0.089127995 0
-0.31351572 -2.3121061 -0.090112336 0
-0.37826446 -2.5844536 -0.090657689 0
-0.47629815 -2.996805 -0.091634311 0
-0.63281405 -3.6551452 -0.090592392 0
-0.94644445 -4.9743433 -0.089723252 0
-2.4020779 -11.097056 -0.14058994 0
-0.18445507 -1.8671197 -0.089739881 0
-0.20971693 -1.9867101 -0.091039814 0
-0.23996779 -2.1299183 -0.090629794 0
-0.27769619 -2.3085256 -0.088518791 0
-0.33885488 -2.5980525 -0.091199778 0
-0.42461368 -3.0040369 -0.091236405 0
-0.56532061 -3.6701474 -0.090582378 0
-0.84423852 -4.9905519 -0.08941745 0
-2.1480803 -11.162974 -0.14079203 0
-0.16318969 -1.876611 -0.090840645 0
-0.18436661 -1.9910738 -0.090918235 0
-0.21054734 -2.1325827 -0.090119712 0
-0.24760836 -2.3329003 -0.091057532 0
-0.29842305 -2.6075573 -0.091371261 0
-0.37253985 -3.0081644 -0.090669774 0
-0.49734727 -3.6827579 -0.090523787 0
-0.94270593 -6.0899553 -0.14051904 0
-1.8913789 -11.217604 -0.14087826 0
-0.14083186 -1.8809882 -0.090952091 0
-0.16008995 -2.0020857 -0.092187382 0
-0.18175103 -2.1382935 -0.090242513 0
-0.21251321 -2.3317304 -0.090059407 0
-0.25739017 -2.6139226 -0.091291539 0
-0.3208144 -3.0127428 -0.090272538 0
-0.42970785 -3.6974792 -0.090736546 0
-0.81631142 -6.1284943 -0.1412899 0
-1.6313694 -11.253689 -0.14068036 0
-0.11781293 -1.8807145 -0.090187006 0
-0.13327959 -1.9967819 -0.090468653 0
-0.15281025 -2.143347 -0.090376653 0
-0.17783482 -2.3311405 -0.08927273 0
-0.21548179 -2.613657 -0.090552621 0
-0.26947007 -3.0188048 -0.090139486 0
-0.36254784 -3.7172942 -0.091428466 0
-0.68450165 -6.1333523 -0.14062642 0
-1.3718535 -11.291491 -0.14067765 0
-0.09595935 -1.8897042 -0.09152884 0
-0.10827284 -2.0040836 -0.091270961 0
-0.12155356 -2.1274476 -0.087167807 0
-0.14470576 -2.3425074 -0.090302087 0
-0.17478935 -2.6219528 -0.090946563 0
-0.21768235 -3.0203838 -0.089707814 0
-0.29292735 -3.7193313 -0.090987839 0
-0.55463743 -6.1503444 -0.14068891 0
-1.1121056 -11.328642 -0.14081311 0
-0.072143063 -1.8788797 -0.088759698 0
-0.082727812 -2.0076597 -0.091486923 0
-0.094120212 -2.1462662 -0.089821048 0
-0.11045779 -2.3450387 -0.09020146 0
-0.13322698 -2.6220617 -0.090500258 0
-0.16615134 -3.0226388 -0.089462854 0
-0.22366844 -3.722425 -0.09074565 0
-0.42402473 -6.1600747 -0.14056534 0
-0.85070449 -11.351306 -0.14076346 0
-0.050413053 -1.8934337 -0.091525845 0
-0.057075709 -2.0106606 -0.091715805 0
-0.065032035 -2.1506493 -0.09020824 0
-0.075991549 -2.3434782 -0.089646794 0
-0.080605417 -2.4246573 -0.067056201 0
-0.080974728 -2.4311554 -0.033830795 0
-0.081071146 -2.4328518 -0.00011089235 0
-0.081258677 -2.4361513 0.03350367 0
-0.080571786 -2.4240658 0.067557439 0
-0.081548311 -2.4412472 0.10101192 0
-0.027369475 -1.8876328 -0.090077661 0
-0.031022817 -2.0034237 -0.090137295 0
-0.035653897 -2.1502035 -0.089921869 0
-0.040786624 -2.3128827 -0.085132502 0
-0.040848427 -2.3148415 -0.054028008 0
-0.040758029 -2.3119764 -0.022550834 0
-0.040695392 -2.3099911 0.0085951481 0
-0.041068189 -2.3218069 0.038904775 0
-0.040668994 -2.3091545 0.070267744 0
-0.040679649 -2.3094923 0.1010081 0
-0.0047096903 -1.8904791 -0.090591468 0
-0.0054119495 -2.001822 -0.089744367 0
-0.0063334876 -2.1479316 -0.089457326 0
-0.0067525124 -2.2143679 -0.07119862 0
-0.0068067624 -2.2229693 -0.043216366 0
-0.0067162625 -2.2086205 -0.012844374 0
-0.0066770292 -2.2024 0.016161041 0
-0.0066354414 -2.1958063 0.044800442 0
-0.0067106481 -2.2077303 0.072640605 0
-0.0067509292 -2.2141168 0.10100537 0
0.018120617 -1.895126 -0.091609888 0
0.020099668 -1.9996781 -0.089370854 0
0.022935502 -2.1494937 -0.089744441 0
0.023891114 -2.1999781 -0.069203429 0
0.023963129 -2.2037828 -0.04099654 0
0.023723189 -2.1911068 -0.011227472 0
0.023788439 -2.1945539 0.016696149 0
0.023777572 -2.1939797 0.044876542 0
0.023904841 -2.2007034 0.072799504 0
0.024076434 -2.2097685 0.10100525 0
0.040959064 -1.8941524 -0.091556154 0
0.045945071 -2.0069861 -0.090900294 0
0.052264687 -2.1499996 -0.089979582 0
0.054533131 -2.2013347 -0.069529794 0
0.054173265 -2.1931911 -0.039870519 0
0.054969959 -2.2112203 -0.013196072 0
0.054296862 -2.1959879 0.016528675 0
0.054132938 -2.1922784 0.04491115 0
0.054340087 -2.1969662 0.072864041 0
0.054290079 -2.1958344 0.10100488 0
0.063541062 -1.8894633 -0.090833373 0
0.071690589 -2.0067134 -0.091124214 0
0.08155904 -2.1486943 -0.090038605 0
0.085402302 -2.2039888 -0.070148416 0
0.08435224 -2.1888812 -0.039567757 0
0.085093401 -2.1995444 -0.012267491 0
0.084822826 -2.1956515 0.016431043 0
0.085039221 -2.198765 0.044527974 0
0.08494588 -2.197422 0.072813079 0
0.085208841 -2.2012053 0.10100508 0
0.086313963 -1.8884476 -0.091014765 0
0.097219385 -2.0033491 -0.090886541 0
0.1110241 -2.1487982 -0.090452366 0
0.11598079 -2.2010229 -0.070085011 0
0.11561645 -2.1971841 -0.040834311 0
0.11487239 -2.1893444 -0.01154626 0
0.11638229 -2.2052531 0.015581252 0
0.11515603 -2.192333 0.04471156 0
0.11626718 -2.2040405 0.072600037 0
0.11599995 -2.2012248 0.10100515 0
0.10930336 -1.8887483 -0.091601394 0
0.12276026 -2.0004807 -0.090864263 0
0.14032765 -2.1463425 -0.090566598 0
0.14748071 -2.2057343 -0.071217276 0
0.14695497 -2.201369 -0.041712735 0
0.14691558 -2.2010419 -0.012952102 0
0.14663568 -2.1987181 0.015809128 0
0.14740817 -2.205132 0.043958355 0
0.14685644 -2.200551 0.072604574 0
0.14649887 -2.1975822 0.10100514 0
0.13291746 -1.8922603 -0.093004532 0
0.14972478 -2.007283 -0.092805319 0
0.16867961 -2.1370025 -0.089660428 0
0.17823349 -2.2023857 -0.071321674 0
0.17763232 -2.1982713 -0.041827459 0
0.17759508 -2.1980166 -0.013050443 0
0.17756265 -2.1977947 0.015587503 0
0.17758942 -2.1979778 0.044102911 0
0.17662044 -2.1913464 0.072725311 0
0.17878051 -2.2061291 0.1010055 0
0.15369213 -1.8772126 -0.090539016 0
0.17347831 -1.992252 -0.090711825 0
0.19761719 -2.1325984 -0.08969254 0
0.20874245 -2.1972821 -0.071286745 0
0.20854568 -2.1961379 -0.042148683 0
0.20934856 -2.2008059 -0.013773134 0
0.20935172 -2.2008243 0.015029246 0
0.20777947 -2.1916831 0.044171587 0
0.2083295 -2.194881 0.07252834 0
0.20971663 -2.2029459 0.10100555 0
0.17596577 -1.8726687 -0.090450607 0
0.19985929 -1.9932859 -0.091807373 0
0.22555903 -2.1230209 -0.088980161 0
0.24190156 -2.2055199 -0.073273055 0
0.24190263 -2.2055252 -0.043936897 0
0.24110693 -2.2015085 -0.014376966 0
0.23998372 -2.1958382 0.014982404 0
0.24021389 -2.1970003 0.043653432 0
0.24042587 -2.1980703 0.072319642 0
0.2412124 -2.2020409 0.10100569 0
0.19995967 -1.8758186 -0.092159934 0
0.22450075 -1.9851549 -0.091268174 0
0.2545301 -2.1189427 -0.089308478 0
0.27433449 -2.207176 -0.074442886 0
0.27257773 -2.1993492 -0.043971632 0
0.27305397 -2.2014709 -0.014989881 0
0.27149358 -2.194519 0.014617341 0
0.27383736 -2.2049611 0.042967249 0
0.27098343 -2.1922462 0.072305299 0
0.27287066 -2.2006543 0.10100584 0
0.22143415 -1.8672103 -0.091435485 0
0.24822962 -1.9739155 -0.090242304 0
0.2833091 -2.1136096 -0.089549758 0
0.3045682 -2.1982677 -0.074207656 0
0.30223331 -2.1889696 -0.043593068 0
0.30498669 -2.199934 -0.015539786 0
0.30602148 -2.2040548 0.013410354 0
0.30786133 -2.2113814 0.042310026 0
0.30253464 -2.1901696 0.072182581 0
0.30780321 -2.2111502 0.10100636 0
0.24235421 -1.8571957 -0.090514876 0
0.27363268 -1.9696603 -0.090691321 0
0.31320107 -2.111932 -0.090539865 0
0.33875513 -2.203814 -0.076190181 0
0.33719155 -2.1981919 -0.045680244 0
0.33521384 -2.191081 -0.015462546 0
0.33809036 -2.2014236 0.013014728 0
0.33641979 -2.1954169 0.042688504 0
0.33752432 -2.1993885 0.071767256 0
0.3402555 -2.2092085 0.10100655 0
0.26420295 -1.8509192 -0.090534903 0
0.29585171 -1.9545152 -0.089124925 0
0.34009591 -2.0993397 -0.089791127 0
0.37199116 -2.2037427 -0.077488877 0
0.37151799 -2.2021937 -0.047253001 0
0.3671582 -2.187923 -0.016014731 0
0.3713432 -2.2016218 0.012350285 0
0.37025839 -2.1980708 0.04212863 0
0.37068188 -2.1994569 0.071549788 0
0.36885509 -2.1934774 0.10100634 0
0.28166384 -1.8314177 -0.087714948 0
0.32333103 -1.9564276 -0.091042735 0
0.36876407 -2.092736 -0.090190582 0
0.42895752 -2.2733283 -0.089240991 0
0.51943481 -2.5447783 -0.090656869 0
0.65005869 -2.9366765 -0.090630196 0
0.86661512 -3.5863893 -0.090411 0
1.3006096 -4.8884597 -0.090371825 0
3.2914939 -10.861514 -0.14097759 0
0.30953941 -1.8426445 -0.091913931 0
0.34738135 -1.9472983 -0.090904914 0
0.39752567 -2.0859747 -0.090692125 0
0.46253535 -2.2657623 -0.089785121 0
0.55929768 -2.5333631 -0.090925448 0
0.70150781 -2.9266524 -0.09132228 0
0.93097872 -3.5612655 -0.090228431 0
1.4025142 -4.8653197 -0.090911053 0
3.535212 -10.7634 -0.14068221 0
0.329669 -1.8312495 -0.091152273 0
0.37084204 -1.936715 -0.090593927 0
0.42358273 -2.0718112 -0.090020083 0
0.49654508 -2.2587054 -0.090538703 0
0.59549248 -2.5121608 -0.09009441 0
0.74800318 -2.9028196 -0.090767093 0
0.99692917 -3.5404477 -0.090488546 0
1.4987433 -4.8258529 -0.090767585 0
3.7842488 -10.680214 -0.14090927 0
0.35641661 -1.8360499 -0.094232552 0
0.39245322 -1.9218987 -0.089535289 0
0.45449948 -2.0697093 -0.091607444 0
0.52983838 -2.2491865 -0.091055222 0
0.63419884 -2.4978006 -0.090236999 0
0.80013078 -2.8930943 -0.091752283 0
1.0671804 -3.5292768 -0.091608413 0
1.5967025 -4.7907381 -0.09096434 0
4.0248027 -10.575114 -0.14074388 0
0.37240306 -1.8151065 -0.091504283 0
0.41791657 -1.9162987 -0.090479992 0
0.48205271 -2.0588953 -0.091782801 0
0.56414157 -2.2414072 -0.091974489 0
0.66985685 -2.4764488 -0.089609735 0
0.84037519 -2.8555696 -0.090037443 0
1.1263897 -3.4914784 -0.090835072 0
1.6903963 -4.7454591 -0.090769999 0
4.2654467 -10.470682 -0.14074758 0
0.39595711 -1.8113751 -0.09289635 0
0.44297427 -1.9092325 -0.091263346 0
0.5047617 -2.0378315 -0.090217374 0
0.59084684 -2.2170014 -0.090446882 0
0.70451725 -2.4535851 -0.088894807 0
0.89653873 -2.8532419 -0.092051111 0
1.1899719 -3.463968 -0.090965502 0
1.785782 -4.7040348 -0.090893812 0
4.5012493 -10.355771 -0.14063676 0
0.41498762 -1.79805 -0.092156656 0
0.46440673 -1.8945881 -0.090586357 0
0.53118169 -2.0250301 -0.090262331 0
0.61863703 -2.1958706 -0.089522175 0
0.74641538 -2.4454801 -0.09022253 0
0.93692434 -2.8176312 -0.090748616 0
1.2518619 -3.4328487 -0.09093941 0
1.8751976 -4.6505084 -0.090511434 0
4.7432003 -10.253031 -0.1409969 0
0.43229634 -1.7818977 -0.090838023 0
0.48753217 -1.8834 -0.090756394 0
0.56036812 -2.0172446 -0.091370367 0
0.65458459 -2.1903784 -0.091198333 0
0.78679019 -2.433322 -0.091169037 0
0.98662585 -2.8005435 -0.09150409 0
1.3091974 -3.393307 -0.090366147 0
1.9683 -4.6044855 -0.090640284 0
4.974287 -10.128342 -0.1409416 0
0.44662783 -1.7611854 -0.088487349 0
0.51123559 -1.8730891 -0.091245763 0
0.58635753 -2.0032039 -0.091446377 0
0.67465633 -2.1561415 -0.088380687 0
0.81011188 -2.3907571 -0.088162504 0
1.0298896 -2.7714221 -0.091107927 0
1.3714414 -3.3630061 -0.090646453 0
2.5978253 -5.4871612 -0.14082024 0
5.2001901 -9.9945803 -0.14079742 0
0.47188026 -1.7593744 -0.090898894 0
0.5367443 -1.8654479 -0.092463233 0
0.61121452 -1.9872305 -0.091276698 0
0.70868242 -2.1466217 -0.089673676 0
0.84970123 -2.3772326 -0.089167617 0
1.072526 -2.7416222 -0.090749912 0
1.4246944 -3.3175304 -0.089815386 0
2.7053487 -5.4118099 -0.14036195 0
5.4209018 -9.8526077 -0.14058146 0
0.48829257 -1.7428136 -0.089776419 0
0.55236226 -1.841882 -0.090271987 0
0.63827163 -1.9747204 -0.091903903 0
0.74195421 -2.1350408 -0.09078557 0
0.88937145 -2.3629861 -0.090226762 0
1.1140331 -2.7103715 -0.090343468 0
1.4884261 -3.2892809 -0.090515859 0
2.8202567 -5.3486385 -0.1407207 0
5.6493425 -9.7231426 -0.1408613 0
0.51237899 -1.7379336 -0.091747113 0
0.57782269 -1.8337361 -0.091649167 0
0.66327286 -1.9588258 -0.092003204 0
0.76796907 -2.1120899 -0.090123437 0
0.92457402 -2.3413424 -0.090397857 0
1.1633228 -2.6908448 -0.091372661 0
1.5448194 -3.2493145 -0.090371557 0
2.9281297 -5.2743311 -0.14061998 0
5.8676944 -9.5775356 -0.1408525 0
0.53204423 -1.726095 -0.092088483 0
0.59771937 -1.8172121 -0.091254286 0
0.67904007 -1.9300358 -0.089618482 0
0.79454875 -2.0902917 -0.089761607 0
0.95989144 -2.3196869 -0.090697251 0
1.2049069 -2.6596196 -0.091216601 0
1.6052175 -3.2150075 -0.09083391 0
3.0369258 -5.2013488 -0.14074835 0
6.083261 -9.4278116 -0.1408821 0
0.54812044 -1.7093748 -0.091264613 0
0.6165815 -1.7994744 -0.090682365 0
0.70700783 -1.9184817 -0.090826727 0
0.82657623 -2.0758419 -0.090807088 0
0.98571247 -2.2852762 -0.089259841 0
1.2387307 -2.6182656 -0.089992054 0
1.6617124 -3.1749392 -0.090931974 0
3.1391153 -5.1193042 -0.14050841 0
6.2924094 -9.2692585 -0.14081189 0
0.56596738 -1.6951566 -0.091214515 0
0.63404047 -1.7802025 -0.089842416 0
0.73452342 -1.9057391 -0.091956593 0
0.85004735 -2.0500667 -0.089979328 0
1.0226738 -2.2657344 -0.090115659 0
1.2815472 -2.5891533 -0.090307228 0
1.720224 -3.1372066 -0.091367655 0
3.2446897 -5.0417709 -0.1406849 0
6.5023866 -9.1117172 -0.14092605 0
0.58500636 -1.6823487 -0.091679357 0
0.6559729 -1.7665631 -0.090479173 0
0.75597191 -1.8852293 -0.091589116 0
0.88198978 -2.0347714 -0.091167532 0
1.0513574 -2.2357559 -0.08953581 0
1.322886 -2.5579722 -0.090507187 0
1.7641946 -3.0816622 -0.090317912 0
3.3455727 -4.9582443 -0.1406609 0
6.7006292 -8.9396067 -0.1407592 0
0.59814256 -1.6626965 -0.090345211 0
0.68037081 -1.7554221 -0.091897182 0
0.77347344 -1.8604105 -0.090384401 0
0.90850067 -2.0126755 -0.091255002 0
1.0804431 -2.2065685 -0.089178331 0
1.370393 -2.533534 -0.091681682 0
1.8220649 -3.0428672 -0.090912081 0
3.4431171 -4.8708663 -0.14055344 0
6.9034257 -8.7729254 -0.14091112 0
0.62088996 -1.6537894 -0.09219829 0
0.69523209 -1.733478 -0.090722986 0
0.79103875 -1.8361746 -0.089380212 0
0.93094569 -1.9861429 -0.09061902 0
1.1195011 -2.1882582 -0.090666942 0
1.4072613 -2.4967127 -0.091454722 0
1.8676915 -2.9902549 -0.090337418 0
3.5408728 -4.7837634 -0.14061593 0
7.0949669 -8.5934515 -0.14082079 0
0.62878186 -1.6290944 -0.089564987 0
0.7163071 -1.7182919 -0.091400541 0
0.82513684 -1.8292009 -0.092426546 0
0.95705551 -1.9636399 -0.090870716 0
1.1438859 -2.1540394 -0.089747451 0
1.4491137 -2.4650989 -0.09202332 0
1.9035575 -2.9282248 -0.088937409 0
3.639761 -4.6975989 -0.14090022 0
7.2839179 -8.4113789 -0.14079918 0
0.64962101 -1.6177946 -0.091014124 0
0.73346782 -1.6990374 -0.091136985 0
0.84190142 -1.8041036 -0.091473453 0
0.9808234 -1.9387112 -0.090770625 0
1.170155 -2.1221628 -0.089299165 0
1.4722829 -2.4149077 -0.09025497 0
1.9611453 -2.888588 -0.089840017 0
3.7280853 -4.6006536 -0.14063564 0
7.4645152 -8.2210445 -0.14065833 0
0.66648823 -1.6023487 -0.091365553 0
0.75121588 -1.6803979 -0.091155849 0
0.85829228 -1.7790343 -0.090601988 0
1.0076816 -1.9166483 -0.091384999 0
1.2098025 -2.1028373 -0.091116436 0
1.5057749 -2.3754804 -0.089999981 0
2.5509884 -3.3383076 -0.14140917 0
3.8263028 -4.5130982 -0.1411601 0
7.6512594 -8.036561 -0.14086874 0
0.67874867 -1.582739 -0.090519197 0
0.7635383 -1.6569792 -0.089935161 0
0.88610023 -1.7642921 -0.092383422 0
1.0196791 -1.8812512 -0.089315303 0
1.2240213 -2.0601695 -0.089020513 0
1.5286344 -2.3268831 -0.088556342 0
2.6032507 -3.2677972 -0.14083365 0
3.9137104 -4.4152112 -0.14114256 0
7.8173108 -7.8331304 -0.14058064 0
0.89278734 -1.7312425 -0.089692809 0
1.5678056 -2.2928288 -0.089273803 0
2.6632571 -3.2041974 -0.14113791 0
3.996145 -4.3131027 -0.14097548 0
7.9958825 -7.6407127 -0.14083418 0
1.5975952 -2.2508259 -0.088964365 0
2.7135472 -3.13257 -0.140715 0
4.0716338 -4.2056308 -0.14055407 0
8.1521463 -7.4297543 -0.14056711 0
0.74346232 -1.5461086 -0.029457053 0
2.7664793 -3.0632358 -0.14069042 0
4.1561446 -4.1053915 -0.14082497 0
8.3136129 -7.2232137 -0.14061253 0
0.72615886 -1.5050669 -0.045285318 0
4.2285156 -3.9960554 -0.14054342 0
8.4831963 -7.0221195 -0.14103881 0
8.626462 -6.8019743 -0.14086364 0
0.79421604 -1.4144956 -0.090338983 0
0.89621997 -1.469173 -0.090347327 0
1.0389645 -1.5124135 -0.090064935 0
1.2148492 -1.601055 -0.090060942 0
0.83525473 -1.3089386 -0.08893656 0
0.83973038 -1.2866089 -0.088186987 0
0.95721668 -1.3282547 -0.090119563 0
3.2633231 -2.1457078 -0.14100325 0
0.86054206 -1.2697821 -0.091222711 0
0.96398449 -1.3035369 -0.089826308 0
1.1094531 -1.3510054 -0.090663679 0
1.2826353 -1.4075174 -0.088494487 0
1.5627328 -1.4989173 -0.091029622 0
1.9498678 -1.6252453 -0.090380095 0
3.2916307 -2.0630825 -0.14101566 0
4.9395957 -2.6008379 -0.1408767 0
9.885623 -4.2147999 -0.14077853 0
0.85877728 -1.2454464 -0.089321978 0
0.97932124 -1.2814429 -0.09134277 0
1.1157711 -1.322189 -0.090242498 0
1.3067672 -1.3792236 -0.090546004 0
1.5628419 -1.4556917 -0.089535199 0
1.9524664 -1.5720401 -0.089130603 0
3.3159425 -1.9791965 -0.1408892 0
4.9704728 -2.4732664 -0.14047773 0
9.9663591 -3.9651206 -0.1408392 0
0.86713278 -1.2243093 -0.08979895 0
0.98873425 -1.2573037 -0.091802023 0
1.1137613 -1.2912276 -0.088530339 0
1.3126841 -1.3452018 -0.090035506 0
1.56533 -1.4137529 -0.088471659 0
1.9620115 -1.5213854 -0.088691808 0
3.3329792 -1.8933736 -0.14039052 0
5.0100603 -2.3484201 -0.14065754 0
10.036736 -3.7123203 -0.14080223 0
0.87994558 -1.2041302 -0.091365434 0
0.99419266 -1.2320545 -0.091610201 0
1.1388515 -1.2674119 -0.091546379 0
1.3260298 -1.313162 -0.090727516 0
1.5684147 -1.3724055 -0.087614201 0
1.9719195 -1.4710301 -0.088413827 0
3.3576875 -1.8097391 -0.14060341 0
5.051373 -2.2237091 -0.14107044 0
10.094878 -3.4564409 -0.14062592 0
0.88171202 -1.1811495 -0.090631373 0
0.99928564 -1.2067614 -0.091472171 0
1.1346992 -1.2362593 -0.089728512 0
1.3317689 -1.2791884 -0.090438329 0
1.6071988 -1.3391871 -0.091156788 0
1.9849454 -1.4214743 -0.088556997 0
3.3808963 -1.7255639 -0.14085934 0
5.0749793 -2.0945976 -0.14078782 0
10.173512 -3.2052457 -0.14109229 0
0.88363844 -1.158362 -0.090061314 0
1.011656 -1.1828831 -0.092853196 0
1.1474098 -1.208886 -0.090873159 0
1.3272123 -1.2433262 -0.088800348 0
1.6058946 -1.2967063 -0.090011902 0
2.5373738 -1.4751263 -0.14008196 0
3.3931201 -1.63904 -0.14048371 0
5.1046896 -1.9668821 -0.14095077 0
10.207444 -2.9442878 -0.14064866 0
0.89490455 -1.1372428 -0.091630094 0
1.0103731 -1.1563535 -0.091737173 0
1.1504946 -1.1795443 -0.090524875 0
1.3452504 -1.2117776 -0.090516932 0
1.6107773 -1.2557237 -0.089731999 0
2.5543702 -1.4118936 -0.14060664 0
3.4096303 -1.5534439 -0.14056848 0
5.1207995 -1.836652 -0.14062372 0
10.26475 -2.6880043 -0.14091325 0
0.90200222 -1.1151507 -0.092413329 0
1.0020818 -1.1291301 -0.089419819 0
1.1526253 -1.1501585 -0.090142585 0
1.3580338 -1.1788507 -0.091595061 0
1.6323678 -1.2171705 -0.09154705 0
2.5675821 -1.3478041 -0.14092353 0
3.423485 -1.4673592 -0.14061829 0
5.1449146 -1.7078137 -0.14082891 0
10.303514 -2.4283826 -0.14089379 0
0.90157098 -1.0919982 -0.091703065 0
1.0035166 -1.1036243 -0.089083381 0
1.1595337 -1.1214168 -0.090674631 0
1.3534744 -1.1435342 -0.090334751 0
1.6275967 -1.1747956 -0.090370588 0
2.571605 -1.2824522 -0.14052843 0
3.4435477 -1.3818904 -0.14125791 0
5.1686039 -1.5786192 -0.14116618 0
10.337052 -2.1680393 -0.14090569 0
0.8965627 -1.0685951 -0.090142541 0
1.0105915 -1.0786921 -0.089936055 0
1.1375257 -1.0899318 -0.086554237 0
1.137056 -1.0898902 -0.059313167 0
1.6322917 -1.1337425 -0.090433054 0
2.5789025 -1.2175632 -0.14059582 0
3.4529128 -1.294955 -0.14129688 0
5.1710639 -1.4470941 -0.14066309 0
10.361683 -1.9067137 -0.14086322 0
0.90333086 -1.0462924 -0.091218628 0
1.0076965 -1.0528849 -0.089024656 0
1.1341599 -1.0608734 -0.085641392 0
1.1294078 -1.0605732 -0.057929698 0
1.6394808 -1.0927935 -0.090908952 0
2.5786822 -1.1521208 -0.14011329 0
3.4591582 -1.2077388 -0.14127113 0
5.1829772 -1.3166288 -0.14075679 0
10.370416 -1.6443087 -0.14060426 0
0.90509838 -1.0235302 -0.091349788 0
1.0218986 -1.0279533 -0.091459535 0
1.1316838 -1.0321107 -0.08499644 0
1.1272895 -1.0319443 -0.057429392 0
1.6497667 -1.0517298 -0.091867544 0
2.5841951 -1.0871153 -0.14032117 0
3.4653914 -1.1204848 -0.14139861 0
5.1867347 -1.1856697 -0.14062393 0
10.386763 -1.3825873 -0.14067689 0
0.89815891 -1.0006126 -0.089752145 0
1.0184495 -1.0021304 -0.090687327 0
1.1314789 -1.0035565 -0.084844358 0
1.1347784 -1.0035981 -0.058381055 0
1.1278555 -1.0035107 -0.030742412 0
1.1325352 -1.0035698 -0.0046582948 0
1.1292095 -1.0035279 0.022089833 0
1.1260905 -1.0034885 0.048586834 0
1.1314642 -1.0035563 0.074683912 0
1.1281692 -1.0035148 0.10100258 0
1.138857 -1.0036496 0.1274938 0
1.1313264 -1.0035546 0.15366243 0
1.1316644 -1.0035589 0.18008746 0
1.1279764 -1.0035123 0.20623845 0
1.1245245 -1.0034688 0.2323589 0
1.1273811 -1.0035048 0.2593478 0
1.1351323 -1.0036026 0.28745216 0
1.1311692 -1.0035526 0.31392747 0
0.89949358 -0.97795528 -0.090035863 0
1.0151205 -0.97649634 -0.090060242 0
1.1226866 -0.97513914 -0.083399214 0
1.1239738 -0.97512293 -0.056862537 0
1.6525197 -0.968454 -0.092066549 0
2.6011519 -0.95648462 -0.1417504 0
3.4630718 -0.94560933 -0.14108212 0
5.1963959 -0.92373914 -0.14091992 0
10.413738 -0.85790932 -0.14115027 0
0.90264308 -0.95514745 -0.090827502 0
1.0186437 -0.95075464 -0.090846024 0
1.1397198 -0.94616967 -0.086318113 0
1.1192609 -0.94694442 -0.056300271 0
1.6440891 -0.92706996 -0.091203503 0
2.5881553 -0.89131951 -0.14069106 0
3.4664135 -0.85806113 -0.14147012 0
5.1847858 -0.79298884 -0.14053313 0
10.392259 -0.59578925 -0.14080477 0
0.90458488 -0.93221313 -0.091485716 0
1.0259509 -0.92454666 -0.092469729 0
1.1186066 -0.91869378 -0.083080076 0
1.1399124 -0.91734797 -0.059408907 0
1.6328522 -0.88620996 -0.090132706 0
2.5721247 -0.82687801 -0.13949999 0
3.4581091 -0.77091223 -0.14119762 0
5.175755 -0.66241205 -0.14041989 0
10.3741 -0.33404323 -0.14069009 0
0.90545011 -0.90920269 -0.092039056 0
1.0243376 -0.89867544 -0.09253528 0
1.1535734 -0.88723183 -0.089202024 0
1.3559084 -0.86931545 -0.090189867 0
1.6336572 -0.84472132 -0.090593271 0
2.5876098 -0.76025057 -0.14141174 0
3.4535711 -0.68357134 -0.14134309 0
5.1661205 -0.53192824 -0.14043206 0
10.356403 -0.072338432 -0.14074001 0
0.89657068 -0.88715672 -0.09063331 0
1.0113838 -0.87406319 -0.090574779 0
1.1547704 -0.85771114 -0.089886688 0
1.3452091 -0.83599311 -0.089165695 0
1.6413561 -0.80221993 -0.091989107 0
2.5768065 -0.69553924 -0.14101709 0
3.432677 -0.59793401 -0.14049302 0
5.1572866 -0.40125611 -0.14063589 0
10.327337 0.18834689 -0.14067838 0
0.8835426 -0.86601245 -0.088451423 0
1.0041143 -0.84917068 -0.08980637 0
1.1542538 -0.82819873 -0.090412848 0
1.3457677 -0.80144745 -0.089854516 0
1.6379975 -0.76062793 -0.092211403 0
2.5682435 -0.63068825 -0.14098586 0
3.4367547 -0.50937194 -0.14155498 0
5.1404667 -0.27139226 -0.14061983 0
10.290761 0.44801667 -0.14059442 0
0.89724499 -0.84095454 -0.092134349 0
1.0058532 -0.82297927 -0.090874262 0
1.1476108 -0.79951763 -0.090044446 0
1.3363181 -0.76828551 -0.089244567 0
1.611298 -0.7227748 -0.08979369 0
2.5560796 -0.56640816 -0.14076836 0
3.423213 -0.42289272 -0.14153096 0
5.126318 -0.14101943 -0.14088412 0
10.26342 0.70919961 -0.14088193 0
0.88565457 -0.8198365 -0.090497665 0
0.99915272 -0.79809654 -0.090455376 0
1.1405931 -0.77100438 -0.089732461 0
1.3326349 -0.73421979 -0.089576267 0
1.3423657 -0.73235589 -0.058652494 0
1.3513647 -0.73063219 -0.027366957 0
1.3462317 -0.73161542 0.0052145142 0
1.3473066 -0.73140949 0.037152912 0
1.3558397 -0.72977501 0.068896495 0
1.3481891 -0.73124045 0.10100956 0
0.88861042 -0.79593247 -0.092132099 0
0.99860746 -0.77197111 -0.091341443 0
1.1304101 -0.74325967 -0.089007057 0
1.2060757 -0.7267769 -0.072359823 0
1.2078756 -0.72638476 -0.043392081 0
1.2124352 -0.72539151 -0.014759621 0
1.2108908 -0.72572798 0.014402198 0
1.2062624 -0.72673619 0.043542728 0
1.2053858 -0.72692716 0.072310582 0
1.2034099 -0.72735757 0.10100553 0
0.87046969 -0.77677059 -0.089291923 0
0.99523795 -0.74627477 -0.091812871 0
1.1230556 -0.71503365 -0.088873856 0
1.2042313 -0.69519269 -0.073106728 0
1.2010885 -0.69596082 -0.043419827 0
1.2031966 -0.6954456 -0.014548777 0
1.2122095 -0.69324267 0.013800995 0
1.2081665 -0.69423085 0.043115601 0
1.2135255 -0.69292098 0.071948133 0
1.2091684 -0.69398594 0.1010059 0
0.87342387 -0.75256842 -0.091184549 0
0.98626614 -0.72195065 -0.091320343 0
1.1142833 -0.68721545 -0.08861924 0
1.2027029 -0.66322434 -0.074020483 0
1.2091944 -0.66146296 -0.045343954 0
1.2058984 -0.66235727 -0.015564142 0
1.1961265 -0.66500872 0.01439699 0
1.2066371 -0.66215682 0.042811718 0
1.2186379 -0.65890062 0.071635529 0
1.1989187 -0.66425109 0.10100583 0
0.87141556 -0.72936422 -0.092125632 0
0.96726418 -0.70074224 -0.08897271 0
1.1176751 -0.65582705 -0.090569086 0
1.2102168 -0.6281926 -0.076385267 0
1.218979 -0.62557608 -0.047593225 0
1.2072957 -0.62906492 -0.016541166 0
1.2126153 -0.62747639 0.012569251 0
1.2030808 -0.63032353 0.042564832 0
1.2140489 -0.62704825 0.0715352 0
1.2047714 -0.62981868 0.10100626 0
0.85537469 -0.7104888 -0.090067334 0
0.96987224 -0.67312652 -0.090992816 0
1.1054362 -0.62888998 -0.08996924 0
1.2015814 -0.59751642 -0.076512463 0
1.2152375 -0.5930602 -0.048309121 0
1.2052416 -0.59632206 -0.017269572 0
1.2075249 -0.59557694 0.012243899 0
1.2021813 -0.59732062 0.042146605 0
1.1962709 -0.59924924 0.071737014 0
1.2060943 -0.59604377 0.10100659 0
0.85056937 -0.6881336 -0.090631403 0
0.95688915 -0.65044606 -0.090054102 0
1.1047269 -0.59804153 -0.091492482 0
1.2137784 -0.55938572 -0.079861917 0
1.221957 -0.55648661 -0.050429914 0
1.2077549 -0.56152087 -0.018538347 0
1.2068524 -0.56184077 0.011528471 0
1.2075886 -0.56157988 0.041372154 0
1.2061604 -0.56208611 0.071240917 0
1.2081857 -0.56136823 0.10100696 0
0.83982766 -0.66789401 -0.08997748 0
0.94782758 -0.62651491 -0.090012185 0
1.0929768 -0.57090247 -0.091223694 0
1.217778 -0.52308613 -0.082154386 0
1.214116 -0.52448916 -0.050863925 0
1.2147284 -0.5242545 -0.02035263 0
1.2033331 -0.52862048 0.010955783 0
1.2010818 -0.52948308 0.041139383 0
1.2096925 -0.52618396 0.070875041 0
1.2013115 -0.5293951 0.1010071 0
0.83258694 -0.64636296 -0.090238564 0
0.94084716 -0.60172004 -0.090516277 0
1.0897015 -0.5403375 -0.092579909 0
1.2073548 -0.49182126 -0.082416914 0
1.2012577 -0.49433547 -0.050769795 0
1.2118266 -0.48997721 -0.021283327 0
1.2129703 -0.48950556 0.0093191285 0
1.2139468 -0.48910287 0.039888069 0
1.205561 -0.49256092 0.070675403 0
1.1973259 -0.49595681 0.10100734 0
0.82316202 -0.62571424 -0.090120561 0
0.93209147 -0.57754481 -0.090788595 0
1.0714498 -0.51591945 -0.091397904 0
1.2064722 -0.45621148 -0.084269024 0
1.2028177 -0.45782748 -0.052613858 0
1.2034097 -0.4575657 -0.021749405 0
1.2096024 -0.45482722 0.0085831676 0
1.2144758 -0.45267221 0.039199073 0
1.2047429 -0.45697615 0.070367835 0
1.1974063 -0.46022049 0.10100774 0
0.81467384 -0.60463774 -0.090343229 0
0.92494977 -0.55250776 -0.091526844 0
1.0530237 -0.49196431 -0.090281405 0
1.2256953 -0.41033843 -0.089407615 0
1.4709804 -0.29438654 -0.089063294 0
1.846377 -0.11692783 -0.089556687 0
3.1239135 0.48699322 -0.14051753 0
4.6924009 1.2284534 -0.1406114 0
9.3939285 3.4509742 -0.14059217 0
0.8113001 -0.5809083 -0.091911964 0
0.90851831 -0.53191274 -0.090447627 0
1.0439737 -0.46364662 -0.090986855 0
1.2196616 -0.37510434 -0.090818264 0
1.4553342 -0.25633124 -0.089371495 0
1.8445288 -0.060186829 -0.091725551 0
3.0899403 0.56746954 -0.14085174 0
4.6368628 1.34708 -0.14071102 0
9.282198 3.6882131 -0.14067788 0
0.79454893 -0.56391066 -0.09041927 0
0.91060489 -0.50170088 -0.093421452 0
1.0309035 -0.43721697 -0.091084652 0
1.1914945 -0.35113505 -0.088859789 0
1.4405926 -0.21761033 -0.089930408 0
1.8123002 -0.018363144 -0.090857185 0
3.0463965 0.64315253 -0.14059144 0
4.5766654 1.4634259 -0.14072303 0
9.1543312 3.9172027 -0.14049602 0
0.77887702 -0.54668987 -0.089273147 0
0.88510579 -0.486249 -0.090624429 0
1.0092783 -0.41559872 -0.089691438 0
1.1886022 -0.31356904 -0.091056846 0
1.2139602 -0.29914114 -0.062135641 0
1.2228309 -0.294094 -0.030246159 0
3.005218 0.72002894 -0.1406702 0
4.5118575 1.5772598 -0.14064448 0
9.0331564 4.1497383 -0.14064407 0
0.77459961 -0.52290058 -0.091044702 0
0.88252413 -0.4578366 -0.092909969 0
1.0129752 -0.37919226 -0.093240343 0
1.163403 -0.28850457 -0.089781485 0
1.1410103 -0.30200437 -0.054609288 0
1.2028464 -0.26472554 -0.03002218 0
2.9699199 0.80058163 -0.14138742 0
4.4415889 1.6877997 -0.14042293 0
8.8981066 4.3744788 -0.14057589 0
0.75350094 -0.50932413 -0.088754244 0
0.86110806 -0.44069132 -0.091183923 0
0.98685378 -0.36048958 -0.091211893 0
1.1423789 -0.26129434 -0.089286007 0
1.1499258 -0.25648084 -0.058299322 0
1.1730902 -0.2417064 -0.028794175 0
2.9111607 0.86685044 -0.14033818 0
4.3723426 1.7988052 -0.14040706 0
8.7718096 4.6048245 -0.14090319 0
0.74576843 -0.48737851 -0.089937724 0
0.84260768 -0.42211887 -0.090188004 0
0.96526283 -0.33946207 -0.090139337 0
1.1284533 -0.2294887 -0.090100445 0
1.1404104 -0.22143081 -0.059615646 0
1.1602697 -0.20804772 -0.029516241 0
2.8789661 0.95017511 -0.14165029 0
4.3044014 1.9107702 -0.14062022 0
