# .PCD v0.7 - Point Cloud Data file format
VERSION 0.7
FIELDS x y z intensity
SIZE 4 4 4 4
TYPE F F F F
COUNT 1 1 1 1
WIDTH 1361
HEIGHT 1
VIEWPOINT 0 0 0 1 0 0 0
POINTS 1361
DATA ascii
0.43747556 -1.3020877 -0.04992491 0
0.45723361 -1.3041128 -0.050003871 0
0.4772073 -1.3116705 -0.050289344 0
0.49672478 -1.3030888 -0.050007269 0
0.51663798 -1.3055544 -0.050128754 0
0.53537554 -1.2889181 -0.049575858 0
0.55503917 -1.2889458 -0.049627628 0
0.57535964 -1.2957135 -0.049929962 0
0.59490186 -1.2929299 -0.049899034 0
0.61513054 -1.2961743 -0.050093569 0
0.63363481 -1.2850418 -0.049780011 0
0.65489882 -1.2948052 -0.050227843 0
0.67366868 -1.2864506 -0.050031614 0
0.69387263 -1.2874265 -0.050181311 0
0.71261644 -1.279743 -0.050026376 0
0.73084909 -1.2699864 -0.049804244 0
0.75211728 -1.2756134 -0.050150804 0
0.76923221 -1.2612721 -0.049778055 0
0.78789932 -1.2547064 -0.049697191 0
0.80781978 -1.2534347 -0.049819402 0
0.82847279 -1.254619 -0.050041869 0
0.84568971 -1.2426645 -0.049788333 0
0.86730909 -1.2466458 -0.050133932 0
0.88560849 -1.238757 -0.050048362 0
0.90349525 -1.2297494 -0.049929183 0
0.9245491 -1.2306241 -0.050189387 0
0.94121724 -1.2181416 -0.049956538 0
0.96178079 -1.217042 -0.050162122 0
0.97703922 -1.2012371 -0.049818452 0
0.99702239 -1.1983398 -0.049974382 0
0.92709029 -1.0171279 0.46299392 0
1.0159786 -1.1925738 -0.050030433 0
0.93750775 -0.99661797 0.45791161 0
1.0307271 -1.1765611 -0.049699888 0
0.96292555 -1.0132376 0.46622473 0
1.0475667 -1.1659936 -0.049586352 0
0.97309387 -0.99279171 0.46127549 0
1.0728142 -1.1745108 -0.050226212 0
0.98931623 -0.9868657 0.46163228 0
1.0886321 -1.161448 -0.050034154 0
1.0048324 -0.97933382 0.46147767 0
1.102369 -1.1443172 -0.049687982 0
1.0236132 -0.97868854 0.46393082 0
1.1196821 -1.1350161 -0.049657933 0
1.0429332 -0.97871393 0.46673515 0
1.1401143 -1.1319104 -0.049884353 0
1.0614462 -0.97667116 0.46887651 0
1.1562182 -1.120172 -0.04977484 0
1.0867403 -0.98724598 0.47585589 0
1.1715771 -1.1072073 -0.049623046 0
1.1030105 -0.97995418 0.47625062 0
1.193971 -1.1071284 -0.050004244 0
1.1315542 -0.99470204 0.057413392 0
1.1312852 -0.99421746 0.16070686 0
1.1343776 -0.99978739 0.26676899 0
1.1381326 -1.0065509 0.37687308 0
1.1263081 -0.98525244 0.48151672 0
1.2088475 -1.0933536 -0.049836505 0
1.1451055 -0.98187155 0.0572518 0
1.1440063 -0.97994894 0.16004199 0
1.1367974 -0.96734113 0.26188505 0
1.1424614 -0.97724718 0.37090153 0
1.1470379 -0.98525113 0.48490191 0
1.2272959 -1.0858746 -0.049936064 0
1.1685681 -0.98609906 0.057802707 0
1.1639891 -0.97831947 0.16096821 0
1.1677037 -0.98463053 0.26737931 0
1.1633731 -0.97727317 0.37358463 0
1.1700026 -0.9885363 0.48968136 0
1.2413847 -1.0710562 -0.049739704 0
1.2558572 -1.0571096 -0.049585901 0
1.2745419 -1.0499332 -0.0497256 0
1.2955972 -1.0461719 -0.050022472 0
1.3132893 -1.0370617 -0.050102677 0
1.3263918 -1.0212458 -0.049901657 0
1.3438108 -1.0117129 -0.049981657 0
1.3652242 -1.0075266 -0.050308775 0
1.368492 -0.97884876 -0.049556527 0
1.3948033 -0.98085302 -0.050183117 0
1.4088217 -0.96664077 -0.050092094 0
1.2125615 -0.71917176 0.050815973 0
1.1985989 -0.70156592 0.13849176 0
1.4225289 -0.95214278 -0.049995072 0
1.2115793 -0.69292378 0.050063461 0
1.2056948 -0.68569273 0.13763948 0
1.4325056 -0.93327874 -0.049701951 0
1.2115611 -0.66865468 0.049394459 0
1.2065279 -0.6626265 0.13578358 0
1.4536315 -0.92774433 -0.05003811 0
1.2004707 -0.63218033 0.048144463 0
1.2023494 -0.63437372 0.13317513 0
1.4674895 -0.9135738 -0.049980167 0
1.2021526 -0.61157519 0.047628123 0
1.2127213 -0.6236043 0.13303131 0
1.4812607 -0.89936322 -0.049927976 0
1.206744 -0.59473926 0.047288049 0
1.2100232 -0.598378 0.13081318 0
1.5036612 -0.89453894 -0.050339866 0
1.5021044 -0.86401302 -0.04950621 0
1.5239593 -0.85841054 -0.049902238 0
1.5373094 -0.84387666 -0.049866818 0
1.5511601 -0.82986289 -0.049866021 0
1.5709616 -0.8215217 -0.050167594 0
1.5842123 -0.80679303 -0.050151419 0
1.5980045 -0.79256648 -0.050170515 0
1.6097875 -0.77654129 -0.050102238 0
1.6256784 -0.76411659 -0.050237887 0
1.6346604 -0.74575728 -0.050057262 0
1.6488565 -0.73182923 -0.050129842 0
1.6605532 -0.71583652 -0.050095569 0
1.6651131 -0.69431937 -0.049747989 0
1.6803104 -0.68116689 -0.049892399 0
1.7001152 -0.67128491 -0.050247319 0
1.7014639 -0.64782315 -0.049793039 0
1.7108846 -0.63039863 -0.049707435 0
1.726 -0.61692351 -0.049878098 0
1.7388842 -0.60182071 -0.049959064 0
1.7632747 -0.59406888 -0.050536338 0
1.760466 -0.56876791 -0.049966861 0
1.7744597 -0.55418295 -0.050117776 0
1.7800202 -0.53447109 -0.049925212 0
1.7978469 -0.52197707 -0.050249659 0
1.800691 -0.50083745 -0.049965411 0
1.8118376 -0.48442963 -0.050031226 0
1.8229728 -0.46795985 -0.05010451 0
1.8307637 -0.44972059 -0.050051607 0
1.8323872 -0.42846689 -0.049762525 0
1.8488779 -0.41456261 -0.050074421 0
1.8558404 -0.39599165 -0.050016418 0
1.8712202 -0.38123932 -0.050297301 0
1.8733034 -0.36050078 -0.050066467 0
1.8747251 -0.33965829 -0.049821377 0
1.8836509 -0.32203129 -0.049876619 0
1.8894342 -0.30313513 -0.049819719 0
1.9024569 -0.28699389 -0.050048213 0
1.9129319 -0.26975879 -0.050186712 0
1.9210484 -0.25159952 -0.050243717 0
1.9321241 -0.23437871 -0.050420437 0
1.9360737 -0.21475293 -0.050337575 0
1.9272362 -0.19128679 -0.049787015 0
1.9415176 -0.17495267 -0.050109118 0
1.9436786 -0.15501578 -0.049988668 0
1.9527004 -0.13697486 -0.050131232 0
1.961024 -0.11865208 -0.050256025 0
1.9532623 -0.096419372 -0.04979872 0
1.9706842 -0.080154844 -0.05027432 0
1.9617956 -0.057997983 -0.04979619 0
1.9677805 -0.039121937 -0.049870685 0
1.9633915 -0.018273961 -0.049577035 0
1.9747542 -0.00033659799 -0.04986411 0
1.9721409 0.020027015 -0.049653579 0
1.9828655 0.038298745 -0.04993391 0
1.979899 0.058593813 -0.049728982 0
1.9877642 0.077444546 -0.049923044 0
1.9976987 0.096213765 -0.050199673 0
1.9909096 0.11676616 -0.049884729 0
1.9980092 0.13595954 -0.050076898 0
1.9904542 0.15630843 -0.0497531 0
1.987353 0.17617908 -0.049597967 0
1.9945648 0.19548851 -0.049820408 0
2.0001361 0.2150097 -0.049992856 0
1.9935719 0.23488492 -0.049740706 0
1.9957877 0.2545301 -0.04981098 0
1.9968088 0.27422047 -0.049847431 0
1.9981761 0.29394621 -0.04990511 0
2.0019221 0.31379068 -0.050056655 0
1.9930949 0.3331908 -0.049767882 0
1.993959 0.35293975 -0.049834184 0
1.9931822 0.37262493 -0.049850728 0
1.9972224 0.39272007 -0.050048709 0
1.9871155 0.41161862 -0.04974867 0
1.9871129 0.43139306 -0.049819574 0
1.9958012 0.45226559 -0.050212041 0
1.9842088 0.47072348 -0.0498842 0
1.9794629 0.48994923 -0.049811151 0
1.980543 0.51005059 -0.049957301 0
1.9692284 0.52813226 -0.049663946 0
1.9703127 0.54829597 -0.049828306 0
1.9743021 0.56915534 -0.050108023 0
1.9612162 0.58661997 -0.049775049 0
1.9656664 0.60777503 -0.050090741 0
1.9596525 0.6266796 -0.050033193 0
1.9470681 0.64389902 -0.049742378 0
1.9484534 0.66459769 -0.049974415 0
1.9292734 0.67976201 -0.049454942 0
1.9313645 0.70074087 -0.049731594 0
1.9449655 0.72543567 -0.050448731 0
1.924443 0.73979074 -0.049901769 0
1.9218869 0.759718 -0.050035268 0
1.9164262 0.77874142 -0.050069064 0
1.9145061 0.79907095 -0.050246462 0
1.8956367 0.81317973 -0.049788158 0
1.8890761 0.83173972 -0.049805995 0
1.8780991 0.8485319 -0.04966284 0
1.8733273 0.86781693 -0.049767271 0
1.8711739 0.88832128 -0.049983595 0
1.8657758 0.90754026 -0.050084252 0
1.8616066 0.92741108 -0.050243359 0
1.8410798 0.9395687 -0.049765691 0
1.8347359 0.95837349 -0.049856082 0
1.8313091 0.97874326 -0.050073467 0
1.8232247 0.99683666 -0.050114676 0
1.8106114 1.012508 -0.049981412 0
1.8066626 1.0329214 -0.050209686 0
1.7909328 1.046739 -0.0499648 0
1.7828532 1.0648948 -0.050042789 0
1.7718534 1.0813373 -0.050008781 0
1.7545303 1.0937879 -0.049716692 0
1.750108 1.1143193 -0.049976949 0
1.7385274 1.1303283 -0.049943782 0
1.7354629 1.1521151 -0.0502869 0
1.721753 1.1667501 -0.050181057 0
1.705081 1.1791675 -0.049952079 0
1.6963834 1.1972744 -0.050081722 0
1.6707109 1.2026367 -0.049462404 0
1.6753242 1.2310058 -0.050209831 0
1.6536381 1.2390609 -0.049779683 0
1.6447411 1.2572026 -0.049939923 0
1.6241078 1.2656342 -0.049565177 0
1.6159931 1.284512 -0.049781375 0
1.611046 1.3063982 -0.050162211 0
1.598832 1.3220611 -0.050210398 0
1.5847099 1.336 -0.050175682 0
1.5688531 1.3482547 -0.050063569 0
1.5493764 1.3568622 -0.049776938 0
1.5423653 1.3776927 -0.050122488 0
1.5267873 1.3900641 -0.050047092 0
1.5087347 1.3997521 -0.0498503 0
1.0265379 0.89103574 0.29326326 0
1.4996581 1.418952 -0.050129313 0
1.0431155 0.92498964 0.30527964 0
1.4841292 1.4312905 -0.050080955 0
1.4417396 1.3842518 0.059820324 0
1.4440354 1.3867996 0.16838044 0
1.4368447 1.3788201 0.27656016 0
1.0490729 0.94851983 0.31239817 0
1.4697425 1.4448823 -0.050102033 0
1.4165169 1.3843024 0.059223063 0
1.415002 1.3825781 0.1659673 0
1.4126157 1.3798621 0.27379575 0
1.0571731 0.975308 0.32084781 0
1.4464399 1.4480922 -0.049643427 0
1.3978962 1.3914177 0.058979318 0
1.3916236 1.3840946 0.16444398 0
1.3906664 1.382977 0.27162606 0
1.0560268 0.99228692 0.32486492 0
1.4428154 1.4743708 -0.050276242 0
1.3670566 1.3836349 0.058056179 0
1.3632504 1.3790762 0.16206312 0
1.370445 1.3876933 0.26992059 0
1.0653752 1.0223126 0.33450094 0
1.4254888 1.4845241 -0.05016249 0
1.3428395 1.3829631 0.05748773 0
1.3399372 1.3793967 0.16049604 0
1.3388894 1.378109 0.26496685 0
1.0532237 1.0270774 0.33315271 0
1.4078919 1.4942124 -0.050038673 0
1.3181406 1.3810431 0.05688202 0
1.3197663 1.383093 0.15944804 0
1.3225774 1.3866374 0.26432341 0
1.0555083 1.0498838 0.339544 0
1.3865701 1.498943 -0.04970241 0
1.2932707 1.3782078 0.056254979 0
1.2997396 1.3865789 0.15841629 0
1.3060422 1.3947349 0.26363504 0
1.0545837 1.069332 0.34444925 0
1.3755337 1.5169463 -0.049974505 0
1.2754785 1.3840431 0.056035385 0
1.2755445 1.3841308 0.1566301 0
1.2710998 1.378227 0.25744587 0
1.0371883 1.0675225 0.34046066 0
1.3618808 1.5317113 -0.05010692 0
1.251596 1.3813158 0.0554487 0
1.256223 1.3876258 0.15569313 0
1.2502893 1.379534 0.25539663 0
1.0367312 1.0883048 0.34591988 0
1.3350364 1.52817 -0.049442627 0
1.2408215 1.3962371 0.055654753 0
1.243467 1.3999417 0.15596172 0
1.2476163 1.4057523 0.25894472 0
1.0249246 1.0939082 0.34512731 0
1.3213929 1.5428002 -0.049589023 0
1.2479227 1.4371283 0.05699417 0
1.2410475 1.4272398 0.15821014 0
1.2515323 1.4423201 0.26474261 0
1.0106106 1.0958037 0.34289971 0
1.3146404 1.5678023 -0.050188739 0
1.2421347 1.4606645 0.057570204 0
1.2436782 1.4629453 0.16153444 0
1.2489346 1.4707123 0.26870021 0
1.0018966 1.1056772 0.3439686 0
1.2945147 1.5732722 -0.049952198 0
1.2431164 1.4952242 0.058615845 0
1.2493596 1.5047047 0.16560602 0
1.2472638 1.5015221 0.27315426 0
1.1649253 1.3764915 0.34573722 0
0.99473274 1.118055 0.34607017 0
1.2728485 1.5760342 -0.049613532 0
1.2419717 1.5278376 0.059570037 0
1.2363465 1.519057 0.16613774 0
1.2244489 1.5004857 0.2707561 0
1.1478827 1.380971 0.34432706 0
0.99071068 1.1356356 0.35024637 0
1.2605677 1.5934143 -0.049903922 0
1.2450093 1.5684422 0.060853511 0
1.246799 1.5713147 0.17148572 0
1.2048 1.503903 0.26938435 0
1.1324556 1.3877851 0.34369451 0
0.97636455 1.1372471 0.34815025 0
1.2485914 1.611699 -0.050236341 0
1.1920292 1.5183127 0.2703931 0
1.1081847 1.3798823 0.33873516 0
0.96329474 1.1406635 0.34684268 0
0.84162575 0.93978357 0.47429386 0
1.2310151 1.6209375 -0.050197825 0
1.1790642 1.5326755 0.27141839 0
1.0862267 1.3749493 0.33478242 0
0.9537496 1.1498772 0.34784651 0
0.84347624 0.96252817 0.48643786 0
1.210483 1.6249582 -0.049954135 0
1.1553828 1.5285902 0.26863784 0
1.0756404 1.3891242 0.33655524 0
0.95146668 1.1719493 0.35381722 0
0.85058784 0.99551636 0.35470921 0
0.84185076 0.98023552 0.41858923 0
0.83826798 0.9739694 0.49075696 0
1.195945 1.6394281 -0.05014943 0
1.1388053 1.5365069 0.26841411 0
1.0524616 1.380983 0.33184263 0
0.93781817 1.1744847 0.35232309 0
0.84888345 1.0142939 0.36113632 0
0.84154737 1.0010799 0.42760113 0
0.84105521 1.0001935 0.50511801 0
1.1716137 1.6360195 -0.049625803 0
1.1315638 1.5616904 0.27177218 0
1.0314745 1.375934 0.32814291 0
0.92150956 1.1718494 0.34895009 0
0.85151774 1.0419511 0.37170637 0
0.83778763 1.0164692 0.43345395 0
0.83849615 1.0177844 0.51354247 0
1.1553664 1.6472865 -0.04970919 0
1.1101333 1.5607462 0.26980984 0
1.017687 1.3838768 0.32828385 0
0.90630591 1.1707814 0.34626493 0
0.84737056 1.0580256 0.3767803 0
0.84197783 1.0477082 0.4482432 0
0.83654088 1.0373061 0.52322543 0
1.1403512 1.6611221 -0.049903061 0
1.0959507 1.5735047 0.2706852 0
1.0070206 1.3980149 0.33024573 0
0.90152925 1.1898441 0.35117677 0
0.84999955 1.0881584 0.38837165 0
0.84067994 1.0697676 0.45775989 0
0.83760816 1.0637059 0.53743607 0
1.1216128 1.6676924 -0.049814329 0
1.0770591 1.576957 0.26972142 0
0.98278463 1.384963 0.3245056 0
0.88410312 1.1839941 0.34684706 0
0.84330356 1.1009041 0.39185631 0
0.83703697 1.0881419 0.46517295 0
0.83931285 1.0927768 0.55331498 0
1.1076484 1.6841644 -0.050126903 0
0.96215898 1.3781905 0.32066014 0
0.87928289 1.2038965 0.35211122 0
0.83774513 1.1165401 0.39668399 0
0.83796817 1.117009 0.47838047 0
0.83841515 1.117949 0.5665248 0
1.0852337 1.6828068 -0.049743917 0
0.95134008 1.3918279 0.32264215 0
0.85853195 1.1901364 0.34503916 0
0.84272248 1.1557792 0.41227338 0
0.84145409 1.1530228 0.49544138 0
0.83866662 1.1469649 0.58217496 0
1.0710715 1.6993387 -0.050073173 0
0.93070638 1.3838959 0.31862792 0
0.85128367 1.2054093 0.34867424 0
0.83977544 1.179547 0.42073587 0
0.83924055 1.1783447 0.50652766 0
0.8401075 1.1802931 0.60053474 0
1.0503221 1.7011461 -0.049835395 0
0.91391581 1.3839052 0.31691319 0
0.84632099 1.2266995 0.35450199 0
0.83852285 1.2085632 0.43153489 0
0.83464426 1.1995429 0.51532328 0
0.84156752 1.2156442 0.62008971 0
1.0344583 1.7142931 -0.050047316 0
0.89736164 1.3840488 0.31530303 0
0.84926426 1.2681897 0.36759844 0
0.8423332 1.2514938 0.44852245 0
0.8391338 1.2437869 0.53658944 0
0.84141374 1.249279 0.63842863 0
1.0158151 1.72091 -0.050014738 0
0.87939394 1.3802414 0.31267256 0
0.85023969 1.307438 0.37981227 0
0.83935958 1.2802684 0.45908955 0
0.83928794 1.2800895 0.55343795 0
0.84263384 1.2884448 0.66021001 0
0.99356526 1.7181258 -0.049631573 0
0.86517352 1.3854299 0.31257701 0
0.84573048 1.3350481 0.38781226 0
0.84341669 1.3290526 0.4785023 0
0.84082383 1.3223337 0.57339025 0
0.83933592 1.3184781 0.67607075 0
0.9784525 1.7337854 -0.049963329 0
0.84654462 1.378732 0.30929562 0
0.83899271 1.3584048 0.3942855 0
0.84225661 1.3671901 0.49309939 0
0.84042776 1.3622675 0.59200591 0
0.8384071 1.3568286 0.69714564 0
0.95469487 1.7259516 -0.049410164 0
0.83282781 1.3848283 0.30955893 0
0.83688021 1.3961715 0.40585065 0
0.8390165 1.4021512 0.50624084 0
0.83625937 1.3944336 0.60641372 0
0.94265234 1.7510684 -0.050114408 0
0.81659067 1.3836664 0.30791 0
0.83762765 1.444978 0.42125836 0
0.83982295 1.451376 0.52558714 0
0.84292632 1.4604207 0.6386776 0
0.92425084 1.7584621 -0.050155323 0
1.031454 2.0842063 0.35152155 0
0.80228287 1.387854 0.30775976 0
0.84575093 1.5199347 0.4457581 0
0.83914566 1.4998641 0.54452801 0
0.83860046 1.4982073 0.65590948 0
0.90158337 1.7524281 -0.049702134 0
1.0035852 2.0760338 0.3485775 0
0.78631419 1.3867307 0.30623776 0
0.84005558 1.5572281 0.45698699 0
0.83863264 1.5527138 0.56529093 0
0.83819556 1.551327 0.68114555 0
0.88257724 1.7574445 -0.049673371 0
0.98310357 2.0909588 0.35006151 0
0.77045554 1.3854603 0.30473596 0
0.84315068 1.6266397 0.4793587 0
0.83913583 1.6133196 0.58933204 0
0.8665821 1.7728634 -0.050040066 0
0.96247387 2.106132 0.35163522 0
0.75801277 1.395534 0.30630443 0
0.83848089 1.6751984 0.49441689 0
0.84121919 1.6847153 0.61793214 0
0.85057831 1.7892407 -0.050448451 0
0.73976386 1.385023 0.047484893 0
0.73858625 1.3807275 0.13040064 0
0.74038941 1.387305 0.21599187 0
0.73997003 1.3857752 0.30266234 0
0.8382262 1.7441839 0.51649016 0
0.83473581 1.7314521 0.63583606 0
0.82671499 1.7766194 -0.049793061 0
0.72363728 1.3811607 0.04720296 0
0.72317261 1.379378 0.12983261 0
0.72432172 1.3837866 0.21463029 0
0.72602415 1.390318 0.30286294 0
0.82832336 1.7827899 0.52804744 0
0.83106542 1.7933098 0.66018611 0
0.80857021 1.7852138 -0.049931016 0
0.71033204 1.3878905 0.047318913 0
0.71072006 1.3894596 0.13055336 0
0.70736408 1.3758863 0.21249656 0
0.70865685 1.381115 0.29949653 0
0.82639223 1.8572949 0.55191457 0
0.82620811 1.8565503 0.68506992 0
0.79286528 1.804679 -0.050475538 0
0.69399989 1.3820496 0.046979778 0
0.69456357 1.3844593 0.12962475 0
0.69306272 1.3780434 0.21227148 0
0.69321799 1.3787072 0.29797789 0
0.81684959 1.9072071 0.56731713 0
0.77243358 1.8045226 -0.05030841 0
0.67938399 1.3828866 0.046893261 0
0.68017757 1.3864826 0.12949412 0
0.67855471 1.3791288 0.21188243 0
0.67945707 1.3832177 0.2983219 0
0.80508202 1.9524629 0.58113158 0
0.75191933 1.8034039 -0.050116025 0
0.66457903 1.3825234 0.046769924 0
0.66196835 1.369943 0.12734628 0
0.66589749 1.3888769 0.21312366 0
0.66334152 1.3765601 0.29580015 0
0.79264539 1.9996572 0.59561896 0
0.73365885 1.8131828 -0.050329868 0
0.64896667 1.3775635 0.046486501 0
0.64998865 1.38282 0.1284494 0
0.64970887 1.381381 0.21122304 0
0.65137517 1.3899518 0.29854837 0
0.77838391 2.0432289 0.60889637 0
0.71226633 1.8065571 -0.049956344 0
0.63583368 1.3851656 0.046666659 0
0.63554519 1.383575 0.12824251 0
0.63604987 1.3863572 0.21165018 0
0.63736469 1.3936063 0.29880467 0
0.76334178 2.0881481 0.62265992 0
0.69266272 1.8089861 -0.0499212 0
0.62223822 1.3908002 0.046781201 0
0.62129813 1.3852177 0.12815262 0
0.62135446 1.3855524 0.2110506 0
0.62075186 1.381974 0.295151 0
0.74678719 2.1303816 0.63555205 0
0.67275983 1.8093495 -0.049820419 0
0.60679805 1.3851112 0.046492584 0
0.60591733 1.3794469 0.12727617 0
0.60681367 1.3852113 0.21057068 0
0.60528737 1.3753948 0.29286328 0
0.72716844 2.1592827 0.64400047 0
0.65458709 1.8213636 -0.050149016 0
0.59368235 1.3942953 0.046747867 0
0.59215903 1.3836137 0.12750112 0
0.59060878 1.3727435 0.20791581 0
0.59136558 1.3780501 0.29300973 0
0.70768553 2.1936929 0.65436816 0
0.63374358 1.8146241 -0.049810182 0
0.57750428 1.3813008 0.046210237 0
0.57833213 1.3876795 0.12773356 0
0.57784194 1.3839029 0.20959932 0
0.5782246 1.3868513 0.29478228 0
0.68658799 2.2217894 0.66268319 0
0.6151737 1.8252875 -0.050106831 0
0.56340075 1.3827938 0.046201479 0
0.56267256 1.3765702 0.12634251 0
0.56344134 1.3831406 0.2091448 0
0.56324047 1.3814237 0.29293975 0
0.66635656 2.2627378 0.67537987 0
0.59499758 1.8225923 -0.049931988 0
0.55177051 1.4079713 0.12956794 0
0.55192429 1.4094465 0.21363197 0
0.55157316 1.4060788 0.29886472 0
0.64513898 2.3035333 0.68809408 0
0.57510614 1.8216884 -0.049830683 0
0.55269331 1.5768588 0.14764182 0
0.55163413 1.5652884 0.24159959 0
0.55203122 1.569626 0.34040454 0
0.62170327 2.3306997 0.69632971 0
0.5555855 1.8246174 -0.04987571 0
0.60295188 2.4252462 0.23894863 0
0.59967899 2.3837445 0.38941279 0
0.59750652 2.3561962 0.54134828 0
0.53600657 1.8271943 -0.049916908 0
0.57365745 2.3959093 0.39126146 0
0.57415313 2.4033964 0.55292815 0
0.51709771 1.8428817 -0.050435621 0
0.54876208 2.4340043 0.39785135 0
0.54803497 2.4204297 0.55686796 0
0.49685743 1.8350722 -0.050123006 0
0.52205551 2.45046 0.40058848 0
0.5216192 2.4398034 0.56148726 0
0.47690782 1.829847 -0.049911913 0
0.45616248 1.097828 0.3512193 0
0.45652014 1.1104491 0.42949635 0
0.45711306 1.8251987 -0.049730424 0
0.44581804 1.107694 0.35520887 0
0.44579345 1.1061318 0.42721844 0
0.43748349 1.8333536 -0.050014939 0
0.43515623 1.0943564 0.4212766 0
0.43512964 1.0859078 0.49321246 0
0.41762426 1.8442489 -0.050406151 0
0.42478481 1.0859281 0.41707584 0
0.42485404 1.0785958 0.48889521 0
0.39793703 1.8346725 -0.05007536 0
0.4140715 1.102533 0.4254674 0
0.4146094 1.0781254 0.48871189 0
0.37786737 1.8427854 -0.050385185 0
0.35184994 2.5938821 0.42637604 0
0.35236448 2.5790277 0.59689689 0
0.40484458 1.0639806 0.48049057 0
0.35849679 1.8314066 -0.050007571 0
0.32266903 2.5896327 0.42582563 0
0.32234135 2.5965676 0.60168165 0
0.39549112 1.048492 0.47153953 0
0.3390035 1.8264805 -0.049869176 0
0.29220057 2.6080942 0.42944434 0
0.29258159 2.6017311 0.60340321 0
0.38591886 1.0429899 0.46858481 0
0.31964973 1.8209374 -0.049717352 0
0.26150814 2.6225939 0.43241933 0
0.26130411 2.625407 0.60995775 0
0.2992126 1.8293344 -0.050073575 0
0.35564774 1.1669254 0.038339049 0
0.23063473 2.6342688 0.43495616 0
0.2306551 2.6340299 0.61276573 0
0.28013295 1.821254 -0.049848385 0
0.19895393 2.6505077 0.43839353 0
0.19667876 2.673749 0.62364757 0
0.26084217 1.8164982 -0.049750924 0
0.16643672 2.6698987 0.44248003 0
0.1672347 2.6626852 0.62161899 0
0.34737289 1.0342828 0.46537921 0
0.23942292 1.8295286 -0.050301846 0
0.13509794 2.6750407 0.44405791 0
0.13477992 2.6776183 0.62636542 0
0.22107248 1.8171228 -0.049946941 0
0.10191865 2.6920283 0.44786635 0
0.10320406 2.68259 0.6286602 0
0.20186904 1.8121175 -0.049866825 0
0.068018571 2.710212 0.45197612 0
0.069214389 2.7021883 0.63483465 0
0.18078949 1.8190318 -0.050226372 0
0.037795261 2.7020695 0.45136249 0
0.036449268 2.7103815 0.63818455 0
0.16036807 1.8206923 -0.050405905 0
0.0042071505 2.7136362 0.45442554 0
0.0024044083 2.7239444 0.64303941 0
0.14295919 1.8056166 -0.049987238 0
-0.028910113 2.7203541 0.45668361 0
-0.030282689 2.7276592 0.64546031 0
0.12347643 1.8023437 -0.050005279 0
-0.089769021 2.8634939 0.10064709 0
-0.091668203 2.8729446 0.29194605 0
-0.063763365 2.7340848 0.4603141 0
-0.060798004 2.7193286 0.64485973 0
0.10447414 1.7967509 -0.049947616 0
-0.11205651 2.808147 0.098873995 0
-0.11378874 2.8162379 0.28646189 0
-0.095147327 2.7291656 0.46059549 0
-0.096049979 2.7333817 0.65019792 0
0.083296195 1.8008994 -0.050255183 0
-0.14391972 2.8005478 0.098854214 0
-0.14198495 2.7920358 0.28457499 0
-0.12791707 2.7301433 0.46204126 0
-0.13075717 2.7426383 0.65441239 0
0.065079257 1.7917991 -0.050086968 0
-0.17329736 2.7826543 0.098471075 0
-0.17420168 2.7864134 0.28477526 0
-0.16126688 2.7326474 0.46385106 0
-0.16219236 2.7364945 0.65471286 0
0.046298876 1.7853867 -0.050025657 0
-0.2088085 2.7899914 0.09902966 0
-0.20827319 2.7878835 0.28580752 0
-0.19367613 2.7304006 0.46486062 0
-0.19556148 2.7378249 0.6570859 0
0.028290616 1.7762421 -0.049871895 0
-0.25099885 2.8207629 0.10047267 0
-0.25003642 2.8171635 0.28998461 0
-0.22873051 2.7374809 0.46769089 0
-0.23095907 2.7458158 0.66133654 0
0.0060751303 1.7824633 -0.0502958 0
-0.25876385 2.725208 0.46698827 0
-0.26184916 2.7361908 0.66105199 0
-0.010094298 1.7670894 -0.049927942 0
-0.29380375 2.7302608 0.46961144 0
-0.29216492 2.7246974 0.66037261 0
-0.027733846 1.757354 -0.049776901 0
-0.32806742 2.7315354 0.47161487 0
-0.32669705 2.7270906 0.66349983 0
-0.048587307 1.7579329 -0.050020427 0
-0.35718024 2.7158911 0.47050235 0
-0.36296356 2.7338443 0.66792488 0
-0.066442624 1.749042 -0.04991819 0
-0.39374799 2.7228999 0.47376469 0
-0.39215225 2.7181518 0.66644984 0
-0.086355522 1.7462361 -0.050054163 0
-0.42626178 2.7169371 0.47465059 0
-0.4249571 2.7132113 0.66797382 0
-0.10260065 1.7330744 -0.049806777 0
-0.45875996 2.7105551 0.47553849 0
-0.45575839 2.7023175 0.66800022 0
-0.12048526 1.7247261 -0.049749747 0
-0.49245733 2.7069752 0.47704977 0
-0.48963797 2.6995304 0.670344 0
-0.14175434 1.7250875 -0.050035175 0
-0.5209955 2.6896818 0.47599307 0
-0.52003175 2.6872306 0.67020816 0
-0.15904261 1.7151451 -0.049935106 0
-0.54860169 2.67048 0.47462904 0
-0.54901075 2.671483 0.66922694 0
-0.17761452 1.708414 -0.049967378 0
-0.57962501 2.6598413 0.47500217 0
-0.58331585 2.6685765 0.67189777 0
-0.19836874 1.7066069 -0.05020079 0
-0.61094236 2.6497319 0.47555825 0
-0.61214924 2.6524906 0.67103332 0
-0.21905769 1.7042487 -0.050424162 0
-0.64361346 2.6424129 0.47674775 0
-0.64080501 2.6362071 0.67020988 0
-0.22803815 1.6764822 -0.049657628 0
-0.67039764 2.6221054 0.47543982 0
-0.66806889 2.6171274 0.66869539 0
-0.24745192 1.6715416 -0.049795967 0
-0.70393741 2.6161854 0.47707316 0
-0.69850206 2.6049378 0.66922104 0
-0.27022958 1.6731187 -0.050204936 0
-0.72940016 2.5935521 0.47543314 0
-0.72684753 2.5884354 0.66862923 0
-0.27885276 1.6465575 -0.049498219 0
-0.76107895 2.5834851 0.4763962 0
-0.75767434 2.5768704 0.66955245 0
-0.30508995 1.6542417 -0.050175264 0
-0.78479183 2.5581107 0.47432148 0
-0.7875092 2.5632308 0.66999429 0
-0.31752485 1.6356902 -0.049802773 0
-0.8137418 2.5429039 0.47438371 0
-0.81579638 2.5466602 0.66969585 0
-0.3363378 1.6289873 -0.049919568 0
-0.61848831 2.1297503 0.082439966 0
-0.83481884 2.5136957 0.47162324 0
-0.83849585 2.5202217 0.66660947 0
-0.35687095 1.6250792 -0.050162304 0
-0.62033379 2.0792084 0.080906197 0
-0.8646822 2.5003903 0.47221339 0
-0.85780787 2.4885411 0.66203821 0
-0.37331641 1.6139851 -0.050118789 0
-0.61543632 2.0194755 0.078979649 0
-0.88474011 2.4704924 0.46940139 0
-0.88338959 2.4682305 0.66088313 0
-0.38422906 1.593937 -0.049708411 0
-0.6176368 1.9738852 0.077628136 0
-0.91513753 2.4581656 0.47033998 0
-0.91141486 2.452106 0.66106856 0
-0.40288121 1.5866753 -0.049840495 0
-0.61148512 1.9168521 0.075783767 0
-0.93093455 2.4224746 0.46638313 0
-0.93463099 2.4283254 0.65905106 0
-0.42090142 1.5782638 -0.049934678 0
-0.62319434 1.8896972 0.075192943 0
-0.95727468 2.4040198 0.46614313 0
-0.96078587 2.4094253 0.65859044 0
-0.44050229 1.5720947 -0.050135612 0
-0.62156606 1.8433079 0.073777772 0
-0.98110259 2.3818529 0.46516782 0
-0.9775883 2.3765891 0.65395141 0
-0.45115221 1.5526208 -0.049772922 0
-0.623034 1.8031899 0.072620958 0
-1.0044591 2.3592308 0.4641498 0
-0.99910867 2.3514309 0.65171283 0
-0.46613473 1.5397344 -0.049700528 0
-0.6167016 1.753412 0.071032748 0
-1.0212766 2.3275666 0.46119243 0
-1.0210373 2.3272271 0.64983636 0
-0.48805034 1.5365102 -0.050061557 0
-0.62286675 1.7228087 0.070271499 0
-0.62064075 1.7197328 0.19906433 0
-1.0418108 2.3017342 0.45955318 0
-1.0431349 2.3035638 0.64819962 0
-0.076042011 0.96716881 0.44005242 0
-0.49636126 1.5145438 -0.049604587 0
-0.61648905 1.6762187 0.068795487 0
-0.6277715 1.6914033 0.19706225 0
-1.061939 2.2757306 0.45791793 0
-1.0744081 2.2925122 0.650644 0
-0.091282561 0.96936566 0.44544816 0
-0.52018827 1.5134461 -0.050084915 0
-0.61566412 1.6386193 0.067705341 0
-0.61539984 1.638273 0.19170082 0
-1.0801816 2.2476234 0.45584691 0
-1.0790267 2.2461092 0.6418944 0
-0.09360297 0.95417303 0.44007346 0
-0.53111356 1.4953136 -0.049811177 0
-0.61387122 1.6010255 0.066604175 0
-0.62164724 1.6109582 0.18978854 0
-1.0967946 2.2178953 0.45343652 0
-1.0928723 2.2128851 0.63734698 0
-0.1034853 0.9490757 0.44107875 0
-0.55134159 1.489064 -0.050085101 0
-0.61431909 1.5674553 0.06567505 0
-0.62011206 1.5746661 0.18663003 0
-1.1036452 2.1765451 0.44836113 0
-1.1132956 2.1885574 0.63572162 0
-0.12765552 0.96167964 0.45353457 0
-0.56978309 1.4803382 -0.050259046 0
-0.61638188 1.5368693 0.064874567 0
-0.62096429 1.5424285 0.18400058 0
-1.1326743 2.1632071 0.44979993 0
-1.1267427 2.1560111 0.63144654 0
-0.13981058 0.95871919 0.45622444 0
-0.58549094 1.4681852 -0.05028541 0
-0.61819553 1.506858 0.064093597 0
-0.62032604 1.5093774 0.18123001 0
-1.1466159 2.1317091 0.44705078 0
-1.1461961 2.1312127 0.62977087 0
-0.15316148 0.95696038 0.45983025 0
-0.60046232 1.45515 -0.050279666 0
-0.62089586 1.4787045 0.063392922 0
-0.6166141 1.4737687 0.178064 0
-1.1624789 2.1030047 0.44498008 0
-1.1654449 2.1064236 0.62816215 0
-0.60984874 1.4358398 -0.049982943 0
-0.62528324 1.4531854 0.062811874 0
-0.63104558 1.4596612 0.17794871 0
-1.1707909 2.0662417 0.44098863 0
-1.1711524 2.0666478 0.62149954 0
-0.62630403 1.4245808 -0.050077625 0
-0.65977836 1.4612595 0.063850462 0
-0.67171276 1.4743363 0.18204616 0
-1.1859382 2.0377882 0.43900532 0
-1.1787245 2.0298836 0.61582488 0
-0.63757479 1.4076803 -0.049907632 0
-0.50912565 1.2704458 0.055196885 0
-0.69017541 1.4638785 0.18256755 0
-1.1937156 2.0018585 0.43519861 0
-1.197614 2.0060234 0.61462539 0
-0.64750898 1.3895561 -0.049681995 0
-0.50503623 1.2411298 0.054336824 0
-0.71866369 1.4636842 0.18465862 0
-1.2112203 1.9768234 0.43409348 0
-1.2017729 1.9669814 0.60812587 0
-0.66423631 1.3785553 -0.049816631 0
-0.51585257 1.2278168 0.054265175 0
-0.74555469 1.461164 0.18647879 0
-1.2069334 1.9298642 0.42748168 0
-1.2078756 1.9308214 0.60259575 0
-0.67916977 1.3656394 -0.049866457 0
-0.53112006 1.2189806 0.054426569 0
-0.7776953 1.4632392 0.18907538 0
-1.2175829 1.8989938 0.42489463 0
-1.2274497 1.9087678 0.60213661 0
-0.69593513 1.3544399 -0.050014734 0
-0.54633754 1.209934 0.054589093 0
-0.80428934 1.459106 0.19080788 0
-1.2174994 1.8582516 0.41974559 0
-1.2261919 1.8666482 0.5943926 0
-0.71365726 1.3439934 -0.050215144 0
-0.5635277 1.2025843 0.054852072 0
-0.83551204 1.4587702 0.19321105 0
-1.2209615 1.8218303 0.4156636 0
-1.2304558 1.830773 0.58886218 0
-0.72192371 1.3246665 -0.049961317 0
-0.87550068 1.4657159 0.069405764 0
-0.86888885 1.4596435 0.19590154 0
-1.2234015 1.7852379 0.41149125 0
-1.2335119 1.7945236 0.58313435 0
-0.24132974 0.88327533 0.38482478 0
-0.73653424 1.3112568 -0.050026093 0
-0.91460562 1.4707161 0.070559874 0
-0.90609777 1.4630975 0.19911309 0
-1.237319 1.7596993 0.41025636 0
-1.2404794 1.7625294 0.57896751 0
-0.24185242 0.86827904 0.38081396 0
-0.7513876 1.2979941 -0.050109718 0
-0.93614852 1.4592984 0.070866048 0
-1.2412014 1.7256228 0.40670997 0
-1.2300618 1.7158973 0.56909537 0
-0.23181362 0.84438354 0.37114644 0
-0.76531661 1.2838632 -0.050156984 0
-0.97185135 1.4596438 0.071839571 0
-1.2371171 1.6854099 0.40141678 0
-1.2399149 1.6877911 0.56631744 0
-0.23849316 0.83548671 0.37083611 0
-0.25481808 0.84938073 0.45761064 0
-0.77618027 1.2671419 -0.050069869 0
-1.0083077 1.4597174 0.072837725 0
-1.2489614 1.6593664 0.40003049 0
-1.2418065 1.6534306 0.5610472 0
-0.25499827 0.83476347 0.37587538 0
-0.78945744 1.252447 -0.050104164 0
-1.0543422 1.4666255 0.07426548 0
-1.2402525 1.6169473 0.39396784 0
-1.2355638 1.6131561 0.55330402 0
-0.26176107 0.82576644 0.37568125 0
-0.80275929 1.2377368 -0.050147694 0
-1.0862817 1.4611404 0.075034522 0
-1.2534758 1.5928822 0.3931241 0
-1.2397536 1.5820696 0.54919165 0
-0.25964761 0.80978811 0.37087014 0
-0.82130575 1.2270105 -0.050435238 0
-1.1320302 1.4655684 0.076420829 0
-1.2450744 1.5523577 0.38744092 0
-1.247304 1.5540694 0.54632616 0
-0.25682116 0.79362899 0.36583871 0
-0.25135863 0.78943515 0.43740004 0
-0.825266 1.2051176 -0.050075851 0
-1.1760923 1.4675092 0.077716455 0
-1.245411 1.5193543 0.38389435 0
-1.2358885 1.5122322 0.53755802 0
-0.2658534 0.78671932 0.36709145 0
-0.2787981 0.79640096 0.45044747 0
-0.83656073 1.1888773 -0.050055943 0
-1.2078664 1.459363 0.078456417 0
-1.2551657 1.4938192 0.38257477 0
-1.2326794 1.4774384 0.5316273 0
-1.2287184 1.474553 0.68979174 0
-0.25895745 0.76810992 0.36021835 0
-0.28779817 0.78911954 0.45190689 0
-0.84897482 1.1734446 -0.050094206 0
-1.2495164 1.4575776 0.079626597 0
-1.2489876 1.4572026 0.37781534 0
-1.2445412 1.4540483 0.5306012 0
-1.2428582 1.4528545 0.68939769 0
-0.28306925 0.77200699 0.36926633 0
-0.28155893 0.7709356 0.44406134 0
-0.85029852 1.150316 -0.049659412 0
-1.29636 1.458371 0.081012964 0
-1.2451866 1.42303 0.37371957 0
-1.2461761 1.4237134 0.52650481 0
-1.2431812 1.4216452 0.68353152 0
-0.28082401 0.75703073 0.43977049 0
-0.86456728 1.1362545 -0.049797729 0
-1.2736807 1.4112498 0.079396553 0
-1.2721019 1.4101884 0.22673649 0
-1.2554027 1.3989637 0.37279826 0
-1.2301651 1.3819996 0.51713628 0
-1.2396731 1.3883907 0.67633724 0
-0.28832251 0.74891824 0.44058552 0
-0.88193071 1.1240969 -0.050074514 0
-1.2705697 1.3782843 0.078653581 0
-1.2693849 1.3775094 0.22455226 0
-1.2423872 1.3598516 0.36694369 0
-1.2365522 1.3560354 0.51483363 0
-1.2378573 1.356889 0.67004192 0
-0.29608399 0.74092662 0.44161239 0
-0.88634634 1.1034664 -0.049807712 0
-1.2780495 1.3526732 0.078382321 0
-1.2828491 1.3557267 0.22449921 0
-1.2478333 1.3334492 0.36518779 0
-1.2343366 1.3248625 0.5100472 0
-1.2355849 1.3256567 0.66377378 0
-0.30204767 0.73172796 0.44162488 0
-0.89380765 1.0849379 -0.049681798 0
-1.288259 1.3289711 0.078241348 0
-1.2908067 1.3305472 0.22378546 0
-1.2497839 1.3051679 0.36277503 0
-1.2424729 1.3006449 0.5085218 0
-1.2434293 1.3012365 0.66166663 0
-0.90792239 1.0705107 -0.049843773 0
-1.301698 1.3073224 0.078248464 0
-1.310179 1.3124228 0.22454849 0
-1.2428432 1.2719278 0.35858449 0
-1.2382703 1.2691778 0.5034256 0
-1.2449026 1.2731664 0.65722173 0
-0.92482686 1.0575778 -0.050127454 0
-1.3327032 1.2959285 0.078993209 0
-1.3280324 1.2931989 0.22514538 0
-1.2566717 1.2514979 0.35885084 0
-1.2479695 1.2464126 0.50259227 0
-1.2315844 1.2368376 0.64724654 0
-0.93850124 1.0425779 -0.050283227 0
-1.3813826 1.2939577 0.08046411 0
-1.3738654 1.2896909 0.22922559 0
-1.2511641 1.2200456 0.35515895 0
-1.2313145 1.2087789 0.49411792 0
-1.2448759 1.2164763 0.64769751 0
-0.94385338 1.0228626 -0.050106402 0
-1.2465996 1.1896969 0.35176867 0
-1.2504152 1.1917996 0.4962565 0
-1.242748 1.1875745 0.64238584 0
-0.9500668 1.0037459 -0.049975727 0
-1.2399707 1.1587769 0.34805736 0
-1.237968 1.1577059 0.4893153 0
-1.2447696 1.1613432 0.63881302 0
-0.95079017 0.9818818 -0.049634811 0
-1.2594652 1.1419861 0.34975693 0
-1.2371421 1.1304075 0.48588318 0
-1.2489985 1.1365571 0.63621503 0
-0.96888256 0.96901673 -0.050001159 0
-1.2721903 1.1215217 0.35012212 0
-1.2353477 1.1029969 0.48229462 0
-1.2494081 1.1100667 0.6323278 0
-0.97873843 0.95184839 -0.050044626 0
-1.2773849 1.0973279 0.3490262 0
-1.2374129 1.0778564 0.47992158 0
-1.2423919 1.0802819 0.62584001 0
-0.98144782 0.93127221 -0.049814306 0
-1.2846175 1.0742605 0.34840411 0
-1.2393143 1.0528934 0.47760594 0
-1.2451108 1.0556273 0.62311006 0
-0.99944186 0.91784614 -0.050195321 0
-1.3096955 1.0594279 0.351381 0
-1.2315193 1.0237528 0.47267273 0
-1.2406142 1.0279032 0.61787087 0
-1.0053719 0.89880013 -0.050110079 0
-1.3105098 1.0334313 0.34959543 0
-1.2337446 0.99956137 0.4706637 0
-1.2449902 1.0045232 0.61601448 0
-1.018177 0.88274652 -0.05030144 0
-1.325999 1.0139568 0.35076076 0
-1.2397268 0.97718292 0.46979213 0
-1.2411363 0.97778374 0.61129832 0
-1.0158663 0.86032414 -0.049916092 0
-1.3337845 0.9911325 0.3504656 0
-1.2407839 0.95286715 0.46764421 0
-1.2404482 0.95272905 0.60786694 0
-1.0241055 0.84237713 -0.049948756 0
-1.3495928 0.97153205 0.35178453 0
-1.247359 0.93096519 0.4671059 0
-1.2484555 0.93140024 0.60767817 0
-1.0314519 0.82406074 -0.049955789 0
-1.3413857 0.94254911 0.348508 0
-1.2317778 0.90064573 0.46059388 0
-1.231838 0.9006688 0.59881544 0
-1.0353729 0.80447531 -0.049841277 0
-1.3617131 0.92454863 0.3508004 0
-1.2369889 0.8786577 0.45986843 0
-1.2314502 0.87661982 0.59588456 0
-1.0448942 0.78695321 -0.049948718 0
-1.3688564 0.90154117 0.35060394 0
-1.2434685 0.85719049 0.45956466 0
-1.2306187 0.85264546 0.59291726 0
-1.0497595 0.76776654 -0.049888484 0
-1.3787378 0.87948859 0.35098517 0
-1.2419205 0.83302504 0.45717213 0
-1.2283158 0.82840484 0.58955193 0
-1.0546665 0.74863487 -0.049839158 0
-1.3795332 0.85441744 0.34969428 0
-1.2413346 0.80941743 0.45512938 0
-1.2304233 0.80586451 0.58785051 0
-1.0682231 0.73223287 -0.050122507 0
-1.3922973 0.83326232 0.35072917 0
-1.2349415 0.78420693 0.45162231 0
-1.2370154 0.78485346 0.58781773 0
-1.0633131 0.71011621 -0.049724571 0
-1.3919438 0.8080436 0.3493419 0
-1.2396629 0.76266599 0.45117193 0
-1.2329559 0.76066744 0.5841794 0
-1.0688989 0.69127238 -0.049727987 0
-1.39886 0.78508919 0.34938228 0
-1.242776 0.74071032 0.45036864 0
-1.2500767 0.74278611 0.5879854 0
-1.091293 0.67697394 -0.050361861 0
-1.4138631 0.76431471 0.35098758 0
-1.2409844 0.71750516 0.44834492 0
-1.2434098 0.71816188 0.58365721 0
-1.0913129 0.65645379 -0.050175536 0
-1.4104685 0.73857123 0.34921044 0
-1.2438662 0.69570518 0.44763598 0
-1.2370805 0.69395918 0.57956564 0
-1.0855125 0.63464606 -0.049785405 0
-1.4160237 0.71526217 0.34916043 0
-1.2396554 0.6722436 0.44513881 0
-1.239834 0.67228711 0.57870162 0
-1.0947249 0.61657965 -0.049956523 0
-1.424453 0.6926192 0.34969693 0
-1.246204 0.65151268 0.4455435 0
-1.2353463 0.64900875 0.57546109 0
-1.1007438 0.59769225 -0.050018825 0
-1.4354407 0.67045182 0.35075679 0
-1.2369773 0.62730801 0.44189656 0
-1.2402256 0.62801415 0.57551843 0
-1.1072952 0.57886559 -0.050109047 0
-1.4369878 0.64620143 0.35012767 0
-1.2357774 0.60510659 0.44042856 0
-1.2451088 0.60701245 0.5756669 0
-1.1049727 0.55827469 -0.049885139 0
-1.4474953 0.62374938 0.35120144 0
-1.2350776 0.58314484 0.43916675 0
-1.2302458 0.58222121 0.56921625 0
-1.1217997 0.5412522 -0.050365563 0
-1.4433762 0.59853566 0.34964526 0
-1.2509704 0.56426179 0.44227946 0
-1.2472298 0.56359547 0.57364774 0
-1.1170713 0.52032274 -0.050072774 0
-1.4461641 0.5746792 0.34941295 0
-1.2355038 0.53988427 0.43733802 0
-1.2391772 0.54049104 0.56970692 0
-1.1181575 0.50048435 -0.050000057 0
-1.4583358 0.55228049 0.3509478 0
-1.2394143 0.51894706 0.43748608 0
-1.2315892 0.51775563 0.56602788 0
-1.1204586 0.4808639 -0.049980268 0
-1.4563096 0.52768224 0.34994602 0
-1.2305537 0.49621141 0.43441203 0
-1.2371639 0.49713287 0.56687307 0
-1.12616 0.46168482 -0.050091777 0
-1.4590255 0.50382155 0.34986424 0
-1.2406858 0.4761824 0.4363009 0
-1.2418849 0.47633418 0.56751788 0
-1.1166929 0.44069704 -0.049666777 0
-0.50950009 0.37158987 0.039849263 0
-0.50256777 0.37080088 0.10714444 0
-0.50461924 0.37103438 0.17610705 0
-1.2444071 0.45523274 0.43660569 0
-1.2395906 0.45468456 0.56590044 0
-1.1333706 0.42265007 -0.050189968 0
-0.5112797 0.35977089 0.03986736 0
-0.51596814 0.36024478 0.10845517 0
-0.51709765 0.36035895 0.178139 0
-1.2403598 0.43346423 0.43498567 0
-1.2355299 0.43297604 0.56378561 0
-1.1313089 0.40257344 -0.0500491 0
-0.47308624 0.34440467 0.03845812 0
-0.50530624 0.34725204 0.10718273 0
-0.50731856 0.34742987 0.17616329 0
-1.2522256 0.41325912 0.43751347 0
-1.2436669 0.41250277 0.5658384 0
-1.1310258 0.38272792 -0.049981099 0
-0.51575452 0.33615434 0.10820436 0
-0.50648588 0.33545277 0.17583703 0
-1.2391443 0.39091206 0.43372101 0
-1.2474211 0.39153859 0.56651306 0
-1.1474985 0.36398369 -0.050521489 0
-0.49937713 0.32312372 0.10635157 0
-0.51453412 0.32407928 0.17714311 0
-1.2432494 0.37002018 0.43439695 0
-1.2461497 0.37020302 0.5655998 0
-1.2464329 0.37022087 0.70253623 0
-1.1302788 0.34315619 -0.049865585 0
-0.51221716 0.31199878 0.10766159 0
-0.51399004 0.31208816 0.17692266 0
-1.238577 0.34861565 0.43289748 0
-1.2397244 0.34867349 0.56305987 0
-1.2387145 0.34862259 0.69883913 0
-0.35509735 0.30407816 0.47370133 0
-1.1299851 0.32342821 -0.049824074 0
-0.5036732 0.29975659 0.10668628 0
-0.50917113 0.2999644 0.17595807 0
-1.2426107 0.32768494 0.43369037 0
-1.2387743 0.32753992 0.56243432 0
-1.2449969 0.32777512 0.70105749 0
-0.35715693 0.29421896 0.47466394 0
-1.1376784 0.3039276 -0.050076693 0
-0.40610641 0.28549853 0.35334092 0
-0.40645325 0.28550726 0.42591646 0
-0.38232428 0.28489944 0.48940834 0
-1.1379143 0.28415176 -0.05007178 0
-0.39743268 0.27482548 0.42130288 0
-0.37390083 0.2745291 0.48429745 0
-1.1443597 0.26437625 -0.050297439 0
-0.3923893 0.26437426 0.41874653 0
-0.3877849 0.26437426 0.49249342 0
-0.90138501 -0.98929477 -0.09083689 0
-1.0050731 -0.98929501 -0.08851961 0
-1.1403401 -0.98929536 -0.086606167 0
-1.1249218 -0.98929536 -0.05725703 0
-1.1301587 -0.98929536 -0.031228846 0
-1.1307104 -0.98929536 -0.0046614464 0
-1.1310986 -0.98929536 0.021827826 0
-1.1315411 -0.98929536 0.048246536 0
-1.1305908 -0.98929536 0.074661002 0
-1.136112 -0.98929536 0.10100286 0
-1.1270329 -0.98929536 0.1272615 0
-1.1352656 -0.98929536 0.15393268 0
-1.1240175 -0.98929536 0.17968248 0
-1.1334869 -0.98929536 0.20692673 0
-1.1289046 -0.98929536 0.23308848 0
-1.1264044 -0.98929536 0.25947183 0
-1.1346495 -0.98929536 0.2876783 0
-1.1257113 -0.98929536 0.31324935 0
-0.90458363 -1.0121502 -0.091578104 0
-1.0194738 -1.0150502 -0.091293223 0
-1.1284919 -1.017802 -0.084718026 0
-1.1324227 -1.0179012 -0.058361892 0
-1.1318276 -1.0178862 -0.031466071 0
-1.1253715 -1.0177232 -0.0041965898 0
-1.1277133 -1.0177823 0.022039363 0
-1.1263287 -1.0177474 0.048472483 0
-1.1418692 -1.0181396 0.074390315 0
-1.1251156 -1.0177168 0.10100255 0
-1.1366751 -1.0180085 0.12749469 0
-1.1328076 -1.0179108 0.15383492 0
-1.1211337 -1.0176163 0.17950572 0
-1.1322259 -1.0178962 0.20684268 0
-1.1256844 -1.0177311 0.23275389 0
-1.1316611 -1.017882 0.2602616 0
-1.1250051 -1.0177139 0.28615162 0
-1.1268086 -1.0177594 0.31352377 0
-0.90875781 -1.0352455 -0.092650615 0
-1.0174377 -1.0407352 -0.091093071 0
-1.1310604 -1.0464747 -0.08531823 0
-1.1314307 -1.0464934 -0.058374662 0
-1.2351483 -1.0517324 -0.043683518 0
-1.2324303 -1.0515951 -0.014302796 0
-1.2367017 -1.0518109 0.014334859 0
-1.2365624 -1.0518038 0.04328385 0
-1.2451866 -1.0522395 0.071959659 0
-1.2470441 -1.0523334 0.10100607 0
-1.2473383 -1.0523481 0.13010263 0
-1.2433503 -1.0521468 0.15904464 0
-1.2459302 -1.0522771 0.18832354 0
-1.2342436 -1.0516868 0.21648429 0
-0.90154308 -1.057747 -0.091421522 0
-1.015698 -1.0664055 -0.091070853 0
-1.1180041 -1.0741652 -0.083463468 0
-1.13798 -1.0756804 -0.059551928 0
-1.2439426 -1.0837175 -0.04494508 0
-1.2421749 -1.0835835 -0.015398873 0
-1.2408649 -1.0834841 0.01390476 0
-1.2330772 -1.0828934 0.043354537 0
-1.2398965 -1.0834106 0.072036728 0
-1.2364049 -1.0831457 0.10100582 0
-1.2380791 -1.0832728 0.12993267 0
-1.2437254 -1.083701 0.15915483 0
-1.242053 -1.0835742 0.18819086 0
-1.2352972 -1.0830618 0.21676725 0
-0.90132326 -1.0806783 -0.091804959 0
-1.0182974 -1.0925257 -0.091992579 0
-1.1493683 -1.1058007 -0.08905717 0
-1.230104 -1.1139778 -0.072923861 0
-1.236039 -1.1145788 -0.044343058 0
-1.2453387 -1.1155207 -0.01595602 0
-1.2363894 -1.1146144 0.014024468 0
-1.2238358 -1.1133429 0.043658078 0
-1.2339802 -1.1143703 0.072110265 0
-1.2239884 -1.1133584 0.10100555 0
-1.2455895 -1.1155461 0.13017341 0
-1.2421275 -1.1151955 0.15921013 0
-1.2309076 -1.1140591 0.18760218 0
-1.9824673 -1.1901783 0.28716746 0
-1.9967448 -1.1916243 0.3357611 0
-1.9421424 -1.186094 0.37555638 0
-1.4671493 -1.1379861 0.37899482 0
-0.88472843 -1.101639 -0.088804863 0
-1.008737 -1.1173689 -0.09073358 0
-1.1454422 -1.1347092 -0.088954426 0
-1.2007978 -1.1417308 -0.069273509 0
-1.236114 -1.1462104 -0.044770692 0
-1.2411112 -1.1468444 -0.015895253 0
-1.2388188 -1.1465535 0.013602683 0
-1.2485586 -1.147789 0.042332713 0
-1.2387048 -1.1465391 0.071916357 0
-1.2426965 -1.1470454 0.10100619 0
-1.2460988 -1.147477 0.13026954 0
-1.2385595 -1.1465206 0.15921034 0
-1.2456589 -1.1474212 0.18889223 0
-1.5988613 -1.1922231 0.36610693 0
-1.4751463 -1.1765305 0.38131487 0
-0.89920437 -1.1266346 -0.092587627 0
-1.0076562 -1.1431813 -0.091204591 0
-1.1570604 -1.1659763 -0.091556631 0
-1.2056117 -1.1733838 -0.070559032 0
-1.6160927 -1.2360117 -0.090208612 0
-2.5528927 -1.3789414 -0.14016698 0
-3.4106236 -1.5098073 -0.14029245 0
-5.1331358 -1.7726147 -0.14081225 0
-10.284346 -2.5585463 -0.14093524 0
-1.3498503 -1.1953906 0.29308447 0
-1.3566339 -1.1964256 0.3267577 0
-1.3668312 -1.1979814 0.36166099 0
-0.88801718 -1.147976 -0.090982176 0
-1.0008626 -1.1681188 -0.090709098 0
-1.1454538 -1.1939281 -0.090424724 0
-1.2003621 -1.2037292 -0.070527516 0
-1.6153516 -1.2778041 -0.090920784 0
-2.5522506 -1.4450393 -0.14111532 0
-3.4003537 -1.5964245 -0.14057291 0
-5.1111059 -1.9017912 -0.14078239 0
-10.228154 -2.8151772 -0.14062057 0
-1.3340133 -1.2275857 0.29162678 0
-1.3212104 -1.2253004 0.32178667 0
-1.3225578 -1.2255409 0.35427871 0
-0.88817239 -1.1712648 -0.091945939 0
-0.99226373 -1.1925681 -0.089984678 0
-1.1374967 -1.2222914 -0.090017237 0
-1.1861974 -1.2322584 -0.069326602 0
-1.6012243 -1.3171977 -0.09016525 0
-2.5444443 -1.5102366 -0.1415446 0
-3.3888075 -1.6830437 -0.14091936 0
-5.0907545 -2.0313635 -0.1409867 0
-10.168746 -3.0706232 -0.14038126 0
-1.2536758 -1.2460685 0.31152311 0
-1.2413312 -1.2435421 0.33988497 0
-0.86006474 -1.1882718 -0.086877294 0
-0.98778927 -1.217788 -0.090172313 0
-1.1412268 -1.2532462 -0.091699235 0
-1.1824396 -1.2627702 -0.06972333 0
-1.6054955 -1.3605351 -0.091731198 0
-2.5269244 -1.5734702 -0.141203 0
-3.3595688 -1.7658879 -0.14015481 0
-5.058507 -2.1584995 -0.14077961 0
-10.124201 -3.3291423 -0.14064869 0
-0.86282516 -1.2120101 -0.088645466 0
-0.97737545 -1.2415452 -0.089329325 0
-1.1254706 -1.2797295 -0.090217076 0
-1.3176239 -1.3292732 -0.090398826 0
-1.5838294 -1.3979104 -0.09030845 0
-1.9958482 -1.5041434 -0.091509335 0
-3.3396182 -1.8506144 -0.14020631 0
-5.0197306 -2.2838063 -0.14041108 0
-10.055992 -3.5823317 -0.14050587 0
-0.86062998 -1.2347878 -0.089463063 0
-0.9851402 -1.2702643 -0.092157505 0
-1.1129749 -1.306688 -0.089395203 0
-1.302621 -1.3607236 -0.089521326 0
-1.5673561 -1.4361541 -0.089620747 0
-1.9727423 -1.5516601 -0.090589248 0
-3.3219049 -1.9360747 -0.14057575 0
-4.9954991 -2.4129291 -0.14089654 0
-9.9873848 -3.8352587 -0.14050633 0
-0.85359293 -1.2562711 -0.089336433 0
-0.98110688 -1.2961082 -0.092822485 0
-1.0938668 -1.331336 -0.087545045 0
-1.286198 -1.391423 -0.088544212 0
-1.5640715 -1.4782345 -0.090660222 0
-1.9625866 -1.6027362 -0.091045119 0
-3.2992642 -2.0203331 -0.1407446 0
-4.9591351 -2.5388999 -0.14095245 0
-9.9325314 -4.0926585 -0.14099674 0
-0.85631198 -1.2810582 -0.09152054 0
-0.96801442 -1.3190746 -0.091819994 0
-1.1042131 -1.3654281 -0.090900026 0
-1.2875957 -1.4278399 -0.090318747 0
-1.5567446 -1.519441 -0.091340192 0
-1.946936 -1.6522374 -0.091089703 0
-3.2699902 -2.1025212 -0.14058146 0
-4.9091144 -2.6603749 -0.14049296 0
-9.8379259 -4.3378301 -0.14067397 0
-0.84896094 -1.3026999 -0.09158475 0
-0.95685351 -1.3424846 -0.091311775 0
-1.0844438 -1.3895327 -0.089161091 0
-1.2735572 -1.4592669 -0.089934789 0
-1.5432229 -1.5587043 -0.091383852 0
-1.921 -1.6980069 -0.090235241 0
-3.2441683 -2.1859159 -0.14082789 0
-4.8638191 -2.7831507 -0.14041512 0
-9.7580748 -4.5878735 -0.14086647 0
-0.83179575 -1.3204709 -0.089528926 0
-0.94516194 -1.3655547 -0.090810038 0
-1.0747173 -1.4170767 -0.089287974 0
-1.2698836 -1.4946911 -0.091233961 0
-1.5088726 -1.589733 -0.088932239 0
-1.9090343 -1.7488705 -0.090890937 0
-3.2143145 -2.2679584 -0.14093104 0
-4.8239837 -2.9080966 -0.14076452 0
-9.6686583 -4.8347421 -0.14097872 0
-0.82924491 -1.3439703 -0.090932049 0
-0.922952 -1.3840029 -0.088267155 0
-1.0538093 -1.4399065 -0.087541498 0
-1.2486989 -1.5231653 -0.090007044 0
-1.5065529 -1.6333232 -0.090623923 0
-1.8964546 -1.7998931 -0.091621064 0
-3.184994 -2.3503702 -0.14123248 0
-4.7791796 -3.0314221 -0.14102498 0
-9.568593 -5.077508 -0.14097965 0
-0.82430196 -1.3667578 -0.091930173 0
-0.91630173 -1.4088367 -0.089013346 0
-1.0602765 -1.4746881 -0.090825744 0
-1.2246855 -1.5498856 -0.088439204 0
-1.4927112 -1.6724753 -0.090995036 0
-1.8747532 -1.847214 -0.091554858 0
-3.1417017 -2.4266918 -0.14062235 0
-4.7205358 -3.1488202 -0.14073844 0
-9.4580717 -5.3156781 -0.14086908 0
-0.81710643 -1.3887252 -0.092543058 0
-0.92429322 -1.4410598 -0.092968352 0
-1.0389074 -1.497021 -0.08921916 0
-1.2156191 -1.5833015 -0.089294367 0
-1.4687668 -1.7069024 -0.090184562 0
-1.8459395 -1.8910593 -0.09087237 0
-3.1121256 -2.5092824 -0.14122073 0
-4.6643057 -3.267144 -0.14072603 0
-9.3471451 -5.5535688 -0.14090125 0
-0.80180871 -1.4066608 -0.091354974 0
-0.89741898 -1.4563687 -0.089745618 0
-1.0269533 -1.5237139 -0.089439116 0
-1.199735 -1.6135434 -0.089213677 0
-1.442711 -1.7398671 -0.089199014 0
-1.8109128 -1.931296 -0.089642964 0
-3.0668306 -2.58425 -0.14075166 0
-4.6095409 -3.3863082 -0.14094603 0
-9.2331209 -5.7901163 -0.14100903 0
-0.79814452 -1.430717 -0.093084447 0
-0.88734013 -1.4799877 -0.09017425 0
-1.0157299 -1.5509089 -0.089924999 0
-1.1882992 -1.6462343 -0.089967765 0
-1.4347864 -1.7823912 -0.090730853 0
-1.802904 -1.9857354 -0.09138491 0
-3.0265365 -2.6616569 -0.14082552 0
-4.5433612 -3.4995346 -0.1407209 0
-9.0971346 -6.0149899 -0.14069249 0
-0.77673727 -1.4448721 -0.090617217 0
-0.87616217 -1.5031147 -0.090498514 0
-1.0126809 -1.5830868 -0.092104934 0
-1.1719635 -1.6763937 -0.090068452 0
-1.398149 -1.8088923 -0.088540666 0
-1.7693348 -2.0263312 -0.09053532 0
-2.9874232 -2.7398815 -0.14115332 0
-4.4827929 -3.6158621 -0.14094827 0
-8.9652271 -6.2416511 -0.140633 0
-0.76849467 -1.4665201 -0.091492571 0
-0.86472726 -1.5262039 -0.090899371 0
-0.9942584 -1.6065396 -0.091501959 0
-1.1492519 -1.7026672 -0.089241304 0
-1.3773158 -1.8441133 -0.08858075 0
-1.7472385 -2.0735409 -0.091044165 0
-2.9397922 -2.8131673 -0.14094681 0
