# .PCD v0.7 - Point Cloud Data file format
VERSION 0.7
FIELDS x y z intensity
SIZE 4 4 4 4
TYPE F F F F
COUNT 1 1 1 1
WIDTH 1319
HEIGHT 1
VIEWPOINT 0 0 0 1 0 0 0
POINTS 1319
DATA ascii
-0.82258296 0.91538304 0.15795243 0
-1.1345557 1.0771978 0.32437968 0
-1.1264877 1.0730129 0.45408005 0
-1.1195257 1.069402 0.58769065 0
-0.97346711 0.97132188 -0.050184358 0
-0.9429791 0.95599228 0.060966052 0
-0.95736599 0.96322608 0.17319137 0
-1.1411086 1.055613 0.32366157 0
-1.1442165 1.0571756 0.45627055 0
-1.1378917 1.0539955 0.59080106 0
-0.98167336 0.95327812 -0.050161183 0
-1.1090268 1.0153158 0.067218624 0
-1.1005428 1.0111829 0.18926829 0
-1.1604801 1.0403802 0.3255741 0
-1.1612625 1.0407612 0.4583106 0
-0.98243225 0.93173653 -0.049853168 0
-1.2132132 1.040583 0.20155324 0
-1.1749482 1.0225356 0.32653591 0
-1.1770766 1.0235394 0.4600496 0
-0.99162877 0.91428071 -0.049888711 0
-1.1919144 1.0056794 0.19789806 0
-1.1871724 1.0035155 0.32709205 0
-1.1865197 1.0032176 0.46005294 0
-0.99983501 0.89635712 -0.049894016 0
-1.2116867 0.98982912 0.19913933 0
-1.2097654 0.98898143 0.32973641 0
-1.2135081 0.99063271 0.46502051 0
-1.0098573 0.87920022 -0.049978558 0
-1.2337173 0.97462136 0.20066115 0
-1.2242079 0.97056794 0.33080465 0
-1.2180474 0.967942 0.46377945 0
-1.026186 0.86457026 -0.050314486 0
-1.2486635 0.95610929 0.20137416 0
-1.2458113 0.95493573 0.33330926 0
-1.2452728 0.95471412 0.46888262 0
-1.0336796 0.84617615 -0.050316487 0
-1.2757654 0.94223696 0.20351608 0
-1.2593484 0.93572259 0.33427456 0
-1.2568307 0.93472362 0.46970573 0
-1.0329523 0.82463431 -0.050013136 0
-1.285977 0.92136621 0.20372453 0
-1.2843871 0.92075843 0.33750278 0
-1.2727427 0.91630673 0.47178307 0
-1.042316 0.80702996 -0.050105404 0
-1.2955847 0.90021741 0.20389305 0
-1.2997001 0.90173161 0.33888343 0
-1.2881054 0.89746541 0.47376463 0
-1.0380099 0.78451812 -0.049688015 0
-1.3173668 0.88332891 0.20547907 0
-1.3205079 0.88443995 0.341355 0
-1.319536 0.88409615 0.48015013 0
-1.0650748 0.77296764 -0.05046593 0
-1.5835778 0.94905287 0.082015485 0
-1.3313404 0.86339235 0.20619625 0
-1.3345062 0.86446738 0.34256059 0
-1.3312836 0.86337298 0.48125038 0
-1.0526037 0.74796319 -0.049761705 0
-1.5560216 0.91188532 0.080663167 0
-1.3412828 0.84196246 0.2064833 0
-1.3528942 0.8457433 0.34464169 0
-1.3422006 0.84226125 0.48219344 0
-1.0544846 0.72794986 -0.049608741 0
-1.5076019 0.86920828 0.078553475 0
-1.3687791 0.82593054 0.20877571 0
-1.367018 0.82538152 0.34595367 0
-1.0781202 0.7145285 -0.050276175 0
-1.4858664 0.8360312 0.077465802 0
-1.3860966 0.80630118 0.20994081 0
-1.3893495 0.80727053 0.34885368 0
-1.0816382 0.69489449 -0.050200824 0
-1.4569091 0.80159414 0.076129496 0
-1.4098543 0.78821516 0.21184894 0
-1.400311 0.78550178 0.34965435 0
-1.0760247 0.67283982 -0.049797136 0
-1.4390607 0.77113736 0.07522469 0
-1.4310012 0.76895511 0.21348532 0
-1.4234221 0.76690298 0.35277364 0
-1.0886362 0.65576506 -0.050076857 0
-1.456949 0.75053048 0.075654373 0
-1.4548525 0.749991 0.21544345 0
-1.448774 0.74842709 0.35634381 0
-1.0910426 0.63599491 -0.049988624 0
-1.4901477 0.73334199 0.076654918 0
-1.4786423 0.73053569 0.21741524 0
-1.4653114 0.72728413 0.35831001 0
-1.108059 0.61965466 -0.050445069 0
-1.5030255 0.71073902 0.076915979 0
-1.4853932 0.70667279 0.21752915 0
-1.4820907 0.70591116 0.36036462 0
-1.1039336 0.59838569 -0.050135367 0
-1.5050459 0.68558329 0.076790057 0
-1.5156845 0.68789601 0.22026481 0
-1.5201756 0.68887228 0.36639556 0
-1.0991076 0.57719338 -0.049810708 0
-1.5313975 0.66548347 0.077562608 0
-1.5398022 0.66720003 0.22234224 0
-1.5328717 0.6657846 0.3677772 0
-1.1053177 0.55834067 -0.049897678 0
-1.5612273 0.64548975 0.078468941 0
-1.5561174 0.64451295 0.22358951 0
-1.5561498 0.64451915 0.37115195 0
-1.1138204 0.5398308 -0.050076213 0
-1.5699495 0.6210826 0.078616947 0
-1.5797745 0.62283278 0.22566666 0
-2.0620387 0.70874006 0.4629766 0
-1.1280814 0.52214128 -0.050471179 0
-1.5950276 0.59926707 0.079367623 0
-1.6088308 0.60154694 0.22835737 0
-2.0092988 0.66769248 0.45234957 0
-1.1128795 0.4996807 -0.049809452 0
-1.6132931 0.57587451 0.079880767 0
-1.6154295 0.57619983 0.22863078 0
-2.0056114 0.63560957 0.45078579 0
-1.1244432 0.48141935 -0.0501239 0
-1.6534787 0.55516809 0.081193782 0
-1.6492661 0.55458087 0.23189394 0
-1.1258131 0.46164092 -0.050079297 0
-1.6622058 0.52954167 0.081382029 0
-1.6722554 0.53081387 0.23400633 0
-1.1176434 0.44080523 -0.049700931 0
-1.5488392 0.48988143 0.077194564 0
-1.5450569 0.48945096 0.21990332 0
-1.5498943 0.4900015 0.36583808 0
-1.1218652 0.42148712 -0.049777117 0
-1.5757464 0.46736416 0.078063831 0
-1.5771245 0.46750343 0.22307797 0
-1.5739542 0.46718299 0.36971292 0
-1.1244242 0.40196502 -0.049802348 0
-1.7469803 0.45698181 0.084115028 0
-1.7415193 0.45649922 0.24055547 0
-1.8648058 0.46739435 0.42193851 0
-1.1318189 0.38278794 -0.050009497 0
-1.7652358 0.43073508 0.084687985 0
-1.7766131 0.43159628 0.24409561 0
-1.8393832 0.43634775 0.41691107 0
-1.4775578 0.408959 0.49472189 0
-1.134055 0.36313617 -0.050040584 0
-1.7469479 0.40177521 0.083965093 0
-1.7566077 0.40238419 0.24173351 0
-1.7491964 0.40191695 0.40025494 0
-1.4468514 0.38285598 0.48644546 0
-1.124856 0.34288281 -0.049671739 0
-1.8486308 0.37936935 0.41792905 0
-1.4335139 0.35844269 0.48269528 0
-1.1336795 0.32356784 -0.049956065 0
-1.3994716 0.33361351 0.47373918 0
-1.1425653 0.30405071 -0.050251216 0
-1.3774272 0.30996713 0.46792772 0
-1.1395739 0.28417265 -0.05013103 0
-1.3520372 0.2868486 0.46133953 0
-1.1269661 0.26437622 -0.049676467 0
-1.3614489 0.26437682 0.46370465 0
-0.89132589 -0.98929471 -0.088698708 0
-1.0284722 -0.98929507 -0.092926867 0
-1.124936 -0.98929536 -0.08407449 0
-1.1228856 -0.9892953 -0.056970883 0
-1.1213477 -0.9892953 -0.030199086 0
-1.1310216 -0.98929536 -0.0046904963 0
-1.1201679 -0.9892953 0.022591995 0
-1.143224 -0.98929536 0.047702644 0
-1.1331176 -0.98929536 0.074602254 0
-1.1300266 -0.98929536 0.10100269 0
-1.1226583 -0.9892953 0.12715955 0
-1.1258622 -0.98929536 0.15349436 0
-1.1341561 -0.98929536 0.18039185 0
-1.1225346 -0.9892953 0.20590381 0
-1.1326624 -0.98929536 0.23352788 0
-1.1304164 -0.98929536 0.26003587 0
-1.1357461 -0.98929536 0.28785858 0
-1.1302208 -0.98929536 0.31409895 0
-0.89533907 -1.0119168 -0.089612447 0
-1.0217568 -1.0151078 -0.091723375 0
-1.1156987 -1.0174791 -0.082614787 0
-1.1260781 -1.0177411 -0.057469983 0
-1.1308099 -1.0178604 -0.031347085 0
-1.1320628 -1.0178921 -0.0048213657 0
-1.133956 -1.0179399 0.021602796 0
-1.1368248 -1.0180123 0.04798368 0
-1.1343611 -1.0179501 0.074564934 0
-1.1339744 -1.0179404 0.1010028 0
-1.1279335 -1.0177878 0.12729087 0
-1.119352 -1.0175712 0.15320754 0
-1.1338278 -1.0179366 0.18039416 0
-1.1334153 -1.0179262 0.20695379 0
-1.1284153 -1.0178 0.23307334 0
-1.1335438 -1.0179294 0.26052639 0
-1.1411475 -1.0181214 0.28880644 0
-1.1299678 -1.0178392 0.31411919 0
-0.89369845 -1.0344849 -0.089445479 0
-1.0106242 -1.0403911 -0.089808099 0
-1.135181 -1.0466828 -0.085996322 0
-1.131899 -1.046517 -0.058440555 0
-1.2345396 -1.0517017 -0.043612305 0
-1.2428653 -1.0521222 -0.015278047 0
-1.2501018 -1.0524877 0.013396868 0
-1.2445205 -1.0522058 0.042912889 0
-1.2425034 -1.052104 0.072022125 0
-1.2336932 -1.051659 0.10100569 0
-1.2413846 -1.0520475 0.12996368 0
-1.2432406 -1.0521412 0.15903953 0
-1.2445297 -1.0522063 0.18822543 0
-1.2411808 -1.0520371 0.21713305 0
-0.89839476 -1.0575082 -0.090750389 0
-1.0040423 -1.0655214 -0.088869192 0
-1.1354951 -1.0754919 -0.08634638 0
-1.1171166 -1.074098 -0.056611467 0
-1.239073 -1.0833482 -0.044374306 0
-1.242793 -1.0836303 -0.015456734 0
-1.2422315 -1.0835878 0.013808945 0
-1.2418165 -1.0835563 0.042946514 0
-1.2320062 -1.0828122 0.072220705 0
-1.2434982 -1.0836838 0.10100602 0
-1.2391678 -1.0833553 0.12995812 0
-1.2324761 -1.0828478 0.15862897 0
-1.2483016 -1.0840482 0.18862931 0
-1.2460046 -1.0838739 0.21777019 0
-0.89420635 -1.0799576 -0.090284429 0
-1.0129755 -1.0919867 -0.090985052 0
-1.1577576 -1.1066505 -0.090443023 0
-1.2323426 -1.1142045 -0.073240094 0
-1.2252088 -1.113482 -0.043070812 0
-1.253881 -1.1163859 -0.016757442 0
-1.2417828 -1.1151606 0.013645487 0
-1.2299681 -1.113964 0.04337113 0
-1.2537402 -1.1163716 0.071648479 0
-1.2400697 -1.1149871 0.10100601 0
-1.2378165 -1.1147588 0.12999132 0
-1.246507 -1.1156391 0.15941532 0
-1.2340991 -1.1143824 0.18782663 0
-1.9990636 -1.1918591 0.28872544 0
-1.9987968 -1.1918321 0.33600226 0
-1.9302311 -1.1848876 0.37387317 0
-1.4791973 -1.1392063 0.38127637 0
-0.9032737 -1.1039914 -0.092778452 0
-1.0042241 -1.1167965 -0.089876749 0
-1.1556813 -1.136008 -0.0906507 0
-1.1935488 -1.1408113 -0.06824661 0
-1.2509607 -1.1480937 -0.046519775 0
-1.2369052 -1.1463108 -0.015499523 0
-1.23622 -1.1462239 0.013785819 0
-1.2456614 -1.1474215 0.042468674 0
-1.244656 -1.1472939 0.071776882 0
-1.242643 -1.1470387 0.10100619 0
-1.2496271 -1.1479245 0.13035244 0
-1.2434888 -1.1471459 0.15944195 0
-1.2410063 -1.146831 0.18856409 0
-1.6008536 -1.1924758 0.36643708 0
-1.4698557 -1.1758593 0.38031009 0
-0.88669086 -1.1247253 -0.089896955 0
-1.0084242 -1.1432985 -0.091350906 0
-1.1572709 -1.1660084 -0.091591649 0
-1.2012296 -1.1727152 -0.069936059 0
-1.6257532 -1.2374858 -0.091350742 0
-2.5663333 -1.3809921 -0.14143604 0
-3.4253321 -1.5120513 -0.1413326 0
-5.137238 -1.7732407 -0.14100546 0
-10.286828 -2.5589249 -0.14099361 0
-1.3496253 -1.1953562 0.29305249 0
-1.3547548 -1.1961389 0.32644519 0
-1.3648554 -1.19768 0.36128443 0
-0.86757237 -1.1443267 -0.086567692 0
-1.0045692 -1.1687804 -0.091418289 0
-1.1497508 -1.1946951 -0.091142111 0
-1.2057438 -1.2046897 -0.071295805 0
-1.6139715 -1.2775578 -0.09075693 0
-2.5474386 -1.4441804 -0.14065908 0
-3.4107857 -1.5982866 -0.14131373 0
-5.1125436 -1.902048 -0.14085039 0
-10.228906 -2.8153112 -0.14063832 0
-1.3319613 -1.2272195 0.29133371 0
-1.3319952 -1.2272255 0.32358783 0
-1.3153191 -1.2242488 0.35289329 0
-0.88338768 -1.1702855 -0.09090782 0
-0.99567944 -1.1932671 -0.090641372 0
-1.1293643 -1.220627 -0.088652946 0
-1.1851267 -1.2320393 -0.069173016 0
-1.5939546 -1.3157098 -0.089297988 0
-2.5285652 -1.5069869 -0.1400317 0
-3.3934305 -1.6839898 -0.14124925 0
-5.0926237 -2.0317459 -0.14107552 0
-10.17599 -3.0721059 -0.14055319 0
-1.2492136 -1.2451553 0.31077427 0
-1.2300023 -1.2412235 0.33770624 0
-0.87151098 -1.1909169 -0.089374445 0
-0.99122691 -1.2185824 -0.09083686 0
-1.1301796 -1.2506933 -0.08983577 0
-1.1926205 -1.2651229 -0.07119181 0
-1.599104 -1.3590581 -0.090964518 0
-2.5174067 -1.5712707 -0.14029121 0
-3.3694692 -1.7681758 -0.14086518 0
-5.0486441 -2.1562202 -0.14030834 0
-10.125601 -3.3294656 -0.14068209 0
-0.8713854 -1.2142173 -0.090524547 0
-0.98089331 -1.2424523 -0.090013586 0
-1.1199136 -1.2782966 -0.089273877 0
-1.3239847 -1.3309133 -0.091321968 0
-1.5884879 -1.3991115 -0.090870701 0
-1.9882891 -1.5021943 -0.090780683 0
-3.3502471 -1.8533549 -0.14097369 0
-5.0284653 -2.2860584 -0.14083101 0
-10.057138 -3.5826273 -0.1405334 0
-0.85312456 -1.2326493 -0.087804206 0
-0.9763459 -1.2677585 -0.09043517 0
-1.1185995 -1.3082906 -0.090356432 0
-1.296398 -1.3589505 -0.088611968 0
-1.5752077 -1.4383912 -0.090574913 0
-1.9763385 -1.5526848 -0.090938278 0
-3.3271649 -1.9375733 -0.1409581 0
-4.9897695 -2.4112964 -0.14061917 0
-9.9954529 -3.8375578 -0.1407014 0
-0.86179662 -1.258834 -0.091163345 0
-0.97393602 -1.2938679 -0.091407456 0
-1.0977856 -1.3325603 -0.088219784 0
-1.3086381 -1.3984336 -0.091848142 0
-1.5647922 -1.4784597 -0.090748467 0
-1.9569714 -1.600982 -0.090496011 0
-3.302542 -2.0213571 -0.14098467 0
-4.9693666 -2.5420964 -0.14145148 0
-9.9192314 -4.0885034 -0.14067277 0
-0.85544437 -1.2807629 -0.091325723 0
-0.96829581 -1.3191704 -0.091875978 0
-1.1063567 -1.3661575 -0.091272168 0
-1.2885289 -1.4281574 -0.090457268 0
-1.5551202 -1.5188882 -0.091139667 0
-1.9438868 -1.6511997 -0.090789057 0
-3.2717543 -2.1031215 -0.14071172 0
-4.9049139 -2.6589456 -0.1402864 0
-9.8385 -4.3380251 -0.14068806 0
-0.83559597 -1.2977717 -0.088556878 0
-0.94811231 -1.3392613 -0.089556985 0
-1.0940372 -1.3930701 -0.090841554 0
-1.266377 -1.4566193 -0.088859297 0
-1.5386027 -1.5570006 -0.090808339 0
-1.9228951 -1.6987057 -0.090423755 0
-3.2461717 -2.1866546 -0.14097716 0
-4.8813257 -2.7896061 -0.14128377 0
-9.7429276 -4.5822878 -0.14049111 0
-0.83611172 -1.3221873 -0.090516217 0
-0.94776046 -1.3665881 -0.091336749 0
-1.0716714 -1.4158654 -0.088749267 0
-1.2701112 -1.4947816 -0.091268383 0
-1.5218467 -1.5948926 -0.090564065 0
-1.905991 -1.7476603 -0.090585239 0
-3.2074096 -2.2652123 -0.14041157 0
-4.8330293 -2.9116938 -0.14121769 0
-9.6517344 -4.8280115 -0.14055525 0
-0.81930977 -1.339726 -0.088635571 0
-0.94460201 -1.393252 -0.092701487 0
-1.0713221 -1.4473882 -0.090671413 0
-1.2402576 -1.5195591 -0.088717021 0
-1.5059733 -1.6330756 -0.090550266 0
-1.8946457 -1.7991203 -0.091437452 0
-3.1679249 -2.3430779 -0.13993485 0
-4.7761207 -3.0301156 -0.14087014 0
-9.5687218 -5.0775633 -0.14098293 0
-0.81195158 -1.361109 -0.089043386 0
-0.92289627 -1.411853 -0.090379201 0
-1.0520234 -1.4709132 -0.089334197 0
-1.2294981 -1.5520867 -0.089182921 0
-1.4892752 -1.6709038 -0.090553455 0
-1.874864 -1.8472646 -0.091566227 0
-3.1432958 -2.4274209 -0.14074489 0
-4.7225804 -3.1497555 -0.14084314 0
-9.4596891 -5.3164177 -0.14091043 0
-0.81286103 -1.3866524 -0.091538839 0
-0.91847497 -1.4382191 -0.091748826 0
-1.0459753 -1.5004719 -0.090511851 0
-1.2074434 -1.5793097 -0.088015743 0
-1.4689313 -1.7069827 -0.090205975 0
-1.8528217 -1.8944196 -0.091587253 0
-3.1014037 -2.5040472 -0.14038658 0
-4.6576562 -3.2638972 -0.14038153 0
-9.3429508 -5.5515208 -0.14079273 0
-0.80204213 -1.406782 -0.091410883 0
-0.9019469 -1.4587228 -0.090706833 0
-1.0245746 -1.5224771 -0.088998489 0
-1.2001547 -1.6137615 -0.089280136 0
-1.4469726 -1.7420827 -0.089760371 0
-1.8188636 -1.9354296 -0.090479396 0
-3.0723178 -2.5871027 -0.141184 0
-4.6151533 -3.389226 -0.14124052 0
-9.2224216 -5.784554 -0.14072868 0
-0.79721433 -1.4302032 -0.09285856 0
-0.897659 -1.4856877 -0.092394613 0
-1.0102772 -1.5478969 -0.088901199 0
-1.1882546 -1.6462097 -0.089960612 0
-1.434523 -1.7822456 -0.090695672 0
-1.8018799 -1.9851696 -0.091275699 0
-3.0170083 -2.6563935 -0.14006454 0
-4.5345421 -3.4946628 -0.14025185 0
-9.0930109 -6.0127125 -0.14058298 0
-0.78534377 -1.4499137 -0.092737399 0
-0.88133228 -1.5061433 -0.091627099 0
-1.0030119 -1.5774227 -0.09026324 0
-1.1725687 -1.6767483 -0.090167023 0
-1.4069808 -1.8140658 -0.089736931 0
-1.7701472 -2.0268071 -0.090623207 0
-2.9880459 -2.7402463 -0.14120378 0
-4.4754734 -3.6115746 -0.14055337 0
-8.9655237 -6.2418251 -0.140641 0
-0.76694345 -1.4655579 -0.091104575 0
-0.86884511 -1.5287578 -0.091812022 0
-0.99739921 -1.6084875 -0.092109375 0
-1.1529078 -1.7049347 -0.089845873 0
-1.3904051 -1.8522314 -0.09038087 0
-1.7481123 -2.0740829 -0.091140144 0
-2.9430377 -2.8151803 -0.14121379 0
-4.4063683 -3.7227435 -0.14047022 0
-8.8265743 -6.4641728 -0.14054336 0
-0.75443262 -1.4846178 -0.091041096 0
-0.8543027 -1.5501034 -0.091664664 0
-0.97834128 -1.6314363 -0.091496758 0
-1.1356702 -1.734598 -0.090045176 0
-1.3631921 -1.8837857 -0.089682467 0
-1.7153553 -2.1147017 -0.090601049 0
-2.893151 -2.8869905 -0.14097299 0
-4.339745 -3.8355324 -0.14067887 0
-8.7037983 -6.6970725 -0.14104857 0
-0.74582273 -1.5063782 -0.092108391 0
-0.84007627 -1.5716398 -0.091709487 0
-0.95963913 -1.6544257 -0.09105926 0
-1.1067077 -1.7562568 -0.088370733 0
-1.3534244 -1.9270847 -0.091563962 0
-1.6811115 -2.1539767 -0.089999072 0
-2.838773 -2.9555473 -0.14049886 0
-4.272521 -3.9482813 -0.14101699 0
-8.5452881 -6.9067664 -0.14071697 0
-0.72673088 -1.5208142 -0.090579711 0
-0.82142174 -1.5899771 -0.090847991 0
-0.94132805 -1.6775577 -0.090810291 0
-1.1052059 -1.7972554 -0.091538452 0
-1.32249 -1.9559616 -0.09057375 0
-1.6657442 -2.2066772 -0.091681369 0
-2.7890184 -3.0271261 -0.14056465 0
-4.1948032 -4.0539227 -0.14091901 0
-8.3939352 -7.1210036 -0.14073631 0
-0.72006732 -1.5443783 -0.092451833 0
-0.79810107 -1.6044518 -0.088969447 0
-0.91773146 -1.6965479 -0.089580141 0
-1.0780915 -1.8199993 -0.090407528 0
-1.3002441 -1.9910212 -0.090952151 0
-1.628245 -2.2435291 -0.090944819 0
-2.7352231 -3.0957239 -0.14043313 0
-4.1183534 -4.1605115 -0.14104883 0
-8.2330961 -7.3282013 -0.14063485 0
-0.70072305 -1.5582514 -0.091053627 0
-0.79023623 -1.6308316 -0.090887673 0
-0.90291673 -1.7221966 -0.090283133 0
-1.0553286 -1.8457772 -0.09014342 0
-1.2654021 -2.0161114 -0.089574911 0
-1.5988493 -2.2864814 -0.091277517 0
-2.6928174 -3.1735063 -0.14147831 0
-4.0309062 -4.258472 -0.14068188 0
-8.0809307 -7.5423641 -0.14094594 0
-0.6869846 -1.576492 -0.091288455 0
-0.771595 -1.6487103 -0.090342216 0
-0.89484203 -1.7539064 -0.09259624 0
-1.0374058 -1.8755902 -0.090886824 0
-1.2512614 -2.0581241 -0.091444932 0
-1.5635116 -2.3246419 -0.091019921 0
-2.6294284 -3.2344432 -0.14079617 0
-3.951488 -4.3628726 -0.14094812 0
-7.9109559 -7.7424321 -0.14088291 0
-0.67267722 -1.5943161 -0.091496252 0
-0.7537424 -1.6671228 -0.090096928 0
-0.86232018 -1.7646393 -0.089736678 0
-1.0171791 -1.9037222 -0.091352634 0
-1.2129894 -2.0795844 -0.089731775 0
-1.5241568 -2.3590519 -0.090371974 0
-2.577153 -3.3047748 -0.14128569 0
-3.8648469 -4.4612856 -0.14093159 0
-7.7382131 -7.9400554 -0.14088804 0
-0.66281992 -1.6164324 -0.093140416 0
-0.7359311 -1.6855063 -0.089975469 0
-0.84397787 -1.7875869 -0.090074755 0
-0.98730689 -1.9230014 -0.090100534 0
-1.1952639 -2.1194751 -0.091366954 0
-1.4986163 -2.4060769 -0.091592588 0
-1.981467 -2.8622649 -0.089692749 0
-3.7680852 -4.5502276 -0.14042376 0
-7.5566001 -8.1295443 -0.14076731 0
-0.64491737 -1.6311247 -0.092580684 0
-0.71911597 -1.7048571 -0.090237193 0
-0.82778013 -1.8128383 -0.091050915 0
-0.97153509 -1.9556898 -0.091705583 0
-1.1645591 -2.1475008 -0.091069005 0
-1.4537928 -2.4349167 -0.090460993 0
-1.9362942 -2.9143858 -0.089960359 0
-3.678848 -4.645988 -0.14054245 0
-7.3685102 -8.3124619 -0.14058609 0
-0.62904227 -1.6477652 -0.092741959 0
-0.70234185 -1.7243756 -0.090648465 0
-0.80390489 -1.8305259 -0.090377517 0
-0.94225121 -1.975121 -0.090772264 0
-1.131128 -2.172529 -0.090420268 0
-1.4248232 -2.4794896 -0.091536827 0
-1.8800279 -2.9552548 -0.089244641 0
-3.5911467 -4.7436604 -0.14092846 0
-7.1871915 -8.5021305 -0.14078109 0
-0.6065675 -1.6572286 -0.090953864 0
-0.68044335 -1.7384481 -0.089772932 0
-0.78440332 -1.8527427 -0.090861104 0
-0.90968949 -1.9904832 -0.089229219 0
-1.103357 -2.2034028 -0.090844713 0
-1.3881809 -2.5165403 -0.091732509 0
-1.84175 -3.015198 -0.090483509 0
-3.487848 -4.8249307 -0.14041448 0
-6.99511 -8.6808424 -0.14077289 0
-0.58473885 -1.6668125 -0.089399435 0
-0.66331214 -1.7577018 -0.09034539 0
-0.76968807 -1.8807515 -0.092700772 0
-0.88595575 -2.0152435 -0.089619718 0
-1.0741183 -2.2328994 -0.091156743 0
-1.3451161 -2.5463746 -0.091148995 0
-1.791218 -3.0624003 -0.090608619 0
-3.393899 -4.9162922 -0.14069486 0
-6.7979355 -8.8538914 -0.14074156 0
-0.57462233 -1.6900979 -0.091798835 0
-0.65327704 -1.7858623 -0.093183614 0
-0.74004567 -1.8915056 -0.090912841 0
-0.86331493 -2.0415895 -0.090400718 0
-1.0426134 -2.2598908 -0.091196306 0
-1.2992511 -2.5723546 -0.090244584 0
-1.7403303 -3.1093814 -0.090827741 0
-3.2937281 -5.0006881 -0.14069426 0
-6.6022711 -9.0289354 -0.1409222 0
-0.55480909 -1.7019 -0.09112554 0
-0.62898338 -1.7970039 -0.091962479 0
-0.71736729 -1.910327 -0.090998687 0
-0.8326956 -2.0581973 -0.089533813 0
-1.014305 -2.2910509 -0.09197209 0
-1.2629913 -2.6099086 -0.09086629 0
-1.6891351 -3.1562967 -0.091151826 0
-3.1918144 -5.082984 -0.1407205 0
-6.3893924 -9.1828165 -0.14062245 0
-0.53611815 -1.7149743 -0.090934671 0
-0.60139507 -1.803172 -0.089743577 0
-0.69391423 -1.9281774 -0.091002621 0
-0.80998385 -2.0850027 -0.090602316 0
-0.97905958 -2.313446 -0.091563933 0
-1.2218542 -2.6414933 -0.090890624 0
-1.6295739 -3.1923761 -0.09064094 0
-3.0850089 -5.1588583 -0.14052474 0
-6.179328 -9.3396873 -0.14057168 0
-0.51290303 -1.7215482 -0.089182742 0
-0.58289331 -1.8212817 -0.090473123 0
-0.66874903 -1.9436229 -0.090643547 0
-0.78485966 -2.1090763 -0.091282405 0
-0.94266665 -2.3339453 -0.091020457 0
-1.18065 -2.6730626 -0.091032259 0
-1.5744476 -3.2342095 -0.090760045 0
-2.9882772 -5.2488632 -0.14129087 0
-5.9651313 -9.4907694 -0.14050932 0
-0.50179005 -1.7456023 -0.092072479 0
-0.56185913 -1.8359644 -0.090521999 0
-0.64330089 -1.9584775 -0.090300284 0
-0.75421518 -2.1253262 -0.090738885 0
-0.91229284 -2.3631229 -0.091833986 0
-1.1317505 -2.693254 -0.090013854 0
-1.5170726 -3.2728953 -0.090730749 0
-2.8727527 -5.3122487 -0.14069381 0
-5.7507834 -9.6416798 -0.14059551 0
-0.48324332 -1.759153 -0.092350267 0
-0.54326952 -1.854589 -0.091566287 0
-0.61911142 -1.9751706 -0.090445109 0
-0.72111726 -2.1373503 -0.089631774 0
-0.8789742 -2.3883281 -0.09219294 0
-1.093079 -2.7287347 -0.090834625 0
-1.4613281 -3.3142166 -0.091040157 0
-2.7602932 -5.3794489 -0.14047764 0
-5.5327072 -9.7873287 -0.1406856 0
-0.45656493 -1.7591784 -0.089396246 0
-0.5192737 -1.8646964 -0.090832524 0
-0.59227043 -1.9875256 -0.089876048 0
-0.69401717 -2.1587315 -0.090208448 0
-0.83076435 -2.3888314 -0.089303456 0
-1.0431954 -2.7462821 -0.089802809 0
-1.4054091 -3.3557673 -0.091478936 0
-2.650039 -5.4500647 -0.14060457 0
-5.314373 -9.9332514 -0.14093183 0
-0.43929827 -1.774587 -0.090397693 0
-0.49761301 -1.8786005 -0.091060616 0
-0.56466281 -1.9981942 -0.089125805 0
-0.67029893 -2.1866126 -0.091935299 0
-0.79570991 -2.4103026 -0.089428239 0
-1.0011852 -2.7767999 -0.090309165 0
-1.3382965 -3.3780904 -0.090484492 0
-2.5387578 -5.5193 -0.14080568 0
-5.0810781 -10.053924 -0.14064951 0
-0.4187704 -1.7843583 -0.090136372 0
-0.47311127 -1.8872889 -0.090292104 0
-0.53780627 -2.0098319 -0.08869601 0
-0.63591516 -2.1956666 -0.090743132 0
-0.76396358 -2.4382114 -0.090519883 0
-0.95864594 -2.806972 -0.090885006 0
-1.2715449 -3.3996549 -0.08957804 0
-1.9249002 -4.637218 -0.091071658 0
-4.8483205 -10.174661 -0.14052849 0
-0.39921013 -1.7959731 -0.090439446 0
-0.45052457 -1.8994113 -0.090386011 0
-0.51703298 -2.0334771 -0.090599649 0
-0.60144055 -2.2036235 -0.089530759 0
-0.72745454 -2.4576392 -0.090596713 0
-0.91306555 -2.8317888 -0.091008298 0
-1.2142702 -3.4389491 -0.090198822 0
-1.8315135 -4.6831713 -0.090994902 0
-4.6197319 -10.303584 -0.14077495 0
-0.38206398 -1.8129841 -0.092120431 0
-0.42843246 -1.9126956 -0.090839319 0
-0.48721287 -2.039098 -0.089309745 0
-0.57212454 -2.2216933 -0.09003552 0
-0.68405795 -2.4623969 -0.088901274 0
-0.86420929 -2.8497972 -0.090548463 0
-1.1586206 -3.4829042 -0.09128385 0
-1.7359461 -4.7243943 -0.090797938 0
-4.381742 -10.413957 -0.14069168 0
-0.35726246 -1.813421 -0.090042509 0
-0.40576795 -1.9250087 -0.091203384 0
-0.45933118 -2.0482316 -0.088799097 0
-0.53882182 -2.231101 -0.089321457 0
-0.65113384 -2.4894764 -0.090209372 0
-0.81625146 -2.8693318 -0.090375192 0
-1.0936913 -3.5075865 -0.090995587 0
-1.6412932 -4.7673521 -0.09081433 0
-4.1433024 -10.523261 -0.1407354 0
-0.33836254 -1.8271546 -0.091179378 0
-0.376046 -1.9201995 -0.088201173 0
-0.43429148 -2.0640144 -0.089598082 0
-0.50990492 -2.2507129 -0.090289973 0
-0.61376762 -2.5071621 -0.090424977 0
-0.77015495 -2.8933005 -0.090772741 0
-1.026942 -3.5273383 -0.090462618 0
-1.5429405 -4.8013988 -0.090503566 0
-3.9032795 -10.629353 -0.14084984 0
-0.31750131 -1.8364788 -0.091413073 0
-0.35637894 -1.9398984 -0.090310492 0
-0.40681577 -2.0740669 -0.089494921 0
-0.47963902 -2.2677863 -0.090978347 0
-0.57670546 -2.5259957 -0.09090022 0
-0.72288007 -2.9148393 -0.091040827 0
-0.96869159 -3.5687299 -0.09167733 0
-1.452566 -4.8558989 -0.091337107 0
-3.6592491 -10.725963 -0.14087895 0
-0.2942144 -1.8390337 -0.090240516 0
-0.32825178 -1.9370151 -0.087998129 0
-0.380849 -2.0884235 -0.090262704 0
-0.44334555 -2.2683284 -0.089315481 0
-0.53493154 -2.5319715 -0.089896761 0
-0.67344648 -2.9307058 -0.090864547 0
-0.89941365 -3.5811834 -0.090849124 0
-1.3529603 -4.8867803 -0.091112278 0
-3.4085109 -10.803967 -0.14060211 0
-0.27312377 -1.8475988 -0.090550162 0
-0.30623242 -1.9512746 -0.089234807 0
-0.35424349 -2.1016157 -0.090937041 0
-0.40951258 -2.2746847 -0.088659398 0
-0.49463496 -2.5412354 -0.089434706 0
-0.62338769 -2.9444098 -0.090600573 0
-0.8273077 -3.582962 -0.089373015 0
-1.2484268 -4.9016485 -0.09023004 0
-3.1618645 -10.893358 -0.14076053 0
-0.25262859 -1.8585188 -0.09149731 0
-0.28338435 -1.9639345 -0.09025801 0
-0.32467014 -2.1054418 -0.090118296 0
-0.37917137 -2.2922454 -0.089773901 0
-0.45868722 -2.5647869 -0.090839736 0
-0.57353401 -2.9584255 -0.090492122 0
-0.76749235 -3.62322 -0.090842985 0
-1.1549772 -4.9513283 -0.091170944 0
-2.9100449 -10.966842 -0.14068387 0
-0.23007751 -1.8626038 -0.091049425 0
-0.2622115 -1.9840614 -0.092841946 0
-0.29602808 -2.1118786 -0.089876153 0
-0.34737414 -2.3059525 -0.090432473 0
-0.41959071 -2.5789111 -0.091205798 0
-0.52613729 -2.9816275 -0.091393299 0
-0.69979352 -3.6379998 -0.090570293 0
-1.0529429 -4.9728065 -0.090861477 0
-2.6587856 -11.042445 -0.14081211 0
-0.2076903 -1.8669813 -0.090792902 0
-0.23492365 -1.9815307 -0.091127731 0
-0.26789138 -2.1202002 -0.090076379 0
-0.31451535 -2.3163109 -0.090719707 0
-0.37698075 -2.5790541 -0.090009041 0
-0.47436348 -2.9886672 -0.090853564 0
-0.63387865 -3.6596229 -0.090914153 0
-0.9462465 -4.9735107 -0.089683406 0
-2.4028931 -11.100486 -0.14067189 0
-0.18371683 -1.8636249 -0.088980623 0
-0.2084734 -1.9808232 -0.089906551 0
-0.24063082 -2.1330574 -0.091157056 0
-0.28101164 -2.3242211 -0.090773217 0
-0.33724985 -2.5904541 -0.090292133 0
-0.4241831 -3.0019987 -0.091041945 0
-0.56715167 -3.6788156 -0.091201745 0
-0.84385914 -4.9887562 -0.089331992 0
-2.1470726 -11.158203 -0.14067864 0
-0.1621221 -1.8708405 -0.089593254 0
-0.18383865 -1.9882201 -0.090371631 0
-0.20872109 -2.1227117 -0.088469855 0
-0.24481417 -2.3177974 -0.088899054 0
-0.29887876 -2.6100206 -0.091664039 0
-0.37185004 -3.004436 -0.090315856 0
-0.49712667 -3.6815655 -0.090439014 0
-0.94354051 -6.0944662 -0.1407326 0
-1.8907806 -11.214371 -0.14080179 0
-0.14006707 -1.8761792 -0.089917012 0
-0.16081746 -2.0066605 -0.09305986 0
-0.18206629 -2.140276 -0.090572424 0
-0.21109614 -2.3228195 -0.088791408 0
-0.25562873 -2.6028464 -0.089980759 0
-0.32039565 -3.0101097 -0.090023674 0
-0.43111604 -3.7063341 -0.091363363 0
-0.8144272 -6.1166463 -0.14073138 0
-1.6327701 -11.262497 -0.14088772 0
-0.11724217 -1.8764313 -0.089268513 0
-0.13315518 -1.9958484 -0.090291269 0
-0.15291029 -2.1440978 -0.090501137 0
-0.17801912 -2.3325236 -0.0894688 0
-0.21475768 -2.6082232 -0.089911915 0
-0.26935148 -3.0179148 -0.090055697 0
-0.36188018 -3.7122838 -0.091075085 0
-0.6853804 -6.1399465 -0.14093612 0
-1.372309 -11.294909 -0.14075783 0
-0.095902115 -1.8891726 -0.091415174 0
-0.10842264 -2.0054753 -0.091534562 0
-0.1224687 -2.1359484 -0.088572972 0
-0.14432549 -2.3389754 -0.089802824 0
-0.17448856 -2.6191587 -0.090618126 0
-0.21793787 -3.0227575 -0.089930646 0
-0.29258579 -3.7161586 -0.090764754 0
-0.55422533 -6.1465163 -0.14050967 0
-1.1116521 -11.32443 -0.14071462 0
-0.072862454 -1.8876323 -0.090626441 0
-0.082532331 -2.0052814 -0.09103746 0
-0.093819678 -2.1426098 -0.089218087 0
-0.11036713 -2.3439357 -0.090045936 0
-0.13265671 -2.6151237 -0.08968664 0
-0.16660996 -3.0282185 -0.089985438 0
-0.22359362 -3.7215147 -0.090681799 0
-0.4249174 -6.1709356 -0.14107266 0
-0.85064632 -11.350598 -0.14074695 0
-0.049865883 -1.8838065 -0.089476146 0
-0.057132199 -2.0116546 -0.091903321 0
-0.064348057 -2.1386149 -0.088227175 0
-0.076719031 -2.3562779 -0.091448493 0
-0.08105588 -2.4325831 -0.067984007 0
-0.08075466 -2.4272835 -0.033468802 0
-0.081786223 -2.4454334 -0.00099188625 0
-0.081069902 -2.4328299 0.033658553 0
-0.080915079 -2.4301059 0.067416772 0
-0.081117973 -2.4336758 0.1010117 0
-0.027419059 -1.8892044 -0.090411879 0
-0.030831583 -1.9973626 -0.088995107 0
-0.035780396 -2.1542127 -0.090581127 0
-0.040444218 -2.3020303 -0.083606623 0
-0.040984605 -2.3191576 -0.054532696 0
-0.040612284 -2.3073571 -0.022119446 0
-0.040826492 -2.3141463 0.0083045233 0
-0.040606547 -2.3071754 0.039586283 0
-0.04081605 -2.3138154 0.070159316 0
-0.040632628 -2.308002 0.10100807 0
-0.0047261338 -1.8930862 -0.091145657 0
-0.0054416913 -2.0065377 -0.090632565 0
-0.0063311239 -2.1475568 -0.089395739 0
-0.0067670508 -2.2166729 -0.071522571 0
-0.0067077684 -2.2072737 -0.041381944 0
-0.0067049065 -2.20682 -0.012676327 0
-0.0067448262 -2.2131493 0.015409553 0
-0.0067220544 -2.2095389 0.044161115 0
-0.0067019369 -2.2063491 0.072672717 0
-0.0067481622 -2.2136781 0.10100535 0
0.017898012 -1.8833658 -0.089109682 0
0.020184571 -2.0041635 -0.090215825 0
0.022961678 -2.1508765 -0.089971758 0
0.023869803 -2.1988523 -0.069045179 0
0.024122158 -2.2121842 -0.041978616 0
0.023812821 -2.195842 -0.01166953 0
0.023676362 -2.188633 0.017110163 0
0.023790831 -2.1946802 0.044843927 0
0.023877122 -2.199239 0.07283356 0
0.023942133 -2.2026734 0.10100504 0
0.040902462 -1.8928714 -0.091283612 0
0.046254817 -2.0139956 -0.092221834 0
0.05193153 -2.1424603 -0.088739268 0
0.05477779 -2.2068713 -0.070308648 0
0.055016443 -2.2122722 -0.042102773 0
0.053887241 -2.1867182 -0.010906814 0
0.054154664 -2.19277 0.016753854 0
0.055029631 -2.2125707 0.04396553 0
0.054349348 -2.1971757 0.072859161 0
0.054676607 -2.2045815 0.10100512 0
0.064105466 -1.8975836 -0.092563607 0
0.071201853 -1.9996819 -0.089796595 0
0.081439227 -2.1469705 -0.089754619 0
0.084933065 -2.1972377 -0.069197349 0
0.085496977 -2.2053509 -0.041497264 0
0.084736697 -2.1944125 -0.011787316 0
0.084610716 -2.1926 0.016644897 0
0.084809124 -2.1954544 0.044682465 0
0.085813038 -2.209898 0.072522298 0
0.084924921 -2.1971204 0.10100496 0
0.086221687 -1.8874754 -0.090807177 0
0.096952856 -2.000541 -0.09035524 0
0.11124878 -2.1511655 -0.090843178 0
0.11648563 -2.206342 -0.070835896 0
0.11547275 -2.1956699 -0.040656555 0
0.11569049 -2.1979642 -0.012354447 0
0.11542053 -2.1951199 0.016292857 0
0.11610906 -2.2023742 0.044241995 0
0.11508658 -2.1916013 0.072890557 0
0.11529622 -2.1938102 0.10100494 0
0.10839613 -1.8812155 -0.089988641 0
0.12371308 -2.0083919 -0.092365138 0
0.14104503 -2.1522989 -0.091552608 0
0.1462492 -2.1955092 -0.069769897 0
0.14660336 -2.1984496 -0.041369069 0
0.14713381 -2.2028542 -0.01312246 0
0.14531471 -2.1877501 0.016581433 0
0.14563808 -2.1904349 0.044647515 0
0.1459657 -2.1931553 0.07277777 0
0.14634079 -2.1962695 0.1010051 0
0.13004747 -1.8726192 -0.088785239 0
0.14921325 -2.0037823 -0.092138954 0
0.16918017 -2.1404283 -0.090229429 0
0.17816852 -2.201941 -0.071258523 0
0.17735098 -2.196346 -0.041600052 0
0.17711012 -2.1946976 -0.012737362 0
0.17807165 -2.201278 0.015341396 0
0.17850466 -2.2042413 0.043808218 0
0.17807616 -2.201309 0.072491221 0
0.17808427 -2.2013643 0.10100537 0
0.15354739 -1.8763711 -0.090357535 0
0.173043 -1.9897211 -0.090228133 0
0.19808258 -2.1353042 -0.090143792 0
0.20934811 -2.2008033 -0.071788885 0
0.20830819 -2.194757 -0.041984934 0
0.20907034 -2.1991885 -0.013619935 0
0.21114686 -2.2112615 0.014288874 0
0.21029738 -2.2063224 0.043480046 0
0.20719296 -2.188273 0.072684236 0
0.21064034 -2.2083166 0.10100571 0
0.17596291 -1.8726543 -0.090447478 0
0.19994195 -1.9937031 -0.091887511 0
0.22688611 -2.1297202 -0.090102591 0
0.24070917 -2.1995006 -0.072410695 0
0.2405872 -2.1988847 -0.04314572 0
0.23873629 -2.1895411 -0.013238212 0
0.24116471 -2.2018001 0.01455752 0
0.23990011 -2.1954162 0.043728605 0
0.24069688 -2.1994386 0.072287217 0
0.24113055 -2.2016277 0.10100568 0
0.19880998 -1.8706965 -0.091044091 0
0.2247463 -1.9862489 -0.091479354 0
0.25465822 -2.1195135 -0.089404635 0
0.27797684 -2.2234032 -0.076780148 0
0.27330077 -2.2025702 -0.044357467 0
0.27292031 -2.2008753 -0.014932906 0
0.27352729 -2.2035797 0.013968157 0
0.27297288 -2.2011096 0.04315101 0
0.27240193 -2.1985657 0.072154708 0
0.27378309 -2.2047193 0.10100596 0
0.22189294 -1.8690373 -0.091835894 0
0.25077981 -1.9840709 -0.092214473 0
0.28268546 -2.1111259 -0.089128919 0
0.30427206 -2.1970882 -0.074036784 0
0.30452204 -2.1980836 -0.044691343 0
0.30530491 -2.2012012 -0.015661737 0
0.30422339 -2.1968944 0.013926478 0
0.30449402 -2.1979723 0.042953674 0
0.30525896 -2.2010183 0.071922511 0
0.30348581 -2.1939573 0.10100586 0
0.24171339 -1.8548917 -0.090006523 0
0.27173498 -1.962837 -0.089357369 0
0.31413311 -2.1152833 -0.091111563 0
0.33753017 -2.1994095 -0.075547703 0
0.33712575 -2.1979554 -0.045651544 0
0.33997518 -2.2082007 -0.017121157 0
0.33526629 -2.1912694 0.013751546 0
0.33792168 -2.2008171 0.042427555 0
0.33587155 -2.1934457 0.071910672 0
0.34008497 -2.2085955 0.10100653 0
0.26156041 -1.8422695 -0.088612415 0
0.29831091 -1.9625649 -0.090710275 0
0.34008455 -2.0993028 -0.089784734 0
0.36917534 -2.1945255 -0.076134466 0
0.36900091 -2.1939547 -0.04624613 0
0.37070432 -2.1995304 -0.017147621 0
0.37054336 -2.1990035 0.012541668 0
0.37219337 -2.2044046 0.04182031 0
0.3697629 -2.1964488 0.071622916 0
0.36786216 -2.1902273 0.10100625 0
0.28498605 -1.841385 -0.0899482 0
0.32491213 -1.9611713 -0.091984533 0
0.36838642 -2.0916028 -0.089994289 0
0.43024337 -2.2771862 -0.089812465 0
0.52021933 -2.547132 -0.090946816 0
0.6513505 -2.9405522 -0.091011517 0
0.86533689 -3.5825543 -0.090128414 0
1.3025085 -4.8941565 -0.0906514 0
3.2891541 -10.854494 -0.14080554 0
0.30532077 -1.8309776 -0.089276843 0
0.34452286 -1.9393929 -0.089321591 0
0.39969918 -2.0919857 -0.091742642 0
0.46034989 -2.2597182 -0.088881887 0
0.5593546 -2.5335207 -0.090945028 0
0.6999405 -2.9223177 -0.090892069 0
0.93109846 -3.5615964 -0.090253033 0
1.4023901 -4.8649764 -0.090894066 0
3.5343025 -10.760885 -0.14062001 0
0.33264232 -1.8388658 -0.092890196 0
0.37226605 -1.9403626 -0.09133146 0
0.42536664 -2.0763807 -0.090826295 0
0.4912096 -2.2450385 -0.088476859 0
0.598625 -2.5201848 -0.091101132 0
0.74747962 -2.9014785 -0.090632714 0
1.0018902 -3.5531554 -0.09144222 0
1.4971006 -4.8216453 -0.0905573 0
3.7802238 -10.669904 -0.14065193 0
0.35003224 -1.8208407 -0.090726368 0
0.39323747 -1.923767 -0.089916922 0
0.45069352 -2.0606425 -0.089991339 0
0.52724749 -2.2430143 -0.090114497 0
0.63258731 -2.4939616 -0.089750387 0
0.79593122 -2.8830898 -0.090739526 0
1.0626781 -3.5185511 -0.090795197 0
1.596985 -4.7914114 -0.090998314 0
4.0207858 -10.565545 -0.14050257 0
0.36624655 -1.8014184 -0.08831396 0
0.41768861 -1.9157919 -0.090375312 0
0.48077884 -2.0560632 -0.091272391 0
0.55803728 -2.2278352 -0.089883111 0
0.67013431 -2.4770656 -0.08968877 0
0.84021199 -2.8552067 -0.090000309 0
1.1316625 -3.5032017 -0.091733716 0
1.6903998 -4.7454667 -0.090770386 0
4.2681189 -10.476624 -0.14089906 0
0.39228883 -1.8037403 -0.091095872 0
0.44262913 -1.9085141 -0.091113232 0
0.50849175 -2.0455949 -0.091632925 0
0.58672947 -2.208432 -0.089110769 0
0.71102595 -2.4671319 -0.090651311 0
0.8880955 -2.8356688 -0.090231337 0
1.1863726 -3.4564767 -0.090384461 0
1.7830777 -4.6984062 -0.090603106 0
4.498291 -10.349614 -0.14047793 0
0.41524068 -1.7985443 -0.092274703 0
0.46509457 -1.8959318 -0.090870671 0
0.53173524 -2.0261114 -0.090461977 0
0.62073869 -2.199976 -0.090170331 0
0.74729794 -2.4472041 -0.090448879 0
0.93948543 -2.8226342 -0.091273241 0
1.2514914 -3.4321249 -0.090882562 0
1.8817612 -4.6633301 -0.091182001 0
4.7435966 -10.253805 -0.14101711 0
0.42984691 -1.7773966 -0.089748763 0
0.48714459 -1.8826878 -0.090603657 0
0.56043088 -2.01736 -0.091391943 0
0.64784467 -2.1779931 -0.089216717 0
0.77798569 -2.4171426 -0.089016251 0
0.98238415 -2.7927489 -0.090675794 0
1.3153799 -3.4046679 -0.09127038 0
1.9689091 -4.6056046 -0.090699606 0
4.9672809 -10.115466 -0.1406008 0
0.45248413 -1.7713288 -0.090976991 0
0.5067156 -1.8652602 -0.089543067 0
0.59043473 -2.0102658 -0.092786573 0
0.68237895 -2.1695175 -0.090551279 0
0.81856906 -2.4054053 -0.090139322 0
1.0290285 -2.7699308 -0.090947188 0
1.3739475 -3.3673468 -0.090996854 0
2.5953963 -5.4829535 -0.14059407 0
5.1946716 -9.9850216 -0.14054081 0
0.4761214 -1.76631 -0.092626937 0
0.53055638 -1.8553286 -0.090229146 0
0.60867238 -1.9830732 -0.090475835 0
0.70573056 -2.1417944 -0.08887849 0
0.85162407 -2.3803771 -0.08959838 0
1.0717398 -2.7403364 -0.090609245 0
1.427669 -3.3223948 -0.090213992 0
2.7069979 -5.4145069 -0.14050913 0
5.4207392 -9.8523426 -0.14057422 0
0.49504149 -1.7532492 -0.092418097 0
0.55264062 -1.8423125 -0.090368517 0
0.63371271 -1.9676712 -0.090524174 0
0.74078375 -2.1332307 -0.09048266 0
0.88995403 -2.3638868 -0.09035214 0
1.1190486 -2.7181268 -0.09120553 0
1.4856161 -3.2849357 -0.090154104 0
2.8220689 -5.3514404 -0.14087604 0
5.64645 -9.7186708 -0.14073747 0
0.51147968 -1.7366171 -0.091408186 0
0.57548207 -1.8303097 -0.090867601 0
0.65395641 -1.9451876 -0.089288659 0
0.76795542 -2.1120698 -0.090120025 0
0.91699731 -2.330251 -0.088827975 0
1.1577729 -2.6827204 -0.090454273 0
1.5542814 -3.263166 -0.091544278 0
2.9295003 -5.2763376 -0.14073311 0
5.8613791 -9.5682907 -0.14059219 0
0.52404076 -1.714991 -0.089179002 0
0.59709799 -1.81635 -0.091054134 0
0.68043035 -1.9319648 -0.09000925 0
0.80011338 -2.098012 -0.091099031 0
0.95056587 -2.3067486 -0.08883328 0
1.201342 -2.6546736 -0.090647496 0
1.6064627 -3.2167351 -0.090982787 0
3.0339315 -5.1971946 -0.14050995 0
6.079565 -9.4226837 -0.14073513 0
0.54627329 -1.7069438 -0.090615623 0
0.61707526 -1.8001242 -0.090836085 0
0.70147485 -1.9111998 -0.089323662 0
0.82498437 -2.0737469 -0.09043733 0
0.98494828 -2.2842705 -0.08911223 0
1.2509123 -2.6342976 -0.091871463 0
1.654834 -3.1658866 -0.090137161 0
3.1391039 -5.1192889 -0.14050752 0
6.2971497 -9.2754965 -0.14099404 0
0.56525218 -1.6942631 -0.090971239 0
0.63608468 -1.7827563 -0.09045855 0
0.73420179 -1.9053372 -0.091872014 0
0.85391015 -2.0548928 -0.090848036 0
1.0191396 -2.2613192 -0.089454673 0
1.2836057 -2.5917251 -0.090614699 0
1.7223277 -3.1398349 -0.091602989 0
3.246918 -5.0445547 -0.14085092 0
6.4989605 -9.1074371 -0.14079858 0
0.58338368 -1.6804231 -0.091144092 0
0.65805286 -1.7690313 -0.091087125 0
0.75326365 -1.8820155 -0.090898387 0
0.88503748 -2.0383883 -0.091832198 0
1.0533059 -2.2380681 -0.089889191 0
1.3225501 -2.5575733 -0.09045852 0
1.7669386 -3.0849183 -0.090615608 0
3.3446071 -4.9570985 -0.14059113 0
6.7005386 -8.9394989 -0.14075594 0
0.60269397 -1.6678289 -0.09180335 0
0.67659807 -1.7511678 -0.090826191 0
0.77909017 -1.8667442 -0.091775693 0
0.90502125 -2.0087519 -0.09051802 0
1.077406 -2.2031436 -0.08864335 0
1.3584638 -2.5200818 -0.090003438 0
1.823867 -3.0448995 -0.091101967 0
3.4452579 -4.8732805 -0.14070365 0
6.8908281 -8.7587194 -0.14046966 0
0.61330891 -1.6456631 -0.089835979 0
0.69601786 -1.7343202 -0.090939961 0
0.80014187 -1.8459324 -0.09157344 0
0.93523508 -1.9907408 -0.091502719 0
1.111329 -2.1794984 -0.089266814 0
1.3985455 -2.48737 -0.090262122 0
1.863578 -2.9858456 -0.089915849 0
3.5473588 -4.7907157 -0.14105856 0
7.0874438 -8.5853872 -0.14056437 0
0.64080584 -1.6413481 -0.093214177 0
0.71402133 -1.7159624 -0.090785839 0
0.82157874 -1.8255748 -0.091591604 0
0.959337 -1.9659648 -0.091328494 0
1.1357872 -2.1457863 -0.08839605 0
1.4418782 -2.457725 -0.091059037 0
1.9048704 -2.9295628 -0.089068465 0
3.6331787 -4.6908908 -0.14046268 0
7.2789497 -8.4063158 -0.14063425 0
0.65162414 -1.6197356 -0.091607027 0
0.73066503 -1.6963217 -0.09040191 0
0.8412661 -1.803488 -0.091328062 0
0.97878635 -1.9367374 -0.090372004 0
1.1658604 -2.1180015 -0.08860027 0
1.4724436 -2.4150634 -0.090275861 0
1.9604191 -2.8878844 -0.089769326 0
3.7329466 -4.6053638 -0.14095077 0
7.4680395 -8.2244596 -0.14077242 0
0.66427279 -1.6003079 -0.090725295 0
0.75261539 -1.6816871 -0.091514252 0
0.86508864 -1.7852949 -0.09212067 0
1.0012442 -1.9107182 -0.090154953 0
1.2072959 -2.1005285 -0.090718128 0
1.5143768 -2.3834043 -0.091091625 0
2.5506878 -3.3380306 -0.14138059 0
3.8226261 -4.5097113 -0.14092739 0
7.6500559 -8.0354528 -0.14083068 0
0.68142802 -1.5850849 -0.091276176 0
0.76927978 -1.6620064 -0.091372527 0
0.87308276 -1.7528943 -0.089539774 0
1.0254999 -1.8863479 -0.090402596 0
1.2357482 -2.0704372 -0.090842195 0
1.3370605 -2.1591444 -0.06478902 0
1.3324734 -2.155128 -0.02275276 0
3.9057374 -4.4082303 -0.1406492 0
7.8246202 -7.8395309 -0.14080653 0
0.69140625 -1.5637021 -0.089938559 0
0.78256798 -1.6395448 -0.090529583 0
0.90364856 -1.7402786 -0.092014857 0
1.0447141 -1.8576391 -0.089837112 0
1.2483339 -2.0270419 -0.088668205 0
1.3183353 -2.0852802 -0.058983166 0
1.3265226 -2.0920916 -0.01957511 0
1.3397721 -2.1031146 0.019893358 0
7.9980025 -7.6424766 -0.1408983 0
0.71931833 -1.5568755 -0.093633436 0
0.8068189 -1.6260121 -0.092472352 0
0.90977514 -1.7073606 -0.089389421 0
1.0729605 -1.8362978 -0.091031663 0
1.2697734 -1.991805 -0.088020734 0
1.2571812 -1.9818555 -0.048468549 0
1.4735967 -2.1528513 -0.030237621 0
1.2839582 -2.0030127 0.024847107 0
1.3356433 -2.0438504 0.061421163 0
0.72722465 -1.5339315 -0.091989942 0
0.81897736 -1.6027398 -0.091613032 0
0.93154317 -1.6871567 -0.090198793 0
1.0909051 -1.8066673 -0.090489767 0
1.3111383 -1.9718275 -0.090427436 0
1.4901254 -2.1060557 -0.072771363 0
1.2741854 -1.9441153 -0.010287857 0
1.2728257 -1.9430957 0.026959525 0
1.2807369 -1.9490285 0.063777775 0
1.3513165 -2.0019584 0.10101859 0
0.73085696 -1.5084083 -0.089413278 0
0.83268726 -1.5808333 -0.091264568 0
0.95563078 -1.6682746 -0.091565393 0
1.1085532 -1.7770379 -0.090036534 0
1.3215432 -1.9285233 -0.088424124 0
1.4997145 -2.0552444 -0.07069657 0
1.3044512 -1.9163669 -0.010852335 0
1.2982538 -1.9119591 0.026858548 0
1.3071839 -1.9183104 0.063702479 0
1.3047848 -1.9166042 0.10101607 0
0.74962461 -1.4938048 -0.090926148 0
0.83952874 -1.5543909 -0.089488693 0
0.96562505 -1.6393667 -0.090211131 0
1.1481934 -1.7623988 -0.093445756 0
1.3483174 -1.8972615 -0.088916935 0
1.394344 -1.9282787 -0.055862878 0
1.411478 -1.9398253 -0.017937994 0
1.4341171 -1.9550816 0.020515027 0
1.3501077 -1.898468 0.06314455 0
1.3505647 -1.8987761 0.10101686 0
0.760575 -1.4737725 -0.090537734 0
0.85936332 -1.5367806 -0.090794139 0
0.98842496 -1.6190972 -0.091518171 0
1.1475878 -1.7206126 -0.090154253 0
1.3722929 -1.8639315 -0.08912424 0
1.7354639 -2.0955651 -0.091054387 0
2.9231784 -2.8531001 -0.14133468 0
4.3814802 -3.7832181 -0.14091162 0
8.7657404 -6.5795379 -0.14073582 0
0.77310747 -1.4547845 -0.090674348 0
0.86904782 -1.5126237 -0.089946099 0
1.0046635 -1.5943816 -0.091645233 0
1.1669389 -1.6922117 -0.090361707 0
1.4023626 -1.8341405 -0.090275817 0
1.7683895 -2.0548053 -0.091660969 0
2.9563806 -2.771004 -0.14028218 0
4.4445634 -3.6681774 -0.1405846 0
8.8971033 -6.352458 -0.14054863 0
0.78132969 -1.4332902 -0.089872964 0
0.88450044 -1.4919913 -0.090493239 0
1.0086278 -1.5626159 -0.089568429 0
1.181743 -1.661113 -0.089947782 0
1.4144299 -1.7935046 -0.089092128 0
1.7854271 -2.0045905 -0.090663992 0
3.0052722 -2.6986444 -0.14067456 0
4.5136404 -3.556859 -0.14073996 0
9.0419674 -6.1333356 -0.14087978 0
0.78762954 -1.410965 -0.088750489 0
0.8915934 -1.466693 -0.089358605 0
1.0276421 -1.5396194 -0.090476476 0
1.2040714 -1.6341913 -0.090865202 0
1.4517441 -1.7669519 -0.091409139 0
1.8069081 -1.9573313 -0.090286128 0
3.0530756 -2.6253173 -0.14112122 0
4.57511 -3.4411771 -0.14064088 0
9.1662197 -5.9021597 -0.14080961 0
0.80885607 -1.3964447 -0.091330208 0
0.90768611 -1.4462525 -0.090272091 0
1.0436829 -1.5147915 -0.090933345 0
1.2242709 -1.6058034 -0.091543667 0
1.455294 -1.7222332 -0.089366235 0
1.8333387 -1.9127584 -0.090555899 0
3.0866051 -2.5443735 -0.14059065 0
4.6419382 -3.3282228 -0.14097564 0
9.2754936 -5.6634183 -0.14050332 0
0.81228048 -1.3728155 -0.089780502 0
0.92447656 -1.4258533 -0.091428258 0
1.0515267 -1.4859127 -0.090009265 0
1.2237277 -1.5673162 -0.089101754 0
1.4825277 -1.6896569 -0.090556063 0
1.8617805 -1.8689384 -0.091146998 0
3.1239169 -2.4655795 -0.14051782 0
4.6943007 -3.207936 -0.14070921 0
9.4124308 -5.4383049 -0.14106798 0
0.82424551 -1.3533496 -0.090372391 0
0.933936 -1.4018556 -0.091168486 0
1.060367 -1.4577644 -0.089406289 0
1.2493664 -1.5413414 -0.09086024 0
1.5018644 -1.6529981 -0.090829216 0
1.8940754 -1.826437 -0.092238314 0
3.1626856 -2.3874266 -0.14071004 0
4.7459307 -3.0875504 -0.14056392 0
9.5075788 -5.1931891 -0.14070931 0
0.84665978 -1.3380249 -0.093474276 0
0.9389174 -1.3760688 -0.09012311 0
1.0662428 -1.4285736 -0.088409506 0
1.2599865 -1.5084671 -0.090417705 0
1.5088776 -1.6111015 -0.089659221 0
1.9044567 -1.7742251 -0.091214739 0
3.1981127 -2.3076856 -0.14079754 0
4.8027477 -2.9693837 -0.14083517 0
9.6135254 -4.9531879 -0.14078237 0
0.83992797 -1.3107291 -0.090000324 0
0.94277525 -1.350134 -0.08899311 0
1.0853488 -1.4047596 -0.089881189 0
1.2645687 -1.473426 -0.089196227 0
1.5264724 -1.5737718 -0.089957841 0
1.9180689 -1.7238081 -0.090656333 0
3.2370234 -2.2291524 -0.14129646 0
4.853529 -2.8485003 -0.14095233 0
9.7151957 -4.7111998 -0.14089984 0
0.85193956 -1.2909368 -0.090940408 0
0.96111172 -1.3296354 -0.09089791 0
1.1000305 -1.3788784 -0.090673573 0
1.2820474 -1.4433985 -0.090041004 0
1.5493716 -1.5381578 -0.091028906 0
1.933971 -1.6744881 -0.09045627 0
3.2507544 -2.1412525 -0.14007102 0
4.8927894 -2.72331 -0.14065082 0
9.7905054 -4.4594193 -0.14051735 0
0.85311854 -1.2673597 -0.089562871 0
0.96742022 -1.3046581 -0.090507008 0
1.1085889 -1.3507235 -0.09051428 0
1.2989614 -1.4128448 -0.090907924 0
1.5599704 -1.498016 -0.090690009 0
1.9478126 -1.6245745 -0.090178289 0
3.2934465 -2.0636749 -0.14114919 0
4.9344893 -2.5991716 -0.14062664 0
9.8807869 -4.2132215 -0.14066026 0
0.86232448 -1.2465057 -0.090108879 0
0.97218466 -1.2793118 -0.08993993 0
1.1073989 -1.3196889 -0.088806488 0
1.2888703 -1.3738793 -0.087921135 0
1.5651512 -1.4563813 -0.089816876 0
1.9588073 -1.5739336 -0.089748286 0
3.3115737 -1.9778919 -0.14057045 0
4.9750843 -2.4746437 -0.1407018 0
9.9604588 -3.9633584 -0.14069602 0
0.87511659 -1.2264756 -0.091557361 0
0.97935855 -1.2547598 -0.08997225 0
1.127685 -1.2950056 -0.090901442 0
1.3176199 -1.346541 -0.090754248 0
1.5692776 -1.414824 -0.088949718 0
1.9609869 -1.5211074 -0.088592701 0
3.3406541 -1.8954561 -0.14094648 0
5.020812 -2.3513374 -0.14117618 0
10.039372 -3.7130358 -0.14086576 0
0.87248296 -1.2023062 -0.089732476 0
0.99005288 -1.2310426 -0.09080752 0
1.1287717 -1.2649481 -0.089840971 0
1.3066165 -1.308417 -0.087918974 0
1.5825272 -1.375855 -0.089312114 0
1.9642957 -1.4691668 -0.087681286 0
3.355952 -1.8093148 -0.14047851 0
5.0495629 -2.2232666 -0.14098369 0
10.102461 -3.4582942 -0.14080741 0
0.87578094 -1.1798575 -0.089341082 0
0.99667621 -1.206193 -0.090969168 0
1.1277565 -1.2347471 -0.088560723 0
1.3297775 -1.2787546 -0.090151899 0
1.604756 -1.3386551 -0.090864591 0
1.9863795 -1.4217867 -0.088693984 0
3.3687179 -1.722911 -0.13998798 0
5.0724716 -2.0940514 -0.14066835 0
10.15213 -3.2005875 -0.14058346 0
0.88896996 -1.1593832 -0.091215186 0
0.99399567 -1.1795003 -0.089466386 0
1.1527164 -1.2099024 -0.091761164 0
1.3296421 -1.2437916 -0.089148022 0
1.6170805 -1.2988489 -0.091342993 0
2.5495086 -1.4774506 -0.14123522 0
3.4009373 -1.6405373 -0.14104013 0
5.0973892 -1.9654837 -0.14060473 0
10.208876 -2.9445617 -0.14068253 0
0.90079862 -1.1382183 -0.092899986 0
1.0113624 -1.1565173 -0.091926061 0
1.1360266 -1.1771499 -0.088114686 0
1.3380606 -1.2105876 -0.089492775 0
1.6203928 -1.2573152 -0.090871088 0
2.5604057 -1.4128925 -0.14117767 0
3.4091959 -1.553372 -0.14053769 0
5.13064 -1.8382807 -0.14108808 0
10.258368 -2.6869483 -0.14076288 0
0.89267075 -1.1138473 -0.090410568 0
1.0077564 -1.1299227 -0.090499006 0
1.1442344 -1.1489865 -0.088750161 0
1.3429756 -1.1767472 -0.089458324 0
1.6333026 -1.217301 -0.091657363 0
2.5660079 -1.3475841 -0.14077514 0
3.4262593 -1.4677467 -0.14081413 0
5.1452169 -1.7078561 -0.14084314 0
10.294345 -2.4271021 -0.14067855 0
0.89256811 -1.0909715 -0.089777 0
1.0112257 -1.1045035 -0.090544812 0
1.1538856 -1.1207727 -0.089740314 0
1.3448706 -1.142553 -0.089117803 0
1.6366314 -1.175826 -0.091433339 0
2.58149 -1.2835796 -0.14145708 0
3.4273081 -1.3800384 -0.14011525 0
5.1657658 -1.5782956 -0.14103319 0
10.339268 -2.168292 -0.14095755 0
0.89710772 -1.0686433 -0.090258844 0
1.0168527 -1.0792465 -0.091119982 0
1.1253244 -1.0888515 -0.084541075 0
1.1313998 -1.0893894 -0.05851515 0
1.6350863 -1.1339899 -0.090760939 0
2.5880001 -1.2183686 -0.1414483 0
3.4498665 -1.2946854 -0.14108308 0
5.1685839 -1.4468745 -0.14054719 0
10.35837 -1.9064205 -0.1407859 0
0.89421582 -1.0457166 -0.089277245 0
