# .PCD v0.7 - Point Cloud Data file format
VERSION 0.7
FIELDS x y z intensity
SIZE 4 4 4 4
TYPE F F F F
COUNT 1 1 1 1
WIDTH 1349
HEIGHT 1
VIEWPOINT 0 0 0 1 0 0 0
POINTS 1349
DATA ascii
0.24902715 2.6244133 0.53491962 0
0.25372872 2.632401 0.66807491 0
0.22178353 2.617094 -0.050044049 0
0.23879255 2.646842 0.41525015 0
0.23656209 2.642941 0.5381704 0
0.23285772 2.6364622 0.66519296 0
0.20161875 2.6214941 -0.049827509 0
0.21469189 2.6450415 0.4118315 0
0.21558882 2.6466572 0.53582221 0
0.21680792 2.6488531 0.66640055 0
0.19078757 2.6429009 -0.050312463 0
0.19720013 2.6548021 0.41187468 0
0.19201829 2.645185 0.53162932 0
0.20241715 2.6644843 0.66921937 0
0.16861667 2.6433578 -0.0499558 0
0.18191178 2.6687942 0.41319942 0
0.17950012 2.66418 0.53525913 0
0.18118913 2.6674116 0.66616958 0
0.15194787 2.6541226 -0.050025176 0
0.1638393 2.6775882 0.41308427 0
0.16384597 2.6776016 0.53684604 0
0.16110523 2.6721931 0.66412437 0
0.13862438 2.6718183 -0.050378166 0
0.14334704 2.6814361 0.41162881 0
0.13828196 2.6711209 0.53111994 0
0.13905706 2.6726995 0.66023678 0
0.11846384 2.6757224 -0.050190493 0
0.11709907 2.6728523 0.40674311 0
0.12045714 2.6799145 0.53117383 0
0.1245658 2.6885552 0.6635372 0
0.10064872 2.6844144 -0.050202075 0
0.095903479 2.6741021 0.40474054 0
0.10449567 2.6927748 0.53279918 0
0.10146829 2.6861956 0.65859997 0
0.082601212 2.6926122 -0.050203063 0
0.08479955 2.6975524 0.4090234 0
0.083997212 2.6957493 0.53088903 0
0.084618889 2.6971464 0.65985453 0
0.065978847 2.704134 -0.050342087 0
0.06297221 2.6971414 0.40669537 0
0.06636592 2.7050343 0.53136826 0
0.068805419 2.7107077 0.66237468 0
0.042967938 2.7005308 -0.049903832 0
0.047330819 2.7110403 0.40840861 0
0.046253465 2.7084451 0.52980912 0
0.045707248 2.7071295 0.65728754 0
0.026043674 2.7113039 -0.050031837 0
0.026822111 2.7132478 0.40695438 0
0.025982639 2.7111514 0.52809638 0
0.029522678 2.7199917 0.65968859 0
0.0058607669 2.7138927 -0.049854193 0
0.010843477 2.726804 0.40868157 0
0.0076638074 2.7185647 0.5281617 0
0.0086090183 2.721014 0.65691417 0
-0.012904921 2.7199452 -0.049819 0
-0.013324001 2.718817 0.40459213 0
-0.010764518 2.7257066 0.52821243 0
-0.011212268 2.7245011 0.65535796 0
-0.027925352 2.7364166 -0.050187942 0
-0.030866602 2.7281837 0.40530524 0
-0.033439733 2.7209811 0.52415258 0
-0.034549452 2.7178748 0.64947212 0
-0.047286667 2.7410483 -0.050115563 0
-0.054673053 2.719521 0.40121189 0
-0.054348268 2.7204676 0.52169228 0
-0.051243521 2.7295163 0.65173697 0
-0.064360537 2.7524774 -0.050308142 0
-0.072407313 2.7280266 0.40182742 0
-0.072459824 2.7278671 0.52210617 0
-0.074970461 2.7202384 0.64496589 0
-0.083119787 2.7590218 -0.050325174 0
-0.09214855 2.7303774 0.40085393 0
-0.092654265 2.7287731 0.52033299 0
-0.091073252 2.733789 0.64826185 0
-0.1063411 2.7508149 -0.049800929 0
-0.1102264 2.7379246 0.40133518 0
-0.11253605 2.730262 0.5188576 0
-0.11367033 2.7264988 0.64262092 0
-0.12278662 2.7648311 -0.050115049 0
-0.10362945 2.8314114 0.064588487 0
-0.1036788 2.8312399 0.18234597 0
-0.10751522 2.8179064 0.29943129 0
-0.13002779 2.7396648 0.40033355 0
-0.13178439 2.7335596 0.51810056 0
-0.13136478 2.735018 0.64393443 0
-0.14068277 2.774406 -0.050271347 0
-0.13404869 2.798605 0.063167162 0
-0.1331078 2.802037 0.17846908 0
-0.13548036 2.7933826 0.29380915 0
-0.1500086 2.7403882 0.39913249 0
-0.1518061 2.7338314 0.51638597 0
-0.15111281 2.7363603 0.64225805 0
-0.16082962 2.7757952 -0.050133463 0
-0.15689899 2.7908752 0.062689826 0
-0.15778612 2.7874718 0.17627175 0
-0.15702017 2.7904103 0.29228777 0
-0.1704434 2.7389119 0.39742187 0
-0.17149283 2.7348857 0.51503295 0
-0.17066102 2.7380769 0.640854 0
-0.18130969 2.7754447 -0.049941372 0
-0.17869078 2.786037 0.062330917 0
-0.17689846 2.7932861 0.17637184 0
-0.17802663 2.7887232 0.29106039 0
-0.19133325 2.7349045 0.3951191 0
-0.19146426 2.7343748 0.51323277 0
-0.19272332 2.7292826 0.63507634 0
-0.20079277 2.7787752 -0.049894273 0
-0.20056956 2.7797294 0.061929263 0
-0.19915445 2.7857788 0.17502794 0
-0.19945605 2.7844894 0.28941402 0
-0.20677255 2.7532129 0.39873928 0
-0.20964338 2.7409408 0.513942 0
-0.21112172 2.734621 0.63544363 0
-0.21795817 2.7924683 -0.050235152 0
-0.21800159 2.7922714 0.062227957 0
-0.21858995 2.7896054 0.17496601 0
-0.21912222 2.7871935 0.28910342 0
-0.22845723 2.7448938 0.39544326 0
-0.23038052 2.7361786 0.51086789 0
-0.23033978 2.7363634 0.63438338 0
-0.23728539 2.7969425 -0.050246891 0
-0.23443566 2.8106749 0.062747598 0
-0.23392873 2.8131175 0.17709178 0
-0.23472868 2.8092628 0.2924062 0
-0.24706633 2.7498093 0.39567566 0
-0.24954291 2.737875 0.51008505 0
-0.25215432 2.725291 0.62800968 0
-0.25920197 2.7881577 -0.049785245 0
-0.24928384 2.8391721 0.063640632 0
-0.25340015 2.8179996 0.17719389 0
-0.25251603 2.8225472 0.29412308 0
-0.2670081 2.7480063 0.39422226 0
-0.27028245 2.7311647 0.50653678 0
-0.26949522 2.7352138 0.63062298 0
-0.2741386 2.8160484 -0.050665401 0
-0.26568055 2.8626797 0.064357363 0
-0.2669203 2.8558445 0.18092287 0
-0.26912141 2.8437095 0.29732108 0
-0.28782254 2.7406056 0.39138585 0
-0.29008546 2.7281294 0.50432771 0
-0.28982159 2.7295842 0.62677813 0
-0.29883221 2.7897587 -0.04958896 0
-0.30597299 2.7473562 0.39228466 0
-0.30924374 2.7279341 0.50316572 0
-0.30936822 2.727195 0.62440938 0
-0.31791812 2.7946138 -0.049651146 0
-0.32488969 2.7497756 0.39212251 0
-0.32914293 2.7224205 0.50029659 0
-0.32717717 2.7350636 0.62644672 0
-0.33617812 2.8055928 -0.049942736 0
-0.34612766 2.735826 0.38780358 0
-0.34772882 2.7245986 0.5001018 0
-0.34933555 2.7133322 0.61619484 0
-0.35493487 2.8143668 -0.050162748 0
-0.36561474 2.7320786 0.38618526 0
-0.36738682 2.7184248 0.49718395 0
-0.36795366 2.7140572 0.61545205 0
-0.37532768 2.8105202 -0.049937289 0
-0.38377336 2.7383363 0.38720247 0
-0.38507599 2.7272031 0.49936184 0
-0.3861866 2.7177107 0.6160289 0
-0.39451697 2.8167136 -0.050081741 0
-0.40455222 2.7204585 0.38208592 0
-0.40410206 2.7247765 0.49786335 0
-0.40555337 2.7108557 0.61232615 0
-0.41388497 2.8221071 -0.050206009 0
-0.42353898 2.7166502 0.38064691 0
-0.42360142 2.7159681 0.49431467 0
-0.42377639 2.7140567 0.61291003 0
-0.4339155 2.8202541 -0.05007939 0
-0.44184628 2.7196879 0.38102263 0
-0.44265005 2.7094958 0.49163112 0
-0.44215077 2.715827 0.61299455 0
-0.45432869 2.811317 -0.04970843 0
-0.46008366 2.7243881 0.38188213 0
-0.46176022 2.6990638 0.48770949 0
-0.46168831 2.7001503 0.60593545 0
-0.47336727 2.8232079 -0.050091565 0
-0.47937879 2.7109823 0.37817362 0
-0.47933149 2.7118654 0.49161157 0
-0.47986385 2.7019272 0.60622001 0
-0.49314535 2.8237202 -0.050076511 0
-0.49782115 2.7095277 0.37758082 0
-0.49885187 2.684356 0.48216283 0
-0.49813464 2.7018719 0.60584015 0
-0.51299089 2.8215888 -0.04997592 0
-0.51644218 2.699806 0.37493742 0
-0.51666981 2.6917753 0.48442453 0
-0.51674885 2.6889851 0.60024077 0
-0.53265184 2.8268738 -0.050149102 0
-0.53471965 2.6955202 0.37374148 0
-0.53506351 2.673676 0.47826946 0
-0.5348568 2.6868067 0.59917378 0
-0.55245501 2.8267882 -0.05013936 0
-0.55290139 2.6850405 0.37102401 0
-0.55293506 2.6743488 0.47843716 0
-0.55292529 2.6774521 0.5952301 0
-0.57214212 2.8148077 -0.049713854 0
-0.57076007 2.6684439 0.36680403 0
-0.57086051 2.6790774 0.48002917 0
-0.57073128 2.6653953 0.59026128 0
-0.59195048 2.8218105 -0.049974963 0
-0.58848101 2.6643741 0.36583695 0
-0.58852911 2.6665556 0.47595614 0
-0.58846408 2.6636071 0.58963656 0
-0.61138719 2.8126724 -0.049668506 0
-0.60608935 2.6597302 0.36477983 0
-0.60599756 2.6570792 0.4729692 0
-0.60582376 2.6520627 0.58506215 0
-0.63104075 2.812638 -0.049695984 0
-0.62349731 2.6529951 0.36324459 0
-0.6233452 2.6497765 0.47077772 0
-0.6229257 2.6408978 0.58073294 0
-0.65072536 2.812746 -0.049737424 0
-0.64029717 2.6385942 0.3598049 0
-0.63988888 2.6317756 0.46509179 0
-0.63994175 2.632658 0.577703 0
-0.64021236 2.6371772 0.69913763 0
-0.67112911 2.8223217 -0.050126661 0
-0.65796441 2.6408069 0.36066598 0
-0.65744835 2.6336908 0.46611357 0
-0.65668911 2.6232224 0.57426286 0
-0.6568681 2.6256909 0.69395351 0
-0.69033051 2.8145142 -0.049902678 0
-0.6739707 2.6224906 0.46283084 0
-0.67389166 2.621563 0.57413787 0
-0.67408693 2.6238546 0.6937148 0
-0.70984524 2.8114965 -0.049858902 0
-0.69023621 2.6111879 0.45957944 0
-0.69025397 2.6113691 0.57055235 0
-0.68994212 2.6081836 0.68662965 0
-0.72968978 2.8117125 -0.049940035 0
-0.70503408 2.5888314 0.56190556 0
-0.70672858 2.6041496 0.68549305 0
-0.74883759 2.8057895 -0.049809448 0
-0.7227999 2.5947645 0.56520027 0
-0.72188818 2.5873754 0.67803836 0
-0.76950175 2.8116593 -0.050112221 0
-0.73824871 2.5821795 0.67651379 0
-0.78805935 2.8019257 -0.049861722 0
-0.75478464 2.5786626 0.67593986 0
-0.8084963 2.8048825 -0.050078135 0
-0.8299607 2.8128104 -0.050484508 0
-0.8468343 2.7947359 -0.049957082 0
-0.86655605 2.792706 -0.050020318 0
-0.88582063 2.7883132 -0.050006501 0
-0.90474516 2.7824538 -0.049947828 0
-0.92361242 2.77652 -0.049894977 0
-0.94235331 2.7702274 -0.049837485 0
-0.96277767 2.7703757 -0.050026529 0
-0.98145986 2.7638178 -0.049977068 0
-1.0022583 2.7645566 -0.050207745 0
-1.0197557 2.7540255 -0.05002803 0
-1.0337418 2.7329974 -0.049462125 0
-1.056161 2.7383041 -0.049892303 0
-1.0726224 2.7256689 -0.04965635 0
-1.0963765 2.7335255 -0.050205808 0
-1.1096073 2.7124906 -0.049666341 0
-1.135989 2.7259362 -0.050453287 0
-1.1503978 2.7085419 -0.050068017 0
-1.1669846 2.6969922 -0.049914226 0
-1.1832408 2.6849494 -0.049748499 0
-1.2061385 2.6878591 -0.050175749 0
-1.2210453 2.6729677 -0.04991525 0
-1.240968 2.6688716 -0.050088622 0
-1.2584262 2.6595545 -0.05006475 0
-1.2783096 2.654979 -0.050239917 0
-1.2964923 2.6469285 -0.050285906 0
-1.3077956 2.6262269 -0.049826674 0
-1.3297932 2.625159 -0.050174542 0
-1.3423063 2.6072476 -0.049841147 0
-1.3638769 2.6049578 -0.050161339 0
-1.3759882 2.5868323 -0.049831845 0
-1.3941869 2.5787711 -0.049931139 0
-1.4082681 2.5642369 -0.049765397 0
-1.4244558 2.5530627 -0.049750075 0
-1.4436139 2.5462325 -0.04993147 0
-1.4586349 2.5333033 -0.049858611 0
-1.4752394 2.522645 -0.049893454 0
-1.4930371 2.513546 -0.050007232 0
-1.5082015 2.5008569 -0.049970929 0
-1.5234175 2.4882703 -0.04994753 0
-1.535273 2.4715223 -0.049742039 0
-1.5509264 2.4596045 -0.049764775 0
-1.570194 2.4519308 -0.049995344 0
-1.579048 2.4319999 -0.049660552 0
-1.5949205 2.4203074 -0.049720977 0
-1.6163136 2.4145961 -0.050080806 0
-1.6218231 2.3915386 -0.049609777 0
-1.6442298 2.38656 -0.050031096 0
-1.6556654 2.3700078 -0.04989193 0
-1.6713963 2.3578444 -0.049980883 0
-1.6899438 2.3483102 -0.050216217 0
-1.7063669 2.3365426 -0.050350517 0
-1.713647 2.3162451 -0.050047301 0
-1.7208914 2.2961984 -0.049758092 0
-1.7287654 2.2769678 -0.04951391 0
-1.7506822 2.2699113 -0.049942091 0
-1.7638701 2.2552168 -0.049965054 0
-1.779032 2.2420933 -0.050086949 0
-1.2381836 1.8047785 0.52519965 0
-1.7851934 2.2217646 -0.049806103 0
-1.2268075 1.7817804 0.51141798 0
-1.7987602 2.2073669 -0.049872842 0
-1.230904 1.771397 0.50955498 0
-1.8154132 2.195215 -0.050084669 0
-1.2342411 1.7605423 0.50724435 0
-1.8270437 2.1792154 -0.05007951 0
-1.2351766 1.7480572 0.5032934 0
-1.8391128 2.1635277 -0.050102454 0
-1.2365319 1.7360737 0.4997977 0
-1.8448052 2.1434128 -0.049857143 0
-1.2353258 1.7224996 0.49459541 0
-1.8594851 2.1295438 -0.05001146 0
-1.236021 1.7104678 0.49091828 0
-1.8675528 2.1112161 -0.049889911 0
-1.2426294 1.7024879 0.49156928 0
-1.8880312 2.1008821 -0.05030429 0
-1.2465943 1.6927916 0.490428 0
-1.8920754 2.0800335 -0.050031014 0
-1.2416643 1.6776474 0.48317799 0
-1.8866715 2.0537245 -0.049377169 0
-1.2310722 1.6594553 0.47219682 0
-1.9155265 2.0479655 -0.050158475 0
-1.2407744 1.6536608 0.47539389 0
-1.9238209 2.0298994 -0.050093163 0
-1.2378957 1.6405677 0.47003904 0
-1.932037 2.0118389 -0.050034422 0
-1.2365896 1.6285987 0.46589795 0
-1.9384056 1.992834 -0.049910519 0
-1.9563935 1.9799507 -0.050264381 0
-1.9596571 1.959381 -0.050034124 0
-1.965133 1.9400662 -0.049903452 0
-1.9788244 1.9247247 -0.050107475 0
-1.9749855 1.9012216 -0.04962999 0
-1.9940567 1.8881916 -0.050060727 0
-1.9991343 1.8688631 -0.049952459 0
-1.9979594 1.8470411 -0.049612794 0
-2.0028384 1.8278757 -0.04951793 0
-2.000953 1.8061926 -0.049174216 0
-1.9956775 1.7835172 -0.04871355 0
-1.9999704 1.7645677 -0.04862811 0
-2.0002441 1.7443137 -0.04840051 0
-1.9938253 1.722046 -0.047932155 0
-1.9961263 1.7028395 -0.047802228 0
-1.9964613 1.6831397 -0.047608573 0
-2.0044515 1.6657554 -0.047708977 0
-2.0083158 1.6471773 -0.047664531 0
-2.007719 1.6274809 -0.047464427 0
-1.9852482 1.6025912 -0.046470236 0
-1.9997681 1.5869486 -0.046845701 0
-1.9971554 1.5673076 -0.046601407 0
-1.993286 1.5475827 -0.046320971 0
-1.9854374 1.5272957 -0.045905616 0
-1.9991491 1.5111438 -0.046282314 0
-2.0016322 1.4928651 -0.046259291 0
-2.0003297 1.4740235 -0.046107922 0
-2.0015926 1.4556442 -0.04605785 0
-1.993162 1.4360707 -0.045667365 0
-2.004343 1.4190034 -0.045990977 0
-1.9979212 1.3999246 -0.045690257 0
-2.0071504 1.3824389 -0.045959413 0
-2.0022094 1.3636873 -0.045728873 0
-1.994139 1.3448985 -0.045395017 0
-2.0024347 1.3271675 -0.045654859 0
-1.9953282 1.3086681 -0.045372292 0
-2.0086925 1.290881 -0.045829199 0
-2.0015335 1.2725102 -0.045561265 0
-2.0037315 1.2543254 -0.045635644 0
-1.1449548 0.26436788 -0.050318684 0
-0.39211047 0.26436988 0.418607 0
-0.39273381 0.26436988 0.49542841 0
-1.1410707 0.24455263 -0.050184473 0
-0.40016687 0.2538842 0.42267099 0
-1.1291251 0.225032 -0.049771231 0
-0.40746355 0.24321142 0.35390303 0
-0.40613109 0.24324499 0.42575523 0
-1.1417868 0.20486988 -0.050245717 0
-0.50062579 0.22910273 0.10635854 0
-0.5193429 0.22839531 0.17779385 0
-1.2463344 0.20091848 0.43464109 0
-1.243049 0.20104265 0.5638575 0
-1.2385572 0.20121242 0.69838929 0
-1.1290392 0.18565045 -0.049821269 0
-0.51820576 0.21644346 0.10830599 0
-0.51660657 0.21652408 0.17739515 0
-1.2351701 0.18030024 0.43202719 0
-1.2395927 0.18007728 0.563016 0
-1.2346236 0.18032779 0.69714314 0
-1.1386988 0.16531523 -0.050206702 0
-0.5062328 0.20518821 0.10708981 0
-0.5157727 0.20458679 0.17736693 0
-1.2447807 0.15862744 0.43478844 0
-1.2425219 0.15876983 0.56439048 0
-1.135655 0.14566581 -0.050146841 0
-0.51272213 0.19281933 0.10787755 0
-0.50280124 0.1935703 0.1751706 0
-1.241784 0.13763227 0.43439639 0
-1.2278779 0.1386849 0.55999249 0
-1.1260033 0.12663959 -0.049858943 0
-0.51664221 0.18049031 0.10840575 0
-0.51884317 0.18029581 0.17824985 0
-1.2455028 0.11607911 0.43579161 0
-1.2448636 0.1161356 0.56623811 0
-1.1277088 0.10666636 -0.049986802 0
-0.51057345 0.16904463 0.10787243 0
-0.49794656 0.17032091 0.17466754 0
-1.2409537 0.095219903 0.43513796 0
-1.2424011 0.095073588 0.56608331 0
-1.1304995 0.086475722 -0.050162874 0
-0.50579768 0.15757565 0.039716229 0
-0.50009197 0.15822503 0.10687665 0
-0.52091742 0.15585481 0.17906538 0
-1.2382127 0.074216418 0.43501511 0
-1.2436259 0.073600315 0.56725162 0
-1.1282016 0.066800885 -0.050165247 0
-0.51186639 0.14482141 0.039985687 0
-0.50732291 0.14539656 0.10781275 0
-0.50772679 0.14534543 0.17692961 0
-1.2477517 0.051667292 0.43811801 0
-1.2443166 0.052102137 0.56833333 0
-1.1154119 0.048583765 -0.049798351 0
-0.51659685 0.13205992 0.040213164 0
-0.51273394 0.13259842 0.10857052 0
-0.51812673 0.13184665 0.17910984 0
-1.2314175 0.032412324 0.43463457 0
-1.2334881 0.032123674 0.56563836 0
-1.117413 0.028373171 -0.049973171 0
-0.50501835 0.12161744 0.039857913 0
-0.52203357 0.11902668 0.10976998 0
-0.50892347 0.12102284 0.17774907 0
-1.2353101 0.010421951 0.43642691 0
-1.2338489 0.010644426 0.56678838 0
-1.115072 0.0087516205 -0.050000433 0
-0.51899815 0.10720553 0.040431499 0
-0.50410485 0.10966546 0.10802466 0
-0.51849872 0.10728803 0.17984292 0
-1.2435752 -0.012473325 0.43942523 0
-1.2432431 -0.012418459 0.57107788 0
-1.1211154 -0.012386183 -0.050340753 0
-0.50857681 0.096727379 0.040128086 0
-0.5079124 0.096845724 0.10866105 0
-0.49800712 0.098610185 0.17646524 0
-1.2263582 -0.031133395 0.43590122 0
-1.2418947 -0.033900987 0.57184488 0
-1.1034524 -0.029239964 -0.049829882 0
-0.51490968 0.083262511 0.040437706 0
-0.51327807 0.083574407 0.10948709 0
-0.51067913 0.084071212 0.17918877 0
-1.2355362 -0.054488342 0.43928587 0
-1.2366686 -0.054704826 0.57139176 0
-1.1043395 -0.049517822 -0.050001349 0
-0.50600106 0.072685696 0.040198922 0
-0.50816506 0.072243743 0.10918418 0
-0.51760769 0.07031519 0.18089578 0
-1.2329185 -0.075778551 0.43968412 0
-1.2431934 -0.077877082 0.57501644 0
-1.0963271 -0.067987986 -0.04985746 0
-0.51622844 0.058119316 0.040663477 0
-0.51823866 0.057682309 0.11056632 0
-0.5119884 0.059041057 0.18032353 0
-1.2374017 -0.098656125 0.44200733 0
-1.2450542 -0.10031972 0.57716244 0
-1.0984927 -0.088704415 -0.050094575 0
-0.51149809 0.046664137 0.04058807 0
-0.51136333 0.046695206 0.11010338 0
-0.51384419 0.046123091 0.18115936 0
-1.2334288 -0.11982242 0.44219857 0
-1.2386134 -0.12101803 0.57657653 0
-1.0918825 -0.10745562 -0.050019488 0
-0.50873166 0.034782667 0.040589895 0
-0.51639497 0.032913495 0.11097145 0
-0.5028764 0.036210854 0.1796474 0
-1.2352171 -0.14241688 0.44397327 0
-1.2328439 -0.141838 0.57630789 0
-1.0907992 -0.1275775 -0.050156601 0
-0.55533791 0.0101945 0.04241731 0
-0.56205523 0.0084661739 0.1163701 0
-0.55220962 0.010999401 0.18938316 0
-1.2393211 -0.16579156 0.44643861 0
-1.2395813 -0.16585852 0.58042479 0
-1.0840576 -0.14627068 -0.050094247 0
-0.62800944 -0.022788625 0.045226466 0
-0.62876296 -0.022992682 0.12416482 0
-1.2424736 -0.18916427 0.31896469 0
-1.2284991 -0.18538044 0.44504479 0
-1.2398132 -0.18844391 0.58241755 0
-1.0719442 -0.16339411 -0.049841017 0
-0.70302486 -0.058500361 0.048148084 0
-0.68365777 -0.052993786 0.13071181 0
-1.2345518 -0.20962782 0.31857499 0
-1.2461752 -0.21293269 0.45127028 0
-1.2400826 -0.21120037 0.58452863 0
-1.0705492 -0.18352832 -0.049994137 0
-0.77850842 -0.096504219 0.051114846 0
-0.77594185 -0.095739402 0.1415185 0
-1.2387507 -0.23365004 0.32051319 0
-1.2342314 -0.23230334 0.44972596 0
-1.247263 -0.23618655 0.58914608 0
-1.0596851 -0.20082699 -0.049803216 0
-0.86183882 -0.13914879 0.054404575 0
-0.87061679 -0.14188533 0.15269732 0
-1.2368768 -0.25606617 0.32136881 0
-1.2311958 -0.25429514 0.45062131 0
-1.236598 -0.25597921 0.58767223 0
-1.0593491 -0.22141545 -0.050014965 0
-0.98702133 -0.19786419 0.059299331 0
-0.98862529 -0.19838648 0.16662483 0
-1.2374171 -0.2793977 0.32273927 0
-1.2200236 -0.27373406 0.4494113 0
-1.2437434 -0.28145769 0.59251106 0
-1.0578257 -0.24176173 -0.050192609 0
-1.1269164 -0.26522514 0.064797595 0
-1.1230422 -0.26390943 0.18255492 0
-1.2426643 -0.30453345 0.32506794 0
-1.2391235 -0.30333099 0.45641848 0
-1.0391685 -0.25618383 -0.049731888 0
-1.2939173 -0.3462905 0.20280595 0
-1.2376997 -0.32640591 0.32551396 0
-1.2468504 -0.32964256 0.46047983 0
-1.041653 -0.27804187 -0.050080184 0
-1.2554333 -0.35669997 0.19929519 0
-1.2343988 -0.34896055 0.32633454 0
-1.2442539 -0.35258666 0.46184346 0
-1.0244346 -0.2926338 -0.049687576 0
-1.2578627 -0.38187394 0.20048983 0
-1.2329872 -0.37236401 0.32757857 0
-1.2367139 -0.37378868 0.46194211 0
-1.0307592 -0.31627318 -0.050204314 0
-1.2517481 -0.40396264 0.20073916 0
-1.2390593 -0.39892766 0.33033791 0
-1.235751 -0.39761493 0.4639197 0
-1.0268205 -0.3360872 -0.050338984 0
-1.2602483 -0.43213174 0.20272043 0
-1.2366524 -0.42242309 0.33152309 0
-1.2314557 -0.4202849 0.46507069 0
-1.0163051 -0.35320446 -0.050228793 0
-1.2471238 -0.45159182 0.20222737 0
-1.2407929 -0.44889322 0.33405614 0
-1.2453588 -0.45083949 0.47135413 0
-1.00824 -0.37132141 -0.050221998 0
-1.2503115 -0.47812673 0.20367639 0
-1.2399986 -0.47357652 0.33569604 0
-1.234836 -0.47129872 0.47096804 0
-0.99336267 -0.38632783 -0.049956758 0
-1.2443999 -0.50088662 0.20409821 0
-1.2419876 -0.49978569 0.3379586 0
-1.2477951 -0.50243592 0.47723711 0
-0.97434759 -0.39917931 -0.049534045 0
-1.229627 -0.51958036 0.20350356 0
-1.2382071 -0.5236271 0.33914983 0
-1.2411078 -0.52499521 0.47811186 0
-0.98039281 -0.42391017 -0.050110325 0
-1.5011092 -0.67756653 0.082788959 0
-1.2387466 -0.54976195 0.20578949 0
-1.2368212 -0.54882401 0.34088877 0
-1.2439997 -0.5523209 0.48179084 0
-0.96215355 -0.4368892 -0.049732264 0
-1.4453162 -0.6798262 0.081039518 0
-1.2433567 -0.57827979 0.20759305 0
-1.2409797 -0.57708466 0.34382185 0
-1.2377527 -0.5754621 0.48298141 0
-0.96181464 -0.4588559 -0.050078198 0
-1.4016824 -0.68700737 0.079768777 0
-1.2452569 -0.60587227 0.20912367 0
-1.2454783 -0.60598713 0.34691527 0
-0.94126952 -0.47029719 -0.049619563 0
-1.342893 -0.68507224 0.077879518 0
-1.2451628 -0.6328094 0.21046382 0
-1.2365612 -0.62820947 0.34736004 0
-0.94777107 -0.49627736 -0.050266106 0
-1.3030682 -0.69207096 0.076749176 0
-1.2504759 -0.66308892 0.21251826 0
-1.2473923 -0.66138965 0.3519319 0
-0.9262172 -0.50686121 -0.049778946 0
-1.2606102 -0.69666302 0.07550624 0
-1.2333516 -0.68119097 0.2118617 0
-1.2391891 -0.68450439 0.35267565 0
-0.91712952 -0.52433556 -0.049809165 0
-1.2551832 -0.72188395 0.075787745 0
-1.238495 -0.71213186 0.21400033 0
-1.2393 -0.71260232 0.35522217 0
-0.91825128 -0.54797822 -0.05027407 0
-1.2509879 -0.74808186 0.076135881 0
-1.2496301 -0.74726528 0.21695526 0
-1.2326325 -0.7370432 0.35643566 0
-0.90372121 -0.56232703 -0.050097983 0
-1.2557851 -0.78013641 0.076878056 0
-1.2308227 -0.76469308 0.21620508 0
-1.2343769 -0.76689202 0.35950762 0
-0.90023541 -0.58355874 -0.050395418 0
-1.2473675 -0.80440873 0.077084035 0
-1.2403196 -0.79992479 0.21908197 0
-1.2423998 -0.80124825 0.36402637 0
-0.88608384 -0.59806901 -0.050251681 0
-1.2511863 -0.8368625 0.077826701 0
-1.2426966 -0.83130985 0.22112511 0
-1.2446915 -0.8326146 0.36744028 0
-0.87914264 -0.6173076 -0.050424717 0
-1.2426826 -0.86166936 0.078063101 0
-1.24172 -0.86102241 0.2228023 0
-1.2443243 -0.86277288 0.37039086 0
-0.86210513 -0.62972569 -0.050171681 0
-1.2298222 -0.88367516 0.078126043 0
-1.2382429 -0.88949054 0.22421621 0
-1.2296401 -0.88354939 0.37031218 0
-0.8534466 -0.64787263 -0.050289944 0
-1.2539353 -0.93196815 0.079820022 0
-1.2421573 -0.92361313 0.22666377 0
-1.6126279 -1.1864146 0.45822248 0
-0.83699536 -0.66044992 -0.050075144 0
-1.2337812 -0.94949704 0.079601072 0
-1.2379162 -0.95250922 0.22810636 0
-1.5721563 -1.1959934 0.4533042 0
-0.82071257 -0.67296785 -0.049872853 0
-1.2306023 -0.97953433 0.080146633 0
-1.2377506 -0.98488075 0.23015818 0
-0.80622458 -0.68668783 -0.049756438 0
-1.2350085 -1.0158855 0.081055842 0
-1.2483147 -1.0261012 0.23373863 0
-0.80081403 -0.70745993 -0.050059274 0
-1.1637076 -0.99340445 0.078553729 0
-1.1510999 -0.98347014 0.22267883 0
-1.166665 -0.99573475 0.3731916 0
-0.79414356 -0.72749192 -0.050319307 0
-1.140209 -1.0073107 0.078207776 0
-1.1504692 -1.0156069 0.22478047 0
-1.1424558 -1.0091275 0.37128606 0
-0.7697221 -0.73303998 -0.049770292 0
-1.2425584 -1.1253101 0.083704077 0
-1.2427119 -1.1254375 0.23992904 0
-1.340403 -1.206483 0.42145818 0
-0.76186419 -0.75218064 -0.049995132 0
-1.2424402 -1.1611962 0.084525086 0
-1.2431351 -1.1617876 0.24247707 0
-1.32987 -1.2356073 0.423383 0
-1.0281824 -0.97884268 0.49538153 0
-0.75749695 -0.77458364 -0.050399255 0
-1.2848092 -1.2349499 0.41715008 0
-1.008454 -0.99367994 0.49404067 0
-0.74503374 -0.79012364 -0.050433416 0
-1.1984901 -1.1961846 0.084164575 0
-1.1952468 -1.1932803 0.24082592 0
-1.1858113 -1.184831 0.39778689 0
-0.97590613 -0.99686521 0.4883579 0
-0.72507346 -0.79881507 -0.050113995 0
-0.92374694 -0.98128253 0.47582933 0
-0.70193982 -0.80421239 -0.049640466 0
-0.89109361 -0.9823789 0.46991956 0
-0.69937587 -0.82901925 -0.05018552 0
-0.85388732 -0.97827154 0.46232733 0
-0.68221152 -0.8399083 -0.050019309 0
-0.84439468 -1.0005677 0.46457392 0
-0.66778481 -0.85341591 -0.049997218 0
-0.81974161 -1.007784 0.46143723 0
-0.65614355 -0.8698073 -0.050127149 0
-0.64031708 -0.88186604 -0.050050899 0
-0.63027334 -0.90018576 -0.050287839 0
-0.60851312 -0.90559453 -0.049911212 0
-0.5949595 -0.9200626 -0.049979869 0
-0.58568263 -0.93966776 -0.050296009 0
-0.56601918 -0.94702798 -0.050047785 0
-0.54319352 -0.95017749 -0.049620628 0
-0.53391445 -0.97014719 -0.049973387 0
-0.51770711 -0.98144907 -0.049938854 0
-0.49956691 -0.99011403 -0.049796481 0
-0.48535001 -1.0040345 -0.049897112 0
-0.47531974 -1.0240251 -0.05026982 0
-0.45462996 -1.0289465 -0.049992412 0
-0.4356519 -1.0360851 -0.049823739 0
-0.41563326 -1.0414091 -0.049589403 0
-0.37963873 -0.98599499 0.5020442 0
-0.40335417 -1.0586796 -0.049872108 0
-0.35372967 -0.98013431 0.49575251 0
-0.38049996 -1.0591226 -0.049454067 0
-0.32894611 -0.97520179 0.4899995 0
-0.37424928 -1.0868032 -0.050183751 0
-0.30706394 -0.97428447 0.48596686 0
-0.35385382 -1.0911343 -0.049947653 0
-0.29026049 -0.98151892 0.48520532 0
-0.33994007 -1.1066364 -0.050181553 0
-0.27300262 -0.98783523 0.48417971 0
-0.32320046 -1.1173224 -0.050225019 0
-0.25813323 -0.99836272 0.48484066 0
-0.30629963 -1.1277767 -0.050267383 0
-0.22389413 -0.97250587 0.47186407 0
-0.28684747 -1.1333463 -0.050121911 0
-0.21014936 -0.98432785 0.47323155 0
-0.26495534 -1.1338018 -0.049783122 0
-0.18393423 -0.97139055 0.46544966 0
-0.24709149 -1.1420516 -0.049766392 0
-0.16778417 -0.9779343 0.46503565 0
-0.2293386 -1.1505179 -0.0497672 0
-0.15373267 -0.98889667 0.46632192 0
-0.21389593 -1.1640983 -0.049977187 0
-0.12924178 -0.97703332 0.45933032 0
-0.19909544 -1.1795239 -0.050265528 0
-0.11486562 -0.98697835 0.46040878 0
-0.1781093 -1.1808407 -0.05001276 0
-0.1010917 -0.99856526 0.46214011 0
-0.16287567 -1.1958009 -0.050297525 0
-0.073445156 -0.97648603 0.34789142 0
-0.083331659 -1.0007312 0.46054021 0
-0.14003833 -1.1919786 -0.049867738 0
-0.059165791 -0.98628062 0.34885693 0
-0.071255401 -1.0170302 0.46408066 0
-0.12449892 -1.2065805 -0.050154358 0
-0.031482682 -0.96095711 0.14681147 0
-0.031465605 -0.96091193 0.24229288 0
-0.010977251 -0.90680927 0.32551408 0
-0.051944926 -1.0149907 0.46113452 0
-0.10524942 -1.2115998 -0.050083 0
-0.0085256826 -0.94614118 0.14445965 0
-0.010166926 -0.95064563 0.23921947 0
0.0054108961 -0.90789217 0.32431695 0
-0.086908177 -1.2190701 -0.050113861 0
0.010704773 -0.94030792 0.14317398 0
0.011077153 -0.93924457 0.23599415 0
0.016099678 -0.92490119 0.32748613 0
-0.0042059855 -0.98288995 0.4456616 0
-0.067180201 -1.2224925 -0.05000085 0
0.025562303 -0.9465484 0.14329013 0
0.022081332 -0.95690554 0.23836285 0
0.025332289 -0.94723266 0.33211085 0
0.015492784 -0.97650892 0.44152653 0
-0.047168478 -1.2247841 -0.049855221 0
0.038951591 -0.95744354 0.14395253 0
0.035359904 -0.96859318 0.23961645 0
0.021334426 -1.012132 0.34815809 0
0.020114319 -1.0159196 0.45350075 0
-0.030219836 -1.2366736 -0.050078157 0
0.025445806 -1.0561128 0.35854483 0
-0.013298405 -1.2492229 -0.050332788 0
0.067583337 -0.97463566 0.33553886 0
0.0089970995 -1.2433178 -0.049910083 0
0.083838925 -0.97690421 0.3349483 0
0.028807806 -1.2455636 -0.049800411 0
0.10024635 -0.9783892 0.33420691 0
0.04731147 -1.252655 -0.04987878 0
0.11766846 -0.97559148 0.33239508 0
0.06480743 -1.2641846 -0.050128452 0
0.084612593 -1.2663636 -0.050043143 0
0.10481055 -1.2664353 -0.049890246 0
0.12396245 -1.271181 -0.049917214 0
0.14194526 -1.2822688 -0.050183266 0
-0.064394996 -2.3804705 0.10207653 0
0.16228129 -1.2810081 -0.050009411 0
0.0013767348 -2.2010765 0.095355563 0
0.18254443 -1.2794502 -0.049834423 0
0.032414362 -2.2065542 0.095364384 0
0.20053788 -1.292305 -0.050189223 0
0.065331951 -2.1994941 0.094934769 0
0.22103126 -1.2886813 -0.049957849 0
0.096594438 -2.202378 0.094879121 0
0.24101721 -1.2878633 -0.049837049 0
0.12869312 -2.1982052 0.094583891 0
0.26001346 -1.2952452 -0.050020002 0
0.15858628 -2.2121208 0.094953313 0
0.27952862 -1.2986832 -0.050069839 0
0.19106779 -2.2023215 0.094485104 0
0.29956251 -1.2964833 -0.049926423 0
0.22225012 -2.2039394 0.094441138 0
0.31919733 -1.2984308 -0.049940627 0
0.25337937 -2.2059288 0.094424576 0
0.33835685 -1.3085353 -0.050255407 0
0.28535268 -2.1937101 0.09391389 0
0.35828856 -1.3070693 -0.050165083 0
0.31580549 -2.2061419 0.094298944 0
0.37794161 -1.3118979 -0.050308622 0
0.34687293 -2.2088189 0.094349056 0
0.39815557 -1.296012 -0.049721252 0
0.37810394 -2.2059011 0.094213352 0
0.41775233 -1.3019416 -0.049921915 0
0.43747982 -1.3034408 -0.04997322 0
0.45719379 -1.3015841 -0.049913585 0
0.47692251 -1.3016214 -0.049930435 0
0.49602351 -1.2859621 -0.049395308 0
0.51664549 -1.3056953 -0.050133791 0
0.53632051 -1.303192 -0.050086569 0
0.55642676 -1.3065412 -0.050257757 0
0.57548589 -1.2970929 -0.049979415 0
0.59446752 -1.2887644 -0.049749509 0
0.61467528 -1.2922832 -0.049953707 0
0.63409519 -1.2885891 -0.049907722 0
0.6552307 -1.2971321 -0.050311759 0
0.67268997 -1.2801558 -0.049804181 0
0.69312662 -1.2829965 -0.050020929 0
0.71108729 -1.2713125 -0.049720488 0
0.6870231 -1.1386409 0.056906659 0
0.72978228 -1.2644994 -0.04960468 0
0.69927853 -1.1076014 0.055898342 0
0.74905092 -1.2608372 -0.04961203 0
0.71274185 -1.0858691 0.055232365 0
0.76938981 -1.2619864 -0.04980417 0
0.72446519 -1.0584192 0.054361686 0
0.79208952 -1.2726188 -0.050353952 0
0.73687011 -1.0365671 0.053699091 0
0.80932707 -1.2595309 -0.050043598 0
0.73149341 -0.94473332 0.050466489 0
0.76246804 -1.0700099 0.15372343 0
0.82657319 -1.2473314 -0.049772996 0
0.74839276 -0.94739121 0.050706964 0
0.76223505 -1.0004972 0.14647646 0
0.84665209 -1.2461748 -0.049918279 0
0.84244072 -1.230813 0.061349612 0
0.76737452 -0.95699435 0.14210249 0
0.86650622 -1.2438554 -0.050030265 0
0.84425223 -1.1665125 0.059156999 0
0.77856153 -0.93820649 0.14048374 0
0.8855316 -1.2385019 -0.050038848 0
0.79284388 -0.93099362 0.050572548 0
0.78948092 -0.91983634 0.13892151 0
0.90219194 -1.2256147 -0.049774408 0
0.87934226 -1.1531229 0.059060838 0
0.82870227 -0.99246496 0.14762242 0
0.91961706 -1.2156378 -0.049626127 0
0.87633038 -1.0841081 0.05668259 0
0.86591476 -1.0524596 0.15498585 0
0.94089955 -1.2172158 -0.049921595 0
0.894261 -1.0812895 0.056791145 0
0.87923628 -1.0375005 0.15391804 0
0.96090257 -1.2145836 -0.050068926 0
0.88263923 -0.99551338 0.053763717 0
0.89199668 -1.0217061 0.15276921 0
0.97648114 -1.1997349 -0.049761236 0
0.89777672 -0.98788816 0.053692952 0
0.89924061 -0.99182838 0.15001875 0
0.99295866 -1.1878098 -0.049571425 0
0.92471528 -1.0109737 0.46079928 0
1.0156786 -1.1918248 -0.050001629 0
0.94456291 -1.0142359 0.4642255 0
1.0351421 -1.187196 -0.050110981 0
0.95755982 -1.0003124 0.46156883 0
1.0479339 -1.1668478 -0.049619552 0
0.97151327 -0.98911566 0.45994425 0
1.0721216 -1.1729542 -0.050165385 0
0.98784852 -0.9835673 0.46043119 0
1.0948473 -1.1749551 -0.050564982 0
1.0052737 -0.98029286 0.46182889 0
1.1050198 -1.1498921 -0.04990837 0
1.0272863 -0.98641342 0.46677658 0
1.1243274 -1.1444767 -0.050034206 0
1.0412689 -0.97532457 0.46547896 0
1.1438599 -1.1393017 -0.050180178 0
1.0593137 -0.97246283 0.46730694 0
1.1542746 -1.1164534 -0.049625043 0
1.0861033 -0.98602754 0.47539848 0
1.1781535 -1.1194124 -0.050118014 0
1.1052705 -0.98414844 0.47783571 0
1.1962548 -1.1112419 -0.050172217 0
1.1329073 -0.99713916 0.057512913 0
1.1303506 -0.99253398 0.16049993 0
1.1342887 -0.99962729 0.26673597 0
1.1346034 -1.0001942 0.37501806 0
1.1276083 -0.98759443 0.4824079 0
1.2127943 -1.1002564 -0.050120384 0
1.1447217 -0.9812004 0.057224199 0
1.1469744 -0.98514038 0.16068466 0
1.1458257 -0.98313123 0.26516539 0
1.1494645 -0.98949522 0.37450114 0
1.1480182 -0.98696572 0.48555902 0
1.2284106 -1.0877683 -0.050014514 0
1.1670886 -0.98358554 0.057698578 0
1.1639599 -0.97826999 0.16096203 0
1.1560165 -0.96477455 0.26322404 0
1.1622627 -0.97538644 0.3730261 0
1.1635127 -0.97751015 0.48542476 0
1.2454735 -1.0778069 -0.050021477 0
1.2619169 -1.0668358 -0.049995016 0
1.2759451 -1.0521235 -0.049818471 0
1.2978044 -1.0495235 -0.050165739 0
1.3153938 -1.0401714 -0.050236732 0
1.3262255 -1.0210066 -0.049891252 0
1.350123 -1.0205523 -0.050369442 0
1.3584846 -0.9983359 -0.049901888 0
1.3849108 -1.0006577 -0.050531119 0
1.3884499 -0.97263151 -0.049812168 0
1.4093281 -0.96727926 -0.050121192 0
1.206196 -0.71114528 0.050450239 0
1.2060601 -0.71097392 0.13978219 0
1.4172124 -0.94560975 -0.049694363 0
1.213098 -0.69479001 0.050149363 0
1.2137395 -0.69557828 0.13900919 0
1.4368358 -0.93846494 -0.049943157 0
1.2009556 -0.65595245 0.048803691 0
1.2155652 -0.67345029 0.13729896 0
1.4482408 -0.92145056 -0.049742259 0
1.2070547 -0.63986719 0.048505798 0
1.2044801 -0.63686115 0.13352711 0
1.4693332 -0.91567224 -0.05007989 0
1.2073867 -0.61753255 0.047911238 0
1.2059813 -0.61593294 0.13193387 0
1.4813738 -0.89948875 -0.049934011 0
1.2123415 -0.60095066 0.047586564 0
1.211568 -0.60009229 0.13106118 0
1.4967594 -0.88707155 -0.049976844 0
1.5169193 -0.87964267 -0.050275046 0
1.5223398 -0.85674459 -0.049819291 0
1.5483271 -0.85492903 -0.050423969 0
1.5472238 -0.82601231 -0.049669433 0
1.5658951 -0.81668895 -0.049917623 0
1.5856984 -0.80817515 -0.050223876 0
1.5908715 -0.78609771 -0.049826737 0
1.6109817 -0.77759725 -0.050159149 0
1.6177118 -0.7572493 -0.049862385 0
1.6301452 -0.74196321 -0.049846712 0
1.6424021 -0.72654277 -0.049831983 0
1.6547018 -0.71116585 -0.049828276 0
1.6764295 -0.70312124 -0.050259821 0
1.6854104 -0.68503159 -0.050120853 0
1.6842762 -0.6595934 -0.049544476 0
1.701329 -0.64772618 -0.049787104 0
1.7137352 -0.6323939 -0.049831659 0
1.7265451 -0.61729491 -0.049901646 0
1.7440149 -0.6052227 -0.050178844 0
1.7493536 -0.58508861 -0.049944904 0
1.7577553 -0.56706721 -0.049852613 0
1.7729334 -0.55325192 -0.050053947 0
1.7811418 -0.53513598 -0.049971756 0
1.7860161 -0.51516312 -0.049762238 0
1.8049196 -0.5032025 -0.050138388 0
1.8200496 -0.48888788 -0.050364826 0
1.8228759 -0.46790883 -0.050100602 0
1.8357141 -0.45224884 -0.050250057 0
1.8403012 -0.43238381 -0.050077774 0
1.8491544 -0.41469517 -0.050085369 0
1.8484551 -0.39256504 -0.049725752 0
1.8684757 -0.38000771 -0.050189897 0
1.8704603 -0.35926768 -0.049955826 0
1.8858616 -0.34432259 -0.05025243 0
1.8858618 -0.32292476 -0.049961753 0
1.896606 -0.30592874 -0.0500945 0
1.8971549 -0.28500512 -0.049846049 0
1.8955501 -0.26348737 -0.049527004 0
1.9157214 -0.24975298 -0.050042432 0
1.9155692 -0.22887267 -0.049797572 0
1.9298573 -0.21277194 -0.05010464 0
1.9298155 -0.19207309 -0.049883284 0
1.9322211 -0.17224608 -0.049763441 0
1.9478604 -0.15617634 -0.050143603 0
1.9446865 -0.13485907 -0.049835324 0
1.9541879 -0.11693899 -0.050004419 0
1.9626299 -0.09864185 -0.050142441 0
1.9689723 -0.079771407 -0.050211694 0
1.9602281 -0.057667535 -0.049738996 0
1.9730244 -0.040158581 -0.050061524 0
1.9721919 -0.019898813 -0.049896527 0
1.9767896 -0.00068597059 -0.049937837 0
1.991797 0.016907457 -0.050364107 0
1.9814597 0.038503725 -0.049883194 0
1.9944162 0.056663204 -0.050251827 0
1.9899564 0.077181064 -0.050001871 0
1.9969383 0.096295469 -0.05017237 0
1.9959286 0.11629077 -0.050064716 0
1.9927655 0.13638966 -0.049889062 0
1.985564 0.15664764 -0.049578093 0
2.0061648 0.17511202 -0.050270654 0
2.0001004 0.1952444 -0.050018229 0
2.0119748 0.21463691 -0.050415728 0
1.9854541 0.23503825 -0.049450837 0
2.0077901 0.25445455 -0.050239492 0
2.006285 0.27428013 -0.050185755 0
1.9989587 0.29396099 -0.049933054 0
1.9944429 0.31355515 -0.049789499 0
2.0076988 0.33383483 -0.050289765 0
1.9999539 0.35327983 -0.05004856 0
1.9966314 0.37286419 -0.049974166 0
2.0033145 0.3932198 -0.05026694 0
1.9915226 0.41203603 -0.049906712 0
1.9858522 0.43125761 -0.049774308 0
1.9912323 0.45171642 -0.050047748 0
1.9885498 0.47130078 -0.050040547 0
1.9895025 0.49141324 -0.050173372 0
1.9893143 0.51144266 -0.050274365 0
1.9767537 0.52942395 -0.049936537 0
1.978642 0.54983383 -0.050130695 0
1.9771173 0.56971186 -0.050210476 0
1.9724845 0.58899534 -0.050186183 0
1.9555136 0.60550094 -0.049719293 0
1.9516079 0.624771 -0.049738016 0
1.9541497 0.64567357 -0.050003018 0
1.9460007 0.6639502 -0.04988385 0
1.9496627 0.68542069 -0.050210383 0
1.932656 0.70111686 -0.049779616 0
1.9326006 0.72166628 -0.04998723 0
1.9239348 0.73962879 -0.049882729 0
1.9204308 0.75923371 -0.049980488 0
1.9197929 0.77990842 -0.050196275 0
1.9048812 0.79559821 -0.04988116 0
1.9003201 0.81493652 -0.049966738 0
1.8926419 0.83312869 -0.049942616 0
1.8885506 0.85275549 -0.05006529 0
1.8752972 0.86864203 -0.049843524 0
1.8752688 0.89009732 -0.050142948 0
1.8523933 0.90153486 -0.049560577 0
1.8567898 0.92517626 -0.050053786 0
1.8382146 0.93819523 -0.049652252 0
1.8346717 0.95834178 -0.04985353 0
1.8316875 0.97893649 -0.050088637 0
1.8208199 0.99557006 -0.05001764 0
1.8085417 1.0113845 -0.049897335 0
1.8018488 1.0302291 -0.050012771 0
1.7984103 1.0510457 -0.050272867 0
1.7853423 1.0663704 -0.050146095 0
1.7684838 1.0792818 -0.049867865 0
1.7551506 1.094177 -0.049742833 0
1.7439088 1.1103203 -0.049713574 0
1.7417647 1.1324748 -0.050082453 0
1.7349714 1.1517804 -0.05026567 0
1.7128314 1.1605054 -0.049792271 0
1.7118567 1.1840384 -0.050249998 0
1.6911185 1.1933881 -0.049848095 0
1.6792579 1.2091135 -0.04984526 0
1.6651928 1.2231256 -0.049751602 0
1.6595447 1.2437756 -0.050049499 0
1.6430426 1.2558116 -0.049861543 0
1.6379623 1.277276 -0.05021124 0
1.6227425 1.2903301 -0.050099507 0
1.6144528 1.3094106 -0.05032457 0
1.5936273 1.3173411 -0.049959559 0
1.5835623 1.3349326 -0.050119728 0
1.5722662 1.3515103 -0.050231963 0
1.55391 1.361297 -0.050003357 0
1.5404464 1.3757676 -0.050025448 0
1.5172361 1.3802384 -0.04955788 0
1.5024427 1.3931141 -0.049523771 0
1.0240197 0.88837904 0.29204544 0
1.5031435 1.4227232 -0.050312646 0
1.0451021 0.9271391 0.3062534 0
1.4810348 1.4278568 -0.049915932 0
1.4476986 1.3908645 0.060138121 0
1.4354335 1.3772542 0.16699952 0
1.4413376 1.3838059 0.27777058 0
1.0583172 0.95877802 0.31699234 0
1.4679493 1.4428413 -0.050005037 0
1.4156386 1.3833027 0.059175555 0
1.4204224 1.3887476 0.16684988 0
1.4144714 1.3819742 0.27430281 0
1.0599601 0.97848016 0.32225263 0
1.447476 1.449302 -0.04970029 0
1.386091 1.3776352 0.058331441 0
1.4010057 1.3950481 0.16599393 0
1.3911341 1.3835231 0.27175573 0
1.0563724 0.99269038 0.32504165 0
1.4343386 1.4642181 -0.04980405 0
1.3623239 1.3779665 0.057792544 0
1.3715895 1.3890641 0.16346148 0
1.3683535 1.3851882 0.26933202 0
1.0548972 1.0097632 0.32906187 0
1.4208447 1.4788173 -0.049899809 0
1.3469497 1.3880137 0.057720207 0
1.3407336 1.3803754 0.16063166 0
1.3402231 1.3797479 0.2653479 0
1.0536983 1.0276606 0.33340284 0
1.4082913 1.4947163 -0.050061628 0
1.3194579 1.382704 0.056957703 0
1.3248984 1.3895642 0.16033565 0
1.3209736 1.3846153 0.26385796 0
1.0533862 1.0472083 0.33840787 0
1.3911408 1.5048578 -0.049969278 0
1.2968069 1.3827839 0.056461446 0
1.2971673 1.3832502 0.1579642 0
1.2931757 1.3780848 0.2598401 0
1.0522206 1.066274 0.34316349 0
1.3749738 1.5162026 -0.049941268 0
1.272861 1.3805664 0.055880018 0
1.2740582 1.3821566 0.15636453 0
1.2813426 1.3918324 0.26051721 0
1.0371054 1.0674125 0.34041482 0
1.363497 1.5339155 -0.050204501 0
1.2467536 1.3747125 0.055156354 0
1.2500335 1.3791852 0.15456828 0
1.2513118 1.3809284 0.25570846 0
1.032413 1.0824161 0.34349045 0
1.3435097 1.5400355 -0.049963161 0
1.24861 1.4071438 0.056133229 0
1.2490029 1.407694 0.15698548 0
1.2391797 1.3939382 0.25632656 0
1.0197364 1.086643 0.34215719 0
1.3302813 1.5555842 -0.050144903 0
1.2403842 1.4262859 0.056522712 0
1.2481606 1.4374707 0.15954927 0
1.2427129 1.4296352 0.2619563 0
1.0073056 1.0910504 0.34097362 0
1.3107381 1.5620362 -0.049940165 0
1.2464353 1.4670192 0.057844143 0
1.2459852 1.466354 0.16197677 0
1.2426885 1.4614829 0.26669034 0
0.99924141 1.1017536 0.34239241 0
1.2959639 1.5754728 -0.050046269 0
1.2486341 1.503603 0.058974013 0
1.2389153 1.488845 0.1635652 0
1.2359825 1.4843916 0.26945505 0
1.1780837 1.3964723 0.35184109 0
0.99090815 1.1122473 0.34375668 0
1.271613 1.5741056 -0.049531762 0
1.2387391 1.5227917 0.05935609 0
1.2477939 1.5369257 0.16841835 0
1.2156895 1.4868129 0.26782763 0
1.1535392 1.3898003 0.34700236 0
0.98512959 1.1269239 0.34680426 0
1.2661661 1.6024003 -0.050281901 0
1.2484123 1.573904 0.061083257 0
1.2442365 1.5672016 0.17096491 0
1.2066495 1.5068718 0.27001518 0
1.1305091 1.3846608 0.34275535 0
0.97817165 1.1401477 0.34928724 0
1.2422361 1.6012062 -0.049798377 0
1.187977 1.5116223 0.26898244 0
1.1056081 1.3756282 0.33746627 0
0.96105248 1.1369616 0.34540272 0
0.84040993 0.93777621 0.47290203 0
1.226635 1.6134959 -0.049889546 0
1.1817926 1.537311 0.27238846 0
1.0906595 1.3824804 0.33701196 0
0.96160972 1.1632311 0.35300174 0
0.83864504 0.95432019 0.48078951 0
1.2101948 1.6244543 -0.049933411 0
1.1573044 1.5319511 0.26933604 0
1.0769018 1.3913301 0.33720356 0
0.9517737 1.1724863 0.35402301 0
0.84838772 0.9916684 0.35287401 0
0.83441079 0.96722329 0.41108963 0
0.83396405 0.96644193 0.48561466 0
1.1921633 1.6326164 -0.049871277 0
1.1489673 1.5548109 0.27218983 0
1.0555619 1.3865672 0.33347216 0
0.9313755 1.1628802 0.34790722 0
0.85222882 1.0203195 0.36398986 0
0.83911544 0.99669939 0.42509428 0
0.8412779 1.0005946 0.50539011 0
1.1740177 1.6404809 -0.049806729 0
1.1290915 1.5571021 0.27083218 0
1.0356159 1.3836203 0.33037046 0
0.92154562 1.1719164 0.34897539 0
0.84913814 1.0375348 0.36962932 0
0.84235877 1.0249529 0.43827558 0
0.83867586 1.0181178 0.51376706 0
1.1558803 1.6482698 -0.049748801 0
1.1122199 1.5647383 0.27062222 0
1.0174906 1.3835012 0.32817569 0
0.90559071 1.169413 0.34575129 0
0.85287213 1.0685512 0.38169768 0
0.83544391 1.0352074 0.44118577 0
0.84265947 1.0490123 0.53105885 0
1.1415157 1.6634201 -0.049995039 0
1.0961117 1.5738221 0.27074939 0
1.0047002 1.393436 0.32893604 0
0.89993256 1.1866933 0.3500016 0
0.85058492 1.0893135 0.38890779 0
0.83771795 1.0639225 0.4544813 0
0.84296131 1.0742695 0.54445928 0
1.1232427 1.6710118 -0.049946349 0
1.0797539 1.582445 0.27082404 0
0.98700643 1.3935609 0.32694936 0
0.89176524 1.1995983 0.35263056 0
0.84727836 1.1089989 0.3955901 0
0.83805156 1.0902082 0.46632469 0
0.83722699 1.0885289 0.55050838 0
1.1052736 1.6791699 -0.049929462 0
0.96353495 1.3810842 0.32147765 0
0.87832761 1.2018876 0.35137114 0
0.83862972 1.1184003 0.39753687 0
0.84438914 1.1305127 0.48586184 0
0.84121305 1.1238333 0.57038885 0
1.0878879 1.6885749 -0.049970597 0
0.94670397 1.3817527 0.31981257 0
0.8663578 1.2071438 0.35126767 0
0.83359414 1.1359414 0.40323195 0
0.84030378 1.1505229 0.49406454 0
0.84159058 1.1533194 0.58632326 0
1.0673721 1.6910248 -0.049748298 0
0.9276666 1.3770647 0.31672031 0
0.85367697 1.2107877 0.35063276 0
0.84039479 1.1809387 0.42136657 0
0.83752823 1.1744967 0.50442028 0
0.8419106 1.1843452 0.60316503 0
1.0496724 1.699635 -0.04977667 0
0.91249073 1.3805908 0.31599271 0
0.8516168 1.2390159 0.35896236 0
0.83822757 1.2078766 0.43122545 0
0.84189439 1.2164044 0.52450663 0
0.83841765 1.2083186 0.61536062 0
1.0332224 1.711316 -0.04993223 0
0.89758712 1.3845919 0.31545305 0
0.8485958 1.2665795 0.3670184 0
0.84185249 1.2503358 0.44800332 0
0.83623451 1.2368031 0.53280604 0
0.84113091 1.2485976 0.63799113 0
1.0166894 1.7230934 -0.050098706 0
0.87860841 1.3782798 0.31213349 0
0.84972942 1.3061638 0.37935564 0
0.84048426 1.2830769 0.46034217 0
0.84253269 1.2881923 0.55780506 0
0.83942485 1.2804314 0.65509081 0
0.99675971 1.7264034 -0.049948335 0
0.85908705 1.3696584 0.30826396 0
0.84834361 1.3418194 0.39022696 0
0.8399331 1.3200256 0.47449616 0
0.84278703 1.3274208 0.57611853 0
0.84241384 1.3264538 0.68114072 0
0.97874224 1.7345654 -0.049993034 0
0.84751719 1.3813499 0.31000814 0
0.84599382 1.3772495 0.40097371 0
0.84113371 1.3641677 0.49176443 0
0.84192711 1.3663032 0.59416002 0
0.84186387 1.3661331 0.7030322 0
0.96067637 1.7426946 -0.050044917 0
0.83222562 1.3831426 0.30910221 0
0.84250808 1.4119247 0.41141605 0
0.83888125 1.4017727 0.50607443 0
0.83817679 1.3998009 0.60926539 0
0.94144982 1.7475636 -0.049982123 0
0.82035398 1.3946345 0.31086844 0
0.83611429 1.4405673 0.41970697 0
0.84028459 1.4527215 0.52617615 0
0.83940864 1.4501685 0.63325441 0
0.92028505 1.7464117 -0.04970241 0
1.029613 2.0786121 0.35045943 0
0.79945248 1.3792536 0.30544975 0
0.84505844 1.5178304 0.44502109 0
0.83826953 1.4972019 0.54336756 0
0.84050232 1.5039864 0.65895349 0
0.90476978 1.7625372 -0.050080549 0
1.0067642 2.0861197 0.35048464 0
0.78526187 1.3833922 0.30534467 0
0.83880836 1.5532712 0.4556067 0
0.8390615 1.5540743 0.56588155 0
0.8394872 1.5554249 0.68329531 0
0.88228881 1.7564875 -0.049637686 0
0.98498434 2.0971985 0.35123682 0
0.76864314 1.3794473 0.3031337 0
0.84171343 1.6218714 0.47770181 0
0.8384304 1.6109794 0.58832008 0
0.86495209 1.7671983 -0.049829613 0
0.9601059 2.0979023 0.3500908 0
0.75302786 1.3782091 0.30170491 0
0.83910257 1.6773591 0.49516493 0
0.8385995 1.6756108 0.61400962 0
0.8459056 1.7721961 -0.04981748 0
0.74027663 1.3868935 0.047554135 0
0.74019104 1.3865813 0.13105296 0
0.73872858 1.3812467 0.21485895 0
0.74106896 1.3897839 0.3037228 0
0.83687484 1.7392547 0.5147897 0
0.83776122 1.742488 0.64057392 0
0.82842302 1.7831724 -0.050034828 0
0.72323877 1.3796319 0.047146548 0
0.72519267 1.387128 0.13069333 0
0.72314858 1.3792857 0.21379146 0
0.72320569 1.3795049 0.30001199 0
0.83170235 1.7957536 0.53250444 0
0.82815766 1.7821543 0.65541297 0
0.80818361 1.7836503 -0.049873516 0
0.70570987 1.3691961 0.0466314 0
0.7087363 1.3814363 0.12966515 0
0.70865923 1.3811247 0.21346976 0
0.70964897 1.3851277 0.30055112 0
0.82246655 1.8414177 0.54647326 0
0.8257978 1.8548908 0.68436217 0
0.78890777 1.7877614 -0.049855251 0
0.69681621 1.394089 0.047421206 0
0.69549 1.3884197 0.13006188 0
0.69278258 1.3768461 0.21204972 0
0.69489294 1.3858672 0.29985398 0
0.8177498 1.9110553 0.56863201 0
0.76974559 1.7923425 -0.049863104 0
0.68112212 1.3907627 0.047181211 0
0.68243837 1.396727 0.13062157 0
0.68064839 1.388616 0.21363461 0
0.67844826 1.3786466 0.2971276 0
0.80527794 1.9533507 0.58143401 0
0.75021666 1.7951989 -0.049816858 0
0.66399407 1.3797047 0.046667147 0
0.66147524 1.3675666 0.12708545 0
0.66562819 1.3875792 0.21288465 0
0.66393059 1.3793987 0.29653978 0
0.79250628 1.9989867 0.59539115 0
0.73089075 1.7989451 -0.049812041 0
0.65079796 1.3869829 0.046829082 0
0.6501292 1.383543 0.12852855 0
0.64878583 1.3766332 0.21035074 0
0.64864773 1.3759229 0.29490215 0
0.77697718 2.0359933 0.60644406 0
0.71303827 1.810813 -0.050110765 0
0.6364457 1.3885398 0.046789087 0
0.63526112 1.3820089 0.12807144 0
0.63581294 1.385051 0.21141075 0
0.6352005 1.3816746 0.29571083 0
0.76475435 2.0959358 0.62529308 0
0.69429326 1.8186685 -0.050271738 0
0.62243807 1.3919868 0.046824165 0
0.62006396 1.377889 0.12735394 0
0.62104446 1.3837112 0.21071389 0
0.62272918 1.3937154 0.29818878 0
0.74632919 2.1276619 0.63463449 0
0.67422205 1.8187541 -0.050160207 0
0.60761166 1.3903437 0.046681635 0
0.60736185 1.3887371 0.12828657 0
0.60645431 1.3829001 0.21014884 0
0.6080144 1.3929341 0.29739189 0
0.72847408 2.16768 0.64682776 0
0.65365958 1.8148597 -0.049914472 0
0.59303993 1.389791 0.046585429 0
0.59160215 1.3797089 0.12707722 0
0.59350628 1.393061 0.21161713 0
0.59165555 1.3800836 0.2935338 0
0.70810688 2.1966474 0.65536106 0
0.63487059 1.8233078 -0.050122801 0
0.57742864 1.3807184 0.046189267 0
0.57748926 1.3811855 0.12702981 0
0.57705545 1.3778429 0.20849723 0
0.5787794 1.3911259 0.29588202 0
0.68914151 2.2414644 0.66928381 0
0.61570281 1.8298095 -0.05026938 0
0.56381059 1.3862967 0.04632739 0
0.56309086 1.380145 0.12672929 0
0.56484228 1.3951142 0.21131895 0
0.56360471 1.3845371 0.2937395 0
0.66746855 2.2722418 0.67856336 0
0.59484601 1.8211387 -0.049879815 0
0.55252618 1.4152195 0.13035113 0
0.55142576 1.4046648 0.2127649 0
0.55185318 1.4087647 0.29955369 0
0.64466763 2.2990124 0.68658185 0
0.57649881 1.8369018 -0.050376091 0
0.55149889 1.5638109 0.14623372 0
0.55258739 1.5757016 0.24348545 0
0.55256802 1.5754898 0.34190685 0
0.62044489 2.3169537 0.69173735 0
0.55572057 1.8263308 -0.049937069 0
0.60260922 2.4209015 0.23848026 0
0.59902459 2.3754461 0.38791153 0
0.59795529 2.3618867 0.5428046 0
0.53591377 1.8257921 -0.049866736 0
0.57397377 2.4006872 0.39212507 0
0.57332712 2.3909199 0.54973805 0
0.51631021 1.82818 -0.049909998 0
0.54829812 2.4253426 0.39628693 0
0.54803628 2.4204543 0.55687422 0
0.49678987 1.8334227 -0.050064068 0
0.52154374 2.4379611 0.39833242 0
0.52198875 2.4488299 0.56379211 0
0.47711104 1.8370181 -0.05016803 0
0.45636609 1.105013 0.3541953 0
0.45634621 1.1043116 0.42642424 0
0.45716864 1.8287302 -0.049856521 0
0.44590983 1.1135234 0.35762271 0
0.44584796 1.109594 0.42895088 0
