# .PCD v0.7 - Point Cloud Data file format
VERSION 0.7
FIELDS x y z intensity
SIZE 4 4 4 4
TYPE F F F F
COUNT 1 1 1 1
WIDTH 1314
HEIGHT 1
VIEWPOINT 0 0 0 1 0 0 0
POINTS 1314
DATA ascii
1.1026899 0.025582943 0.20577472 0
1.1059657 0.028600726 0.24128856 0
1.0354834 -0.036326136 0.36597666 0
0.64879119 -0.36159411 -0.090768524 0
0.72717893 -0.28564075 -0.089487635 0
0.83812332 -0.17814192 -0.090608843 0
0.83704114 -0.17919049 -0.062634699 0
0.83433187 -0.18181559 -0.034648154 0
0.83657473 -0.17964241 -0.0076322537 0
0.83158821 -0.18447408 0.020115318 0
0.84129924 -0.17506465 0.046497218 0
0.8417114 -0.1746653 0.073751919 0
0.83758968 -0.17865899 0.10100365 0
0.84290165 -0.17351195 0.12829438 0
0.84241068 -0.17398772 0.15558267 0
0.83757991 -0.17866841 0.18247558 0
1.1012516 0.076814562 0.24406123 0
1.0053948 -0.016065266 0.29760107 0
1.0057256 -0.015744712 0.33098698 0
0.98799765 -0.032922115 0.35991329 0
0.63730139 -0.340808 -0.092150591 0
0.7124089 -0.26426557 -0.09035223 0
0.81819189 -0.15646157 -0.090796851 0
0.83772129 -0.13655904 -0.066925876 0
0.84259802 -0.13158914 -0.039471511 0
0.83945632 -0.13479081 -0.010774216 0
0.841887 -0.13231376 0.017034041 0
0.83795732 -0.13631848 0.045336027 0
0.83564955 -0.13867036 0.073261946 0
0.84106243 -0.13315406 0.10100464 0
0.83795834 -0.13631746 0.12882376 0
0.8364594 -0.13784507 0.15657346 0
0.84224099 -0.13195297 0.185011 0
0.83177036 -0.14262369 0.21175902 0
1.1047535 0.13557485 0.28524944 0
0.95053679 -0.021588173 0.29158244 0
0.95284033 -0.019240584 0.32441378 0
0.96229184 -0.0096085332 0.35957393 0
0.62305921 -0.32247004 -0.092874222 0
0.69996858 -0.24002966 -0.092030801 0
0.78263074 -0.15142283 -0.087354474 0
0.84086883 -0.088996559 -0.072061695 0
0.8355397 -0.094708949 -0.04201581 0
0.83878011 -0.091235489 -0.013668297 0
0.84113622 -0.088709921 0.014867613 0
0.84022194 -0.08968994 0.043694526 0
0.83556354 -0.094683379 0.072524309 0
0.83859032 -0.091438919 0.10100545 0
0.83738577 -0.092730075 0.12954864 0
0.84020233 -0.089710981 0.15831533 0
0.8421613 -0.087611169 0.18724899 0
0.84252608 -0.087220162 0.21619271 0
1.1032656 0.19227055 0.28991964 0
0.93146938 0.0081195571 0.29274711 0
0.93011236 0.0066649648 0.32490796 0
0.93290251 0.0096557476 0.35836837 0
0.6004988 -0.31323126 -0.091100074 0
0.67876428 -0.22497424 -0.091441132 0
0.78113502 -0.10953459 -0.092282243 0
0.85213691 -0.029468443 -0.07931646 0
0.84043193 -0.042667773 -0.046900306 0
0.84151542 -0.041445937 -0.017278304 0
0.84230161 -0.040559378 0.012322428 0
0.83558196 -0.048136856 0.04240872 0
0.83591539 -0.04776087 0.071711689 0
0.84239334 -0.040455963 0.1010066 0
0.84025186 -0.042870786 0.13045333 0
0.8420648 -0.040826406 0.1600595 0
0.84283614 -0.039956536 0.1897475 0
0.82879537 -0.055789854 0.21750149 0
1.1025275 0.2528874 0.2951054 0
1.1058203 0.25660065 0.33508751 0
0.58246636 -0.2992501 -0.090841495 0
0.65983081 -0.20744362 -0.091606803 0
0.73777753 -0.11494622 -0.0869487 0
0.84448683 0.01168314 -0.082988642 0
0.83857173 0.0046637985 -0.050943244 0
0.84708303 0.014763985 -0.021587616 0
0.83515489 0.00060913304 0.010471778 0
0.83632541 0.0019981002 0.04062026 0
0.83416772 -0.00056239625 0.070908025 0
0.84229869 0.0090864636 0.10100767 0
0.84390759 0.010995779 0.13145892 0
0.84255141 0.0093863942 0.16184506 0
0.83997011 0.0063232514 0.19206612 0
0.84510452 0.012416039 0.22331727 0
0.84140444 0.0080252625 0.25347328 0
1.1011794 0.31629363 0.34101009 0
0.56733674 -0.28171739 -0.091680311 0
0.63963473 -0.19139311 -0.091528587 0
0.7249946 -0.084750324 -0.089450471 0
0.85357118 0.07588461 -0.090771817 0
0.84785867 0.068747789 -0.057420406 0
0.83996791 0.058889542 -0.024349084 0
0.84012717 0.059088502 0.0070916358 0
0.84108502 0.060285244 0.038382534 0
0.84080255 0.059932385 0.069723114 0
0.84469926 0.064800531 0.10100894 0
0.84715438 0.067867905 0.13253137 0
0.84339184 0.063167125 0.16380726 0
0.83715391 0.055373941 0.19459331 0
0.83764297 0.055984888 0.22601971 0
0.83729655 0.055552159 0.25746325 0
1.1013509 0.38544372 0.34853879 0
1.0987093 0.38214341 0.38978302 0
0.54949248 -0.26740423 -0.091746651 0
0.61728275 -0.17818752 -0.090900682 0
0.70065159 -0.068468302 -0.089100026 0
0.72264981 -0.039517131 -0.066666238 0
0.73322725 -0.025596526 -0.040485132 0
0.72815353 -0.032273915 -0.011219656 0
0.72443223 -0.03717133 0.017373042 0
0.72745341 -0.033195283 0.045068096 0
0.73222423 -0.02691653 0.072868176 0
0.72905791 -0.03108367 0.10100476 0
0.73175842 -0.027529564 0.12912372 0
0.72220546 -0.040101912 0.15653709 0
0.72938442 -0.03065386 0.18520907 0
0.73128158 -0.028157081 0.21371257 0
0.73813552 -0.019136813 0.24344464 0
0.7282207 -0.032185461 0.26997107 0
0.72997749 -0.029873457 0.29907799 0
0.72589505 -0.03524616 0.32672581 0
0.52421027 -0.26335856 -0.089240633 0
0.59295577 -0.16798159 -0.089719839 0
0.68245363 -0.043812957 -0.090577953 0
0.73419654 0.027974758 -0.075256221 0
0.95636201 0.33620551 -0.0899918 0
0.85099965 0.19002655 -0.034721438 0
0.84664375 0.18398324 -0.00013837009 0
0.84098268 0.17612913 0.034089956 0
0.84706765 0.18457142 0.067326829 0
0.83909553 0.17351094 0.10101132 0
0.83620578 0.16950169 0.13426366 0
0.83889228 0.17322889 0.16776641 0
0.84077448 0.17584029 0.20145985 0
0.83136636 0.16278747 0.23360991 0
0.83645058 0.16984132 0.26804748 0
0.84724873 0.18482259 0.30445287 0
1.0990596 0.53418308 0.40972731 0
0.51030278 -0.24369046 -0.090964697 0
0.58089465 -0.14035162 -0.092674933 0
0.65541518 -0.031261589 -0.089713715 0
0.76209676 0.12490872 -0.088660367 0
0.92114294 0.35773507 -0.089686938 0
1.157326 0.7034815 -0.090380318 0
0.84518129 0.24653545 -0.0036594251 0
0.83960593 0.23837367 0.031754617 0
0.83722389 0.23488668 0.066500656 0
0.84513336 0.24646524 0.10101312 0
0.84212977 0.24206832 0.13572754 0
0.84002239 0.23898342 0.17030567 0
0.83568454 0.23263326 0.20450811 0
0.83448744 0.23088089 0.23898357 0
0.83846503 0.23670354 0.27458295 0
0.84267682 0.24286917 0.31076425 0
1.1071323 0.63000327 0.42338604 0
1.1008154 0.62075609 0.46834141 0
0.4930287 -0.22844782 -0.091630243 0
0.54972267 -0.14078417 -0.089356475 0
0.62858737 -0.018838789 -0.088973008 0
0.73676085 0.14842573 -0.08944159 0
0.87962538 0.36933139 -0.088129245 0
1.113025 0.73022801 -0.090170182 0
1.4812261 1.2995629 -0.089588962 0
0.8444078 0.31487587 0.028664635 0
0.84347755 0.31343749 0.064899094 0
0.84419119 0.31454101 0.10101473 0
0.83616191 0.3021256 0.13681634 0
0.84322619 0.31304887 0.17326361 0
0.84210813 0.31131998 0.20934215 0
0.84098876 0.30958918 0.24544218 0
0.8439697 0.31419852 0.28248623 0
0.83893108 0.30640748 0.31791255 0
0.84115154 0.30984095 0.35533583 0
1.0961667 0.70416087 0.4809441 0
0.70936626 0.16915527 -0.089857899 0
0.8497557 0.39873698 -0.089179821 0
1.062265 0.7462576 -0.088914044 0
1.426222 1.3414438 -0.090020083 0
0.85642952 0.40965083 0.024631472 0
0.84665507 0.39366642 0.063280635 0
0.83800262 0.37951687 0.1010162 0
0.83728147 0.37833753 0.13833398 0
0.84225589 0.38647237 0.17613678 0
0.84344989 0.3884249 0.2139591 0
0.83900589 0.38115755 0.25100219 0
0.841708 0.3855764 0.28941098 0
0.83431721 0.37349001 0.32555124 0
0.84241951 0.38673988 0.36614972 0
1.1021111 0.81141859 0.49864793 0
0.68127638 0.18902317 -0.09024138 0
0.81455535 0.4198685 -0.08920113 0
1.0290009 0.79129833 -0.090942018 0
1.3635181 1.370698 -0.089538641 0
1.3724247 1.3861246 -0.02672421 0
0.84956729 0.48051098 0.061510123 0
0.84257823 0.46840563 0.10101845 0
0.84040695 0.46464482 0.14010061 0
0.84188092 0.46719769 0.17936274 0
0.8410396 0.46574059 0.21852359 0
0.84263241 0.46849945 0.25818843 0
0.8428089 0.4688051 0.29784355 0
0.83799827 0.46047285 0.33632928 0
0.83907586 0.46233931 0.37655455 0
0.84223473 0.46781054 0.41797385 0
0.65107936 0.20535257 -0.090167768 0
0.78150409 0.44502333 -0.089876525 0
0.98492521 0.81883365 -0.091171987 0
1.2928791 1.3847353 -0.087979488 0
1.2899917 1.3794293 -0.024575418 0
1.2904723 1.3803124 0.038246606 0
0.84754777 0.5663864 0.10102096 0
0.83828813 0.54937083 0.14179911 0
0.84271121 0.55749875 0.18305342 0
0.83839452 0.54956633 0.22354932 0
0.84576118 0.56310338 0.26603913 0
0.83610553 0.54536003 0.305269 0
0.84158283 0.55542523 0.34822109 0
0.84226984 0.55668765 0.39034283 0
0.84104735 0.55444115 0.43210274 0
0.74330109 0.46081176 -0.089423753 0
0.93745422 0.84008175 -0.090857156 0
1.2457023 1.4422312 -0.089994408 0
1.2483523 1.447408 -0.026469177 0
1.2474445 1.4456346 0.037370514 0
1.2407671 1.4325907 0.10104807 0
0.853549 0.67617649 0.14457905 0
0.840312 0.65031856 0.18682754 0
0.83815151 0.64609808 0.22951463 0
0.83852988 0.64683729 0.27264026 0
0.84431779 0.6581437 0.31738073 0
0.83671385 0.64328974 0.35882652 0
0.84176338 0.65315372 0.40433046 0
0.83765978 0.64513761 0.44691738 0
0.89407659 0.86953276 -0.091520436 0
1.1785145 1.4615366 -0.089115955 0
1.7841158 2.721982 -0.090714686 0
4.5045843 8.3841276 -0.14081579 0
0.85556912 0.78938657 0.19295101 0
0.8391934 0.75530368 0.23639235 0
0.84130245 0.75969321 0.28219855 0
0.83865666 0.75418657 0.32714778 0
0.84583431 0.76912552 0.37524626 0
0.83698279 0.75070268 0.41834953 0
0.84193099 0.76100141 0.46683237 0
1.1250621 1.5099418 -0.090608798 0
1.6894655 2.7648051 -0.090664364 0
4.2638941 8.4886465 -0.1406596 0
1.0686238 1.3844602 0.22229187 0
0.85157704 0.90189058 0.24605832 0
0.84340101 0.88371247 0.29278508 0
0.84192199 0.88042408 0.34069452 0
0.84000367 0.87615901 0.38854659 0
0.83824801 0.8722555 0.43655965 0
0.83570784 0.86660784 0.48438129 0
1.5991608 2.8180101 -0.091260038 0
4.0241628 8.595006 -0.14070545 0
0.99372631 1.3757052 0.22052573 0
0.84693271 1.0260041 0.25389335 0
0.84225607 1.0148633 0.3039771 0
0.83910543 1.0073575 0.35417634 0
0.83529741 0.99828583 0.4040308 0
0.83895242 1.0069929 0.45692325 0
0.83845985 1.0058194 0.50864446 0
3.7804196 8.6918211 -0.14066444 0
0.92916131 1.3882744 0.21993898 0
0.85191518 1.1904073 0.26468661 0
0.84040833 1.1609323 0.31655815 0
0.83959264 1.1588428 0.37061697 0
0.83755022 1.1536112 0.42439196 0
0.83752614 1.1535494 0.4791702 0
0.84044325 1.1610217 0.5358901 0
3.5367 8.7889309 -0.14078395 0
0.85753429 1.3795667 0.2183841 0
0.84739023 1.3515127 0.27512714 0
0.84240204 1.3377175 0.3320803 0
0.8389082 1.3280551 0.38911104 0
0.83808547 1.3257799 0.44707784 0
0.84099305 1.3338208 0.5071159 0
0.84424287 1.3428085 0.56820452 0
3.2869949 8.8694315 -0.14064679 0
0.78815436 1.3724065 0.21700752 0
0.85124731 1.561698 0.28910846 0
0.84083945 1.5304723 0.34903973 0
0.84095865 1.5308301 0.41158924 0
0.84228778 1.5348177 0.47503573 0
0.84059608 1.5297422 0.53752458 0
0.83919221 1.5255303 0.60041511 0
0.7260257 1.3840196 0.15881033 0
0.7262516 1.3847592 0.2166782 0
0.84208173 1.7639062 0.30239174 0
0.83239663 1.732204 0.36674955 0
0.83518875 1.7413433 0.43483472 0
0.83743817 1.7487063 0.50347656 0
0.8356111 1.7427258 0.5706349 0
0.65805542 1.3733022 0.15812677 0
0.66009712 1.3806434 0.21563029 0
0.80873865 1.9150972 0.31189406 0
0.81060255 1.9217989 0.38317981 0
0.81012261 1.9200735 0.45407799 0
0.8106783 1.9220715 0.52582294 0
0.81268179 1.9292753 0.5990243 0
0.59481698 1.3755147 0.1577996 0
0.5977385 1.3871489 0.21517996 0
0.76859915 2.0675523 0.32148847 0
0.76744604 2.0629601 0.3948954 0
0.76866746 2.0678241 0.46954137 0
0.76983446 2.0724714 0.54479754 0
0.55266273 1.4686081 0.15968345 0
0.5495649 1.4548068 0.21772893 0
0.71256977 2.1810312 0.32830676 0
0.71447372 2.1895137 0.4052512 0
0.7144925 2.1895974 0.48193011 0
0.71368343 2.1859927 0.55850017 0
0.41578934 1.1047397 0.10103134 0
0.41551468 1.1033533 0.15069267 0
0.41629875 1.1073112 0.20059603 0
0.4140878 1.0961502 0.24971749 0
0.41546521 1.1031034 0.30019331 0
0.41576383 1.1046109 0.35057074 0
0.40685692 1.0596478 0.39463449 0
0.27268797 0.38234833 0.36442313 0
0.57975501 2.3758094 0.26012725 0
0.58075154 2.3816035 0.34028429 0
0.58148539 2.3858702 0.42083231 0
0.26378763 0.53873688 0.2822682 0
0.2704047 0.57720917 0.32444322 0
0.2727648 0.59093112 0.36458972 0
0.23688856 0.38234225 0.36319482 0
0.50714397 2.4747362 0.26414993 0
0.50584793 2.4658666 0.34528404 0
0.50584215 2.465827 0.4270983 0
0.22341169 0.53298289 0.28086209 0
0.27679855 0.89834195 0.3691766 0
0.20273589 0.39148572 0.36388558 0
0.10895892 -0.092696458 -0.090989091 0
0.42515254 2.5326569 0.26632142 0
0.42560822 2.5364401 0.34943733 0
0.42623934 2.5416803 0.4331392 0
0.42393392 2.5225387 0.51458049 0
0.23239101 0.93215925 0.37306502 0
0.16538513 0.37580982 0.36002812 0
0.34136021 2.5970781 0.2688891 0
0.34047633 2.5877655 0.35237041 0
0.34084404 2.5916395 0.43692505 0
0.34076709 2.5908289 0.52147949 0
0.34127817 2.5962136 0.60733241 0
0.17319141 0.82522005 0.400635 0
0.13075751 0.37812844 0.35976407 0
0.25421083 2.6541123 0.27120605 0
0.2530385 2.6372457 0.35531983 0
0.13213685 0.89779049 0.27764526 0
0.13389543 0.92309183 0.32512721 0
0.13351166 0.91757029 0.36970851 0
0.12582579 0.80699104 0.39700982 0
0.09688846 0.39065948 0.36159453 0
0.16319583 2.6817968 0.27225372 0
0.16244663 2.6648424 0.356888 0
0.086862929 0.95437652 0.28268221 0
0.085962169 0.93399221 0.32608178 0
0.086988404 0.95721596 0.37490267 0
0.07711383 0.73375338 0.38453278 0
0.061738398 0.38580588 0.36030564 0
0.018163031 -0.081218094 -0.092086263 0
0.026712794 0.37046137 -0.090156369 0
0.032036066 0.6516872 -0.090850659 0
0.039552875 1.0487959 -0.089299552 0
0.052857205 1.7516568 -0.090682112 0
0.099346682 4.2076716 -0.1410158 0
0.19773793 9.4056292 -0.14075947 0
0.071024559 2.7114286 0.27349883 0
0.070757277 2.6973083 0.35895625 0
0.07067769 2.693104 0.44496021 0
0.070657618 2.6920435 0.53151047 0
0.032742411 0.68900281 0.37694833 0
0.026986299 0.38491049 0.35993049 0
-0.0047441856 -0.082636386 -0.091754042 0
-0.0054286183 0.025880251 -0.090242155 0
-0.0062294593 0.15285328 -0.086746521 0
-0.0076457802 0.37741068 -0.091102578 0
-0.0094510932 0.66364247 -0.092217393 0
-0.011856958 1.0450914 -0.088923477 0
-0.016253559 1.7421715 -0.089988478 0
-0.031824928 4.2110076 -0.14113258 0
-0.064639837 9.4138012 -0.14091098 0
-0.02251659 2.7351732 0.27457815 0
-0.022367932 2.7116034 0.35991541 0
-0.022439854 2.7230067 0.44769835 0
-0.02247821 2.7290881 0.53577363 0
-0.0093771713 0.65192193 0.3708078 0
-0.007601358 0.37036732 0.35714912 0
-0.027434198 -0.088900536 -0.090513922 0
-0.031292222 0.033377681 -0.091746353 0
-0.03523745 0.15841976 -0.087751515 0
-0.041937415 0.37077191 -0.090260886 0
-0.05048807 0.64178067 -0.089753352 0
-0.063749745 1.0621028 -0.090602823 0
-0.085587278 1.7542326 -0.090923317 0
-0.11887532 2.8092809 -0.075958855 0
-0.11886051 2.8088114 0.012618842 0
-0.11891346 2.8104899 0.10107893 0
-0.11867747 2.8030097 0.18940374 0
-0.11672142 2.7410142 0.27493349 0
-0.11656625 2.7360959 0.36175361 0
-0.11622007 2.7251244 0.44806188 0
-0.11638202 2.7302568 0.53611809 0
-0.050494514 0.641985 0.36930212 0
-0.042242609 0.38044491 0.35917115 0
-0.049859028 -0.09489885 -0.089450486 0
-0.057565216 0.040688787 -0.093340628 0
-0.064848632 0.16883782 -0.089677028 0
-0.076842241 0.37986103 -0.091753654 0
-0.091998592 0.64653164 -0.090522297 0
-0.11537369 1.0578082 -0.090415038 0
-0.15461634 1.7482688 -0.090719797 0
-0.21407145 2.7943602 -0.075460516 0
-0.21391511 2.7916095 0.012920873 0
-0.2138835 2.7910535 0.1010785 0
-0.21387841 2.7909639 0.18922119 0
-0.2110159 2.7405992 0.27510822 0
-0.21086882 2.7380111 0.36217877 0
-0.2118545 2.7553539 0.45127705 0
-0.078513727 0.40927032 0.26476991 0
-0.076488167 0.37363127 0.29289699 0
-0.076438412 0.37275591 0.32526612 0
-0.076840535 0.37983099 0.35934335 0
-0.073049568 -0.088675946 -0.09111198 0
-0.082158424 0.022147689 -0.090177737 0
-0.093429908 0.15928295 -0.088436075 0
-0.11026725 0.36413589 -0.089874588 0
-0.13348441 0.64660925 -0.090867557 0
-0.16743892 1.0597196 -0.090930007 0
-0.22341277 1.7407296 -0.090527453 0
-0.42376167 4.1782899 -0.14041583 0
-0.85168874 9.384697 -0.14104283 0
-0.3061831 2.7477608 0.27574885 0
-0.30502892 2.7337184 0.36233595 0
-0.30370122 2.7175648 0.44835067 0
-0.3045705 2.7281411 0.5371201 0
-0.11295456 0.39683118 0.29650667 0
-0.11314669 0.39916876 0.33001703 0
-0.11160757 0.38044301 0.3599126 0
-0.095327817 -0.094746798 -0.090274684 0
-0.10791101 0.022138033 -0.090634249 0
-0.12266111 0.15915099 -0.088868432 0
-0.14530127 0.36945441 -0.091083966 0
-0.17512055 0.6464445 -0.091308184 0
-0.21819739 1.0465834 -0.09015695 0
-0.29113185 1.7240682 -0.089815132 0
-0.55408746 4.1666512 -0.14044969 0
-1.1112403 9.3420191 -0.14062515 0
-0.39843383 2.7207916 0.2749036 0
-0.39818549 2.7184849 0.36189067 0
-0.39981797 2.7336488 0.45069453 0
-0.3987639 2.7238574 0.53766215 0
-0.14869438 0.40097299 0.2975612 0
-0.14875333 0.40152052 0.33095515 0
-0.14641239 0.37977567 0.36040708 0
-0.11948705 -0.085307091 -0.092881046 0
-0.13401458 0.023712788 -0.091516696 0
-0.15309963 0.16693404 -0.09073671 0
-0.179205 0.36283818 -0.090730511 0
-0.21592706 0.63841397 -0.090946607 0
-0.27136505 1.0544405 -0.091478579 0
-0.36147738 1.7306762 -0.090861894 0
-0.6848954 4.1577229 -0.14076521 0
-1.3725306 9.3179874 -0.14079681 0
-0.49102962 2.7028832 0.27459091 0
-0.49009225 2.6958489 0.36108708 0
-0.24114077 0.82762676 0.27216691 0
-0.24134335 0.82914692 0.3154822 0
-0.18720163 0.4228479 0.30126223 0
-0.18677433 0.41964117 0.33466077 0
-0.18227305 0.38586202 0.36235362 0
-0.14068238 -0.098536402 -0.090749778 0
-0.16020036 0.024195347 -0.092319794 0
-0.18150303 0.15814927 -0.089982979 0
-0.21211164 0.35062042 -0.08970008 0
-0.25670749 0.63104504 -0.090783514 0
-0.32089356 1.0346558 -0.090319581 0
-0.4276588 1.7060099 -0.089824475 0
-0.81595635 4.1476774 -0.14118466 0
-1.632692 9.2834215 -0.14087616 0
-0.58058387 2.6676233 0.27356809 0
-0.58004999 2.6642661 0.35981047 0
-0.27926987 0.77292031 0.26762566 0
-0.27858227 0.76859659 0.30910546 0
-0.27706897 0.75908071 0.34986812 0
-0.21636283 0.37735251 0.36169577 0
-0.16227941 -0.10689387 -0.08977706 0
-0.18471403 0.014367018 -0.09127795 0
-0.21003231 0.15121415 -0.089654423 0
-0.24677496 0.34981099 -0.090413742 0
-0.29731312 0.6229735 -0.090658225 0
-0.37198892 1.0266018 -0.090387128 0
-0.49770194 1.7060902 -0.090660073 0
-0.94353992 4.1158786 -0.14073245 0
-1.8904179 9.2338266 -0.14075544 0
-0.66832668 2.62833 0.2724562 0
-0.66564441 2.6138318 0.35734776 0
-0.66834199 2.6284127 0.44459072 0
-0.66636801 2.617743 0.52990305 0
-0.28891221 0.57756597 0.36294928 0
-0.25306395 0.3838034 0.36406586 0
-0.18595016 -0.10438713 -0.091277562 0
-0.20999466 0.0094401576 -0.091292925 0
-0.23815687 0.14276078 -0.089189731 0
-0.27956021 0.33876529 -0.089786284 0
-0.33759138 0.61348635 -0.090485282 0
-0.42096859 1.0081964 -0.089590199 0
-0.56347889 1.6828437 -0.08995939 0
-0.61954498 1.9482622 -0.038804252 0
-0.61553842 1.9292948 0.031614508 0
-0.61728221 1.9375501 0.1010558 0
-0.75473708 2.5882654 0.27140689 0
-0.75330782 2.5814991 0.35632038 0
-0.75154465 2.5731521 0.4410376 0
-0.75375021 2.5835934 0.52797133 0
-0.28517002 0.36532214 0.36182547 0
-0.20602888 -0.1185917 -0.089266039 0
-0.23623382 0.0084568597 -0.092194639 0
-0.26934823 0.14774337 -0.091111578 0
-0.31096181 0.32277921 -0.088560589 0
-0.37516746 0.59284228 -0.089092784 0
-0.46882996 0.98680741 -0.088620506 0
-0.52193409 1.2101748 -0.057078872 0
-0.62002385 1.622762 -0.024022272 0
-0.61671001 1.6088231 0.03887935 0
-0.61944419 1.6203239 0.10104697 0
-0.83544874 2.5288866 0.26953009 0
-0.83317208 2.5193102 0.3532984 0
-0.83072263 2.5090072 0.43681124 0
-0.83244908 2.5162692 0.52230501 0
-0.83303261 2.5187235 0.60791928 0
-0.23190966 -0.10905585 -0.092572086 0
-0.25885308 -0.007217255 -0.09036877 0
-0.29676545 0.13608089 -0.090349965 0
-0.34620526 0.3229498 -0.089790232 0
-0.4139258 0.57891458 -0.088617228 0
-0.52285206 0.99062568 -0.090194382 0
-0.58268934 1.2167938 -0.058562238 0
-0.64542091 1.4539015 -0.016685134 0
-0.64825809 1.4646254 0.041952655 0
-0.64812136 1.4641085 0.10104284 0
-0.9167037 2.4792752 0.26820958 0
-0.9123382 2.4627748 0.35081077 0
-0.91001928 2.45401 0.43363282 0
-0.91139907 2.4592252 0.51808375 0
-0.91192418 2.46121 0.60277772 0
-0.25055796 -0.12716302 -0.089925833 0
-0.28469568 -0.010155585 -0.09113986 0
-0.32629031 0.13241044 -0.09106902 0
-0.34497342 0.19644693 -0.072614528 0
-0.45921981 0.58802778 -0.091061987 0
-0.57111436 0.97154754 -0.08968576 0
-0.71413475 1.4617515 -0.07752464 0
-0.71546447 1.4663091 -0.018115481 0
-0.71173656 1.4535315 0.041805685 0
-0.71215701 1.4549725 0.10104308 0
-0.98592877 2.3933284 0.26521426 0
-0.98384213 2.3861763 0.34698758 0
-0.98468894 2.3890789 0.42965847 0
-0.98103637 2.3765595 0.51095223 0
-0.98205847 2.3800628 0.59442759 0
-0.27428466 -0.12735072 -0.091361322 0
-0.30915618 -0.018154588 -0.091045029 0
-0.35186228 0.11557463 -0.089650579 0
-0.37800905 0.19745031 -0.074105926 0
-0.39494732 0.25049046 -0.051136304 0
-0.39896613 0.26307502 -0.021742037 0
-0.39724973 0.25770023 0.0094565023 0
-0.39532551 0.2516748 0.04032319 0
-0.39977261 0.26560035 0.07034193 0
-0.39701518 0.25696579 0.10100774 0
-0.39433157 0.24856237 0.13125725 0
-0.39461061 0.24943617 0.1615826 0
-0.39554238 0.25235394 0.19216673 0
-0.39459208 0.24937811 0.22241564 0
-0.39405826 0.24770656 0.25281069 0
-0.3967441 0.2561169 0.28477773 0
-0.39386624 0.24710527 0.31436026 0
-0.39700574 0.25693622 0.34745473 0
-0.29413366 -0.13978341 -0.090188213 0
-0.33289978 -0.028189804 -0.090665974 0
-0.38058478 0.10907808 -0.090130381 0
-0.42717582 0.24319687 -0.082390569 0
-0.43070865 0.25336662 -0.052776936 0
-0.43490952 0.26545945 -0.023014134 0
-0.43437773 0.26392856 0.0082225818 0
-0.42736173 0.24373201 0.040202379 0
-0.43049136 0.25274113 0.070399731 0
-0.42933396 0.24940935 0.10100783 0
-0.4315542 0.25580063 0.13169166 0
-0.4307512 0.25348905 0.16229457 0
-0.42707983 0.24292055 0.1922383 0
-0.43115571 0.25465348 0.22396302 0
-0.43489274 0.26541105 0.2562848 0
-0.43599775 0.26859203 0.288187 0
-0.42917258 0.24894479 0.31648284 0
-0.4314982 0.25563946 0.34927803 0
-0.31361517 -0.15244356 -0.089065544 0
-0.35816476 -0.033935811 -0.091266386 0
-0.4093594 0.10224858 -0.090682976 0
-0.47932765 0.28837326 -0.090853982 0
-0.48861238 0.31307188 -0.061640967 0
-0.51180154 0.37475803 -0.035049651 0
-0.51001799 0.37001362 -0.00055064051 0
-0.51435804 0.38155869 0.032790478 0
-0.51427364 0.3813341 0.066925384 0
-0.51038712 0.37099555 0.10101189 0
-1.2019138 2.2105467 0.18064655 0
-1.192614 2.1858079 0.25907961 0
-1.1612535 2.102385 0.33206475 0
-1.161389 2.1027453 0.40949172 0
-1.1634054 2.1081092 0.48789912 0
-1.1557285 2.0876877 0.56312913 0
-0.34009156 -0.14716092 -0.092158429 0
-0.38178989 -0.044202831 -0.091083206 0
-0.43466428 0.086350232 -0.089761294 0
-0.51349068 0.28098181 -0.091632374 0
-0.51049477 0.27358451 -0.058271725 0
-0.51099461 0.27481869 -0.026331892 0
-0.51602834 0.28724757 0.0046869237 0
-0.50899678 0.26988593 0.037724566 0
-0.51123506 0.27541235 0.069245368 0
-0.50801253 0.26745561 0.10100911 0
-1.2741377 2.1591086 0.25930223 0
-1.1990786 1.9737787 0.32464451 0
-1.1973947 1.9696212 0.39913163 0
-1.1998042 1.9755704 0.47500908 0
-1.2004802 1.9772396 0.55095124 0
-0.36067858 -0.15730479 -0.091863997 0
-0.40620938 -0.052560534 -0.091411941 0
-0.46343672 0.079091817 -0.090491675 0
-0.51024693 0.18677929 -0.079248078 0
-0.51091069 0.18830636 -0.049099881 0
-0.51159465 0.1898798 -0.019042706 0
-0.51239926 0.19173077 0.010942684 0
-0.50971878 0.18556431 0.041331444 0
-0.50899243 0.18389335 0.071227714 0
-0.50989795 0.18597654 0.10100698 0
-1.3518884 2.122988 0.2591525 0
-1.2294784 1.8413818 0.31692573 0
-1.2302797 1.8432252 0.38943461 0
-1.2292273 1.8408041 0.46180952 0
-1.2276958 1.837281 0.53428733 0
-1.2269607 1.8355896 0.60739005 0
-0.3804639 -0.16904148 -0.091313817 0
-0.425596 -0.071988672 -0.089572318 0
-0.49093026 0.068507224 -0.090758674 0
-0.5052681 0.099339515 -0.067753203 0
-0.51368362 0.11743644 -0.041678298 0
-0.50801182 0.10523966 -0.011699824 0
-0.51288831 0.11572614 0.0157749 0
-0.50624251 0.10143486 0.044970073 0
-0.51185805 0.11351064 0.072692931 0
-0.51079708 0.11122921 0.10100505 0
-1.4310234 2.0900991 0.25926742 0
-1.2473606 1.6951475 0.30810708 0
-1.2422047 1.6840601 0.37633291 0
-1.2433157 1.6864493 0.4460234 0
-1.2396375 1.6785398 0.51462054 0
-1.2399336 1.6791766 0.58481026 0
-0.3954494 -0.19019243 -0.088640667 0
-0.45159489 -0.077015907 -0.090839632 0
-0.51473725 0.05026475 -0.08975064 0
-0.51574153 0.052289162 -0.062430222 0
-0.51011872 0.040954743 -0.033440266 0
-0.51084673 0.042422447 -0.0065289941 0
-0.50938207 0.039469991 0.020686621 0
-0.51771766 0.05627254 0.04663397 0
-0.51536751 0.051535282 0.073956512 0
-0.50800633 0.036696706 0.1010031 0
-1.2477747 1.5279016 0.29757139 0
-1.2387859 1.5097821 0.36152181 0
-1.2399795 1.5121882 0.42748639 0
-1.2363465 1.5048649 0.49240947 0
-1.2374221 1.5070331 0.55911905 0
-0.42003515 -0.19183072 -0.090712197 0
-0.47377932 -0.090030402 -0.090561621 0
-0.53038174 0.017183933 -0.086082362 0
-0.53334934 0.022805128 -0.059869234 0
-0.53060985 0.017616067 -0.032103408 0
-0.53683305 0.029403839 -0.0065525901 0
-0.5360707 0.027959857 0.020552689 0
-0.5346334 0.025237236 0.047561314 0
-0.53452122 0.025024805 0.074302278 0
-0.53467906 0.025323782 0.10100316 0
-1.248489 1.3773983 0.28821996 0
-1.2391508 1.35971 0.3490597 0
-1.2385051 1.3584874 0.41140842 0
-1.2424191 1.365901 0.47540605 0
-1.2405689 1.3623962 0.53818566 0
-1.2374635 1.3565142 0.60075593 0
-0.43931592 -0.20396629 -0.090405352 0
-0.49201018 -0.10997781 -0.08890269 0
-0.55845511 0.0085370876 -0.087039568 0
-0.55495048 0.002285931 -0.058787275 0
-0.55120468 -0.0043951538 -0.030994212 0
-0.56225699 0.015318308 -0.0065320712 0
-0.56269419 0.016098056 0.020391414 0
-0.56091583 0.012926135 0.047479883 0
-0.55654114 0.0051231715 0.074464016 0
-0.55523413 0.0027919149 0.10100286 0
-1.2946634 1.3216794 0.16272125 0
-1.2939771 1.3204553 0.22439802 0
-1.247147 1.2369266 0.27954149 0
-1.2364626 1.217869 0.33730245 0
-1.242172 1.2280526 0.39821559 0
-1.2397898 1.2238038 0.45768008 0
-1.2416391 1.2271023 0.51873016 0
-1.2351621 1.2155497 0.57721817 0
-0.45962599 -0.21425554 -0.090669848 0
-0.52673435 -0.10133454 -0.09358307 0
-0.5832727 -0.0061993268 -0.086981483 0
-0.58534819 -0.0027069116 -0.060315702 0
-0.58752984 0.0009640191 -0.033659566 0
-0.58068287 -0.010557141 -0.0053002667 0
-0.58485615 -0.0035348202 0.020805428 0
-0.59070307 0.0063035819 0.04705349 0
-0.58508307 -0.0031530524 0.074298844 0
-0.58175427 -0.0087542795 0.10100296 0
-1.3566933 1.2952099 0.16290987 0
-1.3526576 1.2884192 0.22447242 0
-1.2512654 1.11781 0.27246737 0
-1.2390906 1.0973239 0.32767409 0
-1.2454592 1.1080401 0.38625371 0
-1.2455928 1.1082649 0.44401926 0
-1.2419944 1.1022098 0.50097531 0
-1.2411575 1.1008017 0.55905831 0
-0.48033988 -0.22404793 -0.091191091 0
-0.54575723 -0.12004051 -0.09244635 0
-0.61051917 -0.017075028 -0.087792747 0
-0.6090619 -0.01939198 -0.060053799 0
-0.6099115 -0.0180411 -0.033129189 0
-0.60742521 -0.02199408 -0.00569175 0
-0.61228359 -0.014269736 0.020445349 0
-0.60711402 -0.022488859 0.047798537 0
-0.61350214 -0.012332346 0.074136198 0
-0.6084947 -0.020293739 0.10100308 0
-1.2443075 0.99058932 0.26461881 0
-1.2371829 0.97926182 0.31817308 0
-1.23842 0.98122865 0.37317279 0
-1.2438163 0.98980826 0.42967954 0
-1.2408615 0.98511046 0.48445198 0
-1.2469418 0.99477762 0.54258329 0
-0.49376115 -0.24506029 -0.088989697 0
-0.56857663 -0.13251504 -0.092807479 0
-0.63610095 -0.030937996 -0.088162802 0
-0.63285798 -0.035816457 -0.05993164 0
-0.63642722 -0.030447271 -0.033594612 0
-0.63819653 -0.027785625 -0.006797662 0
-0.64006257 -0.024978604 0.020019347 0
-0.63809448 -0.027939167 0.047228321 0
-0.63804489 -0.028013732 0.074132472 0
-0.6392256 -0.026237633 0.10100341 0
-1.2536772 0.89808422 0.25953963 0
-1.2381915 0.87478882 0.31003016 0
-1.2404014 0.87811309 0.36317319 0
-1.2421215 0.88070077 0.41666833 0
-1.240014 0.87753028 0.46952313 0
-1.2414132 0.87963539 0.52379966 0
-0.5206213 -0.24603829 -0.092038773 0
-0.58270001 -0.15757844 -0.090409748 0
-0.66458797 -0.040891137 -0.089453034 0
-0.666026 -0.038841989 -0.062209968 0
-0.66482234 -0.040557172 -0.034490932 0
-0.659531 -0.0480971 -0.0063553955 0
-0.66646093 -0.03822222 0.019742856 0
-0.66286331 -0.043348696 0.047170263 0
-0.65598857 -0.053145017 0.074379653 0
-0.66452515 -0.040980723 0.10100347 0
-1.2994242 0.86372668 0.2593601 0
-1.2508398 0.79449588 0.30450374 0
-1.2395809 0.77845234 0.35349569 0
-1.2433048 0.78375882 0.40550709 0
-1.2364113 0.77393597 0.45512405 0
-1.2408092 0.78020257 0.5082649 0
-0.53787553 -0.26123592 -0.091562577 0
-0.6034013 -0.17270204 -0.090378769 0
-0.68866336 -0.057501938 -0.089551993 0
-0.69458389 -0.049502458 -0.063341387 0
-0.69435489 -0.049811866 -0.03563175 0
-0.68916076 -0.056829836 -0.0073113423 0
-0.69200277 -0.052989926 0.019536281 0
-0.6911267 -0.054173615 0.046809692 0
-0.69134313 -0.053881194 0.073912859 0
-0.69304448 -0.051582482 0.1010037 0
-1.3448426 0.82908207 0.25925177 0
-1.2517661 0.70332354 0.29764584 0
-1.2336152 0.67879921 0.34363401 0
-1.2398219 0.68718547 0.39420527 0
-1.2404214 0.68799549 0.44404632 0
-1.2382586 0.6850732 0.4934426 0
-0.55129445 -0.28119108 -0.089910768 0
-0.62446845 -0.18736973 -0.090579726 0
-0.70944822 -0.078411311 -0.088882409 0
-0.72070593 -0.063977033 -0.063942753 0
-0.72200555 -0.062310722 -0.036423836 0
-0.71941882 -0.065627366 -0.0083662998 0
-0.7186777 -0.066577584 0.01916437 0
-0.72262567 -0.061515655 0.046194613 0
-0.72755569 -0.055194523 0.073427744 0
-0.71871859 -0.066525191 0.1010038 0
-1.3913903 0.79595309 0.25937656 0
-1.2511672 0.61616355 0.29112977 0
-1.2419246 0.60431308 0.33728644 0
-1.2406638 0.60269636 0.38481811 0
-1.2363729 0.59719485 0.4317562 0
-1.2399566 0.60178977 0.48114127 0
-0.56406248 -0.30134377 -0.088262282 0
-0.64411139 -0.20388189 -0.090463631 0
-0.73438609 -0.093969792 -0.089447312 0
-0.74682307 -0.078827351 -0.064607076 0
-0.74301445 -0.083464473 -0.036028016 0
-0.75015765 -0.074767441 -0.0094932746 0
-0.7431531 -0.083295733 0.01900758 0
-0.74648696 -0.079236656 0.046144519 0
-0.74697322 -0.078644603 0.073571302 0
-0.74588728 -0.079966754 0.10100399 0
-1.4346617 0.7586363 0.25923008 0
-1.2576036 0.54306287 0.28617477 0
-1.2393155 0.52079648 0.32947102 0
-1.2434617 0.52584463 0.37662789 0
-1.2439023 0.52638119 0.42343971 0
-1.2368906 0.51784414 0.46843144 0
-0.5852533 -0.31117705 -0.089566641 0
-0.665097 -0.21881828 -0.090859435 0
-0.75824714 -0.11106744 -0.089825608 0
-0.77222216 -0.09490189 -0.065179802 0
-0.77402759 -0.092813522 -0.037528265 0
-0.77161533 -0.095603853 -0.0092966612 0
-0.76779956 -0.10001776 0.018791208 0
-0.77569199 -0.090888232 0.045683138 0
-0.76863027 -0.09905687 0.073609747 0
-0.78194994 -0.083649367 0.10100457 0
-1.4823575 0.72654313 0.25966343 0
-1.2496834 0.45739856 0.27957937 0
-1.2415556 0.44799688 0.32312983 0
-1.2414757 0.4479045 0.36806789 0
-1.2396405 0.44578162 0.41285414 0
-1.2378328 0.44369057 0.45786124 0
-0.60504979 -0.32302478 -0.090474419 0
-0.68219894 -0.23820642 -0.090264358 0
-0.78468496 -0.12553242 -0.090929888 0
-0.79752046 -0.11142102 -0.065801792 0
-0.80261678 -0.10581806 -0.038608093 0
-0.80101943 -0.10757425 -0.010281762 0
-0.79779142 -0.11112311 0.017980875 0
-0.80907625 -0.098716468 0.044924565 0
-0.80119312 -0.10738328 0.073252238 0
-0.80805957 -0.099834174 0.10100472 0
-1.2559495 0.39257947 0.27543783 0
-1.2405626 0.37566307 0.316724 0
-1.2379256 0.37276402 0.35983205 0
-1.2454886 0.38107887 0.40553239 0
-1.2436949 0.37910679 0.44948924 0
-0.62074977 -0.33948657 -0.090192251 0
-0.71129596 -0.24485067 -0.093088008 0
-0.79719269 -0.15507415 -0.088781796 0
-0.82945263 -0.12135711 -0.067842118 0
-0.82955009 -0.12125525 -0.03943618 0
-0.83131325 -0.11941245 -0.011402754 0
-0.81929249 -0.13197616 0.018021496 0
-0.83157265 -0.11914137 0.044905428 0
-0.82561409 -0.12536904 0.073170684 0
-0.82484466 -0.12617317 0.1010045 0
-1.2483273 0.31643716 0.2697517 0
-1.2361066 0.30366448 0.31021208 0
-1.2396088 0.30732492 0.35326561 0
-1.2417322 0.30954424 0.3965106 0
-1.2396606 0.30737904 0.43908817 0
-0.64492118 -0.34745613 -0.092581816 0
-0.72218168 -0.27068117 -0.091051243 0
-0.8185032 -0.17496505 -0.088901468 0
-0.86116201 -0.13257429 -0.069838189 0
-0.85537249 -0.13832751 -0.040125791 0
-0.86040127 -0.13333032 -0.012377186 0
-0.86116868 -0.13256773 0.016000459 0
-0.85587066 -0.13783243 0.044734243 0
-0.86589462 -0.12787142 0.072556227 0
-0.85679406 -0.13691482 0.10100492 0
-1.2704808 0.27417198 0.14274846 0
-1.2671859 0.27089801 0.18430416 0
-1.2802731 0.28390291 0.22734953 0
-1.2409848 0.24486151 0.26449946 0
-1.2546906 0.25848117 0.30796281 0
-1.2416679 0.24554017 0.34726775 0
-1.2338603 0.23778167 0.38718203 0
-1.2440252 0.24788287 0.43166241 0
-0.65551573 -0.36905316 -0.091004483 0
-0.74551421 -0.28402433 -0.092458643 0
-0.84569794 -0.18937269 -0.090463676 0
-0.87857836 -0.15830788 -0.069079347 0
-0.87714577 -0.15966138 -0.040218282 0
-0.89044875 -0.14709297 -0.013497544 0
-0.8861506 -0.15115377 0.015650341 0
-0.88288367 -0.15424028 0.044362605 0
-0.88146675 -0.155579 0.072744511 0
-0.88457137 -0.1526458 0.10100517 0
-1.2954817 0.23557451 0.14254092 0
-1.2918508 0.23214415 0.18387279 0
-1.2900862 0.23047677 0.22524124 0
-1.2494303 0.19206598 0.26163438 0
-1.2547415 0.19708398 0.30297086 0
-1.2395703 0.18275037 0.34091246 0
-1.2473428 0.19009379 0.3833178 0
-1.2435747 0.18653384 0.4235574 0
-0.66298681 -0.39297184 -0.088727631 0
-0.75884944 -0.30687514 -0.091389842 0
-0.87406391 -0.20339808 -0.09233094 0
-0.91686749 -0.16495505 -0.072404362 0
-0.91800821 -0.16393057 -0.043393005 0
-0.92587078 -0.15686896 -0.015311232 0
-0.92394906 -0.15859494 0.014059136 0
-0.92014414 -0.16201225 0.043331839 0
-0.9146803 -0.16691944 0.072355151 0
-0.9124862 -0.16889003 0.10100545 0
-1.3245065 0.20115617 0.14249496 0
-1.3242149 0.20089427 0.18399544 0
-1.3352582 0.21081248 0.22663376 0
-1.2469392 0.13149098 0.25762975 0
-1.2586813 0.14203671 0.29894832 0
-1.2375174 0.1230289 0.33501092 0
-1.239751 0.12503496 0.37515208 0
-1.2350231 0.12078872 0.41397905 0
-0.6862523 -0.4027178 -0.091083802 0
-0.7656247 -0.33497038 -0.088863768 0
-0.8784557 -0.23866472 -0.089055516 0
-0.95212007 -0.17578933 -0.075128905 0
-0.95434326 -0.17389175 -0.045821253 0
-0.95116425 -0.17660514 -0.015873974 0
-0.94914144 -0.1783317 0.013642998 0
-0.94509375 -0.18178657 0.043064378 0
-0.94936162 -0.17814377 0.071920358 0
-0.9615379 -0.16775081 0.10100652 0
-1.40247 0.20860198 0.14397654 0
-1.4078804 0.21321991 0.18730822 0
-1.4065263 0.21206418 0.23044331 0
-1.2540996 0.081962019 0.25508538 0
-1.251119 0.079417974 0.29345915 0
-1.2374514 0.067752153 0.32988399 0
-1.2425339 0.072090179 0.36976165 0
-1.2430425 0.072524339 0.40912503 0
-0.69736791 -0.42305383 -0.090135463 0
-0.78015286 -0.35592911 -0.088442571 0
-0.90170652 -0.25736943 -0.090027072 0
-0.97796482 -0.1955367 -0.076146193 0
-0.97964066 -0.1941779 -0.046577815 0
-0.97837198 -0.19520661 -0.01671586 0
-0.99122638 -0.18478385 0.011669593 0
-0.98273039 -0.19167265 0.042011693 0
-0.9781639 -0.19537529 0.071661778 0
-0.97852725 -0.19508067 0.1010064 0
-1.2532893 0.027705465 0.25178599 0
-1.248458 0.023788009 0.28905931 0
-1.2406367 0.017446194 0.32570451 0
-1.2388011 0.015957866 0.36338702 0
-1.2411449 0.0178583 0.40226239 0
-0.71520674 -0.43794826 -0.091147967 0
-0.80821151 -0.36634955 -0.091372691 0
-0.91553336 -0.28372905 -0.089124225 0
-1.0085487 -0.21212205 -0.078073777 0
-1.0111986 -0.21008208 -0.048319537 0
-1.0140007 -0.20792493 -0.018589413 0
-1.0085627 -0.21211138 0.011903064 0
-1.014854 -0.20726815 0.041288335 0
-1.0072716 -0.21310523 0.071386307 0
-1.0052108 -0.21469179 0.10100665 0
-1.2484766 -0.027416196 0.24824132 0
-1.2413234 -0.032923128 0.28429317 0
-1.239018 -0.034697857 0.32098061 0
-1.2462556 -0.029126015 0.35975307 0
-1.2390406 -0.034680393 0.39581391 0
-0.74078172 -0.44750771 -0.094278239 0
-0.82363689 -0.38698956 -0.091364659 0
-0.93752319 -0.3038061 -0.090035923 0
-1.0382516 -0.23023322 -0.079886369 0
-1.0437443 -0.22622123 -0.050231073 0
-1.0462172 -0.22441503 -0.02007181 0
-1.0352471 -0.23242775 0.011262709 0
-1.046507 -0.22420338 0.040582385 0
-1.0393188 -0.22945365 0.071018219 0
-1.0453705 -0.22503355 0.10100739 0
-1.2525356 -0.073718399 0.24594983 0
-1.23466 -0.086774856 0.27989152 0
-1.2330271 -0.087967604 0.31581298 0
-1.2389418 -0.08364746 0.35341254 0
-1.2447317 -0.079418451 0.3916142 0
-0.73898292 -0.47694239 -0.090340011 0
-0.83335066 -0.41160169 -0.090168692 0
-0.96200413 -0.32252142 -0.091532044 0
-1.0729955 -0.24567041 -0.082608171 0
-1.0840265 -0.23803255 -0.053267736 0
-1.0782536 -0.24202964 -0.021555817 0
-1.0861375 -0.23657081 0.0085311476 0
-1.0822927 -0.23923299 0.039630223 0
-1.0794156 -0.24122509 0.070417091 0
-1.08053 -0.24045345 0.10100795 0
-1.2448959 -0.12664571 0.20699613 0
-1.2582765 -0.11738095 0.24402305 0
-1.2376428 -0.13166788 0.27713302 0
-1.2439592 -0.12729427 0.31386071 0
-1.2427616 -0.12812355 0.34968585 0
-1.2405676 -0.1296427 0.38548985 0
-0.7616207 -0.48925349 -0.092868187 0
-0.84641761 -0.4336516 -0.089888684 0
-0.96489573 -0.35596469 -0.088854261 0
-1.1109164 -0.26021782 -0.085885264 0
-1.112927 -0.25889954 -0.054705966 0
-1.1213813 -0.25335595 -0.024303487 0
-1.1092895 -0.26128456 0.0081544388 0
-1.1044427 -0.26446268 0.039431471 0
-1.115049 -0.25750807 0.06994158 0
-1.1169354 -0.25627115 0.10100856 0
-1.2580497 -0.1637415 0.2063088 0
-1.2407711 -0.17507127 0.23965572 0
-1.2348095 -0.17898026 0.27376631 0
-1.2258804 -0.18483517 0.3072314 0
-1.2488704 -0.1697605 0.34669289 0
-1.2363271 -0.17798522 0.37973672 0
-0.76078218 -0.51684797 -0.089563482 0
-0.86733234 -0.45076516 -0.091476746 0
-0.97908187 -0.38145766 -0.088566907 0
-1.1528524 -0.27368441 -0.089836709 0
-1.1559147 -0.27178523 -0.058132265 0
-1.1597961 -0.26937792 -0.026522553 0
-1.1478034 -0.2768158 0.0064681266 0
-1.1523968 -0.273967 0.037787046 0
-1.1459445 -0.27796873 0.069591731 0
-1.1473119 -0.27712062 0.10100897 0
-1.2505112 -0.21311608 0.16961285 0
-1.2493532 -0.21383426 0.2039109 0
-1.2304494 -0.22555843 0.23630701 0
-1.2344052 -0.2231051 0.27095169 0
-1.2396244 -0.21986815 0.30621189 0
-1.2366968 -0.22168383 0.34041438 0
-1.2345237 -0.22303161 0.37488595 0
-0.77817321 -0.53287143 -0.090970941 0
-0.87677306 -0.47511211 -0.090631865 0
-1.0000169 -0.40291634 -0.089692779 0
-1.1782396 -0.29851434 -0.091090672 0
-1.1880256 -0.2927818 -0.060079474 0
-1.1910833 -0.29099056 -0.027982136 0
-1.1834158 -0.29548225 0.0050096232 0
-1.1767944 -0.29936096 0.037424672 0
-1.182314 -0.29612759 0.069085494 0
-1.1906232 -0.29126015 0.10100982 0
-1.24322 -0.2604492 0.16818258 0
-1.2359804 -0.26469013 0.20127228 0
-1.2417501 -0.26131025 0.23548684 0
-1.2304474 -0.26793125 0.26784891 0
-1.2367336 -0.26424888 0.30264199 0
-1.2372383 -0.26395324 0.33690229 0
-1.2440037 -0.25999007 0.37282026 0
-0.78916025 -0.55283052 -0.090902738 0
-0.89389747 -0.49497479 -0.091585226 0
-1.0070795 -0.43245426 -0.088300787 0
-1.1863213 -0.33344302 -0.089650206 0
-1.4218067 -0.20336333 -0.088997819 0
-1.7946346 0.0025827622 -0.090503104 0
-3.0134959 0.67586869 -0.13978402 0
-4.5444336 1.5215421 -0.14077792 0
-9.1043768 4.0404067 -0.14088488 0
-1.2470523 -0.29989585 0.13420178 0
-1.2456018 -0.30069706 0.16735126 0
-1.2342975 -0.30694142 0.1997079 0
-1.2389239 -0.30438587 0.23326766 0
-1.2352974 -0.30638906 0.26611781 0
-1.2366592 -0.30563691 0.2997551 0
-1.2380131 -0.30488899 0.33368447 0
-1.2373623 -0.30524847 0.36751533 0
-0.80160505 -0.57202983 -0.091306172 0
-0.91078699 -0.51526594 -0.092583455 0
-1.0250419 -0.45586452 -0.089085065 0
-1.2051967 -0.36220166 -0.090078793 0
-1.4435908 -0.23826018 -0.0893149 0
-1.8181435 -0.043529537 -0.090403639 0
-3.0646245 0.60451835 -0.14057784 0
-4.6013083 1.4034431 -0.14051405 0
-9.2276897 3.808708 -0.14086671 0
-1.249836 -0.3389937 0.13382842 0
-1.2345172 -0.34695795 0.16587704 0
-1.2353798 -0.34650943 0.19846661 0
-1.2342705 -0.34708622 0.23100026 0
-1.2426485 -0.34273049 0.26486769 0
-1.2409618 -0.3436074 0.297766 0
-1.2464746 -0.34074125 0.33212566 0
-1.2352843 -0.34655914 0.36349276 0
-0.81292349 -0.59190178 -0.091553621 0
-0.91276199 -0.54315501 -0.090551384 0
-1.0349841 -0.48347935 -0.088501595 0
-1.2217271 -0.39230087 -0.090249605 0
-1.4609191 -0.27551398 -0.089163907 0
-1.8443474 -0.088302761 -0.090706997 0
-3.1169209 0.53303903 -0.14159378 0
-4.6684422 1.2905788 -0.14094034 0
-9.3466568 3.5747459 -0.14088863 0
-1.2554806 -0.37582055 0.10101032 0
-1.2490218 -0.37897411 0.13339205 0
-1.2436585 -0.38159272 0.16553095 0
-1.2371358 -0.38477752 0.19737121 0
-1.2450533 -0.38091174 0.23047774 0
-1.2401795 -0.38329139 0.26247516 0
-1.2456813 -0.38060513 0.29601738 0
-1.2388198 -0.38395533 0.32780388 0
-1.2333084 -0.38664624 0.35976085 0
-0.8190437 -0.61423194 -0.090701096 0
-0.93080026 -0.56311661 -0.092016257 0
-1.0559 -0.50589842 -0.09003479 0
-1.2372725 -0.42294213 -0.090384342 0
-1.481836 -0.31108353 -0.089597367 0
-1.8668138 -0.13500205 -0.090739943 0
-3.1410773 0.44782141 -0.14057434 0
-4.7156267 1.16799 -0.14048715 0
-9.4412317 3.3293912 -0.14043854 0
-1.2400137 -0.42168835 0.10100935 0
-1.2499189 -0.41715786 0.13303056 0
-1.2463772 -0.41877773 0.16490471 0
-1.2405107 -0.42146102 0.19648771 0
-1.2373929 -0.422887 0.22815523 0
-1.2305276 -0.42602709 0.25931892 0
-1.2430512 -0.42029908 0.2932978 0
-1.2379614 -0.422627 0.3249588 0
-1.2419574 -0.42079934 0.35848388 0
-0.83553863 -0.63192558 -0.092386819 0
-0.93696278 -0.58859617 -0.091136836 0
-1.063666 -0.53446722 -0.089303114 0
-1.2535137 -0.45336244 -0.090742834 0
-1.499437 -0.3483015 -0.089719526 0
-1.8963407 -0.17874023 -0.0916095 0
-3.1680875 0.36456278 -0.13994722 0
-4.7782431 1.0524375 -0.14097758 0
-9.5689611 3.0990808 -0.14098896 0
-1.2508938 -0.45448163 0.10100926 0
-1.2408369 -0.45877811 0.13244461 0
-1.2435999 -0.4575977 0.16405444 0
-1.2379297 -0.4600201 0.19523135 0
-1.2305278 -0.46318224 0.22604656 0
-1.2383678 -0.45983288 0.25855857 0
-1.2474164 -0.45596722 0.29183087 0
-1.2496235 -0.45502433 0.32455814 0
-1.2276869 -0.46439591 0.35270241 0
-0.83325815 -0.65753222 -0.089863457 0
-0.94575548 -0.61279392 -0.09093035 0
-1.0759383 -0.56102234 -0.089503951 0
-1.2596284 -0.48797193 -0.089682959 0
-1.5138295 -0.38688049 -0.089555688 0
-1.9016925 -0.23263386 -0.090153463 0
-3.2177052 0.29072216 -0.14118615 0
-4.8182316 0.92722446 -0.14047633 0
-1.2606794 -0.48755398 0.069401883 0
-1.251056 -0.49138108 0.10100886 0
-1.2463096 -0.49326858 0.13225605 0
-1.2493309 -0.4920671 0.16368885 0
-1.2299258 -0.49978417 0.19365287 0
-1.2381471 -0.49651468 0.22551759 0
-1.2461482 -0.49333277 0.25790626 0
-1.2397619 -0.4958725 0.28869689 0
-1.2366761 -0.4970997 0.31995267 0
-1.2353169 -0.49764022 0.35164347 0
-0.85410827 -0.67398667 -0.092750899 0
-0.95448029 -0.63697517 -0.09083534 0
-1.0929395 -0.58591926 -0.09064927 0
-1.2760372 -0.51840329 -0.09030626 0
-1.5454507 -0.41905901 -0.091661356 0
-1.9203072 -0.28083327 -0.090166308 0
-3.2544427 0.2111198 -0.14159344 0
-4.8612909 0.80363387 -0.14028966 0
-1.2481021 -0.52870417 0.070017308 0
-1.2450229 -0.52983963 0.10100831 0
-1.2385814 -0.53221488 0.13176303 0
-1.2338083 -0.53397495 0.16231421 0
-1.2334352 -0.53411251 0.19302277 0
-1.2422372 -0.5308668 0.22472632 0
-1.2395642 -0.53185248 0.25557566 0
-1.2414721 -0.53114891 0.28714684 0
-1.2343976 -0.53375757 0.31744635 0
-1.2538559 -0.52658248 0.35295433 0
-0.84901834 -0.70000881 -0.089882858 0
-0.96649897 -0.66002584 -0.091518484 0
-1.1012001 -0.61418211 -0.090376936 0
-1.2890624 -0.5502457 -0.090536468 0
-1.5418445 -0.46421471 -0.089500688 0
-1.9509822 -0.32497016 -0.091488667 0
-3.2729607 0.12494734 -0.14080082 0
-1.2554909 -0.56167132 0.039181225 0
-1.2483504 -0.56410146 0.070286863 0
-1.2317756 -0.56974244 0.10100757 0
-1.2517056 -0.56295955 0.13181193 0
-1.2453121 -0.56513548 0.16233434 0
-1.2411703 -0.56654513 0.1927747 0
-1.2375171 -0.56778842 0.22315855 0
-1.2348022 -0.56871235 0.25361067 0
-1.2494625 -0.56372297 0.28667554 0
-1.2494469 -0.56372833 0.31813213 0
-1.2425514 -0.56607509 0.34846047 0
-0.8632642 -0.71929216 -0.091490172 0
-0.96997911 -0.68595296 -0.090626635 0
-1.1106832 -0.64199501 -0.090440564 0
-1.2897713 -0.58604532 -0.089070328 0
-1.5631307 -0.50064403 -0.090545036 0
-1.9670079 -0.37446722 -0.091477461 0
-3.300921 0.042265926 -0.14086595 0
-1.2425793 -0.60078877 0.040317692 0
-1.2482481 -0.5990178 0.070540987 0
-1.2313238 -0.60430515 0.10100725 0
-1.246677 -0.59950864 0.13143621 0
-1.2407184 -0.60137016 0.16160677 0
-1.2454419 -0.59989446 0.19233494 0
-1.2422569 -0.6008895 0.22262029 0
-1.2321048 -0.60406119 0.25202841 0
-1.2418743 -0.60100901 0.28403491 0
-1.2374791 -0.60238218 0.31428984 0
-1.2336155 -0.60358918 0.34466699 0
-0.86956191 -0.74125195 -0.091437228 0
-0.96928942 -0.71283674 -0.089053191 0
-1.1128025 -0.67194581 -0.089365743 0
-1.3074143 -0.61649537 -0.09022174 0
-1.5842087 -0.53762883 -0.091668762 0
-1.9765309 -0.42584512 -0.090956949 0
-1.2459658 -0.63400376 0.010328041 0
-1.2532166 -0.6319378 0.04025811 0
-1.2339441 -0.63742912 0.07111524 0
-1.2413046 -0.63533193 0.10100728 0
-1.2372534 -0.63648617 0.13097912 0
-1.2264324 -0.6395694 0.16045916 0
-1.242491 -0.63499385 0.19143435 0
-1.2414041 -0.63530356 0.2216242 0
-1.2392473 -0.63591808 0.25176281 0
-1.2434362 -0.63472456 0.28288889 0
-1.2514645 -0.63243711 0.31507921 0
-1.2358239 -0.63689351 0.34327009 0
-0.87320817 -0.76389742 -0.090924673 0
-0.99072528 -0.73359734 -0.091926016 0
-1.1208014 -0.70005918 -0.089424573 0
-1.3192852 -0.64888304 -0.090639926 0
-1.5962118 -0.57748163 -0.091802947 0
-1.9888604 -0.47624311 -0.090835758 0
-1.2550998 -0.66543227 0.01028713 0
-1.2568157 -0.66498989 0.040499367 0
-1.2457184 -0.66785115 0.071036257 0
-1.2432226 -0.66849464 0.10100708 0
-1.2374946 -0.66997153 0.13078015 0
-1.2406088 -0.66916859 0.16073561 0
-1.2418476 -0.66884917 0.19077055 0
-1.2484664 -0.66714263 0.22148205 0
-1.2435796 -0.66840261 0.25125697 0
-1.2341799 -0.6708262 0.2803036 0
-1.249487 -0.66687948 0.31328243 0
-1.2342776 -0.67080098 0.34131584 0
-0.88213873 -0.78521174 -0.091693036 0
-0.99920779 -0.75815797 -0.092379682 0
-1.1293825 -0.72807562 -0.089701302 0
-1.319765 -0.68407971 -0.089530908 0
-1.6076192 -0.61755878 -0.091985933 0
-2.5246961 -0.40562943 -0.14098954 0
-1.2354922 -0.70355445 0.012251632 0
-1.2434754 -0.70170963 0.041508626 0
-1.2458392 -0.70116335 0.071217433 0
-1.2516319 -0.69982475 0.1010071 0
-1.2350872 -0.70364809 0.13053925 0
-1.2244679 -0.70610213 0.15959592 0
-1.23493 -0.70368439 0.18972161 0
-1.2399669 -0.70252043 0.21992627 0
-1.2351369 -0.70363659 0.24931961 0
-1.2335539 -0.70400238 0.27911052 0
-1.2333994 -0.70403808 0.30926225 0
-1.2324022 -0.70426857 0.33947527 0
-0.88113362 -0.80876052 -0.090418749 0
-1.0088602 -0.78262001 -0.093175448 0
-1.1365733 -0.7564823 -0.089862339 0
-1.3273404 -0.71744001 -0.089573242 0
-1.6015933 -0.66131151 -0.090209253 0
-1.2411314 -0.73508346 -0.01737134 0
-1.244596 -0.73437446 0.01208836 0
-1.242763 -0.73474956 0.041868452 0
-1.2368081 -0.73596829 0.071594872 0
-1.2370408 -0.73592067 0.10100647 0
-1.2360684 -0.73611969 0.13040049 0
-1.2398112 -0.73535371 0.16000454 0
-1.2371005 -0.73590845 0.18939008 0
-1.2424777 -0.73480797 0.21951351 0
-1.2365011 -0.73603112 0.24866919 0
-1.2368569 -0.73595834 0.27860796 0
-1.2392464 -0.73546928 0.30910158 0
-1.2412609 -0.735057 0.33987141 0
-0.88458967 -0.83122045 -0.09024211 0
-0.99831438 -0.81092077 -0.090221547 0
-1.1458999 -0.78457695 -0.0904992 0
-1.3383508 -0.75022477 -0.090226226 0
-1.6150758 -0.70082974 -0.090888031 0
-1.2618439 -0.76388109 -0.018764576 0
-1.2404197 -0.76770526 0.012813525 0
-1.2444679 -0.76698273 0.042072825 0
-1.2328602 -0.76905465 0.071829766 0
-1.239655 -0.76784182 0.10100637 0
-1.2389886 -0.76796073 0.13032773 0
-1.2368163 -0.76834852 0.15957807 0
-1.2419586 -0.7674306 0.18930899 0
-1.2473172 -0.76647413 0.21940103 0
-1.2468494 -0.76655763 0.24918614 0
-1.247128 -0.76650786 0.27921826 0
-1.2416621 -0.76748353 0.30850142 0
-0.89022481 -0.85332018 -0.090656824 0
-1.0065881 -0.83556634 -0.091001086 0
-1.1563901 -0.81271076 -0.0914452 0
-1.3434262 -0.7841742 -0.09015087 0
-1.2501075 -0.79841202 -0.046939734 0
-1.2484593 -0.7986635 -0.017001746 0
-1.2268727 -0.80195701 0.014138976 0
-1.2392032 -0.80007577 0.042566232 0
-1.2444131 -0.79928088 0.071679503 0
