# .PCD v0.7 - Point Cloud Data file format
VERSION 0.7
FIELDS x y z intensity
SIZE 4 4 4 4
TYPE F F F F
COUNT 1 1 1 1
WIDTH 1315
HEIGHT 1
VIEWPOINT 0 0 0 1 0 0 0
POINTS 1315
DATA ascii
0.88166577 -0.4882063 -0.089878954 0
1.0166111 -0.41142663 -0.091078006 0
1.1779765 -0.31961474 -0.089338772 0
1.2136625 -0.29931054 -0.062095616 0
1.2181828 -0.29673854 -0.029747 0
3.0064144 0.72070962 -0.14076643 0
4.5190663 1.5813615 -0.14103061 0
9.0395441 4.1533723 -0.14081493 0
0.76924533 -0.52612847 -0.089715756 0
0.88159633 -0.45839599 -0.092705913 0
1.001016 -0.38640204 -0.090945266 0
1.1637642 -0.28828683 -0.089840762 0
1.1457096 -0.2991713 -0.055250604 0
1.1944975 -0.26975885 -0.029112225 0
2.9705586 0.80096668 -0.14143956 0
4.4498124 1.6927574 -0.14086996 0
8.9003706 4.3758435 -0.14063734 0
0.77597183 -0.49499199 -0.094419532 0
0.86125129 -0.44060001 -0.091215901 0
0.99719465 -0.35389414 -0.093227677 0
1.1478097 -0.25783053 -0.090191253 0
1.1426861 -0.26109836 -0.057295758 0
1.1823401 -0.23580667 -0.029818242 0
2.9079525 0.86480445 -0.14007218 0
4.3854294 1.8071523 -0.1411297 0
8.7653084 4.6006775 -0.14072388 0
0.75013012 -0.48443916 -0.091055728 0
0.84916371 -0.4177008 -0.091677062 0
0.96216512 -0.34154961 -0.089525409 0
1.1218981 -0.23390624 -0.088989548 0
1.1440104 -0.21900478 -0.060123015 0
1.16794 -0.20287874 -0.030379569 0
2.8650558 0.94080096 -0.1404776 0
4.3038692 1.9104116 -0.14059034 0
8.6316719 4.826901 -0.14100972 0
0.73946029 -0.46405742 -0.091657378 0
0.83249527 -0.39788797 -0.091220193 0
0.94704372 -0.31641743 -0.089833535 0
1.1091231 -0.20114145 -0.090134822 0
1.1522775 -0.17044863 -0.064148225 0
1.1436937 -0.1765537 -0.029917648 0
2.8132889 1.010916 -0.14029258 0
4.2383122 2.0244381 -0.14110307 0
8.4758253 5.0382934 -0.14082852 0
0.72652936 -0.44517466 -0.091805212 0
0.82128358 -0.37411538 -0.092155971 0
0.93535691 -0.28856799 -0.090982236 0
1.1002952 -0.16487542 -0.092139252 0
1.1076193 -0.15938279 -0.060695965 0
1.0964909 -0.16772833 -0.026845356 0
1.0930351 -0.17032 0.0055417884 0
1.1054465 -0.16101232 0.036699567 0
1.0932621 -0.17014977 0.069226198 0
1.1023784 -0.16331318 0.1010097 0
1.1009853 -0.16435787 0.1330176 0
1.1056645 -0.16084877 0.16533293 0
1.0991732 -0.16571686 0.19701414 0
0.70280087 -0.43476006 -0.089158766 0
0.80362868 -0.35509327 -0.091706552 0
0.92057729 -0.26268902 -0.091652073 0
1.0512503 -0.15944073 -0.087143205 0
1.0927523 -0.12664887 -0.061652962 0
1.0986092 -0.12202129 -0.029604753 0
1.0952798 -0.12465188 0.00346973 0
1.0997106 -0.12115094 0.03577907 0
1.0990276 -0.12169066 0.068432614 0
1.0989077 -0.12178531 0.10101034 0
1.1041871 -0.11761388 0.13374139 0
1.0966756 -0.12354895 0.16606157 0
1.0928317 -0.12658617 0.19833279 0
0.68797433 -0.41773775 -0.088989608 0
0.78342873 -0.3383238 -0.090740465 0
0.89454228 -0.24588212 -0.09006799 0
1.0283116 -0.13459179 -0.086838566 0
1.1033578 -0.072156578 -0.066627197 0
1.1010395 -0.074085325 -0.032599185 0
1.1007248 -0.074347168 0.00095895887 0
1.1051695 -0.070649356 0.034100804 0
1.1045016 -0.07120499 0.067594409 0
1.1036562 -0.071908385 0.10101134 0
1.0934212 -0.080423445 0.13409245 0
1.1059364 -0.070011348 0.16796869 0
1.1022547 -0.073074311 0.20120317 0
0.66824865 -0.40503934 -0.087552644 0
0.76985985 -0.31607047 -0.091517754 0
0.87921345 -0.22032252 -0.090879016 0
0.99695194 -0.11723289 -0.085070081 0
1.0977925 -0.028938737 -0.069411851 0
1.1004949 -0.02657273 -0.035439882 0
1.0980979 -0.02867135 -0.0009745413 0
1.0969057 -0.029715266 0.033156168 0
1.0966792 -0.02991363 0.067109436 0
1.1012205 -0.025937345 0.10101215 0
1.1005263 -0.026545133 0.13503374 0
1.1067713 -0.021077123 0.16947919 0
1.0938015 -0.032433238 0.20259947 0
1.0948422 -0.031522002 0.23676313 0
1.0899575 -0.035799053 0.37367955 0
0.66219914 -0.380187 -0.090126 0
0.75029671 -0.29903355 -0.090920471 0
0.85645211 -0.20124558 -0.090190791 0
0.9580577 -0.10764882 -0.081903167 0
1.0686011 -0.0058188108 -0.068679057 0
1.1098924 0.032217775 -0.03975955 0
1.0980872 0.021343146 -0.0033104995 0
1.0977681 0.021049175 0.031547021 0
1.093941 0.01752368 0.066419773 0
1.1056342 0.028295193 0.10101327 0
1.0955367 0.01899365 0.13565648 0
1.1056422 0.028302584 0.17097813 0
1.1022357 0.025164519 0.20573151 0
1.103686 0.026500497 0.24099906 0
1.0398121 -0.032338586 0.36708555 0
0.64245546 -0.36773303 -0.088893302 0
0.73520297 -0.27786598 -0.091592051 0
0.83514029 -0.18103227 -0.089926191 0
0.83868325 -0.1775994 -0.062956043 0
0.84175926 -0.17461887 -0.035856862 0
0.84364694 -0.17278984 -0.0085514244 0
0.83967835 -0.17663518 0.019327791 0
0.83860242 -0.17767772 0.046672039 0
0.83821219 -0.17805579 0.073865205 0
0.84003145 -0.17629305 0.10100375 0
0.83654499 -0.1796712 0.12808809 0
0.83735079 -0.17889044 0.15525426 0
0.84458721 -0.17187873 0.18315825 0
1.1025913 0.078112632 0.24423546 0
1.0067791 -0.014724042 0.29787207 0
1.0141309 -0.0076004532 0.33291119 0
0.98957318 -0.031395461 0.36032662 0
0.62614548 -0.35217705 -0.088764854 0
0.71925777 -0.2572858 -0.092194058 0
0.81627005 -0.15842012 -0.090345867 0
0.84828049 -0.12579814 -0.069044612 0
0.84613901 -0.1279805 -0.040062401 0
0.84408122 -0.13007757 -0.011390572 0
0.83839101 -0.13587657 0.017383004 0
0.84169149 -0.13251296 0.045087814 0
0.84099233 -0.13322547 0.073084585 0
0.83575082 -0.13856718 0.10100442 0
0.84239084 -0.13180032 0.12897126 0
0.8369624 -0.13733247 0.15660693 0
0.83852893 -0.13573596 0.18464018 0
0.84659564 -0.12751517 0.213736 0
1.1023983 0.13317457 0.28485623 0
0.94902825 -0.023125496 0.29127961 0
0.9488346 -0.023322847 0.32347345 0
0.96383584 -0.0080350302 0.35998929 0
0.62111217 -0.3245571 -0.092267521 0
0.69434738 -0.2460551 -0.090478711 0
0.79636323 -0.13670281 -0.090663038 0
0.84351623 -0.086158782 -0.072607122 0
0.84070677 -0.089170307 -0.042901088 0
0.84179246 -0.088006526 -0.01408047 0
0.84345269 -0.08622691 0.014630208 0
0.84397548 -0.085666507 0.043438364 0
0.84637469 -0.083094746 0.072155826 0
0.84270376 -0.087029666 0.10100562 0
0.84160143 -0.088211268 0.12969267 0
0.83742106 -0.092692286 0.15812528 0
0.83864772 -0.091377348 0.18688862 0
0.83669299 -0.093472689 0.21539406 0
1.0960498 0.18453577 0.28868273 0
0.935763 0.01272193 0.29363203 0
0.92958152 0.0060959789 0.32478002 0
0.92806655 0.0044719907 0.35703266 0
0.60012722 -0.31365022 -0.090981044 0
0.67314994 -0.23130527 -0.089847334 0
0.77086842 -0.12111184 -0.089739107 0
0.8495689 -0.032364275 -0.078772523 0
0.84116352 -0.041842725 -0.047029186 0
0.83824652 -0.045132127 -0.01681844 0
0.83859551 -0.044738557 0.012712928 0
0.83914137 -0.04412302 0.042158969 0
0.83851504 -0.044829335 0.071620591 0
0.83652699 -0.047071185 0.10100635 0
0.84082508 -0.042224374 0.13047346 0
0.83917874 -0.044080939 0.15985674 0
0.83424532 -0.049644079 0.18884157 0
0.84545231 -0.037006464 0.21984626 0
1.1025488 0.25291148 0.29510915 0
1.0979193 0.24769107 0.33341327 0
0.57657814 -0.30623755 -0.088899203 0
0.65628511 -0.21165124 -0.090570427 0
0.72986412 -0.12433681 -0.084930427 0
0.84571165 0.01313654 -0.08325576 0
0.83902025 0.005196068 -0.05102459 0
0.85038728 0.018685017 -0.022066226 0
0.83755922 0.0034622883 0.010210941 0
0.84082168 0.0073337886 0.040295422 0
0.84238517 0.0091891028 0.070611529 0
0.83690095 0.0026811098 0.10100743 0
0.8371709 0.0030014848 0.13121526 0
0.84857196 0.016530786 0.16228056 0
0.82990646 -0.0056190756 0.19097343 0
0.84288144 0.0097779967 0.22299506 0
0.84484184 0.012104426 0.25409704 0
1.0985159 0.31313291 0.34042898 0
0.56996262 -0.27843675 -0.092573516 0
0.64005232 -0.19087145 -0.091654457 0
0.72850192 -0.080368549 -0.090372913 0
0.84764558 0.068481594 -0.089439191 0
0.84273964 0.062352452 -0.056463007 0
0.84461582 0.064696342 -0.025043329 0
0.84753639 0.0683451 0.0062627438 0
0.84715712 0.067871243 0.037930164 0
0.83910781 0.057814989 0.069786169 0
0.83812046 0.056581531 0.10100864 0
0.83353698 0.050855193 0.13202347 0
0.84107906 0.060277734 0.16363475 0
0.8407141 0.059821758 0.19499192 0
0.83951432 0.058322821 0.22629941 0
0.84142256 0.060706887 0.25823531 0
1.1074902 0.39311364 0.34992 0
1.0938359 0.37605503 0.38850084 0
0.54044521 -0.27931109 -0.088567965 0
0.61702412 -0.17852786 -0.090820171 0
0.70163614 -0.067172557 -0.089367487 0
0.73296076 -0.02594718 -0.069061346 0
0.72397894 -0.037767913 -0.038698558 0
0.72299778 -0.039059188 -0.01042421 0
0.73440915 -0.024041023 0.016220184 0
0.73701382 -0.0206131 0.044332426 0
0.72981852 -0.03008261 0.07296063 0
0.7250855 -0.036311593 0.10100456 0
0.7248044 -0.036681559 0.12885582 0
0.72500539 -0.036417034 0.15675281 0
0.73131168 -0.028117564 0.18543194 0
0.73309344 -0.025772598 0.21399228 0
0.73204809 -0.027148332 0.24226809 0
0.72901583 -0.031139042 0.27015582 0
0.73132992 -0.028093483 0.29944551 0
0.73314905 -0.025699344 0.32898489 0
0.52502716 -0.26222524 -0.089537568 0
0.59115374 -0.17048171 -0.089139365 0
0.67781299 -0.050251272 -0.089273579 0
0.73011929 0.022318039 -0.074276291 0
0.95995867 0.34119549 -0.090710692 0
0.85705388 0.19842616 -0.035687882 0
0.83388096 0.16627625 0.0013875535 0
0.83651072 0.16992477 0.034446005 0
0.84012145 0.1749343 0.067603037 0
0.8404336 0.17536727 0.10101138 0
0.83843344 0.17259231 0.13435246 0
0.84223026 0.17785993 0.1680325 0
0.83848208 0.17265978 0.20118554 0
0.83763701 0.17148736 0.23461153 0
0.84008116 0.17487839 0.26877353 0
0.83919364 0.17364708 0.30251607 0
1.1011543 0.53708917 0.41031629 0
0.50832701 -0.24658278 -0.090220161 0
0.57487857 -0.14915851 -0.090666063 0
0.65936613 -0.025477853 -0.090864904 0
0.76485598 0.12894788 -0.089347817 0
0.92627215 0.3652437 -0.090749703 0
1.1489367 0.69120044 -0.088992082 0
0.85141742 0.2556645 -0.0044323262 0
0.83644605 0.23374799 0.032015417 0
0.83536494 0.23216537 0.066577278 0
0.84068495 0.23995331 0.10101289 0
0.83862078 0.23693159 0.13558255 0
0.83381146 0.22989121 0.16979243 0
0.83994132 0.23886469 0.20503612 0
0.84136492 0.24094871 0.24012235 0
0.83721298 0.2348707 0.2743234 0
0.83288497 0.22853497 0.30832365 0
1.0986654 0.61760861 0.42091817 0
1.0961984 0.6139974 0.46679926 0
0.49225122 -0.22965005 -0.091325916 0
0.55383849 -0.13442001 -0.090784006 0
0.63243645 -0.012887087 -0.090137921 0
0.74218321 0.15681008 -0.090844832 0
0.88769031 0.38180199 -0.089864962 0
1.1075811 0.72181052 -0.089234509 0
1.4764403 1.2921629 -0.088972859 0
0.84553605 0.3166205 0.028567912 0
0.83769357 0.30449393 0.065146729 0
0.83985835 0.30784133 0.10101449 0
0.84036255 0.30862084 0.13699664 0
0.83921021 0.30683902 0.1729189 0
0.83573449 0.30146471 0.20852098 0
0.84262842 0.31212452 0.24572417 0
0.84310055 0.31285456 0.28229907 0
0.84444934 0.31494024 0.31934121 0
0.83912981 0.3067148 0.35472372 0
1.0982972 0.70745522 0.48168328 0
0.47523332 -0.21372697 -0.092265092 0
0.53495169 -0.11606833 -0.09181603 0
0.60895717 0.0049543115 -0.090565555 0
0.71123749 0.17221525 -0.09036196 0
0.84904116 0.39756849 -0.089019753 0
1.070586 0.75986511 -0.090402819 0
1.4271818 1.3430133 -0.09014871 0
0.84972805 0.39869168 0.025229493 0
0.84935188 0.39807656 0.063160449 0
0.84573221 0.39215723 0.10101663 0
0.8384819 0.38030067 0.13838761 0
0.83612978 0.37645414 0.17558943 0
0.8371371 0.3781015 0.21311246 0
0.84019804 0.3831071 0.25121564 0
0.84227836 0.38650909 0.28953883 0
0.84091198 0.38427463 0.32732853 0
0.84145623 0.38516465 0.36584616 0
1.0946611 0.79923552 0.49595737 0
0.45175758 -0.2085143 -0.090668119 0
0.50714296 -0.1125842 -0.089704074 0
0.58104032 0.015409503 -0.089698605 0
0.68308985 0.19216409 -0.090751089 0
0.81591517 0.42222384 -0.089518987 0
1.029735 0.7925697 -0.091079049 0
1.3654122 1.3739786 -0.089803465 0
1.3710439 1.383733 -0.026595643 0
0.85311168 0.4866499 0.061345309 0
0.84485155 0.472343 0.10101858 0
0.83666754 0.45816794 0.1399263 0
0.84068334 0.46512344 0.1792511 0
0.8421759 0.46770874 0.2186826 0
0.8375361 0.45967236 0.25723645 0
0.83855224 0.46143237 0.29684806 0
0.84052676 0.46485224 0.33704025 0
0.83888137 0.46200243 0.37649059 0
0.84324825 0.46956614 0.41835579 0
0.43429527 -0.19301382 -0.091726951 0
0.48906302 -0.092371553 -0.091359623 0
0.55152136 0.022403035 -0.088328533 0
0.65179873 0.20667437 -0.09037926 0
0.78182673 0.44561628 -0.089955427 0
0.98322403 0.81570762 -0.090839796 0
1.292171 1.3834338 -0.08787591 0
1.2905461 1.3804479 -0.024629405 0
1.2939675 1.3867352 0.038076591 0
0.8500374 0.57096142 0.10102111 0
0.84130925 0.55492252 0.14194642 0
0.84058815 0.55359739 0.18284638 0
0.83723772 0.54744059 0.22338001 0
0.83753783 0.54799193 0.26443231 0
0.84055841 0.55354279 0.30635834 0
0.84418285 0.56020302 0.34898585 0
0.84095955 0.55427986 0.38989216 0
0.84059036 0.55360144 0.43192261 0
0.41213787 -0.18610159 -0.090827323 0
0.46545091 -0.081956774 -0.091017969 0
0.53282553 0.049656663 -0.090855218 0
0.61841279 0.21684781 -0.089453004 0
0.74543959 0.46498922 -0.08997225 0
0.9391759 0.843445 -0.091209836 0
1.2428961 1.4367492 -0.089563869 0
1.2406795 1.4324193 -0.025685271 0
1.24635 1.4434965 0.037426356 0
1.248878 1.4484348 0.10104858 0
0.8537432 0.67655581 0.14458898 0
0.83764392 0.64510661 0.18655463 0
0.83989793 0.64950973 0.22978279 0
0.83818156 0.64615673 0.27256885 0
0.83917499 0.64809746 0.31606102 0
0.83883077 0.647425 0.35947967 0
0.83510476 0.64014643 0.40192801 0
0.8388657 0.64749318 0.44741601 0
0.38957039 -0.18050233 -0.089761592 0
0.43972751 -0.076109678 -0.089851283 0
0.50536287 0.060498033 -0.090445496 0
0.59111184 0.2389684 -0.090532877 0
0.71441197 0.49559441 -0.09156511 0
0.88858533 0.85810369 -0.090336896 0
1.1845585 1.4741161 -0.090091608 0
1.7879045 2.7298677 -0.091121979 0
4.506217 8.3875256 -0.14090344 0
0.8516497 0.78122908 0.19252916 0
0.84079421 0.75863534 0.23665097 0
0.8381741 0.75318211 0.28152388 0
0.8439346 0.76517147 0.32857284 0
0.83838767 0.75362664 0.37282875 0
0.84191781 0.76097399 0.42022303 0
0.84025651 0.75751632 0.46610388 0
0.37304059 -0.16206077 -0.091834642 0
0.41986427 -0.05795553 -0.09137433 0
0.47566682 0.066112787 -0.089224167 0
0.55892789 0.25123075 -0.090188242 0
0.67115086 0.50074106 -0.089978404 0
0.8461135 0.88974327 -0.091343217 0
1.1212339 1.5014307 -0.08995638 0
1.6936456 2.7740989 -0.091138773 0
4.2627368 8.4860735 -0.14059399 0
1.0767306 1.4024842 0.22321306 0
0.84623057 0.89000362 0.24514636 0
0.83754694 0.87069684 0.29145214 0
0.84230065 0.88126606 0.34080246 0
0.83994842 0.87603611 0.38852763 0
0.84151185 0.87951225 0.43786782 0
0.83985126 0.87582022 0.48628446 0
0.34959909 -0.15877584 -0.090488501 0
0.39377972 -0.053525891 -0.090180792 0
0.44926491 0.078654438 -0.089384712 0
0.52691853 0.26364592 -0.089995049 0
0.63480383 0.52065712 -0.090419672 0
0.79470998 0.90159589 -0.090445019 0
1.0615557 1.537293 -0.090592481 0
1.5953339 2.8088934 -0.090799741 0
4.0249023 8.5967674 -0.14074987 0
0.99819934 1.3863611 0.2210644 0
0.84990919 1.0330949 0.2544314 0
0.83804166 1.0048233 0.30296013 0
0.83623236 1.0005131 0.35330835 0
0.83996487 1.0094049 0.40572622 0
0.83948684 1.0082662 0.45715028 0
0.84018862 1.009938 0.50948602 0
0.32850742 -0.15031055 -0.090473332 0
0.36955041 -0.045178261 -0.089924954 0
0.42185497 0.088800818 -0.089239247 0
0.49342012 0.27211609 -0.089331098 0
0.59940052 0.54358667 -0.091350384 0
0.74976152 0.92873889 -0.09121839 0
1.0007304 1.5716 -0.091219284 0
1.5006387 2.8521233 -0.091010235 0
3.7811055 8.6935787 -0.14070831 0
0.92455918 1.3764861 0.2193491 0
0.8504895 1.1867552 0.26441231 0
0.84370989 1.1693892 0.31740609 0
0.84340709 1.1686137 0.37184346 0
0.83659726 1.15117 0.42402351 0
0.83931613 1.1581345 0.47997943 0
0.84203351 1.1650951 0.53671402 0
0.30787677 -0.14053831 -0.09087462 0
0.3460345 -0.035011258 -0.090158902 0
0.39802149 0.10876134 -0.090931781 0
0.43710563 0.21685043 -0.079275437 0
0.43503749 0.21113089 -0.048217211 0
0.43892854 0.22189179 -0.01924569 0
0.93622583 1.5971918 -0.091307171 0
1.4044384 2.8920565 -0.091174491 0
3.5369699 8.7896776 -0.1408024 0
0.85790497 1.3805916 0.21843491 0
0.85442251 1.3709607 0.27657411 0
0.83843571 1.3267484 0.33099088 0
0.83817178 1.3260183 0.38885781 0
0.83908087 1.3285327 0.44748938 0
0.83969069 1.3302193 0.50648624 0
0.84305137 1.3395133 0.56754434 0
0.28482667 -0.13767794 -0.08984106 0
0.32577953 -0.014811125 -0.092501201 0
0.3698597 0.11743835 -0.090760045 0
0.40101117 0.21089903 -0.076820619 0
0.40248328 0.21531561 -0.047430623 0
0.40500516 0.2228817 -0.018293833 0
0.8667174 1.6081114 -0.09043362 0
1.3044386 2.9213629 -0.090935566 0
3.2895586 8.8771238 -0.1408353 0
0.79456061 1.3916266 0.21795185 0
0.84979981 1.5573552 0.28878817 0
0.84119457 1.5315378 0.34914464 0
0.84098959 1.5309229 0.41160068 0
0.83750111 1.5204566 0.47290745 0
0.83793557 1.5217602 0.53614128 0
0.84226733 1.5347564 0.60224736 0
0.26211944 -0.13448533 -0.089019112 0
0.29778919 -0.01772752 -0.090373941 0
0.33959168 0.11910465 -0.089507498 0
0.38370165 0.26348987 -0.083121635 0
0.38082832 0.25408462 -0.050977279 0
0.38302478 0.26127437 -0.021083644 0
0.72360593 1.3760993 -0.071937464 0
0.72691762 1.3869393 -0.014701484 0
0.72420913 1.3780737 0.043416783 0
0.72816616 1.391026 0.10104145 0
0.72215784 1.3713591 0.15850179 0
0.72508186 1.3809302 0.21649159 0
0.84383821 1.7696557 0.30281237 0
0.83550262 1.7423708 0.36774245 0
0.83596778 1.7438934 0.43514651 0
0.83598518 1.7439504 0.5027774 0
0.83479339 1.7400494 0.57017475 0
0.24103616 -0.12612811 -0.089469276 0
0.27321625 -0.010421719 -0.090398587 0
0.30952331 0.12012365 -0.088284053 0
0.3669982 0.32677975 -0.091003217 0
0.43940985 0.58714241 -0.090265624 0
0.55003512 0.98490542 -0.090295903 0
0.66157854 1.3859696 -0.071385317 0
0.66134983 1.3851473 -0.013766384 0
0.6660409 1.4020147 0.043261204 0
0.6622535 1.3883967 0.10104086 0
0.65961307 1.3789029 0.15826227 0
0.65786475 1.3726165 0.21524194 0
0.81199151 1.9267931 0.31274343 0
0.81386417 1.9335265 0.38431671 0
0.81043476 1.9211957 0.45421419 0
0.81398684 1.9339676 0.52755892 0
0.81177682 1.9260211 0.59846902 0
0.2212365 -0.11216155 -0.091262989 0
0.24957173 0.0006752942 -0.0912802 0
0.28096163 0.12567654 -0.08796566 0
0.33097991 0.32486001 -0.089447595 0
0.39408419 0.57615453 -0.087669037 0
0.50031024 0.99916905 -0.09039586 0
0.59507227 1.3765314 -0.069558106 0
0.59695601 1.384033 -0.01294939 0
0.59506017 1.3764832 0.044257265 0
0.59501731 1.3763127 0.10104003 0
0.59739482 1.3857803 0.15804631 0
0.59448355 1.3741872 0.21455702 0
0.76977897 2.0722504 0.32182741 0
0.76921356 2.0699987 0.39557323 0
0.77019507 2.0739076 0.47027478 0
0.7674318 2.0629034 0.5434106 0
0.20122041 -0.097149163 -0.093383588 0
0.22425388 0.0054703089 -0.091055863 0
0.25709975 0.15180638 -0.091236852 0
0.29779351 0.33310655 -0.089496367 0
0.35416946 0.58427459 -0.087513305 0
0.44711384 0.99836344 -0.089174114 0
0.54976344 1.4556911 -0.074209772 0
0.55094773 1.4609675 -0.01593875 0
0.55263352 1.468478 0.042404357 0
0.55255973 1.4681494 0.1010423 0
0.54838097 1.449532 0.15922776 0
0.55363482 1.472939 0.21859513 0
0.71297562 2.1828394 0.3284364 0
0.71470916 2.1905627 0.40535161 0
0.71447825 2.1895339 0.48192251 0
0.71310806 2.1834297 0.5581308 0
0.17559338 -0.10779586 -0.090043239 0
0.199605 0.013417516 -0.091560908 0
0.22390448 0.13608387 -0.087580763 0
0.2650722 0.34390309 -0.090030529 0
0.32026318 0.62251335 -0.091067158 0
0.40040374 1.0270715 -0.09089493 0
0.41545066 1.10303 -0.048145015 0
0.41529173 1.1022277 0.0017083234 0
0.41570112 1.1042943 0.051347692 0
0.41568428 1.1042094 0.10103133 0
0.41425988 1.097019 0.15054215 0
0.4147917 1.0997036 0.20023453 0
0.41456789 1.0985737 0.24989034 0
0.41617975 1.1067104 0.30053675 0
0.41663298 1.1089985 0.35109374 0
0.40787452 1.064785 0.39537075 0
0.29558471 0.49793366 0.35023656 0
0.27296084 0.38372579 0.36468771 0
0.15549302 -0.090901345 -0.092797376 0
0.17462505 0.020334516 -0.091986068 0
0.19637094 0.14676788 -0.088484205 0
0.23234887 0.35594788 -0.090858422 0
0.27893609 0.62681168 -0.090682395 0
0.34822342 1.0296566 -0.090246074 0
0.36797771 1.1445105 -0.0503929 0
0.88157451 4.1306252 -0.14088544 0
1.7639463 9.2608423 -0.14084913 0
0.58123583 2.3844192 0.26053444 0
0.5819242 2.3884213 0.34076831 0
0.58106071 2.3834009 0.42059827 0
0.26207769 0.52879494 0.28108859 0
0.27157986 0.58404177 0.32541794 0
0.27120212 0.58184546 0.363074 0
0.23530316 0.37312451 0.36143261 0
0.13184549 -0.093660504 -0.091428585 0
0.14902166 0.023886476 -0.091889359 0
0.16718809 0.14821056 -0.087965034 0
0.1988353 0.36479166 -0.091346167 0
0.23888624 0.63888472 -0.091340803 0
0.29672655 1.0347214 -0.08995799 0
0.3963896 1.7167764 -0.090218298 0
0.75172663 4.1485648 -0.14076082 0
1.5051124 9.3044443 -0.14090513 0
0.50768071 2.4784095 0.26432297 0
0.50464427 2.4576292 0.34470156 0
0.50549459 2.4634488 0.4268738 0
0.22227857 0.52522832 0.2799457 0
0.27688882 0.89895982 0.36926439 0
0.2016416 0.38399687 0.36245963 0
0.10846356 -0.096809357 -0.090108521 0
0.12309077 0.024640236 -0.09138491 0
0.13996334 0.16473308 -0.090065874 0
0.16422038 0.36613896 -0.090891249 0
0.19743367 0.64190871 -0.091051154 0
0.24683505 1.052088 -0.090949722 0
0.32902142 1.7344809 -0.090823106 0
0.62223339 4.1690178 -0.14090835 0
1.2442741 9.3338175 -0.140781 0
0.42568603 2.5370862 0.26652935 0
0.42512339 2.5324147 0.34915364 0
0.42481849 2.5298831 0.43202937 0
0.42386323 2.5219517 0.51451135 0
0.22941743 0.90746969 0.36956877 0
0.16651659 0.38520446 0.36181092 0
0.086635329 -0.086751074 -0.091737725 0
0.097822197 0.031115804 -0.0920882 0
0.11203538 0.18086854 -0.092211403 0
0.13099627 0.38064399 -0.09241835 0
0.15631483 0.64740521 -0.091175474 0
0.19470686 1.0519106 -0.090412416 0
0.25856546 1.7247369 -0.089618511 0
0.4914633 4.1785927 -0.14069988 0
0.98279834 9.3553905 -0.14062898 0
0.3418012 2.6017244 0.26910663 0
0.34056622 2.5887125 0.35243696 0
0.34060034 2.589072 0.43668419 0
0.33902106 2.5724323 0.5193187 0
0.34071952 2.5903275 0.60650116 0
0.1743634 0.83756834 0.40267432 0
0.13022964 0.37256661 0.35871148 0
0.063657105 -0.087451845 -0.091189109 0
0.071154289 0.020412836 -0.089667387 0
0.080791995 0.15907386 -0.088220499 0
0.095211297 0.36652949 -0.090029277 0
0.11513585 0.65319103 -0.091455184 0
0.14242446 1.0458021 -0.089444302 0
0.19181025 1.7563329 -0.091437779 0
0.36069122 4.1860833 -0.14054871 0
0.72245812 9.3909531 -0.14095719 0
0.25285217 2.6345649 0.2702927 0
0.25266218 2.6318312 0.35494009 0
0.13317595 0.91274053 0.27904493 0
0.13407929 0.92573708 0.32543728 0
0.13352163 0.9177137 0.36972871 0
0.12439106 0.78634924 0.39360791 0
0.096195534 0.38069001 0.35971165 0
0.040307324 -0.099181205 -0.088418044 0
0.046050914 0.030796681 -0.091351874 0
0.051528022 0.15474418 -0.087237038 0
0.060838237 0.36543515 -0.089601584 0
0.073793419 0.65861219 -0.091813587 0
0.090518735 1.0371077 -0.088359065 0
0.12254442 1.7618515 -0.091548197 0
0.23035355 4.2015824 -0.14092478 0
0.45969012 9.39149 -0.14062294 0
0.16356425 2.690134 0.27264273 0
0.16325971 2.6832426 0.35817668 0
0.086589463 0.94818789 0.28210363 0
0.086311869 0.94190603 0.32700807 0
0.086715601 0.95104247 0.37403387 0
0.076588213 0.72185856 0.38257524 0
0.061294403 0.3757582 0.35841069 0
0.017967764 -0.091533929 -0.08989311 0
0.020358769 0.034781609 -0.091949485 0
0.023071028 0.17806879 -0.090921365 0
0.026897304 0.38020888 -0.091526486 0
0.032009777 0.65029818 -0.090688296 0
0.039604638 1.0515306 -0.089554854 0
0.052872714 1.752476 -0.090739407 0
0.099219248 4.2009392 -0.14070231 0
0.19781466 9.4096832 -0.14085372 0
0.071012609 2.7107975 0.27346942 0
0.070659094 2.6921215 0.35859329 0
0.070761979 2.6975567 0.44537616 0
0.070821673 2.7007105 0.53252411 0
0.032760262 0.689946 0.37710339 0
0.027087949 0.39028063 0.36094245 0
-0.0046596145 -0.096045107 -0.088903792 0
-0.0054660244 0.031810913 -0.091359235 0
-0.0063553811 0.17281821 -0.090027846 0
-0.0076594325 0.37957516 -0.091406755 0
-0.0093594976 0.64911991 -0.090520062 0
-0.011829703 1.0407703 -0.088520117 0
-0.016335323 1.7551351 -0.090894781 0
-0.031743519 4.1981006 -0.14053166 0
-0.064628124 9.4119434 -0.14086778 0
-0.022458199 2.7259154 0.27414665 0
-0.02243856 2.7228014 0.36069888 0
-0.022444172 2.7236912 0.44776228 0
-0.022378195 2.7132308 0.53391939 0
-0.0093467468 0.64709836 0.37001473 0
-0.0076847551 0.38359013 0.35964045 0
-0.027490646 -0.087111443 -0.090894409 0
-0.031333588 0.034688745 -0.091993429 0
-0.035602342 0.16998485 -0.089653187 0
-0.042019159 0.37336269 -0.090625174 0
-0.051018376 0.65858847 -0.091718711 0
-0.063755952 1.0622995 -0.090621196 0
-0.085193694 1.7417583 -0.090050809 0
-0.11892503 2.8108566 -0.076032259 0
-0.11887544 2.8092849 0.01260783 0
-0.11889424 2.8098807 0.10107891 0
-0.11931591 2.8232453 0.18987562 0
-0.11699878 2.7498047 0.27534345 0
-0.1165361 2.7351403 0.36168671 0
-0.11666168 2.7391207 0.44936976 0
-0.11643863 2.7320514 0.53632808 0
-0.050870597 0.65390474 0.37126285 0
-0.042294938 0.38210335 0.35948378 0
-0.050404731 -0.085297436 -0.091494672 0
-0.05701191 0.030953441 -0.09150403 0
-0.065505147 0.18038884 -0.091578536 0
-0.076342933 0.37107602 -0.090517052 0
-0.092504017 0.65542454 -0.091563307 0
-0.11525687 1.0557528 -0.090222873 0
-0.15488556 1.7530057 -0.091051497 0
-0.21451056 2.8020864 -0.075820781 0
-0.21407357 2.7943976 0.012855941 0
-0.21396983 2.7925723 0.10107854 0
-0.21458533 2.8034022 0.18951157 0
-0.21132632 2.7460606 0.27536318 0
-0.2108316 2.7373562 0.36213288 0
-0.21115746 2.7430897 0.45012975 0
-0.078002319 0.40027216 0.26371604 0
-0.076842956 0.37987354 0.29377604 0
-0.076516569 0.37413099 0.32549259 0
-0.076993026 0.38251415 0.35984969 0
-0.073331632 -0.085244209 -0.091843896 0
-0.083103962 0.033651505 -0.092351802 0
-0.093610242 0.16147712 -0.08879789 0
-0.11112568 0.37457982 -0.09134727 0
-0.13371807 0.64945227 -0.09120094 0
-0.16752115 1.0607197 -0.091023691 0
-0.22285751 1.7339737 -0.090053581 0
-0.42405227 4.1818252 -0.14058098 0
-0.85071218 9.3728161 -0.14076565 0
-0.3049503 2.7327621 0.27504736 0
-0.30439711 2.7260313 0.36179629 0
-0.3051466 2.7351503 0.44999865 0
-0.30433887 2.7253227 0.53678942 0
-0.11376166 0.40665081 0.29789189 0
-0.11407665 0.41048327 0.33188355 0
-0.11181129 0.38292137 0.36038113 0
-0.09571106 -0.091186792 -0.091035761 0
-0.10803012 0.023244295 -0.090843834 0
-0.12205041 0.15347829 -0.087930731 0
-0.14567159 0.37289444 -0.091570191 0
-0.17399378 0.63597804 -0.09007787 0
-0.21721157 1.0374262 -0.089297272 0
-0.29117399 1.7244596 -0.089842655 0
-0.55440891 4.1696372 -0.14058951 0
-1.1128143 9.3566418 -0.14096707 0
-0.3984223 2.7206843 0.27489856 0
-0.39808723 2.717572 0.36182642 0
-0.39824763 2.7190619 0.44932428 0
-0.39767334 2.7137272 0.53647077 0
-0.14803353 0.39483431 0.29669318 0
-0.1495408 0.4088352 0.33216473 0
-0.14657901 0.38132337 0.36070037 0
-0.11921398 -0.08735618 -0.092441641 0
-0.13582982 0.037335191 -0.094105162 0
-0.15257341 0.16298512 -0.090081982 0
-0.17968497 0.36644009 -0.091241173 0
-0.21578485 0.63734668 -0.090820767 0
-0.27203754 1.0594871 -0.091953792 0
-0.36061981 1.7242408 -0.09040802 0
-0.68413228 4.1519961 -0.14049622 0
-1.37211 9.3148308 -0.14072278 0
-0.49124256 2.7044814 0.27466604 0
-0.49086395 2.7016401 0.36149588 0
-0.24092549 0.82601124 0.27201471 0
-0.24219792 0.83556002 0.31623873 0
-0.18547349 0.40987924 0.29942283 0
-0.18517098 0.40760902 0.33266506 0
-0.18115263 0.37745395 0.36075544 0
-0.14048889 -0.099753052 -0.09048792 0
-0.15912105 0.017408404 -0.09102542 0
-0.18025789 0.15031973 -0.088680021 0
-0.21422443 0.36390594 -0.091590606 0
-0.25622687 0.62802273 -0.090425842 0
-0.31962523 1.0266802 -0.089565791 0
-0.42701924 1.7019882 -0.089539789 0
-0.81556529 4.1452184 -0.14106874 0
-1.6326805 9.283349 -0.14087446 0
-0.58260596 2.6803386 0.27416822 0
-0.5825901 2.680239 0.3609421 0
-0.27779949 0.76367432 0.26675126 0
-0.27860364 0.76873106 0.30912137 0
-0.27948228 0.77425605 0.35202846 0
-0.21763818 0.38537207 0.36322573 0
-0.16339755 -0.10085025 -0.091083519 0
-0.18213326 0.00041768295 -0.088605992 0
-0.21027879 0.15254644 -0.089877106 0
-0.24798021 0.35632542 -0.091344781 0
-0.29584539 0.61504036 -0.089715309 0
-0.37121287 1.0224073 -0.089988954 0
-0.49558732 1.6946604 -0.089847468 0
-0.94571328 4.1276259 -0.14128862 0
-1.8924682 9.2449074 -0.14101747 0
-0.67125708 2.6441689 0.27320701 0
-0.66891748 2.6315234 0.35860658 0
-0.66703564 2.6213517 0.44392005 0
-0.66774511 2.6251864 0.53078824 0
-0.28906685 0.57840174 0.36308903 0
-0.25183266 0.37714806 0.36279067 0
-0.18676926 -0.10050949 -0.092119984 0
-0.20907897 0.0051051709 -0.090458415 0
-0.23692688 0.13693801 -0.088211633 0
-0.28132573 0.34712318 -0.090986781 0
-0.33817327 0.61624116 -0.090814345 0
-0.41980788 1.0027014 -0.089065976 0
-0.56236428 1.6775675 -0.089582391 0
-0.61846727 1.9431603 -0.038561497 0
-0.61912733 1.946285 0.03121076 0
-0.61750323 1.9385965 0.10105583 0
-0.75361443 2.5829506 0.27115369 0
-0.75412476 2.5853665 0.35659698 0
-0.75286561 2.5794055 0.44163454 0
-0.7523123 2.5767863 0.52715784 0
-0.28591219 0.3688356 0.36250204 0
-0.20593192 -0.11899957 -0.089176945 0
-0.23500718 0.0032974218 -0.09119577 0
-0.26756164 0.14022854 -0.089842089 0
-0.31307161 0.33165351 -0.089842491 0
-0.37403604 0.58808333 -0.088521086 0
-0.47329417 1.0055847 -0.090422042 0
-0.52085662 1.2056427 -0.056753207 0
-0.62017274 1.6233881 -0.024052238 0
-0.6174919 1.612112 0.03880075 0
-0.6210714 1.6271682 0.10104717 0
-0.83561498 2.5295856 0.26956359 0
-0.83181125 2.5135863 0.35288674 0
-0.8342635 2.5239007 0.43824103 0
-0.83460093 2.5253201 0.52339286 0
-0.83385515 2.5221832 0.60841924 0
-0.23136771 -0.11110434 -0.092121683 0
-0.26001331 -0.0028319026 -0.091223188 0
-0.29414991 0.12619498 -0.088669293 0
-0.34813687 0.33025065 -0.090851568 0
-0.41546661 0.58473843 -0.089321293 0
-0.52091753 0.98331362 -0.089488409 0
-0.58258307 1.216392 -0.058533181 0
-0.64681762 1.4591808 -0.01693937 0
-0.64717394 1.4605277 0.042051204 0
-0.6503132 1.472393 0.10104309 0
-0.91482472 2.4721732 0.26786715 0
-0.91275901 2.4643655 0.35092586 0
-0.90872931 2.4491343 0.43316177 0
-0.91288549 2.4648435 0.5187633 0
-0.91173816 2.4605069 0.60267544 0
-0.25605121 -0.10833487 -0.09409485 0
-0.28405815 -0.01234081 -0.090711109 0
-0.32442567 0.12601927 -0.089974843 0
-0.34511909 0.19694617 -0.072687604 0
-0.45813674 0.58431548 -0.09061002 0
-0.57389462 0.9810769 -0.090612315 0
-0.71248353 1.4560919 -0.077112474 0
-0.71319401 1.4585271 -0.017738095 0
-0.71273023 1.4569373 0.041723199 0
-0.71405882 1.4614911 0.10104328 0
-0.98604548 2.3937285 0.2652337 0
-0.98326129 2.3841856 0.34684247 0
-0.9804132 2.3744235 0.42823264 0
-0.9791069 2.3699465 0.51014674 0
-0.98138213 2.3777447 0.59408808 0
-0.27262649 -0.13254306 -0.090202697 0
-0.30793151 -0.021989431 -0.090286799 0
-0.3498235 0.10919049 -0.08854913 0
-0.37897652 0.20047978 -0.074552871 0
-0.39539543 0.25189367 -0.051308457 0
-0.40039501 0.26754931 -0.022180444 0
-0.3964324 0.25514093 0.0096443314 0
-0.3983146 0.26103476 0.039865766 0
-0.39572394 0.25292245 0.07065136 0
-0.39567596 0.25277212 0.10100762 0
-0.39634368 0.25486305 0.13141142 0
-0.39680851 0.2563186 0.16191937 0
-0.39966595 0.26526633 0.19311512 0
-0.39584845 0.25331226 0.22280136 0
-0.39411733 0.24789158 0.2528334 0
-0.40014362 0.26676217 0.28634885 0
-0.39764345 0.2589331 0.31640163 0
-0.39536914 0.2518113 0.34644109 0
-0.29200628 -0.14590737 -0.088810183 0
-0.3356159 -0.020370986 -0.092224978 0
-0.378079 0.10186484 -0.088875361 0
-0.42803216 0.245662 -0.082757317 0
-0.42738977 0.24381271 -0.051594872 0
-0.42986616 0.25094143 -0.021579584 0
-0.43029359 0.25217178 0.0090926755 0
-0.43103299 0.25430027 0.039681543 0
-0.43320453 0.26055136 0.070207499 0
-0.4313601 0.2552419 0.10100801 0
-0.4307209 0.25340179 0.13163248 0
-0.42983171 0.25084224 0.16216396 0
-0.43102783 0.25428548 0.19308008 0
-0.43316132 0.26042691 0.22453386 0
-0.43466851 0.26476565 0.2562049 0
-0.43024564 0.25203374 0.28572255 0
-0.43185765 0.2566742 0.31782812 0
-0.43402058 0.2629005 0.35072625 0
-0.31536478 -0.14778933 -0.090122454 0
-0.35896415 -0.031809356 -0.091694273 0
-0.40731066 0.096798688 -0.089726083 0
-0.47596088 0.27941719 -0.089509346 0
-0.4873409 0.30968955 -0.061218653 0
-0.51101917 0.37267688 -0.034842122 0
-0.51258206 0.3768343 -0.0010600665 0
-0.51438218 0.38162282 0.032787282 0
-0.5120973 0.37554482 0.06706918 0
-0.50895911 0.36719695 0.10101177 0
-1.2002101 2.2060146 0.18053371 0
-1.191718 2.1834245 0.2589609 0
-1.1593924 2.0974343 0.33169469 0
-1.1593101 2.0972154 0.40893993 0
-1.1586078 2.0953474 0.48630491 0
-1.1602712 2.0997717 0.56494415 0
-0.3359721 -0.15733239 -0.089825787 0
-0.38057804 -0.047195103 -0.090475135 0
-0.43544319 0.088273436 -0.090102322 0
-0.50326961 0.25574484 -0.087805875 0
-0.51026797 0.27302447 -0.058201108 0
-0.51085782 0.27448097 -0.026297888 0
-0.51347053 0.28093198 0.0051632766 0
-0.51397425 0.28217581 0.03710727 0
-0.50851965 0.26870766 0.06941355 0
-0.51024967 0.27297941 0.10100928 0
-1.2785722 2.1700578 0.25985286 0
-1.1960697 1.9663496 0.32408372 0
-1.1977795 1.970571 0.39922735 0
-1.1989286 1.9734085 0.47473636 0
-1.2002038 1.9765568 0.55084765 0
-0.3584702 -0.1623852 -0.090686493 0
-0.40548646 -0.054223623 -0.091070391 0
-0.46247384 0.07687667 -0.090094708 0
-0.51545924 0.19877031 -0.081085555 0
-0.51218373 0.19123498 -0.049473096 0
-0.51063013 0.18766084 -0.018816864 0
-0.50931644 0.18463877 0.011483299 0
-0.51376444 0.19487146 0.040858984 0
-0.51108873 0.18871596 0.071105458 0
-0.51418984 0.19585004 0.10100729 0
-1.3493464 2.1171398 0.25885525 0
-1.2262185 1.8338823 0.31635359 0
-1.2269939 1.8356664 0.38866481 0
-1.2272387 1.8362293 0.46122622 0
-1.2259761 1.8333247 0.53368086 0
-1.2272563 1.8362699 0.607512 0
-0.37929994 -0.17154446 -0.090727068 0
-0.4326812 -0.056752529 -0.092737161 0
-0.48925114 0.064896375 -0.090104215 0
-0.50928646 0.10798064 -0.06909246 0
-0.51907581 0.12903181 -0.043172855 0
-0.51149684 0.11273387 -0.012471287 0
-0.50829571 0.10585013 0.016536335 0
-0.5131129 0.11620906 0.044211529 0
-0.5145067 0.11920634 0.072546884 0
-0.51077169 0.11117449 0.10100505 0
-1.4287117 2.0851278 0.25901189 0
-1.2465912 1.6934931 0.30797943 0
-1.2394521 1.6781409 0.37572321 0
-1.240062 1.6794527 0.44512114 0
-1.2389796 1.677125 0.5144012 0
-1.241871 1.6833427 0.58556569 0
-0.40055007 -0.17991069 -0.09108033 0
-0.45130539 -0.077599436 -0.090716951 0
-0.51418042 0.049142275 -0.089544721 0
-0.51393914 0.048655901 -0.061860252 0
-0.50967878 0.040067945 -0.033324558 0
-0.50839412 0.037478361 -0.0060138535 0
-0.51309174 0.04694787 0.020103062 0
-0.50765872 0.035995994 0.047687713 0
-0.51394385 0.048665438 0.074030995 0
-0.51471663 0.050223146 0.10100353 0
-1.2479466 1.5282483 0.29759845 0
-1.2372519 1.50669 0.36119944 0
-1.2411978 1.5146441 0.42780694 0
-1.2409971 1.5142395 0.49388072 0
-1.2426891 1.5176504 0.56106758 0
-0.41863158 -0.19448933 -0.090073161 0
-0.47357816 -0.090411454 -0.090480469 0
-0.53301477 0.022171412 -0.087009288 0
-0.53158176 0.019457016 -0.059337173 0
-0.5346688 0.025304351 -0.033119503 0
-0.53310537 0.022342954 -0.0058073308 0
-0.53069425 0.017775927 0.021357769 0
-0.53450412 0.02499238 0.047574207 0
-0.53253013 0.021253381 0.074401438 0
-0.53397274 0.023985896 0.10100311 0
-1.2485012 1.3774214 0.28822178 0
-1.237836 1.3572197 0.34879667 0
-1.234066 1.3500788 0.41029662 0
-1.2377949 1.3571417 0.47401351 0
-1.2435279 1.3680012 0.53922772 0
-1.2440053 1.3689055 0.60339594 0
-0.44332707 -0.19681171 -0.092148848 0
-0.49802384 -0.099251539 -0.091218852 0
-0.55749273 0.006820533 -0.086716138 0
-0.55687559 0.0057196948 -0.059340511 0
-0.5577082 0.0072048041 -0.032548461 0
-0.55977458 0.010890517 -0.0060582664 0
-0.56524169 0.020642076 0.020027237 0
-0.55990726 0.011127148 0.047575898 0
-0.55885762 0.0092550255 0.074353881 0
-0.55207318 -0.0028460885 0.10100269 0
-1.2948378 1.3219905 0.16272956 0
-1.2938421 1.3202143 0.22438514 0
-1.2458431 1.2346005 0.27935493 0
-1.2386898 1.2218418 0.33772784 0
-1.242996 1.2295222 0.39841262 0
-1.2424858 1.2286124 0.45845515 0
-1.2353752 1.2159295 0.51662421 0
-1.2455832 1.2341371 0.58123302 0
-0.45932174 -0.21476749 -0.090543263 0
-0.51746148 -0.11693767 -0.090164401 0
-0.58103669 -0.00996181 -0.086262159 0
-0.58272976 -0.0071128872 -0.05959541 0
-0.58356082 -0.0057145027 -0.032751594 0
-0.58802557 0.0017981861 -0.0066417959 0
-0.58100688 -0.010011878 0.021332162 0
-0.58474189 -0.0037271644 0.047596712 0
-0.57993495 -0.011815693 0.074533135 0
-0.57900524 -0.013380017 0.1010028 0
-1.3552692 1.2928138 0.1628449 0
-1.3494555 1.2830312 0.22418028 0
-1.2509317 1.1172485 0.27242166 0
-1.2431456 1.104147 0.32841542 0
-1.2366326 1.0931878 0.38423347 0
-1.2373576 1.0944078 0.44175294 0
-1.2403349 1.0994177 0.50044125 0
-1.2402036 1.0991967 0.55870652 0
-0.47876486 -0.22655204 -0.090562277 0
-0.54148096 -0.12683931 -0.090933554 0
-0.6093725 -0.018898096 -0.087438785 0
-0.61226004 -0.014307167 -0.060897995 0
-0.60526425 -0.025429871 -0.032109041 0
-0.60824913 -0.020684209 -0.0058362018 0
-0.609887 -0.018080082 0.020760039 0
-0.61148006 -0.015547302 0.047416765 0
-0.6119892 -0.014737811 0.074202269 0
-0.60728997 -0.022209194 0.10100301 0
-1.2564883 1.0099555 0.26621956 0
-1.2372979 0.97944468 0.31819326 0
-1.2393577 0.9827196 0.37337875 0
-1.2423204 0.98742992 0.42928451 0
-1.2385796 0.98148257 0.48374733 0
-1.240481 0.98450547 0.54029691 0
-0.50277692 -0.23149785 -0.092451416 0
-0.56468028 -0.13837644 -0.091481812 0
-0.63499087 -0.032607999 -0.087833233 0
-0.63897401 -0.026616123 -0.061484221 0
-0.63671744 -0.030010667 -0.033655871 0
-0.64170474 -0.02250823 -0.007389171 0
-0.63659817 -0.030190077 0.020456837 0
-0.63645363 -0.030407514 0.04736631 0
-0.63467562 -0.033082154 0.074273981 0
-0.63194919 -0.037183549 0.10100304 0
-1.251779 0.89522845 0.25929973 0
-1.2402881 0.87794286 0.31038389 0
-1.2394152 0.87662953 0.36296487 0
-1.2418945 0.88035923 0.41661066 0
-1.2360758 0.87160605 0.46835354 0
-1.2412198 0.87934428 0.52373385 0
-0.51617384 -0.25237569 -0.090393059 0
-0.58445048 -0.15508404 -0.090983711 0
-0.66186577 -0.044770148 -0.088674195 0
-0.65735918 -0.051191892 -0.060089651 0
-0.66248935 -0.043881621 -0.03401627 0
-0.66445398 -0.04108211 -0.0071553197 0
-0.66159391 -0.045157518 0.020335177 0
-0.66801095 -0.03601351 0.046753079 0
-0.66167086 -0.045047905 0.074149661 0
-0.66682959 -0.037696984 0.10100359 0
-1.2952861 0.85783011 0.25885606 0
-1.2504394 0.79392534 0.30443865 0
-1.2420659 0.78199333 0.35400152 0
-1.2406163 0.77992779 0.40484908 0
-1.2360568 0.77343076 0.45502257 0
-1.2430742 0.78343016 0.50900775 0
-0.53518128 -0.26487628 -0.090599902 0
-0.59936976 -0.17814925 -0.08910235 0
-0.68986374 -0.055880036 -0.089883603 0
-0.6854074 -0.061901119 -0.061173622 0
-0.68917042 -0.056816783 -0.034613226 0
-0.69339556 -0.051108088 -0.0079757851 0
-0.68336636 -0.064658791 0.020551177 0
-0.69251025 -0.052304234 0.046701416 0
-0.69692737 -0.04633614 0.073694609 0
-0.68890941 -0.057169463 0.10100351 0
-1.346435 0.83123356 0.25943905 0
-1.2549216 0.70758694 0.29814124 0
-1.2410088 0.68878895 0.34508726 0
-1.2423911 0.6906566 0.39481243 0
-1.2380505 0.68479198 0.44339108 0
-1.2352458 0.68100244 0.49248844 0
-0.5551914 -0.27619454 -0.091257669 0
-0.62052679 -0.19242355 -0.089372553 0
-0.70824045 -0.07995984 -0.08855965 0
-0.72020447 -0.064620048 -0.063828148 0
-0.72498709 -0.058487918 -0.036990438 0
-0.72009069 -0.0647659 -0.0084682759 0
-0.71409237 -0.072456747 0.019685606 0
-0.71774954 -0.06776765 0.04656373 0
-0.72119218 -0.063353568 0.073668323 0
-0.72382623 -0.059976306 0.10100404 0
-1.3874489 0.79089957 0.25892815 0
-1.2489797 0.6133588 0.29079756 0
-1.2392153 0.6008392 0.33677128 0
-1.2362056 0.59698027 0.38379893 0
-1.2324566 0.5921734 0.43070918 0
-1.2417636 0.60410649 0.48169482 0
-0.56827515 -0.29621467 -0.089673124 0
-0.65172678 -0.19460991 -0.092723541 0
-0.74678439 -0.078874499 -0.092657797 0
-0.75041878 -0.074449509 -0.065403245 0
-0.7452507 -0.080741853 -0.036439795 0
-0.73991448 -0.087238818 -0.0079868864 0
-0.74319953 -0.083239228 0.019002469 0
-0.75098926 -0.073754936 0.045814276 0
-0.73846114 -0.089008301 0.073883116 0
-0.75581658 -0.067877561 0.10100444 0
-1.441308 0.76672822 0.25996274 0
-1.2555428 0.54055375 0.28587151 0
-1.2398307 0.52142376 0.32956591 0
-1.2393935 0.52089149 0.37572673 0
-1.2429533 0.5252257 0.42319387 0
-1.2419078 0.52395278 0.46992081 0
-0.58820462 -0.30776313 -0.090525888 0
-0.66341203 -0.22076741 -0.090374164 0
-0.76082993 -0.10807982 -0.090474673 0
-0.77178866 -0.095403343 -0.06508664 0
-0.7789259 -0.087147385 -0.038403634 0
-0.77481294 -0.091905087 -0.0097530317 0
-0.76637369 -0.10166714 0.018943625 0
-0.77063274 -0.096740454 0.046043281 0
-0.77830434 -0.087866396 0.073265813 0
-0.77462131 -0.092126697 0.10100425 0
-1.4766417 0.71993142 0.25905195 0
-1.2432307 0.44993463 0.27865785 0
-1.2380267 0.44391492 0.32249886 0
-1.234037 0.43929985 0.36646876 0
-1.2379031 0.44377199 0.41241735 0
-1.2436657 0.45043769 0.45954165 0
-0.60438508 -0.32375559 -0.090264432 0
-0.68871599 -0.23104152 -0.092088617 0
-0.78261352 -0.12780979 -0.090423934 0
-0.79944539 -0.1093047 -0.06620384 0
-0.8035475 -0.10479483 -0.03876977 0
-0.80812752 -0.099759489 -0.011267802 0
-0.80462456 -0.10361066 0.017270925 0
-0.79917711 -0.10959962 0.045609467 0
-0.80096257 -0.10763672 0.073260203 0
-0.79958326 -0.10915318 0.10100436 0
-1.2550523 0.39159313 0.27531329 0
-1.2453355 0.38091043 0.31755346 0
-1.2409421 0.3760803 0.36046234 0
-1.2403867 0.37546971 0.40428579 0
-1.2415005 0.37669423 0.44887477 0
-0.62161976 -0.33857724 -0.090459757 0
-0.69730693 -0.25947151 -0.089276694 0
-0.79707611 -0.15519604 -0.08875408 0
-0.82999235 -0.12079301 -0.067951836 0
-0.83177429 -0.11893055 -0.039812211 0
-0.83412641 -0.11647227 -0.01178257 0
-0.83172834 -0.11897859 0.016763927 0
-0.82958037 -0.1212236 0.04503959 0
-0.82900017 -0.12183002 0.073056802 0
-0.82865477 -0.12219098 0.10100466 0
-1.2449906 0.31294981 0.26930091 0
-1.2363621 0.3039315 0.31025529 0
-1.2362087 0.30377117 0.35257414 0
-1.2389872 0.30667511 0.39585775 0
-1.2357643 0.30330673 0.43802625 0
-0.63772041 -0.35461167 -0.090424009 0
-0.7216953 -0.27116457 -0.09092208 0
-0.82675678 -0.16676334 -0.090813808 0
-0.85675043 -0.13695815 -0.068964161 0
-0.86310405 -0.13064447 -0.041399676 0
-0.85786909 -0.13584653 -0.012043966 0
-0.86094481 -0.13279018 0.01602252 0
-0.85720485 -0.13650665 0.044646677 0
-0.8524738 -0.1412079 0.072996132 0
-0.85915089 -0.13457277 0.10100502 0
-1.273124 0.27679864 0.14283532 0
-1.2693037 0.27300242 0.18444332 0
-1.2784482 0.2820895 0.22716953 0
-1.2510779 0.25489107 0.2658284 0
-1.2457854 0.24963179 0.3064948 0
-1.2420102 0.24588051 0.34733561 0
-1.2443058 0.2481617 0.38960314 0
-1.2396452 0.2435303 0.43049899 0
-0.65903121 -0.36573181 -0.0920325 0
-0.73863631 -0.29052249 -0.090676434 0
-0.84327912 -0.19165793 -0.089916773 0
-0.89114988 -0.14643058 -0.07150986 0
-0.88875973 -0.1486887 -0.042085622 0
-0.89227337 -0.14536914 -0.013731843 0
-0.89212602 -0.14550832 0.015075648 0
-0.88070023 -0.1563032 0.044502448 0
-0.88946563 -0.14802179 0.072488651 0
-0.89552933 -0.14229295 0.10100561 0
-1.295449 0.23554364 0.14253987 0
-1.29155 0.23185995 0.18385349 0
-1.2911373 0.23147002 0.22534244 0
-1.2518377 0.1943405 0.2619437 0
-1.2446617 0.18756071 0.30134937 0
-1.2416415 0.18470731 0.34131306 0
-1.2388021 0.18202463 0.38138604 0
-1.2390486 0.18225756 0.42238423 0
-0.67571789 -0.38153777 -0.092364974 0
-0.75728214 -0.30828276 -0.090993054 0
-0.86735988 -0.2094191 -0.090849988 0
-0.91850656 -0.16348293 -0.072713979 0
-0.90952635 -0.17154834 -0.042060588 0
-0.92427218 -0.15830472 -0.01511067 0
-0.91103357 -0.17019466 0.015272746 0
-0.92728454 -0.15559927 0.042885028 0
-0.92243481 -0.15995488 0.072112814 0
-0.92077398 -0.16144654 0.10100576 0
-1.337216 0.21257082 0.14289312 0
-1.3300703 0.20615295 0.18436228 0
-1.3343155 0.20996585 0.22654511 0
-1.2513269 0.13543156 0.25818059 0
-1.2529978 0.13693216 0.29805502 0
-1.2400364 0.12529126 0.33548695 0
-1.2271658 0.11373189 0.37237093 0
-1.2419097 0.12697378 0.41572303 0
-0.68404603 -0.40460089 -0.090467252 0
-0.77408206 -0.32775167 -0.090958081 0
-0.87990052 -0.2374315 -0.089367695 0
-0.94541079 -0.1815159 -0.073889263 0
-0.95034879 -0.17730114 -0.045207474 0
-0.94609386 -0.18093291 -0.015251754 0
-0.95107782 -0.17667893 0.013465026 0
-0.95246035 -0.17549887 0.042613488 0
-0.93644547 -0.18916818 0.072315179 0
-0.94597894 -0.18103102 0.10100594 0
-1.400296 0.20674625 0.14390993 0
-1.4021367 0.20831743 0.18695623 0
-1.4019706 0.20817569 0.23002425 0
-1.2459315 0.074990183 0.25408238 0
-1.2575321 0.084891707 0.29444504 0
-1.243281 0.072727829 0.33096156 0
-1.2368948 0.067277104 0.36854273 0
-1.24316 0.072624594 0.40915412 0
-0.6972878 -0.42311874 -0.090113558 0
-0.78533322 -0.35172871 -0.089698754 0
-0.90686202 -0.25318918 -0.091117911 0
-0.98011917 -0.19378993 -0.076535977 0
-0.97850609 -0.19509783 -0.046407092 0
-0.98668015 -0.18847004 -0.017714245 0
-0.98078084 -0.19325343 0.012609715 0
-0.9751175 -0.19784543 0.04246797 0
-0.97715521 -0.19619319 0.071691968 0
-0.98286343 -0.19156477 0.10100656 0
-1.2433673 0.019660268 0.25059295 0
-1.2500883 0.025109921 0.28930473 0
-1.2461177 0.021890316 0.3266966 0
-1.2456386 0.021501932 0.36483428 0
-1.2425698 0.019013677 0.40260801 0
-0.70570415 -0.44526371 -0.08859887 0
-0.7994591 -0.3730875 -0.089292251 0
-0.91557032 -0.28370056 -0.089131899 0
-1.0178251 -0.20498076 -0.079718985 0
-1.010528 -0.21059838 -0.048220623 0
-1.0123641 -0.2091848 -0.018396636 0
-1.0112909 -0.21001109 0.011662366 0
-1.0169358 -0.20566544 0.041166019 0
-1.0156115 -0.20668486 0.071141593 0
-1.0040081 -0.21561769 0.1010066 0
-1.2497867 -0.026407626 0.24839574 0
-1.2401711 -0.033810224 0.28412315 0
-1.2421161 -0.032312836 0.32153028 0
-1.2346495 -0.03806087 0.35734496 0
-1.2391976 -0.034559574 0.39585122 0
-0.72313565 -0.46039656 -0.089633353 0
-0.82549 -0.38563606 -0.091796868 0
-0.93855566 -0.30305198 -0.090246059 0
-1.0453261 -0.22506592 -0.081117548 0
-1.0338212 -0.23346916 -0.048794914 0
-1.0400054 -0.2289522 -0.019353813 0
-1.0484464 -0.22278681 0.010120021 0
-1.0480047 -0.22310945 0.040496044 0
-1.0423983 -0.22720435 0.070929557 0
-1.055872 -0.21736309 0.10100776 0
-1.2525488 -0.073708802 0.24595135 0
-1.2351992 -0.086381048 0.2799696 0
-1.2449758 -0.079240173 0.31789327 0
-1.2379048 -0.084404856 0.35320139 0
-1.2432954 -0.080467492 0.3912791 0
-0.75065786 -0.46885863 -0.093358494 0
-0.83722937 -0.40891609 -0.091057278 0
-0.95089829 -0.33021119 -0.089311935 0
-1.0757034 -0.24379542 -0.083071031 0
-1.0745109 -0.24462113 -0.051915068 0
-1.0796648 -0.24105254 -0.021716027 0
-1.0756613 -0.24382463 0.0094219763 0
-1.0688611 -0.24853304 0.040390786 0
-1.0836574 -0.23828802 0.070297129 0
-1.0769813 -0.24291065 0.10100783 0
-1.2521167 -0.12164602 0.20761062 0
-1.2464833 -0.12554654 0.24268334 0
-1.2377199 -0.13161442 0.27714401 0
-1.2411793 -0.12921908 0.31338537 0
-1.2353913 -0.13322678 0.34821197 0
-1.2432644 -0.12777534 0.38610789 0
-0.7576533 -0.49185497 -0.091859736 0
-0.84470665 -0.43477347 -0.08950334 0
-0.96840829 -0.35366145 -0.089544602 0
-1.1165994 -0.25649139 -0.086840309 0
-1.1030197 -0.26539573 -0.05332135 0
-1.1235859 -0.25191036 -0.024549564 0
-1.1134151 -0.25857946 0.0078095589 0
-1.1074221 -0.26250908 0.03926561 0
-1.1047828 -0.26423964 0.070227012 0
-1.1149822 -0.25755182 0.1010085 0
-1.2441286 -0.17286971 0.20514406 0
-1.2363642 -0.17796078 0.23916355 0
-1.2415618 -0.17455277 0.27471048 0
-1.237837 -0.17699513 0.30924156 0
-1.2405202 -0.17523572 0.34505123 0
-1.2441807 -0.17283556 0.38150617 0
-0.77480799 -0.50814909 -0.093071692 0
-0.8587411 -0.45609352 -0.089572616 0
-0.98569542 -0.3773559 -0.089845933 0
-1.1509387 -0.27487132 -0.089520238 0
-1.1452029 -0.2784287 -0.056659121 0
-1.1477506 -0.27684858 -0.025199538 0
-1.1488039 -0.27619532 0.0063858274 0
-1.1565927 -0.27136472 0.037557196 0
-1.1475114 -0.276997 0.069548868 0
-1.1582124 -0.27036014 0.10100934 0
-1.2495681 -0.21370098 0.16956113 0
-1.2493032 -0.21386531 0.20390679 0
-1.2350547 -0.22270223 0.23681314 0
-1.2444613 -0.21686825 0.27233538 0
-1.2408035 -0.21913686 0.30640694 0
-1.2436121 -0.21739498 0.34175223 0
-1.2318788 -0.22467199 0.37429956 0
-0.78203505 -0.53060913 -0.091922306 0
-0.87549245 -0.47586223 -0.090352334 0
-0.99615884 -0.40517649 -0.088957898 0
-1.1621666 -0.3079299 -0.088472806 0
-1.1895899 -0.2918655 -0.060291354 0
-1.1814892 -0.29661074 -0.026944285 0
