# .PCD v0.7 - Point Cloud Data file format
VERSION 0.7
FIELDS x y z intensity
SIZE 4 4 4 4
TYPE F F F F
COUNT 1 1 1 1
WIDTH 1357
HEIGHT 1
VIEWPOINT 0 0 0 1 0 0 0
POINTS 1357
DATA ascii
-1.2411426 -0.77107769 0.36094245 0
-0.88999903 -0.57704628 -0.049962278 0
-1.2418991 -0.80092973 0.36391935 0
-0.87809193 -0.59284198 -0.049910754 0
-1.2417009 -0.83065861 0.36679581 0
-0.8687377 -0.61031365 -0.049977131 0
-1.2432722 -0.86206573 0.37016222 0
-0.85486662 -0.62472671 -0.049857616 0
-1.244882 -0.89407557 0.22508332 0
-1.2363285 -0.88816839 0.3717781 0
-0.84803927 -0.64403677 -0.050053254 0
-1.241001 -0.92279285 0.07925386 0
-1.2416959 -0.92328578 0.22660296 0
-1.6013743 -1.1784315 0.45573407 0
-0.83521986 -0.65915644 -0.049996719 0
-1.2466377 -0.9588626 0.08016894 0
-1.2412902 -0.95496708 0.22855498 0
-1.5658537 -1.1914022 0.45189792 0
-0.82464516 -0.6759091 -0.050048172 0
-1.2325776 -0.98101169 0.080234692 0
-1.2404255 -0.98688132 0.23051715 0
-0.81123948 -0.69053799 -0.049982157 0
-1.2364764 -1.0170125 0.081121914 0
-1.2349894 -1.0158708 0.23193321 0
-0.80395389 -0.709934 -0.050201986 0
-1.1613436 -0.99154168 0.078446276 0
-1.1612588 -0.99147493 0.22406881 0
-1.1547103 -0.98631495 0.37044671 0
-0.78575468 -0.72070897 -0.049934164 0
-1.1409405 -1.0079023 0.078241371 0
-1.1455846 -1.0116572 0.22410539 0
-1.1369301 -1.0046595 0.3700045 0
-0.783759 -0.74468511 -0.050421432 0
-1.2499635 -1.1314535 0.084047586 0
-1.23212 -1.1166503 0.23845002 0
-1.3312585 -1.1988968 0.41931537 0
-0.76262629 -0.75282925 -0.050030857 0
-1.2375526 -1.1570364 0.084295943 0
-1.2352102 -1.1550428 0.24135868 0
-1.3274542 -1.2335511 0.42281085 0
-1.0320485 -0.98213309 0.49667677 0
-0.74922895 -0.76736528 -0.05000741 0
-1.2818831 -1.2323953 0.41644952 0
-0.99455202 -0.98154289 0.48933229 0
-0.73137307 -0.77789074 -0.049778748 0
-1.1964563 -1.1943634 0.084067106 0
-1.1902171 -1.1887764 0.24010034 0
-1.1942633 -1.1923997 0.39983305 0
-0.96680987 -0.98871976 0.48524266 0
-0.71908808 -0.79331809 -0.049823865 0
-0.92204201 -0.97971672 0.47523877 0
-0.70788336 -0.8098107 -0.049931966 0
-0.89217937 -0.9834016 0.47030011 0
-0.70473814 -0.83419901 -0.050451692 0
-0.85752892 -0.98178929 0.46361911 0
-0.68273807 -0.84042996 -0.050045773 0
-0.84260619 -0.99879605 0.46393162 0
-0.67392576 -0.85965437 -0.050309744 0
-0.82213271 -1.010213 0.4623068 0
-0.65557599 -0.86921602 -0.05009789 0
-0.63541865 -0.87663251 -0.049794983 0
-0.6245631 -0.89392895 -0.04998542 0
-0.61331713 -0.9109934 -0.050169215 0
-0.59446633 -0.91949409 -0.049952999 0
-0.57979035 -0.93270022 -0.049970236 0
-0.56349802 -0.94396943 -0.049906276 0
-0.55043501 -0.95919126 -0.05003342 0
-0.5311076 -0.96656185 -0.049810831 0
-0.516855 -0.98033196 -0.049888693 0
-0.50366157 -0.99562484 -0.050041586 0
-0.48646766 -1.0055789 -0.049965177 0
-0.47194296 -1.0192329 -0.050060526 0
-0.4562639 -1.0313284 -0.05009554 0
-0.43872929 -1.0406947 -0.050021611 0
-0.42027712 -1.0485585 -0.049893763 0
-0.37686217 -0.98172039 0.50034839 0
-0.40703738 -1.0645094 -0.050118297 0
-0.34633684 -0.96843308 0.4911477 0
-0.39885229 -1.088997 -0.050705798 0
-0.33033246 -0.97745842 0.49088064 0
-0.37368691 -1.0858613 -0.050144587 0
-0.30966789 -0.97864538 0.48765668 0
-0.34555304 -1.0768263 -0.049357101 0
-0.29415148 -0.98822588 0.48778501 0
-0.3316648 -1.0919493 -0.049579702 0
-0.27626616 -0.99362749 0.48639157 0
-0.32079375 -1.1129224 -0.050045971 0
-0.25492549 -0.9924981 0.48261675 0
-0.30753148 -1.1300979 -0.050361197 0
-0.22812732 -0.98048216 0.47486827 0
-0.28300554 -1.1258817 -0.049822189 0
-0.20801736 -0.98018557 0.47168162 0
-0.27082115 -1.1455603 -0.050252248 0
-0.18398847 -0.97149926 0.46549007 0
-0.24983795 -1.147735 -0.049991749 0
-0.16839959 -0.97920781 0.46550623 0
-0.23323174 -1.1588402 -0.050095219 0
-0.15048505 -0.98195428 0.463772 0
-0.21032484 -1.156207 -0.049667954 0
-0.12852259 -0.97544402 0.45874995 0
-0.19646187 -1.1735038 -0.050030932 0
-0.11700262 -0.99186343 0.46218273 0
-0.17220004 -1.1668553 -0.049470723 0
-0.10456045 -1.0067747 0.46510518 0
-0.15616073 -1.1793336 -0.04966262 0
-0.075750962 -0.98214072 0.34944943 0
-0.084440902 -1.0034513 0.46151754 0
-0.1398495 -1.1914984 -0.049849316 0
-0.058071271 -0.98349673 0.34809372 0
-0.068850651 -1.0109138 0.46189415 0
-0.12628777 -1.2113043 -0.050334688 0
-0.031321391 -0.96053118 0.14676253 0
-0.030777318 -0.95909446 0.24194238 0
-0.014382614 -0.9158017 0.32796735 0
-0.052109793 -1.015426 0.46128944 0
-0.10657902 -1.2152489 -0.050221656 0
-0.012709869 -0.95762473 0.14577313 0
-0.0090784859 -0.94765836 0.23864609 0
0.0055411323 -0.90753478 0.32421988 0
-0.086110666 -1.2167925 -0.050027706 0
0.011031466 -0.93937498 0.14306775 0
0.0088459421 -0.94561642 0.23721172 0
0.021961318 -0.9081617 0.32296109 0
-0.0038991703 -0.98201376 0.44535273 0
-0.068751231 -1.2271668 -0.0501769 0
0.022780733 -0.95482451 0.14422846 0
0.023527669 -0.95260209 0.23754406 0
0.025843011 -0.9457131 0.33170184 0
0.013411509 -0.9827016 0.44370005 0
-0.04757686 -1.2260519 -0.049902771 0
0.036411509 -0.96532863 0.14484283 0
0.035019442 -0.96965009 0.23981671 0
0.023194509 -1.0063579 0.34661037 0
0.022205817 -1.0094271 0.45123142 0
-0.027934207 -1.2292597 -0.049801182 0
0.026973056 -1.0511589 0.35722223 0
-0.012362612 -1.2460459 -0.050214548 0
0.066681221 -0.97769827 0.33635345 0
0.0094799865 -1.241599 -0.04984634 0
0.08257772 -0.98139364 0.33613804 0
0.029088961 -1.2445121 -0.049761552 0
0.10170884 -0.97291952 0.33276239 0
0.046091899 -1.2574576 -0.050055679 0
0.12028398 -0.96529168 0.32968384 0
0.062269643 -1.2747334 -0.050515804 0
0.083220586 -1.2724878 -0.050267361 0
0.10239406 -1.2777225 -0.050302345 0
0.12398253 -1.2710811 -0.049913574 0
0.1431198 -1.2760177 -0.049956188 0
-0.066128418 -2.3896961 0.10241167 0
0.16280921 -1.2779895 -0.049900003 0
0.0010948346 -2.2026885 0.095413983 0
0.18106686 -1.2885747 -0.050164424 0
0.033733651 -2.1984072 0.095069744 0
0.20206407 -1.2820648 -0.049819592 0
0.065070674 -2.201247 0.094998047 0
0.22173738 -1.2834965 -0.049771037 0
0.096209809 -2.2052021 0.094980881 0
0.24001397 -1.295994 -0.050129533 0
0.12932919 -2.1930499 0.094398446 0
0.26030698 -1.2925919 -0.049924701 0
0.1590253 -2.2081518 0.094810762 0
0.28006765 -1.2931769 -0.049872316 0
0.19074668 -2.2056015 0.094602764 0
0.29994991 -1.291936 -0.04976349 0
0.22276382 -2.1979096 0.094225094 0
0.318874 -1.3028885 -0.050100192 0
0.25383803 -2.199605 0.094198212 0
0.33828697 -1.3097025 -0.050297156 0
0.28405538 -2.2153747 0.094688736 0
0.35876557 -1.2969741 -0.049804267 0
0.31588143 -2.2045352 0.094241522 0
0.3781864 -1.3048306 -0.050056159 0
0.34717524 -2.2000916 0.094037302 0
0.39803478 -1.3014927 -0.049916968 0
0.37833089 -2.1956029 0.093845606 0
0.41773298 -1.3039912 -0.049995087 0
0.43746039 -1.2972678 -0.049752835 0
0.45730147 -1.3084232 -0.050157774 0
0.47708532 -1.3073661 -0.050135612 0
0.49650064 -1.2976148 -0.049811676 0
0.51611018 -1.2957016 -0.049776495 0
0.53602028 -1.2986569 -0.049924307 0
0.55647385 -1.3071383 -0.05027914 0
0.57572252 -1.2996771 -0.050072063 0
0.59656101 -1.3088441 -0.05047027 0
0.61500251 -1.2950803 -0.050054248 0
0.63405663 -1.2882919 -0.049897019 0
0.65297842 -1.281339 -0.049742222 0
0.67318308 -1.2833272 -0.049918763 0
0.69281471 -1.2811444 -0.049953874 0
0.71438515 -1.2894944 -0.050380196 0
0.7308923 -1.2702087 -0.049812328 0
0.75242519 -1.2770976 -0.050204914 0
0.77010894 -1.2652448 -0.049923301 0
0.791861 -1.2716417 -0.050318129 0
0.80872852 -1.2571101 -0.049954571 0
0.82881045 -1.2559144 -0.050089665 0
0.84281838 -1.2321906 -0.049400605 0
0.86549616 -1.2403449 -0.049899854 0
0.8864575 -1.2415737 -0.05015339 0
0.90287542 -1.227783 -0.049855575 0
0.91994536 -1.2166353 -0.049663618 0
0.94216621 -1.2209073 -0.050060932 0
0.95702457 -1.2037286 -0.049657393 0
0.9796288 -1.2082075 -0.05008392 0
0.99862731 -1.2024987 -0.05013353 0
0.92330819 -1.0073277 0.45949906 0
1.0139308 -1.1874602 -0.049833775 0
0.94256598 -1.0092493 0.4624384 0
1.0328277 -1.1816212 -0.049895488 0
0.96169811 -1.0102808 0.46515968 0
1.0485535 -1.1682886 -0.049675543 0
0.97413039 -0.99520236 0.46214849 0
1.0688441 -1.1655885 -0.049877562 0
0.98631531 -0.98012179 0.45917654 0
1.0906081 -1.1657423 -0.050202921 0
1.005113 -0.97994369 0.46170101 0
1.1037618 -1.1472465 -0.049803782 0
1.0226424 -0.97664696 0.46317872 0
1.1236483 -1.1430936 -0.049979202 0
1.0433546 -0.97957224 0.46705326 0
1.1399277 -1.1315421 -0.049869612 0
1.0572592 -0.96840876 0.46579486 0
1.1555513 -1.118896 -0.049723443 0
1.0843493 -0.98267168 0.47413871 0
1.1750263 -1.1136087 -0.04988265 0
1.1034149 -0.98070472 0.47653428 0
1.1861807 -1.0930961 -0.049431249 0
1.1364698 -1.003556 0.057774942 0
1.1265479 -0.98568445 0.15965798 0
1.1298567 -0.99164432 0.26508924 0
1.1292833 -0.99061137 0.37222168 0
1.132682 -0.99673325 0.4858855 0
1.2134521 -1.1014069 -0.050167698 0
1.1464119 -0.98415631 0.057345763 0
1.1437583 -0.97951537 0.15998833 0
1.142794 -0.97782892 0.26406384 0
1.1442765 -0.98042172 0.37183452 0
1.1553041 -0.99970835 0.49044245 0
1.2264057 -1.0843623 -0.049873412 0
1.1696942 -0.98801214 0.057881959 0
1.1656682 -0.98117226 0.16132396 0
1.1637211 -0.97786433 0.26596335 0
1.1660787 -0.98186964 0.3749454 0
1.1695945 -0.98784286 0.48941368 0
1.2431976 -1.0740492 -0.049864627 0
1.2630262 -1.0686163 -0.05006991 0
1.2857137 -1.0673717 -0.05046498 0
1.3000147 -1.0528799 -0.050309222 0
1.3162 -1.0413628 -0.050288089 0
1.329424 -1.025607 -0.050091289 0
1.3457981 -1.014496 -0.05010375 0
1.3613679 -1.0022678 -0.050075959 0
1.379177 -0.99304157 -0.050190765 0
1.3939884 -0.9797985 -0.050135534 0
1.4050184 -0.9618451 -0.049873579 0
1.2089348 -0.71459883 0.050607603 0
1.2045523 -0.70907283 0.13952143 0
1.4182706 -0.94691008 -0.049754217 0
1.2037526 -0.68330616 0.04962077 0
1.2111038 -0.69233954 0.13856044 0
1.4421581 -0.94483942 -0.05023963 0
1.2031739 -0.65860921 0.048927255 0
1.1996526 -0.65439177 0.13463068 0
1.4472245 -0.92026407 -0.049686484 0
1.2023492 -0.63437343 0.048247557 0
1.2042029 -0.63653761 0.13348132 0
1.4618213 -0.90712243 -0.049673576 0
1.2083666 -0.61864793 0.047964245 0
1.2070675 -0.6171692 0.13211073 0
1.4802281 -0.89821738 -0.049872909 0
1.1993018 -0.58648086 0.04689116 0
1.2047883 -0.59256917 0.12997282 0
1.500212 -0.89080709 -0.050158445 0
1.5065392 -0.86869174 -0.049736366 0
1.5201416 -0.85448319 -0.049706701 0
1.5393033 -0.84587675 -0.049967643 0
1.5577585 -0.83631736 -0.05019556 0
1.5695027 -0.82013017 -0.050095621 0
1.57585 -0.79901522 -0.049743704 0
1.6012003 -0.79546481 -0.050324548 0
1.6095524 -0.77633339 -0.050091036 0
1.6242771 -0.76290876 -0.050171837 0
1.6334304 -0.74472374 -0.049999908 0
1.6466471 -0.73001957 -0.050027877 0
1.6444495 -0.70298231 -0.049359947 0
1.6739037 -0.7011568 -0.050145585 0
1.683139 -0.68331033 -0.050019104 0
1.6967869 -0.66882813 -0.050099626 0
1.7092823 -0.65344357 -0.050136801 0
1.7193059 -0.63629311 -0.050074417 0
1.722008 -0.61420357 -0.049705643 0
1.7417752 -0.60373765 -0.050082903 0
1.7565264 -0.5897156 -0.050249632 0
1.7640294 -0.5710035 -0.050117038 0
1.777342 -0.5559411 -0.050238304 0
1.7808989 -0.53499204 -0.049961679 0
1.7771639 -0.5100646 -0.049397528 0
1.7945647 -0.49741098 -0.049714815 0
1.8096619 -0.48324844 -0.049942844 0
1.8201237 -0.46645924 -0.049989548 0
1.8291762 -0.44890979 -0.049987964 0
1.8390938 -0.43178627 -0.050029684 0
1.8450111 -0.41270909 -0.049921334 0
1.8568509 -0.39646044 -0.050056186 0
1.8596762 -0.37605891 -0.049845565 0
1.8840957 -0.36518148 -0.050486438 0
1.8897802 -0.34596381 -0.050404102 0
1.8746996 -0.318414 -0.049531937 0
1.8957853 -0.30560908 -0.050063055 0
1.8979213 -0.2852926 -0.049875271 0
1.9063519 -0.26738474 -0.04993698 0
1.9198111 -0.25117061 -0.050196961 0
1.9227818 -0.23127155 -0.050068941 0
1.923786 -0.21083726 -0.049877152 0
1.9295201 -0.19198303 -0.049872257 0
1.9436737 -0.17558043 -0.050189294 0
1.9408776 -0.15423839 -0.049884886 0
1.9481673 -0.13577805 -0.049963851 0
1.9612411 -0.11870647 -0.050264016 0
1.9563444 -0.097150572 -0.049911808 0
1.9573432 -0.077166624 -0.049786232 0
1.9630136 -0.05825473 -0.049840629 0
1.9749233 -0.040533971 -0.050130628 0
1.962868 -0.018177282 -0.049558025 0
1.9745517 -0.00030184849 -0.049856775 0
1.9805359 0.018694673 -0.049957041 0
1.9722997 0.039839465 -0.049552713 0
1.991642 0.057032142 -0.050151914 0
1.988186 0.077393867 -0.049938209 0
1.9879349 0.097262777 -0.049849086 0
1.9997658 0.11592733 -0.050202318 0
1.9986209 0.13590936 -0.050098803 0
1.994347 0.15603842 -0.049892414 0
1.9951355 0.17573763 -0.049876262 0
1.9936349 0.19552952 -0.049787182 0
2.0126662 0.21461514 -0.050440419 0
2.0114324 0.23454753 -0.050378468 0
1.9941528 0.25454038 -0.049752604 0
1.9976691 0.27422589 -0.049878146 0
1.9824405 0.29364896 -0.049343228 0
2.0017424 0.31378502 -0.050050229 0
1.9965904 0.33334494 -0.049892798 0
2.0080397 0.35373849 -0.050337702 0
1.9868656 0.37218678 -0.049624678 0
2.0018768 0.39310187 -0.050215442 0
1.9948537 0.41235158 -0.050026171 0
1.9942307 0.43215778 -0.050075147 0
1.9894824 0.45150611 -0.049984824 0
1.9859811 0.47095916 -0.049948029 0
1.9875342 0.49112621 -0.050102353 0
1.982928 0.51042914 -0.050043516 0
1.9849149 0.53082472 -0.050232165 0
1.9735625 0.54889601 -0.049946282 0
1.9677652 0.56786305 -0.04987013 0
1.9660813 0.58764553 -0.049952555 0
1.9610274 0.60673594 -0.049921021 0
1.9648998 0.6279245 -0.050225724 0
1.9527924 0.64533347 -0.049953058 0
1.9495564 0.66488892 -0.05001514 0
1.9501147 0.68554616 -0.050227132 0
1.9301155 0.70037717 -0.049685147 0
1.9348171 0.72234195 -0.050069954 0
1.9298581 0.74151635 -0.050104674 0
1.9275908 0.7616151 -0.050249875 0
1.9177481 0.7791996 -0.050119013 0
1.8979214 0.79308712 -0.049617011 0
1.9037704 0.81623077 -0.0500983 0
1.8938463 0.8335979 -0.049988762 0
1.8838167 0.85084248 -0.049883008 0
1.8785102 0.86998773 -0.049967885 0
1.8623334 0.88448715 -0.049639575 0
1.8634796 0.90650988 -0.049994398 0
1.8594503 0.92641068 -0.050158493 0
1.839733 0.93892312 -0.049712367 0
1.8278233 0.95495218 -0.049580723 0
1.8338122 0.98002166 -0.050173815 0
1.818437 0.99431497 -0.04992149 0
1.8109622 1.0126985 -0.049995668 0
1.8049299 1.0319524 -0.050138809 0
1.7994889 1.0516669 -0.050317306 0
1.7954856 1.0723838 -0.050567079 0
1.7671146 1.0784466 -0.049810611 0
1.7578059 1.0958431 -0.049854748 0
1.7523774 1.1157833 -0.050073367 0
1.7365799 1.1290369 -0.049860358 0
1.734665 1.1515715 -0.05025243 0
1.7168894 1.1633458 -0.049969111 0
1.7030824 1.1777308 -0.049864203 0
1.6938565 1.1954092 -0.049969591 0
1.6827083 1.2117281 -0.049999814 0
1.6682905 1.2255349 -0.049891707 0
1.6610447 1.2449729 -0.050118018 0
1.6426418 1.2554833 -0.049843047 0
1.6198633 1.2620676 -0.049367242 0
1.6254538 1.2926673 -0.050227303 0
1.6007006 1.2972509 -0.049669199 0
1.598508 1.3217673 -0.050194785 0
1.5741382 1.3261672 -0.049660239 0
1.5759245 1.3549998 -0.050412457 0
1.5586429 1.3659267 -0.050239727 0
1.5437247 1.3790562 -0.050191227 0
1.5163393 1.3793159 -0.04951195 0
1.5169898 1.4084612 -0.050278708 0
1.0237628 0.88810802 0.2919212 0
1.5024465 1.4219691 -0.050275985 0
1.0489156 0.93126518 0.30812266 0
1.4868153 1.4342713 -0.050224211 0
1.4384265 1.3805754 0.059643641 0
1.4441231 1.3868968 0.16839452 0
1.4370204 1.3790152 0.27660751 0
1.0520512 0.95182478 0.3138783 0
1.4747369 1.4505668 -0.050372176 0
1.413642 1.3810303 0.059067562 0
1.4135013 1.3808701 0.16572295 0
1.4211488 1.3895743 0.27612734 0
1.0543903 0.97214067 0.3194451 0
1.4515853 1.4540994 -0.049925808 0
1.3980964 1.3916515 0.058990307 0
1.3967131 1.3900366 0.16528478 0
1.3875413 1.3793284 0.27075964 0
1.0574458 0.99394345 0.32559058 0
1.4333422 1.4630249 -0.049748551 0
1.3673317 1.3839645 0.058071509 0
1.3673737 1.3840147 0.16275454 0
1.3776083 1.3962727 0.27193627 0
1.0595852 1.015378 0.3314954 0
1.4281189 1.4877561 -0.05031126 0
1.3419141 1.3818259 0.057435386 0
1.3384656 1.3775883 0.16024548 0
1.3407634 1.380412 0.2655023 0
1.0631118 1.0392282 0.33836463 0
1.4110928 1.4982487 -0.050222583 0
1.3150361 1.3771284 0.056703646 0
1.3152692 1.3774225 0.15867026 0
1.3158704 1.3781805 0.26237679 0
1.0416811 1.0324489 0.33214074 0
1.388797 1.5018247 -0.04983243 0
1.2956142 1.3812404 0.056391809 0
1.2997813 1.3866329 0.15842362 0
1.2934008 1.3783761 0.25990653 0
1.047428 1.0600721 0.34055585 0
1.3775278 1.5195951 -0.050092876 0
1.270025 1.3767993 0.055711679 0
1.2729936 1.3807424 0.15617429 0
1.2726043 1.3802254 0.25789702 0
1.0439597 1.076517 0.34420627 0
1.3564552 1.5243126 -0.049779367 0
1.2585132 1.390749 0.055866312 0
1.2523658 1.3823657 0.15499215 0
1.2499566 1.3790803 0.25529516 0
1.0309143 1.0803722 0.34264725 0
1.3356413 1.5290171 -0.049479786 0
1.2532037 1.4135766 0.056415427 0
1.2435286 1.4000281 0.15597312 0
1.2430892 1.3994128 0.25753978 0
1.0194833 1.0862886 0.34201226 0
1.3262463 1.5497807 -0.049892552 0
1.2461811 1.4346234 0.05688525 0
1.2375546 1.4222159 0.15755256 0
1.2468482 1.4355829 0.26326278 0
1.0213439 1.1112415 0.34915513 0
1.3070395 1.5565709 -0.04970457 0
1.2436143 1.4628509 0.057664454 0
1.2421913 1.4607481 0.16124932 0
1.2430656 1.4620401 0.26681167 0
0.99957681 1.1022493 0.34259149 0
1.3020114 1.584656 -0.050438825 0
1.2505156 1.5064598 0.059096139 0
1.2539006 1.5116001 0.16649334 0
1.2391578 1.4892131 0.27049622 0
1.171916 1.3871068 0.34898007 0
0.99640465 1.1205938 0.34708151 0
1.2759972 1.5809489 -0.049821913 0
1.2405199 1.5255712 0.059473943 0
1.2459769 1.5340894 0.16805637 0
1.2261728 1.5031766 0.27133244 0
1.1429784 1.3733156 0.34200752 0
0.98368925 1.1246758 0.34591597 0
1.2609103 1.5939643 -0.049927056 0
1.2388861 1.558614 0.060440104 0
1.2460943 1.5701836 0.17134251 0
1.2073715 1.5080305 0.27026141 0
1.1286192 1.3816273 0.34184352 0
0.97540951 1.1357142 0.34754938 0
1.2405221 1.5983764 -0.049680263 0
1.1876264 1.5110433 0.26886037 0
1.1075141 1.3787751 0.33840489 0
0.96739429 1.1474321 0.34947538 0
0.84006441 0.93720573 0.47250649 0
1.2312945 1.6214123 -0.050217494 0
1.1792891 1.5330576 0.27149838 0
1.0896791 1.3808147 0.33651885 0
0.95215458 1.1471672 0.34680036 0
0.84087259 0.95810467 0.48339382 0
1.2112145 1.6262378 -0.050006758 0
1.1570588 1.5315216 0.26924682 0
1.0756035 1.3890594 0.33653623 0
0.9439286 1.1587654 0.34876469 0
0.85175955 0.99756557 0.35568658 0
0.83929873 0.97577214 0.41601676 0
0.84158897 0.97977769 0.49472487 0
1.1958333 1.6392268 -0.050141208 0
1.1454103 1.548404 0.27086824 0
1.0525107 1.3810714 0.33186844 0
0.92970628 1.1598735 0.34676307 0
0.84756643 1.0119215 0.36001289 0
0.83697957 0.99285227 0.42289263 0
0.84113175 1.0003313 0.50521153 0
1.1841021 1.6591966 -0.050565731 0
1.1304928 1.5597029 0.27136499 0
1.0394201 1.3906804 0.33241659 0
0.92038089 1.1697547 0.34815848 0
0.84975451 1.0386786 0.37016732 0
0.84389019 1.0277951 0.43989092 0
0.83993185 1.0204488 0.51533741 0
1.1577319 1.6518122 -0.049891505 0
1.1077573 1.5562003 0.26888475 0
1.0185361 1.3855013 0.3287515 0
0.91424942 1.1859789 0.35197008 0
0.84978509 1.0626451 0.37893844 0
0.83768952 1.0395037 0.44361129 0
0.84392428 1.0514323 0.53267819 0
1.1424353 1.6652347 -0.050067667 0
1.1023239 1.5860809 0.27322793 0
1.0031154 1.3903087 0.32804158 0
0.90015858 1.1871394 0.35016799 0
0.85069233 1.0895255 0.3890062 0
0.84110242 1.0706013 0.45822755 0
0.84042519 1.0692649 0.54113191 0
1.1245503 1.6736749 -0.050052267 0
1.0747135 1.5721799 0.26876161 0
0.98196763 1.3832992 0.32403266 0
0.88242871 1.1805841 0.34558317 0
0.84591764 1.1062278 0.39431188 0
0.83765155 1.0893935 0.46587056 0
0.84326202 1.1008195 0.55862868 0
1.0994699 1.6669643 -0.049446952 0
0.9700681 1.3948238 0.32535914 0
0.87874985 1.2027756 0.35169828 0
0.83931983 1.1198517 0.39820227 0
0.83987951 1.1210287 0.48060748 0
0.83951491 1.1202619 0.56804365 0
1.0879925 1.6888025 -0.049979538 0
0.95126075 1.3916556 0.32259372 0
0.86569107 1.2056947 0.35073701 0
0.83998138 1.1498221 0.40955836 0
0.83839971 1.146385 0.49178547 0
0.83444041 1.1377804 0.57617915 0
1.0709544 1.6990756 -0.050062891 0
0.93090713 1.3843471 0.3187539 0
0.85036606 1.2033471 0.34792331 0
0.83615506 1.1714107 0.41704872 0
0.83860427 1.1769148 0.50574458 0
0.83936292 1.1786199 0.59944862 0
1.0498925 1.7001472 -0.04979657 0
0.91122746 1.3776529 0.31517681 0
0.85183078 1.2395135 0.35914254 0
0.84065038 1.2135112 0.4337649 0
0.84060669 1.2134095 0.52287555 0
0.83940965 1.2106256 0.61684996 0
1.0355624 1.7169526 -0.050150115 0
0.89719504 1.3836474 0.31519216 0
0.85396618 1.2795157 0.37167838 0
0.8427093 1.2523997 0.44892859 0
0.83937293 1.244363 0.53690153 0
0.83965415 1.2450404 0.63570696 0
1.0120932 1.7116157 -0.0496573 0
0.8794145 1.3802928 0.31268668 0
0.85065264 1.3084692 0.38018185 0
0.84315568 1.289748 0.46331745 0
0.83812022 1.2771735 0.55186635 0
0.83923852 1.2799661 0.65479356 0
0.99654847 1.7258562 -0.049927391 0
0.86269236 1.3790007 0.31081879 0
0.85012257 1.3464291 0.39187083 0
0.84225196 1.3260344 0.47716287 0
0.84051192 1.3215255 0.5729568 0
0.84007591 1.3203956 0.67728966 0
0.97541261 1.725603 -0.049651697 0
0.84959888 1.3869532 0.31153318 0
0.84930646 1.3861661 0.40413833 0
0.83827853 1.3564824 0.48836997 0
0.8423214 1.3673646 0.59472656 0
0.8404882 1.3624302 0.70068961 0
0.96120685 1.7441796 -0.050101213 0
0.83249295 1.3838909 0.30930495 0
0.84290618 1.4130391 0.41180977 0
0.84094203 1.4075412 0.50861061 0
0.84059012 1.406556 0.61285448 0
0.93957728 1.7421063 -0.049776141 0
0.81574577 1.3812039 0.30724579 0
0.83870041 1.4481044 0.42235801 0
0.84004384 1.4520199 0.52586901 0
0.84241885 1.4589417 0.63789523 0
0.92572099 1.7629293 -0.050323226 0
1.0287833 2.0760911 0.34998077 0
0.80080271 1.3833563 0.30655172 0
0.83832341 1.4973657 0.43785337 0
0.83858413 1.4981579 0.54378426 0
0.83869678 1.4985 0.65606362 0
0.90737009 1.7707866 -0.050389349 0
1.0043979 2.0786121 0.34906504 0
0.7838012 1.3787582 0.30410504 0
0.843036 1.5666837 0.4602854 0
0.83910221 1.5542034 0.56593758 0
0.84047264 1.5585512 0.68493539 0
0.88499314 1.7654595 -0.049972236 0
0.98252076 2.0890253 0.34969726 0
0.76750165 1.3756603 0.30212456 0
0.83972031 1.6152588 0.47540411 0
0.83902681 1.6129581 0.5891757 0
0.86710697 1.7746874 -0.050107829 0
0.9604302 2.0990293 0.35030231 0
0.75595129 1.3883694 0.30440232 0
0.84138775 1.6853012 0.4979144 0
0.8390643 1.6772262 0.61470556 0
0.84943187 1.785059 -0.050293647 0
0.73910975 1.3826371 0.04739657 0
0.74031663 1.3870395 0.13110401 0
0.73697847 1.3748629 0.21366516 0
0.74005115 1.3860711 0.3027406 0
0.83404034 1.7289152 0.5112229 0
0.83373177 1.7277896 0.63426375 0
0.82769865 1.7803934 -0.049932297 0
0.7267679 1.3931714 0.047646083 0
0.72559994 1.3886906 0.13086687 0
0.72537446 1.3878255 0.21538304 0
0.72322267 1.3795701 0.30002919 0
0.83242589 1.7985293 0.53345877 0
0.83132786 1.7943169 0.66061693 0
0.81013519 1.7915435 -0.050163798 0
0.70752531 1.3765385 0.046901431 0
0.70614123 1.3709408 0.12850325 0
0.70840716 1.3801051 0.21328034 0
0.71064782 1.3891674 0.30161282 0
0.82684129 1.8591112 0.55253708 0
0.82494271 1.8514324 0.68288714 0
0.7908324 1.795989 -0.050156914 0
0.69509602 1.3867356 0.047151588 0
0.69632363 1.3919834 0.13045518 0
0.69441217 1.3838122 0.21333997 0
0.69377428 1.3810854 0.29860103 0
0.81757408 1.9103043 0.56837541 0
0.77048159 1.7956778 -0.04998504 0
0.67862403 1.379443 0.046767361 0
0.68217891 1.3955513 0.13049217 0
0.67829984 1.377974 0.21166915 0
0.67922324 1.3821582 0.29804507 0
0.80507976 1.9524525 0.581128 0
0.74947488 1.7916245 -0.049686529 0
0.66302407 1.3750303 0.046496712 0
0.66559887 1.3874379 0.1292665 0
0.66389322 1.3792186 0.21134469 0
0.6623522 1.3717928 0.29455793 0
0.7904042 1.9888569 0.59194922 0
0.7307207 1.7980703 -0.049780231 0
0.64846992 1.3750083 0.046393566 0
0.6499275 1.3825057 0.12841497 0
0.65197217 1.3930224 0.21336184 0
0.6511361 1.3887221 0.29822874 0
0.7771489 2.0368767 0.60674345 0
0.71548843 1.8243212 -0.050600894 0
0.63340563 1.371779 0.046180941 0
0.63607508 1.3864963 0.12856157 0
0.63593471 1.3857225 0.21153383 0
0.63654697 1.3890978 0.29763564 0
0.76369262 2.0900824 0.6233139 0
0.6931448 1.811849 -0.050024848 0
0.62112504 1.38419 0.046541885 0
0.62169802 1.3875922 0.12841141 0
0.62101233 1.3835208 0.21067905 0
0.62215996 1.3903352 0.29731429 0
0.74529958 2.1215477 0.6325717 0
0.67392242 1.8168268 -0.050090577 0
0.60751033 1.3896921 0.046658091 0
0.6063565 1.3822711 0.12758332 0
0.60646951 1.382998 0.21016671 0
0.60624796 1.3815731 0.29445851 0
0.72614855 2.1527231 0.64179188 0
0.65457457 1.8212754 -0.050145838 0
0.59173119 1.3806137 0.046254471 0
0.59198177 1.3823707 0.1273662 0
0.59296024 1.389232 0.21091959 0
0.59245175 1.3856666 0.29497263 0
0.70778459 2.1943877 0.65460163 0
0.63558197 1.8287889 -0.050320126 0
0.57736212 1.3802058 0.046170816 0
0.57784337 1.3839138 0.12732546 0
0.57811034 1.3859708 0.20997538 0
0.57768965 1.3827295 0.29372185 0
0.68803 2.2329004 0.66641068 0
0.61378407 1.8134109 -0.049679928 0
0.56416416 1.3893185 0.046436001 0
0.56325084 1.3815124 0.12687728 0
0.56414419 1.3891479 0.2102356 0
0.56339794 1.3827699 0.29328555 0
0.66692406 2.2675884 0.67700464 0
0.59583282 1.8306037 -0.050219558 0
0.55239445 1.4139563 0.13021463 0
0.55297434 1.4195182 0.21545824 0
0.55135578 1.4039935 0.29832983 0
0.64529878 2.3050663 0.68860686 0
0.57550764 1.8260746 -0.049987927 0
0.55255002 1.5752934 0.14747289 0
0.55209869 1.5703632 0.24251865 0
0.5525319 1.5750953 0.34180576 0
0.62155998 2.3291345 0.6958068 0
0.55558729 1.8246405 -0.049876537 0
0.603374 2.4305987 0.23952565 0
0.59965444 2.3834333 0.38935646 0
0.59787089 2.360817 0.54253078 0
0.53559643 1.8209995 -0.049695257 0
0.57449538 2.4085665 0.39354917 0
0.5736509 2.3958111 0.55098867 0
0.5160293 1.8229356 -0.049722496 0
0.54843587 2.4279144 0.39675143 0
0.54827034 2.4248242 0.55799073 0
0.49692032 1.8366085 -0.050177902 0
0.52169693 2.4417019 0.39900765 0
0.52152455 2.4374921 0.56089705 0
0.4770658 1.8354223 -0.050111037 0
0.45632637 1.1036115 0.35361478 0
0.45646116 1.1083673 0.42845431 0
0.45724675 1.8336926 -0.050033707 0
0.44602561 1.1208797 0.36066887 0
0.4458316 1.1085548 0.42843091 0
0.43747368 1.8302339 -0.049903564 0
0.43513843 1.0887055 0.41844922 0
0.43513095 1.0863299 0.49346286 0
0.41777959 1.8278002 -0.049818888 0
0.4247207 1.0927147 0.42047158 0
0.42477655 1.0868006 0.49376124 0
0.39827207 1.8194698 -0.049532473 0
0.41425481 1.0942147 0.42130443 0
0.41438526 1.0882961 0.49474505 0
0.37838817 1.8277507 -0.049848106 0
0.35225579 2.5821655 0.42426169 0
0.35245612 2.5763817 0.59622145 0
0.40504983 1.0580553 0.47697449 0
0.3585442 1.8304032 -0.049971711 0
0.32244116 2.5944555 0.42669636 0
0.32247269 2.5937881 0.6009717 0
0.39584482 1.041007 0.46709567 0
0.33892354 1.8278161 -0.049916949 0
0.29272309 2.5993676 0.42786771 0
0.29211545 2.6095154 0.60539281 0
0.38583979 1.0443105 0.46936932 0
0.31923339 1.8266777 -0.049922828 0
0.26078579 2.6325533 0.43422022 0
0.26186982 2.6176069 0.60796249 0
0.29944214 1.8266401 -0.049977038 0
0.22989507 2.6429508 0.43652761 0
0.22966544 2.6456461 0.61574012 0
0.28008586 1.821735 -0.049865644 0
0.19725877 2.667824 0.44153145 0
0.19817585 2.6584558 0.61972719 0
0.25892466 1.833832 -0.050373539 0
0.16634201 2.6707551 0.44263542 0
0.16585736 2.6751361 0.62481499 0
0.34725606 1.0353388 0.46600926 0
0.24060367 1.8199589 -0.049957611 0
0.13431905 2.6813533 0.445205 0
0.13378219 2.6857045 0.62844408 0
0.22165118 1.8128737 -0.049793843 0
0.10231523 2.6891165 0.44733635 0
0.10167708 2.6938021 0.63154715 0
0.20107487 1.8174461 -0.050059166 0
0.070523962 2.6934013 0.44891086 0
0.069471911 2.7004604 0.63438898 0
0.18206201 1.8111734 -0.049942166 0
0.037275627 2.7052784 0.45194873 0
0.03577517 2.7145443 0.63926047 0
0.16352619 1.802634 -0.049751416 0
0.0030198263 2.7204254 0.45566857 0
0.001897888 2.7268407 0.64378953 0
0.14287026 1.8060899 -0.05000443 0
-0.02854575 2.7184148 0.45632774 0
-0.029653443 2.7243102 0.64459091 0
0.12380512 1.8007082 -0.04994572 0
-0.088007823 2.8547299 0.10032795 0
-0.090416744 2.8667173 0.29126343 0
-0.061818466 2.7244067 0.45853376 0
-0.062667504 2.7286317 0.64728069 0
0.10397713 1.7990724 -0.050032377 0
-0.11407419 2.8175714 0.099218085 0
-0.111421 2.8051784 0.2852464 0
-0.096402839 2.7350302 0.4616771 0
-0.096443728 2.7352211 0.6506778 0
0.083236232 1.8011632 -0.050264843 0
-0.14373769 2.799747 0.098824888 0
-0.14586003 2.8090844 0.2864539 0
-0.12847085 2.7325797 0.4624919 0
-0.12700881 2.7261474 0.65009773 0
0.064683482 1.7934442 -0.050147373 0
-0.17497762 2.7896388 0.098727539 0
-0.17291285 2.7810559 0.28418308 0
-0.16421588 2.7449055 0.46612486 0
-0.16320057 2.7406852 0.65581262 0
0.047297165 1.7814555 -0.049880855 0
-0.20881011 2.7899978 0.099029906 0
-0.21134163 2.7999668 0.28714731 0
-0.19623198 2.7404654 0.46673343 0
-0.19593991 2.7393153 0.65747821 0
0.027482646 1.7792639 -0.049983565 0
-0.25240141 2.8260083 0.10066652 0
-0.24921598 2.814095 0.28964326 0
-0.22800519 2.7347682 0.46718445 0
-0.22979136 2.7414484 0.66018325 0
0.0060420497 1.7825811 -0.050300166 0
-0.26380771 2.7431626 0.4703517 0
-0.25854868 2.724442 0.65793848 0
-0.010656847 1.7689991 -0.049999017 0
-0.29469281 2.7332792 0.47017893 0
-0.29295903 2.7273934 0.66108966 0
-0.030112071 1.7650682 -0.0500651 0
-0.32679963 2.7274232 0.47083881 0
-0.32550555 2.7232256 0.66246796 0
-0.051504239 1.7669878 -0.050360058 0
-0.35979521 2.724009 0.47204044 0
-0.3591761 2.7220871 0.66477346 0
-0.064980075 1.7446904 -0.049754292 0
-0.39294964 2.7205245 0.47331274 0
-0.39481759 2.7260823 0.66858435 0
-0.084614173 1.741263 -0.049866047 0
-0.42423266 2.7111423 0.47354329 0
-0.42543423 2.7145739 0.66834217 0
-0.10651882 1.7438279 -0.050215378 0
-0.45894891 2.7110739 0.47563806 0
-0.45411742 2.6978137 0.66677731 0
-0.12535311 1.7375804 -0.050240468 0
-0.48987246 2.7001495 0.47573343 0
-0.48649412 2.6912284 0.66807908 0
-0.14254303 1.7270936 -0.050112128 0
-0.51781166 2.6815836 0.47442377 0
-0.5192917 2.6853483 0.66969216 0
-0.15860797 1.7140793 -0.049894009 0
-0.54859376 2.6704605 0.47462526 0
-0.55098528 2.6763253 0.67056113 0
-0.18041582 1.7150437 -0.050224327 0
-0.5862546 2.6755314 0.4780741 0
-0.58050644 2.6619275 0.67005622 0
-0.19720741 1.7039522 -0.050097346 0
-0.61487985 2.6587329 0.47733009 0
-0.61153471 2.6510861 0.6706422 0
-0.21823771 1.7024367 -0.050353151 0
-0.6401639 2.6347902 0.47523877 0
-0.64108336 2.636822 0.67038208 0
-0.22903182 1.6786064 -0.049741354 0
-0.67064178 2.6226273 0.47554374 0
-0.66605842 2.6128297 0.66748488 0
-0.25309801 1.6832256 -0.050259255 0
-0.70049858 2.6090691 0.47564775 0
-0.69639933 2.6005862 0.66798794 0
-0.26832372 1.6692983 -0.050052512 0
-0.73089194 2.5965426 0.47603583 0
-0.72757792 2.5898993 0.66904664 0
-0.2861293 1.6606951 -0.050065883 0
-0.75987625 2.5811486 0.47592226 0
-0.75551689 2.5726786 0.66834962 0
-0.30589706 1.6557626 -0.050236728 0
-0.7821002 2.5530391 0.473286 0
-0.78281629 2.5543883 0.6674403 0
-0.32083529 1.6417426 -0.050049063 0
-0.81027973 2.5365741 0.47308257 0
-0.81458473 2.5444448 0.66905159 0
-0.33680713 1.6298202 -0.049953699 0
-0.61751747 2.1280274 0.082369357 0
-0.83477402 2.5136161 0.47160676 0
-0.8352648 2.514487 0.66493011 0
-0.35571218 1.6230818 -0.050079867 0
-0.61660206 2.0727761 0.080640703 0
-0.86124909 2.4944727 0.47097954 0
-0.85844934 2.4896467 0.6623643 0
-0.37523335 1.6171954 -0.050252281 0
-0.60873568 2.0082538 0.078513026 0
-0.88523865 2.4713273 0.46957678 0
-0.88410687 2.4694319 0.6612401 0
-0.3901884 1.6036379 -0.050114874 0
-0.62013519 1.9779521 0.077798538 0
-0.90941489 2.4488504 0.46836829 0
-0.91140163 2.4520843 0.66106206 0
-0.41070718 1.5990621 -0.050363589 0
-0.62400162 1.9366633 0.076620385 0
-0.93472528 2.4284747 0.46766308 0
-0.93987215 2.4366212 0.66155463 0
-0.41608602 1.5708504 -0.049619079 0
-0.61498165 1.8770537 0.074654691 0
-0.9568851 2.40342 0.46601415 0
-0.96643734 2.4181259 0.66123742 0
-0.44240105 1.5749388 -0.050257701 0
-0.61976016 1.8406028 0.073661655 0
-0.97625303 2.374589 0.46359265 0
-0.97925401 2.3790841 0.65471673 0
-0.45678997 1.5608395 -0.050128739 0
-0.62349403 1.8038604 0.072649986 0
-1.0059265 2.3613698 0.46461764 0
-0.99904561 2.3513391 0.6516844 0
-0.47330302 1.5499072 -0.050144821 0
-0.61585903 1.7522162 0.070980519 0
-1.0178739 2.3227377 0.46012706 0
-1.0197645 2.3254209 0.64927262 0
-0.48877203 1.5375074 -0.050105505 0
-0.61652529 1.7140455 0.069885321 0
-0.61990106 1.7187105 0.19892873 0
-1.0467844 2.3086071 0.4610832 0
-1.0450977 2.3062763 0.64905375 0
-0.07505925 0.96581078 0.43921366 0
-0.50438648 1.5253446 -0.050084982 0
-0.62178731 1.6833495 0.069112651 0
-0.61795878 1.6781968 0.19529407 0
-1.0706111 2.2874022 0.46054029 0
-1.0638151 2.2782557 0.64611262 0
-0.092172638 0.97056359 0.44619486 0
-0.51675397 1.5089437 -0.049882747 0
-0.61767387 1.6412543 0.067823656 0
-0.6212585 1.6459539 0.19273899 0
-1.0742388 2.2398319 0.45407966 0
-1.0880616 2.2579544 0.64569521 0
-0.09329237 0.95376581 0.43981716 0
-0.53364664 1.4985492 -0.049957879 0
-0.61652696 1.6044178 0.066757984 0
-0.62148476 1.6107508 0.18976021 0
-1.0976017 2.2189262 0.45367265 0
-1.0950277 2.2156384 0.63823909 0
-0.10188557 0.94703221 0.43978029 0
-0.54872602 1.4858081 -0.049936 0
-0.62193668 1.5769373 0.066109285 0
-0.61834955 1.5724722 0.18632758 0
-1.1107819 2.1854284 0.45041621 0
-1.1126273 2.1877255 0.63544941 0
-0.12628938 0.95997918 0.45244321 0
-0.56001258 1.4684852 -0.049710646 0
-0.61698782 1.5376045 0.064908579 0
-0.62362826 1.5456603 0.18445069 0
-1.1352525 2.1663346 0.45053089 0
-1.1301363 2.1601279 0.63280773 0
-0.13519891 0.95312458 0.45259681 0
-0.5796032 1.461223 -0.049959891 0
-0.61863768 1.507381 0.064118043 0
-0.61534178 1.5034835 0.18040048 0
-1.138965 2.1226621 0.44491392 0
-1.1450166 2.129818 0.62930483 0
-0.15498079 0.95911169 0.46123993 0
-0.58679986 1.4394008 -0.049535315 0
-0.61627424 1.473377 0.06314113 0
-0.61864269 1.4761071 0.1783967 0
-1.1608049 2.1010749 0.44451937 0
-1.1630141 2.1036215 0.62721574 0
-0.6047858 1.4301499 -0.049711034 0
-0.6302557 1.4587736 0.063078925 0
-0.62975359 1.4582093 0.17773983 0
-1.1663035 2.0611987 0.43977123 0
-1.1722001 2.0678253 0.62190169 0
-0.61673331 1.4140939 -0.049570747 0
-0.65922046 1.4606482 0.063820906 0
-0.6591388 1.4605588 0.18004155 0
-1.1812607 2.0326626 0.43775389 0
-1.1735699 2.0242357 0.61387402 0
-0.64089072 1.4112231 -0.050080869 0
-0.50318557 1.2640995 0.05488655 0
-0.68870807 1.4623109 0.18233678 0
-1.1941285 2.0022995 0.43530759 0
-1.1894435 1.9972942 0.61157489 0
-0.65211129 1.3943508 -0.04991927 0
-0.49895799 1.2347975 0.05402346 0
-0.7163769 1.4613018 0.18430372 0
-1.2065772 1.9719863 0.43288422 0
-1.2018607 1.9670727 0.60815817 0
-0.66919124 1.3835888 -0.050068792 0
-0.51305801 1.224978 0.054122951 0
-0.74960685 1.4652804 0.18709956 0
-1.2063838 1.9293059 0.42734039 0
-1.2084405 1.9313952 0.6028012 0
-0.67247856 1.3590111 -0.049530204 0
-0.52682549 1.2147263 0.054210756 0
-0.77850103 1.4640373 0.18919726 0
-1.2196708 1.9010621 0.42542467 0
-1.2231106 1.9044696 0.60057837 0
-0.69092619 1.3496014 -0.049766105 0
-0.54150295 1.205264 0.054349117 0
-0.80846953 1.4631438 0.19143248 0
-1.2356104 1.875746 0.4242869 0
-1.2290564 1.8694152 0.59540874 0
-0.70266795 1.3336425 -0.049676176 0
-0.56891537 1.207659 0.055116307 0
-0.84072936 1.4636844 0.19398132 0
-1.2228094 1.8235708 0.41612145 0
-1.221931 1.8227434 0.58587432 0
-0.7117964 1.3153653 -0.049470406 0
-0.87257063 1.4630249 0.069263734 0
-0.87484014 1.4651092 0.19676992 0
-1.2282932 1.7897305 0.41268903 0
-1.2266474 1.7882191 0.58075643 0
-0.23170419 0.87443495 0.37941369 0
-0.73477709 1.3096832 -0.049941886 0
-0.90236855 1.459758 0.069973432 0
-0.90672791 1.4636617 0.19920398 0
-1.2357514 1.7582957 0.40987688 0
-1.2456295 1.7671412 0.58073127 0
-0.22976805 0.85745776 0.3740977 0
-0.75826705 1.3040001 -0.050435752 0
-0.93645859 1.4595691 0.070880741 0
-1.2361912 1.7212485 0.40551046 0
-1.2348523 1.7200797 0.57071781 0
-0.22967066 0.84251267 0.36996865 0
-0.76292717 1.2818296 -0.050044965 0
-0.97680771 1.4638622 0.072071932 0
-1.2447991 1.6919482 0.40323609 0
-1.2434356 1.6907877 0.56749701 0
-0.23436983 0.83197731 0.36859429 0
-0.25172663 0.8467496 0.45557949 0
-0.77425146 1.2655417 -0.049980395 0
-1.0060884 1.4578762 0.072734773 0
-1.2390145 1.6511143 0.39769962 0
-1.2376611 1.6499915 0.55967295 0
-0.25081635 0.83129412 0.37362567 0
-0.787503 1.2508668 -0.050014429 0
-1.0466245 1.4603852 0.073911153 0
-1.2501472 1.6249479 0.39626271 0
-1.2464262 1.6219392 0.55686802 0
-0.2474329 0.81418109 0.36805221 0
-0.80153024 1.2367684 -0.050091825 0
-1.0855584 1.4605703 0.075001642 0
-1.2538316 1.5931624 0.39320579 0
-1.2453793 1.5865024 0.55101895 0
-0.26763642 0.81608295 0.37508127 0
-0.80692947 1.2159731 -0.049788162 0
-1.1268585 1.4615978 0.07618805 0
-1.2624776 1.565719 0.39139789 0
-1.2363945 1.5456938 0.54281712 0
-0.25352412 0.79109776 0.36411774 0
-0.25114858 0.78927392 0.43726754 0
-0.8201369 1.2012814 -0.049847189 0
-1.1635203 1.4581063 0.07715597 0
-1.2456636 1.5195433 0.38395125 0
-1.2365303 1.5127122 0.53776246 0
-0.26150179 0.78346461 0.36484155 0
-0.28074652 0.79785818 0.45166487 0
-0.83402371 1.1870292 -0.04994389 0
-1.2222778 1.4698613 0.079092965 0
-1.2445203 1.4860643 0.38019949 0
-1.2433215 1.485191 0.5349865 0
-1.2402515 1.4829546 0.69453895 0
-0.26376855 0.77161467 0.36268282 0
-0.27562666 0.78025293 0.44437245 0
-0.84653854 1.1717163 -0.049987566 0
-1.2563604 1.4624326 0.07992617 0
-1.2384068 1.4496967 0.3754757 0
-1.2328255 1.4457376 0.52693653 0
-1.2321233 1.4452394 0.6850189 0
-0.28784245 0.77539295 0.37168935 0
-0.28014421 0.76993203 0.4431935 0
-0.85278833 1.1520355 -0.049767442 0
-1.2923495 1.4556012 0.080838948 0
-1.2478727 1.4248852 0.37430832 0
-1.2389351 1.4187127 0.52425969 0
-1.2388844 1.4186778 0.68179429 0
-0.28225869 0.75802153 0.44064286 0
-0.86291671 1.1351451 -0.049726725 0
-1.2805818 1.4158884 0.079693414 0
-1.2836651 1.4179609 0.22823381 0
-1.2592261 1.4015337 0.37362909 0
-1.2444398 1.3915948 0.52152455 0
-1.2383333 1.3874902 0.6758002 0
-0.28947622 0.74969369 0.44128105 0
-0.88372147 1.1252681 -0.050150905 0
-1.2710214 1.3785797 0.078672849 0
-1.2710634 1.3786073 0.22476782 0
-1.244714 1.3613734 0.36744511 0
-1.2362344 1.3558275 0.51473671 0
-1.2398658 1.3582026 0.67084038 0
-0.29476917 0.74006671 0.44082633 0
-0.89484191 1.1088715 -0.050167195 0
-1.2724568 1.349115 0.078145668 0
-1.2822405 1.3553395 0.22442168 0
-1.2473727 1.3331562 0.36508939 0
-1.2382506 1.3273526 0.51123077 0
-1.2431985 1.3305005 0.66677594 0
-0.30079192 0.73092902 0.44088018 0
-0.89773941 1.0873704 -0.049846862 0
-1.2958444 1.3336638 0.078559794 0
-1.2886117 1.3291892 0.22350806 0
-1.2523968 1.3067844 0.36332914 0
-1.2401379 1.2992003 0.50782132 0
-1.2394527 1.2987764 0.66011089 0
-0.9068917 1.0698909 -0.049800836 0
-1.3072491 1.3106608 0.078479722 0
-1.2993854 1.3059317 0.22319491 0
-1.2480022 1.2750305 0.35967022 0
-1.2397227 1.2700512 0.50385803 0
-1.2402363 1.2703601 0.65541017 0
-0.9214046 1.0555779 -0.049985941 0
-1.3288532 1.2936786 0.078834012 0
-1.3313291 1.2951255 0.22555573 0
-1.2496847 1.2474148 0.35739133 0
-1.249995 1.2475963 0.50319082 0
-1.23785 1.240499 0.64966083 0
-0.92925286 1.0373284 -0.049903568 0
-1.3771175 1.2915368 0.080289021 0
-1.3764027 1.2911311 0.22953916 0
-1.2554772 1.2224936 0.35605338 0
-1.238376 1.2127869 0.4961895 0
-1.2408365 1.2141836 0.64615226 0
-0.93969595 1.0205716 -0.049936939 0
-1.2519269 1.1926327 0.35286567 0
-1.2374904 1.1846772 0.49249142 0
-1.240862 1.1865351 0.64166939 0
-0.94405448 1.0005306 -0.049732313 0
-1.2557691 1.1672254 0.35128841 0
-1.2390325 1.1582752 0.48962331 0
-1.2441396 1.1610062 0.63857538 0
-0.96205306 0.98772371 -0.050087783 0
-1.2644508 1.144572 0.35076985 0
-1.2405401 1.13217 0.4868598 0
-1.235185 1.1293924 0.63103795 0
-0.97300899 0.97109151 -0.050166052 0
-1.267309 1.1190673 0.34913674 0
-1.2343014 1.1024709 0.48199582 0
-1.2413571 1.1060185 0.62932968 0
-0.96857905 0.94689947 -0.049641177 0
-1.2869917 1.1020076 0.3509534 0
-1.2416821 1.079936 0.4811331 0
-1.2400043 1.0791187 0.62495643 0
-0.98207831 0.93156958 -0.049839195 0
-1.2867002 1.0752428 0.34881943 0
-1.2385987 1.0525559 0.47740406 0
-1.2462237 1.0561522 0.62351936 0
-0.9954493 0.91602415 -0.050038639 0
-1.2995329 1.0547903 0.3493664 0
-1.2401745 1.0277026 0.47510001 0
-1.2325944 1.0242434 0.61493802 0
-1.0114497 0.90148175 -0.050347246 0
-1.3024691 1.0298836 0.34801042 0
-1.2397691 1.0022194 0.47234368 0
-1.2417232 1.0030817 0.61482644 0
-1.0188466 0.88303196 -0.050327431 0
-1.3220379 1.0122684 0.34998417 0
-1.2483076 0.9808405 0.47217193 0
-1.2416505 0.97800291 0.61148429 0
-1.0232183 0.86334914 -0.050199915 0
-1.3411279 0.99415404 0.35189772 0
-1.234905 0.95044833 0.46602234 0
-1.2430412 0.95379591 0.60879976 0
-1.0160621 0.83918548 -0.049639814 0
-1.3413118 0.9682461 0.35017776 0
-1.2422403 0.92893404 0.46570089 0
-1.2431569 0.9292978 0.60578167 0
-1.035724 0.82569391 -0.050119072 0
-1.3461404 0.94436687 0.34942606 0
-1.2449775 0.90569204 0.46419924 0
-1.2492037 0.90730774 0.60500073 0
-1.0411861 0.80661422 -0.050062418 0
-1.3653542 0.9258883 0.35150009 0
-1.2395985 0.87961787 0.46057788 0
-1.239758 0.87967658 0.59882969 0
-1.0511516 0.78916651 -0.050185677 0
-1.3734757 0.90317506 0.35148761 0
-1.2459955 0.85808432 0.46024853 0
-1.2377489 0.85516745 0.59543347 0
-1.0546231 0.76941824 -0.050071865 0
-1.3718272 0.87714171 0.34966895 0
-1.2404327 0.83251977 0.45677128 0
-1.232986 0.8299908 0.59119278 0
-1.0589075 0.7500158 -0.049998388 0
-1.379336 0.85435325 0.34965688 0
-1.2431623 0.81001252 0.45561978 0
-1.2355086 0.80752033 0.58962977 0
-1.0631572 0.73065358 -0.049933065 0
-1.3920882 0.83319712 0.35068968 0
-1.2359848 0.78453219 0.45190114 0
-1.2338411 0.7838639 0.58671153 0
-1.0669526 0.71120071 -0.049860157 0
-1.3940829 0.80868095 0.34974444 0
-1.2455343 0.76441556 0.45273501 0
-1.2530003 0.76664031 0.59113777 0
-1.0804955 0.69456959 -0.050158411 0
-1.3972255 0.78462446 0.34907579 0
-1.2438675 0.74102068 0.45065817 0
-1.2374473 0.73919523 0.58361709 0
-1.0770763 0.67312455 -0.049836032 0
-1.4047742 0.76185375 0.34928942 0
-1.2464813 0.71899354 0.44979784 0
-1.2285994 0.71415174 0.57855242 0
-1.0916613 0.65654343 -0.050188377 0
-1.406986 0.73767519 0.34856194 0
-1.2344557 0.69328386 0.44515684 0
-1.2331198 0.69294012 0.57820511 0
-1.0915685 0.63612318 -0.050007947 0
-1.4154916 0.71513236 0.34906167 0
-1.2379225 0.67182094 0.44468376 0
-1.2341458 0.67089969 0.57675374 0
-1.100679 0.6179527 -0.050174672 0
-1.4242338 0.69256866 0.34965634 0
-1.2396319 0.64999706 0.44382274 0
-1.2376301 0.64953542 0.57624084 0
-1.0909448 0.59556204 -0.049660817 0
-1.4334706 0.67002356 0.35039321 0
-1.2446887 0.62898439 0.44390991 0
-1.241766 0.62834901 0.57604283 0
-1.0872873 0.57477927 -0.049379997 0
-1.4273285 0.64422864 0.34834966 0
-1.2343445 0.60481393 0.44005543 0
-1.241616 0.60629904 0.57448083 0
-1.0977647 0.55689687 -0.049623147 0
-1.446263 0.62351382 0.35097516 0
-1.2462724 0.58528477 0.4420746 0
-1.2451041 0.58506143 0.57424897 0
-1.1128156 0.53965181 -0.050039772 0
-1.4488395 0.59950888 0.35064608 0
-1.2422976 0.5627169 0.44003189 0
-1.2408276 0.56245506 0.57148427 0
-1.1214561 0.521047 -0.050231442 0
-1.4500254 0.57531697 0.35011879 0
-1.2448767 0.54143244 0.43976176 0
-1.2450622 0.54146308 0.57169133 0
-1.1204426 0.50083226 -0.050082579 0
-1.458006 0.55223024 0.35088763 0
-1.2298597 0.51749229 0.43502033 0
-1.2306595 0.51761407 0.56571501 0
-1.1123129 0.47972837 -0.049686648 0
-1.4515804 0.52702302 0.34908488 0
-1.2379154 0.49723765 0.43630841 0
-1.2499499 0.49891528 0.57116807 0
-1.1208147 0.46100816 -0.049899418 0
-1.4639355 0.50444311 0.35075685 0
-1.2479242 0.4770987 0.43816239 0
-1.2448218 0.47670597 0.56850272 0
-1.1276469 0.44194376 -0.050060377 0
-0.51731759 0.37247962 0.040130161 0
-0.51120353 0.37178376 0.10807851 0
-0.52492911 0.37334591 0.17979355 0
-1.2360137 0.45427743 0.43445042 0
-1.2391129 0.45463017 0.56574047 0
-1.1365875 0.42297521 -0.0503054 0
-0.50862539 0.35950261 0.039772116 0
-0.51783347 0.36043334 0.10865664 0
-0.50934178 0.35957503 0.17673311 0
-1.2444886 0.43388155 0.43604442 0
-1.2313329 0.4325518 0.56238216 0
-1.1205596 0.40162349 -0.049663838 0
-0.46478128 0.34367076 0.038160466 0
-0.50789231 0.34748057 0.10746175 0
-0.50491589 0.34721756 0.17572829 0
-1.2457644 0.41268814 0.43585858 0
-1.2331479 0.4115732 0.56232518 0
-1.123106 0.38212842 -0.049697544 0
-0.50469011 0.33531681 0.10701188 0
-0.50437617 0.33529305 0.17545544 0
-1.2362045 0.39068952 0.4329688 0
-1.231401 0.39032593 0.56116796 0
-1.1348889 0.36318874 -0.050070416 0
-0.5037753 0.323401 0.10682518 0
-0.52241182 0.3245759 0.17856666 0
-1.2321035 0.3693175 0.43154764 0
-1.238374 0.3697128 0.56300777 0
-1.240908 0.36987257 0.70024419 0
-1.1256311 0.34292188 -0.049699448 0
-0.51988536 0.31238535 0.10848673 0
-0.50975853 0.31187484 0.17615855 0
-1.2269521 0.34802961 0.42992786 0
-1.2295465 0.34816042 0.55966949 0
-1.238273 0.34860033 0.69865614 0
-0.34959209 0.30380061 0.47043228 0
-1.134185 0.32358694 -0.049974121 0
-0.51091301 0.30003023 0.10746489 0
-0.5016579 0.29968041 0.17460211 0
-1.2297138 0.32719749 0.4303976 0
-1.2393148 0.32756037 0.56261426 0
-1.237679 0.32749853 0.69802541 0
-0.35974115 0.29431665 0.47619763 0
-1.1358169 0.30388072 -0.050010215 0
-0.40953422 0.28558487 0.42745849 0
-0.38490927 0.28496456 0.49094182 0
-1.1332681 0.28409323 -0.049905889 0
-0.40242153 0.27488834 0.42379922 0
-0.37364966 0.27452594 0.48414847 0
-1.1319668 0.26437622 -0.049854998 0
-0.38509119 0.26437423 0.415095 0
-0.38586521 0.26437426 0.491355 0
-0.89671957 -0.98929471 -0.089845188 0
-1.0200833 -0.98929507 -0.091346808 0
-1.1216979 -0.9892953 -0.083542295 0
-1.1283838 -0.98929536 -0.057743553 0
-1.1304685 -0.98929536 -0.031265054 0
-1.1317441 -0.98929536 -0.0047579315 0
-1.1336535 -0.98929536 0.021649214 0
-1.1362177 -0.98929536 0.048028816 0
-1.1286699 -0.98929536 0.074705668 0
-1.1411363 -0.98929536 0.10100301 0
-1.1250358 -0.98929536 0.12721495 0
-1.1309291 -0.98929536 0.15373054 0
-1.1236022 -0.98929536 0.17965342 0
-1.1343155 -0.98929536 0.20700411 0
-1.1319728 -0.98929536 0.23344725 0
-1.1181233 -0.9892953 0.25830755 0
-1.1352631 -0.98929536 0.28777918 0
-1.1211218 -0.9892953 0.31238464 0
-0.89456433 -1.0118972 -0.089447714 0
-1.0076168 -1.0147508 -0.089059241 0
-1.1317736 -1.0178849 -0.085257553 0
-1.1328136 -1.0179111 -0.058416862 0
-1.141511 -1.0181305 -0.032598171 0
-1.1274427 -1.0177754 -0.0043899696 0
-1.1318108 -1.0178857 0.021752814 0
-1.1312351 -1.0178713 0.048243992 0
-1.1325357 -1.017904 0.074607395 0
-1.1346426 -1.0179572 0.10100283 0
-1.1361692 -1.0179957 0.12748289 0
-1.1322787 -1.0178975 0.15381026 0
-1.1306134 -1.0178555 0.18016919 0
-1.1265706 -1.0177535 0.20631431 0
-1.1391782 -1.0180717 0.23433223 0
-1.1293753 -1.0178243 0.25994015 0
-1.1303973 -1.01785 0.28703845 0
-1.1386124 -1.0180575 0.31574842 0
-0.89564413 -1.0345831 -0.089859582 0
-1.0072138 -1.0402188 -0.089164935 0
-1.1246194 -1.0461493 -0.08425831 0
-1.1290102 -1.0463711 -0.058034066 0
-1.2450948 -1.0522349 -0.044847492 0
-1.222495 -1.0510933 -0.013374245 0
-1.2321848 -1.0515827 0.01465104 0
-1.2361344 -1.0517823 0.043303803 0
-1.2368884 -1.0518203 0.072152846 0
-1.239681 -1.0519614 0.10100586 0
-1.2374016 -1.0518463 0.12987073 0
-1.2500775 -1.0524865 0.15935862 0
-1.2433089 -1.0521446 0.18813992 0
-1.2342918 -1.0516891 0.21648879 0
-0.89589947 -1.0573189 -0.090218477 0
-1.0166014 -1.066474 -0.091241516 0
-1.1331413 -1.0753134 -0.085958429 0
-1.1364685 -1.0755658 -0.059338901 0
-1.2425257 -1.0836101 -0.044779006 0
-1.2427528 -1.0836272 -0.015452964 0
-1.2435117 -1.0836848 0.013719196 0
-1.2305163 -1.0826992 0.043474101 0
-1.243211 -1.083662 0.071959443 0
-1.2286004 -1.0825539 0.1010056 0
-1.2466518 -1.083923 0.13013306 0
-1.2337046 -1.0829409 0.1586864 0
-1.2348139 -1.0830251 0.18768291 0
-1.2325914 -1.0828565 0.21651381 0
-0.89983523 -1.0805277 -0.091487043 0
-1.0152974 -1.0922219 -0.091424651 0
-1.1497337 -1.1058377 -0.08911752 0
-1.2433769 -1.1153221 -0.074798711 0
-1.2492068 -1.1159126 -0.045889888 0
-1.2368761 -1.1146636 -0.015162086 0
-1.2491027 -1.1159019 0.013131136 0
-1.2314037 -1.1141094 0.043303952 0
-1.2288245 -1.1138482 0.072230749 0
-1.2522743 -1.1162232 0.10100636 0
-1.2400062 -1.1149807 0.13004261 0
-1.2457767 -1.1155651 0.15938109 0
