# .PCD v0.7 - Point Cloud Data file format
VERSION 0.7
FIELDS x y z intensity
SIZE 4 4 4 4
TYPE F F F F
COUNT 1 1 1 1
WIDTH 1359
HEIGHT 1
VIEWPOINT 0 0 0 1 0 0 0
POINTS 1359
DATA ascii
1.1297815 -0.99150878 0.26506129 0
1.127846 -0.98802263 0.37146622 0
1.1280581 -0.98840469 0.48271626 0
1.210384 -1.096041 -0.049947023 0
1.1437204 -0.97944921 0.057152182 0
1.1462069 -0.98379773 0.16051845 0
1.1446776 -0.98112327 0.26474825 0
1.1420892 -0.9765963 0.37071025 0
1.1503656 -0.99107128 0.4871324 0
1.2267922 -1.0850188 -0.04990061 0
1.1589043 -0.96968073 0.057122551 0
1.162166 -0.97522229 0.16058198 0
1.1578411 -0.96787435 0.26387274 0
1.1642606 -0.97878093 0.37403101 0
1.1656326 -0.98111182 0.48681521 0
1.2405115 -1.0696145 -0.049679525 0
1.2582779 -1.0609949 -0.04974933 0
1.279562 -1.0577693 -0.050057847 0
1.2960358 -1.0468378 -0.050050933 0
1.3111386 -1.0338838 -0.049965683 0
1.3251845 -1.0195093 -0.049826149 0
1.3420855 -1.0092969 -0.049875669 0
1.3576471 -0.99719375 -0.049851317 0
1.3684615 -0.9788081 -0.049554709 0
1.3890834 -0.97345108 -0.049849149 0
1.4069651 -0.96429974 -0.049985427 0
1.2090693 -0.71476835 0.050615329 0
1.2096498 -0.7155003 0.14040305 0
1.421577 -0.95097309 -0.049941234 0
1.2049992 -0.68483806 0.049691282 0
1.2126398 -0.69422698 0.13882197 0
1.4308896 -0.93134314 -0.04961193 0
1.2107342 -0.66766429 0.049348399 0
1.2038531 -0.65942276 0.13533504 0
1.444177 -0.91670614 -0.049519237 0
1.2114282 -0.64497316 0.048745818 0
1.2099866 -0.64328998 0.13443682 0
1.4661859 -0.91209 -0.049909651 0
1.1991746 -0.60818577 0.047467045 0
1.2104352 -0.6210022 0.13265906 0
1.4816252 -0.89976782 -0.049947418 0
1.2045131 -0.59226364 0.047169074 0
1.2091703 -0.59743172 0.13067628 0
1.493937 -0.88401777 -0.049828392 0
1.5186914 -0.88151222 -0.050367013 0
1.5252051 -0.85969239 -0.049966056 0
1.5394671 -0.84604114 -0.049975932 0
1.5523095 -0.83098716 -0.049923424 0
1.5612415 -0.81225008 -0.049688023 0
1.5773447 -0.80040544 -0.049816579 0
1.5946138 -0.78949159 -0.050007101 0
1.6142275 -0.78046721 -0.050313834 0
1.6215774 -0.76058155 -0.050044589 0
1.6343869 -0.74552745 -0.050044511 0
1.6519827 -0.73438954 -0.0502741 0
1.6592455 -0.71479267 -0.050035831 0
1.6693066 -0.69758111 -0.049937658 0
1.6798043 -0.68078339 -0.049869735 0
1.6884092 -0.66264415 -0.049727876 0
1.7036805 -0.64941663 -0.049890496 0
1.7234071 -0.63916373 -0.050253142 0
1.728624 -0.61871141 -0.049991459 0
1.7306392 -0.59635371 -0.049605876 0
1.7449213 -0.58222932 -0.04975659 0
1.7606479 -0.56888199 -0.049974527 0
1.772089 -0.55273688 -0.050018635 0
1.7804173 -0.53470647 -0.049941689 0
1.7910509 -0.51806289 -0.049969669 0
1.7923583 -0.49617687 -0.049624555 0
1.8064789 -0.48152044 -0.049813539 0
1.8209733 -0.46690676 -0.050023831 0
1.8236219 -0.44607314 -0.049765304 0
1.8320541 -0.42830202 -0.049749255 0
1.8465011 -0.41342333 -0.049980324 0
1.8574471 -0.39673713 -0.050079655 0
1.8673006 -0.37948039 -0.05014392 0
1.8724829 -0.36014488 -0.050034534 0
1.8860799 -0.34441403 -0.050260879 0
1.8955212 -0.32682815 -0.050333697 0
1.8970292 -0.3060936 -0.050110713 0
1.8915001 -0.28288403 -0.049630433 0
1.899392 -0.26487359 -0.049672823 0
1.9180309 -0.25055352 -0.050129697 0
1.9260128 -0.23234613 -0.050190501 0
1.9218811 -0.21023022 -0.049805775 0
1.9325143 -0.19289584 -0.049984012 0
1.9387656 -0.17415147 -0.050006792 0
1.9411521 -0.15431459 -0.049895059 0
1.9463224 -0.135291 -0.04989573 0
1.9669093 -0.12012688 -0.050472632 0
1.9601212 -0.098046638 -0.050050389 0
1.9552101 -0.076688804 -0.049708191 0
1.9575042 -0.057093333 -0.049639609 0
1.9697706 -0.039515357 -0.049943108 0
1.9789261 -0.021142136 -0.050141007 0
1.9843625 -0.0019857988 -0.050212152 0
1.973276 0.019846845 -0.049694613 0
1.9906788 0.037159372 -0.050215811 0
1.9835702 0.058105592 -0.0498612 0
1.9911947 0.077032231 -0.050046396 0
1.9930416 0.096714117 -0.050032452 0
1.9941807 0.11645632 -0.050002035 0
1.9975033 0.13600104 -0.050058775 0
2.004436 0.15533859 -0.050253473 0
2.0014138 0.1753815 -0.05010077 0
2.0014114 0.19518659 -0.050065085 0
1.9923912 0.21525359 -0.049716216 0
1.9959104 0.23484074 -0.049824208 0
2.0132444 0.25442019 -0.050434217 0
1.9993804 0.27423665 -0.049939245 0
2.0028 0.29403356 -0.050070222 0
1.9998746 0.31372619 -0.049983513 0
2.0041289 0.33367738 -0.0501622 0
2.0060298 0.35362446 -0.050265834 0
1.9907569 0.3724567 -0.049763933 0
1.9972919 0.39272577 -0.050051201 0
1.9992709 0.41276994 -0.050184574 0
1.9892154 0.43161893 -0.049895063 0
2.0054071 0.45342016 -0.050557453 0
1.9838333 0.47067353 -0.049870677 0
1.986483 0.49097291 -0.050064426 0
1.9783897 0.50970888 -0.049879462 0
1.9676646 0.52786386 -0.049607299 0
1.9740667 0.54898912 -0.049964592 0
1.9636983 0.5670591 -0.049722128 0
1.9590911 0.58617198 -0.049697511 0
1.9594016 0.60637182 -0.049861543 0
1.9623917 0.62732947 -0.050133701 0
1.9601752 0.64718354 -0.050224785 0
1.9480976 0.66450375 -0.049961276 0
1.9523537 0.68616754 -0.050310086 0
1.9396554 0.70315468 -0.050039876 0
1.9341912 0.72215116 -0.050046597 0
1.9334517 0.74266148 -0.050239325 0
1.9230466 0.7601037 -0.050078899 0
1.9174672 0.77910227 -0.050108399 0
1.9049214 0.79561275 -0.049882688 0
1.9043453 0.81644636 -0.050120216 0
1.8927135 0.83315665 -0.049945362 0
1.8773621 0.84823412 -0.049634464 0
1.8818692 0.87139457 -0.050097901 0
1.8699901 0.88780791 -0.049937528 0
1.8594984 0.90472329 -0.04983861 0
1.8527511 0.92330247 -0.049894836 0
1.8413054 0.93967682 -0.049774621 0
1.8431396 0.96253282 -0.050190844 0
1.834281 0.98026103 -0.050192606 0
1.8178964 0.99403024 -0.049899675 0
1.814414 1.0145725 -0.050135888 0
1.7979558 1.0280517 -0.049853522 0
1.7881205 1.0451193 -0.049848936 0
1.7766632 1.0612249 -0.049785879 0
1.7714185 1.081072 -0.049990591 0
1.7536708 1.0932487 -0.049680468 0
1.7462206 1.1118116 -0.049811792 0
1.744435 1.1342454 -0.050196841 0
1.7346257 1.1515447 -0.050250735 0
1.7204267 1.1658218 -0.050123259 0
1.7028276 1.1775476 -0.049852997 0
1.6995884 1.1996402 -0.050223939 0
1.6752247 1.2060572 -0.049664594 0
1.6722896 1.2286454 -0.050072577 0
1.6538728 1.2392483 -0.049790408 0
1.6477857 1.2596962 -0.050080419 0
1.6306002 1.2710898 -0.049867932 0
1.6245946 1.2919265 -0.050186802 0
1.6095815 1.3051033 -0.050092421 0
1.5979638 1.3212738 -0.050168559 0
1.5781312 1.3298811 -0.049854927 0
1.5678778 1.3473244 -0.05001545 0
1.551677 1.3591125 -0.049891833 0
1.5381354 1.3734493 -0.049908586 0
1.5247866 1.388006 -0.049944621 0
1.5158726 1.4072826 -0.050220732 0
1.0303581 0.89506608 0.29511079 0
1.4957148 1.4146854 -0.049921896 0
1.0423229 0.92413211 0.30489117 0
1.4868871 1.4343508 -0.050228033 0
1.4514688 1.3950481 0.060339186 0
1.4379539 1.3800511 0.16740415 0
1.4459798 1.3889571 0.27902117 0
1.0550402 0.95514172 0.31536379 0
1.4677929 1.4426632 -0.049996573 0
1.4123256 1.379532 0.058996357 0
1.4195942 1.3878049 0.16671501 0
1.4159801 1.3836914 0.27471507 0
1.0596447 0.97812116 0.32209364 0
1.4563245 1.4596324 -0.050185896 0
1.3938982 1.3867501 0.058759905 0
1.3927653 1.3854275 0.16463259 0
1.3887132 1.3806968 0.27108458 0
1.0544883 0.99049073 0.32407808 0
1.4394054 1.4702867 -0.050086297 0
1.3644906 1.3805617 0.057913244 0
1.3736281 1.3915056 0.16380329 0
1.3634151 1.3792735 0.2679424 0
1.0592246 1.0149462 0.33130825 0
1.4236462 1.4822599 -0.050058272 0
1.3454827 1.3862112 0.057637233 0
1.345708 1.386488 0.16147861 0
1.3444223 1.3849081 0.26654774 0
1.0571158 1.0318602 0.33520421 0
1.4088448 1.4954141 -0.050093427 0
1.3139433 1.3757505 0.05664086 0
1.320522 1.3840458 0.15957874 0
1.3229464 1.3871028 0.26443055 0
1.0549449 1.0491735 0.33924234 0
1.3941184 1.508711 -0.05014313 0
1.2938771 1.3789926 0.056290388 0
1.2980069 1.3843367 0.15811177 0
1.2997372 1.3865758 0.2617754 0
1.0471269 1.0596825 0.34039202 0
1.3816389 1.5250558 -0.050336897 0
1.2825322 1.3934126 0.056454085 0
1.2735544 1.3814875 0.15627451 0
1.2773749 1.3865621 0.2593275 0
1.0360001 1.0659442 0.33980337 0
1.3565955 1.5245039 -0.049787834 0
1.2511675 1.3807318 0.055422839 0
1.2514144 1.3810683 0.15481925 0
1.2484225 1.3769883 0.25482729 0
1.0345051 1.085269 0.34466746 0
1.3442842 1.5411202 -0.050010744 0
1.2393615 1.3941927 0.055565063 0
1.2434047 1.3998547 0.15595023 0
1.2499835 1.4090672 0.25967935 0
1.021013 1.0884306 0.342888 0
1.3329947 1.5594869 -0.050314598 0
1.2418883 1.428449 0.056616772 0
1.2366564 1.4209241 0.15738346 0
1.2452675 1.4333094 0.26276341 0
1.008984 1.0934644 0.34195176 0
1.309522 1.5602393 -0.049862709 0
1.2454643 1.4655845 0.0577823 0
1.2434355 1.4625866 0.16148789 0
1.2476654 1.4688369 0.2682918 0
1.006726 1.1128132 0.34683529 0
1.2972977 1.5774983 -0.050132848 0
1.2415847 1.4928985 0.05851642 0
1.2474487 1.5018028 0.16523261 0
1.2437212 1.4961429 0.27199265 0
1.1694307 1.3833331 0.34782723 0
0.99410939 1.1171085 0.34569308 0
1.2784811 1.5848264 -0.049986314 0
1.2476481 1.5366981 0.05994571 0
1.2439185 1.5308764 0.16764626 0
1.2281944 1.5063319 0.2720083 0
1.1551675 1.3923419 0.34777242 0
0.98772347 1.1309729 0.34840405 0
1.2660693 1.6022449 -0.050275363 0
1.2465869 1.5709742 0.060960017 0
1.2440101 1.5668383 0.17091891 0
1.2064716 1.5065861 0.26995447 0
1.1286558 1.3816861 0.34186116 0
0.97474867 1.1346536 0.34713361 0
1.2470502 1.6091543 -0.050130125 0
1.1896365 1.5143621 0.26956013 0
1.1076589 1.3790143 0.33847621 0
0.96409804 1.1419898 0.34735855 0
0.83867413 0.93491036 0.47091502 0
1.2250249 1.6107606 -0.049776226 0
1.175949 1.527383 0.27031085 0
1.0930703 1.3865763 0.33822453 0
0.95829743 1.1576037 0.3508293 0
0.84015781 0.95689034 0.48255816 0
1.2043437 1.6142207 -0.049512561 0
1.1586127 1.5342394 0.26981145 0
1.069052 1.3776011 0.33316875 0
0.94760269 1.1651913 0.35122728 0
0.83874923 0.97481108 0.41546285 0
0.83634281 0.97060239 0.48845682 0
1.1960913 1.6396916 -0.050160185 0
1.138238 1.535485 0.26820335 0
1.0554367 1.3863418 0.33340642 0
0.9351216 1.1696277 0.35047483 0
0.85138607 1.0188016 0.36327103 0
0.84053546 0.99925727 0.42655808 0
0.83955979 0.99749982 0.50329089 0
1.1781212 1.6480968 -0.050115589 0
1.1298639 1.5585356 0.27112585 0
1.037829 1.3877275 0.33156079 0
0.92009044 1.1692157 0.34795475 0
0.85126144 1.0414754 0.37148267 0
0.8404063 1.0213293 0.43621615 0
0.83656061 1.0141921 0.51112252 0
1.1541256 1.6449125 -0.049613558 0
1.1147569 1.5695921 0.27160999 0
1.0175028 1.3835245 0.32818243 0
0.91439217 1.186252 0.3520726 0
0.85536492 1.0733205 0.3839258 0
0.83641142 1.0370585 0.44223079 0
0.83963877 1.043233 0.52719158 0
1.1428444 1.666042 -0.050099976 0
1.0946666 1.5709707 0.27017289 0
0.99771738 1.3796564 0.3249948 0
0.90204376 1.1908594 0.35155547 0
0.84928042 1.0867393 0.38771296 0
0.8393631 1.067169 0.45630229 0
0.83648396 1.0614874 0.53596115 0
1.1184238 1.6611979 -0.049556021 0
1.0772966 1.5774406 0.26981857 0
0.97862387 1.3764894 0.32209712 0
0.88372737 1.1832289 0.34656343 0
0.84458101 1.1035056 0.39305627 0
0.83891755 1.0919718 0.46730772 0
0.84276009 1.0997972 0.5579533 0
1.103577 1.675602 -0.049788415 0
0.96073329 1.3751922 0.31981307 0
0.87661088 1.1982771 0.35004109 0
0.84165907 1.1247712 0.40045768 0
0.83995014 1.1211772 0.48068973 0
0.84079152 1.1229467 0.56980664 0
1.0935624 1.7009068 -0.050455235 0
0.94821781 1.3850427 0.3207365 0
0.86324996 1.2003896 0.34879416 0
0.83923811 1.1482068 0.40882215 0
0.83960605 1.1490066 0.49322939 0
0.84542829 1.1616595 0.59176785 0
1.0665537 1.6891856 -0.049676429 0
0.93272173 1.3884251 0.3198927 0
0.85679954 1.2178051 0.35318816 0
0.83941609 1.1787392 0.42036983 0
0.84037054 1.1808842 0.50791836 0
0.83880496 1.1773659 0.59863466 0
1.0492221 1.698588 -0.049735978 0
0.91549939 1.387588 0.31793597 0
0.846766 1.2277343 0.35487676 0
0.83960092 1.2110705 0.4326649 0
0.84287053 1.2186747 0.52574307 0
0.84129035 1.2149997 0.61967355 0
1.0355867 1.7170113 -0.050152391 0
0.8944602 1.3770596 0.31337231 0
0.8486107 1.2666154 0.36703134 0
0.8421694 1.2510992 0.4483456 0
0.84349209 1.2542855 0.54227698 0
0.83955324 1.2447972 0.6355508 0
1.0191625 1.7292689 -0.050336204 0
0.87920666 1.3797739 0.31254408 0
0.84602636 1.2969166 0.37604165 0
0.83899826 1.2793661 0.45868716 0
0.84194863 1.2867336 0.55701894 0
0.83960104 1.2808714 0.6553719 0
0.9987939 1.7316746 -0.050150052 0
0.86618263 1.3880448 0.31329212 0
0.85490102 1.3588113 0.39628643 0
0.83897454 1.3175416 0.4733938 0
0.83944285 1.3187553 0.57147115 0
0.84359032 1.3295023 0.68307865 0
0.97846878 1.7338291 -0.049964998 0
0.84840959 1.3837521 0.31066194 0
0.84620762 1.377825 0.40117797 0
0.84223086 1.3671207 0.49306878 0
0.84109956 1.3640758 0.59297115 0
0.84254771 1.3679737 0.70419669 0
0.96147627 1.7449336 -0.050129801 0
0.83148092 1.3810581 0.30853745 0
0.83979338 1.404326 0.40873152 0
0.84021974 1.4055194 0.50772166 0
0.83765393 1.3983372 0.60848778 0
0.94042486 1.7445766 -0.049869377 0
0.81462067 1.3779249 0.30636132 0
0.83981609 1.4513561 0.42350173 0
0.84029931 1.4527643 0.52619487 0
0.83920127 1.4495641 0.63293475 0
0.92257994 1.7533848 -0.049964499 0
1.02861 2.0755646 0.34988078 0
0.80227309 1.3878242 0.30775177 0
0.83831942 1.4973536 0.43784913 0
0.84023637 1.5031782 0.54597253 0
0.83832067 1.4973572 0.65546167 0
0.90776205 1.7720304 -0.050435901 0
1.0043719 2.0785298 0.34904945 0
0.78398281 1.3793344 0.30425918 0
0.83731383 1.5485297 0.45395279 0
0.84079194 1.5595642 0.56826484 0
0.83971006 1.5561318 0.68366611 0
0.88670653 1.7711443 -0.050184201 0
0.97997552 2.0805809 0.34810668 0
0.77194333 1.3903965 0.30605128 0
0.84144837 1.6209919 0.47739625 0
0.83998263 1.616129 0.59054691 0
0.86633611 1.7720083 -0.050008304 0
0.95857441 2.0925796 0.34909192 0
0.75369632 1.3805323 0.3023217 0
0.84189707 1.6870713 0.4985272 0
0.83763188 1.6722478 0.61256075 0
0.84686393 1.7756919 -0.049946893 0
0.73996788 1.3857675 0.047512449 0
0.73985559 1.3853577 0.13091661 0
0.73943692 1.3838304 0.21534212 0
0.73753542 1.3768944 0.30031297 0
0.83719307 1.7404155 0.51519012 0
0.83527124 1.7334051 0.63667452 0
0.8304432 1.7909228 -0.050320771 0
0.72205085 1.3750743 0.046978403 0
0.72658485 1.392469 0.13128652 0
0.7268284 1.3934034 0.21642263 0
0.72596025 1.3900728 0.3027983 0
0.83143324 1.7947211 0.53214949 0
0.83248472 1.7987552 0.662516 0
0.80921394 1.7878176 -0.050026771 0
0.71009105 1.3869157 0.047283065 0
0.70900357 1.3825173 0.12978484 0
0.70901453 1.3825618 0.21373673 0
0.70773834 1.3774 0.29852018 0
0.82195669 1.8393556 0.54576653 0
0.82439417 1.8492138 0.68194091 0
0.791897 1.80054 -0.050323773 0
0.69330889 1.3790958 0.046871476 0
0.694718 1.3851194 0.12969762 0
0.69755518 1.3972479 0.21582851 0
0.69441378 1.383819 0.2993173 0
0.82021129 1.9215777 0.57222724 0
0.76915503 1.7896667 -0.04976527 0
0.678792 1.3802042 0.046795189 0
0.67930162 1.3825133 0.12905727 0
0.68084335 1.3894995 0.21379778 0
0.67954689 1.3836247 0.29842824 0
0.80333209 1.9445333 0.57842994 0
0.75053889 1.7967517 -0.049873479 0
0.66612899 1.3899925 0.047042262 0
0.66274154 1.3736689 0.12775522 0
0.66318542 1.3758079 0.21071647 0
0.66553533 1.3871318 0.29855481 0
0.79026997 1.9882103 0.59172952 0
0.7333762 1.8117291 -0.050276991 0
0.65118849 1.3889916 0.046902135 0
0.64843255 1.3748163 0.12757315 0
0.64850271 1.3751771 0.21008323 0
0.65193796 1.3928463 0.2993007 0
0.77829784 2.0427864 0.60874635 0
0.71214962 1.8059137 -0.049933001 0
0.63545209 1.3830618 0.046590324 0
0.63380462 1.3739789 0.12719437 0
0.63584673 1.3852376 0.21144494 0
0.63779199 1.395962 0.2994155 0
0.7631247 2.0869515 0.62225527 0
0.69289726 1.8103788 -0.049971621 0
0.62133265 1.3854227 0.046586514 0
0.62132263 1.3853631 0.12816848 0
0.62245446 1.3920844 0.21224523 0
0.61932236 1.3734857 0.29295489 0
0.74502087 2.1198926 0.63201338 0
0.67251152 1.8077525 -0.049762718 0
0.60582662 1.3788632 0.046266846 0
0.60587293 1.379161 0.12724508 0
0.6074779 1.3894837 0.21135044 0
0.60641998 1.3826796 0.29474419 0
0.72842234 2.1673474 0.64671576 0
0.65382963 1.8160518 -0.049957465 0
0.59227473 1.384425 0.046391919 0
0.590747 1.3737128 0.12642631 0
0.59160066 1.3796986 0.20918286 0
0.59298897 1.3894334 0.29594338 0
0.7087146 2.2009091 0.65679324 0
0.63446701 1.8201979 -0.050010845 0
0.57804686 1.3854815 0.046360742 0
0.57690853 1.376711 0.12654489 0
0.57655472 1.3739845 0.20779553 0
0.57809281 1.3858356 0.29452097 0
0.68949723 2.2442052 0.67020333 0
0.61432672 1.8180484 -0.049846623 0
0.56227899 1.3732063 0.045856852 0
0.56320268 1.381101 0.12683277 0
0.56296891 1.3791032 0.20841168 0
0.56345922 1.3832934 0.29342002 0
0.66752481 2.272723 0.67872453 0
0.59555495 1.8279384 -0.050123889 0
0.55182308 1.4084759 0.12962244 0
0.55051255 1.3959056 0.21117666 0
0.55222809 1.4123608 0.30047616 0
0.64537436 2.3057909 0.68884927 0
0.57533455 1.8241838 -0.049920142 0
0.55188626 1.5680429 0.14669043 0
0.55282676 1.5783163 0.24395899 0
0.55171508 1.5661725 0.33951977 0
0.62249297 2.3393257 0.69921154 0
0.55560839 1.824908 -0.049886119 0
0.60260028 2.420788 0.23846802 0
0.59928524 2.3787513 0.38850945 0
0.59812266 2.3640094 0.54334784 0
0.53622174 1.8304451 -0.050033215 0
0.57412058 2.4029052 0.39252594 0
0.57343674 2.3925755 0.55016142 0
0.51665503 1.8346179 -0.050140165 0
0.54840517 2.4273405 0.39664778 0
0.54814678 2.4225168 0.55740124 0
0.49622473 1.8196203 -0.049570892 0
0.52179796 2.4441693 0.39945301 0
0.52229416 2.4562883 0.5656966 0
0.47708654 1.8361545 -0.050137185 0
0.45625222 1.1009945 0.35253084 0
0.45651761 1.1103587 0.42945111 0
0.45717075 1.8288651 -0.049861338 0
0.44593877 1.1153619 0.35838407 0
0.44592264 1.1143385 0.43132511 0
0.43747938 1.8320448 -0.049968213 0
0.43513608 1.0879577 0.41807508 0
0.43513945 1.0890279 0.49506289 0
0.41778824 1.8268851 -0.049786214 0
0.42462566 1.1027808 0.42550832 0
0.42485633 1.0783507 0.48874983 0
0.39772579 1.8442574 -0.050417636 0
0.41405192 1.1034216 0.35348099 0
0.4140175 1.1049839 0.42669407 0
0.41453975 1.0812846 0.49058592 0
0.37809706 1.8361546 -0.050148316 0
0.35270587 2.5691719 0.42191696 0
0.35201877 2.5890081 0.59944475 0
0.40538809 1.0482898 0.4711796 0
0.35840562 1.8333361 -0.050076537 0
0.32250029 2.593204 0.42647043 0
0.32253864 2.592392 0.60061508 0
0.39568827 1.0443202 0.46906278 0
0.33858398 1.8334869 -0.050119765 0
0.2915737 2.6185625 0.43133566 0
0.29160941 2.6179664 0.60755283 0
0.3861661 1.038861 0.46613175 0
0.31982347 1.8185416 -0.049631596 0
0.26122263 2.6265304 0.43313113 0
0.2612713 2.6258593 0.61007345 0
0.2989074 1.8329169 -0.050201938 0
0.35608786 1.1617595 0.038153954 0
0.2292031 2.6510727 0.4379977 0
0.23009948 2.6405513 0.61443561 0
0.28002176 1.8223898 -0.049889132 0
0.19807214 2.6595154 0.44002581 0
0.19724828 2.6679311 0.62215614 0
0.26004326 1.8237201 -0.050010331 0
0.16651438 2.6691966 0.44235262 0
0.16615103 2.6724813 0.62413359 0
0.34718803 1.0359539 0.4663763 0
0.24076627 1.8186412 -0.049910206 0
0.13411911 2.6829739 0.44549948 0
0.13595603 2.6680861 0.62391502 0
0.22103292 1.8174133 -0.04995741 0
0.10296838 2.6843204 0.44646341 0
0.10176419 2.6931624 0.63138247 0
0.20219542 1.8099276 -0.049787782 0
0.068243727 2.7087011 0.45170063 0
0.069290802 2.7016754 0.63470238 0
0.18188344 1.8122762 -0.049982049 0
0.034348384 2.7233551 0.45525131 0
0.035969749 2.7133427 0.63894987 0
0.16410924 1.7993 -0.049630582 0
0.0038570033 2.7156384 0.45479214 0
0.0041515394 2.7139542 0.64045185 0
0.14266326 1.8071916 -0.050044451 0
-0.02899052 2.720782 0.45676214 0
-0.030765487 2.7302289 0.6461274 0
0.12240218 1.8076894 -0.050199945 0
-0.087275043 2.8510835 0.10019517 0
-0.088115588 2.8552663 0.29000819 0
-0.061678395 2.7237096 0.45840552 0
-0.064790621 2.7391968 0.65003008 0
0.10493551 1.794596 -0.049868938 0
-0.11409654 2.8176756 0.099221893 0
-0.11464109 2.8202193 0.28689945 0
-0.097328201 2.7393525 0.46247429 0
-0.095123604 2.7290547 0.64906895 0
0.08643578 1.7870866 -0.049749471 0
-0.14164819 2.790554 0.098488316 0
-0.14247842 2.7942069 0.28481424 0
-0.12918659 2.7357285 0.46307427 0
-0.1305631 2.7417846 0.65418899 0
0.066778377 1.7847364 -0.049827624 0
-0.17706437 2.7983127 0.099046044 0
-0.17276676 2.7804489 0.28411597 0
-0.1632718 2.7409813 0.46539694 0
-0.16033436 2.7287714 0.6526863 0
0.045964882 1.786702 -0.050074108 0
-0.20857741 2.7890813 0.09899614 0
-0.20968623 2.793448 0.28642452 0
-0.19760425 2.7458694 0.46773893 0
-0.19604947 2.7397468 0.65759176 0
0.025408315 1.7870216 -0.050270259 0
-0.25251275 2.8264246 0.1006819 0
-0.25263113 2.8268673 0.29106411 0
-0.22846891 2.7365026 0.46750826 0
-0.22959681 2.7407207 0.65999103 0
0.01050921 1.7666794 -0.049710475 0
-0.26001585 2.7296646 0.46782312 0
-0.2607016 2.7321057 0.65996939 0
-0.0086459946 1.7621725 -0.049744945 0
-0.29288495 2.7271416 0.46902502 0
-0.29135197 2.7219372 0.65963852 0
-0.031119002 1.7683344 -0.050187122 0
-0.32703954 2.7282014 0.47098568 0
-0.32604223 2.7249665 0.66293275 0
-0.046034619 1.7500086 -0.049723204 0
-0.35903984 2.721664 0.47159615 0
-0.35782444 2.7178912 0.66364872 0
-0.06824185 1.7543955 -0.050119821 0
-0.39137894 2.7158511 0.47242355 0
-0.39545923 2.7279913 0.6690982 0
-0.08468546 1.7414668 -0.049873751 0
-0.42239243 2.7058871 0.4725391 0
-0.42490709 2.7130685 0.66793525 0
-0.10829641 1.7487066 -0.050400753 0
-0.45522797 2.7008617 0.47367784 0
-0.45410466 2.6977787 0.66676784 0
-0.11893399 1.7206297 -0.049593367 0
-0.49119884 2.7036519 0.47640887 0
-0.48881525 2.6973577 0.66975123 0
-0.14409561 1.7310425 -0.050263617 0
-0.52206254 2.6923959 0.47651902 0
-0.5191738 2.6850483 0.66960996 0
-0.1568469 1.7097605 -0.049727499 0
-0.54950154 2.6726868 0.47505885 0
-0.55251938 2.6800876 0.67159766 0
-0.18048985 1.715219 -0.050231121 0
-0.58309782 2.6680603 0.47661138 0
-0.58223796 2.6660254 0.67119122 0
-0.1935481 1.6955872 -0.04977138 0
-0.61310458 2.6546745 0.47653121 0
-0.61333513 2.6552017 0.67178828 0
-0.21187933 1.6883862 -0.04980256 0
-0.6399138 2.6342378 0.4751294 0
-0.63865757 2.6314616 0.668881 0
-0.23086639 1.682528 -0.049895924 0
-0.66932404 2.6198103 0.47498289 0
-0.66815317 2.6173074 0.66874611 0
-0.25325102 1.6835421 -0.050271805 0
-0.69940424 2.6068046 0.47519419 0
-0.69911325 2.6062024 0.66957933 0
-0.2698403 1.6723384 -0.050173804 0
-0.73023677 2.5952291 0.47577116 0
-0.72819102 2.5911286 0.66939706 0
-0.2841512 1.6568519 -0.049911566 0
-0.75681901 2.5752084 0.47471741 0
-0.75350893 2.5687773 0.66723019 0
-0.30184013 1.6481183 -0.049927767 0
-0.7852031 2.5588856 0.47447971 0
-0.78459406 2.5577381 0.66840786 0
-0.31728005 1.6352427 -0.049784563 0
-0.81163716 2.5390558 0.4735927 0
-0.80463755 2.5262589 0.66376305 0
-0.33394796 1.6247458 -0.049745757 0
-0.61525106 2.1240048 0.082204528 0
-0.837497 2.5184488 0.47260714 0
-0.83785975 2.5190928 0.66627884 0
-0.35859615 1.6280528 -0.050285041 0
-0.61652386 2.0726414 0.080635145 0
-0.86227953 2.4962487 0.47134987 0
-0.86345828 2.4982805 0.66491091 0
-0.37210876 1.6119624 -0.050034687 0
-0.62065029 2.0282078 0.079342745 0
-0.88501513 2.470953 0.46949816 0
-0.88621068 2.4729552 0.66228706 0
-0.39018273 1.6036286 -0.050114486 0
-0.62077653 1.9789962 0.07784228 0
-0.9184047 2.463484 0.47146568 0
-0.90897536 2.4481347 0.65987945 0
-0.40850592 1.595578 -0.050216455 0
-0.61750996 1.9263883 0.076186478 0
-0.94242406 2.4406602 0.47026262 0
-0.93343353 2.42643 0.65847909 0
-0.42145085 1.5791097 -0.04997069 0
-0.61852002 1.8825011 0.074886598 0
-0.95772278 2.4047096 0.46629149 0
-0.96015418 2.4084527 0.65829456 0
-0.4355793 1.5647206 -0.049819071 0
-0.61666155 1.8359615 0.073462419 0
-0.97387004 2.3710194 0.46281862 0
-0.98785448 2.3919666 0.65866864 0
-0.45775801 1.5622507 -0.050189838 0
-0.61619532 1.7932204 0.072189339 0
-1.0048554 2.3598084 0.46427616 0
-1.0016069 2.355073 0.65283966 0
-0.46995485 1.5451556 -0.049937297 0
-0.61881804 1.7564156 0.071163923 0
-1.0168749 2.3213198 0.45981425 0
-1.0244958 2.3321352 0.65136826 0
-0.4796896 1.5249567 -0.049552411 0
-0.62004757 1.718913 0.070099816 0
-0.61846197 1.7167219 0.1986649 0
-1.0431641 2.3036044 0.45996952 0
-1.0406003 2.3000615 0.64709657 0
-0.071689084 0.96115363 0.43633738 0
-0.5064227 1.5280851 -0.05020687 0
-0.61459517 1.6736698 0.068682119 0
-0.62152445 1.6829956 0.19593658 0
-1.0577528 2.2700968 0.4566521 0
-1.0607327 2.2741072 0.64479405 0
-0.086700812 0.96319932 0.44160447 0
-0.51853925 1.5112842 -0.049987841 0
-0.61915529 1.6431965 0.067910857 0
-0.61635745 1.6395284 0.19187051 0
-1.0807831 2.2484119 0.45602578 0
-1.0813216 2.2491179 0.64285976 0
-0.096318915 0.95773381 0.44231412 0
-0.53222847 1.4967377 -0.049875747 0
-0.62056005 1.6095695 0.066991568 0
-0.61624575 1.6040585 0.18884683 0
-1.0911041 2.2106264 0.45177168 0
-1.0955735 2.2163355 0.63846499 0
-0.11356159 0.96194685 0.44925743 0
-0.54921627 1.4864185 -0.049963947 0
-0.62114716 1.5759546 0.066064283 0
-0.62039173 1.5750142 0.18667802 0
-1.112941 2.1881161 0.45103797 0
-1.1154522 2.1912417 0.6366002 0
-0.12852515 0.96276218 0.45422933 0
-0.5686084 1.4789132 -0.050193116 0
-0.61561954 1.5359446 0.064831786 0
-0.6170584 1.53769 0.18334064 0
-1.1262479 2.1554108 0.44797775 0
-1.128709 2.1583962 0.63223517 0
-0.13471557 0.95253825 0.45221663 0
-0.57565176 1.4565505 -0.049741417 0
-0.61707222 1.5055298 0.064031489 0
-0.6228348 1.5123439 0.18164754 0
-1.1475185 2.1327765 0.44730291 0
-1.1516336 2.1376426 0.63191926 0
-0.15169241 0.9552232 0.45869195 0
-0.59317887 1.4467542 -0.049882859 0
-0.61958706 1.4771957 0.063321613 0
-0.62155402 1.4794632 0.17887416 0
-1.1596452 2.0997381 0.44420022 0
-1.1591567 2.099175 0.62571388 0
-0.60805905 1.4338285 -0.049886826 0
-0.63399494 1.4629757 0.063279741 0
-0.63199675 1.4607302 0.17810249 0
-1.1729481 2.068666 0.44157389 0
-1.1715784 2.0671268 0.62166309 0
-0.62366855 1.421693 -0.049938045 0
-0.65586019 1.4569662 0.063642941 0
-0.66232252 1.4640473 0.18054913 0
-1.1780764 2.0291736 0.43690196 0
-1.1793195 2.0305357 0.61605006 0
-0.64218771 1.4126087 -0.050148632 0
-0.50790441 1.2691411 0.055133082 0
-0.68699944 1.4604855 0.18206808 0
-1.1871445 1.994838 0.43346438 0
-1.1910746 1.9990369 0.61218393 0
-0.65229297 1.39454 -0.049928635 0
-0.50569952 1.2418208 0.054371018 0
-0.72064126 1.4657445 0.18496554 0
-1.2075602 1.9730104 0.43314025 0
-1.2029963 1.9682559 0.6085766 0
-0.66002953 1.3742818 -0.049602542 0
-0.51275569 1.2246708 0.054107569 0
-0.73841226 1.4539082 0.18538462 0
-1.2101669 1.9331491 0.42831299 0
-1.209829 1.9328058 0.60330617 0
-0.67384779 1.3603674 -0.049599014 0
-0.52762944 1.2155228 0.054251157 0
-0.77818763 1.4637269 0.18914986 0
-1.2214329 1.9028077 0.42587197 0
-1.2231915 1.9045498 0.60060745 0
-0.68996119 1.3486692 -0.049718201 0
-0.5416643 1.2054198 0.054357126 0
-0.81194401 1.4665 0.19195165 0
-1.2154992 1.8563194 0.41924405 0
-1.2245359 1.8650486 0.59380525 0
-0.71237648 1.342787 -0.050152328 0
-0.56227589 1.2014052 0.054790676 0
-0.84323955 1.4660487 0.19435191 0
-1.2301198 1.8304566 0.41793263 0
-1.2264884 1.8270361 0.58747166 0
-0.73232496 1.3342192 -0.050465502 0
-0.87162948 1.4621606 0.069218121 0
-0.86521018 1.4562649 0.19536476 0
-1.2366879 1.7974405 0.41474465 0
-1.2318014 1.7929527 0.58254182 0
-0.2453586 0.88697553 0.38708964 0
-0.7293241 1.3048003 -0.049680561 0
-0.89895129 1.4566979 0.06980966 0
-0.89777756 1.4556469 0.19791281 0
-1.2329116 1.7557526 0.40918937 0
-1.2355573 1.7581218 0.57728183 0
-0.22856124 0.85637707 0.37342697 0
-0.74753058 1.2946267 -0.049926918 0
-0.93354535 1.4570258 0.070742674 0
-1.2373689 1.7222768 0.40579244 0
-1.235948 1.7210362 0.57108891 0
-0.23262919 0.84509557 0.37159473 0
-0.75826275 1.2778598 -0.049826298 0
-0.98000717 1.4665852 0.07222192 0
-1.2442231 1.6914579 0.40309969 0
-1.2372071 1.6854866 0.56541032 0
-0.24063434 0.837309 0.37200022 0
-0.24611731 0.84197551 0.45189404 0
-0.77064991 1.2625538 -0.04981333 0
-1.0109023 1.46187 0.072958089 0
-1.2461349 1.6570214 0.39936814 0
-1.2441639 1.6553862 0.56182861 0
-0.25968426 0.83865106 0.37839633 0
-0.78301859 1.2472408 -0.049808543 0
-1.0475153 1.4611055 0.073952049 0
-1.2471864 1.6225539 0.39557603 0
-1.2424067 1.6186892 0.5555492 0
-0.24811561 0.81473309 0.36841574 0
-0.79401135 1.2308438 -0.049750075 0
-1.0901576 1.4641944 0.07521069 0
-1.2484826 1.5889477 0.39197764 0
-1.240885 1.5829612 0.54955912 0
-0.27032387 0.81820053 0.37649786 0
-0.81396651 1.2213758 -0.050104901 0
-1.1282121 1.4626369 0.076248974 0
-1.2619365 1.5653036 0.39127487 0
-1.2388535 1.5475817 0.54360807 0
-0.26828295 0.80242878 0.37182164 0
-0.24977233 0.78821725 0.4363994 0
-0.81700873 1.1989418 -0.049707726 0
-1.1676409 1.4611882 0.077339672 0
-1.2502235 1.5229537 0.3849782 0
-1.2405393 1.5157107 0.53903973 0
-0.26914597 0.78918189 0.36879382 0
-0.2809037 0.79797578 0.45176306 0
-0.83289361 1.186206 -0.049893972 0
-1.2054249 1.4575844 0.078348577 0
-1.2508161 1.4906505 0.38160425 0
-1.2339156 1.478339 0.53201747 0
-1.2395426 1.4824381 0.69424713 0
-0.26641917 0.77354556 0.36404055 0
-0.27449399 0.77942783 0.44367132 0
-0.845204 1.1707697 -0.049929149 0
-1.2480198 1.456516 0.079561092 0
-1.2520652 1.4593856 0.37849584 0
-1.238023 1.4494245 0.52856231 0
-1.2493523 1.4574612 0.69204664 0
-0.2770499 0.76773703 0.36621073 0
-0.27853101 0.76878768 0.44220388 0
-0.86636603 1.1614124 -0.050356545 0
-1.3037783 1.4634942 0.081334822 0
-1.2562978 1.4307036 0.3761549 0
-1.2369565 1.4173462 0.52364618 0
-1.2418108 1.4206988 0.68297744 0
-0.28555739 0.76029962 0.44264868 0
-0.86965621 1.1396751 -0.050016642 0
-1.2726916 1.4105848 0.079354003 0
-1.2690057 1.4081073 0.22633556 0
-1.2477715 1.3938342 0.37113994 0
-1.2393759 1.388191 0.51996785 0
-1.2418183 1.3898326 0.67719722 0
-0.28041553 0.74360335 0.43581864 0
-0.876315 1.1204239 -0.049834952 0
-1.2727287 1.3796964 0.078745678 0
-1.2821171 1.3858368 0.22618727 0
-1.2516928 1.3659379 0.36894903 0
-1.2462636 1.3623869 0.51779419 0
-1.2409935 1.3589401 0.67128867 0
-0.29580665 0.74074519 0.44144657 0
-0.89113915 1.1065156 -0.050010517 0
-1.278775 1.3531348 0.078413017 0
-1.2764302 1.351643 0.2236816 0
-1.2572072 1.339413 0.36719152 0
-1.2368394 1.3264548 0.51080406 0
-1.2369933 1.3265526 0.66432911 0
-0.30306625 0.73237598 0.44222891 0
-0.89453268 1.0853865 -0.049712241 0
-1.2917966 1.3311596 0.078389861 0
-1.286818 1.3280796 0.2232814 0
-1.2514409 1.306193 0.36312643 0
-1.2390019 1.2984974 0.50748044 0
-1.2404281 1.2993797 0.66049248 0
-0.90921259 1.0712866 -0.049897522 0
-1.3030311 1.3081241 0.078304 0
-1.2999732 1.3062851 0.22326863 0
-1.2533545 1.2782493 0.3607966 0
-1.2445798 1.2729722 0.5053041 0
-1.2369732 1.2683977 0.65414339 0
-0.92550874 1.0579762 -0.050155647 0
-1.3369734 1.2984239 0.079169787 0
-1.3288536 1.2936789 0.22524761 0
-1.2593354 1.2530545 0.35940722 0
-1.2412949 1.2425122 0.50061995 0
-1.2406781 1.2421517 0.65075064 0
-0.93743551 1.0419729 -0.050239477 0
-1.3828639 1.2947985 0.080524921 0
-1.3752064 1.290452 0.22939132 0
-1.2468048 1.2175711 0.35425496 0
-1.232277 1.2093252 0.49440029 0
-1.2303631 1.2082388 0.64214563 0
-0.93942726 1.0204235 -0.049925983 0
-1.2470499 1.1899451 0.35186142 0
-1.2360158 1.1838646 0.49206185 0
-1.2489496 1.190992 0.64474159 0
-0.94613016 1.0016407 -0.049816348 0
-1.250111 1.1641996 0.35013121 0
-1.2394677 1.1585079 0.48974922 0
-1.2449321 1.16143 0.63887435 0
-0.95389628 0.98349291 -0.049759734 0
-1.2623425 1.1434784 0.35034147 0
-1.2383751 1.131047 0.48623753 0
-1.2409048 1.1323591 0.63318163 0
-0.96764076 0.96839231 -0.049951535 0
-1.2671936 1.1190093 0.34911343 0
-1.2436314 1.107162 0.48466015 0
-1.2506981 1.1107152 0.63280809 0
-0.97081614 0.94798923 -0.049730018 0
-1.2866533 1.1018429 0.35088554 0
-1.2377893 1.0780398 0.48002836 0
-1.2429179 1.080538 0.62603468 0
-0.98395526 0.93245482 -0.049913283 0
-1.2926004 1.0780256 0.34999594 0
-1.2339135 1.0503461 0.47608244 0
-1.2422564 1.054281 0.62206006 0
-0.98736012 0.91233271 -0.049721196 0
-1.3021418 1.0559808 0.34988359 0
-1.2344489 1.0250897 0.47349429 0
-1.23821 1.026806 0.61699164 0
-0.99535918 0.89438236 -0.049719363 0
-1.3004503 1.0289929 0.34761247 0
-1.2459413 1.0049428 0.47406489 0
-1.241721 1.0030807 0.61482567 0
-1.0156609 0.88167405 -0.050203793 0
-1.3206693 1.011685 0.34971586 0
-1.2458169 0.97977889 0.47148117 0
-1.2382587 0.9765572 0.61025763 0
-1.0133921 0.85930616 -0.049820576 0
-1.3451818 0.99582201 0.35268831 0
-1.2420578 0.95339137 0.46799567 0
-1.2376522 0.95157862 0.60686105 0
-1.0181028 0.83999521 -0.04971819 0
-1.3413984 0.96828043 0.35019457 0
-1.2496436 0.93187171 0.46773297 0
-1.2329613 0.92525208 0.60213238 0
-1.0268054 0.82228434 -0.049778193 0
-1.36184 0.95036888 0.35245731 0
-1.2380809 0.90305549 0.4623155 0
-1.2430744 0.90496451 0.6028176 0
-1.0396291 0.80604136 -0.050003193 0
-1.3561765 0.92251146 0.34973642 0
-1.2434821 0.88104683 0.46163365 0
-1.236445 0.87845755 0.59765518 0
-1.0424917 0.78610337 -0.049857736 0
-1.3726786 0.90289319 0.35133514 0
-1.2406186 0.85618246 0.4587934 0
-1.2442725 0.85747486 0.59773558 0
-1.0484861 0.76733404 -0.049840473 0
-1.3792733 0.8796705 0.35108715 0
-1.246549 0.83459687 0.45841926 0
-1.2446179 0.83394104 0.59527975 0
-1.05265 0.74797821 -0.049763441 0
-1.3922374 0.85855418 0.35210386 0
-1.2482246 0.81166095 0.45697808 0
-1.253899 0.81350863 0.59606439 0
-1.0599174 0.72964352 -0.049811907 0
-1.3805751 0.8296079 0.34851474 0
-1.2454988 0.78749818 0.45444366 0
-1.2390413 0.78548509 0.58852375 0
-1.0715176 0.71256107 -0.050030213 0
-1.4053556 0.81204009 0.3518658 0
-1.2332081 0.76074255 0.44945356 0
-1.2399883 0.76276296 0.58662069 0
-1.0750844 0.69303107 -0.04995757 0
-1.3927765 0.78335953 0.34824166 0
-1.2418754 0.74045426 0.45012978 0
-1.2429575 0.74076194 0.58552295 0
-1.0794017 0.67375422 -0.049922045 0
-1.4078735 0.76269299 0.34986851 0
-1.2420466 0.71779281 0.44862565 0
-1.2366339 0.71632719 0.58132172 0
-1.0911353 0.65640807 -0.050168987 0
-1.4167049 0.74017584 0.35037181 0
-1.2387669 0.6943931 0.44629261 0
-1.2359264 0.69366223 0.57916921 0
-1.0891234 0.63552678 -0.049918097 0
-1.4167528 0.71544003 0.34929579 0
-1.2380893 0.67186159 0.44472754 0
-1.2448288 0.67350543 0.58041209 0
-1.0964129 0.61696893 -0.05001837 0
-1.4205474 0.69171852 0.34897405 0
-1.245003 0.6512357 0.44522905 0
-1.2484152 0.6520226 0.57992315 0
-1.1042365 0.59845155 -0.050146431 0
-1.428152 0.66886735 0.34941158 0
-1.2371937 0.62735504 0.44195303 0
-1.2421091 0.62842357 0.57615966 0
-1.1032575 0.57804096 -0.049961925 0
-1.4453462 0.64790857 0.35166624 0
-1.2422352 0.60642552 0.44211015 0
-1.2346075 0.60486764 0.572101 0
-1.1088095 0.55900812 -0.050024595 0
-1.4373175 0.62180388 0.34933266 0
-1.2358111 0.58328503 0.43935725 0
-1.2381712 0.58373618 0.57190067 0
-1.118044 0.54058319 -0.050229371 0
-1.4581444 0.60116643 0.35235062 0
-1.239056 0.56213945 0.43919185 0
-1.2313826 0.5607726 0.5682925 0
-1.1211842 0.52100205 -0.050221603 0
-1.4563742 0.57636559 0.35127926 0
-1.2448086 0.54142118 0.43974414 0
-1.2414552 0.54086733 0.57047504 0
-1.1145003 0.49992746 -0.049867984 0
-1.4652201 0.55332869 0.35220367 0
-1.2346971 0.51822883 0.43626872 0
-1.2445933 0.51973563 0.57040411 0
-1.1192822 0.48069993 -0.049937867 0
-1.4516943 0.52703887 0.3491056 0
-1.2426544 0.49789828 0.43752918 0
-1.2482587 0.49867952 0.57059997 0
-1.1145432 0.46021429 -0.049673732 0
-1.4720715 0.50547302 0.35223588 0
-1.2423545 0.47639364 0.43673006 0
-1.2459542 0.47684929 0.56888247 0
-1.1144755 0.44044468 -0.049587101 0
-0.50078213 0.37059766 0.03953601 0
-0.50456595 0.3710283 0.10736056 0
-0.51531762 0.37225199 0.17804894 0
-1.2419368 0.45495158 0.43597138 0
-1.2339774 0.45404568 0.56402087 0
-1.1230674 0.42160863 -0.049820255 0
-0.51197135 0.35984081 0.039892178 0
-0.51285464 0.3599301 0.10811885 0
-0.51026744 0.35966858 0.17690091 0
-1.2486022 0.43429732 0.43709925 0
-1.2378722 0.43321279 0.56456888 0
-1.1342372 0.40283221 -0.050154049 0
-0.47693622 0.34474492 0.038596105 0
-0.52118975 0.3486557 0.10889637 0
-0.52392364 0.34889731 0.17916967 0
-1.2421961 0.4123728 0.43494466 0
-1.2449317 0.41261455 0.56626087 0
-1.1264073 0.38237831 -0.049815737 0
-0.49555874 0.3346256 0.10602773 0
-0.51540667 0.33612803 0.17745048 0
-1.2385608 0.39086789 0.43357167 0
-1.2388527 0.39089 0.56365424 0
-1.1329077 0.36306384 -0.049999546 0
-0.51030844 0.32381287 0.10752869 0
-0.51132876 0.32387719 0.17656387 0
-1.2399448 0.36981183 0.43355218 0
-1.2461623 0.37020382 0.56560403 0
-1.2324835 0.36934146 0.69674921 0
-1.1402278 0.34365773 -0.050221227 0
-0.51084369 0.31192955 0.1075138 0
-0.5070892 0.31174028 0.17567652 0
-1.2451622 0.34894761 0.43457976 0
-1.2435913 0.34886843 0.56434804 0
-1.2343812 0.34840414 0.6970427 0
-0.34351891 0.30349445 0.46682602 0
-1.130726 0.32345623 -0.049850546 0
-0.50659084 0.29986686 0.10700006 0
-0.51420456 0.30015463 0.17686649 0
-1.2416227 0.3276476 0.43343812 0
-1.2427932 0.32769182 0.56377238 0
-1.2389762 0.32754755 0.69856292 0
-0.36692625 0.29458821 0.48046178 0
-1.1337146 0.30382776 -0.049935132 0
-0.41624093 0.28575382 0.35753831 0
-0.40358049 0.2854349 0.42447865 0
-0.37786859 0.28478718 0.48676509 0
-1.136096 0.28412884 -0.050006855 0
-0.40288258 0.27489412 0.42402989 0
-0.37873209 0.27458996 0.48716286 0
-1.1288533 0.26437622 -0.049743842 0
-0.38487256 0.26437423 0.4149856 0
-0.38705617 0.26437426 0.49206126 0
-0.90142924 -0.98929477 -0.090846293 0
-1.1245549 -0.98929536 -0.00408688 0
-1.1279203 -0.98929536 0.022050017 0
-1.1358703 -0.98929536 0.048044991 0
-1.1223028 -0.9892953 0.074853703 0
-1.1305586 -0.98929536 0.1010027 0
-1.1276444 -0.98929536 0.12727576 0
-1.1208088 -0.9892953 0.15325882 0
-1.1275666 -0.98929536 0.17993079 0
-1.1293087 -0.98929536 0.2065365 0
-1.1196017 -0.9892953 0.23200068 0
-1.1389585 -0.98929536 0.26123685 0
-1.1257818 -0.98929536 0.28622037 0
-1.130935 -0.98929536 0.31423351 0
-0.89481425 -1.0119035 -0.046300549 0
-1.1376003 -1.0180318 0.021347949 0
-1.1349317 -1.0179645 0.048071846 0
-1.1275905 -1.0177792 0.074722402 0
-1.1345644 -1.0179552 0.10100283 0
-1.1397941 -1.0180873 0.12756741 0
-1.1321592 -1.0178945 0.1538047 0
-1.1193292 -1.0175707 0.17937942 0
-1.1297702 -1.0178342 0.20661324 0
-1.1280233 -1.0177901 0.23302747 0
-1.1353892 -1.017976 0.26078591 0
-1.1334745 -1.0179278 0.28754452 0
-1.1359271 -1.0179896 0.31524235 0
-0.90959567 -1.0352879 -0.027159384 0
-1.2346077 -1.0517051 0.014481442 0
-1.2371219 -1.0518321 0.043257769 0
-1.2448742 -1.0522237 0.071966931 0
-1.2351961 -1.0517348 0.10100573 0
-1.2387739 -1.0519155 0.12990277 0
-1.2422308 -1.0520902 0.15899239 0
-1.2474654 -1.0523546 0.1884311 0
-1.248549 -1.0524093 0.21782209 0
-1.1245488 -1.0746616 -0.057658944 0
-1.2450757 -1.0838034 0.042794343 0
-1.2359264 -1.0831095 0.072129302 0
-1.2380878 -1.0832734 0.10100587 0
-1.2453599 -1.083825 0.13010286 0
-1.2476722 -1.0840003 0.15933932 0
-1.2502915 -1.0841991 0.18876894 0
-1.2378464 -1.0832552 0.21700603 0
-0.93442547 -1.084031 -0.053550292 0
-1.2471387 -1.1157031 0.07180275 0
-1.2442061 -1.115406 0.10100613 0
-1.245707 -1.115558 0.13017617 0
-1.2374419 -1.1147209 0.15899061 0
-1.2302452 -1.1139921 0.18755561 0
-1.9869813 -1.1906354 0.28759122 0
-1.9926294 -1.1912074 0.33527741 0
-1.9348401 -1.1853545 0.37452447 0
-1.4710795 -1.1383841 0.37973908 0
-1.2498174 -1.1479486 0.10100639 0
-1.2349579 -1.1460638 0.1300078 0
-1.2448716 -1.1473213 0.15950692 0
-1.2436911 -1.1471716 0.18875344 0
-1.5997636 -1.1923375 0.36625645 0
-1.4727538 -1.176227 0.38086048 0
-0.89343315 -1.125754 -0.091346703 0
-1.3475717 -1.195043 0.29276043 0
-1.3649442 -1.1976936 0.32813981 0
-1.3565007 -1.1964053 0.35969213 0
-0.89691752 -1.1495647 -0.092903964 0
-1.3341558 -1.2276112 0.29164714 0
-1.3205405 -1.2251809 0.32167479 0
-1.3250933 -1.2259935 0.35476395 0
-0.89276487 -1.1722046 -0.092942365 0
-1.248338 -1.244976 0.31062734 0
-1.2357173 -1.2423931 0.33880532 0
-0.90988672 -1.1997852 -0.052676145 0
-0.89659929 -1.1967146 -0.02849417 0
-1.3309973 -1.3327215 -0.092339717 0
-0.91938734 -1.2515295 -0.033520151 0
-1.2896399 -1.3924983 -0.089050971 0
-0.8602742 -1.2824067 -0.092410184 0
-0.96614021 -1.3184367 -0.091447107 0
-1.1098168 -1.3673352 -0.091872878 0
-0.84239876 -1.3002802 -0.090098061 0
-0.95328695 -1.3411695 -0.090595789 0
-1.0872667 -1.3905736 -0.089655586 0
-1.2705195 -1.4581467 -0.089479782 0
-1.5435667 -1.558831 -0.091426678 0
-1.9283493 -1.7007169 -0.090966366 0
-3.2470047 -2.1869617 -0.14103922 0
-4.8676634 -2.7845683 -0.14060587 0
-9.7461843 -4.5834889 -0.14057182 0
-0.83431834 -1.3214741 -0.090105988 0
-0.93901592 -1.3631105 -0.089564241 0
-1.0830948 -1.4204084 -0.090769745 0
-1.2427061 -1.483883 -0.087123625 0
-1.5264722 -1.596732 -0.091145851 0
-1.9053165 -1.7473921 -0.090517484 0
-3.2120419 -2.2670546 -0.14076008 0
-4.8277516 -2.9095953 -0.1409533 0
-9.6604881 -4.8314929 -0.14077428 0
-0.82325047 -1.3414094 -0.089546449 0
-0.9389565 -1.3908403 -0.091545172 0
-1.0639734 -1.4442488 -0.089358054 0
-1.2474438 -1.5226291 -0.089815237 0
-1.5133102 -1.63621 -0.091482706 0
-1.8846285 -1.7948409 -0.090420716 0
-3.1843212 -2.3500826 -0.14118133 0
-4.7850618 -3.0339353 -0.14132278 0
-9.5541162 -5.0713234 -0.14061365 0
-0.8129642 -1.3615721 -0.089280076 0
-0.92482734 -1.4127362 -0.090779163 0
-1.0527389 -1.4712405 -0.08946351 0
-1.2320414 -1.55325 -0.089575939 0
-1.4903128 -1.6713784 -0.090686806 0
-1.8658643 -1.8431484 -0.090642489 0
-3.1326554 -2.4225543 -0.13992691 0
-4.7322655 -3.1541851 -0.14133894 0
-9.4510345 -5.312459 -0.14068916 0
-0.81662697 -1.3884912 -0.09242966 0
-0.92016208 -1.4390428 -0.092102461 0
-1.0413067 -1.4981924 -0.089657985 0
-1.2152697 -1.5831308 -0.089239709 0
-1.4683062 -1.7066776 -0.090124659 0
-1.8369683 -1.8866791 -0.089940526 0
-3.1035764 -2.5051081 -0.14055562 0
-4.6679721 -3.2689338 -0.14091596 0
-9.3400812 -5.5501199 -0.14071849 0
-0.7993896 -1.405403 -0.090775423 0
-0.90503663 -1.4603292 -0.091362737 0
-1.0336196 -1.5271797 -0.090673946 0
-1.2002532 -1.6138129 -0.089295767 0
-1.4400387 -1.7384777 -0.088847004 0
-1.8261493 -1.9392174 -0.091245867 0
-3.0771785 -2.5896299 -0.14156699 0
-4.6032925 -3.3830595 -0.14061818 0
-9.2269192 -5.7868919 -0.14084652 0
-0.78418398 -1.4230053 -0.089694329 0
-0.89457875 -1.4839863 -0.091731824 0
-1.0081414 -1.546717 -0.088500179 0
-1.1830864 -1.6433548 -0.089130856 0
-1.4282382 -1.778774 -0.089856528 0
-1.7913588 -1.979358 -0.090153791 0
-3.0243716 -2.6604609 -0.14065263 0
-4.5440159 -3.4998963 -0.14075573 0
-9.0939007 -6.0132036 -0.1406066 0
-0.77280712 -1.4425699 -0.089649014 0
-0.88987476 -1.5111475 -0.093491815 0
-1.0035932 -1.5777633 -0.090373956 0
-1.1717404 -1.6762632 -0.090032138 0
-1.4097574 -1.8156924 -0.090113021 0
-1.7775598 -2.0311491 -0.091425069 0
-2.984983 -2.7384522 -0.14095563 0
-4.479413 -3.6138821 -0.14076591 0
-8.9714279 -6.2452836 -0.14080009 0
-0.76536208 -1.4645772 -0.090709038 0
-0.8679257 -1.5281875 -0.091608249 0
-0.98489588 -1.6007329 -0.089691304 0
-1.158198 -1.7082156 -0.090720691 0
-1.3893837 -1.8515979 -0.090240411 0
-1.7476075 -2.0737696 -0.091084681 0
-2.9317396 -2.8081729 -0.14028434 0
-4.4062304 -3.7226582 -0.14046268 0
-8.8307638 -6.4667716 -0.14065799 0
-0.74811774 -1.4804772 -0.089435957 0
-0.85209775 -1.5486577 -0.091168039 0
-0.98113126 -1.6332657 -0.092045061 0
-1.1337708 -1.7333527 -0.089725994 0
-1.3621835 -1.8831245 -0.089541517 0
-1.7227688 -2.1195629 -0.091428526 0
-2.8838165 -2.8808696 -0.14019263 0
-4.3423715 -3.8372543 -0.14082506 0
-8.7004614 -6.6948848 -0.14095581 0
-0.7371397 -1.5003661 -0.089863472 0
-0.83494419 -1.5680864 -0.090533756 0
-0.95992321 -1.6546224 -0.091116063 0
-1.1227229 -1.7673457 -0.09110827 0
-1.3554735 -1.9285034 -0.09185525 0
-1.6865798 -2.157763 -0.090619899 0
-2.8432293 -2.9586327 -0.14087778 0
-4.2764168 -3.950979 -0.14123759 0
-8.5484056 -6.9089251 -0.14080513 0
-0.73519105 -1.5269935 -0.09280663 0
-0.81823879 -1.5876523 -0.090105586 0
-0.94321012 -1.6789324 -0.091193341 0
-1.1044784 -1.7967241 -0.091411836 0
-1.3240541 -1.957104 -0.090800129 0
-1.6618663 -2.2038448 -0.091233142 0
-2.7944667 -3.0311055 -0.14103632 0
-4.1857367 -4.0473003 -0.14039633 0
-8.4015942 -7.1265974 -0.1409568 0
-0.71898943 -1.5435485 -0.092162691 0
-0.80374098 -1.6087935 -0.090310045 0
-0.92197406 -1.6998141 -0.090460114 0
-1.0792465 -1.8208885 -0.090612404 0
-1.2930152 -1.985456 -0.089885928 0
-1.6327338 -2.2469847 -0.091473572 0
-2.7372446 -3.0972803 -0.14061148 0
-4.106266 -4.151206 -0.14033867 0
-8.2407036 -7.3340583 -0.14085807 0
-0.69564462 -1.5541335 -0.089663871 0
-0.79128563 -1.6316824 -0.09114214 0
-0.90201718 -1.7214671 -0.090092801 0
-1.0594624 -1.849129 -0.090891324 0
-1.2717757 -2.0212793 -0.09053392 0
-1.6015552 -2.2886753 -0.091602676 0
-2.6790929 -3.1623778 -0.14024307 0
-4.0362186 -4.2627797 -0.14100029 0
-8.0711098 -7.5344009 -0.14065197 0
-0.67903155 -1.5697037 -0.089065872 0
-0.77134168 -1.648494 -0.090279482 0
-0.88518536 -1.745664 -0.090509646 0
-1.0338688 -1.8725712 -0.090233289 0
-1.2469382 -2.0544343 -0.090780668 0
-1.5725708 -2.3323743 -0.092131652 0
-2.6264629 -3.2319121 -0.14052361 0
-3.9549732 -4.3658471 -0.14116143 0
-7.9072466 -7.7392664 -0.14076953 0
-0.67242962 -1.5940937 -0.091425501 0
-0.75539613 -1.6686081 -0.090515576 0
-0.85866123 -1.7613531 -0.088928394 0
-1.009897 -1.8971819 -0.089977078 0
-1.227572 -2.0926814 -0.092022531 0
-1.5219622 -2.3570807 -0.090096645 0
-2.5721133 -3.3002484 -0.1408121 0
-3.8616421 -4.4584074 -0.14073105 0
-7.7400074 -7.9416671 -0.14094411 0
-0.65608692 -1.6100712 -0.091171496 0
-0.73878431 -1.688202 -0.09071479 0
-0.8395279 -1.7833828 -0.089068629 0
-0.99476349 -1.9300463 -0.091542177 0
-1.1993771 -2.1233613 -0.092028297 0
-1.5020555 -2.4093261 -0.092034213 0
-1.9854873 -2.8660631 -0.090079404 0
-3.7763562 -4.558042 -0.14095348 0
-7.567143 -8.1395044 -0.14110452 0
-0.63673526 -1.6229941 -0.090128787 0
-0.72272986 -1.7084482 -0.091196798 0
-0.82464498 -1.8097229 -0.090324514 0
-0.97394437 -1.9580839 -0.092182897 0
-1.164971 -2.1479101 -0.09113688 0
-1.4573764 -2.4384778 -0.09093257 0
-1.9348224 -2.9129233 -0.089815311 0
-3.6788728 -4.6460128 -0.14054407 0
-7.37678 -8.3206797 -0.14085715 0
-0.6222865 -1.6407043 -0.090664767 0
-0.70862639 -1.7309439 -0.092360683 0
-0.80278659 -1.8293571 -0.090111665 0
-0.93631017 -1.9689116 -0.089564554 0
-1.142207 -2.1841085 -0.092293285 0
-1.4200164 -2.4744658 -0.090887822 0
-1.8934814 -2.969316 -0.090605102 0
-3.5852084 -4.7374539 -0.14052857 0
-7.192131 -8.5072927 -0.14094721 0
-0.61189359 -1.6630841 -0.092636399 0
-0.68473297 -1.7431642 -0.090973683 0
-0.77869958 -1.8464719 -0.089467935 0
-0.92046911 -2.0023344 -0.091480635 0
-1.1056092 -2.205879 -0.091235913 0
-1.3777831 -2.5051091 -0.090290137 0
-1.8391191 -3.0123055 -0.090210177 0
-3.4872341 -4.8242559 -0.14037201 0
-7.0008578 -8.6871614 -0.14097151 0
-0.59022486 -1.6731585 -0.091182508 0
-0.66681272 -1.7617511 -0.091353558 0
-0.76072651 -1.8703853 -0.09044867 0
-0.89968181 -2.031121 -0.092569284 0
-1.0694712 -2.227524 -0.090326302 0
-1.3409394 -2.5415432 -0.090552874 0
-1.790821 -3.0619411 -0.090566166 0
-3.3904853 -4.9123435 -0.14045185 0
-6.7980428 -8.8540163 -0.14074537 0
-0.57476228 -1.6902683 -0.091845699 0
-0.64456886 -1.7752599 -0.090599395 0
-0.74654675 -1.8994209 -0.092596255 0
-0.8630603 -2.0412796 -0.090344347 0
-1.0440965 -2.2616963 -0.0914694 0
-1.3031152 -2.5770593 -0.090812869 0
-1.7333134 -3.1008382 -0.090054862 0
-3.2874186 -4.9930058 -0.14023146 0
-6.6043673 -9.0314875 -0.140999 0
-0.54717588 -1.6921129 -0.08848726 0
-0.62557471 -1.7926334 -0.090918534 0
-0.71941715 -1.9129552 -0.091546483 0
-0.83180541 -2.0570557 -0.089330398 0
-1.0074511 -2.282263 -0.09066958 0
-1.2626843 -2.6095152 -0.090819709 0
-1.6854271 -3.1515424 -0.090730317 0
-3.1970899 -5.0897479 -0.14111985 0
-6.3946891 -9.1896076 -0.14082271 0
-0.53831547 -1.7179432 -0.091719769 0
-0.60502428 -1.8080755 -0.09089262 0
-0.69400811 -1.9283042 -0.091028549 0
-0.819525 -2.097894 -0.092856221 0
-0.97896081 -2.3133125 -0.091544531 0
-1.2240003 -2.6443932 -0.09122736 0
-1.6201247 -3.1796088 -0.089530535 0
-3.0909851 -5.1669326 -0.14099242 0
-6.1828933 -9.3445053 -0.14071102 0
-0.50962436 -1.7168763 -0.087969519 0
-0.58453333 -1.8236188 -0.091010876 0
-0.67216641 -1.9484925 -0.091621302 0
-0.77861577 -2.100179 -0.089754857 0
-0.93880486 -2.3284423 -0.090234734 0
-1.1769257 -2.6677556 -0.090427093 0
-1.5744122 -3.2341592 -0.090755753 0
-2.9843707 -5.2432971 -0.14097428 0
-5.9711533 -9.4993496 -0.14075306 0
-0.49544951 -1.7360642 -0.089637972 0
-0.56745982 -1.8443896 -0.0924275 0
-0.64349639 -1.9587717 -0.090358339 0
