# .PCD v0.7 - Point Cloud Data file format
VERSION 0.7
FIELDS x y z intensity
SIZE 4 4 4 4
TYPE F F F F
COUNT 1 1 1 1
WIDTH 1329
HEIGHT 1
VIEWPOINT 0 0 0 1 0 0 0
POINTS 1329
DATA ascii
-0.0063793091 -2.1551967 -0.090651371 0
-0.0067423005 -2.2127488 -0.070971064 0
-0.0067454344 -2.2132456 -0.042079914 0
-0.0067181797 -2.2089245 -0.012872746 0
-0.0067185229 -2.2089789 0.01570111 0
-0.0067012142 -2.2062347 0.044314947 0
-0.0067664478 -2.2165773 0.072434902 0
-0.0067174756 -2.2088127 0.10100521 0
0.017984428 -1.8879311 -0.090080284 0
0.020282792 -2.0093524 -0.091193341 0
0.022818983 -2.143338 -0.088732563 0
0.023786595 -2.1944566 -0.068427302 0
0.023877999 -2.1992855 -0.040470827 0
0.02414979 -2.213644 -0.013331486 0
0.024049951 -2.2083695 0.015730144 0
0.023849217 -2.1977649 0.044700302 0
0.023949219 -2.2030478 0.072744988 0
0.023718391 -2.1908534 0.1010047 0
0.041266944 -1.9011197 -0.093038581 0
0.045984387 -2.0078759 -0.091068037 0
0.051970109 -2.1433332 -0.088882886 0
0.054613937 -2.2031634 -0.069787033 0
0.054316081 -2.1964228 -0.040248606 0
0.054394379 -2.1981947 -0.011979086 0
0.054183863 -2.1934307 0.016707623 0
0.054200381 -2.1938045 0.044840027 0
0.055126186 -2.2147555 0.072450027 0
0.054555055 -2.2018309 0.10100505 0
0.063824981 -1.8935483 -0.091703765 0
0.072245836 -2.0147021 -0.092632495 0
0.080340885 -2.1311684 -0.087151237 0
0.085058659 -2.1990445 -0.069451906 0
0.084770516 -2.1948991 -0.040272776 0
0.08564011 -2.2074101 -0.013003444 0
0.085580215 -2.2065485 0.015667411 0
0.085645601 -2.2074893 0.044120841 0
0.085537359 -2.2059319 0.072614744 0
0.085827067 -2.2100999 0.10100533 0
0.086784072 -1.8934008 -0.09207233 0
0.097023591 -2.0012863 -0.090496249 0
0.1108083 -2.1465244 -0.090076976 0
0.11577687 -2.1988742 -0.069781728 0
0.11611383 -2.2024245 -0.041449551 0
0.11575925 -2.1986887 -0.012422381 0
0.11620922 -2.2034297 0.015709313 0
0.11569603 -2.1980226 0.0444455 0
0.11549692 -2.1959248 0.07278958 0
0.11467688 -2.1872847 0.10100475 0
0.10891095 -1.8854898 -0.090903796 0
0.12221295 -1.9959364 -0.090002172 0
0.13907298 -2.1359251 -0.088842101 0
0.1466936 -2.199199 -0.070292197 0
0.14785454 -2.2088382 -0.042591978 0
0.14707842 -2.2023942 -0.013079224 0
0.14824602 -2.2120886 0.014867643 0
0.14716238 -2.2030911 0.04405405 0
0.14660096 -2.1984298 0.072654247 0
0.14607091 -2.1940289 0.10100504 0
0.13094889 -1.8787882 -0.090110458 0
0.14837445 -1.998042 -0.091046251 0
0.16851859 -2.1359005 -0.089477398 0
0.17679529 -2.192543 -0.069923766 0
0.17756677 -2.1978228 -0.04177447 0
0.1783832 -2.2034101 -0.01355922 0
0.17852072 -2.2043512 0.015124263 0
0.17839818 -2.2035127 0.043842506 0
0.17685106 -2.1929247 0.072688222 0
0.17763506 -2.1982901 0.10100528 0
0.15361844 -1.8767843 -0.090446644 0
0.17355555 -1.9927012 -0.09079767 0
0.19906706 -2.1410282 -0.091098331 0
0.20986255 -2.2037942 -0.072215386 0
0.20968941 -2.2027876 -0.042937282 0
0.20854333 -2.1961243 -0.01332972 0
0.20876674 -2.1974232 0.015270503 0
0.20857041 -2.1962817 0.043954354 0
0.20930204 -2.2005355 0.072394945 0
0.20972534 -2.2029967 0.10100555 0
0.17565188 -1.8710842 -0.09010724 0
0.19895403 -1.988716 -0.090929918 0
0.22621594 -2.1263371 -0.089535765 0
0.24143688 -2.2031741 -0.072936989 0
0.23993994 -2.1956174 -0.042756427 0
0.24112701 -2.2016098 -0.0143866 0
0.24057384 -2.1988173 0.014770092 0
0.24044746 -2.1981795 0.043597471 0
0.24133515 -2.2026606 0.072210848 0
0.24038933 -2.197886 0.10100557 0
0.19975576 -1.8749101 -0.091962032 0
0.22457054 -1.9854659 -0.091328211 0
0.25461876 -2.1193378 -0.089375012 0
0.27337188 -2.2028873 -0.073825188 0
0.27295706 -2.2010391 -0.044174049 0
0.27259746 -2.1994369 -0.014795316 0
0.27241564 -2.198627 0.014323013 0
0.27169934 -2.1954358 0.04342173 0
0.27092373 -2.1919801 0.072311632 0
0.27210876 -2.1972597 0.10100574 0
0.22099911 -1.8654778 -0.091055788 0
0.24950975 -1.9790132 -0.091232277 0
0.28602278 -2.1244159 -0.091380946 0
0.30498859 -2.1999416 -0.074450232 0
0.30728862 -2.209101 -0.046018932 0
0.30175248 -2.1870549 -0.014300292 0
0.30799523 -2.2119148 0.012843812 0
0.30632246 -2.2052534 0.042604174 0
0.30647025 -2.205842 0.071806878 0
0.30462533 -2.1984951 0.10100599 0
0.23872319 -1.8441401 -0.087634407 0
0.27545443 -1.9762106 -0.091971897 0
0.31529298 -2.1194537 -0.091822989 0
0.33632419 -2.1950731 -0.074915193 0
0.33607194 -2.1941662 -0.045191888 0
0.33911875 -2.2051213 -0.016822821 0
0.33520901 -2.1910636 0.013766492 0
0.33301318 -2.1831682 0.043280382 0
0.33603933 -2.1940489 0.071896113 0
0.3390483 -2.2048681 0.10100642 0
0.26249921 -1.8453425 -0.08929541 0
0.29634881 -1.9561424 -0.08944539 0
0.34312904 -2.1092682 -0.09149731 0
0.37174997 -2.2029531 -0.077372871 0
0.37111887 -2.2008874 -0.04709335 0
0.37400824 -2.2103453 -0.018203123 0
0.37023678 -2.1980002 0.012615019 0
0.37039709 -2.1985247 0.042106528 0
0.3712166 -2.2012074 0.071507238 0
0.36958095 -2.1958532 0.10100641 0
0.28611171 -1.8447622 -0.09070491 0
0.32017809 -1.9469682 -0.089164682 0
0.37084547 -2.0989804 -0.091272406 0
0.42793262 -2.2702534 -0.088785477 0
0.51856172 -2.5421591 -0.09033417 0
0.65322036 -2.946162 -0.091563471 0
0.86387849 -3.5781789 -0.089805968 0
1.3054998 -4.9031315 -0.091091819 0
3.2910581 -10.860207 -0.14094554 0
0.306357 -1.8338434 -0.089924611 0
0.34952727 -1.9532329 -0.092093535 0
0.39986873 -2.0924547 -0.091824584 0
0.46185774 -2.2638881 -0.089505069 0
0.55836105 -2.5307729 -0.090603553 0
0.7016077 -2.9269285 -0.091349714 0
0.93462133 -3.5713391 -0.090977304 0
1.402253 -4.8645973 -0.09087529 0
3.5401161 -10.776962 -0.14101751 0
0.32815987 -1.8273839 -0.090270184 0
0.36801147 -1.9294645 -0.089127906 0
0.42467138 -2.0745997 -0.090512075 0
0.49353284 -2.2509894 -0.089374654 0
0.59461719 -2.5099189 -0.089813121 0
0.74687701 -2.899935 -0.090478055 0
0.99709082 -3.5408618 -0.090519615 0
1.502005 -4.8342075 -0.09118513 0
3.7825892 -10.675962 -0.14080316 0
0.35100588 -1.8231602 -0.091261081 0
0.39201412 -1.9208527 -0.089321606 0
0.45590925 -2.0730677 -0.092206068 0
0.52709192 -2.2426436 -0.090057991 0
0.63089538 -2.4899309 -0.089239471 0
0.79836047 -2.8888769 -0.09132535 0
1.0602759 -3.5128286 -0.090361305 0
1.5954074 -4.787653 -0.090808563 0
4.0263996 -10.578919 -0.14083983 0
0.36871263 -1.8069015 -0.089591898 0
0.41874355 -1.9181374 -0.090859719 0
0.48356849 -2.0622654 -0.092390113 0
0.55671048 -2.2248855 -0.089428566 0
0.67489052 -2.4876404 -0.091043942 0
0.84052444 -2.8559015 -0.090071402 0
1.1271547 -3.4931793 -0.090965442 0
1.6936642 -4.7527246 -0.091140889 0
4.2653494 -10.470468 -0.14074209 0
0.39804131 -1.815713 -0.093919329 0
0.44063127 -1.904356 -0.09024433 0
0.50690162 -2.0422852 -0.091029458 0
0.59047925 -2.2162364 -0.090327598 0
0.70358253 -2.4516397 -0.08864256 0
0.89144391 -2.842638 -0.090953015 0
1.1950834 -3.4746063 -0.091790594 0
1.7848352 -4.702064 -0.090792038 0
4.5086527 -10.371179 -0.1410342 0
0.41613719 -1.8002957 -0.092692904 0
0.46239033 -1.8906492 -0.089752905 0
0.5338881 -2.0303171 -0.091238461 0
0.62065732 -2.1998172 -0.090145253 0
0.74523437 -2.4431732 -0.089919604 0
0.93728733 -2.8183405 -0.090822987 0
1.253868 -3.4367671 -0.091247164 0
1.88 -4.6598897 -0.091002069 0
4.7388787 -10.244589 -0.1407764 0
0.42970726 -1.7771399 -0.089686669 0
0.4902052 -1.888312 -0.091809683 0
0.55884945 -2.0144539 -0.090848185 0
0.65605825 -2.1930866 -0.091631614 0
0.78599381 -2.4318585 -0.090974323 0
0.97972137 -2.7878559 -0.090155818 0
1.3106678 -3.3960087 -0.090581186 0
1.9711425 -4.6097088 -0.090917133 0
4.9718428 -10.12385 -0.14082271 0
0.453076 -1.772354 -0.091228627 0
0.51346678 -1.8769537 -0.092086263 0
0.58330375 -1.9979146 -0.09044259 0
0.67714506 -2.1604521 -0.089080192 0
0.81458211 -2.3984997 -0.089207403 0
1.0285999 -2.7691884 -0.090867154 0
1.3747554 -3.3687463 -0.091109805 0
2.5983932 -5.4881449 -0.14087312 0
5.2014065 -9.9966869 -0.14085397 0
0.47556049 -1.7653927 -0.092398398 0
0.52816862 -1.8514239 -0.089367069 0
0.61021847 -1.9856017 -0.090962909 0
0.71013439 -2.1489961 -0.090064801 0
0.85045105 -2.3784587 -0.089335598 0
1.072672 -2.7418611 -0.090776049 0
1.4328622 -3.3308871 -0.090909891 0
2.71064 -5.4204626 -0.14083414 0
5.4266891 -9.8620729 -0.1408394 0
0.48698163 -1.7407866 -0.089263298 0
0.5544771 -1.8451521 -0.091005482 0
0.63227528 -1.9654485 -0.09008915 0
0.73956543 -2.1313469 -0.090167381 0
0.88906443 -2.3625114 -0.09016069 0
1.1167026 -2.7144992 -0.09080229 0
1.4877075 -3.2881696 -0.090423338 0
2.818691 -5.3462172 -0.14058645 0
5.6472316 -9.7198782 -0.14077091 0
0.51234937 -1.7378902 -0.091735937 0
0.57623273 -1.8314085 -0.091118239 0
0.66178697 -1.9566507 -0.091570266 0
0.76856202 -2.1129577 -0.090271167 0
0.92158967 -2.3369737 -0.089779519 0
1.1628299 -2.6901231 -0.091291092 0
1.5521513 -3.2600477 -0.091280274 0
2.927521 -5.2734404 -0.14056976 0
5.8660002 -9.5750561 -0.14078267 0
0.52981389 -1.7230005 -0.091277681 0
0.60029751 -1.820789 -0.092084773 0
0.68080264 -1.9324813 -0.090113901 0
0.80099744 -2.0992386 -0.091311522 0
0.95544207 -2.313514 -0.089807935 0
1.2056767 -2.6606874 -0.091339462 0
1.6139619 -3.2271395 -0.091879405 0
3.0452948 -5.2129602 -0.14141469 0
6.0828934 -9.4273024 -0.1408675 0
0.55128521 -1.7135398 -0.092376523 0
0.61816555 -1.8015591 -0.091175519 0
0.70250577 -1.9125565 -0.089603715 0
0.83304864 -2.0843601 -0.09231057 0
0.99042684 -2.2914808 -0.09017057 0
1.2455739 -2.6272719 -0.091047846 0
1.6640038 -3.1779549 -0.091196753 0
3.1479604 -5.1309447 -0.14118902 0
6.2900286 -9.2661247 -0.14072038 0
0.56055266 -1.6883918 -0.089372672 0
0.6394217 -1.7869254 -0.091464378 0
0.72680062 -1.8960906 -0.089925461 0
0.8526963 -2.0533762 -0.090575047 0
1.026039 -2.2699387 -0.090745039 0
1.2835294 -2.5916297 -0.090603314 0
1.7137856 -3.1291628 -0.090647362 0
3.2443569 -5.0413551 -0.14066011 0
6.5006285 -9.10952 -0.14086063 0
0.58415705 -1.6813409 -0.091399185 0
0.65439153 -1.7646865 -0.090016954 0
0.75119495 -1.8795607 -0.090370782 0
0.87978142 -2.032151 -0.090685926 0
1.0501349 -2.2343051 -0.089314096 0
1.3331296 -2.570128 -0.091990955 0
1.7658867 -3.0836701 -0.09050148 0
3.3515472 -4.9653344 -0.14109254 0
6.7085314 -8.9489841 -0.1410443 0
0.59793532 -1.6624627 -0.090278827 0
0.67897594 -1.7538491 -0.091501214 0
0.78013301 -1.8679202 -0.092034034 0
0.91099745 -2.015491 -0.091783844 0
1.0815884 -2.2078598 -0.089380078 0
1.3608695 -2.5227945 -0.090341873 0
1.818537 -3.0388889 -0.090540357 0
3.4477587 -4.8761005 -0.14087912 0
6.9016562 -8.7709293 -0.1408491 0
0.61804068 -1.6507353 -0.091310434 0
0.69896156 -1.7374756 -0.091752745 0
0.79491144 -1.8403257 -0.090313263 0
0.94065136 -1.9965466 -0.092618547 0
1.1141235 -2.1824939 -0.089745589 0
1.3974246 -2.4861686 -0.09010876 0
1.8596185 -2.9816015 -0.089510076 0
3.5476742 -4.7910538 -0.1410801 0
7.1012597 -8.6001968 -0.14103526 0
0.6329717 -1.6333643 -0.090836562 0
0.71240675 -1.714317 -0.090351649 0
0.81164211 -1.8154483 -0.089259885 0
0.95589221 -1.9624543 -0.090637289 0
1.1439834 -2.1541388 -0.089763723 0
1.4352947 -2.4510159 -0.090181671 0
1.9150304 -2.9399168 -0.090082578 0
3.6423798 -4.7002678 -0.14107428 0
7.2842655 -8.4117327 -0.14081071 0
0.65265059 -1.6207302 -0.091910817 0
0.72779214 -1.6935381 -0.089648463 0
0.83680701 -1.7991674 -0.090307601 0
0.97987247 -1.9377898 -0.090584554 0
1.1705869 -2.1225812 -0.089369453 0
1.4821208 -2.4244401 -0.091533609 0
1.9569899 -2.8845615 -0.08943551 0
3.7289052 -4.6014481 -0.14068879 0
7.4719067 -8.2282066 -0.14089763 0
0.66429168 -1.6003253 -0.090730749 0
0.74528033 -1.6749302 -0.089635842 0
0.87354553 -1.7930852 -0.094010405 0
1.0033369 -1.9126461 -0.090554826 0
1.2046808 -2.0981195 -0.090302579 0
1.5140653 -2.3831172 -0.091052093 0
2.5447898 -3.3325975 -0.14082 0
3.8194315 -4.5067682 -0.14072518 0
7.6481748 -8.0337191 -0.14077121 0
0.68044531 -1.5842246 -0.090998538 0
0.76606667 -1.659193 -0.090568133 0
0.87318665 -1.7529852 -0.089562483 0
1.0288743 -1.8893024 -0.091032915 0
1.2251434 -2.061152 -0.089194827 0
1.5270691 -2.3255124 -0.08836215 0
2.6097934 -3.273526 -0.1414416 0
3.9084246 -4.410583 -0.14081548 0
7.8205047 -7.835927 -0.14067934 0
0.69254595 -1.5646503 -0.090253703 0
0.78262836 -1.639595 -0.090544365 0
0.89663368 -1.7344426 -0.090515129 0
1.0556351 -1.8667248 -0.091833599 0
1.2485602 -2.0272303 -0.088702627 0
1.5576308 -2.2843637 -0.088038363 0
2.6621222 -3.2032533 -0.14103471 0
3.9971428 -4.3139329 -0.1410359 0
7.993782 -7.6389651 -0.14077066 0
0.71630192 -1.5544921 -0.092816271 0
0.80519158 -1.6247263 -0.092081718 0
0.91150028 -1.7087237 -0.089750774 0
1.0682675 -1.8325896 -0.090191104 0
1.2781036 -1.9983869 -0.089261539 0
1.6068025 -2.2581007 -0.09005966 0
2.7193851 -3.1371827 -0.14123517 0
4.0686712 -4.2032905 -0.1403783 0
8.1616497 -7.437263 -0.14084871 0
0.73376185 -1.538834 -0.093726836 0
0.8151474 -1.5998676 -0.090711318 0
0.92813694 -1.6846023 -0.089499034 0
1.0927101 -1.8080211 -0.090806849 0
1.3107213 -1.9715147 -0.09036652 0
1.6381897 -2.2170942 -0.090046264 0
2.7636447 -3.06111 -0.14044273 0
4.1599069 -4.1082129 -0.1410439 0
8.3168545 -7.2256446 -0.14070672 0
0.73957419 -1.5146083 -0.091687091 0
0.83280158 -1.5809146 -0.091290988 0
0.95539856 -1.6681095 -0.091518559 0
1.1152216 -1.7817808 -0.091186546 0
1.3294361 -1.934137 -0.089556105 0
1.6801584 -2.1835818 -0.091364779 0
2.813257 -2.9894781 -0.14028983 0
4.2323637 -3.9987922 -0.14076324 0
8.4699907 -7.0127282 -0.14066206 0
0.73691779 -1.4852418 -0.087669097 0
0.84065205 -1.5551479 -0.089743815 0
0.96624851 -1.6397868 -0.090334691 0
1.1271893 -1.7482442 -0.089886241 0
1.3367788 -1.8894857 -0.087290756 0
1.6882216 -2.1263216 -0.088940822 0
2.8683305 -2.9215925 -0.14075367 0
4.3102279 -3.8932815 -0.14094731 0
8.6300955 -6.8044224 -0.14096551 0
0.74559546 -1.4642184 -0.086761139 0
0.86004323 -1.5372142 -0.090946026 0
0.98425478 -1.6164374 -0.090705253 0
1.162347 -1.7300261 -0.09261442 0
1.3739301 -1.8649758 -0.0893512 0
1.7369229 -2.0964956 -0.091215916 0
2.912291 -2.8461561 -0.14043193 0
4.3866005 -3.7864838 -0.14119436 0
8.759469 -6.5755377 -0.14056286 0
0.77201742 -1.4541274 -0.090403788 0
0.87370574 -1.5154318 -0.090970524 0
1.0011945 -1.5922903 -0.090979539 0
1.1736115 -1.6962345 -0.091456689 0
1.408269 -1.8377013 -0.091081865 0
1.7431955 -2.0396168 -0.088915072 0
2.965085 -2.7762516 -0.14099275 0
4.4499974 -3.6714537 -0.14088 0
8.903513 -6.3563223 -0.14072266 0
0.77958965 -1.4323002 -0.089447431 0
0.88555658 -1.4925922 -0.090722106 0
1.0137644 -1.5655384 -0.090539716 0
1.189798 -1.665696 -0.091250204 0
1.4145716 -1.7935852 -0.089111172 0
1.7892472 -2.0067639 -0.091074236 0
3.0032716 -2.6975062 -0.14051364 0
4.511796 -3.5558097 -0.1406412 0
9.0462523 -6.1357732 -0.14099438 0
0.79750293 -1.4162575 -0.091131695 0
0.88868284 -1.4651328 -0.088736616 0
1.0321224 -1.542021 -0.091311939 0
1.1970183 -1.6304106 -0.089740582 0
1.453595 -1.7679441 -0.091654591 0
1.8072504 -1.9575148 -0.090322383 0
3.0460076 -2.6215286 -0.14056058 0
4.5738239 -3.4404876 -0.14057295 0
9.175456 -5.9071107 -0.14105329 0
0.80734712 -1.3956841 -0.09097103 0
0.90978509 -1.4473103 -0.090714805 0
1.044607 -1.5152572 -0.091103412 0
1.2216674 -1.6044912 -0.091133945 0
1.452239 -1.7206936 -0.088966422 0
1.8414526 -1.9168475 -0.091403998 0
3.0919282 -2.5470562 -0.14100738 0
4.6357117 -3.3250844 -0.14065102 0
9.2837982 -5.6676035 -0.14071953 0
0.81899834 -1.3759912 -0.09135998 0
0.93017989 -1.4285493 -0.092616476 0
1.0554111 -1.487749 -0.090715431 0
1.2318667 -1.5711637 -0.090366937 0
1.4855437 -1.6910826 -0.090945967 0
1.8628875 -1.8694618 -0.09126129 0
3.1366825 -2.4716141 -0.14150493 0
4.6980934 -3.209729 -0.1409045 0
9.4014988 -5.4331369 -0.14078686 0
0.82337797 -1.352966 -0.090170763 0
0.93263292 -1.4012793 -0.090900116 0
1.0543919 -1.4551221 -0.088332541 0
1.235 -1.5349885 -0.088652678 0
1.5070184 -1.6552773 -0.091487847 0
1.8765359 -1.8186809 -0.090448253 0
3.1711488 -2.3911691 -0.14135695 0
4.7406678 -3.0852232 -0.14029601 0
9.5136642 -5.1958804 -0.14086403 0
0.84274864 -1.3364121 -0.092575006 0
0.94355512 -1.3779813 -0.091067977 0
1.0701221 -1.4301733 -0.089099161 0
1.2624677 -1.5094903 -0.090794884 0
1.5216284 -1.6163595 -0.091271169 0
1.8972427 -1.7712502 -0.09048637 0
3.2001538 -2.3085275 -0.1409519 0
4.8010917 -2.9687009 -0.14075178 0
9.6268826 -4.9586959 -0.1411183 0
0.84228045 -1.3116305 -0.090535812 0
0.94838017 -1.3522815 -0.090123631 0
1.0927899 -1.4076107 -0.091190822 0
1.2672329 -1.4744468 -0.089597173 0
1.5277053 -1.5742441 -0.090112142 0
1.9196455 -1.7244122 -0.090813927 0
3.2315052 -2.2270381 -0.14088333 0
4.850987 -2.8475266 -0.1408256 0
9.7207355 -4.7133222 -0.14103776 0
0.84526712 -1.2885716 -0.08943563 0
0.97209412 -1.3335284 -0.093092583 0
1.0965048 -1.3776286 -0.090058781 0
1.271616 -1.4397008 -0.088485666 0
1.5525717 -1.5392921 -0.091425709 0
1.9445568 -1.6782404 -0.091504596 0
3.2611475 -2.1449366 -0.1408419 0
4.9024448 -2.7267325 -0.14112774 0
9.8002548 -4.4628749 -0.14075784 0
0.86012393 -1.2696457 -0.091129221 0
0.96441847 -1.3036785 -0.089912288 0
1.1031225 -1.3489397 -0.089569248 0
1.2950215 -1.4115592 -0.090325512 0
1.5587511 -1.4976181 -0.090540104 0
1.9599962 -1.6285503 -0.091374539 0
3.2969284 -2.0648112 -0.14140524 0
4.9314651 -2.5981848 -0.14047854 0
9.8892336 -4.2159781 -0.14086683 0
0.8675372 -1.2480624 -0.091265254 0
0.97414017 -1.2798958 -0.09032432 0
1.1155444 -1.3221214 -0.090203635 0
1.2992258 -1.3769716 -0.089439921 0
1.5607473 -1.4550662 -0.089279704 0
1.9648805 -1.5757471 -0.090339892 0
3.3127334 -1.9782382 -0.14065506 0
4.9819045 -2.4766803 -0.14103317 0
9.9541082 -3.961462 -0.14054193 0
0.86428785 -1.2235373 -0.089172356 0
0.98721105 -1.2568904 -0.09150476 0
1.1224064 -1.2935733 -0.090002544 0
1.3145539 -1.3457092 -0.09030778 0
1.569688 -1.4149354 -0.088999398 0
1.96984 -1.5235096 -0.089448951 0
3.345994 -1.8969049 -0.14133328 0
5.0216579 -2.351567 -0.14121698 0
10.034508 -3.7117159 -0.14074858 0
0.8733868 -1.2025272 -0.089930244 0
0.9906497 -1.2311885 -0.090923227 0
1.1298909 -1.2652217 -0.09003032 0
1.3153468 -1.3105508 -0.089181997 0
1.5698813 -1.3727641 -0.087790661 0
1.9794991 -1.4728827 -0.089142151 0
3.3764155 -1.8143165 -0.14195122 0
5.0484715 -2.2229998 -0.14093137 0
10.101222 -3.4579914 -0.14077775 0
0.8804689 -1.1808786 -0.090360932 0
0.99917042 -1.2067362 -0.091449969 0
1.1363471 -1.2366184 -0.090005703 0
1.326027 -1.2779377 -0.089612477 0
1.6025934 -1.338184 -0.090605922 0
1.9859052 -1.4216834 -0.088648684 0
3.3902731 -1.7276064 -0.14153023 0
5.0677958 -2.0930326 -0.14044555 0
10.166063 -3.2036231 -0.14091504 0
0.88129151 -1.1579125 -0.089553379 0
0.99812341 -1.1802911 -0.090257995 0
1.1404486 -1.2075527 -0.089708291 0
1.3342021 -1.244665 -0.089800514 0
1.6211038 -1.2996196 -0.091821752 0
2.5492373 -1.4773986 -0.14120944 0
3.3915219 -1.6387339 -0.14036995 0
5.1030936 -1.9665763 -0.14087512 0
10.215793 -2.9458866 -0.14084627 0
0.8960256 -1.1374283 -0.091871642 0
0.99752587 -1.1542271 -0.089284487 0
1.1448103 -1.1786035 -0.089577936 0
1.3366799 -1.2103591 -0.08929611 0
1.6147249 -1.2563771 -0.090199642 0
2.5664051 -1.4138855 -0.14174527 0
3.4118223 -1.5538068 -0.14072381 0
5.1154003 -1.8357583 -0.14036894 0
10.265757 -2.6881709 -0.14093699 0
0.89773679 -1.1145549 -0.091497861 0
1.0138165 -1.1307693 -0.091651522 0
1.148663 -1.149605 -0.089485072 0
1.3382623 -1.1760888 -0.0887895 0
1.6287088 -1.2166593 -0.091115259 0
2.5628526 -1.3471434 -0.14047778 0
3.4280992 -1.4680037 -0.140944 0
5.1462836 -1.708005 -0.14089327 0
10.300032 -2.4278963 -0.14081207 0
0.90223706 -1.0920742 -0.091845565 0
1.0118086 -1.1045699 -0.090655334 0
1.1576539 -1.1212025 -0.090363659 0
1.3415101 -1.1421697 -0.088642471 0
1.6229988 -1.1742713 -0.089829735 0
2.5878093 -1.2843002 -0.14205074 0
3.4367993 -1.3811208 -0.14078306 0
5.1720052 -1.5790071 -0.14132556 0
10.331421 -2.1673973 -0.14077392 0
0.89912939 -1.0688223 -0.090690248 0
1.0150095 -1.0790833 -0.090771459 0
1.1259298 -1.0889051 -0.084640987 0
1.1294398 -1.0892159 -0.058238629 0
1.6319596 -1.133713 -0.090394072 0
2.5710227 -1.2168654 -0.13985744 0
3.4449461 -1.2942497 -0.14073776 0
5.1756873 -1.4475036 -0.14087918 0
10.353102 -1.9059539 -0.14066294 0
0.9025858 -1.0462453 -0.091059931 0
1.028246 -1.054183 -0.092902876 0
1.1378206 -1.0611047 -0.086244218 0
1.1174208 -1.059816 -0.056241754 0
1.6414337 -1.0929168 -0.091137655 0
2.5814726 -1.1522971 -0.14037427 0
3.4591217 -1.2077365 -0.14126857 0
5.1803508 -1.316463 -0.14063428 0
10.386794 -1.6453433 -0.14098583 0
0.90077448 -1.0233665 -0.090430029 0
1.0122987 -1.0275898 -0.089650072 0
1.1293257 -1.0320214 -0.084608622 0
1.1330429 -1.0321622 -0.058238525 0
1.6372917 -1.0512574 -0.090408497 0
2.5842049 -1.0871156 -0.14032206 0
3.4547143 -1.1200806 -0.14065164 0
5.2006788 -1.1861978 -0.14127356 0
10.385508 -1.3825397 -0.14064769 0
0.89208144 -1.0005358 -0.088460214 0
1.032481 -1.0023074 -0.093330346 0
1.1323899 -1.0035679 -0.0849941 0
1.1368613 -1.0036244 -0.058673818 0
1.1336102 -1.0035834 -0.031415049 0
1.1302043 -1.0035404 -0.0044407006 0
1.1350098 -1.0036011 0.021684313 0
1.1344984 -1.0035946 0.048195381 0
1.1237363 -1.0034587 0.074863605 0
1.1325055 -1.0035695 0.1010027 0
1.1233538 -1.003454 0.12713243 0
1.136776 -1.0036234 0.15391646 0
1.1299503 -1.0035372 0.17996754 0
1.1346375 -1.0035963 0.20686063 0
1.1372896 -1.0036298 0.23385167 0
1.1324486 -1.0035688 0.26006031 0
1.1292841 -1.0035288 0.28649059 0
1.134178 -1.0035906 0.31449443 0
0.89732963 -0.97798258 -0.089575864 0
1.009572 -0.97656637 -0.089015089 0
1.1253116 -0.975106 -0.083830677 0
1.1347979 -0.97498631 -0.058383796 0
1.642385 -0.96858186 -0.090881966 0
2.5926185 -0.95659226 -0.14095382 0
3.4631095 -0.94560885 -0.14108478 0
5.1939492 -0.92377001 -0.14080599 0
10.394863 -0.8581475 -0.14071135 0
0.89241993 -0.95553458 -0.088652901 0
1.0144328 -0.95091414 -0.090052314 0
1.1349442 -0.94635051 -0.085532673 0
1.1299793 -0.94653857 -0.057807658 0
1.6425548 -0.92712808 -0.091024049 0
2.5880277 -0.89132434 -0.14067915 0
3.4479969 -0.85875851 -0.14018171 0
5.1878448 -0.79287297 -0.14067563 0
10.393577 -0.59573936 -0.14083542 0
0.89708155 -0.9326871 -0.089887612 0
1.0231692 -0.92472237 -0.091944747 0
1.1270247 -0.91816205 -0.084466361 0
1.1285174 -0.91806775 -0.05780432 0
1.6439431 -0.88550937 -0.091431506 0
2.5900159 -0.82574785 -0.1411733 0
3.4577038 -0.7709378 -0.14116925 0
5.1869254 -0.66170645 -0.14094095 0
10.379497 -0.33370236 -0.14081581 0
0.89920723 -0.90975547 -0.090706863 0
1.010601 -0.89989179 -0.089937858 0
1.1500211 -0.88754636 -0.088615917 0
1.3539999 -0.86948448 -0.089920588 0
1.6350329 -0.84459949 -0.090754665 0
2.5834959 -0.76061487 -0.14102623 0
3.4486637 -0.68400586 -0.14099868 0
5.1785479 -0.53082782 -0.14101288 0
10.371827 -0.07097277 -0.14109999 0
0.90176141 -0.88656473 -0.091743819 0
1.0090718 -0.87432688 -0.090136506 0
1.1546255 -0.85772765 -0.089862727 0
1.3422779 -0.83632737 -0.08875107 0
1.6429824 -0.80203444 -0.092180409 0
2.5736394 -0.69590038 -0.14071955 0
3.4467885 -0.59632474 -0.14148594 0
5.1597834 -0.40097138 -0.14075288 0
10.324178 0.18798664 -0.14060444 0
0.8953656 -0.86436099 -0.090988941 0
1.0141635 -0.84776694 -0.091717504 0
1.1488479 -0.8289538 -0.089515753 0
1.3462551 -0.80137938 -0.089923672 0
1.6269368 -0.76217288 -0.090906151 0
2.5653868 -0.6310873 -0.14071661 0
3.425812 -0.51090044 -0.14078256 0
5.1453662 -0.27070782 -0.14085014 0
10.289231 0.44780305 -0.14055851 0
0.87355882 -0.84487474 -0.087031089 0
1.0073075 -0.82273859 -0.091151915 0
1.1484544 -0.79937798 -0.090185009 0
1.340986 -0.76751292 -0.089909486 0
1.6276748 -0.72006434 -0.091733746 0
2.5517197 -0.56712973 -0.14035589 0
3.413121 -0.42456302 -0.14081582 0
5.1218228 -0.1417633 -0.14067201 0
10.260199 0.70866638 -0.14080599 0
0.89760703 -0.81754708 -0.093084477 0
0.99601597 -0.79869735 -0.089853831 0
1.1324028 -0.77257323 -0.088361911 0
1.332563 -0.73423356 -0.08956597 0
1.3411263 -0.7325933 -0.058505002 0
1.3354188 -0.73368657 -0.025851509 0
1.3494236 -0.731004 0.0049873088 0
1.3461704 -0.73162717 0.037206773 0
1.3378205 -0.73322654 0.06932307 0
1.3482314 -0.73123235 0.10100956 0
0.89078689 -0.79545838 -0.092605568 0
1.0041976 -0.77075338 -0.092419036 0
1.1305501 -0.74322915 -0.089030616 0
1.2009841 -0.72788602 -0.071627505 0
1.1918737 -0.72987062 -0.041478027 0
1.214076 -0.72503412 -0.014916373 0
1.2142096 -0.72500503 0.01416474 0
1.1999003 -0.72812212 0.043845858 0
1.2016678 -0.72773707 0.07239905 0
1.2092978 -0.72607499 0.1010057 0
0.88141191 -0.77409607 -0.091686301 0
0.98276669 -0.74932295 -0.089394756 0
1.1191308 -0.71599293 -0.08820983 0
1.195506 -0.69732529 -0.071844436 0
1.2081361 -0.69423825 -0.044267733 0
1.2052439 -0.69494516 -0.014745494 0
1.2045753 -0.69510859 0.014350401 0
1.2020814 -0.69571817 0.043407228 0
1.207552 -0.69438106 0.07209111 0
1.2101163 -0.69375426 0.10100593 0
0.86375278 -0.75519252 -0.089054503 0
0.98213744 -0.72307086 -0.090514578 0
1.1223826 -0.68501782 -0.089998506 0
1.2122046 -0.6606462 -0.075404085 0
1.2126834 -0.66051626 -0.045766477 0
1.2180201 -0.65906829 -0.016736491 0
1.1965196 -0.66490203 0.014368506 0
1.2020832 -0.66339248 0.043031391 0
1.2057438 -0.66239923 0.071946159 0
1.2097789 -0.66130435 0.10100616 0
0.85988557 -0.73280728 -0.089567848 0
0.96962345 -0.70003772 -0.089436464 0
1.1062075 -0.65925151 -0.088602133 0
1.1999966 -0.63124454 -0.0748863 0
1.1954591 -0.63259947 -0.044724438 0
1.2009214 -0.63096833 -0.01592022 0
1.2138354 -0.62711203 0.012480231 0
1.1997091 -0.63133037 0.042728648 0
1.2015903 -0.6307686 0.071837507 0
1.2080451 -0.6288411 0.10100636 0
0.85915607 -0.70925486 -0.090912826 0
0.96928549 -0.67331797 -0.090876572 0
1.1042944 -0.62926263 -0.08977183 0
1.1958778 -0.59937757 -0.075669311 0
1.2091832 -0.59503579 -0.047564808 0
1.1986439 -0.59847492 -0.016621796 0
1.2009771 -0.59771359 0.012725407 0
1.2016773 -0.59748507 0.042171285 0
1.2056662 -0.59618348 0.071507238 0
1.2158496 -0.59286046 0.10100688 0
0.84593213 -0.68977737 -0.08958561 0
0.96623719 -0.6471324 -0.091922157 0
1.0996708 -0.59983385 -0.090610825 0
1.2100445 -0.5607093 -0.079305179 0
1.1960481 -0.56567061 -0.047217239 0
1.206542 -0.5619508 -0.018418221 0
1.2042408 -0.56276655 0.011722187 0
1.2105581 -0.56052727 0.041225478 0
1.2054559 -0.56233579 0.071258292 0
1.2117497 -0.56010485 0.10100707 0
0.84083426 -0.6675083 -0.090206631 0
0.95935333 -0.62209892 -0.092336945 0
1.0819118 -0.57514191 -0.089276247 0
1.2062279 -0.52751142 -0.08041615 0
1.2073388 -0.52708578 -0.050015721 0
1.2114178 -0.52552295 -0.020021705 0
1.2134877 -0.52472991 0.01019557 0
1.2088056 -0.52652383 0.040754318 0
1.202836 -0.52881098 0.071045756 0
1.2158743 -0.52381545 0.10100754 0
0.8471002 -0.64037818 -0.09357553 0
0.93702966 -0.60329425 -0.089738511 0
1.0829176 -0.54313499 -0.091373898 0
1.2017233 -0.49414343 -0.081560858 0
1.2037185 -0.49332067 -0.051080901 0
1.2023077 -0.4939025 -0.020322246 0
1.2115769 -0.49008015 0.0094244946 0
1.1999727 -0.49486533 0.040591769 0
1.2115861 -0.49007633 0.070523873 0
1.207142 -0.491909 0.10100764 0
0.82641786 -0.62427449 -0.090877287 0
0.92284912 -0.58163184 -0.088885196 0
1.0780927 -0.51298189 -0.092591666 0
1.2128239 -0.45340267 -0.08524505 0
1.2023344 -0.45804116 -0.052552108 0
1.2048892 -0.45691147 -0.021900406 0
1.2008661 -0.45869049 0.0092509706 0
1.2160408 -0.45198008 0.039119404 0
1.2002776 -0.45895079 0.070481353 0
1.2056333 -0.4565824 0.101008 0
0.81879264 -0.6026907 -0.091311611 0
0.91734022 -0.55610496 -0.089941509 0
1.0674232 -0.48515728 -0.092899106 0
1.2274733 -0.40949795 -0.089684002 0
1.480582 -0.28984758 -0.090304546 0
1.8614448 -0.10980496 -0.091112338 0
3.1225266 0.48633757 -0.14041029 0
4.6965752 1.2304268 -0.14082634 0
9.4041128 3.4557884 -0.14085409 0
0.80459416 -0.58428794 -0.090315737 0
0.91652125 -0.52787948 -0.092135586 0
1.0421016 -0.46459016 -0.090642311 0
1.2195445 -0.37516329 -0.090799861 0
1.4595251 -0.25421908 -0.089920007 0
1.8308182 -0.067096621 -0.090292446 0
3.0869443 0.56595975 -0.14061721 0
4.6370702 1.3471844 -0.14072184 0
9.2838078 3.6890242 -0.14071979 0
0.79899299 -0.5615285 -0.091491066 0
0.90920669 -0.50245041 -0.093122639 0
1.0290809 -0.43819401 -0.090744771 0
1.2076025 -0.3425006 -0.091428243 0
1.4370301 -0.21952 -0.089457996 0
1.8195184 -0.014493909 -0.09162163 0
3.0466905 0.64331013 -0.14061476 0
4.5812802 1.4658997 -0.1409668 0
9.1592579 3.9198434 -0.14062597 0
0.7791397 -0.54654038 -0.089337401 0
0.88829678 -0.48443344 -0.091315933 0
1.0230205 -0.40777984 -0.092289977 0
1.1791601 -0.31894132 -0.089530148 0
1.2100375 -0.30137303 -0.061608169 0
1.2304533 -0.2897571 -0.031064725 0
3.0110567 0.72335082 -0.14113981 0
4.5242181 1.5842927 -0.14130655 0
9.0411959 4.1543126 -0.14085913 0
0.77622837 -0.52191865 -0.091448955 0
0.87289107 -0.46364406 -0.090791352 0
1.0038323 -0.3847042 -0.091485746 0
1.166986 -0.2863445 -0.090369456 0
1.1424888 -0.30111304 -0.054811064 0
1.1875259 -0.27396175 -0.028352385 0
2.9511106 0.78924209 -0.139852 0
4.4372802 1.6852019 -0.14018868 0
8.9026661 4.3772273 -0.14069965 0
0.76032931 -0.50496894 -0.09047579 0
0.85104156 -0.44711187 -0.08893504 0
0.98187768 -0.36366341 -0.090241872 0
1.1390685 -0.26340577 -0.088734202 0
1.1388168 -0.26356629 -0.056759376 0
1.1815468 -0.23631266 -0.029730415 0
2.9093292 0.86568242 -0.14018632 0
4.3783488 1.8026361 -0.14073871 0
8.7667084 4.6015706 -0.14076249 0
0.75279188 -0.48264542 -0.091737993 0
0.84590268 -0.41989836 -0.090936385 0
0.97071642 -0.33578691 -0.091220178 0
1.1327688 -0.22658053 -0.090831779 0
1.1367576 -0.22389242 -0.05910084 0
1.1667373 -0.20368925 -0.030244207 0
2.8704011 0.94440323 -0.14092824 0
4.3002138 1.9079483 -0.14038512 0
8.627924 4.8243752 -0.14090464 0
0.74199742 -0.46225294 -0.092319168 0
0.82694864 -0.40183291 -0.089938186 0
0.95291412 -0.31224218 -0.091017492 0
1.1047013 -0.20428637 -0.089372255 0
1.1465012 -0.17455694 -0.06331978 0
1.140335 -0.17894253 -0.029532945 0
2.8199449 1.0156498 -0.14086357 0
4.2310743 2.0192904 -0.1406896 0
8.4648876 5.0305142 -0.14051646 0
0.71813828 -0.45146742 -0.089575745 0
0.8202424 -0.3748962 -0.091910847 0
0.94281781 -0.28297284 -0.092514955 0
1.0974916 -0.16697791 -0.091646768 0
1.0923781 -0.17081264 -0.058469448 0
1.1012142 -0.16418621 -0.027396431 0
1.0957371 -0.16829363 0.0053056721 0
1.103967 -0.1621218 0.036785658 0
1.1055112 -0.16096368 0.068870209 0
1.1067356 -0.16004553 0.10100985 0
1.1055918 -0.1609033 0.1331518 0
1.0998429 -0.16521457 0.16499375 0
1.1041243 -0.16200384 0.19744714 0
0.7091189 -0.42976806 -0.090870343 0
0.79495555 -0.36194614 -0.089624576 0
0.91755915 -0.26507375 -0.091019876 0
1.0570227 -0.15487984 -0.088177077 0
1.1080343 -0.11457428 -0.063929237 0
1.0988897 -0.12179956 -0.029638132 0
1.1005244 -0.12050799 0.0030024445 0
1.096614 -0.12359765 0.035962801 0
1.1028707 -0.11865404 0.068318732 0
1.0978037 -0.12265769 0.10101031 0
1.0938829 -0.12575564 0.13343531 0
1.1020161 -0.1193293 0.16637881 0
1.0950915 -0.12480065 0.19853429 0
0.68698984 -0.41855678 -0.088717408 0
0.78213304 -0.33940175 -0.09042301 0
0.89613998 -0.24455288 -0.090409584 0
1.0290898 -0.13394442 -0.086980812 0
1.1003656 -0.074646026 -0.066172294 0
1.1024207 -0.072936207 -0.032766897 0
1.0934103 -0.080432564 0.0016241467 0
1.1016692 -0.07356146 0.034312781 0
1.1018653 -0.073398322 0.067674145 0
1.0964199 -0.077928632 0.10101108 0
1.0956078 -0.078604311 0.13415875 0
1.0972092 -0.077271968 0.16743952 0
1.0973444 -0.077159554 0.20075625 0
0.68073934 -0.39410266 -0.091081612 0
0.76837188 -0.31737331 -0.09114524 0
0.88506579 -0.21519831 -0.092157446 0
0.99715638 -0.11705384 -0.085108273 0
1.1008906 -0.026226129 -0.069893129 0
1.0951254 -0.031274047 -0.034773726 0
1.0963925 -0.030164625 -0.0008160749 0
1.0932593 -0.032907929 0.033381801 0
1.0916634 -0.03430536 0.067264445 0
1.1021938 -0.025085118 0.10101219 0
1.0950142 -0.031371381 0.13486297 0
1.1019202 -0.025324669 0.16917865 0
1.1102561 -0.018025961 0.20412967 0
1.0961105 -0.030411568 0.23692057 0
1.0954262 -0.031010654 0.37504905 0
0.66969144 -0.37328526 -0.092291303 0
0.7511301 -0.29826584 -0.0911339 0
0.85281432 -0.20459667 -0.089377902 0
0.97500074 -0.092041284 -0.085140549 0
1.0607293 -0.013070133 -0.067428194 0
1.1071544 0.029695544 -0.03941207 0
1.0934657 0.017085824 -0.0028712207 0
1.0962219 0.019624863 0.031644892 0
1.0987252 0.021930847 0.066268533 0
1.1043779 0.027138028 0.10101323 0
1.0965163 0.019895945 0.13568752 0
1.0986849 0.021893773 0.17053722 0
1.0969044 0.020253573 0.20522436 0
1.0994972 0.022641931 0.24046715 0
1.0397168 -0.032426383 0.36706111 0
0.64518303 -0.36509022 -0.089700587 0
0.73167109 -0.28128818 -0.090665765 0
0.84097522 -0.17537859 -0.091261499 0
0.83686763 -0.17935857 -0.062600754 0
0.84585798 -0.17064747 -0.036523867 0
0.83463472 -0.18152216 -0.0073801111 0
0.83940238 -0.17690256 0.019354651 0
0.83840239 -0.17787156 0.046685003 0
0.84458578 -0.17188016 0.073658861 0
0.83093131 -0.18511054 0.10100339 0
0.83664554 -0.17957374 0.12809135 0
0.84354961 -0.17288414 0.15565659 0
0.84280837 -0.17360237 0.18298495 0
1.1019025 0.077445298 0.24414589 0
1.0072894 -0.014229562 0.29797196 0
1.0063852 -0.015105572 0.33113798 0
0.99550265 -0.02565017 0.36188218 0
0.63176411 -0.34645107 -0.090470083 0
0.70466125 -0.27216122 -0.088268675 0
0.81749403 -0.15717277 -0.090633087 0
0.83713889 -0.13715252 -0.066809021 0
0.84127748 -0.1329349 -0.039251152 0
0.83611202 -0.138199 -0.010328522 0
0.83953983 -0.13470575 0.017268324 0
0.83649516 -0.13780859 0.04543322 0
0.83950585 -0.13474038 0.073133931 0
0.838256 -0.13601407 0.10100453 0
0.83865499 -0.13560751 0.12884694 0
0.84397 -0.13019094 0.1570733 0
0.84113711 -0.13307795 0.18490073 0
0.84154665 -0.1326606 0.2130627 0
1.1040579 0.13486603 0.2851333 0
0.94258052 -0.029696431 0.28998533 0
0.94668454 -0.025513973 0.32296875 0
0.95514327 -0.016893651 0.35765091 0
0.61025614 -0.33619383 -0.088884734 0
0.69566453 -0.24464324 -0.090842389 0
0.79443032 -0.13877466 -0.090197347 0
0.84160864 -0.08820352 -0.072214119 0
0.8447817 -0.0848023 -0.043599237 0
0.839454 -0.09051314 -0.013760505 0
0.84656179 -0.082894176 0.014311576 0
0.83525974 -0.095008999 0.044033181 0
0.84198219 -0.087803096 0.072305538 0
0.83838052 -0.091663808 0.10100544 0
0.83666074 -0.09350726 0.12952387 0
0.84111154 -0.088736385 0.15837745 0
0.84035921 -0.089542836 0.18706416 0
0.84283668 -0.086887151 0.21623524 0
1.0932047 0.18148604 0.28819504 0
0.93498522 0.011888299 0.29347175 0
0.93617296 0.013161454 0.32636866 0
0.927248 0.0035946106 0.35680658 0
0.60062957 -0.31308374 -0.091141976 0
0.68077469 -0.22270718 -0.092011847 0
0.77376461 -0.11784592 -0.090456523 0
0.84876359 -0.033272471 -0.078601934 0
0.84260988 -0.040211763 -0.047283951 0
0.83871984 -0.044598367 -0.016885025 0
0.83853972 -0.0448015 0.012718806 0
0.83487463 -0.048934486 0.042458352 0
0.84205413 -0.040838446 0.071496569 0
0.83746189 -0.046016958 0.10100639 0
0.82956684 -0.054919865 0.13007797 0
0.84514499 -0.037352946 0.16027589 0
0.84809089 -0.03403106 0.19030161 0
0.83288574 -0.051177289 0.21807727 0
1.101819 0.25208846 0.29498053 0
1.0929291 0.24206379 0.33235586 0
0.58018535 -0.30195692 -0.09008909 0
0.65645128 -0.21145406 -0.09061899 0
0.73322183 -0.12035236 -0.085786797 0
0.85054827 0.018876109 -0.084310554 0
0.83227712 -0.0028058554 -0.049801607 0
0.84238386 0.0091875531 -0.020906946 0
0.84658432 0.014172111 0.0092318151 0
0.84036684 0.0067940089 0.040328287 0
0.83821732 0.0042432281 0.070761912 0
0.84252197 0.0093514062 0.10100768 0
0.84103096 0.0075820419 0.13135487 0
0.84107393 0.0076330635 0.16173819 0
0.84701467 0.014682803 0.19283099 0
0.84487295 0.012141261 0.22328371 0
0.83214372 -0.0029641653 0.25179285 0
1.1029489 0.3183935 0.34139615 0
0.56841165 -0.2803745 -0.092045926 0
0.63682181 -0.19490746 -0.090680726 0
0.72702843 -0.082209378 -0.089985378 0
0.85001588 0.071442753 -0.08997225 0
0.85102445 0.072702795 -0.058012489 0
0.83483291 0.052474294 -0.023582077 0
0.84005958 0.059004102 0.0070991982 0
0.84017259 0.059145246 0.038450506 0
0.83472306 0.052336965 0.069949314 0
0.84264708 0.0622367 0.10100885 0
0.83814394 0.056610856 0.13219529 0
0.84543926 0.065725118 0.16395998 0
0.83733279 0.055597339 0.19461334 0
0.83959132 0.058419142 0.22631092 0
0.83651865 0.054580364 0.25731769 0
1.0979617 0.38120952 0.34777626 0
1.0989966 0.38250247 0.38985863 0
0.5492999 -0.26765767 -0.091678999 0
0.61853606 -0.17653808 -0.091290854 0
0.70427769 -0.063696116 -0.090085082 0
0.72896445 -0.031206634 -0.068133049 0
0.7327283 -0.02625313 -0.040388752 0
0.72840101 -0.031948175 -0.011257833 0
0.72686279 -0.033972587 0.017092193 0
0.72860074 -0.031685259 0.044979807 0
0.72638196 -0.03460541 0.073092699 0
0.72845238 -0.031880584 0.10100473 0
0.7270565 -0.033717658 0.12894258 0
0.72407413 -0.037642624 0.15668106 0
0.72528917 -0.036043551 0.18473546 0
0.72960967 -0.030357447 0.21345447 0
0.73082668 -0.028755751 0.24203202 0
0.73191822 -0.027319279 0.2708303 0
0.73084354 -0.028733578 0.29931334 0
0.72488785 -0.036571708 0.32641217 0
0.52648121 -0.26020792 -0.090066157 0
0.59830862 -0.16055509 -0.091444112 0
0.68564928 -0.039379265 -0.09147618 0
0.7329554 0.026252899 -0.07495793 0
0.95874131 0.33950654 -0.090467371 0
0.85491717 0.19546166 -0.035346795 0
0.84189039 0.17738846 0.00042993785 0
0.83945632 0.1740115 0.034211475 0
0.83928818 0.17377821 0.067636169 0
0.84178096 0.17723671 0.10101145 0
0.83371246 0.16604248 0.13416427 0
0.844827 0.18146268 0.1682395 0
0.8440845 0.18043259 0.20185591 0
0.83334082 0.16552678 0.2339253 0
0.83694142 0.17052224 0.26814565 0
0.84008902 0.17488924 0.30273136 0
1.099553 0.5348677 0.40986603 0
0.51537025 -0.23627219 -0.092874326 0
0.57283008 -0.15215722 -0.089982055 0
0.65658963 -0.029542353 -0.09005592 0
0.7697224 0.13607183 -0.090560265 0
0.91707188 0.35177556 -0.088843442 0
1.1479177 0.68970889 -0.088823475 0
0.85334438 0.25848535 -0.0046711396 0
0.83893102 0.23738578 0.031810317 0
0.83650714 0.23383752 0.066530198 0
0.83710116 0.23470703 0.10101271 0
0.84491134 0.24614027 0.13584249 0
0.83559054 0.23249558 0.16993944 0
0.84326059 0.24372378 0.20544785 0
0.83949029 0.23820451 0.23981194 0
0.84174615 0.24150673 0.27526313 0
0.83285016 0.22848406 0.30831498 0
1.1007588 0.62067312 0.42152834 0
1.1014125 0.62163013 0.46854085 0
0.49022797 -0.23277852 -0.090533979 0
0.55569226 -0.13155362 -0.091426961 0
0.63246858 -0.012837436 -0.090147637 0
0.73464924 0.14516059 -0.088895135 0
0.88843518 0.38295379 -0.090025268 0
1.1117303 0.72822624 -0.089947663 0
1.4759202 1.2913587 -0.088905908 0
0.84743822 0.31956175 0.028404841 0
0.84257859 0.31204751 0.064937584 0
0.84128428 0.31004611 0.10101457 0
0.84446055 0.31495753 0.13717252 0
0.83590382 0.30172649 0.17263511 0
0.8373704 0.30399433 0.20873176 0
0.83394057 0.29869094 0.24422999 0
0.84335685 0.31325081 0.28235427 0
0.84022892 0.30841425 0.31824854 0
0.84088212 0.30942431 0.35525426 0
1.0971744 0.70571893 0.48129371 0
0.47241583 -0.21833447 -0.091117121 0
0.53066671 -0.12307563 -0.090268977 0
0.60991234 0.0065163109 -0.090866469 0
0.70695943 0.16521934 -0.089209534 0
0.85409468 0.40583256 -0.090151869 0
1.0733985 0.76446432 -0.090906031 0
1.4293025 1.3464811 -0.090432875 0
0.84319204 0.38800326 0.025812754 0
0.84870636 0.39702097 0.063189216 0
0.83502036 0.3746399 0.10101604 0
0.84022295 0.38314787 0.1384654 0
0.84164095 0.38546672 0.17608182 0
0.83557516 0.37554732 0.21290298 0
0.84334344 0.38825086 0.25177875 0
0.83902663 0.3811914 0.28880998 0
0.84229308 0.38653317 0.3277007 0
0.84368849 0.38881508 0.36654967 0
1.1050311 0.81619388 0.49970254 0
0.45202205 -0.20805618 -0.090780564 0
0.50736791 -0.11219457 -0.089788802 0
0.58138382 0.016004477 -0.089811511 0
0.68046927 0.1876252 -0.090014525 0
0.81594771 0.42228022 -0.089526601 0
1.0273218 0.78838998 -0.090628557 0
1.3683326 1.3790369 -0.090211801 0
1.3750252 1.3906286 -0.026966339 0
0.84276021 0.4687207 0.061826661 0
0.83580333 0.45667115 0.10101806 0
0.83761954 0.45981684 0.13997068 0
0.83956552 0.46318749 0.1791469 0
0.83987951 0.4637312 0.21836126 0
0.84154981 0.46662429 0.25798622 0
0.84511006 0.47279075 0.29838169 0
0.84063017 0.46503142 0.33706936 0
0.83749312 0.45959798 0.37603411 0
0.83801544 0.46050265 0.41638395 0
0.43182364 -0.19755569 -0.090627812 0
0.48938093 -0.091787428 -0.091484882 0
0.55474275 0.02832273 -0.089436151 0
0.65197206 0.20699301 -0.090430222 0
0.78500134 0.45145002 -0.090731643 0
0.97735173 0.80491656 -0.089693077 0
1.2898383 1.3791475 -0.087534748 0
1.2904552 1.380281 -0.024620553 0
1.2879295 1.3756399 0.038370293 0
0.84546751 0.56256372 0.10102084 0
0.84279364 0.55765015 0.14201881 0
0.84186316 0.55594033 0.18297072 0
0.84044415 0.55333275 0.22384936 0
0.83376759 0.54106373 0.26369563 0
0.83927155 0.55117792 0.30604354 0
0.84477466 0.56129056 0.34915993 0
0.84071827 0.55383641 0.38980916 0
0.84622991 0.56396478 0.43414557 0
0.41201028 -0.18635079 -0.090767808 0
0.46589357 -0.081092089 -0.09120094 0
0.5317266 0.047509942 -0.090458862 0
0.61827224 0.21657315 -0.089409657 0
0.74776429 0.46953049 -0.09056849 0
0.93560588 0.83647114 -0.090478562 0
1.2461922 1.4431882 -0.09006957 0
1.2449806 1.4408212 -0.026124692 0
1.2441055 1.4391117 0.037540887 0
1.2511135 1.4528017 0.10104872 0
0.85291743 0.67494267 0.14454675 0
0.84138644 0.65241748 0.18693745 0
0.8413868 0.6524182 0.2300114 0
0.84011668 0.64993697 0.27296549 0
0.84063011 0.65094 0.31643441 0
0.83751392 0.64485258 0.35907337 0
0.83885229 0.64746708 0.40328014 0
0.83856201 0.6469 0.44729042 0
0.39410686 -0.17106053 -0.091988198 0
0.4424133 -0.070519716 -0.09101937 0
0.50573391 0.06127027 -0.090586312 0
0.59125465 0.23926559 -0.090579204 0
0.71077871 0.48803261 -0.090584598 0
0.8954609 0.87241393 -0.091818802 0
1.1827958 1.4704473 -0.089807056 0
1.7862712 2.7264683 -0.090946399 0
4.5022912 8.3793545 -0.14069268 0
0.85275137 0.78352195 0.19264773 0
0.8373782 0.75152558 0.23609908 0
0.83865607 0.75418538 0.28162783 0
0.83756196 0.75190812 0.3268522 0
0.83411968 0.74474365 0.37144318 0
0.83539099 0.74738973 0.4177452 0
0.83896917 0.75483698 0.46554381 0
0.37215501 -0.16402969 -0.091375731 0
0.4193874 -0.059015777 -0.091155373 0
0.47605634 0.066978723 -0.089380242 0
0.55971986 0.25299147 -0.090459578 0
0.67539757 0.51018292 -0.091188394 0
0.83612621 0.86753815 -0.089070596 0
1.1247146 1.5091693 -0.090549581 0
1.68847 2.7625916 -0.090551369 0
4.2667317 8.494956 -0.14082043 0
1.0659773 1.378576 0.22199112 0
0.84759468 0.89303643 0.24537903 0
0.84028363 0.87678152 0.29207528 0
0.84082544 0.87798601 0.34038192 0
0.84188461 0.88034099 0.38919127 0
0.84226841 0.88119429 0.43817109 0
0.84106982 0.87852949 0.48684415 0
0.34541222 -0.16875008 -0.088189147 0
0.39546862 -0.049502518 -0.091002665 0
0.44964918 0.079569846 -0.089547895 0
0.52132112 0.25031129 -0.08796268 0
0.63808453 0.52847272 -0.091410317 0
0.79387701 0.89961153 -0.090244137 0
1.0618737 1.5380502 -0.090649895 0
1.5995632 2.8189688 -0.091308437 0
4.0242214 8.5951452 -0.14070897 0
0.99478084 1.3782175 0.22065273 0
0.84915829 1.031306 0.25429565 0
0.84213161 1.0145667 0.30394706 0
0.83905244 1.0072312 0.35416031 0
0.84299195 1.0166161 0.40682578 0
0.84269035 1.0158978 0.45851102 0
0.83658665 1.0013571 0.50773263 0
0.33207697 -0.14116713 -0.092559732 0
0.37299016 -0.036367264 -0.091706492 0
0.42123854 0.087221771 -0.08896067 0
0.49472138 0.27544931 -0.089833952 0
0.59674406 0.53678221 -0.090496652 0
0.74836433 0.92515999 -0.090859778 0
1.001073 1.5724773 -0.091285132 0
1.4993693 2.8488717 -0.090847723 0
3.7825768 8.6973467 -0.14080237 0
0.92932558 1.3886952 0.21996003 0
0.85232037 1.1914451 0.26476455 0
0.83708841 1.1524282 0.31570551 0
0.84192151 1.1648083 0.37136579 0
0.83820581 1.1552904 0.42464539 0
0.83327323 1.1426556 0.47724748 0
0.83952522 1.1586702 0.53541446 0
0.30589008 -0.1460326 -0.089632727 0
0.34800923 -0.029550042 -0.091252707 0
0.39602342 0.10323551 -0.089966066 0
0.43336332 0.20650092 -0.0777288 0
0.4348357 0.21057275 -0.048147846 0
0.43583202 0.21332815 -0.018395713 0
0.93523723 1.5944576 -0.091103919 0
1.4016484 2.8843405 -0.090792514 0
3.5392137 8.7958832 -0.14095582 0
0.85701025 1.3781173 0.21831228 0
0.85175091 1.3635724 0.2760244 0
0.83706361 1.3229539 0.33061403 0
0.84215486 1.337034 0.39022747 0
0.83789092 1.3252418 0.4469974 0
0.84255713 1.3381464 0.5078721 0
0.8415677 1.3354101 0.56672227 0
0.28681874 -0.13170126 -0.091180198 0
0.31999883 -0.032154407 -0.0890579 0
0.36565861 0.10483423 -0.088576503 0
0.40449318 0.22134581 -0.07836815 0
0.40403372 0.21996728 -0.048003677 0
0.40255189 0.21552148 -0.017569667 0
0.87006396 1.6181519 -0.091173507 0
1.3035145 2.9185903 -0.090799518 0
3.2885122 8.8739834 -0.14075835 0
0.79404402 1.3900766 0.21787569 0
0.85003746 1.5580683 0.28884077 0
0.83895355 1.5248144 0.34848273 0
0.83829039 1.5228245 0.41060254 0
0.84155524 1.5326197 0.47471002 0
0.83881253 1.5243912 0.53659725 0
0.84539622 1.5441434 0.60411167 0
0.2656765 -0.12284198 -0.091606967 0
0.300616 -0.0084744953 -0.092196263 0
0.33909714 0.11748591 -0.089229293 0
0.37979808 0.25071242 -0.081244029 0
0.38060102 0.25334063 -0.050886352 0
0.38215959 0.25844231 -0.020807235 0
0.72506815 1.3808854 -0.072287329 0
0.7256037 1.3826385 -0.01449213 0
0.72388077 1.3769987 0.043442912 0
0.723185 1.3747213 0.10104097 0
0.7261005 1.3842647 0.15881631 0
0.72653019 1.3856711 0.21672264 0
0.84028131 1.7580128 0.30196059 0
0.83609939 1.7443242 0.36793321 0
0.83682096 1.746686 0.43548796 0
0.83507645 1.7409756 0.50234008 0
0.83510208 1.7410595 0.57034844 0
0.24381937 -0.11612085 -0.091677181 0
0.27234828 -0.013542559 -0.089788474 0
0.31056225 0.1238592 -0.088921286 0
0.36154708 0.30717972 -0.088144191 0
0.43963519 0.58795255 -0.090363897 0
0.54934049 0.98240775 -0.090053909 0
0.66053027 1.3822005 -0.071111821 0
0.65790755 1.3727703 -0.013168303 0
0.66072339 1.382895 0.043722615 0
0.66378164 1.3938913 0.10104102 0
0.65781921 1.372453 0.15810622 0
0.66243225 1.3890395 0.2160365 0
0.81102484 1.9233174 0.31249103 0
0.81465358 1.9363649 0.38459188 0
0.8131544 1.9309745 0.45540103 0
0.81434107 1.9352412 0.52774483 0
0.81267691 1.9292576 0.59902132 0
0.2191596 -0.12043217 -0.089450382 0
0.24795046 -0.0057809022 -0.090026416 0
0.28768349 0.15244451 -0.092501588 0
0.33169797 0.32771936 -0.089861922 0
0.39609811 0.58417434 -0.088635437 0
0.49871603 0.99282056 -0.089784898 0
0.59696168 1.3840556 -0.070100434 0
0.59683675 1.383558 -0.012926606 0
0.59846604 1.3900461 0.043932129 0
0.59737897 1.3857174 0.1010403 0
0.59427381 1.3733518 0.15774763 0
0.59715033 1.3848066 0.2150674 0
0.76997578 2.0730343 0.32188395 0
0.77043051 2.0748451 0.3960399 0
0.7688821 2.0686789 0.46964443 0
0.76707637 2.0614882 0.54320544 0
0.19842453 -0.1096054 -0.090669982 0
0.22501116 0.0088441707 -0.091707133 0
0.25593466 0.14661565 -0.090362526 0
0.29511043 0.32115284 -0.087774657 0
0.35764819 0.59977311 -0.089369722 0
0.44677606 0.99685854 -0.089030154 0
0.55210263 1.4661129 -0.074956484 0
0.54984468 1.456053 -0.015704272 0
0.55014676 1.4573991 0.042668361 0
0.55013072 1.4573276 0.10104198 0
0.54920262 1.4531925 0.1593152 0
0.55231243 1.4670475 0.21831369 0
0.71488255 2.1913354 0.32904562 0
0.71382689 2.1866322 0.40497538 0
0.71416652 2.1881452 0.48175606 0
0.71332222 2.1843836 0.55826831 0
0.17619032 -0.10478249 -0.090696223 0
0.19869962 0.0088470317 -0.090683334 0
0.22667712 0.15008047 -0.089925818 0
0.266624 0.35173681 -0.091152839 0
0.31772625 0.60970658 -0.089541309 0
0.39611116 1.0054021 -0.088832997 0
0.41452086 1.0983365 -0.047810514 0
0.41553643 1.1034632 0.0016496948 0
0.41525245 1.1020293 0.051401377 0
0.41635182 1.1075792 0.10103142 0
0.41453838 1.0984247 0.15057556 0
0.41594428 1.1055219 0.20051101 0
0.41581416 1.1048651 0.25033909 0
0.41694531 1.1105752 0.30090472 0
0.4180457 1.1161301 0.35194385 0
0.40833965 1.0671329 0.39570728 0
0.29477516 0.49384692 0.34955162 0
0.27123663 0.37502185 0.36301592 0
0.15474476 -0.095251888 -0.091859035 0
0.17430955 0.018500242 -0.091635503 0
0.19623651 0.14598611 -0.08835385 0
0.23279123 0.35851982 -0.09122517 0
0.27862704 0.62501496 -0.090469323 0
0.34866014 1.0321958 -0.090486564 0
0.37006176 1.1566274 -0.051252428 0
0.88001573 4.121562 -0.14045732 0
1.7644341 9.2636786 -0.14091605 0
0.58382428 2.3994687 0.26124623 0
0.58026755 2.3787894 0.34008449 0
0.58172774 2.3872795 0.42096585 0
0.26140282 0.52487117 0.28062305 0
