# .PCD v0.7 - Point Cloud Data file format
VERSION 0.7
FIELDS x y z intensity
SIZE 4 4 4 4
TYPE F F F F
COUNT 1 1 1 1
WIDTH 1314
HEIGHT 1
VIEWPOINT 0 0 0 1 0 0 0
POINTS 1314
DATA ascii
-1.0935849 -1.7887673 -0.089516051 0
-1.3176371 -1.952417 -0.089871399 0
-1.6577299 -2.2008235 -0.090755008 0
-2.8010814 -3.0359368 -0.14160895 0
-4.1844974 -4.0463953 -0.14032489 0
-8.3913136 -7.1190886 -0.14066081 0
-0.71187574 -1.5380721 -0.090254419 0
-0.80615199 -1.6106497 -0.090883143 0
-0.92383164 -1.7012441 -0.090845399 0
-1.0780482 -1.8199661 -0.090399869 0
-1.299405 -1.9903752 -0.090828381 0
-1.622696 -2.2392571 -0.09029118 0
-2.7419708 -3.1009185 -0.14102845 0
-4.1122646 -4.1558242 -0.14069112 0
-8.2389412 -7.3327017 -0.14080636 0
-0.69970942 -1.5574294 -0.090776242 0
-0.79500896 -1.6347015 -0.092045002 0
-0.90346026 -1.7226373 -0.090398155 0
-1.0630369 -1.8520272 -0.091538049 0
-1.2778777 -2.026227 -0.09145204 0
-1.5992336 -2.286793 -0.091323696 0
-2.6815462 -3.1643672 -0.14046387 0
-4.0309825 -4.258534 -0.14068645 0
-8.0650806 -7.5295124 -0.14047149 0
-0.68333739 -1.5733789 -0.090269201 0
-0.77908611 -1.6551042 -0.092197247 0
-0.88645393 -1.7467468 -0.090783753 0
-1.0383097 -1.8763617 -0.091053821 0
-1.2456398 -2.0533259 -0.090581141 0
-1.5660156 -2.3267791 -0.091327213 0
-2.6284211 -3.2335835 -0.14070359 0
-3.9572916 -4.367826 -0.14130335 0
-7.9146957 -7.7456241 -0.14099722 0
-0.67415202 -1.5956407 -0.091917597 0
-0.75203651 -1.6655906 -0.089665048 0
-0.86155069 -1.7639482 -0.0895667 0
-1.0167325 -1.903321 -0.091268264 0
-1.2197145 -2.0856245 -0.090788208 0
-1.530364 -2.3646266 -0.091150738 0
-2.5703695 -3.2986822 -0.14064825 0
-3.8651166 -4.4615278 -0.14094846 0
-7.7313375 -7.9338803 -0.14067316 0
-0.65732402 -1.6112399 -0.091533266 0
-0.73510963 -1.6847303 -0.089762606 0
-0.84995562 -1.7932346 -0.091426335 0
-0.99455547 -1.9298497 -0.091501959 0
-1.1875423 -2.11218 -0.090125449 0
-1.4899114 -2.3978527 -0.090474777 0
-1.9829857 -2.8636997 -0.08983881 0
-3.7712319 -4.5532002 -0.14062528 0
-7.5575476 -8.1304388 -0.1407976 0
-0.63752598 -1.6237798 -0.09036573 0
-0.72757119 -1.7132591 -0.092482321 0
-0.8245976 -1.8096758 -0.090313531 0
-0.9623369 -1.9465494 -0.089883216 0
-1.1600736 -2.1430435 -0.090329953 0
-1.4562991 -2.4374073 -0.090790801 0
-1.9353162 -2.913414 -0.089863963 0
-3.6732907 -4.6404657 -0.14017771 0
-7.3703394 -8.3142796 -0.14064604 0
-0.62388861 -1.6423788 -0.091157369 0
-0.70767003 -1.7299443 -0.092100121 0
-0.80359977 -1.830207 -0.090304978 0
-0.93714589 -1.9697851 -0.089734443 0
-1.1360079 -2.1776292 -0.091245271 0
-1.4151084 -2.469336 -0.090225168 0
-1.8841155 -2.959527 -0.089657985 0
-3.5940907 -4.7467375 -0.14112671 0
-7.1910648 -8.5061789 -0.14091137 0
-0.59953332 -1.6494951 -0.088731743 0
-0.68646806 -1.7450718 -0.091459371 0
-0.78295618 -1.8511516 -0.090507619 0
-0.92273378 -2.0048242 -0.091953628 0
-1.1039158 -2.2040172 -0.090941779 0
-1.3843826 -2.5123646 -0.091205619 0
-1.8455077 -3.0193293 -0.090873934 0
-3.4988961 -4.8370771 -0.14117889 0
-6.9992552 -8.6854 -0.14091614 0
-0.58284122 -1.6646175 -0.088782661 0
-0.66322386 -1.7575996 -0.090319954 0
-0.76568449 -1.8761203 -0.091694646 0
-0.88640493 -2.015763 -0.089716233 0
-1.0771592 -2.2364168 -0.091700189 0
-1.3454583 -2.5467703 -0.091197826 0
-1.7881297 -3.0588279 -0.090278484 0
-3.3971574 -4.9200611 -0.14092681 0
-6.7948918 -8.8503704 -0.14063333 0
-0.56636924 -1.6800495 -0.089034833 0
-0.6426909 -1.7729734 -0.090042092 0
-0.73814535 -1.889192 -0.09042076 0
-0.8613165 -2.0391564 -0.089958228 0
-1.0425122 -2.2597675 -0.091177665 0
-1.3017358 -2.5753796 -0.090609975 0
-1.7399824 -3.1089578 -0.0907894 0
-3.2923069 -4.9989576 -0.14059001 0
-6.5943809 -9.0193291 -0.14063317 0
-0.55035222 -1.6961856 -0.089585103 0
-0.62642854 -1.7937282 -0.091180034 0
-0.7135812 -1.9054725 -0.089986883 0
-0.8379761 -2.0649676 -0.09074048 0
-1.0101981 -2.2857854 -0.091191642 0
-1.2591484 -2.6049814 -0.090283044 0
-1.6840526 -3.1497803 -0.090574078 0
-3.1868126 -5.0765705 -0.14034186 0
-6.3997889 -9.196146 -0.1410155 0
-0.53472841 -1.7130966 -0.090438105 0
-0.60188276 -1.8038309 -0.089897983 0
-0.69105482 -1.924314 -0.09021268 0
-0.80584008 -2.0794039 -0.089623444 0
-0.96875972 -2.2995296 -0.089540459 0
-1.220099 -2.6391218 -0.09061522 0
-1.6275007 -3.1895747 -0.090397306 0
-3.0938449 -5.1707969 -0.14121623 0
-6.186799 -9.349782 -0.14086367 0
-0.51397181 -1.7230712 -0.089578219 0
-0.58069569 -1.8181502 -0.089752547 0
-0.67050254 -1.9461216 -0.09114524 0
-0.77631241 -2.0968966 -0.089191325 0
-0.94033831 -2.3306274 -0.09054672 0
-1.1794186 -2.671308 -0.090832181 0
-1.5785387 -3.2400391 -0.091257922 0
-2.9844871 -5.2434626 -0.1409837 0
-5.9724002 -9.5011272 -0.14080355 0
-0.49759498 -1.7392917 -0.090461738 0
-0.55995536 -1.8331006 -0.08987426 0
-0.64322883 -1.9583691 -0.090278901 0
-0.74977362 -2.1186447 -0.089611359 0
-0.90702975 -2.3552058 -0.090722866 0
-1.1319059 -2.6934876 -0.09004005 0
-1.516945 -3.2727034 -0.090714641 0
-2.8738511 -5.3139014 -0.14078619 0
-5.7493205 -9.6394796 -0.14053407 0
-0.47765329 -1.7502654 -0.09011849 0
-0.54124367 -1.8513682 -0.090849616 0
-0.62311715 -1.9815392 -0.091681637 0
-0.7280789 -2.1484187 -0.091469355 0
-0.87136251 -2.3762262 -0.090522043 0
-1.0888489 -2.7220094 -0.090093054 0
-1.4591771 -3.3107965 -0.09075772 0
-2.757422 -5.3748837 -0.14022657 0
-5.5331135 -9.7879744 -0.14070335 0
-0.46092892 -1.7665216 -0.091211952 0
-0.51836717 -1.863171 -0.090498306 0
-0.59501839 -1.9921495 -0.090760075 0
-0.69686007 -2.1635151 -0.090990491 0
-0.83249468 -2.3917429 -0.089699291 0
-1.0449694 -2.7492673 -0.090126954 0
-1.3994741 -3.3457808 -0.090666808 0
-2.6550388 -5.4584775 -0.14106017 0
-5.3106775 -9.9270325 -0.14076364 0
-0.44177559 -1.7790056 -0.091474481 0
-0.49677092 -1.8770984 -0.090736292 0
-0.56889838 -2.005749 -0.090549283 0
-0.65722775 -2.1632981 -0.088179 0
-0.79747963 -2.4134593 -0.089851178 0
-1.0035061 -2.7809396 -0.090752132 0
-1.3397214 -3.3806322 -0.090688206 0
-2.5435867 -5.5279131 -0.14126538 0
-5.0805678 -10.053015 -0.14062527 0
-0.42007822 -1.7868356 -0.090731807 0
-0.47206929 -1.8853153 -0.089871742 0
-0.54124075 -2.0163374 -0.089905061 0
-0.63486719 -2.1936815 -0.090427674 0
-0.75851196 -2.4278851 -0.08915516 0
-0.95567232 -2.8013396 -0.090290494 0
-1.2748789 -3.4059699 -0.090077274 0
-1.924129 -4.635757 -0.090994768 0
-4.8530378 -10.183596 -0.14076342 0
-0.39804119 -1.7936168 -0.08988034 0
-0.4525097 -1.9034128 -0.09122736 0
-0.51373839 -2.0268359 -0.089381255 0
-0.60504842 -2.2108963 -0.090671666 0
-0.7212832 -2.445199 -0.088973723 0
-0.90674329 -2.8190444 -0.089680396 0
-1.2217505 -3.4540277 -0.091375537 0
-1.8341813 -4.6885486 -0.091274358 0
-4.6204033 -10.304938 -0.14081009 0
-0.37993944 -1.8084154 -0.091049425 0
-0.42309475 -1.9012173 -0.088455044 0
-0.48708615 -2.0388255 -0.089260362 0
-0.56769371 -2.2121651 -0.088558786 0
-0.6829716 -2.4600608 -0.088600181 0
-0.86383802 -2.8489988 -0.090466268 0
-1.159071 -3.4838729 -0.09135852 0
-1.7343991 -4.7210679 -0.090627141 0
-4.3823652 -10.415298 -0.14072604 0
-0.35891524 -1.8172233 -0.090923779 0
-0.40849084 -1.9312727 -0.092489861 0
-0.45905012 -2.047585 -0.088683225 0
-0.54083288 -2.2357273 -0.090030409 0
-0.64796364 -2.4821835 -0.089279957 0
-0.81941587 -2.8766117 -0.091116093 0
-1.0925827 -3.5050361 -0.090801172 0
-1.6410078 -4.766696 -0.090781011 0
-4.1413407 -10.518747 -0.14062098 0
-0.33523571 -1.819434 -0.089408807 0
-0.3810921 -1.9326589 -0.090733089 0
-0.43427837 -2.063982 -0.089592345 0
-0.50417656 -2.2365689 -0.088145413 0
-0.61541015 -2.5112176 -0.090936355 0
-0.77495605 -2.9051549 -0.091966547 0
-1.0337527 -3.5441546 -0.09173099 0
-1.544116 -4.8043013 -0.090649359 0
-3.8982427 -10.616916 -0.14053786 0
-0.31523681 -1.8304549 -0.090045147 0
-0.35528287 -1.9369826 -0.089723803 0
-0.4111701 -2.08565 -0.091528691 0
-0.47932392 -2.266948 -0.090852492 0
-0.57488012 -2.5211399 -0.090293951 0
-0.72320122 -2.9156935 -0.091126017 0
-0.96356487 -3.5550921 -0.090658791 0
-1.4481187 -4.8440685 -0.090748705 0
-3.654973 -10.714588 -0.1405964 0
-0.29705203 -1.8472022 -0.092078604 0
-0.33260158 -1.9495366 -0.090494819 0
-0.38025641 -2.0867176 -0.089965902 0
-0.44724265 -2.2795467 -0.090984456 0
-0.53849447 -2.5422277 -0.091165714 0
-0.67313617 -2.9298124 -0.090776287 0
-0.90011263 -3.5831957 -0.090998046 0
-1.3497828 -4.8776336 -0.090661503 0
-3.4120855 -10.814258 -0.14085539 0
-0.27503669 -1.8535888 -0.091886781 0
-0.30852455 -1.9584522 -0.090653963 0
-0.35000318 -2.0883377 -0.088646196 0
-0.41423064 -2.2894588 -0.090838976 0
-0.49886432 -2.5544794 -0.091059558 0
-0.62500471 -2.9494736 -0.091096722 0
-0.82852858 -3.5867853 -0.089653574 0
-1.2525315 -4.9145017 -0.090858199 0
-3.1633043 -10.897867 -0.14087057 0
-0.2521193 -1.8567731 -0.091110773 0
-0.28456667 -1.9679869 -0.091053091 0
-0.32488042 -2.1061628 -0.090241693 0
-0.37792775 -2.2879829 -0.0891499 0
-0.45967039 -2.5681567 -0.09125001 0
-0.57628715 -2.9678619 -0.091409646 0
-0.77099854 -3.6352375 -0.09171813 0
-1.1532139 -4.9452848 -0.090877868 0
-2.9130414 -10.977112 -0.14093262 0
-0.2281007 -1.855132 -0.089406572 0
-0.25735039 -1.9656878 -0.08926218 0
-0.29760531 -2.1178401 -0.09088964 0
-0.34718332 -2.3052311 -0.090327613 0
-0.41743568 -2.5707655 -0.090221055 0
-0.52483094 -2.9766898 -0.090916552 0
-0.70267123 -3.6488767 -0.091356851 0
-1.053109 -4.9734344 -0.090891726 0
-2.6607418 -11.049839 -0.14098993 0
-0.20573881 -1.8587729 -0.088999473 0
-0.23431449 -1.9789685 -0.090631686 0
-0.26830965 -2.1219594 -0.090373598 0
-0.31281424 -2.3091555 -0.089686103 0
-0.37773359 -2.5822206 -0.090389438 0
-0.47560713 -2.9938984 -0.09135545 0
-0.63489896 -3.6639147 -0.091222562 0
-0.94626784 -4.9736004 -0.089687698 0
-2.4050527 -11.10957 -0.14088897 0
-0.18557572 -1.872425 -0.090892456 0
-0.21136127 -1.9944944 -0.092538364 0
-0.23929597 -2.1267381 -0.090095557 0
-0.27926406 -2.315948 -0.089584909 0
-0.33764365 -2.5923185 -0.090514846 0
-0.42383319 -3.0003421 -0.090883918 0
-0.56644148 -3.6754537 -0.090961508 0
-0.84622848 -4.9999723 -0.089865707 0
-2.1463878 -11.154962 -0.14060163 0
-0.16456185 -1.8840276 -0.092443891 0
-0.18527982 -1.9960098 -0.091863714 0
-0.21024376 -2.1309419 -0.089845456 0
-0.24650393 -2.3269308 -0.09020438 0
-0.29693359 -2.5995066 -0.090414397 0
-0.3709853 -2.9997621 -0.089872189 0
-0.49674198 -3.6794863 -0.09029118 0
-0.94422418 -6.0981617 -0.14090756 0
-1.8911351 -11.216288 -0.1408471 0
-0.13778014 -1.8617988 -0.086821862 0
-0.15964511 -1.9992886 -0.091653906 0
-0.18292004 -2.1456444 -0.091465823 0
-0.2128461 -2.3338234 -0.090357281 0
-0.25719094 -2.6126697 -0.091143273 0
-0.319942 -3.007257 -0.089754052 0
-0.43078667 -3.7042632 -0.091216765 0
-0.81436968 -6.1162844 -0.14071433 0
-1.6322243 -11.259065 -0.14080693 0
-0.1179454 -1.8817085 -0.090400167 0
-0.13309091 -1.9953661 -0.090199627 0
-0.15395758 -2.151957 -0.091804229 0
-0.17768644 -2.3300271 -0.089114852 0
-0.21494153 -2.6096027 -0.090074576 0
-0.26992193 -3.0221958 -0.090458803 0
-0.36077297 -3.7039747 -0.090489067 0
-0.68521893 -6.1387348 -0.14087923 0
-1.3723831 -11.295465 -0.14077085 0
-0.096623987 -1.8958781 -0.092848741 0
-0.10860199 -2.0071411 -0.091850154 0
-0.12190732 -2.1307337 -0.087710999 0
-0.14343542 -2.3307073 -0.088634185 0
-0.17481624 -2.6222024 -0.090975918 0
-0.21678148 -3.0120158 -0.08892221 0
-0.29267338 -3.7169721 -0.090821959 0
-0.5558809 -6.1618948 -0.14122975 0
-1.1110938 -11.319243 -0.14059332 0
-0.072124042 -1.8786483 -0.088710345 0
-0.082275517 -2.002157 -0.090446956 0
-0.093650483 -2.1405513 -0.088878624 0
-0.11065075 -2.3473864 -0.090532474 0
-0.13359106 -2.6264915 -0.091019712 0
-0.16620861 -3.0233355 -0.089528106 0
-0.22368369 -3.7226102 -0.090758659 0
-0.42357016 -6.1545439 -0.14030699 0
-0.85078907 -11.352336 -0.14078748 0
-0.049598694 -1.8791053 -0.088475265 0
-0.056891028 -2.0074112 -0.091102786 0
-0.065302603 -2.1554101 -0.090991907 0
-0.076271228 -2.3483989 -0.090339459 0
-0.080879502 -2.4294798 -0.067620732 0
-0.081611916 -2.4423666 -0.034878928 0
-0.081028938 -2.4321091 -5.8879847e-05 0
-0.081173442 -2.4346519 0.033573601 0
-0.081156641 -2.4343562 0.067317799 0
-0.080498643 -2.4227788 0.10101139 0
-0.02758785 -1.8945541 -0.091549598 0
-0.031275027 -2.0114174 -0.091643669 0
-0.035296321 -2.1388702 -0.088058315 0
-0.040471721 -2.302902 -0.08372917 0
-0.040482517 -2.3032444 -0.052671928 0
-0.040701225 -2.3101761 -0.022382705 0
-0.040656406 -2.3087556 0.0086815748 0
-0.040945977 -2.3179333 0.039085194 0
-0.040543474 -2.3051763 0.070360288 0
-0.04052157 -2.304482 0.10100796 0
-0.0047069709 -1.8900479 -0.090499826 0
-0.0054741404 -2.0116825 -0.091601618 0
-0.0063690548 -2.1535709 -0.090384163 0
-0.0066954894 -2.205327 -0.069928013 0
-0.0067290645 -2.2106502 -0.041776571 0
-0.0066316295 -2.1952019 -0.01159185 0
-0.0066960333 -2.2054131 0.015950399 0
-0.0067572398 -2.2151175 0.043901399 0
-0.0066628084 -2.2001452 0.072816968 0
-0.0067185769 -2.2089875 0.10100522 0
0.018068574 -1.8923765 -0.091025375 0
0.020307187 -2.0106411 -0.091436125 0
0.022818968 -2.1433372 -0.088732429 0
0.023891931 -2.2000213 -0.069209479 0
0.023741551 -2.1920769 -0.039628182 0
0.024104081 -2.2112291 -0.013106031 0
0.023844546 -2.1975181 0.016488897 0
0.023888351 -2.1998322 0.044604033 0
0.023761122 -2.1931107 0.072976068 0
0.023808585 -2.1956184 0.10100484 0
0.040499505 -1.8837525 -0.089343376 0
0.046031047 -2.0089316 -0.091267101 0
0.052197985 -2.1484902 -0.089731254 0
0.054545119 -2.201606 -0.069567956 0
0.054492965 -2.2004259 -0.040716905 0
0.054817416 -2.2077682 -0.012873536 0
0.05506387 -2.2133453 0.015314044 0
0.054392979 -2.198163 0.04463692 0
0.054542389 -2.2015443 0.072757497 0
0.054060873 -2.1906474 0.10100473 0
0.063453659 -1.8882058 -0.090565436 0
0.071947105 -2.0104039 -0.091820993 0
0.081181355 -2.1432605 -0.089143388 0
0.085007906 -2.1983144 -0.069349043 0
0.085161112 -2.2005186 -0.040931154 0
0.085011736 -2.1983695 -0.01215755 0
0.084709793 -2.1940253 0.016545007 0
0.084509946 -2.1911502 0.044883337 0
0.085147157 -2.2003179 0.072745584 0
0.085459642 -2.2048137 0.10100518 0
0.086877726 -1.8943876 -0.092283033 0
0.096921571 -2.0002112 -0.090292878 0
0.10994493 -2.1374278 -0.088575236 0
0.11554023 -2.1963811 -0.069429748 0
0.11638285 -2.2052591 -0.041782323 0
0.11506799 -2.1914053 -0.011739491 0
0.11649009 -2.206389 0.015501494 0
0.11638103 -2.2052398 0.044107992 0
0.11511353 -2.1918852 0.072883919 0
0.11549822 -2.1959386 0.101005 0
0.10948303 -1.89024 -0.091920786 0
0.12321763 -2.0042782 -0.091584735 0
0.14053474 -2.148062 -0.090851255 0
0.14619792 -2.1950834 -0.069709621 0
0.14603494 -2.1937301 -0.04081348 0
0.14584874 -2.192184 -0.012119314 0
0.14673519 -2.1995442 0.015750946 0
0.14486979 -2.1840558 0.044946637 0
0.1468607 -2.2005863 0.072603747 0
0.14511703 -2.1861086 0.10100481 0
0.13154846 -1.8828914 -0.090991907 0
0.14928816 -2.0042949 -0.092236526 0
0.16762874 -2.1298108 -0.088465907 0
0.1773821 -2.196559 -0.070494138 0
0.17978907 -2.2130313 -0.043570835 0
0.17753242 -2.1975877 -0.013009993 0
0.17773415 -2.1989682 0.015504586 0
0.17736545 -2.196445 0.044175025 0
0.1765195 -2.1906557 0.072741538 0
0.17746928 -2.1971557 0.10100525 0
0.15401515 -1.8790909 -0.090944119 0
0.17361452 -1.9930439 -0.090863191 0
0.19892375 -2.1401949 -0.090959378 0
0.20839173 -2.1952429 -0.070995949 0
0.20888497 -2.1981106 -0.042382631 0
0.20861493 -2.1965406 -0.013369156 0
0.20944774 -2.2013826 0.014989639 0
0.21081237 -2.2093167 0.043338604 0
0.21041228 -2.2069905 0.072242655 0
0.20788653 -2.1923056 0.10100525 0
0.17882049 -1.8870796 -0.093573339 0
0.20076616 -1.9978639 -0.092686407 0
0.2280516 -2.1356037 -0.091088332 0
0.23996477 -2.1957426 -0.071872331 0
0.24072468 -2.1995788 -0.043228406 0
0.24034195 -2.1976466 -0.014009496 0
0.24215692 -2.2068088 0.014200555 0
0.24215913 -2.20682 0.043187391 0
0.24261546 -2.2091236 0.072057657 0
0.24140452 -2.2030108 0.10100572 0
0.19872606 -1.8703227 -0.090962641 0
0.22361277 -1.9811988 -0.09050449 0
0.25209799 -2.1081071 -0.087483324 0
0.27162766 -2.1951163 -0.072705932 0
0.27406961 -2.2059958 -0.044767771 0
0.27060732 -2.1905706 -0.013947112 0
0.27121389 -2.1932728 0.014706621 0
0.27139267 -2.1940694 0.043486923 0
0.27457094 -2.2082293 0.071924433 0
0.27421844 -2.2066588 0.10100602 0
0.22078061 -1.8646077 -0.090865098 0
0.24884176 -1.9763532 -0.090715699 0
0.28208983 -2.1087539 -0.088726975 0
0.3045004 -2.1979976 -0.074168541 0
0.30583102 -2.2032964 -0.045319472 0
0.30266032 -2.19067 -0.01464822 0
0.30326897 -2.1930938 0.014200429 0
0.30348718 -2.1939628 0.043146126 0
0.30556685 -2.2022445 0.071893118 0
0.30437022 -2.1974792 0.10100596 0
0.24520013 -1.8674284 -0.092772521 0
0.27537122 -1.9759115 -0.091913424 0
0.31123388 -2.1048589 -0.089333259 0
0.33754653 -2.1994684 -0.075556301 0
0.33857268 -2.2031579 -0.046282653 0
0.33928302 -2.2057121 -0.016880041 0
0.3370375 -2.197638 0.013289431 0
0.3366105 -2.1961026 0.042655364 0
0.33571836 -2.1928949 0.071923964 0
0.33862248 -2.203337 0.10100637 0
0.26433191 -1.8513415 -0.090628736 0
0.29912704 -1.9652364 -0.091236405 0
0.34304914 -2.1090066 -0.091452368 0
0.372381 -2.2050188 -0.077676393 0
0.37392288 -2.2100658 -0.048214991 0
0.37197688 -2.2036958 -0.017554162 0
0.37104136 -2.2006335 0.012422511 0
0.36812791 -2.191097 0.042468101 0
0.37303776 -2.2071686 0.071362309 0
0.37260529 -2.2057528 0.10100671 0
0.2865862 -1.8461858 -0.09102387 0
0.32672888 -1.9666219 -0.093066685 0
0.37065208 -2.0984001 -0.091171868 0
0.4321245 -2.2828298 -0.090648495 0
0.5227797 -2.5548136 -0.091893159 0
0.64960033 -2.9353013 -0.090494893 0
0.86506104 -3.5817268 -0.090067424 0
1.3044012 -4.8998351 -0.090930052 0
3.2884023 -10.852238 -0.14075026 0
0.30956542 -1.8427165 -0.091930188 0
0.34824988 -1.9497001 -0.091385998 0
0.3981666 -2.0877473 -0.091001906 0
0.46229884 -2.2651081 -0.08968737 0
0.55972385 -2.5345418 -0.091071941 0
0.69884145 -2.9192784 -0.09059038 0
0.93592376 -3.5749412 -0.091245078 0
1.3992064 -4.8561716 -0.090458192 0
3.5405893 -10.778272 -0.14104988 0
0.32602429 -1.8219136 -0.089021944 0
0.37046671 -1.9357536 -0.090399541 0
0.42765251 -2.0822358 -0.091859333 0
0.49145719 -2.2456727 -0.088572539 0
0.59777772 -2.5180147 -0.090828843 0
0.7458359 -2.8972681 -0.090210818 0
1.0002252 -3.5488906 -0.091122158 0
1.4960507 -4.8189559 -0.090422906 0
3.7814815 -10.673125 -0.14073235 0
0.34765449 -1.8151762 -0.08942055 0
0.39696017 -1.9326354 -0.091728486 0
0.4531863 -2.066581 -0.091049843 0
0.52785176 -2.2444537 -0.090333886 0
0.63333786 -2.4957495 -0.089977004 0
0.79847699 -2.8891544 -0.091353454 0
1.0650671 -3.5242424 -0.09122669 0
1.5972888 -4.7921352 -0.091034882 0
4.0275836 -10.58174 -0.14091095 0
0.36532789 -1.799376 -0.087837912 0
0.41785631 -1.9161648 -0.090452321 0
0.48190537 -2.0585678 -0.091723762 0
0.55946779 -2.2310157 -0.090373226 0
0.66860116 -2.4736569 -0.089251943 0
0.83998924 -2.8547115 -0.08994963 0
1.1244839 -3.4872413 -0.090510271 0
1.6891184 -4.7426176 -0.090624966 0
4.2683678 -10.477178 -0.14091317 0
0.39629096 -1.81207 -0.093060203 0
0.44709173 -1.9178022 -0.093054108 0
0.50519216 -2.0387275 -0.090380721 0
0.58286905 -2.2003973 -0.087858029 0
0.70533401 -2.4552851 -0.08911524 0
0.89288914 -2.8456459 -0.091264509 0
1.1853453 -3.4543383 -0.090218611 0
1.7820544 -4.6962767 -0.090493105 0
4.5021806 -10.35771 -0.14068677 0
0.40894338 -1.7862428 -0.089337178 0
0.46576381 -1.8972392 -0.091147311 0
0.53243643 -2.0274813 -0.090714894 0
0.61858302 -2.195765 -0.089505516 0
0.74884009 -2.4502168 -0.090844415 0
0.9373349 -2.8184333 -0.090832733 0
1.2513872 -3.4319212 -0.090866573 0
1.878776 -4.6574984 -0.090877004 0
4.7430153 -10.252669 -0.14098747 0
0.43362373 -1.7843368 -0.091428317 0
0.48549131 -1.8796496 -0.089952178 0
0.56175667 -2.0197961 -0.0918478 0
0.65290982 -2.1873009 -0.090705939 0
0.77975345 -2.4203911 -0.089448489 0
0.98574245 -2.7989202 -0.091331579 0
1.3158849 -3.405596 -0.091344245 0
1.9727184 -4.6126046 -0.091070615 0
4.9691553 -10.118912 -0.140692 0
0.45495203 -1.7756034 -0.092026167 0
0.51092595 -1.8725528 -0.091129117 0
0.58510023 -2.0010262 -0.091033109 0
0.6818409 -2.1685855 -0.090400048 0
0.81651163 -2.4018416 -0.089658417 0
1.0356439 -2.7813892 -0.092182152 0
1.3735274 -3.3666193 -0.090938129 0
2.5982985 -5.4879808 -0.1408643 0
5.1982408 -9.9912033 -0.14070676 0
0.46687672 -1.751192 -0.088860221 0
0.53142691 -1.8567523 -0.090543441 0
0.61543757 -1.9941366 -0.092607103 0
0.70684385 -2.143615 -0.089178391 0
0.85826313 -2.3912339 -0.091085725 0
1.0740701 -2.7441473 -0.091026194 0
1.4317397 -3.3290515 -0.090759479 0
2.7062533 -5.4132891 -0.14044267 0
5.4256325 -9.8603449 -0.14079231 0
0.48742479 -1.7414718 -0.089436762 0
0.5546571 -1.8454305 -0.091067933 0
0.6394189 -1.9764943 -0.092251115 0
0.74289316 -2.1364925 -0.091028549 0
0.88588381 -2.3575933 -0.089476176 0
1.1215956 -2.7220652 -0.091643311 0
1.485302 -3.2844501 -0.090113662 0
2.8218498 -5.3511014 -0.14085725 0
5.6438584 -9.7146635 -0.14062651 0
0.51155895 -1.7367332 -0.091438077 0
0.58065081 -1.8378761 -0.092593513 0
0.65293694 -1.9436952 -0.088991635 0
0.76038641 -2.1009896 -0.088234238 0
0.92120057 -2.3364041 -0.089698888 0
1.1587108 -2.6840932 -0.090609483 0
1.5495127 -3.2561851 -0.090953253 0
2.9222558 -5.2657323 -0.1401352 0
5.8640404 -9.5721865 -0.14070189 0
0.52820599 -1.7207698 -0.090693183 0
0.59122926 -1.8082078 -0.089163698 0
0.67793286 -1.9284997 -0.089307271 0
0.79526812 -2.0912898 -0.089934506 0
0.95721358 -2.3159716 -0.090162002 0
1.2062455 -2.6614769 -0.091430284 0
1.6071584 -3.2177002 -0.091065966 0
3.0413339 -5.2074647 -0.14109933 0
6.0797124 -9.4228878 -0.14074099 0
0.55089533 -1.7130268 -0.092239521 0
0.61798 -1.8013148 -0.091117747 0
0.71053594 -1.9231249 -0.091785155 0
0.82662952 -2.075912 -0.090819471 0
0.98302251 -2.2817361 -0.088740207 0
1.2373843 -2.6164939 -0.089784361 0
1.6597167 -3.1723127 -0.090701379 0
3.1475515 -5.1304069 -0.14115757 0
6.283783 -9.257905 -0.14048037 0
0.56182909 -1.6899865 -0.089806847 0
0.6380446 -1.785205 -0.091049306 0
0.73229283 -1.9029523 -0.091369949 0
0.84840059 -2.0480094 -0.08960899 0
1.0143701 -2.2553604 -0.08856263 0
1.2864053 -2.5952227 -0.09103287 0
1.7140634 -3.1295099 -0.090678431 0
3.2472293 -5.0449438 -0.1408741 0
6.4956403 -9.1032887 -0.14067504 0
0.58496147 -1.6822956 -0.09166456 0
0.65686363 -1.76762 -0.090739511 0
0.74804097 -1.8758179 -0.089566372 0
0.88566399 -2.0391316 -0.091968827 0
1.0470405 -2.230633 -0.088752843 0
1.3224217 -2.557421 -0.090439923 0
1.7689804 -3.0873413 -0.090837114 0
3.3525529 -4.9665275 -0.14116518 0
6.7039099 -8.9434996 -0.14087756 0
0.5992496 -1.6639447 -0.090699859 0
0.67833793 -1.7531297 -0.091320105 0
0.76809925 -1.8543501 -0.089053161 0
0.91147983 -2.0160348 -0.091886021 0
1.0821611 -2.2085056 -0.089480944 0
1.3655987 -2.5281274 -0.091007181 0
1.8159225 -3.0359406 -0.090264879 0
3.4468892 -4.8751202 -0.14081812 0
6.9064851 -8.7763748 -0.14101832 0
0.61171293 -1.6439524 -0.089338668 0
0.69523859 -1.7334849 -0.090724789 0
0.79649895 -1.8420274 -0.090695746 0
0.93765229 -1.9933319 -0.092000701 0
1.1133606 -2.1816761 -0.08961492 0
1.4037369 -2.4929349 -0.090972491 0
1.8628622 -2.9850783 -0.089842506 0
3.5405209 -4.7833862 -0.1405919 0
7.0939789 -8.592392 -0.14078711 0
0.62576944 -1.6260245 -0.088650726 0
0.71334887 -1.7152771 -0.090605013 0
0.81205624 -1.8158703 -0.089357071 0
0.94899428 -1.9554245 -0.089253195 0
1.1511854 -2.1614785 -0.090965532 0
1.4413759 -2.4572132 -0.090992101 0
1.910329 -2.9351256 -0.089613311 0
3.6376603 -4.6954579 -0.14076059 0
7.2768631 -8.4041891 -0.14056498 0
0.64381325 -1.6121672 -0.089295171 0
0.73034704 -1.6960137 -0.090318523 0
0.83933741 -1.8016192 -0.090886675 0
0.98592138 -1.9436508 -0.091768213 0
1.173031 -2.1249495 -0.089767195 0
1.4811565 -2.4235058 -0.091408275 0
1.953185 -2.8808749 -0.089065127 0
3.7358897 -4.6082158 -0.14114155 0
7.4656315 -8.222126 -0.14069447 0
0.6680848 -1.6038194 -0.091826968 0
0.75019765 -1.6794599 -0.090895109 0
0.86110157 -1.7816221 -0.091229744 0
1.0045094 -1.9137261 -0.09077888 0
1.2040112 -2.0975025 -0.090196155 0
1.5170977 -2.3859107 -0.09143693 0
2.5517588 -3.3390172 -0.14148238 0
3.8170063 -4.5045342 -0.14057167 0
7.6404653 -8.026618 -0.14052752 0
0.67921782 -1.5831498 -0.090651728 0
0.76954621 -1.6622397 -0.091439225 0
0.87924588 -1.7582906 -0.090886094 0
1.0286945 -1.889145 -0.090999328 0
1.2299902 -2.0653958 -0.089947753 0
1.3387719 -2.1606429 -0.065001361 0
1.3511606 -2.1714902 -0.024489185 0
1.3543673 -2.174298 0.017224917 0
7.8219719 -7.8372121 -0.14072469 0
0.69449997 -1.566276 -0.09079399 0
0.79190773 -1.647315 -0.092817925 0
0.89152205 -1.7301899 -0.089422308 0
1.0416999 -1.8551314 -0.089286096 0
1.249786 -2.02825 -0.08888898 0
1.5597128 -2.2860959 -0.088291161 0
1.3682522 -2.1268089 -0.023370026 0
1.3719569 -2.1298909 0.017944263 0
1.3931001 -2.1474812 0.058865797 0
0.70628148 -1.5465747 -0.090101667 0
0.79867399 -1.6195766 -0.090517171 0
0.91867524 -1.7143928 -0.091253661 0
1.0722253 -1.8357168 -0.090899982 0
1.2768815 -1.9974213 -0.089079507 0
1.301659 -2.0169985 -0.053759653 0
1.3348502 -2.0432239 -0.017875565 0
1.3225967 -2.0335419 0.022554571 0
1.3454084 -2.0515661 0.061131798 0
1.3873386 -2.0846965 0.10102084 0
0.7160995 -1.5255884 -0.089034058 0
0.80594665 -1.5929676 -0.088545181 0
0.93138951 -1.6870414 -0.090167217 0
1.0865775 -1.803422 -0.08972957 0
1.3115653 -1.9721477 -0.090489812 0
1.5331815 -2.138345 -0.077794798 0
1.3321666 -1.9875973 -0.015354475 0
1.3272704 -1.9839256 0.023791308 0
1.3368411 -1.9911029 0.062147275 0
1.3684243 -2.0147882 0.1010192 0
0.73411947 -1.5107287 -0.090264283 0
0.82917434 -1.5783348 -0.090452634 0
0.95750344 -1.6696066 -0.091943063 0
1.1097351 -1.7778785 -0.090240367 0
1.3243357 -1.9305093 -0.088824607 0
1.6777577 -2.1818745 -0.091089793 0
1.5099232 -2.0625052 -0.028479373 0
1.3657186 -1.9599422 0.02300437 0
1.3732017 -1.9652644 0.061818898 0
1.3687072 -1.9620678 0.10101831 0
0.74177104 -1.4885124 -0.088913091 0
0.85844302 -1.5671372 -0.093784653 0
0.98059452 -1.6494546 -0.093177892 0
1.1309487 -1.7507776 -0.090523325 0
1.344436 -1.8946459 -0.088369928 0
1.4647857 -1.9757491 -0.063791595 0
1.4805324 -1.9863608 -0.023759423 0
1.4113697 -1.9397522 0.021792041 0
1.4257568 -1.9494478 0.061023563 0
0.76337928 -1.475561 -0.09124475 0
0.8609159 -1.5377707 -0.091140978 0
0.98384809 -1.616178 -0.090625979 0
1.14747 -1.7205374 -0.090134613 0
1.3861285 -1.872756 -0.091042183 0
1.7327656 -2.0938442 -0.090755664 0
2.9097478 -2.8445342 -0.14022104 0
4.3813043 -3.7831059 -0.14090191 0
8.7638502 -6.5783319 -0.14068368 0
0.76725948 -1.451259 -0.089222856 0
0.87681466 -1.517306 -0.091654278 0
1.0016263 -1.5925505 -0.091062389 0
1.1724464 -1.6955321 -0.091265477 0
1.4089413 -1.8381066 -0.091173612 0
1.7523569 -2.0451398 -0.089913569 0
2.9631786 -2.7751021 -0.14083713 0
4.4510217 -3.672071 -0.14093567 0
8.8931084 -6.35005 -0.1404402 0
0.78506881 -1.4354178 -0.090787403 0
0.8947745 -1.4978368 -0.092719667 0
1.0109755 -1.5639516 -0.090012364 0
1.1904072 -1.6660427 -0.091348685 0
1.4218096 -1.7977034 -0.090084441 0
1.7948622 -2.0099587 -0.091677226 0
3.0025954 -2.6971214 -0.14045925 0
4.5225825 -3.5619466 -0.14121893 0
9.039813 -6.1321101 -0.14082214 0
0.79869497 -1.4168965 -0.091419183 0
0.88833028 -1.4649439 -0.088661276 0
1.0176123 -1.5342432 -0.088606201 0
1.2022203 -1.6331991 -0.090570055 0
1.4421812 -1.7618258 -0.090141051 0
1.8094366 -1.9586866 -0.090553902 0
3.0441909 -2.6205549 -0.14041649 0
4.581491 -3.4445975 -0.14097793 0
9.1694174 -5.9038739 -0.14089398 0
0.80661744 -1.3953165 -0.090797357 0
0.91163182 -1.4482411 -0.091104306 0
1.0517445 -1.5188543 -0.092417009 0
1.2164629 -1.6018683 -0.090314873 0
1.4658463 -1.7275513 -0.090747304 0
1.8368739 -1.9145399 -0.090925418 0
3.0915744 -2.5468779 -0.14097968 0
4.6380782 -3.3262773 -0.1407744 0
9.2949171 -5.6732073 -0.14100902 0
0.81894386 -1.3759655 -0.091347165 0
0.91840589 -1.4229835 -0.090163521 0
1.051196 -1.4857564 -0.089949153 0
1.2279911 -1.5693315 -0.089764483 0
1.4759985 -1.6865704 -0.089712016 0
1.857651 -1.8669864 -0.090720661 0
3.1208174 -2.4641142 -0.14027813 0
4.6945477 -3.2080531 -0.14072193 0
9.4025707 -5.4336438 -0.14081441 0
0.82738817 -1.3547392 -0.091102786 0
0.93326581 -1.4015592 -0.091030456 0
1.054173 -1.4550253 -0.088293202 0
1.2368708 -1.5358157 -0.088940136 0
1.4938347 -1.6494473 -0.089803107 0
1.8768908 -1.8188378 -0.090484463 0
3.1589284 -2.3857653 -0.14042282 0
4.7506561 -3.0896401 -0.14080445 0
9.5101643 -5.1943326 -0.14077504 0
0.83966112 -1.3351389 -0.0918651 0
0.9426595 -1.377612 -0.090885513 0
1.0719392 -1.4309226 -0.089422204 0
1.2571179 -1.5072842 -0.089981638 0
1.5090208 -1.6111605 -0.089677297 0
1.8968415 -1.7710849 -0.090445869 0
3.1942737 -2.3061025 -0.14050724 0
4.7993793 -2.9679949 -0.14066555 0
9.6162968 -4.9543309 -0.14085206 0
0.84564793 -1.3129207 -0.091302358 0
0.9541474 -1.3544911 -0.091286905 0
1.0794027 -1.4024814 -0.088834651 0
1.2702575 -1.4756056 -0.090052374 0
1.5244513 -1.5729975 -0.089704864 0
1.926124 -1.7268943 -0.091461487 0
3.2357192 -2.2286527 -0.14119883 0
4.8500381 -2.847163 -0.14077829 0
9.7087975 -4.7087483 -0.14074053 0
0.84407783 -1.2881501 -0.089167424 0
0.9538399 -1.3270577 -0.089444764 0
1.0941895 -1.3768079 -0.089655064 0
1.2664276 -1.4378617 -0.087712072 0
1.5499295 -1.5383556 -0.091098092 0
1.9366751 -1.6754465 -0.090724058 0
3.2687008 -2.147614 -0.14140214 0
4.8991165 -2.7255528 -0.14096335 0
9.8132648 -4.4674869 -0.14107879 0
0.85552371 -1.2681445 -0.090100653 0
0.95756841 -1.3014432 -0.088555105 0
1.102694 -1.3487998 -0.08949516 0
1.2856067 -1.408487 -0.088933729 0
1.5557717 -1.4966458 -0.090173833 0
1.9506787 -1.6255099 -0.090459697 0
3.2912803 -2.062968 -0.14098988 0
4.9406357 -2.6011772 -0.14092763 0
9.8816996 -4.2135196 -0.14068256 0
0.86159974 -1.2462893 -0.08994811 0
0.98253047 -1.2824012 -0.09197361 0
1.1198527 -1.3234079 -0.090942584 0
1.295803 -1.3759495 -0.088937916 0
1.5642043 -1.4560986 -0.089701377 0
1.968568 -1.5768483 -0.090699099 0
3.3107402 -1.977643 -0.14050964 0
4.9795675 -2.4759824 -0.14091963 0
9.9583206 -3.9627202 -0.14064416 0
0.8660289 -1.2240098 -0.089555822 0
0.99431622 -1.2588183 -0.092891417 0
1.131846 -1.2961346 -0.091610037 0
1.3170168 -1.3463774 -0.090666421 0
1.5653489 -1.413758 -0.088473938 0
1.9636428 -1.5218282 -0.088849582 0
3.3393927 -1.8951137 -0.14085509 0
5.0108681 -2.3486395 -0.14069653 0
10.036039 -3.7121317 -0.14078549 0
0.88275081 -1.2048159 -0.091979273 0
0.98082942 -1.2287883 -0.089019112 0
1.1244369 -1.2638887 -0.089107551 0
1.313432 -1.3100828 -0.088904984 0
1.5784726 -1.374864 -0.088824309 0
1.984514 -1.4741085 -0.08962401 0
3.3591363 -1.8100932 -0.14070769 0
5.0505481 -2.2235074 -0.14103091 0
10.103472 -3.4585414 -0.1408316 0
0.8817789 -1.181164 -0.090645902 0
0.99777305 -1.2064319 -0.091180615 0
1.1372412 -1.2368132 -0.090156116 0
1.3418291 -1.2813798 -0.091885291 0
1.5909276 -1.3356427 -0.089210533 0
1.9772401 -1.4197959 -0.08782091 0
3.3724856 -1.7237318 -0.14025755 0
5.0674934 -2.0929668 -0.14043115 0
10.176075 -3.2058039 -0.14115326 0
0.883461 -1.1583281 -0.090022914 0
1.0038214 -1.1813824 -0.091350697 0
1.1399201 -1.2074513 -0.089619853 0
1.331529 -1.244153 -0.089418016 0
1.6050866 -1.2965516 -0.089915745 0
2.5482235 -1.4772044 -0.1411131 0
3.3896399 -1.6383734 -0.14023599 0
5.1017084 -1.966311 -0.14080946 0
10.212227 -2.9452035 -0.14076185 0
0.87999791 -1.1347756 -0.088418402 0
1.0119393 -1.1566126 -0.09203618 0
1.1442508 -1.178511 -0.089484729 0
1.3435737 -1.2115 -0.090278096 0
1.6205866 -1.2573472 -0.090894051 0
2.5625272 -1.4132437 -0.14137839 0
3.4119382 -1.5538259 -0.14073202 0
5.1180844 -1.8362026 -0.1404956 0
10.262682 -2.6876621 -0.14086454 0
0.90472496 -1.1155311 -0.092997707 0
1.0053434 -1.1295857 -0.090040125 0
1.147177 -1.1493975 -0.089238457 0
1.3503344 -1.1777751 -0.090502523 0
1.6270926 -1.2164335 -0.090924539 0
2.5633137 -1.3472078 -0.14052123 0
3.4222178 -1.4671822 -0.14052884 0
5.1406507 -1.7072182 -0.14062847 0
10.293283 -2.4269536 -0.1406536 0
0.91219276 -1.0932095 -0.093975492 0
1.0169579 -1.1051571 -0.091631465 0
1.1475714 -1.1200526 -0.088695861 0
1.3662815 -1.1449947 -0.09214627 0
1.6264699 -1.1746671 -0.090238027 0
2.5807068 -1.2834903 -0.14138348 0
3.4331529 -1.3807049 -0.14052649 0
5.1598225 -1.5776178 -0.1407547 0
10.323694 -2.1665161 -0.14059313 0
0.9017846 -1.0690575 -0.091256864 0
1.014931 -1.0790763 -0.090756603 0
1.1429287 -1.0904102 -0.087445714 0
1.1159037 -1.0880172 -0.056328896 0
1.6351637 -1.1339967 -0.090770014 0
2.5780742 -1.2174897 -0.1405182 0
3.451411 -1.2948221 -0.14119148 0
5.1766562 -1.4475894 -0.14092447 0
10.366499 -1.9071403 -0.14097564 0
0.9059251 -1.0464562 -0.091771148 0
1.0185143 -1.0535682 -0.091066249 0
1.1271369 -1.0604297 -0.084484853 0
1.1208961 -1.0600355 -0.056731123 0
1.639397 -1.0927881 -0.090899147 0
2.5878446 -1.1526997 -0.14097023 0
3.4512115 -1.2072368 -0.14071447 0
5.1834683 -1.3166599 -0.14077969 0
10.385547 -1.6452645 -0.14095677 0
0.89255053 -1.0230551 -0.088680677 0
1.0120368 -1.0275798 -0.08960072 0
1.1256981 -1.0318841 -0.084011979 0
1.1219093 -1.0317405 -0.056672741 0
1.6446848 -1.0515373 -0.091273181 0
2.5936201 -1.0874721 -0.14120151 0
3.4585581 -1.1202261 -0.14092056 0
5.1913524 -1.1858445 -0.14083904 0
10.391056 -1.3827498 -0.14077677 0
0.89394647 -1.0005594 -0.088856675 0
1.0273683 -1.0022429 -0.092367314 0
1.1382999 -1.0036426 -0.085965492 0
1.1361825 -1.0036159 -0.058578406 0
1.1308731 -1.0035489 -0.031095123 0
1.1347193 -1.0035974 -0.0048621725 0
1.1301256 -1.0035394 0.022025788 0
1.1344658 -1.0035942 0.048196897 0
1.1408669 -1.003675 0.074465275 0
1.1268486 -1.0034981 0.10100254 0
1.1293155 -1.0035292 0.12727138 0
1.1328328 -1.0035735 0.15373264 0
1.1345381 -1.0035951 0.18028854 0
1.1288854 -1.0035237 0.20632336 0
1.1309774 -1.0035502 0.23311351 0
1.1433347 -1.0037061 0.26159096 0
1.1378622 -1.0036371 0.28790098 0
1.1221331 -1.0034386 0.31222486 0
0.8920415 -0.97804934 -0.088451721 0
1.0226623 -0.97640121 -0.091480859 0
1.1319669 -0.97502208 -0.084924571 0
1.143187 -0.97488046 -0.059562866 0
1.6414477 -0.96859366 -0.090772413 0
2.5924547 -0.95659435 -0.14093852 0
3.4537568 -0.94572687 -0.14043087 0
5.1975942 -0.923724 -0.1409757 0
10.400904 -0.85807127 -0.14085184 0
0.91047913 -0.95485067 -0.092494361 0
1.0196719 -0.95071572 -0.091039829 0
1.1406277 -0.94613528 -0.086467437 0
1.1285099 -0.94659418 -0.057601009 0
1.6290905 -0.92763793 -0.089449324 0
2.5850074 -0.89143872 -0.14039703 0
3.4487567 -0.85872978 -0.14023487 0
5.1920929 -0.79271209 -0.14087355 0
10.387047 -0.59598666 -0.1406835 0
0.88882184 -0.93320882 -0.08812841 0
1.0219691 -0.92479819 -0.091718249 0
1.1253643 -0.91826695 -0.084192939 0
1.1427448 -0.91716903 -0.059807751 0
1.6282568 -0.88650024 -0.089594536 0
2.5908272 -0.82569665 -0.14124916 0
3.4448109 -0.77175224 -0.14026609 0
5.1794848 -0.66217643 -0.14059387 0
10.388173 -0.33315429 -0.14101794 0
0.89829749 -0.90983605 -0.09051273 0
1.0089756 -0.90003568 -0.089630522 0
1.1609914 -0.88657498 -0.090425946 0
1.3520029 -0.86966127 -0.089638852 0
1.6387355 -0.84427166 -0.091189109 0
2.5910597 -0.75994509 -0.14173502 0
3.4442797 -0.68439406 -0.140691 0
5.1771131 -0.5309549 -0.14094582 0
10.365189 -0.071560532 -0.14094505 0
0.89454049 -0.88738829 -0.090198971 0
1.0154445 -0.87360013 -0.091344573 0
1.154778 -0.85771024 -0.089887939 0
1.3450227 -0.83601433 -0.089139305 0
1.6235657 -0.80424875 -0.089896418 0
2.5734961 -0.69591671 -0.14070609 0
3.4304049 -0.59819317 -0.14033315 0
5.1658902 -0.4002749 -0.14103903 0
10.325535 0.18814126 -0.14063619 0
0.89949828 -0.86378372 -0.091875933 0
1.0188967 -0.8471058 -0.092617683 0
1.1497772 -0.82882404 -0.08966995 0
1.3404306 -0.80219299 -0.089097194 0
1.622785 -0.76275283 -0.0904162 0
2.5700715 -0.6304329 -0.14115813 0
3.4242692 -0.51111597 -0.14067365 0
5.1384277 -0.27167705 -0.14052399 0
10.301331 0.44949308 -0.14084256 0
0.89789289 -0.84084731 -0.092273943 0
1.0036799 -0.82333899 -0.090459339 0
1.1399649 -0.80078304 -0.088770755 0
1.3461435 -0.76665932 -0.090644158 0
1.6203824 -0.72127128 -0.090869866 0
2.5592093 -0.56589019 -0.14106448 0
3.4062166 -0.42570576 -0.14032657 0
5.1136298 -0.14311931 -0.1402854 0
10.26615 0.70965129 -0.14094624 0
0.88459778 -0.82003891 -0.090268932 0
0.99631494 -0.79864007 -0.08991117 0
1.1460916 -0.76995116 -0.090652592 0
1.3396076 -0.73288423 -0.090573989 0
1.3367056 -0.7334401 -0.057978947 0
1.3424354 -0.7323426 -0.026518321 0
1.3414059 -0.73253977 0.0055580158 0
1.342984 -0.73223746 0.037357811 0
1.3357904 -0.7336154 0.069371127 0
1.3444149 -0.7319634 0.10100945 0
0.89000076 -0.79562962 -0.092434563 0
1.000677 -0.77152026 -0.091740392 0
1.1308615 -0.74316132 -0.089082994 0
1.2038903 -0.7272529 -0.072045512 0
1.2147079 -0.72489649 -0.04420932 0
1.2143134 -0.72498238 -0.014939046 0
1.2061872 -0.72675258 0.014738733 0
1.2148745 -0.72486019 0.043132387 0
1.2005161 -0.72798795 0.072426453 0
1.2060426 -0.72678405 0.10100561 0
0.87974536 -0.77450341 -0.091321625 0
0.97534871 -0.75113606 -0.087956436 0
1.1294824 -0.71346277 -0.089961208 0
1.2051047 -0.69497919 -0.07323309 0
1.2068921 -0.69454229 -0.04411808 0
1.2093544 -0.69394046 -0.01514045 0
1.2023834 -0.69564438 0.014508152 0
1.2130126 -0.69304639 0.042883355 0
1.2173458 -0.69198722 0.0718567 0
1.2023437 -0.69565403 0.1010057 0
0.86034799 -0.75611633 -0.088304617 0
0.98786581 -0.72151661 -0.091632538 0
1.1132007 -0.68750918 -0.088434853 0
1.2087977 -0.66157061 -0.074907981 0
1.2111055 -0.66094446 -0.045575384 0
1.2116439 -0.66079831 -0.016119821 0
1.2049541 -0.66261345 0.013757529 0
1.2003226 -0.66387016 0.043116316 0
1.2056904 -0.66241372 0.071947448 0
1.2000704 -0.66393864 0.10100587 0
0.86240405 -0.73205519 -0.090126537 0
0.97783822 -0.69758469 -0.091051243 0
1.113465 -0.65708429 -0.089846961 0
1.2101941 -0.6281994 -0.076381944 0
1.2159796 -0.6264717 -0.047227386 0
1.2065521 -0.62928694 -0.016468747 0
1.2000711 -0.63122225 0.013484472 0
1.2135289 -0.62720352 0.042057201 0
1.2216501 -0.62477839 0.071350753 0
1.2106291 -0.62806946 0.10100644 0
0.85150838 -0.71175039 -0.089202859 0
0.96859396 -0.67354363 -0.090739556 0
1.0896789 -0.63403183 -0.087245114 0
1.2174155 -0.59234953 -0.078853168 0
1.2086937 -0.59519553 -0.047504637 0
1.2090071 -0.59509325 -0.0176393 0
1.1999174 -0.59805936 0.012803325 0
1.2082984 -0.59532452 0.041847046 0
1.2037046 -0.59682357 0.071555212 0
1.215131 -0.59309494 0.10100686 0
0.84430009 -0.6903559 -0.089217551 0
0.96364886 -0.64804995 -0.091404922 0
1.1013581 -0.59923571 -0.090905048 0
1.2081851 -0.56136841 -0.079027943 0
1.1989952 -0.56462598 -0.047582675 0
1.2093874 -0.56094223 -0.018700002 0
1.2092793 -0.5609805 0.011348473 0
1.2071874 -0.56172204 0.041391965 0
1.2019101 -0.56359267 0.071345761 0
1.2111582 -0.56031454 0.10100705 0
0.84363282 -0.66643608 -0.090843655 0
0.95126158 -0.6251992 -0.090704821 0
1.0858233 -0.57364321 -0.08996468 0
1.2021148 -0.52908731 -0.079797126 0
1.2038409 -0.52842599 -0.049577925 0
1.212564 -0.52508378 -0.02013628 0
1.2047349 -0.52808344 0.010850841 0
1.2051979 -0.527906 0.040934168 0
1.2009431 -0.52953619 0.071092889 0
1.2050345 -0.52796865 0.10100721 0
0.83451891 -0.64556628 -0.090682782 0
0.94026953 -0.60195827 -0.090398587 0
1.080263 -0.54422963 -0.090901963 0
1.1997914 -0.49494007 -0.081267186 0
1.2083445 -0.49141312 -0.051665712 0
1.2056843 -0.49251008 -0.020663163 0
1.1997792 -0.49494514 0.010316642 0
1.2231185 -0.48532078 0.039426204 0
1.20455 -0.4929778 0.070700832 0
1.2088726 -0.49119535 0.1010077 0
0.81851071 -0.62777108 -0.089039512 0
0.9338091 -0.57678521 -0.091142349 0
1.080695 -0.5118311 -0.093059324 0
1.2010015 -0.45863065 -0.08342839 0
1.2135279 -0.45309135 -0.05398253 0
1.2000813 -0.45903757 -0.021409711 0
1.2142609 -0.45276722 0.0082270745 0
1.1947145 -0.46141073 0.040204987 0
1.1962255 -0.46074262 0.070584364 0
1.2087981 -0.45518288 0.1010081 0
0.81202036 -0.60589212 -0.089719348 0
0.92511696 -0.55242872 -0.091561668 0
1.0568658 -0.49014804 -0.090979882 0
1.231616 -0.40753958 -0.090327971 0
1.4683334 -0.29563782 -0.088721119 0
1.8556216 -0.11255768 -0.090511136 0
3.1168365 0.48364785 -0.1399703 0
4.702075 1.2330267 -0.14110956 0
9.4051552 3.4562809 -0.14088088 0
0.8093549 -0.58188862 -0.09144894 0
0.9136498 -0.52932662 -0.091529943 0
1.0508633 -0.46017447 -0.09225484 0
1.2124687 -0.37872937 -0.089686312 0
1.4645115 -0.25170609 -0.090572603 0
1.8327551 -0.066120476 -0.090494908 0
3.0785024 0.56170529 -0.13995634 0
4.6410017 1.3491659 -0.14092681 0
9.2863026 3.6902816 -0.14078476 0
0.79195231 -0.56530255 -0.089793034 0
0.90435773 -0.50504959 -0.092086397 0
1.0420461 -0.43124422 -0.09316244 0
1.2025554 -0.34520605 -0.090623476 0
1.4355679 -0.22030386 -0.089264087 0
1.819934 -0.014271107 -0.091665648 0
3.0558696 0.64823037 -0.14134283 0
4.5788999 1.4646237 -0.14084107 0
9.1678343 3.9244406 -0.14085223 0
0.78750551 -0.54178053 -0.091383331 0
0.88813609 -0.48452488 -0.091281094 0
1.0151737 -0.41224447 -0.090806194 0
1.1894377 -0.31309363 -0.09119194 0
1.214294 -0.29895118 -0.062180523 0
1.2187017 -0.29644337 -0.029802715 0
3.0039017 0.71927994 -0.14056432 0
4.5125666 1.5776632 -0.14068244 0
9.038353 4.1526952 -0.14078309 0
0.77891231 -0.52030057 -0.092115112 0
0.87539601 -0.46213391 -0.091342278 0
1.0046947 -0.38418427 -0.091651239 0
1.1715746 -0.28357819 -0.091122426 0
1.1540304 -0.29415497 -0.056386147 0
1.2106664 -0.26001111 -0.030874496 0
2.9559257 0.79214507 -0.14024507 0
4.4460702 1.6905012 -0.14066651 0
8.9005728 4.3759656 -0.14064285 0
0.75947028 -0.50551683 -0.090259217 0
0.85054934 -0.44742575 -0.088825099 0
0.97922957 -0.36535242 -0.089725666 0
1.1437323 -0.26043114 -0.089511611 0
1.1299884 -0.26919708 -0.055535574 0
1.1773494 -0.23898986 -0.029265722 0
2.923727 0.87486547 -0.14138018 0
4.3853035 1.8070719 -0.14112273 0
8.7777128 4.6085896 -0.14106598 0
0.74370974 -0.48876581 -0.089410029 0
0.84525466 -0.42033508 -0.090789206 0
0.97530133 -0.33269712 -0.092128851 0
1.1194801 -0.23553571 -0.088579781 0
1.1499685 -0.21498969 -0.060962711 0
1.1534185 -0.21266475 -0.028745076 0
2.8728652 0.9460637 -0.14113595 0
4.3078074 1.9130654 -0.14081143 0
8.6204414 4.8193326 -0.14069484 0
0.73246354 -0.46903369 -0.089832343 0
0.83014619 -0.39955869 -0.090677254 0
0.94971627 -0.31451663 -0.09037254 0
1.1135309 -0.19800648 -0.09089496 0
1.1452754 -0.17542878 -0.063143976 0
1.1458036 -0.17505309 -0.030159315 0
2.8187017 1.0147657 -0.14075693 0
4.2312493 2.0194147 -0.14069958 0
8.4700232 5.0341663 -0.14066297 0
0.72236705 -0.44829616 -0.090699293 0
0.82379514 -0.37223187 -0.092747279 0
0.93256652 -0.29066059 -0.090409018 0
1.0844508 -0.1767576 -0.089355983 0
1.0951133 -0.16876146 -0.058869008 0
1.1037964 -0.16224977 -0.027697703 0
1.095741 -0.1682907 0.0053053293 0
1.1042165 -0.1619347 0.036771145 0
1.0887851 -0.17350724 0.069356307 0
1.0958059 -0.16824201 0.10100947 0
1.1053417 -0.16109082 0.13314451 0
1.0942167 -0.1694338 0.16466595 0
1.1035986 -0.16239807 0.19740117 0
0.71045786 -0.42871007 -0.091233082 0
0.79660225 -0.36064509 -0.090019844 0
0.91110349 -0.27017453 -0.089667656 0
1.0492791 -0.16099831 -0.086790122 0
1.1043454 -0.11748889 -0.063379787 0
1.1011106 -0.12004486 -0.029902315 0
1.0961609 -0.12395564 0.0033912233 0
1.1029774 -0.11856976 0.035585243 0
1.1035089 -0.11814979 0.068299823 0
1.1078467 -0.1147224 0.10101067 0
1.099609 -0.12123129 0.13360539 0
1.1049711 -0.11699453 0.16655436 0
1.103856 -0.11787567 0.19931583 0
0.69799906 -0.40939763 -0.091761522 0
0.78590363 -0.33626482 -0.091346852 0
0.89513111 -0.24539223 -0.09019389 0
1.0233619 -0.13870975 -0.085933693 0
1.1012331 -0.073924273 -0.066304184 0
1.1012063 -0.073946565 -0.032619435 0
1.0963591 -0.077979237 0.001355978 0
1.0989506 -0.075823218 0.034477416 0
1.1005425 -0.074498802 0.067714147 0
1.0991542 -0.075653821 0.10101118 0
1.0923568 -0.081308931 0.13406017 0
1.094533 -0.07949844 0.16727725 0
1.1064513 -0.069582969 0.20158511 0
0.68023491 -0.39454439 -0.090939082 0
0.76600277 -0.31944767 -0.090552144 0
0.88077468 -0.21895549 -0.091220059 0
0.99826181 -0.11608598 -0.085314758 0
1.1003646 -0.026686814 -0.069811396 0
1.0991054 -0.027789261 -0.035267506 0
1.0945116 -0.031811502 -0.00064130663 0
1.0983788 -0.028425481 0.033065017 0
1.0963708 -0.03018358 0.067118965 0
1.0975724 -0.029131498 0.10101201 0
1.0923777 -0.033679988 0.1347813 0
1.1006857 -0.026405539 0.16910218 0
1.1018119 -0.0254195 0.20334439 0
1.1024439 -0.024866071 0.23770681 0
1.098142 -0.028632786 0.37572914 0
0.67246431 -0.37073097 -0.093092673 0
0.74983615 -0.29945776 -0.090802528 0
0.84753525 -0.20945957 -0.088198267 0
0.96517831 -0.10108951 -0.083263732 0
1.056254 -0.017192688 -0.066717051 0
1.0948424 0.018354092 -0.037849594 0
1.0918664 0.015612636 -0.0027192065 0
1.1017591 0.02472559 0.031294402 0
1.0984397 0.021667872 0.066277564 0
1.1011394 0.024154697 0.1010131 0
1.105536 0.028204832 0.13597335 0
1.1042023 0.026976142 0.17088687 0
1.1039493 0.026743207 0.20589453 0
1.0987561 0.021959219 0.24037303 0
1.0429407 -0.029456582 0.36788696 0
0.64526504 -0.36501077 -0.089724861 0
0.72078788 -0.29183337 -0.087811492 0
0.83944058 -0.17686555 -0.090910293 0
0.84098858 -0.1753656 -0.06340716 0
0.83546633 -0.18071643 -0.034832764 0
0.83787316 -0.17838433 -0.0078010168 0
0.83961016 -0.17670122 0.019334422 0
0.8440963 -0.17235443 0.046315901 0
0.8416158 -0.17475787 0.073755011 0
0.83743262 -0.17881116 0.10100365 0
0.83890867 -0.17738095 0.1281648 0
0.8398751 -0.17644456 0.1554181 0
0.84113884 -0.17522004 0.1828223 0
1.1048059 0.080258518 0.24452347 0
1.0083821 -0.013170745 0.29818588 0
1.0001721 -0.02112576 0.32971561 0
0.99219716 -0.028852966 0.36101502 0
0.64306468 -0.33493462 -0.093899705 0
0.71930915 -0.25723347 -0.092207871 0
0.82475036 -0.14977774 -0.092335857 0
0.84068733 -0.13353637 -0.067521013 0
0.83610469 -0.13820651 -0.038387958 0
0.84217519 -0.13202003 -0.01113656 0
0.84196156 -0.13223776 0.017026598 0
0.83975875 -0.13448265 0.045216285 0
0.84463853 -0.12950966 0.072963543 0
0.83649606 -0.1378077 0.10100445 0
0.83388102 -0.14047268 0.12868808 0
0.83896029 -0.13529637 0.15673989 0
0.84204376 -0.13215402 0.1849913 0
0.83659649 -0.13770536 0.21240258 0
1.0987941 0.12950149 0.28425449 0
0.9432168 -0.029047992 0.29011306 0
0.94644433 -0.025758769 0.32291237 0
0.96036178 -0.011575427 0.35905474 0
0.62298918 -0.32254502 -0.092852421 0
0.69480389 -0.24556574 -0.09060476 0
0.79940361 -0.13344374 -0.091395564 0
0.8363722 -0.093816549 -0.07113532 0
0.83450979 -0.095812887 -0.041839365 0
0.8457377 -0.083777577 -0.01462031 0
0.83712453 -0.093010098 0.015278744 0
0.83884817 -0.091162533 0.04378828 0
0.83694255 -0.093205184 0.072477303 0
0.84029925 -0.08960709 0.10100552 0
0.84182191 -0.087974936 0.12970021 0
0.83975691 -0.090188414 0.15828489 0
0.8384515 -0.091587692 0.18686849 0
0.84001666 -0.089910001 0.21584913 0
1.098469 0.18712893 0.28909743 0
0.93841362 0.015563164 0.29417834 0
0.93453795 0.011408839 0.32597458 0
0.92835855 0.0047849747 0.3571133 0
0.59703094 -0.3171418 -0.089989074 0
0.67163604 -0.23301247 -0.089417569 0
0.77389133 -0.11770305 -0.090487905 0
0.84765959 -0.034517374 -0.078368105 0
0.85147661 -0.030213084 -0.048845831 0
0.84108478 -0.041931536 -0.017217724 0
0.83633184 -0.047291245 0.012951443 0
0.84230155 -0.040559437 0.041937228 0
0.84569097 -0.036737349 0.071369126 0
0.83838779 -0.044972803 0.10100643 0
0.83859426 -0.044739988 0.1303951 0
0.83863592 -0.044693019 0.1598186 0
0.84474236 -0.037807073 0.1899485 0
0.83997959 -0.04317781 0.21907587 0
1.0998175 0.24983159 0.29462779 0
1.104091 0.25465062 0.33472106 0
0.58611774 -0.29491708 -0.092045955 0
0.65310919 -0.21541998 -0.089642145 0
0.73167628 -0.12218639 -0.085392617 0
0.84801263 0.015867028 -0.083757572 0
0.84020913 0.0066068503 -0.051240209 0
0.83986837 0.0062024924 -0.020542575 0
0.83367908 -0.0011422302 0.010631884 0
0.83542812 0.00093332271 0.040685087 0
0.83421379 -0.00050767919 0.070906363 0
0.84818429 0.016070757 0.10100793 0
0.84634799 0.013891611 0.13154718 0
0.83467609 4.0981584e-05 0.16127542 0
0.84785271 0.015677247 0.19292198 0
0.84574497 0.013176117 0.2234101 0
0.84450847 0.01170877 0.25403655 0
1.1037701 0.31936815 0.34157535 0
0.56274116 -0.28745875 -0.090117104 0
