# .PCD v0.7 - Point Cloud Data file format
VERSION 0.7
FIELDS x y z intensity
SIZE 4 4 4 4
TYPE F F F F
COUNT 1 1 1 1
WIDTH 1360
HEIGHT 1
VIEWPOINT 0 0 0 1 0 0 0
POINTS 1360
DATA ascii
-1.0029991 0.38857114 0.11064199 0
-1.0069073 0.38097763 0.1831443 0
-1.2419957 -0.075780638 0.38766193 0
-1.2377818 -0.067593224 0.50062668 0
-1.2415268 -0.074869759 0.62494838 0
-1.2584031 -0.15086496 -0.050062899 0
-0.99210554 0.38294375 0.040765468 0
-0.99074513 0.38567078 0.11032474 0
-0.99148756 0.38418257 0.18137161 0
-1.2363696 -0.10669745 0.39404926 0
-1.2445832 -0.12316216 0.51814079 0
-1.2436332 -0.12125767 0.64247495 0
-1.2373616 -0.15276551 -0.0497927 0
-0.97742414 0.38514489 0.040463906 0
-0.97895467 0.38197762 0.11012252 0
-0.97549558 0.38913584 0.17929851 0
-1.2440987 -0.16670716 0.40866172 0
-1.2399679 -0.15815914 0.52791554 0
-1.2196109 -0.16125846 -0.049794398 0
-0.96835423 0.37584788 0.040624615 0
-0.96866733 0.37517869 0.11030763 0
-0.96587765 0.38114208 0.17985563 0
-1.2389339 -0.20256507 0.41635808 0
-1.2374935 -0.19948566 0.5399791 0
-1.2024947 -0.17116404 -0.049860224 0
-0.95176566 0.38288569 0.040148787 0
-0.95150751 0.38345617 0.10872861 0
-0.95464557 0.37652183 0.17976584 0
-1.2410467 -0.25635445 0.42905053 0
-1.242221 -0.2589494 0.55860883 0
-1.1855282 -0.18153524 -0.049952257 0
-0.94237584 0.37430012 0.04029255 0
-0.94099945 0.37744647 0.10885958 0
-0.93784827 0.38464993 0.17719492 0
-1.2431473 -0.31324983 0.44253081 0
-1.2374207 -0.30015922 0.57048589 0
-1.1673512 -0.18921685 -0.049947862 0
-0.92700523 0.37960362 0.039901834 0
-0.93036282 0.37165737 0.1089796 0
-0.92332977 0.38830227 0.17555548 0
-1.2388517 -0.35843492 0.45268875 0
-1.1498398 -0.19853008 -0.050015248 0
-0.91425818 0.37919801 0.039740723 0
-0.90993279 0.38980538 0.10633643 0
-0.91500819 0.37735879 0.1768029 0
-1.2428408 -0.42660105 0.4691416 0
-1.1307342 -0.20392776 -0.049940575 0
-0.90090257 0.38064581 0.03951548 0
-0.89851898 0.3867085 0.1061894 0
-0.90113086 0.38006514 0.17541936 0
-1.2386429 -0.47839189 0.48101023 0
-1.1099566 -0.20476973 -0.049701545 0
-0.88819462 0.38082653 0.039346114 0
-0.89124948 0.37275982 0.10730667 0
-0.8866145 0.38499904 0.17364661 0
-1.2381449 -0.54327047 0.49640736 0
-1.094601 -0.22000933 -0.050020646 0
-0.87350994 0.38677585 0.038964428 0
-0.87799597 0.37446404 0.10663893 0
-0.87129039 0.39286751 0.17135388 0
-1.0742378 -0.22163892 -0.04983085 0
-0.86232501 0.38353968 0.038938887 0
-0.8601281 0.38981366 0.10443942 0
-0.86489004 0.37621462 0.17379384 0
-1.0569329 -0.23195755 -0.049978796 0
-0.84921825 0.38607258 0.038701486 0
-0.85206062 0.37761533 0.10539804 0
-0.84978676 0.38438094 0.17151673 0
-1.0387342 -0.23985207 -0.050043415 0
-0.8369714 0.3864761 0.038551122 0
-0.83879805 0.38080561 0.10462678 0
-0.83742869 0.3850565 0.17070426 0
-1.018876 -0.2425288 -0.049921423 0
-0.82620376 0.38243526 0.038573146 0
-0.82446313 0.38808131 0.10341789 0
-0.82637298 0.3818863 0.17065015 0
-1.0004312 -0.24971092 -0.049976889 0
-0.81415564 0.38268018 0.038440641 0
-0.81571907 0.37737244 0.10424862 0
-0.81392872 0.38345057 0.16973233 0
-0.98369133 -0.26311803 -0.050271634 0
-0.80502343 0.37288415 0.038686592 0
-0.80649638 0.36764091 0.10497963 0
-0.8045786 0.37446755 0.17082301 0
-0.9629463 -0.2623632 -0.050049827 0
-0.79229295 0.37586671 0.03846373 0
-0.78927636 0.3871485 0.10246844 0
-0.78939766 0.38669509 0.16797234 0
-0.94613874 -0.27649128 -0.05038657 0
-0.7784127 0.38400859 0.1679415 0
-0.92350978 -0.26745021 -0.049879313 0
-0.76861215 0.37640959 0.16884768 0
-0.9050858 -0.27530944 -0.050002698 0
-0.7548514 0.38565469 0.16665885 0
-0.88620371 -0.28145945 -0.050071832 0
-0.74543852 0.37604272 0.16798581 0
-0.86666161 -0.28458834 -0.050039452 0
-0.73234278 0.3838079 0.16613467 0
-0.84643096 -0.28394592 -0.049879096 0
-0.82798016 -0.29284263 -0.050074063 0
-0.80744237 -0.28973114 -0.049842756 0
-0.78917599 -0.30077434 -0.050132148 0
-0.76848978 -0.29558587 -0.049844496 0
-0.75023073 -0.30843699 -0.050215591 0
-0.73079902 -0.31309712 -0.050300218 0
-0.70985788 -0.30298269 -0.049863536 0
-0.6921522 -0.3272531 -0.05066881 0
-0.67104357 -0.3124994 -0.050084453 0
-0.65149081 -0.31688523 -0.050194584 0
-0.63154525 -0.31467152 -0.050077576 0
-0.61133999 -0.3026675 -0.049619857 0
-0.59197575 -0.31431401 -0.050015908 0
-0.5722174 -0.31413949 -0.049998578 0
-0.55248833 -0.30757236 -0.049761906 0
-0.53262782 -0.31975663 -0.05020358 0
-0.51299918 -0.31265295 -0.049965471 0
-0.49341643 -0.30845702 -0.049839966 0
-0.47325149 -0.31672621 -0.050168842 0
-0.40644565 -1.5638824 0.10675776 0
-0.45424619 -0.30391979 -0.049753003 0
-0.49550411 0.31927967 0.039455276 0
-0.43407932 -0.30953383 -0.050004996 0
-0.4843846 0.32836145 0.039160609 0
-0.41453537 -0.30635917 -0.0499513 0
-0.47492152 0.3532781 0.038302924 0
-0.39535618 -0.30002129 -0.049792811 0
-0.46292761 0.34810334 0.038528517 0
-0.3753114 -0.30201602 -0.049942285 0
-0.4490962 0.32860893 0.039274581 0
-0.44232941 0.27077419 0.1124222 0
-0.44141647 0.26297164 0.18600827 0
-0.44262215 0.27327621 0.2580035 0
-0.44120383 0.26115412 0.33867502 0
-0.44168368 0.26525533 0.41830248 0
-0.35575461 -0.2994076 -0.049935363 0
-0.43539596 0.31422782 0.039844051 0
-0.42839709 0.26030165 0.11372259 0
-0.42996413 0.27237546 0.18457797 0
-0.43004379 0.27298927 0.25846916 0
-0.42904878 0.2653228 0.33779377 0
-0.42979231 0.27105176 0.41652349 0
-0.42974985 0.27072459 0.50226063 0
-0.33641848 -0.29526448 -0.049881961 0
-0.42019874 0.29220814 0.040696226 0
-0.41952744 0.28750086 0.11095481 0
-0.41885012 0.28275144 0.18299426 0
-0.41937441 0.28642774 0.25543922 0
-0.41910821 0.28456134 0.33189794 0
-0.41982508 0.28958797 0.4094758 0
-0.41909745 0.28448588 0.49615744 0
-0.31533077 -0.30261147 -0.050252378 0
-0.40747869 0.2900452 0.040839549 0
-0.40616548 0.28159928 0.11179382 0
-0.40750518 0.29021561 0.18196441 0
-0.40533033 0.27622801 0.25854132 0
-0.40794852 0.29306716 0.32964629 0
-0.40700963 0.28702843 0.4113062 0
-0.40826654 0.29511243 0.49169743 0
-0.29863089 -0.28231096 -0.04963224 0
-0.39187354 0.27137095 0.041586742 0
-0.39122844 0.26754028 0.11354196 0
-0.39039972 0.26261938 0.1873706 0
-0.39264104 0.27592844 0.25913429 0
-0.39097878 0.26605773 0.33941931 0
-0.39194664 0.27180505 0.41852525 0
-0.39854574 0.31099093 0.48463228 0
-0.27756929 -0.28849113 -0.04997912 0
0.068049513 -2.1939704 0.13111717 0
-0.38675791 0.31349194 0.48441565 0
-0.25905335 -0.28027892 -0.049813047 0
0.11530014 -2.2057893 0.13184339 0
-0.37492818 0.31573027 0.48440796 0
-0.24042143 -0.27318716 -0.049695875 0
0.1581064 -2.1936359 0.1317191 0
-0.3675966 0.339652 0.47339609 0
-0.22138624 -0.26829147 -0.049667232 0
0.2057596 -2.2038198 0.13243078 0
-0.35898182 0.35519618 0.46669328 0
-0.2028022 -0.26154232 -0.049579326 0
0.25121805 -2.2023866 0.13274062 0
-0.34797665 0.35904908 0.46603391 0
-0.18263833 -0.26142812 -0.049743749 0
0.29600307 -2.1972899 0.13293768 0
-0.0055965572 -0.97747231 0.25307187 0
-0.0074815541 -0.96984863 0.41920522 0
-0.34185916 0.38253957 0.45532244 0
-0.16034241 -0.26902127 -0.050202426 0
0.3441613 -2.2045555 0.13361229 0
-0.32628417 0.367616 0.46447781 0
-0.14398979 -0.25369978 -0.049824789 0
0.38933566 -2.1991098 0.13384108 0
-0.31728402 0.37842524 0.46041623 0
-0.12538899 -0.24714363 -0.049779054 0
-0.30148223 0.36486292 0.46908757 0
-0.10504589 -0.2464689 -0.049961157 0
-0.30328405 0.41122222 0.44658217 0
-0.083902396 -0.24789584 -0.050232235 0
-0.29136452 0.41028827 0.44878578 0
-0.067214198 -0.23516321 -0.049982242 0
-0.28632677 0.43062544 0.4398731 0
-0.050877608 -0.22193956 -0.049720541 0
-0.25964183 0.38649589 0.46505651 0
-0.02825282 -0.22685695 -0.050153192 0
-0.010248818 -0.21845138 -0.050091285 0
0.0061674924 -0.20604432 -0.049884602 0
0.028881332 -0.20974696 -0.050304346 0
0.042778276 -0.19143081 -0.049886174 0
0.061618946 -0.18535089 -0.049948033 0
0.078759812 -0.17533624 -0.049865726 0
-0.18619688 0.42010087 0.38404933 0
0.09994074 -0.17423284 -0.050141614 0
0.11620011 -0.16231859 -0.050002296 0
-0.16013329 0.41882873 0.38903916 0
-0.20501514 0.51321822 0.49266595 0
0.13387372 -0.15350032 -0.049993366 0
0.5571416 -1.0155027 0.46204767 0
-0.16372062 0.45256293 0.37581685 0
-0.19105546 0.5082314 0.49893096 0
0.15490778 -0.15132034 -0.050258953 0
0.58716816 -1.0043185 0.46266013 0
-0.14834462 0.44710082 0.3806825 0
-0.19037987 0.53005081 0.4875305 0
0.1699387 -0.13724399 -0.050057691 0
0.61182934 -0.98267388 0.46122462 0
-0.14035727 0.45641756 0.37876606 0
-0.17465402 0.52203447 0.49602568 0
0.18443801 -0.12247349 -0.049834564 0
0.64321297 -0.97391701 0.46248302 0
-0.12979291 0.46070963 0.37924686 0
-0.16843115 0.53241861 0.49231601 0
0.19892825 -0.1080047 -0.049629621 0
0.67883891 -0.97242951 0.46533096 0
-0.1134083 0.45458215 0.38472819 0
-0.16471 0.54698777 0.48579448 0
0.22160341 -0.10813583 -0.050031092 0
0.71693677 -0.97445345 0.46902189 0
-0.081597455 0.42215008 0.40289274 0
-0.15725167 0.55446619 0.4841018 0
0.23628916 -0.094128974 -0.049861651 0
0.75771755 -0.98000979 0.4735795 0
-0.056193449 0.40278459 0.41510656 0
-0.14804988 0.55884403 0.48459458 0
0.25679669 -0.089958675 -0.050109174 0
0.80719429 -0.99868536 0.48104602 0
-0.06004528 0.43315905 0.40349105 0
-0.13064031 0.54971403 0.49453679 0
0.26708063 -0.06904269 -0.049665086 0
0.84540683 -0.99729943 0.48444045 0
-0.12556846 0.5611884 0.49031293 0
0.29293874 -0.073011763 -0.050277982 0
0.88507503 -0.99729729 0.4882614 0
-0.12295265 0.57616705 0.48363164 0
0.30303392 -0.052253369 -0.0498528 0
0.91697162 -0.98451447 0.48946166 0
0.020734927 0.37641609 0.44122371 0
-0.1119189 0.57785022 0.486359 0
0.32441536 -0.048701528 -0.050171185 0
0.95621902 -0.98228502 0.49305746 0
0.042083167 0.36848605 0.44886234 0
-0.10612384 0.58748388 0.48351559 0
0.34066239 -0.037366036 -0.050165579 0
0.99338323 -0.97617006 0.49593952 0
0.046931885 0.38510478 0.44432378 0
-0.10222948 0.59964257 0.47887576 0
0.36346969 -0.035218481 -0.05057193 0
0.056438707 0.39472914 0.44333366 0
-0.099306621 0.61282545 0.47348326 0
0.36679503 -0.0060133985 -0.049796827 0
0.078030847 0.38777453 0.45090762 0
-0.088190712 0.61445093 0.47656715 0
0.3792136 0.010209436 -0.049596354 0
1.1248556 -0.98022604 0.10585652 0
1.1322193 -0.99000716 0.30790743 0
0.088214062 0.39674377 0.45044139 0
-0.082058497 0.62291664 0.4747062 0
0.39522907 0.021551484 -0.049621161 0
0.10290059 0.39984262 0.45310909 0
-0.077285089 0.63301402 0.47166169 0
0.41664866 0.026112551 -0.049964342 0
0.12569667 0.39298046 0.46116453 0
-0.067852624 0.6370312 0.47323409 0
0.43203697 0.038473245 -0.049964394 0
-0.063866831 0.64784962 0.46971273 0
0.44410679 0.05481362 -0.049788326 0
-0.055374481 0.65303975 0.47054115 0
0.46081576 0.065551631 -0.049880806 0
-0.045751132 0.65696591 0.47244853 0
0.48261175 0.070603244 -0.050254498 0
-0.042569496 0.66834885 0.46858567 0
0.48620364 0.096253984 -0.049655594 0
1.2015309 -0.6975261 0.099803887 0
-0.035974123 0.67570102 0.46792844 0
0.51410848 0.094981067 -0.050360747 0
1.2098352 -0.65776944 0.098955333 0
-0.025157908 0.67844754 0.47104943 0
0.51839215 0.11935615 -0.049829904 0
0.37867162 0.26676106 0.054578938 0
0.53805846 0.12737381 -0.050109617 0
0.39181867 0.27781636 0.05461923 0
0.84154493 -0.18483436 0.2216959 0
-0.014712729 0.69603091 0.46774241 0
0.54842967 0.14499974 -0.049920917 0
0.38611493 0.30782604 0.053712841 0
0.83893746 -0.14642358 0.21855746 0
-0.0070190816 0.70219898 0.46833643 0
0.56501848 0.15636182 -0.050056193 0
0.41126373 0.30676514 0.054377373 0
0.74148661 -0.016259795 0.2012721 0
0.74262208 -0.017370587 0.33398071 0
0.73669893 -0.011576539 0.46786708 0
-0.00070915493 0.70975816 0.46783999 0
0.58271223 0.16680598 -0.05025148 0
0.42708895 0.31524909 0.054573301 0
0.84276372 -0.08124698 0.213953 0
0.19425108 0.53734404 0.35159332 0
0.59561139 0.18190217 -0.050217178 0
0.44963095 0.31767821 0.055099677 0
0.84411687 -0.04923201 0.21169975 0
0.19010831 0.5590595 0.3456364 0
0.014956078 0.72196811 0.46956468 0
0.60725623 0.19810736 -0.050132021 0
0.83906966 -0.012120372 0.073304482 0
0.83950502 -0.012515193 0.20866552 0
0.19614466 0.57093781 0.34444231 0
0.017878493 0.7326045 0.46657425 0
0.61896449 0.21418047 -0.050060615 0
0.84269196 0.016361946 0.072722465 0
0.83835119 0.020200009 0.20622766 0
0.8363294 0.02198779 0.34152362 0
0.20943089 0.57628781 0.34654793 0
0.030652663 0.73436254 0.47152248 0
0.63154382 0.22944045 -0.050040625 0
0.83743948 0.051957484 0.071745418 0
0.83734781 0.052036401 0.20389621 0
0.84030014 0.04949164 0.33880082 0
0.2248546 0.58000845 0.34959942 0
0.040590964 0.73884451 0.47421435 0
0.64608675 0.24303603 -0.050121423 0
0.83657235 0.082972638 0.07100416 0
0.84166926 0.078689806 0.20239332 0
0.84810585 0.073281161 0.33709207 0
0.92733687 0.0067039677 0.50078607 0
0.25777468 0.56933141 0.36024243 0
0.27140036 0.55788183 0.4542214 0
0.042920969 0.74987108 0.47102827 0
0.64835054 0.26676649 -0.049642682 0
0.84406215 0.10647213 0.070674285 0
0.84200817 0.10815441 0.20039952 0
0.8407256 0.10920488 0.33193094 0
0.95013291 0.01959681 0.50316203 0
0.28814003 0.5617907 0.36961949 0
0.25053784 0.59258813 0.4383983 0
0.045808934 0.76026779 0.4684096 0
0.66812199 0.27609402 -0.049982201 0
0.84598738 0.13412023 0.070107102 0
0.84580678 0.13426447 0.19895266 0
0.83770484 0.14073157 0.32793227 0
0.98555702 0.022714728 0.50968987 0
0.27063009 0.59337538 0.35848245 0
0.2449301 0.61388928 0.43104747 0
0.050881647 0.76878041 0.46757472 0
0.67801839 0.29340959 -0.049877115 0
0.84849209 0.16081548 0.069587477 0
0.83449966 0.17169869 0.19550823 0
0.84005159 0.16738057 0.32529011 0
0.25342181 0.62366021 0.43130529 0
0.062766396 0.77195162 0.47194698 0
0.69118136 0.3081609 -0.049929157 0
0.85423166 0.18460393 0.069232814 0
0.83896285 0.19617438 0.19428684 0
0.83607298 0.19836426 0.32131803 0
0.26575336 0.63054359 0.43361959 0
0.0673187 0.78091419 0.47085157 0
0.70199841 0.32469326 -0.0498849 0
0.84971672 0.21565521 0.068439759 0
0.84619647 0.21825373 0.19348818 0
0.83668238 0.22527647 0.31849906 0
0.29195741 0.62736446 0.44309634 0
0.074652337 0.78776783 0.47190002 0
0.71659178 0.3384763 -0.050016288 0
0.84894675 0.24332976 0.067835785 0
0.83848614 0.2508496 0.19075575 0
0.84229666 0.24811029 0.31689268 0
0.091008507 0.78819221 0.47959226 0
0.7308498 0.35261112 -0.050139494 0
0.8502236 0.2690559 0.067341551 0
0.83994812 0.27624816 0.18930461 0
0.84611744 0.27192998 0.31496918 0
0.84034508 0.27597028 0.44128862 0
0.089775883 0.80132836 0.47448859 0
0.74272007 0.36848164 -0.050166231 0
0.88227934 0.27339315 0.068195269 0
0.84047872 0.30187392 0.18778652 0
0.83815032 0.30346042 0.31055537 0
0.84514612 0.29869384 0.43900198 0
0.10780003 0.80108362 0.48336682 0
0.74122781 0.39323896 -0.049628928 0
0.91821653 0.2758835 0.0692105 0
0.84671396 0.32329446 0.18705842 0
0.84164315 0.32665682 0.30874437 0
0.8387174 0.32859677 0.4333846 0
0.11307069 0.80974954 0.48309398 0
0.75915056 0.40502453 -0.049934126 0
0.94835275 0.28297222 0.069972411 0
0.84170669 0.35176843 0.18493305 0
0.83691031 0.35486257 0.30524558 0
0.84030098 0.35267526 0.43036008 0
0.12095293 0.81671888 0.48474374 0
0.7768361 0.41721672 -0.050233208 0
1.0038888 0.27476376 0.071802601 0
0.85452455 0.3684749 0.18513153 0
0.8400504 0.37755603 0.30352646 0
0.83497792 0.3807385 0.42537087 0
0.14404757 0.81422859 0.49709255 0
0.78614146 0.43477148 -0.050185993 0
1.0198544 0.29220921 0.071959652 0
0.83468348 0.40516138 0.18124381 0
0.83913189 0.40244788 0.30102369 0
0.84181505 0.40081125 0.42415994 0
0.14029624 0.82873011 0.49067581 0
0.78363222 0.45929545 -0.049657989 0
1.0733501 0.28753823 0.073682323 0
0.84177023 0.42482871 0.18080719 0
0.84042877 0.42562401 0.29906994 0
0.83707923 0.4276098 0.41960075 0
0.13834961 0.84184688 0.48567745 0
0.80428177 0.47005492 -0.050100695 0
0.84885818 0.444381 0.18040468 0
0.83331281 0.45333439 0.29544041 0
0.84779924 0.44499093 0.41972479 0
0.14248236 0.85121924 0.48498917 0
0.81567901 0.48635054 -0.050167389 0
0.85208243 0.46598995 0.17955968 0
0.84221894 0.47150666 0.29521948 0
0.84593314 0.46942925 0.41623291 0
0.14883675 0.8593173 0.48589587 0
0.81820482 0.50751942 -0.049881604 0
0.8500151 0.49025005 0.17810673 0
0.83371633 0.49909848 0.29147473 0
0.83790737 0.49682319 0.41106626 0
0.82876915 0.52423024 -0.049932856 0
0.85181981 0.51208955 0.17717093 0
0.83565062 0.5206058 0.2899532 0
0.84909135 0.51352668 0.41157284 0
0.83674449 0.54230732 -0.049888462 0
0.84970874 0.53568631 0.17580189 0
0.83785921 0.54173809 0.28855199 0
0.83389586 0.54376221 0.40457949 0
0.83860034 0.5413596 0.5275082 0
0.85645789 0.55454344 -0.050321016 0
0.85934669 0.55311364 0.17588595 0
0.83746403 0.56394422 0.28668925 0
0.83168715 0.56680346 0.4014352 0
0.84006041 0.56265914 0.52475893 0
0.85602945 0.57677644 -0.049959652 0
0.87249368 0.56888419 0.17641394 0
0.83250958 0.58805096 0.28398192 0
0.83968705 0.58461034 0.40128055 0
0.83835906 0.58524698 0.52095896 0
0.86300498 0.59529686 -0.049902838 0
0.90107161 0.57763517 0.1787906 0
0.83849603 0.60666817 0.28352612 0
0.85133189 0.60071278 0.40221518 0
0.83636647 0.60765624 0.51717901 0
0.87927836 0.60960424 -0.050219335 0
0.92796797 0.58775461 0.18096881 0
0.84285158 0.62595087 0.28279701 0
0.84552604 0.62475067 0.39832148 0
0.84284705 0.6259529 0.51661336 0
0.87847739 0.63156366 -0.049876701 0
0.96411937 0.5944199 0.18423429 0
0.83917838 0.64860809 0.28054142 0
0.84210998 0.6473366 0.39519793 0
0.8335492 0.65104949 0.51041269 0
0.88955766 0.64828831 -0.050006475 0
1.00973 0.59795648 0.18859453 0
0.84115344 0.66856152 0.27945802 0
0.8482421 0.66559255 0.39481077 0
0.84845346 0.66550404 0.51308852 0
0.89090782 0.66904706 -0.049769051 0
1.0383568 0.6094619 0.19096918 0
0.84544545 0.68741876 0.27887979 0
0.82781607 0.69454288 0.38718084 0
0.8389098 0.69005984 0.5070436 0
0.90775138 0.68359423 -0.050136447 0
1.081798 0.6157974 0.19505759 0
0.84933764 0.7063483 0.27827311 0
0.84264487 0.70895535 0.38934126 0
0.8369866 0.71115947 0.50385976 0
0.27617458 0.92961413 0.4535999 0
0.90640396 0.70524496 -0.049815491 0
0.84474689 0.72837263 0.27608132 0
0.84376198 0.728742 0.38780478 0
0.84563643 0.72803897 0.50454247 0
0.28210005 0.93942183 0.4546169 0
0.92366809 0.71994328 -0.050212741 0
0.84470433 0.74843371 0.27482477 0
0.84284669 0.74910396 0.38579172 0
0.8423484 0.74928379 0.50107515 0
0.2575824 0.96026987 0.43950206 0
0.92140418 0.74171054 -0.049877398 0
0.85266596 0.76553774 0.27514985 0
0.83680803 0.77103472 0.38247338 0
0.84331065 0.76878065 0.49921393 0
0.83792394 0.77064788 0.61744136 0
0.2605308 0.97079384 0.43913695 0
0.92913359 0.75990814 -0.049929783 0
0.84284657 0.78860664 0.27213508 0
0.83573967 0.79097033 0.38057971 0
0.83994633 0.78957123 0.49592981 0
0.84285337 0.78860438 0.61698318 0
0.30012569 0.96911192 0.45816666 0
0.94026381 0.77706409 -0.050117984 0
0.85123366 0.805435 0.2726337 0
0.83688897 0.81000614 0.3793548 0
0.83407074 0.81090426 0.49187353 0
0.83560568 0.81041515 0.61133373 0
0.30502126 0.97949457 0.45888734 0
0.95112699 0.79444349 -0.050303582 0
0.85525686 0.82366961 0.27234766 0
0.83613449 0.82949907 0.37769088 0
0.83744377 0.82909995 0.4911432 0
0.84036893 0.82820821 0.61102402 0
0.31516203 0.98831803 0.46241745 0
0.94109207 0.81804681 -0.049719583 0
0.87323719 0.83780211 0.27472752 0
0.83623391 0.84857529 0.37632528 0
0.82655591 0.85139298 0.48555356 0
0.84709364 0.84541363 0.61165798 0
0.33175948 0.99544859 0.46935725 0
0.95778924 0.83380693 -0.050139096 0
0.90046364 0.84971654 0.27886301 0
0.84974474 0.86379266 0.37857917 0
0.84078151 0.8662802 0.48875144 0
0.84622175 0.86477035 0.60911894 0
0.3123804 1.0129281 0.45763874 0
0.96393603 0.85266173 -0.050174996 0
0.92740947 0.86230534 0.28296047 0
0.844459 0.88420564 0.3759163 0
0.85084909 0.88251859 0.49057257 0
0.84048599 0.88525456 0.60460997 0
0.32634333 1.0209968 0.46332717 0
0.96066815 0.87390512 -0.04987302 0
0.96094042 0.87383687 0.28829888 0
0.84835678 0.90204936 0.375745 0
0.84803265 0.9021306 0.48803926 0
0.84252387 0.90351105 0.60354358 0
0.32989368 1.0319717 0.46367922 0
0.96785194 0.89245319 -0.04996527 0
0.99220055 0.88667649 0.2932274 0
0.83348411 0.92433202 0.37071133 0
0.84346992 0.92196286 0.48500091 0
0.83700663 0.92349631 0.59936351 0
0.34346214 1.0405899 0.46925303 0
0.9771288 0.91060233 -0.0501424 0
1.0261537 0.89962131 0.2986697 0
0.83177978 0.94315892 0.36920822 0
0.8495267 0.93918377 0.485677 0
0.84203547 0.94086176 0.59977669 0
0.35131529 1.0507777 0.4719364 0
0.97629756 0.93101311 -0.049958605 0
1.0465223 0.91620964 0.30162385 0
0.84611636 0.95845562 0.37195349 0
0.84228557 0.95926315 0.48190376 0
0.84752482 0.95815873 0.60047632 0
0.34521046 1.0640477 0.46754116 0
0.98548478 0.94931448 -0.050149225 0
1.0846616 0.92970872 0.30787608 0
0.84492797 0.97710049 0.37070453 0
0.83967859 0.97813821 0.47979736 0
0.83451062 0.97915983 0.59345686 0
0.37089399 1.0708101 0.4794549 0
0.96986622 0.97233576 -0.049447212 0
0.85168344 0.99415624 0.37158045 0
0.8468352 0.99505138 0.48107955 0
0.84000438 0.99631262 0.59435761 0
0.3949022 1.0784934 0.49053201 0
0.98665518 0.98929524 -0.049931139 0
0.85023016 1.0127115 0.37038514 0
0.84504193 1.0136021 0.47940981 0
0.84072942 1.0143423 0.59334403 0
0.38278344 1.0929452 0.48329428 0
0.99476713 1.0079806 -0.050108172 0
0.42770264 1.0979778 0.041609861 0
0.43567309 1.0967128 0.11406137 0
0.43471554 1.0968647 0.18716741 0
0.43634817 1.0966057 0.262712 0
0.42776534 1.0979679 0.33786327 0
0.43696597 1.0965075 0.42285895 0
0.40010467 1.1023577 0.49107763 0
0.99205738 1.0283735 -0.049902935 0
0.41758552 1.1121448 0.041176636 0
0.40754607 1.1136088 0.11079963 0
0.40500179 1.1139798 0.18140489 0
0.40722761 1.1136553 0.2547121 0
0.40910879 1.1133809 0.33095506 0
0.40323427 1.1142377 0.40794668 0
0.40138659 1.1145071 0.49079672 0
0.9930442 1.0481317 -0.049840439 0
0.40400085 1.1264669 0.040625688 0
0.43401769 1.122475 0.11348577 0
0.43790945 1.1219574 0.18708438 0
0.43144533 1.122817 0.26050907 0
0.42845723 1.1232145 0.33687896 0
0.42266664 1.1239846 0.4153583 0
0.42154565 1.1241336 0.50012171 0
0.99058336 1.0682632 -0.049663015 0
0.37979832 1.1416756 0.039700262 0
0.42705521 1.1359956 0.11256095 0
0.43096426 1.1355258 0.1855344 0
0.42536631 1.1361986 0.25854161 0
0.42428783 1.1363282 0.33495486 0
0.42703715 1.1359978 0.41652891 0
0.9982298 1.087186 -0.049857862 0
0.35906836 1.1558567 0.038907655 0
0.85723978 1.1023338 0.36899883 0
0.82985312 1.1052762 0.47018951 0
0.84943181 1.1031727 0.59183401 0
1.0070486 1.1061389 -0.050103068 0
0.35701963 1.1677086 0.038792331 0
0.85448784 1.1205893 0.36783186 0
0.82936972 1.1229684 0.46943757 0
0.83571655 1.1223673 0.58538491 0
0.99916559 1.1266387 -0.0497583 0
0.36542395 1.1786233 0.039056916 0
0.85781282 1.1382335 0.36828062 0
0.84984475 1.1388872 0.475757 0
0.84623879 1.1391829 0.58911175 0
1.0089881 1.1456695 -0.0500567 0
0.37370655 1.1897354 0.039321832 0
0.84267193 1.1572059 0.36406329 0
0.83878201 1.1574757 0.47162008 0
0.8475619 1.1568667 0.58910537 0
1.0164908 1.1650459 -0.050280504 0
0.85307223 1.1743155 0.36643687 0
0.83969969 1.175074 0.47155645 0
0.84364909 1.17485 0.58702004 0
1.013115 1.1850632 -0.050124153 0
0.84448153 1.1924998 0.3640143 0
0.83482271 1.1929257 0.46963692 0
0.84048492 1.1926759 0.58534002 0
1.0052834 1.2051136 -0.049817711 0
0.85481471 1.2098517 0.36648157 0
0.84486502 1.210165 0.47275901 0
0.8430503 1.2102222 0.5861271 0
1.0144558 1.2246298 -0.05012754 0
0.84536046 1.2278239 0.36395478 0
0.83804971 1.227962 0.47034317 0
0.83660263 1.2279893 0.58327305 0
1.0150927 1.2444214 -0.050141379 0
0.84641689 1.2454833 0.36416757 0
0.84495932 1.2454925 0.47256839 0
0.84296793 1.245505 0.58581704 0
1.0082774 1.2641789 -0.049898062 0
0.85189837 1.2631943 0.3655661 0
0.84283167 1.2631372 0.4718605 0
0.83621901 1.2630956 0.58302271 0
1.0095257 1.2839203 -0.049951494 0
0.85116976 1.280929 0.36543718 0
0.8464883 1.2808405 0.47315112 0
0.84982151 1.2809035 0.58874714 0
1.0020918 1.303429 -0.049703714 0
0.84664184 1.298534 0.36439538 0
0.83843774 1.2982757 0.47061965 0
0.84176725 1.2983805 0.58559561 0
1.003021 1.3231348 -0.049763437 0
0.85273594 1.3165075 0.36612231 0
0.8325544 1.3156174 0.46888152 0
0.83759612 1.3158398 0.5841428 0
1.0079161 1.3431109 -0.049973883 0
0.84738737 1.3340052 0.36498415 0
0.85007924 1.3341579 0.47501522 0
0.84538716 1.3338917 0.58774084 0
0.99847013 1.3622441 -0.049680289 0
1.2853003 1.3821399 0.071945094 0
1.302964 1.3833652 0.20641316 0
1.2940344 1.3827457 0.34070736 0
0.85307676 1.3521589 0.36672425 0
0.84049112 1.3512859 0.47219008 0
0.84847122 1.3518395 0.58948278 0
0.99686223 1.3818156 -0.049675789 0
1.2549213 1.4029837 0.070919767 0
1.2399468 1.4017555 0.19980913 0
1.0196168 1.3836821 0.29136944 0
0.84507912 1.3693651 0.36502096 0
0.840841 1.3690175 0.47275141 0
0.82614368 1.3678118 0.58076376 0
1.0070713 1.4025064 -0.05010388 0
1.2542841 1.4259219 0.070969202 0
1.2419227 1.424751 0.2002382 0
0.90658671 1.3929886 0.27121112 0
0.8544901 1.3880541 0.36783245 0
0.83814281 1.3865057 0.47236937 0
0.83760756 1.3864551 0.58617133 0
1.0081828 1.4225265 -0.050215241 0
0.64214224 1.3831996 0.049071919 0
0.64463848 1.3834678 0.13592644 0
0.63871175 1.382831 0.22295992 0
0.63985354 1.3829536 0.31321743 0
0.84128159 1.4045948 0.47401357 0
0.84431905 1.4049212 0.58970499 0
0.99603719 1.4410354 -0.049859125 0
0.54833847 1.387225 0.045760669 0
0.54935628 1.3873473 0.12579915 0
0.55182034 1.3876435 0.20748751 0
0.55284232 1.3877664 0.2912989 0
0.83153862 1.4212638 0.47141999 0
0.84448987 1.4228204 0.59061331 0
0.99237984 1.460423 -0.049816515 0
0.55108911 1.4017371 0.045923162 0
0.55501646 1.4022593 0.12660392 0
0.55885357 1.4027697 0.20908853 0
0.55219966 1.4018848 0.2915886 0
0.83313996 1.4392462 0.47269988 0
0.84943217 1.4414128 0.59361017 0
0.99224073 1.4802964 -0.049909551 0
0.55845445 1.4170402 0.046259031 0
0.54617172 1.4152491 0.12585521 0
0.5589295 1.4171095 0.20945917 0
0.53650302 1.4138392 0.28804326 0
0.84758765 1.4592026 0.47837728 0
0.83776528 1.4577703 0.5897609 0
0.99795979 1.5011692 -0.050223578 0
0.5528031 1.4305197 0.046132006 0
0.54948479 1.429993 0.12644573 0
0.55885679 1.4314805 0.20983635 0
0.54542416 1.4293486 0.29088905 0
0.83645564 1.4755373 0.4755339 0
0.83843452 1.4758514 0.59116173 0
0.98616487 1.5192637 -0.04991338 0
0.55389255 1.4450675 0.046255019 0
0.5427739 1.4431591 0.12596472 0
0.53646451 1.4420761 0.20616323 0
0.55435175 1.4451463 0.2937932 0
0.8415994 1.4944502 0.47824776 0
0.84421748 1.4948995 0.59480935 0
0.98818511 1.5396897 -0.050112277 0
0.55185241 1.459128 0.046271343 0
0.53698057 1.4563822 0.12560096 0
0.54580563 1.4580116 0.20832582 0
0.55578536 1.4598542 0.29481137 0
0.838247 1.512006 0.478174 0
0.83520156 1.5114437 0.59233546 0
0.9831863 1.5588742 -0.050065577 0
0.55185217 1.4736059 0.046368383 0
0.56055373 1.4753261 0.1284716 0
0.55042118 1.473323 0.2096619 0
0.55905324 1.4750293 0.29635724 0
0.84007519 1.5305833 0.47993186 0
0.83523542 1.5296265 0.59376276 0
0.97873515 1.5781438 -0.050047543 0
0.55429751 1.4886714 0.04656155 0
0.54814547 1.4873745 0.12742415 0
0.5552898 1.4888806 0.21108368 0
0.54037124 1.4857358 0.29223377 0
0.84526962 1.550009 0.48291835 0
0.84543949 1.5500448 0.59959394 0
0.98203391 1.5991395 -0.050321858 0
0.5603202 1.5046803 0.046893079 0
0.55395764 1.5032551 0.12839708 0
0.5524469 1.5029167 0.2111204 0
0.5446412 1.5011684 0.29413474 0
0.8351441 1.5662378 0.48077342 0
0.83728677 1.5667177 0.59776187 0
0.96844977 1.6163317 -0.049987208 0
0.55480486 1.5181943 0.046809625 0
0.55681771 1.5186719 0.12906891 0
0.55047077 1.517166 0.21135062 0
0.55181926 1.517486 0.29685482 0
0.84073108 1.5860305 0.48406443 0
0.83216494 1.5839981 0.59730315 0
0.9675203 1.6364551 -0.050125215 0
0.55403513 1.5328393 0.046906825 0
0.55184311 1.53229 0.12889633 0
0.5557701 1.5332741 0.21296753 0
0.54786211 1.5312924 0.29670867 0
0.84331018 1.6053292 0.4864195 0
0.84530586 1.6058292 0.60473108 0
0.95763558 1.654318 -0.049942352 0
0.55799538 1.5488063 0.047185797 0
0.55516905 1.5480602 0.12966479 0
0.55468446 1.5479321 0.21343666 0
0.55012208 1.5467277 0.29824838 0
0.83472306 1.6218671 0.48502374 0
0.83225185 1.6212146 0.60108393 0
0.94686919 1.6718056 -0.049734503 0
0.55478901 1.562991 0.047207657 0
0.55033928 1.561756 0.12954848 0
0.54850596 1.5612472 0.21298869 0
0.53753084 1.5582013 0.29591262 0
0.84035617 1.6422448 0.48860461 0
0.82188183 1.6371176 0.59866035 0
0.95277256 1.693997 -0.050153907 0
0.55814415 1.5791044 0.047480207 0
0.55366129 1.5777993 0.13036342 0
0.55115801 1.5770705 0.21422921 0
0.55505282 1.5782044 0.30160844 0
0.83398443 1.6594129 0.48812762 0
0.83901089 1.6608763 0.60817254 0
0.9370684 1.7099138 -0.049778868 0
0.84295481 1.6812233 0.37951002 0
0.84854549 1.6829276 0.4950045 0
0.83995038 1.6803074 0.61084282 0
0.92795295 1.727656 -0.049656693 0
0.84362584 1.7007837 0.38115874 0
0.82720357 1.6955506 0.48947567 0
0.850761 1.7030575 0.6179195 0
0.92413789 1.7470734 -0.04974182 0
0.83771867 1.718331 0.38111183 0
0.84403163 1.7204306 0.49736217 0
0.82963687 1.715643 0.61121637 0
0.93138784 1.7703933 -0.050254632 0
0.84380263 1.740033 0.38436213 0
0.8363871 1.7374625 0.49677607 0
0.83695549 1.7376595 0.61701697 0
0.91107756 1.7841572 -0.049734879 0
0.84040672 1.7586588 0.3851299 0
0.83913296 1.7581992 0.49993792 0
0.84118277 1.7589388 0.62160504 0
0.90603656 1.8032603 -0.049801484 0
0.83425683 1.7763357 0.38521472 0
0.82354647 1.7723182 0.49669328 0
0.83130366 1.775228 0.62009513 0
0.90256482 1.8230286 -0.049937729 0
0.83739775 1.7976438 0.38790455 0
0.83494693 1.7966892 0.50313151 0
0.83992809 1.7986294 0.62689054 0
0.89375573 1.8407469 -0.049878713 0
0.83384007 1.8165346 0.38883853 0
0.83180887 1.8157138 0.50449556 0
0.82653302 1.8135817 0.62401885 0
0.88547069 1.8586431 -0.049848285 0
0.8289116 1.8349544 0.38946387 0
0.82863444 1.8348383 0.5059399 0
0.82923549 1.83509 0.62844205 0
0.8801375 1.8777994 -0.049941301 0
0.83089441 1.8564422 0.39207891 0
0.81878549 1.8511904 0.50505883 0
0.82432526 1.8535931 0.62957591 0
0.86580831 1.8929942 -0.049692236 0
0.83195573 1.8778027 0.3945266 0
0.82614011 1.8751929 0.51052105 0
0.82014591 1.872503 0.63115323 0
0.86087435 1.9123577 -0.049818981 0
0.83033782 1.8981898 0.39631048 0
0.82245594 1.8945329 0.51207721 0
0.81709689 1.8920465 0.63336408 0
0.85958678 1.9335719 -0.05010049 0
0.81105417 1.9103073 0.39317945 0
0.81487507 1.9121388 0.51229471 0
0.81452352 1.9119704 0.63591939 0
0.83946496 1.9456892 -0.049644109 0
0.82058495 1.9363447 0.39827475 0
0.81442875 1.9332978 0.51524407 0
0.81397265 1.9330721 0.63954055 0
0.83342761 1.9646418 -0.049755491 0
0.81701249 1.9562583 0.39974275 0
0.80138093 1.9482751 0.5136041 0
0.80256611 1.9488803 0.63826132 0
0.82637161 1.9831501 -0.049836114 0
1.0401738 2.0957584 0.46667266 0
0.80226117 1.9704512 0.51726115 0
0.79669911 1.9675218 0.63965869 0
0.80991381 1.9966226 -0.049544796 0
0.81056231 1.9969747 0.40312788 0
0.79386431 1.9879096 0.5175367 0
0.80089265 1.9917251 0.64591557 0
0.80500454 2.0163224 -0.049730737 0
0.79516286 2.0108178 0.40139145 0
0.79667634 2.0116644 0.52217042 0
0.78938085 2.0075841 0.64491022 0
0.79729015 2.0345614 -0.049812648 0
0.78265721 2.0261335 0.40054548 0
0.78176755 2.0256212 0.52014887 0
0.78719205 2.0287454 0.6484471 0
0.79807967 2.0579128 -0.050257608 0
0.77640432 2.0450628 0.40160477 0
0.76864129 2.0404603 0.51886922 0
0.77727753 2.0455804 0.64841962 0
0.78359407 2.0723178 -0.050079465 0
0.77150851 2.0649457 0.40314871 0
0.76817733 2.0629137 0.52258688 0
0.7732895 2.0660322 0.65136868 0
0.77145654 2.0880513 -0.050006479 0
0.76652342 2.0849562 0.40475315 0
0.7557134 2.0781741 0.52173156 0
0.76453644 2.0837097 0.65213746 0
0.76297468 2.1060855 -0.050096598 0
0.75734645 2.1024547 0.40517414 0
0.75386435 2.1002085 0.52514762 0
0.76219863 2.1055849 0.65618253 0
0.74414223 2.1173368 -0.049753778 0
0.74348503 2.1169009 0.40423185 0
0.74880666 2.1204295 0.52742183 0
0.74985451 2.1211243 0.65542692 0
0.7452119 2.1418593 -0.050273877 0
0.74433273 2.1412601 0.40787843 0
0.73670489 2.1360631 0.52698183 0
0.73823935 2.1371086 0.65512758 0
0.72429198 2.1514418 -0.049853723 0
0.72821122 2.1541853 0.40636784 0
0.73226577 2.1570232 0.52972931 0
0.73649007 2.1599798 0.65991294 0
0.71608573 2.1698029 -0.049994033 0
0.7174781 2.1708038 0.40658751 0
0.71976501 2.1724479 0.52930635 0
0.7178933 2.1711025 0.65629721 0
0.70344609 2.1850185 -0.049949143 0
0.71175295 2.1911502 0.40846342 0
0.71138936 2.1908817 0.53066504 0
0.7107988 2.1904459 0.65863872 0
0.69317406 2.2019923 -0.050018419 0
0.69478792 2.2032154 0.40684089 0
0.7018916 2.2085984 0.53166491 0
0.70968741 2.2145059 0.66423666 0
0.68184298 2.2182083 -0.050050091 0
0.69588572 2.2291307 0.41108951 0
0.69568163 2.228972 0.53415394 0
0.69137925 2.2256255 0.66102773 0
0.66147524 2.2272437 -0.049678579 0
0.68529159 2.246254 0.41167036 0
0.6825909 2.2440984 0.53384769 0
0.68297535 2.2444053 0.66310698 0
0.65512508 2.2474253 -0.049955312 0
0.67780834 2.2660036 0.41335389 0
0.67780453 2.2660005 0.53719103 0
0.67939335 2.2673018 0.66791439 0
0.63640898 2.2574749 -0.049670134 0
0.66772288 2.2837877 0.41427055 0
0.66041774 2.2776492 0.53521347 0
0.66279155 2.279644 0.66588688 0
0.62784523 2.2760146 -0.049866296 0
0.71916968 2.3547366 0.066170827 0
0.7193796 2.3549175 0.18715817 0
0.72297436 2.3580163 0.31086498 0
0.64499456 2.2907972 0.41101366 0
0.65040833 2.295464 0.53651899 0
0.64929324 2.2945027 0.66561818 0
0.6173107 2.2930005 -0.049981803 0
0.67931777 2.3478265 0.064936779 0
0.68236202 2.3505182 0.18385032 0
0.68698305 2.3546042 0.30557045 0
0.64143616 2.3143318 0.41427875 0
0.64190191 2.3147438 0.53860557 0
0.63697761 2.3103898 0.66610301 0
0.60797542 2.311188 -0.050166685 0
0.6648379 2.3627555 0.064907223 0
0.66114408 2.3594058 0.18278873 0
0.65587336 2.3546257 0.30139327 0
0.62689286 2.3283439 0.41389942 0
0.63045257 2.3315721 0.5395028 0
0.6245386 2.3262088 0.66663557 0
0.58442956 2.3163407 -0.049671989 0
0.64250749 2.3703589 0.06450367 0
0.641128 2.3690758 0.18190737 0
0.63898474 2.3670824 0.30066958 0
0.6102677 2.3403728 0.41285133 0
0.6056456 2.3360736 0.53443724 0
0.61574334 2.3454657 0.66934675 0
0.5720467 2.3316636 -0.049725264 0
0.62881392 2.3858116 0.064526059 0
0.62079197 2.3781598 0.18098581 0
0.63054901 2.3874667 0.30208278 0
0.59695357 2.3554213 0.4130111 0
0.59970504 2.3580458 0.53801072 0
0.59832376 2.3567283 0.66729391 0
0.56090409 2.3482566 -0.049850713 0
0.61278278 2.3990045 0.064441644 0
0.60537535 2.3917584 0.18080951 0
0.61207455 2.3983116 0.30104524 0
0.58435327 2.3711946 0.41349483 0
0.57755071 2.3645403 0.53421056 0
0.58224958 2.3691368 0.66607642 0
0.54059285 2.3557818 -0.049524613 0
0.5986889 2.4140611 0.064462468 0
0.59162754 2.4069774 0.1809109 0
0.60120088 2.4165809 0.30197081 0
0.57610208 2.391403 0.41562775 0
0.57844549 2.3937538 0.54126209 0
0.57560223 2.3909016 0.67046309 0
0.5329507 2.3760147 -0.049847998 0
0.59680003 2.441699 0.065118358 0
0.59436673 2.4391959 0.18358502 0
0.59461194 2.4394481 0.30407622 0
0.56280106 2.406723 0.41603258 0
0.56026059 2.4041095 0.53947312 0
0.56016964 2.4040158 0.66985011 0
0.52616638 2.3974888 -0.05023336 0
0.61091644 2.4868996 0.066631563 0
0.61711198 2.4934361 0.18948318 0
0.60590178 2.4816093 0.31097189 0
0.55108684 2.4237797 0.41710243 0
0.54912752 2.4217126 0.54113328 0
0.54633778 2.4187696 0.67029119 0
0.50023109 2.3986471 -0.049630806 0
0.53976852 2.4414251 0.41841596 0
0.53634948 2.4377258 0.54211777 0
0.52915651 2.4299433 0.66880769 0
0.48677072 2.4130185 -0.049685836 0
0.51674074 2.4462752 0.41536942 0
0.51829141 2.4479961 0.5405916 0
0.51515025 2.4445105 0.66935337 0
0.47432181 2.4286044 -0.049806092 0
0.5044679 2.4629159 0.41645965 0
0.50542504 2.4640052 0.5417251 0
0.51194268 2.4714234 0.67679524 0
0.46046111 2.4426775 -0.049861342 0
0.4850907 2.4714324 0.41486135 0
0.4844881 2.4707289 0.53885025 0
0.48560724 2.4720354 0.66984129 0
0.45310697 2.4646089 -0.050289672 0
0.46740827 2.4817376 0.41395578 0
0.47243556 2.4877586 0.54058713 0
0.47276887 2.488158 0.67150587 0
0.43729237 2.4766278 -0.050261647 0
0.45795938 2.5020237 0.41641617 0
0.45114598 2.4936514 0.53759468 0
0.45767316 2.501672 0.67184794 0
0.41429654 2.4795647 -0.0498292 0
0.43627498 2.5072777 0.41399619 0
0.44381055 2.5167797 0.54206485 0
0.44376978 2.5167282 0.67310244 0
0.39880249 2.4917159 -0.049829803 0
0.42773435 2.5291555 0.4170481 0
0.42453995 2.5250218 0.54027188 0
0.42639866 2.527427 0.67215681 0
0.38838372 2.5106144 -0.050140683 0
0.408712 2.5376165 0.41582111 0
0.40743694 2.5359228 0.53970462 0
0.41386631 2.5444627 0.67461824 0
0.37146065 2.521019 -0.050078504 0
0.39888909 2.5584233 0.41858751 0
0.39813909 2.5574005 0.54359537 0
0.39568296 2.5540509 0.67331457 0
0.35588095 2.5332346 -0.050105732 0
0.37956509 2.5664005 0.41734594 0
0.37775227 2.5638621 0.54136056 0
0.37391493 2.5584884 0.66951919 0
0.33831134 2.5426276 -0.050018542 0
0.35631701 2.5685251 0.41437244 0
0.35741857 2.5701094 0.53916287 0
0.35859457 2.5718007 0.67037106 0
0.31741044 2.5469937 -0.049724981 0
0.34301338 2.584826 0.41588202 0
0.33999154 2.5803607 0.53869563 0
0.34297898 2.584775 0.67114353 0
0.29949775 2.5555267 -0.049623262 0
0.3217698 2.5893466 0.41383189 0
0.32081965 2.587904 0.53724128 0
0.3271133 2.5974607 0.67186445 0
0.28676298 2.572015 -0.049869258 0
0.30514964 2.6007154 0.41395447 0
0.30356058 2.5982349 0.53699577 0
0.30584577 2.6018019 0.66857505 0
0.27612826 2.5922079 -0.050275937 0
0.28741923 2.6103306 0.41361222 0
0.28858396 2.6122003 0.53826237 0
0.29245123 2.6184075 0.6714254 0
0.25947621 2.6030257 -0.050293829 0
0.26729152 2.6159291 0.41214126 0
0.26602462 2.6138375 0.53479779 0
0.26648524 2.6145978 0.66445386 0
0.2384211 2.6063941 -0.050011702 0
0.25153288 2.6286705 0.41287109 0
0.24996759 2.6260109 0.53553641 0
0.25095364 2.6276863 0.66580987 0
0.2212338 2.6161325 -0.050004508 0
0.23499258 2.6401961 0.41329697 0
0.23198994 2.6349444 0.53510582 0
0.23310341 2.6368918 0.66539788 0
0.2003323 2.6191766 -0.049732886 0
0.22031374 2.6551678 0.41478646 0
0.22096689 2.6563442 0.5395084 0
0.21370573 2.6432652 0.66375434 0
0.18317761 2.6287775 -0.049739704 0
0.19944902 2.6589756 0.41308427 0
0.20423575 2.6678593 0.54019839 0
0.20144941 2.6626883 0.66837466 0
0.16763611 2.6414816 -0.049880229 0
0.18092932 2.6669145 0.4126583 0
0.1814328 2.6678777 0.5366472 0
0.17936291 2.6639175 0.66453725 0
0.15143259 2.6531057 -0.049984481 0
0.16166289 2.6732936 0.41185591 0
0.15751047 2.6650994 0.53218305 0
0.16279288 2.6755233 0.66567016 0
0.13761671 2.6697662 -0.050296545 0
0.14140595 2.6774831 0.41050524 0
0.14080937 2.6762681 0.53302771 0
0.14342763 2.6816003 0.6643424 0
0.11326905 2.6647975 -0.049758609 0
0.11999556 2.6789436 0.40846401 0
0.12416431 2.6877108 0.53404593 0
0.12080093 2.6806374 0.65990722 0
0.10042562 2.6839297 -0.050183024 0
0.10188176 2.6870942 0.40838933 0
0.10300615 2.6895375 0.53161371 0
0.10800716 2.7004058 0.66507655 0
0.082619213 2.6926527 -0.05020465 0
0.087937854 2.7046051 0.41099286 0
0.086156212 2.7006013 0.53265589 0
0.082680784 2.692791 0.65788072 0
0.063649021 2.6987154 -0.050131515 0
0.064005457 2.6995444 0.40736273 0
0.062041722 2.6949773 0.52772617 0
0.063507937 2.6983874 0.65682203 0
0.047827028 2.7122357 -0.050356288 0
0.045934044 2.7076757 0.40747914 0
0.040066861 2.6935425 0.52444088 0
0.043985508 2.7029819 0.65542823 0
0.022725662 2.7030182 -0.049713187 0
0.023263475 2.7043612 0.40451208 0
0.027560493 2.7150917 0.52950847 0
0.026739379 2.7130413 0.65658873 0
0.0067592473 2.7162209 -0.049943287 0
0.0071244449 2.7171671 0.40604615 0
0.0058402629 2.7138395 0.52647662 0
0.0050409646 2.7117684 0.65281093 0
-0.0093168402 2.7296031 -0.050186828 0
-0.0076308637 2.7341411 0.4087629 0
-0.012347677 2.7214451 0.52669996 0
-0.013289728 2.7189095 0.65288812 0
-0.030858794 2.7282057 -0.049876653 0
-0.03209231 2.7247527 0.4043757 0
-0.030685822 2.7286897 0.52687591 0
-0.034255065 2.718699 0.64983439 0
-0.050481416 2.7317374 -0.049764127 0
-0.050344445 2.7321365 0.40461469 0
-0.051770724 2.7279799 0.52433461 0
-0.051101424 2.7299304 0.65191823 0
-0.068120398 2.7410529 -0.049878746 0
-0.072435297 2.7279415 0.40180457 0
-0.072137155 2.7288475 0.52244961 0
-0.074026115 2.7231078 0.64621663 0
-0.08673168 2.7475629 -0.049896233 0
-0.092476465 2.7293372 0.40057567 0
-0.090733893 2.7348657 0.5224582 0
-0.09212891 2.7304399 0.64680791 0
-0.10627917 2.7510204 -0.049808592 0
-0.11136106 2.7341602 0.40033209 0
-0.11314402 2.728245 0.51815671 0
-0.11285723 2.7291965 0.64378744 0
-0.12379462 2.761328 -0.049984906 0
-0.10839791 2.8148386 0.063972816 0
-0.10501323 2.826602 0.18182734 0
-0.10529128 2.8256357 0.3008818 0
-0.12817772 2.7460945 0.40204057 0
-0.12986954 2.7402148 0.52040446 0
-0.13143875 2.734761 0.64382368 0
-0.1431459 2.7654212 -0.049938742 0
-0.13311346 2.8020165 0.06329345 0
-0.13367702 2.7999609 0.17823771 0
-0.13341753 2.8009071 0.29521626 0
-0.14944594 2.7424405 0.39967546 0
-0.15218781 2.732439 0.51590562 0
-0.15005906 2.7402041 0.6439082 0
-0.16131793 2.773922 -0.050064348 0
-0.15926261 2.7818072 0.062355269 0
-0.15761863 2.7881143 0.17634311 0
-0.15996753 2.7791028 0.29018033 0
-0.17065345 2.738106 0.39720941 0
-0.17191114 2.7332809 0.51448119 0
-0.17077683 2.7376328 0.64066392 0
-0.18173791 2.7737129 -0.049877677 0
-0.17661463 2.7944341 0.062639728 0
-0.17659532 2.794512 0.17650758 0
-0.17936052 2.7833283 0.29005811 0
-0.18987466 2.740804 0.39666954 0
-0.19225489 2.7311771 0.51213688 0
-0.19084443 2.7368817 0.63831741 0
-0.19965632 2.7836335 -0.050072398 0
-0.1993451 2.7849638 0.062121179 0
-0.19631718 2.7979076 0.17636658 0
-0.19646709 2.7972667 0.29178056 0
-0.20826791 2.7468207 0.39706436 0
-0.20904206 2.7435112 0.51482022 0
-0.21097957 2.7352288 0.63570201 0
-0.22112174 2.7781332 -0.049711052 0
-0.21620791 2.8003991 0.062525108 0
-0.21501927 2.8057852 0.17674667 0
-0.21759202 2.7941275 0.29038402 0
-0.23066948 2.7348695 0.39282417 0
-0.23069058 2.7347736 0.51038915 0
-0.23158522 2.7307198 0.63199055 0
-0.23896597 2.7888439 -0.049951602 0
-0.23604955 2.8028977 0.062464036 0
-0.23478515 2.8089907 0.17663881 0
-0.23315378 2.8168519 0.29380405 0
-0.24834503 2.7436473 0.39407006 0
-0.25223669 2.724894 0.50567436 0
-0.24921124 2.7394733 0.63400674 0
-0.25823179 2.7931478 -0.049966738 0
-0.2505835 2.8324873 0.063397504 0
-0.25144267 2.828068 0.17829619 0
-0.24928899 2.8391457 0.29717267 0
-0.26572937 2.7545836 0.39593175 0
-0.2695702 2.7348282 0.50777847 0
-0.27018359 2.731673 0.62912953 0
-0.27678758 2.8014441 -0.050135497 0
-0.26791257 2.850374 0.063910864 0
-0.26667848 2.8571777 0.18106849 0
-0.26952592 2.8414791 0.29691228 0
-0.28698504 2.7452228 0.3925831 0
-0.28818476 2.7386086 0.50787091 0
-0.29062518 2.7251539 0.62491387 0
-0.2959438 2.8069103 -0.050209917 0
-0.30529368 2.7513897 0.39332828 0
-0.30898121 2.7294931 0.50369167 0
-0.30714327 2.7404068 0.6299566 0
-0.31631616 2.8049171 -0.050023403 0
-0.32308567 2.7613783 0.39511827 0
-0.32959911 2.7194865 0.49930871 0
-0.32938173 2.7208846 0.62050557 0
-0.33679515 2.8012662 -0.049786709 0
-0.34693903 2.7301369 0.38633737 0
-0.34743649 2.7266486 0.50079066 0
-0.34687766 2.730567 0.62340289 0
-0.35612085 2.8052289 -0.049833778 0
-0.36463785 2.7396054 0.38812172 0
-0.36672908 2.7234926 0.49888417 0
-0.36604816 2.7287393 0.62158191 0
-0.37511659 2.8123243 -0.050002143 0
-0.38373703 2.738647 0.38728225 0
-0.3860347 2.7190092 0.49661714 0
-0.38733715 2.7078772 0.61192971 0
-0.39411953 2.8205256 -0.050218575 0
-0.40490803 2.7170458 0.38121051 0
-0.40517303 2.714504 0.49442723 0
-0.40365028 2.7291098 0.6199249 0
-0.41466427 2.8135943 -0.049900819 0
-0.42290482 2.7235775 0.3824217 0
-0.42354625 2.7165706 0.49451593 0
-0.42428064 2.7085483 0.61061984 0
-0.43439659 2.8141539 -0.049860921 0
-0.44269449 2.7089326 0.37827009 0
-0.44352058 2.6984572 0.48794729 0
-0.44246662 2.7118223 0.61133122 0
-0.45403126 2.8158092 -0.049869154 0
-0.46068868 2.7152491 0.37954536 0
-0.46092868 2.7116239 0.49189737 0
-0.46209282 2.6940398 0.60339993 0
-0.47360688 2.8187349 -0.049931642 0
-0.48022011 2.6952763 0.37416077 0
-0.4803133 2.6935365 0.48550493 0
-0.48049104 2.6902184 0.60136527 0
-0.49264863 2.8358514 -0.050509967 0
-0.49789521 2.7077191 0.37711903 0
-0.49844348 2.6943297 0.48548377 0
-0.49845624 2.6940176 0.60258543 0
-0.51326305 2.8119848 -0.049632911 0
-0.51643193 2.7001679 0.37502983 0
-0.51685226 2.6853373 0.4822818 0
-0.51711136 2.6761942 0.59494269 0
-0.53260809 2.8296525 -0.050248321 0
-0.53484738 2.6874049 0.37167078 0
-0.53499496 2.6780295 0.47971803 0
-0.53498703 2.678534 0.59574825 0
-0.5524444 2.8301675 -0.050260011 0
-0.55292141 2.6786966 0.36940551 0
-0.55294889 2.6699672 0.47697937 0
-0.55294853 2.6700797 0.59217769 0
-0.57220709 2.8216903 -0.049959581 0
-0.57079476 2.6721201 0.36774191 0
-0.57072783 2.6650319 0.47535607 0
-0.57073909 2.6662216 0.59060347 0
-0.59187406 2.8183408 -0.049851064 0
-0.58860701 2.6700931 0.36729637 0
-0.58865583 2.6723061 0.47786972 0
-0.58835143 2.6584952 0.58751953 0
-0.61163831 2.8199217 -0.049927473 0
-0.60628289 2.6653159 0.36620578 0
-0.60635257 2.6673276 0.47638083 0
-0.60573685 2.6495533 0.58402258 0
-0.63131177 2.8183737 -0.049900983 0
-0.62366533 2.6565518 0.36415303 0
-0.62320036 2.6467106 0.46975663 0
-0.62345719 2.6521463 0.58539546 0
-0.65078849 2.8138001 -0.049775124 0
-0.64042491 2.640727 0.36035004 0
-0.64107192 2.6515322 0.4716765 0
-0.6405133 2.6422026 0.581662 0
-0.64043838 2.6409521 0.70102966 0
-0.67121989 2.8235736 -0.050171476 0
-0.65769833 2.6371377 0.35972738 0
-0.65728664 2.6314616 0.46536994 0
-0.65676451 2.6242621 0.57469445 0
-0.65707463 2.6285386 0.695382 0
-0.69004536 2.8111668 -0.049782738 0
-0.67353892 2.6174226 0.46113864 0
-0.67509079 2.6356373 0.57998621 0
-0.67370099 2.6193244 0.69143999 0
-0.7097742 2.810771 -0.049832877 0
-0.69004309 2.609215 0.45891994 0
-0.69010383 2.6098354 0.56991428 0
-0.6905486 2.6143787 0.68974411 0
-0.7302351 2.8166423 -0.050117105 0
-0.70637423 2.6009462 0.56695211 0
-0.70556849 2.5936625 0.68021387 0
-0.74839842 2.8022301 -0.04968141 0
-0.72383237 2.6031322 0.56869107 0
-0.72223377 2.5901761 0.67945039 0
-0.7681917 2.8020401 -0.049765628 0
-0.73884988 2.5865934 0.67874271 0
-0.78835702 2.8039227 -0.04993381 0
-0.75512809 2.5809669 0.67710555 0
-0.80705816 2.7960017 -0.049756948 0
-0.82857901 2.8049099 -0.050198164 0
-0.84626156 2.7916875 -0.049846347 0
-0.86786008 2.7991953 -0.050256621 0
-0.88774866 2.7973189 -0.050335303 0
-0.90521306 2.7845123 -0.050023191 0
-0.92617583 2.7871754 -0.050286245 0
-0.94299483 2.7727537 -0.049930535 0
-0.96101624 2.7637882 -0.049783081 0
-0.9799341 2.7583866 -0.04977566 0
-0.99993843 2.756681 -0.049914628 0
-1.0196092 2.7535505 -0.050010286 0
-1.037297 2.7440333 -0.049876064 0
-1.0582869 2.7446294 -0.050130535 0
-1.0774027 2.7393203 -0.050172742 0
-1.094435 2.7281969 -0.050003331 0
-1.1135182 2.7228179 -0.050060589 0
-1.129228 2.7087395 -0.049793601 0
-1.1504606 2.7086957 -0.050073948 0
-1.1693996 2.7027075 -0.050135747 0
-1.184444 2.6876998 -0.049855676 0
-1.2048397 2.684989 -0.050063282 0
-1.2238611 2.6789873 -0.050152507 0
-1.2350898 2.6567073 -0.04960629 0
-1.2579994 2.6586988 -0.050030611 0
-1.2700908 2.6390104 -0.049598742 0
-1.2980794 2.649919 -0.050406773 0
-1.3126599 2.6351202 -0.050188564 0
-1.3296649 2.6249313 -0.050165217 0
-1.3448088 2.6115611 -0.050019193 0
-1.3581091 2.5952981 -0.049759679 0
-1.3791566 2.59199 -0.050047945 0
-1.3940194 2.5785062 -0.049919948 0
-1.4068521 2.562057 -0.0496726 0
-1.4311516 2.5630925 -0.050180614 0
-1.4491125 2.5542483 -0.050278511 0
-1.4635968 2.5403452 -0.050166156 0
-1.4745141 2.5216427 -0.049849283 0
-1.4977313 2.5198638 -0.05028823 0
-1.5135632 2.5078864 -0.050286561 0
-1.5244792 2.4896266 -0.05000902 0
-1.5433363 2.481559 -0.050201681 0
-1.5604168 2.4711177 -0.050297458 0
-1.5700301 2.4517369 -0.049986284 0
-1.5851779 2.4390662 -0.049994521 0
-1.6017891 2.4280264 -0.050089866 0
-1.6145298 2.4126415 -0.049986333 0
-1.628502 2.3986745 -0.049958717 0
-1.6401737 2.3823342 -0.04982198 0
-1.6559 2.3702462 -0.04990387 0
-1.6779646 2.364351 -0.050310958 0
-1.6813766 2.3400347 -0.049790967 0
-1.6912646 2.3223176 -0.049609832 0
-1.7104523 2.3133109 -0.04989244 0
-1.7299721 2.3043299 -0.050193265 0
