# .PCD v0.7 - Point Cloud Data file format
VERSION 0.7
FIELDS x y z intensity
SIZE 4 4 4 4
TYPE F F F F
COUNT 1 1 1 1
WIDTH 1331
HEIGHT 1
VIEWPOINT 0 0 0 1 0 0 0
POINTS 1331
DATA ascii
0.34755036 -1.8149282 -0.089363359 0
0.3909632 -1.918349 -0.088810183 0
0.45656237 -2.0746236 -0.092483409 0
0.52649105 -2.2412121 -0.089839838 0
0.63984436 -2.5112495 -0.091941692 0
0.79407769 -2.8786743 -0.090292536 0
1.0663645 -3.5273333 -0.09146104 0
1.5947564 -4.7861023 -0.090730272 0
4.0303965 -10.588441 -0.14107992 0
0.3713879 -1.8128494 -0.090978213 0
0.42115059 -1.9234891 -0.091964982 0
0.48321798 -2.0614862 -0.092249684 0
0.55400229 -2.2188642 -0.088500716 0
0.66723847 -2.4706271 -0.088863678 0
0.84447378 -2.8646822 -0.090970092 0
1.1256806 -3.4899015 -0.090714194 0
1.6942264 -4.7539749 -0.091204695 0
4.2660055 -10.471926 -0.14077927 0
0.39385867 -1.8070076 -0.091866381 0
0.44433805 -1.912071 -0.091856487 0
0.50633937 -2.041115 -0.090816088 0
0.59068942 -2.2166739 -0.090395801 0
0.71012563 -2.4652579 -0.090408348 0
0.89210087 -2.8440053 -0.091094606 0
1.18854 -3.4609876 -0.090734325 0
1.7795826 -4.6911321 -0.090227388 0
4.5038056 -10.361092 -0.140774 0
0.4153848 -1.7988259 -0.092341937 0
0.46538273 -1.8964947 -0.090989791 0
0.53392917 -2.0303972 -0.091253273 0
0.6176638 -2.1939695 -0.089222021 0
0.74977237 -2.4520378 -0.091083534 0
0.94055748 -2.8247285 -0.091492839 0
1.24898 -3.4272189 -0.090497278 0
1.879009 -4.6579537 -0.090900831 0
4.7390952 -10.245011 -0.14078744 0
0.42922819 -1.7762595 -0.089473628 0
0.4878943 -1.8840654 -0.090899087 0
0.56196189 -2.0201733 -0.091918357 0
0.64615434 -2.1748869 -0.088719748 0
0.78330052 -2.4269092 -0.090315782 0
0.98125368 -2.7906716 -0.090455033 0
1.313477 -3.4011712 -0.090992071 0
1.9674982 -4.6030121 -0.090562187 0
4.977859 -10.134905 -0.14111534 0
0.44927344 -1.7657678 -0.089612059 0
0.50642145 -1.8647507 -0.089432262 0
0.58422631 -1.9995126 -0.090745844 0
0.68234819 -2.1694643 -0.090542637 0
0.81654775 -2.4019041 -0.089666851 0
1.0291594 -2.7701576 -0.090971626 0
1.3715074 -3.3631203 -0.090655677 0
2.5956948 -5.4834709 -0.14062187 0
5.2027526 -9.9990177 -0.14091657 0
0.47176492 -1.7591858 -0.09085191 0
0.52673566 -1.8490804 -0.088849701 0
0.60967392 -1.9847111 -0.090791337 0
0.70875484 -2.1467402 -0.089693181 0
0.85362726 -2.3836529 -0.090047158 0
1.0702852 -2.7379577 -0.090348996 0
1.4326974 -3.3306179 -0.090887822 0
2.7076602 -5.4155898 -0.14056823 0
5.4277492 -9.8638058 -0.14088663 0
0.48803917 -1.7424217 -0.089677237 0
0.55271745 -1.8424313 -0.09039519 0
0.63520008 -1.9699709 -0.090974323 0
0.74056751 -2.1328964 -0.090426691 0
0.88818753 -2.3611555 -0.089971967 0
1.1208225 -2.7208698 -0.091510437 0
1.4942503 -3.2982864 -0.091265626 0
2.8231804 -5.353159 -0.14097132 0
5.6463714 -9.7185488 -0.14073411 0
0.5070678 -1.7301586 -0.089745633 0
0.57424808 -1.8285033 -0.09045554 0
0.65609032 -1.9483114 -0.08991044 0
0.76099503 -2.1018806 -0.088385873 0
0.92233169 -2.3380599 -0.089933254 0
1.1599402 -2.6858933 -0.090812929 0
1.5599689 -3.271492 -0.092249192 0
2.934417 -5.283535 -0.1411389 0
5.864408 -9.5727243 -0.14071703 0
0.53111303 -1.724803 -0.091749974 0
0.60151547 -1.8224789 -0.09247712 0
0.68192714 -1.9340413 -0.090429969 0
0.79300374 -2.0881481 -0.089390285 0
0.95722127 -2.3159823 -0.090163551 0
1.2004331 -2.6534126 -0.090502433 0
1.6025289 -3.2112775 -0.090512462 0
3.0349963 -5.1986718 -0.14059472 0
6.0847669 -9.4299011 -0.14094198 0
0.54193813 -1.7012385 -0.089092515 0
0.61461544 -1.7968868 -0.09007027 0
0.70641404 -1.9177002 -0.090665422 0
0.82093447 -2.0684171 -0.08949659 0
0.98680824 -2.2867184 -0.089471526 0
1.2469474 -2.6290796 -0.091259755 0
1.6618757 -3.1751542 -0.090950854 0
3.1422515 -5.1234312 -0.14074972 0
6.2906723 -9.2669716 -0.14074512 0
0.56423903 -1.6929972 -0.090626605 0
0.63784969 -1.7849615 -0.090990551 0
0.7253474 -1.8942752 -0.089543261 0
0.85712981 -2.0589151 -0.091572113 0
1.0240892 -2.2675028 -0.090380363 0
1.2836272 -2.5917518 -0.090617903 0
1.7154371 -3.1312261 -0.090832107 0
3.2472734 -5.0449986 -0.1408774 0
6.5015178 -9.110631 -0.14089371 0
0.586766 -1.6844369 -0.092259787 0
0.65754217 -1.7684252 -0.090937845 0
0.75357473 -1.8823847 -0.090977721 0
0.87695086 -2.0287921 -0.090068631 0
1.0481893 -2.2319963 -0.088961206 0
1.3253323 -2.5608752 -0.090861522 0
1.7708663 -3.0895793 -0.091041707 0
3.3480554 -4.9611902 -0.14084026 0
6.6998863 -8.9387255 -0.14073239 0
0.60408944 -1.6694025 -0.092250429 0
0.6777764 -1.7524965 -0.091160692 0
0.77201939 -1.8587707 -0.090024211 0
0.9036535 -2.0072095 -0.090228312 0
1.0857941 -2.2126026 -0.090120919 0
1.3601195 -2.5219488 -0.090236373 0
1.8269777 -3.0484073 -0.091429733 0
3.4509342 -4.8796816 -0.14110194 0
6.9044223 -8.7740488 -0.14094603 0
0.61017525 -1.6423042 -0.088859536 0
0.69534171 -1.7335954 -0.090753265 0
0.7961551 -1.8416588 -0.090612896 0
0.93477261 -1.9902451 -0.091407441 0
1.1131269 -2.1814256 -0.089574851 0
1.4005861 -2.4895575 -0.090541355 0
1.8641093 -2.9864151 -0.089970298 0
3.5364559 -4.7790289 -0.14031449 0
7.0959392 -8.5944939 -0.14085393 0
0.62369514 -1.6239104 -0.088021182 0
0.718499 -1.7205256 -0.091990001 0
0.82183146 -1.8258322 -0.091650896 0
0.961115 -1.9677769 -0.091685273 0
1.146335 -2.1565354 -0.090156145 0
1.4410609 -2.4568923 -0.090950124 0
1.912495 -2.9373331 -0.089829512 0
3.6421077 -4.6999907 -0.14105621 0
7.2846556 -8.4121304 -0.14082366 0
0.64655101 -1.61482 -0.090105481 0
0.7268005 -1.6925772 -0.089388378 0
0.84682417 -1.8088734 -0.092599995 0
0.97935116 -1.9372847 -0.09048254 0
1.176177 -2.1279979 -0.090279169 0
1.4775019 -2.4199646 -0.090933286 0
1.9634062 -2.8907785 -0.090060093 0
3.7271867 -4.5997829 -0.14057739 0
7.4722953 -8.2285833 -0.14091021 0
0.65919495 -1.5956303 -0.089257769 0
0.7516849 -1.6808299 -0.091275968 0
0.8619684 -1.7824206 -0.091423444 0
1.00552 -1.914657 -0.090971954 0
1.2028266 -2.0964115 -0.090007938 0
1.5143732 -2.3834009 -0.091091163 0
2.543381 -3.3312998 -0.14068609 0
3.8190608 -4.5064268 -0.14070171 0
7.6497254 -8.0351486 -0.14082025 0
0.68339795 -1.5868098 -0.091832735 0
0.75765878 -1.6518312 -0.088463239 0
0.89130986 -1.7688537 -0.093521453 0
1.0323132 -1.8923135 -0.091675274 0
1.2248855 -2.0609262 -0.089154758 0
1.5324944 -2.3302627 -0.08903522 0
2.598279 -3.2634439 -0.14037167 0
3.9008625 -4.4039617 -0.14034754 0
7.8231897 -7.8382783 -0.14076231 0
0.69387996 -1.5657601 -0.090622552 0
0.78021628 -1.6375883 -0.089953385 0
0.89646608 -1.7343031 -0.090479292 0
1.047502 -1.8599585 -0.090346791 0
1.2627003 -2.0389943 -0.090852372 0
1.5657103 -2.2910855 -0.089019381 0
2.6629012 -3.2039013 -0.14110555 0
3.9967716 -4.3136239 -0.1410134 0
7.9963264 -7.6410818 -0.14084761 0
0.71200144 -1.5510943 -0.091651253 0
0.79662102 -1.6179545 -0.09002436 0
0.9143582 -1.7109818 -0.090349399 0
1.0748342 -1.8377782 -0.091367267 0
1.2734179 -1.9946846 -0.088563599 0
1.5959373 -2.2495158 -0.088767134 0
2.7189877 -3.1368687 -0.14119975 0
4.0746956 -4.2080503 -0.14073573 0
8.1535616 -7.4308724 -0.14060904 0
0.71369243 -1.5237832 -0.088394515 0
0.82340759 -1.6060622 -0.092656039 0
0.93086141 -1.6866454 -0.090058722 0
1.0889132 -1.8051736 -0.090139873 0
1.3098201 -1.9708389 -0.090234853 0
1.6249019 -2.207129 -0.088495947 0
2.7714212 -3.0669417 -0.14112227 0
4.1594911 -4.1079011 -0.1410197 0
8.3237391 -7.2308073 -0.1409068 0
0.74376911 -1.5175918 -0.092781313 0
0.83119518 -1.5797721 -0.090919711 0
0.94881445 -1.6634266 -0.090190656 0
1.1194942 -1.7848196 -0.091923378 0
1.3181311 -1.9260964 -0.08793474 0
1.6733706 -2.1787541 -0.090587296 0
2.8230236 -2.9964244 -0.14112769 0
4.2300968 -3.99718 -0.14063375 0
8.4782419 -7.0185962 -0.14089745 0
0.7509315 -1.4946856 -0.091261141 0
0.83871466 -1.5538423 -0.089303784 0
0.96524423 -1.6391101 -0.090135656 0
1.1325766 -1.7518747 -0.090799205 0
1.352073 -1.8997924 -0.089446239 0
1.7055708 -2.1380131 -0.090893604 0
2.8690672 -2.9220889 -0.14081578 0
4.3223681 -3.9014626 -0.14162885 0
8.6263094 -6.8018713 -0.14085937 0
0.7568441 -1.4713929 -0.089597113 0
0.86256993 -1.5388258 -0.091510497 0
0.97606558 -1.6112143 -0.089108892 0
1.1543061 -1.7248976 -0.091274105 0
1.3760617 -1.8663353 -0.08964669 0
1.7333663 -2.0942273 -0.090822168 0
2.9143174 -2.8474486 -0.14059994 0
4.3871422 -3.7868292 -0.14122425 0
8.7696171 -6.5820103 -0.14084272 0
0.77940273 -1.4585798 -0.092236839 0
0.86845863 -1.5122685 -0.089816533 0
1.002057 -1.5928102 -0.091145031 0
1.1747783 -1.6969379 -0.091648139 0
1.4012576 -1.8334744 -0.090125017 0
1.7530174 -2.0455382 -0.089985572 0
2.9570332 -2.7713974 -0.14033547 0
4.4520617 -3.6726978 -0.14099219 0
8.9062986 -6.3580017 -0.14079829 0
0.78488272 -1.4353119 -0.090741895 0
0.88750178 -1.493699 -0.091143645 0
1.0230761 -1.5708364 -0.092300482 0
1.1935447 -1.6678278 -0.091855995 0
1.4148834 -1.7937626 -0.089153089 0
1.7832663 -2.003361 -0.090431936 0
3.003247 -2.6974921 -0.14051166 0
4.5195308 -3.5602105 -0.14105548 0
9.0401087 -6.1322784 -0.14083005 0
0.78966922 -1.4120584 -0.089242406 0
0.89038336 -1.4660444 -0.089100026 0
1.0254135 -1.5384248 -0.090060912 0
1.1969818 -1.630391 -0.089734741 0
1.4458704 -1.7638034 -0.090630256 0
1.8088137 -1.9583527 -0.09048795 0
3.0456731 -2.6213493 -0.14053406 0
4.5809808 -3.444324 -0.14095098 0
9.1701345 -5.9042583 -0.14091291 0
0.80232102 -1.3931512 -0.089774661 0
0.91007656 -1.4474572 -0.090776272 0
1.0544732 -1.5202295 -0.092919208 0
1.2206992 -1.6040033 -0.090981565 0
1.4607739 -1.724995 -0.090083443 0
1.8306311 -1.9113938 -0.090272896 0
3.0827417 -2.5424263 -0.1402882 0
4.6330767 -3.3237567 -0.14051366 0
9.279603 -5.6654897 -0.14061032 0
0.81381917 -1.3735429 -0.090142272 0
0.91074854 -1.4193636 -0.088568218 0
1.0586119 -1.4892621 -0.091297291 0
1.2195193 -1.5653267 -0.088447563 0
1.4909258 -1.6936269 -0.091641717 0
1.85639 -1.8663902 -0.090590455 0
3.1260939 -2.4666085 -0.14068614 0
4.701438 -3.2113101 -0.14107673 0
9.402133 -5.4334369 -0.14080317 0
0.82477015 -1.3535815 -0.090494327 0
0.92762077 -1.399063 -0.089867897 0
1.070154 -1.4620923 -0.091165043 0
1.241796 -1.5379937 -0.089696951 0
1.505826 -1.65475 -0.091335468 0
1.8851227 -1.8224779 -0.091324605 0
3.161387 -2.3868525 -0.14061075 0
4.7425289 -3.0860462 -0.14039075 0
9.5143862 -5.1961994 -0.14088237 0
0.84274817 -1.3364118 -0.092574902 0
0.9442783 -1.3782794 -0.09121532 0
1.0893388 -1.4380976 -0.092515446 0
1.2675786 -1.5115978 -0.091571815 0
1.5166082 -1.6142893 -0.090636514 0
1.8992332 -1.7720711 -0.090687342 0
3.2038817 -2.3100648 -0.1412338 0
4.8051553 -2.9703765 -0.1409564 0
9.6234541 -4.9572821 -0.14103207 0
0.84381407 -1.3122181 -0.090884916 0
0.95225692 -1.3537668 -0.090905584 0
1.0959183 -1.4088092 -0.091741405 0
1.264436 -1.4733751 -0.08917626 0
1.5340183 -1.5766629 -0.090902261 0
1.923426 -1.7258606 -0.091191806 0
3.2228146 -2.2237084 -0.14023271 0
4.8416252 -2.8439395 -0.14035887 0
9.7092648 -4.7089272 -0.14075215 0
0.85174376 -1.2908674 -0.090896256 0
0.96955127 -1.3326271 -0.092584424 0
1.0957261 -1.3773526 -0.089923002 0
1.2746969 -1.4407929 -0.088945039 0
1.5558753 -1.5404632 -0.091835357 0
1.9322916 -1.6738927 -0.090289958 0
3.259212 -2.1442506 -0.14069834 0
4.889534 -2.722156 -0.14049003 0
9.7921104 -4.4599881 -0.14055695 0
0.85818177 -1.2690119 -0.090694986 0
0.97484374 -1.3070804 -0.091977797 0
1.1056538 -1.3497657 -0.090006851 0
1.2943475 -1.4113393 -0.090225868 0
1.558093 -1.4974033 -0.090459205 0
1.950899 -1.6255817 -0.090481333 0
3.2880299 -2.0619075 -0.14075087 0
4.9397888 -2.6009009 -0.14088616 0
9.8908815 -4.2165155 -0.14090714 0
0.87817752 -1.2512397 -0.093625672 0
0.98158926 -1.2821201 -0.091788583 0
1.1025913 -1.3182533 -0.087981872 0
1.2978446 -1.3765591 -0.089237355 0
1.5607264 -1.45506 -0.089277156 0
1.96088 -1.5745525 -0.089950196 0
3.3093684 -1.9772334 -0.14040956 0
4.9792709 -2.4758937 -0.1409052 0
9.9619417 -3.9638014 -0.14073202 0
0.8614291 -1.2227618 -0.088542722 0
0.97241867 -1.2528768 -0.088617854 0
1.1179833 -1.2923732 -0.08924932 0
1.307955 -1.3439187 -0.089346893 0
1.5731819 -1.4158833 -0.089422517 0
1.9660894 -1.5224919 -0.089086197 0
3.3373008 -1.8945462 -0.14070356 0
5.0113506 -2.3487701 -0.14071979 0
10.044602 -3.7144551 -0.14099178 0
0.88032502 -1.2042229 -0.091448463 0
0.98586357 -1.2300186 -0.089995228 0
1.1289675 -1.2649961 -0.089874096 0
1.3133646 -1.3100663 -0.088895224 0
1.5829135 -1.3759494 -0.089358605 0
1.9844186 -1.4740851 -0.089614846 0
3.3549654 -1.8090738 -0.14040752 0
5.0372615 -2.2202599 -0.14039414 0
10.104756 -3.4588554 -0.14086236 0
0.88372236 -1.1815873 -0.091068707 0
1.0041157 -1.2078135 -0.092403255 0
1.1271918 -1.234624 -0.088465713 0
1.3232718 -1.2773374 -0.08921618 0
1.6005752 -1.3377444 -0.090364508 0
1.9886752 -1.4222869 -0.088913314 0
3.3756995 -1.7244318 -0.14048749 0
5.0813422 -2.0959835 -0.14109099 0
10.169438 -3.2043581 -0.14099532 0
0.89214468 -1.1599914 -0.091902278 0
1.0008072 -1.1808051 -0.090772651 0
1.1439148 -1.2082165 -0.090288319 0
1.3333908 -1.2445097 -0.089684434 0
1.6204108 -1.2994869 -0.091739304 0
2.5435636 -1.4763119 -0.14067023 0
3.3883905 -1.638134 -0.14014706 0
5.0955925 -1.9651395 -0.14051954 0
10.218398 -2.9463859 -0.14090796 0
0.89013213 -1.1364529 -0.090601869 0
1.0037376 -1.1552552 -0.090470366 0
1.1487437 -1.1792547 -0.090233199 0
1.3385074 -1.2106615 -0.089556433 0
1.624065 -1.2579229 -0.091306113 0
2.5661812 -1.4138484 -0.14172408 0
3.4090514 -1.5533482 -0.14052746 0
5.1257763 -1.8374757 -0.14085858 0
10.258289 -2.6869352 -0.14076102 0
0.89509028 -1.1141852 -0.090929858 0
1.0184678 -1.1314189 -0.092536114 0
1.1513366 -1.1499785 -0.089928739 0
1.3517476 -1.1779726 -0.090703063 0
1.6338564 -1.2173784 -0.091722719 0
2.5750697 -1.3488499 -0.14162919 0
3.425842 -1.4676884 -0.14078467 0
5.1499834 -1.7085218 -0.14106718 0
10.300213 -2.4279215 -0.1408163 0
0.90572804 -1.0924723 -0.092592426 0
1.0183597 -1.105317 -0.091897212 0
1.1548373 -1.1208812 -0.089897744 0
1.3504411 -1.1431882 -0.089905716 0
1.6364101 -1.1758008 -0.091407306 0
2.5750525 -1.2828454 -0.14085229 0
3.437463 -1.3811965 -0.14082977 0
5.1593361 -1.5775623 -0.14073192 0
10.333398 -2.1676226 -0.14082018 0
0.89302528 -1.0682818 -0.089387678 0
1.0151286 -1.0790938 -0.09079396 0
1.1392753 -1.0900868 -0.086842902 0
1.1329455 -1.0895263 -0.058733243 0
1.6444213 -1.1348165 -0.091856234 0
2.5796781 -1.2176318 -0.14066848 0
3.4362969 -1.2934837 -0.14013073 0
5.1797295 -1.4478614 -0.14106809 0
10.362494 -1.9067855 -0.14088213 0
0.89626926 -1.0458463 -0.089714609 0
1.0210056 -1.0537256 -0.091536425 0
1.1290021 -1.0605476 -0.08479201 0
1.1418473 -1.0613589 -0.05968136 0
1.6533649 -1.0936705 -0.092534862 0
2.5937357 -1.1530718 -0.1415212 0
3.4526215 -1.2073258 -0.14081323 0
5.1753774 -1.3161488 -0.14040229 0
10.377335 -1.6447458 -0.14076544 0
0.90311664 -1.0234551 -0.090928234 0
1.0197743 -1.0278728 -0.091059126 0
1.1327966 -1.0321529 -0.085179456 0
1.1184191 -1.0316083 -0.056181896 0
1.6398997 -1.0513561 -0.090713538 0
2.5877218 -1.0872488 -0.14065059 0
3.4641509 -1.1204379 -0.14131184 0
5.1911507 -1.1858369 -0.14082965 0
10.394941 -1.382897 -0.14086719 0
0.91283607 -1.0007977 -0.09287221 0
1.0207839 -1.0021598 -0.091127045 0
1.1288992 -1.0035239 -0.084420361 0
1.1219004 -1.0034356 -0.056571115 0
1.1199532 -1.0034111 -0.029818764 0
1.1225321 -1.0034436 -0.0037245357 0
1.1247683 -1.0034719 0.022400344 0
1.1346321 -1.0035963 0.048189148 0
1.1361237 -1.0036151 0.074575566 0
1.1229964 -1.0034494 0.10100243 0
1.1367244 -1.0036227 0.12744409 0
1.1346872 -1.003597 0.15381908 0
1.1279011 -1.0035113 0.17982414 0
1.1434718 -1.0037078 0.2076858 0
1.1427329 -1.0036985 0.2344882 0
1.1380363 -1.0036392 0.26084593 0
1.1346594 -1.0035967 0.28737438 0
1.1253321 -1.0034789 0.31282762 0
0.89953685 -0.97795475 -0.090045072 0
1.0108217 -0.97655058 -0.089250498 0
1.1276082 -0.97507703 -0.084208138 0
1.1405826 -0.97491336 -0.059196804 0
1.6556019 -0.96841508 -0.092426784 0
2.5897512 -0.95662844 -0.14068617 0
3.4589481 -0.94566137 -0.14079382 0
5.2017736 -0.92367131 -0.14117029 0
10.407722 -0.85798526 -0.14101037 0
0.90037537 -0.95523334 -0.090345137 0
1.0271468 -0.95043266 -0.092448749 0
1.1274717 -0.94663352 -0.08430367 0
1.1333321 -0.94641161 -0.05827919 0
1.6365347 -0.927356 -0.090319954 0
2.5894942 -0.89126879 -0.14081614 0
3.4477687 -0.85876715 -0.14016575 0
5.1787472 -0.79321748 -0.1402518 0
10.403976 -0.59534556 -0.14107741 0
0.90167147 -0.93239713 -0.090865202 0
1.0209197 -0.92486447 -0.091520213 0
1.133715 -0.91773945 -0.085568123 0
1.1242883 -0.9183349 -0.05720881 0
1.6288115 -0.88646519 -0.089659505 0
2.5812554 -0.82630128 -0.14035396 0
3.4533348 -0.77121377 -0.1408632 0
5.1851535 -0.66181833 -0.14085831 0
10.372488 -0.3341451 -0.14065254 0
0.90918815 -0.90887171 -0.092836715 0
1.0168508 -0.89933836 -0.09111961 0
1.1519605 -0.8873747 -0.088935904 0
1.3591263 -0.86903054 -0.09064386 0
1.6349586 -0.8446061 -0.090745963 0
2.5880187 -0.76021439 -0.14145003 0
3.439738 -0.68479621 -0.14037223 0
5.1658478 -0.53195238 -0.14041932 0
10.351088 -0.07280913 -0.14061593 0
0.90796793 -0.88585699 -0.093071632 0
1.012682 -0.87391514 -0.090820886 0
1.151227 -0.8581152 -0.089300536 0
1.3511047 -0.83532077 -0.089999594 0
1.6251649 -0.80406636 -0.09008453 0
2.5726473 -0.69601357 -0.14062634 0
3.429692 -0.59827441 -0.14028299 0
5.1601534 -0.40092912 -0.14077023 0
10.322514 0.18779674 -0.14056548 0
0.8933115 -0.86464792 -0.090548091 0
1.0108385 -0.84823138 -0.091085188 0
1.1553148 -0.82805049 -0.090588905 0
1.3556832 -0.80006242 -0.091261514 0
1.6175486 -0.7634843 -0.089798264 0
2.5667939 -0.63089073 -0.14084923 0
3.4244843 -0.51108587 -0.14068884 0
5.1485634 -0.2702612 -0.14100043 0
10.296619 0.44883505 -0.14073195 0
0.88423383 -0.84310794 -0.089331053 0
1.0095226 -0.82237196 -0.09157481 0
1.1451507 -0.79992479 -0.089634649 0
1.3447309 -0.76689315 -0.090442918 0
1.6123637 -0.72259843 -0.089919932 0
2.5573668 -0.56619507 -0.14089017 0
3.4163828 -0.42402318 -0.14104697 0
5.1262202 -0.14103553 -0.14087953 0
10.254315 0.70769268 -0.14066735 0
0.88528639 -0.81990701 -0.090417974 0
1.0008532 -0.79777086 -0.090781473 0
1.1410128 -0.77092403 -0.08980269 0
1.3507529 -0.73074937 -0.092168771 0
1.3470696 -0.73145491 -0.059212256 0
1.3486466 -0.73115283 -0.02710863 0
1.3492112 -0.73104471 0.0050024334 0
1.3437434 -0.73209202 0.03732181 0
1.3353515 -0.73369944 0.06938152 0
1.3425816 -0.73231453 0.10100939 0
0.87740993 -0.79837239 -0.089695461 0
0.98152512 -0.77569222 -0.088048525 0
1.135053 -0.74224824 -0.089788042 0
1.1997509 -0.72815466 -0.071450137 0
1.2080392 -0.72634917 -0.043411646 0
1.2072344 -0.72652447 -0.014262801 0
1.2085748 -0.72623247 0.014567899 0
1.1964217 -0.72887987 0.0440116 0
1.2086626 -0.72621334 0.072232604 0
1.2079904 -0.72635978 0.10100567 0
0.87745506 -0.77506322 -0.090820469 0
0.99755234 -0.74570906 -0.09226162 0
1.131559 -0.71295524 -0.090312548 0
1.2009667 -0.69599062 -0.072634451 0
1.2160397 -0.69230646 -0.04521865 0
1.2075567 -0.69437987 -0.014967715 0
1.2082 -0.69422269 0.014089549 0
1.2173098 -0.69199604 0.042677402 0
1.2055911 -0.69486034 0.072138049 0
1.2089432 -0.69404095 0.1010059 0
0.86759347 -0.75415039 -0.089900412 0
0.98655021 -0.72187358 -0.091375776 0
1.1170202 -0.68647283 -0.089085318 0
1.1963063 -0.66495991 -0.073089041 0
1.201612 -0.66352034 -0.044425745 0
1.2018673 -0.66345102 -0.015174275 0
1.2105085 -0.66110641 0.013355197 0
1.2068264 -0.6621055 0.042802587 0
1.2097281 -0.66131812 0.071850173 0
1.2098677 -0.66128027 0.10100616 0
0.86708945 -0.73065609 -0.091165923 0
0.97545075 -0.69829756 -0.090581946 0
1.1230462 -0.6542232 -0.091490351 0
1.2100397 -0.62824547 -0.076359294 0
1.2061113 -0.62941855 -0.046023715 0
1.207054 -0.62913704 -0.016517622 0
1.1955713 -0.63256598 0.013812782 0
1.2054161 -0.62962615 0.042451371 0
1.2126988 -0.62745142 0.07156796 0
1.2154381 -0.62663341 0.10100658 0
0.85726792 -0.70987099 -0.090490647 0
0.96147871 -0.67586547 -0.089329846 0
1.1051527 -0.62898254 -0.08992023 0
1.2068653 -0.59579217 -0.077293582 0
1.2027482 -0.59713566 -0.046773691 0
1.2067 -0.59584612 -0.017412772 0
1.2050186 -0.59639478 0.012428196 0
1.2041136 -0.59669012 0.042051982 0
1.2044114 -0.59659296 0.071537927 0
1.2048165 -0.59646076 0.10100655 0
0.85758919 -0.68564522 -0.092214517 0
0.96457773 -0.64772069 -0.091590546 0
1.0938658 -0.60189152 -0.089598618 0
1.2053543 -0.56237179 -0.078605883 0
1.2119707 -0.56002653 -0.049191628 0
1.2062948 -0.56203842 -0.018393746 0
1.2103492 -0.56060129 0.011269124 0
1.2048851 -0.56253815 0.041505679 0
1.2029935 -0.56320864 0.071319036 0
1.1998565 -0.56432062 0.10100671 0
0.84265649 -0.66681015 -0.090621404 0
0.94503438 -0.62758505 -0.089448787 0
1.0792096 -0.57617718 -0.088800661 0
1.205906 -0.52763474 -0.080367707 0
1.2111243 -0.52563542 -0.050489504 0
1.2081308 -0.52678227 -0.019693164 0
1.2049018 -0.52801949 0.010838347 0
1.2046002 -0.52813506 0.040963974 0
1.2038448 -0.5284245 0.07102064 0
1.1980587 -0.53064138 0.10100699 0
0.83371133 -0.6458993 -0.090497099 0
0.93963945 -0.60221809 -0.090270214 0
1.0756471 -0.5461331 -0.090081371 0
1.1965665 -0.49627 -0.080776937 0
1.189988 -0.4989827 -0.04934508 0
1.2071978 -0.49188599 -0.020815974 0
1.2057314 -0.49249065 0.0098665375 0
1.2139004 -0.489122 0.039890405 0
1.2022935 -0.49390832 0.070757575 0
1.2026443 -0.49376363 0.10100751 0
0.82697874 -0.62402648 -0.091007642 0
0.92459935 -0.58085787 -0.08924564 0
1.0747683 -0.51445192 -0.091994263 0
1.2034811 -0.4575341 -0.083809413 0
1.2097028 -0.45478281 -0.053493727 0
1.1926748 -0.46231279 -0.020653805 0
1.2110367 -0.45419297 0.0084735323 0
1.205845 -0.45648882 0.039638411 0
1.2127572 -0.45343217 0.070164092 0
1.2022517 -0.45807776 0.10100789 0
0.81585771 -0.60407811 -0.090621568 0
0.91450113 -0.55744708 -0.089350022 0
1.0520258 -0.49243602 -0.090100013 0
1.2265234 -0.40994701 -0.089536332 0
1.4854609 -0.28754124 -0.090935253 0
1.8481992 -0.11606643 -0.089744814 0
3.1272383 0.488565 -0.14077464 0
4.6957469 1.2300351 -0.14078368 0
9.4012632 3.4544413 -0.14078081 0
0.80963236 -0.58174878 -0.091514997 0
0.90853226 -0.53190571 -0.090450548 0
1.0413746 -0.46495655 -0.090508513 0
1.2078806 -0.38104168 -0.088964261 0
1.4631034 -0.25241575 -0.090388305 0
1.832881 -0.066056997 -0.090508066 0
3.090852 0.56792909 -0.14092313 0
4.6510406 1.3542252 -0.14145015 0
9.2892399 3.6917617 -0.14086121 0
0.79797792 -0.56207258 -0.091246255 0
0.90015566 -0.50730205 -0.091188394 0
1.0357895 -0.43459794 -0.091995753 0
1.2012976 -0.34588024 -0.090422921 0
1.4325899 -0.22190014 -0.088869192 0
1.8047205 -0.022426035 -0.09005446 0
3.058672 0.64973253 -0.14156511 0
4.579567 1.4649813 -0.14087629 0
9.1648312 3.9228308 -0.140773 0
0.778786 -0.54674166 -0.089250885 0
0.88490701 -0.48636213 -0.09058135 0
1.0129148 -0.41352972 -0.090379052 0
1.1935856 -0.31073359 -0.091862611 0
1.2157812 -0.29810503 -0.062380511 0
1.2184666 -0.29657713 -0.029777458 0
3.0064197 0.7207126 -0.14076684 0
4.5211315 1.5825365 -0.14114124 0
9.0360146 4.1513643 -0.14072052 0
0.77641547 -0.52180582 -0.091495387 0
0.87574375 -0.46192428 -0.091418736 0
0.99969476 -0.38719854 -0.090691723 0
1.1575586 -0.29202804 -0.088822417 0
1.1481985 -0.29767087 -0.055590261 0
1.2065673 -0.26248232 -0.03042773 0
2.9564359 0.79245263 -0.14028671 0
4.4530959 1.6947367 -0.14104845 0
8.9125347 4.3831773 -0.14096759 0
0.76530439 -0.50179577 -0.091730095 0
0.85679734 -0.44344077 -0.090220891 0
0.99282765 -0.35667941 -0.092376404 0
1.1369504 -0.26475671 -0.088381149 0
1.1394205 -0.26318124 -0.056843061 0
1.179467 -0.23763922 -0.029500147 0
2.9161613 0.87004 -0.14075284 0
4.3839474 1.8062067 -0.14104785 0
8.761241 4.5980835 -0.14061172 0
0.74972034 -0.48471531 -0.09095069 0
0.84415108 -0.42107883 -0.090538539 0
0.96654499 -0.33859804 -0.090393446 0
1.1264284 -0.23085329 -0.089757286 0
1.1431556 -0.21958092 -0.060002524 0
1.1682196 -0.20269039 -0.03041104 0
2.8721461 0.94557911 -0.14107534 0
4.3173089 1.9194686 -0.14134483 0
8.6201811 4.8191571 -0.14068754 0
0.7364499 -0.46619847 -0.090872146 0
0.82977122 -0.39982536 -0.090590589 0
0.95408183 -0.31141171 -0.09125299 0
1.1073085 -0.20243201 -0.089821883 0
1.1424807 -0.17741641 -0.06274318 0
1.1425512 -0.17736629 -0.029786786 0
2.8179667 1.0142429 -0.14069387 0
4.2384515 2.0245373 -0.14111105 0
8.4654608 5.0309215 -0.14053279 0
0.72699863 -0.44482276 -0.09192989 0
0.81410813 -0.37949648 -0.090466656 0
0.9441641 -0.2819632 -0.09279152 0
1.0882751 -0.17388967 -0.090027772 0
1.0979437 -0.16663888 -0.059282485 0
1.0928214 -0.17048022 -0.026417231 0
1.0993235 -0.16560408 0.0049922783 0
1.0940228 -0.16957936 0.03736433 0
1.1008281 -0.16447577 0.069006309 0
1.1039054 -0.162168 0.10100976 0
1.1022302 -0.16342422 0.13305387 0
1.0941349 -0.16949514 0.16466118 0
1.1016629 -0.16384968 0.19723189 0
0.70808464 -0.43058524 -0.090590157 0
0.80859053 -0.35117283 -0.092897631 0
0.91392159 -0.26794782 -0.09025795 0
1.0561258 -0.1555886 -0.088016413 0
1.1017456 -0.11954305 -0.062992536 0
1.1024046 -0.1190224 -0.030056259 0
1.1030496 -0.11851272 0.0027774519 0
1.0950911 -0.12480095 0.036053162 0
1.0989941 -0.12171707 0.068433605 0
1.1010594 -0.12008521 0.10101042 0
1.1009016 -0.1202099 0.13364379 0
1.090601 -0.1283488 0.16570069 0
1.101688 -0.11958858 0.19912252 0
0.69848633 -0.40899226 -0.091896243 0
0.7783038 -0.34258756 -0.089484803 0
0.89058304 -0.24917606 -0.089221545 0
1.0261574 -0.13638404 -0.086444728 0
1.0952331 -0.078916043 -0.06539198 0
1.0994005 -0.0754489 -0.03240018 0
1.1010005 -0.07411775 0.00093388767 0
1.0971836 -0.077293307 0.034584422 0
1.0906309 -0.082744807 0.068013921 0
1.0962111 -0.07810238 0.10101107 0
1.1004503 -0.074575573 0.13430555 0
1.101723 -0.073516756 0.16771321 0
1.0995437 -0.07532981 0.20095642 0
0.67657483 -0.3977491 -0.089905016 0
0.75979835 -0.32488015 -0.088998877 0
0.88463414 -0.21557626 -0.092063151 0
0.99966061 -0.11486122 -0.085576035 0
1.0970168 -0.029617991 -0.069291346 0
1.0942063 -0.032078769 -0.034659702 0
1.099455 -0.027483132 -0.0011006424 0
1.1002473 -0.026789512 0.032949399 0
1.1007403 -0.026357736 0.066983938 0
1.0988082 -0.028049495 0.10101205 0
1.1041098 -0.023407545 0.13514474 0
1.1002699 -0.026769605 0.16907641 0
1.1055022 -0.022188332 0.20368758 0
1.0896399 -0.036077049 0.23611732 0
1.0899144 -0.035836723 0.37366876 0
0.66112518 -0.38117632 -0.089815624 0
0.7395063 -0.3089734 -0.088157214 0
0.84814495 -0.20889792 -0.088334523 0
0.9643898 -0.10181585 -0.083113067 0
1.0636177 -0.010409381 -0.06788718 0
1.0937078 0.017308865 -0.037705604 0
1.0967168 0.020080719 -0.0031802335 0
1.1008431 0.023881827 0.031352382 0
1.1035843 0.026406918 0.066114932 0
1.1081049 0.030571256 0.10101337 0
1.0949185 0.018424187 0.1356369 0
1.0982329 0.021477256 0.17050856 0
1.0965135 0.019893561 0.20518717 0
1.1005874 0.023646269 0.24060558 0
1.0353709 -0.036429729 0.36594784 0
0.65104771 -0.35940769 -0.091436394 0
0.72818822 -0.28466281 -0.089752339 0
0.84043658 -0.17590049 -0.091138236 0
0.83213347 -0.18394575 -0.061674345 0
0.83892196 -0.17736807 -0.035395134 0
0.8390944 -0.177201 -0.0079597365 0
0.83883214 -0.1774551 0.019410158 0
0.84411705 -0.17233434 0.046314556 0
0.84093297 -0.17541954 0.073777117 0
0.84646595 -0.1700584 0.101004 0
0.83932948 -0.17697319 0.12817845 0
0.83825195 -0.17801729 0.15531275 0
0.84035534 -0.17597923 0.18274596 0
1.0878446 0.063823968 0.24231765 0
1.0079195 -0.013618972 0.29809532 0
1.0057764 -0.015695598 0.3309986 0
0.9914881 -0.029540088 0.360829 0
0.63550502 -0.3426387 -0.091605403 0
0.70457757 -0.27224645 -0.088246189 0
0.82372034 -0.1508275 -0.092094146 0
0.8414079 -0.13280198 -0.067665614 0
0.83733207 -0.13695571 -0.038592774 0
0.84298384 -0.13119593 -0.011244325 0
0.83733463 -0.13695309 0.017488444 0
0.84358966 -0.13057855 0.044961642 0
0.83498365 -0.13934895 0.073284052 0
0.84370667 -0.13045928 0.10100475 0
0.84039068 -0.13383862 0.12890472 0
0.8404519 -0.13377628 0.15683916 0
0.84070742 -0.13351586 0.1848578 0
0.84113789 -0.13307711 0.2130082 0
1.0948212 0.12545279 0.28359121 0
0.94641888 -0.025784757 0.29075584 0
0.95140558 -0.020702746 0.32407698 0
0.95644963 -0.015562322 0.35800233 0
0.6176917 -0.32822356 -0.091201685 0
0.69698054 -0.24323258 -0.091205768 0
0.79905128 -0.13382146 -0.091310672 0
0.82993877 -0.10071263 -0.069809936 0
0.83932608 -0.090650231 -0.042664532 0
0.84493351 -0.084639519 -0.01451028 0
0.84391755 -0.085728556 0.014582569 0
0.82957178 -0.10110608 0.044421367 0
0.84059399 -0.089291126 0.072352849 0
0.84219962 -0.087570041 0.10100561 0
0.83725005 -0.09287557 0.129544 0
0.84737968 -0.082017452 0.15880576 0
0.84639764 -0.083070129 0.18768351 0
0.83749038 -0.092617959 0.21550325 0
1.1089723 0.19838765 0.29089785 0
0.937141 0.014199052 0.29391605 0
0.93826884 0.015407953 0.32687378 0
0.93435895 0.011216912 0.35877061 0
0.60173166 -0.31184098 -0.091495045 0
0.67231697 -0.23224458 -0.089610867 0
0.77643782 -0.11483148 -0.091118686 0
0.85160559 -0.030067589 -0.079203911 0
0.83382392 -0.050119307 -0.045736302 0
0.84374905 -0.038927104 -0.01759254 0
0.83780962 -0.045624819 0.012795733 0
0.84787542 -0.034273949 0.041546129 0
0.83941954 -0.04380938 0.071588889 0
0.84754246 -0.034649458 0.10100682 0
0.8422792 -0.04058465 0.13052455 0
0.83665335 -0.04692867 0.15967932 0
0.84180236 -0.041122343 0.18963848 0
0.84461242 -0.037953522 0.21972804 0
1.0991031 0.24902585 0.29450187 0
1.1126724 0.26432756 0.33653948 0
0.58009458 -0.30206463 -0.090059154 0
0.65740585 -0.21032122 -0.090898015 0
0.73111057 -0.12285772 -0.085248329 0
0.8487612 0.016755376 -0.083920829 0
0.83799022 0.0039736959 -0.050837774 0
0.83970195 0.0060050222 -0.020518465 0
0.83867753 0.0047893259 0.010089615 0
0.84424567 0.011396918 0.040048059 0
0.8398273 0.0061537358 0.070703827 0
0.83198023 -0.0031581784 0.10100722 0
0.83743399 0.0033136939 0.13122478 0
0.84230644 0.0090956427 0.16182734 0
0.83939707 0.005643222 0.19200389 0
0.83577788 0.0013484095 0.22196548 0
0.84355652 0.010579083 0.25386378 0
1.0993109 0.31407645 0.34060246 0
0.56350851 -0.28650007 -0.090378113 0
0.64104509 -0.18963113 -0.091953672 0
0.7224493 -0.087930232 -0.088781051 0
0.84675682 0.06737116 -0.089239322 0
0.8566072 0.079677492 -0.059056614 0
0.84335524 0.063121468 -0.024855038 0
0.84279084 0.062416349 0.0067936424 0
0.83783448 0.056224141 0.038624696 0
0.84222907 0.061714564 0.069670036 0
0.84054732 0.0596135 0.10100875 0
0.83665073 0.05474535 0.13213961 0
0.84147984 0.060778413 0.16366464 0
0.83974659 0.058613095 0.1948836 0
0.8404147 0.05944768 0.22643398 0
0.8351993 0.052932058 0.25707081 0
1.1028447 0.38730994 0.34887487 0
1.1019428 0.38618305 0.39063373 0
0.54496503 -0.27336267 -0.090155967 0
0.61951816 -0.17524561 -0.091596596 0
0.70063561 -0.068489343 -0.089095689 0
0.72586119 -0.035290744 -0.067412205 0
0.72409743 -0.037611928 -0.038721446 0
0.73408473 -0.024467971 -0.012134722 0
0.72898191 -0.031183686 0.016847322 0
0.72856784 -0.031728592 0.044982336 0
0.72549546 -0.035772052 0.073126771 0
0.7278102 -0.032725658 0.1010047 0
0.73099619 -0.02853271 0.12909436 0
0.72862196 -0.031657305 0.15703145 0
0.72884381 -0.031365421 0.18514654 0
0.72192091 -0.040476408 0.2122675 0
0.73591721 -0.022056367 0.24301589 0
0.73377556 -0.024874892 0.27126193 0
0.73228204 -0.026840474 0.29970425 0
0.73581004 -0.022197332 0.32981357 0
0.53219599 -0.25227925 -0.092143647 0
0.59272623 -0.1683 -0.0896459 0
0.67635691 -0.052271452 -0.088864304 0
0.72664988 0.017504606 -0.073442422 0
0.95435572 0.33342198 -0.08959078 0
0.84739745 0.18502894 -0.034146402 0
0.83313292 0.16523841 0.0014769903 0
0.83909446 0.17350939 0.034240294 0
0.84354717 0.17968705 0.067466818 0
0.83458668 0.16725531 0.1010111 0
0.83647501 0.16987517 0.13427439 0
0.82964444 0.16039851 0.1670292 0
0.8351596 0.1680502 0.20078798 0
0.83909291 0.17350724 0.23484409 0
0.83541018 0.16839781 0.26783943 0
0.83788443 0.17183068 0.30220127 0
1.101283 0.53726774 0.41035247 0
0.50684959 -0.24874553 -0.089663409 0
0.57780564 -0.14487365 -0.09164346 0
0.65370965 -0.033758309 -0.089216776 0
0.77002913 0.13652077 -0.090636693 0
0.92108774 0.35765424 -0.089675508 0
1.1566795 0.70253497 -0.090273328 0
0.85432863 0.25992611 -0.0047931205 0
0.83940631 0.23808149 0.03177109 0
0.84134829 0.24092427 0.066330649 0
0.83311582 0.22887293 0.10101251 0
0.83752424 0.23532644 0.13553724 0
0.84448045 0.24550954 0.17067407 0
0.83645427 0.23376003 0.2046036 0
0.84226239 0.24226251 0.24027094 0
0.83856487 0.2368497 0.27460364 0
0.84586483 0.24753609 0.31155887 0
1.1007913 0.6207208 0.42153782 0
1.0943199 0.61124748 0.4661718 0
0.48784429 -0.23646429 -0.089600958 0
0.55529571 -0.13216683 -0.091289409 0
0.63593489 -0.007477608 -0.091196693 0
0.73937362 0.15246561 -0.09011773 0
0.89378852 0.39123133 -0.091177382 0
1.1080246 0.72249609 -0.089310713 0
1.4758415 1.2912369 -0.088895775 0
0.8513667 0.32563618 0.02806806 0
0.84004569 0.30813101 0.065046027 0
0.84089053 0.3094373 0.10101455 0
0.83904463 0.30658308 0.13694008 0
0.82947803 0.29179063 0.17208357 0
0.84478682 0.31546202 0.20968728 0
0.84332323 0.31319883 0.24584368 0
0.83900481 0.30652145 0.28141716 0
0.84001845 0.30808881 0.31819406 0
0.84007853 0.30818167 0.35501096 0
1.0965483 0.70475084 0.48107648 0
0.46693924 -0.22729048 -0.088885702 0
0.52981704 -0.12446514 -0.089962207 0
0.60888833 0.0048417184 -0.090543859 0
0.70836163 0.16751245 -0.089587264 0
0.85455918 0.40659216 -0.090255938 0
1.0648431 0.75047356 -0.08937531 0
1.4258308 1.3408039 -0.089967661 0
0.85420322 0.40601006 0.024830142 0
0.84880191 0.39717713 0.063184954 0
0.84326869 0.38812867 0.10101649 0
0.8431952 0.38800839 0.13859819 0
0.83352828 0.37219992 0.17535698 0
0.83910429 0.38131848 0.21337628 0
0.84265804 0.38712993 0.25165603 0
0.84085917 0.38418821 0.28922072 0
0.84044832 0.38351646 0.32720357 0
0.84291631 0.38755229 0.3663063 0
1.1029613 0.81280893 0.49895498 0
0.44997096 -0.2116088 -0.089908592 0
0.5127098 -0.1029422 -0.091801085 0
0.57971406 0.01311234 -0.089262657 0
0.68236858 0.19091478 -0.090548359 0
0.81832224 0.42639294 -0.090081625 0
1.0275903 0.78885502 -0.090678684 0
1.361522 1.3672404 -0.089259528 0
1.371181 1.3839705 -0.026608398 0
0.85197276 0.48467734 0.061398268 0
0.83615071 0.4572728 0.10101809 0
0.84245849 0.46819809 0.14019625 0
0.8356362 0.45638159 0.1787806 0
0.84022421 0.46432832 0.21840949 0
0.8379032 0.4603081 0.25730503 0
0.83917367 0.46250859 0.29699337 0
0.83685338 0.45848992 0.33600736 0
0.84119874 0.4660162 0.37725258 0
0.8377583 0.46005717 0.41628703 0
0.43370825 -0.19409254 -0.091465898 0
0.48628977 -0.09746775 -0.090266831 0
0.55814916 0.03458241 -0.090607412 0
0.64720881 0.19823995 -0.089029782 0
0.78417933 0.44993952 -0.090530656 0
0.98806882 0.82461053 -0.09178587 0
1.2910869 1.3814418 -0.087717362 0
1.289777 1.3790348 -0.024554497 0
1.2938675 1.3865514 0.038081456 0
0.85031593 0.5714733 0.10102113 0
0.83840221 0.5495804 0.14180468 0
0.83796352 0.5487743 0.18259044 0
0.83991694 0.55236393 0.22377218 0
0.84233677 0.55681068 0.26537001 0
0.84190768 0.55602223 0.3066884 0
0.83779824 0.54847056 0.34710792 0
0.8405363 0.55350202 0.38974655 0
0.85050201 0.57181519 0.43582949 0
0.41338223 -0.18367073 -0.091407783 0
0.46446508 -0.0838826 -0.090610482 0
0.52930826 0.042785916 -0.089586638 0
0.61957884 0.21912554 -0.089812629 0
0.74962741 0.47317007 -0.091046356 0
0.94284385 0.8506102 -0.091961168 0
1.2469196 1.4446092 -0.090181164 0
1.2422943 1.4355738 -0.025850257 0
1.2476367 1.4460099 0.037360709 0
1.2437341 1.4383864 0.10104825 0
0.85438913 0.67781764 0.14462201 0
0.83715171 0.64414507 0.18650427 0
0.84023821 0.65017432 0.22983503 0
0.83948708 0.64870709 0.27283645 0
0.84160566 0.65284568 0.31668475 0
0.83922476 0.64819473 0.35960123 0
0.84453565 0.65856928 0.40533069 0
0.8406589 0.65099615 0.44815743 0
0.39056593 -0.17843029 -0.090250246 0
0.44137239 -0.072686166 -0.090566672 0
0.50852948 0.067088634 -0.09164723 0
0.58985722 0.23635712 -0.090125732 0
0.71078038 0.48803607 -0.09058506 0
0.8862133 0.85316676 -0.089825653 0
1.1857957 1.476691 -0.090291329 0
1.7840087 2.7217596 -0.090703197 0
4.5023069 8.3793879 -0.14069353 0
0.84857112 0.7748217 0.19219781 0
0.84199822 0.76114136 0.23684549 0
0.8418057 0.7607407 0.28230709 0
0.84131998 0.7597298 0.32786688 0
0.83923858 0.75539774 0.37310502 0
0.84125018 0.75958449 0.41996959 0
0.84176528 0.76065654 0.46676028 0
0.37006825 -0.16866925 -0.090294383 0
0.41820195 -0.061651494 -0.090611033 0
0.47320718 0.060644064 -0.088238664 0
0.55975902 0.25307861 -0.090473004 0
0.67429686 0.50773567 -0.090874784 0
0.84208316 0.88078243 -0.09042611 0
1.1244845 1.5086577 -0.090510376 0
1.6934918 2.773757 -0.091121323 0
4.2645469 8.490098 -0.14069659 0
1.0687941 1.3848388 0.22231121 0
0.84929043 0.89680666 0.24566828 0
0.83989275 0.87591237 0.29198626 0
0.8415851 0.87967509 0.34059846 0
0.84005493 0.87627298 0.38856414 0
0.83794194 0.87157506 0.43643698 0
0.84012783 0.87643498 0.48641148 0
0.35052308 -0.15657464 -0.090995945 0
0.40104604 -0.036215629 -0.093716808 0
0.45371515 0.089256078 -0.091274403 0
0.52808756 0.26643077 -0.090419494 0
0.63940912 0.53162819 -0.091810279 0
0.79402828 0.8999719 -0.090280615 0
1.0630028 1.5407403 -0.090853862 0
1.5933688 2.8042119 -0.090563364 0
4.0200024 8.5850945 -0.14045553 0
0.99291366 1.3737693 0.22042787 0
0.85041147 1.0342915 0.2545222 0
0.8411299 1.0121803 0.30370533 0
0.84189928 1.0140133 0.35502037 0
0.83992851 1.0093182 0.40571302 0
0.83841115 1.0057036 0.45669335 0
0.83858317 1.0061133 0.50870454 0
0.32622191 -0.15616491 -0.089137457 0
0.36899251 -0.046607342 -0.089636005 0
0.42098346 0.086568385 -0.088845395 0
0.4952513 0.27680662 -0.090038739 0
0.5947175 0.531591 -0.089845352 0
0.74853629 0.92560047 -0.09090393 0
1.0008869 1.5720007 -0.091249354 0
1.4976329 2.8444238 -0.090625428 0
3.7831054 8.6987009 -0.14083616 0
0.92827183 1.3859961 0.21982497 0
0.85485786 1.1979449 0.26525277 0
0.84307003 1.1677504 0.31724176 0
0.84081173 1.1619656 0.37100896 0
0.84112686 1.1627727 0.42577466 0
0.83995289 1.1597655 0.48026732 0
0.84023303 1.1604831 0.5357812 0
0.30620703 -0.14515606 -0.089830868 0
0.34691596 -0.032573547 -0.090647139 0
0.39545783 0.10167137 -0.089692704 0
0.43437853 0.20930853 -0.078148372 0
0.43250135 0.20411709 -0.047345538 0
0.43380573 0.20772436 -0.017839512 0
0.93580949 1.5960405 -0.091221578 0
1.4000202 2.8798378 -0.090569608 0
3.5355637 8.7857885 -0.14070624 0
0.86097854 1.3890917 0.21885623 0
0.85041571 1.3598797 0.27574965 0
0.84411895 1.3424656 0.33255187 0
0.8463636 1.3486733 0.39167473 0
0.84059954 1.3327324 0.44811729 0
0.84338564 1.3404377 0.50827271 0
0.84370661 1.3413253 0.56790739 0
0.2880969 -0.12786654 -0.092039384 0
0.31961399 -0.033308949 -0.088828675 0
0.36731839 0.10981384 -0.089439176 0
0.40476438 0.22215942 -0.07848867 0
0.40345317 0.21822551 -0.047789101 0
0.40777141 0.23118106 -0.019110395 0
0.87038803 1.6191239 -0.091245137 0
1.3012575 2.911819 -0.090467222 0
3.2897682 8.8777523 -0.14085069 0
0.79178983 1.3833137 0.21754341 0
0.84924299 1.5556848 0.288665 0
0.84266329 1.5359442 0.34957844 0
0.84207702 1.5341852 0.41200277 0
0.83925068 1.5257056 0.47368535 0
0.84140819 1.5321786 0.53794682 0
0.83961654 1.5268033 0.60066789 0
0.2646884 -0.12607637 -0.09088809 0
0.29599226 -0.023609426 -0.089215524 0
0.34361234 0.13226548 -0.091769181 0
0.38238415 0.25917736 -0.082487918 0
0.3796311 0.25016573 -0.05049837 0
0.38267559 0.26013127 -0.020972086 0
0.72486538 1.3802216 -0.07223881 0
0.72774315 1.3896415 -0.014833024 0
0.72732127 1.3882606 0.043169122 0
0.72453088 1.3791268 0.10104109 0
0.72438806 1.3786592 0.15867969 0
0.72875547 1.3929551 0.21707766 0
0.84512019 1.7738521 0.30311936 0
0.83412266 1.7378538 0.36730132 0
0.83624536 1.744802 0.43525758 0
0.83293766 1.7339749 0.50131094 0
0.83521336 1.7414238 0.57041109 0
0.24332787 -0.11788806 -0.091287278 0
0.27486354 -0.0044987467 -0.091556542 0
0.31297314 0.13252774 -0.090400063 0
0.36327913 0.31340745 -0.089052625 0
0.44108289 0.59315795 -0.090995364 0
0.5511204 0.98880774 -0.090673961 0
0.66034418 1.3815315 -0.071063273 0
0.66356546 1.3931139 -0.014151333 0
0.65990174 1.3799407 0.043793913 0
0.66199523 1.3874681 0.10104083 0
0.66054684 1.3822603 0.15834348 0
0.66094112 1.383678 0.2157771 0
0.80979967 1.9189122 0.3121711 0
0.81032127 1.9207878 0.38308176 0
0.80945146 1.9176602 0.45378506 0
0.8160466 1.9413736 0.52863973 0
0.81100261 1.9232376 0.59799397 0
0.22107498 -0.11280474 -0.091122024 0
0.2481086 -0.0051511792 -0.09014871 0
0.2829473 0.13358393 -0.089305617 0
0.3314369 0.32667974 -0.089711286 0
0.39635739 0.58520693 -0.088759862 0
0.50132066 1.0031928 -0.090783097 0
0.59577328 1.379323 -0.069759317 0
0.59589988 1.3798273 -0.012747524 0
0.59549737 1.3782244 0.044215526 0
0.59629649 1.3814068 0.10104018 0
0.59558177 1.3785605 0.1578728 0
0.59769112 1.3869603 0.2151709 0
0.77064711 2.0757074 0.3220768 0
0.76985157 2.0725396 0.39581791 0
0.76959455 2.071516 0.46998647 0
0.76987487 2.0726323 0.54482085 0
0.19523121 -0.12383237 -0.08757063 0
0.22493559 0.0085074641 -0.091642149 0
0.25921249 0.16121927 -0.092822351 0
0.29958224 0.34107569 -0.090644173 0
0.35555223 0.59043509 -0.088251211 0
0.44756433 1.0003704 -0.089366116 0
0.55358088 1.4726987 -0.075428344 0
0.55317217 1.4708779 -0.016411601 0
0.55051166 1.4590247 0.042629626 0
0.55406308 1.4748471 0.10104249 0
0.55403435 1.474719 0.15982942 0
0.55161846 1.4639559 0.21816599 0
0.71331823 2.1843657 0.32854587 0
0.71239936 2.1802721 0.40436658 0
0.71136713 2.1756732 0.48026142 0
0.71467888 2.1904278 0.55913919 0
0.176736 -0.1020278 -0.091293149 0
0.20205057 0.025762949 -0.093931369 0
0.2252548 0.1429005 -0.088722847 0
0.26355797 0.33625916 -0.088935412 0
0.32098112 0.62613744 -0.091498964 0
0.39601824 1.0049331 -0.088788368 0
0.41336265 1.0924895 -0.047393817 0
0.41467977 1.0991385 0.0018549433 0
0.41523036 1.101918 0.051404022 0
0.41570449 1.1043115 0.10103133 0
0.4162524 1.1070774 0.15078115 0
0.41523397 1.1019363 0.20034063 0
0.41601405 1.1058741 0.25041103 0
0.41467038 1.0990911 0.2998113 0
0.41547894 1.1031728 0.35039929 0
0.40593275 1.0549827 0.39396581 0
0.29593378 0.49969581 0.35053191 0
0.27218354 0.37980202 0.36393407 0
0.15250883 -0.10825184 -0.089055173 0
0.17283496 0.0099267699 -0.089996971 0
0.19608648 0.14511397 -0.0882084 0
0.23189466 0.35330704 -0.09048184 0
0.27748883 0.61839718 -0.089684539 0
0.34997705 1.0398526 -0.091211729 0
0.36898896 1.1503899 -0.050809968 0
0.88138151 4.1295028 -0.14083242 0
1.7636156 9.2589197 -0.14080377 0
0.58386642 2.399714 0.26125783 0
0.58063012 2.3808978 0.34023419 0
0.57937109 2.3735774 0.4196673 0
0.26390785 0.5394358 0.28235111 0
0.27167931 0.58461994 0.32550043 0
0.27136078 0.58276814 0.36322793 0
0.2367591 0.38158944 0.36305091 0
0.13310085 -0.085069329 -0.093274139 0
0.14832892 0.019145641 -0.090986945 0
0.1685607 0.15760413 -0.089525275 0
0.19748676 0.35556272 -0.090035416 0
0.23768096 0.63063627 -0.09036655 0
0.29726157 1.0383828 -0.090303369 0
0.39570755 1.7121086 -0.089888521 0
0.75188953 4.1496797 -0.14081328 0
1.5046384 9.3011999 -0.14082891 0
0.50555259 2.4638455 0.26363689 0
0.50437927 2.4558156 0.34457332 0
0.50561678 2.4642849 0.42695275 0
0.22184435 0.52225667 0.27959454 0
0.27452549 0.88278598 0.36696631 0
0.20088318 0.3788065 0.36147133 0
0.10941313 -0.088925093 -0.091796525 0
0.12201267 0.015688691 -0.089686699 0
0.13944632 0.16044012 -0.089355238 0
0.16380911 0.36272421 -0.090407886 0
0.19653299 0.63443035 -0.090170823 0
0.24661817 1.050287 -0.090780415 0
0.32708639 1.7184143 -0.089691781 0
0.62032199 4.1531477 -0.14016418 0
1.2439058 9.330759 -0.14070937 0
0.42662102 2.5448496 0.26689383 0
0.42544413 2.5350778 0.34934133 0
0.42345163 2.5185342 0.43096176 0
0.42479378 2.5296779 0.51542133 0
0.23095663 0.92024952 0.37137851 0
0.16576825 0.37899092 0.36063179 0
0.086471751 -0.088474602 -0.091369726 0
0.097473338 0.027440224 -0.091392778 0
0.11086871 0.16857639 -0.090182088 0
0.1296823 0.36679974 -0.090464003 0
0.15578476 0.64182013 -0.090519808 0
0.19557136 1.0610194 -0.091266446 0
0.25857452 1.7248325 -0.089625217 0
0.49213722 4.1856933 -0.14103194 0
0.98203272 9.3473253 -0.14044058 0
0.34093145 2.5925608 0.26867756 0
0.34086618 2.5918729 0.35265911 0
0.34040523 2.5870163 0.43649131 0
0.33989525 2.5816431 0.52040058 0
0.34027055 2.585597 0.60583311 0
0.1730829 0.82407671 0.40044618 0
0.1309431 0.38008383 0.36013415 0
0.063191921 -0.094144672 -0.089763038 0
0.071539037 0.02594832 -0.090712525 0
0.080338709 0.1525524 -0.087146081 0
0.095842309 0.37560812 -0.091308214 0
0.11523926 0.65467888 -0.091629498 0
0.14232437 1.0443618 -0.089309551 0
0.19072521 1.7407219 -0.090343796 0
0.36071771 4.1864648 -0.1405665 0
0.72160536 9.3786831 -0.14067124 0
0.25333098 2.6414535 0.27061456 0
0.25213972 2.6243145 0.35441288 0
0.13252649 0.90339619 0.27817008 0
0.13373202 0.92074078 0.32485166 0
0.1340789 0.92573148 0.3708587 0
0.12544341 0.80148965 0.39610317 0
0.09587431 0.3760685 0.3588388 0
0.041029006 -0.082849532 -0.09189292 0
0.045835357 0.025918636 -0.090432189 0
0.051721983 0.15913346 -0.087959133 0
0.061039705 0.36999443 -0.09024293 0
0.073181383 0.64476186 -0.090193279 0
0.091003969 1.0480886 -0.08938501 0
0.12221675 1.7544367 -0.091029324 0
0.23046881 4.2041907 -0.14104633 0
0.45972162 9.3922033 -0.14063954 0
0.16356751 2.690208 0.27264619 0
0.1628546 2.6740746 0.35753462 0
0.08636573 0.94312471 0.28163028 0
0.085737728 0.92891294 0.32548729 0
0.086977892 0.95697802 0.3748692 0
0.07727088 0.73730737 0.38511765 0
0.061684288 0.38458136 0.36007467 0
0.017834576 -0.098570138 -0.088397212 0
0.020204026 0.026606593 -0.09040945 0
0.023060506 0.17751303 -0.090829991 0
0.026621645 0.36564603 -0.089479528 0
0.032018665 0.65076774 -0.090743177 0
0.039594881 1.0510154 -0.089506738 0
0.052893147 1.7535555 -0.090814896 0
0.099172883 4.1984901 -0.14058828 0
0.19792393 9.4154549 -0.14098795 0
0.071113028 2.7161026 0.27371675 0
0.071041152 2.7123053 0.36000574 0
0.070941351 2.7070327 0.44626138 0
0.070800953 2.699616 0.53239608 0
0.032822616 0.69324023 0.37764511 0
0.026947582 0.3828651 0.35954502 0
-0.0047113299 -0.087845653 -0.090646721 0
-0.0054214043 0.024736438 -0.090026729 0
-0.0062911576 0.16263548 -0.088354282 0
-0.0076680873 0.38094738 -0.091599621 0
-0.0093587041 0.64899415 -0.090505369 0
-0.011864611 1.0463049 -0.08903674 0
-0.016269859 1.7447557 -0.090169154 0
-0.03178329 4.2044058 -0.14082523 0
-0.064659543 9.4169254 -0.14098361 0
-0.022391522 2.7153437 0.27365386 0
-0.022440627 2.7231293 0.36072183 0
-0.022415031 2.7190711 0.44733077 0
-0.022501022 2.7327046 0.53619659 0
-0.0092907241 0.63821596 0.36855432 0
-0.0076830024 0.38331214 0.35958809 0
-0.027221778 -0.09563306 -0.089082129 0
-0.031003393 0.024223361 -0.090021275 0
-0.035361018 0.16233614 -0.088395499 0
-0.042001791 0.37281218 -0.090547763 0
-0.050518222 0.64273638 -0.089865096 0
-0.063941233 1.068172 -0.091169603 0
-0.085659042 1.7565072 -0.091082402 0
-0.11886743 2.809031 -0.075947233 0
-0.11848515 2.7969148 0.012895586 0
-0.11897501 2.8124404 0.10107899 0
-0.11910105 2.8164356 0.18971683 0
-0.11652465 2.7347779 0.27464268 0
-0.11605792 2.719985 0.36062583 0
-0.1164664 2.7329316 0.44879141 0
-0.11636972 2.7298672 0.53607249 0
-0.051000495 0.65802175 0.37194005 0
-0.042288177 0.38188902 0.35944337 0
-0.050406348 -0.085269004 -0.091500722 0
-0.056479804 0.021591339 -0.08973781 0
-0.064592339 0.16432837 -0.088934727 0
-0.076522492 0.37423518 -0.090961747 0
-0.092010789 0.64674622 -0.09054742 0
-0.11570869 1.0637023 -0.090966083 0
-0.15501982 1.755368 -0.091216899 0
-0.2140353 2.7937243 -0.075430863 0
-0.21343923 2.7832367 0.013115855 0
-0.21374361 2.7885923 0.10107842 0
-0.21411638 2.795151 0.18931894 0
-0.21108179 2.7417583 0.27516234 0
-0.21091992 2.7389102 0.36224177 0
-0.21066856 2.7344878 0.44932505 0
-0.077758096 0.39597526 0.26321277 0
-0.07632497 0.37075987 0.29249266 0
-0.076432057 0.3726441 0.3252477 0
-0.076927476 0.38136068 0.35963205 0
-0.072545961 -0.094803125 -0.089805163 0
-0.081950694 0.019620333 -0.089700095 0
-0.093083337 0.1550664 -0.087740727 0
-0.11121679 0.37568846 -0.091503583 0
-0.1329793 0.64046389 -0.090146892 0
-0.16679889 1.0519323 -0.090200715 0
-0.22428121 1.7512953 -0.091268606 0
-0.42474383 4.190239 -0.140974 0
-0.84991312 9.3630943 -0.14053886 0
-0.30629191 2.7490849 0.27581078 0
-0.30550334 2.7394905 0.36274117 0
