# .PCD v0.7 - Point Cloud Data file format
VERSION 0.7
FIELDS x y z intensity
SIZE 4 4 4 4
TYPE F F F F
COUNT 1 1 1 1
WIDTH 1313
HEIGHT 1
VIEWPOINT 0 0 0 1 0 0 0
POINTS 1313
DATA ascii
-0.90587991 -1.0121828 -0.09185373 0
-1.010323 -1.0148191 -0.089569129 0
-1.121986 -1.0176377 -0.083648451 0
-1.133955 -1.0179398 -0.058577318 0
-1.131536 -1.0178788 -0.031431977 0
-1.1328056 -1.0179108 -0.0048907157 0
-1.1179166 -1.017535 0.022724459 0
-1.1299142 -1.0178379 0.048305511 0
-1.1325439 -1.0179043 0.074607201 0
-1.1252271 -1.0177195 0.10100256 0
-1.1217648 -1.0176321 0.12714705 0
-1.1292299 -1.0178206 0.15366812 0
-1.1302842 -1.0178472 0.18014614 0
-1.1302102 -1.0178453 0.20665435 0
-1.128424 -1.0178002 0.23307435 0
-1.1311924 -1.0178701 0.26019567 0
-1.1347687 -1.0179604 0.28775737 0
-1.1227078 -1.017656 0.31275091 0
-0.89622641 -1.0346125 -0.089983515 0
-1.0085667 -1.0402871 -0.089420088 0
-1.1322035 -1.0465324 -0.085506357 0
-1.1288804 -1.0463645 -0.058015797 0
-1.2388309 -1.0519185 -0.044114474 0
-1.2471911 -1.0523407 -0.015682323 0
-1.2408229 -1.0520191 0.01404638 0
-1.2330111 -1.0516245 0.043449391 0
-1.242154 -1.0520864 0.072030261 0
-1.2378252 -1.0518676 0.10100581 0
-1.2464751 -1.0523046 0.13008249 0
-1.239933 -1.0519742 0.15888517 0
-1.2488236 -1.0524232 0.18852626 0
-1.2357168 -1.0517612 0.21662205 0
-0.90734464 -1.058187 -0.092658259 0
-1.0175031 -1.0665424 -0.091411851 0
-1.1347617 -1.0754364 -0.086225502 0
-1.130551 -1.0751169 -0.058504883 0
-1.2311137 -1.0827445 -0.043441404 0
-1.2398959 -1.0834106 -0.015185541 0
-1.2354281 -1.0830717 0.014285931 0
-1.2420677 -1.0835754 0.042934783 0
-1.2498782 -1.0841677 0.071803987 0
-1.2364705 -1.0831507 0.10100582 0
-1.2371799 -1.0832046 0.12991166 0
-1.2387789 -1.0833259 0.15892361 0
-1.2352926 -1.0830615 0.1877165 0
-1.243112 -1.0836545 0.21749924 0
-0.90354151 -1.0809031 -0.09227889 0
-1.0139582 -1.0920862 -0.091171108 0
-1.1556034 -1.1064322 -0.090087153 0
-1.2370548 -1.1146817 -0.073905714 0
-1.2281225 -1.113777 -0.043413091 0
-1.2367053 -1.1146463 -0.015146052 0
-1.2386496 -1.1148432 0.013865652 0
-1.2333641 -1.114308 0.04321222 0
-1.2481062 -1.1158011 0.071780145 0
-1.240962 -1.1150775 0.10100603 0
-1.2379581 -1.1147733 0.12999463 0
-1.2421578 -1.1151986 0.15921155 0
-1.2486309 -1.1158541 0.18884857 0
-1.997036 -1.1916537 0.28853512 0
-1.9883852 -1.1907777 0.33477861 0
-1.9345032 -1.1853204 0.37447685 0
-1.4828345 -1.1395746 0.38196516 0
-0.89073014 -1.1024003 -0.090090819 0
-1.0074707 -1.1172082 -0.090493165 0
-1.1542944 -1.1358321 -0.090420939 0
-1.1917719 -1.1405859 -0.067994885 0
-1.247771 -1.1476891 -0.046143997 0
-1.2392949 -1.146614 -0.015724367 0
-1.2452805 -1.1473732 0.013147334 0
-1.2312208 -1.1455898 0.043146335 0
-1.2420164 -1.1469592 0.071838744 0
-1.2517314 -1.1481915 0.10100645 0
-1.2318377 -1.145668 0.12993449 0
-1.2397738 -1.1466748 0.1592674 0
-1.2363939 -1.146246 0.1882388 0
-1.6018476 -1.1926019 0.36660185 0
-1.4855938 -1.1778556 0.38329905 0
-0.8957029 -1.1261003 -0.091834731 0
-1.0118536 -1.1438217 -0.092004322 0
-1.1505098 -1.1649768 -0.090467595 0
-1.1952449 -1.1718022 -0.069085263 0
-1.6162597 -1.2360373 -0.090228356 0
-2.5522058 -1.3788366 -0.14010212 0
-3.4297981 -1.5127327 -0.14164844 0
-5.1268797 -1.7716602 -0.14051764 0
-10.279548 -2.5578141 -0.1408224 0
-1.3497962 -1.1953824 0.29307678 0
-1.3566334 -1.1964256 0.32675761 0
-1.3595959 -1.1968775 0.36028203 0
-0.87977016 -1.1465039 -0.089201458 0
-1.0138969 -1.1704454 -0.093202941 0
-1.141317 -1.1931897 -0.0897341 0
-1.2216545 -1.2075298 -0.073567145 0
-1.6041806 -1.2758101 -0.08959455 0
-2.5364206 -1.4422137 -0.13961439 0
-3.4048903 -1.5972342 -0.14089507 0
-5.113512 -1.9022208 -0.14089619 0
-10.237883 -2.8169136 -0.14085032 0
-1.3398221 -1.2286226 0.29245636 0
-1.317773 -1.2246869 0.32121259 0
-1.3208227 -1.2252312 0.35394663 0
-0.89460337 -1.1725808 -0.093341269 0
-1.0033661 -1.1948402 -0.09211918 0
-1.1235768 -1.2194425 -0.087682061 0
-1.1860678 -1.2322319 -0.06930802 0
-1.6072111 -1.3184229 -0.090879448 0
-2.5444534 -1.5102385 -0.14154546 0
-3.3789682 -1.6810299 -0.14021723 0
-5.0889649 -2.030997 -0.14090165 0
-10.189277 -3.074825 -0.14086851 0
-1.2516173 -1.2456472 0.31117764 0
-1.2344769 -1.2421393 0.33856678 0
-0.88421917 -1.1938537 -0.092146911 0
-0.99311006 -1.2190175 -0.091200896 0
-1.1266053 -1.2498673 -0.08923284 0
-1.1906434 -1.264666 -0.070906632 0
-1.5926969 -1.3575774 -0.090195961 0
-2.5152748 -1.5707781 -0.14008696 0
-3.3674128 -1.7677007 -0.14071764 0
-5.0582952 -2.1584504 -0.14076948 0
-10.126843 -3.3297532 -0.14071177 0
-0.8893134 -1.2188398 -0.094460003 0
-0.99392354 -1.2458119 -0.09254811 0
-1.1288631 -1.2806041 -0.090792857 0
-1.33119 -1.3327711 -0.092367686 0
-1.5799782 -1.3969175 -0.089843623 0
-1.9941692 -1.5037104 -0.091347493 0
-3.3484557 -1.852893 -0.14084435 0
-5.0226555 -2.2845604 -0.14055169 0
-10.079804 -3.5884714 -0.14107762 0
-0.86353487 -1.2356155 -0.090105124 0
-0.99009943 -1.2716773 -0.093128763 0
-1.1126887 -1.3066064 -0.089346297 0
-1.3062336 -1.3617529 -0.090049215 0
-1.5812712 -1.4401189 -0.091311775 0
-1.9776911 -1.5530702 -0.091069557 0
-3.3340139 -1.9395249 -0.14145598 0
-4.982945 -2.4093521 -0.14028883 0
-9.9865532 -3.835022 -0.14048623 0
-0.85980433 -1.2582116 -0.090719678 0
-0.96710396 -1.2917335 -0.090059288 0
-1.1088954 -1.3360312 -0.090132736 0
-1.2971931 -1.394858 -0.090163045 0
-1.5674642 -1.4792945 -0.091075651 0
-1.9589727 -1.6016072 -0.090691708 0
-3.3045223 -2.0219755 -0.1411297 0
-4.9580212 -2.5385518 -0.14089812 0
-9.9095373 -4.085475 -0.14043663 0
-0.85193145 -1.2795674 -0.090536959 0
-0.95822579 -1.3157432 -0.089872457 0
-1.0939547 -1.3619367 -0.089119069 0
-1.2852335 -1.4270358 -0.089968063 0
-1.5588143 -1.5201454 -0.091595717 0
-1.9357313 -1.648424 -0.089984946 0
-3.2774549 -2.1050615 -0.14113271 0
-4.9170017 -2.6630592 -0.14088084 0
-9.8417339 -4.3391261 -0.1407675 0
-0.84012598 -1.2994422 -0.089583166 0
-0.95541078 -1.3419526 -0.091022141 0
-1.0882028 -1.3909187 -0.089819558 0
-1.2767932 -1.4604602 -0.090419509 0
-1.5400306 -1.5575271 -0.0909862 0
-1.9281129 -1.7006297 -0.090942852 0
-3.2429152 -2.1854537 -0.14073451 0
-4.8669319 -2.7842987 -0.14056957 0
-9.7596302 -4.5884466 -0.14090501 0
-0.8354429 -1.3219213 -0.090363227 0
-0.94329476 -1.3648121 -0.090431564 0
-1.0788159 -1.4187067 -0.09001293 0
-1.275983 -1.4971167 -0.092156418 0
-1.5290757 -1.5977675 -0.091473304 0
-1.902451 -1.7462524 -0.090229653 0
-3.2155643 -2.2684553 -0.14102508 0
-4.8247418 -2.9083982 -0.1408025 0
-9.6617212 -4.8319831 -0.14080513 0
-0.82654512 -1.3428169 -0.090308003 0
-0.93505043 -1.3891715 -0.090745144 0
-1.0610024 -1.4429795 -0.088827066 0
-1.2411467 -1.5199389 -0.088852905 0
-1.5154995 -1.6371453 -0.091760956 0
-1.8900696 -1.7971654 -0.090972982 0
-3.1819775 -2.3490815 -0.14100316 0
-4.7876673 -3.0350482 -0.14145467 0
-9.5565386 -5.0723581 -0.14067487 0
-0.81552434 -1.3627431 -0.089878492 0
-0.91860354 -1.4098896 -0.089490108 0
-1.0490975 -1.469575 -0.088805415 0
-1.2448624 -1.5591141 -0.091557272 0
-1.4965801 -1.6742449 -0.091492273 0
-1.8583258 -1.8397005 -0.089868747 0
-3.1495585 -2.4302852 -0.14122634 0
-4.7218819 -3.149436 -0.14080738 0
-9.4547815 -5.3141732 -0.14078496 0
-0.80969417 -1.3851061 -0.090789728 0
-0.91478074 -1.4364153 -0.090974517 0
-1.0512941 -1.5030688 -0.091484629 0
-1.2185725 -1.5847435 -0.089756243 0
-1.4828153 -1.7137617 -0.092011727 0
-1.8506179 -1.8933436 -0.091358341 0
-3.101944 -2.5043111 -0.14042862 0
-4.66537 -3.2676635 -0.14078118 0
-9.3554134 -5.5576057 -0.14111519 0
-0.80742818 -1.4095823 -0.092701234 0
-0.90250683 -1.4590139 -0.090825699 0
-1.0226501 -1.5214766 -0.088642009 0
-1.1985511 -1.6129279 -0.089026161 0
-1.4477508 -1.7424873 -0.089862876 0
-1.8196421 -1.9358343 -0.090561308 0
-3.0628211 -2.5821655 -0.14043573 0
-4.6060567 -3.3844967 -0.14076321 0
-9.225522 -5.7861652 -0.14080989 0
-0.78117681 -1.4213442 -0.088964082 0
-0.88002455 -1.4759467 -0.088600107 0
-1.0099498 -1.547716 -0.088839732 0
-1.1948088 -1.6498302 -0.091012903 0
-1.4357625 -1.7829304 -0.090861179 0
-1.7993227 -1.9837571 -0.091003023 0
-3.0278563 -2.6623859 -0.14093094 0
-4.5524631 -3.5045621 -0.14120497 0
-9.0960398 -6.0143852 -0.14066342 0
-0.78417969 -1.4492319 -0.092450626 0
-0.88079256 -1.5058272 -0.091509275 0
-0.99745905 -1.5741699 -0.089205556 0
-1.1665939 -1.6732483 -0.089193903 0
-1.4090585 -1.8152829 -0.090018339 0
-1.771799 -2.0277746 -0.090801887 0
-2.9846334 -2.7382472 -0.14092728 0
-4.4791889 -3.6137509 -0.14075384 0
-8.9658041 -6.2419891 -0.14064854 0
-0.77440727 -1.4701871 -0.092971452 0
-0.86050683 -1.5235864 -0.089963965 0
-0.99063694 -1.6042936 -0.090801589 0
-1.1550848 -1.7062849 -0.090205871 0
-1.3885688 -1.8510925 -0.09012834 0
-1.7472527 -2.0735497 -0.09104573 0
-2.9358106 -2.810698 -0.14061926 0
-4.4144592 -3.7277617 -0.14091347 0
-8.8419037 -6.4736805 -0.14096276 0
-0.74637663 -1.4793355 -0.088993393 0
-0.85391027 -1.5498462 -0.091576286 0
-0.9732309 -1.6280855 -0.09049239 0
-1.1391987 -1.7369118 -0.090638153 0
-1.3732539 -1.8903834 -0.09108869 0
-1.7125108 -2.1128366 -0.09028355 0
-2.8926163 -2.8866398 -0.14092827 0
-4.3466654 -3.84007 -0.14106411 0
-8.6842175 -6.6842332 -0.14050415 0
-0.73707676 -1.5003225 -0.089847185 0
-0.82926893 -1.5641568 -0.089233585 0
-0.96196824 -1.6560384 -0.091524862 0
-1.1139159 -1.7612478 -0.089602865 0
-1.3491915 -1.9241537 -0.090962239 0
-1.685463 -2.1569898 -0.090493105 0
-2.8493338 -2.9628594 -0.14139685 0
-4.2769089 -3.9513197 -0.14126545 0
-8.5460958 -6.9073257 -0.14073981 0
-0.72906536 -1.5225192 -0.091194205 0
-0.82064599 -1.5894105 -0.090667032 0
-0.94133008 -1.6775591 -0.090810709 0
-1.0994319 -1.7930381 -0.090533592 0
-1.3280576 -1.9600283 -0.091379561 0
-1.6569231 -2.2002342 -0.090661757 0
-2.7970612 -3.0330005 -0.14126092 0
-4.1872563 -4.0484104 -0.14048395 0
-8.3990717 -7.1247554 -0.14088419 0
-0.71192425 -1.5381094 -0.090267427 0
-0.80757391 -1.6117443 -0.091221146 0
-0.92432457 -1.7016236 -0.090947621 0
-1.0812608 -1.8224392 -0.09096963 0
-1.3069274 -1.9961662 -0.091937907 0
-1.6325339 -2.2468307 -0.091450028 0
-2.7445631 -3.1029143 -0.14125717 0
-4.1070805 -4.1518331 -0.14038652 0
-8.2348833 -7.3295774 -0.14068729 0
-0.70336401 -1.5603927 -0.091776334 0
-0.78834021 -1.6292942 -0.090427898 0
-0.91400617 -1.7311882 -0.092629544 0
-1.0539531 -1.8446617 -0.089894541 0
-1.2745625 -2.0235391 -0.090953223 0
-1.6051303 -2.2915742 -0.092032306 0
-2.6859708 -3.1679547 -0.14086209 0
-4.0339632 -4.2609506 -0.14086509 0
-8.0740595 -7.5367923 -0.14074025 0
-0.68775994 -1.5771538 -0.091505148 0
-0.77090991 -1.6481255 -0.090172566 0
-0.88831532 -1.7483356 -0.091185965 0
-1.0409402 -1.8786069 -0.091539837 0
-1.2543209 -2.0607355 -0.091915049 0
-1.5659491 -2.3267224 -0.091319047 0
-2.6241701 -3.229955 -0.14031287 0
-3.9459836 -4.3581743 -0.14061122 0
-7.9016271 -7.7344694 -0.14059773 0
-0.66910535 -1.5911081 -0.090475731 0
-0.75439489 -1.6677089 -0.090262122 0
-0.86690032 -1.7687528 -0.090748467 0
-1.0173444 -1.9038706 -0.091383837 0
-1.2202264 -2.0860841 -0.09086863 0
-1.5217075 -2.3568521 -0.090064697 0
-2.5713003 -3.2995183 -0.14073573 0
-3.860064 -4.4569902 -0.1406323 0
-7.7391958 -7.940938 -0.14091875 0
-0.65744007 -1.6113496 -0.091567196 0
-0.74713689 -1.6960934 -0.092879109 0
-0.84251851 -1.7862082 -0.089744799 0
-0.98529738 -1.9211029 -0.089712031 0
-1.1819819 -2.1069267 -0.089231424 0
-1.4862165 -2.3943617 -0.090000324 0
-1.9816409 -2.8624294 -0.089709483 0
-3.7702572 -4.5522795 -0.14056286 0
-7.5461273 -8.1196499 -0.14043231 0
-0.63416493 -1.6204399 -0.089358546 0
-0.72400653 -1.7097169 -0.091535784 0
-0.82648623 -1.8115525 -0.090751119 0
-0.9641937 -1.9483945 -0.090251081 0
-1.1657842 -2.1487181 -0.091270871 0
-1.4625055 -2.4435747 -0.091607504 0
-1.9403015 -2.9183679 -0.090355299 0
-3.6802807 -4.6474118 -0.14063647 0
-7.3806386 -8.3245144 -0.14098363 0
-0.62020904 -1.638533 -0.090025999 0
-0.70648205 -1.7287027 -0.091776453 0
-0.80180132 -1.8283273 -0.089877434 0
-0.94716233 -1.9802539 -0.091770627 0
-1.1318998 -2.1733356 -0.090550773 0
-1.4232891 -2.4778862 -0.091329686 0
-1.8877921 -2.9633696 -0.090029784 0
-3.585119 -4.7373605 -0.14052255 0
-7.1817422 -8.4964352 -0.14059782 0
-0.60791248 -1.6587071 -0.091378741 0
-0.68325269 -1.7415369 -0.090559341 0
-0.78175581 -1.8498319 -0.090214439 0
-0.92174071 -2.0037324 -0.091746219 0
-1.0977224 -2.1972082 -0.089866035 0
-1.3769324 -2.5041738 -0.090172134 0
-1.8487269 -3.0228684 -0.091208391 0
-3.4932377 -4.8308563 -0.14078738 0
-6.9956236 -8.681407 -0.14079064 0
-0.59256023 -1.6758599 -0.091941558 0
-0.66566265 -1.7604207 -0.091022335 0
-0.75715798 -1.8662573 -0.089551888 0
-0.88971335 -2.0195899 -0.090427168 0
-1.0756375 -2.2346568 -0.091428258 0
-1.3413578 -2.5420272 -0.090612598 0
-1.7863946 -3.0568211 -0.090093009 0
-3.3966043 -4.9194217 -0.14088744 0
-6.7974067 -8.8532801 -0.14072275 0
-0.5678668 -1.6818728 -0.089536376 0
-0.64865452 -1.7802342 -0.091811843 0
-0.73965669 -1.8910321 -0.090812124 0
-0.86287147 -2.0410495 -0.090302534 0
-1.0385138 -2.2548993 -0.090441398 0
-1.307404 -2.5822811 -0.091443591 0
-1.7406652 -3.1097891 -0.090864621 0
-3.2887981 -4.9946856 -0.14033265 0
-6.5928726 -9.0174923 -0.14057791 0
-0.55317712 -1.6998075 -0.090561472 0
-0.62588072 -1.7930259 -0.091012262 0
-0.71402419 -1.9060405 -0.090105273 0
-0.8391459 -2.0664675 -0.091007806 0
-1.0057613 -2.2800965 -0.09034846 0
-1.2725909 -2.6222169 -0.092323251 0
-1.6827365 -3.1480927 -0.090424471 0
-3.1966829 -5.0892262 -0.14108904 0
-6.3891158 -9.1824617 -0.14061201 0
-0.53679949 -1.7158949 -0.091178097 0
-0.60353583 -1.8060645 -0.090421371 0
-0.69454825 -1.9290341 -0.091177784 0
-0.81265992 -2.0886183 -0.091234498 0
-0.96564257 -2.2953179 -0.088928066 0
-1.2148274 -2.6319993 -0.089788117 0
-1.6315358 -3.1950266 -0.090871491 0
-3.0875905 -5.1623464 -0.14072679 0
-6.1838341 -9.3457756 -0.14074779 0
-0.52189744 -1.7343649 -0.092510976 0
-0.58029753 -1.8175828 -0.089621998 0
-0.66437256 -1.9373866 -0.089391403 0
-0.78598875 -2.1106851 -0.091558628 0
-0.94957906 -2.3437951 -0.092426829 0
-1.1785655 -2.6700923 -0.090693556 0
-1.5757668 -3.2360895 -0.090920605 0
-2.9863257 -5.2460828 -0.14113271 0
-5.9671865 -9.4936981 -0.14059252 0
-0.4999547 -1.7428415 -0.091367789 0
-0.56671983 -1.8432764 -0.092175744 0
-0.64137375 -1.9555784 -0.089728154 0
-0.74598163 -2.1129405 -0.088648744 0
-0.90339673 -2.3497405 -0.089955874 0
-1.1311783 -2.6923933 -0.089917384 0
-1.5132841 -3.2671962 -0.090252332 0
-2.8759627 -5.3170781 -0.14096378 0
-5.755446 -9.648694 -0.14079131 0
-0.47710189 -1.7493887 -0.089898355 0
-0.53838187 -1.8468181 -0.089837186 0
-0.61869663 -1.974511 -0.090317063 0
-0.72299582 -2.140337 -0.090127639 0
-0.87547433 -2.3827636 -0.091424666 0
-1.0973662 -2.7355511 -0.091586255 0
-1.4616147 -3.3146722 -0.091077782 0
-2.7650445 -5.3870029 -0.1408931 0
-5.5282102 -9.7801781 -0.14048921 0
-0.45746508 -1.7606931 -0.089770772 0
-0.52056766 -1.8668736 -0.09130957 0
-0.59342211 -1.9894634 -0.090246536 0
-0.6926077 -2.1563599 -0.08982075 0
-0.83439243 -2.3949363 -0.090133436 0
-1.0444249 -2.7483511 -0.090027459 0
-1.3993822 -3.3456261 -0.090654232 0
-2.6488233 -5.4480186 -0.14049378 0
-5.3164787 -9.9367943 -0.14102766 0
-0.44429499 -1.7834994 -0.092569552 0
-0.49520159 -1.8742993 -0.090131857 0
-0.56012398 -1.9900985 -0.087600432 0
-0.66277421 -2.1731911 -0.089772902 0
-0.79419529 -2.4076011 -0.08906626 0
-1.0022919 -2.778774 -0.090520389 0
-1.3389045 -3.3791749 -0.090571396 0
-2.5364511 -5.5151854 -0.14058606 0
-5.0862808 -10.063205 -0.14089689 0
-0.42082021 -1.7882409 -0.091069631 0
-0.46957031 -1.8805817 -0.088863574 0
-0.53938264 -2.0128179 -0.08925093 0
-0.63178331 -2.18784 -0.089499377 0
-0.76080173 -2.4322224 -0.089728363 0
-0.95911318 -2.8078573 -0.090978436 0
-1.2806463 -3.4168942 -0.090940885 0
-1.9240842 -4.6356721 -0.090990297 0
-4.8534298 -10.184339 -0.14078294 0
-0.39712569 -1.7917713 -0.089442454 0
-0.454193 -1.906806 -0.091940783 0
-0.51393956 -2.0272415 -0.089455627 0
-0.60226768 -2.2052908 -0.089792319 0
-0.72356868 -2.449806 -0.089574777 0
-0.90926665 -2.824131 -0.090210386 0
-1.2176894 -3.4458413 -0.090736695 0
-1.8309397 -4.6820145 -0.090934776 0
-4.6210284 -10.306198 -0.1408428 0
-0.38395116 -1.8170422 -0.093071766 0
-0.43244368 -1.9213214 -0.092631064 0
-0.48946014 -2.0439305 -0.090185665 0
-0.57044435 -2.2180803 -0.089475535 0
-0.68469989 -2.4637773 -0.089079224 0
-0.86644 -2.8545942 -0.091042243 0
-1.1569041 -3.4792132 -0.090999268 0
-1.738546 -4.7299852 -0.091084994 0
-4.3784575 -10.406895 -0.14051059 0
-0.36085066 -1.8216758 -0.091955759 0
-0.40411413 -1.921204 -0.090421997 0
-0.46128711 -2.0527313 -0.089605458 0
-0.5416199 -2.2375379 -0.090307839 0
-0.64972609 -2.4862378 -0.089796655 0
-0.81825608 -2.8739436 -0.090844549 0
-1.0958201 -3.5124838 -0.091368891 0
-1.6399254 -4.7642055 -0.090654589 0
-4.1397943 -10.51519 -0.14053078 0
-0.3393766 -1.8296584 -0.09175358 0
-0.38487384 -1.9419965 -0.092630588 0
-0.43706781 -2.0708694 -0.090813614 0
-0.51271737 -2.2576571 -0.091342859 0
-0.61620486 -2.5131798 -0.091183774 0
-0.7659716 -2.8829715 -0.08973255 0
-1.0255293 -3.52385 -0.090199523 0
-1.5419629 -4.7989845 -0.09038233 0
-3.901778 -10.625644 -0.14075683 0
-0.31351906 -1.8258855 -0.089007489 0
-0.35710603 -1.9418325 -0.09069968 0
-0.40835667 -2.0781658 -0.090214632 0
-0.48151666 -2.2727809 -0.091728233 0
-0.57710165 -2.5270495 -0.091031812 0
-0.72422355 -2.9184129 -0.091397189 0
-0.96400428 -3.5562611 -0.090746082 0
-1.4488205 -4.8459353 -0.090841554 0
-3.6538942 -10.711719 -0.14052512 0
-0.29365444 -1.8374218 -0.089877792 0
-0.33492115 -1.9562137 -0.091826193 0
-0.37681964 -2.0768242 -0.088244624 0
-0.44165069 -2.2634494 -0.088589631 0
-0.53703851 -2.5380363 -0.090647154 0
-0.67214298 -2.9269536 -0.090493776 0
-0.89652556 -3.5728698 -0.090233855 0
-1.3525085 -4.8854799 -0.091048189 0
-3.4117494 -10.81329 -0.14083156 0
-0.27399701 -1.8503332 -0.09116032 0
-0.30950403 -1.9615194 -0.091260411 0
-0.35057375 -2.0901244 -0.088954456 0
-0.41209483 -2.2827706 -0.089852311 0
-0.49928206 -2.5557873 -0.091220029 0
-0.62890446 -2.9616852 -0.09229327 0
-0.82953858 -3.5899479 -0.089885674 0
-1.253749 -4.9183145 -0.091044523 0
-3.1619983 -10.893777 -0.14077075 0
-0.25372696 -1.8622833 -0.09233088 0
-0.28248248 -1.9608433 -0.089651488 0
-0.322061 -2.0964992 -0.088587262 0
-0.37902024 -2.2917275 -0.089698069 0
-0.45875296 -2.5650122 -0.090867169 0
-0.57395792 -2.9598787 -0.090633415 0
-0.7706905 -3.6341817 -0.091641255 0
-1.1551397 -4.9518852 -0.09119796 0
-2.9115157 -10.971883 -0.14080596 0
-0.23087224 -1.8656076 -0.091709919 0
-0.25925276 -1.9728781 -0.090663098 0
-0.29560378 -2.1102748 -0.089603506 0
-0.34776521 -2.3074305 -0.090647347 0
-0.42038661 -2.5819192 -0.091569476 0
-0.5239383 -2.973316 -0.090590797 0
-0.69932121 -3.6362145 -0.09044119 0
-1.0540252 -4.9768972 -0.091058485 0
-2.6588051 -11.042519 -0.14081387 0
-0.20899335 -1.8724622 -0.091990389 0
-0.23403215 -1.9777809 -0.090401761 0
-0.2679224 -2.1203306 -0.090098433 0
-0.3131012 -2.3103626 -0.089860477 0
-0.37791574 -2.5829868 -0.090481468 0
-0.47239664 -2.9803941 -0.090059839 0
-0.63329899 -3.6571848 -0.090738975 0
-0.94608837 -4.9728456 -0.089651577 0
-2.4036365 -11.103613 -0.14074662 0
-0.18539773 -1.8715824 -0.090709396 0
-0.21118203 -1.9936459 -0.092375003 0
-0.23725657 -2.1170833 -0.088473804 0
-0.27954587 -2.317282 -0.089776523 0
-0.33742109 -2.5912647 -0.090388976 0
-0.42282051 -2.9955482 -0.090426572 0
-0.56671524 -3.6767495 -0.091054119 0
-0.84483963 -4.9933977 -0.089552857 0
-2.1464422 -11.155219 -0.14060774 0
-0.16111943 -1.8654211 -0.088421725 0
-0.18476851 -1.9932462 -0.09133435 0
-0.21082515 -2.1340842 -0.090370677 0
-0.24603829 -2.3244138 -0.089844666 0
-0.29831731 -2.6069858 -0.091303341 0
-0.37101719 -2.9999342 -0.08988855 0
-0.49968785 -3.6954091 -0.091423221 0
-0.94099468 -6.0807056 -0.14008111 0
-1.8905052 -11.212883 -0.14076661 0
-0.14055128 -1.8792241 -0.090572365 0
-0.15876408 -1.9937485 -0.090597324 0
-0.17997949 -2.1271539 -0.088388689 0
-0.21132222 -2.3242412 -0.088993691 0
-0.25674057 -2.6098378 -0.090808131 0
-0.31907508 -3.0018055 -0.08923883 0
-0.43034372 -3.7014778 -0.091019578 0
-0.81495333 -6.1199546 -0.14088735 0
-1.6305664 -11.24864 -0.14056149 0
-0.11677594 -1.8729324 -0.088518225 0
-0.13381839 -2.0008252 -0.091236942 0
-0.1527445 -2.1428537 -0.09029486 0
-0.17792736 -2.331835 -0.089371167 0
-0.2155776 -2.6143761 -0.090637393 0
-0.26799399 -3.0077276 -0.08909642 0
-0.36176243 -3.7114 -0.091012768 0
-0.68526667 -6.1390934 -0.14089605 0
-1.3716304 -11.289817 -0.14063838 0
-0.096413292 -1.8939209 -0.092430316 0
-0.10830707 -2.0044017 -0.091331206 0
-0.12364738 -2.1468971 -0.090382807 0
-0.14497475 -2.3450062 -0.090655275 0
-0.1741274 -2.615804 -0.090223767 0
-0.21697953 -3.0138555 -0.089094929 0
-0.29262874 -3.7165575 -0.090792798 0
-0.55501556 -6.1538568 -0.14085336 0
-1.1108625 -11.317096 -0.1405431 0
-0.073279709 -1.8927088 -0.091709144 0
-0.081454121 -1.9921634 -0.088558309 0
-0.094145998 -2.14658 -0.089872785 0
-0.1090653 -2.3280971 -0.087812535 0
-0.13288501 -2.6179013 -0.090012364 0
-0.1672103 -3.0355225 -0.09066949 0
-0.22370645 -3.7228873 -0.09077809 0
-0.42444164 -6.1651468 -0.14080228 0
-0.85059959 -11.35003 -0.1407337 0
-0.049171612 -1.871591 -0.086875416 0
-0.056710806 -2.0042403 -0.090504579 0
-0.065105021 -2.1519334 -0.090419628 0
-0.076179333 -2.346782 -0.090111859 0
-0.080686539 -2.4260848 -0.067223288 0
-0.080844656 -2.4288669 -0.03361683 0
-0.080254421 -2.4184818 0.00089532346 0
-0.081312865 -2.4371049 0.033459213 0
-0.081123039 -2.4337649 0.067331567 0
-0.081460349 -2.4396996 0.10101187 0
-0.027374532 -1.8877931 -0.090111755 0
-0.031424537 -2.016156 -0.092536636 0
-0.035770837 -2.1539099 -0.090531327 0
-0.040631894 -2.3079786 -0.084442966 0
-0.04073121 -2.3111265 -0.053593595 0
-0.041011829 -2.3200204 -0.023302032 0
-0.040973004 -2.31879 0.0079797227 0
-0.041016478 -2.3201678 0.038981117 0
-0.041112494 -2.323211 0.069940761 0
-0.040606264 -2.3071663 0.10100804 0
-0.0046808682 -1.8859093 -0.089620106 0
-0.0054141032 -2.0021636 -0.089808695 0
-0.0063408064 -2.149092 -0.089648046 0
-0.0067275651 -2.2104125 -0.070642732 0
-0.0067331172 -2.2112927 -0.041851673 0
-0.0066899271 -2.2044449 -0.01245462 0
-0.0067464071 -2.2133999 0.015392037 0
-0.0066807042 -2.2029827 0.044466335 0
-0.0067320978 -2.2111313 0.072561532 0
-0.0067903344 -2.2203646 0.10100554 0
0.018004138 -1.8889724 -0.09030164 0
0.020473309 -2.0194173 -0.093089409 0
0.022831885 -2.1440198 -0.08884462 0
0.023887349 -2.1997793 -0.069175459 0
0.023916421 -2.2013152 -0.040708099 0
0.024072666 -2.2095695 -0.012951097 0
0.023820348 -2.1962397 0.016578281 0
0.023910858 -2.2010212 0.044548668 0
0.023875814 -2.1991699 0.072835162 0
0.024079366 -2.2099235 0.10100525 0
0.040760864 -1.889667 -0.090601824 0
0.045555782 -1.9981766 -0.089239366 0
0.052371573 -2.1524184 -0.090377502 0
0.05452653 -2.2011855 -0.069508784 0
0.055029258 -2.2125621 -0.042136703 0
0.054564703 -2.2020493 -0.01233921 0
0.054813482 -2.207679 0.015710557 0
0.055144593 -2.2151721 0.043844294 0
0.054789357 -2.2071331 0.072627425 0
0.05470255 -2.2051687 0.10100514 0
0.063657723 -1.8911418 -0.091191016 0
0.072666161 -2.0207493 -0.093774237 0
0.081549421 -2.148556 -0.090015806 0
0.08557041 -2.2064073 -0.070489131 0
0.084936216 -2.197283 -0.040552083 0
0.085229784 -2.2015066 -0.012451081 0
0.084520146 -2.1912968 0.016736211 0
0.085096799 -2.1995933 0.044489317 0
0.084450781 -2.1902988 0.072979093 0
0.084937647 -2.1973035 0.10100497 0
0.085500017 -1.8798717 -0.089183651 0
0.097530596 -2.006628 -0.091506921 0
0.1103282 -2.1414661 -0.0892419 0
0.1162686 -2.2040553 -0.070513107 0
0.11523563 -2.1931717 -0.040363271 0
0.11592676 -2.2004535 -0.012587851 0
0.11685912 -2.2102771 0.015228452 0
0.11524957 -2.1933186 0.044665471 0
0.11547934 -2.1957395 0.072793901 0
0.11646414 -2.2061155 0.10100529 0
0.10844397 -1.8816125 -0.090073667 0
0.12360206 -2.0074701 -0.092190288 0
0.13942309 -2.1388321 -0.089323319 0
0.14751759 -2.2060406 -0.071260624 0
0.14766647 -2.2072766 -0.042408157 0
0.14574267 -2.1913033 -0.012036523 0
0.14642167 -2.1969411 0.015934246 0
0.14675279 -2.1996903 0.044213519 0
0.14687064 -2.2006688 0.072601818 0
0.14610626 -2.1943221 0.10100505 0
0.13108118 -1.8796935 -0.090304933 0
0.14780654 -1.9941554 -0.090306439 0
0.16892986 -2.138715 -0.089944892 0
0.17979264 -2.2130558 -0.072837137 0
0.17659862 -2.1911972 -0.040991906 0
0.17903247 -2.2078536 -0.013978383 0
0.17777589 -2.1992538 0.015484402 0
0.17794758 -2.200429 0.043987587 0
0.17747451 -2.1971915 0.072587967 0
0.17837434 -2.2033494 0.10100543 0
0.15435208 -1.8810498 -0.091366626 0
0.17239836 -1.985973 -0.089511819 0
0.19752602 -2.1320682 -0.089604162 0
0.20946747 -2.2014973 -0.071887828 0
0.20996109 -2.2043672 -0.043124605 0
0.20962721 -2.202426 -0.013926586 0
0.20849371 -2.1958358 0.015383111 0
0.20881845 -2.1977239 0.043886229 0
0.21045215 -2.2072225 0.072237186 0
0.20914112 -2.1995997 0.10100546 0
0.17679977 -1.8768789 -0.091362916 0
0.19822067 -1.985014 -0.090219073 0
0.22807001 -2.1356966 -0.091103904 0
0.2424456 -2.2082663 -0.073666506 0
0.24183132 -2.2051651 -0.043893997 0
0.24117123 -2.201833 -0.014407841 0
0.24057098 -2.1988029 0.014771121 0
0.2418502 -2.2052605 0.043261405 0
0.24082674 -2.200094 0.072271682 0
0.24072231 -2.1995668 0.10100562 0
0.20071091 -1.8791656 -0.092889078 0
0.22352138 -1.9807916 -0.090425886 0
0.2557773 -2.1244993 -0.090244435 0
0.27423477 -2.2067316 -0.074378885 0
0.27279797 -2.2003303 -0.044089157 0
0.27256706 -2.1993017 -0.01478236 0
0.2728458 -2.2005434 0.014185699 0
0.27217048 -2.1975348 0.043321576 0
0.27372465 -2.204459 0.07201428 0
0.2740697 -2.205996 0.10100599 0
0.21843544 -1.8552687 -0.088818349 0
0.24634844 -1.9664242 -0.088787504 0
0.28366062 -2.1150093 -0.089786954 0
0.30448052 -2.1979184 -0.074157067 0
0.30475438 -2.1990089 -0.044802833 0
0.30546919 -2.2018554 -0.015724694 0
0.30401513 -2.1960652 0.013986254 0
0.30486023 -2.1994305 0.042883672 0
0.30627045 -2.2050464 0.071825951 0
0.30690736 -2.2075825 0.10100625 0
0.2407486 -1.8514227 -0.089241154 0
0.27503505 -1.9747027 -0.091677107 0
0.31506091 -2.1186192 -0.091680638 0
0.3373687 -2.1988289 -0.075463019 0
0.33542451 -2.1918383 -0.044909496 0
0.33651459 -2.1957579 -0.015915653 0
0.33846742 -2.2027793 0.012916358 0
0.33732125 -2.1986582 0.042531878 0
0.33644336 -2.1955018 0.071861058 0
0.33593354 -2.1936686 0.10100608 0
0.26140565 -1.8417629 -0.088499822 0
0.2979019 -1.9612261 -0.090446599 0
0.33606833 -2.0861564 -0.087525554 0
0.37095955 -2.2003658 -0.076992668 0
0.36945027 -2.1954255 -0.046425868 0
0.37389651 -2.2099793 -0.018167427 0
0.36929724 -2.1949246 0.012839833 0
0.37111118 -2.2008622 0.041992746 0
0.37264344 -2.2058778 0.071393691 0
0.37119555 -2.2011383 0.10100657 0
0.28719062 -1.8479991 -0.09143018 0
0.32375693 -1.9577054 -0.091296427 0
0.37167707 -2.1014755 -0.091704629 0
0.43016887 -2.2769628 -0.089779355 0
0.52118301 -2.5500233 -0.091303013 0
0.65253115 -2.9440942 -0.09136001 0
0.86543262 -3.5828416 -0.090149574 0
1.3031778 -4.8961654 -0.090749957 0
3.2870924 -10.848309 -0.14065395 0
0.30799443 -1.8383718 -0.090948157 0
0.34791037 -1.9487612 -0.091197945 0
0.39414492 -2.0766251 -0.089058138 0
0.46146193 -2.2627935 -0.089341484 0
0.55905008 -2.5326786 -0.090840377 0
0.69876665 -2.9190714 -0.090569846 0
0.9319523 -3.5639579 -0.090428583 0
1.4018751 -4.8635521 -0.090823554 0
3.5370243 -10.768412 -0.14080611 0
0.32788059 -1.8266685 -0.090106942 0
0.37192354 -1.9394852 -0.091154061 0
0.42676413 -2.0799603 -0.091457851 0
0.49050444 -2.2432323 -0.088204347 0
0.59498698 -2.5108659 -0.089931957 0
0.75140607 -2.9115362 -0.09164051 0
1.003594 -3.5575199 -0.091769762 0
1.5009828 -4.8315892 -0.091054268 0
3.7779284 -10.664024 -0.14050518 0
0.35278133 -1.8273897 -0.092236124 0
0.39396462 -1.9254993 -0.09027078 0
0.45414001 -2.0688529 -0.091454811 0
0.52847522 -2.245939 -0.090560265 0
0.63334644 -2.49577 -0.089979611 0
0.79720074 -2.8861141 -0.09104567 0
1.0642476 -3.5222902 -0.091078691 0
1.5973804 -4.7923532 -0.091045879 0
4.0249586 -10.575486 -0.14075325 0
0.37156859 -1.8132513 -0.091071852 0
0.41784236 -1.9161338 -0.090445913 0
0.47904897 -2.052217 -0.090579279 0
0.55657995 -2.2245951 -0.089383848 0
0.6704517 -2.4777713 -0.089779206 0
0.84650987 -2.8692091 -0.091433413 0
1.1288919 -3.4970415 -0.091261514 0
1.6916282 -4.748198 -0.090909816 0
4.2685733 -10.477634 -0.14092481 0
0.39062345 -1.8002741 -0.090278469 0
0.44320762 -1.9097182 -0.091364823 0
0.50508934 -2.0385134 -0.090341695 0
0.59701848 -2.2298467 -0.092449613 0
0.70429122 -2.4531147 -0.088833831 0
0.88996911 -2.8395684 -0.090635143 0
1.1905384 -3.465147 -0.091056921 0
1.784743 -4.7018719 -0.090782113 0
4.5079031 -10.369619 -0.14099397 0
0.41155431 -1.7913432 -0.090555094 0
0.46489203 -1.8955362 -0.090786956 0
0.53199869 -2.0266261 -0.090557016 0
0.61775768 -2.1941528 -0.089250974 0
0.74126172 -2.4354126 -0.088900693 0
0.93514675 -2.8141589 -0.090384506 0
1.2534984 -3.4360454 -0.09119048 0
1.8804389 -4.6607471 -0.091046907 0
4.7411995 -10.249123 -0.1408948 0
0.43284273 -1.7829016 -0.091081001 0
0.48867545 -1.8855009 -0.091206886 0
0.56094688 -2.0183082 -0.091569372 0
0.6456781 -2.1740117 -0.088579737 0
0.78013194 -2.4210865 -0.08954104 0
0.98535728 -2.7982123 -0.091256373 0
1.3101305 -3.3950214 -0.090502612 0
1.9684739 -4.604805 -0.090657227 0
4.9743824 -10.128517 -0.14094624 0
0.4542588 -1.7744026 -0.091731451 0
0.51053602 -1.8718774 -0.090982251 0
0.58393824 -1.9990137 -0.090651162 0
0.67617363 -2.1587696 -0.088807158 0
0.8138389 -2.3972123 -0.089033671 0
1.0232859 -2.7599843 -0.089875124 0
1.3713505 -3.3628488 -0.090633743 0
2.599421 -5.4899249 -0.14096881 0
5.1954575 -9.9863834 -0.14057735 0
0.47121021 -1.7582786 -0.09062589 0
0.53094429 -1.855963 -0.090369202 0
0.6035555 -1.9747056 -0.088863842 0
0.70916855 -2.1474166 -0.089804627 0
0.84922522 -2.3764541 -0.08906097 0
1.0663903 -2.7315884 -0.089652143 0
1.4272588 -3.3217239 -0.090159036 0
2.7097173 -5.4189539 -0.14075179 0
5.4232922 -9.8565168 -0.14068799 0
0.49304509 -1.7501622 -0.091636665 0
0.55530071 -1.8464257 -0.091291152 0
0.63844198 -1.9749838 -0.091955461 0
0.73829418 -2.1293814 -0.089838408 0
0.89016581 -2.3642144 -0.090397723 0
1.1225557 -2.7235496 -0.091808341 0
1.4925359 -3.2956357 -0.091044925 0
2.8186796 -5.3461995 -0.14058548 0
5.6464987 -9.7187452 -0.14073955 0
0.511666 -1.7368898 -0.091478415 0
0.57900196 -1.8354625 -0.092042945 0
0.65690982 -1.9495111 -0.090149201 0
0.76294398 -2.1047337 -0.088871457 0
0.92667919 -2.3444242 -0.090834059 0
1.1612922 -2.6878722 -0.09103664 0
1.5497746 -3.2565687 -0.090985723 0
2.9329345 -5.2813649 -0.14101654 0
5.8700099 -9.5809259 -0.14094794 0
0.52762175 -1.7199593 -0.090480797 0
0.59196997 -1.8092355 -0.089402281 0
0.67962205 -1.9308432 -0.089782052 0
0.8023898 -2.1011703 -0.091646172 0
0.95604819 -2.3143549 -0.089929081 0
1.2042965 -2.6587727 -0.091119148 0
1.6051129 -3.2148623 -0.090821408 0
3.0355341 -5.1994181 -0.14063755 0
6.0749245 -9.4162455 -0.14055061 0
0.53839397 -1.6965741 -0.0878473 0
0.61087823 -1.7919683 -0.088906787 0
0.70521474 -1.9161218 -0.090339638 0
0.82883394 -2.0788133 -0.091331534 0
0.98961252 -2.2904091 -0.090013258 0
1.2462823 -2.6282041 -0.091157146 0
1.6599694 -3.1726453 -0.090730585 0
3.1380973 -5.1179643 -0.14043006 0
6.2932353 -9.2703447 -0.14084361 0
0.5653218 -1.69435 -0.090994917 0
0.63694662 -1.7838331 -0.090718351 0
0.73101586 -1.9013569 -0.091034092 0
0.85743868 -2.0593011 -0.091641583 0
1.0169607 -2.2585971 -0.089047156 0
1.2821766 -2.5899398 -0.090401255 0
1.7060007 -3.119437 -0.089776449 0
3.2521665 -5.0511117 -0.14124192 0
6.4976144 -9.1057549 -0.1407485 0
0.5850392 -1.6823877 -0.09169019 0
0.65397996 -1.7641979 -0.089896657 0
0.75214809 -1.8806918 -0.090613879 0
0.88416964 -2.0373583 -0.091642939 0
1.0592967 -2.2451773 -0.090975754 0
1.3209258 -2.5556459 -0.090223245 0
1.7673413 -3.0853961 -0.090659283 0
3.3411412 -4.9529853 -0.14034073 0
6.6932979 -8.9309063 -0.14049466 0
0.59727436 -1.6617174 -0.090067051 0
0.67672265 -1.7513082 -0.090861551 0
0.7863903 -1.8749763 -0.093584009 0
0.9082613 -2.0124056 -0.091204308 0
1.0877819 -2.214844 -0.090471067 0
1.3566043 -2.5179849 -0.089741863 0
1.8222258 -3.0430486 -0.090929039 0
3.4429038 -4.870626 -0.14053847 0
6.894372 -8.7627153 -0.14059384 0
0.61971992 -1.6525353 -0.091833688 0
0.69702822 -1.7354033 -0.091218926 0
0.79633093 -1.8418473 -0.09065526 0
0.92516065 -1.9799418 -0.08942721 0
1.1038783 -2.1715119 -0.087990291 0
1.410116 -2.4997728 -0.091845341 0
1.8645909 -2.9869313 -0.090019651 0
3.5423861 -4.7853856 -0.14071921 0
7.089396 -8.5874796 -0.1406309 0
0.63953376 -1.6400517 -0.092828102 0
0.71476132 -1.7167165 -0.090984844 0
0.82205099 -1.826056 -0.091702409 0
0.96384954 -1.9705637 -0.092233963 0
1.1432385 -2.1533797 -0.089639433 0
1.4451206 -2.4610295 -0.091491155 0
1.9203256 -2.9453132 -0.090611123 0
3.6286607 -4.6862869 -0.14016239 0
7.2850738 -8.4125566 -0.14083755 0
0.65650183 -1.6244618 -0.093050696 0
0.73311973 -1.6987002 -0.091045685 0
0.83649057 -1.7988608 -0.090235181 0
0.9799974 -1.9379108 -0.090608992 0
1.1775438 -2.1293221 -0.090501599 0
1.4757059 -2.4182243 -0.090699859 0
1.962516 -2.8899159 -0.089973442 0
3.7283616 -4.6009212 -0.14065355 0
7.4706159 -8.2269554 -0.14085583 0
0.66725093 -1.6030513 -0.091585986 0
0.75103158 -1.6802281 -0.091108672 0
0.86193371 -1.7823887 -0.091415696 0
1.0035915 -1.9128807 -0.090603493 0
1.214515 -2.1071784 -0.091865249 0
1.5204704 -2.3890176 -0.091864951 0
2.5438411 -3.3317237 -0.14072981 0
3.8094263 -4.4975519 -0.14009188 0
7.6430345 -8.0289841 -0.14060873 0
0.68450052 -1.5877752 -0.092144243 0
0.7675212 -1.6604666 -0.090932272 0
0.87753063 -1.7567887 -0.090511404 0
1.0230366 -1.884191 -0.089942463 0
1.226323 -2.0621848 -0.089378066 0
1.5304379 -2.3284621 -0.088780098 0
2.6112337 -3.2747869 -0.14157543 0
3.9124856 -4.4141388 -0.14106677 0
7.8262377 -7.8409467 -0.1408565 0
0.69035113 -1.5628244 -0.089646809 0
0.78226489 -1.6392926 -0.090455316 0
0.90028638 -1.7374815 -0.091296054 0
1.0466737 -1.8592693 -0.090195335 0
1.2425629 -2.0222406 -0.087790824 0
1.5644155 -2.2900083 -0.088862158 0
2.6576304 -3.1995163 -0.14062624 0
3.9903769 -4.3083038 -0.14062615 0
7.9860811 -7.6325579 -0.14053774 0
0.7084679 -1.5483023 -0.090693988 0
0.80188566 -1.6221142 -0.091288142 0
0.9148376 -1.7113606 -0.090449817 0
1.0742027 -1.8372792 -0.091254152 0
1.2706786 -1.9925202 -0.088155575 0
1.5997283 -2.2525113 -0.089218117 0
2.7194273 -3.1372161 -0.14123893 0
4.0760188 -4.2090955 -0.14081423 0
8.154995 -7.4320049 -0.14065151 0
0.72225434 -1.5302041 -0.090669371 0
0.81766158 -1.6017531 -0.091303252 0
0.92520207 -1.6824013 -0.088896118 0
1.0940355 -1.809015 -0.09103968 0
1.3117768 -1.9723064 -0.090520717 0
1.6313285 -2.2119486 -0.089245759 0
2.7670987 -3.0637002 -0.14074455 0
4.156642 -4.1057644 -0.14085391 0
8.3165932 -7.2254486 -0.14069913 0
0.73317689 -1.5100584 -0.090018414 0
0.83472955 -1.5822859 -0.091736607 0
0.94430178 -1.6602172 -0.089280538 0
1.1048692 -1.7744178 -0.089401223 0
1.3257998 -1.9315507 -0.089034595 0
1.6786771 -2.1825283 -0.091195099 0
2.8182631 -2.9930384 -0.14071929 0
4.2341614 -4.0000706 -0.14086595 0
8.4755993 -7.0167165 -0.14082205 0
0.75222123 -1.4955547 -0.091591723 0
0.8329736 -1.5499735 -0.087999828 0
0.96735668 -1.6405337 -0.090554319 0
1.1284748 -1.7491106 -0.090104111 0
1.3433815 -1.8939353 -0.088221304 0
1.6982825 -2.1331017 -0.09007325 0
2.8681111 -2.9214447 -0.14073519 0
4.3056059 -3.8901665 -0.14068782 0
8.6280575 -6.8030491 -0.14090836 0
0.76315433 -1.4754176 -0.091188036 0
0.86524248 -1.5405303 -0.092107542 0
0.98521256 -1.6170484 -0.090891965 0
1.1555307 -1.7256787 -0.091478236 0
1.3719262 -1.8636976 -0.089073427 0
1.7338153 -2.0945137 -0.090871878 0
2.9149494 -2.8478518 -0.14065234 0
4.3828526 -3.7840934 -0.14098741 0
8.7727613 -6.5840158 -0.14092943 0
0.77603513 -1.4565495 -0.091401003 0
0.87830245 -1.518203 -0.091981478 0
1.0023782 -1.5930039 -0.091206692 0
1.1734654 -1.6961464 -0.091432698 0
1.4112515 -1.8394994 -0.091488875 0
1.7637693 -2.0520201 -0.091157414 0
2.97241 -2.7806675 -0.1415907 0
4.4446673 -3.6682401 -0.14059025 0
8.9029341 -6.3559737 -0.14070696 0
0.78758568 -1.4368497 -0.091402926 0
0.88338661 -1.4913576 -0.09025187 0
1.0025845 -1.5591774 -0.088425688 0
1.1928695 -1.6674436 -0.091746844 0
1.4163617 -1.7946037 -0.089351885 0
1.7854954 -2.0046294 -0.090671323 0
2.9987981 -2.6949608 -0.14015383 0
4.5216432 -3.5614123 -0.14116861 0
9.0343266 -6.1289883 -0.14067537 0
0.79704499 -1.416012 -0.091021262 0
0.90351486 -1.4730833 -0.091906272 0
1.0280533 -1.5398399 -0.090553157 0
1.2161434 -1.6406623 -0.092790104 0
1.4497365 -1.7658757 -0.091142915 0
1.8060681 -1.9568809 -0.090197168 0
3.0463939 -2.6217358 -0.14059123 0
4.5824208 -3.4450958 -0.14102703 0
9.1643896 -5.9011788 -0.14076135 0
0.80097991 -1.3924752 -0.089455448 0
0.90807581 -1.4464489 -0.090354286 0
1.0383383 -1.512098 -0.08994969 0
1.2363721 -1.6119021 -0.093448065 0
1.4674706 -1.72837 -0.090959884 0
1.8331673 -1.9126719 -0.090537988 0
3.0831873 -2.5426509 -0.14032309 0
4.6459041 -3.3302212 -0.14118238 0
9.286582 -5.6690068 -0.14079203 0
0.81368411 -1.3734791 -0.090110518 0
0.92592746 -1.4265391 -0.091730528 0
1.0556917 -1.4878817 -0.090766437 0
1.2362431 -1.5732324 -0.09104722 0
1.4967941 -1.696401 -0.09240035 0
1.8698038 -1.8727312 -0.091975354 0
3.124069 -2.4656513 -0.14052956 0
4.6948209 -3.2081821 -0.140736 0
9.4023533 -5.4335408 -0.14080882 0
0.82437789 -1.3534081 -0.090403147 0
0.93374944 -1.4017731 -0.091130055 0
1.0678308 -1.4610649 -0.090747572 0
1.2507159 -1.5419382 -0.091067605 0
1.4985629 -1.6515381 -0.090407319 0
1.8781657 -1.8194016 -0.09061458 0
3.1608965 -2.3866355 -0.14057328 0
4.751709 -3.0901058 -0.14085805 0
9.5015945 -5.1905432 -0.14055718 0
0.83214599 -1.3320398 -0.090137191 0
0.94679803 -1.3793186 -0.09172868 0
1.0685823 -1.4295382 -0.088825412 0
1.2567255 -1.5071224 -0.089921989 0
1.5082771 -1.6108538 -0.089583285 0
1.8936775 -1.7697802 -0.090126418 0
3.1982174 -2.307729 -0.14080547 0
4.8044081 -2.9700685 -0.14091878 0
9.6052532 -4.9497766 -0.14057432 0
0.83452231 -1.308658 -0.088769831 0
0.94718683 -1.3518243 -0.089882933 0
1.0840933 -1.4042786 -0.089660205 0
1.2698963 -1.4754672 -0.089998014 0
1.5277051 -1.574244 -0.090112098 0
1.9214183 -1.7250913 -0.090991117 0
3.2285929 -2.2259223 -0.14066531 0
4.8517318 -2.8478117 -0.14086273 0
9.7096434 -4.7090721 -0.14076157 0
0.8435384 -1.2879589 -0.08904577 0
0.95429105 -1.3272177 -0.089534916 0
1.0961378 -1.3774985 -0.089994781 0
1.2741114 -1.4405854 -0.088857748 0
1.5569613 -1.5408481 -0.091970019 0
1.9398965 -1.6765884 -0.091043077 0
3.252219 -2.1417718 -0.14017965 0
4.8901873 -2.7223876 -0.14052229 0
9.791296 -4.4596996 -0.14053686 0
0.85903066 -1.2692889 -0.090884782 0
0.97309387 -1.3065094 -0.091631107 0
1.1032863 -1.3489932 -0.08959756 0
1.2902383 -1.4099983 -0.089618407 0
1.5603709 -1.4981467 -0.090739258 0
1.9447722 -1.6235825 -0.089879788 0
3.2863061 -2.0613449 -0.14062411 0
4.9283953 -2.597183 -0.14032823 0
9.8966112 -4.2183857 -0.14104728 0
0.86849713 -1.248349 -0.091478206 0
0.97212988 -1.2792954 -0.089929156 0
1.1098068 -1.320408 -0.089219503 0
1.2981914 -1.3766627 -0.089288227 0
1.5580996 -1.4542756 -0.088956766 0
1.9605696 -1.5744598 -0.089919962 0
3.3193557 -1.9802158 -0.14113823 0
4.985774 -2.4778357 -0.14122117 0
9.9622612 -3.9638965 -0.14073975 0
0.87146807 -1.2254856 -0.090753786 0
0.98256344 -1.2556294 -0.090597726 0
1.1265961 -1.2947102 -0.090716027 0
1.3096825 -1.3443874 -0.089598425 0
1.5751251 -1.4164106 -0.089657836 0
1.958506 -1.5204343 -0.088352762 0
3.3389082 -1.8949823 -0.14082001 0
5.0118561 -2.3489075 -0.14074416 0
10.039489 -3.7130675 -0.14086857 0
0.88725007 -1.2059156 -0.092963792 0
0.99807435 -1.2330033 -0.092362843 0
1.1323447 -1.2658215 -0.090445481 0
1.3378572 -1.3160528 -0.092438631 0
1.576315 -1.3743366 -0.088564716 0
1.9889575 -1.4751945 -0.090050973 0
3.3565829 -1.8094691 -0.14052393 0
5.0443783 -2.2219994 -0.14073522 0
10.106032 -3.4591672 -0.14089289 0
0.87144423 -1.1789128 -0.08839763 0
0.98896074 -1.2045122 -0.089481868 0
1.1408155 -1.2375917 -0.090757303 0
1.3162233 -1.275802 -0.088202395 0
1.6101327 -1.3398263 -0.091507725 0
1.9789346 -1.4201649 -0.087982796 0
3.3823733 -1.7258856 -0.14096501 0
5.0781827 -2.0952954 -0.14094046 0
10.172168 -3.2049527 -0.14106028 0
0.89929622 -1.1613612 -0.093450077 0
1.0048445 -1.1815784 -0.091546915 0
1.1459215 -1.2086009 -0.090624116 0
1.3452374 -1.2467788 -0.091379546 0
1.615334 -1.2985144 -0.091135167 0
2.5508471 -1.477707 -0.14136241 0
3.3954082 -1.6394782 -0.14064658 0
5.0992241 -1.9658351 -0.1406917 0
10.21463 -2.9456639 -0.14081876 0
0.89813524 -1.1377774 -0.092326157 0
0.99908572 -1.1544853 -0.089582272 0
1.144774 -1.1785976 -0.089571886 0
1.3300049 -1.2092544 -0.088345282 0
1.622932 -1.2577354 -0.091171883 0
2.5623701 -1.4132177 -0.14136352 0
3.3913913 -1.5504253 -0.13927606 0
5.1253357 -1.8374027 -0.14083777 0
10.25696 -2.6867151 -0.14072968 0
0.89999521 -1.1148703 -0.091982581 0
1.0099317 -1.1302266 -0.090912707 0
1.1452883 -1.1491337 -0.088925056 0
1.3430445 -1.1767569 -0.089468099 0
1.6232864 -1.2159019 -0.090475358 0
2.5677364 -1.3478255 -0.14093806 0
3.4243762 -1.4674836 -0.14068121 0
5.1457586 -1.7079316 -0.14086859 0
10.299693 -2.4278491 -0.14080411 0
0.9012059 -1.0919566 -0.091624968 0
1.0073572 -1.1040623 -0.089811452 0
1.1551179 -1.1209131 -0.089944161 0
1.3554561 -1.1437602 -0.090615071 0
1.6223909 -1.174202 -0.089758225 0
2.5908091 -1.2846423 -0.14233255 0
3.4364154 -1.3810771 -0.14075606 0
5.1628613 -1.5779644 -0.14089711 0
10.316523 -2.1656983 -0.14042529 0
0.90502578 -1.0693444 -0.091948502 0
1.0024519 -1.0779713 -0.088396944 0
1.1378762 -1.0899628 -0.086612068 0
1.1373154 -1.0899132 -0.059349764 0
1.6370686 -1.1341654 -0.090993531 0
2.5888379 -1.2184429 -0.14152682 0
3.4613309 -1.2957004 -0.14188768 0
5.1650777 -1.4465641 -0.14038332 0
10.363249 -1.9068524 -0.14089978 0
0.90067852 -1.0461248 -0.09065371 0
1.0150502 -1.0533495 -0.090412475 0
1.1349945 -1.0609261 -0.08577884 0
1.1261339 -1.0603664 -0.057468686 0
1.6310058 -1.0922581 -0.089916475 0
2.5856316 -1.1525599 -0.14076325 0
3.4507496 -1.2072076 -0.1406821 0
5.1944151 -1.3173513 -0.14129032 0
10.377007 -1.6447251 -0.1407578 0
0.90312576 -1.0234555 -0.090930186 0
1.018854 -1.027838 -0.090885662 0
1.1380384 -1.0323514 -0.086041577 0
1.1233497 -1.0317951 -0.056875307 0
1.630159 -1.0509872 -0.089574285 0
2.5920081 -1.087411 -0.14105093 0
3.4639771 -1.1204313 -0.14129968 0
5.181005 -1.1854527 -0.14035699 0
10.397958 -1.3830112 -0.14093736 0
0.9113878 -1.0007795 -0.092564337 0
1.0132022 -1.0020641 -0.089698903 0
1.1296647 -1.0035336 -0.084546156 0
1.1307667 -1.0035475 -0.057817254 0
1.1370783 -1.0036272 -0.03182039 0
1.121887 -1.0034355 -0.0036643052 0
1.1315986 -1.003558 0.021922814 0
1.1261086 -1.0034888 0.048585989 0
1.1382126 -1.0036415 0.074526995 0
1.1337192 -1.0035847 0.10100274 0
1.1319124 -1.003562 0.12733191 0
1.1306654 -1.0035462 0.15363161 0
1.1295069 -1.0035316 0.17993651 0
1.1317633 -1.0035601 0.20659216 0
1.1247419 -1.0034715 0.23238434 0
1.1265996 -1.003495 0.25923789 0
1.1334451 -1.0035813 0.28717473 0
1.150453 -1.0037959 0.31756103 0
0.9069795 -0.97786081 -0.091627233 0
1.0273848 -0.97634161 -0.092370413 0
1.1278797 -0.97507364 -0.084252767 0
1.1258017 -0.97509986 -0.057119433 0
1.6421195 -0.96858519 -0.090850942 0
2.5931346 -0.95658576 -0.141002 0
3.4579871 -0.94567353 -0.14072664 0
5.1963263 -0.92374003 -0.14091668 0
10.397178 -0.8581183 -0.14076521 0
0.91337007 -0.95474124 -0.093109302 0
1.0183549 -0.95076561 -0.090791591 0
1.1338613 -0.94639152 -0.085354559 0
1.1287062 -0.94658673 -0.057628635 0
1.6338786 -0.92745662 -0.090009309 0
2.5845184 -0.8914572 -0.14035136 0
3.4588592 -0.85834718 -0.14094163 0
5.1897726 -0.79279995 -0.14076546 0
10.394689 -0.59569728 -0.1408613 0
0.90856022 -0.93196201 -0.0923324 0
1.021127 -0.92485142 -0.091559343 0
1.1416473 -0.91723835 -0.086874403 0
1.1217865 -0.91849291 -0.056856502 0
1.6393795 -0.88579768 -0.090897091 0
2.5925479 -0.82558793 -0.1414101 0
3.4531035 -0.77122837 -0.140847 0
5.1741357 -0.66251433 -0.14034435 0
10.383075 -0.33347639 -0.14089917 0
0.89392644 -0.91022313 -0.089579977 0
1.0203823 -0.89902568 -0.091787361 0
1.1559889 -0.88701797 -0.08960057 0
1.3462644 -0.8701694 -0.088829227 0
1.6381744 -0.84432131 -0.091123275 0
2.5895813 -0.76007599 -0.14159647 0
3.4299536 -0.68566257 -0.13968554 0
5.1755147 -0.5310964 -0.14087111 0
10.364986 -0.071578413 -0.14094034 0
0.8942765 -0.88741839 -0.090142496 0
1.0059327 -0.87468487 -0.089541413 0
1.1510704 -0.85813308 -0.089274637 0
1.3454167 -0.83596945 -0.089195035 0
1.6326563 -0.80321205 -0.090965755 0
2.5748534 -0.69576198 -0.14083359 0
3.4355206 -0.59760976 -0.1406931 0
5.1564922 -0.40134665 -0.14059867 0
10.326178 0.18821469 -0.14065123 0
0.90567988 -0.86292028 -0.093202658 0
1.0008911 -0.84962088 -0.089193381 0
1.1484463 -0.82900989 -0.089449115 0
1.3442823 -0.80165493 -0.089643739 0
1.6242969 -0.76254165 -0.090594612 0
2.5676532 -0.63077074 -0.14093021 0
3.4246511 -0.51106262 -0.14070061 0
5.1408234 -0.27134243 -0.14063659 0
10.297908 0.44901505 -0.14076221 0
0.89686656 -0.84101719 -0.092052825 0
1.0078629 -0.82264668 -0.091257952 0
1.1471242 -0.79959816 -0.089963414 0
1.3561996 -0.76499498 -0.092076622 0
1.6146148 -0.72222584 -0.090186618 0
2.5523419 -0.56702673 -0.14041476 0
3.4039056 -0.42608824 -0.14016283 0
5.1197281 -0.14211002 -0.14057316 0
10.262061 0.70897466 -0.14084989 0
0.88639724 -0.81969428 -0.090658389 0
0.99897867 -0.79812986 -0.090421997 0
1.1269506 -0.77361757 -0.087449543 0
1.3336127 -0.73403251 -0.089716174 0
1.3423654 -0.73235601 -0.058652449 0
1.3435829 -0.73212278 -0.026627382 0
1.3523602 -0.73044151 0.0047782827 0
1.3445587 -0.73193586 0.037283164 0
1.3415506 -0.73251206 0.069234766 0
1.339723 -0.73286211 0.10100931 0
0.87570173 -0.7987445 -0.089323841 0
1.004838 -0.77061385 -0.092542492 0
1.1243935 -0.74457026 -0.08799503 0
1.2030663 -0.72743243 -0.071926989 0
1.2068361 -0.7266112 -0.043267746 0
1.2044278 -0.72713584 -0.013994684 0
1.2090787 -0.72612274 0.014531853 0
1.1945897 -0.72927892 0.044098884 0
1.2089143 -0.7261585 0.072226614 0
1.210216 -0.72587496 0.10100573 0
0.87127662 -0.77657336 -0.089468502 0
0.98327041 -0.74919987 -0.089492418 0
1.1355996 -0.71196765 -0.090996169 0
1.2090852 -0.69400626 -0.073808961 0
1.2116252 -0.69338542 -0.044687528 0
1.2106415 -0.69362593 -0.015264137 0
1.2126883 -0.69312561 0.013766529 0
1.2030858 -0.69547266 0.043359093 0
1.2041224 -0.69521928 0.072173201 0
1.1982061 -0.69666535 0.10100558 0
0.87278229 -0.75274247 -0.091043226 0
0.99450988 -0.71971381 -0.092929207 0
1.1224403 -0.68500215 -0.090008326 0
1.2036519 -0.66296679 -0.074158691 0
1.2004104 -0.66384637 -0.04428022 0
1.2015493 -0.66353732 -0.015143512 0
1.2070534 -0.66204387 0.013605477 0
1.2045715 -0.66271734 0.042911362 0
1.2075226 -0.66191655 0.071903311 0
1.2009982 -0.66368687 0.1010059 0
0.86596465 -0.73099196 -0.090916403 0
0.97011274 -0.69989163 -0.089532651 0
1.105008 -0.65960968 -0.088396378 0
1.2105678 -0.62808776 -0.076436751 0
1.197379 -0.63202614 -0.04495861 0
1.2052898 -0.62966388 -0.016345775 0
1.2023005 -0.63055652 0.013321811 0
1.2073139 -0.62905949 0.042359166 0
1.2087762 -0.62862277 0.071663141 0
1.2040505 -0.63003391 0.10100624 0
0.84793246 -0.71291727 -0.088403292 0
0.95726037 -0.67724198 -0.088494085 0
1.1140593 -0.62607616 -0.091459997 0
1.2097976 -0.59483534 -0.077727057 0
1.2045009 -0.59656376 -0.046989176 0
1.2026217 -0.59717697 -0.017012341 0
1.2121222 -0.59407675 0.011905821 0
1.2099262 -0.59479338 0.041767333 0
1.2059811 -0.59608072 0.071499534 0
1.2079682 -0.59543228 0.10100664 0
0.85038936 -0.68819737 -0.090590812 0
0.95430154 -0.65136331 -0.089537002 0
1.1027013 -0.59875959 -0.091139264 0
1.2147199 -0.55905199 -0.0800023 0
1.2007133 -0.56401694 -0.047795717 0
1.2091435 -0.56102866 -0.01867584 0
1.2086178 -0.56121498 0.011397535 0
1.2146729 -0.55906862 0.041022234 0
1.2088469 -0.5611338 0.071174644 0
