# .PCD v0.7 - Point Cloud Data file format
VERSION 0.7
FIELDS x y z intensity
SIZE 4 4 4 4
TYPE F F F F
COUNT 1 1 1 1
WIDTH 1348
HEIGHT 1
VIEWPOINT 0 0 0 1 0 0 0
POINTS 1348
DATA ascii
-0.073926665 2.7234099 0.52054507 0
-0.073649712 2.7242515 0.64671516 0
-0.085218616 2.752363 -0.050075922 0
-0.090128489 2.7367861 0.40256831 0
-0.095181771 2.7207544 0.51753587 0
-0.093128748 2.7272677 0.64543092 0
-0.10584072 2.752475 -0.049862832 0
-0.11310545 2.7283728 0.39878994 0
-0.11301086 2.7286868 0.51831019 0
-0.11139659 2.7340424 0.64588302 0
-0.12633269 2.752507 -0.049657211 0
-0.10903398 2.812628 0.063890696 0
-0.10317985 2.832974 0.1825399 0
-0.10783855 2.8167827 0.29922041 0
-0.12858649 2.744674 0.40166342 0
-0.13127817 2.7353191 0.51870966 0
-0.13447209 2.7242188 0.63928175 0
-0.1401097 2.7764962 -0.050348725 0
-0.13414265 2.7982624 0.063154474 0
-0.13409068 2.7984519 0.17806956 0
-0.13329567 2.8013518 0.29529941 0
-0.14811541 2.7472939 0.40095937 0
-0.14851116 2.7458503 0.52053213 0
-0.15228771 2.7320745 0.64041817 0
-0.16330965 2.7662807 -0.049782429 0
-0.15620224 2.7935483 0.062788442 0
-0.15657561 2.7921159 0.17678753 0
-0.15528457 2.7970688 0.29352877 0
-0.16876976 2.745333 0.39911482 0
-0.16942985 2.7428005 0.51775414 0
-0.1703182 2.7393923 0.64141673 0
-0.1804543 2.7789044 -0.050068606 0
-0.17664228 2.7943223 0.062635615 0
-0.17816313 2.7881711 0.17580558 0
-0.17749374 2.7908785 0.29146078 0
-0.18776478 2.7493374 0.39891225 0
-0.1870449 2.7522488 0.51935846 0
-0.18958049 2.7419937 0.64049768 0
-0.1970485 2.7947812 -0.050481141 0
-0.19830932 2.7893915 0.062283523 0
-0.19990997 2.7825491 0.17467147 0
-0.19903718 2.7862802 0.28974566 0
-0.20711721 2.7517395 0.39835322 0
-0.20964055 2.7409527 0.51394612 0
-0.20926233 2.7425697 0.63882345 0
-0.22175233 2.7752757 -0.049606588 0
-0.21648116 2.799161 0.062479842 0
-0.21644108 2.7993426 0.17603762 0
-0.21742879 2.794867 0.29052061 0
-0.2266715 2.7529855 0.39755738 0
-0.23056649 2.7353361 0.51058078 0
-0.23218389 2.7280071 0.63084036 0
-0.23970567 2.7852793 -0.049821638 0
-0.23491959 2.8083427 0.062662572 0
-0.23668639 2.7998288 0.17563321 0
-0.23422022 2.811713 0.2928575 0
-0.24742357 2.7480879 0.39522707 0
-0.25207636 2.7256665 0.50593686 0
-0.2511456 2.7301519 0.63006508 0
-0.25735199 2.7976732 -0.050131321 0
-0.25113997 2.8296251 0.063293405 0
-0.25351 2.8174345 0.17713203 0
-0.25208652 2.8247564 0.29452899 0
-0.26686639 2.7487352 0.39441171 0
-0.26953486 2.7350099 0.50784004 0
-0.27115664 2.7266681 0.62701851 0
-0.27772301 2.7962866 -0.049948368 0
-0.26688388 2.8560452 0.064116642 0
-0.26612309 2.8602397 0.18140292 0
-0.2647436 2.8678453 0.30174497 0
-0.28810501 2.7390482 0.39098206 0
-0.28964427 2.730562 0.5051502 0
-0.28934491 2.7322123 0.62788403 0
-0.29530594 2.8106978 -0.050347045 0
-0.30603942 2.7469616 0.39218262 0
-0.31247529 2.708745 0.49669167 0
-0.30945683 2.7266688 0.62418848 0
-0.31496164 2.8136287 -0.050338157 0
-0.32613227 2.7417839 0.39005902 0
-0.32885659 2.7242622 0.5009166 0
-0.32762 2.7322154 0.62525332 0
-0.33427644 2.8189278 -0.050423626 0
-0.34670958 2.7317455 0.38675198 0
-0.34695864 2.7299993 0.50191671 0
-0.34797686 2.7228594 0.62017936 0
-0.35542336 2.8106031 -0.050027251 0
-0.36529499 2.7345421 0.38681909 0
-0.36707139 2.7208552 0.49799928 0
-0.36668628 2.7238226 0.61952913 0
-0.37463441 2.8164451 -0.050150264 0
-0.3852379 2.7258191 0.38398719 0
-0.38640201 2.7158699 0.49556562 0
-0.38681239 2.7123625 0.61379939 0
-0.39554799 2.8068244 -0.049726773 0
-0.40436199 2.7222831 0.38255394 0
-0.4043771 2.7221384 0.49698094 0
-0.40368155 2.7288098 0.61980003 0
-0.41462123 2.8140643 -0.049917676 0
-0.42293701 2.7232258 0.38233158 0
-0.4246681 2.7043159 0.49042189 0
-0.42331725 2.7190721 0.61499518 0
-0.43462184 2.8112974 -0.049758624 0
-0.44205242 2.7170739 0.38035366 0
-0.44186851 2.7194064 0.49493852 0
-0.44280657 2.7075112 0.60954082 0
-0.4547762 2.8045573 -0.049466569 0
-0.46136284 2.7050664 0.37694171 0
-0.46255311 2.6870873 0.48371631 0
-0.4622491 2.6916792 0.60242045 0
-0.47364938 2.8179412 -0.04990327 0
-0.47944698 2.7097094 0.37784839 0
-0.47976416 2.703788 0.48892042 0
-0.48028168 2.6941268 0.60298574 0
-0.49289453 2.8298461 -0.050295398 0
-0.49829629 2.6979241 0.3746179 0
-0.49834713 2.6966829 0.48626733 0
-0.49834689 2.6966884 0.60369217 0
-0.5132097 2.8138673 -0.049700152 0
-0.51682216 2.6863995 0.37151563 0
-0.51677942 2.6879058 0.48313662 0
-0.51694906 2.681921 0.59731483 0
-0.53283542 2.8152134 -0.049732756 0
-0.53478807 2.6911743 0.37263259 0
-0.53511059 2.6706853 0.47727436 0
-0.53492481 2.6824872 0.59738523 0
-0.55247736 2.8196826 -0.04988569 0
-0.55290204 2.6848404 0.37097299 0
-0.5529418 2.6722126 0.47772649 0
-0.55293018 2.6759005 0.59458762 0
-0.57220978 2.8219731 -0.049969681 0
-0.57083291 2.6761589 0.36877239 0
-0.57081091 2.6738315 0.47828376 0
-0.57075101 2.6674857 0.5911268 0
-0.59181148 2.8155015 -0.049749669 0
-0.58882672 2.6800618 0.36984032 0
-0.58825588 2.6541586 0.47183076 0
-0.58836812 2.6592524 0.58783311 0
-0.61213446 2.8342462 -0.050439175 0
-0.60617155 2.6621017 0.36538523 0
-0.60572982 2.6493499 0.47039619 0
-0.60585284 2.6529014 0.58540964 0
-0.63106889 2.8132331 -0.049717255 0
-0.6233784 2.6504781 0.36260173 0
-0.62273335 2.6368272 0.46646482 0
-0.62319487 2.6465945 0.58309418 0
-0.65094274 2.816376 -0.04986725 0
-0.64163297 2.6609013 0.36550635 0
-0.64007205 2.6348341 0.46611112 0
-0.64054126 2.6426704 0.58185595 0
-0.64041889 2.640626 0.70086622 0
-0.67093551 2.8196518 -0.050031099 0
-0.6574688 2.6339734 0.35891795 0
-0.65674925 2.624052 0.46289837 0
-0.6572907 2.6315174 0.57770634 0
-0.65749633 2.6343529 0.69829875 0
-0.69086725 2.8208139 -0.050128397 0
-0.67416698 2.624794 0.46359995 0
-0.67444259 2.6280289 0.57682461 0
-0.6733399 2.6150861 0.68931174 0
-0.7105968 2.8191738 -0.050134305 0
-0.69137186 2.6227884 0.46345729 0
-0.69065815 2.6154978 0.57226992 0
-0.69044185 2.6132882 0.68919593 0
-0.72902769 2.8057277 -0.049725067 0
-0.70664984 2.6034379 0.56799006 0
-0.70716083 2.608057 0.68746006 0
-0.74887079 2.8060586 -0.049819127 0
-0.72196895 2.5880301 0.5623908 0
-0.72349089 2.6003644 0.68458658 0
-0.76867187 2.8055661 -0.049892671 0
-0.73754001 2.5769756 0.67388606 0
-0.78777719 2.8000319 -0.049793374 0
-0.75574815 2.5851274 0.67921025 0
-0.80779642 2.8005605 -0.049921822 0
-0.82874197 2.8058419 -0.050231945 0
-0.84582347 2.7893558 -0.049761649 0
-0.86858165 2.8027861 -0.050387379 0
-0.88658559 2.7918861 -0.05013695 0
-0.90577602 2.786989 -0.050113872 0
-0.92531633 2.7836027 -0.050155055 0
-0.94521135 2.7814822 -0.050252043 0
-0.96197534 2.767375 -0.04991563 0
-0.97988528 2.7582128 -0.049769219 0
-0.99965143 2.7557068 -0.049878366 0
-1.0187144 2.7506478 -0.049901847 0
-1.0397476 2.751641 -0.050161406 0
-1.0595812 2.7484803 -0.050275575 0
-1.0733993 2.7278874 -0.04974027 0
-1.0977916 2.7374091 -0.050353374 0
-1.1095954 2.7124591 -0.049665138 0
-1.1289202 2.707957 -0.049763575 0
-1.1528283 2.7145023 -0.05029783 0
-1.1689132 2.7015564 -0.050091133 0
-1.1908991 2.7024562 -0.0504307 0
-1.1999247 2.6741278 -0.049637675 0
-1.2150477 2.660147 -0.049409926 0
-1.2421281 2.6712725 -0.050183814 0
-1.2571551 2.6570063 -0.049963087 0
-1.2778826 2.6541493 -0.050206605 0
-1.2924221 2.6392593 -0.049975932 0
-1.3076679 2.6259933 -0.049817171 0
-1.329864 2.6252847 -0.05017969 0
-1.3405902 2.6042895 -0.049719058 0
-1.3594795 2.5975933 -0.049855113 0
-1.3760495 2.5869322 -0.049836025 0
-1.3903024 2.572623 -0.049671501 0
-1.402997 2.5561221 -0.049419936 0
-1.429225 2.5602064 -0.050056729 0
-1.4429485 2.5452623 -0.049889475 0
-1.4581462 2.5326099 -0.049828328 0
-1.478124 2.5266314 -0.05006912 0
-1.4991105 2.5217197 -0.050370783 0
-1.5101762 2.5034459 -0.050087176 0
-1.5199585 2.4838519 -0.049747199 0
-1.5446762 2.483227 -0.050278064 0
-1.5549818 2.4645243 -0.049992397 0
-1.5664459 2.4474988 -0.049788125 0
-1.5883713 2.4427474 -0.050168503 0
-1.6026102 2.4289494 -0.050133966 0
-1.6124202 2.4103298 -0.049874607 0
-1.6351117 2.405736 -0.050304033 0
-1.6459383 2.3883398 -0.050119177 0
-1.6595498 2.3739538 -0.050089616 0
-1.6812384 2.367594 -0.050475478 0
-1.6856428 2.3441556 -0.050002731 0
-1.7013264 2.331795 -0.050103303 0
-1.7125612 2.3152478 -0.04999467 0
-1.7228358 2.2979395 -0.049851272 0
-1.7408293 2.2875001 -0.050085653 0
-1.754275 2.272969 -0.050110523 0
-1.7623786 2.2539792 -0.04989586 0
-1.7736712 2.2377586 -0.049840823 0
-1.2299969 1.7981589 0.51895601 0
-1.792727 2.2277007 -0.050148521 0
-1.2230147 1.7787918 0.50855434 0
-1.8010749 2.2091441 -0.049977023 0
-1.2361517 1.7754258 0.51347852 0
-1.8148836 2.1948187 -0.050061055 0
-1.2311368 1.7582204 0.5049454 0
-1.822113 2.1756237 -0.049861725 0
-1.2426509 1.753502 0.50877744 0
-1.8380781 2.1627939 -0.050057169 0
-1.2394992 1.7381787 0.50195527 0
-1.8402973 2.1402996 -0.049661554 0
-1.2389458 1.7249997 0.49720445 0
-1.8639815 2.132566 -0.050204877 0
-1.2408348 1.7137034 0.494358 0
-1.8733208 2.1149886 -0.050135966 0
-1.2366645 1.6985866 0.48734242 0
-1.8702025 2.0895393 -0.049549885 0
-1.2402343 1.6887453 0.48595753 0
-1.8883672 2.0777395 -0.049875338 0
-1.240338 1.6768267 0.48225307 0
-1.8966146 2.0597041 -0.049791396 0
-1.2426323 1.6664073 0.48019674 0
-1.9140879 2.0471249 -0.050098985 0
-1.241729 1.6542187 0.47604963 0
-1.9174833 2.0263021 -0.049833 0
-1.2414041 1.6425589 0.47243142 0
-1.9328336 2.0122778 -0.050066892 0
-1.2402656 1.6306245 0.46838719 0
-1.9429096 1.9952426 -0.050092865 0
-1.9477104 1.9754469 -0.049915165 0
-1.9443036 1.9516612 -0.049420599 0
-1.9689487 1.9419249 -0.050054982 0
-1.9676281 1.919444 -0.049665526 0
-1.9850339 1.9058071 -0.050024323 0
-1.9773504 1.8808205 -0.049408812 0
-1.9889486 1.8645214 -0.049557161 0
-1.9999419 1.8478569 -0.049689334 0
-1.9946592 1.8246303 -0.049203772 0
-1.9978141 1.8049927 -0.04905425 0
-1.9984725 1.7845457 -0.048819877 0
-1.9989198 1.7641962 -0.048588328 0
-2.0047286 1.7458365 -0.048569582 0
-2.0087988 1.7269217 -0.048494354 0
-2.0018847 1.7046347 -0.048017565 0
-2.0029202 1.6850643 -0.047849182 0
-2.004909 1.6658854 -0.047725949 0
-1.9971836 1.6441631 -0.047252789 0
-1.9994415 1.6253511 -0.047159284 0
-2.0010798 1.6064527 -0.047052015 0
-2.0099189 1.5892895 -0.047217607 0
-1.9969714 1.5672677 -0.046594687 0
-1.9968382 1.5483083 -0.04645041 0
-2.0135722 1.5326738 -0.046928249 0
-1.9992075 1.5111543 -0.046284433 0
-1.9921509 1.4912992 -0.045916207 0
-1.999548 1.4739045 -0.046079691 0
-2.0033712 1.4558922 -0.046121966 0
-2.00633 1.4377376 -0.04614123 0
-1.9993192 1.4184316 -0.045810465 0
-2.0014458 1.4002808 -0.045816727 0
-1.9951521 1.3813787 -0.045529399 0
-1.9987499 1.3634255 -0.045605008 0
-1.9980786 1.3451468 -0.045535944 0
-1.9906139 1.3265716 -0.045232307 0
-1.9965245 1.3087134 -0.045415033 0
-2.0059097 1.2908109 -0.045729812 0
-2.0017614 1.272513 -0.045569401 0
-1.9980867 1.2543254 -0.045434121 0
-1.1339201 0.26436791 -0.049924731 0
-0.38361454 0.2643699 0.41435614 0
-0.38486093 0.2643699 0.4907594 0
-1.1324266 0.2446615 -0.049875844 0
-0.39359587 0.25396696 0.41938302 0
-1.1272404 0.22507948 -0.049703926 0
-0.40776604 0.2432038 0.35402828 0
-0.4143827 0.24303712 0.42988515 0
-1.1399513 0.20493925 -0.050180141 0
-0.51078713 0.22871868 0.10745135 0
-0.51659191 0.22849929 0.17729735 0
-1.2398564 0.20116332 0.43298712 0
-1.2312177 0.20148981 0.55991852 0
-1.248862 0.20082295 0.70265895 0
-1.1290947 0.18564765 -0.049823254 0
-0.51683605 0.21651252 0.10815861 0
-0.51479894 0.2166152 0.17706873 0
-1.2340337 0.18035753 0.43173689 0
-1.2331549 0.18040183 0.56087148 0
-1.2510195 0.17950125 0.70394033 0
-1.1285938 0.16595228 -0.049845226 0
-0.50503767 0.20526356 0.10696112 0
-0.50906301 0.20500979 0.17615445 0
-1.236369 0.15915772 0.43263805 0
-1.2355236 0.15921102 0.56205761 0
-1.1286631 0.14619507 -0.049896505 0
-0.50646949 0.19329263 0.10720365 0
-0.51506793 0.19264176 0.17738922 0
-1.2457379 0.13733298 0.43540803 0
-1.2421796 0.13760231 0.5647642 0
-1.1215023 0.12703735 -0.049697626 0
-0.51172578 0.18092479 0.10787532 0
-0.5076592 0.18128416 0.17622496 0
-1.2437345 0.1162354 0.43533868 0
-1.2422884 0.11636319 0.56537801 0
-1.1249738 0.10694281 -0.049888663 0
-0.51327759 0.1687713 0.10816453 0
-0.52097571 0.1679932 0.17884196 0
-1.2429587 0.095017247 0.43565208 0
-1.2330844 0.096015297 0.56296784 0
-1.1286217 0.086689435 -0.050095402 0
-0.51458031 0.15657605 0.040031806 0
-0.50795519 0.1573301 0.10772716 0
-0.51326489 0.15672576 0.17767635 0
-1.2394127 0.074079849 0.43532321 0
-1.2374623 0.074301831 0.56518775 0
-1.1129302 0.068734057 -0.049615689 0
-0.51146424 0.14487232 0.039971214 0
-0.51089215 0.14494474 0.10819939 0
-0.51001799 0.14505538 0.17734613 0
-1.2342776 0.053372938 0.43465292 0
-1.2458346 0.051909972 0.56884241 0
-1.1163776 0.048449133 -0.049833164 0
-0.51051331 0.13290799 0.039993871 0
-0.50556469 0.13359782 0.10779259 0
-0.52257079 0.13122714 0.17991906 0
-1.2460252 0.030375976 0.43839747 0
-1.2333381 0.03214458 0.565588 0
-1.1246504 0.0272712 -0.05023453 0
-0.50677514 0.12134995 0.039921351 0
-0.51547575 0.12002518 0.10905708 0
-0.52044785 0.11926813 0.17985143 0
-1.2412678 0.0095148282 0.43796441 0
-1.2361174 0.010299047 0.56755173 0
-1.1122093 0.0092244642 -0.049896844 0
-0.49988997 0.11036163 0.039740071 0
-0.49705517 0.11082985 0.10725678 0
-0.51495135 0.10787394 0.17919448 0
-1.2396511 -0.011825184 0.43841049 0
-1.2339214 -0.010878812 0.56793457 0
-1.1078955 -0.010031234 -0.049861349 0
-0.51079917 0.0963315 0.040208675 0
-0.50676197 0.097050659 0.10853547 0
-0.51700068 0.095226802 0.17994462 0
-1.2434692 -0.034181457 0.44033554 0
-1.2356585 -0.032790106 0.56973743 0
-1.1108102 -0.030646425 -0.050097317 0
-0.5062865 0.084910877 0.040124275 0
-0.51272142 0.083680816 0.10942619 0
-0.51310998 0.083606534 0.17963512 0
-1.2447034 -0.056240689 0.44166705 0
-1.2388669 -0.055125039 0.57213634 0
-1.11189 -0.051059913 -0.050276473 0
-0.50839883 0.072195984 0.040286291 0
-0.52096438 0.069629617 0.11058811 0
-0.5159663 0.070650421 0.18059364 0
-1.2415713 -0.07754577 0.4419373 0
-1.2385151 -0.07692159 0.57342786 0
-1.1023325 -0.069293506 -0.050076868 0
-0.50385416 0.060809363 0.040211383 0
-0.51604038 0.058160204 0.11032455 0
-0.50917262 0.059653182 0.17980385 0
-1.2319494 -0.097470857 0.4405838 0
-1.2388989 -0.098981597 0.57506675 0
-1.0965309 -0.088251986 -0.050022695 0
-0.51012993 0.04697964 0.040537946 0
-0.51261222 0.046407197 0.11024113 0
-0.52589375 0.043344308 0.18338953 0
-1.2303314 -0.11910812 0.44138762 0
-1.2329962 -0.11972264 0.57465869 0
-1.0926996 -0.10765494 -0.050049517 0
-0.51532483 0.033174504 0.040832181 0
-0.51018322 0.03442863 0.1102843 0
-0.51448083 0.033380378 0.1818016 0
-1.2408553 -0.14379214 0.44545394 0
-1.2382616 -0.14315946 0.57816315 0
-1.0825411 -0.12545274 -0.049852174 0
-0.56069738 0.0088155465 0.042614881 0
-0.55944288 0.0091383057 0.11608021 0
-0.54930127 0.011747708 0.18884157 0
-1.2436919 -0.16691618 0.44759008 0
-1.2376243 -0.16535498 0.5797525 0
-1.0821651 -0.14575829 -0.050024252 0
-0.61840522 -0.020188164 0.044871237 0
-0.62860823 -0.02295078 0.12414759 0
-1.2416476 -0.18894063 0.31881037 0
-1.2375206 -0.18782316 0.44742936 0
-1.239122 -0.18825679 0.58217931 0
-1.0584918 -0.15956925 -0.049341712 0
-0.68860388 -0.054400098 0.047612835 0
-0.68747175 -0.054078203 0.13113795 0
-1.2427534 -0.21195976 0.32011276 0
-1.2402036 -0.21123479 0.44968635 0
-1.2396959 -0.21109043 0.58439487 0
-1.069015 -0.18307115 -0.049936984 0
-0.77840257 -0.096472688 0.051110905 0
-0.78624618 -0.098809995 0.14267403 0
-1.2406962 -0.23422979 0.32087931 0
-1.2445602 -0.2353812 0.45247573 0
-1.2460946 -0.2358384 0.58874047 0
-1.0633872 -0.20198111 -0.049941663 0
-0.87609434 -0.14359294 0.054937676 0
-0.87499189 -0.14324923 0.15318984 0
-1.2361182 -0.25582966 0.32122549 0
-1.2363061 -0.25588819 0.45198697 0
-1.2311606 -0.25428417 0.58577746 0
-1.0627816 -0.22253312 -0.050143845 0
-0.98094952 -0.19588707 0.059071358 0
-0.98498189 -0.19720013 0.16621305 0
-1.230372 -0.27710363 0.32140303 0
-1.2367002 -0.27916422 0.45388588 0
-1.243484 -0.28137317 0.59242028 0
-1.0537411 -0.24037455 -0.050038606 0
-1.1381283 -0.26903269 0.065220326 0
-1.1205924 -0.26307747 0.18227687 0
-1.2450259 -0.30533549 0.32551774 0
-1.2406143 -0.30383727 0.45682019 0
-1.0387681 -0.25604221 -0.049716726 0
-1.2974238 -0.34753081 0.20320567 0
-1.2481713 -0.3301098 0.32751715 0
-1.2300038 -0.32368377 0.45592079 0
-1.0424408 -0.27833173 -0.05011015 0
-1.257686 -0.35752884 0.19955316 0
-1.2326057 -0.34830084 0.32598996 0
-1.2312332 -0.34779587 0.45830375 0
-1.0350969 -0.29671004 -0.050095104 0
-1.2473954 -0.37787232 0.19928554 0
-1.2405142 -0.37524155 0.32903185 0
-1.2440513 -0.37659386 0.46394628 0
-1.0341517 -0.31761935 -0.050334617 0
-1.2483686 -0.40262166 0.20034844 0
-1.2324948 -0.39632288 0.32906422 0
-1.2301964 -0.39541081 0.46239501 0
-1.023054 -0.33453742 -0.050193574 0
-1.2416664 -0.42448619 0.20056102 0
-1.2360566 -0.422178 0.33140692 0
-1.2414099 -0.42438063 0.46781692 0
-1.0013864 -0.3468453 -0.049649809 0
-1.2486891 -0.45225897 0.20241024 0
-1.2403004 -0.44868329 0.33395958 0
-1.2420722 -0.4494386 0.47044262 0
-1.0114998 -0.37275967 -0.050349198 0
-1.2564871 -0.4808515 0.20440181 0
-1.2484881 -0.47732225 0.33736953 0
-1.2284358 -0.46847489 0.46918327 0
-0.99160409 -0.38552532 -0.049887743 0
-1.2396259 -0.49870798 0.20353425 0
-1.2475737 -0.50233495 0.339066 0
-1.2360106 -0.49705812 0.47393224 0
-0.98932064 -0.40624121 -0.05012507 0
-1.2270397 -0.51836008 0.20319614 0
-1.2460808 -0.52734065 0.34071982 0
-1.2415417 -0.52519983 0.47823423 0
-0.97305202 -0.42033425 -0.049818806 0
-1.4942199 -0.67421055 0.082515366 0
-1.2372476 -0.54903173 0.20561029 0
-1.2481992 -0.55436659 0.3431713 0
-1.2342657 -0.54757917 0.4790284 0
-0.96856499 -0.44011292 -0.049988467 0
-1.4454446 -0.67989075 0.081044644 0
-1.2326331 -0.5728879 0.2063031 0
-1.2543213 -0.58379292 0.34651503 0
-1.2382627 -0.57571846 0.483127 0
-0.95829523 -0.45703045 -0.049936652 0
-1.3981426 -0.68517137 0.079626411 0
-1.2449849 -0.60573125 0.20909075 0
-1.2456877 -0.60609579 0.34695783 0
-0.95245397 -0.47627828 -0.050072372 0
-1.3488005 -0.68823135 0.078118689 0
-1.2375624 -0.62874496 0.20953755 0
-1.2360878 -0.62795633 0.34726325 0
-0.94307923 -0.49369183 -0.050074849 0
-1.3006923 -0.69076174 0.076652333 0
-1.2446496 -0.65987825 0.21180335 0
-1.2474252 -0.66140783 0.35193869 0
-0.9242624 -0.50575167 -0.049698703 0
-1.262729 -0.69786566 0.075593218 0
-1.2361482 -0.68277836 0.2122073 0
-1.2363677 -0.68290293 0.35209054 0
-0.91938686 -0.52565467 -0.04990251 0
-1.2397413 -0.71286017 0.075149216 0
-1.2333766 -0.70914084 0.21336322 0
-1.237932 -0.71180278 0.35493636 0
-0.9058398 -0.54051411 -0.049757011 0
-1.2528902 -0.74922591 0.076215133 0
-1.2380438 -0.74029738 0.21550228 0
-1.2407452 -0.74192196 0.35814297 0
-0.89804053 -0.55881256 -0.049859501 0
-1.2458103 -0.7739653 0.076459296 0
-1.2372123 -0.76864606 0.21701255 0
-1.2374121 -0.76876968 0.36015132 0
-0.89494753 -0.58019453 -0.05017167 0
-1.2554246 -0.80953473 0.077424966 0
-1.2466642 -0.80396122 0.21989012 0
-1.2379724 -0.79843146 0.36307999 0
-0.87423038 -0.59031636 -0.049746022 0
-1.2525811 -0.83777481 0.077886201 0
-1.2399586 -0.82951909 0.22077352 0
-1.231773 -0.8241654 0.36465639 0
-0.87924564 -0.6173768 -0.050429147 0
-1.2449757 -0.86321086 0.078161746 0
-1.238785 -0.8590495 0.22242224 0
-1.239067 -0.85923916 0.36924842 0
-0.86243403 -0.62995279 -0.050185945 0
-1.240472 -0.89103001 0.078588113 0
-1.2478616 -0.89613336 0.22547248 0
-1.248702 -0.89671367 0.37449008 0
-0.84563351 -0.64233029 -0.049947951 0
-1.2391938 -0.92151088 0.079174757 0
-1.236672 -0.91972202 0.225941 0
-1.6060046 -1.1817161 0.45675793 0
-0.83309984 -0.65761214 -0.04990308 0
-1.2498027 -0.96116823 0.080308735 0
-1.2396492 -0.95377165 0.2283368 0
-1.5742508 -1.1975194 0.45377156 0
-0.83111417 -0.68074745 -0.050336573 0
-1.2325946 -0.98102444 0.080235451 0
-1.2440009 -0.98955554 0.23099698 0
-0.81631756 -0.69443673 -0.050210722 0
-1.2395577 -1.0193781 0.081260599 0
-1.2444725 -1.0231514 0.23321804 0
-0.79863584 -0.70574361 -0.049960271 0
-1.1566272 -0.98782545 0.078231908 0
-1.1626529 -0.99257332 0.22425953 0
-1.1740161 -1.0015271 0.37487951 0
-0.7825098 -0.71808523 -0.049785186 0
-0.86961997 -0.78852004 0.065784566 0
-1.1405711 -1.0076035 0.2234125 0
-1.1462371 -1.012185 0.37216306 0
-0.76938069 -0.73275673 -0.049754456 0
-0.84069812 -0.79192251 0.065062702 0
-1.2396771 -1.1229198 0.23950528 0
-1.3380425 -1.2045249 0.42090508 0
-0.76427889 -0.75423592 -0.05010834 0
-0.87367666 -0.84734374 0.067237027 0
-1.2375767 -1.1570569 0.24169266 0
-1.3189759 -1.2263354 0.42080301 0
-1.0312477 -0.98145157 0.49640849 0
-0.74675751 -0.76520771 -0.049890283 0
-0.89905655 -0.89817125 0.069108151 0
-1.2870494 -1.2369057 0.4176864 0
-0.9869144 -0.97487503 0.48674557 0
-0.72987175 -0.77654642 -0.049706802 0
-0.75885975 -0.8025046 0.063096009 0
-1.1929852 -1.1912551 0.24049965 0
-1.1977804 -1.1955491 0.40068448 0
-0.96974385 -0.99134701 0.48624748 0
-0.71594298 -0.79042941 -0.049671408 0
-0.732095 -0.80526394 0.062454358 0
-0.92169952 -0.97940212 0.47512013 0
-0.71530199 -0.81679851 -0.050295815 0
-0.72650898 -0.82735437 0.062845454 0
-0.83109784 -0.92586809 0.19255935 0
-0.88987374 -0.98123008 0.46949205 0
-0.69056773 -0.82051092 -0.049748313 0
-0.71805429 -0.84706193 0.063112669 0
-0.80237973 -0.92851716 0.19052255 0
-0.85062814 -0.97512323 0.46117121 0
-0.68203962 -0.83973807 -0.05001067 0
-0.7093457 -0.86678761 0.063382871 0
-0.78854835 -0.94524616 0.19071716 0
-0.83234107 -0.98862737 0.46024522 0
-0.67034054 -0.85601228 -0.050127286 0
-0.72588933 -0.91244239 0.064954236 0
-0.82288194 -1.0109742 0.19832496 0
-0.81431544 -1.0022717 0.45946378 0
-0.65057361 -0.86400467 -0.049839992 0
-0.74766862 -0.96515697 0.066845722 0
-0.81340837 -1.0336438 0.19936229 0
-0.6373831 -0.87873131 -0.049897619 0
-0.7577939 -1.0073776 0.068188407 0
-0.80912566 -1.0622202 0.20127462 0
-0.62229717 -0.89144617 -0.049865417 0
-0.74255908 -1.0232204 0.068234608 0
-0.60919285 -0.90635842 -0.04994772 0
-0.59090304 -0.91538662 -0.049758866 0
-0.58697319 -0.94119376 -0.050367363 0
-0.57479978 -0.95768005 -0.050540626 0
-0.54947543 -0.9579969 -0.049978722 0
-0.53597587 -0.97278041 -0.050092779 0
-0.51770431 -0.98144549 -0.049938694 0
-0.49974918 -0.99035937 -0.049807392 0
-0.48742861 -1.0069067 -0.050023694 0
-0.47124684 -1.018245 -0.050017375 0
-0.45112222 -1.0238329 -0.04977103 0
-0.43065941 -1.0286069 -0.04950273 0
-0.42140174 -1.0502898 -0.049967468 0
-0.37501979 -0.97888404 0.4992232 0
-0.40539646 -1.0619122 -0.050008617 0
-0.35445237 -0.98127824 0.49620265 0
-0.38517916 -1.0667394 -0.049773213 0
-0.32918954 -0.97559792 0.49015418 0
-0.37347072 -1.0854993 -0.050129533 0
-0.30978966 -0.97884935 0.48773572 0
-0.35149765 -1.087073 -0.049780026 0
-0.28854108 -0.97855526 0.48406541 0
-0.33970767 -1.1062239 -0.050164651 0
-0.27414751 -0.98986727 0.48495564 0
-0.31930667 -1.1102036 -0.049935337 0
-0.25216186 -0.98744541 0.48070073 0
-0.2983011 -1.1127057 -0.049658246 0
-0.22843249 -0.98105723 0.47508484 0
-0.28694594 -1.1335377 -0.050129592 0
-0.20731957 -0.9788298 0.4711743 0
-0.26913559 -1.1421815 -0.050117444 0
-0.18782707 -0.97919387 0.46835092 0
-0.24769028 -1.1432906 -0.049815528 0
-0.16810967 -0.97860795 0.46528456 0
-0.2305568 -1.1531221 -0.049869839 0
-0.14951648 -0.97988385 0.46301153 0
-0.21355172 -1.1633376 -0.049947377 0
-0.13036473 -0.97951478 0.46023649 0
-0.19499744 -1.170156 -0.049900483 0
-0.11237241 -0.98127908 0.45833915 0
-0.17899926 -1.1829469 -0.050094392 0
-0.10073341 -0.99771744 0.46183389 0
-0.16081972 -1.1907589 -0.050103132 0
-0.074853137 -0.97993904 0.3488428 0
-0.082399681 -0.99844581 0.45971903 0
-0.1425121 -1.1982707 -0.050109111 0
-0.053034022 -0.97068459 0.34458137 0
-0.064082816 -0.99878699 0.45755896 0
-0.12311901 -1.2029368 -0.050015252 0
-0.033439264 -0.96612376 0.14740521 0
-0.032621041 -0.96396309 0.24288128 0
-0.0094739925 -0.90283972 0.32443112 0
-0.05063571 -1.0115335 0.45990464 0
-0.10670944 -1.2156068 -0.050235257 0
-0.0087512564 -0.94676024 0.14453045 0
-0.012145532 -0.95607585 0.24026181 0
0.0065456196 -0.90477794 0.32347131 0
-0.084818915 -1.2131035 -0.049888164 0
0.0069137677 -0.95113426 0.14440675 0
0.0080914963 -0.94777089 0.23762341 0
0.023775237 -0.90298146 0.32156077 0
-0.0016333892 -0.9755432 0.44307184 0
-0.067580238 -1.2236826 -0.050045673 0
0.023093062 -0.95389527 0.14412309 0
0.023307072 -0.95325857 0.23766896 0
0.025971936 -0.94532949 0.33159858 0
0.013644116 -0.98200947 0.44345716 0
-0.051055118 -1.2368494 -0.050307766 0
0.038349822 -0.95931166 0.14416346 0
0.037399039 -0.96226305 0.23841706 0
0.019210743 -1.0187247 0.34992519 0
0.022644924 -1.008064 0.45075494 0
-0.029365106 -1.233901 -0.049974579 0
0.023807513 -1.0614269 0.3599636 0
-0.011913611 -1.2445216 -0.050157815 0
0.067235097 -0.97581786 0.33585331 0
0.0092443991 -1.2424375 -0.049877439 0
0.086256579 -0.96829814 0.33266759 0
0.027276056 -1.2512923 -0.050012119 0
0.10281526 -0.96878165 0.33166963 0
0.04656668 -1.2555881 -0.049986817 0
0.11587594 -0.98265046 0.33425316 0
0.068644896 -1.2482336 -0.049542729 0
0.085815951 -1.2610693 -0.049849309 0
0.10428648 -1.2688833 -0.049979623 0
0.12349503 -1.273507 -0.050001916 0
0.14357315 -1.2736046 -0.049868535 0
-0.064784363 -2.3825426 0.10215181 0
0.16113229 -1.2875782 -0.050247531 0
0.0015670524 -2.1999884 0.095316119 0
0.18344741 -1.273874 -0.049632754 0
0.032508597 -2.2059722 0.095343351 0
0.20061976 -1.2917556 -0.05016939 0
0.065844789 -2.196053 0.094810568 0
0.21926759 -1.3016313 -0.050424453 0
0.098561063 -2.1879375 0.094358824 0
0.24059884 -1.2912538 -0.049959019 0
0.12933742 -2.1929832 0.094396047 0
0.25979465 -1.2972231 -0.050091047 0
0.1600164 -2.1991928 0.094488956 0
0.27939478 -1.3000504 -0.050118882 0
0.19155276 -2.1973674 0.094307393 0
0.2995666 -1.2964354 -0.049924705 0
0.22279005 -2.1976018 0.094214059 0
0.31932193 -1.2967125 -0.049879123 0
0.25322241 -2.2080932 0.094502054 0
0.33878982 -1.3013051 -0.049996816 0
0.28421506 -2.2127082 0.094593361 0
0.35872647 -1.2978014 -0.049833834 0
0.31624371 -2.1968682 0.09396749 0
0.37815854 -1.3056356 -0.050084915 0
0.34679738 -2.2110002 0.094426982 0
0.39826918 -1.2908568 -0.04953716 0
0.37818778 -2.2020969 0.094077505 0
0.4177773 -1.299297 -0.049827494 0
0.43745992 -1.2971158 -0.049747407 0
0.45712745 -1.2973697 -0.049763106 0
0.47659639 -1.2901144 -0.049519453 0
0.49717212 -1.3140134 -0.050397616 0
0.51711243 -1.3144121 -0.050445441 0
0.53601134 -1.2985224 -0.04991949 0
0.5554477 -1.2941263 -0.049813148 0
0.57640725 -1.3071576 -0.050340243 0
0.59460819 -1.2901134 -0.049797937 0
0.61521667 -1.2969104 -0.05012003 0
0.63316929 -1.2814549 -0.049650881 0
0.65368748 -1.2863109 -0.04992152 0
0.67447263 -1.2916211 -0.050218426 0
0.69336963 -1.2844394 -0.050073169 0
0.71188754 -1.2757244 -0.049880568 0
0.73114723 -1.27152 -0.049860023 0
0.75063205 -1.2684565 -0.049889844 0
0.77158248 -1.271922 -0.050167419 0
0.79023069 -1.2646725 -0.050062601 0
0.80852109 -1.256271 -0.049923711 0
0.82761347 -1.2513223 -0.049920239 0
0.84767669 -1.2499123 -0.050056636 0
0.86652601 -1.2439241 -0.050032821 0
0.88569415 -1.2390412 -0.050058961 0
0.90333605 -1.2292444 -0.049910277 0
0.92160738 -1.2216854 -0.049853425 0
0.94498515 -1.2291231 -0.050371032 0
0.95921969 -1.2098731 -0.049890339 0
0.98306566 -1.2174584 -0.050436243 0
0.99878079 -1.2028964 -0.050148752 0
0.9263941 -1.015324 0.46235064 0
1.0135773 -1.1865777 -0.049799833 0
0.94214064 -1.0081871 0.46205774 0
1.0345259 -1.1857116 -0.050053604 0
0.95775467 -1.0007819 0.4617379 0
1.0497687 -1.1711149 -0.049785376 0
0.97229278 -0.99092859 0.46060076 0
1.0668459 -1.161098 -0.049702089 0
0.98856682 -0.98518151 0.46101901 0
1.0858014 -1.1552962 -0.049792394 0
1.0053558 -0.98047143 0.46189427 0
1.1087419 -1.1577197 -0.050217807 0
1.0224909 -0.97632819 0.4630613 0
1.1244504 -1.1447271 -0.050044172 0
1.0402572 -0.97326428 0.4647153 0
1.1431549 -1.1379104 -0.050124492 0
1.065073 -0.98382813 0.47154588 0
1.1568643 -1.1214081 -0.049824636 0
1.0818921 -0.97797066 0.47237396 0
1.175686 -1.114833 -0.049932301 0
1.0999249 -0.97422749 0.47408643 0
1.1989412 -1.1160808 -0.050369807 0
1.1285189 -0.98923475 0.057190139 0
1.1326351 -0.99664897 0.16100575 0
1.1314886 -0.99458379 0.26569557 0
1.1295639 -0.99111706 0.37236923 0
1.1294616 -0.99093276 0.48367825 0
1.2098011 -1.0950214 -0.049905088 0
1.1405022 -0.97382063 0.056920707 0
1.1402153 -0.97331876 0.15922119 0
1.1443721 -0.98058885 0.2646372 0
1.1457664 -0.9830274 0.37260029 0
1.1467988 -0.98483318 0.48474172 0
1.2293502 -1.0893648 -0.05008065 0
1.1661056 -0.98191553 0.057629395 0
1.1657319 -0.98128051 0.16133747 0
1.1679327 -0.98501951 0.26746073 0
1.1652607 -0.9804799 0.37453398 0
1.1617686 -0.97454697 0.48428085 0
1.2447363 -1.0765898 -0.049970672 0
1.2600017 -1.0637617 -0.049865711 0
1.2783591 -1.0558915 -0.04997823 0
1.2978376 -1.049574 -0.0501679 0
1.3128754 -1.0364501 -0.050076313 0
1.3291265 -1.025179 -0.050072681 0
1.3432213 -1.0108874 -0.049945444 0
1.3521848 -0.98974484 -0.049521547 0
1.3753518 -0.98796052 -0.049963709 0
1.3939277 -0.97972006 -0.050131995 0
1.4037097 -0.96019489 -0.049798388 0
1.201248 -0.7049064 0.050165959 0
1.2024393 -0.70640844 0.13915597 0
1.4176371 -0.94613165 -0.049718387 0
1.2100869 -0.69108999 0.049979053 0
1.1996816 -0.67830366 0.13661566 0
1.4402122 -0.94250888 -0.050131235 0
1.2019293 -0.65711862 0.048857927 0
1.2097996 -0.66654491 0.13633218 0
1.45713 -0.93182856 -0.050230104 0
1.2022272 -0.63423103 0.048240863 0
1.2096729 -0.64292389 0.13438502 0
1.4650843 -0.91083616 -0.049850065 0
1.2108191 -0.62143922 0.048096895 0
1.2063038 -0.61629999 0.13198638 0
1.4810269 -0.89910382 -0.049915507 0
1.2083267 -0.59649551 0.047372453 0
1.2039336 -0.59162068 0.12983561 0
1.4976254 -0.88800842 -0.05002239 0
1.5120201 -0.87447411 -0.050020803 0
1.5323881 -0.8670817 -0.050333966 0
1.5371653 -0.84373206 -0.049859527 0
1.5548929 -0.83351427 -0.050052445 0
1.5666524 -0.81741136 -0.049954992 0
1.5822887 -0.80500394 -0.050057635 0
1.5932057 -0.78821462 -0.049939238 0
1.6085101 -0.7754119 -0.050041366 0
1.6267605 -0.7650494 -0.05028889 0
1.6361347 -0.74699622 -0.05012602 0
1.643805 -0.72769183 -0.049896725 0
1.6624353 -0.71733874 -0.050181538 0
1.6731436 -0.70056552 -0.050111204 0
1.6802634 -0.68113136 -0.049890302 0
1.6896782 -0.66358089 -0.049784187 0
1.7036291 -0.64937967 -0.049888238 0
1.7217245 -0.637986 -0.050179813 0
1.7232151 -0.615026 -0.04975779 0
1.7425421 -0.6042462 -0.05011576 0
1.7417095 -0.5801574 -0.049620137 0
1.7648342 -0.57150847 -0.050150961 0
1.7665075 -0.5493322 -0.049785219 0
1.7826846 -0.53605062 -0.05003579 0
1.7921765 -0.51871115 -0.050016038 0
1.8066148 -0.50415063 -0.05020773 0
1.8151649 -0.48623601 -0.050166395 0
1.8189527 -0.46584252 -0.0499423 0
1.8308878 -0.44978395 -0.050056577 0
1.8380917 -0.4312903 -0.049989764 0
1.847101 -0.4137108 -0.050004072 0
1.8448985 -0.39091489 -0.049585778 0
1.8621387 -0.37716404 -0.049941931 0
1.8762488 -0.36177823 -0.050181083 0
1.8757126 -0.34007189 -0.049859602 0
1.8825239 -0.32157591 -0.049833223 0
1.8904607 -0.30353495 -0.049859047 0
1.8945544 -0.28402969 -0.049746893 0
1.9153858 -0.27064422 -0.050279852 0
1.9087993 -0.24735354 -0.049780879 0
1.923059 -0.2313637 -0.050079364 0
1.9271536 -0.21191038 -0.050003335 0
1.9304771 -0.19227479 -0.049907979 0
1.938736 -0.17414282 -0.050005686 0
1.9429244 -0.15480645 -0.049960721 0
1.943379 -0.13451387 -0.049787045 0
1.9533249 -0.11672277 -0.049972661 0
1.9570282 -0.097312815 -0.049936898 0
1.9569308 -0.077074237 -0.049771141 0
1.9606385 -0.057754051 -0.049753971 0
1.9691472 -0.039392125 -0.049920421 0
1.9743909 -0.02030481 -0.04997636 0
1.9747663 -0.00033868416 -0.049864545 0
1.9789506 0.018946264 -0.049899738 0
1.9877247 0.03759015 -0.05010923 0
1.9880356 0.057511751 -0.050022025 0
1.9941911 0.076672085 -0.050154138 0
1.9765658 0.098484255 -0.049440861 0
1.9987307 0.11602537 -0.050165199 0
1.9888382 0.13671182 -0.04974838 0
2.0012832 0.15555727 -0.050140645 0
1.9967289 0.17564726 -0.049933236 0
2.0000138 0.19524822 -0.050015137 0
2.006479 0.21480997 -0.050219424 0
2.0035472 0.23469648 -0.050096899 0
1.9985545 0.2545127 -0.049909756 0
1.9926174 0.27419406 -0.04969779 0
1.9900606 0.2937929 -0.049615327 0
2.0009027 0.31375858 -0.05002024 0
2.0014105 0.33355752 -0.050065048 0
1.9890058 0.35265881 -0.049657073 0
1.9937989 0.3726677 -0.049872797 0
1.9966009 0.39266908 -0.050026447 0
1.9827868 0.4112086 -0.049593434 0
1.9877452 0.43146098 -0.049842276 0
1.9859337 0.45107958 -0.049857218 0
1.9828461 0.47054225 -0.049835123 0
1.988241 0.4912293 -0.050127856 0
1.9734658 0.5089274 -0.049701475 0
1.982015 0.53032702 -0.050127119 0
1.9830973 0.55065644 -0.050292443 0
1.9741067 0.56911665 -0.050100908 0
1.9705532 0.58858824 -0.050115716 0
1.959643 0.60642588 -0.049870372 0
1.9530861 0.62512171 -0.049792256 0
1.9475973 0.64403158 -0.04976185 0
1.9626411 0.66834348 -0.050498288 0
1.9435931 0.68373621 -0.049985502 0
1.9395061 0.70311117 -0.050034322 0
1.9273317 0.72006005 -0.04979058 0
1.930059 0.74158037 -0.050112199 0
1.9223924 0.75988615 -0.050054286 0
1.9101331 0.77655995 -0.049831275 0
1.9098586 0.7973941 -0.050070073 0
1.9000411 0.81483185 -0.049956102 0
1.8911113 0.83253253 -0.049883973 0
1.8892254 0.85302812 -0.05009127 0
1.8836887 0.87215662 -0.050168321 0
1.8623966 0.88451451 -0.049642034 0
1.8594042 0.90468097 -0.049834922 0
1.8554709 0.9245643 -0.050001875 0
1.858233 0.94779122 -0.050444804 0
1.8408238 0.96138662 -0.050098594 0
1.827481 0.97678816 -0.049920008 0
1.8292308 1 -0.050357021 0
1.8162191 1.0155524 -0.050209217 0
1.7894915 1.0233177 -0.049507286 0
1.7960383 1.0496795 -0.050175142 0
1.7807089 1.0636235 -0.049953792 0
1.7842404 1.0888932 -0.05052679 0
1.7691909 1.102986 -0.05033458 0
1.7572925 1.1189541 -0.050282188 0
1.7372743 1.1294974 -0.049890105 0
1.7173603 1.139781 -0.049504858 0
1.7140781 1.161378 -0.049846601 0
1.6995182 1.1751685 -0.049707487 0
1.6976482 1.198208 -0.050137848 0
1.6831408 1.2120559 -0.05001919 0
1.671522 1.2280484 -0.050037861 0
1.6568418 1.2416182 -0.049926028 0
1.6435475 1.2562251 -0.049884845 0
1.6333243 1.2733787 -0.049994957 0
1.6186645 1.2868148 -0.049907293 0
1.6129171 1.3080527 -0.050251383 0
1.596102 1.3195853 -0.050078828 0
1.5833744 1.3347579 -0.050110571 0
1.5757946 1.3548759 -0.05040605 0
1.552833 1.3602433 -0.049949564 0
1.5457433 1.3810813 -0.050293311 0
1.5278794 1.3911875 -0.050103031 0
1.5146513 1.4059941 -0.050157346 0
1.02786 0.89243066 0.2939027 0
1.4971383 1.4162256 -0.049996771 0
1.0443279 0.92630142 0.30587393 0
1.4848131 1.4320495 -0.050117429 0
1.4382193 1.3803455 0.059632592 0
1.4431599 1.3858279 0.16823988 0
1.4402447 1.382593 0.27747613 0
1.0596533 0.96026063 0.31765634 0
1.4752294 1.4511272 -0.050398812 0
1.4245001 1.3933887 0.05965488 0
1.4203413 1.3886553 0.16683668 0
1.4171004 1.3849666 0.2750212 0
1.0561315 0.97412246 0.32032278 0
1.4514412 1.4539312 -0.049917903 0
1.3901643 1.3823907 0.058554985 0
1.3976002 1.3910722 0.16543134 0
1.3899127 1.3820971 0.27141711 0
1.0625677 0.99992335 0.32821009 0
1.4355268 1.4656414 -0.049870245 0
1.3708345 1.3881596 0.058266617 0
1.3616838 1.3772 0.16180044 0
1.366816 1.3833468 0.26889938 0
1.0584817 1.0140563 0.33092257 0
1.4294099 1.4893425 -0.050384272 0
1.3458009 1.386602 0.057655226 0
1.3430827 1.3832619 0.1610316 0
1.3458856 1.3867061 0.26696584 0
1.0608488 1.0364474 0.33717185 0
1.4000924 1.484378 -0.049590554 0
1.3174574 1.3801817 0.056842767 0
1.3178289 1.3806499 0.15911296 0
1.3234303 1.387713 0.26457098 0
1.0533803 1.0472007 0.33840463 0
1.3924571 1.506561 -0.050046131 0
1.3040764 1.3921912 0.056885891 0
1.2914971 1.3759127 0.15696761 0
1.2961178 1.3818921 0.26070789 0
1.0457847 1.0579456 0.33966178 0
1.3779519 1.5201583 -0.050118044 0
1.27126 1.3784397 0.055784982 0
1.2678515 1.3739121 0.15525548 0
1.2733804 1.3812563 0.25812975 0
1.0443037 1.0769739 0.34439653 0
1.3595678 1.5285572 -0.049967282 0
1.2523105 1.3822905 0.055491842 0
1.2497652 1.3788192 0.15451951 0
1.2544008 1.3851409 0.25665057 0
1.0337682 1.084264 0.34425288 0
1.3421991 1.5382003 -0.049882647 0
1.2398632 1.3948953 0.055595882 0
1.2406492 1.3959959 0.15544064 0
1.2457258 1.4031048 0.258358 0
1.0213491 1.0889013 0.34308037 0
1.3246044 1.5474192 -0.049789872 0
1.2446803 1.4324648 0.056791387 0
1.2439109 1.4313582 0.15874921 0
1.2469729 1.4357623 0.26330215 0
1.0125536 1.0985984 0.34403211 0
1.3125254 1.5646771 -0.050054014 0
1.2420392 1.4605234 0.057564121 0
1.2484671 1.4700215 0.1624527 0
1.2524823 1.4759545 0.26984179 0
1.003184 1.1075795 0.34473276 0
1.2953718 1.5745738 -0.050007835 0
1.2436973 1.4961065 0.058653556 0
1.2477896 1.5023206 0.16529925 0
1.2368861 1.4857635 0.26975131 0
1.1702214 1.3845338 0.348194 0
0.99771303 1.1225805 0.34787297 0
1.2766651 1.5819917 -0.049866125 0
1.2460653 1.5342274 0.059840951 0
1.2508262 1.541659 0.16902247 0
1.223374 1.4988077 0.27039671 0
1.151826 1.3871261 0.34619206 0
0.99119776 1.1363961 0.35054681 0
1.2568872 1.5875069 -0.049655437 0
1.2441382 1.5670439 0.060794692 0
1.2498484 1.5762091 0.17210545 0
1.2051579 1.5044776 0.26950645 0
1.1243817 1.3748257 0.33979896 0
0.97803545 1.1399291 0.34920153 0
1.2423975 1.6014726 -0.049809497 0
1.1883322 1.5122087 0.26910609 0
1.1113594 1.3851238 0.34029859 0
0.96415341 1.1420813 0.34739411 0
0.83707726 0.93227386 0.469087 0
1.2272155 1.6144823 -0.049930405 0
1.174284 1.5245541 0.26971883 0
1.0917131 1.3842703 0.33754188 0
0.95792693 1.1569742 0.3505863 0
0.8408621 0.95808691 0.48338157 0
1.2116147 1.6269376 -0.05003554 0
1.1539123 1.5260184 0.26810357 0
1.0730565 1.3846049 0.3352271 0
0.94661838 1.1634698 0.35056755 0
0.8473255 0.98981065 0.35198796 0
0.84036732 0.97764111 0.41709393 0
0.83590984 0.96984518 0.48793954 0
1.1937456 1.6354665 -0.049987659 0
1.143481 1.5449289 0.27015141 0
1.0553359 1.3861601 0.33335337 0
0.9355818 1.1704565 0.35079023 0
0.84850782 1.0136172 0.36081588 0
0.83973187 0.99780977 0.42572972 0
0.83692068 0.99274623 0.50006646 0
1.17811 1.6480761 -0.050114743 0
1.1228074 1.5454394 0.26844293 0
1.0348676 1.3822315 0.32996798 0
0.92322004 1.1750238 0.35014975 0
0.85465735 1.0477779 0.37444681 0
0.83820015 1.0172349 0.43388906 0
0.83971483 1.020046 0.51506609 0
1.162342 1.6606321 -0.050246805 0
1.1062421 1.5533012 0.26829481 0
1.0150625 1.3788555 0.32683831 0
0.91475368 1.1869437 0.35233223 0
0.84647214 1.0563067 0.37597731 0
0.84320647 1.0500587 0.4495703 0
0.84038407 1.0446589 0.52814573 0
1.1386658 1.6577961 -0.049769945 0
1.0928651 1.5674157 0.26945412 0
1.0009298 1.3859957 0.32680801 0
0.90070653 1.1882207 0.35057127 0
0.85208434 1.0922724 0.39028123 0
0.83824432 1.0649613 0.45506394 0
0.83916837 1.0667847 0.53948301 0
1.118292 1.6609293 -0.049545337 0
1.0721194 1.5668969 0.26770017 0
0.98021787 1.3797358 0.32301983 0
0.89364988 1.2034364 0.35405314 0
0.84628129 1.1069684 0.3946535 0
0.83960915 1.0933802 0.46809277 0
0.83881301 1.0917588 0.55264246 0
1.1101418 1.6894081 -0.050334197 0
0.96314657 1.3802675 0.32124689 0
0.8746407 1.1941338 0.34851471 0
0.83839917 1.1179155 0.39731461 0
0.83736509 1.1157407 0.47767776 0
0.84249943 1.1265386 0.57216537 0
1.0912563 1.6958953 -0.050258283 0
0.94714111 1.3827027 0.32007936 0
0.86327803 1.2004507 0.34881651 0
0.83836752 1.1463149 0.40795985 0
0.84167838 1.1535102 0.49570984 0
0.8405931 1.1511515 0.58490807 0
1.068127 1.6927215 -0.0498146 0
0.9277178 1.3771797 0.31675243 0
0.85220933 1.2074895 0.34943172 0
0.84021568 1.1805362 0.42118415 0
0.83974385 1.1794759 0.50714707 0
0.84076798 1.1817774 0.60149825 0
1.0525044 1.7062216 -0.050032631 0
0.91303855 1.3818649 0.31634656 0
0.85049015 1.2363957 0.35801342 0
0.84106034 1.2144647 0.43419465 0
0.84233552 1.2174305 0.52506542 0
0.83757085 1.2063491 0.61408925 0
1.0341007 1.7134315 -0.050014008 0
0.90319377 1.3980974 0.31918386 0
0.85106534 1.2725283 0.36916131 0
0.83803886 1.2411494 0.44388515 0
0.839149 1.2438235 0.53660929 0
0.83664358 1.2377883 0.63105029 0
1.0182519 1.7269949 -0.05024875 0
0.8783415 1.3776133 0.3119503 0
0.85105371 1.3094708 0.38054082 0
0.84130567 1.2851281 0.46125701 0
0.83684492 1.2739888 0.55014992 0
0.8413626 1.2852703 0.65818202 0
0.99577826 1.7238603 -0.049851015 0
0.86801404 1.3927906 0.31458992 0
0.84824693 1.3415689 0.39013764 0
0.83866632 1.3167431 0.47303942 0
0.83878553 1.317052 0.57055765 0
0.84099644 1.322781 0.67880595 0
0.97547781 1.7257785 -0.04965838 0
0.84871536 1.3845751 0.31088594 0
0.84855998 1.3841567 0.40342519 0
0.83930331 1.3592409 0.48958835 0
0.84074837 1.3631306 0.59246659 0
0.84098136 1.3637576 0.70152938 0
0.95898688 1.7379656 -0.049865633 0
0.83601129 1.3937392 0.31197312 0
0.84292585 1.413094 0.41182917 0
0.84394687 1.4159522 0.5123086 0
0.84008706 1.4051479 0.61210632 0
0.94168198 1.7482404 -0.050007667 0
0.81554258 1.3806118 0.30708605 0
0.83826274 1.4468288 0.42190936 0
0.83941436 1.4501852 0.5250659 0
0.83972609 1.4510937 0.63374382 0
0.92255378 1.7533054 -0.049961511 0
1.0306184 2.0816672 0.35103944 0
0.79971653 1.3800559 0.30566525 0
0.84179062 1.5079011 0.44154337 0
0.83884263 1.4989432 0.54412657 0
0.84056818 1.5041866 0.65905899 0
0.90447623 1.7616059 -0.050045684 0
1.0101315 2.0968025 0.35250476 0
0.78556961 1.3843685 0.30560583 0
0.83993351 1.5568408 0.4568519 0
0.84212857 1.5638047 0.57010567 0
0.84156108 1.5620043 0.6867469 0
0.88543642 1.7669303 -0.050027076 0
0.98290288 2.0902929 0.34993604 0
0.7694189 1.3820211 0.30381954 0
0.83937287 1.6141062 0.4750036 0
0.8392272 1.6136229 0.58946317 0
0.86647779 1.7725008 -0.050026596 0
0.95839649 2.0919614 0.34897587 0
0.75501901 1.3851293 0.30354211 0
0.84152693 1.6857848 0.49808183 0
0.83734691 1.6712575 0.61213404 0
0.84800214 1.7798437 -0.050100584 0
0.74066859 1.3883233 0.047607064 0
0.73810637 1.3789771 0.13020557 0
0.73735631 1.376241 0.21392287 0
0.73825407 1.3795158 0.30100644 0
0.83718252 1.7403769 0.51517683 0
0.83537269 1.7337753 0.63683343 0
0.82727557 1.7787702 -0.049872413 0
0.72394949 1.3823584 0.047247145 0
0.72421741 1.3833864 0.1302778 0
0.72522753 1.3872617 0.21527798 0
0.72369659 1.3813883 0.30050856 0
0.83360982 1.8030716 0.53502047 0
0.83112943 1.7935555 0.66029119 0
0.81207579 1.7993921 -0.050452445 0
0.71088272 1.3901176 0.047400821 0
0.71212995 1.395162 0.13118467 0
0.70691574 1.3740733 0.21215972 0
0.70797426 1.3783543 0.29877099 0
0.82520932 1.8525108 0.55027503 0
0.82531327 1.852931 0.68352634 0
0.78774869 1.7828068 -0.049673587 0
0.69349831 1.3799055 0.046901163 0
0.6945917 1.3845797 0.12963805 0
0.69226134 1.3746177 0.21163698 0
0.69288135 1.3772682 0.29760087 0
0.81613505 1.9041529 0.56627357 0
0.77019364 1.7943729 -0.049937334 0
0.67888832 1.3806405 0.046811141 0
0.67795473 1.3764104 0.12838562 0
0.67957956 1.3837729 0.21274012 0
0.67913491 1.3817581 0.29794052 0
0.80542123 1.9539999 0.58165514 0
0.74890989 1.7889018 -0.04958725 0
0.66625303 1.3905903 0.047064058 0
0.66576904 1.3882579 0.12935649 0
0.66487157 1.3839332 0.21221307 0
0.66380626 1.3787997 0.29638371 0
0.79384375 2.0054317 0.59758103 0
0.73270822 1.8082932 -0.050152034 0
0.64989698 1.3823485 0.046660531 0
0.6502378 1.3841016 0.1285897 0
0.64877212 1.3765628 0.21033782 0
0.65024734 1.3841507 0.29704061 0
0.77749908 2.0386779 0.60735393 0
0.71358079 1.8138041 -0.050219297 0
0.63780826 1.3960519 0.047061656 0
0.63590384 1.3855522 0.12845846 0
0.63535619 1.382533 0.21094921 0
0.63672304 1.3900687 0.29788736 0
0.76397067 2.0916154 0.62383223 0
0.69273764 1.8094312 -0.049937312 0
0.6202535 1.3790146 0.046354514 0
0.62163949 1.3872447 0.12837355 0
0.62105101 1.3837502 0.21072102 0
0.62077147 1.3820902 0.2951811 0
0.74581718 2.1246214 0.6336087 0
0.67362297 1.814901 -0.050020993 0
0.60500711 1.3735923 0.046076402 0
0.60413241 1.3679667 0.12602757 0
0.60604888 1.3802925 0.20967293 0
0.60729998 1.3883394 0.29620555 0
0.72824121 2.1661825 0.64632356 0
0.65359694 1.8144205 -0.049898632 0
0.59256738 1.3864771 0.046465922 0
0.59148628 1.3788965 0.12698905 0
0.59169221 1.3803405 0.20929977 0
0.59097183 1.375289 0.29229817 0
0.70672417 2.1869519 0.65210277 0
0.63536537 1.8271198 -0.050260041 0
0.57766092 1.3825079 0.046253692 0
0.57716042 1.3786516 0.12675519 0
0.57807428 1.3856927 0.2099248 0
0.57791638 1.3844764 0.29417127 0
0.68879068 2.2387609 0.66837686 0
0.61446679 1.8192457 -0.049889661 0
0.56340241 1.3828082 0.046201993 0
0.56318778 1.3809733 0.12681894 0
0.56431675 1.3906226 0.21050337 0
0.56409925 1.3887635 0.29482514 0
0.6671527 2.2695425 0.67765921 0
0.59493071 1.8219509 -0.049908966 0
0.55210465 1.4111767 0.12991428 0
0.55156827 1.4060317 0.21301278 0
0.55153519 1.4057142 0.2987712 0
0.64405382 2.2931249 0.68461251 0
0.57506156 1.8212014 -0.049813222 0
0.55118906 1.5604265 0.14586848 0
0.55255842 1.5753851 0.24342813 0
0.55230439 1.5726103 0.34116909 0
0.6213901 2.3272786 0.69518673 0
0.55625653 1.8331269 -0.050180454 0
0.60271251 2.4222109 0.23862143 0
0.59896702 2.3747165 0.38777953 0
0.59807724 2.3634334 0.54320037 0
0.5356133 1.821254 -0.049704365 0
0.57408786 2.4024112 0.39243665 0
0.57248467 2.3781946 0.54648435 0
0.51638901 1.829651 -0.049962588 0
0.54861647 2.4312861 0.39736038 0
0.54826456 2.4247167 0.55796325 0
0.4964616 1.8254056 -0.049777608 0
0.52183515 2.4450777 0.39961696 0
0.52235502 2.4577744 0.5660761 0
0.47705442 1.8350209 -0.050096698 0
0.4561761 1.0983089 0.35141847 0
0.45630488 1.1028529 0.42569417 0
0.45721266 1.8315258 -0.04995634 0
0.44573936 1.1026961 0.35313928 0
0.44591177 1.1136471 0.4309791 0
0.43749276 1.8362966 -0.050120007 0
0.43511656 1.081762 0.41497502 0
0.43511853 1.0823832 0.49112219 0
0.41787133 1.8180842 -0.049472 0
0.42470717 1.0941479 0.42118871 0
0.42487496 1.0763787 0.48758033 0
0.39803392 1.8302758 -0.04991835 0
0.4140839 1.1019711 0.35288036 0
0.41405883 1.1031083 0.42575538 0
0.41465315 1.0761398 0.48753408 0
0.37845635 1.8257819 -0.049777776 0
0.35201773 2.5890377 0.42550182 0
0.35232055 2.5802958 0.59722066 0
0.40527785 1.0514728 0.47306842 0
0.35852599 1.8307885 -0.049985483 0
0.32293418 2.5840213 0.42481247 0
0.32269216 2.5891435 0.59978539 0
0.39582697 1.0413847 0.46731991 0
0.3388449 1.8291293 -0.049963914 0
0.29223895 2.6074526 0.42932844 0
0.2915931 2.6182384 0.60762239 0
0.38608035 1.0402929 0.46698245 0
0.3191967 1.8271836 -0.049940936 0
0.26060382 2.6350625 0.43467394 0
0.26242128 2.6100032 0.60601747 0
0.29969698 1.823649 -0.049869865 0
0.3549104 1.1755801 0.038649157 0
0.22974557 2.6447055 0.43684521 0
0.22943732 2.6483235 0.61642569 0
0.27924722 1.8303018 -0.050172947 0
0.19776058 2.6626978 0.44060251 0
0.1982581 2.6576157 0.61951178 0
0.26053664 1.81926 -0.049850125 0
0.16621195 2.6719306 0.44284871 0
0.16622607 2.671803 0.62395942 0
0.34568992 1.0494964 0.47445667 0
0.24047598 1.8209939 -0.049994837 0
0.13409431 2.6831748 0.44553599 0
0.13310175 2.6912191 0.62986171 0
0.21983525 1.8262074 -0.050274268 0
0.10116069 2.6975937 0.4488793 0
0.10282002 2.6854098 0.62938625 0
0.20148076 1.8147227 -0.049960863 0
0.069629863 2.6994007 0.45000476 0
0.069928661 2.6973956 0.63359839 0
0.18140675 1.81522 -0.05008851 0
0.036127403 2.7123692 0.45324421 0
0.03720884 2.7056909 0.63697225 0
0.16287364 1.8063653 -0.049886648 0
0.0020662711 2.725878 0.45666686 0
0.0041299625 2.7140775 0.6404838 0
0.1436405 1.8019905 -0.049855515 0
-0.028827054 2.7199118 0.45660248 0
-0.028398765 2.7176323 0.64285737 0
0.12306531 1.8043896 -0.050079782 0
-0.090515569 2.8672087 0.10078237 0
-0.089162424 2.8604755 0.2905792 0
-0.063254431 2.7315524 0.45984823 0
-0.062962547 2.7300997 0.64766276 0
0.10316198 1.8028799 -0.05017139 0
-0.11282618 2.8117421 0.099005252 0
-0.1112643 2.8044465 0.28516597 0
-0.094404176 2.7256944 0.45995528 0
-0.094702139 2.7270863 0.64855534 0
0.084072158 1.7974855 -0.050130196 0
-0.14108391 2.7880714 0.098397434 0
-0.14301403 2.7965631 0.28507394 0
-0.13037641 2.7409632 0.46404243 0
-0.12838252 2.7321913 0.65167898 0
0.067253932 1.7827595 -0.049755037 0
-0.17554112 2.791981 0.098813541 0
-0.17297675 2.7813218 0.28421244 0
-0.16367353 2.7426512 0.46570671 0
-0.16413774 2.7445807 0.65683484 0
0.043458238 1.796573 -0.0504377 0
-0.20660235 2.7813036 0.098709658 0
-0.20897962 2.7906654 0.28611597 0
