# .PCD v0.7 - Point Cloud Data file format
VERSION 0.7
FIELDS x y z intensity
SIZE 4 4 4 4
TYPE F F F F
COUNT 1 1 1 1
WIDTH 1353
HEIGHT 1
VIEWPOINT 0 0 0 1 0 0 0
POINTS 1353
DATA ascii
-1.2429788 0.052271474 0.56788474 0
-1.1177318 0.048260365 -0.04988198 0
-0.49486285 0.1350897 0.039429728 0
-0.50709754 0.13338415 0.10795892 0
-0.50917298 0.13309482 0.17747942 0
-1.2466215 0.030292857 0.4385511 0
-1.2410773 0.031065736 0.56818765 0
-1.1100397 0.029495839 -0.049706902 0
-0.50488603 0.12163759 0.039853133 0
-0.50854337 0.12108072 0.10830349 0
-0.51196295 0.12056006 0.17830355 0
-1.2276531 0.011587818 0.43445086 0
-1.2506856 0.0080808597 0.57245439 0
-1.1146892 0.0088148611 -0.049986579 0
-0.51276338 0.10823532 0.040205896 0
-0.50979316 0.10872591 0.10864427 0
-0.5149129 0.10788029 0.17918746 0
-1.2400136 -0.011885057 0.43850422 0
-1.2402936 -0.011931281 0.57008332 0
-1.1081421 -0.010075192 -0.049870297 0
-0.50857329 0.09672799 0.040127959 0
-0.50717407 0.096977241 0.10858046 0
-0.51656914 0.095303662 0.17986558 0
-1.2380245 -0.03321157 0.43892455 0
-1.2314571 -0.03204168 0.56831765 0
-1.1122024 -0.030912559 -0.050147921 0
-0.5077126 0.084638275 0.040176108 0
-0.51455402 0.083330505 0.1096267 0
-0.51671731 0.082916982 0.18029748 0
-1.2376537 -0.054893117 0.43983591 0
-1.2411839 -0.055567931 0.57292116 0
-1.0949649 -0.047603171 -0.049659751 0
-0.52703846 0.068389066 0.040965486 0
-0.50513148 0.072863303 0.10885144 0
-0.50206178 0.073490255 0.17803422 0
-1.2446744 -0.078179576 0.44274536 0
-1.2423007 -0.077694751 0.57471335 0
-1.1087811 -0.070695348 -0.050312471 0
-0.51243186 0.058944646 0.04052477 0
-0.51327527 0.058761302 0.11002044 0
-0.51660705 0.058037017 0.18117595 0
-1.2329172 -0.097681232 0.44083646 0
-1.2351984 -0.098177142 0.57380682 0
-1.0979582 -0.088581152 -0.050074991 0
-0.50883651 0.047277931 0.040490557 0
-0.50130475 0.049014855 0.10899401 0
-0.51434994 0.04600646 0.18125297 0
-1.2491831 -0.12345556 0.44632351 0
-1.2284065 -0.11866421 0.57309169 0
-1.0849466 -0.10576389 -0.049764611 0
-0.51225817 0.033922512 0.040719487 0
-0.51714873 0.032729629 0.11105483 0
-0.50368285 0.036014143 0.17979711 0
-1.2429842 -0.14431138 0.446013 0
-1.2366427 -0.14276461 0.57760882 0
-1.0764245 -0.12387893 -0.049626689 0
-0.55697191 0.0097740786 0.042477544 0
-0.55794632 0.0095233815 0.11591414 0
-0.56304193 0.0082122879 0.19140038 0
-1.2452886 -0.16732697 0.44801068 0
-1.2363006 -0.1650144 0.57929778 0
-1.0744573 -0.14367126 -0.049739163 0
-0.61660004 -0.019699376 0.044804472 0
-0.62563765 -0.022146445 0.12381684 0
-1.2300841 -0.1858096 0.31664979 0
-1.2493993 -0.19103952 0.45056912 0
-1.2346627 -0.18704934 0.58064228 0
-1.0751714 -0.16431166 -0.049960796 0
-0.69436026 -0.056036782 0.047826488 0
-0.69712257 -0.056822222 0.13221623 0
-1.249027 -0.21374352 0.32128906 0
-1.2380338 -0.21061786 0.44911081 0
-1.2382671 -0.2106842 0.58390069 0
-1.0749689 -0.18484537 -0.050158788 0
-0.78582191 -0.098683573 0.051387295 0
-0.77662551 -0.09594316 0.14159517 0
-1.2347579 -0.23246025 0.31976178 0
-1.2346517 -0.2324286 0.44983786 0
-1.228815 -0.23068933 0.58274186 0
-1.0738189 -0.20523317 -0.050331764 0
-0.86473584 -0.14005192 0.054512914 0
-0.88009715 -0.14484079 0.15376453 0
-1.2418042 -0.25760224 0.32229963 0
-1.2442735 -0.25837204 0.45411623 0
-1.2388163 -0.25667074 0.58844531 0
-1.0686555 -0.22444578 -0.05036439 0
-0.98075867 -0.19582497 0.059064191 0
-0.98399365 -0.19687833 0.16610137 0
-1.2401912 -0.280301 0.32326543 0
-1.2461575 -0.2822437 0.45642346 0
-1.2350564 -0.27862898 0.58947158 0
-1.0535429 -0.24030726 -0.050031133 0
-1.1270379 -0.26526639 0.064802177 0
-1.1295944 -0.26613459 0.18329859 0
-1.2373896 -0.30274215 0.3240633 0
-1.2423279 -0.30441925 0.45728189 0
-1.0494275 -0.2598125 -0.050120387 0
-1.2945594 -0.34651765 0.20287915 0
-1.2248745 -0.32186952 0.32306051 0
-1.2412845 -0.32767388 0.45897359 0
-1.0426008 -0.27839062 -0.050116234 0
-1.2567005 -0.35716626 0.19944032 0
-1.2381455 -0.35033914 0.32705453 0
-1.2347544 -0.34909144 0.459261 0
-1.0342762 -0.29639629 -0.050063737 0
-1.2529103 -0.37998059 0.19992004 0
-1.2323298 -0.37211266 0.32745165 0
-1.2502184 -0.37895152 0.46563077 0
-1.0259082 -0.31434831 -0.05001799 0
-1.248624 -0.40272298 0.20037796 0
-1.2420585 -0.40011778 0.33091986 0
-1.2359735 -0.3977032 0.46398073 0
-1.0161116 -0.33168098 -0.049925562 0
-1.2546077 -0.42981091 0.20206493 0
-1.2481645 -0.42715988 0.33376819 0
-1.2448368 -0.42579064 0.46876237 0
-0.99938715 -0.34599319 -0.049572222 0
-1.2485669 -0.45220688 0.20239596 0
-1.2408065 -0.448899 0.33405879 0
-1.243068 -0.44986305 0.47071877 0
-1.0043408 -0.36960098 -0.050069839 0
-1.2552123 -0.48028907 0.20425206 0
-1.2349608 -0.4713538 0.33470297 0
-1.2447429 -0.47566983 0.47373071 0
-0.99517369 -0.38715425 -0.050027821 0
-1.2410728 -0.49936828 0.20370516 0
-1.2258549 -0.49242368 0.33476046 0
-1.2425439 -0.50003964 0.47576445 0
-0.99149001 -0.40726444 -0.050210703 0
-1.2362806 -0.52271843 0.20429416 0
-1.2391886 -0.52409005 0.33934554 0
-1.2466528 -0.52761048 0.47967604 0
-0.97472751 -0.42115048 -0.049885347 0
-1.501315 -0.67766672 0.082797125 0
-1.2480974 -0.554317 0.2069073 0
-1.2463474 -0.55346453 0.34279984 0
-1.2391522 -0.54995954 0.48041517 0
-0.96861267 -0.44013688 -0.049990371 0
-1.4351692 -0.67472422 0.080634043 0
-1.2359573 -0.57455927 0.20670296 0
-1.2417629 -0.57747841 0.34397992 0
-1.240119 -0.57665187 0.48365715 0
-0.95482111 -0.45522848 -0.049796931 0
-1.4015737 -0.68695104 0.079764403 0
-1.2397352 -0.60300833 0.2084552 0
-1.237837 -0.60202372 0.34536281 0
-0.94764888 -0.47370872 -0.049877837 0
-1.3426561 -0.68494558 0.077869929 0
-1.2469115 -0.63374454 0.21067694 0
-1.2350408 -0.6273964 0.34704912 0
-0.95119464 -0.49816397 -0.050405659 0
-1.3093206 -0.69551647 0.077004045 0
-1.2432566 -0.65911061 0.2116324 0
-1.2390615 -0.65679878 0.35021642 0
-0.92639327 -0.50696111 -0.049786177 0
-1.2658823 -0.69965541 0.075722665 0
-1.2400461 -0.68499082 0.21268898 0
-1.2371743 -0.68336076 0.35225782 0
-0.91760349 -0.52461255 -0.049828768 0
-1.2558774 -0.72228962 0.075816453 0
-1.2368997 -0.71119964 0.21380176 0
-1.2385482 -0.71216291 0.35506511 0
-0.9102 -0.54313636 -0.04993866 0
-1.2461061 -0.7451461 0.07593251 0
-1.2380538 -0.74030346 0.21550353 0
-1.2517205 -0.74852246 0.36045274 0
-0.89861131 -0.55916566 -0.049883462 0
-1.2515992 -0.7775467 0.076702327 0
-1.2421854 -0.77172273 0.21764101 0
-1.243879 -0.77277058 0.36152276 0
-0.89302504 -0.57897139 -0.05009032 0
-1.2418489 -0.80089778 0.076850526 0
-1.2461431 -0.80362982 0.21982375 0
-1.2479277 -0.80476505 0.36520797 0
-0.87263501 -0.58927286 -0.049677964 0
-1.2580912 -0.84137863 0.07812126 0
-1.2316488 -0.8240841 0.21970642 0
-1.2338129 -0.82549948 0.36509594 0
-0.87488878 -0.61444819 -0.050241727 0
-1.2409012 -0.86047202 0.077986471 0
-1.246147 -0.86399812 0.22337556 0
-1.2420831 -0.86126643 0.36990383 0
-0.86136103 -0.62921178 -0.05013939 0
-1.2396333 -0.89045078 0.078551725 0
-1.2320834 -0.88523668 0.22341174 0
-1.2472687 -0.89572388 0.37417594 0
-0.84596467 -0.64256513 -0.049962446 0
-1.2436767 -0.9246909 0.079370975 0
-1.2457203 -0.92614061 0.22713323 0
-1.5920931 -1.1718477 0.45368186 0
-0.83487582 -0.65890586 -0.049981527 0
-1.235176 -0.95051306 0.079662673 0
-1.2426767 -0.95597714 0.22873934 0
-1.5693437 -1.1939446 0.45267662 0
-0.82909465 -0.67923701 -0.05024654 0
-1.233032 -0.98135155 0.08025495 0
-1.237143 -0.98442632 0.23007664 0
-0.80405092 -0.68501902 -0.0496586 0
-1.2445675 -1.0232244 0.081486084 0
-1.2415586 -1.0209142 0.23282325 0
-0.80420232 -0.71012974 -0.050213281 0
-1.159004 -0.98969811 0.078339934 0
-1.1530888 -0.98503727 0.22295095 0
-1.1481626 -0.98115569 0.3689433 0
-0.79045546 -0.72450984 -0.050149981 0
-1.1402116 -1.0073128 0.078207903 0
-1.1343545 -1.0025769 0.22255333 0
-1.1404219 -1.0074829 0.37081432 0
-0.77440095 -0.73692161 -0.049987331 0
-1.2352728 -1.1192659 0.083366118 0
-1.2399616 -1.1231558 0.23954499 0
-1.3438114 -1.2093108 0.42225692 0
-0.75426841 -0.74571604 -0.049639035 0
-1.2413481 -1.1602668 0.084473886 0
-1.2403196 -1.1593914 0.24207975 0
-1.3221807 -1.2290629 0.42156199 0
-1.0215346 -0.97318476 0.49315432 0
-0.74091446 -0.7601065 -0.049613368 0
-1.278722 -1.2296356 0.41569275 0
-0.99152756 -0.97890252 0.48830798 0
-0.74112535 -0.78662378 -0.050246112 0
-1.1966802 -1.1945639 0.084077835 0
-1.1979702 -1.1957191 0.24121879 0
-1.2026665 -1.1999246 0.40186736 0
-0.96145797 -0.98392719 0.48340976 0
-0.72316206 -0.79705971 -0.050021343 0
-0.92589569 -0.98325592 0.47657368 0
-0.70064974 -0.80299729 -0.049577191 0
-0.88188195 -0.97370249 0.46669102 0
-0.69760406 -0.82730776 -0.050097574 0
-0.85733914 -0.98160595 0.46355179 0
-0.68350351 -0.84118813 -0.050084237 0
-0.83910418 -0.99532694 0.46267399 0
-0.66349423 -0.84905726 -0.049778864 0
-0.81331432 -1.0012547 0.45909971 0
-0.65720189 -0.87090987 -0.050181717 0
-0.63988984 -0.88140959 -0.050028581 0
-0.62775564 -0.89742714 -0.0501545 0
-0.60941851 -0.90661198 -0.049959835 0
-0.59705663 -0.92248005 -0.05009412 0
-0.5852598 -0.93916768 -0.050272629 0
-0.55469328 -0.93328792 -0.049412079 0
-0.5514012 -0.96039397 -0.050088495 0
-0.53604937 -0.97287422 -0.050097037 0
-0.52091759 -0.98565811 -0.050127849 0
-0.50046688 -0.99132532 -0.049850352 0
-0.48632276 -1.0053787 -0.049956352 0
-0.46904588 -1.0151215 -0.049880963 0
-0.45536631 -1.03002 -0.050038889 0
-0.43869698 -1.0406463 -0.050019532 0
-0.42329764 -1.0532086 -0.050091729 0
-0.37583756 -0.98014301 0.49972266 0
-0.4045893 -1.0606346 -0.049954664 0
-0.34922552 -0.97300524 0.49294698 0
-0.38418591 -1.0651226 -0.049705468 0
-0.32871997 -0.97483355 0.48985574 0
-0.36825943 -1.0767716 -0.049766626 0
-0.31483269 -0.98729521 0.49100837 0
-0.35728693 -1.0970519 -0.050191898 0
-0.29048806 -0.98191112 0.48535621 0
-0.34620243 -1.1177509 -0.050637003 0
-0.27704614 -0.99501175 0.48692018 0
-0.31821227 -1.1082027 -0.049853913 0
-0.25017017 -0.98380417 0.47931993 0
-0.30409533 -1.1236234 -0.050099514 0
-0.22675391 -0.97789437 0.47389358 0
-0.2833041 -1.1264619 -0.049845483 0
-0.20827688 -0.98068982 0.47187027 0
-0.27042514 -1.1447663 -0.050220571 0
-0.18866743 -0.98087853 0.46897724 0
-0.25161225 -1.1514066 -0.050137337 0
-0.16953172 -0.98155063 0.46637189 0
-0.22905631 -1.1499144 -0.049743414 0
-0.15038736 -0.98174542 0.46369532 0
-0.21661605 -1.170109 -0.05021273 0
-0.12826981 -0.97488552 0.45854601 0
-0.20097108 -1.1838114 -0.050432604 0
-0.11538412 -0.98816353 0.46083918 0
-0.1761898 -1.1762979 -0.049836691 0
-0.10706218 -1.0126954 0.46724358 0
-0.16037489 -1.1896681 -0.050061073 0
-0.075260296 -0.98093754 0.3491179 0
-0.085794941 -1.0067722 0.46271062 0
-0.14410515 -1.2023226 -0.050264549 0
-0.055869594 -0.97789675 0.34655854 0
-0.068668202 -1.0104498 0.46172822 0
-0.1236089 -1.2042303 -0.050064638 0
-0.032138184 -0.96268803 0.14701039 0
-0.033316389 -0.96579927 0.24323538 0
-0.013182802 -0.91263348 0.32710299 0
-0.051810965 -1.014637 0.4610087 0
-0.10616745 -1.2141193 -0.050178736 0
-0.012580944 -0.95727092 0.14573267 0
-0.0085244607 -0.94613785 0.23835424 0
0.0024018751 -0.91615039 0.32655939 0
-0.083871022 -1.2103965 -0.049785767 0
0.0073108836 -0.95000023 0.14427762 0
0.0099337269 -0.94250995 0.23661812 0
0.019723492 -0.91455239 0.32468864 0
-0.00041337148 -0.97205907 0.44184369 0
-0.070975974 -1.2337863 -0.050426219 0
0.024158286 -0.95072573 0.14376375 0
0.024928855 -0.94843298 0.23675084 0
0.021510141 -0.95860499 0.33517179 0
0.01264091 -0.98499447 0.4445048 0
-0.045125261 -1.2184415 -0.04961732 0
0.035878345 -0.96698374 0.14502969 0
0.037930951 -0.96061188 0.23810419 0
0.022226768 -1.0093621 0.34741563 0
0.024045633 -1.0037158 0.44923511 0
-0.02950771 -1.2343637 -0.049991861 0
0.025292085 -1.0566114 0.35867795 0
-0.0090746116 -1.2348833 -0.0497991 0
0.068703339 -0.97083336 0.33452755 0
0.006545858 -1.2520435 -0.050233662 0
0.088747188 -0.9594323 0.33031809 0
0.028229671 -1.2477258 -0.049880322 0
0.10211016 -0.97141868 0.33236605 0
0.044717684 -1.2628692 -0.050255015 0
0.11598547 -0.98221904 0.33413962 0
0.066017792 -1.2591536 -0.049943712 0
0.084044173 -1.2688644 -0.050134704 0
0.10327999 -1.2735845 -0.050151266 0
0.1231557 -1.2751955 -0.050063398 0
0.1435145 -1.2739168 -0.049879875 0
-0.066272989 -2.3904657 0.10243962 0
0.16374205 -1.2726554 -0.049706679 0
0.0005617307 -2.2057369 0.095524468 0
0.18167056 -1.2848467 -0.050029591 0
0.034097359 -2.196161 0.09498851 0
0.20254228 -1.278856 -0.049703773 0
0.065595224 -2.1977274 0.094870999 0
0.2218346 -1.2827827 -0.049745318 0
0.097053632 -2.1990063 0.094757639 0
0.24075745 -1.2899685 -0.049912781 0
0.12915324 -2.1944759 0.094449744 0
0.26002932 -1.2951018 -0.05001485 0
0.16039683 -2.1957538 0.094365433 0
0.27960488 -1.2979039 -0.050041884 0
0.19081934 -2.2048593 0.094576135 0
0.29932195 -1.2993066 -0.050027587 0
0.2226682 -2.1990321 0.094265312 0
0.31929234 -1.2971209 -0.049893741 0
0.2542606 -2.1937785 0.093989655 0
0.3383933 -1.3079267 -0.05023364 0
0.2850464 -2.1988251 0.094096832 0
0.35848215 -1.302972 -0.050018635 0
0.31605685 -2.2008224 0.094108813 0
0.37816399 -1.3054775 -0.050079267 0
0.34702039 -2.2045619 0.09419699 0
0.39819908 -1.2940371 -0.049650729 0
0.37807909 -2.2070286 0.094253607 0
0.41768649 -1.308915 -0.050170884 0
0.43749315 -1.3076676 -0.050124124 0
0.4573634 -1.3123581 -0.050298277 0
0.47698909 -1.3039708 -0.050014347 0
0.49648362 -1.2971992 -0.049796827 0
0.5166021 -1.3048849 -0.050104819 0
0.53617287 -1.3009624 -0.050006796 0
0.55526078 -1.2917557 -0.049728256 0
0.57448435 -1.2861524 -0.04958719 0
0.59510309 -1.2948602 -0.049968325 0
0.61598265 -1.3034571 -0.050355352 0
0.63385451 -1.2867346 -0.049840957 0
0.65345657 -1.2846918 -0.04986313 0
0.67446095 -1.2915461 -0.050215714 0
0.6934523 -1.2849305 -0.050090946 0
0.70989043 -1.2647139 -0.049481068 0
0.72930473 -1.2620432 -0.049515352 0
0.74943978 -1.262711 -0.049680356 0
0.77197784 -1.2737135 -0.050232913 0
0.78918862 -1.2602181 -0.04989928 0
0.80954391 -1.2604079 -0.050075855 0
0.82696378 -1.2488298 -0.049828283 0
0.85000318 -1.2583985 -0.050370786 0
0.86662346 -1.2442628 -0.050045401 0
0.8866604 -1.2422469 -0.050178494 0
0.90352279 -1.2298368 -0.049932454 0
0.92254043 -1.2245206 -0.049959987 0
0.94534302 -1.2301661 -0.050410394 0
0.95767957 -1.205562 -0.0497269 0
0.98309588 -1.2175398 -0.050439343 0
0.99914742 -1.2038463 -0.050185103 0
0.92411566 -1.0094198 0.46024516 0
1.0157279 -1.1919477 -0.050006352 0
0.945409 -1.0163487 0.46498272 0
1.0335212 -1.1832914 -0.049960051 0
0.95734012 -0.99978334 0.46137819 0
1.0521729 -1.1767063 -0.050002668 0
0.9779309 -1.0040412 0.46534947 0
1.07348 -1.1760069 -0.050284673 0
0.98492211 -0.97699076 0.45803636 0
1.0874356 -1.1588479 -0.049931973 0
1.0000166 -0.96886796 0.45764479 0
1.1104846 -1.1613848 -0.050362695 0
1.0240524 -0.97961217 0.46427107 0
1.1217958 -1.1393207 -0.049829144 0
1.040543 -0.97384614 0.46493095 0
1.1434017 -1.1383976 -0.050143994 0
1.067831 -0.98927051 0.47357577 0
1.159916 -1.1272469 -0.050059844 0
1.0780351 -0.97059125 0.46960372 0
1.1764818 -1.1163099 -0.049992196 0
1.1036766 -0.98119015 0.47671771 0
1.1938896 -1.1069815 -0.049998246 0
1.1305928 -0.99297041 0.48445362 0
1.2112992 -1.0976416 -0.050012846 0
1.1445735 -0.980941 0.05721353 0
1.1499492 -0.99034303 0.48685333 0
1.2251214 -1.0821801 -0.049783014 0
1.1655412 -0.98095638 0.057589665 0
1.1631042 -0.97681612 0.48515683 0
1.2473477 -1.0809011 -0.050150625 0
1.2621348 -1.0671855 -0.050009731 0
1.2791767 -1.0571679 -0.050032344 0
1.2909081 -1.0390517 -0.049718093 0
1.3070334 -1.0278177 -0.049704183 0
1.3277938 -1.0232623 -0.049989335 0
1.3448253 -1.0131335 -0.050043982 0
1.364996 -1.0072153 -0.050294992 0
1.3787059 -0.99241585 -0.050162803 0
1.3859502 -0.96939665 -0.049666215 0
1.4150758 -0.9745267 -0.050451428 0
1.4193944 -0.948291 -0.049817782 0
1.4353768 -0.93671733 -0.049861878 0
1.4423161 -0.91453344 -0.049417105 0
1.4667701 -0.91275495 -0.049941249 0
1.484872 -0.90337056 -0.05012057 0
1.4966642 -0.88696855 -0.049971834 0
1.5113564 -0.87377387 -0.049986355 0
1.5255996 -0.86009806 -0.049986258 0
1.5363966 -0.84296101 -0.049820658 0
1.5491017 -0.82784933 -0.049763221 0
1.5660793 -0.81686467 -0.049926709 0
1.5880407 -0.8103537 -0.050338078 0
1.5929441 -0.78797728 -0.049926627 0
1.6083086 -0.77523369 -0.050031759 0
1.6262025 -0.76456839 -0.050262589 0
1.6360973 -0.74696475 -0.050124269 0
1.639744 -0.72436577 -0.049709324 0
1.6517442 -0.70880502 -0.049693171 0
1.6772101 -0.70372844 -0.050295126 0
1.6773564 -0.67892838 -0.049760081 0
1.7053653 -0.67516029 -0.050480284 0
1.7009006 -0.6474182 -0.049768269 0
1.7211256 -0.6375668 -0.050153717 0
1.7359469 -0.62370086 -0.05030781 0
1.7356107 -0.5996502 -0.04981884 0
1.7435386 -0.58133739 -0.04969785 0
1.7568868 -0.56652236 -0.049816012 0
1.772398 -0.55292535 -0.050031554 0
1.7835187 -0.53654516 -0.050070409 0
1.7776623 -0.51035166 -0.049418066 0
1.8065783 -0.50413024 -0.05020624 0
1.8045236 -0.48045895 -0.049734108 0
1.8239402 -0.46846935 -0.050143544 0
1.8282987 -0.44846162 -0.049952786 0
1.8403864 -0.43242601 -0.050081171 0
1.8470095 -0.41366705 -0.050000455 0
1.8457205 -0.39129636 -0.049618136 0
1.8683473 -0.37995014 -0.050184876 0
1.8635557 -0.35627308 -0.04968714 0
1.8812087 -0.34237376 -0.050072331 0
1.8852438 -0.32267502 -0.049937956 0
1.8894521 -0.30314204 -0.049820401 0
1.9036636 -0.28744659 -0.050094232 0
1.9102423 -0.26878843 -0.050084636 0
1.9225966 -0.25213614 -0.050302211 0
1.9205613 -0.23053299 -0.049985398 0
1.9309078 -0.21310674 -0.050144009 0
1.936078 -0.1939822 -0.05011702 0
1.9387062 -0.17413415 -0.050004579 0
1.9386396 -0.15361731 -0.049801972 0
1.9477037 -0.13565566 -0.049946733 0
1.9610623 -0.11866168 -0.050257437 0
1.9554864 -0.096947052 -0.04988033 0
1.9645481 -0.07878042 -0.05004983 0
1.9726249 -0.060280841 -0.050191306 0
1.9821459 -0.0419618 -0.050393477 0
1.969207 -0.019347709 -0.049788166 0
1.9833649 -0.0018145846 -0.050176017 0
1.9754559 0.019500885 -0.049773414 0
1.9838761 0.038151357 -0.049970377 0
1.9842401 0.058016498 -0.049885329 0
1.9899662 0.077179886 -0.050002221 0
1.9927922 0.096740924 -0.050023496 0
1.9882131 0.11702157 -0.049788028 0
1.9947113 0.13623005 -0.049958762 0
1.9874033 0.15652005 -0.049643919 0
1.9905432 0.17599812 -0.049712047 0
2.0015519 0.1951804 -0.0500701 0
1.9906522 0.21530835 -0.0496541 0
1.9979934 0.23480138 -0.049898587 0
2.0079262 0.25445369 -0.050244346 0
1.9927832 0.2741951 -0.04970371 0
2.0026515 0.29403073 -0.050064918 0
1.9957063 0.31359494 -0.049834628 0
1.9948899 0.33326995 -0.049832027 0
2.0091205 0.35379976 -0.050376341 0
2.0049565 0.37344164 -0.050272096 0
2.0054295 0.39339328 -0.050342698 0
1.9911106 0.41199702 -0.049891934 0
1.9871422 0.43139619 -0.049820621 0
2.0011051 0.45290309 -0.050402761 0
1.9874448 0.47115383 -0.050000746 0
1.9789468 0.48987398 -0.049792536 0
1.9961946 0.51253462 -0.050523072 0
1.9939309 0.5323723 -0.050558753 0
1.9701723 0.54827005 -0.049823206 0
1.9801925 0.57031977 -0.050322387 0
1.9681008 0.58807123 -0.050026238 0
1.9559115 0.60559005 -0.049733855 0
1.9540266 0.62534487 -0.049826767 0
1.9538668 0.6456027 -0.049992606 0
1.9501951 0.66505754 -0.050038725 0
1.9522431 0.68613684 -0.050305989 0
1.9405413 0.70341253 -0.050072815 0
1.9399251 0.72389913 -0.050260607 0
1.9221044 0.7390455 -0.049814139 0
1.91926 0.75884432 -0.049936436 0
1.9110233 0.77686852 -0.049864914 0
1.9122268 0.79824853 -0.050159954 0
1.9036766 0.81619555 -0.050094724 0
1.8971883 0.83489972 -0.050116811 0
1.889533 0.85315245 -0.050103121 0
1.8768446 0.86929011 -0.049903415 0
1.8722252 0.88877726 -0.050024506 0
1.8639755 0.90673238 -0.050013803 0
1.8489928 0.92155874 -0.049746919 0
1.8476304 0.94270879 -0.050025035 0
1.8358352 0.95891756 -0.049899872 0
1.838241 0.98228347 -0.050351351 0
1.8171309 0.99362713 -0.049868789 0
1.8110999 1.0127733 -0.05000126 0
1.8087898 1.0341113 -0.050296705 0
1.7945989 1.0488505 -0.050115842 0
1.7876972 1.0677664 -0.050243832 0
1.7744 1.0828906 -0.050115272 0
1.7541965 1.0935786 -0.049702626 0
1.7498307 1.1141404 -0.049965166 0
1.7379326 1.1299338 -0.049918301 0
1.740031 1.1552277 -0.050484248 0
1.7154084 1.1623092 -0.049904574 0
1.7086875 1.1817602 -0.050110653 0
1.6991234 1.199297 -0.050203305 0
1.6911758 1.2181448 -0.050379112 0
1.6628649 1.2213149 -0.049646311 0
1.659098 1.2434191 -0.050029092 0
1.6560497 1.2664648 -0.050461784 0
1.6328653 1.2729931 -0.049973555 0
1.6213553 1.2891343 -0.050034121 0
1.6021789 1.298558 -0.049739648 0
1.5954076 1.3189555 -0.050045356 0
1.5866505 1.3378049 -0.050270297 0
1.5655107 1.3450665 -0.049898662 0
1.5535136 1.3609092 -0.049983561 0
1.5381072 1.3734211 -0.049907155 0
1.5198731 1.3829513 -0.049692951 0
1.514145 1.40546 -0.050131079 0
1.0229822 0.88728458 0.29154375 0
1.4929149 1.4116561 -0.049774628 0
1.0456158 0.92769486 0.3065052 0
1.4815925 1.4284756 -0.049945675 0
1.4409294 1.3833528 0.059777118 0
1.4438356 1.3865777 0.16834836 0
1.4376976 1.3797667 0.27678996 0
1.0548943 0.95497972 0.31529123 0
1.459345 1.433048 -0.049539629 0
1.4064909 1.3728912 0.058680765 0
1.4182802 1.3863094 0.16650108 0
1.4151181 1.3827103 0.27447951 0
1.0608661 0.97951126 0.32270926 0
1.4525017 1.4551693 -0.049976099 0
1.3866055 1.3782359 0.058359675 0
1.3944327 1.387374 0.16490804 0
1.385771 1.3772618 0.27026889 0
1.0572199 0.99367982 0.32547507 0
1.4379442 1.4685366 -0.0500049 0
1.3692446 1.3862554 0.058178056 0
1.3666065 1.3830959 0.16262589 0
1.3642297 1.380249 0.26817158 0
1.0561471 1.0112602 0.32971069 0
1.427042 1.4864328 -0.05025034 0
1.3366289 1.3753314 0.05713645 0
1.3444605 1.3849549 0.16126619 0
1.3446608 1.385201 0.26661587 0
1.0508791 1.0241963 0.3319169 0
1.4143776 1.5023905 -0.05041131 0
1.3182231 1.3811471 0.056886762 0
1.3153868 1.3775707 0.1586906 0
1.3160253 1.3783758 0.26242173 0
1.060437 1.0560986 0.34218287 0
1.396512 1.5118084 -0.050282881 0
1.2981795 1.3845601 0.056541588 0
1.2984862 1.3849571 0.158196 0
1.2955352 1.3811382 0.26053607 0
1.0531809 1.0675167 0.34368595 0
1.3773664 1.5193807 -0.050083295 0
1.2737323 1.3817236 0.055931732 0
1.2717832 1.3791347 0.15595803 0
1.2697482 1.3764316 0.25704059 0
1.0372419 1.0675938 0.34049034 0
1.3519129 1.5181181 -0.049505129 0
1.2566218 1.3881696 0.055752125 0
1.2587918 1.3911289 0.15615998 0
1.2517868 1.3815762 0.25585335 0
1.028411 1.0769584 0.34123889 0
1.3452969 1.5425383 -0.050072957 0
1.246125 1.4036639 0.055980563 0
1.2426882 1.3988512 0.15581772 0
1.247566 1.4056817 0.25892907 0
1.0263526 1.0959079 0.34594482 0
1.3270988 1.551007 -0.049945876 0
1.2462705 1.4347521 0.056890845 0
1.248893 1.4385239 0.15968715 0
1.2401026 1.4258809 0.26113167 0
1.0141993 1.1009654 0.34499121 0
1.3111515 1.562647 -0.049966499 0
1.244657 1.4643916 0.057730872 0
1.2426721 1.4614586 0.16134152 0
1.2505891 1.4731572 0.26923263 0
1.0030278 1.1073486 0.34464002 0
1.2959895 1.5755118 -0.050047934 0
1.2435004 1.4958074 0.058640771 0
1.2387401 1.4885789 0.16353098 0
1.2374251 1.486582 0.26992804 0
1.172384 1.3878175 0.34919715 0
0.99490637 1.1183187 0.34617519 0
1.2788588 1.5854158 -0.050011307 0
1.24816 1.5374972 0.059979588 0
1.243873 1.5308053 0.1676372 0
1.2190123 1.4919994 0.26893848 0
1.1541482 1.390751 0.3472904 0
0.98295695 1.1235327 0.34546432 0
1.2665735 1.6030543 -0.050309408 0
1.2400339 1.5604562 0.060517594 0
1.23883 1.5585237 0.16986611 0
1.2054557 1.5049555 0.26960799 0
1.1304332 1.384539 0.34271875 0
0.97902691 1.1415204 0.34982529 0
1.2499911 1.6140099 -0.050332792 0
1.187649 1.5110807 0.26886827 0
1.1046673 1.3740751 0.33700296 0
0.96652025 1.1459889 0.34891406 0
0.84416115 0.94396967 0.47719625 0
1.230662 1.6203376 -0.05017297 0
1.1785202 1.5317513 0.27122501 0
1.0888567 1.3794174 0.3361052 0
0.95665252 1.1548091 0.34975043 0
0.8387863 0.95456022 0.48095471 0
1.2042781 1.6141062 -0.049507849 0
1.1605161 1.5375684 0.27050304 0
1.0779794 1.3932149 0.3377575 0
0.94721234 1.1645086 0.35096568 0
0.85093385 0.99612147 0.35499784 0
0.84195507 0.98041791 0.41869435 0
0.83981138 0.97666878 0.49260104 0
1.1956393 1.6388773 -0.050126936 0
1.1430572 1.5441655 0.26999393 0
1.0546744 1.3849685 0.33300567 0
0.93407077 1.1677349 0.34975457 0
0.84873194 1.0140209 0.36100706 0
0.83630764 0.991642 0.42220002 0
0.84476292 1.0068718 0.50964803 0
1.1762669 1.6446552 -0.049976021 0
1.1277788 1.5546658 0.27033308 0
1.0356687 1.3837183 0.33039886 0
0.92375851 1.1760231 0.35052744 0
0.84971416 1.0386039 0.37013212 0
0.8408761 1.0222013 0.4367117 0
0.83757728 1.0160789 0.51239359 0
1.1553695 1.6472926 -0.049709436 0
1.1109771 1.5623603 0.27013832 0
1.0135008 1.3758678 0.32597825 0
0.91641784 1.1901276 0.35352749 0
0.8518647 1.0666238 0.38079724 0
0.84380072 1.0511957 0.45021221 0
0.83956641 1.0430946 0.52709895 0
1.1411085 1.6626165 -0.049962878 0
1.0908757 1.56349 0.26866043 0
0.99959117 1.3833541 0.3260524 0
0.89976746 1.1863675 0.3498801 0
0.85483742 1.0977051 0.39280289 0
0.83915442 1.0667572 0.45607132 0
0.83925056 1.066947 0.53959084 0
1.1206479 1.6657274 -0.049736168 0
1.0774932 1.5778409 0.26989901 0
0.98075384 1.3808273 0.32333007 0
0.89059627 1.1972177 0.35174823 0
0.84672672 1.1078755 0.39507189 0
0.84010369 1.0943874 0.46865419 0
0.84143579 1.0971004 0.55617148 0
1.1033843 1.6751965 -0.049772386 0
0.96767777 1.3897969 0.32393903 0
0.87787461 1.2009349 0.35102019 0
0.84247178 1.1264805 0.40124127 0
0.83963293 1.1205101 0.48032013 0
0.83886707 1.1188995 0.56714886 0
1.0869497 1.6865361 -0.04989047 0
0.94718468 1.3827974 0.32010594 0
0.86352044 1.2009774 0.34900942 0
0.83683616 1.142987 0.40644312 0
0.84418994 1.1589683 0.498716 0
0.83676243 1.1428268 0.5794735 0
1.0717181 1.7007917 -0.050129954 0
0.93261987 1.3881961 0.31982875 0
0.8541137 1.2117691 0.35099015 0
0.8395704 1.1790861 0.42052701 0
0.83848137 1.1766386 0.5055933 0
0.83977044 1.1795356 0.60004306 0
1.0514016 1.7036569 -0.049932964 0
0.91667712 1.3903271 0.31869665 0
0.8529821 1.2421912 0.36011225 0
0.84137863 1.215205 0.43452826 0
0.83798558 1.2073138 0.51955557 0
0.83862686 1.2088051 0.61567467 0
1.0341533 1.7135587 -0.050018921 0
0.89745629 1.3842766 0.31536597 0
0.85049218 1.2711476 0.36866397 0
0.84178007 1.2501614 0.44792518 0
0.83997542 1.2458142 0.53768772 0
0.84047449 1.2470164 0.63697582 0
1.0132905 1.7146056 -0.049772285 0
0.8804636 1.3829126 0.31340671 0
0.84905577 1.3044815 0.37875274 0
0.83852118 1.2781746 0.45815578 0
0.83853894 1.2782191 0.55242985 0
0.83883291 1.2789533 0.65414655 0
0.99513185 1.7221851 -0.049786914 0
0.86590803 1.3873333 0.31309754 0
0.85035992 1.3470441 0.39209014 0
0.84206867 1.3255594 0.47695208 0
0.83896804 1.3175248 0.57081121 0
0.84000558 1.3202134 0.67717385 0
0.9772507 1.7305505 -0.049840126 0
0.84939921 1.3864157 0.31138688 0
0.84747159 1.3812271 0.40238544 0
0.84111637 1.3641211 0.49174383 0
0.83941418 1.3595393 0.59054977 0
0.84102815 1.3638835 0.70160902 0
0.95932001 1.738898 -0.049900983 0
0.83317769 1.3858076 0.30982423 0
0.83768547 1.3984255 0.40664697 0
0.83891666 1.4018718 0.50611794 0
0.84016961 1.4053791 0.61222911 0
0.94144827 1.7475591 -0.049981952 0
0.81633204 1.3829126 0.30770671 0
0.84092999 1.4546025 0.42464364 0
0.83905435 1.449136 0.52460665 0
0.83939189 1.4501196 0.6332286 0
0.92260349 1.7534565 -0.049967188 0
1.0268418 2.0701916 0.34886065 0
0.80093509 1.3837585 0.30665976 0
0.83804089 1.4965072 0.43755269 0
0.84097034 1.5054085 0.54694468 0
0.84190285 1.508242 0.6611951 0
0.90476125 1.7625101 -0.050079532 0
1.0082726 2.090905 0.35138956 0
0.78807509 1.3923173 0.30773219 0
0.8419432 1.5632166 0.45907596 0
0.83999574 1.5570382 0.56716824 0
0.83880568 1.5532627 0.68216103 0
0.88385618 1.7616875 -0.049831584 0
0.98311454 2.0909953 0.35006833 0
0.76964653 1.3827764 0.30402076 0
0.84016979 1.61675 0.47592226 0
0.8420552 1.6230053 0.59352046 0
0.86652023 1.7726482 -0.050032072 0
0.95871246 2.0930593 0.34918192 0
0.7549578 1.3849167 0.30348566 0
0.84178293 1.6866745 0.49838987 0
0.83964455 1.6792427 0.61557436 0
0.84741604 1.7777058 -0.05002144 0
0.74182051 1.3925252 0.047762614 0
0.73933548 1.3834605 0.13070518 0
0.73911327 1.3826499 0.21512134 0
0.73758 1.377057 0.30035597 0
0.83338243 1.7265153 0.51039499 0
0.83891952 1.7467129 0.64238775 0
0.829216 1.7862146 -0.050147068 0
0.72282147 1.3780309 0.047087483 0
0.72616428 1.3908556 0.13110732 0
0.72559553 1.3886737 0.21554112 0
0.72387075 1.3820565 0.30068472 0
0.83105671 1.7932764 0.53165281 0
0.83233714 1.798189 0.66227376 0
0.80786198 1.7823496 -0.04982568 0
0.70702261 1.3745054 0.046826657 0
0.70795524 1.3782774 0.12931545 0
0.71057224 1.3888618 0.21490712 0
0.70727235 1.3755155 0.29802489 0
0.8245008 1.8496451 0.54929292 0
0.82402265 1.8477113 0.6813001 0
0.78935629 1.7896791 -0.049925558 0
0.69290811 1.3773826 0.046808664 0
0.69589579 1.3901545 0.13025333 0
0.69407493 1.3823706 0.21307296 0
0.69409037 1.3824364 0.29895502 0
0.81838268 1.913761 0.56955647 0
0.77093595 1.7977368 -0.050060313 0
0.6791926 1.3820193 0.046861552 0
0.67740613 1.3739244 0.12811202 0
0.67705286 1.3723235 0.21062556 0
0.68075728 1.3891096 0.29986125 0
0.804546 1.9500339 0.58030397 0
0.75092387 1.7986071 -0.049941126 0
0.66388267 1.3791677 0.046647571 0
0.66369116 1.3782449 0.12825748 0
0.66457826 1.3825197 0.21195273 0
0.66424912 1.3809338 0.29693979 0
0.79047292 1.9891882 0.59206176 0
0.73294783 1.8095258 -0.050196864 0
0.64987743 1.3822479 0.046656873 0
0.65016007 1.3837019 0.12854595 0
0.64915246 1.3785191 0.2106972 0
0.64989036 1.3823144 0.29656336 0
0.77907211 2.0467689 0.6100961 0
0.71101868 1.7996783 -0.049706761 0
0.63500082 1.3805736 0.046500046 0
0.63418496 1.3760759 0.12742342 0
0.63801104 1.3971699 0.21363205 0
0.63522565 1.3818133 0.2957468 0
0.7621215 2.0814204 0.62038505 0
0.69284457 1.8100662 -0.049960304 0
0.62103951 1.3836823 0.0465235 0
0.62144893 1.3861132 0.12825023 0
0.6191352 1.3723742 0.20864047 0
0.62109041 1.3839842 0.29567111 0
0.74493867 2.1194046 0.63184869 0
0.67371053 1.8154641 -0.05004134 0
0.60689211 1.3857161 0.046514437 0
0.60747421 1.3894597 0.12836517 0
0.60484886 1.3725748 0.20826431 0
0.60604185 1.3802474 0.2941162 0
0.7272585 2.1598623 0.64419556 0
0.65526378 1.8261086 -0.050320134 0
0.5920881 1.3831166 0.046344731 0
0.59325182 1.3912766 0.12833299 0
0.59192526 1.3819745 0.20959745 0
0.59243101 1.3855209 0.29493508 0
0.70797354 2.1957126 0.65504688 0
0.63409358 1.8173207 -0.049907263 0
0.57776326 1.3832967 0.04628209 0
0.57843047 1.3884373 0.12781568 0
0.57624036 1.3715627 0.2073551 0
0.57832283 1.3876081 0.29497698 0
0.68872392 2.2382469 0.66820437 0
0.61346376 1.810673 -0.049581517 0
0.56295758 1.3790059 0.046065319 0
0.56302577 1.379589 0.12666915 0
0.56249756 1.3750743 0.20768012 0
0.56398714 1.3878053 0.294579 0
0.66810298 2.2776639 0.68037963 0
0.59512961 1.823859 -0.049977455 0
0.55133659 1.4038094 0.12911823 0
0.55099452 1.4005282 0.21201485 0
0.55254 1.4153523 0.30124354 0
0.64469016 2.2992287 0.68665421 0
0.57526857 1.8234631 -0.049894307 0
0.5526942 1.5768685 0.14764288 0
0.55234098 1.5730102 0.24299803 0
0.55215758 1.5710064 0.3407582 0
0.6225341 2.3397751 0.69936162 0
0.5563482 1.8342896 -0.050222091 0
0.60256535 2.4203451 0.23842026 0
0.59878457 2.3724027 0.38736093 0
0.59697568 2.3494651 0.53962559 0
0.536035 1.8276238 -0.049932275 0
0.573722 2.3968844 0.39143771 0
0.57322627 2.3893969 0.54934865 0
0.5157544 1.8178043 -0.049539044 0
0.54831314 2.4256229 0.3963376 0
0.54828507 2.4250987 0.55806088 0
0.49665251 1.8300678 -0.049944192 0
0.52169192 2.4415801 0.39898565 0
0.52171981 2.4422607 0.56211472 0
0.4771792 1.8394237 -0.05025395 0
0.45634973 1.1044356 0.35395613 0
0.45648545 1.1092247 0.42888346 0
0.45713845 1.826813 -0.049788062 0
0.44585627 1.1101228 0.35621458 0
0.44585454 1.1100131 0.42916065 0
0.43749255 1.8362294 -0.050117612 0
0.43515357 1.0935138 0.42085505 0
0.43511727 1.0819846 0.49088588 0
0.41776386 1.8294668 -0.049878392 0
0.42471659 1.0931517 0.42069024 0
0.42494589 1.0688679 0.48312587 0
0.39812949 1.8259389 -0.049763486 0
0.41407341 1.1024467 0.35307726 0
0.41399327 1.1060834 0.42724425 0
0.4144991 1.0831302 0.49168071 0
0.37832162 1.8296719 -0.049916733 0
0.35228851 2.5812209 0.42409125 0
0.35261363 2.5718346 0.59506059 0
0.40499502 1.0596374 0.47791332 0
0.35867393 1.8276582 -0.049873598 0
0.32255018 2.5921481 0.42627978 0
0.32264927 2.5900512 0.60001719 0
0.39526474 1.0532829 0.47438392 0
0.33889687 1.8282614 -0.049932871 0
0.29172698 2.6160028 0.43087319 0
0.29190004 2.6131124 0.60631222 0
0.31835774 1.8387513 -0.050355006 0
0.26068136 2.6339931 0.43448058 0
0.26129887 2.6254795 0.60997629 0
0.29859409 1.8365945 -0.050333709 0
0.35599232 1.1628809 0.038194135 0
0.2301296 2.640198 0.43602931 0
0.22974953 2.644659 0.6154874 0
0.27978584 1.8247997 -0.049975578 0
0.19814338 2.6587875 0.43989393 0
0.19806522 2.659586 0.62001687 0
0.26033795 1.8210562 -0.049914647 0
0.16544695 2.6788461 0.44410351 0
0.16607808 2.6731408 0.6243028 0
0.34639865 1.0430895 0.47063392 0
0.2402655 1.8226997 -0.0500562 0
0.13431205 2.6814101 0.44521534 0
0.13460185 2.6790614 0.6267364 0
0.22084835 1.8187686 -0.050006241 0
0.10174175 2.6933272 0.44810274 0
0.10249503 2.6877961 0.63000071 0
0.20092799 1.8184316 -0.050094739 0
0.0706238 2.6927316 0.44878873 0
0.068080053 2.7097993 0.6367979 0
0.18093897 1.8181087 -0.050192986 0
0.03717421 2.7059047 0.45206317 0
0.037614778 2.7031841 0.63632435 0
0.16315161 1.8047758 -0.049829047 0
0.0033333169 2.7186327 0.45534036 0
0.0040496155 2.7145369 0.64060283 0
0.14162065 1.8127407 -0.050246026 0
-0.02947153 2.7233419 0.45723191 0
-0.029766751 2.7249134 0.6447475 0
0.12445639 1.7974674 -0.049827706 0
-0.08913596 2.8603437 0.10053238 0
-0.089359537 2.8614564 0.29068676 0
-0.062005922 2.7253397 0.45870537 0
-0.062732741 2.7289565 0.64736515 0
0.10487695 1.7948694 -0.049878921 0
-0.11135603 2.8048754 0.098754548 0
-0.11376549 2.8161297 0.28644997 0
-0.095188215 2.7293565 0.46063071 0
-0.093738154 2.7225835 0.64738047 0
0.083151951 1.8015341 -0.050278421 0
-0.14274617 2.7953849 0.098665185 0
-0.14404042 2.8010788 0.2855716 0
-0.12913163 2.735487 0.46302956 0
-0.12841828 2.7323484 0.65172011 0
0.06488128 1.7926219 -0.050117183 0
-0.17556943 2.7920988 0.09881787 0
-0.17662884 2.7965024 0.28589046 0
-0.16450085 2.7460902 0.46634459 0
-0.16186948 2.7351525 0.65436071 0
0.044617102 1.7920095 -0.050269604 0
-0.20824118 2.7877572 0.098947369 0
-0.21106781 2.7988884 0.28702775 0
-0.19513847 2.7361591 0.46593213 0
-0.19550617 2.7376072 0.65702856 0
0.026716964 1.7821275 -0.050089393 0
-0.25043374 2.8186493 0.10039456 0
-0.25245321 2.8262022 0.29099011 0
-0.22887255 2.7380121 0.46779004 0
-0.22964849 2.7409141 0.66004211 0
0.010211812 1.7677381 -0.049749736 0
-0.26192552 2.7364624 0.46909657 0
-0.26341552 2.7417665 0.66252959 0
-0.0094739925 1.7649835 -0.049849566 0
-0.29726577 2.7420142 0.47182116 0
-0.29277921 2.7267826 0.66092724 0
-0.027132316 1.7554029 -0.049704008 0
-0.32645488 2.726305 0.47062773 0
-0.32778531 2.7306204 0.66444224 0
-0.048317537 1.7570955 -0.049989015 0
-0.35967648 2.7236404 0.47197062 0
-0.35783964 2.7179382 0.66366136 0
-0.065108791 1.7450734 -0.04976872 0
-0.39318573 2.7212269 0.47344637 0
-0.39630592 2.7305105 0.66977626 0
-0.084651664 1.7413701 -0.049870096 0
-0.42313945 2.7080204 0.47294673 0
-0.42721808 2.7196681 0.66971928 0
-0.10397334 1.7368419 -0.049949929 0
-0.45420355 2.6980503 0.47313821 0
-0.45810711 2.7087636 0.66975063 0
-0.11687608 1.7151954 -0.049385913 0
-0.48980081 2.6999602 0.47569692 0
-0.49144083 2.7042911 0.67164278 0
-0.14399995 1.7307992 -0.050254285 0
-0.52241552 2.6932936 0.47669297 0
-0.51848084 2.683286 0.66912675 0
-0.16277249 1.724292 -0.050287768 0
-0.5468117 2.6660903 0.47377408 0
-0.55155987 2.6777344 0.67094934 0
-0.17615356 1.7049564 -0.049833369 0
-0.5808655 2.6627772 0.47557697 0
-0.58167827 2.6647007 0.67082435 0
-0.19287874 1.694057 -0.049711749 0
-0.61311996 2.6547098 0.47653818 0
-0.61580217 2.660841 0.67335874 0
-0.2144617 1.6940928 -0.050026178 0
-0.63825631 2.6305749 0.47440434 0
-0.63679624 2.6273484 0.66772914 0
-0.23287143 1.6868141 -0.050064858 0
-0.66932464 2.6198118 0.47498313 0
-0.66637862 2.6135142 0.66767764 0
-0.24593504 1.6684026 -0.049671501 0
-0.69819915 2.604311 0.47469467 0
-0.69470394 2.5970778 0.6669938 0
-0.27045172 1.6735638 -0.050222699 0
-0.72844017 2.5916278 0.47504529 0
-0.73233497 2.5994351 0.67176545 0
-0.28317493 1.654955 -0.049835406 0
-0.7599678 2.5813262 0.47595832 0
-0.75681055 2.575192 0.66907084 0
-0.30176532 1.6479774 -0.049922071 0
-0.78484714 2.5582149 0.47434273 0
-0.78676462 2.5618279 0.6695891 0
-0.32009327 1.6403859 -0.049993854 0
-0.80650008 2.529664 0.47166207 0
-0.80996382 2.5359967 0.66659486 0
-0.33797997 1.6319019 -0.050038997 0
-0.61890423 2.1304884 0.082470216 0
-0.83950257 2.5220084 0.473344 0
-0.84110677 2.5248556 0.66796643 0
-0.35467947 1.6213017 -0.050006393 0
-0.61901641 2.0769377 0.080812477 0
-0.859936 2.4922092 0.47050762 0
-0.86242259 2.4964952 0.66438437 0
-0.37043047 1.6091518 -0.049917813 0
-0.61542308 2.0194533 0.078978725 0
-0.88483536 2.4706519 0.46943492 0
-0.88580239 2.4722714 0.66208386 0
-0.3878777 1.5998765 -0.049957272 0
-0.61787808 1.9742779 0.077644587 0
-0.91062236 2.4508159 0.4687843 0
-0.90619946 2.4436162 0.65852648 0
-0.40650672 1.5924137 -0.050082829 0
-0.6132648 1.9196689 0.075902723 0
-0.9272517 2.4166455 0.46513963 0
-0.94100678 2.438417 0.66209656 0
-0.42112571 1.5786091 -0.049949378 0
-0.62440157 1.8915559 0.075272068 0
-0.96313465 2.4130411 0.46808326 0
-0.96085072 2.4095252 0.65862083 0
-0.43601751 1.565377 -0.049847249 0
-0.62106359 1.8425552 0.073745459 0
-0.97813034 2.3774009 0.4642024 0
-0.97989738 2.3800478 0.65501243 0
-0.45121235 1.5527085 -0.049776718 0
-0.61784375 1.7956235 0.072293378 0
-1.0088087 2.3655717 0.46553659 0
-1.0095187 2.3666067 0.65640801 0
-0.46760386 1.5418192 -0.049791586 0
-0.62253463 1.76169 0.07139428 0
-1.024138 2.3316274 0.46208835 0
-1.0142986 2.3176637 0.64685154 0
-0.48831528 1.5368763 -0.050077692 0
-0.62188387 1.7214506 0.070211649 0
-0.61372733 1.7101792 0.19779697 0
-1.0375364 2.2958276 0.45823827 0
-1.0435992 2.3042057 0.64840168 0
-0.07460542 0.96518362 0.43882632 0
-0.50243396 1.5227169 -0.049968101 0
-0.61615956 1.6757752 0.068775766 0
-0.61868477 1.6791738 0.1954249 0
-1.0604401 2.2737134 0.45746467 0
-1.0647265 2.2794824 0.64650249 0
-0.094105616 0.97316509 0.44781649 0
-0.52270812 1.5167499 -0.050233256 0
-0.6176995 1.6412879 0.067825161 0
-0.61940527 1.6435243 0.1924106 0
-1.0797983 2.2471209 0.45573294 0
-1.0744057 2.2400508 0.63995039 0
-0.092456773 0.95267028 0.4391278 0
-0.53382009 1.4987708 -0.049967926 0
-0.61303782 1.5999608 0.066555902 0
-0.61626399 1.6040819 0.18885 0
-1.0970553 2.2182283 0.45351282 0
-1.0980154 2.2194548 0.63947564 0
-0.10394491 0.9496628 0.44145182 0
-0.5468033 1.4834149 -0.049826398 0
-0.61278069 1.5655403 0.065587357 0
-0.61992002 1.574427 0.18659706 0
-1.1139934 2.1894259 0.45134097 0
-1.1109511 2.1856389 0.63476652 0
-0.12925728 0.96367347 0.4548142 0
-0.56019121 1.468702 -0.049720671 0
-0.61385 1.5337979 0.064732462 0
-0.62635303 1.5489658 0.18491107 0
-1.1294221 2.1592615 0.44887775 0
-1.1318506 2.1622076 0.63349533 0
-0.1393884 0.95820701 0.45589232 0
-0.58359587 1.4659443 -0.050180636 0
-0.61665487 1.5050362 0.064008415 0
-0.61864603 1.5073907 0.1809504 0
-1.1402802 2.1242173 0.4452813 0
-1.1422186 2.1265094 0.62819934 0
-0.14691724 0.94957662 0.45499194 0
-0.59480488 1.4486285 -0.049971443 0
-0.62177134 1.4797136 0.063440621 0
-0.62115026 1.4789976 0.17880794 0
-1.1585668 2.098495 0.44390345 0
-1.158663 2.0986061 0.62552172 0
-0.6133759 1.4398036 -0.050172374 0
-0.63509953 1.4642172 0.063339069 0
-0.63416398 1.4631659 0.17845286 0
-1.1660668 2.0609326 0.43970698 0
-1.1731316 2.0688722 0.6222592 0
-0.62873518 1.4272447 -0.050206378 0
-0.65413022 1.4550707 0.063551329 0
-0.65252984 1.453317 0.17898792 0
-1.1870096 2.0389619 0.43929195 0
-1.1792434 2.0304523 0.61602128 0
-0.64362168 1.4141408 -0.050223548 0
-0.5152297 1.2769674 0.055515788 0
-0.68259966 1.4557847 0.18137613 0
-1.197957 2.0063901 0.43631801 0
-1.1912402 1.9992138 0.61224574 0
-0.65509796 1.3974622 -0.050073247 0
-0.50585812 1.241986 0.054379195 0
-0.71093822 1.4556358 0.18345967 0
-1.1972629 1.9622829 0.43045849 0
-1.2017772 1.9669858 0.60812742 0
-0.66998172 1.3843919 -0.050109021 0
-0.51334321 1.2252676 0.054137468 0
-0.75113785 1.4668359 0.18733412 0
-1.2037811 1.9266618 0.4266713 0
-1.2120563 1.9350684 0.6041162 0
-0.68200481 1.3684477 -0.050008923 0
-0.53107184 1.2189329 0.054424148 0
-0.76717341 1.4528161 0.18748371 0
-1.2207767 1.9021575 0.42570537 0
-1.2155839 1.8970137 0.59787542 0
-0.70370901 1.3619491 -0.050400611 0
-0.54150838 1.2052692 0.054349385 0
-0.81048679 1.4650924 0.19173391 0
-1.2219541 1.8625547 0.42086262 0
-1.2193894 1.8600773 0.59197962 0
-0.71535945 1.3455967 -0.050298627 0
-0.56646121 1.2053474 0.054995947 0
-0.83665955 1.4598509 0.19338046 0
-1.2287773 1.829192 0.41760001 0
-1.2211189 1.8219784 0.58558971 0
-0.72270107 1.3253804 -0.049998995 0
-0.87091565 1.4615049 0.069183514 0
-0.87489951 1.4651638 0.1967786 0
-1.2309147 1.7921382 0.41333097 0
-1.2340348 1.7950039 0.58331549 0
-0.2387519 0.88090777 0.38337561 0
-0.74182057 1.3159904 -0.050279427 0
-0.90377641 1.4610187 0.070040897 0
-0.9040277 1.4612437 0.19881447 0
-1.223783 1.7475781 0.40697944 0
-1.2367609 1.7591996 0.577694 0
-0.2388844 0.86562121 0.37916437 0
-0.74987042 1.2966696 -0.050037816 0
-0.93687522 1.4599328 0.070900485 0
-1.2411638 1.72559 0.40670097 0
-1.2343143 1.71961 0.57053566 0
-0.24221464 0.85346407 0.37686312 0
-0.75928855 1.2787328 -0.049874384 0
-0.97130334 1.4591774 0.071813874 0
-1.247004 1.6938246 0.40375826 0
-1.2368336 1.6851686 0.56528515 0
-0.24179961 0.83830076 0.37263376 0
-0.26085091 0.85451519 0.46157432 0
-0.77425778 1.2655469 -0.049980689 0
-1.0062121 1.4579788 0.072740518 0
-1.2526793 1.6624508 0.40090173 0
-1.2432162 1.6546 0.56151444 0
-0.24814297 0.82907623 0.37218747 0
-0.78882921 1.2519391 -0.050075319 0
-1.0416676 1.4563771 0.073683575 0
-1.2423155 1.6186154 0.39444631 0
-1.235662 1.6132355 0.55333626 0
-0.25568104 0.82085031 0.37244394 0
-0.79634261 1.2326807 -0.049856033 0
-1.0891321 1.4633863 0.07516408 0
-1.2437916 1.5852513 0.39090052 0
-1.2352805 1.578545 0.54773867 0
-0.27404189 0.82113016 0.37845775 0
-0.8162545 1.2231325 -0.050207883 0
-1.1295384 1.4636552 0.076308668 0
-1.2526058 1.5581399 0.38915333 0
-1.237587 1.5466093 0.54320067 0
-0.26119751 0.79698896 0.36812311 0
-0.24951245 0.78801775 0.43623549 0
-0.81265128 1.1956828 -0.049513459 0
-1.1691362 1.4623065 0.077406332 0
-1.24075 1.5158682 0.38284463 0
-1.2382104 1.5139688 0.53829777 0
-0.26374733 0.78514415 0.36600256 0
-0.27008742 0.789886 0.44500503 0
-0.82959747 1.1838049 -0.04974838 0
-1.2114538 1.4619763 0.078614868 0
-1.2447652 1.4862427 0.38025412 0
-1.2314143 1.476517 0.53122795 0
-1.2418704 1.4841338 0.69520527 0
-0.26841658 0.77500063 0.36506376 0
-0.27540576 0.78009206 0.44423571 0
-0.85153508 1.1752608 -0.05020627 0
-1.24871 1.4570056 0.079591297 0
-1.2458626 1.4549857 0.37712434 0
-1.250397 1.4582022 0.53243297 0
-1.2418892 1.4521672 0.68900245 0
-0.28160286 0.77096671 0.36852193 0
-0.28023398 0.76999569 0.44324854 0
-0.86213899 1.1584932 -0.050173145 0
-1.3021662 1.4623808 0.081264876 0
-1.2482469 1.4251436 0.37439033 0
-1.2359412 1.4166451 0.52333134 0
-1.23478 1.4158431 0.68013471 0
-0.27923882 0.75593597 0.43880662 0
-0.8675648 1.1382694 -0.049926676 0
-1.2701858 1.4089005 0.079246208 0
-1.2841165 1.4182644 0.22829227 0
-1.2463981 1.392911 0.3708415 0
-1.2431142 1.3907038 0.52111703 0
-1.2369232 1.3865423 0.67523491 0
-0.28051233 0.74366838 0.435877 0
-0.87833118 1.1217426 -0.049920961 0
-1.267615 1.3763518 0.07852754 0
-1.2711987 1.3786957 0.22478519 0
-1.2494708 1.3644847 0.36847019 0
-1.2426237 1.3600063 0.51668453 0
-1.2410543 1.3589799 0.67131287 0
-0.29403484 0.73958641 0.44038731 0
-0.89825201 1.1110411 -0.050311495 0
-1.2744013 1.3503522 0.078227952 0
-1.2777977 1.352513 0.22385576 0
-1.2553369 1.3382231 0.36679175 0
-1.2368016 1.3264307 0.51079255 0
-1.2316093 1.3231274 0.66220617 0
-0.30332088 0.73253798 0.44237989 0
-0.91714144 1.0993737 -0.050661381 0
-1.2874161 1.3284496 0.078205958 0
-1.2910703 1.3307103 0.22381878 0
-1.2482435 1.3042148 0.36244833 0
-1.2441624 1.3016901 0.50902873 0
-1.2461154 1.3028983 0.66271746 0
-0.91994858 1.0777431 -0.05034478 0
-1.3098165 1.3122047 0.078586683 0
-1.3118274 1.3134141 0.22475521 0
-1.2602359 1.2823876 0.36224478 0
-1.2434212 1.2722754 0.50495911 0
-1.2368733 1.2683377 0.65410459 0
-0.91799974 1.0535883 -0.049845152 0
-1.3397012 1.3000178 0.079282574 0
-1.3334882 1.2963872 0.22582449 0
-1.2512757 1.2483447 0.35772368 0
-1.2335331 1.2379764 0.49832636 0
-1.2452284 1.2448108 0.65250409 0
-0.93418837 1.0401298 -0.050106179 0
-1.3836176 1.2952263 0.080555864 0
-1.3816445 1.2941064 0.23018691 0
-1.251815 1.220415 0.35529393 0
-1.2444664 1.2162439 0.49797621 0
-1.2368153 1.2119012 0.64461392 0
-0.93813205 1.0197097 -0.049873184 0
-1.2537091 1.1936147 0.35323265 0
-1.2436227 1.1880565 0.49427781 0
-1.2408652 1.1865369 0.64167058 0
-0.95235205 1.0049679 -0.050068248 0
-1.2594513 1.1691945 0.35204145 0
-1.2461212 1.162066 0.49167418 0
-1.2400631 1.1588262 0.6370374 0
-0.95238602 0.98270953 -0.049698994 0
-1.264588 1.1446432 0.35079771 0
-1.2325841 1.1280433 0.48457319 0
-1.2506275 1.1374021 0.63682556 0
-0.97210324 0.97063613 -0.050129861 0
-1.2708967 1.1208712 0.34986097 0
-1.2377545 1.1042072 0.48298192 0
-1.2299576 1.1002867 0.6250847 0
-0.96871161 0.94696409 -0.049646445 0
-1.2804459 1.098819 0.34964028 0
-1.2336491 1.076023 0.47885343 0
-1.238958 1.0786091 0.62456924 0
-0.98961294 0.93512326 -0.050136611 0
-1.2934078 1.0784063 0.3501569 0
-1.2361094 1.0513818 0.47670186 0
-1.2389084 1.052702 0.62082851 0
-0.99333239 0.91505814 -0.049955565 0
-1.2967899 1.0535384 0.34882262 0
-1.2311443 1.0235816 0.47256753 0
-1.2437989 1.0293565 0.61903548 0
-0.99668407 0.8949669 -0.049771063 0
-1.3074238 1.0320697 0.3489871 0
-1.2399467 1.0022979 0.47239324 0
-1.2451401 1.0045892 0.61606896 0
-1.0146735 0.88125312 -0.050165471 0
-1.3219116 1.0122145 0.3499594 0
-1.2391181 0.97692347 0.46962327 0
-1.244532 0.97923118 0.61252636 0
-1.0191942 0.86169344 -0.050044566 0
-1.3320749 0.99042916 0.35013223 0
-1.2386627 0.95199442 0.46705902 0
-1.2473549 0.95557082 0.61035162 0
-1.021508 0.84134638 -0.049848985 0
-1.3387051 0.96721172 0.34967199 0
-1.236973 0.92684394 0.46425512 0
-1.24681 0.93074727 0.60708916 0
-1.0331395 0.82470584 -0.050020285 0
-1.3512504 0.94632041 0.3504127 0
-1.2337464 0.90139836 0.46113157 0
-1.2401321 0.90383965 0.60176957 0
-1.0418706 0.80686611 -0.050088461 0
-1.3587953 0.92347503 0.35023969 0
-1.2452396 0.88169348 0.46211144 0
-1.2396851 0.8796497 0.59880382 0
-1.0438881 0.78659731 -0.049910616 0
-1.3801947 0.90555161 0.35277295 0
-1.2393793 0.85574412 0.45845801 0
-1.2352082 0.85426873 0.59453684 0
-1.0520409 0.76854128 -0.049974501 0
-1.373788 0.87780762 0.3500424 0
-1.2447767 0.83399498 0.45794171 0
-1.2466948 0.8346464 0.59600949 0
-1.057619 0.74959624 -0.049950011 0
-1.3760058 0.85326886 0.34902522 0
-1.2300154 0.80573171 0.45209226 0
-1.2311674 0.80610681 0.58811092 0
-1.0638858 0.73088068 -0.049960308 0
-1.3978512 0.83499372 0.35177836 0
-1.2429061 0.78668988 0.45375079 0
-1.2406058 0.78597277 0.58906895 0
-1.0689932 0.7118088 -0.049936175 0
-1.3997355 0.81036538 0.35080817 0
-1.2431029 0.76369107 0.45208773 0
-1.2355709 0.7614466 0.58508718 0
-1.0740336 0.69273233 -0.04991857 0
-1.3992108 0.78518897 0.34944806 0
-1.2412299 0.74027073 0.44995856 0
-1.245217 0.74140435 0.58630455 0
-1.0869284 0.6757921 -0.050200429 0
-1.4017159 0.76102567 0.34871796 0
-1.2365903 0.71631539 0.44718346 0
-1.2416425 0.71768337 0.58304805 0
-1.0922679 0.65669954 -0.05021074 0
-1.4265773 0.74271595 0.35221028 0
-1.2343353 0.69325286 0.44512513 0
-1.2385602 0.69433993 0.58007401 0
-1.0851411 0.63455546 -0.049771756 0
-1.4228629 0.71693033 0.35043004 0
-1.2324381 0.67048317 0.44324347 0
-1.2444103 0.67340332 0.58026874 0
-1.0852393 0.6143921 -0.049608987 0
-1.4319974 0.69435906 0.35109326 0
-1.2490368 0.65216595 0.44628522 0
-1.2384614 0.64972711 0.57652462 0
-1.0953115 0.59651136 -0.049820356 0
