# .PCD v0.7 - Point Cloud Data file format
VERSION 0.7
FIELDS x y z intensity
SIZE 4 4 4 4
TYPE F F F F
COUNT 1 1 1 1
WIDTH 1319
HEIGHT 1
VIEWPOINT 0 0 0 1 0 0 0
POINTS 1319
DATA ascii
-1.2430301 1.0805928 0.48151568 0
-1.2386639 1.0784658 0.6244604 0
-0.98807681 0.93439871 -0.050075971 0
-1.2972527 1.0802197 0.3509236 0
-1.2347049 1.0507194 0.47630566 0
-1.2301722 1.0485816 0.61761498 0
-0.98824024 0.91273439 -0.049755733 0
-1.3049312 1.0572537 0.35043654 0
-1.2405468 1.0278724 0.47520438 0
-1.2356359 1.0256313 0.6160503 0
-0.9976263 0.89538264 -0.049807832 0
-1.3217728 1.0384007 0.35181564 0
-1.2476405 1.0056924 0.47453871 0
-1.2357568 1.0004492 0.61265683 0
-1.0062263 0.87765253 -0.049837645 0
-1.3242605 1.0132158 0.35041991 0
-1.2342211 0.97483611 0.46826515 0
-1.2440441 0.97902316 0.61234993 0
-1.0258104 0.86441565 -0.050299983 0
-1.3353213 0.99176484 0.35076532 0
-1.240867 0.95290142 0.46766716 0
-1.2359098 0.95086175 0.60623419 0
-1.0275209 0.8437323 -0.050079934 0
-1.3399172 0.96769273 0.34990719 0
-1.2365969 0.92669475 0.46415189 0
-1.2289821 0.92367309 0.60070807 0
-1.0303687 0.82364661 -0.049914386 0
-1.3523926 0.94675708 0.3506332 0
-1.2329301 0.90108627 0.46090859 0
-1.2447381 0.90560055 0.60341012 0
-1.0395603 0.80601603 -0.050000574 0
-1.3547367 0.92198169 0.34945974 0
-1.2353512 0.8780551 0.45942321 0
-1.2443677 0.88137269 0.60046381 0
-1.0443187 0.7867496 -0.049926922 0
-1.3644705 0.89998984 0.34976494 0
-1.2418412 0.85661495 0.45912427 0
-1.2408929 0.85627949 0.59654295 0
-1.0556257 0.7697587 -0.050109666 0
-1.3731514 0.87759143 0.34992117 0
-1.2328192 0.82993418 0.45471984 0
-1.2400591 0.83239287 0.593678 0
-1.0573511 0.74950904 -0.049939953 0
-1.3840779 0.85589731 0.35055625 0
-1.239289 0.80875134 0.45458055 0
-1.2407055 0.80921257 0.59144813 0
-1.0667734 0.73178089 -0.050068293 0
-1.3838253 0.83062118 0.34912872 0
-1.2450578 0.78736073 0.45432585 0
-1.2470162 0.7879712 0.59130287 0
-1.0739684 0.71329135 -0.050121512 0
-1.3951491 0.8089987 0.3499451 0
-1.2329394 0.7606625 0.44938201 0
-1.2438562 0.76391554 0.5879634 0
-1.0837808 0.69550365 -0.050280344 0
-1.4034072 0.78638208 0.35023487 0
-1.2410225 0.74021173 0.44990352 0
-1.2399247 0.73989964 0.58447403 0
-1.0760876 0.67285681 -0.049799465 0
-1.4068863 0.76242566 0.34968403 0
-1.2467861 0.7190761 0.44987842 0
-1.2434115 0.71816236 0.5836578 0
-1.0871508 0.65538293 -0.050022107 0
-1.4170657 0.74026865 0.35043901 0
-1.2429578 0.69547141 0.44739667 0
-1.2445699 0.69588619 0.58213854 0
-1.0894753 0.63561261 -0.049931027 0
-1.4220846 0.71674049 0.35028556 0
-1.2250773 0.66868776 0.44131044 0
-1.2406229 0.67247957 0.5789718 0
-1.0915408 0.61584538 -0.049839869 0
-1.4199719 0.69158584 0.34886757 0
-1.2361532 0.64919484 0.44291192 0
-1.2440881 0.6510247 0.57844573 0
-1.1019356 0.59795135 -0.050062373 0
-1.4312258 0.66953558 0.34997889 0
-1.2379792 0.62752581 0.4421581 0
-1.2368 0.62726945 0.57435209 0
-1.1085491 0.57912171 -0.050154742 0
-1.4393517 0.64668423 0.35056281 0
-1.2422725 0.60643315 0.44211987 0
-1.2297082 0.60386699 0.57043737 0
-1.110674 0.55936456 -0.050092366 0
-1.4471731 0.6236878 0.35114229 0
-1.2368916 0.58349156 0.43963793 0
-1.2462372 0.58527803 0.57463276 0
-1.1070216 0.5386197 -0.049829662 0
-1.4437993 0.59861106 0.34972274 0
-1.2387995 0.56209373 0.43912536 0
-1.2390891 0.56214535 0.57089674 0
-1.1133397 0.51970637 -0.049937747 0
-1.4489982 0.57514733 0.349931 0
-1.23692 0.54011822 0.43770427 0
-1.2324688 0.53938299 0.5674448 0
-1.1191107 0.50062948 -0.050034482 0
-1.460331 0.55258423 0.35131177 0
-1.235041 0.51828122 0.43635747 0
-1.2401097 0.51905298 0.56889528 0
-1.1245047 0.48142794 -0.050126117 0
-1.4536858 0.52731651 0.34946823 0
-1.2446839 0.49818119 0.43805197 0
-1.2465086 0.49843556 0.57001209 0
-1.1291591 0.46206447 -0.050199702 0
-1.4522948 0.5029695 0.34864071 0
-1.2390374 0.47597373 0.43587697 0
-1.2283814 0.47462481 0.56298947 0
-1.1395397 0.44329733 -0.050487705 0
-0.51354593 0.37205034 0.039994638 0
-0.50450593 0.37102148 0.10735407 0
-0.51374936 0.3720735 0.17776428 0
-1.2379599 0.45449895 0.43495017 0
-1.2425568 0.45502216 0.56689364 0
-1.1221192 0.42151278 -0.049786229 0
-0.51975274 0.36062732 0.040171396 0
-0.50187671 0.35882047 0.10693305 0
-0.50299406 0.35893342 0.17558248 0
-1.2416402 0.43359363 0.435314 0
-1.2390913 0.43333599 0.56497651 0
-1.1278274 0.40226576 -0.049924321 0
-0.51274955 0.34790984 0.10798579 0
-0.50025302 0.34680548 0.17488407 0
-1.2409087 0.41225904 0.43461493 0
-1.2336007 0.4116132 0.56247646 0
-1.1273777 0.38245177 -0.049850486 0
-0.50069743 0.33501458 0.10658155 0
-0.52474141 0.33683461 0.17913879 0
-1.2353884 0.39062774 0.43275997 0
-1.248013 0.39158338 0.56671053 0
-1.1253451 0.36258706 -0.049729012 0
-0.51216298 0.32392979 0.10772838 0
-0.52273446 0.32459626 0.17862497 0
-1.2337973 0.36942428 0.43198067 0
-1.2335962 0.36941162 0.56141508 0
-1.2504849 0.37047634 0.70421726 0
-1.1324054 0.34326339 -0.049941603 0
-0.5155251 0.31216556 0.10801753 0
-0.51070917 0.31192276 0.17633021 0
-1.2479085 0.34908608 0.43528128 0
-1.2537341 0.34937975 0.56772673 0
-1.2432947 0.34885347 0.70073789 0
-0.34157401 0.3033964 0.46567112 0
-1.1459525 0.32403171 -0.050394543 0
-0.50984824 0.29998997 0.10735036 0
-0.50957465 0.29997963 0.17603089 0
-1.2396435 0.32757276 0.43293276 0
-1.25124 0.32801107 0.56658459 0
-1.2372776 0.32748336 0.69785911 0
-0.35950673 0.29430777 0.47605851 0
-1.1289831 0.30370855 -0.049766164 0
-0.41198444 0.28564662 0.35577542 0
-0.40272415 0.28541332 0.42405006 0
-0.38902134 0.28506812 0.49338126 0
-1.1314745 0.28407064 -0.049841851 0
-0.39294273 0.27476895 0.41905618 0
-0.37663978 0.27456361 0.48592192 0
-1.130969 0.26437622 -0.049819373 0
-0.38397944 0.26437423 0.41453874 0
-0.38825554 0.26437426 0.49277255 0
-0.88819951 -0.98929471 -0.088034146 0
-1.0230106 -0.98929507 -0.091898181 0
-1.1284339 -0.98929536 -0.084649362 0
-1.1364417 -0.98929536 -0.058875982 0
-1.1225166 -0.9892953 -0.0303357 0
-1.1271921 -0.98929536 -0.0043330397 0
-1.1311742 -0.98929536 0.021822536 0
-1.1228076 -0.9892953 0.048653122 0
-1.1251751 -0.98929536 0.074786924 0
-1.1286443 -0.98929536 0.10100265 0
-1.1294611 -0.98929536 0.1273181 0
-1.1289097 -0.98929536 0.15363641 0
-1.1240512 -0.98929536 0.17968483 0
-1.131157 -0.98929536 0.20670913 0
-1.1193848 -0.9892953 0.2319753 0
-1.126258 -0.98929536 0.25945124 0
-1.1283264 -0.98929536 0.28663871 0
-1.1227475 -0.9892953 0.31269094 0
-0.89497852 -1.0119077 -0.08953578 0
-1.0195407 -1.0150518 -0.09130583 0
-1.1289616 -1.0178138 -0.084795244 0
-1.1285654 -1.0178038 -0.057819653 0
-1.1368028 -1.0180117 -0.032047722 0
-1.1348864 -1.0179634 -0.0050849896 0
-1.1272351 -1.0177703 0.022072801 0
-1.126303 -1.0177467 0.048473682 0
-1.1319956 -1.0178905 0.074619949 0
-1.130962 -1.0178643 0.10100272 0
-1.1298057 -1.0178351 0.12733454 0
-1.1261107 -1.0177418 0.15352267 0
-1.1312511 -1.0178716 0.18021382 0
-1.1330186 -1.0179162 0.20691673 0
-1.1319758 -1.0178899 0.2334898 0
-1.1348131 -1.0179615 0.26070487 0
-1.1246545 -1.0177051 0.28609398 0
-1.1271228 -1.0177674 0.31358296 0
-0.90648836 -1.0351309 -0.092167594 0
-1.0156324 -1.040644 -0.090752594 0
-1.1182313 -1.0458267 -0.083207078 0
-1.1273693 -1.0462883 -0.057803158 0
-1.2385669 -1.0519052 -0.044083569 0
-1.2464365 -1.0523026 -0.015611803 0
-1.2464962 -1.0523057 0.013649257 0
-1.2372909 -1.0518407 0.043249894 0
-1.237349 -1.0518436 0.072142117 0
-1.2507293 -1.0525194 0.10100618 0
-1.2490703 -1.0524356 0.13014305 0
-1.2428156 -1.0521197 0.15901969 0
-1.2457643 -1.0522686 0.18831193 0
-1.2427583 -1.0521169 0.21728055 0
-0.88993287 -1.0568664 -0.088946544 0
-1.0070409 -1.0657488 -0.0894356 0
-1.1268339 -1.0748349 -0.084918819 0
-1.1266184 -1.0748186 -0.057950635 0
-1.2424848 -1.083607 -0.044774208 0
-1.2444328 -1.0837547 -0.015610231 0
-1.2377831 -1.0832503 0.014120826 0
-1.2386106 -1.0833131 0.043096188 0
-1.2422143 -1.0835865 0.071982682 0
-1.2401459 -1.0834296 0.10100593 0
-1.2466913 -1.083926 0.13013399 0
-1.2398194 -1.0834048 0.15897225 0
-1.2528174 -1.0843906 0.18894617 0
-1.2367964 -1.0831755 0.21690769 0
-0.89699745 -1.0802402 -0.090880759 0
-1.0176823 -1.0924634 -0.091876142 0
-1.1504064 -1.1059059 -0.089228652 0
-1.237419 -1.1147187 -0.073957153 0
-1.2421662 -1.1151994 -0.045062829 0
-1.2479466 -1.1157849 -0.01620069 0
-1.237633 -1.1147404 0.01393708 0
-1.2405722 -1.115038 0.042874932 0
-1.2336435 -1.1143363 0.072118133 0
-1.2450747 -1.115494 0.10100615 0
-1.2360735 -1.1145824 0.12995048 0
-1.2438406 -1.1153691 0.15929039 0
-1.2371519 -1.1146916 0.1880413 0
-1.9969746 -1.1916475 0.28852934 0
-1.9951553 -1.1914632 0.3355743 0
-1.9207042 -1.1839228 0.37252691 0
-1.4713228 -1.1384088 0.37978515 0
-0.89654231 -1.1031376 -0.091336168 0
-1.0081481 -1.1172942 -0.090621747 0
-1.1558968 -1.1360353 -0.090686418 0
-1.1962274 -1.1411511 -0.068626069 0
-1.2404356 -1.1467587 -0.04527982 0
-1.2245833 -1.1447479 -0.01434016 0
-1.2432932 -1.1471211 0.013287382 0
-1.2478232 -1.1476958 0.042367224 0
-1.2314893 -1.1456238 0.072085463 0
-1.2439283 -1.1472017 0.10100622 0
-1.2337545 -1.1459112 0.12997952 0
-1.2399615 -1.1466985 0.15927622 0
-1.2376539 -1.1464058 0.18832766 0
-1.5931436 -1.1914978 0.36515933 0
-1.4789808 -1.1770169 0.38204312 0
-0.8882944 -1.12497 -0.090241753 0
-1.0121819 -1.1438718 -0.092066877 0
-1.1436491 -1.1639301 -0.08932697 0
-1.2056125 -1.173384 -0.070559151 0
-1.6105577 -1.2351673 -0.089554228 0
-2.5626452 -1.3804294 -0.14108782 0
-3.418741 -1.5110458 -0.1408665 0
-5.1409316 -1.7738042 -0.14117938 0
-10.277282 -2.5574684 -0.14076911 0
-1.3519515 -1.1957111 0.2933833 0
-1.3574753 -1.1965539 0.32689765 0
-1.3598049 -1.1969094 0.36032185 0
-0.88357675 -1.1471834 -0.090023391 0
-1.0048047 -1.1688224 -0.09146335 0
-1.1377008 -1.1925442 -0.089130379 0
-1.2046465 -1.2044939 -0.071139134 0
-1.6178893 -1.2782571 -0.091222055 0
-2.5469809 -1.4440986 -0.14061567 0
-3.4006212 -1.5964723 -0.1405919 0
-5.1097379 -1.9015471 -0.1407177 0
-10.247402 -2.8186128 -0.14107518 0
-1.3386798 -1.2284187 0.29229322 0
-1.3230138 -1.2256223 0.32208785 0
-1.3230785 -1.2256339 0.35437834 0
-0.87961125 -1.1695126 -0.090088449 0
-0.99028403 -1.1921629 -0.089604072 0
-1.1371264 -1.2222155 -0.089955129 0
-1.1949602 -1.2340518 -0.070583619 0
-1.6089998 -1.318789 -0.091092832 0
-2.5350535 -1.5083147 -0.14064987 0
-3.3821921 -1.6816897 -0.14044729 0
-5.0865965 -2.0305126 -0.14078911 0
-10.185685 -3.07409 -0.14078328 0
-1.2576042 -1.2468725 0.31218237 0
-1.2286199 -1.2409406 0.33744037 0
-0.87371176 -1.1914256 -0.089854576 0
-0.98522997 -1.2171966 -0.08967755 0
-1.1337678 -1.2515224 -0.090441026 0
-1.185676 -1.2635181 -0.070190139 0
-1.5972046 -1.3586191 -0.090736665 0
-2.5159237 -1.5709281 -0.14014913 0
-3.3672397 -1.7676606 -0.14070521 0
-5.0633302 -2.1596141 -0.14101006 0
-10.126849 -3.3297544 -0.14071189 0
-0.85638976 -1.2103509 -0.087232806 0
-0.97542417 -1.2410421 -0.088949777 0
-1.1333417 -1.2817588 -0.09155298 0
-1.3193725 -1.3297241 -0.090652607 0
-1.5839669 -1.3979459 -0.090325035 0
-1.9913747 -1.5029899 -0.091078125 0
-3.3470664 -1.8525349 -0.14074406 0
-5.024488 -2.285033 -0.1406398 0
-10.067679 -3.5853453 -0.14078648 0
-0.87301755 -1.2383174 -0.092201002 0
-0.97565567 -1.2675618 -0.090299986 0
-1.1195306 -1.3085558 -0.090515532 0
-1.306672 -1.3618778 -0.09011329 0
-1.5798026 -1.4397005 -0.091133319 0
-1.9712193 -1.5512261 -0.090441428 0
-3.3199158 -1.9355079 -0.14043115 0
-4.9924145 -2.4120502 -0.14074722 0
-10.007046 -3.8408608 -0.14098164 0
-0.86491084 -1.259807 -0.09185686 0
-0.9682982 -1.2921066 -0.09029495 0
-1.1013556 -1.3336756 -0.088834502 0
-1.288561 -1.3921613 -0.088892125 0
-1.5663736 -1.4789537 -0.090942107 0
-1.9623003 -1.6026468 -0.09101712 0
-3.2950945 -2.0190303 -0.1404392 0
-4.9508996 -2.5363269 -0.14055076 0
-9.9255886 -4.0904894 -0.14082763 0
-0.84360802 -1.2767346 -0.088668056 0
-0.96654248 -1.3185736 -0.091527142 0
-1.0994564 -1.3638091 -0.090074219 0
-1.2816033 -1.4258004 -0.089429162 0
-1.5538316 -1.5184497 -0.090980582 0
-1.9522977 -1.6540623 -0.091618367 0
-3.2815416 -2.1064525 -0.14143449 0
-4.9163795 -2.6628475 -0.14085025 0
-9.8364916 -4.3373418 -0.14063874 0
-0.84947699 -1.3028903 -0.091701664 0
-0.9549318 -1.341776 -0.090925984 0
-1.0923667 -1.3924541 -0.09054894 0
-1.2719839 -1.4586867 -0.089699127 0
-1.5485554 -1.5606706 -0.092048101 0
-1.9431019 -1.7061568 -0.092434011 0
-3.2442484 -2.1859455 -0.14083385 0
-4.8666148 -2.7841816 -0.14055383 0
-9.7561235 -4.5871539 -0.14081812 0
-0.83499771 -1.3217443 -0.090261392 0
-0.93856055 -1.3629295 -0.089471944 0
-1.0797894 -1.4190938 -0.090185098 0
-1.26331 -1.4920769 -0.090239756 0
-1.520658 -1.5944198 -0.090414561 0
-1.9083911 -1.7486148 -0.09082634 0
-3.2125847 -2.2672703 -0.14080091 0
-4.8296161 -2.9103365 -0.14104669 0
-9.6584644 -4.830688 -0.14072365 0
-0.8236773 -1.3415918 -0.08964511 0
-0.94269788 -1.3924385 -0.092311479 0
-1.0723695 -1.4478356 -0.090858601 0
-1.2465935 -1.5222659 -0.089685284 0
-1.5081849 -1.6340204 -0.090831332 0
-1.8845927 -1.7948256 -0.090417065 0
-3.1793437 -2.3479562 -0.14080293 0
-4.7705951 -3.027755 -0.1405904 0
-9.5635052 -5.0753345 -0.14085102 0
-0.82301956 -1.3661712 -0.091630422 0
-0.93808883 -1.4188017 -0.093525849 0
-1.0600306 -1.4745755 -0.090781309 0
-1.2250232 -1.55004 -0.088491388 0
-1.4875197 -1.6701009 -0.090327851 0
-1.8640107 -1.8423005 -0.090452246 0
-3.1474042 -2.4292998 -0.14106072 0
-4.7243404 -3.1505604 -0.14093323 0
-9.4551516 -5.3143425 -0.14079443 0
-0.80811495 -1.384335 -0.090416156 0
-0.91471756 -1.4363844 -0.09096127 0
-1.0421365 -1.4985976 -0.089809753 0
-1.2216537 -1.5862479 -0.090238117 0
-1.4704852 -1.7077414 -0.090408064 0
-1.8466153 -1.8913893 -0.090942584 0
-3.1010978 -2.5038979 -0.1403628 0
-4.6595073 -3.2648008 -0.14047742 0
-9.349597 -5.5547657 -0.14096469 0
-0.80359983 -1.4075919 -0.091784067 0
-0.89846611 -1.4569131 -0.089967914 0
-1.0308758 -1.5257531 -0.090165682 0
-1.2062957 -1.6169543 -0.090252854 0
-1.4432294 -1.7401366 -0.089267306 0
-1.8063467 -1.9289219 -0.089162596 0
-3.0710411 -2.5864389 -0.1410834 0
-4.5996828 -3.3811829 -0.14042877 0
-9.2359009 -5.7915616 -0.14108188 0
-0.79004818 -1.4262446 -0.091118358 0
-0.89273787 -1.4829693 -0.091335706 0
-1.024147 -1.5555584 -0.091505386 0
-1.1835499 -1.6436108 -0.089205272 0
-1.4282608 -1.7787865 -0.089859568 0
-1.7979577 -1.9830031 -0.090857454 0
-3.028151 -2.6625485 -0.14095446 0
-4.5441179 -3.4999526 -0.14076114 0
-9.0929337 -6.01267 -0.14058092 0
-0.78578621 -1.4501729 -0.092846401 0
-0.87878639 -1.504652 -0.09107136 0
-0.99541247 -1.572971 -0.088815726 0
-1.1759644 -1.6787375 -0.09072008 0
-1.4025906 -1.8114941 -0.089142285 0
-1.7714097 -2.0275466 -0.090759777 0
-2.98878 -2.7406764 -0.14126325 0
-4.4825835 -3.6157396 -0.14093699 0
-8.9674292 -6.2429409 -0.14069234 0
-0.75876957 -1.4604884 -0.08906009 0
-0.87064314 -1.5298729 -0.092210524 0
-0.98380262 -1.6000549 -0.089479871 0
-1.15992 -1.7092836 -0.091005467 0
-1.3849933 -1.8488749 -0.089636616 0
-1.738862 -2.0683458 -0.090124138 0
-2.9345095 -2.809891 -0.14051223 0
-4.4085078 -3.7240705 -0.14058743 0
-8.8395758 -6.4722366 -0.14089906 0
-0.75276756 -1.4835261 -0.090617858 0
-0.84859484 -1.5463607 -0.090379067 0
-0.97375077 -1.6284263 -0.090594567 0
-1.1295419 -1.7305797 -0.089015312 0
-1.3737777 -1.8907269 -0.091161914 0
-1.7169709 -2.115761 -0.090781383 0
-2.8935723 -2.8872666 -0.14100818 0
-4.3441534 -3.838423 -0.14092427 0
-8.694067 -6.6906919 -0.14077802 0
-0.74556667 -1.5062009 -0.092042185 0
-0.83592683 -1.5687667 -0.090758868 0
-0.96295118 -1.656719 -0.091721363 0
-1.1226054 -1.7672645 -0.091088213 0
-1.3487247 -1.9238306 -0.090895899 0
-1.6923782 -2.1617777 -0.091278188 0
-2.8426421 -2.958226 -0.14082783 0
-4.2620788 -3.9410512 -0.1404257 0
-8.5477314 -6.9084578 -0.14078605 0
-0.72950989 -1.522844 -0.091311224 0
-0.81790245 -1.5874066 -0.090027131 0
-0.94155616 -1.6777244 -0.090856723 0
-1.0938345 -1.7889497 -0.089559488 0
-1.3123609 -1.9485632 -0.089107774 0
-1.6591005 -2.2018247 -0.090913452 0
-2.7824056 -3.022296 -0.13999216 0
-4.1971335 -4.0556245 -0.14105336 0
-8.399065 -7.1247506 -0.140884 0
-0.70543337 -1.5331125 -0.088526227 0
-0.80467045 -1.6095091 -0.090530984 0
-0.92980278 -1.7058408 -0.092083879 0
-1.0850136 -1.8253284 -0.09163522 0
-1.3067262 -1.9960113 -0.091908224 0
-1.6333704 -2.2474747 -0.091548584 0
-2.7371311 -3.0971928 -0.14060147 0
-4.124649 -4.1653581 -0.14141874 0
-8.2439947 -7.3365917 -0.14095463 0
-0.70474845 -1.5615152 -0.092155196 0
-0.79119354 -1.6316078 -0.091119803 0
-0.89880735 -1.7188646 -0.089413635 0
-1.0582187 -1.8481206 -0.090666316 0
-1.2660378 -2.0166271 -0.089670576 0
-1.5911344 -2.2802258 -0.090350427 0
-2.6792002 -3.1624649 -0.14025271 0
-4.0345888 -4.2614584 -0.14090259 0
-8.074667 -7.5372853 -0.14075844 0
-0.68286902 -1.5729792 -0.090138309 0
-0.77616882 -1.6526142 -0.091474839 0
-0.88299817 -1.7437972 -0.090037055 0
-1.0432049 -1.8805399 -0.091958277 0
-1.2472448 -2.0546958 -0.090827771 0
-1.5598822 -2.3215439 -0.090574525 0
-2.6374803 -3.2413158 -0.14153625 0
-3.944782 -4.3571486 -0.14053765 0
-7.9119682 -7.7432961 -0.14091384 0
-0.67309469 -1.594691 -0.09161552 0
-0.75759339 -1.6705815 -0.091071866 0
-0.86322576 -1.7654526 -0.089936726 0
-1.0151821 -1.9019287 -0.090975411 0
-1.2106593 -2.0774915 -0.089365728 0
-1.5257646 -2.3604958 -0.090573691 0
-2.5709548 -3.2992082 -0.14070326 0
-3.8755517 -4.4709001 -0.14160144 0
-7.7335739 -7.9358892 -0.14074306 0
-0.65327096 -1.6074107 -0.090348043 0
-0.73538268 -1.6849883 -0.089833356 0
-0.84328473 -1.7869321 -0.08991804 0
-0.99552757 -1.9307681 -0.091689892 0
-1.1906776 -2.1151423 -0.090629555 0
-1.4893142 -2.3972883 -0.090398081 0
-1.9863498 -2.866878 -0.090162359 0
-3.7747765 -4.5565491 -0.1408523 0
-7.5505877 -8.1238632 -0.14057498 0
-0.63687766 -1.6231356 -0.090171449 0
-0.71840405 -1.7041496 -0.090048157 0
-0.82989854 -1.8149433 -0.091541745 0
-0.96965033 -1.9538169 -0.09133216 0
-1.1657754 -2.1487093 -0.091269411 0
-1.4648533 -2.4459076 -0.091916434 0
-1.9347422 -2.9128435 -0.089807399 0
-3.6873984 -4.6544847 -0.14110363 0
-7.3703265 -8.3142672 -0.14064562 0
-0.61799389 -1.6362177 -0.089344896 0
-0.70160031 -1.7236005 -0.09044642 0
-0.79790205 -1.8242519 -0.088950433 0
-0.94617647 -1.9792236 -0.091570221 0
-1.1400201 -2.1818228 -0.091923557 0
-1.4163505 -2.4706342 -0.090392865 0
-1.8899897 -2.9656668 -0.090252034 0
-3.5840416 -4.7362347 -0.14045 0
-7.1882238 -8.5032091 -0.14081581 0
-0.60268247 -1.6529573 -0.08972656 0
-0.68747735 -1.7461815 -0.091741897 0
-0.77684444 -1.8444324 -0.089014806 0
-0.91593289 -1.9973474 -0.090533219 0
-1.0981597 -2.1976888 -0.089941986 0
-1.3780063 -2.5053544 -0.090321116 0
-1.8469532 -3.0209184 -0.091024108 0
-3.4849918 -4.8217907 -0.14021687 0
-6.9945154 -8.6801891 -0.14075236 0
-0.59052092 -1.6735009 -0.091278724 0
-0.66664428 -1.7615561 -0.091305055 0
-0.76192677 -1.8717736 -0.090750314 0
-0.88757861 -2.0171206 -0.08996845 0
-1.0712641 -2.229598 -0.090646707 0
-1.3408489 -2.5414386 -0.090539955 0
-1.7926244 -3.0640271 -0.090758942 0
-3.395565 -4.9182191 -0.14081345 0
-6.8085027 -8.8661156 -0.14111723 0
-0.57467854 -1.6901664 -0.09181764 0
-0.64559329 -1.7765071 -0.090903394 0
-0.73559201 -1.8860831 -0.089759581 0
-0.86914748 -2.0486908 -0.091692172 0
-1.0377916 -2.25402 -0.09030842 0
-1.3056031 -2.5800884 -0.091178738 0
-1.737831 -3.1063383 -0.090552442 0
-3.3039551 -5.0131397 -0.14144441 0
-6.6026497 -9.0293961 -0.14093608 0
-0.55227721 -1.6986537 -0.09025044 0
-0.6252802 -1.7922559 -0.090828337 0
-0.70876068 -1.8992919 -0.088698663 0
-0.84483141 -2.0737574 -0.092307009 0
-1.0109149 -2.2867043 -0.091327854 0
-1.2676098 -2.6158304 -0.09156727 0
-1.6953969 -3.1643255 -0.09186364 0
-3.1924648 -5.083818 -0.14076973 0
-6.3981295 -9.1940184 -0.14095277 0
-0.54320866 -1.7245545 -0.093468122 0
-0.59893572 -1.799849 -0.088964932 0
-0.69789326 -1.9335536 -0.092101879 0
-0.81453949 -2.0911579 -0.091678508 0
-0.9730252 -2.3052928 -0.090378441 0
-1.2172761 -2.6353078 -0.090172328 0
-1.6330965 -3.1971352 -0.091054879 0
-3.0883026 -5.1633086 -0.14078252 0
-6.1872811 -9.3504333 -0.14088251 0
-0.51847351 -1.729486 -0.09124402 0
-0.58172417 -1.8196157 -0.090089776 0
-0.67112243 -1.9470049 -0.091322608 0
-0.78542507 -2.1098819 -0.091420732 0
-0.94390851 -2.3357148 -0.091273107 0
-1.1777506 -2.668931 -0.090561144 0
-1.570722 -3.2289007 -0.090306647 0
-2.9792495 -5.2359991 -0.14055921 0
-5.9797487 -9.5115976 -0.14110096 0
-0.49597099 -1.7368487 -0.089838199 0
-0.56406987 -1.83929 -0.09127415 0
-0.64945662 -1.9677377 -0.092127793 0
-0.75590515 -2.1278684 -0.09116789 0
-0.90965265 -2.3591514 -0.091276608 0
-1.1318839 -2.6934547 -0.090036355 0
-1.5200921 -3.2774377 -0.091112055 0
-2.8693647 -5.3071523 -0.1404089 0
-5.7604418 -9.656209 -0.14100114 0
-0.48163366 -1.7565938 -0.091707624 0
-0.54045135 -1.8501084 -0.09056931 0
-0.61404258 -1.9671116 -0.088880382 0
-0.71771747 -2.1319449 -0.088734366 0
-0.88010979 -2.3901336 -0.092442222 0
-1.0935342 -2.7294586 -0.090914451 0
-1.4580842 -3.3090589 -0.090614207 0
-2.7644968 -5.3861322 -0.14084522 0
-5.5406094 -9.7998915 -0.14103068 0
-0.45810932 -1.761777 -0.090038814 0
-0.51264113 -1.853536 -0.088387243 0
-0.59046507 -1.9844878 -0.089295276 0
-0.6916365 -2.1547256 -0.089553587 0
-0.83539319 -2.3966203 -0.090362377 0
-1.0440514 -2.7477226 -0.089959227 0
-1.3964415 -3.3406777 -0.090251811 0
-1.5982283 -3.680218 -0.044757787 0
-5.3168721 -9.9374561 -0.14104556 0
-0.4381822 -1.7725962 -0.089912586 0
-0.49424565 -1.8725941 -0.089763679 0
-0.56573844 -2.0001128 -0.089487292 0
-0.66085714 -2.1697717 -0.089222006 0
-0.79496431 -2.4089727 -0.089250036 0
-1.0083653 -2.7896068 -0.091679595 0
-1.3430054 -3.3864896 -0.091157652 0
-1.4428278 -3.5645385 -0.036475915 0
-1.4601537 -3.5954418 0.031502862 0
-0.41846305 -1.7837762 -0.089996435 0
-0.47194514 -1.8850801 -0.089821659 0
-0.53838706 -2.010932 -0.088900469 0
-0.63093239 -2.1862283 -0.089243241 0
-0.76302481 -2.4364333 -0.090284877 0
-0.95640355 -2.8027246 -0.09043669 0
-1.2753379 -3.4068394 -0.090146013 0
-1.3937397 -3.6311119 -0.038106028 0
-1.4045591 -3.6516058 0.030973667 0
-1.4170381 -3.6752429 0.1010571 0
-0.39543331 -1.7883598 -0.088632964 0
-0.44821098 -1.8947476 -0.089405455 0
-0.51761937 -2.0346591 -0.090816505 0
-0.6030767 -2.2069216 -0.090048157 0
-0.72379941 -2.4502711 -0.089635454 0
-0.91150773 -2.8286483 -0.090681084 0
-1.2213082 -3.4531362 -0.091305964 0
-1.3225681 -3.657253 -0.037679467 0
-1.3374465 -3.6872442 0.030947113 0
-1.3623173 -3.7373784 0.10105798 0
-0.38101482 -1.810728 -0.091591544 0
-0.43027335 -1.9166543 -0.091661625 0
-0.48684144 -2.0382991 -0.08916498 0
-0.569745 -2.2165763 -0.089242466 0
-0.69054133 -2.4763389 -0.090698294 0
-0.86107892 -2.8430657 -0.089855514 0
-1.153067 -3.4709618 -0.090363093 0
-1.7439088 -4.7415175 -0.091677077 0
-4.3831449 -10.416974 -0.14076905 0
-0.36264551 -1.8258048 -0.092912771 0
-0.40534616 -1.9240383 -0.091004096 0
-0.46367443 -2.0582232 -0.09058968 0
-0.5408529 -2.2357736 -0.090037458 0
-0.64994079 -2.4867318 -0.089859597 0
-0.81596518 -2.8686733 -0.090308152 0
-1.0923388 -3.5044751 -0.090758406 0
-1.6397879 -4.7638898 -0.090638556 0
-4.1477132 -10.533407 -0.14099263 0
-0.33179191 -1.810931 -0.087458737 0
-0.37734461 -1.9234059 -0.088852756 0
-0.43454608 -2.0646431 -0.089709558 0
-0.5144673 -2.2619779 -0.091998003 0
-0.61685884 -2.5147946 -0.091387399 0
-0.77605373 -2.9078655 -0.092239492 0
-1.0284922 -3.5311656 -0.090751298 0
-1.5410479 -4.7967257 -0.090268858 0
-3.9038742 -10.63082 -0.14088666 0
-0.31915176 -1.8408692 -0.092410065 0
-0.35892534 -1.9466722 -0.091673516 0
-0.40817142 -2.0776732 -0.090128101 0
-0.47441599 -2.2538924 -0.088892348 0
-0.57884771 -2.5316942 -0.09161175 0
-0.72118187 -2.9103217 -0.09059035 0
-0.96511698 -3.559221 -0.090967156 0
-1.4531896 -4.8575578 -0.091419615 0
-3.6561823 -10.717805 -0.1406763 0
-0.29319313 -1.8360938 -0.089578979 0
-0.33516568 -1.9569176 -0.091966547 0
-0.37787232 -2.0798547 -0.088771857 0
-0.44493014 -2.2728899 -0.089994095 0
-0.53828341 -2.54162 -0.091090553 0
-0.67624807 -2.9387705 -0.091661446 0
-0.89836711 -3.578171 -0.090626173 0
-1.3498549 -4.8778415 -0.090671726 0
-3.4104147 -10.809447 -0.14073698 0
-0.27485588 -1.8530227 -0.091760434 0
-0.31005996 -1.9632602 -0.091604613 0
-0.35593593 -2.1069155 -0.091851391 0
-0.41320127 -2.2862353 -0.090363435 0
-0.49874192 -2.554096 -0.09101253 0
-0.62413782 -2.946759 -0.090830736 0
-0.82769233 -3.5841665 -0.089461409 0
-1.2539916 -4.9190741 -0.091081642 0
-3.165741 -10.905497 -0.14105681 0
-0.25029525 -1.8505212 -0.089726456 0
-0.28303078 -1.9627227 -0.090020232 0
-0.32582706 -2.1094072 -0.090797178 0
-0.37730157 -2.2858367 -0.088835709 0
-0.45827523 -2.5633748 -0.090667821 0
-0.57491207 -2.9631488 -0.090951391 0
-0.76709104 -3.6218445 -0.090742804 0
-1.1564454 -4.9563603 -0.091414995 0
-2.9124832 -10.975199 -0.14088628 0
-0.22845213 -1.8564603 -0.089698635 0
-0.26215094 -1.9838324 -0.092797346 0
-0.29599488 -2.111753 -0.089854814 0
-0.34887189 -2.3116136 -0.091255419 0
-0.41945803 -2.5784094 -0.091145165 0
-0.5282914 -2.9897695 -0.09217941 0
-0.70030379 -3.6399286 -0.090709768 0
-1.0511534 -4.966043 -0.090535767 0
-2.6620278 -11.0547 -0.14110684 0
-0.20649195 -1.8619407 -0.089691602 0
-0.23619905 -1.9868953 -0.092166327 0
-0.26713356 -2.1170125 -0.089537911 0
-0.31327015 -2.3110733 -0.089963131 0
-0.37952277 -2.5897462 -0.091293506 0
-0.47507703 -2.9916687 -0.091141529 0
-0.63467985 -3.6629932 -0.091156326 0
-0.94571608 -4.9712796 -0.089576654 0
-2.4051654 -11.110044 -0.14090033 0
-0.18619575 -1.8753601 -0.091530122 0
-0.20740306 -1.9757562 -0.088931106 0
-0.23898084 -2.1252463 -0.089844979 0
-0.27928731 -2.3160582 -0.08960072 0
-0.33841261 -2.5959587 -0.090949677 0
-0.42504752 -3.0060909 -0.09143234 0
-0.56665033 -3.6764424 -0.09103217 0
-0.84650087 -5.0012622 -0.089927055 0
-2.1484587 -11.164765 -0.14083458 0
-0.16419524 -1.882046 -0.092015542 0
-0.18275893 -1.9823841 -0.089253761 0
-0.21121275 -2.1361792 -0.090720855 0
-0.24557017 -2.3218837 -0.089483045 0
-0.30103576 -2.6216793 -0.093049757 0
-0.37184089 -3.0043864 -0.090311162 0
-0.49938625 -3.6937788 -0.09130732 0
-0.94338709 -6.0936365 -0.14069334 0
-1.8912933 -11.217142 -0.14086731 0
-0.14151706 -1.8852969 -0.09187945 0
-0.15807453 -1.9894125 -0.089770369 0
-0.18156092 -2.1370981 -0.090043582 0
-0.21164514 -2.3262718 -0.089282654 0
-0.25602472 -2.6053362 -0.090275414 0
-0.31973156 -3.0059335 -0.089628987 0
-0.42941236 -3.6956213 -0.090605028 0
-0.81431252 -6.1159248 -0.14069739 0
-1.6331403 -11.264825 -0.14094254 0
-0.11799047 -1.8820469 -0.090472721 0
-0.13295761 -1.9943657 -0.090009533 0
-0.15338527 -2.1476624 -0.091092132 0
-0.17753375 -2.3288813 -0.088952385 0
-0.21607248 -2.6180899 -0.091075264 0
-0.2689155 -3.014643 -0.089747615 0
-0.36139801 -3.7086654 -0.090819888 0
-0.68448091 -6.1331964 -0.1406191 0
-1.371839 -11.291382 -0.1406751 0
-0.096428365 -1.894061 -0.092460252 0
-0.10920925 -2.0127819 -0.092918746 0
-0.12388922 -2.1491435 -0.090754159 0
-0.14375651 -2.3336899 -0.089055754 0
-0.17370598 -2.6118894 -0.089763619 0
-0.21806593 -3.023947 -0.090042301 0
-0.29195616 -3.71031 -0.090353526 0
-0.55497658 -6.1534948 -0.14083642 0
-1.1122308 -11.329804 -0.14084029 0
-0.072796158 -1.8868257 -0.090454407 0
-0.081683688 -1.9949564 -0.089086153 0
-0.093709901 -2.1412742 -0.088997819 0
-0.10941031 -2.3322945 -0.088404395 0
-0.13436881 -2.6359539 -0.092129357 0
-0.16624853 -3.0238214 -0.089573599 0
-0.22402447 -3.7267566 -0.0910495 0
-0.42418197 -6.1619878 -0.1406547 0
-0.85161716 -11.362411 -0.1410225 0
-0.050255422 -1.8906602 -0.090935357 0
-0.056803737 -2.0058753 -0.090813048 0
-0.064441018 -2.1402507 -0.088496424 0
-0.075910017 -2.3420436 -0.089444853 0
-0.08179228 -2.44554 -0.069500737 0
-0.081195794 -2.435045 -0.034194428 0
-0.08111535 -2.4336295 -0.00016535609 0
-0.081575051 -2.4417179 0.033244107 0
-0.081064381 -2.4327328 0.067355603 0
-0.081431866 -2.4391985 0.10101186 0
-0.027178241 -1.8815718 -0.088788666 0
-0.031194873 -2.008877 -0.091164924 0
-0.035349987 -2.1405714 -0.08833801 0
-0.040632993 -2.3080134 -0.084447868 0
-0.040122986 -2.2918491 -0.051339466 0
-0.040636297 -2.3081183 -0.022190524 0
-0.040422324 -2.3013365 0.0092004929 0
-0.040526215 -2.3046293 0.03970487 0
-0.041054372 -2.3213689 0.069983609 0
-0.040822264 -2.3140123 0.10100824 0
-0.004781262 -1.9018267 -0.093003608 0
-0.005495558 -2.0150781 -0.09224122 0
-0.0062717483 -2.1381428 -0.087848507 0
-0.0067268712 -2.2103026 -0.07062728 0
-0.0066912854 -2.2046604 -0.0410765 0
-0.0066912072 -2.204648 -0.012473574 0
-0.0067053121 -2.2068844 0.015847543 0
-0.006755345 -2.214817 0.043915387 0
-0.0067295497 -2.2107272 0.072570927 0
-0.0067558684 -2.2149 0.10100539 0
0.017896881 -1.883306 -0.089096986 0
0.020140052 -2.0018115 -0.089772753 0
0.02309612 -2.157979 -0.091139264 0
0.023898184 -2.2003517 -0.069255926 0
0.023939919 -2.2025566 -0.040853206 0
0.024029963 -2.2073135 -0.012740484 0
0.023864409 -2.1985674 0.016415523 0
0.023930551 -2.2020617 0.044500228 0
0.024029944 -2.2073126 0.072645813 0
0.02385178 -2.1979003 0.10100491 0
0.040426046 -1.8820901 -0.088989668 0
0.046065859 -2.0097196 -0.091415636 0
0.051766995 -2.138737 -0.088126726 0
0.054854758 -2.2086132 -0.070553668 0
0.054250915 -2.1949482 -0.040076081 0
0.054608561 -2.2030418 -0.01243194 0
0.054235168 -2.1945918 0.016626375 0
0.054678258 -2.2046189 0.044336073 0
0.054275163 -2.1954968 0.072898239 0
0.05413577 -2.1923423 0.10100478 0
0.063684642 -1.8915291 -0.091273539 0
0.071428336 -2.0029402 -0.090411805 0
0.081004702 -2.1407189 -0.088724665 0
0.084568836 -2.1919973 -0.068459131 0
0.08522024 -2.2013693 -0.041030813 0
0.084969275 -2.1977587 -0.012100397 0
0.085152842 -2.2003996 0.016098307 0
0.085594654 -2.2067561 0.04415505 0
0.0844182 -2.1898301 0.072990015 0
0.084674619 -2.1935194 0.10100486 0
0.085473515 -1.8795925 -0.089124046 0
0.09709546 -2.0020435 -0.090639509 0
0.11125524 -2.1512337 -0.090854414 0
0.11520568 -2.1928561 -0.068932153 0
0.11611935 -2.2024827 -0.041456375 0
0.11580774 -2.1991997 -0.012470273 0
0.11530227 -2.1938739 0.016380342 0
0.11620458 -2.2033808 0.044194926 0
0.11596054 -2.2008095 0.072675496 0
0.11622488 -2.2035947 0.10100522 0
0.10795058 -1.877516 -0.089196615 0
0.1226522 -1.9995836 -0.090694092 0
0.14071193 -2.1495333 -0.091094784 0
0.14570372 -2.19098 -0.069128804 0
0.14609255 -2.1942084 -0.040869791 0
0.1468154 -2.2002103 -0.012873916 0
0.14650229 -2.1976104 0.015887121 0
0.14868404 -2.2157254 0.043461613 0
0.14586867 -2.1923497 0.072796643 0
0.14606686 -2.193995 0.10100504 0
0.12997618 -1.8721313 -0.088680439 0
0.14883885 -2.00122 -0.091651224 0
0.16899833 -2.1391838 -0.09002272 0
0.17823191 -2.2023747 -0.071320124 0
0.17664509 -2.1915152 -0.041029457 0
0.17610964 -2.1878507 -0.012091493 0
0.17757003 -2.1978452 0.015583934 0
0.17813532 -2.2017138 0.043927141 0
0.17810683 -2.2015188 0.072486289 0
0.17752309 -2.1975238 0.10100526 0
0.15407367 -1.879431 -0.091017492 0
0.17207713 -1.9841053 -0.089154892 0
0.19891307 -2.1401327 -0.090949021 0
0.20923012 -2.2001173 -0.071691059 0
0.21009746 -2.2051601 -0.043218631 0
0.20946136 -2.2014618 -0.013835257 0
0.20822065 -2.1942482 0.015495734 0
0.20830813 -2.1947567 0.04402639 0
0.20811254 -2.1936195 0.072558105 0
0.20839132 -2.1952405 0.10100533 0
0.17556819 -1.8706617 -0.090015702 0
0.19820513 -1.9849354 -0.090204008 0
0.22803472 -2.1355186 -0.091074072 0
0.24100395 -2.2009885 -0.072623871 0
0.23913643 -2.1915612 -0.042273153 0
0.24287778 -2.2104478 -0.015227577 0
0.24142459 -2.2031121 0.014464023 0
0.24016386 -2.1967478 0.043665417 0
0.24016607 -2.1967587 0.072350733 0
0.24166121 -2.2043064 0.10100576 0
0.19821851 -1.8680614 -0.090470023 0
0.2252305 -1.9884061 -0.091895781 0
0.25587928 -2.1249535 -0.090320967 0
0.27186099 -2.1961558 -0.072855659 0
0.27394 -2.2054183 -0.0446986 0
0.27085146 -2.1916583 -0.01405116 0
0.2712597 -2.1934769 0.014692003 0
0.27049911 -2.1900883 0.043676872 0
0.27382761 -2.2049177 0.07200335 0
0.27445829 -2.2077274 0.10100605 0
0.21892896 -1.857234 -0.089249082 0
0.24855983 -1.9752305 -0.090497665 0
0.28436008 -2.1177945 -0.090258949 0
0.30707473 -2.2082491 -0.075653963 0
0.30487022 -2.1994703 -0.04485843 0
0.3042174 -2.1968706 -0.015244951 0
0.30324715 -2.193007 0.014206694 0
0.30406386 -2.1962593 0.043035898 0
0.3055273 -2.2020869 0.071896896 0
0.30456927 -2.198272 0.10100599 0
0.23895346 -1.844968 -0.08781708 0
0.27381846 -1.9703283 -0.090821914 0
0.31359795 -2.113359 -0.090783305 0
0.33819503 -2.2017999 -0.075896405 0
0.33762887 -2.1997643 -0.045870978 0
0.3377161 -2.200078 -0.016334211 0
0.34022897 -2.2091134 0.012456754 0
0.33804971 -2.2012775 0.042405307 0
0.3371518 -2.1980488 0.071799584 0
0.33808285 -2.2013967 0.10100631 0
0.26466039 -1.8524166 -0.090867706 0
0.2965135 -1.9566815 -0.089551546 0
0.34265521 -2.1077173 -0.091230772 0
0.37377641 -2.2095861 -0.078347586 0
0.36814833 -2.1911638 -0.045905072 0
0.36778221 -2.1899655 -0.016214086 0
0.37528515 -2.214525 0.011407072 0
0.37307388 -2.2072868 0.041680008 0
0.36982086 -2.1966386 0.071618304 0
0.3700299 -2.1973228 0.10100646 0
0.28567046 -1.8434384 -0.090408288 0
0.3219119 -1.9521699 -0.090197422 0
0.37001303 -2.096483 -0.090839721 0
0.42828986 -2.2713251 -0.088944249 0
0.51581663 -2.5339231 -0.08931955 0
0.65195233 -2.9423575 -0.091189168 0
0.86759168 -3.5893192 -0.090626903 0
1.3024032 -4.8938408 -0.090635903 0
3.2939539 -10.868895 -0.14115848 0
0.30723679 -1.8362764 -0.090474553 0
0.34742931 -1.9474308 -0.090931483 0
0.39697137 -2.0844419 -0.090424232 0
0.46421766 -2.2704148 -0.090480395 0
0.55673522 -2.5262766 -0.090044744 0
0.6985752 -2.9185421 -0.090517305 0
0.93440431 -3.5707393 -0.09093269 0
1.4013851 -4.8621969 -0.090756454 0
3.5377073 -10.770302 -0.14085282 0
0.3297241 -1.8313906 -0.091184475 0
0.36793607 -1.9292712 -0.08908885 0
0.42413315 -2.073221 -0.090268843 0
0.49602363 -2.2573698 -0.090337195 0
0.59546143 -2.5120811 -0.090084426 0
0.74649525 -2.898957 -0.09038005 0
0.99831229 -3.5439906 -0.090754427 0
1.4984152 -4.8250127 -0.090725593 0
3.7799475 -10.669196 -0.14063427 0
0.34832156 -1.8167654 -0.089786895 0
0.39322791 -1.9237442 -0.089912273 0
0.4489345 -2.056452 -0.089244418 0
0.52764708 -2.2439661 -0.090259574 0
0.63517547 -2.5001273 -0.090531893 0
0.79755664 -2.8869619 -0.091131501 0
1.061938 -3.5167882 -0.090661518 0
1.5974969 -4.7926307 -0.091059901 0
4.0278182 -10.582298 -0.14092502 0
0.36912581 -1.8078201 -0.089805998 0
0.42361453 -1.9289672 -0.093096368 0
0.48233393 -2.0595207 -0.091895469 0
0.55563939 -2.2225039 -0.089061595 0
0.66611189 -2.4681222 -0.088542692 0
0.84780043 -2.8720784 -0.091727085 0
1.1312816 -3.5023546 -0.091668792 0
1.6909602 -4.7467127 -0.090833999 0
4.2699404 -10.480674 -0.14100228 0
0.38809368 -1.7950089 -0.0890368 0
0.43647853 -1.8957129 -0.088438235 0
0.50879705 -2.0462303 -0.091748782 0
0.59092396 -2.2171621 -0.090471916 0
0.71245784 -2.4701118 -0.091037743 0
0.89255935 -2.8449595 -0.09119343 0
1.1891017 -3.4621565 -0.090824999 0
1.7869264 -4.7064166 -0.091016836 0
4.5061011 -10.365869 -0.14089723 0
0.41244686 -1.7930868 -0.090971462 0
0.4698697 -1.9052598 -0.092844449 0
0.53254157 -2.0276866 -0.090752818 0
0.61898869 -2.1965575 -0.089630626 0
0.74868965 -2.4499228 -0.090805821 0
0.94282156 -2.8291512 -0.091956608 0
1.251314 -3.4317782 -0.090855353 0
1.882251 -4.6642871 -0.091232054 0
4.7388067 -10.244448 -0.14077272 0
0.4304359 -1.7784789 -0.090010695 0
0.49099249 -1.8897587 -0.09211991 0
0.5587154 -2.0142076 -0.090802096 0
0.64472157 -2.1722541 -0.088298492 0
0.78061306 -2.4219706 -0.08965867 0
0.9823004 -2.7925951 -0.090659432 0
1.3099754 -3.3947365 -0.090479933 0
1.9686842 -4.6051912 -0.090677701 0
4.9719157 -10.123984 -0.14082626 0
0.45104459 -1.7688354 -0.090365015 0
0.51001346 -1.8709724 -0.090785392 0
0.58793277 -2.0059321 -0.091964163 0
0.67532903 -2.1573067 -0.088569768 0
0.8122474 -2.3944557 -0.088661663 0
1.0324602 -2.7758746 -0.091587804 0
1.3769256 -3.3725049 -0.091413237 0
2.5944264 -5.4812737 -0.14050376 0
5.2066364 -10.005745 -0.14109717 0
0.4728941 -1.7610323 -0.091311984 0
0.52939862 -1.8534353 -0.089811154 0
0.6095534 -1.984514 -0.090753384 0
0.70860612 -2.1464968 -0.089653112 0
0.84591514 -2.3710411 -0.088319428 0
1.0654953 -2.7301247 -0.089491986 0
1.4331104 -3.3312931 -0.09094315 0
2.7106521 -5.4204826 -0.14083521 0
5.4220619 -9.8545055 -0.14063318 0
0.48571584 -1.7388293 -0.088767834 0
0.5522579 -1.8417207 -0.090235792 0
0.6348893 -1.9694904 -0.090880267 0
0.74172217 -2.1346817 -0.090725504 0
0.89189225 -2.366884 -0.090769283 0
1.1127619 -2.7084057 -0.090124957 0
1.4907807 -3.2929215 -0.090818964 0
2.8220539 -5.3514171 -0.14087476 0
5.6453943 -9.7170382 -0.14069226 0
0.50887626 -1.732806 -0.090427138 0
0.57663703 -1.8320004 -0.091253243 0
0.6603635 -1.954567 -0.091155507 0
0.76905227 -2.1136756 -0.090393312 0
0.92091054 -2.3359795 -0.089638792 0
1.1600937 -2.6861176 -0.090838306 0
1.5480177 -3.2539966 -0.090767972 0
2.9325049 -5.280736 -0.14098109 0
5.8614612 -9.5684118 -0.14059559 0
0.52151763 -1.7114904 -0.088261776 0
0.5927453 -1.8103111 -0.089652039 0
0.68676662 -1.9407556 -0.091790237 0
0.7981118 -2.0952351 -0.090617977 0
0.9518013 -2.3084626 -0.089080207 0
1.2026321 -2.6564634 -0.09085346 0
1.6026759 -3.2114813 -0.09053003 0
3.0429404 -5.2096934 -0.14122723 0
6.0839643 -9.4287872 -0.14091006 0
0.54596281 -1.7065352 -0.090506531 0
0.62235123 -1.8070676 -0.092478611 0
0.70544744 -1.916428 -0.090402834 0
0.82767785 -2.0772917 -0.091062985 0
0.9947567 -2.2971792 -0.091007002 0
1.2436031 -2.6246781 -0.090743788 0
1.6602508 -3.1730156 -0.090763085 0
3.1443672 -5.1262159 -0.14091253 0
6.2877312 -9.2631016 -0.14063209 0
0.5678798 -1.6975458 -0.09186504 0
0.63598114 -1.782627 -0.090427347 0
0.72916478 -1.8990443 -0.090547256 0
0.8599878 -2.0624857 -0.092214845 0
1.0159602 -2.2573471 -0.088860027 0
1.2912508 -2.6012766 -0.091756664 0
1.7174363 -3.133724 -0.091055788 0
3.2511683 -5.0498643 -0.14116755 0
6.5037527 -9.1134233 -0.14097688 0
0.57845664 -1.6745764 -0.089518838 0
0.65743935 -1.7683033 -0.090907805 0
0.7488752 -1.8768079 -0.089779131 0
0.88904119 -2.0431395 -0.092705362 0
1.0574362 -2.2429695 -0.090638332 0
1.3181752 -2.552382 -0.089824833 0
1.7639778 -3.0814047 -0.090294383 0
3.3476963 -4.9607644 -0.14081432 0
6.7010965 -8.9401608 -0.14077605 0
0.6006465 -1.6655201 -0.0911474 0
0.67479569 -1.7491353 -0.090314515 0
0.77147645 -1.8581585 -0.089889713 0
0.90808219 -2.0122037 -0.091166355 0
1.0851218 -2.2118444 -0.090002485 0
1.370875 -2.5340774 -0.091749467 0
1.8207592 -3.0413947 -0.090774499 0
3.4518683 -4.8807349 -0.14116748 0
6.903492 -8.7729998 -0.14091343 0
0.61203241 -1.644295 -0.089438237 0
0.69674706 -1.7351018 -0.091141291 0
0.80177265 -1.8476803 -0.091966338 0
0.93222862 -1.9875181 -0.090883322 0
1.1192073 -2.1879432 -0.090616621 0
1.3967403 -2.4854352 -0.090015136 0
1.8667012 -2.9891934 -0.090235941 0
3.5487239 -4.7921791 -0.14115174 0
7.1023235 -8.6013365 -0.14107153 0
0.63140041 -1.631763 -0.09035968 0
0.70990396 -1.7117664 -0.089678578 0
0.81559402 -1.8194757 -0.090187244 0
0.94999766 -1.9564471 -0.089454524 0
1.1363744 -2.1463845 -0.08849401 0
1.4342792 -2.449981 -0.090046324 0
1.9166793 -2.9415975 -0.090247177 0
3.6360447 -4.6938119 -0.14065319 0
7.2820497 -8.4094753 -0.14073716 0
0.6537627 -1.6218077 -0.092239983 0
0.7346282 -1.7001618 -0.091441311 0
0.83708775 -1.7994394 -0.090371855 0
0.98011345 -1.9380233 -0.090631701 0
1.1670907 -2.1191936 -0.088800482 0
1.4736199 -2.4162033 -0.090428747 0
1.9570442 -2.8846142 -0.0894408 0
3.7345717 -4.6069388 -0.14105612 0
7.4690561 -8.2254448 -0.14080533 0
0.6726253 -1.6080021 -0.093139194 0
0.75243229 -1.6815184 -0.091467358 0
0.85528612 -1.776265 -0.089930244 0
1.0077597 -1.9167202 -0.091399916 0
1.2079855 -2.1011636 -0.090827696 0
1.5146903 -2.383693 -0.091131411 0
2.5435565 -3.3314614 -0.14070277 0
3.8146589 -4.5023718 -0.14042309 0
7.6456723 -8.031415 -0.14069211 0
0.67860889 -1.5826167 -0.090479709 0
0.77357906 -1.6657708 -0.092448838 0
0.88618332 -1.7643648 -0.092401557 0
1.0306077 -1.8908201 -0.091356687 0
1.2279421 -2.0636024 -0.089629568 0
1.5324892 -2.3302581 -0.08903458 0
2.6064193 -3.2705715 -0.14112806 0
3.9033422 -4.4061327 -0.14050099 0
7.831635 -7.8456726 -0.14102331 0
0.69600356 -1.5675269 -0.091209747 0
0.78243828 -1.6394368 -0.090497799 0
0.89655292 -1.7343754 -0.090497859 0
1.0519855 -1.8636885 -0.091166399 0
1.2597849 -2.0365686 -0.090409122 0
1.5583735 -2.2849815 -0.088128544 0
2.6582463 -3.2000287 -0.14068224 0
3.9927506 -4.3102789 -0.14076991 0
7.9898572 -7.6357002 -0.14065196 0
0.71268839 -1.5516371 -0.091837339 0
0.80504555 -1.6246109 -0.092046671 0
0.91958243 -1.7151096 -0.09144368 0
1.0699513 -1.8339201 -0.090492703 0
1.2728367 -1.9942254 -0.088477023 0
1.6017023 -2.254071 -0.089452945 0
2.7199886 -3.1376593 -0.14128892 0
4.0761042 -4.2091632 -0.14081931 0
8.1603508 -7.4362369 -0.14081022 0
0.71781904 -1.5268779 -0.089490928 0
0.80729038 -1.5939754 -0.088861533 0
0.93072748 -1.686545 -0.090031214 0
1.0965503 -1.8109009 -0.091481425 0
1.3124559 -1.9728156 -0.090619914 0
1.627206 -2.2088571 -0.088764764 0
2.76582 -3.0627413 -0.14063281 0
4.1599946 -4.1082788 -0.141049 0
8.3245106 -7.2313862 -0.14092924 0
0.74471372 -1.5182637 -0.093027689 0
0.8365159 -1.5835564 -0.092149504 0
0.9500429 -1.6643004 -0.090438418 0
1.1194469 -1.7847859 -0.091915198 0
1.3247588 -1.9308103 -0.0888853 0
1.681548 -2.1845701 -0.091523938 0
2.8113422 -2.988116 -0.14012556 0
4.2343264 -4.0001879 -0.14087537 0
8.4716511 -7.0139089 -0.14070943 0
0.74777049 -1.4925554 -0.090450905 0
0.84313315 -1.5568199 -0.090307347 0
0.96450847 -1.6386143 -0.089989834 0
1.1313643 -1.7510577 -0.090593778 0
1.3475169 -1.8967221 -0.088804133 0
1.6978471 -2.1328082 -0.09002424 0
2.8729639 -2.9247148 -0.14114428 0
4.3071589 -3.8912132 -0.14077501 0
8.6241894 -6.8004422 -0.14079991 0
0.77582729 -1.4835005 -0.094383083 0
0.85132909 -1.5316563 -0.088999294 0
0.98406971 -1.6163194 -0.090669163 0
1.1524876 -1.7237378 -0.090971 0
1.3696554 -1.8622494 -0.08875864 0
1.7338147 -2.0945134 -0.090871818 0
2.9180646 -2.8498385 -0.14091066 0
4.3841686 -3.7849329 -0.14106007 0
8.774375 -6.5850449 -0.14097393 0
0.7686922 -1.4521228 -0.089578472 0
0.86972862 -1.5130341 -0.090095825 0
1.0009578 -1.5921476 -0.09093412 0
1.1758931 -1.6976099 -0.091831066 0
1.4019271 -1.833878 -0.090216391 0
1.7645684 -2.0525019 -0.091244526 0
2.9628332 -2.774894 -0.14080893 0
4.4497943 -3.6713309 -0.14086896 0
8.9034834 -6.3563046 -0.14072186 0
0.78577578 -1.43582 -0.090960301 0
0.89200586 -1.4962616 -0.092119701 0
1.0026194 -1.5591972 -0.08843229 0
1.1811808 -1.6607932 -0.0898569 0
1.405027 -1.7881546 -0.08782775 0
1.7859585 -2.0048928 -0.090721063 0
3.0042529 -2.6980643 -0.14059258 0
4.5139189 -3.5570173 -0.14075488 0
9.0403833 -6.1324344 -0.14083739 0
0.79023212 -1.4123601 -0.089378171 0
0.89589792 -1.4690003 -0.090278514 0
1.0265521 -1.5390352 -0.090273224 0
1.1984829 -1.6311957 -0.089974113 0
1.4397645 -1.7605305 -0.089820586 0
1.8039653 -1.9557538 -0.089974485 0
3.0401406 -2.6183839 -0.14009523 0
4.5735798 -3.4403567 -0.14056005 0
9.1636181 -5.9007654 -0.14074101 0
0.80044329 -1.3922049 -0.089327715 0
0.90977401 -1.4473047 -0.090712465 0
1.0438935 -1.5148976 -0.090972103 0
1.2314878 -1.6094404 -0.092679389 0
1.4615079 -1.7253649 -0.090179496 0
1.842965 -1.9176097 -0.091562085 0
3.0852876 -2.5437093 -0.14048751 0
4.6439505 -3.3292367 -0.14108053 0
9.2832632 -5.6673341 -0.1407056 0
0.81894529 -1.3759662 -0.091347508 0
0.92469639 -1.4259571 -0.091474049 0
1.0630791 -1.4913739 -0.092109405 0
1.2215284 -1.5662764 -0.088759892 0
1.4845899 -1.6906317 -0.090822645 0
1.8687303 -1.8722239 -0.091864534 0
3.1264839 -2.4667931 -0.1407163 0
4.7005715 -3.2109005 -0.14103213 0
9.407733 -5.4360843 -0.14094718 0
0.82442021 -1.3534268 -0.090412997 0
0.93511361 -1.4023763 -0.091411002 0
1.065297 -1.4599445 -0.090292238 0
1.2535108 -1.5431741 -0.091497101 0
1.4992375 -1.6518364 -0.090493523 0
1.8831108 -1.8215883 -0.091119282 0
3.1631436 -2.3876293 -0.14074504 0
4.7509689 -3.0897784 -0.14082038 0
9.5167332 -5.1972375 -0.14094205 0
0.83526117 -1.3333244 -0.090853445 0
0.93937087 -1.3762559 -0.090215512 0
1.0774143 -1.4331803 -0.090395533 0
1.2497612 -1.5042505 -0.088863306 0
1.5294907 -1.6196016 -0.092265122 0
1.8991725 -1.7720461 -0.090681218 0
3.1964667 -2.3070071 -0.14067307 0
4.8049469 -2.9702907 -0.14094593 0
9.6158371 -4.9541411 -0.1408405 0
0.84076023 -1.311048 -0.090189762 0
0.94433153 -1.3507303 -0.089307018 0
1.0947547 -1.4083635 -0.091536619 0
1.2705721 -1.4757261 -0.09009973 0
1.5179472 -1.5705054 -0.088890828 0
1.9192672 -1.7242672 -0.090776108 0
3.2315867 -2.2270694 -0.14088945 0
4.8483105 -2.8465011 -0.14069217 0
9.7231836 -4.7142601 -0.14109872 0
0.84045029 -1.2868642 -0.08834932 0
0.96082091 -1.3295323 -0.090839796 0
1.0940703 -1.3767656 -0.089634262 0
1.278776 -1.4422389 -0.089553259 0
1.5460224 -1.5369706 -0.090613611 0
1.9355261 -1.6750393 -0.090610273 0
3.2640657 -2.1459711 -0.14105836 0
4.8951173 -2.7241352 -0.14076582 0
9.8064957 -4.4650874 -0.1409118 0
0.85463536 -1.2678547 -0.089902021 0
0.97538114 -1.3072557 -0.092084266 0
1.1054341 -1.349694 -0.089968868 0
1.2884171 -1.409404 -0.089349188 0
1.5603205 -1.4981302 -0.090733044 0
1.9567726 -1.6274984 -0.091058023 0
3.2972839 -2.0649271 -0.14143139 0
4.9430671 -2.6019707 -0.1410467 0
9.8932209 -4.2172794 -0.14096436 0
0.86944002 -1.2486305 -0.091687374 0
0.98206156 -1.2822611 -0.091881432 0
1.1189704 -1.3231444 -0.090791263 0
1.3102421 -1.3802613 -0.091055654 0
1.566107 -1.4566667 -0.089933448 0
1.9619781 -1.5748804 -0.090057157 0
3.3041458 -1.9756738 -0.14002851 0
4.9692359 -2.4728971 -0.14041764 0
9.9676418 -3.9655035 -0.14087033 0
0.86620677 -1.224058 -0.089594997 0
0.97970045 -1.2548525 -0.090038978 0
1.1177783 -1.2923175 -0.089214392 0
1.3146977 -1.3457482 -0.090328731 0
1.5659338 -1.4139167 -0.088544779 0
1.9668008 -1.5226849 -0.089155011 0
3.3396242 -1.8951765 -0.14087185 0
5.0142632 -2.3495605 -0.14086027 0
10.027258 -3.7097487 -0.1405739 0
0.87680197 -1.2033619 -0.090677552 0
0.99588287 -1.2324675 -0.091937922 0
1.126693 -1.2644401 -0.089489274 0
1.3204783 -1.3118051 -0.089924388 0
1.5795468 -1.3751265 -0.088953547 0
1.9676749 -1.4699926 -0.088005967 0
3.3644693 -1.8113967 -0.1410915 0
5.0481544 -2.2229223 -0.14091618 0
10.099042 -3.4574585 -0.14072557 0
0.88635314 -1.1821605 -0.091641016 0
0.99625617 -1.2061014 -0.09088821 0
1.1387714 -1.2371465 -0.090413488 0
1.338495 -1.2806536 -0.091405757 0
1.6182261 -1.3415893 -0.092475809 0
1.9872508 -1.4219766 -0.088777237 0
3.3867548 -1.72684 -0.14127849 0
5.079411 -2.0955629 -0.14099897 0
10.146974 -3.1994648 -0.14046079 0
0.89496064 -1.1605307 -0.092511736 0
1.0086836 -1.1823137 -0.092283152 0
1.1302953 -1.2056078 -0.088009246 0
1.327648 -1.2434096 -0.088862695 0
1.6051182 -1.2965577 -0.089919515 0
2.5427735 -1.4761605 -0.14059514 0
3.392786 -1.638976 -0.14045992 0
5.1040287 -1.9667554 -0.14091943 0
10.215373 -2.9458063 -0.14083634 0
0.88645476 -1.1358443 -0.089809559 0
1.0049843 -1.1554615 -0.090708382 0
1.152252 -1.1798352 -0.090817608 0
1.3559604 -1.2135501 -0.092042543 0
1.6201652 -1.2572775 -0.090844132 0
2.5704992 -1.4145631 -0.14213262 0
3.4052532 -1.5527195 -0.14025833 0
5.1225996 -1.8369499 -0.14070866 0
10.266736 -2.688333 -0.14096008 0
0.89772975 -1.1145539 -0.091496356 0
1.0136089 -1.1307403 -0.091612063 0
1.1525182 -1.1501435 -0.090124823 0
1.3417325 -1.1765736 -0.089281924 0
1.6210967 -1.2155961 -0.090216972 0
2.5744267 -1.3487601 -0.14156859 0
3.4295337 -1.4682041 -0.14104526 0
5.1496119 -1.7084699 -0.14104971 0
10.301597 -2.4281149 -0.1408488 0
0.89768833 -1.0915555 -0.090872414 0
1.0225728 -1.1057975 -0.092695884 0
1.1532708 -1.1207026 -0.089638628 0
1.3502508 -1.1431665 -0.08987882 0
1.635608 -1.1757092 -0.091312952 0
2.5803549 -1.2834501 -0.14135045 0
3.4385498 -1.3813204 -0.14090624 0
5.1499324 -1.5764899 -0.1402913 0
10.323463 -2.1664898 -0.1405877 0
0.90406293 -1.0692592 -0.091743045 0
1.0135343 -1.0789527 -0.090492494 0
1.1266543 -1.0889692 -0.084760509 0
1.1222026 -1.088575 -0.057217587 0
1.6429632 -1.1346874 -0.091685139 0
