# .PCD v0.7 - Point Cloud Data file format
VERSION 0.7
FIELDS x y z intensity
SIZE 4 4 4 4
TYPE F F F F
COUNT 1 1 1 1
WIDTH 1314
HEIGHT 1
VIEWPOINT 0 0 0 1 0 0 0
POINTS 1314
DATA ascii
-0.94953376 -1.3397855 -0.089842342 0
-1.082425 -1.3887882 -0.088807456 0
-1.2755364 -1.4599967 -0.090231262 0
-1.543252 -1.558715 -0.091387473 0
-1.9221932 -1.6984469 -0.090353929 0
-3.2415936 -2.1849666 -0.14063604 0
-4.8766584 -2.7878852 -0.14105219 0
-9.747344 -4.5839167 -0.14060056 0
-0.83108908 -1.3201898 -0.089367278 0
-0.94844043 -1.3668585 -0.091474585 0
-1.0786904 -1.4186568 -0.089990728 0
-1.256628 -1.4894196 -0.089229189 0
-1.5234572 -1.595533 -0.090766616 0
-1.9062338 -1.7477568 -0.090609632 0
-3.2098913 -2.2661994 -0.14059827 0
-4.8219624 -2.9072928 -0.14066325 0
-9.6587582 -4.8308048 -0.14073099 0
-0.81421268 -1.3375484 -0.087457396 0
-0.93293029 -1.3882657 -0.090310894 0
-1.0686293 -1.4462378 -0.09019015 0
-1.2464694 -1.5222129 -0.089666314 0
-1.5135705 -1.6363212 -0.091515802 0
-1.886497 -1.7956392 -0.090610363 0
-3.1777694 -2.3472836 -0.14068325 0
-4.7700138 -3.0275066 -0.14056097 0
-9.5564737 -5.0723305 -0.14067324 0
-0.82957155 -1.369168 -0.093161888 0
-0.93739074 -1.4184824 -0.093381248 0
-1.0552952 -1.4724097 -0.089925505 0
-1.2307431 -1.5526562 -0.08937531 0
-1.4856015 -1.6692235 -0.090081312 0
-1.8754971 -1.8475543 -0.091631211 0
-3.1506326 -2.4307766 -0.14130892 0
-4.7165561 -3.1469998 -0.14053471 0
-9.4546862 -5.3141298 -0.14078254 0
-0.81374657 -1.3870847 -0.091748305 0
-0.91403359 -1.4360505 -0.090817906 0
-1.0387012 -1.4969202 -0.089181431 0
-1.2141763 -1.5825971 -0.089068718 0
-1.4700018 -1.7075055 -0.090345196 0
-1.847068 -1.8916103 -0.090989597 0
-3.1195319 -2.5128984 -0.1417969 0
-4.6745982 -3.2721694 -0.14125927 0
-9.3521719 -5.5560231 -0.14103131 0
-0.80113465 -1.4063103 -0.09119349 0
-0.90801913 -1.4618797 -0.091995873 0
-1.0259749 -1.5232052 -0.089257859 0
-1.1969897 -1.6121161 -0.088778831 0
-1.4484488 -1.7428502 -0.089954816 0
-1.8154469 -1.9336532 -0.09011995 0
-3.0592937 -2.5803316 -0.14015779 0
-4.6031523 -3.3829865 -0.14061081 0
-9.2339268 -5.790535 -0.14103015 0
-0.78061676 -1.4210348 -0.088828079 0
-0.88672954 -1.4796504 -0.090042867 0
-1.0062799 -1.5456889 -0.088150688 0
-1.186564 -1.6452757 -0.089689173 0
-1.430779 -1.7801776 -0.090195782 0
-1.7919897 -1.9797064 -0.09022107 0
-3.0266397 -2.6617138 -0.14083375 0
-4.5422726 -3.4989333 -0.140663 0
-9.1084127 -6.0212202 -0.14099208 0
-0.77653921 -1.444756 -0.090568416 0
-0.87871301 -1.504609 -0.091055341 0
-0.9973945 -1.5741321 -0.089193247 0
-1.1707829 -1.6757022 -0.089876167 0
-1.4057714 -1.8133574 -0.089573108 0
-1.7744448 -2.0293245 -0.091088109 0
-2.9922607 -2.7427154 -0.14154527 0
-4.4790063 -3.6136439 -0.14074396 0
-8.9745893 -6.2471356 -0.14088528 0
-0.76178932 -1.4623613 -0.089815386 0
-0.86292136 -1.5250838 -0.090499111 0
-0.98173571 -1.598773 -0.089080147 0
-1.1588178 -1.7085999 -0.090823181 0
-1.3874403 -1.8503926 -0.089973144 0
-1.7536378 -2.0775096 -0.091747023 0
-2.9392719 -2.8128448 -0.14090399 0
-4.4074402 -3.7234087 -0.14052898 0
-8.8340235 -6.4687929 -0.14074716 0
-0.74387068 -1.4776924 -0.088356428 0
-0.85226321 -1.5487661 -0.091205306 0
-0.97270173 -1.6277385 -0.090388395 0
-1.1400385 -1.7374624 -0.090779282 0
-1.3753982 -1.8917893 -0.091388352 0
-1.7160692 -2.1151698 -0.090680726 0
-2.8918304 -2.8861246 -0.14086257 0
-4.346169 -3.8397446 -0.14103648 0
-8.6940994 -6.6907129 -0.1407789 0
-0.74409169 -1.5051796 -0.09166085 0
-0.83248663 -1.5663848 -0.089970745 0
-0.9615286 -1.6557341 -0.091436975 0
-1.1109602 -1.7592013 -0.089097641 0
-1.3576833 -1.9300336 -0.092169397 0
-1.6912307 -2.1609833 -0.091147922 0
-2.8461351 -2.9606447 -0.14112487 0
-4.2620664 -3.9410424 -0.14042498 0
-8.5472775 -6.908144 -0.14077322 0
-0.72885668 -1.5223669 -0.091139279 0
-0.82140517 -1.589965 -0.090844117 0
-0.93361408 -1.6719234 -0.08924032 0
-1.11158 -1.8019112 -0.092647754 0
-1.3220255 -1.9556223 -0.090506531 0
-1.6682017 -2.2084723 -0.091965415 0
-2.789398 -3.0274031 -0.14059751 0
-4.1944647 -4.0536757 -0.14089952 0
-8.3845644 -7.1141586 -0.14046648 0
-0.70132416 -1.5299491 -0.087423913 0
-0.80740601 -1.6116151 -0.091181226 0
-0.92382169 -1.7012364 -0.090843327 0
-1.0899228 -1.8291075 -0.09250588 0
-1.2951565 -1.9871044 -0.090201743 0
-1.6236225 -2.2399704 -0.090400316 0
-2.7369218 -3.0970316 -0.14058299 0
-4.1126223 -4.1560993 -0.14071213 0
-8.2432308 -7.3360033 -0.14093222 0
-0.69277298 -1.5518051 -0.088878043 0
-0.78418761 -1.6259271 -0.089420967 0
-0.91131699 -1.7290077 -0.092060544 0
-1.0577908 -1.8477736 -0.09058889 0
-1.2711532 -2.0207746 -0.090440251 0
-1.5972143 -2.2851558 -0.091081046 0
-2.6865451 -3.1684206 -0.1409138 0
-4.0345354 -4.261415 -0.14089939 0
-8.0762119 -7.5385375 -0.14080468 0
-0.6898101 -1.5789037 -0.092078097 0
-0.77380037 -1.6505926 -0.090888329 0
-0.88147312 -1.7424955 -0.089707516 0
-1.0362853 -1.8746338 -0.090679787 0
-1.2453129 -2.0530469 -0.090530924 0
-1.5609149 -2.3224254 -0.09070126 0
-2.6293974 -3.234417 -0.14079332 0
-3.9506509 -4.3621578 -0.14089689 0
-7.9054208 -7.7377076 -0.14071371 0
-0.66823542 -1.5903268 -0.090227194 0
-0.75360799 -1.6670021 -0.090062879 0
-0.86687356 -1.7687287 -0.090742551 0
-1.015247 -1.9019868 -0.090987645 0
-1.222585 -2.0882025 -0.091239132 0
-1.5271077 -2.3617022 -0.090742193 0
-2.5720024 -3.300149 -0.1408017 0
-3.86535 -4.4617376 -0.14096306 0
-7.7291036 -7.9318738 -0.14060335 0
-0.65611523 -1.6100979 -0.091179781 0
-0.73577172 -1.6853559 -0.089934178 0
-0.84341335 -1.7870536 -0.089947127 0
-0.98729199 -1.9229873 -0.090097658 0
-1.1911508 -2.1155891 -0.090705626 0
-1.4946296 -2.4023104 -0.091080643 0
-1.9803221 -2.8611834 -0.089582644 0
-3.7748761 -4.5566435 -0.14085868 0
-7.5577669 -8.1306467 -0.14080462 0
-0.63727295 -1.6235284 -0.090289913 0
-0.70878839 -1.6945944 -0.087494873 0
-0.82091916 -1.8060205 -0.08946123 0
-0.96609235 -1.9502813 -0.090627246 0
-1.1660827 -2.1490149 -0.09132006 0
-1.4590673 -2.4401581 -0.091155075 0
-1.9388158 -2.9168916 -0.090208881 0
-3.68735 -4.6544366 -0.14110045 0
-7.373301 -8.3172226 -0.14074312 0
-0.6245572 -1.6430775 -0.091362931 0
-0.70223129 -1.72426 -0.090618335 0
-0.79628199 -1.8225588 -0.088565283 0
-0.94524258 -1.9782475 -0.091380365 0
-1.1343892 -2.1759374 -0.090971611 0
-1.4211636 -2.4756646 -0.091042705 0
-1.8793509 -2.9545472 -0.089176185 0
-3.5936642 -4.7462916 -0.14109801 0
-7.1868639 -8.5017881 -0.14077008 0
-0.60909581 -1.6600082 -0.091752581 0
-0.68309146 -1.7413596 -0.090514205 0
-0.77671993 -1.8442955 -0.088984407 0
-0.91290039 -1.9940134 -0.089899845 0
-1.1050874 -2.2053051 -0.09114527 0
-1.3779883 -2.5053346 -0.090318628 0
-1.8379548 -3.0110254 -0.090089209 0
-3.4986351 -4.8367901 -0.14116082 0
-6.9857793 -8.6705837 -0.14045049 0
-0.58471334 -1.6667831 -0.089391135 0
-0.66526574 -1.7599616 -0.090908028 0
-0.76624298 -1.8767664 -0.091835 0
-0.88454348 -2.0136099 -0.089316241 0
-1.0662062 -2.2237473 -0.089742802 0
-1.3461258 -2.5475426 -0.091293104 0
-1.7956742 -3.067555 -0.091084965 0
-3.3935633 -4.9159036 -0.14067096 0
-6.795166 -8.850688 -0.14064309 0
-0.57705289 -1.6930572 -0.092612825 0
-0.64655721 -1.7776808 -0.091189452 0
-0.73771286 -1.8886653 -0.090308763 0
-0.86923277 -2.0487945 -0.091711052 0
-1.0411216 -2.2580743 -0.090921603 0
-1.3116596 -2.5874622 -0.09206941 0
-1.7345772 -3.1023767 -0.090194054 0
-3.2919641 -4.9985399 -0.14056487 0
-6.6002464 -9.0264702 -0.14084803 0
-0.55608308 -1.7035335 -0.09156587 0
-0.62760305 -1.7952341 -0.091539748 0
-0.71745825 -1.9104435 -0.091022991 0
-0.83885342 -2.0660925 -0.09094096 0
-1.008912 -2.2841363 -0.090947218 0
-1.2618178 -2.6084042 -0.090688206 0
-1.6867257 -3.1532075 -0.090877943 0
-3.1870513 -5.0768766 -0.14035994 0
-6.395196 -9.190258 -0.14084187 0
-0.54342258 -1.7248435 -0.09354455 0
-0.61136347 -1.8166405 -0.092899643 0
-0.69353968 -1.9276713 -0.090899147 0
-0.81935322 -2.0976617 -0.09281566 0
-0.97353113 -2.3059764 -0.090477832 0
-1.2184012 -2.6368279 -0.090348847 0
-1.6314205 -3.1948709 -0.09085793 0
-3.0927341 -5.1692963 -0.1411293 0
-6.1858644 -9.3485193 -0.14082715 0
-0.52001148 -1.7316775 -0.091813125 0
-0.58287823 -1.8212602 -0.090468176 0
-0.67184913 -1.9480405 -0.091530524 0
-0.78310615 -2.1065774 -0.090853401 0
-0.94407421 -2.3359509 -0.091306828 0
-1.174994 -2.6650031 -0.090113215 0
-1.5748657 -3.2348053 -0.090810932 0
-2.976579 -5.2321935 -0.14034279 0
-5.9768863 -9.5075188 -0.1409851 0
-0.49823308 -1.7402515 -0.090706743 0
-0.55588078 -1.8269712 -0.088487975 0
-0.64521235 -1.9613529 -0.090867765 0
-0.74355185 -2.1092854 -0.08803194 0
-0.89622593 -2.3389535 -0.088442005 0
-1.1403774 -2.7062314 -0.091468401 0
-1.5202907 -3.2777364 -0.091137134 0
-2.8745983 -5.3150253 -0.14084902 0
-5.7538757 -9.6463318 -0.14072537 0
-0.47382626 -1.7441807 -0.08859057 0
-0.54745311 -1.8612405 -0.093046315 0
-0.61988384 -1.9763987 -0.090683557 0
-0.72282702 -2.1400685 -0.090083085 0
-0.87258667 -2.3781724 -0.090790771 0
-1.093227 -2.7289701 -0.090860598 0
-1.4573249 -3.3078518 -0.090514503 0
-2.7686875 -5.3927951 -0.14121166 0
-5.5407228 -9.8000717 -0.14103563 0
-0.46097344 -1.7665964 -0.091230474 0
-0.51659143 -1.8601831 -0.089843638 0
-0.59471023 -1.991631 -0.090660937 0
-0.69515407 -2.1606445 -0.090521194 0
-0.83370936 -2.3937869 -0.089977182 0
-1.044645 -2.7487211 -0.090067662 0
-1.4001955 -3.3469946 -0.090765513 0
-2.6550694 -5.458529 -0.14106296 0
-5.3106852 -9.9270458 -0.140764 0
-0.44203249 -1.7794639 -0.091586135 0
-0.50019532 -1.8832064 -0.092055179 0
-0.56761473 -2.0034595 -0.090117879 0
-0.66157067 -2.1710443 -0.089427032 0
-0.79701251 -2.412626 -0.089739539 0
-1.0063168 -2.785953 -0.091288619 0
-1.3417324 -3.3842189 -0.090975679 0
-2.5444679 -5.5294847 -0.14134926 0
-5.0823274 -10.056152 -0.14070891 0
-0.4258756 -1.7978168 -0.093371309 0
-0.47658581 -1.8938702 -0.091693856 0
-0.5419364 -2.0176551 -0.090149947 0
-0.63433468 -2.1926727 -0.090267397 0
-0.76058638 -2.4318144 -0.08967445 0
-0.95179796 -2.7940009 -0.089515902 0
-1.276623 -3.4092734 -0.090338431 0
-1.9262122 -4.6397028 -0.09120249 0
-4.8559213 -10.189057 -0.14090702 0
-0.40459993 -1.8068377 -0.093017422 0
-0.45491606 -1.9082636 -0.09224724 0
-0.51325965 -2.025871 -0.0892042 0
-0.6002152 -2.2011535 -0.089143254 0
-0.72420502 -2.4510887 -0.089742117 0
-0.91152829 -2.8286901 -0.09068542 0
-1.2153068 -3.4410384 -0.090361856 0
-1.8306296 -4.6813893 -0.090902306 0
-4.6195116 -10.303141 -0.14076343 0
-0.37332678 -1.7941954 -0.087715961 0
-0.42894047 -1.913788 -0.091066234 0
-0.48905936 -2.0430686 -0.090029456 0
-0.57116717 -2.2196348 -0.089716457 0
-0.69133878 -2.4780536 -0.090919323 0
-0.8624599 -2.8460352 -0.090161212 0
-1.1551781 -3.4755013 -0.090713091 0
-1.7368656 -4.7263718 -0.09089946 0
-4.3785801 -10.407157 -0.14051734 0
-0.36094597 -1.821895 -0.092006572 0
-0.40538201 -1.9241208 -0.091021039 0
-0.4599694 -2.0496998 -0.089062221 0
-0.54130477 -2.2368131 -0.090196751 0
-0.64519 -2.4758027 -0.088466816 0
-0.81897634 -2.8756006 -0.091013186 0
-1.089909 -3.4988852 -0.090332277 0
-1.6449251 -4.7757077 -0.091238461 0
-4.1458521 -10.529126 -0.1408841 0
-0.33741662 -1.824819 -0.090643741 0
-0.38450935 -1.9410965 -0.092447706 0
-0.43158668 -2.0573359 -0.088413872 0
-0.50841343 -2.2470303 -0.089731582 0
-0.61442912 -2.5087953 -0.090630911 0
-0.77150679 -2.8966384 -0.091108881 0
-1.0298978 -3.5346363 -0.091013081 0
-1.5474162 -4.8124499 -0.091058649 0
-3.9020121 -10.626223 -0.14077133 0
-0.31389821 -1.826894 -0.08923652 0
-0.35228884 -1.9290181 -0.088121183 0
-0.40372086 -2.065834 -0.088049389 0
-0.47639889 -2.259167 -0.089684285 0
-0.57510632 -2.5217416 -0.090369083 0
-0.72074699 -2.9091649 -0.090475 0
-0.96625274 -3.5622423 -0.091192789 0
-1.4507514 -4.8510718 -0.091097035 0
-3.6621301 -10.733626 -0.14106931 0
-0.29413959 -1.8388183 -0.090192057 0
-0.32966319 -1.9410779 -0.088808246 0
-0.37643865 -2.0757275 -0.088053815 0
-0.44594786 -2.2758195 -0.090429939 0
-0.53794557 -2.5406475 -0.090970226 0
-0.67251736 -2.9280312 -0.09060026 0
-0.90064913 -3.5847402 -0.091112338 0
-1.350263 -4.8790159 -0.090729617 0
-3.4102151 -10.808873 -0.14072286 0
-0.27699175 -1.8597109 -0.093252845 0
-0.30975476 -1.9623045 -0.091415651 0
-0.35244519 -2.0959847 -0.0899655 0
-0.41342083 -2.2869229 -0.090464868 0
-0.49801084 -2.5518067 -0.090731658 0
-0.6249488 -2.9492984 -0.09107957 0
-0.82876498 -3.5875254 -0.089707889 0
-1.2529923 -4.9159446 -0.090928726 0
-3.15819 -10.881852 -0.1404797 0
-0.25240666 -1.8577582 -0.091328867 0
-0.2856327 -1.9716407 -0.091769986 0
-0.32540244 -2.1079519 -0.090548016 0
-0.37911788 -2.292062 -0.089747064 0
-0.46135658 -2.5739362 -0.091953628 0
-0.57459855 -2.9620743 -0.090846919 0
-0.76949817 -3.6300948 -0.091343634 0
-1.1536644 -4.9468288 -0.090952732 0
-2.9105873 -10.9687 -0.14072891 0
-0.23110639 -1.8664927 -0.091904514 0
-0.25786307 -1.9676255 -0.089639731 0
-0.29529351 -2.109102 -0.089404143 0
-0.34392962 -2.292933 -0.088539846 0
-0.41774818 -2.5719466 -0.090363853 0
-0.52191037 -2.965651 -0.089850731 0
-0.69906217 -3.6352355 -0.090370394 0
-1.0506173 -4.9640169 -0.090438195 0
-2.6589496 -11.043065 -0.14082703 0
-0.20680267 -1.8632476 -0.089977153 0
-0.23659879 -1.9885768 -0.092491858 0
-0.26802325 -2.1207547 -0.090170078 0
-0.31408048 -2.3144815 -0.090455465 0
-0.37632957 -2.5763149 -0.089679979 0
-0.47454226 -2.9894192 -0.090925701 0
-0.6326012 -3.6542499 -0.090528063 0
-0.94654977 -4.9747863 -0.089744456 0
-2.4041162 -11.10563 -0.14079483 0
-0.18580884 -1.8735285 -0.091132216 0
-0.20918025 -1.9841694 -0.090550713 0
-0.23850977 -2.1230161 -0.089470364 0
-0.28040823 -2.3213644 -0.090362914 0
-0.33946303 -2.6009314 -0.091543682 0
-0.42469245 -3.00441 -0.091271989 0
-0.56574392 -3.6721513 -0.090725563 0
-0.84602523 -4.9990106 -0.089819916 0
-2.1459394 -11.152839 -0.14055118 0
-0.1643471 -1.8828669 -0.09219297 0
-0.18374239 -1.9876999 -0.090271972 0
-0.21022642 -2.1308479 -0.08982978 0
-0.24612464 -2.3248806 -0.089911379 0
-0.29812717 -2.6059582 -0.091181196 0
-0.37058756 -2.997612 -0.089668117 0
-0.49632147 -3.6772134 -0.090129592 0
-0.94310313 -6.0921021 -0.14062068 0
-1.8897653 -11.208883 -0.14067203 0
-0.13917321 -1.8705584 -0.088707246 0
-0.15812194 -1.9897107 -0.089827232 0
-0.18151374 -2.1368012 -0.0899942 0
-0.21180589 -2.3272824 -0.089426495 0
-0.25595501 -2.604898 -0.090223558 0
-0.31979939 -3.0063601 -0.089669295 0
-0.42951229 -3.6962495 -0.090649493 0
-0.81523538 -6.1217279 -0.14097095 0
-1.6342806 -11.271995 -0.14111133 0
-0.11910387 -1.8904022 -0.092264436 0
-0.13441645 -2.0053134 -0.09208975 0
-0.15139478 -2.132725 -0.088615455 0
-0.17855982 -2.3365812 -0.090044089 0
-0.21493065 -2.6095212 -0.090064965 0
-0.26904827 -3.0156395 -0.089841433 0
-0.36256596 -3.7174301 -0.091438048 0
-0.68619782 -6.146081 -0.14122424 0
-1.3727918 -11.298532 -0.14084281 0
-0.095940232 -1.8895266 -0.091490872 0
-0.10767596 -1.9985394 -0.090220653 0
-0.12265491 -2.1376781 -0.08885891 0
-0.14388599 -2.3348927 -0.089225762 0
-0.17501123 -2.6240137 -0.091188841 0
-0.2180571 -3.023865 -0.090034612 0
-0.29282916 -3.7184191 -0.090923689 0
-0.55531317 -6.1566215 -0.14098282 0
-1.1117678 -11.325503 -0.14073972 0
-0.07307791 -1.8902535 -0.091185503 0
-0.082509868 -2.0050082 -0.090985812 0
-0.093813144 -2.1425302 -0.08920496 0
-0.11040842 -2.3444381 -0.090116747 0
-0.13363469 -2.6270223 -0.091081955 0
-0.16656221 -3.0276377 -0.089931034 0
-0.22416183 -3.7284279 -0.091166727 0
-0.42452997 -6.1662216 -0.14085247 0
-0.85108864 -11.35598 -0.14087251 0
-0.05052134 -1.8953389 -0.091931485 0
-0.056340441 -1.9977239 -0.089275219 0
-0.064907305 -2.1484549 -0.089846976 0
-0.075938053 -2.3425369 -0.089514293 0
-0.081355758 -2.4378595 -0.06860166 0
-0.080818854 -2.4284129 -0.033574391 0
-0.080736935 -2.4269717 0.00030086399 0
-0.080634467 -2.4251688 0.034015793 0
-0.08138556 -2.4383838 0.067223996 0
-0.081465714 -2.4397941 0.10101187 0
-0.027615096 -1.8954177 -0.091733254 0
-0.030987635 -2.0023086 -0.089927159 0
-0.035328433 -2.139888 -0.08822567 0
-0.040491417 -2.3035264 -0.083816953 0
-0.040915623 -2.3169713 -0.054277051 0
-0.040730454 -2.3111024 -0.022469206 0
-0.040866781 -2.3154233 0.0082152057 0
-0.040851783 -2.3149478 0.039224252 0
-0.040913563 -2.316906 0.070087425 0
-0.040857818 -2.3151393 0.10100827 0
-0.0047025359 -1.8893447 -0.090350337 0
-0.0054176794 -2.0027306 -0.089915492 0
-0.0063631027 -2.152627 -0.090229057 0
-0.006753576 -2.2145367 -0.071222313 0
-0.0067144576 -2.2083344 -0.041505907 0
-0.0066660112 -2.2006531 -0.01210068 0
-0.0067297081 -2.2107522 0.015577132 0
-0.006662067 -2.2000279 0.044603903 0
-0.0066488143 -2.1979265 0.072868556 0
-0.0067225951 -2.2096245 0.10100523 0
0.017968085 -1.8870677 -0.089896716 0
0.019983159 -1.9935231 -0.088211335 0
0.022882747 -2.1467066 -0.08928629 0
0.023856187 -2.198133 -0.068944074 0
0.023998255 -2.2056384 -0.041213442 0
0.023829879 -2.1967432 -0.011753676 0
0.023754949 -2.1927848 0.016819859 0
0.023889141 -2.1998739 0.044602092 0
0.023972992 -2.2043037 0.072715782 0
0.023802247 -2.1952834 0.10100483 0
0.040484969 -1.8834236 -0.089273386 0
0.045875102 -2.0054028 -0.090601765 0
0.051922459 -2.1422551 -0.088705488 0
0.05393859 -2.1878803 -0.067637138 0
0.054600339 -2.2028556 -0.041001175 0
0.054033592 -2.1900301 -0.011216251 0
0.054478087 -2.2000892 0.016241686 0
0.05382853 -2.1853895 0.045232169 0
0.054392092 -2.198143 0.072836652 0
0.054062884 -2.1906931 0.10100473 0
0.063911617 -1.8947947 -0.091969348 0
0.072609149 -2.0199292 -0.093619384 0
0.081833333 -2.1526406 -0.090688758 0
0.084770367 -2.1948969 -0.068867587 0
0.084781297 -2.1950541 -0.040290955 0
0.08504647 -2.1988692 -0.01220431 0
0.085071817 -2.199234 0.016179996 0
0.084493436 -2.1909125 0.044894423 0
0.084778629 -2.1950157 0.072869159 0
0.085005306 -2.198277 0.101005 0
0.086522564 -1.8906455 -0.091484033 0
0.097193554 -2.003077 -0.090835057 0
0.11135784 -2.1523147 -0.09103287 0
0.11523303 -2.1931443 -0.068972833 0
0.11527774 -2.1936154 -0.04041535 0
0.11602809 -2.2015214 -0.012687964 0
0.11643247 -2.2057819 0.015544118 0
0.1156105 -2.1971214 0.04448764 0
0.11549792 -2.1959352 0.072789334 0
0.11627304 -2.204102 0.10100523 0
0.10870714 -1.8837978 -0.090541519 0
0.12299929 -2.0024652 -0.091240786 0
0.14017013 -2.1450346 -0.090350099 0
0.14615618 -2.1947367 -0.069660552 0
0.14616752 -2.1948309 -0.04094306 0
0.14804853 -2.210449 -0.013836494 0
0.14724915 -2.2038116 0.015450465 0
0.1468173 -2.2002258 0.044188406 0
0.14839683 -2.2133408 0.072305053 0
0.14623623 -2.1954014 0.10100508 0
0.13052213 -1.8758676 -0.08948306 0
0.14878103 -2.0008245 -0.091575898 0
0.16882506 -2.1379979 -0.089825772 0
0.17680953 -2.1926405 -0.069937624 0
0.18010138 -2.2151687 -0.043823291 0
0.17861585 -2.2050023 -0.013709424 0
0.17713195 -2.1948471 0.015795754 0
0.17637789 -2.1896865 0.044493008 0
0.17852709 -2.2043948 0.072418705 0
0.17812203 -2.2016227 0.10100538 0
0.15508476 -1.8853097 -0.092285402 0
0.17338438 -1.9917059 -0.090607472 0
0.19758101 -2.1323881 -0.089657478 0
0.21031234 -2.2064095 -0.072588287 0
0.21001345 -2.2046716 -0.043160696 0
0.20955221 -2.2019901 -0.01388528 0
0.208802 -2.1976283 0.015255967 0
0.20905273 -2.199086 0.04382189 0
0.20869492 -2.1970057 0.07247822 0
0.20957455 -2.2021198 0.10100553 0
0.1746922 -1.8662395 -0.089057468 0
0.20042901 -1.9961619 -0.09235961 0
0.22647621 -2.127651 -0.0897559 0
0.23924719 -2.1921203 -0.071353354 0
0.24082623 -2.2000914 -0.043289486 0
0.23958953 -2.1938484 -0.013648076 0
0.24273609 -2.2097325 0.013992185 0
0.24098539 -2.2008948 0.043468595 0
0.23939602 -2.1928716 0.072442867 0
0.24113823 -2.2016664 0.10100568 0
0.19941019 -1.8733706 -0.091626622 0
0.2231701 -1.9792266 -0.09012378 0
0.25288084 -2.1115949 -0.088070817 0
0.27242151 -2.1986532 -0.073215343 0
0.27182329 -2.1959879 -0.043569002 0
0.27432898 -2.2071514 -0.015533281 0
0.27011052 -2.1883571 0.015058832 0
0.27311823 -2.2017572 0.043120116 0
0.27274501 -2.2000945 0.072118282 0
0.27421451 -2.2066414 0.10100602 0
0.22156593 -1.867735 -0.091550492 0
0.24858017 -1.9753114 -0.090513401 0
0.28303754 -2.1125278 -0.089366488 0
0.30465913 -2.1986299 -0.074260138 0
0.30838332 -2.2134602 -0.046544228 0
0.30272806 -2.1909399 -0.014674185 0
0.30491766 -2.1996593 0.01372719 0
0.30514765 -2.2005751 0.042828731 0
0.3031213 -2.1925058 0.072126575 0
0.30673277 -2.2068875 0.10100624 0
0.24382634 -1.8624889 -0.09168271 0
0.27306837 -1.9676313 -0.090294652 0
0.31396446 -2.1146767 -0.091008104 0
0.33708075 -2.1977935 -0.075311996 0
0.34004474 -2.2084508 -0.046924729 0
0.3368738 -2.1970494 -0.016040785 0
0.33885467 -2.2041719 0.012815313 0
0.33617386 -2.1945326 0.042731233 0
0.33715552 -2.1980624 0.071799263 0
0.33723918 -2.1983631 0.10100622 0
0.26525506 -1.8543632 -0.091300361 0
0.2955516 -1.9535329 -0.088931449 0
0.34139076 -2.1035783 -0.090519495 0
0.37255031 -2.2055728 -0.077757828 0
0.37216565 -2.2043138 -0.047512073 0
0.37136656 -2.2016981 -0.01735918 0
0.37130594 -2.2014997 0.012359204 0
0.36806437 -2.1908891 0.042478226 0
0.37003419 -2.1973369 0.071601331 0
0.37207291 -2.2040102 0.10100666 0
0.28859204 -1.8522036 -0.092372231 0
0.3235499 -1.9570843 -0.091173105 0
0.37018865 -2.0970099 -0.090931006 0
0.429088 -2.2737198 -0.089298971 0
0.51995128 -2.5463281 -0.090847753 0
0.65126055 -2.9402821 -0.090984948 0
0.86627537 -3.5853701 -0.090335898 0
1.3011593 -4.8901091 -0.090452768 0
3.2913561 -10.8611 -0.14096746 0
0.30896494 -1.8410558 -0.091554828 0
0.34667033 -1.9453318 -0.090511076 0
0.39922875 -2.0906847 -0.091515265 0
0.46441132 -2.2709503 -0.090560414 0
0.55820292 -2.5303357 -0.090549193 0
0.70238787 -2.929086 -0.091563843 0
0.93510967 -3.5726898 -0.091077708 0
1.4042182 -4.8700318 -0.091144331 0
3.5362744 -10.766338 -0.14075483 0
0.32989889 -1.8318385 -0.091286652 0
0.37318185 -1.9427085 -0.091805778 0
0.4243547 -2.0737886 -0.090368964 0
0.49352035 -2.2509575 -0.089369826 0
0.60045099 -2.5248623 -0.091687985 0
0.74765819 -2.9019358 -0.090678535 0
0.99808151 -3.5433996 -0.090710066 0
1.5020127 -4.8342276 -0.091186129 0
3.7821529 -10.674846 -0.14077528 0
0.34931734 -1.8191377 -0.090333767 0
0.39547351 -1.9290938 -0.091005035 0
0.45185438 -2.0634079 -0.090484269 0
0.53034085 -2.2503834 -0.091237657 0
0.63358361 -2.496335 -0.090051226 0
0.79887754 -2.8901088 -0.091450058 0
1.0592791 -3.5104539 -0.090181269 0
1.5945947 -4.785717 -0.090710826 0
4.021975 -10.568378 -0.14057404 0
0.37120116 -1.8124343 -0.090881445 0
0.41864172 -1.9179109 -0.090812959 0
0.48144308 -2.0575399 -0.091538526 0
0.55748063 -2.2265975 -0.089692406 0
0.67365378 -2.4848907 -0.090691559 0
0.8418768 -2.8589082 -0.090379141 0
1.1307135 -3.5010915 -0.091571964 0
1.6927559 -4.7507057 -0.091037817 0
4.2629614 -10.465157 -0.14060672 0
0.38822269 -1.7952774 -0.089100115 0
0.43847331 -1.8998647 -0.089305796 0
0.5047248 -2.0377545 -0.090203352 0
0.59038687 -2.2160442 -0.090297617 0
0.70373631 -2.4519598 -0.08868406 0
0.88949907 -2.8385901 -0.090533845 0
1.1867748 -3.4573138 -0.090449385 0
1.7858322 -4.7041392 -0.090899207 0
4.5036912 -10.360853 -0.14076786 0
0.41146138 -1.7911617 -0.090511762 0
0.46775317 -1.9011253 -0.091969602 0
0.53199512 -2.0266192 -0.09055572 0
0.61589277 -2.1905098 -0.088675819 0
0.74639571 -2.4454417 -0.090217479 0
0.94005775 -2.8237524 -0.091390483 0
1.2540706 -3.4371631 -0.091278262 0
1.8798569 -4.6596103 -0.090987451 0
4.7400999 -10.246974 -0.14083868 0
0.43557021 -1.7879138 -0.092293911 0
0.48487562 -1.8785182 -0.089709572 0
0.55607003 -2.0093462 -0.089892514 0
0.64727598 -2.1769481 -0.089049526 0
0.78054571 -2.4218469 -0.089642204 0
0.98209685 -2.7922211 -0.090619691 0
1.3121082 -3.3986557 -0.090791859 0
1.972876 -4.6128945 -0.091085963 0
4.9745321 -10.128792 -0.14095353 0
0.45174235 -1.7700441 -0.090661652 0
0.50669163 -1.8652188 -0.089534037 0
0.58623242 -2.0029871 -0.091405265 0
0.67968041 -2.1648436 -0.089792795 0
0.81781036 -2.4040911 -0.089961983 0
1.0234228 -2.7602215 -0.08990071 0
1.3679287 -3.3569219 -0.090155311 0
2.5968792 -5.4855223 -0.14073215 0
5.2040448 -10.001257 -0.14097667 0
0.46993449 -1.7561924 -0.090106107 0
0.5267328 -1.8490758 -0.088848673 0
0.61012053 -1.9854414 -0.090932049 0
0.7069205 -2.1437404 -0.089199044 0
0.8502717 -2.3781655 -0.089295425 0
1.073567 -2.7433245 -0.090936176 0
1.427525 -3.3221593 -0.090194695 0
2.7113869 -5.4216843 -0.14090079 0
5.4237871 -9.8573265 -0.14071006 0
0.48968056 -1.7449598 -0.090319715 0
0.55565709 -1.8469766 -0.091414757 0
0.63259137 -1.9659371 -0.0901848 0
0.73654681 -2.1266794 -0.089386202 0
0.88409895 -2.3548334 -0.089092039 0
1.1159464 -2.71333 -0.090672322 0
1.4894414 -3.2908509 -0.090646558 0
2.8170574 -5.3436913 -0.14044641 0
5.6531267 -9.7289944 -0.14102332 0
0.51263124 -1.7383028 -0.091842152 0
0.57922727 -1.8357922 -0.092118181 0
0.66487396 -1.9611697 -0.092469715 0
0.76445132 -2.1069403 -0.089246996 0
0.92084521 -2.3358839 -0.089625262 0
1.1644783 -2.6925364 -0.091563873 0
1.5485466 -3.2547708 -0.090833507 0
2.9322302 -5.280334 -0.14095843 0
5.870822 -9.5821142 -0.14098141 0
0.52790457 -1.7203516 -0.0905836 0
0.59973168 -1.820004 -0.091902517 0
0.68219078 -1.9344071 -0.090504073 0
0.79609549 -2.0924377 -0.090133362 0
0.95137435 -2.3078704 -0.088994868 0
1.2017637 -2.6552587 -0.090714835 0
1.6018695 -3.2103624 -0.09043362 0
3.0401859 -5.2058721 -0.14100793 0
6.0758348 -9.4175091 -0.14058682 0
0.54630202 -1.7069817 -0.090625726 0
0.60939002 -1.7900099 -0.08844348 0
0.70355809 -1.9139416 -0.089889593 0
0.82969499 -2.0799465 -0.091531552 0
0.99083269 -2.2920148 -0.090248965 0
1.2433051 -2.6242862 -0.090697818 0
1.6626139 -3.1761255 -0.091036148 0
3.1376426 -5.1173658 -0.14039508 0
6.2975307 -9.2759981 -0.14100869 0
0.56422341 -1.6929778 -0.090621285 0
0.640028 -1.7876829 -0.091647111 0
0.72507888 -1.8939397 -0.089472644 0
0.85825157 -2.0603166 -0.09182439 0
1.019521 -2.2617955 -0.08952599 0
1.278282 -2.5850742 -0.089819528 0
1.7122401 -3.1272321 -0.090474464 0
3.2460699 -5.0434952 -0.14078772 0
6.4958529 -9.1035538 -0.14068295 0
0.58396214 -1.6811097 -0.091334902 0
0.65572309 -1.7662666 -0.090406157 0
0.75491595 -1.8839762 -0.091319792 0
0.88321352 -2.0362239 -0.091434427 0
1.0544586 -2.2394359 -0.090098269 0
1.3317506 -2.5684917 -0.09179122 0
1.7789212 -3.0991378 -0.09191557 0
3.345216 -4.9578209 -0.14063513 0
6.7063637 -8.9464111 -0.14096609 0
0.59412509 -1.6581662 -0.089058138 0
0.67628485 -1.7508146 -0.090737276 0
0.77426654 -1.8613048 -0.090580858 0
0.90391248 -2.0075016 -0.090283163 0
1.0813553 -2.207597 -0.089339025 0
1.3628433 -2.5250204 -0.090619572 0
1.8206545 -3.0412767 -0.090763472 0
3.4416127 -4.8691702 -0.14044788 0
6.8958225 -8.7643518 -0.14064467 0
0.6160838 -1.6486377 -0.090700664 0
0.69833124 -1.7368 -0.0915787 0
0.79429406 -1.839664 -0.09016452 0
0.93498296 -1.9904705 -0.091450773 0
1.1192428 -2.1879814 -0.090622701 0
1.3988227 -2.4876673 -0.090300061 0
1.8575473 -2.9793813 -0.089297809 0
3.5427265 -4.7857504 -0.14074244 0
7.0912809 -8.5895004 -0.14069515 0
0.631751 -1.6321203 -0.09046609 0
0.72006416 -1.7221206 -0.092410915 0
0.82216275 -1.8261698 -0.091728635 0
0.95409346 -1.9606211 -0.090276368 0
1.1507963 -2.161082 -0.090900593 0
1.442665 -2.4585268 -0.091163896 0
1.9165307 -2.9414458 -0.090232335 0
3.6399162 -4.6977572 -0.14091054 0
7.275743 -8.4030476 -0.1405278 0
0.64264721 -1.6110375 -0.08895006 0
0.7347092 -1.7002404 -0.09146256 0
0.84065598 -1.8028967 -0.091188423 0
0.97901601 -1.9369599 -0.090416946 0
1.1706378 -2.1226306 -0.089377724 0
1.4757714 -2.418288 -0.090708382 0
1.9535109 -2.8811905 -0.089096852 0
3.7254436 -4.598094 -0.1404644 0
7.4641352 -8.2206764 -0.14064603 0
0.67141902 -1.6068909 -0.092790581 0
0.74656051 -1.6761094 -0.089963682 0
0.84905696 -1.7705269 -0.088538311 0
0.99955684 -1.909164 -0.089832567 0
1.2084384 -2.1015809 -0.090899669 0
1.5165433 -2.3854001 -0.091366582 0
2.5442584 -3.332108 -0.14076947 0
3.8257587 -4.5125971 -0.14112568 0
7.6520729 -8.0373106 -0.14089446 0
0.68209457 -1.5856686 -0.091464497 0
0.76517999 -1.6584166 -0.09034615 0
0.87532401 -1.7548567 -0.090029381 0
1.0309305 -1.8911028 -0.091416977 0
1.2243727 -2.060477 -0.089075096 0
1.5274161 -2.3258164 -0.088405199 0
2.5947709 -3.2603724 -0.14004569 0
3.9099135 -4.4118867 -0.14090762 0
7.8239164 -7.8389144 -0.14078479 0
0.69160825 -1.5638702 -0.089994423 0
0.78979355 -1.6455562 -0.092299931 0
0.89921659 -1.7365915 -0.091067336 0
1.0502959 -1.8622829 -0.090857528 0
1.2468616 -2.0258169 -0.08844436 0
1.5699855 -2.2946422 -0.089538477 0
2.663358 -3.2042813 -0.14114709 0
4.0003319 -4.316586 -0.14122902 0
7.9938369 -7.6390109 -0.14077233 0
0.71232706 -1.5513515 -0.091739468 0
0.79572022 -1.6172427 -0.089808129 0
0.91841108 -1.714184 -0.091198318 0
1.0800824 -1.8419249 -0.092307262 0
1.2820988 -2.0015435 -0.089856632 0
1.6010563 -2.2535605 -0.089376099 0
2.7137561 -3.132735 -0.14073363 0
4.0787172 -4.2112279 -0.14097434 0
8.1656122 -7.4403939 -0.14096613 0
0.72267014 -1.5305159 -0.090779833 0
0.80797094 -1.5944858 -0.089021765 0
0.92981201 -1.6858584 -0.089843132 0
1.0956948 -1.8102593 -0.091331147 0
1.3114325 -1.972048 -0.090470411 0
1.6290931 -2.2102723 -0.088984944 0
2.7698119 -3.0657349 -0.14098163 0
4.1616368 -4.1095104 -0.14114456 0
8.3198404 -7.2278838 -0.1407935 0
0.73731053 -1.5129983 -0.091096647 0
0.82978964 -1.5787724 -0.09059485 0
0.954198 -1.6672556 -0.091276415 0
1.1093621 -1.7776133 -0.090176053 0
1.331216 -1.9354029 -0.089811377 0
1.6735641 -2.1788919 -0.090609454 0
2.8188999 -2.9934914 -0.14077391 0
4.2326083 -3.9989662 -0.14077722 0
8.4645538 -7.0088611 -0.14050692 0
0.7490198 -1.4933974 -0.090771131 0
0.83833241 -1.5535847 -0.08921697 0
0.97430342 -1.645215 -0.091931082 0
1.1341627 -1.7529435 -0.091067992 0
1.3553959 -1.9020318 -0.089914553 0
1.6984111 -2.1331882 -0.090087734 0
2.8735881 -2.9251356 -0.14119691 0
4.3052082 -3.8898985 -0.1406655 0
8.6246004 -6.8007193 -0.14081144 0
0.75617117 -1.4709637 -0.089427464 0
0.86228985 -1.5386472 -0.091447927 0
0.98600858 -1.617556 -0.091047131 0
1.1455528 -1.7193147 -0.089815058 0
1.3685235 -1.8615273 -0.088601731 0
1.7358406 -2.0958054 -0.091096096 0
2.9145749 -2.8476129 -0.14062129 0
4.3786588 -3.7814186 -0.14075583 0
8.7660322 -6.5797243 -0.14074387 0
0.77336138 -1.4549376 -0.090737365 0
0.86575723 -1.5106399 -0.089222409 0
1.0039018 -1.5939224 -0.091499083 0
1.1744587 -1.6967453 -0.091595717 0
1.4029344 -1.8344853 -0.090353854 0
1.7664392 -2.0536296 -0.091448404 0
2.9683368 -2.7782118 -0.1412582 0
4.4476857 -3.6700597 -0.14075433 0
8.9093742 -6.3598561 -0.14088179 0
0.78572488 -1.435791 -0.090947859 0
0.89047462 -1.4953904 -0.091787882 0
1.0136007 -1.5654453 -0.090508766 0
1.1721523 -1.6556562 -0.088397063 0
1.4143747 -1.7934732 -0.089084707 0
1.7900064 -2.0071959 -0.09115576 0
3.0126724 -2.7028549 -0.14126979 0
4.5155692 -3.5579565 -0.14084329 0
9.0345564 -6.1291194 -0.14068154 0
0.78716737 -1.4107172 -0.088639028 0
0.90509099 -1.4739281 -0.092243098 0
1.0298729 -1.5408152 -0.090892456 0
1.2031208 -1.6336818 -0.090713628 0
1.4447945 -1.7632267 -0.090487607 0
1.800341 -1.9538112 -0.089590661 0
3.0564494 -2.627126 -0.14138883 0
4.5814548 -3.4445782 -0.14097603 0
9.16574 -5.9019027 -0.14079697 0
0.81404227 -1.3990583 -0.092564695 0
0.91459256 -1.4497333 -0.091728784 0
1.0391562 -1.5125102 -0.090100221 0
1.2208529 -1.6040807 -0.091005735 0
1.4552386 -1.7222053 -0.089358978 0
1.825713 -1.9089152 -0.089758836 0
3.0872557 -2.5447013 -0.1406416 0
4.6353207 -3.3248875 -0.14063063 0
9.2901258 -5.6707931 -0.1408843 0
0.82378542 -1.3782542 -0.092485495 0
0.93226796 -1.4295365 -0.093051486 0
1.0604215 -1.4901175 -0.091626264 0
1.2296011 -1.5700927 -0.090014763 0
1.4950342 -1.6955689 -0.092172824 0
1.8635249 -1.869763 -0.091327094 0
3.1317828 -2.4692979 -0.14112605 0
4.6970553 -3.2092385 -0.14085107 0
9.3987694 -5.4318471 -0.14071667 0
0.82917929 -1.3555313 -0.091519095 0
0.9378956 -1.4036065 -0.091983937 0
1.0586478 -1.4570041 -0.089097328 0
1.2349669 -1.5349739 -0.088647597 0
1.5018415 -1.652988 -0.090826295 0
1.8808864 -1.8206047 -0.090892263 0
3.1646857 -2.3883111 -0.14086293 0
4.7538567 -3.0910554 -0.14096737 0
9.505909 -5.1924505 -0.14066686 0
0.82737619 -1.330073 -0.089040481 0
0.93601692 -1.3748728 -0.089532174 0
1.0791774 -1.4339074 -0.090708978 0
1.2510242 -1.5047714 -0.089055307 0
1.517447 -1.6146352 -0.090742551 0
1.9014423 -1.772982 -0.090910383 0
3.1982627 -2.3077476 -0.14080888 0
4.7961149 -2.9666486 -0.14050116 0
9.6175318 -4.9548402 -0.14088313 0
0.85263669 -1.3155984 -0.092893191 0
0.95782238 -1.3558992 -0.092028148 0
1.0768564 -1.4015058 -0.088386483 0
1.2600453 -1.4716928 -0.088515468 0
1.5211896 -1.5717477 -0.089296632 0
1.9247046 -1.7263505 -0.091319613 0
3.2402112 -2.2303739 -0.1415351 0
4.8442321 -2.8449385 -0.14048885 0
9.7181177 -4.7123189 -0.14097258 0
0.85216141 -1.2910154 -0.090990447 0
0.95644951 -1.3279828 -0.089966245 0
1.1068462 -1.3812944 -0.091862015 0
1.2882161 -1.4455851 -0.090960793 0
1.5508151 -1.5386695 -0.091207899 0
1.9310046 -1.6734365 -0.090162508 0
3.2598314 -2.1444702 -0.14074428 0
4.890439 -2.722477 -0.14053473 0
9.8066397 -4.4651384 -0.14091535 0
0.8628602 -1.2705386 -0.091741033 0
0.96883327 -1.3051192 -0.090786956 0
1.1140404 -1.3525023 -0.091456719 0
1.2884759 -1.4094232 -0.089357875 0
1.5620093 -1.4986813 -0.090940677 0
1.9536406 -1.6264764 -0.090750508 0
3.2805259 -2.0594587 -0.14019905 0
4.9379978 -2.6003165 -0.14079846 0
9.891715 -4.2167878 -0.14092754 0
0.86293048 -1.2466867 -0.090243317 0
0.97093946 -1.27894 -0.089695163 0
1.1080151 -1.319873 -0.088912167 0
1.2933122 -1.3752058 -0.088572599 0
1.5662646 -1.4567138 -0.08995267 0
1.9581616 -1.5737407 -0.089685388 0
3.3162975 -1.9793025 -0.1409151 0
4.9733477 -2.4741249 -0.14061742 0
9.9639368 -3.9643972 -0.14078043 0
0.86393434 -1.2234415 -0.089094497 0
0.97991747 -1.2549114 -0.090081327 0
1.125843 -1.2945057 -0.090587772 0
1.3144109 -1.3456703 -0.090286963 0
1.5657113 -1.4138563 -0.088517822 0
1.9681298 -1.5230455 -0.089283533 0
3.3351357 -1.8939587 -0.14054674 0
5.0187345 -2.3507738 -0.14107598 0
10.045173 -3.7146099 -0.14100552 0
0.87439269 -1.202773 -0.090150364 0
0.98710388 -1.2303218 -0.090235718 0
1.1318079 -1.2656903 -0.090354674 0
1.3247335 -1.3128451 -0.090539984 0
1.5802528 -1.3752991 -0.089038484 0
1.9778607 -1.4724822 -0.088984706 0
3.3630638 -1.8110532 -0.14099033 0
5.0467038 -2.2225678 -0.14084667 0
10.112473 -3.4607415 -0.14104706 0
0.88227254 -1.1812716 -0.090753309 0
0.99300164 -1.2053925 -0.090260826 0
1.1275001 -1.2346911 -0.088517569 0
1.3287692 -1.278535 -0.09000688 0
1.6066331 -1.339064 -0.091089122 0
1.9987684 -1.4244854 -0.089877509 0
3.3730679 -1.7238586 -0.14029922 0
5.0747709 -2.094552 -0.14077789 0
10.152004 -3.2005603 -0.14058048 0
0.88499117 -1.1586211 -0.090354078 0
0.99612337 -1.1799079 -0.089874424 0
1.1437391 -1.2081829 -0.090258934 0
1.3335774 -1.2445453 -0.089711122 0
1.5988698 -1.2953608 -0.089175962 0
2.5533473 -1.4781859 -0.14160004 0
3.4008701 -1.6405244 -0.14103536 0
5.0984602 -1.9656888 -0.14065549 0
10.210248 -2.9448245 -0.14071502 0
0.89194453 -1.1367528 -0.090992354 0
1.0112453 -1.1564978 -0.091903694 0
1.1442181 -1.1785055 -0.08947929 0
1.3401122 -1.2109271 -0.089785032 0
1.6203554 -1.257309 -0.090866648 0
2.5530326 -1.4116722 -0.1404801 0
3.4166481 -1.5546055 -0.14106576 0
5.1159391 -1.8358475 -0.14039436 0
10.265971 -2.6882067 -0.14094205 0
0.89532721 -1.1142184 -0.090980701 0
1.0049415 -1.1295296 -0.089963682 0
1.1497717 -1.1497599 -0.089669056 0
1.3490084 -1.1775899 -0.090314381 0
1.6242155 -1.2160317 -0.090585001 0
2.5596716 -1.3466991 -0.14017798 0
3.4109247 -1.4656048 -0.13973169 0
5.1345205 -1.7063619 -0.14034033 0
10.305367 -2.4286416 -0.1409373 0
0.88996285 -1.0906744 -0.089219637 0
1.0082725 -1.1041666 -0.089984976 0
1.1576395 -1.1212008 -0.090361275 0
1.3413875 -1.1421558 -0.08862514 0
1.6244086 -1.174432 -0.08999557 0
2.5734999 -1.2826684 -0.14070643 0
3.4315367 -1.3805206 -0.14041278 0
5.164485 -1.5781496 -0.1409732 0
10.337481 -2.1680884 -0.14091575 0
0.91057467 -1.0698358 -0.093132608 0
1.0155863 -1.0791343 -0.090880506 0
1.1278154 -1.089072 -0.084952094 0
1.133386 -1.0895653 -0.058795396 0
1.6372042 -1.1341774 -0.091009445 0
2.5736809 -1.2171007 -0.14010653 0
3.4434738 -1.2941192 -0.14063443 0
5.1699686 -1.4469972 -0.1406119 0
10.348847 -1.9055772 -0.14056364 0
0.89632088 -1.0458496 -0.089725606 0
1.0194051 -1.0536245 -0.091234379 0
1.1321114 -1.0607439 -0.085304059 0
1.1306825 -1.0606537 -0.058109183 0
1.647209 -1.0932816 -0.091813974 0
2.5805457 -1.1522386 -0.14028758 0
3.4511786 -1.2072347 -0.14071216 0
5.183331 -1.3166512 -0.14077328 0
10.37594 -1.6446577 -0.14073297 0
0.89468765 -1.023136 -0.089135267 0
1.0259858 -1.0281081 -0.09222991 0
1.1284097 -1.0319867 -0.084457956 0
1.1245784 -1.0318416 -0.057048101 0
1.6362691 -1.0512186 -0.0902889 0
2.5880716 -1.087262 -0.14068325 0
3.4545078 -1.1200727 -0.1406372 0
5.1787252 -1.1853664 -0.14025079 0
10.395276 -1.3829097 -0.14087497 0
0.9095577 -1.0007564 -0.092175297 0
1.018692 -1.0021334 -0.090732999 0
1.1192577 -1.0034022 -0.082835622 0
1.1400288 -1.0036644 -0.05911899 0
1.1424356 -1.0036948 -0.032446567 0
1.1351603 -1.003603 -0.0049033295 0
1.1377169 -1.0036352 0.021495046 0
1.1308932 -1.0035491 0.048363224 0
1.1313182 -1.0035545 0.074687302 0
1.1235449 -1.0034564 0.10100245 0
1.1306524 -1.0035461 0.12730254 0
1.1310209 -1.0035508 0.15364818 0
1.1240882 -1.0034633 0.17955734 0
1.1301571 -1.0035398 0.20644213 0
1.1406149 -1.0036718 0.23424052 0
1.1262823 -1.0034909 0.2591933 0
1.123891 -1.0034608 0.28560382 0
1.1354133 -1.0036061 0.31472716 0
0.90126145 -0.97793299 -0.090411685 0
1.0298144 -0.97631097 -0.092828058 0
1.1362915 -0.97496748 -0.085635372 0
1.1429123 -0.97488397 -0.059524242 0
1.6430163 -0.96857387 -0.090955757 0
2.593075 -0.95658654 -0.14099644 0
3.461648 -0.94562733 -0.14098258 0
5.1990376 -0.92370582 -0.1410429 0
10.398854 -0.85809714 -0.14080417 0
0.90484631 -0.955064 -0.091296174 0
1.0220655 -0.95062506 -0.091490991 0
1.1376404 -0.94624841 -0.085976116 0
1.1329713 -0.94642526 -0.058228437 0
1.6454997 -0.92701656 -0.091368489 0
2.5987935 -0.89091665 -0.14168474 0
3.468493 -0.8579824 -0.14161561 0
5.1884961 -0.79284829 -0.140706 0
10.381595 -0.59619313 -0.14055665 0
0.90858006 -0.93196076 -0.092336617 0
1.0231152 -0.92472583 -0.091934554 0
1.1311876 -0.91789907 -0.085151903 0
1.1328182 -0.91779608 -0.058409933 0
1.6357977 -0.88602388 -0.090477638 0
2.583813 -0.82613969 -0.14059316 0
3.4455397 -0.77170622 -0.14031716 0
5.1800995 -0.66213757 -0.14062256 0
10.38574 -0.33330795 -0.14096127 0
0.89402103 -0.91021472 -0.089600168 0
1.0168002 -0.89934283 -0.091110043 0
1.1617224 -0.88651025 -0.090546556 0
1.3426397 -0.87049037 -0.088317849 0
1.6440113 -0.84380448 -0.091808118 0
2.5812097 -0.76081729 -0.14081201 0
3.4553456 -0.68341416 -0.14146763 0
5.1709967 -0.53149652 -0.14065994 0
10.356256 -0.072351426 -0.14073656 0
0.89930183 -0.88684523 -0.091217615 0
1.0061088 -0.87466478 -0.089574777 0
1.1560439 -0.85756588 -0.090097331 0
1.353465 -0.8350516 -0.090333425 0
1.6285566 -0.80367959 -0.090483494 0
2.5793798 -0.69524574 -0.14125882 0
3.4334583 -0.5978449 -0.14054799 0
5.1579399 -0.40118161 -0.1406665 0
10.335234 0.1892474 -0.14086315 0
0.9014408 -0.8635124 -0.092292853 0
1.0063002 -0.84886533 -0.090222083 0
1.1531453 -0.82835358 -0.090228878 0
1.3468767 -0.80129254 -0.090011887 0
1.6229053 -0.76273602 -0.090430386 0
2.566118 -0.63098514 -0.14078555 0
3.4264746 -0.51080793 -0.14082932 0
5.1511421 -0.26990101 -0.14112166 0
10.298006 0.44902864 -0.14076449 0
0.9014684 -0.84025556 -0.093044303 0
1.0075049 -0.82270592 -0.091189615 0
1.1543689 -0.79839909 -0.091170274 0
1.3394172 -0.76777256 -0.089686029 0
1.6138941 -0.72234511 -0.090101235 0
2.5549867 -0.566589 -0.14066498 0
3.4053357 -0.42585155 -0.14026417 0
5.1230474 -0.14156064 -0.1407298 0
10.261009 0.70880061 -0.14082511 0
0.89043283 -0.81892127 -0.091531791 0
1.0085731 -0.79629213 -0.092261963 0
1.1434941 -0.77044874 -0.090217926 0
1.3439785 -0.73204702 -0.091199405 0
1.3452156 -0.73181003 -0.058991615 0
1.3494751 -0.73099411 -0.027187368 0
1.3557624 -0.72978985 0.0045361165 0
1.3601111 -0.72895688 0.036545966 0
1.3458923 -0.73168039 0.069131978 0
1.3461592 -0.73162931 0.1010095 0
0.88054663 -0.79768908 -0.09037783 0
1.0026838 -0.77108312 -0.092127226 0
1.1327066 -0.74275935 -0.08939337 0
1.2112941 -0.72564012 -0.073110394 0
1.1987637 -0.72836965 -0.042302165 0
1.2098345 -0.72595811 -0.014511174 0
1.2072585 -0.72651923 0.014662081 0
1.2148097 -0.72487432 0.043135479 0
1.2059847 -0.72679669 0.072296329 0
1.2101079 -0.7258985 0.10100573 0
0.87522632 -0.77560794 -0.090332769 0
1.0014049 -0.74476743 -0.0930086 0
1.1340419 -0.71234834 -0.090732627 0
1.1980473 -0.69670421 -0.072212078 0
1.2104713 -0.69366753 -0.044548679 0
1.2049674 -0.69501275 -0.014718911 0
1.2034045 -0.69539475 0.01443466 0
1.2177792 -0.6918813 0.042654909 0
1.2046235 -0.69509685 0.072161205 0
1.2029431 -0.69550753 0.10100572 0
0.86956525 -0.75361538 -0.090334691 0
0.97777623 -0.72425425 -0.089663438 0
1.1149637 -0.68703085 -0.088735081 0
1.202462 -0.66328967 -0.07398542 0
1.2084724 -0.66165888 -0.045256529 0
1.2077144 -0.66186452 -0.015739782 0
1.2050103 -0.66259825 0.013753468 0
1.2055348 -0.66245592 0.042864889 0
1.2125702 -0.66054702 0.071781702 0
1.2056655 -0.66242045 0.10100603 0
0.8638469 -0.73162436 -0.090446614 0
0.97727692 -0.69775224 -0.090940915 0
1.1136296 -0.65703511 -0.089875184 0
1.207639 -0.6289624 -0.076007195 0
1.2092602 -0.62847823 -0.046407793 0
1.1969349 -0.63215876 -0.015531896 0
1.2060665 -0.62943196 0.013047049 0
1.2083696 -0.62874418 0.042307872 0
1.2092544 -0.62848002 0.071651533 0
1.205784 -0.6295163 0.10100629 0
0.85167772 -0.71169513 -0.089240707 0
0.9833011 -0.6687445 -0.093653403 0
1.1192074 -0.62439626 -0.092350014 0
1.2002881 -0.59793842 -0.076321281 0
1.2103105 -0.59466797 -0.047703404 0
1.1945379 -0.59981483 -0.016218645 0
1.2108668 -0.59448642 0.011998141 0
1.2021685 -0.59732485 0.042147234 0
1.1978875 -0.59872174 0.071697481 0
1.209335 -0.59498626 0.10100669 0
0.84947354 -0.68852204 -0.090384267 0
0.95524937 -0.65102732 -0.089726411 0
1.1004962 -0.59954125 -0.090754755 0
1.2119899 -0.56001967 -0.07959526 0
1.2130333 -0.55964983 -0.049323384 0
1.2048717 -0.56254292 -0.01825281 0
1.2082067 -0.56136072 0.01142803 0
1.2037145 -0.56295311 0.041563503 0
1.2175144 -0.55806142 0.070960835 0
1.2195525 -0.55733895 0.10100731 0
0.85420865 -0.66238403 -0.093251027 0
0.9483186 -0.62632674 -0.090111218 0
1.0962077 -0.56966454 -0.091792352 0
1.198481 -0.53047955 -0.079250254 0
1.2138538 -0.5245896 -0.050831113 0
1.2127913 -0.5249967 -0.020159012 0
1.2031068 -0.52870721 0.010972733 0
1.2046157 -0.5281291 0.040963199 0
1.2059307 -0.52762526 0.070968702 0
1.2045602 -0.52815038 0.10100719 0
0.83219147 -0.64652604 -0.090147637 0
0.93980038 -0.60215169 -0.090303011 0
1.0796216 -0.54449415 -0.09078794 0
1.2052525 -0.49268815 -0.082097344 0
1.2097912 -0.49081653 -0.051848594 0
1.2094876 -0.49094176 -0.021047151 0
1.2195718 -0.4867833 0.0088199247 0
1.2054713 -0.49259791 0.040314876 0
1.2081593 -0.49148947 0.070610054 0
1.2103074 -0.49060366 0.10100774 0
0.83040518 -0.62251127 -0.091804005 0
0.9307276 -0.57814789 -0.090507723 0
1.0698854 -0.51661122 -0.091116764 0
1.2023578 -0.45803085 -0.083636798 0
1.2085409 -0.45529661 -0.053345237 0
1.2027483 -0.45785818 -0.021681903 0
1.2071322 -0.45591959 0.0087719876 0
1.2077472 -0.45564762 0.039541584 0
1.2062273 -0.45631972 0.070330098 0
1.2038029 -0.45739183 0.10100795 0
0.82135051 -0.6014815 -0.091913007 0
0.91979921 -0.55494255 -0.090453796 0
1.0554187 -0.49083212 -0.090716816 0
1.2342207 -0.40630826 -0.090732865 0
1.4761394 -0.29194775 -0.089730226 0
1.8593378 -0.11080101 -0.090894811 0
3.1297972 0.48977461 -0.14097251 0
4.6924062 1.228456 -0.14061166 0
9.3921232 3.4501207 -0.14054574 0
0.80949593 -0.58181757 -0.091482513 0
0.90391266 -0.53423387 -0.089476205 0
1.037377 -0.46697125 -0.089772783 0
1.2089422 -0.38050666 -0.089131318 0
1.4640149 -0.25195637 -0.090507604 0
1.8417042 -0.061610308 -0.091430314 0
3.0898111 0.56740457 -0.14084165 0
4.6370111 1.3471546 -0.14071876 0
9.2910213 3.6926596 -0.1409076 0
0.79557389 -0.56336123 -0.090666465 0
0.89358658 -0.51082325 -0.089784555 0
1.0204532 -0.44281873 -0.089135937 0
1.2020733 -0.34546444 -0.090546601 0
1.4364785 -0.2198157 -0.089384846 0
1.8054351 -0.022043075 -0.090130128 0
3.0501392 0.64515871 -0.14088832 0
4.5856438 1.4682388 -0.14119729 0
9.1688652 3.9249933 -0.14087941 0
0.78726536 -0.54191715 -0.09132459 0
0.8941226 -0.48111871 -0.092578404 0
1.0101267 -0.41511604 -0.089851849 0
1.180784 -0.31801739 -0.089792721 0
1.2028939 -0.30543748 -0.060647596 0
1.2125438 -0.29994699 -0.029141417 0
3.0014482 0.717884 -0.14036699 0
4.5243001 1.5843394 -0.14131095 0
9.0385294 4.1527953 -0.1407878 0
0.77298087 -0.52387643 -0.090642922 0
0.88151735 -0.45844361 -0.092688538 0
0.98975635 -0.39319006 -0.088784479 0
1.1638011 -0.2882646 -0.089846797 0
1.1439432 -0.30023625 -0.055009533 0
1.1967944 -0.26837406 -0.029362565 0
2.9604368 0.79486459 -0.1406133 0
4.4513974 1.6937127 -0.14095609 0
8.9123993 4.3830953 -0.14096391 0
0.76986706 -0.49888569 -0.09288042 0
0.85177946 -0.44664118 -0.089099906 0
0.98379952 -0.36243764 -0.090616502 0
1.1470398 -0.25832155 -0.090062924 0
1.1494642 -0.25677529 -0.058235336 0
1.1758369 -0.2399545 -0.029098278 0
2.9251511 0.87577373 -0.14149825 0
4.3703532 1.7975364 -0.14029722 0
8.7698851 4.6035972 -0.14085011 0
0.74880105 -0.48533478 -0.090715058 0
0.8456068 -0.4200978 -0.090869181 0
0.96331042 -0.34077778 -0.089752398 0
1.1299545 -0.22847703 -0.090354852 0
1.1432345 -0.21952769 -0.060013656 0
1.1613568 -0.20731518 -0.029638594 0
2.8798218 0.95075172 -0.14172241 0
4.3104143 1.9148223 -0.14095779 0
8.6330137 4.8278046 -0.14104731 0
0.73778135 -0.46525154 -0.091219448 0
0.83319128 -0.39739296 -0.091381066 0
0.94026482 -0.32123879 -0.088466354 0
1.1091083 -0.20115194 -0.090132274 0
1.1390573 -0.17985126 -0.062252183 0
1.1420912 -0.17769346 -0.029734096 0
2.8163638 1.0131028 -0.14055635 0
4.2311993 2.0193794 -0.14069673 0
8.4776621 5.0395999 -0.14088093 0
0.72436541 -0.44679746 -0.091230266 0
0.81352371 -0.3799347 -0.090329058 0
0.93422848 -0.28941426 -0.090750434 0
1.0923672 -0.17082092 -0.090746589 0
1.1055975 -0.16089901 -0.060400609 0
1.0931797 -0.17021158 -0.026459029 0
1.1012143 -0.16418615 0.0048270542 0
1.1040096 -0.16208979 0.036783177 0
1.0988498 -0.16595933 0.069063805 0
1.1057332 -0.16079727 0.10100982 0
1.1004486 -0.16476038 0.13300197 0
1.0951437 -0.16873869 0.16471995 0
1.0914425 -0.1715143 0.19633804 0
0.70645231 -0.43187496 -0.09014795 0
0.78937608 -0.36635467 -0.0882852 0
0.91206264 -0.26941666 -0.089868568 0
1.0621217 -0.15085098 -0.089090355 0
1.0998156 -0.12106797 -0.062705062 0
1.0977623 -0.12269029 -0.029504022 0
1.1036121 -0.11806831 0.0027273467 0
1.0929399 -0.12650076 0.036180805 0
1.1052433 -0.11677942 0.068248428 0
1.1026107 -0.1188595 0.10101048 0
1.1067616 -0.11557981 0.13381787 0
1.0973964 -0.12297955 0.16610438 0
1.1002542 -0.12072149 0.19899465 0
0.69135994 -0.41492108 -0.089925759 0
0.77751726 -0.3432419 -0.089292087 0
0.89122707 -0.24864027 -0.089359231 0
1.0334749 -0.13029614 -0.08778248 0
1.0981011 -0.07652989 -0.065828033 0
1.1042343 -0.071427375 -0.032987107 0
1.0996039 -0.075279683 0.0010608903 0
1.0985273 -0.076175362 0.034503046 0
1.0979775 -0.076632708 0.06779173 0
1.102785 -0.072633177 0.10101131 0
1.0927483 -0.080983311 0.13407204 0
1.1022247 -0.073099345 0.16774364 0
1.1042173 -0.071441501 0.20138179 0
0.67120844 -0.40244779 -0.088388868 0
0.76781517 -0.31786075 -0.091005869 0
0.88484383 -0.21539262 -0.092108957 0
0.99450403 -0.11937621 -0.084612839 0
1.1065966 -0.021230128 -0.070779495 0
1.0979021 -0.028842833 -0.035118211 0
1.0970955 -0.029549088 -0.00088139414 0
1.091985 -0.034023788 0.033460658 0
1.1014103 -0.025771108 0.066963233 0
1.1012754 -0.025889184 0.10101215 0
1.0906858 -0.035161283 0.13472888 0
1.1002712 -0.026768472 0.16907649 0
1.1058758 -0.021861162 0.20372233 0
1.1017201 -0.025499847 0.23761696 0
1.0830101 -0.041882005 0.37193975 0
0.66327572 -0.3791953 -0.090437122 0
0.7495349 -0.29973534 -0.090725385 0
0.85695934 -0.20077834 -0.090304144 0
