# .PCD v0.7 - Point Cloud Data file format
VERSION 0.7
FIELDS x y z intensity
SIZE 4 4 4 4
TYPE F F F F
COUNT 1 1 1 1
WIDTH 1359
HEIGHT 1
VIEWPOINT 0 0 0 1 0 0 0
POINTS 1359
DATA ascii
-1.2416961 0.35718685 0.47316438 0
-1.2430612 0.35539722 0.57166922 0
-1.2343189 0.3668589 0.66793275 0
-1.4965122 -0.0095797833 -0.050215248 0
-1.2787296 0.28352445 0.04917869 0
-1.2677206 0.29834104 0.13399427 0
-1.2668846 0.29946613 0.2205397 0
-1.2728448 0.29144454 0.31205034 0
-1.2469949 0.32623482 0.39067224 0
-1.2372304 0.33937645 0.47794366 0
-1.244176 0.33002859 0.58214539 0
-1.2383127 0.33791971 0.68306875 0
-1.4837435 -0.025753504 -0.050411332 0
-1.2719258 0.26695079 0.049512215 0
-1.2755058 0.26200372 0.13763829 0
-1.2788143 0.25743163 0.22792549 0
-1.2778103 0.2588191 0.3195121 0
-1.246153 0.30256534 0.39685702 0
-1.2389418 0.31253022 0.4873265 0
-1.2435548 0.30615568 0.5915941 0
-1.2416006 0.30885607 0.69812173 0
-1.4622103 -0.029734379 -0.050080221 0
-1.1743881 0.37872994 0.044240836 0
-1.1719707 0.38216043 0.12066293 0
-1.171581 0.38271356 0.19829859 0
-1.3365663 0.14857376 0.35111427 0
-1.2362969 0.29087162 0.39811748 0
-1.2367785 0.29018825 0.49433407 0
-1.2425082 0.28205687 0.60110253 0
-1.4513793 -0.048909668 -0.050421569 0
-1.1553175 0.38268852 0.04373613 0
-1.1483946 0.39278096 0.11827937 0
-1.1556882 0.38214833 0.19674604 0
-1.3156953 0.14889014 0.34800825 0
-1.2408714 0.25796831 0.40797433 0
-1.2371644 0.26337242 0.50354135 0
-1.2412716 0.2573849 0.6108849 0
-1.4312253 -0.054559711 -0.050185353 0
-1.1456448 0.37320775 0.043822903 0
-1.1404127 0.38104486 0.11884316 0
-1.1449708 0.37421739 0.1968473 0
-1.2985089 0.14423454 0.34653437 0
-1.2387311 0.2337749 0.4142414 0
-1.2399654 0.23192608 0.51497436 0
-1.2427131 0.2278105 0.62354416 0
-1.4059817 -0.05207384 -0.049615551 0
-1.1246061 0.3811087 0.043174207 0
-1.125317 0.3800143 0.11804337 0
-1.1216952 0.38559014 0.19282553 0
-1.2819291 0.13890719 0.34534299 0
-1.239956 0.20352566 0.42287061 0
-1.2396997 0.20392013 0.52459824 0
-1.2373376 0.20755672 0.63052845 0
-1.3925896 -0.067599781 -0.049824376 0
-1.1056534 0.38656092 0.042645294 0
-1.1054778 0.38683879 0.11627565 0
-1.1114076 0.37745303 0.19306038 0
-1.2676283 0.13018787 0.34524798 0
-1.2364291 0.17956996 0.42894864 0
-1.2370968 0.17851305 0.5328747 0
-1.2391986 0.1751864 0.64466858 0
-1.3777441 -0.081047423 -0.049951598 0
-1.0940976 0.3806808 0.042605314 0
-1.0897739 0.38771898 0.11530292 0
-1.0968407 0.3762154 0.1918606 0
-1.254464 0.11963152 0.3457579 0
-1.2421278 0.13971281 0.44120613 0
-1.2382514 0.1460228 0.54454523 0
-1.2355745 0.15038049 0.65424418 0
-1.3606704 -0.090944536 -0.049938042 0
-1.0771841 0.38382453 0.042196482 0
-1.0831962 0.37375569 0.11622026 0
-1.0741491 0.38890725 0.18778257 0
-1.2471668 0.099145763 0.34926394 0
-1.2401791 0.11084842 0.44908425 0
-1.2361782 0.11754894 0.55418456 0
-1.2406471 0.11006474 0.672813 0
-1.3430303 -0.09985245 -0.04989266 0
-1.0669886 0.37595898 0.042253852 0
-1.0614446 0.38551509 0.11394533 0
-1.0583702 0.39081454 0.18604261 0
-1.2492713 0.061759468 0.35775667 0
-1.2364902 0.083789937 0.45621994 0
-1.2382046 0.080835097 0.56771046 0
-1.2402159 0.077368133 0.68680239 0
-1.3219622 -0.10261751 -0.049605008 0
-1.0494226 0.38108832 0.041783586 0
-1.0461807 0.38684189 0.1130073 0
-1.0464095 0.38643605 0.18565741 0
-1.2417527 0.039739009 0.36168185 0
-1.2401559 0.042573091 0.4687297 0
-1.2399848 0.042876836 0.58172005 0
-1.3098751 -0.12138582 -0.049981385 0
-1.0288264 0.39244449 0.041072194 0
-1.0355339 0.38018137 0.11307774 0
-1.0412736 0.36968768 0.18784873 0
-1.2492173 -0.010487443 0.37381005 0
-1.2432227 0.00047206364 0.48147127 0
-1.2429433 0.00098311389 0.59748006 0
-1.2890371 -0.12423826 -0.049718145 0
-1.0190074 0.38455999 0.041153722 0
-1.0214379 0.37998044 0.11237816 0
-1.020885 0.38102221 0.18430489 0
-1.2356703 -0.023682958 0.37513441 0
-1.2395949 -0.031077748 0.49013937 0
-1.2406527 -0.033070687 0.60944277 0
-1.2770894 -0.14396501 -0.050144725 0
-1.0085658 0.37775534 0.041196343 0
-1.0082856 0.37829965 0.11188348 0
-1.0033993 0.38779366 0.18176176 0
-1.238216 -0.068436988 0.38555476 0
-1.2399087 -0.071725734 0.50217295 0
-1.2429901 -0.077712663 0.6262722 0
-1.2562093 -0.14646721 -0.049887445 0
-0.98678547 0.39360809 0.040339991 0
-0.9959532 0.37523091 0.11157857 0
-0.99568409 0.37577033 0.18306707 0
-1.2417256 -0.11743391 0.3971104 0
-1.2434412 -0.1208731 0.5172897 0
-1.2428731 -0.11973406 0.64177001 0
-1.2366761 -0.15134716 -0.049736459 0
-0.98276359 0.37409562 0.040902022 0
-0.98066396 0.37844044 0.1105447 0
-0.9800604 0.37968951 0.18119064 0
-1.2386581 -0.15544844 0.40547144 0
-1.2368746 -0.1517576 0.52555013 0
-1.222873 -0.16823173 -0.050069243 0
-0.96520615 0.3825776 0.040359367 0
-0.96630579 0.38022679 0.1097087 0
-0.96584356 0.38121492 0.17984113 0
-1.240549 -0.20601749 0.41733053 0
-1.2389137 -0.20252168 0.54109424 0
-1.2007098 -0.16721988 -0.049705666 0
-0.9518255 0.38275355 0.040153965 0
-0.95460987 0.37660074 0.10953727 0
-0.95377982 0.37843496 0.17938712 0
-1.2422444 -0.25900102 0.42979169 0
-1.2392455 -0.25237441 0.55620784 0
-1.1847227 -0.17969406 -0.049880508 0
-0.9372462 0.38602626 0.039835606 0
-0.94588423 0.36628014 0.11016942 0
-0.94042259 0.37876517 0.17835334 0
-1.2391853 -0.30419326 0.44000876 0
-1.2418731 -0.31033754 0.57418203 0
-1.1688235 -0.19270098 -0.0500829 0
-0.92717499 0.37920189 0.039917406 0
-0.92297536 0.38914108 0.10693979 0
-0.92659891 0.38056529 0.17707027 0
-1.2443523 -0.37145317 0.45629445 0
-1.1486006 -0.19549119 -0.049898081 0
-0.91145563 0.38607091 0.039475735 0
-0.91109568 0.38695365 0.1066674 0
-0.90916777 0.39168155 0.1740133 0
-1.2427384 -0.42635012 0.46907246 0
-1.1305146 -0.20336926 -0.049919147 0
-0.90290594 0.37555021 0.039710954 0
-0.90220457 0.37733424 0.10727191 0
-0.89678276 0.39112443 0.17327623 0
-1.239718 -0.48112631 0.48175985 0
-1.1153489 -0.21900916 -0.05024514 0
-0.88899392 0.37871593 0.039426688 0
-0.88879132 0.37925088 0.10656073 0
-0.88715047 0.3835839 0.17391953 0
-1.240061 -0.54833055 0.4977878 0
-1.095579 -0.22269356 -0.050122637 0
-0.87271118 0.38896817 0.038881127 0
-0.87729549 0.37638652 0.10641903 0
-0.87237799 0.38988256 0.17192683 0
-1.0761466 -0.22709 -0.050037049 0
-0.86202669 0.38439178 0.038906656 0
-0.86299074 0.38163853 0.1053703 0
-0.86201918 0.38441312 0.17222722 0
-1.0578369 -0.23464727 -0.050080102 0
-0.84794372 0.38986462 0.038558666 0
-0.84932524 0.38575429 0.10447527 0
-0.84868169 0.38766891 0.17089115 0
-1.0385969 -0.23942578 -0.050027426 0
-0.83638883 0.3882845 0.038483292 0
-0.83959752 0.37832373 0.10490701 0
-0.84062034 0.37514865 0.17258155 0
-1.0194468 -0.24438071 -0.049990609 0
-0.82725936 0.37901127 0.038701065 0
-0.82550758 0.38469338 0.1037989 0
-0.82450908 0.38793212 0.16950916 0
-1.0020857 -0.2553277 -0.050185934 0
-0.81548429 0.37816954 0.10415932 0
-0.81188291 0.39039588 0.16842656 0
-0.98051184 -0.25180006 -0.049851928 0
-0.80826259 0.36135387 0.03911417 0
-0.80025733 0.38985002 0.10250045 0
-0.80417162 0.37591636 0.1705516 0
-0.96393853 -0.26607418 -0.050186969 0
-0.79231262 0.37579316 0.03846645 0
-0.79222041 0.37613809 0.10369329 0
-0.79020405 0.38367909 0.16853537 0
-0.9425754 -0.2624588 -0.049869694 0
-0.77960157 0.3793267 0.10301962 0
-0.77836937 0.38417912 0.16790976 0
-0.9249779 -0.27355278 -0.050103396 0
-0.76704961 0.38290447 0.10232258 0
-0.76760477 0.38059676 0.16807097 0
-0.90443802 -0.27245963 -0.04989836 0
-0.75602269 0.38050163 0.1676119 0
-0.88558227 -0.2785567 -0.049965855 0
-0.74417037 0.38196617 0.16689332 0
-0.86694103 -0.28597867 -0.050090078 0
-0.73239636 0.38354135 0.1661837 0
-0.84513432 -0.27704477 -0.049628403 0
-0.72286242 0.37372088 0.16759413 0
-0.82735276 -0.28925502 -0.049944036 0
-0.80689394 -0.28634453 -0.049720272 0
-0.78878927 -0.29817975 -0.050038494 0
-0.77002132 -0.30683136 -0.050249685 0
-0.74954146 -0.30285108 -0.050014656 0
-0.72852325 -0.29252481 -0.049561284 0
-0.71051663 -0.30971169 -0.05010492 0
-0.69087499 -0.3122617 -0.050131653 0
-0.67058331 -0.3061527 -0.049857274 0
-0.65077579 -0.30494499 -0.049767539 0
-0.63177133 -0.31945586 -0.050248574 0
-0.61179936 -0.31592917 -0.050093599 0
-0.59197402 -0.31423426 -0.050013062 0
-0.57226557 -0.3192358 -0.050180528 0
-0.55246878 -0.31376791 -0.049983092 0
-0.53281021 -0.3081696 -0.049789861 0
-0.51298231 -0.31324935 -0.049986772 0
-0.49305958 -0.31717229 -0.050151367 0
-0.47356007 -0.31096578 -0.049962889 0
-0.45430055 -0.3030988 -0.049723629 0
-0.49605107 0.32754159 0.03915967 0
-0.43474284 -0.30112004 -0.04970368 0
-0.48352465 0.31745696 0.03955112 0
-0.41398019 -0.31242383 -0.050168723 0
-0.47364524 0.3393364 0.038802747 0
-0.39568818 -0.29683685 -0.049678508 0
-0.46142319 0.33367354 0.03904647 0
-0.37501651 -0.30453658 -0.050032888 0
-0.44877374 0.32585269 0.039373655 0
-0.44196549 0.2676639 0.11275874 0
-0.44182044 0.26642436 0.18538134 0
-0.44301343 0.27662057 0.25714442 0
-0.44125223 0.26156783 0.33853644 0
-0.44139841 0.2628172 0.41931885 0
-0.35505667 -0.30478537 -0.050128967 0
-0.43539825 0.3142454 0.039843418 0
-0.42845458 0.26074463 0.11367457 0
-0.42982534 0.27130616 0.18477243 0
-0.42890674 0.26422834 0.26072311 0
-0.42873451 0.26290148 0.33860609 0
-0.42856508 0.26159602 0.42047134 0
-0.43114936 0.28150779 0.49682015 0
-0.33568257 -0.3004247 -0.050068047 0
-0.42022002 0.29235733 0.040690847 0
-0.41978845 0.28933114 0.11075613 0
-0.41812247 0.27764928 0.18392374 0
-0.4191545 0.28488576 0.25583661 0
-0.42055419 0.29470056 0.32849056 0
-0.42061886 0.29515398 0.40714797 0
-0.41905209 0.28416765 0.49631828 0
-0.31604668 -0.29800689 -0.050086014 0
-0.40586814 0.27968687 0.041213796 0
-0.40620634 0.28186214 0.11176525 0
-0.40571406 0.27869588 0.18406694 0
-0.40583208 0.27945489 0.25770813 0
-0.40740991 0.28960282 0.33081269 0
-0.40753657 0.29041761 0.40988609 0
-0.40852165 0.29675317 0.4908666 0
-0.29642913 -0.29538512 -0.050105579 0
-0.39091343 0.2656697 0.041793153 0
-0.39059418 0.26377404 0.11395242 0
-0.39066201 0.26417685 0.18708575 0
-0.39138937 0.26849586 0.26105729 0
-0.39190358 0.27154928 0.33756655 0
-0.39059541 0.26378131 0.42189416 0
-0.39800739 0.30779421 0.48625422 0
-0.27574536 -0.29854679 -0.050343979 0
-0.25300956 -0.42389476 0.066892087 0
-0.26862201 -0.33781958 0.17989816 0
-0.38715667 0.31569028 0.4832978 0
-0.25751576 -0.28818774 -0.050100688 0
-0.25334966 -0.30961633 0.062880039 0
-0.25436309 -0.30440366 0.17665163 0
-0.37527728 0.31752586 0.48349273 0
-0.23974191 -0.2764616 -0.049815267 0
-0.23623414 -0.293365 0.0624316 0
-0.23266383 -0.31056988 0.17776079 0
-0.36921871 0.34746861 0.46940178 0
-0.22149234 -0.26781082 -0.04964966 0
-0.18273662 -0.4434247 0.068070166 0
-0.2113357 -0.31383359 0.17858365 0
-0.35781983 0.34993076 0.46939117 0
-0.20053633 -0.27122855 -0.049934473 0
-0.20054014 -0.2712121 0.061933875 0
-0.18756689 -0.32667017 0.18049508 0
-0.34983808 0.36700636 0.46194509 0
-0.17900212 -0.27613473 -0.050284605 0
-0.18074583 -0.26908231 0.062025245 0
-0.16228141 -0.34376144 0.1829166 0
-0.0069217472 -0.97211266 0.41962585 0
-0.33941856 0.37266856 0.46041 0
-0.16037141 -0.26891005 -0.05019832 0
-0.11746422 -0.43352401 0.068271607 0
-0.14527477 -0.3268286 0.18160263 0
-0.32595628 0.36635816 0.46512821 0
-0.14273579 -0.25827408 -0.049994119 0
-0.1344537 -0.28848457 0.063112475 0
-0.11777786 -0.3493129 0.18470038 0
-0.31992316 0.38805205 0.45542181 0
-0.12155948 -0.26045299 -0.050273489 0
-0.10986645 -0.30109179 0.063783206 0
-0.3004531 0.36128622 0.47094974 0
-0.10405261 -0.24976432 -0.050084036 0
-0.091676839 -0.2908231 0.063615032 0
-0.30161664 0.40569031 0.44947299 0
-0.085859366 -0.24168718 -0.049999829 0
-0.074663021 -0.27720809 0.063329481 0
-0.29144633 0.41054779 0.44864964 0
-0.067063846 -0.23562014 -0.049999412 0
-0.047078885 -0.29634583 0.064281784 0
-0.28524235 0.42733032 0.44160879 0
-0.052845038 -0.21620572 -0.04950412 0
-0.034808315 -0.26877296 0.063488238 0
-0.2621944 0.39393532 0.46112126 0
-0.03057901 -0.22034574 -0.049906343 0
-0.0089961672 -0.2807591 0.064196683 0
-0.014553585 -0.20686448 -0.049649991 0
0.018893322 -0.29689264 0.065078758 0
0.0050379843 -0.20311749 -0.049772602 0
0.023530802 -0.19638574 -0.049790509 0
0.043158434 -0.19234657 -0.049921572 0
0.063055538 -0.18869209 -0.050077874 0
0.079971693 -0.1780597 -0.049972147 0
-0.18570857 0.41900355 0.38454664 0
0.098227762 -0.17051005 -0.049995311 0
0.11830505 -0.16674531 -0.050177291 0
-0.16095741 0.42056191 0.38824457 0
-0.19890584 0.50036991 0.5011031 0
0.13344081 -0.15261865 -0.0499583 0
0.55890661 -1.0190973 0.46276987 0
-0.16201322 0.44908571 0.37742075 0
-0.19574942 0.51779085 0.49261516 0
0.14923467 -0.14012539 -0.04981089 0
0.58373088 -0.99753571 0.46128875 0
-0.15036105 0.45107991 0.37883556 0
-0.18797319 0.52530164 0.490688 0
0.16528018 -0.12833118 -0.049698651 0
0.61426657 -0.98733664 0.46217352 0
-0.13945316 0.45468783 0.37957418 0
-0.18014316 0.53253633 0.48899812 0
0.19003023 -0.1328522 -0.050255463 0
0.64228588 -0.97219658 0.46213058 0
-0.12965928 0.46046168 0.37936351 0
-0.16881149 0.53312451 0.49184048 0
0.20326246 -0.11581159 -0.049948409 0
0.67668539 -0.96855044 0.4645308 0
-0.11099956 0.45024347 0.38678282 0
-0.15804155 0.53497642 0.49394196 0
0.2145697 -0.095834143 -0.049525186 0
0.72091776 -0.98141623 0.47046837 0
-0.078465737 0.41667289 0.40550503 0
-0.16061489 0.56034833 0.48008347 0
0.23587026 -0.093417175 -0.049832169 0
0.75339335 -0.97266316 0.47204208 0
-0.056846 0.40389317 0.41457397 0
-0.14766701 0.55819356 0.48504218 0
0.26147297 -0.097679265 -0.050431427 0
0.80027205 -0.98725629 0.47863623 0
-0.059349753 0.43201071 0.40404689 0
-0.1389835 0.56348896 0.48498601 0
0.26704898 -0.068991907 -0.049662951 0
0.8416931 -0.99133849 0.48317385 0
-0.12374447 0.5582608 0.49235857 0
0.28495213 -0.060545329 -0.049749412 0
0.88354403 -0.99490762 0.48774955 0
-0.11774821 0.56804323 0.4893533 0
0.29837725 -0.045182232 -0.049550526 0
0.90859777 -0.9717989 0.48671582 0
0.014070651 0.38653576 0.43620688 0
-0.11287118 0.57929623 0.48533219 0
0.32227311 -0.045536045 -0.050034728 0
0.95583206 -0.98171306 0.49293295 0
0.032601558 0.38249654 0.44185796 0
-0.11120064 0.59498554 0.47814369 0
0.33608362 -0.030780321 -0.049879219 0
0.99746412 -0.98203969 0.49722883 0
0.049104236 0.38198024 0.4458994 0
-0.10700292 0.60650814 0.47391674 0
0.36031184 -0.030796414 -0.050377931 0
0.05433365 0.39767689 0.44183394 0
-0.093245067 0.60433722 0.47966897 0
0.36921534 -0.0093139466 -0.049942952 0
0.071177505 0.39712042 0.44610921 0
-0.092598327 0.62046164 0.47214684 0
0.38766363 -0.0010147146 -0.050097939 0
1.1330156 -0.99106479 0.10634088 0
1.1343977 -0.99290061 0.30829668 0
0.09131702 0.39262211 0.45257744 0
-0.079124786 0.61901981 0.47759891 0
0.40198866 0.012804145 -0.05001583 0
0.11040946 0.39012569 0.45819351 0
-0.081388183 0.63832372 0.46768215 0
0.42355606 0.017402763 -0.050361205 0
0.12420758 0.39485812 0.46017233 0
-0.06953869 0.63915724 0.47162488 0
0.43252715 0.037870999 -0.049992118 0
-0.062504597 0.64617574 0.47099262 0
0.44752809 0.05071592 -0.049978904 0
-0.056022085 0.65381533 0.46994191 0
0.462589 0.063481323 -0.049978122 0
-0.053810336 0.66637498 0.46510142 0
0.47758564 0.076323859 -0.049982633 0
-0.037988581 0.66313505 0.47270164 0
0.49289998 0.088823311 -0.050012708 0
1.2069939 -0.70358825 0.10009523 0
-0.03608916 0.6758287 0.46782649 0
0.51015633 0.099257223 -0.050152868 0
1.2055234 -0.65310419 0.09872853 0
-0.024318675 0.67753959 0.47178268 0
0.52510482 0.1122744 -0.050178267 0
0.37757173 0.26792139 0.054521859 0
-0.023148755 0.69068044 0.46656701 0
0.53737217 0.12807977 -0.050074466 0
0.38134316 0.28859299 0.054082677 0
0.83629721 -0.17943585 0.22088678 0
-0.01445482 0.69576561 0.46796185 0
0.55094391 0.14247763 -0.050048057 0
0.3846111 0.30933464 0.053636793 0
0.83881682 -0.14630258 0.2185391 0
-0.0018135099 0.69697702 0.47270921 0
0.56764621 0.15379143 -0.050187428 0
0.40676668 0.31116414 0.054152783 0
0.73805708 -0.012905126 0.20075652 0
0.73769313 -0.012549048 0.33273718 0
0.73489672 -0.0098136719 0.46722388 0
0.0010118099 0.70807469 0.46926776 0
0.57821697 0.17109382 -0.050029695 0
0.42075673 0.32128918 0.05426088 0
0.83819848 -0.076892383 0.21327497 0
0.19150008 0.53996813 0.35032848 0
0.017595252 0.70584917 0.47725847 0
0.60037786 0.1774689 -0.050449569 0
0.46609136 0.30236846 0.055902228 0
0.83827358 -0.043797258 0.21084215 0
0.18848838 0.56056619 0.34490037 0
0.01734384 0.7197473 0.47149855 0
0.60672492 0.19858921 -0.050106417 0
0.84453756 -0.01707924 0.073568009 0
0.83534974 -0.008746868 0.20806266 0
0.18850859 0.5778628 0.34101275 0
0.024803003 0.72632474 0.47211802 0
0.61690336 0.21600294 -0.04996239 0
0.83580536 0.022451038 0.072394282 0
0.84063715 0.018178815 0.20655558 0
0.84651238 0.012984032 0.34397504 0
0.21313567 0.57301205 0.3481932 0
0.035173319 0.7303654 0.47510114 0
0.62518185 0.23492455 -0.049740758 0
0.83089417 0.057599541 0.071436912 0
0.8357268 0.053433772 0.20366621 0
0.8483426 0.042558905 0.34071577 0
0.23756523 0.5690518 0.35518241 0
0.036379062 0.74247527 0.47091654 0
0.6429792 0.24564731 -0.049976513 0
0.83630306 0.083199017 0.070991606 0
0.84136897 0.078942053 0.20235118 0
0.84396893 0.076757304 0.33611757 0
0.93317407 0.0017989823 0.50273126 0
0.26988998 0.55915099 0.36550719 0
0.27571806 0.5542537 0.45655647 0
0.050372623 0.74360955 0.47680047 0
0.65511972 0.26122224 -0.049955066 0
0.8526569 0.099432819 0.07107091 0
0.8426072 0.10766386 0.20048273 0
0.84006995 0.10974192 0.33177808 0
0.94252342 0.025829071 0.50065255 0
0.3001152 0.55198264 0.3747693 0
0.25021765 0.59285039 0.43822691 0
0.6633063 0.27993792 -0.049762219 0
0.84756523 0.1328609 0.070179172 0
0.84296042 0.13653648 0.19856125 0
0.83424956 0.14348948 0.32713497 0
0.99610275 0.014297003 0.51313245 0
0.275534 0.58946103 0.36056995 0
0.24455334 0.61419004 0.43084788 0
0.052296542 0.76765102 0.46864837 0
0.68214661 0.29019874 -0.050063826 0
0.84553951 0.16311193 0.069453932 0
0.84637398 0.16246295 0.19712491 0
0.84316331 0.16496015 0.32600108 0
0.26011911 0.61845106 0.43481821 0
0.062996887 0.77177238 0.47212014 0
0.70026201 0.30127972 -0.050335914 0
0.84939283 0.18827069 0.069016069 0
0.83996326 0.19541633 0.19442174 0
0.85363179 0.18505847 0.32529128 0
0.26017287 0.63477236 0.43072063 0
0.074325047 0.7756049 0.47606492 0
0.70927006 0.31932575 -0.050207574 0
0.84229308 0.22113502 0.068110347 0
0.84375006 0.22005951 0.1931614 0
0.82736939 0.23215091 0.31641144 0
0.28543201 0.63218117 0.43973824 0
0.067627273 0.79295337 0.46672174 0
0.71677917 0.33834159 -0.050024528 0
0.84313196 0.24750984 0.067580111 0
0.83808428 0.25113845 0.19070257 0
0.84312242 0.24751675 0.31707609 0
0.079270206 0.79663056 0.47101882 0
0.73047179 0.35287565 -0.050123025 0
0.85250133 0.26746154 0.067440815 0
0.83992487 0.27626443 0.18930155 0
0.83287662 0.28119785 0.31205437 0
0.84331053 0.27389467 0.4422121 0
0.092711769 0.79927337 0.47661385 0
0.73777717 0.37184948 -0.049952693 0
0.88603324 0.27083546 0.068357438 0
0.83670598 0.30444449 0.1872959 0
0.84155625 0.30113977 0.31129867 0
0.8384456 0.30325925 0.43693334 0
0.10810252 0.80087751 0.4835839 0
0.73863727 0.39495665 -0.049517963 0
0.92102367 0.27402216 0.069330752 0
0.84542066 0.32415199 0.18689165 0
0.83668488 0.32994443 0.30767146 0
0.84212536 0.32633704 0.43442786 0
0.12469085 0.80204457 0.49136254 0
0.7480883 0.41216063 -0.049464148 0
0.9560234 0.27802396 0.070298299 0
0.84257227 0.35121006 0.18504375 0
0.83506948 0.35605007 0.30485052 0
0.83849066 0.35384309 0.42981046 0
0.12343731 0.81511623 0.48649707 0
0.76318854 0.42577922 -0.049658015 0
1.0010784 0.27652705 0.071684152 0
0.83894461 0.37824982 0.18315491 0
0.84550136 0.37413615 0.30468696 0
0.84837371 0.372334 0.42940554 0
0.13055821 0.8226918 0.48764858 0
0.77178377 0.44352955 -0.049585566 0
1.0418257 0.27880698 0.072878473 0
0.84092039 0.401357 0.18202895 0
0.84388775 0.39954686 0.30202836 0
0.83841091 0.4028877 0.42314261 0
0.14167149 0.82789123 0.49163121 0
0.79237491 0.45411241 -0.05002084 0
1.0672345 0.29116374 0.073428512 0
0.84288722 0.4241665 0.18094674 0
0.83914751 0.42638361 0.2988013 0
0.8381564 0.42697114 0.41992027 0
0.1375577 0.84231639 0.48513147 0
0.80206126 0.4713338 -0.050009213 0
0.84606487 0.44598985 0.18005826 0
0.83739728 0.45098191 0.29629049 0
0.83624023 0.45164835 0.41632158 0
0.13918729 0.85311699 0.48273411 0
0.81556243 0.48641574 -0.050162617 0
0.84601635 0.46938276 0.17881271 0
0.83018941 0.47823483 0.2927337 0
0.83141464 0.47754949 0.41198879 0
0.15545495 0.85561574 0.49039298 0
0.81262535 0.51054847 -0.049654946 0
0.85244852 0.48892897 0.17840429 0
0.84618396 0.4923299 0.29403326 0
0.83591658 0.49790394 0.41048837 0
0.82745165 0.52492416 -0.049879696 0
0.84994096 0.51307917 0.17694271 0
0.84115475 0.51770681 0.29107514 0
0.84153527 0.51750636 0.40939403 0
0.83594733 0.54271454 -0.049856503 0
0.85212654 0.53445148 0.17609365 0
0.83805221 0.54163951 0.28859109 0
0.82969707 0.5459066 0.40337661 0
0.84642023 0.53736579 0.53042954 0
0.84689587 0.55927604 -0.049940113 0
0.8497892 0.55784398 0.1747399 0
0.84440821 0.5605073 0.28808659 0
0.84331518 0.56104827 0.40474537 0
0.84147519 0.56195897 0.52528405 0
0.85883003 0.57543403 -0.050070528 0
0.87251741 0.56887281 0.17641677 0
0.83793777 0.58544892 0.28506756 0
0.84413189 0.58247972 0.40253812 0
0.84229773 0.58335894 0.52241212 0
0.85377222 0.59958053 -0.049539469 0
0.90006119 0.57810396 0.17867088 0
0.84194905 0.60506606 0.28421265 0
0.83950347 0.60620075 0.39888838 0
0.84307796 0.60454232 0.51964051 0
0.87289113 0.61247057 -0.049969394 0
0.9280836 0.58770269 0.18098244 0
0.84040064 0.62705076 0.28231251 0
0.84281844 0.62596571 0.39756429 0
0.8417086 0.62646377 0.51619822 0
0.90010315 0.6221844 -0.050718252 0
0.97153324 0.5912044 0.18510276 0
0.84113353 0.64776009 0.28092575 0
0.84589165 0.64569646 0.39624959 0
0.83980018 0.64833838 0.51267952 0
0.89003903 0.64808673 -0.050025105 0
1.0002279 0.60193628 0.18748739 0
0.83230871 0.67226595 0.27772862 0
0.83874112 0.66957188 0.39218274 0
0.83850783 0.66966957 0.50950122 0
0.90395981 0.66377264 -0.050271634 0
1.0473654 0.60582143 0.1920134 0
0.84683472 0.68685734 0.27915004 0
0.84035438 0.68947607 0.39063108 0
0.84084135 0.68927932 0.50773668 0
0.90533656 0.68453485 -0.050043929 0
1.0772665 0.61756253 0.19453496 0
0.84661037 0.70741069 0.27774525 0
0.84209126 0.709171 0.38918969 0
0.84148103 0.70940876 0.50546449 0
0.27207652 0.93121046 0.45139942 0
0.90809268 0.70461154 -0.049879882 0
0.85069925 0.72613984 0.27722785 0
0.83783203 0.73096639 0.38618892 0
0.84611446 0.72785962 0.50471228 0
0.28504935 0.93831557 0.45619294 0
0.91126579 0.72441804 -0.049742024 0
0.84567565 0.74808323 0.275011 0
0.8358199 0.75163925 0.38388586 0
0.83153945 0.75318366 0.4972522 0
0.26710096 0.95683551 0.44456509 0
0.92864043 0.7392022 -0.050150823 0
0.86401504 0.76160371 0.27731612 0
0.8418507 0.76928669 0.38383505 0
0.83195025 0.77271861 0.49521378 0
0.83816248 0.77056521 0.61754584 0
0.26219222 0.97021794 0.44001675 0
0.93513447 0.75791228 -0.050155554 0
0.8546136 0.784693 0.27437156 0
0.84378594 0.7882942 0.38274315 0
0.85244614 0.78541386 0.50031239 0
0.85148937 0.78573209 0.62075138 0
0.29663631 0.97027248 0.45632675 0
0.93780392 0.77784801 -0.05002581 0
0.85534459 0.80412501 0.27341184 0
0.83982986 0.80906904 0.3801423 0
0.84210724 0.80834329 0.49467972 0
0.84232336 0.80827445 0.61425292 0
0.30407837 0.97979504 0.45839223 0
0.94484049 0.7963599 -0.050068948 0
0.83885056 0.8286711 0.26925436 0
0.84338087 0.82729 0.37962365 0
0.84217137 0.82765871 0.49278754 0
0.83732337 0.82913661 0.60970575 0
0.31665215 0.98786378 0.46319687 0
0.95088774 0.8151949 -0.050083824 0
0.87144285 0.83832455 0.27439049 0
0.83842963 0.84793603 0.37690875 0
0.83492297 0.848957 0.48845282 0
0.84518939 0.84596801 0.61083686 0
0.32646981 0.99698865 0.46660075 0
0.95165426 0.83550954 -0.049911793 0
0.89354032 0.85163802 0.27756721 0
0.83278137 0.86850047 0.37408769 0
0.84717757 0.86450511 0.49095979 0
0.83453351 0.86801422 0.60409665 0
0.31463113 1.0123036 0.45880741 0
0.95293266 0.8555668 -0.049768701 0
0.92485911 0.8629787 0.28248474 0
0.84047109 0.8852585 0.37486401 0
0.84113163 0.88508415 0.48722887 0
0.84601277 0.88379544 0.60697669 0
0.32689944 1.0208499 0.46361494 0
0.96305686 0.87330657 -0.049960934 0
0.95777303 0.87463063 0.28770998 0
0.84771305 0.90221071 0.37557566 0
0.84600765 0.90263808 0.48734468 0
0.84801096 0.90213603 0.60588568 0
0.32229689 1.0338755 0.45976073 0
0.97636384 0.89043373 -0.050277594 0
0.98950332 0.88731641 0.29272747 0
0.84632641 0.92128515 0.37407878 0
0.84903604 0.92064232 0.48690411 0
0.8331148 0.92441964 0.59770739 0
0.32624373 1.044675 0.46039882 0
0.96739978 0.91278154 -0.049786456 0
1.0154516 0.90201843 0.29669178 0
0.84195811 0.94087905 0.37186939 0
0.83947557 0.94143516 0.48225018 0
0.84085411 0.94112635 0.59927541 0
0.33993217 1.0533274 0.46609986 0
0.98812371 0.92852014 -0.050390091 0
1.0431594 0.91691852 0.30100402 0
0.84198993 0.95932549 0.37087756 0
0.84031481 0.95967859 0.48123372 0
0.82991725 0.96187043 0.59302592 0
0.3464655 1.0637832 0.46818289 0
0.97840947 0.95071316 -0.04989174 0
1.0875381 0.92914003 0.30840489 0
0.85126621 0.97584754 0.3723529 0
0.83219415 0.97961777 0.47725913 0
0.83265501 0.9795267 0.59267372 0
0.37278369 1.0704365 0.48041871 0
0.99186164 0.96827465 -0.050245754 0
0.84109861 0.99611056 0.36883426 0
0.83968312 0.99637192 0.47865984 0
0.83836812 0.99661469 0.5936687 0
0.38932934 1.0795223 0.48769659 0
0.98527104 0.98953283 -0.049881 0
0.84247595 1.0140425 0.36837789 0
0.83749026 1.0148983 0.47686067 0
0.85361367 1.0121309 0.59875661 0
0.37531278 1.0942274 0.47950172 0
0.98710591 1.0091965 -0.04983123 0
0.43714932 1.0964785 0.04195134 0
0.4362345 1.0966237 0.11412246 0
0.43350419 1.097057 0.18694621 0
0.43364701 1.0970343 0.26201421 0
0.433126 1.0971171 0.33966905 0
0.4348183 1.0968485 0.4219586 0
0.4016706 1.1021092 0.49187091 0
0.99662632 1.0277072 -0.050067779 0
0.40118095 1.114537 0.04058478 0
0.41473958 1.1125599 0.11158089 0
0.39913437 1.1148355 0.18033552 0
0.41015902 1.1132278 0.25546792 0
0.39489278 1.115454 0.32617545 0
0.41229358 1.1129166 0.41173723 0
0.39638367 1.1152366 0.48826706 0
0.99431604 1.0479627 -0.049886245 0
0.38869748 1.128502 0.040074527 0
0.43733129 1.1220343 0.11384502 0
0.44233158 1.1213694 0.18788894 0
0.43406138 1.1224692 0.26118237 0
0.42851016 1.1232074 0.33689672 0
0.44312176 1.1212643 0.42390198 0
0.42128691 1.124168 0.49999112 0
1.0013483 1.0669694 -0.050050098 0
0.37011126 1.1428399 0.039351929 0
0.42693499 1.1360101 0.11254793 0
0.42569259 1.1361594 0.18457682 0
0.42825845 1.135851 0.25928479 0
0.43048015 1.135584 0.33702984 0
0.4351863 1.1350183 0.41992721 0
1.0039968 1.0865664 -0.050064936 0
0.36806348 1.1548903 0.039230641 0
0.85493869 1.102581 0.36840835 0
0.83992618 1.1041939 0.47356007 0
0.84988075 1.1031244 0.59202099 0
1.0065025 1.1061907 -0.050083485 0
0.34621319 1.1687322 0.0384048 0
0.85232645 1.1207939 0.36727795 0
0.84474498 1.1215121 0.47457573 0
0.8431688 1.1216614 0.58848417 0
0.99974567 1.126591 -0.04977908 0
0.35750642 1.1792728 0.038773298 0
0.84838551 1.1390069 0.36586735 0
0.83929354 1.1397526 0.47223487 0
0.83843261 1.1398232 0.5858689 0
1.0110433 1.1455269 -0.050130244 0
0.36828449 1.1901115 0.039127793 0
0.86757082 1.1554788 0.37043107 0
0.84763783 1.1568614 0.47457346 0
0.83535022 1.1577138 0.58403718 0
1.0069113 1.1655893 -0.049937952 0
0.84255916 1.1749117 0.36375037 0
0.84026271 1.175042 0.47174406 0
0.83332652 1.1754354 0.58273929 0
1.0068693 1.1853386 -0.049900956 0
0.85545951 1.1920156 0.36681786 0
0.83749908 1.1928077 0.47052819 0
0.8380422 1.1927837 0.58432764 0
1.0001577 1.2052751 -0.049634632 0
0.84963685 1.2100148 0.3651599 0
0.84198433 1.2102557 0.47180015 0
0.83696276 1.2104139 0.58360541 0
1.0151343 1.224617 -0.050151769 0
0.84959787 1.2277439 0.36503607 0
0.84186929 1.2278899 0.47161418 0
0.8399623 1.2279259 0.58466434 0
1.0028489 1.2444984 -0.04970425 0
0.83973068 1.2455254 0.36246166 0
0.83642799 1.2455462 0.46973002 0
0.84111637 1.2455167 0.58505046 0
1.0078489 1.2641762 -0.049882762 0
0.84995002 1.263182 0.36506897 0
0.83926719 1.2631148 0.4706746 0
0.84712511 1.2631643 0.5875383 0
1.0128834 1.2839837 -0.050071392 0
0.85033888 1.2809132 0.36522517 0
0.83744818 1.2806698 0.47014299 0
0.84199899 1.2807558 0.58550775 0
1.0145854 1.3038224 -0.050149973 0
0.84915727 1.2986132 0.3650375 0
0.84622258 1.2985208 0.47321087 0
0.83927709 1.2983022 0.58456403 0
1.0101509 1.3234493 -0.050018229 0
0.843404 1.3160958 0.3637391 0
0.84203178 1.3160354 0.47203764 0
0.83845347 1.3158776 0.58449811 0
1.0044643 1.3429151 -0.049850449 0
0.84761053 1.3340179 0.3650412 0
0.85069162 1.3341926 0.47521928 0
0.83746856 1.3334426 0.58445698 0
1.0014029 1.3624475 -0.049785245 0
1.2936034 1.3827158 0.072242245 0
1.2991755 1.3831023 0.20600505 0
1.2952008 1.3828266 0.34091821 0
0.84490758 1.3515923 0.36463505 0
0.83865696 1.3511587 0.47157839 0
0.84362191 1.3515031 0.58747017 0
0.99867445 1.3819642 -0.049740706 0
1.2351472 1.4013617 0.07021144 0
1.2493672 1.4025282 0.20082493 0
1.0156065 1.3833531 0.29064378 0
0.84498936 1.3693577 0.36499798 0
0.84402233 1.3692784 0.47381338 0
0.83070332 1.3681859 0.58265787 0
1.0160807 1.4033597 -0.050426971 0
1.2444628 1.4249916 0.070616998 0
1.2369128 1.4242765 0.19969738 0
0.89002842 1.3914202 0.26821148 0
0.85414642 1.3880216 0.36774436 0
0.84788364 1.3874283 0.47562462 0
0.84503239 1.3871583 0.58925921 0
0.99893934 1.4215333 -0.049883343 0
0.64168555 1.3831505 0.04905552 0
0.64588505 1.3836017 0.13606118 0
0.63810199 1.3827654 0.22284931 0
0.64020354 1.3829913 0.31330726 0
0.83693844 1.4041282 0.47256035 0
0.84386295 1.4048722 0.58951503 0
0.9996751 1.4414726 -0.049989939 0
0.55371565 1.3878713 0.045954023 0
0.54792887 1.3871758 0.12564465 0
0.54543918 1.3868765 0.20632841 0
0.55350953 1.3878465 0.29147035 0
0.85546559 1.4241396 0.47943768 0
0.84386116 1.4227449 0.5903511 0
0.99066705 1.4601953 -0.049754824 0
0.57015985 1.4042733 0.046610005 0
0.55523139 1.402288 0.12662721 0
0.54146153 1.4004568 0.20592429 0
0.55515438 1.4022777 0.29234907 0
0.84041744 1.440214 0.47514236 0
0.83704692 1.4397658 0.58843708 0
0.98989314 1.4799541 -0.049824852 0
0.55186552 1.4160794 0.046021312 0
0.5501402 1.4158279 0.12628619 0
0.565332 1.4180431 0.21062607 0
0.54517847 1.4151043 0.29028004 0
0.83380526 1.4571928 0.47374347 0
0.83270079 1.4570318 0.58764184 0
0.99649292 1.5009364 -0.050170552 0
0.54735512 1.4296551 0.045935072 0
0.54682988 1.4295717 0.12615682 0
0.55640751 1.4310918 0.20938908 0
0.55053633 1.4301599 0.29220968 0
0.83660704 1.4755614 0.47558489 0
0.83623213 1.4755019 0.59023845 0
0.98231393 1.5186027 -0.049773887 0
0.54581362 1.4436809 0.045962375 0
0.55271238 1.444865 0.12704842 0
0.55388516 1.4450662 0.20935097 0
0.5563367 1.445487 0.29430705 0
0.84241444 1.49459 0.47852287 0
0.83497304 1.4933128 0.59092587 0
0.98984021 1.5399952 -0.050172362 0
0.55317324 1.4593719 0.046319298 0
0.54046267 1.4570251 0.12598149 0
0.54711539 1.4582534 0.20856604 0
0.55283076 1.4593086 0.29404482 0
0.83892244 1.5121307 0.4784025 0
0.84031242 1.5123874 0.59448737 0
0.97516078 1.5572877 -0.049773514 0
0.55216962 1.4736686 0.046379939 0
0.56811029 1.4768199 0.12929942 0
0.55484611 1.4741976 0.21047537 0
0.55451971 1.4741331 0.2951782 0
0.84223288 1.5310098 0.4806636 0
0.84041816 1.5306511 0.59595013 0
0.97592944 1.5775524 -0.049945172 0
0.5427497 1.4862372 0.04614022 0
0.55717152 1.4892772 0.12841548 0
0.54927653 1.487613 0.20997538 0
0.54871517 1.4874947 0.29440936 0
0.84331089 1.5495961 0.48225236 0
0.83489913 1.5478228 0.59513396 0
0.96802431 1.5960015 -0.049809303 0
0.5525189 1.5029329 0.046607662 0
0.54253143 1.5006957 0.12713867 0
0.5487842 1.5020963 0.21044347 0
0.55708653 1.503956 0.29738861 0
0.83612639 1.5664579 0.48110834 0
0.84244317 1.5678726 0.59994966 0
0.96222717 1.6148554 -0.049758889 0
0.54987472 1.5170246 0.046628725 0
0.5550881 1.5182616 0.12887788 0
0.56276888 1.5200838 0.21363012 0
0.55581766 1.5184346 0.29790327 0
0.84739798 1.5876122 0.48634404 0
0.84077102 1.5860399 0.60096532 0
0.97321075 1.637881 -0.050334655 0
0.55047423 1.531947 0.046775766 0
0.54636401 1.5309169 0.12828928 0
0.54870158 1.5315027 0.21165332 0
0.54898983 1.531575 0.2970053 0
0.83865339 1.6041621 0.4848223 0
0.84065443 1.6046636 0.60274565 0
0.97103566 1.6578559 -0.050437145 0
0.54705793 1.5459186 0.046781935 0
0.54870003 1.5463521 0.12894577 0
0.55071801 1.546885 0.21269679 0
0.54901439 1.5464352 0.29795611 0
0.83836263 1.6228279 0.48627606 0
0.83874506 1.6229289 0.60386443 0
0.9507094 1.6728714 -0.049876787 0
0.5519529 1.5622039 0.047102574 0
0.54666263 1.5607357 0.12913841 0
0.54582638 1.5605036 0.21248716 0
0.5637148 1.5654682 0.30284548 0
0.84762746 1.6442629 0.49111515 0
0.84172601 1.642625 0.60718715 0
0.9481644 1.6926553 -0.049982559 0
0.54694349 1.5758435 0.047063723 0
0.55416507 1.5779459 0.13041981 0
0.54653698 1.5757251 0.21336122 0
0.5551365 1.5782288 0.30163068 0
0.83591539 1.6599751 0.48879671 0
0.84498233 1.6626148 0.61074758 0
0.93754441 1.7100589 -0.04979663 0
0.85457724 1.6847664 0.38260999 0
0.82448179 1.6755917 0.48663491 0
0.8413977 1.6807486 0.61146927 0
0.9349187 1.7298758 -0.049917705 0
0.84808773 1.7022057 0.38235354 0
0.84983653 1.702763 0.49737865 0
0.83175713 1.6970016 0.60966134 0
0.92072314 1.7459377 -0.049613345 0
0.84459263 1.7206172 0.38296002 0
0.83980376 1.7190245 0.49587986 0
0.84323913 1.720167 0.6171515 0
0.92224926 1.7672255 -0.049909327 0
0.85708421 1.7446369 0.38794848 0
0.83113629 1.7356424 0.49492717 0
0.83540338 1.7371216 0.61633682 0
0.9088003 1.7833356 -0.049648453 0
0.8425954 1.7594485 0.38572356 0
0.82587212 1.7534146 0.49524772 0
0.82887584 1.7544984 0.61618799 0
0.91058713 1.8049673 -0.049974997 0
0.84570938 1.7806315 0.38833541 0
0.84094685 1.7788452 0.50287616 0
0.82751018 1.773805 0.61841762 0
0.90969926 1.8258077 -0.050211083 0
0.83198112 1.7955339 0.38642147 0
0.82934338 1.7945064 0.50113082 0
0.82280689 1.7919602 0.61928296 0
0.88980216 1.8391492 -0.049726475 0
0.83900851 1.8186232 0.39026076 0
0.81690198 1.8096898 0.49914652 0
0.8248654 1.8129078 0.62327409 0
0.88860637 1.8599564 -0.049969651 0
0.83854622 1.8389896 0.39212885 0
0.82903749 1.8350071 0.50608528 0
0.8252818 1.8334341 0.62666738 0
0.87841719 1.8770534 -0.049874358 0
0.8307963 1.8563997 0.39205167 0
0.81848282 1.8510591 0.50494903 0
0.8250559 1.85391 0.62990558 0
0.86865252 1.8942705 -0.049803533 0
0.82228202 1.8734616 0.39182141 0
0.81135803 1.8685595 0.50513065 0
0.82114619 1.8729519 0.63160712 0
0.8619414 1.9128528 -0.049860977 0
0.83681518 1.9011952 0.39813229 0
0.82123226 1.8939651 0.51162839 0
0.82781249 1.8970181 0.63825494 0
0.87124485 1.9391602 -0.050562046 0
0.8341257 1.9213668 0.39970708 0
0.80896205 1.9093044 0.51011312 0
0.81191462 1.9107198 0.63472152 0
0.84681159 1.9493253 -0.049936756 0
0.82524627 1.9386518 0.39960167 0
0.81234127 1.9322647 0.51446921 0
0.8128739 1.9325283 0.63903296 0
0.84359127 1.9698325 -0.050162934 0
0.8101663 1.9527619 0.39778146 0
0.80131263 1.9482402 0.51357859 0
0.79664642 1.945857 0.63550925 0
0.82700437 1.9834834 -0.049861647 0
1.036009 2.093565 0.46547171 0
0.7955038 1.9668922 0.51472026 0
0.80050963 1.9695288 0.64144188 0
0.82130045 2.0028043 -0.050007358 0
0.79511422 1.9885881 0.39864323 0
0.78954405 1.9855641 0.51590121 0
0.7885316 1.9850144 0.64009207 0
0.81146544 2.0199358 -0.049995024 0
0.78673691 2.0061052 0.39892831 0
0.78171891 2.0032985 0.51646876 0
0.79253334 2.0093472 0.6464057 0
0.80507296 2.0390439 -0.050133292 0
0.78633779 2.0282533 0.40162915 0
0.7807278 2.0250223 0.51974964 0
0.77901119 2.0240335 0.64453822 0
0.80043894 2.0593114 -0.050355531 0
0.77140814 2.0421007 0.40012288 0
0.78039986 2.0474315 0.52341706 0
0.77803952 2.046032 0.64878637 0
0.77806884 2.0689473 -0.0498484 0
0.77306491 2.0658951 0.40361387 0
0.77874583 2.0693603 0.52670544 0
0.77234906 2.0654583 0.65091252 0
0.77920681 2.0929139 -0.05033312 0
0.76286215 2.0826592 0.4036504 0
0.75895566 2.0802083 0.52300495 0
0.77013451 2.0872219 0.65487361 0
0.76351553 2.1064343 -0.050119575 0
0.76408643 2.1068027 0.40722048 0
0.75743896 2.1025145 0.52656287 0
0.76320976 2.1062372 0.65668076 0
0.7471351 2.1193211 -0.04988198 0
0.74933797 2.1207817 0.40602359 0
0.75218862 2.1226718 0.52877182 0
0.75002295 2.1212358 0.6555106 0
0.73483962 2.1347921 -0.049825788 0
0.7410925 2.1390524 0.40687808 0
0.73759693 2.1366708 0.52734095 0
0.73926646 2.1378083 0.65564221 0
0.72951859 2.1551003 -0.050081488 0
0.73722965 2.1604974 0.40917632 0
0.72900563 2.1547413 0.52840543 0
0.73933202 2.1619692 0.66134924 0
0.71492571 2.1689692 -0.04994303 0
0.71523577 2.1691921 0.40588295 0
0.72037345 2.1728854 0.52955562 0
0.7176165 2.1709034 0.65615606 0
0.70912188 2.189208 -0.050200999 0
0.71325332 2.1922576 0.40893915 0
0.70969731 2.1896327 0.5299654 0
0.71069795 2.1903715 0.6585868 0
0.68838602 2.198364 -0.049803942 0
0.71314353 2.2171249 0.41271672 0
0.71087354 2.2154047 0.53541422 0
0.70248038 2.2090445 0.66049278 0
0.68024963 2.216969 -0.049978033 0
0.69206077 2.2261555 0.40985322 0
0.69760031 2.2304642 0.53496259 0
0.68880504 2.2236233 0.65967745 0
0.66131622 2.2271166 -0.049671315 0
0.68255228 2.2440674 0.41077614 0
0.67379469 2.2370772 0.53010327 0
0.68100041 2.2428288 0.66206074 0
0.65648478 2.248539 -0.050018061 0
0.67479092 2.2635322 0.41235876 0
0.66415972 2.2548249 0.53132319 0
0.67388767 2.2627923 0.66496789 0
0.64025503 2.2607067 -0.04984948 0
0.66594487 2.2822936 0.41367802 0
0.6591832 2.2766118 0.53467703 0
0.6600135 2.2773097 0.66438448 0
0.62414175 2.2728219 -0.049691733 0
0.71778601 2.3535438 0.066105612 0
0.72399932 2.3588996 0.18781364 0
0.72015923 2.3555894 0.31019467 0
0.6562143 2.3004687 0.4147929 0
0.64257747 2.2887137 0.53307933 0
0.653979 2.2985418 0.66817957 0
0.61898512 2.2944808 -0.050061595 0
0.68373424 2.3517315 0.065147251 0
0.69129843 2.3584199 0.18513228 0
0.68202704 2.3502221 0.30437738 0
0.63450283 2.3082016 0.41191757 0
0.63057631 2.3047297 0.53357595 0
0.6376794 2.3110101 0.66649085 0
0.60359961 2.3072195 -0.049955785 0
0.66391665 2.3619201 0.064862825 0
0.66050154 2.3588231 0.18269551 0
0.65608054 2.3548136 0.3014437 0
0.62540466 2.3269942 0.41338682 0
0.62354475 2.3253076 0.53640026 0
0.62319714 2.3249922 0.66588575 0
0.58907205 2.3206587 -0.049898341 0
0.63795 2.3661199 0.064281456 0
0.63554019 2.3638787 0.18108726 0
0.63765651 2.3658469 0.30034244 0
0.60861164 2.3388324 0.4122743 0
0.6063444 2.3367238 0.53475475 0
0.60468632 2.3351815 0.66309464 0
0.5763244 2.3357439 -0.049936317 0
0.63133579 2.3882172 0.064650483 0
0.62293464 2.3802037 0.18130404 0
0.62996644 2.3869109 0.30193758 0
0.60393053 2.3620763 0.41547108 0
0.60117608 2.3594489 0.53868705 0
0.60155743 2.3598127 0.66914415 0
0.55829948 2.3457086 -0.049720634 0
0.6121828 2.3984175 0.064411677 0
0.61150151 2.3977511 0.18173049 0
0.6135667 2.3997712 0.30142167 0
0.58712655 2.3739073 0.41448459 0
0.58290023 2.3697734 0.53670019 0
0.59020239 2.3769164 0.67068267 0
0.54817086 2.3633838 -0.049907826 0
0.60980099 2.4252081 0.065024398 0
0.59667689 2.4120426 0.18167953 0
0.60519582 2.4205883 0.3029913 0
0.57543093 2.3907297 0.41538519 0
0.57799476 2.3933015 0.54104966 0
0.5713982 2.3866842 0.66799754 0
0.52943748 2.3724005 -0.049668051 0
0.60549182 2.4506407 0.065563545 0
0.60162717 2.4466648 0.18470445 0
0.59866279 2.4436154 0.30512437 0
0.56955081 2.4136667 0.41850322 0
0.56333953 2.4072769 0.54094273 0
0.55865401 2.4024568 0.6689499 0
0.52053422 2.3915467 -0.04994107 0
0.60881001 2.4846776 0.066522248 0
0.61311072 2.4892147 0.18885809 0
0.61974591 2.4962149 0.31460124 0
0.54419333 2.416507 0.41454586 0
0.55475134 2.4276457 0.54385298 0
0.54894298 2.4215178 0.67185915 0
0.51315433 2.4126296 -0.050310556 0
0.53144342 2.4324176 0.41528663 0
0.53831714 2.4398549 0.54308224 0
0.52992386 2.4307737 0.66927576 0
0.48892793 2.4154122 -0.049800884 0
0.52127415 2.4513059 0.41709718 0
0.52297634 2.4531949 0.54291987 0
0.51683348 2.4463782 0.67039448 0
0.47334418 2.4274917 -0.049753208 0
0.50367087 2.4620087 0.41615158 0
0.50193983 2.4600384 0.53996837 0
0.49953339 2.4572995 0.66901088 0
0.4582276 2.4400699 -0.049738768 0
0.48808643 2.4749298 0.41603628 0
0.49177799 2.4792397 0.54257846 0
0.4876996 2.4744782 0.67117292 0
0.44047889 2.4494843 -0.04958624 0
0.46759793 2.4819648 0.41403127 0
0.4725171 2.4878564 0.54062945 0
0.47160563 2.4867647 0.67075443 0
0.4304029 2.4681618 -0.049871966 0
0.46371612 2.5090978 0.41874304 0
0.46047065 2.5051095 0.54250956 0
0.45609364 2.4997311 0.67081183 0
0.42236188 2.4897344 -0.050292596 0
0.44224301 2.5148032 0.41644663 0
0.44381413 2.5167842 0.54206681 0
0.44301233 2.5157733 0.67259777 0
0.39963952 2.492799 -0.049878672 0
0.42665526 2.5277591 0.41659784 0
0.42977235 2.5317926 0.54311883 0
0.42407927 2.5244255 0.67058635 0
0.3894197 2.5119905 -0.050202176 0
0.41084746 2.5404527 0.41672695 0
0.41183504 2.5417647 0.54213744 0
0.41318968 2.5435641 0.67415243 0
0.36532453 2.5126512 -0.04970805 0
0.38651553 2.5415494 0.41324902 0
0.39003024 2.5463424 0.53903329 0
0.38919011 2.5451968 0.66876858 0
0.356172 2.5336423 -0.05012361 0
0.38082322 2.5681624 0.4178983 0
0.37711164 2.5629649 0.54099381 0
0.38109747 2.5685465 0.67463636 0
0.34053221 2.5458219 -0.050157435 0
0.36526504 2.5813949 0.41837162 0
0.36069176 2.5748172 0.54107052 0
0.35456118 2.5659995 0.6674456 0
0.32245836 2.5544529 -0.050046526 0
0.34052733 2.5811524 0.41475037 0
0.34733948 2.5912182 0.54305732 0
0.34025505 2.58075 0.66913128 0
0.30668959 2.5664475 -0.050090101 0
0.31690523 2.58196 0.41157532 0
0.31996188 2.5866015 0.53672236 0
0.31929061 2.5855823 0.66597557 0
0.29070583 2.5781693 -0.050130203 0
0.30956849 2.6076128 0.41604438 0
0.30718729 2.6038959 0.53923249 0
0.30692199 2.6034818 0.66940111 0
0.2709913 2.5839627 -0.049929112 0
0.28951713 2.613698 0.41462442 0
0.29227862 2.6181304 0.54058689 0
0.29328862 2.6197515 0.67208105 0
0.25515398 2.5958896 -0.04999597 0
0.27304366 2.6254261 0.41497403 0
0.26872399 2.618294 0.53653127 0
0.2739937 2.6269946 0.67045462 0
0.23352654 2.5980785 -0.049667217 0
0.25022313 2.6264451 0.41221228 0
0.25287148 2.6309445 0.53744102 0
0.25471476 2.6340761 0.66887981 0
0.21927477 2.6127062 -0.049863607 0
0.23244645 2.6357429 0.4119882 0
0.23330601 2.6372461 0.53598797 0
0.23461504 2.6395357 0.66665882 0
0.20597048 2.6293323 -0.050147586 0
0.21871538 2.6522887 0.41394633 0
0.21684881 2.6489265 0.53668582 0
0.21906491 2.6529183 0.66832572 0
0.18139465 2.6254685 -0.049605511 0
0.20030434 2.6605632 0.41354433 0
0.19882198 2.6578121 0.53640133 0
0.20274778 2.665098 0.66950798 0
0.16415758 2.6348267 -0.049612131 0
0.18262912 2.6701665 0.41359448 0
0.17956693 2.6643078 0.53530711 0
0.18181284 2.6686049 0.66672701 0
0.14747812 2.6453023 -0.049672157 0
0.16294272 2.6758192 0.41257825 0
0.16209079 2.6741381 0.53555423 0
0.15601368 2.6621459 0.65946078 0
0.13371058 2.6618111 -0.049980149 0
0.14430673 2.6833906 0.41218436 0
0.14410903 2.6829879 0.53551835 0
0.14232017 2.6793449 0.66330206 0
0.11550476 2.6694992 -0.049944483 0
0.12073757 2.6805043 0.40890488 0
0.1234844 2.686281 0.53351921 0
0.12055852 2.6801276 0.65967351 0
0.097498797 2.6775692 -0.049933057 0
0.10202511 2.6874056 0.40847683 0
0.1031464 2.6898425 0.53172529 0
0.1010985 2.6853919 0.6582337 0
0.083612107 2.6948838 -0.050291836 0
0.086803935 2.7020569 0.41028127 0
0.082983814 2.6934719 0.53005975 0
0.084169172 2.6961358 0.65939653 0
0.063524447 2.6984258 -0.050120257 0
0.065982126 2.7041416 0.40863943 0
0.064076208 2.6997089 0.52943969 0
0.064216636 2.7000356 0.65756488 0
0.043639742 2.7021489 -0.049966387 0
0.044740222 2.7047999 0.40668473 0
0.043302082 2.7013357 0.52724808 0
0.047131263 2.7105596 0.65882528 0
0.025321862 2.7095015 -0.049962513 0
0.026348194 2.7120645 0.40662915 0
0.03016313 2.721591 0.53183764 0
0.025092682 2.7089291 0.6547547 0
0.0047594518 2.7110388 -0.049744982 0
0.01009371 2.7248614 0.40815026 0
0.0093990779 2.7230613 0.52976519 0
0.0076076598 2.7184193 0.65576255 0
-0.011933544 2.7225597 -0.049918581 0
-0.010998526 2.7250764 0.40629578 0
-0.013484516 2.718385 0.52561396 0
-0.010818579 2.7255609 0.65582597 0
-0.02709792 2.7387328 -0.05027575 0
-0.034066416 2.7192268 0.40287861 0
-0.030611435 2.728898 0.52694947 0
-0.03358642 2.7205706 0.6506573 0
-0.049173214 2.7355502 -0.049908035 0
-0.053160109 2.7239304 0.40240124 0
-0.051560558 2.7285924 0.52455002 0
-0.054503538 2.720015 0.64757794 0
-0.065202363 2.7499194 -0.050212 0
-0.071758278 2.7299988 0.40235713 0
-0.069651701 2.7363999 0.52509475 0
-0.070479967 2.7338831 0.65091336 0
-0.084771849 2.7537804 -0.050128981 0
-0.091888316 2.7312031 0.4010748 0
-0.089670248 2.73824 0.52363533 0
-0.096348234 2.7170539 0.64099687 0
-0.10437591 2.7573347 -0.050044045 0
-0.11109633 2.7350385 0.40056613 0
-0.11368967 2.7264347 0.51752764 0
-0.11529017 2.7211246 0.64029694 0
-0.12378395 2.7613649 -0.049986284 0
-0.10655615 2.8212397 0.064210609 0
-0.10634205 2.8219838 0.18131088 0
-0.1050751 2.8263869 0.3010228 0
-0.13122387 2.7355077 0.39922994 0
-0.13388871 2.7262464 0.51556867 0
-0.13380761 2.7265282 0.64027667 0
-0.14097203 2.7733507 -0.050232284 0
-0.13192452 2.8063533 0.063453995 0
-0.13650759 2.7896357 0.17708714 0
-0.13102733 2.8096261 0.29684669 0
-0.14923649 2.7432046 0.39987755 0
-0.14907075 2.743809 0.51982796 0
-0.15469585 2.7232904 0.63664699 0
-0.16167338 2.7725582 -0.050014034 0
-0.15749629 2.7885838 0.062605284 0
-0.15819211 2.7859142 0.17609876 0
-0.15704097 2.7903304 0.2922729 0
-0.16881765 2.7451491 0.39906636 0
-0.17093937 2.737009 0.51576298 0
-0.17104851 2.7365904 0.6402179 0
-0.18244378 2.770858 -0.049772687 0
-0.17647509 2.7949984 0.062660478 0
-0.1794496 2.782968 0.17522958 0
-0.17857267 2.7865148 0.2906501 0
-0.18743755 2.7506607 0.39926004 0
-0.19017287 2.7395978 0.51502275 0
-0.1887906 2.7451882 0.64186025 0
-0.20263197 2.7709131 -0.04960601 0
-0.19673802 2.7961085 0.062529802 0
-0.19904564 2.7862439 0.17507927 0
-0.19729446 2.7937298 0.29112548 0
-0.21240123 2.7291515 0.39243469 0
-0.20954712 2.7413523 0.51408261 0
-0.21171148 2.7321 0.63437158 0
-0.22178976 2.7751062 -0.049600385 0
-0.21621592 2.8003628 0.062523775 0
-0.21980138 2.784116 0.17436187 0
-0.21817352 2.7914925 0.28989735 0
-0.22888015 2.7429774 0.39494255 0
-0.23281194 2.7251613 0.50711423 0
-0.2302656 2.7366993 0.6345259 0
-0.23917983 2.7878132 -0.049914025 0
-0.23410679 2.8122594 0.062805384 0
-0.23452301 2.8102539 0.17677747 0
-0.23576491 2.8042693 0.29148644 0
-0.24956165 2.7377849 0.39254245 0
-0.25114051 2.7301764 0.50746924 0
-0.25048503 2.733335 0.63141114 0
-0.2584841 2.7918501 -0.049919538 0
-0.25287366 2.8207078 0.062969081 0
-0.25295705 2.8202789 0.17744341 0
-0.25154147 2.8275599 0.29504406 0
-0.26802617 2.74277 0.39286125 0
-0.27043635 2.7303729 0.5062685 0
-0.26997837 2.7327285 0.62957478 0
-0.27721325 2.7990973 -0.050050348 0
-0.26895726 2.8446143 0.063701883 0
-0.26574796 2.862308 0.18162882 0
-0.2658394 2.8618038 0.30063763 0
-0.28743318 2.7427523 0.39194247 0
-0.29041326 2.7263222 0.50371671 0
-0.28925711 2.7326963 0.62808764 0
-0.29713529 2.799835 -0.049953762 0
-0.30677477 2.742595 0.39105284 0
-0.30648547 2.744313 0.50869155 0
-0.30858502 2.7318456 0.62636209 0
-0.31775257 2.7956784 -0.04968961 0
-0.32720006 2.7349162 0.38828588 0
-0.32781029 2.7309916 0.50318235 0
-0.32819068 2.728545 0.62371534 0
-0.33696195 2.8000968 -0.049744532 0
-0.34648305 2.7333341 0.38716134 0
-0.34701908 2.7295754 0.50177431 0
-0.34828511 2.7206981 0.61927545 0
-0.35617667 2.8047988 -0.049818292 0
-0.36558655 2.732296 0.38624117 0
-0.36656809 2.7247331 0.49930027 0
-0.36706293 2.7209206 0.61831748 0
-0.37515175 2.8120236 -0.049991336 0
-0.38728896 2.7082894 0.37948421 0
-0.3844651 2.7324243 0.50111067 0
-0.38652813 2.7147918 0.61481208 0
-0.39424747 2.8192985 -0.050174527 0
-0.40496221 2.716526 0.3810772 0
-0.40443736 2.7215602 0.49678755 0
-0.40525028 2.713763 0.61353636 0
-0.41425511 2.8180637 -0.050061055 0
-0.4232823 2.7194538 0.38136521 0
-0.42431575 2.7081649 0.49170774 0
-0.4244884 2.7062788 0.60967624 0
-0.43416107 2.8171403 -0.049967878 0
-0.44209448 2.7165411 0.38021725 0
