# .PCD v0.7 - Point Cloud Data file format
VERSION 0.7
FIELDS x y z intensity
SIZE 4 4 4 4
TYPE F F F F
COUNT 1 1 1 1
WIDTH 1318
HEIGHT 1
VIEWPOINT 0 0 0 1 0 0 0
POINTS 1318
DATA ascii
-0.51055706 -2.0204232 -0.088204734 0
-0.60112315 -2.2029839 -0.089430384 0
-0.72698975 -2.4567022 -0.090474464 0
-0.9079504 -2.8214779 -0.089933939 0
-1.2201496 -3.4508007 -0.091123693 0
-1.8292633 -4.6786351 -0.09075918 0
-4.6171927 -10.298467 -0.14064212 0
-0.37794629 -1.8041294 -0.090044685 0
-0.42806965 -1.9119154 -0.090677254 0
-0.49263376 -2.050755 -0.09142264 0
-0.57245779 -2.22241 -0.090146594 0
-0.68545663 -2.4654045 -0.089288957 0
-0.86394435 -2.8492274 -0.090489797 0
-1.1589952 -3.4837096 -0.091345944 0
-1.7384629 -4.7298069 -0.091075815 0
-4.3855414 -10.422128 -0.14090118 0
-0.36078346 -1.8215212 -0.091919921 0
-0.4048309 -1.9228529 -0.090760656 0
-0.46121243 -2.0525594 -0.089574672 0
-0.53777009 -2.2286813 -0.088950686 0
-0.64991862 -2.4866807 -0.0898531 0
-0.81426036 -2.8647513 -0.08990898 0
-1.0941757 -3.5087006 -0.091080509 0
-1.6439755 -4.7735233 -0.091127582 0
-4.144681 -10.526432 -0.14081579 0
-0.33656806 -1.8227237 -0.090163238 0
-0.37813842 -1.9253659 -0.089251049 0
-0.43990543 -2.0778759 -0.092055984 0
-0.50468487 -2.237824 -0.0883357 0
-0.61790949 -2.5173888 -0.091714509 0
-0.76930606 -2.8912046 -0.090561666 0
-1.0302657 -3.5355446 -0.091081597 0
-1.5469562 -4.8113141 -0.091001593 0
-3.9040322 -10.63121 -0.14089645 0
-0.31689864 -1.8348757 -0.091049023 0
-0.3560068 -1.9389085 -0.090111293 0
-0.41004339 -2.0826528 -0.091002442 0
-0.47626349 -2.2588069 -0.089630209 0
-0.57692444 -2.5265782 -0.090972953 0
-0.71908712 -2.9047494 -0.090034701 0
-0.96801233 -3.5669229 -0.091542386 0
-1.4450481 -4.8359003 -0.09034247 0
-3.6591723 -10.725759 -0.14087386 0
-0.29493988 -1.8411222 -0.090710454 0
-0.3323665 -1.9488598 -0.090359889 0
-0.38122007 -2.0894916 -0.090448551 0
-0.44457081 -2.2718554 -0.089840211 0
-0.53625143 -2.5357707 -0.090366833 0
-0.6753481 -2.9361799 -0.091405444 0
-0.90061414 -3.5846395 -0.091104887 0
-1.3511312 -4.881515 -0.09085279 0
-3.4138088 -10.819218 -0.14097749 0
-0.27060637 -1.8397158 -0.088791169 0
-0.30904722 -1.960089 -0.090977587 0
-0.35048097 -2.089834 -0.088904344 0
-0.41153157 -2.2810068 -0.089592092 0
-0.50073946 -2.5603509 -0.09177994 0
-0.62762445 -2.9576769 -0.091900535 0
-0.82837158 -3.5862935 -0.089617498 0
-1.2539084 -4.9188132 -0.091068901 0
-3.1622076 -10.894432 -0.14078675 0
-0.24926858 -1.8470024 -0.088947289 0
-0.28299913 -1.9626141 -0.089998923 0
-0.32293254 -2.0994864 -0.08909867 0
-0.38026994 -2.2960107 -0.090325125 0
-0.45991281 -2.5689876 -0.091351159 0
-0.57339233 -2.9579401 -0.09044493 0
-0.7670747 -3.6217883 -0.090738721 0
-1.153984 -4.9479241 -0.091005869 0
-2.9122965 -10.974559 -0.14087078 0
-0.22991143 -1.8619761 -0.090911426 0
-0.25990424 -1.9753406 -0.09114287 0
-0.29693449 -2.1153045 -0.090458594 0
-0.34712335 -2.3050046 -0.090294681 0
-0.41765153 -2.5715814 -0.090319701 0
-0.52469927 -2.9761922 -0.09086851 0
-0.70155519 -3.6446583 -0.091051809 0
-1.0513958 -4.9669585 -0.090579875 0
-2.6603661 -11.048419 -0.14095579 0
-0.20789675 -1.8678497 -0.090982623 0
-0.23441076 -1.9793735 -0.090710081 0
-0.26749793 -2.1185453 -0.089796819 0
-0.31449464 -2.3162236 -0.090707116 0
-0.380036 -2.5919051 -0.091552846 0
-0.47413108 -2.9876897 -0.090759777 0
-0.63126057 -3.6486108 -0.090122856 0
-0.95032191 -4.9906526 -0.0905037 0
-2.4062815 -11.114738 -0.1410125 0
-0.18789336 -1.8833967 -0.093276091 0
-0.20960194 -1.9861656 -0.090935014 0
-0.23998195 -2.1299856 -0.090641059 0
-0.27909681 -2.3151562 -0.089471184 0
-0.33814737 -2.594703 -0.090799682 0
-0.42323458 -2.9975083 -0.090613566 0
-0.56718522 -3.6789746 -0.0912131 0
-0.84734422 -5.0052543 -0.090117015 0
-2.1478508 -11.161887 -0.1407662 0
-0.1629566 -1.8753511 -0.090568297 0
-0.18615806 -2.0007567 -0.092772983 0
-0.21092817 -2.1346409 -0.09046375 0
-0.24574777 -2.3228436 -0.089620255 0
-0.29667115 -2.5980883 -0.090245806 0
-0.37132823 -3.0016155 -0.090048142 0
-0.49857795 -3.6894097 -0.090996705 0
-0.94412822 -6.0976424 -0.14088298 0
-1.8901781 -11.211115 -0.14072479 0
-0.13877393 -1.8680477 -0.088166855 0
-0.16073024 -2.0061119 -0.092955269 0
-0.18180339 -2.1386228 -0.090297304 0
-0.21130252 -2.3241172 -0.088976063 0
-0.25727463 -2.6131959 -0.09120556 0
-0.31864819 -2.9991212 -0.088985123 0
-0.43114251 -3.7065005 -0.09137515 0
-0.81321317 -6.1090121 -0.14037152 0
-1.6327786 -11.262551 -0.140889 0
-0.11821968 -1.8837669 -0.090841554 0
-0.13361135 -1.9992716 -0.090941735 0
-0.15222266 -2.1389377 -0.089645542 0
-0.17986594 -2.3463829 -0.091433726 0
-0.21751487 -2.6289141 -0.092351504 0
-0.26794872 -3.0073881 -0.089064442 0
-0.36189079 -3.7123635 -0.091080703 0
-0.68357277 -6.1263814 -0.14029902 0
-1.3741659 -11.308844 -0.14108467 0
-0.095892213 -1.8890806 -0.09139552 0
-0.10749277 -1.9968377 -0.089898266 0
-0.12335084 -2.1441426 -0.089927487 0
-0.14458786 -2.3414123 -0.090147294 0
-0.17515877 -2.6253843 -0.091349922 0
-0.21741463 -3.0178971 -0.089474343 0
-0.29252332 -3.7155783 -0.090723954 0
-0.55462235 -6.1502047 -0.14068235 0
-1.1116931 -11.324811 -0.14072353 0
-0.072699301 -1.8856472 -0.090203069 0
-0.082684368 -2.0071313 -0.091387041 0
-0.093647085 -2.1405098 -0.088871799 0
-0.11078346 -2.3490009 -0.090760149 0
-0.1330775 -2.6202433 -0.090287007 0
-0.16686182 -3.0312827 -0.090272404 0
-0.22412735 -3.7280083 -0.091137297 0
-0.42483243 -6.1699014 -0.14102437 0
-0.85047048 -11.348459 -0.14069705 0
-0.050113883 -1.8881699 -0.090405159 0
-0.05649234 -2.0003965 -0.089779414 0
-0.064778149 -2.1461823 -0.089472897 0
-0.075695097 -2.3382621 -0.088912569 0
-0.081336081 -2.4375131 -0.068561114 0
-0.081014149 -2.431849 -0.033895645 0
-0.080678537 -2.4259441 0.00037281425 0
-0.081163846 -2.4344828 0.033581469 0
-0.080557093 -2.4238071 0.067563459 0
-0.081267066 -2.4362988 0.10101178 0
-0.02767382 -1.8972789 -0.092129074 0
-0.031234078 -2.0101194 -0.091399096 0
-0.035726566 -2.1525068 -0.090300597 0
-0.04049043 -2.3034952 -0.083812557 0
-0.040833253 -2.3143606 -0.053971771 0
-0.041164149 -2.3248482 -0.023752881 0
-0.040609725 -2.307276 0.0087850634 0
-0.040562008 -2.3057637 0.039652031 0
-0.040736187 -2.3112843 0.070218198 0
-0.040697925 -2.3100715 0.10100812 0
-0.0047149253 -1.8913091 -0.090767898 0
-0.0054431614 -2.0067706 -0.090676464 0
-0.0063753636 -2.1545711 -0.090548553 0
-0.0066880616 -2.2041492 -0.06976252 0
-0.0066687623 -2.2010894 -0.040659148 0
-0.0067542065 -2.2146366 -0.013405925 0
-0.0067578042 -2.2152069 0.015265705 0
-0.0066442722 -2.1972065 0.044735253 0
-0.0067157922 -2.2085459 0.072621644 0
-0.0068048304 -2.2226629 0.10100561 0
0.01823312 -1.9010694 -0.092873476 0
0.02016467 -2.0031121 -0.090017773 0
0.022924403 -2.1489074 -0.089648046 0
0.023896536 -2.2002647 -0.069243677 0
0.023952303 -2.2032108 -0.040929679 0
0.023925688 -2.2018049 -0.0122262 0
0.023826079 -2.1965425 0.016557107 0
0.02397671 -2.2045002 0.044386681 0
0.023850689 -2.1978426 0.07286603 0
0.023764009 -2.1932633 0.10100477 0
0.041207995 -1.8997858 -0.092754759 0
0.0461009 -2.0105126 -0.091565154 0
0.052148178 -2.1473629 -0.089545824 0
0.054877643 -2.209131 -0.07062652 0
0.054469772 -2.1999009 -0.040655497 0
0.055081043 -2.2137341 -0.013430944 0
0.054566398 -2.2020876 0.016101839 0
0.054792371 -2.2072015 0.044215735 0
0.054518696 -2.2010081 0.07276997 0
0.054384273 -2.1979661 0.10100494 0
0.063136436 -1.8836417 -0.089592941 0
0.071180746 -1.9993782 -0.089739256 0
0.081802152 -2.1521921 -0.090614863 0
0.08530654 -2.202611 -0.069954313 0
0.085385025 -2.2037401 -0.041308556 0
0.085662611 -2.2077339 -0.013033746 0
0.085089818 -2.1994929 0.016161853 0
0.085276917 -2.2021847 0.044368379 0
0.085518375 -2.2056587 0.072621107 0
0.085322388 -2.2028389 0.10100512 0
0.086899981 -1.894622 -0.092333101 0
0.097201988 -2.003166 -0.090851866 0
0.11092182 -2.1477206 -0.090274476 0
0.11614058 -2.2027066 -0.0703227 0
0.11588833 -2.2000487 -0.041170601 0
0.11530968 -2.1939518 -0.011978252 0
0.11728053 -2.2147171 0.01491666 0
0.11581579 -2.1992843 0.044386491 0
0.11497817 -2.190459 0.07291723 0
0.11647207 -2.2061992 0.10100529 0
0.1090503 -1.886647 -0.091151528 0
0.12171941 -1.9918386 -0.089224763 0
0.14060999 -2.1486869 -0.090954669 0
0.14573276 -2.1912212 -0.069162928 0
0.14774305 -2.2079124 -0.042483006 0
0.14597523 -2.1932342 -0.012218064 0
0.14539573 -2.1884227 0.01653407 0
0.14685677 -2.2005539 0.044173032 0
0.14708769 -2.202471 0.07255961 0
0.14786376 -2.2089148 0.10100546 0
0.13144004 -1.8821495 -0.090832509 0
0.14929877 -2.0043676 -0.092250369 0
0.16837649 -2.134928 -0.089315884 0
0.17847238 -2.2040205 -0.071553864 0
0.17828026 -2.2027056 -0.04235122 0
0.17832495 -2.2030115 -0.013521625 0
0.17801215 -2.2008708 0.01537017 0
0.1771163 -2.1947401 0.044255245 0
0.17770123 -2.1987431 0.072551511 0
0.17807208 -2.2012811 0.10100537 0
0.15337329 -1.8753589 -0.090139203 0
0.17480545 -1.9999682 -0.092186518 0
0.19756988 -2.1323233 -0.089646675 0
0.20731919 -2.189007 -0.070106737 0
0.20868704 -2.1969597 -0.042246152 0
0.20959389 -2.2022324 -0.013908235 0
0.21079014 -2.2091875 0.014435994 0
0.20992239 -2.2041423 0.043583035 0
0.20780778 -2.1918476 0.072599903 0
0.20959261 -2.202225 0.10100553 0
0.17595282 -1.8726034 -0.090436451 0
0.1967863 -1.9777731 -0.08882875 0
0.22573896 -2.1239293 -0.089132346 0
0.2407832 -2.1998742 -0.072464235 0
0.24139257 -2.2029505 -0.043630112 0
0.24163179 -2.2041581 -0.014629064 0
0.23886113 -2.1901715 0.01538627 0
0.24267703 -2.2094345 0.043063313 0
0.24020666 -2.1969638 0.072345875 0
0.24188024 -2.2054121 0.10100579 0
0.1992439 -1.8726298 -0.091465242 0
0.22462805 -1.9857221 -0.091377668 0
0.2534163 -2.1139803 -0.088472627 0
0.27046123 -2.1899197 -0.071957447 0
0.2754972 -2.2123561 -0.045529608 0
0.2718772 -2.196228 -0.01448833 0
0.27215204 -2.1974525 0.01440716 0
0.27390644 -2.2052686 0.042952567 0
0.2746948 -2.2087812 0.071911283 0
0.2718429 -2.1960752 0.1010057 0
0.21987849 -1.8610153 -0.09007778 0
0.24965854 -1.9796057 -0.091347344 0
0.28736722 -2.1297698 -0.092288189 0
0.30523849 -2.2009368 -0.074594431 0
0.30546653 -2.2018449 -0.045144577 0
0.307062 -2.2081985 -0.01633512 0
0.30529624 -2.2011669 0.013618523 0
0.30802906 -2.2120495 0.042277962 0
0.3055535 -2.2021914 0.071894392 0
0.30690995 -2.207593 0.10100625 0
0.24237213 -1.8572601 -0.090529077 0
0.2738862 -1.9705719 -0.090869538 0
0.31190401 -2.1072683 -0.089744292 0
0.3378014 -2.2003846 -0.075689979 0
0.3369548 -2.1973407 -0.045576964 0
0.33603129 -2.19402 -0.015747292 0
0.33745998 -2.1991572 0.0131792 0
0.33900246 -2.2047031 0.042239774 0
0.33935592 -2.2059741 0.071608327 0
0.33494309 -2.1901073 0.10100598 0
0.2616145 -1.8424466 -0.088651754 0
0.29686752 -1.9578403 -0.089779787 0
0.34004211 -2.0991638 -0.089760877 0
0.36878416 -2.1932452 -0.075946324 0
0.37123325 -2.2012618 -0.047139097 0
0.37313223 -2.2074776 -0.017923264 0
0.37257928 -2.2056677 0.01205452 0
0.37209928 -2.2040966 0.041835301 0
0.37006721 -2.1974449 0.071598701 0
0.36986253 -2.196775 0.10100644 0
0.2846722 -1.8404434 -0.089737244 0
0.32640728 -1.965657 -0.09287513 0
0.37023723 -2.0971556 -0.090956263 0
0.43107328 -2.279676 -0.090181313 0
0.52169091 -2.5515471 -0.091490723 0
0.65032393 -2.9374721 -0.090708487 0
0.86711377 -3.5878854 -0.090521254 0
1.304551 -4.9002848 -0.090952121 0
3.2894249 -10.855307 -0.14082547 0
0.30689514 -1.8353316 -0.09026099 0
0.35096639 -1.9572128 -0.092890672 0
0.39771348 -2.0864942 -0.090782918 0
0.45941725 -2.257139 -0.088496454 0
0.55924946 -2.5332298 -0.090908878 0
0.69699925 -2.9141836 -0.090084709 0
0.93719089 -3.5784454 -0.09150558 0
1.4017829 -4.863297 -0.090810932 0
3.5371873 -10.768864 -0.14081727 0
0.33028504 -1.8328276 -0.091512345 0
0.37157747 -1.9385989 -0.09097483 0
0.42643824 -2.0791256 -0.091310583 0
0.49240911 -2.248111 -0.088940389 0
0.59813362 -2.5189261 -0.09094321 0
0.74870676 -2.9046218 -0.090947665 0
1.0014627 -3.5520604 -0.091360055 0
1.4983972 -4.8249664 -0.090723284 0
3.7868698 -10.686928 -0.14107683 0
0.35041383 -1.8217497 -0.090935923 0
0.39707887 -1.9329182 -0.091786273 0
0.44642904 -2.0504832 -0.088180549 0
0.52579498 -2.2395539 -0.0895871 0
0.63014543 -2.4881444 -0.089013033 0
0.79433662 -2.8792911 -0.090354972 0
1.0642987 -3.5224121 -0.091087915 0
1.5919251 -4.7793574 -0.090389721 0
4.0290523 -10.585238 -0.14099915 0
0.36855641 -1.8065541 -0.08951094 0
0.41612682 -1.9123194 -0.089658178 0
0.48158684 -2.0578597 -0.091596134 0
0.55531991 -2.2217937 -0.088952132 0
0.67046648 -2.4778042 -0.089783423 0
0.84410924 -2.8638718 -0.090887137 0
1.1285155 -3.4962049 -0.091197379 0
1.6931722 -4.7516308 -0.091085054 0
4.2663007 -10.472581 -0.14079599 0
0.38934979 -1.7976232 -0.089653321 0
0.44345492 -1.9102329 -0.091472395 0
0.5056898 -2.0397632 -0.090569578 0
0.59172004 -2.2188189 -0.090730242 0
0.70923942 -2.4634135 -0.090169199 0
0.89095986 -2.8416305 -0.090848692 0
1.1906077 -3.465291 -0.091068111 0
1.7858522 -4.7041812 -0.090901367 0
4.5073614 -10.368492 -0.14096488 0
0.40629622 -1.7810718 -0.088102333 0
0.46763343 -1.9008913 -0.0919201 0
0.52712238 -2.0171006 -0.088798247 0
0.62082946 -2.2001534 -0.090198331 0
0.74415648 -2.4410675 -0.089643143 0
0.93660641 -2.8170102 -0.090683497 0
1.2462758 -3.4219363 -0.0900824 0
1.8800279 -4.6599441 -0.091004916 0
4.7408423 -10.248424 -0.14087656 0
0.43343621 -1.7839923 -0.09134493 0
0.48576587 -1.8801543 -0.090060376 0
0.55868375 -2.0141494 -0.090791218 0
0.65264064 -2.1868062 -0.090626799 0
0.77811193 -2.4173746 -0.089047112 0
0.97848719 -2.7855878 -0.089914806 0
1.3140421 -3.4022095 -0.091074713 0
1.9762789 -4.6191478 -0.091417395 0
4.9735942 -10.127069 -0.1409079 0
0.44839418 -1.7642448 -0.089238264 0
0.51775855 -1.8843871 -0.093702964 0
0.58902895 -2.0078309 -0.092324488 0
0.67561466 -2.1578014 -0.08865004 0
0.81986254 -2.4076455 -0.090441667 0
1.0312101 -2.7737095 -0.091354437 0
1.3720788 -3.3641102 -0.090735577 0
2.5962553 -5.4844418 -0.14067405 0
5.1983552 -9.9914017 -0.14071208 0
0.46399301 -1.7464762 -0.087685265 0
0.5274021 -1.8501704 -0.08909034 0
0.60871547 -1.9831438 -0.09048941 0
0.70804894 -2.1455858 -0.089503027 0
0.856484 -2.3883245 -0.090687148 0
1.0722078 -2.741102 -0.090693004 0
1.4316695 -3.3289368 -0.090750061 0
2.710252 -5.4198284 -0.14079952 0
5.4249816 -9.8592796 -0.14076328 0
0.49558827 -1.7540946 -0.092632122 0
0.55356109 -1.8437358 -0.090687789 0
0.63306755 -1.9666735 -0.090328924 0
0.73976094 -2.1316493 -0.09021797 0
0.88795787 -2.3608003 -0.08992254 0
1.1184008 -2.7171252 -0.091094203 0
1.4926053 -3.295743 -0.091053851 0
2.8205993 -5.3491678 -0.14075005 0
5.6443772 -9.7154655 -0.14064872 0
0.5104652 -1.735132 -0.091025911 0
0.5692932 -1.8212498 -0.088801004 0
0.65378797 -1.944941 -0.08923959 0
0.76309019 -2.1049476 -0.088907875 0
0.91849989 -2.3324506 -0.089139305 0
1.1587651 -2.6841726 -0.090618454 0
1.5490339 -3.2554841 -0.090893902 0
2.9341247 -5.2831073 -0.14111479 0
5.8649154 -9.5734673 -0.14073795 0
0.52545404 -1.7169517 -0.089692764 0
0.59796643 -1.8175548 -0.091333874 0
0.67941397 -1.9305545 -0.089723565 0
0.80449563 -2.1040919 -0.092152305 0
0.95811421 -2.3172212 -0.090342037 0
1.1997813 -2.6525083 -0.090398364 0
1.60443 -3.2139149 -0.090739749 0
3.0347068 -5.1982703 -0.14057167 0
6.0782313 -9.4208336 -0.1406821 0
0.54485047 -1.7050712 -0.090115719 0
0.61688709 -1.7998765 -0.090777494 0
0.70454687 -1.9152429 -0.090158202 0
0.8212685 -2.0688567 -0.089574181 0
0.98408502 -2.2831345 -0.088945456 0
1.2474093 -2.6296875 -0.091331027 0
1.6600865 -3.1727993 -0.090744101 0
3.1454294 -5.1276135 -0.14099427 0
6.2932992 -9.2704287 -0.14084607 0
0.5677833 -1.6974252 -0.091832198 0
0.63649523 -1.7832693 -0.090582304 0
0.72972441 -1.8997434 -0.090694435 0
0.84747887 -2.0468578 -0.089401685 0
1.0208772 -2.2634902 -0.089779653 0
1.2784944 -2.5853395 -0.089851238 0
1.7153885 -3.1311655 -0.090826683 0
3.2442136 -5.0411758 -0.14064942 0
6.4996681 -9.1083202 -0.1408249 0
0.58336163 -1.680397 -0.091136821 0
0.65069383 -1.7602985 -0.088936158 0
0.74884844 -1.8767761 -0.089772306 0
0.87426156 -2.0256007 -0.089482121 0
1.0471795 -2.230798 -0.088778071 0
1.3268743 -2.5627048 -0.09108489 0
1.7660404 -3.0838525 -0.090518169 0
3.3533576 -4.9674826 -0.14122331 0
6.7000265 -8.9388914 -0.14073744 0
0.59555608 -1.6597798 -0.089516573 0
0.67618603 -1.7507031 -0.090709217 0
0.77833158 -1.8658887 -0.091587789 0
0.90412486 -2.007741 -0.090328149 0
1.085618 -2.2124038 -0.090089895 0
1.3725828 -2.5360034 -0.091989733 0
1.8285939 -3.0502295 -0.091600008 0
3.4493511 -4.8778963 -0.14099087 0
6.8963513 -8.7649479 -0.14066319 0
0.61523736 -1.6477304 -0.090436898 0
0.70312923 -1.741943 -0.092903502 0
0.79171276 -1.836897 -0.089542605 0
0.92666978 -1.9815595 -0.089738123 0
1.1098439 -2.1779065 -0.089012377 0
1.3978382 -2.4866121 -0.090165354 0
1.8731716 -2.996129 -0.090899028 0
3.5488057 -4.7922668 -0.14115733 0
7.0939984 -8.5924129 -0.14078778 0
0.63303417 -1.633428 -0.090855516 0
0.71331036 -1.7152379 -0.090594657 0
0.82192087 -1.8259234 -0.091671892 0
0.95597816 -1.9625418 -0.09065453 0
1.150046 -2.1603172 -0.090775393 0
1.4384761 -2.454258 -0.090605639 0
1.9108398 -2.9356463 -0.089664303 0
3.631974 -4.6896634 -0.14038262 0
7.2829585 -8.4104013 -0.14076732 0
0.65078336 -1.6189209 -0.091358162 0
0.73393285 -1.699488 -0.091258951 0
0.839073 -1.801363 -0.090826176 0
0.98382157 -1.9416162 -0.091357328 0
1.1708326 -2.1228194 -0.089409433 0
1.4786726 -2.4210989 -0.091085441 0
1.9604263 -2.8878913 -0.089770027 0
3.7284696 -4.6010261 -0.14066055 0
7.4794598 -8.2355251 -0.14114216 0
0.66585726 -1.6017674 -0.091183193 0
0.75225878 -1.6813586 -0.091422923 0
0.8587122 -1.7794211 -0.090695821 0
1.0092566 -1.918099 -0.091685928 0
1.2058064 -2.0991561 -0.090481423 0
1.5126064 -2.3817735 -0.090866946 0
2.5398667 -3.3280625 -0.14035206 0
3.8270516 -4.5137877 -0.1412075 0
7.6542115 -8.0392809 -0.14096206 0
0.67213261 -1.5769461 -0.088649981 0
0.76644117 -1.6595209 -0.090661891 0
0.87677419 -1.7561264 -0.090346165 0
1.0206817 -1.8821292 -0.08950261 0
1.2268912 -2.0626824 -0.089466326 0
1.5389766 -2.3359385 -0.089839421 0
2.604094 -3.2685354 -0.140912 0
3.9084079 -4.4105682 -0.14081444 0
7.8229914 -7.8381042 -0.14075617 0
0.69425678 -1.5660737 -0.090726741 0
0.78805208 -1.6441073 -0.091873251 0
0.89890522 -1.7363324 -0.091000773 0
1.0565259 -1.867466 -0.091996454 0
1.2429539 -2.0225661 -0.087850265 0
1.5555633 -2.2826436 -0.087787323 0
2.6579041 -3.199744 -0.14065112 0
3.9883981 -4.3066578 -0.14050631 0
7.9990568 -7.6433535 -0.14093021 0
0.71580946 -1.5541031 -0.092682876 0
0.8032338 -1.6231794 -0.09161175 0
0.91352874 -1.7103264 -0.090175651 0
1.0675607 -1.8320311 -0.090064503 0
1.277426 -1.9978515 -0.089160614 0
1.6056815 -2.257215 -0.089926325 0
2.7214158 -3.1387873 -0.14141609 0
4.0744395 -4.2078481 -0.14072055 0
8.1603508 -7.4362364 -0.14081021 0
0.72617066 -1.533141 -0.091709904 0
0.82025063 -1.6036947 -0.091912784 0
0.92867303 -1.6850042 -0.089609154 0
1.0955601 -1.8101584 -0.091307484 0
1.3144937 -1.9743438 -0.09091761 0
1.624781 -2.2070384 -0.088481851 0
2.7715662 -3.0670507 -0.14113493 0
4.1615567 -4.1094499 -0.14113989 0
8.3206396 -7.2284832 -0.14081673 0
0.73351967 -1.5103022 -0.090107821 0
0.83049035 -1.5792708 -0.090756796 0
0.94474113 -1.6605296 -0.089369155 0
1.1114099 -1.7790698 -0.090529196 0
1.3307048 -1.9350393 -0.089738078 0
1.6858355 -2.1876197 -0.092015035 0
2.8209157 -2.994925 -0.14094685 0
4.2388587 -4.0034113 -0.14113429 0
8.4739008 -7.0155087 -0.14077359 0
0.74344218 -1.4896386 -0.089341454 0
0.8472566 -1.5595987 -0.0912439 0
0.96309817 -1.6376638 -0.089710332 0
1.1360914 -1.7542433 -0.091394849 0
1.3473086 -1.8965818 -0.088774778 0
1.6945676 -2.1305981 -0.089655109 0
2.8634093 -2.9182761 -0.14033881 0
4.2958994 -3.8836257 -0.14014293 0
8.6293917 -6.8039484 -0.14094579 0
0.76442522 -1.4762282 -0.091508441 0
0.86334544 -1.5393203 -0.091683738 0
0.97511131 -1.6106056 -0.088922866 0
1.1429312 -1.7176427 -0.089378081 0
1.3702422 -1.8626236 -0.088839985 0
1.7337348 -2.0944624 -0.090862967 0
2.9150994 -2.8479474 -0.14066477 0
4.3781991 -3.7811253 -0.14073044 0
8.7695732 -6.5819826 -0.14084151 0
0.7707907 -1.4533879 -0.090099312 0
0.87428731 -1.5157824 -0.091098435 0
0.99840146 -1.5906065 -0.090443529 0
1.1684523 -1.6931242 -0.09061005 0
1.4085726 -1.8378843 -0.09112329 0
1.7621946 -2.0510707 -0.090985797 0
2.9612768 -2.7739556 -0.14068188 0
4.4445958 -3.6681969 -0.14058636 0
8.906579 -6.3581705 -0.14080589 0
0.79287857 -1.4398613 -0.09269736 0
0.88307077 -1.4911778 -0.090183429 0
1.0195265 -1.5688169 -0.091629289 0
1.1903156 -1.6659905 -0.091333874 0
1.4106909 -1.7913772 -0.088589348 0
1.7848405 -2.0042567 -0.09060099 0
3.0086367 -2.7005587 -0.14094518 0
4.5179577 -3.5593152 -0.14097121 0
9.0425291 -6.1336551 -0.14089479 0
0.79419363 -1.4144835 -0.090333574 0
0.89318335 -1.4675453 -0.089698382 0
1.0216451 -1.5364048 -0.089358188 0
1.1989405 -1.631441 -0.090047069 0
1.4519044 -1.7670377 -0.091430403 0
1.821491 -1.9651482 -0.091830529 0
3.0410321 -2.6188617 -0.14016594 0
4.5885315 -3.4483714 -0.14134982 0
9.1653986 -5.9017196 -0.14078796 0
0.80779243 -1.3959086 -0.091077037 0
0.9160251 -1.4504552 -0.092030935 0
1.0487936 -1.5173671 -0.091873921 0
1.2179326 -1.602609 -0.090546168 0
1.4721999 -1.7307534 -0.091578834 0
1.8309511 -1.9115551 -0.090306349 0
3.0984399 -2.5503378 -0.14151716 0
4.6392183 -3.3268518 -0.14083382 0
9.2936583 -5.6725731 -0.14097625 0
0.81898838 -1.3759866 -0.091357641 0
0.91582775 -1.4217647 -0.089626394 0
1.0485878 -1.4845234 -0.089475028 0
1.2313746 -1.570931 -0.090290435 0
1.4748931 -1.6860478 -0.089569114 0
1.8696332 -1.8726506 -0.09195774 0
3.1285746 -2.4677813 -0.14087798 0
4.6930079 -3.2073252 -0.14064264 0
9.4066343 -5.4355645 -0.14091893 0
0.82928997 -1.3555802 -0.091544814 0
0.92602348 -1.3983566 -0.089538939 0
1.0662681 -1.4603739 -0.090466745 0
1.2446645 -1.5392622 -0.090137742 0
1.49325 -1.6491888 -0.089728378 0
1.8772718 -1.8190062 -0.09052334 0
3.1689632 -2.3902028 -0.14118989 0
4.7527814 -3.0905797 -0.14091262 0
9.5173702 -5.1975193 -0.14095823 0
0.83782184 -1.3343804 -0.09144222 0
0.95023102 -1.3807342 -0.092428111 0
1.0770332 -1.4330232 -0.090327777 0
1.253437 -1.5057663 -0.089422084 0
1.5128407 -1.6127357 -0.090160228 0
1.8922637 -1.7691971 -0.089983664 0
3.1966739 -2.3070924 -0.14068875 0
4.7994957 -2.9680429 -0.1406714 0
9.6161537 -4.9542718 -0.14084847 0
0.84882432 -1.3141377 -0.092025392 0
0.94484109 -1.3509256 -0.089409791 0
1.0886499 -1.4060245 -0.090462156 0
1.2530266 -1.4690037 -0.087459184 0
1.5267595 -1.5738817 -0.089993753 0
1.9176422 -1.7236446 -0.090613686 0
3.227453 -2.2254856 -0.14057997 0
4.8518157 -2.8478439 -0.14086692 0
9.7092505 -4.7089219 -0.14075181 0
0.85305744 -1.2913331 -0.091192521 0
0.95524299 -1.3275551 -0.089725129 0
1.0904055 -1.3754666 -0.088995226 0
1.2788936 -1.4422805 -0.089570768 0
1.5394354 -1.5346357 -0.089796834 0
1.9352969 -1.674958 -0.090587579 0
3.2645237 -2.1461334 -0.14109232 0
4.8988419 -2.7254555 -0.14094979 0
9.8015471 -4.4633331 -0.14078973 0
0.85453224 -1.267821 -0.089878969 0
0.96648389 -1.3043525 -0.090321504 0
1.1041186 -1.3492647 -0.089741446 0
1.2928962 -1.4108657 -0.090011321 0
1.5638535 -1.4992831 -0.091167398 0
1.956174 -1.6273031 -0.090999253 0
3.2893367 -2.0623338 -0.14084697 0
4.9394865 -2.6008022 -0.14087135 0
9.8780737 -4.2123365 -0.1405939 0
0.86988628 -1.2487638 -0.091786362 0
0.97964448 -1.2815394 -0.091406293 0
1.1193817 -1.3232672 -0.09086179 0
1.3105414 -1.3803507 -0.091099553 0
1.5496973 -1.4517665 -0.087931909 0
1.9574215 -1.5735197 -0.089613296 0
3.3139389 -1.9785982 -0.140743 0
4.9683437 -2.4726307 -0.1403743 0
9.9584389 -3.9627554 -0.14064702 0
0.87070835 -1.2252795 -0.090586461 0
0.9768005 -1.2540658 -0.089473017 0
1.1187249 -1.2925744 -0.089375608 0
1.3065468 -1.3435366 -0.089141823 0
1.5667682 -1.4141431 -0.088645823 0
1.9641037 -1.5219531 -0.088894151 0
3.3405492 -1.8954276 -0.14093886 0
5.0216522 -2.3515654 -0.14121673 0
10.038031 -3.7126718 -0.14083344 0
0.87961924 -1.2040504 -0.091294028 0
0.99239862 -1.2316159 -0.091262333 0
1.130959 -1.2654828 -0.090211041 0
1.317467 -1.311069 -0.089488722 0
1.5722321 -1.3733387 -0.0880735 0
1.9818972 -1.4734689 -0.089372568 0
3.3606403 -1.8104608 -0.14081593 0
5.0359178 -2.2199316 -0.14032975 0
10.100235 -3.4577501 -0.14075413 0
0.8858785 -1.1820571 -0.091537766 0
1.0064524 -1.2083225 -0.092853703 0
1.1272042 -1.2346267 -0.088467829 0
1.3275598 -1.2782716 -0.089832939 0
1.6000737 -1.337635 -0.090304531 0
1.9791676 -1.4202157 -0.088005044 0
3.3875234 -1.7270075 -0.14133349 0
5.0789547 -2.0954635 -0.14097723 0
10.149297 -3.1999707 -0.14051607 0
0.88569379 -1.1587557 -0.090506144 0
0.98939717 -1.1786195 -0.088584505 0
1.1295308 -1.2054614 -0.087881319 0
1.3415501 -1.2460725 -0.09085194 0
1.6077935 -1.29707 -0.090237863 0
2.5385823 -1.4753578 -0.14019683 0
3.3964581 -1.6396793 -0.14072131 0
5.1038494 -1.9667211 -0.14091094 0
10.225851 -2.9478133 -0.14108439 0
0.89329195 -1.1369759 -0.091282658 0
0.99893618 -1.1544605 -0.089553721 0
1.1410104 -1.1779747 -0.088944919 0
1.3407484 -1.2110324 -0.089875646 0
1.6153853 -1.2564864 -0.090277888 0
2.5543585 -1.4118917 -0.14060555 0
3.4225686 -1.5555853 -0.14148529 0
5.1283817 -1.8379068 -0.1409815 0
10.257703 -2.6868379 -0.14074719 0
0.89332157 -1.1139382 -0.090550251 0
1.0045048 -1.1294686 -0.089880638 0
1.15879 -1.1510196 -0.09116561 0
1.3419139 -1.1765989 -0.089307673 0
1.6190511 -1.2153103 -0.089975573 0
2.5652993 -1.3474852 -0.14070837 0
3.4216955 -1.4671092 -0.14049198 0
5.1368637 -1.7066892 -0.14045046 0
10.304857 -2.4285705 -0.14092535 0
0.89561355 -1.0913188 -0.090428539 0
1.0091616 -1.1042681 -0.090153508 0
1.1524423 -1.1206081 -0.089501567 0
1.3430936 -1.1423503 -0.08886645 0
1.6327215 -1.1753801 -0.090973414 0
2.5809624 -1.2835194 -0.1414075 0
3.4400597 -1.3814926 -0.14101247 0
5.1651225 -1.5782223 -0.14100306 0
10.338386 -2.1681917 -0.14093691 0
0.89775515 -1.0687007 -0.090396993 0
1.0237026 -1.0798531 -0.092415206 0
1.1359681 -1.0897939 -0.086297236 0
1.1407928 -1.0902212 -0.059840385 0
1.6329855 -1.1338038 -0.090514459 0
2.588187 -1.2183852 -0.14146581 0
3.4422212 -1.2940084 -0.14054652 0
5.1683407 -1.446853 -0.14053583 0
10.361807 -1.9067247 -0.14086612 0
0.90774369 -1.0465711 -0.092158489 0
1.0233938 -1.0538765 -0.09198714 0
1.1287731 -1.060533 -0.084754296 0
1.1276911 -1.0604647 -0.057687972 0
1.6360306 -1.0925756 -0.090504907 0
2.5795307 -1.1521745 -0.14019264 0
3.4500489 -1.2071633 -0.14063303 0
5.1831346 -1.3166388 -0.14076413 0
10.369475 -1.6442493 -0.14058235 0
0.8976174 -1.023247 -0.089758478 0
1.0258617 -1.0281034 -0.092206515 0
1.1404825 -1.0324439 -0.086443566 0
1.1319904 -1.0321224 -0.058090512 0
1.6337479 -1.0511231 -0.089994036 0
2.5932889 -1.0874596 -0.14117058 0
3.4572814 -1.1201777 -0.14083123 0
5.1842613 -1.185576 -0.1405087 0
10.396879 -1.3829703 -0.14091226 0
0.89646149 -1.0005912 -0.089391313 0
1.0171245 -1.0021136 -0.090437748 0
1.1322088 -1.0035657 -0.084964328 0
1.1307795 -1.0035477 -0.057819027 0
1.1242547 -1.0034653 -0.030321544 0
1.1314662 -1.0035564 -0.0045585018 0
1.1308398 -1.0035484 0.021975854 0
1.1227508 -1.0034463 0.048742324 0
1.1261349 -1.003489 0.07480783 0
1.1268299 -1.0034978 0.10100254 0
1.1292181 -1.003528 0.12726912 0
1.1409895 -1.0036765 0.15411288 0
1.131412 -1.0035557 0.1800698 0
1.1348387 -1.0035989 0.20687942 0
1.1276515 -1.0035082 0.23272458 0
1.132346 -1.0035675 0.26004589 0
1.1290663 -1.0035261 0.28645477 0
1.1236523 -1.0034578 0.31251112 0
0.90606225 -0.97787243 -0.091432221 0
1.0178614 -0.97646177 -0.090576522 0
1.1360259 -0.97497082 -0.085591726 0
1.1199851 -0.97517323 -0.056301925 0
1.6381835 -0.96863484 -0.090390883 0
2.5918105 -0.95660245 -0.14087839 0
3.4600954 -0.94564688 -0.14087403 0
5.1927066 -0.92378569 -0.14074814 0
10.400366 -0.85807806 -0.14083932 0
0.90282905 -0.95514041 -0.090867065 0
1.0214742 -0.95064747 -0.091379531 0
1.1286988 -0.94658703 -0.084505491 0
1.123614 -0.94677961 -0.056912486 0
1.6511225 -0.92680359 -0.092026107 0
2.5843892 -0.89146215 -0.14033929 0
3.4609108 -0.85826951 -0.14108516 0
5.1814551 -0.79311496 -0.14037795 0
10.388052 -0.59594864 -0.14070687 0
0.89388943 -0.93288875 -0.089207731 0
1.0306277 -0.92425126 -0.09335237 0
1.1338053 -0.91773373 -0.085582994 0
1.1261648 -0.91821635 -0.057473037 0
1.6507636 -0.88507855 -0.092230238 0
2.5871928 -0.82592618 -0.14090927 0
3.4528718 -0.77124304 -0.14083077 0
5.187953 -0.66164148 -0.1409889 0
10.371131 -0.33423075 -0.14062093 0
0.89188373 -0.91040397 -0.089144073 0
1.0139397 -0.89959615 -0.090569161 0
1.1579537 -0.88684398 -0.089924745 0
1.3523058 -0.86963445 -0.089681588 0
1.6417351 -0.84400606 -0.091541044 0
2.5811243 -0.76082486 -0.14080401 0
3.4442124 -0.68440002 -0.14068626 0
5.18051 -0.53065413 -0.14110456 0
10.366781 -0.071419448 -0.14098224 0
0.89314681 -0.88754719 -0.089900814 0
1.0153731 -0.87360829 -0.091331042 0
1.1538092 -0.85782075 -0.089727677 0
1.3491861 -0.83553958 -0.089728199 0
1.6304024 -0.80346906 -0.090700619 0
2.5755301 -0.69568479 -0.14089715 0
3.4375839 -0.59737444 -0.14083828 0
5.1649175 -0.40038583 -0.14099346 0
10.328886 0.18852344 -0.14071462 0
0.88560963 -0.86572373 -0.088895075 0
1.0041414 -0.84916687 -0.089811526 0
1.1460118 -0.82934999 -0.0890451 0
1.3360173 -0.80280942 -0.088470943 0
1.6228083 -0.76274955 -0.090418957 0
2.5714614 -0.63023877 -0.14128914 0
3.4296548 -0.51036364 -0.14105381 0
5.1404719 -0.27139148 -0.14062008 0
10.311231 0.45087591 -0.14107496 0
0.89875597 -0.84070444 -0.09245991 0
1.0082569 -0.82258147 -0.091333173 0
1.142195 -0.80041397 -0.089142255 0
1.3317813 -0.76903635 -0.088598318 0
1.6234705 -0.72076017 -0.09123569 0
2.5484283 -0.56767452 -0.14004448 0
3.4055014 -0.42582414 -0.14027591 0
5.1354575 -0.13950673 -0.1413154 0
10.267003 0.70979267 -0.14096636 0
0.8834731 -0.82025439 -0.090025537 0
0.99323726 -0.79922962 -0.08932095 0
1.1410165 -0.77092332 -0.089803316 0
1.3283437 -0.73504174 -0.088962249 0
1.3475355 -0.73136568 -0.059267689 0
1.3495239 -0.73098481 -0.027192002 0
1.3543137 -0.73006731 0.0046392325 0
1.3474307 -0.73138571 0.037147027 0
1.3528084 -0.73035568 0.068968259 0
1.3460984 -0.73164093 0.1010095 0
0.881042 -0.7975812 -0.09048561 0
1.004493 -0.77068901 -0.092475973 0
1.1330786 -0.74267834 -0.08945591 0
1.2024013 -0.72757727 -0.071831338 0
1.2047094 -0.7270745 -0.043013368 0
1.199571 -0.72819382 -0.013530722 0
1.1935388 -0.72950786 0.01564371 0
1.2096536 -0.72599745 0.043381147 0
1.1993539 -0.72824109 0.07245411 0
1.20777 -0.72640783 0.10100566 0
0.87872654 -0.77475244 -0.091098689 0
1.0015675 -0.74472767 -0.093040131 0
1.1363164 -0.71179241 -0.091117464 0
1.2132603 -0.69298583 -0.074412979 0
1.2185696 -0.69168812 -0.045523036 0
1.2046411 -0.6950925 -0.014687566 0
1.2063792 -0.6946677 0.014220582 0
1.211134 -0.69350553 0.042973384 0
1.2033327 -0.69541234 0.072192103 0
1.2074597 -0.69440359 0.10100585 0
0.87160158 -0.75306284 -0.090783186 0
0.98926318 -0.72113746 -0.091905244 0
1.1122634 -0.68776345 -0.088275261 0
1.2045975 -0.66271025 -0.074296363 0
1.2050667 -0.66258293 -0.044844095 0
1.2026503 -0.66323858 -0.015249996 0
1.2114354 -0.66085494 0.013288053 0
1.2028931 -0.66317266 0.04299232 0
1.2029146 -0.66316688 0.072014317 0
1.2082615 -0.6617161 0.10100611 0
0.86590749 -0.73100901 -0.090903737 0
0.97075367 -0.69970024 -0.08965864 0
1.1131424 -0.65718061 -0.089791618 0
1.2000049 -0.63124204 -0.074887522 0
1.2100668 -0.62823737 -0.04650617 0
1.2022184 -0.63058108 -0.016046574 0
1.2055446 -0.62958777 0.013085121 0
1.2039045 -0.63007754 0.042524807 0
1.2020228 -0.63063943 0.071827009 0
1.196541 -0.63227642 0.10100602 0
0.85700279 -0.70995748 -0.09043137 0
0.96768266 -0.673841 -0.090558998 0
1.1024288 -0.62987137 -0.089449309 0
1.197075 -0.59898692 -0.075846292 0
1.2078589 -0.59546793 -0.047402013 0
1.201335 -0.59759682 -0.016886016 0
1.2177995 -0.59222418 0.011488328 0
1.2167308 -0.59257293 0.041434105 0
1.1969877 -0.59901541 0.07171949 0
1.2094855 -0.59493721 0.10100669 0
0.84836888 -0.68891358 -0.090135135 0
0.96458304 -0.64771879 -0.091591604 0
1.1064504 -0.59743059 -0.091793023 0
1.2089758 -0.56108809 -0.079145841 0
1.2055036 -0.56231892 -0.048389707 0
1.2020024 -0.56355995 -0.01796866 0
1.2045319 -0.56266332 0.011700595 0
1.20402 -0.56284481 0.041548412 0
1.2203054 -0.55707204 0.070891984 0
1.2172234 -0.55816454 0.10100724 0
0.841254 -0.66734749 -0.090302162 0
0.95705795 -0.62297839 -0.091873966 0
1.0886176 -0.57257265 -0.090456463 0
1.2112461 -0.52558869 -0.081171371 0
1.2020102 -0.52912736 -0.049348805 0
1.2020735 -0.52910316 -0.019087685 0
1.2090306 -0.52643758 0.010529244 0
1.2010225 -0.52950579 0.041142337 0
1.21761 -0.52315044 0.070677906 0
1.2046263 -0.52812499 0.10100719 0
0.83378536 -0.64586878 -0.090514116 0
0.93633151 -0.60358214 -0.089596264 0
1.0809449 -0.54394841 -0.091023199 0
1.2090058 -0.4911404 -0.082667895 0
1.2189883 -0.48702398 -0.053011302 0
1.2192138 -0.48693094 -0.022029182 0
1.20401 -0.49320051 0.0099967141 0
1.2064437 -0.49219695 0.04026591 0
1.2142143 -0.4889926 0.070457771 0
1.1951424 -0.4968572 0.10100728 0
0.82534748 -0.62474781 -0.090628497 0
0.92424792 -0.58101326 -0.089173265 0
1.0648336 -0.51884514 -0.090208955 0
1.2067717 -0.45607904 -0.084315054 0
1.2009497 -0.45865354 -0.052375142 0
1.2094262 -0.45490512 -0.022363445 0
1.2066165 -0.45614764 0.0088114087 0
1.209883 -0.45470318 0.039432865 0
1.2035151 -0.45751908 0.070399046 0
1.2085073 -0.45531151 0.10100809 0
0.82148105 -0.60141981 -0.091943689 0
0.92324799 -0.55331224 -0.0911723 0
1.0541584 -0.4914279 -0.090487696 0
1.23404 -0.40639368 -0.090704761 0
1.4726305 -0.29360643 -0.089276619 0
1.8520241 -0.11425838 -0.090139709 0
3.1209781 0.48560551 -0.14029054 0
4.7078967 1.2357786 -0.14140934 0
9.409276 3.4582288 -0.14098684 0
0.8061831 -0.58348715 -0.090693958 0
0.90543342 -0.53346747 -0.089796953 0
1.0404146 -0.46544036 -0.09033183 0
1.2057954 -0.38209257 -0.088636108 0
1.4660095 -0.25095108 -0.090768658 0
1.836444 -0.064261347 -0.090880491 0
3.0881348 0.56655961 -0.1407104 0
4.6334867 1.3453784 -0.14053503 0
9.2819729 3.6880996 -0.14067201 0
0.80253321 -0.55963081 -0.092344873 0
0.90220898 -0.50620139 -0.091627218 0
1.0360109 -0.43447933 -0.09203703 0
1.1947252 -0.34940335 -0.089374922 0
1.4374882 -0.21927449 -0.089518733 0
1.8149525 -0.016941395 -0.091138072 0
3.0452862 0.64255732 -0.14050336 0
4.5732713 1.4616067 -0.14054377 0
9.1516562 3.9157689 -0.14042544 0
0.78485286 -0.54328978 -0.090734594 0
0.88549209 -0.48602924 -0.090708129 0
1.0126112 -0.41370246 -0.090321653 0
1.1818925 -0.3173866 -0.089971967 0
1.1982704 -0.30806807 -0.060025904 0
1.2151219 -0.29848018 -0.029418265 0
3.0045819 0.71966702 -0.14061904 0
4.5169697 1.5801685 -0.1409183 0
9.0420341 4.1547894 -0.14088157 0
0.77653664 -0.52173275 -0.091525473 0
0.86726254 -0.46703729 -0.089553468 0
1.0015228 -0.38609651 -0.091042526 0
1.1569453 -0.29239771 -0.088721804 0
0.84725118 -0.47910145 -0.014520263 0
1.2009581 -0.26586387 -0.02981638 0
2.9632347 0.79655141 -0.14084171 0
4.443923 1.6892066 -0.14054978 0
8.8937712 4.3718653 -0.14045818 0
0.74689323 -0.5135386 -0.087088324 0
0.85958606 -0.4416621 -0.090843894 0
0.88901526 -0.42289189 -0.072139747 0
0.89071721 -0.42180637 -0.047337476 0
0.81366044 -0.47095385 -0.01168563 0
0.84818977 -0.44893077 0.0071754325 0
2.9196305 0.87225264 -0.14104049 0
4.3746281 1.8002629 -0.14053325 0
8.7719164 4.6048923 -0.14090611 0
0.75408787 -0.48177204 -0.092070185 0
0.84198469 -0.42253873 -0.090046488 0
0.88722217 -0.3920534 -0.074672662 0
0.75746512 -0.47949615 -0.027230075 0
0.76781803 -0.47251937 -0.0071044769 0
0.80918342 -0.44464335 0.010000924 0
0.86655694 -0.40597954 0.027999977 0
4.3052163 1.9113195 -0.14066598 0
8.6222315 4.820539 -0.14074503 0
0.73686796 -0.46590117 -0.090981208 0
0.73641723 -0.46622172 -0.069013558 0
0.73553842 -0.46684679 -0.047177006 0
0.75622368 -0.45213476 -0.029275751 0
0.74416047 -0.46071449 -0.0056165438 0
0.76312345 -0.44722739 0.013673181 0
0.80806363 -0.41526452 0.031731781 0
4.2302814 2.0187266 -0.1406443 0
8.4739113 5.0369315 -0.14077389 0
0.72120774 -0.44916549 -0.090391286 0
0.73827159 -0.43636879 -0.072612368 0
0.93461794 -0.28912219 -0.090830438 0
0.73219752 -0.4409239 -0.027478239 0
0.88065487 -0.32959083 -0.027539453 0
0.74438417 -0.43178478 0.014235513 0
0.7638557 -0.41718242 0.034306783 0
0.7910617 -0.39677975 0.054994069 0
1.0906898 -0.17207882 0.06930095 0
1.1035166 -0.16245952 0.10100974 0
1.1059016 -0.16067091 0.13316083 0
1.1008192 -0.16448244 0.16505063 0
1.0986556 -0.16610494 0.19696888 0
0.71077371 -0.42846051 -0.091318645 0
0.73014867 -0.41315183 -0.074067704 0
0.72974187 -0.41347328 -0.051679168 0
0.72171265 -0.41981736 -0.028120136 0
0.86663002 -0.30531421 -0.027971422 0
0.73137981 -0.41217908 0.014081018 0
0.76874942 -0.38265237 0.032563005 0
0.76662219 -0.38433316 0.055542205 0
0.7873925 -0.36792198 0.077667058 0
1.099394 -0.12140116 0.10101036 0
1.1011157 -0.12004074 0.13365015 0
1.0967336 -0.12350318 0.16606501 0
1.1031623 -0.11842367 0.19925398 0
0.69038171 -0.41573492 -0.089655273 0
0.78239846 -0.33918092 -0.090488054 0
0.71365851 -0.39636961 -0.051396359 0
0.72450393 -0.38734671 -0.031299058 0
0.73070967 -0.38218382 -0.0099727567 0
0.73791802 -0.37618676 0.011490906 0
0.75926441 -0.35842749 0.032011401 0
0.76754647 -0.3515372 0.054547105 0
0.76684672 -0.35211936 0.077806719 0
0.7828874 -0.33877417 0.10099944 0
1.0999212 -0.075015694 0.13428952 0
1.1091431 -0.067343503 0.16816312 0
1.1002971 -0.074702948 0.20102499 0
0.67863488 -0.39594534 -0.090487041 0
0.76022005 -0.32451084 -0.089104466 0
0.7298755 -0.35108003 -0.058256466 0
0.73854327 -0.34349063 -0.036801461 0
0.73690313 -0.34492674 -0.01335047 0
0.73784995 -0.3440977 0.0095510725 0
0.74875885 -0.33454612 0.031486113 0
0.74516022 -0.337697 0.05492153 0
0.75767338 -0.32674071 0.077585854 0
0.7632609 -0.32184836 0.10099933 0
1.1036184 -0.023837712 0.13512953 0
1.0908121 -0.035050716 0.16849045 0
1.1025746 -0.024751749 0.20341532 0
1.1074065 -0.020520952 0.23832287 0
1.0946454 -0.031694379 0.37485352 0
0.66291255 -0.3795298 -0.090332173 0
0.75130004 -0.29810932 -0.091177411 0
0.71916842 -0.32770821 -0.059514005 0
0.7206918 -0.32630494 -0.036548767 0
0.72444683 -0.32284585 -0.013991816 0
0.73285502 -0.3151004 0.0080892835 0
0.7333771 -0.31461951 0.031355303 0
0.73780322 -0.3105422 0.054331586 0
0.74622667 -0.30278274 0.077411644 0
0.77178109 -0.2792426 0.10100032 0
1.1086197 0.03104547 0.13607107 0
1.1003447 0.023422632 0.17064239 0
1.1007944 0.023837004 0.20559441 0
1.0989133 0.022104058 0.240393 0
1.0344007 -0.037323441 0.36569932 0
0.64716232 -0.36317238 -0.090286426 0
0.73377979 -0.27924493 -0.091218807 0
0.70804024 -0.30418512 -0.060839687 0
0.70687968 -0.30530968 -0.037164155 0
0.83824611 -0.17802295 -0.035285134 0
0.71324831 -0.29913875 0.0083964337 0
0.72471648 -0.28802678 0.030518608 0
0.71948028 -0.29310033 0.054394003 0
0.74030352 -0.2729238 0.07703495 0
0.75837374 -0.25541481 0.1010005 0
0.84467465 -0.17179409 0.12835193 0
0.84911865 -0.16748801 0.15601803 0
0.83064657 -0.18538645 0.1818001 0
1.0992876 0.074911624 0.24380583 0
1.0020293 -0.019326236 0.29694223 0
1.0064856 -0.015008416 0.33116096 0
0.98826724 -0.032660868 0.35998401 0
0.62579268 -0.35253659 -0.088657789 0
0.69218606 -0.28487471 -0.084913798 0
0.70061737 -0.27628234 -0.063206963 0
0.68343401 -0.29379401 -0.035967592 0
0.71065408 -0.26605389 -0.017453996 0
0.69474608 -0.28226581 0.0085113365 0
0.70837164 -0.2683799 0.030360976 0
0.70685571 -0.26992485 0.054050367 0
0.71201998 -0.26466188 0.077366039 0
0.734842 -0.24140385 0.10100031 0
0.75013542 -0.22581825 0.12590118 0
0.84013522 -0.13409898 0.15681809 0
0.83933854 -0.13491091 0.18472105 0
0.83754784 -0.13673583 0.21252947 0
1.0980787 0.12877253 0.28413504 0
0.94426155 -0.027983274 0.29032278 0
0.94998163 -0.02215394 0.32374269 0
0.95193201 -0.020166244 0.35678706 0
0.61218876 -0.33412221 -0.089486934 0
0.69574207 -0.24456009 -0.090863802 0
0.67228264 -0.26970664 -0.06076825 0
0.67516005 -0.26662233 -0.037922967 0
0.84317583 -0.086523622 -0.043324117 0
0.69257998 -0.24794963 0.0063365642 0
0.70551747 -0.23408172 0.028766299 0
0.71078247 -0.22843811 0.05252834 0
0.7159754 -0.22287169 0.076600343 0
0.72800303 -0.20997915 0.10100082 0
0.84629297 -0.083182365 0.12985298 0
0.84372896 -0.085930735 0.1585563 0
0.84234738 -0.087411672 0.18726808 0
0.84467143 -0.084920436 0.21648645 0
1.1004949 0.18930045 0.28944468 0
0.92555892 0.0017840598 0.29152897 0
0.93023425 0.0067955586 0.32493731 0
0.92489505 0.0010724399 0.35615671 0
0.59728462 -0.31685576 -0.090070345 0
0.67196947 -0.23263642 -0.089512222 0
0.77531946 -0.11609259 -0.090841673 0
0.85595709 -0.025160637 -0.080125608 0
0.83880413 -0.044503357 -0.046613563 0
0.84556282 -0.036881831 -0.0178477 0
0.83403343 -0.049883094 0.013193624 0
0.83832222 -0.045046773 0.042216446 0
0.84227258 -0.0405921 0.071488917 0
0.84125352 -0.041741278 0.10100655 0
0.84617072 -0.036196318 0.13066126 0
0.83818752 -0.045198705 0.1597871 0
0.83836049 -0.045003619 0.18927552 0
0.83884609 -0.044456031 0.21891631 0
1.0982759 0.24809316 0.29435611 0
1.0971853 0.24686316 0.3332577 0
0.59199524 -0.28794244 -0.093984701 0
0.65570891 -0.21233502 -0.090402 0
0.73130751 -0.12262401 -0.085298546 0
0.84672558 0.014339719 -0.083476879 0
0.84110278 0.0076673361 -0.051402304 0
0.84016991 0.0065602991 -0.02058625 0
0.84391516 0.01100472 0.0095213894 0
0.84114838 0.0077213976 0.040271826 0
0.84364551 0.010684703 0.070566058 0
0.83963126 0.0059211585 0.10100755 0
0.84095305 0.0074896547 0.13135205 0
0.84014076 0.0065256688 0.16167068 0
0.83997858 0.006333265 0.19206704 0
0.83170289 -0.0034872557 0.22137485 0
0.84501958 0.012315307 0.25412929 0
1.0920209 0.30542555 0.33901194 0
0.56650501 -0.28275648 -0.091397382 0
0.63677895 -0.19496092 -0.090667821 0
0.71915865 -0.092041343 -0.087915592 0
0.84191173 0.061317954 -0.088149689 0
0.84535778 0.065623313 -0.056952659 0
0.83566743 0.053516779 -0.02370671 0
0.83842307 0.056959543 0.0072822813 0
0.84326994 0.063014895 0.038219754 0
0.83680755 0.054941211 0.069871753 0
0.83648014 0.054532204 0.10100856 0
0.83730638 0.055564437 0.13216406 0
0.83895487 0.057623897 0.1634763 0
0.84005982 0.05900434 0.19491866 0
0.83734167 0.055608544 0.22597468 0
0.84387738 0.063773781 0.25869465 0
1.1015222 0.3856577 0.34857732 0
1.1015354 0.38567427 0.39052659 0
0.54969692 -0.26713517 -0.091818489 0
0.61835921 -0.17677084 -0.091235794 0
0.70319349 -0.065122992 -0.089790545 0
0.73148859 -0.027884748 -0.068719365 0
0.72960824 -0.030359354 -0.039786015 0
0.72955066 -0.030435171 -0.011435201 0
0.73277324 -0.026194002 0.01640922 0
0.73529834 -0.022870805 0.044464428 0
0.72837615 -0.031980898 0.073016062 0
0.72525972 -0.036082353 0.10100457 0
0.72888952 -0.03130522 0.1290132 0
0.72956079 -0.03042182 0.15710378 0
0.73651779 -0.02126589 0.18603402 0
0.73298264 -0.025918391 0.21397516 0
0.72800606 -0.032467928 0.24148686 0
0.7277211 -0.03284296 0.26985496 0
0.72879148 -0.031434264 0.29875568 0
0.73228616 -0.026834991 0.32871616 0
0.52072501 -0.26819399 -0.087973632 0
0.59409988 -0.1663942 -0.09008839 0
0.68251145 -0.043732669 -0.09059421 0
0.7362538 0.030829106 -0.075750686 0
0.95409811 0.33306459 -0.089539282 0
0.84390897 0.18018904 -0.033589531 0
0.82747614 0.15739027 0.0021533167 0
0.84644097 0.1837019 0.033655372 0
0.84735286 0.18496707 0.067315489 0
0.84096241 0.176101 0.10101141 0
0.83915669 0.1735957 0.13438128 0
0.84359676 0.17975584 0.16814142 0
0.84240371 0.17810073 0.20165479 0
0.84294385 0.17884997 0.23545919 0
0.84309024 0.1790531 0.26937526 0
0.83977288 0.17445067 0.30265534 0
1.0974591 0.53196257 0.40927729 0
0.51112121 -0.24249235 -0.091273122 0
0.57641417 -0.14691058 -0.091178827 0
0.65789568 -0.027630415 -0.090436466 0
0.77190733 0.13927022 -0.091104634 0
0.92417902 0.36217955 -0.09031602 0
1.1547688 0.69973809 -0.08995717 0
0.84306264 0.24343398 -0.0033968443 0
0.84159207 0.2412813 0.031590689 0
0.83949351 0.23820916 0.066407107 0
0.84489346 0.24611405 0.10101311 0
0.84361374 0.24424067 0.13578886 0
0.84104216 0.24047628 0.17038994 0
0.83941859 0.23809949 0.20497128 0
0.84128141 0.2408264 0.24010852 0
0.83856869 0.2368553 0.27460444 0
0.83942258 0.23810533 0.30995315 0
1.0942208 0.61110228 0.41962269 0
1.1064622 0.62902242 0.47022757 0
0.49111518 -0.2314066 -0.090881251 0
0.55479479 -0.13294134 -0.091115691 0
0.63115263 -0.01487216 -0.089749388 0
0.73722625 0.14914528 -0.089562021 0
0.88738489 0.38132969 -0.089799233 0
1.1061047 0.71952754 -0.088980727 0
1.4791787 1.296397 -0.089325376 0
0.85419369 0.33000746 0.027825708 0
0.83763164 0.30439821 0.065149382 0
0.83809167 0.30510953 0.10101441 0
0.8426286 0.31212488 0.13709389 0
0.8403182 0.30855229 0.17301401 0
0.83584559 0.30163649 0.20853528 0
0.83744997 0.30411735 0.24483356 0
0.83618635 0.30216339 0.2808103 0
0.84058601 0.30896643 0.31834099 0
0.84092885 0.30949655 0.35526839 0
1.1000841 0.71021801 0.4823032 0
0.47496834 -0.21416029 -0.092157133 0
0.53296661 -0.11931458 -0.091099329 0
0.60925758 0.005445573 -0.090660192 0
0.71103966 0.17189184 -0.090308674 0
0.85466182 0.40676001 -0.090278931 0
1.0691729 0.75755411 -0.090149991 0
1.4255456 1.3403375 -0.089929439 0
0.85093063 0.40065828 0.025122182 0
0.84988415 0.39894703 0.063136719 0
0.83750206 0.37869838 0.10101617 0
0.84300029 0.38768974 0.13858949 0
0.83761305 0.37887982 0.17572194 0
0.84358382 0.38864401 0.21397707 0
0.83657706 0.37718561 0.25056738 0
0.83920604 0.3814849 0.28885019 0
0.83750618 0.37870505 0.32641065 0
0.83723009 0.37825349 0.36451429 0
1.1009161 0.80946451 0.49821639 0
0.44801429 -0.21499786 -0.089076765 0
0.5110817 -0.10576209 -0.091187797 0
0.58369875 0.020014081 -0.090572439 0
0.68352914 0.19292501 -0.09087456 0
0.82069701 0.43050626 -0.090636738 0
1.0239276 0.78251117 -0.08999493 0
1.3640136 1.371556 -0.089607902 0
1.3711259 1.3838751 -0.026603272 0
0.84640276 0.47502986 0.061657276 0
0.84209949 0.46757641 0.10101842 0
0.84269875 0.46861425 0.14020745 0
0.83843374 0.46122709 0.1790414 0
0.84412616 0.47108665 0.2189555 0
0.83555442 0.45623997 0.25686631 0
0.84397119 0.47081819 0.29811534 0
0.83856511 0.46145466 0.33648866 0
0.83869606 0.4616814 0.37642965 0
0.84063834 0.4650456 0.41737232 0
0.43519545 -0.19135961 -0.092127256 0
0.48686105 -0.096417993 -0.090491928 0
0.54801947 0.015967879 -0.087124445 0
0.6534797 0.20976344 -0.090873487 0
0.78529847 0.451996 -0.090804301 0
0.98000044 0.80978388 -0.090210296 0
1.2945882 1.387876 -0.088229455 0
1.2938761 1.3865674 -0.024953743 0
1.2927015 1.384409 0.03813817 0
0.84814733 0.56748825 0.10102099 0
0.84655952 0.56457037 0.14220244 0
0.83951324 0.55162209 0.18274157 0
0.8397631 0.55208117 0.22374967 0
0.83105952 0.53608733 0.26316646 0
0.8391934 0.55103439 0.3060244 0
0.84226197 0.55667323 0.34842086 0
0.84268069 0.55744261 0.39048412 0
0.83830136 0.54939514 0.43102035 0
0.4139235 -0.1826134 -0.091660269 0
0.46666318 -0.079588622 -0.091519065 0
0.52807975 0.040385995 -0.089143552 0
0.62144202 0.22276524 -0.090387262 0
0.75052768 0.47492865 -0.091277264 0
0.9316473 0.82873815 -0.089667685 0
1.24005 1.4311895 -0.089127235 0
1.2459167 1.4426501 -0.026220342 0
1.2428224 1.4366055 0.037606355 0
1.2427971 1.4365561 0.1010482 0
0.84894007 0.66717309 0.1443433 0
0.83867997 0.64713043 0.1866606 0
0.83624572 0.64237529 0.22922201 0
0.84106314 0.65178591 0.2731595 0
0.83927876 0.64830011 0.31608763 0
0.83876258 0.64729184 0.35945863 0
0.84376472 0.65706331 0.40505257 0
0.84506005 0.65959364 0.44997722 0
0.38983619 -0.17994913 -0.089892067 0
0.444956 -0.065227598 -0.09212523 0
0.50485033 0.059431229 -0.090250976 0
0.59331167 0.24354687 -0.091246717 0
0.71364039 0.49398866 -0.091356881 0
0.89360887 0.86855918 -0.09141963 0
1.1815038 1.4677584 -0.089598499 0
1.7817234 2.7170029 -0.090457521 0
4.499146 8.3728085 -0.14052382 0
0.8453595 0.76813728 0.19185214 0
0.83415109 0.74480897 0.23557772 0
0.83788019 0.75257045 0.28146049 0
0.83914888 0.75521106 0.32728067 0
0.84042442 0.75786585 0.37348998 0
0.84215224 0.76146191 0.42031202 0
0.84581774 0.76909095 0.46852332 0
0.3721467 -0.16404817 -0.091371424 0
0.41719258 -0.063895613 -0.090147562 0
