# .PCD v0.7 - Point Cloud Data file format
VERSION 0.7
FIELDS x y z intensity
SIZE 4 4 4 4
TYPE F F F F
COUNT 1 1 1 1
WIDTH 1366
HEIGHT 1
VIEWPOINT 0 0 0 1 0 0 0
POINTS 1366
DATA ascii
-0.47302619 -0.32093191 -0.05031921 0
-0.45367151 -0.31260037 -0.050063591 0
-0.49562928 0.32117027 0.039387632 0
-0.4343749 -0.30578554 -0.049870759 0
-0.48384744 0.32155007 0.039404538 0
-0.41464162 -0.30519879 -0.0499097 0
-0.47476649 0.35158473 0.038363632 0
-0.3946639 -0.30666125 -0.050031155 0
-0.46194008 0.33863145 0.038868509 0
-0.3745876 -0.30820227 -0.050164647 0
-0.44829264 0.32174098 0.039521448 0
-0.44269377 0.27388847 0.11208522 0
-0.44184422 0.26662755 0.18534444 0
-0.44295099 0.27608675 0.25728154 0
-0.44168347 0.26525354 0.33730188 0
-0.44075251 0.25729692 0.42162004 0
-0.355389 -0.30222464 -0.050036781 0
-0.43642861 0.32218432 0.039557613 0
-0.42942941 0.26825559 0.11286061 0
-0.42945525 0.26845479 0.18529101 0
-0.42933822 0.26755291 0.25986779 0
-0.42853966 0.26140016 0.33910975 0
-0.43040416 0.27576602 0.41455528 0
-0.42973152 0.27058333 0.50233191 0
-0.33440307 -0.30939674 -0.050391603 0
-0.4197835 0.28929645 0.040801227 0
-0.41963217 0.28823531 0.1108751 0
-0.41940713 0.28665739 0.1822827 0
-0.41961527 0.28811687 0.2550039 0
-0.4201805 0.29208028 0.32937112 0
-0.42054895 0.29466373 0.40735298 0
-0.4207122 0.29580855 0.49043494 0
-0.31716207 -0.29083335 -0.049826831 0
-0.40638605 0.28301781 0.04109345 0
-0.40601188 0.2806114 0.11190127 0
-0.40512219 0.27488935 0.18476169 0
-0.40630686 0.28250855 0.25691971 0
-0.40685952 0.28606302 0.33200452 0
-0.4064469 0.28340924 0.41282269 0
-0.4084518 0.29630399 0.49109405 0
-0.29762813 -0.28826535 -0.049847811 0
-0.39123774 0.26759547 0.04172343 0
-0.39194334 0.27178544 0.11307931 0
-0.39074317 0.26465869 0.18699762 0
-0.39054447 0.26347882 0.26235533 0
-0.39014694 0.26111829 0.34108576 0
-0.3909387 0.26581979 0.42103827 0
-0.39711857 0.30251634 0.48893213 0
-0.2787728 -0.28185582 -0.049738366 0
0.069718085 -2.2031698 0.13145095 0
-0.3841987 0.29938245 0.49159041 0
-0.25817862 -0.28477824 -0.049976684 0
0.11354532 -2.1967633 0.13151512 0
-0.37444675 0.313254 0.48567015 0
-0.23558713 -0.29648292 -0.050545283 0
0.15958275 -2.2007504 0.1319785 0
-0.36860052 0.34448969 0.47092402 0
-0.21823253 -0.28258193 -0.050189696 0
0.20549245 -2.2026091 0.13238652 0
-0.35878065 0.35428458 0.46716037 0
-0.20185117 -0.26560771 -0.049728386 0
0.24980213 -2.1963339 0.13251869 0
-0.34677368 0.35390657 0.46867636 0
-0.18233682 -0.26264751 -0.049788598 0
0.29858974 -2.2077515 0.13332243 0
-0.0066427975 -0.97324085 0.25260341 0
-0.0056797056 -0.97713614 0.42055911 0
-0.33648947 0.36082184 0.46651593 0
-0.16215818 -0.26205516 -0.049945414 0
0.34327373 -2.2011502 0.13348666 0
-0.32906067 0.37826818 0.45897001 0
-0.14175861 -0.26183844 -0.050126072 0
0.39097199 -2.2050786 0.13406204 0
-0.31949827 0.38650221 0.45622587 0
-0.12584089 -0.24557304 -0.049720705 0
-0.30381408 0.37296718 0.46486816 0
-0.1029096 -0.25355637 -0.05022544 0
-0.30452189 0.41532898 0.44443607 0
-0.085260637 -0.24358666 -0.050070934 0
-0.29236636 0.41346663 0.4471184 0
-0.068265624 -0.2319684 -0.049862165 0
-0.2847307 0.42577571 0.44242766 0
-0.045821704 -0.23667502 -0.050276719 0
-0.25920141 0.38521236 0.46573547 0
-0.02859644 -0.22589517 -0.050116729 0
-0.012682416 -0.21190095 -0.04984181 0
0.0056178779 -0.20462012 -0.049830101 0
0.02608498 -0.20276403 -0.050035801 0
0.045801364 -0.19871294 -0.050167665 0
0.065124892 -0.19350481 -0.050264906 0
0.07639309 -0.1700176 -0.049657892 0
-0.19156851 0.43217254 0.37857872 0
0.10083248 -0.17617071 -0.050217774 0
0.11633643 -0.16260529 -0.050013628 0
-0.15826778 0.41490549 0.39083782 0
-0.20413806 0.51137364 0.49387723 0
0.13369979 -0.15314603 -0.049979277 0
0.55757052 -1.0163763 0.46222314 0
-0.16250734 0.45009202 0.37695658 0
-0.19092022 0.50795603 0.4991129 0
0.15198441 -0.14555144 -0.05002806 0
0.58686167 -1.0037136 0.46253783 0
-0.15564616 0.46150929 0.37399462 0
-0.18850897 0.5263589 0.48998508 0
0.16698124 -0.13158572 -0.049829755 0
0.60982198 -0.9788332 0.46044308 0
-0.13737671 0.45071512 0.38143012 0
-0.17444895 0.52164215 0.49628824 0
0.19308306 -0.13851798 -0.050485231 0
0.64520139 -0.97760749 0.46323907 0
-0.12581752 0.45333171 0.3827168 0
-0.1692111 0.53386617 0.49134085 0
0.20736583 -0.12320269 -0.050250217 0
0.68207639 -0.97826076 0.46653387 0
-0.11138771 0.45094264 0.38645172 0
-0.16616465 0.54960793 0.48401719 0
0.21991463 -0.10518218 -0.049909625 0
0.72174913 -0.9828701 0.47077042 0
-0.081722178 0.42236823 0.4027887 0
-0.15353285 0.54796213 0.488545 0
0.23992033 -0.10029805 -0.050117217 0
0.75923175 -0.98258257 0.47411788 0
-0.061528154 0.41184795 0.41075224 0
-0.14535336 0.55426282 0.48774716 0
0.25339565 -0.084343322 -0.049874797 0
0.80346459 -0.99252725 0.47974762 0
-0.055103935 0.42500073 0.40744016 0
-0.13415287 0.55551338 0.49051583 0
0.26992878 -0.073614247 -0.049857378 0
0.84346455 -0.99418187 0.48377803 0
-0.12573867 0.56146157 0.49012208 0
0.28607085 -0.062291507 -0.049823448 0
0.87884063 -0.98756599 0.48617709 0
-0.11818496 0.56872499 0.48887315 0
0.31119964 -0.064652927 -0.050382853 0
0.91628927 -0.98347831 0.4892379 0
0.026360294 0.36787403 0.44545847 0
-0.11305708 0.57957852 0.48513174 0
0.32426581 -0.048480514 -0.050161663 0
0.95223254 -0.97639441 0.49177468 0
0.036625348 0.37655085 0.44483045 0
-0.1111987 0.59498268 0.47814575 0
0.34058908 -0.037260536 -0.050160993 0
0.99250764 -0.97491097 0.49566293 0
0.044024728 0.38928604 0.44221526 0
-0.10314763 0.60096312 0.47792193 0
0.3514097 -0.018330341 -0.049831051 0
0.055096231 0.39660907 0.44237721 0
-0.096211739 0.6084916 0.47664157 0
0.37019131 -0.010644918 -0.050001871 0
0.073824607 0.39351058 0.44796258 0
-0.089897998 0.61677915 0.47485498 0
0.3936294 -0.0089390334 -0.050452057 0
1.1308408 -0.98817611 0.10621177 0
1.1246731 -0.97998357 0.30655906 0
0.085987411 0.39970142 0.44890857 0
-0.0822284 0.6231423 0.47453865 0
0.39885208 0.016863102 -0.049832698 0
0.10621085 0.39555895 0.45535055 0
-0.082128592 0.63928181 0.46696404 0
0.41861716 0.023630375 -0.050077442 0
0.12597413 0.39263058 0.46134943 0
-0.067447372 0.63652027 0.47362083 0
0.43413058 0.035900708 -0.05008281 0
-0.062781908 0.64651644 0.47073209 0
0.44908306 0.048853632 -0.050065521 0
-0.056692936 0.6546188 0.46932116 0
0.46595702 0.059549328 -0.05016296 0
-0.046273448 0.65757567 0.47197238 0
0.47605106 0.078070395 -0.04989963 0
-0.04001788 0.66544473 0.4708783 0
0.49985048 0.081110351 -0.050383382 0
1.2068553 -0.70343447 0.10008784 0
-0.031964339 0.67125154 0.47148058 0
0.50924188 0.10024666 -0.050104767 0
1.2053034 -0.65286624 0.098716967 0
-0.026193181 0.67956769 0.47014487 0
0.52357656 0.11388659 -0.050098959 0
0.37873319 0.26669604 0.054582134 0
-0.02124838 0.68867558 0.46820527 0
0.53206128 0.13354337 -0.049802445 0
0.3813881 0.28854674 0.054084979 0
0.8453626 -0.18876183 0.22228453 0
-0.010665097 0.69186699 0.47118628 0
0.55277783 0.14063787 -0.050140794 0
0.39520183 0.29871053 0.054172356 0
0.83873826 -0.14622378 0.21852714 0
-0.0034485843 0.69861728 0.47133568 0
0.5661667 0.15523863 -0.05011354 0
0.40708545 0.31085235 0.054168701 0
0.73784345 -0.012696033 0.20072439 0
0.7476427 -0.022281652 0.33524731 0
0.7402615 -0.015061384 0.46913853 0
0.0002306911 0.70883882 0.4686197 0
0.57861584 0.17071342 -0.050049376 0
0.4205859 0.32145214 0.054252453 0
0.83866125 -0.077333815 0.21334371 0
0.19177987 0.53970128 0.3504571 0
0.014016411 0.70926291 0.47432533 0
0.59489208 0.18257117 -0.050182104 0
0.46757266 0.3009907 0.05597445 0
0.84722561 -0.05212355 0.21215603 0
0.18862815 0.56043619 0.34496385 0
0.011962554 0.72475243 0.46714017 0
0.59976274 0.20490313 -0.049770866 0
0.83311838 -0.0067234091 0.073017657 0
0.83924681 -0.012281066 0.20862806 0
0.1902317 0.57630014 0.34178665 0
0.020967266 0.72980332 0.46904713 0
0.62340266 0.21025634 -0.050272118 0
0.84213704 0.016852612 0.072696023 0
0.83650202 0.021835083 0.20596239 0
0.84455079 0.014718408 0.34350282 0
0.21022506 0.57558566 0.34690061 0
0.029378971 0.73548871 0.47051421 0
0.63482374 0.22661316 -0.050195225 0
0.84202546 0.048004266 0.071961574 0
0.84180564 0.048193809 0.2045287 0
0.83666617 0.052624103 0.33793554 0
0.23087706 0.57481706 0.3522447 0
0.038724147 0.74045372 0.47275269 0
0.64678639 0.24244821 -0.050154049 0
0.83491606 0.084364407 0.070926927 0
0.83496088 0.084326737 0.20145166 0
0.83769208 0.082031719 0.33463895 0
0.93341786 0.0015941807 0.5028125 0
0.26301691 0.56492639 0.36252049 0
0.27428892 0.55545461 0.45578358 0
0.046685301 0.74670798 0.47394419 0
0.64574879 0.26889735 -0.04952262 0
0.83403367 0.11468589 0.070211492 0
0.83913916 0.11050426 0.20000097 0
0.83791488 0.11150705 0.33127567 0
0.94143742 0.026718611 0.50029439 0
0.29381379 0.55714375 0.37205943 0
0.24884476 0.59397483 0.43749216 0
0.045397066 0.76060516 0.46809381 0
0.67134041 0.27352494 -0.050129224 0
0.85842115 0.12419557 0.070675075 0
0.84277421 0.13668501 0.19853565 0
0.84447473 0.1353277 0.32949451 0
0.98182863 0.025690669 0.5084728 0
0.26669648 0.59651518 0.35680798 0
0.24987592 0.60994148 0.43366757 0
0.056969427 0.76392108 0.47219419 0
0.6737569 0.2967242 -0.049684368 0
0.84947115 0.16005397 0.069631755 0
0.84196502 0.16589212 0.19652463 0
0.85142273 0.15853608 0.32788819 0
0.26149067 0.61738425 0.43553764 0
0.065244697 0.770024 0.47380897 0
0.68558747 0.3123998 -0.049678586 0
0.84917182 0.18843818 0.06900616 0
0.83529812 0.19895136 0.1937927 0
0.84068209 0.19487154 0.32236102 0
0.26093432 0.63419533 0.43111616 0
0.073584519 0.77616608 0.47551385 0
0.70190746 0.32476044 -0.049880866 0
0.84512275 0.21904624 0.068235911 0
0.84486574 0.2192359 0.19331042 0
0.84760362 0.21721506 0.32094714 0
0.2868534 0.63113195 0.44046971 0
0.074888013 0.7875939 0.47207373 0
0.71493357 0.33966839 -0.049943376 0
0.85639268 0.23797703 0.068163171 0
0.84114975 0.24893475 0.1911083 0
0.84152216 0.24866712 0.31672066 0
0.080990516 0.79539388 0.47227526 0
0.72779971 0.35474604 -0.05000658 0
0.84838456 0.27034307 0.067261413 0
0.83685678 0.27841187 0.1888991 0
0.83724135 0.27814275 0.31301522 0
0.83498746 0.27972031 0.43962014 0
0.097466908 0.79594505 0.48005602 0
0.7402671 0.37015301 -0.050060261 0
0.89098853 0.26745915 0.068571508 0
0.83788639 0.30364025 0.1874494 0
0.8364498 0.30461913 0.31018424 0
0.83990604 0.30226415 0.43738422 0
0.10326871 0.80417103 0.48011503 0
0.75680608 0.38290948 -0.050296251 0
0.91728753 0.27649951 0.069170706 0
0.84004885 0.32771391 0.18619896 0
0.840437 0.32745653 0.30848336 0
0.83576447 0.33055472 0.43248063 0
0.12243649 0.8035394 0.4897584 0
0.76174372 0.40335166 -0.050044302 0
0.94917697 0.28244048 0.070007429 0
0.84186965 0.35166329 0.18495388 0
0.83911711 0.35343897 0.3057192 0
0.83727151 0.35462952 0.42944032 0
0.1178188 0.81874067 0.48253191 0
0.77565938 0.41795498 -0.050183613 0
0.99249476 0.28191233 0.071322389 0
0.84329635 0.37551951 0.18370701 0
0.84043735 0.37731326 0.30360883 0
0.8400386 0.37756348 0.42689508 0
0.13842012 0.81775922 0.49315277 0
0.78048962 0.43821907 -0.049949639 0
1.0340559 0.28354645 0.072553545 0
0.84549862 0.39856428 0.18260528 0
0.83867604 0.40272599 0.30092737 0
0.83362907 0.40580457 0.42171356 0
0.13426812 0.83240718 0.48648828 0
0.78546685 0.45820785 -0.049734131 0
1.0736578 0.28735578 0.073695093 0
0.84027857 0.425713 0.18062083 0
0.83863288 0.42668867 0.29869345 0
0.84091455 0.425336 0.42073831 0
0.13673122 0.84280634 0.48456165 0
0.80307323 0.47075099 -0.050050903 0
0.84387785 0.44724947 0.17978702 0
0.83379275 0.453058 0.2955403 0
0.84432036 0.4469946 0.41870052 0
0.13579823 0.85506892 0.48041472 0
0.8090691 0.49004751 -0.049897 0
0.84780937 0.46837991 0.1790335 0
0.83971006 0.47290987 0.29470107 0
0.83807892 0.47382218 0.41393691 0
0.15429248 0.8562659 0.48960307 0
0.8319971 0.50003177 -0.050441887 0
0.85125858 0.48957497 0.17825879 0
0.84090132 0.49519783 0.2929492 0
0.83497566 0.49841475 0.4102152 0
0.83556825 0.52064919 -0.050207201 0
0.8576569 0.5090152 0.17787993 0
0.83071214 0.52320689 0.28894657 0
0.83393127 0.52151144 0.40720132 0
0.85011858 0.53547704 -0.050424594 0
0.84573036 0.53771812 0.1753218 0
0.83608526 0.54264408 0.28819275 0
0.8401832 0.54055119 0.40638065 0
0.85097557 0.53503937 0.53213125 0
0.849832 0.55782282 -0.050057076 0
0.85323137 0.55614036 0.17515264 0
0.83882147 0.56327242 0.28696239 0
0.84393722 0.56074035 0.40492246 0
0.84170514 0.56184518 0.52536941 0
0.86052018 0.57462376 -0.050137445 0
0.87543684 0.56747335 0.1767647 0
0.83139497 0.58858526 0.283759 0
0.84146172 0.58375967 0.40178263 0
0.84507173 0.58202922 0.52343553 0
0.8633756 0.59512484 -0.049917426 0
0.89919728 0.5785048 0.17856854 0
0.84006172 0.60594171 0.28383744 0
0.83821684 0.60679775 0.39852649 0
0.83969694 0.60611099 0.51840049 0
0.87789398 0.6102255 -0.050165161 0
0.93393964 0.58507484 0.18167225 0
0.85347205 0.62118489 0.28489643 0
0.84058398 0.62696844 0.39693946 0
0.84249979 0.62610871 0.5164867 0
0.87594885 0.63266039 -0.049778301 0
0.96815091 0.59267139 0.18470655 0
0.84593266 0.6456787 0.28186917 0
0.83745915 0.64935374 0.39390457 0
0.83530444 0.65028822 0.51104921 0
0.89587718 0.64564151 -0.050251078 0
1.0012523 0.60150719 0.18760677 0
0.8369444 0.67032439 0.27863503 0
0.84669548 0.66624033 0.39438298 0
0.83494383 0.67116231 0.50821567 0
0.90173215 0.66467291 -0.050185852 0
1.0287721 0.61333513 0.1898582 0
0.83611733 0.69118828 0.27706531 0
0.84051377 0.68941164 0.39067495 0
0.83651096 0.69102925 0.50618285 0
0.90276438 0.68553686 -0.049945373 0
1.0819796 0.61572665 0.19507855 0
0.85344046 0.70475012 0.27906722 0
0.85752755 0.70315808 0.39341623 0
0.8424055 0.70904863 0.50579453 0
0.27407596 0.93043166 0.45247301 0
0.90633768 0.70526987 -0.049812965 0
0.84140438 0.72962642 0.27543747 0
0.8371107 0.73123693 0.38599235 0
0.84002393 0.7301442 0.50254816 0
0.29287854 0.93537885 0.46037668 0
0.91548926 0.72289419 -0.04990232 0
0.85653692 0.74416447 0.27709344 0
0.84478158 0.74840587 0.38631654 0
0.84726709 0.74750906 0.50281483 0
0.26001599 0.95939177 0.44079652 0
0.92728573 0.73967177 -0.050099634 0
0.84227461 0.76913983 0.27316639 0
0.83993441 0.76995099 0.38331759 0
0.84640604 0.76770765 0.50030386 0
0.8451156 0.76815504 0.62059277 0
0.26102391 0.9706229 0.43939808 0
0.93290097 0.75865513 -0.050071523 0
0.85680395 0.78396451 0.27478784 0
0.83389407 0.79158419 0.38008347 0
0.83790976 0.79024857 0.49521574 0
0.83660299 0.79068321 0.61425591 0
0.29663864 0.97027171 0.45632797 0
0.93218797 0.77963758 -0.049815383 0
0.85929221 0.802867 0.27415904 0
0.83741552 0.80983841 0.3794958 0
0.82922369 0.81244886 0.49018106 0
0.83611947 0.81025141 0.61155707 0
0.30798849 0.978549 0.46044552 0
0.93911618 0.798105 -0.049855296 0
0.85757095 0.82296413 0.27278394 0
0.84365052 0.8272078 0.37969559 0
0.84004313 0.82830751 0.49204731 0
0.84320492 0.82734364 0.61225158 0
0.31576303 0.9881348 0.46273178 0
0.94610542 0.81658721 -0.049906 0
0.87354535 0.83771241 0.2747854 0
0.839773 0.84754497 0.37726569 0
0.82901114 0.85067815 0.48640436 0
0.8456977 0.84582001 0.61105603 0
0.33674398 0.9939974 0.47195476 0
0.95003539 0.83595884 -0.049851812 0
0.89358348 0.85162598 0.27757528 0
0.83799189 0.8670544 0.37546733 0
0.83583516 0.86765301 0.48704362 0
0.84306234 0.8656472 0.60776138 0
0.31693581 1.0116639 0.46000412 0
0.95603055 0.8547489 -0.049883086 0
0.92016083 0.86421913 0.2816084 0
0.84877902 0.8830651 0.37705624 0
0.83798867 0.88591391 0.4861474 0
0.83129698 0.88768065 0.60067499 0
0.32338104 1.0217789 0.4617942 0
0.96374136 0.87313503 -0.049986131 0
0.95196766 0.8760854 0.28663063 0
0.84080726 0.90394121 0.3737593 0
0.83683676 0.90493619 0.48419926 0
0.84258586 0.90349549 0.6035701 0
0.32270458 1.0337733 0.45997101 0
0.9678151 0.89246196 -0.049963921 0
0.97674507 0.89034331 0.29036266 0
0.84407479 0.92181939 0.37348837 0
0.83634835 0.92365247 0.48256585 0
0.83533329 0.92389333 0.59865141 0
0.32467797 1.0450466 0.45959365 0
0.97511083 0.91105431 -0.050068568 0
1.0085481 0.90356475 0.29541588 0
0.84810621 0.939502 0.3734768 0
0.83634216 0.942137 0.48118189 0
0.83546656 0.9423331 0.59698951 0
0.33445266 1.0545547 0.4632903 0
0.97682291 0.93090236 -0.049977772 0
1.038913 0.91781366 0.30022138 0
0.84018701 0.95970553 0.37040749 0
0.83023721 0.96180296 0.47780725 0
0.83866721 0.96002591 0.59672832 0
0.35309932 1.0623847 0.47157499 0
0.98088115 0.95022452 -0.049981691 0
1.0811957 0.93039387 0.30723891 0
0.84545785 0.97699577 0.37084234 0
0.83326989 0.97940511 0.47762397 0
0.8314181 0.9797712 0.5921517 0
0.36253306 1.0724629 0.47519064 0
0.98429722 0.96967131 -0.049971126 0
0.84996194 0.99447405 0.3711338 0
0.84603697 0.99519879 0.48080951 0
0.84341305 0.99568325 0.59579283 0
0.39091936 1.0792288 0.48850557 0
0.98805887 0.98905432 -0.049981985 0
0.84902483 1.0129185 0.37007317 0
0.83982819 1.0144969 0.47764987 0
0.84305257 1.0139436 0.59432 0
0.38509747 1.092548 0.484469 0
0.99226981 1.008377 -0.050017897 0
0.43950316 1.096105 0.042036425 0
0.42953178 1.0976875 0.11339311 0
0.4252142 1.0983727 0.1854324 0
0.42403015 1.0985606 0.25952992 0
0.44463977 1.0952897 0.34354755 0
0.44201949 1.0957056 0.42497748 0
0.38552001 1.1046724 0.48368901 0
1.0062882 1.0262983 -0.050416369 0
0.417375 1.1121756 0.041169044 0
0.42301932 1.1113524 0.11248012 0
0.40504852 1.113973 0.18141341 0
0.41129026 1.1130629 0.2557596 0
0.41123471 1.113071 0.33166981 0
0.39612094 1.1152749 0.40497035 0
0.40961024 1.1133078 0.49495485 0
1.0012889 1.0470353 -0.050137375 0
0.39686486 1.1274159 0.04036868 0
0.42651144 1.1234733 0.11267198 0
0.43508312 1.1223333 0.18657017 0
0.43516001 1.122323 0.26146513 0
0.4332287 1.1225799 0.33848038 0
0.43512544 1.1223277 0.42056209 0
0.42121342 1.1241778 0.49995402 0
1.0019007 1.066903 -0.050069965 0
0.37971774 1.1416852 0.039697364 0
0.4262931 1.1360872 0.11247845 0
0.42084172 1.1367425 0.18369567 0
0.42855611 1.1358153 0.2593613 0
0.42972669 1.1356745 0.33677736 0
0.43550906 1.1349795 0.42006183 0
1.0040525 1.0865605 -0.050066937 0
0.36453566 1.1552693 0.03910397 0
0.83913833 1.1042786 0.36435395 0
0.84414762 1.1037405 0.47497258 0
0.83822089 1.1043772 0.58716559 0
1.0023519 1.1065838 -0.049934637 0
0.34635708 1.1687186 0.03840996 0
0.84107274 1.1218599 0.36439395 0
0.84240335 1.1217339 0.47379321 0
0.83808106 1.1221433 0.58636826 0
0.99558562 1.1269323 -0.049630057 0
0.35606346 1.1793911 0.03872161 0
0.83756846 1.1398941 0.36309829 0
0.8308354 1.1404464 0.46941143 0
0.83283705 1.1402823 0.58354431 0
1.0046041 1.1459736 -0.049899805 0
0.36350098 1.1904433 0.038956605 0
0.84263986 1.1572081 0.3640551 0
0.84826726 1.1568178 0.47478339 0
0.83542353 1.1577086 0.58406758 0
1.0104665 1.1653876 -0.050065082 0
0.84921759 1.1745341 0.36545187 0
0.84160894 1.1749656 0.47219265 0
0.85087317 1.1744401 0.59001589 0
1.0027454 1.1855205 -0.049753588 0
0.84161276 1.1926262 0.36328167 0
0.83826512 1.1927739 0.47078329 0
0.84193391 1.1926121 0.58594054 0
1.0129478 1.2048723 -0.050091483 0
0.850483 1.2099881 0.36537591 0
0.83830231 1.2103717 0.47057456 0
0.84570879 1.2101384 0.58722836 0
1.0134784 1.2246482 -0.050092638 0
0.85657781 1.227612 0.36681718 0
0.85182244 1.2277019 0.47492608 0
0.8442201 1.2278454 0.58642757 0
1.0016034 1.2445062 -0.049659781 0
0.84998566 1.2454609 0.36507809 0
0.83990747 1.2455243 0.47088763 0
0.84072167 1.2455192 0.58488703 0
1.0181835 1.2642412 -0.050251726 0
0.84746331 1.2631664 0.36443454 0
0.83745474 1.2631034 0.47007161 0
0.8420276 1.2631322 0.5854277 0
1.0143597 1.2840116 -0.050124109 0
0.84565014 1.2808247 0.36402866 0
0.84818488 1.2808726 0.47371569 0
0.84005791 1.280719 0.58470398 0
1.0105 1.3036938 -0.050004046 0
0.85793811 1.2988898 0.36727887 0
0.8442151 1.2984576 0.47254267 0
0.84022027 1.2983319 0.58495474 0
1.0046117 1.323205 -0.049820282 0
0.84512657 1.3161719 0.36417904 0
0.83359629 1.3156633 0.46922851 0
0.83817095 1.3158652 0.58438104 0
1.0025672 1.3428074 -0.049782615 0
0.85825807 1.3346219 0.36776209 0
0.82820708 1.3329173 0.4677268 0
0.85095149 1.3342074 0.59004837 0
1.0003742 1.3623761 -0.049748428 0
1.3068365 1.3836337 0.072715819 0
1.2930738 1.3826791 0.20534773 0
1.2877991 1.3823133 0.33958012 0
0.84264427 1.3514353 0.36405623 0
0.84465581 1.3515749 0.47357896 0
0.83303243 1.3507686 0.58307523 0
1.0069132 1.38264 -0.050035823 0
1.235741 1.4014105 0.070232712 0
1.2370961 1.4015216 0.19950172 0
1.0138282 1.3832073 0.29032198 0
0.83990437 1.3689406 0.36369625 0
0.83964318 1.3689191 0.47235158 0
0.83200127 1.3682923 0.58319712 0
1.0005107 1.4018849 -0.04986861 0
1.2454824 1.4250882 0.070653565 0
1.2439957 1.4249474 0.20046197 0
0.89173514 1.3915819 0.26852065 0
0.85032612 1.3876597 0.36676532 0
0.83746964 1.3864419 0.47214442 0
0.8357963 1.3862834 0.58541805 0
1.0064108 1.4223361 -0.050151613 0
0.64111346 1.3830891 0.049034979 0
0.65080124 1.3841299 0.13659255 0
0.63262802 1.3821774 0.22185642 0
0.64035565 1.3830076 0.31334627 0
0.84439176 1.4049289 0.47505429 0
0.8438558 1.4048713 0.58951205 0
1.0102532 1.4427441 -0.05037031 0
0.55587441 1.3881308 0.04603165 0
0.55880374 1.3884828 0.12682177 0
0.54564136 1.3869008 0.20636514 0
0.55369681 1.387869 0.29151848 0
0.84359831 1.4227133 0.47546107 0
0.83329302 1.4214747 0.58594406 0
1.0026762 1.4617923 -0.050187338 0
0.55241317 1.4019132 0.04597085 0
0.56187958 1.4031721 0.12734798 0
0.55221313 1.4018866 0.20788039 0
0.55552036 1.4023265 0.29244328 0
0.83905846 1.4400333 0.47468624 0
0.84169704 1.4403841 0.59037936 0
0.9943617 1.4806057 -0.049986076 0
0.54898232 1.415659 0.045917287 0
0.54679769 1.4153404 0.12592319 0
0.55396932 1.4163862 0.20855513 0
0.54796356 1.4155104 0.29099813 0
0.84228903 1.4584299 0.47659585 0
0.84157354 1.4583256 0.59135437 0
0.98946363 1.4998208 -0.049916457 0
0.54516619 1.4293077 0.045855943 0
0.54800922 1.4297589 0.12628517 0
0.54851955 1.4298398 0.20794868 0
0.55024427 1.4301136 0.2921342 0
0.83833629 1.4758358 0.47616738 0
0.83788794 1.4757646 0.59093261 0
0.97523385 1.5173875 -0.049517419 0
0.54857975 1.4441556 0.046062574 0
0.55553931 1.4453502 0.12735668 0
0.5605877 1.4462167 0.21057743 0
0.55687076 1.4455787 0.29444528 0
0.84288162 1.4946703 0.47868055 0
0.84594637 1.4951963 0.59553564 0
0.97985095 1.5381509 -0.049809705 0
0.54828686 1.4584697 0.0461419 0
0.55537218 1.459778 0.12761091 0
0.56847161 1.4621965 0.21248269 0
0.55517668 1.4597418 0.29465345 0
0.83967215 1.5122691 0.47865614 0
0.83564276 1.5115253 0.59252125 0
0.96761209 1.5557954 -0.049498796 0
0.55429167 1.4740881 0.04645716 0
0.54975635 1.4731915 0.12728876 0
0.54789859 1.4728242 0.20919816 0
0.55846304 1.4749128 0.29620373 0
0.84571594 1.5316983 0.48184481 0
0.83852929 1.5302777 0.59515291 0
0.96457237 1.5751582 -0.0495308 0
0.54503518 1.4867189 0.046223611 0
0.55469567 1.4887553 0.12814356 0
0.54875451 1.4875029 0.20987915 0
0.55701858 1.4892451 0.29657438 0
0.84028417 1.5489581 0.48122329 0
0.84483677 1.5499177 0.59933889 0
0.97458893 1.597472 -0.050049476 0
0.54465693 1.5011718 0.046320021 0
0.55099446 1.5025914 0.12807074 0
0.54755062 1.50182 0.21021548 0
0.54966599 1.5022938 0.29544851 0
0.83396655 1.565974 0.48037195 0
0.83985215 1.5672923 0.59885031 0
0.96116298 1.6146029 -0.049719837 0
0.5423165 1.5152315 0.046351399 0
0.54901081 1.5168197 0.12820663 0
0.55051118 1.5171757 0.2113581 0
0.54854029 1.516708 0.29599506 0
0.84942192 1.5880923 0.48703608 0
0.83388191 1.5844054 0.59803379 0
0.96702832 1.6363318 -0.05010711 0
0.55542952 1.5331887 0.046958141 0
0.56007594 1.534353 0.12980846 0
0.55639309 1.5334302 0.21308337 0
0.54494232 1.5305607 0.29594073 0
0.84350199 1.6053772 0.4864853 0
0.84109098 1.604773 0.60293198 0
0.95888251 1.6546471 -0.049988393 0
0.55425197 1.5478181 0.047047574 0
0.5502407 1.546759 0.12911701 0
0.54242331 1.544695 0.2111496 0
0.56188244 1.5498326 0.30135164 0
0.84423643 1.6243787 0.48829719 0
0.83747071 1.6225924 0.60331875 0
0.95634609 1.6744357 -0.05008563 0
0.54997569 1.5616552 0.04702932 0
0.54339617 1.5598291 0.12877411 0
0.54922813 1.5614476 0.21312384 0
0.55168802 1.5621303 0.29966107 0
0.83850163 1.6417302 0.4879643 0
0.83651477 1.6411787 0.60494798 0
0.94525009 1.6918069 -0.049874194 0
0.54831332 1.5762423 0.047114663 0
0.55086607 1.5769855 0.13005055 0
0.54498297 1.5752727 0.2130693 0
0.54830283 1.5762392 0.29981476 0
0.83795041 1.6605675 0.48950186 0
0.84549755 1.6627648 0.61096972 0
0.9499976 1.7138554 -0.050261427 0
0.85393566 1.6845708 0.38243887 0
0.83410627 1.6785258 0.48998243 0
0.83412594 1.6785318 0.60832173 0
0.94011956 1.7315331 -0.050112579 0
0.84891897 1.7024705 0.38257614 0
0.84721178 1.7019265 0.49646214 0
0.84156126 1.7001258 0.61392176 0
0.93266815 1.7499106 -0.050062764 0
0.84047168 1.7192466 0.38185203 0
0.84816819 1.7218064 0.4988125 0
0.8411333 1.7194667 0.61623263 0
0.91840929 1.7658944 -0.049764235 0
0.84255606 1.7396009 0.38402548 0
0.84422976 1.7401811 0.49953756 0
0.83165115 1.7358209 0.61469257 0
0.919514 1.787201 -0.050055075 0
0.84593755 1.7606543 0.38663003 0
0.83093399 1.755241 0.49703804 0
0.83835834 1.7579198 0.62036186 0
0.91614169 1.8070507 -0.050186791 0
0.84053534 1.7786907 0.38692552 0
0.83119565 1.7751875 0.49941126 0
0.83620328 1.7770659 0.62226176 0
0.91335016 1.8272297 -0.05035096 0
0.8420704 1.799464 0.38918397 0
0.83020598 1.7948424 0.5014388 0
0.82626134 1.7933059 0.6208179 0
0.90387338 1.8448355 -0.050268304 0
0.83655876 1.8176333 0.38958663 0
0.82563537 1.813219 0.50228035 0
0.82961887 1.8148288 0.62539685 0
0.89654201 1.8632801 -0.050276812 0
0.83389384 1.837041 0.39084196 0
0.819282 1.8309212 0.50256652 0
0.82413131 1.8329523 0.62615091 0
0.88788468 1.8811594 -0.050242778 0
0.83383316 1.8577168 0.39289618 0
0.83143026 1.8566747 0.50964427 0
0.81744689 1.8506099 0.6264717 0
0.8814202 1.9000001 -0.05030315 0
0.82763118 1.875862 0.39331725 0
0.82772702 1.875905 0.5110997 0
0.83595079 1.8795955 0.63832569 0
0.86710137 1.9152468 -0.050064061 0
0.82985693 1.8979667 0.39617527 0
0.81715351 1.8920727 0.51013249 0
0.82267195 1.8946331 0.63590872 0
0.85162777 1.9297566 -0.049785387 0
0.83054012 1.9196481 0.39869261 0
0.8259775 1.9174609 0.51639086 0
0.81084377 1.9102064 0.63422984 0
0.85359961 1.952685 -0.050207157 0
0.81735843 1.9347478 0.39735624 0
0.81328541 1.932732 0.51481968 0
0.82152611 1.9368106 0.64303005 0
0.83880383 1.9673874 -0.049971011 0
0.80970079 1.9525241 0.39764807 0
0.80155045 1.9483616 0.5136674 0
0.80314296 1.9491749 0.63852948 0
0.83597726 1.9882094 -0.050223708 0
0.81547767 1.9774123 0.40188012 0
0.80402941 1.9713826 0.51792604 0
0.79900211 1.9687347 0.6407364 0
0.82327861 2.0038781 -0.050087713 0
0.78993756 1.9857777 0.39714044 0
0.78812116 1.9847916 0.51536256 0
0.79241353 1.9871219 0.64192092 0
0.80790728 2.0179458 -0.049849477 0
0.78372699 2.0044217 0.39804846 0
0.791004 2.0084918 0.52000821 0
0.78546244 2.0053923 0.64305133 0
0.80463904 2.038794 -0.050115418 0
0.77484399 2.0216334 0.3982451 0
0.7849527 2.0274556 0.52137172 0
0.79078144 2.0308127 0.65016204 0
0.79045743 2.0533938 -0.049941257 0
0.77545267 2.0444984 0.40132251 0
0.77629596 2.0449984 0.52182978 0
0.77921706 2.0467303 0.64935315 0
0.7835483 2.0722899 -0.05007755 0
0.77068132 2.0644412 0.40290153 0
0.76620442 2.0617101 0.52181798 0
0.77421194 2.0665948 0.65181601 0
0.77907294 2.0928297 -0.05032748 0
0.76822764 2.0860255 0.40526643 0
0.77216035 2.0884929 0.52819115 0
0.76841491 2.086143 0.65403312 0
0.76063806 2.1045783 -0.049997326 0
0.75906748 2.103565 0.40569669 0
0.75493282 2.1008978 0.52557069 0
0.75074738 2.0981979 0.65054047 0
0.75377685 2.1237249 -0.050166488 0
0.74910313 2.120626 0.40595171 0
0.75026888 2.1213989 0.52800548 0
0.75465328 2.1243062 0.65781093 0
0.73598963 2.1355758 -0.049875472 0
0.72959036 2.1312156 0.40332711 0
0.74010986 2.1383829 0.52835262 0
0.74431115 2.1412456 0.65816963 0
0.72974902 2.1552615 -0.050091527 0
0.7303074 2.1556523 0.40702063 0
0.72667402 2.1531093 0.52745855 0
0.72576481 2.1524727 0.65449262 0
0.72525102 2.1763916 -0.050397024 0
0.7200411 2.1726465 0.40739286 0
0.72399753 2.1754906 0.53104055 0
0.72938424 2.179363 0.66215658 0
0.7112053 2.1907458 -0.050293449 0
0.71279258 2.1919177 0.40879306 0
0.72456843 2.2006099 0.53611481 0
0.7132377 2.1922462 0.65989381 0
0.69630879 2.2043676 -0.050158836 0
0.69464082 2.2031038 0.40679377 0
0.70194739 2.2086406 0.53168821 0
0.69707352 2.2049472 0.65768403 0
0.67599469 2.2136595 -0.049785584 0
0.69008511 2.2246189 0.40921468 0
0.69364458 2.2273874 0.53329533 0
0.69536597 2.2287264 0.66311884 0
0.66625351 2.2310576 -0.049896851 0
0.67963725 2.2417407 0.40982455 0
0.68839663 2.2487326 0.53631914 0
0.67865747 2.2409587 0.66081953 0
0.64542872 2.2394836 -0.049507849 0
0.67861432 2.2666638 0.4136197 0
0.67653745 2.2649627 0.53664613 0
0.67445391 2.2632561 0.66527086 0
0.64464933 2.2643991 -0.050054394 0
0.66223484 2.2791762 0.4124417 0
0.66346103 2.2802064 0.53653598 0
0.65692216 2.2747118 0.66271269 0
0.62524885 2.2737763 -0.049743917 0
0.71879584 2.3544142 0.066153206 0
0.71577471 2.35181 0.18664669 0
0.72238499 2.3575082 0.31072465 0
0.65627807 2.3005238 0.41481438 0
0.64708596 2.2925999 0.53505963 0
0.64815897 2.293525 0.66499817 0
0.61923057 2.2946978 -0.050073296 0
0.68390852 2.3518858 0.065155558 0
0.68505889 2.3529029 0.1842372 0
0.68680996 2.3544512 0.30552879 0
0.631473 2.3055224 0.41088569 0
0.63223726 2.3061984 0.53431356 0
0.63070267 2.3048413 0.66263497 0
0.60271901 2.306421 -0.049913347 0
0.65930682 2.3577394 0.064640649 0
0.66151041 2.3597379 0.18284188 0
0.66553146 2.3633845 0.30374467 0
0.62232369 2.3242002 0.41232571 0
0.62058085 2.3226197 0.53506911 0
0.62742656 2.3288279 0.66824973 0
0.59714836 2.3281705 -0.050292112 0
0.64681095 2.3743615 0.064713486 0
0.63980299 2.3678434 0.1817129 0
0.64116102 2.3691065 0.30120561 0
0.60561019 2.3360407 0.41122854 0
0.60759634 2.337888 0.53532356 0
0.61220282 2.3421726 0.66734481 0
0.57879657 2.3381021 -0.050058287 0
0.61588019 2.3734746 0.063887931 0
0.6272611 2.3843305 0.18194661 0
0.62809449 2.3851254 0.30147102 0
0.59912008 2.3574879 0.41377497 0
0.59274787 2.3514097 0.53481197 0
0.59565502 2.3541827 0.66576684 0
0.5655008 2.3527532 -0.050080281 0
0.60798329 2.3943095 0.064201944 0
0.60323209 2.389662 0.1804873 0
0.61772925 2.4038432 0.30247185 0
0.58218533 2.3690741 0.4127211 0
0.58869761 2.3754442 0.53939831 0
0.5822565 2.3691435 0.66608047 0
0.55675071 2.3719904 -0.050341696 0
0.60727197 2.4226711 0.064896502 0
0.59745008 2.4128182 0.18179724 0
0.60002643 2.4154027 0.30167079 0
0.57613331 2.3914344 0.41563904 0
0.57523566 2.3905337 0.53974944 0
0.57395452 2.3892486 0.66949677 0
0.53604251 2.3791952 -0.050006356 0
0.59736365 2.4422789 0.065147221 0
0.59606522 2.440943 0.18384689 0
0.59074849 2.4354734 0.30307657 0
0.55332094 2.3969705 0.41256258 0
0.55758673 2.4013588 0.53819686 0
0.56202751 2.4059272 0.67095375 0
0.52701145 2.3983803 -0.050277214 0
0.61144072 2.487453 0.066658773 0
0.62363404 2.5003169 0.19050205 0
0.615022 2.4912312 0.31336284 0
0.54471058 2.4170527 0.41473767 0
0.54572052 2.4181182 0.53948557 0
0.54438108 2.4167051 0.66911352 0
0.5045175 2.4032848 -0.049856268 0
0.52898687 2.4297597 0.41436327 0
0.53343529 2.4345729 0.54068935 0
0.54062313 2.4423499 0.67580235 0
0.49128684 2.4180298 -0.04992668 0
0.52021676 2.4501326 0.41669422 0
0.52094024 2.4509354 0.54190803 0
0.51504773 2.4443967 0.66929001 0
0.48184893 2.4371717 -0.050213233 0
0.50047296 2.4583688 0.41491544 0
0.50281721 2.4610372 0.54041058 0
0.5048371 2.463336 0.67233795 0
0.46315166 2.4458187 -0.050009005 0
0.4871771 2.4738684 0.41567963 0
0.49137983 2.4787748 0.54237479 0
0.48910877 2.4761233 0.67206985 0
0.44735071 2.4577148 -0.049969025 0
0.47640917 2.4925179 0.41753882 0
0.47047135 2.4854062 0.53956753 0
0.4714112 2.486532 0.67062885 0
0.4208872 2.4564688 -0.049333744 0
0.45419356 2.4973962 0.41489398 0
0.45295736 2.4958773 0.53854942 0
0.4536117 2.4966812 0.66918379 0
0.42225751 2.4896028 -0.050286599 0
0.44145653 2.5138113 0.41612369 0
0.44304618 2.515816 0.54165566 0
0.4401345 2.5121443 0.67068017 0
0.39365658 2.4850566 -0.049529348 0
0.42279854 2.5227683 0.41498867 0
0.42153487 2.5211329 0.53863686 0
0.42905703 2.5308671 0.67395687 0
0.38752577 2.5094748 -0.05008975 0
0.40880129 2.537735 0.41585898 0
0.40989015 2.5391812 0.54106164 0
0.40640977 2.5345583 0.66948521 0
0.37043419 2.5196192 -0.050016537 0
0.39723143 2.5561626 0.41787228 0
0.38866207 2.5444765 0.53826356 0
0.39112875 2.5478404 0.6701259 0
0.35485509 2.5317981 -0.050042711 0
0.38102093 2.5684392 0.41798508 0
0.37647256 2.5620701 0.54062796 0
0.37797776 2.5641778 0.67241371 0
0.33899632 2.5436127 -0.050061382 0
0.35607037 2.5681703 0.41426221 0
0.36217663 2.5769529 0.54193586 0
0.35700539 2.569515 0.66921842 0
0.32231048 2.5542343 -0.050037108 0
0.34261408 2.5842359 0.41570026 0
0.34198961 2.5833132 0.53988171 0
0.34280214 2.5845139 0.67101288 0
0.31271133 2.5755916 -0.050480977 0
0.31949195 2.5858879 0.41277525 0
0.32120267 2.5884855 0.5374729 0
0.32490072 2.594101 0.67019886 0
0.28537843 2.5698538 -0.04977762 0
0.31253639 2.6122456 0.4174481 0
0.30884662 2.6064861 0.5402559 0
0.30449048 2.5996864 0.66753483 0
0.27619472 2.5923145 -0.050280422 0
0.28783533 2.6109986 0.41381297 0
0.28069422 2.5995367 0.53329843 0
0.28708217 2.6097896 0.66722149 0
0.25607029 2.5974023 -0.050059117 0
0.26999536 2.6203933 0.41347283 0
0.26905444 2.6188397 0.53674352 0
0.27152327 2.6229157 0.66848028 0
0.23994227 2.6089785 -0.050118767 0
0.25338438 2.6318159 0.41380233 0
0.24951555 2.6252429 0.53523993 0
0.25407895 2.6329958 0.66836077 0
0.22010292 2.6141546 -0.04992317 0
0.23401321 2.638483 0.41279352 0
0.23130049 2.6337388 0.53464371 0
0.23080809 2.6328773 0.66348326 0
0.20401688 2.6258135 -0.050003897 0
0.21503659 2.6456623 0.41201267 0
0.21690674 2.6490309 0.53672552 0
0.21743812 2.6499879 0.66693807 0
0.18420555 2.6306853 -0.049817074 0
0.20030285 2.6605604 0.41354352 0
0.19562103 2.6518712 0.5341562 0
0.19910325 2.658334 0.66632682 0
0.17222543 2.6502621 -0.050233934 0
0.1813487 2.6677167 0.41288927 0
0.181462 2.6679335 0.53666824 0
0.17880787 2.6628556 0.66404116 0
0.14893754 2.6481822 -0.049787421 0
0.16726072 2.68434 0.4150154 0
0.16028966 2.6705837 0.53422856 0
0.16007961 2.6701691 0.66318494 0
0.13137861 2.6570618 -0.049791262 0
0.14359994 2.6819513 0.41177523 0
0.14159514 2.6778684 0.53362083 0
0.14483048 2.6844573 0.66566014 0
0.11546399 2.6694136 -0.049941096 0
0.12638612 2.6923835 0.41226083 0
0.12149193 2.6820905 0.53197551 0
0.12073686 2.6805027 0.65984547 0
0.098076008 2.6788235 -0.04998235 0
0.10613515 2.6963375 0.41098529 0
0.10352948 2.690675 0.53203022 0
0.1003144 2.6836879 0.65745705 0
0.078129314 2.6825624 -0.049810361 0
0.083329521 2.6942489 0.40810084 0
0.085257195 2.698581 0.53192019 0
0.083001457 2.6935117 0.6582073 0
0.062940024 2.6970665 -0.050067436 0
0.062475286 2.6959856 0.40637439 0
0.066455267 2.7052419 0.53144348 0
0.062249444 2.6954603 0.65550286 0
0.039724313 2.6927173 -0.049601804 0
0.047485374 2.7114124 0.40851143 0
0.041524671 2.6970541 0.52570581 0
0.044892333 2.7051663 0.65640754 0
0.029254457 2.719322 -0.050340187 0
0.02768161 2.7153943 0.40754426 0
0.02769663 2.7154317 0.5296303 0
0.026700219 2.7129436 0.6565451 0
0.0078816628 2.7191291 -0.05005458 0
0.0051154108 2.7119613 0.40462247 0
0.011087797 2.7274373 0.5313257 0
0.0067154975 2.7161076 0.65473664 0
-0.011327305 2.7241917 -0.049980726 0
-0.011660078 2.7232959 0.40581116 0
-0.015292325 2.7135191 0.52388698 0
-0.012507894 2.7210138 0.65381759 0
-0.030393997 2.7295067 -0.049925976 0
-0.030138532 2.7302217 0.40585738 0
-0.032246865 2.7243202 0.52533221 0
-0.031933464 2.7251976 0.6526916 0
-0.049675561 2.734086 -0.049852774 0
-0.050817885 2.7307568 0.40424255 0
-0.051242389 2.7295196 0.52487624 0
-0.054399885 2.7203171 0.64771026 0
-0.064193316 2.7529855 -0.050327238 0
-0.072636135 2.7273314 0.40164068 0
-0.072482921 2.727797 0.52208161 0
-0.072894879 2.7265453 0.64771491 0
-0.082022019 2.7625043 -0.050455544 0
-0.092269666 2.7299933 0.40075117 0
-0.092606671 2.728924 0.52038562 0
-0.092729039 2.7285359 0.64598143 0
-0.10340691 2.7605495 -0.050163914 0
-0.11120502 2.734678 0.40047005 0
-0.11140443 2.7340164 0.52016217 0
-0.11434702 2.7242539 0.64165008 0
-0.1241144 2.7602165 -0.049943615 0
-0.10810665 2.815851 0.064010419 0
-0.10446072 2.8285222 0.18204206 0
-0.1052377 2.8258219 0.30091676 0
-0.12625499 2.7527771 0.40381464 0
-0.12909897 2.7428927 0.52133161 0
-0.13113199 2.7358272 0.644283 0
-0.14212926 2.7691295 -0.050076023 0
-0.13676746 2.7886877 0.062800035 0
-0.13741411 2.786329 0.17671865 0
-0.13611175 2.7910795 0.29337844 0
-0.15025248 2.7394986 0.39889717 0
-0.14933191 2.7428565 0.51949936 0
-0.15044229 2.7388062 0.6433081 0
-0.1606683 2.7764142 -0.050156299 0
-0.15562777 2.7957523 0.062869757 0
-0.15686287 2.7910137 0.17666513 0
-0.15895696 2.7829797 0.29090291 0
-0.16932099 2.7432179 0.39855722 0
-0.17081486 2.7374868 0.5159272 0
-0.1716191 2.7344012 0.63928127 0
-0.17989229 2.7811775 -0.050152197 0
-0.17916985 2.7840993 0.062259659 0
-0.17747022 2.7909734 0.17611583 0
-0.17703815 2.792721 0.29180312 0
-0.19033872 2.7389271 0.39617628 0
-0.18830802 2.7471402 0.51760763 0
-0.19055043 2.7380707 0.63882458 0
-0.20044638 2.780256 -0.049948569 0
-0.19862269 2.7880518 0.062234409 0
-0.19804408 2.7905254 0.17555182 0
-0.1975875 2.7924771 0.29089347 0
-0.20914604 2.7430668 0.39608079 0
-0.21049137 2.7373157 0.51270342 0
-0.20956402 2.7412801 0.63827509 0
-0.21789815 2.7927401 -0.050245095 0
-0.21711124 2.7963059 0.06237546 0
-0.22042431 2.7812934 0.17405121 0
-0.21687786 2.7973635 0.29098168 0
-0.22900666 2.742404 0.39479277 0
-0.23053892 2.735461 0.51062334 0
-0.22771333 2.7482646 0.63942951 0
-0.23775308 2.7946887 -0.050164714 0
-0.23464702 2.8096561 0.062710464 0
-0.23541684 2.8059466 0.1763047 0
-0.23649181 2.8007665 0.29084125 0
-0.24877448 2.7415781 0.39353085 0
-0.25144932 2.7286882 0.50696361 0
-0.24977262 2.736768 0.63286281 0
-0.25884834 2.7899766 -0.049851399 0
-0.25277695 2.8212051 0.062987179 0
-0.25236794 2.8233089 0.17777514 0
-0.25205013 2.8249435 0.29456335 0
-0.26860872 2.7397735 0.39208245 0
-0.26887813 2.7383878 0.50898492 0
-0.26913127 2.7370856 0.63141251 0
-0.27783662 2.7956603 -0.049925644 0
-0.26929322 2.8427622 0.063634679 0
-0.26745096 2.8529189 0.18060333 0
-0.26579416 2.8620532 0.30068332 0
-0.28724006 2.7438171 0.39221856 0
-0.29026002 2.7271671 0.50400233 0
-0.28939912 2.7319136 0.62775826 0
-0.29724914 2.799159 -0.049929295 0
-0.3043246 2.7571442 0.39481711 0
-0.30869675 2.7311821 0.50426149 0
-0.30827165 2.7337065 0.62714338 0
-0.31844658 2.7912149 -0.049528342 0
-0.326121 2.7418563 0.39007777 0
-0.33006287 2.7165039 0.49830452 0
-0.32856447 2.726141 0.62270808 0
-0.33642235 2.8038802 -0.049880978 0
-0.34628871 2.7346969 0.38751256 0
-0.34612012 2.7358789 0.50389266 0
-0.34864649 2.718164 0.61821556 0
-0.35688907 2.79931 -0.049620688 0
-0.36550456 2.7329276 0.38640365 0
-0.36669177 2.7237802 0.49898061 0
-0.3667343 2.7234526 0.61937463 0
-0.37450984 2.8175101 -0.050188545 0
-0.38505426 2.7273889 0.38439035 0
-0.3859708 2.7195554 0.49680009 0
-0.38527298 2.7255194 0.61928403 0
-0.39484301 2.8135862 -0.049969483 0
-0.40379316 2.7277393 0.38395357 0
-0.40521199 2.7141304 0.49430227 0
-0.40527153 2.7135592 0.61345154 0
-0.41363251 2.8248646 -0.050304871 0
-0.42401776 2.7114201 0.37930694 0
-0.42416671 2.7097931 0.49225166 0
-0.42291883 2.7234244 0.61680478 0
-0.43314716 2.8299971 -0.050428301 0
-0.44201523 2.7175457 0.38047445 0
-0.4424915 2.7115064 0.49230212 0
-0.44266266 2.709336 0.61029863 0
-0.4545252 2.8083487 -0.049602222 0
-0.46076599 2.7140815 0.37924677 0
-0.46158388 2.7017274 0.48859763 0
-0.46083269 2.713074 0.61129808 0
-0.47307777 2.8286123 -0.050284792 0
-0.47955436 2.707705 0.37733629 0
-0.480344 2.6929636 0.48531407 0
-0.48007339 2.698015 0.60459799 0
-0.49327987 2.820435 -0.049959123 0
-0.49827102 2.6985416 0.37477556 0
-0.49862167 2.6899779 0.48403481 0
-0.49836513 2.6962426 0.6035074 0
-0.51314116 2.8162858 -0.04978653 0
-0.51676571 2.68839 0.3720237 0
-0.51681769 2.6865566 0.48268756 0
-0.51688683 2.6841171 0.5982244 0
-0.53286493 2.8133383 -0.049665809 0
-0.534742 2.6940992 0.37337887 0
-0.53482711 2.6886911 0.48326555 0
-0.53511494 2.6704071 0.59238291 0
-0.55246294 2.8242695 -0.050049443 0
-0.55290651 2.6834214 0.37061095 0
-0.55292094 2.678839 0.479931 0
-0.55291432 2.6809423 0.59667516 0
-0.572321 2.8337481 -0.050390076 0
-0.57090729 2.6840351 0.37078196 0
-0.57080621 2.6733327 0.47811782 0
-0.57083631 2.6765175 0.59486645 0
-0.59193087 2.8209205 -0.049943183 0
-0.58871371 2.6749344 0.36853185 0
-0.58865184 2.6721251 0.47780952 0
-0.58839881 2.6606443 0.58840954 0
-0.61155295 2.8174582 -0.049839463 0
-0.60634607 2.667141 0.36667168 0
-0.60603285 2.6580989 0.47330871 0
-0.60607445 2.6592994 0.5880602 0
-0.63139033 2.8200362 -0.049960397 0
-0.6233139 2.6491144 0.36225337 0
-0.62362128 2.6556196 0.4727239 0
-0.6229887 2.6422317 0.58128589 0
-0.65128779 2.8221385 -0.050073348 0
-0.64038688 2.6400919 0.36018768 0
-0.64021242 2.6371779 0.46689233 0
-0.64058757 2.6434436 0.58217663 0
-0.64028561 2.6384006 0.69975078 0
-0.6710912 2.821799 -0.05010796 0
-0.65722692 2.6306381 0.35806474 0
-0.65768152 2.6369066 0.46718618 0
-0.65733713 2.6321578 0.57797217 0
-0.65718055 2.6299992 0.69611466 0
-0.69035369 2.814786 -0.049912412 0
-0.67368531 2.6191404 0.46171224 0
-0.6741665 2.6247885 0.5754782 0
-0.67450839 2.6288013 0.69619888 0
-0.70963126 2.8093104 -0.049780484 0
-0.69075239 2.6164606 0.46134198 0
-0.69055134 2.6144071 0.57181615 0
-0.69068885 2.6158113 0.69046438 0
-0.72957474 2.8106728 -0.049902692 0
-0.70510644 2.5894856 0.56217808 0
-0.70718467 2.6082723 0.68756843 0
-0.74967992 2.8126163 -0.05005502 0
-0.72367823 2.6018829 0.56816995 0
-0.72276247 2.594461 0.68161052 0
-0.76896983 2.8077538 -0.049971502 0
-0.7386288 2.58497 0.6779229 0
-0.78999078 2.8148847 -0.050329491 0
-0.75431395 2.5755043 0.67434216 0
-0.80796158 2.8015807 -0.049958721 0
-0.82857853 2.8049071 -0.050198067 0
-0.84859771 2.804121 -0.050298002 0
-0.86708641 2.7953451 -0.05011642 0
-0.88618159 2.789999 -0.050068054 0
-0.90476424 2.7825379 -0.049950905 0
-0.92662072 2.7890246 -0.050354145 0
-0.94286931 2.7722592 -0.049912326 0
-0.96166897 2.7662292 -0.049873285 0
-0.98241431 2.7672155 -0.050103065 0
-1.0014367 2.7617676 -0.05010394 0
-1.0176768 2.7472823 -0.049776115 0
-1.0390586 2.7495022 -0.050081182 0
-1.0594623 2.7481267 -0.050262257 0
-1.074384 2.7306993 -0.049846634 0
-1.0923696 2.7225285 -0.04978795 0
-1.1136676 2.7232125 -0.050075654 0
-1.129864 2.7103574 -0.049855661 0
-1.1484975 2.7038817 -0.049888343 0
-1.1708015 2.7060256 -0.05026434 0
-1.1852051 2.6894398 -0.04992348 0
-1.202253 2.6792731 -0.049839295 0
-1.2251405 2.6817219 -0.050260294 0
-1.2438684 2.6748736 -0.050326601 0
-1.2569034 2.6565018 -0.049942955 0
-1.2799903 2.6582444 -0.050371036 0
-1.2919381 2.6383474 -0.04993907 0
-1.3100902 2.6304219 -0.049997382 0
-1.3240223 2.6149168 -0.049754836 0
-1.3452411 2.6123061 -0.050049942 0
-1.3646303 2.6062195 -0.050213806 0
-1.3765846 2.5878034 -0.049872525 0
-1.3929701 2.5768454 -0.049849812 0
-1.4043214 2.558161 -0.049506735 0
-1.4198453 2.5461569 -0.049453635 0
-1.4411519 2.5426433 -0.049776085 0
-1.4615698 2.5374687 -0.050040528 0
-1.4828641 2.5331814 -0.050357781 0
-1.4915093 2.5114896 -0.049915776 0
-1.4987857 2.4885125 -0.049416654 0
-1.5244924 2.4896436 -0.050009787 0
-1.542398 2.480391 -0.050148193 0
-1.5564318 2.4662833 -0.05007378 0
-1.5687408 2.4502125 -0.049915008 0
-1.5799782 2.4330723 -0.049711235 0
-1.596216 2.4217632 -0.04979055 0
-1.6119111 2.4097719 -0.049847644 0
-1.6306998 2.4010224 -0.050073531 0
-1.6468565 2.3892963 -0.050166517 0
-1.6581271 2.3725085 -0.050017208 0
-1.6752048 2.3616171 -0.050172269 0
-1.6854922 2.3440101 -0.049995255 0
-1.6977051 2.3283839 -0.0499257 0
-1.7171918 2.3195007 -0.05021913 0
-1.7246157 2.2995334 -0.04993657 0
-1.7345519 2.2820199 -0.049788147 0
-1.7547038 2.273334 -0.050130628 0
-1.7601066 2.2520945 -0.049790468 0
-1.7738295 2.2378867 -0.049848095 0
-1.2320075 1.7997847 0.52048939 0
-1.7876159 2.2236733 -0.049916204 0
-1.2284926 1.7831081 0.51269031 0
-1.7990574 2.2075951 -0.049886215 0
-1.2292221 1.7701056 0.50829744 0
-1.8130354 2.1934366 -0.049978659 0
-1.2401474 1.7649597 0.51161838 0
-1.8214324 2.1751277 -0.049831662 0
-1.2321157 1.7458276 0.50104761 0
-1.8284943 2.1559954 -0.049637664 0
-1.2319323 1.7328109 0.49645326 0
-1.8448306 2.1434302 -0.049858246 0
-1.2361518 1.72307 0.49519071 0
-1.8598126 2.1297638 -0.050025541 0
-1.2414973 1.7141486 0.49483138 0
-1.8655554 2.1099095 -0.049804702 0
-1.2333155 1.6963962 0.48496917 0
-1.8816124 2.0967984 -0.050032686 0
-1.2428141 1.6903865 0.48777086 0
-1.8934391 2.0808773 -0.05008826 0
-1.2457863 1.6801975 0.48605251 0
-1.8963964 2.0595729 -0.049782306 0
-1.2306538 1.6592036 0.47190723 0
-1.905864 2.0423191 -0.049758926 0
-1.2372535 1.6516033 0.47297546 0
-1.9236131 2.0297813 -0.050084636 0
-1.2396424 1.641559 0.47123012 0
-1.9270123 2.0090699 -0.049829602 0
-1.2492212 1.6355597 0.4744513 0
-1.9408206 1.9941255 -0.05000829 0
-1.9312805 1.966925 -0.049254384 0
-1.9591533 1.9591278 -0.050013997 0
-1.9645236 1.9397694 -0.049879257 0
-1.9760613 1.9234215 -0.04999841 0
-1.9763969 1.9018657 -0.049685378 0
-1.979827 1.8819133 -0.049505461 0
-2.0032146 1.8706023 -0.05011081 0
-2.00318 1.8491892 -0.049814336 0
-1.9944886 1.8245625 -0.049197223 0
-1.9917434 1.8026719 -0.04882222 0
-2.0122793 1.7896258 -0.049345098 0
-2.0073934 1.7671932 -0.048909202 0
-2.0029366 1.7452279 -0.048502021 0
-2.0036826 1.7252556 -0.048302256 0
-1.9964151 1.7029296 -0.047813032 0
-2.0017655 1.6847203 -0.04780617 0
-2.0015471 1.6649295 -0.047601171 0
-2.0140047 1.6487178 -0.04787495 0
-2.0040939 1.6265482 -0.047330793 0
-1.996176 1.6052567 -0.046871811 0
-1.9977943 1.5864935 -0.046773382 0
-1.9958072 1.5670146 -0.046552151 0
-2.0058663 1.5501522 -0.046779376 0
-2.0079076 1.5315909 -0.046722356 0
-1.9916826 1.5098139 -0.04601156 0
-1.9941791 1.4916341 -0.045989599 0
-2.0037763 1.4745482 -0.046232384 0
-1.9929135 1.4544344 -0.045745 0
-2.0039043 1.4374305 -0.046053942 0
-1.9907653 1.4174581 -0.04550311 0
-2.0062382 1.4007653 -0.045988698 0
-1.9963115 1.3814811 -0.045570951 0
-1.9969469 1.363289 -0.045540459 0
-2.008213 1.3457857 -0.045898467 0
-1.9966141 1.3268741 -0.045446798 0
-1.9931173 1.3085846 -0.045293309 0
-2.0122778 1.2909713 -0.045957245 0
-1.9974538 1.2724588 -0.045415603 0
-2.00246 1.2543254 -0.045590248 0
-1.1303889 0.26436791 -0.049798664 0
-0.39393049 0.26436988 0.41951764 0
-0.3866213 0.2643699 0.49180338 0
-1.1371503 0.24460201 -0.050044499 0
-0.39570475 0.2539404 0.42043826 0
-1.14859 0.22454166 -0.050466377 0
-0.40001351 0.2433991 0.35081747 0
-0.40605426 0.24324693 0.42571676 0
-1.1321075 0.2052357 -0.049899906 0
-0.5128209 0.22864181 0.10767008 0
-0.50691879 0.22886488 0.17555158 0
-1.2438343 0.20101297 0.43400273 0
-1.2404382 0.20114133 0.56298828 0
-1.2463976 0.20091608 0.7016378 0
-1.1349512 0.18535241 -0.050032608 0
-0.51933825 0.21638638 0.10842786 0
-0.51339984 0.21668574 0.17681609 0
-1.2374423 0.18018569 0.43260762 0
-1.2434244 0.17988412 0.56429243 0
-1.2419472 0.1799586 0.70017928 0
-1.1284993 0.16595824 -0.049841844 0
-0.50948411 0.20498323 0.10743992 0
-0.5017767 0.20546915 0.17483775 0
-1.245576 0.15857728 0.43499175 0
-1.2428095 0.1587517 0.56448638 0
-1.132771 0.14588413 -0.050043583 0
-0.51142544 0.19291748 0.10773779 0
-0.50634652 0.19330193 0.17581181 0
-1.2411464 0.13768052 0.43423325 0
-1.2421393 0.13760535 0.56475079 0
-1.1246949 0.12675521 -0.049812049 0
-0.51638454 0.18051308 0.10837797 0
-0.50446445 0.18156649 0.17564656 0
-1.233627 0.11712863 0.43274987 0
-1.2462234 0.11601544 0.56669229 0
-1.1302187 0.10641266 -0.050076872 0
-0.51490802 0.1686065 0.10834065 0
-0.5165596 0.16843957 0.17804147 0
-1.2384568 0.095472269 0.43449768 0
-1.2446629 0.094844989 0.56683958 0
-1.1243371 0.087177075 -0.049941447 0
-0.51066381 0.15702181 0.039891079 0
-0.51950711 0.15601532 0.10897665 0
-0.51979566 0.15598248 0.17886177 0
-1.2479738 0.073105462 0.43752155 0
-1.2378126 0.074261956 0.56530511 0
-1.117672 0.068133809 -0.049786322 0
-0.51611447 0.14428365 0.040138558 0
-0.51139724 0.1448808 0.1082541 0
