# .PCD v0.7 - Point Cloud Data file format
VERSION 0.7
FIELDS x y z intensity
SIZE 4 4 4 4
TYPE F F F F
COUNT 1 1 1 1
WIDTH 1358
HEIGHT 1
VIEWPOINT 0 0 0 1 0 0 0
POINTS 1358
DATA ascii
-1.0672113 0.37557518 0.042269692 0
-1.0656757 0.37822199 0.11485146 0
-1.0627578 0.38325143 0.18761952 0
-1.2527536 0.055757042 0.35952717 0
-1.2424642 0.073492758 0.46018055 0
-1.239054 0.079370968 0.56841129 0
-1.236624 0.083559506 0.68322098 0
-1.3270271 -0.11160672 -0.049973372 0
-1.0513829 0.37760919 0.041926157 0
-1.0482522 0.38316548 0.11346079 0
-1.0502985 0.37953383 0.18708619 0
-1.2485752 0.027630443 0.36522773 0
-1.2374231 0.047423359 0.46687752 0
-1.2393274 0.044043537 0.58116555 0
-1.3083154 -0.11853421 -0.049865346 0
-1.0368847 0.37771171 0.041671712 0
-1.0317721 0.38705885 0.11223528 0
-1.0367565 0.37794626 0.18615106 0
-1.2464519 -0.0054314188 0.37233976 0
-1.2438349 -0.00064695399 0.48189563 0
-1.2439976 -0.00094438117 0.59838969 0
-1.290699 -0.12736964 -0.049844708 0
-1.0187336 0.38507587 0.041132871 0
-1.0248773 0.37349987 0.11316663 0
-1.023021 0.37699759 0.18512663 0
-1.2417991 -0.035230998 0.37846988 0
-1.2441148 -0.039594058 0.49334702 0
-1.2391341 -0.030209308 0.60810155 0
-1.2742916 -0.13852906 -0.04992646 0
-1.0070769 0.38064837 0.041080181 0
-1.0065928 0.38158882 0.11148594 0
-1.0024741 0.38959104 0.1813972 0
-1.2377453 -0.067522533 0.38529235 0
-1.2418063 -0.075412519 0.50355244 0
-1.2414376 -0.074696191 0.62486756 0
-1.261873 -0.15782058 -0.05034041 0
-0.99587339 0.37539089 0.041066807 0
-0.99379575 0.37955564 0.11105917 0
-0.99087083 0.38541877 0.18112247 0
-1.2410743 -0.11612845 0.39673817 0
-1.2381666 -0.11029971 0.51335853 0
-1.2450758 -0.12414957 0.64381307 0
-1.2428498 -0.16412282 -0.050243031 0
-0.98225403 0.37514997 0.040860217 0
-0.9748373 0.3904981 0.10910552 0
-0.98044503 0.37889355 0.18135007 0
-1.2362057 -0.1503737 0.40403345 0
-1.2381476 -0.15439212 0.52652359 0
-1.2208455 -0.16389763 -0.04989842 0
-0.96504188 0.38292867 0.040345527 0
-0.96418327 0.38476413 0.10917037 0
-0.96536505 0.38223785 0.17963746 0
-1.238459 -0.20154977 0.4160721 0
-1.2426573 -0.21052432 0.54403359 0
-1.2037656 -0.17397261 -0.04997028 0
-0.9522956 0.38171464 0.040194675 0
-0.95310146 0.37993401 0.10914408 0
-0.95118636 0.38416582 0.17825265 0
-1.2401062 -0.25427628 0.42846856 0
-1.2404026 -0.25493109 0.55714148 0
-1.1857512 -0.1820451 -0.049972124 0
-0.94114631 0.37711072 0.040183026 0
-0.9406901 0.37815374 0.10877661 0
-0.9392212 0.38151145 0.17781274 0
-1.2416605 -0.30985129 0.44158441 0
-1.2398043 -0.30560803 0.57246459 0
-1.1683751 -0.1916399 -0.050041776 0
-0.93142331 0.36914742 0.04030709 0
-0.92190188 0.39168161 0.10664339 0
-0.92976081 0.3730821 0.17853539 0
-1.2458849 -0.37508011 0.45729902 0
-1.1505765 -0.20033693 -0.050084911 0
-0.91146541 0.38604689 0.039476663 0
-0.91630125 0.37418771 0.10814901 0
-0.91324705 0.38167775 0.1759617 0
-1.2365931 -0.4112798 0.46492016 0
-1.1305203 -0.2033838 -0.049919706 0
-0.90176398 0.37845486 0.039599527 0
-0.90042704 0.38185525 0.10674983 0
-0.89598501 0.39315349 0.17288302 0
-1.2419118 -0.48670626 0.48328951 0
-1.1129376 -0.21264172 -0.050002061 0
-0.88894242 0.37885189 0.039421495 0
-0.8909176 0.37363613 0.10720596 0
-0.88611108 0.38632846 0.17339024 0
-1.2354155 -0.53606319 0.49444112 0
-1.0970565 -0.22674859 -0.050276723 0
-0.87295938 0.38828707 0.038907006 0
-0.87602818 0.37986469 0.1060212 0
-0.87310487 0.38788766 0.17230974 0
-1.076288 -0.22749364 -0.050052319 0
-0.86679 0.37078863 0.039421219 0
-0.86063492 0.38836628 0.10460422 0
-0.86222368 0.38382912 0.17233881 0
-1.0602019 -0.24168408 -0.050345138 0
-0.85099566 0.38078415 0.03890067 0
-0.85069585 0.38167608 0.10493764 0
-0.85228646 0.37694353 0.17293179 0
-1.0370702 -0.23468649 -0.049849663 0
-0.8384456 0.38189965 0.038722772 0
-0.83921015 0.37952632 0.10477123 0
-0.83912241 0.37979871 0.17170049 0
-1.0193141 -0.24394977 -0.049974512 0
-0.82463855 0.38751233 0.038383473 0
-0.82920927 0.37268645 0.1051492 0
-0.82393676 0.38978857 0.1691588 0
-1.0009487 -0.25146759 -0.050042268 0
-0.81318545 0.38597393 0.038318053 0
-0.81327271 0.38567752 0.10331817 0
-0.81495506 0.37996626 0.17038743 0
-0.98191255 -0.25678611 -0.050036825 0
-0.80144519 0.38562167 0.03821424 0
-0.80329174 0.37904847 0.10370622 0
-0.80080545 0.38789886 0.16830692 0
-0.96345228 -0.26425564 -0.050119765 0
-0.79210043 0.37658685 0.038437117 0
-0.79243302 0.37534297 0.1700916 0
-0.94383055 -0.2674017 -0.05005176 0
-0.77913779 0.38115299 0.038162641 0
-0.7785219 0.38357836 0.1025482 0
-0.78013849 0.37721229 0.1692061 0
-0.92513978 -0.27422583 -0.05012811 0
-0.76870704 0.37601513 0.10308409 0
-0.76806545 0.3786819 0.16842619 0
-0.90477371 -0.27393639 -0.049952429 0
-0.75553995 0.3826254 0.16721912 0
-0.885454 -0.27795756 -0.04994398 0
-0.74308676 0.3870278 0.16595978 0
-0.86647403 -0.28365481 -0.050005455 0
-0.84648758 -0.28424716 -0.049890038 0
-0.72500581 0.36231321 0.16968749 0
-0.82708609 -0.2877301 -0.049888771 0
-0.80837327 -0.29547966 -0.050050657 0
-0.78862458 -0.29707479 -0.049998607 0
-0.76997012 -0.30645537 -0.050236136 0
-0.74947649 -0.30232418 -0.049995702 0
-0.73132092 -0.31781471 -0.050469674 0
-0.71027201 -0.30721319 -0.050015297 0
-0.69175613 -0.32260406 -0.050502226 0
-0.67147976 -0.31851327 -0.050299723 0
-0.6513294 -0.31419015 -0.050098196 0
-0.63168269 -0.3175807 -0.050181553 0
-0.61155456 -0.30886197 -0.049841139 0
-0.59198838 -0.31488657 -0.050036356 0
-0.5722121 -0.31357789 -0.049978528 0
-0.5524562 -0.3177613 -0.050125666 0
-0.53272963 -0.31328881 -0.049972646 0
-0.51312739 -0.30812848 -0.049803879 0
-0.49278775 -0.3238107 -0.050388567 0
-0.47373971 -0.30761158 -0.049842972 0
-0.45369959 -0.31217587 -0.050048403 0
-0.49506873 0.31270301 0.039690588 0
-0.43385863 -0.31233215 -0.050105214 0
-0.48405856 0.32422709 0.039308667 0
-0.41416216 -0.31043601 -0.050097454 0
-0.47476998 0.35162282 0.038362268 0
-0.39425376 -0.31059539 -0.050172366 0
-0.46208093 0.33998239 0.038820017 0
-0.37594661 -0.29658711 -0.049747143 0
-0.44888425 0.32679737 0.039339699 0
-0.44272709 0.27417308 0.11205443 0
-0.44090626 0.25861079 0.18680012 0
-0.44146872 0.26341796 0.26053581 0
-0.44110581 0.26031649 0.33895558 0
-0.44076991 0.25744563 0.42155802 0
-0.35450771 -0.30901504 -0.050281242 0
-0.43498483 0.31106007 0.039958093 0
-0.42968687 0.27023929 0.11264564 0
-0.42861634 0.26199102 0.18646652 0
-0.42890579 0.26422107 0.26072496 0
-0.42925811 0.26693583 0.33725262 0
-0.42856988 0.26163304 0.4204559 0
-0.43035737 0.27540547 0.499899 0
-0.33513281 -0.30427957 -0.050207067 0
-0.42075872 0.29613465 0.040554624 0
-0.41882271 0.28255934 0.11149126 0
-0.41778502 0.27528292 0.18435483 0
-0.41944465 0.28692031 0.25531226 0
-0.41997185 0.29061711 0.32986283 0
-0.41935578 0.28629726 0.41085204 0
-0.4191229 0.28466427 0.49606729 0
-0.31600943 -0.29824662 -0.050094675 0
-0.40610307 0.28119802 0.041159198 0
-0.40608492 0.28108126 0.11185018 0
-0.40877217 0.29836434 0.18047713 0
-0.40580931 0.27930862 0.25774592 0
-0.40635604 0.28282493 0.33309475 0
-0.40637869 0.28297055 0.41300648 0
-0.40899196 0.29977804 0.48933497 0
-0.2975356 -0.2888149 -0.049867705 0
-0.3912178 0.26747704 0.041727718 0
-0.39158618 0.26966459 0.11331045 0
-0.39214894 0.27300632 0.18547095 0
-0.39197761 0.27198887 0.26015356 0
-0.39505374 0.29025519 0.33125558 0
-0.39178923 0.27087021 0.41891778 0
-0.39773932 0.30620247 0.48706186 0
-0.27685103 -0.29245102 -0.050122805 0
0.066705249 -2.1865592 0.13084827 0
-0.38346443 0.29533422 0.49364895 0
-0.25784475 -0.28649557 -0.050039142 0
0.11397996 -2.1989989 0.13159642 0
-0.37544197 0.31837291 0.48306102 0
-0.23846568 -0.28261161 -0.050039507 0
0.15960534 -2.2008591 0.13198246 0
-0.36895797 0.34621221 0.47004384 0
-0.21937875 -0.27738798 -0.049999807 0
0.20360954 -2.1940773 0.13207459 0
-0.35752395 0.34859014 0.47007805 0
-0.20040123 -0.27180588 -0.049955644 0
0.17095871 -1.8592944 0.12016109 0
-0.34603238 0.35073769 0.47030467 0
-0.18144472 -0.26625562 -0.049921289 0
0.21621056 -1.8745697 0.12106923 0
-0.0027293947 -0.98906851 0.25435564 0
-0.0012743858 -0.99495339 0.42386919 0
-0.33653411 0.36100239 0.46642286 0
-0.16104113 -0.26634073 -0.050103527 0
0.25347653 -1.8566422 0.12077634 0
-0.328114 0.37463629 0.46084794 0
-0.14345492 -0.25565076 -0.049897011 0
0.29353955 -1.8496747 0.12090549 0
-0.31622177 0.37455046 0.46242642 0
-0.12567769 -0.24614036 -0.049741779 0
0.33308807 -1.8405662 0.12097429 0
-0.30139181 0.36454862 0.46925122 0
-0.10548837 -0.24500096 -0.049906421 0
0.3763245 -1.8435028 0.12151103 0
-0.30238694 0.40824598 0.44813749 0
-0.084716685 -0.24531233 -0.050135531 0
-0.29464695 0.42070198 0.44332269 0
-0.070480056 -0.22523963 -0.049609262 0
-0.28363103 0.42243421 0.44418773 0
-0.046707846 -0.23409224 -0.050179236 0
-0.26353946 0.39785546 0.45904762 0
-0.032717504 -0.21435976 -0.049679406 0
-0.009943583 -0.21927309 -0.050122578 0
0.0099364733 -0.21581066 -0.050258338 0
0.02886661 -0.20971024 -0.050302938 0
0.043623827 -0.19346762 -0.049964909 0
0.061773323 -0.18571007 -0.049961992 0
0.077432059 -0.17235243 -0.049749129 0
-0.19144411 0.43189299 0.37870541 0
0.10229184 -0.17934227 -0.050342411 0
0.11592438 -0.16173863 -0.049979366 0
-0.1594307 0.41735113 0.38971657 0
-0.20471273 0.51258224 0.4930836 0
0.13415481 -0.15407276 -0.050016135 0
0.55199057 -1.0050125 0.45993999 0
-0.15835841 0.44164252 0.38085395 0
-0.18766709 0.50133085 0.50349003 0
0.1519527 -0.14548898 -0.05002556 0
0.59116322 -1.0122023 0.46425408 0
-0.15561529 0.46144837 0.3740229 0
-0.18660276 0.52259725 0.49248597 0
0.16892292 -0.13530052 -0.049979404 0
0.61016637 -0.97949219 0.46057719 0
-0.14285679 0.46119964 0.37653196 0
-0.17903431 0.53041488 0.49041775 0
0.18872865 -0.13043666 -0.050157502 0
0.64633566 -0.97971249 0.46367028 0
-0.13208748 0.46496814 0.37724403 0
-0.16978554 0.53493226 0.49062267 0
0.19935466 -0.10877264 -0.049660981 0
0.68780607 -0.98858118 0.46866271 0
-0.1118109 0.45170492 0.38609076 0
-0.16001193 0.53852552 0.49153459 0
0.2187878 -0.10321141 -0.049828578 0
0.71508676 -0.97121787 0.4683497 0
-0.08071027 0.42059845 0.40363279 0
-0.15702586 0.55407125 0.4843716 0
0.23751439 -0.096210606 -0.049947888 0
0.76117581 -0.98588538 0.47480908 0
-0.054934658 0.40064597 0.41613403 0
-0.14815132 0.55901641 0.48447597 0
0.25598386 -0.088616617 -0.050053157 0
0.80663592 -0.9977634 0.48085162 0
-0.06032721 0.43362457 0.40326571 0
-0.13617896 0.55885851 0.48819649 0
0.27758923 -0.085909732 -0.050374571 0
0.8410731 -0.99034333 0.48296237 0
-0.12420971 0.55900747 0.49183682 0
0.28655067 -0.063040502 -0.049855206 0
0.88706344 -1.0004013 0.4889262 0
-0.11502094 0.56378621 0.49235159 0
0.29951307 -0.046906952 -0.049624257 0
0.91572303 -0.98261857 0.48905224 0
0.023378273 0.37240225 0.44321361 0
-0.11305071 0.57956886 0.48513862 0
0.32221577 -0.045451287 -0.050031073 0
0.95416683 -0.97925234 0.49239707 0
0.03015252 0.38611537 0.44004878 0
-0.10312838 0.58305764 0.48668516 0
0.32981774 -0.021768218 -0.049487349 0
0.99611777 -0.98010325 0.49680346 0
0.038429044 0.39733434 0.43815672 0
-0.10595081 0.60499495 0.47500974 0
0.35355952 -0.021340853 -0.04996312 0
0.050027572 0.40370691 0.43876606 0
-0.096830733 0.60935837 0.47600988 0
0.37142077 -0.012321478 -0.050076097 0
0.069006287 0.40008134 0.44458899 0
-0.091582753 0.61907673 0.47316533 0
0.39122251 -0.005741959 -0.050309185 0
1.1316496 -0.98925042 0.1062598 0
1.1331493 -0.99124241 0.30807361 0
0.092049323 0.39164943 0.45308155 0
-0.086783715 0.62919313 0.47004703 0
0.3978323 0.018182749 -0.049773153 0
0.10233589 0.40057337 0.45272669 0
-0.079403378 0.63575524 0.4696072 0
0.41536829 0.027726883 -0.049890779 0
0.12141498 0.39837939 0.45831156 0
-0.066697635 0.63557488 0.47433642 0
0.43407306 0.03597128 -0.050079558 0
-0.066271044 0.65080398 0.46745384 0
0.44960687 0.048226114 -0.050094705 0
-0.059067614 0.65746301 0.46712381 0
0.45933542 0.067279927 -0.049799565 0
-0.0515332 0.66371644 0.46717736 0
0.47377214 0.08066415 -0.049776364 0
-0.045702972 0.67191529 0.46577021 0
0.49321279 0.088476174 -0.05002939 0
1.1981214 -0.69374263 0.099622056 0
-0.033172645 0.67259228 0.47041017 0
0.50919658 0.10029566 -0.050102383 0
1.2057023 -0.65329778 0.098737948 0
-0.025119821 0.67840642 0.47108269 0
0.52173191 0.11583268 -0.050003227 0
0.39429352 0.2502799 0.055389658 0
-0.021981159 0.68944865 0.46757358 0
0.5319441 0.13366389 -0.049796436 0
0.38004509 0.28992832 0.054016192 0
0.84390122 -0.18725848 0.22205922 0
-0.0053362041 0.68638492 0.47572026 0
0.54507226 0.14836764 -0.049751136 0
0.39797124 0.29593241 0.054312401 0
0.83869988 -0.14618528 0.2185213 0
-0.0052777319 0.70045221 0.46979916 0
0.56668073 0.1547358 -0.050139207 0
0.40247473 0.31536257 0.053938434 0
0.74563545 -0.020318156 0.20189582 0
0.74182123 -0.016587144 0.33377865 0
0.73981994 -0.014629489 0.46898097 0
0.0090627288 0.70019925 0.47594684 0
0.58082217 0.1686089 -0.050158229 0
0.42438051 0.31783259 0.054439671 0
0.83508855 -0.07392586 0.21281308 0
0.18956389 0.54181498 0.34943828 0
0.0044833631 0.71835613 0.46651226 0
0.59258324 0.18471861 -0.050069537 0
0.46135864 0.30677038 0.055671476 0
0.84393424 -0.049062256 0.21167296 0
0.18802877 0.56099373 0.34469151 0
0.020876905 0.71646124 0.47435999 0
0.59808522 0.20642447 -0.049690016 0
0.84390777 -0.016508108 0.073537663 0
0.84091109 -0.013790494 0.20886953 0
0.19258495 0.57416606 0.34284353 0
0.61810535 0.21494019 -0.050019674 0
0.84701174 0.012542481 0.072928324 0
0.8395223 0.019164557 0.20639564 0
0.84070271 0.018120879 0.34257644 0
0.21776457 0.56891924 0.35024884 0
0.032036029 0.73313934 0.4726176 0
0.6279009 0.23258066 -0.049868923 0
0.82765073 0.060395475 0.071284026 0
0.83900982 0.050603863 0.20413202 0
0.83982879 0.049897786 0.33868858 0
0.23732407 0.5692597 0.35507649 0
0.037404917 0.74159092 0.47171974 0
0.65069109 0.23916709 -0.050336134 0
0.83673841 0.082833163 0.071011908 0
0.83822161 0.08158683 0.20190938 0
0.83001262 0.088484757 0.33282989 0
0.92581135 0.0079858247 0.5002777 0
0.26686707 0.56169116 0.36419356 0
0.28323182 0.54794002 0.4606199 0
0.64824778 0.26685059 -0.049637944 0
0.8451826 0.10555445 0.070725985 0
0.83050197 0.11757838 0.19880113 0
0.83668441 0.11251473 0.33098885 0
0.94318587 0.02528655 0.500871 0
0.29850587 0.55330074 0.37407723 0
0.24769755 0.59491444 0.4368782 0
0.048779808 0.75783455 0.47068697 0
0.66483766 0.27871549 -0.049832176 0
0.84143156 0.13775682 0.069898993 0
0.83220917 0.14511824 0.19708286 0
0.85179764 0.12948251 0.3311843 0
0.98159546 0.025876874 0.50839663 0
0.27256414 0.59183156 0.35930574 0
0.24965008 0.61012179 0.43354794 0
0.058777593 0.76247782 0.47356623 0
0.68498594 0.28799033 -0.050192244 0
0.84754413 0.16155279 0.069544598 0
0.83504671 0.17127335 0.1955827 0
0.83896559 0.16822517 0.32504198 0
0.25397047 0.62323344 0.43159306 0
0.06106206 0.77327728 0.47066647 0
0.69007224 0.30900139 -0.049879473 0
0.86216503 0.17859209 0.069588184 0
0.83784288 0.19702303 0.19413583 0
0.84495264 0.19163537 0.32332736 0
0.25958392 0.63521868 0.43041465 0
0.063687108 0.78366613 0.4681493 0
0.71389192 0.31591409 -0.050412666 0
0.85100967 0.21470082 0.068497136 0
0.8418774 0.22144186 0.19291125 0
0.83870655 0.2237823 0.31895277 0
0.28630546 0.63153642 0.44018775 0
0.078082584 0.78523582 0.4744285 0
0.7184239 0.33715928 -0.050096843 0
0.84695357 0.24476266 0.067748144 0
0.84247881 0.2479794 0.19128422 0
0.84082228 0.24917018 0.31656522 0
0.092686556 0.78698587 0.48081788 0
0.7294144 0.35361582 -0.050076947 0
0.84334153 0.27387291 0.06704165 0
0.84010559 0.27613795 0.18932526 0
0.84952587 0.26954424 0.31571952 0
0.84113473 0.27541757 0.44153452 0
0.086189531 0.80383855 0.47189248 0
0.73956853 0.37062901 -0.050030079 0
0.87449688 0.2786957 0.067859061 0
0.84874946 0.29623872 0.18886206 0
0.85241395 0.29374194 0.31366813 0
0.84788328 0.29682887 0.43984699 0
0.10099312 0.80572152 0.47848198 0
0.74741489 0.38913649 -0.049893964 0
0.91192561 0.28005475 0.068941019 0
0.83522421 0.33091295 0.18557684 0
0.83468741 0.33126891 0.3072392 0
0.84505647 0.32439357 0.43532512 0
0.11513587 0.80838019 0.4845635 0
0.76991898 0.39807791 -0.050391629 0
0.95967728 0.27566689 0.070453532 0
0.83588678 0.35552275 0.18418874 0
0.84339112 0.35068184 0.30663648 0
0.83475012 0.35625607 0.42867479 0
0.12316944 0.81528908 0.48630801 0
0.7722339 0.42010415 -0.050039243 0
0.98978442 0.28361279 0.071208157 0
0.84182888 0.37644023 0.18352084 0
0.83962482 0.37782305 0.30343583 0
0.83652598 0.3797673 0.42583713 0
0.13321008 0.82102799 0.48950517 0
0.77599472 0.44096088 -0.049761664 0
1.0322924 0.28462213 0.072479799 0
0.83210236 0.40673584 0.18091889 0
0.83241302 0.40654635 0.2996043 0
0.84502298 0.39885443 0.42511863 0
0.13689835 0.8308028 0.4883154 0
0.79284459 0.45383394 -0.050040334 0
1.0736009 0.28738952 0.073692739 0
0.83583862 0.4283452 0.18006611 0
0.84066635 0.42548317 0.29911974 0
0.83551353 0.42853796 0.41913638 0
0.14165433 0.83988768 0.48795584 0
0.79665428 0.47444791 -0.049786452 0
0.85672742 0.43984872 0.18138063 0
0.84327358 0.4475975 0.29751348 0
0.82493669 0.45815867 0.41299352 0
0.13832392 0.85361427 0.48214325 0
0.81598026 0.48618203 -0.050179709 0
0.83819455 0.47375751 0.17784958 0
0.83326632 0.47651386 0.29336953 0
0.84034222 0.47255629 0.41459855 0
0.15596183 0.85533226 0.49073741 0
0.82095069 0.50602871 -0.04999315 0
0.85590667 0.48705161 0.17882718 0
0.84180731 0.49470592 0.29313511 0
0.83726639 0.49717122 0.41088018 0
0.83404404 0.52145195 -0.050145701 0
0.85287112 0.51153588 0.17729862 0
0.8429653 0.5167532 0.29144418 0
0.84988064 0.51311094 0.41180044 0
0.84812814 0.53649354 -0.050344806 0
0.84407347 0.53856438 0.17512184 0
0.83792633 0.54170382 0.28856558 0
0.8399232 0.54068393 0.40630618 0
0.83875316 0.54128152 0.5275653 0
0.84553283 0.55995065 -0.049885821 0
0.84691066 0.55926871 0.17439471 0
0.84371179 0.56085193 0.28794646 0
0.84217137 0.56161439 0.40441975 0
0.84106046 0.56216425 0.52513009 0
0.84594625 0.58160996 -0.049560446 0
0.87580603 0.56729639 0.1768087 0
0.83688027 0.58595586 0.28485605 0
0.83620435 0.58627987 0.40029517 0
0.84390181 0.58258998 0.52300394 0
0.85649437 0.59831756 -0.049646601 0
0.8971315 0.57946324 0.17832381 0
0.85016149 0.60125577 0.2858454 0
0.83294898 0.60924184 0.3970449 0
0.83595377 0.60784769 0.51702762 0
0.88158244 0.60857028 -0.050309498 0
0.93600684 0.5841471 0.18191576 0
0.84436077 0.62527364 0.28309533 0
0.83770698 0.62825954 0.39613488 0
0.83701783 0.62856883 0.51448762 0
0.88592726 0.62833261 -0.050166603 0
0.96113271 0.59571522 0.18388444 0
0.84091908 0.64785314 0.28088361 0
0.84853286 0.64455098 0.3969841 0
0.84223777 0.64728117 0.51356351 0
0.87982422 0.65236497 -0.049629729 0
0.99528724 0.60400552 0.18691175 0
0.82725412 0.67438293 0.27674031 0
0.83376437 0.67165631 0.39080614 0
0.85176593 0.66411668 0.51428336 0
0.89557678 0.66716027 -0.049948834 0
1.0399635 0.60881263 0.19115542 0
0.84417468 0.68793225 0.27863261 0
0.84884793 0.68604374 0.39296833 0
0.83941227 0.68985677 0.5072239 0
0.90788525 0.68354207 -0.05014158 0
1.0804365 0.61632776 0.19490056 0
0.84565216 0.70778394 0.27755979 0
0.84106833 0.70956945 0.38890961 0
0.84756809 0.70703763 0.5076378 0
0.27196816 0.93125266 0.45134121 0
0.91789621 0.70093423 -0.050253689 0
0.84727365 0.7274248 0.27656803 0
0.84094125 0.72980005 0.38703614 0
0.8370921 0.73124391 0.50150645 0
0.28498843 0.9383384 0.45616037 0
0.91525561 0.72297853 -0.049893454 0
0.86504477 0.74109483 0.27872464 0
0.83944911 0.75032985 0.38487017 0
0.83872265 0.75059193 0.49979278 0
0.2558789 0.96088445 0.43859595 0
0.92993194 0.73875451 -0.05019962 0
0.85565192 0.7645027 0.27571982 0
0.83409077 0.77197665 0.38173965 0
0.83836514 0.770495 0.49747255 0
0.83290106 0.77238899 0.61524028 0
0.26478156 0.96932036 0.44138792 0
0.93854338 0.75677848 -0.050283816 0
0.85316032 0.78517634 0.27409536 0
0.84801275 0.78688842 0.3838796 0
0.83157259 0.79235631 0.49299386 0
0.84184581 0.78893948 0.61654353 0
0.29685619 0.97019935 0.45644268 0
0.94637185 0.77511764 -0.050346855 0
0.86034614 0.80253118 0.27435854 0
0.83873743 0.80941713 0.37984979 0
0.83869511 0.80943066 0.49348828 0
0.84229416 0.80828369 0.61424029 0
0.31544384 0.97617322 0.46436059 0
0.94403499 0.79660547 -0.050038885 0
0.85506672 0.82372755 0.27231178 0
0.83884531 0.82867265 0.37841392 0
0.84459895 0.82691866 0.49363187 0
0.84332007 0.82730854 0.61230141 0
0.31695035 0.98777288 0.46335286 0
0.9491685 0.81569541 -0.050019894 0
0.87433296 0.83748317 0.27493334 0
0.83158773 0.84992802 0.37509066 0
0.83802432 0.84805405 0.48952749 0
0.8457939 0.845792 0.61109757 0
0.32807925 0.99652004 0.46743947 0
0.95889229 0.83350074 -0.05017997 0
0.89591688 0.85097843 0.27801201 0
0.84981757 0.86377245 0.37859845 0
0.8377791 0.86711347 0.48771483 0
0.84227258 0.86586642 0.60742199 0
0.32104638 1.0105231 0.46213856 0
0.95690829 0.85451716 -0.049915496 0
0.92655641 0.86253059 0.28280136 0
0.83852261 0.88577294 0.37434983 0
0.8446191 0.88416338 0.48842889 0
0.83953696 0.88550514 0.60420358 0
0.33174494 1.0195707 0.46612239 0
0.96977967 0.87162185 -0.050208371 0
0.95322114 0.87577128 0.28686368 0
0.84137648 0.90379858 0.37390903 0
0.83931023 0.90431637 0.48504758 0
0.83683187 0.90493745 0.60111403 0
0.33029971 1.03187 0.46388865 0
0.97524041 0.89070028 -0.05023637 0
0.98334521 0.88877738 0.29158604 0
0.83865172 0.92310601 0.37206635 0
0.83894473 0.92303652 0.4834536 0
0.83641654 0.92363632 0.59911233 0
0.33614334 1.0423263 0.46548951 0
0.97034794 0.91212112 -0.049894318 0
1.0183115 0.90137786 0.29722032 0
0.84723097 0.93969798 0.37324801 0
0.82928985 0.94371665 0.47877747 0
0.83692855 0.94200563 0.59760982 0
0.33943799 1.0534381 0.46584648 0
0.97520453 0.93124354 -0.049918722 0
1.0568451 0.91403353 0.30352649 0
0.84272951 0.95916957 0.37107041 0
0.83125204 0.96158904 0.4781523 0
0.84033567 0.95967424 0.59743434 0
0.3490108 1.0632466 0.46948439 0
0.96822828 0.95272583 -0.049521226 0
1.0811834 0.93039632 0.30723664 0
0.84746832 0.97659832 0.37136519 0
0.8468073 0.97672898 0.48221493 0
0.8307516 0.97990298 0.59187037 0
0.3624498 1.0724794 0.47514817 0
0.99222487 0.9682076 -0.050258942 0
0.84675699 0.99506581 0.37030229 0
0.83371574 0.99747366 0.476641 0
0.84087533 0.9961518 0.59472436 0
0.39093921 1.0792251 0.48851568 0
0.98769778 0.98911631 -0.049968909 0
0.86368972 1.0104014 0.37386936 0
0.85292369 1.0122492 0.48207036 0
0.84260327 1.0140207 0.59413123 0
0.39076951 1.0915744 0.48734844 0
0.98705477 1.0092046 -0.049829379 0
0.42556164 1.0983175 0.041532464 0
0.44310269 1.0955336 0.11486981 0
0.4305748 1.0975219 0.18641129 0
0.42480388 1.0984378 0.2597298 0
0.4338654 1.0969996 0.33991811 0
0.43576995 1.0966974 0.42235756 0
0.40301499 1.1018958 0.49255201 0
0.99481755 1.0279709 -0.050002523 0
0.40677884 1.1137208 0.040786747 0
0.41127142 1.1130656 0.11120421 0
0.39781788 1.1150274 0.18009558 0
0.40723005 1.113655 0.25471276 0
0.40701053 1.1136869 0.33024958 0
0.41474089 1.1125597 0.41276121 0
0.40929624 1.1133536 0.4947961 0
0.99571878 1.0477761 -0.049936768 0
0.3873671 1.1286789 0.040026613 0
0.43972132 1.1217165 0.11410413 0
0.43323383 1.1225792 0.18623371 0
0.43401757 1.122475 0.2611711 0
0.4344137 1.1224223 0.3388781 0
0.43259349 1.1226645 0.41950455 0
0.41600594 1.1248703 0.49732554 0
1.0051508 1.0665123 -0.050186835 0
0.37486884 1.1422681 0.039523005 0
0.42906728 1.1357538 0.11277874 0
0.41884115 1.1369829 0.18333228 0
0.42013261 1.1368277 0.25719669 0
0.42302677 1.1364799 0.33453229 0
0.43395188 1.1351666 0.41941246 0
1.007899 1.0861472 -0.050205052 0
0.37129 1.1545436 0.039346494 0
0.8494454 1.1031712 0.36699876 0
0.82449621 1.1058518 0.46839702 0
0.83460981 1.1047652 0.58566189 0
0.99492687 1.1072872 -0.049668372 0
0.34921327 1.168448 0.038512386 0
0.84442621 1.1215423 0.36525333 0
0.8431893 1.1216594 0.47405586 0
0.84699994 1.1212986 0.59007752 0
1.0104784 1.1257106 -0.050163534 0
0.36230716 1.178879 0.038945269 0
0.84486431 1.1392957 0.36496598 0
0.848849 1.1389688 0.47542456 0
0.83186573 1.1403619 0.58314079 0
1.0039959 1.1460158 -0.049878042 0
0.36368737 1.1904304 0.038963277 0
0.85247689 1.1565259 0.36657086 0
0.84063083 1.1573474 0.47223669 0
0.84350187 1.1571484 0.58742034 0
1.018091 1.1649551 -0.050337721 0
0.84897774 1.1745477 0.36539057 0
0.84946889 1.1745198 0.47481182 0
0.84872752 1.1745619 0.58912605 0
1.0074697 1.1853122 -0.049922414 0
0.84962565 1.1922729 0.36532798 0
0.84509271 1.1924728 0.473057 0
0.8410427 1.1926514 0.58557117 0
1.0083512 1.205017 -0.049927294 0
0.8474918 1.2100823 0.36461234 0
0.83207828 1.2105677 0.46850285 0
0.84569842 1.2101388 0.58722401 0
1.011721 1.2246814 -0.050029885 0
0.85376912 1.2276651 0.36610046 0
0.83935195 1.2279375 0.4707765 0
0.84599966 1.2278118 0.58716446 0
1.0061549 1.2444776 -0.049822282 0
0.85225135 1.2454466 0.36565614 0
0.8464939 1.2454828 0.47307894 0
0.839652 1.2455258 0.58444411 0
1.0168284 1.2642328 -0.050203349 0
0.8501758 1.2631835 0.36512661 0
0.82751721 1.2630409 0.4667654 0
0.8356989 1.2630924 0.58280736 0
1.0061262 1.283856 -0.049830109 0
0.84169179 1.2807499 0.3630186 0
0.84159023 1.280748 0.47152129 0
0.84675723 1.2808456 0.58747822 0
1.0079433 1.3036133 -0.049912725 0
0.85448438 1.298781 0.36639729 0
0.83254617 1.2980902 0.46865857 0
0.84894174 1.2986064 0.58856755 0
1.0127354 1.3235632 -0.050110586 0
0.85179979 1.3164661 0.36588323 0
0.83991712 1.315942 0.47133344 0
0.83508116 1.3157289 0.5831005 0
1.0035517 1.3428633 -0.049817819 0
0.85112482 1.3342172 0.36593923 0
0.84038121 1.3336078 0.47178355 0
0.84367281 1.3337946 0.58702987 0
1.0083836 1.3629317 -0.050035063 0
1.3051233 1.3835149 0.072654508 0
1.3057421 1.3835578 0.20671245 0
1.2854215 1.3821483 0.33915031 0
0.84631222 1.3516897 0.36499429 0
0.83371776 1.3508161 0.46993119 0
0.83770388 1.3510926 0.58501405 0
0.99803096 1.3819114 -0.049717654 0
1.2498406 1.4025669 0.070737772 0
1.245697 1.402227 0.20042916 0
1.0137448 1.3832004 0.2903069 0
0.84732908 1.3695496 0.36559692 0
0.83655411 1.3686658 0.47132039 0
0.83873063 1.3688444 0.58599263 0
1.0064791 1.4024502 -0.050082646 0
1.2429925 1.4248524 0.07056427 0
1.2397829 1.4245484 0.20000722 0
0.9002524 1.3923886 0.27006361 0
0.84661037 1.3873078 0.36581308 0
0.84412163 1.387072 0.47436741 0
0.84064287 1.3867425 0.5874337 0
1.0001699 1.4216655 -0.049927521 0
0.64765471 1.3837918 0.049269851 0
0.63444716 1.3823729 0.13482489 0
0.64812165 1.383842 0.22466674 0
0.64287585 1.3832784 0.31399298 0
0.83612067 1.4040403 0.47228667 0
0.84146208 1.4046142 0.58851528 0
1.0027199 1.4418386 -0.050099425 0
0.55764169 1.3883432 0.046095196 0
0.53915697 1.3861214 0.12469514 0
0.55071992 1.3875113 0.20728764 0
0.55132812 1.3875843 0.2909098 0
0.83816725 1.4220605 0.47364119 0
0.83948356 1.4222187 0.58852559 0
1.0030904 1.4618474 -0.050202254 0
0.55110246 1.4017389 0.045923643 0
0.55514115 1.402276 0.12661743 0
0.55677265 1.402493 0.20870994 0
0.55034679 1.4016384 0.29111171 0
0.83734375 1.4398053 0.47411075 0
0.84105211 1.4402984 0.59011 0
0.98990959 1.4799565 -0.049825449 0
0.54894286 1.4156532 0.045915868 0
0.55379421 1.4163607 0.12668304 0
0.55566269 1.4166331 0.20886377 0
0.54612011 1.4152416 0.29052281 0
0.83461684 1.4573112 0.47401634 0
0.83644158 1.4575772 0.58920705 0
0.9926433 1.5003254 -0.050031397 0
0.54872102 1.4298718 0.045984447 0
0.55666322 1.4311323 0.12722683 0
0.55107361 1.4302452 0.20841508 0
0.54390734 1.4291079 0.29049724 0
0.84839243 1.4774318 0.47955489 0
0.85284275 1.4781381 0.59720194 0
0.993882 1.5205883 -0.050192919 0
0.55573004 1.445383 0.046321582 0
0.54708022 1.4438982 0.12643428 0
0.54642111 1.4437851 0.20798515 0
0.54883879 1.4442 0.29236612 0
0.84534651 1.4950933 0.47951263 0
0.84347433 1.494772 0.59449714 0
0.98055142 1.5382802 -0.049835138 0
0.55290288 1.459322 0.046309479 0
0.55185288 1.4591281 0.12722629 0
0.55818683 1.4602976 0.2105965 0
0.54775578 1.4583716 0.29272816 0
0.84475309 1.5132073 0.48037511 0
0.83931535 1.5122033 0.59406757 0
0.9840911 1.5590532 -0.050098509 0
0.54851645 1.4729464 0.046246991 0
0.54822356 1.4728885 0.12712084 0
0.54519159 1.4722891 0.20870051 0
0.55424851 1.4740796 0.29510766 0
0.83695179 1.5299659 0.4788726 0
0.84474248 1.5315059 0.59777522 0
0.98355681 1.5791602 -0.050223462 0
0.55293816 1.4883848 0.046511952 0
0.5480718 1.487359 0.12741606 0
0.56931943 1.4918381 0.21366952 0
0.54416496 1.4865354 0.29322296 0
0.85044581 1.5511001 0.48467827 0
0.83785897 1.5484468 0.59638631 0
0.97303349 1.5971235 -0.049992573 0
0.55398804 1.5032619 0.04666141 0
0.5570336 1.503944 0.12873586 0
0.5419119 1.5005569 0.20917335 0
0.54466134 1.5011728 0.29414001 0
0.83993751 1.5673114 0.48240766 0
0.83476132 1.5661521 0.5966903 0
0.96358842 1.6151783 -0.049808834 0
0.55247766 1.5176421 0.046724234 0
0.55764037 1.518867 0.12915978 0
0.55560142 1.5183833 0.21230161 0
0.54597098 1.5160985 0.29532135 0
0.85041434 1.5883278 0.48737541 0
0.8407703 1.5860398 0.60096502 0
0.97406787 1.6380959 -0.050366201 0
0.55682689 1.5335389 0.047009576 0
0.55714434 1.5336185 0.12948366 0
0.55201942 1.5323342 0.2122702 0
0.55506295 1.5330969 0.29860267 0
0.84003454 1.6045083 0.48529601 0
0.83290452 1.6027216 0.59943771 0
0.95872539 1.6546057 -0.049982596 0
0.55733389 1.5486317 0.047161371 0
0.56044847 1.549454 0.13025163 0
0.5560866 1.5483024 0.21369819 0
0.55412477 1.5477844 0.2993046 0
0.82396096 1.6190256 0.48132053 0
0.84525341 1.6246473 0.60665154 0
0.95119971 1.6730074 -0.049894951 0
0.54438859 1.5601046 0.046822317 0
0.56265765 1.5651748 0.13092236 0
0.55433244 1.5628643 0.21407922 0
0.55172163 1.5621396 0.29966998 0
0.84353763 1.6431278 0.48970306 0
0.83888334 1.641836 0.60596567 0
0.94081622 1.690516 -0.049709328 0
0.54239041 1.5745178 0.046894427 0
0.54733723 1.5759581 0.12965557 0
0.5502246 1.5767987 0.21405387 0
0.55830067 1.57915 0.30247146 0
0.84353381 1.6621931 0.49143657 0
0.83950716 1.6610208 0.60838652 0
0.93945223 1.7106405 -0.049867839 0
0.85466307 1.6847925 0.38263288 0
0.84497899 1.6818403 0.49376407 0
0.84355599 1.6814065 0.61240351 0
0.93742567 1.7306746 -0.050011639 0
0.85406846 1.7041115 0.383955 0
0.8348195 1.6979774 0.49213499 0
0.83813399 1.6990336 0.61243242 0
0.93019706 1.7490886 -0.049969792 0
0.84697837 1.7214108 0.38360149 0
0.8317396 1.7163424 0.49305245 0
0.83901018 1.7187605 0.61530626 0
0.92226809 1.7672321 -0.049910039 0
0.83647889 1.7374943 0.38238451 0
0.84152502 1.7392435 0.49858519 0
0.84691554 1.7411121 0.62138152 0
0.91970545 1.7872701 -0.05006234 0
0.8451466 1.7603689 0.38641554 0
0.83330685 1.7560972 0.4978773 0
0.83416921 1.7564082 0.61851794 0
0.89997286 1.8009858 -0.04957027 0
0.84412748 1.7800382 0.38790435 0
0.82849783 1.7741755 0.49845263 0
0.82911628 1.7744075 0.61912787 0
0.89107066 1.8185512 -0.04949734 0
0.83504516 1.7967274 0.38726041 0
0.83011562 1.7948072 0.50140655 0
0.83743244 1.7976574 0.62578166 0
0.89094037 1.8396093 -0.049770307 0
0.84370524 1.8205211 0.39155319 0
0.82550794 1.8131675 0.50223458 0
0.82930261 1.814701 0.62525558 0
0.89578515 1.8629631 -0.050247516 0
0.83865839 1.8390366 0.39215988 0
0.83469599 1.8373771 0.50812626 0
0.82583123 1.8336642 0.62691396 0
0.87669462 1.8763062 -0.049807325 0
0.83817393 1.8595994 0.39410335 0
0.82743424 1.8549415 0.50819516 0
0.83014339 1.8561165 0.63220161 0
0.87696654 1.8980014 -0.050128873 0
0.82775635 1.8759183 0.39335227 0
0.81522745 1.8702959 0.50654167 0
0.81874305 1.8718735 0.63051659 0
0.86681026 1.9151118 -0.050052602 0
0.82658464 1.8964485 0.39525488 0
0.81686467 1.8919387 0.51002657 0
0.82372969 1.8951238 0.63639146 0
0.85982305 1.9336851 -0.050109841 0
0.83232671 1.9205045 0.39919809 0
0.81908339 1.9141562 0.51384735 0
0.80783612 1.9087647 0.63284886 0
0.84509152 1.948474 -0.049868237 0
0.81492871 1.9335452 0.39666459 0
0.81596142 1.9340564 0.51581299 0
0.81627446 1.9342114 0.64060396 0
0.83785957 1.9669052 -0.049933162 0
0.82114393 1.9583683 0.40092632 0
0.80251104 1.9488522 0.51402628 0
0.80193061 1.9485557 0.63796586 0
0.82994813 1.9850339 -0.049980428 0
0.81813067 1.9788096 0.40264514 0
0.79968721 1.9690956 0.51629329 0
0.79609746 1.9672048 0.63937712 0
0.8229205 2.0036838 -0.050073169 0
0.79194611 1.9868681 0.39772353 0
0.79092211 1.9863123 0.51642287 0
0.78653675 1.9839315 0.63915229 0
0.80083865 2.0139923 -0.049560331 0
0.79091734 2.0084434 0.40015036 0
0.79084772 2.0084045 0.5199486 0
0.78777117 2.0066836 0.64414656 0
0.80021554 2.0362463 -0.049933173 0
0.78740925 2.0288706 0.40194461 0
0.78955573 2.0301068 0.52313894 0
0.77734011 2.0230713 0.64373982 0
0.78194612 2.0483479 -0.049588006 0
0.78400928 2.0495713 0.40386036 0
0.78296572 2.0489526 0.52440941 0
0.78107446 2.0478313 0.65024722 0
0.7824468 2.0716178 -0.050031487 0
0.768933 2.0633745 0.40237901 0
0.76425511 2.0605211 0.52105838 0
0.76181382 2.059032 0.64580309 0
0.77265579 2.0888035 -0.05005702 0
0.75855726 2.0799582 0.40235385 0
0.77570814 2.0907187 0.52958453 0
0.76846057 2.0861716 0.65405548 0
0.76613086 2.1081214 -0.050230686 0
0.74728853 2.0959666 0.40212047 0
0.75512999 2.1010249 0.52564871 0
0.7591446 2.1036148 0.65467781 0
0.74828404 2.1200829 -0.049931195 0
0.74595922 2.1185415 0.40498927 0
0.7454831 2.1182258 0.52609509 0
0.74790817 2.1198337 0.65446001 0
0.73870438 2.1374254 -0.049992748 0
0.73854715 2.1373181 0.40609229 0
0.74819332 2.1438906 0.53160679 0
0.74209899 2.1397383 0.65706128 0
0.72987157 2.1553473 -0.050096869 0
0.73572391 2.1594436 0.40870744 0
0.7378754 2.1609495 0.53200734 0
0.72740561 2.1536212 0.65532178 0
0.72686547 2.1775522 -0.050468005 0
0.72082597 2.1732106 0.40763944 0
0.72419125 2.1756299 0.53111988 0
0.71848685 2.1715291 0.65659982 0
0.69560057 2.1792274 -0.049601007 0
0.70230931 2.1841793 0.40546873 0
0.70803446 2.1884055 0.5292778 0
0.71394473 2.1927681 0.66025764 0
0.69297892 2.2018445 -0.050009679 0
0.69525307 2.2035677 0.40698975 0
0.7034623 2.2097886 0.53232056 0
0.69982737 2.2070341 0.65911454 0
0.68940014 2.2240863 -0.050391898 0
0.69246501 2.22647 0.4099839 0
0.68226272 2.2185347 0.52849805 0
0.69503361 2.2284679 0.66294456 0
0.66561824 2.2305505 -0.049867831 0
0.68423086 2.2454073 0.41132408 0
0.67792279 2.2403722 0.53186059 0
0.68051487 2.2424412 0.66180354 0
0.65516967 2.2474618 -0.049957369 0
0.66904455 2.2588258 0.41046372 0
0.68053931 2.2682405 0.53836709 0
0.66864961 2.2585022 0.66216457 0
0.64664847 2.2660789 -0.050147615 0
0.66176301 2.2787797 0.41228446 0
0.65327948 2.271651 0.53211153 0
0.66365212 2.2803671 0.66635227 0
0.63335484 2.2807639 -0.050125986 0
0.71423584 2.3504837 0.065938279 0
0.72103781 2.3563468 0.18739344 0
0.71720582 2.3530438 0.30949149 0
0.64834672 2.2936869 0.41214284 0
0.64562541 2.2913411 0.53441811 0
0.6519261 2.2967722 0.66705739 0
0.62165743 2.2968438 -0.050188947 0
0.68231624 2.3504777 0.065079674 0
0.68852657 2.355969 0.18473466 0
0.68994039 2.357219 0.3062824 0
0.64302737 2.3157387 0.41482067 0
0.63711041 2.3105071 0.53647768 0
0.64197606 2.3148093 0.6688655 0
0.6038422 2.3074396 -0.049967479 0
0.65589672 2.3546469 0.064476296 0
0.65996093 2.3583329 0.18261708 0
0.66007119 2.3584328 0.30241531 0
0.61219639 2.3150158 0.40883762 0
0.62908012 2.3303275 0.53888643 0
0.62668341 2.3281538 0.66783434 0
0.59395641 2.3252015 -0.05013648 0
0.62773722 2.356621 0.063783519 0
0.63937503 2.3674452 0.18165009 0
0.64155096 2.3694692 0.30130166 0
0.61558801 2.3453212 0.41470507 0
0.61666495 2.3463228 0.53944391 0
0.61520666 2.3449664 0.6690433 0
0.57294208 2.3325176 -0.049769439 0
0.61750394 2.3750234 0.06396804 0
0.61758071 2.3750968 0.18050887 0
0.62445539 2.3816543 0.30056402 0
0.59424049 2.3528333 0.41205448 0
0.59639043 2.3548841 0.53648674 0
0.60882288 2.3667431 0.67330134 0
0.57000989 2.3571639 -0.050305478 0
0.60506254 2.3914526 0.064056076 0
0.61489207 2.4010677 0.18224022 0
0.60480207 2.3911977 0.29921046 0
0.58811957 2.3748789 0.41483903 0
0.58190018 2.3687949 0.53623474 0
0.58635241 2.3731501 0.66845274 0
0.55349761 2.3687272 -0.050177194 0
0.60431224 2.4197021 0.064746834 0
0.60507292 2.420465 0.18295762 0
0.6030696 2.4184556 0.30244818 0
0.57112461 2.3864098 0.41382894 0
0.57626849 2.3915699 0.54023623 0
0.58372492 2.3990498 0.67522669 0
0.54043919 2.3837185 -0.050231557 0
0.60374433 2.4488428 0.065474041 0
0.60138506 2.4464159 0.18466713 0
0.60019642 2.4451931 0.30552116 0
0.55447477 2.3981574 0.41298488 0
0.56623667 2.4102573 0.54232556 0
0.55767947 2.4014542 0.66837096 0
0.52047175 2.3914809 -0.049937829 0
0.61267263 2.4887526 0.066722699 0
0.61098176 2.4869688 0.18852551 0
0.6136741 2.489809 0.31300944 0
0.54942936 2.4220309 0.41648772 0
0.54462117 2.4169583 0.5389539 0
0.55085164 2.4235315 0.67300785 0
0.50382155 2.4025319 -0.049819663 0
0.5355702 2.4368827 0.41683787 0
0.53717703 2.4386213 0.54252338 0
0.53322917 2.4343498 0.67129201 0
0.49200377 2.4188254 -0.049964916 0
0.5154286 2.4448195 0.4148694 0
0.51644236 2.4459443 0.53967273 0
0.52018636 2.450099 0.67246813 0
0.47079942 2.4245954 -0.049615562 0
0.49877724 2.4564388 0.41425997 0
0.50272542 2.4609327 0.54036433 0
0.50318974 2.4614611 0.67130458 0
0.45829448 2.4401479 -0.049742438 0
0.49034283 2.4775641 0.4169212 0
0.49010918 2.4772913 0.54172498 0
0.4868997 2.4735444 0.67066389 0
0.44718191 2.4575126 -0.049959626 0
0.46887562 2.483495 0.41453987 0
0.47307643 2.4885263 0.54091984 0
0.47235832 2.4876661 0.67124063 0
0.43002644 2.4676993 -0.049850676 0
0.4567593 2.5005491 0.41593108 0
0.45451877 2.4977958 0.53937232 0
0.46086094 2.5055892 0.67393899 0
0.4256148 2.4938362 -0.05047949 0
0.44073972 2.5129075 0.41582939 0
0.43885782 2.5105345 0.53941309 0
0.45092663 2.5257525 0.67787117 0
0.39911655 2.4921222 -0.049848139 0
0.42340955 2.5235589 0.4152436 0
0.42211649 2.5218856 0.5389533 0
0.42563483 2.5264385 0.67163962 0
0.38785711 2.5099149 -0.050109424 0
0.41136393 2.5411389 0.41694602 0
0.40485629 2.5324948 0.53827715 0
0.41121885 2.5409462 0.67279571 0
0.37097791 2.5203607 -0.050049361 0
0.39106873 2.5477586 0.41521344 0
0.39150491 2.5483534 0.53986293 0
0.39425376 2.5521019 0.67231393 0
0.35798928 2.5361872 -0.050235253 0
0.38167796 2.5693593 0.41827354 0
0.37410495 2.5587544 0.53927255 0
0.37826386 2.5645785 0.67261755 0
0.33812705 2.5423625 -0.050007015 0
0.35797563 2.5709107 0.41511375 0
0.35776457 2.5706069 0.53936452 0
0.36030546 2.5742617 0.67161196 0
0.32118824 2.5525761 -0.049965624 0
0.34257385 2.5841763 0.41568196 0
0.3419731 2.5832887 0.53987187 0
0.3405588 2.5811989 0.66935563 0
0.309221 2.5702915 -0.050254416 0
0.32558313 2.5951374 0.41560081 0
0.32777968 2.5984728 0.54145139 0
0.32470068 2.5937974 0.6700483 0
0.28270677 2.5656836 -0.049600806 0
0.30499843 2.6004794 0.41388294 0
0.30474672 2.6000865 0.5377273 0
0.30807742 2.6052854 0.67028797 0
0.27017221 2.582648 -0.049873814 0
0.29203269 2.6177356 0.41583815 0
0.2880697 2.6113749 0.53793877 0
0.28995916 2.6144075 0.66947412 0
0.25320515 2.5926719 -0.04986167 0
0.26748142 2.6162426 0.41223475 0
0.269986 2.6203778 0.53734171 0
0.26689109 2.615268 0.66477823 0
0.23445322 2.5996528 -0.049732432 0
0.25606015 2.6363618 0.41514814 0
0.25031093 2.6265943 0.53576165 0
0.25343934 2.6319094 0.66783869 0
0.21373846 2.6030233 -0.049465399 0
0.23893775 2.6470959 0.41532478 0
0.23444368 2.639236 0.5367505 0
0.23696466 2.643645 0.66861874 0
0.20321567 2.6243703 -0.049944963 0
0.21752013 2.6501358 0.41331807 0
0.21630599 2.6479487 0.53631377 0
0.21423079 2.6442111 0.66420221 0
0.18798389 2.6376975 -0.050101444 0
0.20137437 2.662549 0.41411984 0
0.204825 2.6689532 0.54061168 0
0.19743343 2.6552348 0.66486925 0
0.17241611 2.6506269 -0.05024863 0
0.18282481 2.6705408 0.41370228 0
0.17890002 2.6630318 0.53482813 0
0.17935671 2.6639056 0.66453171 0
0.15127595 2.6527965 -0.049972106 0
0.16269703 2.6753342 0.41243958 0
0.16046329 2.6709263 0.53435636 0
0.16004749 2.6701059 0.66315556 0
0.13236906 2.6590791 -0.049871489 0
0.14192648 2.6785431 0.41080654 0
0.14332654 2.6813943 0.53492773 0
0.14097025 2.6765957 0.66203398 0
0.11564823 2.669801 -0.049956411 0
0.1242614 2.6879151 0.41099846 0
0.12278595 2.6848121 0.53297806 0
0.12397333 2.6873093 0.66296601 0
0.097201429 2.6769228 -0.049907658 0
0.10118111 2.6855714 0.4079617 0
0.10507544 2.6940346 0.53326064 0
0.10203036 2.687417 0.65915668 0
0.076368056 2.6786044 -0.049655695 0
0.084926926 2.6978385 0.40910333 0
0.081237338 2.6895471 0.52863055 0
0.080974482 2.6889563 0.65614295 0
0.064635895 2.7010107 -0.050220709 0
0.063210629 2.6976957 0.40684932 0
0.061397754 2.6934798 0.52718383 0
0.064250372 2.700114 0.65760022 0
0.048908852 2.7148416 -0.050457023 0
0.042897366 2.7003608 0.40545845 0
0.045718275 2.7071559 0.52934474 0
0.044674955 2.7046428 0.65617281 0
0.023916503 2.705992 -0.049827553 0
0.02659454 2.7126796 0.40679821 0
0.028232893 2.7167709 0.53011018 0
0.027357241 2.7145841 0.65727681 0
0.0046572895 2.7107739 -0.049734849 0
0.0065586776 2.7157011 0.40564519 0
0.011143169 2.7275805 0.53137684 0
0.004194817 2.7095757 0.65183783 0
-0.0073261647 2.7349613 -0.050390895 0
-0.020320216 2.6999855 0.39946675 0
-0.011816242 2.7228756 0.52720767 0
-0.013582268 2.718122 0.65254027 0
-0.029800931 2.7311666 -0.049988907 0
-0.03246025 2.7237229 0.40409666 0
-0.034755982 2.7172968 0.52285093 0
-0.030834356 2.7282741 0.65404427 0
-0.052432813 2.7260501 -0.049549464 0
-0.05348251 2.7229908 0.40214777 0
-0.052579381 2.7256231 0.52350563 0
-0.052066959 2.7271163 0.65068644 0
-0.06708131 2.7442102 -0.049997419 0
-0.070269085 2.7345238 0.40357253 0
-0.074123926 2.7228107 0.5203352 0
-0.074547835 2.7215226 0.64552563 0
-0.087450005 2.7452838 -0.049810931 0
-0.092358299 2.729712 0.40067595 0
-0.091608681 2.7320902 0.5214901 0
-0.092312194 2.7298584 0.64655548 0
-0.10698096 2.748692 -0.049721774 0
-0.11514098 2.7216196 0.39699039 0
-0.11485154 2.72258 0.5161882 0
-0.11233503 2.7309289 0.64453661 0
-0.12052897 2.7726777 -0.050406542 0
-0.10619191 2.8225055 0.064257637 0
-0.10820702 2.8155022 0.18058604 0
-0.10401107 2.830085 0.3017168 0
-0.1305386 2.7378895 0.39986226 0
-0.12907828 2.7429647 0.52135652 0
-0.13282497 2.7299433 0.64174801 0
-0.14112361 2.7727978 -0.050211817 0
-0.13645129 2.7898409 0.062842734 0
-0.13650446 2.7896471 0.17708841 0
-0.13214038 2.8055661 0.29608744 0
-0.15019362 2.7397132 0.39895394 0
-0.15067686 2.7379506 0.51780695 0
-0.15298097 2.7295458 0.63933247 0
-0.16247652 2.7694769 -0.049900349 0
-0.15755369 2.7883635 0.062597156 0
-0.15615316 2.7937367 0.17696753 0
-0.15357818 2.8036156 0.2947489 0
-0.16984843 2.7411945 0.39802369 0
-0.17013316 2.7401021 0.51682639 0
-0.17309408 2.7287426 0.63686007 0
-0.18310709 2.7681754 -0.049674023 0
-0.17654209 2.7947273 0.062650509 0
-0.17828234 2.787689 0.17575222 0
-0.17861371 2.7863486 0.29061925 0
-0.18904205 2.7441714 0.39755458 0
-0.19165577 2.7336001 0.51296735 0
-0.1888627 2.7448969 0.64173591 0
-0.19932316 2.7850575 -0.050124615 0
-0.19832401 2.7893288 0.062281221 0
-0.19808997 2.7903292 0.17553017 0
-0.19965591 2.7836351 0.28925577 0
-0.20915596 2.7430243 0.39606968 0
-0.20951407 2.7414935 0.51413083 0
-0.20891951 2.744035 0.63944656 0
-0.22031315 2.7817969 -0.049845006 0
-0.21860521 2.7895362 0.062127963 0
-0.2187153 2.7890375 0.17490348 0
-0.21838678 2.7905262 0.2897189 0
-0.22783776 2.7477007 0.39617667 0
-0.23114185 2.732729 0.50969249 0
-0.22900902 2.7423935 0.63694018 0
-0.23860045 2.7906053 -0.050015826 0
-0.23412563 2.8121686 0.062802069 0
-0.23485781 2.8086405 0.17660037 0
-0.23496558 2.8081212 0.29219595 0
-0.24794041 2.7455971 0.39457813 0
-0.25151819 2.7283564 0.50685084 0
-0.24977748 2.7367446 0.63285297 0
-0.25719759 2.7984674 -0.050160207 0
-0.2499003 2.8360014 0.063525312 0
-0.25291148 2.8205132 0.17746907 0
-0.25130248 2.8287892 0.29526988 0
-0.26709801 2.7475438 0.39410204 0
-0.27087012 2.7281418 0.5055123 0
-0.269665 2.7343404 0.63025469 0
-0.27831221 2.7930384 -0.049830507 0
-0.26767695 2.8516729 0.063957997 0
-0.26556838 2.8632982 0.18173698 0
-0.26709756 2.8548672 0.29936621 0
-0.2873669 2.7431176 0.39203721 0
-0.29081884 2.7240863 0.50296068 0
-0.2899797 2.7287128 0.62641138 0
-0.29831153 2.7928505 -0.049700893 0
-0.30640057 2.744817 0.39162773 0
-0.3079665 2.7355185 0.50572449 0
-0.30900687 2.7293406 0.6253103 0
-0.31737232 2.7981243 -0.049777977 0
-0.3257063 2.7445235 0.39076644 0
-0.32911125 2.7226243 0.5003652 0
-0.32908618 2.7227855 0.62130207 0
-0.33633721 2.8044775 -0.049902514 0
-0.34611836 2.7358913 0.38782042 0
-0.34754255 2.7259049 0.50054073 0
-0.34846079 2.719466 0.61876017 0
-0.35483217 2.8151581 -0.050191239 0
-0.36658219 2.7246244 0.38426751 0
-0.36656475 2.7247589 0.49930891 0
-0.36557055 2.7324193 0.62311834 0
-0.3744728 2.8178265 -0.050199918 0
-0.38438421 2.7331157 0.3858614 0
-0.38605729 2.718816 0.49655247 0
-0.38573611 2.7215612 0.61763394 0
-0.39510223 2.8111 -0.049880236 0
-0.40437624 2.7221465 0.38251895 0
-0.4032802 2.7326596 0.5005002 0
-0.40512949 2.7149215 0.61401862 0
-0.41499457 2.8099864 -0.049771473 0
-0.42318162 2.7205539 0.38164702 0
-0.42353392 2.7167053 0.49456096 0
-0.42393357 2.7123396 0.61219615 0
-0.43379375 2.8217981 -0.050134681 0
-0.44192773 2.7186551 0.38075835 0
-0.44219023 2.7153265 0.493577 0
-0.44253102 2.7110054 0.61099195 0
-0.45388624 2.8180001 -0.049947545 0
-0.4603996 2.7196162 0.38066193 0
-0.46159509 2.7015581 0.48854119 0
-0.4613243 2.7056482 0.60821676 0
-0.47374111 2.8162286 -0.049842045 0
-0.47926241 2.7131548 0.37872869 0
-0.48008162 2.6978617 0.4869459 0
-0.47978723 2.7033577 0.60681313 0
-0.49311498 2.8244619 -0.050103005 0
-0.49803385 2.7043333 0.37625444 0
-0.49819657 2.7003593 0.48749152 0
-0.49880037 2.6856139 0.59910303 0
-0.51326948 2.811758 -0.049624816 0
-0.51660591 2.6940289 0.37346292 0
-0.51683593 2.6859128 0.48247334 0
-0.51701242 2.6796846 0.59638846 0
-0.53277171 2.8192589 -0.049877204 0
-0.53475708 2.6931398 0.37313411 0
-0.53499156 2.6782477 0.47979063 0
-0.53500152 2.6776145 0.59536743 0
-0.55247253 2.8212259 -0.049940784 0
-0.55291998 2.6791418 0.36951908 0
-0.55291945 2.6793089 0.48008737 0
-0.55292666 2.6770205 0.59505147 0
-0.57208639 2.8089037 -0.049503066 0
-0.57080555 2.6732628 0.3680335 0
-0.57072675 2.6649175 0.47531796 0
-0.57077271 2.6697836 0.59207827 0
-0.59216118 2.8313706 -0.050316352 0
-0.58847779 2.6642282 0.36579973 0
-0.58863956 2.6715693 0.47762457 0
-0.58863896 2.6715424 0.59292287 0
-0.61150891 2.8161862 -0.049794026 0
-0.60606843 2.6591249 0.3646253 0
-0.60588539 2.6538405 0.47189108 0
-0.60601211 2.6574988 0.58731431 0
-0.63116229 2.8152096 -0.049787898 0
-0.62318408 2.6463671 0.36155164 0
-0.62310135 2.6446152 0.46905869 0
-0.62286478 2.6396089 0.58019871 0
-0.65107244 2.8185422 -0.049944725 0
-0.64083695 2.6476085 0.36210883 0
-0.64018327 2.6366916 0.46673024 0
-0.64062423 2.6440554 0.58243042 0
-0.64049608 2.641916 0.70151281 0
-0.67113441 2.8223948 -0.050129283 0
-0.65783608 2.6390369 0.36021322 0
-0.65646452 2.6201265 0.46158889 0
-0.65760547 2.6358573 0.57950795 0
-0.65717208 2.6298821 0.69605607 0
-0.69078463 2.8198442 -0.050093658 0
-0.67344677 2.6163406 0.46077743 0
-0.67401922 2.6230593 0.57475966 0
-0.67367089 2.6189716 0.69126278 0
-0.71042937 2.8174636 -0.050072957 0
-0.69158518 2.6249676 0.46418577 0
-0.69090039 2.6179726 0.57329947 0
-0.69000959 2.6088729 0.68697613 0
-0.72962224 2.8111024 -0.049918119 0
-0.70600748 2.5976307 0.56557095 0
-0.70753628 2.6114509 0.68916845 0
-0.74982607 2.8138008 -0.050097629 0
-0.72283018 2.5950098 0.56530267 0
-0.72318435 2.5978801 0.68333423 0
-0.76891112 2.8073227 -0.049955968 0
-0.7383824 2.5831606 0.67700928 0
-0.78834295 2.8038282 -0.049930405 0
-0.75429273 2.5753622 0.67427021 0
-0.80896473 2.8077753 -0.05018276 0
-0.82614326 2.790982 -0.04969338 0
-0.84767067 2.7991872 -0.050118778 0
-0.86504489 2.7851863 -0.049746484 0
-0.88808107 2.7988713 -0.050391983 0
-0.90502948 2.7837048 -0.049993627 0
-0.92335165 2.7754359 -0.049855176 0
-0.94135731 2.7663052 -0.049693011 0
-0.96073502 2.7627363 -0.049744207 0
-0.98260546 2.7678959 -0.050128296 0
-0.99827135 2.7510214 -0.049703985 0
-1.0192921 2.752522 -0.04997186 0
-1.0400746 2.752656 -0.050199475 0
-1.0585032 2.7452726 -0.05015476 0
-1.0761048 2.7356138 -0.050032534 0
-1.0951723 2.7302206 -0.050080232 0
-1.1143206 2.7249367 -0.050141472 0
-1.1331627 2.7187476 -0.050177526 0
-1.1529936 2.7149076 -0.05031345 0
-1.1676745 2.6986251 -0.049977519 0
