# .PCD v0.7 - Point Cloud Data file format
VERSION 0.7
FIELDS x y z intensity
SIZE 4 4 4 4
TYPE F F F F
COUNT 1 1 1 1
WIDTH 1325
HEIGHT 1
VIEWPOINT 0 0 0 1 0 0 0
POINTS 1325
DATA ascii
1.5145363 -1.6134349 -0.090374582 0
1.9051026 -1.7744914 -0.091279946 0
3.1995358 -2.3082726 -0.14090517 0
4.7992334 -2.9679346 -0.1406582 0
9.6122952 -4.9526806 -0.14075142 0
0.8459906 -1.3130519 -0.09138035 0
0.95323318 -1.3541409 -0.091102503 0
1.0823404 -1.403607 -0.089351676 0
1.2672076 -1.474437 -0.089593373 0
1.5248134 -1.5731362 -0.089750193 0
1.9167851 -1.7233162 -0.090528019 0
3.2297266 -2.2263567 -0.14075018 0
4.8601894 -2.8510523 -0.14128439 0
9.7103176 -4.7093306 -0.14077838 0
0.84280068 -1.2876973 -0.088879399 0
0.97483683 -1.3345006 -0.093640663 0
1.0825883 -1.3726956 -0.087632142 0
1.282958 -1.4437213 -0.090176784 0
1.5491511 -1.5380796 -0.091001563 0
1.9320074 -1.673792 -0.090261824 0
3.2525141 -2.1418762 -0.14020155 0
4.8906617 -2.7225559 -0.14054574 0
9.7993031 -4.4625378 -0.14073437 0
0.85556298 -1.2681574 -0.090109445 0
0.98413277 -1.3101115 -0.09381818 0
1.1030892 -1.3489288 -0.089563482 0
1.2854313 -1.4084297 -0.088907801 0
1.5581412 -1.497419 -0.090465136 0
1.9522669 -1.6260282 -0.090615638 0
3.2860553 -2.0612631 -0.14060566 0
4.9417219 -2.6015317 -0.14098082 0
9.8848438 -4.2145457 -0.14075947 0
0.857539 -1.2450767 -0.08904729 0
0.9812324 -1.2820135 -0.091718443 0
1.1209127 -1.3237244 -0.091124393 0
1.2992711 -1.3769852 -0.089446582 0
1.563594 -1.4559163 -0.089626931 0
1.9657277 -1.5760001 -0.090422414 0
3.3202748 -1.9804902 -0.14120528 0
4.9762597 -2.4749947 -0.1407589 0
9.9554605 -3.9618659 -0.14057474 0
0.8690002 -1.224816 -0.090210237 0
0.98370892 -1.2559402 -0.090821274 0
1.1299423 -1.2956181 -0.091285862 0
1.3162401 -1.3461666 -0.090553306 0
1.5656815 -1.4138483 -0.088514231 0
1.9588932 -1.5205394 -0.088390209 0
3.3409615 -1.8955394 -0.14096873 0
5.0127134 -2.3491399 -0.14078552 0
10.03425 -3.7116461 -0.14074238 0
0.88045019 -1.2042536 -0.091475852 0
0.97891402 -1.22832 -0.088647746 0
1.1365298 -1.2668444 -0.09115357 0
1.3168399 -1.3109158 -0.089398019 0
1.5791277 -1.3750241 -0.088903122 0
1.9705991 -1.4707073 -0.088286959 0
3.3549018 -1.8090582 -0.14040293 0
5.0323029 -2.219048 -0.14015649 0
10.107545 -3.4595368 -0.14092909 0
0.88163882 -1.1811335 -0.090615444 0
0.99028009 -1.2047997 -0.089736201 0
1.1329244 -1.2358727 -0.089429997 0
1.3258274 -1.2778941 -0.089583762 0
1.6028399 -1.3382376 -0.090635411 0
1.981763 -1.420781 -0.088252984 0
3.3789339 -1.7251364 -0.14071892 0
5.0789609 -2.0954649 -0.14097753 0
10.167297 -3.2038918 -0.14094439 0
0.89357573 -1.1602654 -0.092211999 0
0.99200636 -1.1791193 -0.089084886 0
1.1480228 -1.2090034 -0.090975739 0
1.3363665 -1.2450796 -0.09011022 0
1.6201243 -1.2994319 -0.091705211 0
2.5421391 -1.4760391 -0.14053483 0
3.409862 -1.6422467 -0.1416754 0
5.106812 -1.9672886 -0.14105138 0
10.215854 -2.9458983 -0.14084771 0
0.89466113 -1.1372025 -0.091577657 0
0.99352413 -1.1535649 -0.08852049 0
1.143454 -1.1783791 -0.089351989 0
1.3389457 -1.2107341 -0.089618854 0
1.6256099 -1.2581786 -0.091489114 0
2.5564883 -1.4122442 -0.14080703 0
3.4169562 -1.5546564 -0.14108759 0
5.1267934 -1.837644 -0.14090654 0
10.257677 -2.6868336 -0.14074656 0
0.89368778 -1.1139894 -0.09062884 0
1.0019546 -1.1291124 -0.089395635 0
1.1497457 -1.1497563 -0.089664735 0
1.3333733 -1.175406 -0.088095762 0
1.6212856 -1.2156224 -0.090239264 0
2.5725582 -1.3484991 -0.14139248 0
3.4188879 -1.466717 -0.14029379 0
5.1275816 -1.7053927 -0.14001414 0
10.298335 -2.4276593 -0.14077224 0
0.91051447 -1.0930182 -0.093616433 0
1.0054249 -1.1038419 -0.089445136 0
1.1546204 -1.1208565 -0.089861877 0
1.3465573 -1.1427454 -0.08935637 0
1.639578 -1.176162 -0.091779955 0
2.5712702 -1.2824141 -0.14049695 0
3.4362807 -1.3810617 -0.14074658 0
5.1601381 -1.5776539 -0.14076951 0
10.326894 -2.1668811 -0.14066799 0
0.90062177 -1.0689545 -0.091008715 0
1.0179771 -1.0793461 -0.091332577 0
1.1287637 -1.089156 -0.085108541 0
1.1422309 -1.0903485 -0.060043264 0
1.6384904 -1.1342914 -0.09116035 0
2.5771675 -1.2174095 -0.14043324 0
3.4424989 -1.2940329 -0.14056602 0
5.1722493 -1.4471991 -0.1407185 0
10.357614 -1.9063535 -0.14076824 0
0.90370041 -1.0463157 -0.091297336 0
1.0155561 -1.0533814 -0.090507962 0
1.1388016 -1.0611665 -0.086405776 0
1.128126 -1.0604922 -0.057749201 0
1.6369523 -1.0926337 -0.090612836 0
2.5939343 -1.1530843 -0.14153978 0
3.4545474 -1.2074475 -0.14094815 0
5.1745296 -1.3160952 -0.14036272 0
10.380007 -1.6449145 -0.1408277 0
0.90642697 -1.0235806 -0.091632389 0
1.0172535 -1.0277774 -0.090584002 0
1.1215892 -1.0317284 -0.083336182 0
1.141378 -1.0324779 -0.059410725 0
1.6415488 -1.0514185 -0.090906389 0
2.5970824 -1.0876032 -0.14152491 0
3.463098 -1.120398 -0.14123818 0
5.1929407 -1.1859047 -0.14091305 0
10.386195 -1.3825657 -0.14066368 0
0.90616739 -1.0007136 -0.091454588 0
1.0149508 -1.0020862 -0.090028279 0
1.1218845 -1.0034354 -0.083267383 0
1.1360922 -1.0036147 -0.05856571 0
1.1361958 -1.003616 -0.031717245 0
1.129214 -1.0035279 -0.0043482762 0
1.1351441 -1.0036027 0.021674918 0
1.131443 -1.003556 0.048337631 0
1.1264621 -1.0034932 0.074800223 0
1.1269798 -1.0034997 0.10100254 0
1.1344851 -1.0035944 0.12739189 0
1.1375793 -1.0036335 0.15395391 0
1.1443098 -1.0037184 0.18097229 0
1.1315697 -1.0035577 0.20657408 0
1.1282343 -1.0035156 0.23279274 0
1.127972 -1.0035123 0.25943086 0
1.1339978 -1.0035883 0.2872656 0
1.1381506 -1.0036407 0.31524295 0
0.91159195 -0.97780263 -0.092607729 0
1.0176888 -0.97646397 -0.090544008 0
1.1326802 -0.97501308 -0.085041814 0
1.1299253 -0.97504783 -0.057698969 0
1.6356127 -0.96866733 -0.090090401 0
2.5945723 -0.95656765 -0.14113621 0
3.4575026 -0.94567961 -0.14069276 0
5.1899729 -0.9238202 -0.14062087 0
10.403593 -0.85803735 -0.14091438 0
0.90315163 -0.95512819 -0.090935685 0
1.0183567 -0.95076555 -0.090791933 0
1.1317544 -0.94647133 -0.085008062 0
1.1274298 -0.94663507 -0.057449121 0
1.6482077 -0.92691398 -0.091685198 0
2.5877755 -0.89133388 -0.14065558 0
3.4589286 -0.85834455 -0.14094649 0
5.187252 -0.79289544 -0.14064802 0
10.385044 -0.59606248 -0.14063691 0
0.89775783 -0.93264437 -0.090031646 0
1.0280265 -0.92441559 -0.092861451 0
1.1281164 -0.91809309 -0.084646158 0
1.1324135 -0.91782165 -0.058352951 0
1.6372675 -0.88593107 -0.090649761 0
2.5814388 -0.82628965 -0.14037111 0
3.4526894 -0.77125454 -0.140818 0
5.1768188 -0.66234481 -0.14046951 0
10.377293 -0.33384159 -0.14076446 0
0.89540231 -0.91009241 -0.089894928 0
1.0034772 -0.90052259 -0.088590823 0
1.1491996 -0.88761914 -0.088480361 0
1.3618027 -0.86879355 -0.091021456 0
1.6429329 -0.84389997 -0.091681592 0
2.5858448 -0.76040685 -0.14124633 0
3.4387553 -0.68488324 -0.14030327 0
5.1676073 -0.53179663 -0.14050154 0
10.355004 -0.07246235 -0.14070734 0
0.88097537 -0.88893527 -0.087296851 0
1.0229899 -0.87273961 -0.092774965 0
1.1537135 -0.85783166 -0.089711852 0
1.3462272 -0.835877 -0.089309685 0
1.6331996 -0.80315006 -0.091029651 0
2.5781944 -0.69538099 -0.14114745 0
3.4441113 -0.59663004 -0.14129756 0
5.1507354 -0.4020032 -0.14032893 0
10.325469 0.18813387 -0.14063466 0
0.89700407 -0.86413217 -0.091340609 0
1.0037338 -0.84922379 -0.08973401 0
1.1501353 -0.82877398 -0.089729391 0
1.3460082 -0.80141389 -0.08988864 0
1.6298329 -0.7617684 -0.091247894 0
2.5627928 -0.63144964 -0.14047214 0
3.429915 -0.51032734 -0.14107217 0
5.1428533 -0.27105889 -0.14073201 0
10.302384 0.4496403 -0.14086728 0
0.88321871 -0.84327596 -0.089112334 0
1.0043755 -0.82322383 -0.090592153 0
1.1535264 -0.79853857 -0.091029935 0
1.3485454 -0.76626182 -0.090986304 0
1.6183475 -0.72160804 -0.09062881 0
2.5488346 -0.56760722 -0.14008293 0
3.4103124 -0.42502788 -0.1406168 0
5.1149225 -0.14290544 -0.14034638 0
10.271802 0.71058685 -0.14107946 0
0.88531107 -0.8199023 -0.090423308 0
0.99135643 -0.79958987 -0.088960253 0
1.1453713 -0.77008915 -0.090532057 0
1.3353181 -0.73370582 -0.08996021 0
1.349225 -0.73104203 -0.05946875 0
1.3453437 -0.73178548 -0.026794737 0
1.3501856 -0.73085803 0.0049330685 0
1.3580476 -0.72935212 0.036643777 0
1.339151 -0.73297167 0.069291569 0
1.3332945 -0.73409343 0.10100912 0
0.88949174 -0.79574049 -0.092323817 0
0.99728298 -0.77225959 -0.091086142 0
1.1394454 -0.7412914 -0.090526856 0
1.2059236 -0.72681004 -0.072337948 0
1.1988375 -0.72835362 -0.042310987 0
1.2110116 -0.72570163 -0.014623633 0
1.2159333 -0.72462952 0.014041403 0
1.2128366 -0.72530413 0.043229491 0
1.1912595 -0.73000437 0.072646722 0
1.2166028 -0.72448367 0.10100591 0
0.88323265 -0.77365106 -0.092084713 0
0.99005842 -0.74754071 -0.090808593 0
1.1285317 -0.71369517 -0.089800365 0
1.2033182 -0.69541585 -0.072974645 0
1.200585 -0.6960839 -0.043359239 0
1.2074902 -0.69439614 -0.01496133 0
1.2085 -0.69414932 0.01406795 0
1.2103503 -0.69369709 0.043010943 0
1.2101223 -0.69375283 0.072029591 0
1.2120448 -0.6932829 0.10100599 0
0.86881566 -0.75381875 -0.090169601 0
0.98442537 -0.72245008 -0.090961106 0
1.1133163 -0.68747783 -0.088454552 0
1.2060758 -0.66230911 -0.07451164 0
1.2150978 -0.65986121 -0.046058852 0
1.1974871 -0.66463953 -0.014750635 0
1.2187822 -0.65886146 0.012755873 0
1.210749 -0.66104114 0.042613368 0
1.2114315 -0.66085595 0.071809135 0
1.2152287 -0.65982568 0.10100631 0
0.86969513 -0.72987795 -0.091743968 0
0.9788481 -0.69728309 -0.091249757 0
1.1113452 -0.65771729 -0.089483343 0
1.202626 -0.63045937 -0.075271942 0
1.2032197 -0.63028204 -0.045671005 0
1.2044288 -0.62992102 -0.016261896 0
1.2018622 -0.63068742 0.013353797 0
1.2152765 -0.62668169 0.041972291 0
1.203758 -0.63012129 0.071784906 0
1.2105482 -0.62809366 0.10100643 0
0.85148883 -0.71175677 -0.089198492 0
0.96425694 -0.67495888 -0.08988028 0
1.0989692 -0.63100028 -0.088851221 0
1.2072676 -0.59566092 -0.077353053 0
1.2073373 -0.59563816 -0.047337878 0
1.216557 -0.59262967 -0.018380573 0
1.2088424 -0.59514701 0.012147011 0
1.2088906 -0.59513128 0.041818049 0
1.1991588 -0.59830695 0.07166639 0
1.2138498 -0.59351301 0.10100682 0
0.84968263 -0.68844789 -0.090431415 0
0.95330364 -0.65171707 -0.089337595 0
1.0946665 -0.60160768 -0.089738227 0
1.202178 -0.56349772 -0.078132279 0
1.2093501 -0.56095541 -0.048866678 0
1.2052565 -0.56240654 -0.018290913 0
1.2022599 -0.56346869 0.011869112 0
1.2049816 -0.56250393 0.041500919 0
1.2071582 -0.56173235 0.0712163 0
1.2009659 -0.56392741 0.10100675 0
0.84346795 -0.66649926 -0.090806119 0
0.95786119 -0.62267059 -0.092035986 0
1.091753 -0.57137132 -0.091008313 0
1.209535 -0.52624434 -0.080913849 0
1.2078192 -0.52690172 -0.050075848 0
1.1985782 -0.5304423 -0.018738305 0
1.1976131 -0.53081208 0.01138402 0
1.2034956 -0.52855825 0.041019041 0
1.2155113 -0.52395457 0.070730165 0
1.2134 -0.52476346 0.10100746 0
0.83767617 -0.64426434 -0.091408722 0
0.93414724 -0.60448289 -0.089151256 0
1.0858023 -0.5419454 -0.091886736 0
1.2045131 -0.49299309 -0.08198493 0
1.1965653 -0.49627048 -0.05017658 0
1.20855 -0.49132836 -0.020952506 0
1.2073333 -0.49183005 0.0097453985 0
1.2181103 -0.48738602 0.039678406 0
1.2090844 -0.491108 0.070586793 0
1.2115536 -0.49008977 0.10100778 0
0.83560854 -0.62021029 -0.093013369 0
0.93331087 -0.57700557 -0.09103974 0
1.0737683 -0.51489419 -0.091814555 0
1.2043512 -0.45714936 -0.083943121 0
1.207517 -0.45574936 -0.053214405 0
1.2066867 -0.45611659 -0.022083854 0
1.2022617 -0.45807341 0.0091442931 0
1.2073553 -0.45582095 0.039561529 0
1.2064035 -0.45624182 0.07032562 0
1.2088665 -0.45515266 0.1010081 0
0.82105595 -0.60162079 -0.091843747 0
0.9231661 -0.55335093 -0.091155238 0
1.0647485 -0.48642167 -0.092412882 0
1.227235 -0.4096106 -0.089646943 0
1.4789264 -0.29063025 -0.090090521 0
1.8593016 -0.11081812 -0.090891071 0
3.127377 0.48863044 -0.14078535 0
4.6956682 1.2299979 -0.14077964 0
9.4056387 3.4565098 -0.14089333 0
0.79986435 -0.58667165 -0.089189909 0
0.90211248 -0.53514111 -0.089096509 0
1.0389998 -0.46615341 -0.090071432 0
1.2124547 -0.37873647 -0.089684092 0
1.4685115 -0.2496902 -0.091096111 0
1.8355991 -0.064687222 -0.090792172 0
3.0876377 0.56630915 -0.14067149 0
4.6332588 1.3452637 -0.14052315 0
9.2822866 3.6882575 -0.14068018 0
0.79171664 -0.56542885 -0.089736201 0
0.89112204 -0.51214433 -0.089257888 0
1.0345311 -0.43527249 -0.09176109 0
1.1962489 -0.34858653 -0.089617886 0
1.4404646 -0.21767905 -0.08991342 0
1.809559 -0.019832518 -0.090566866 0
3.0602119 0.65055794 -0.14168726 0
4.5817184 1.4661345 -0.14098994 0
9.1630421 3.9218719 -0.14072579 0
0.79015893 -0.54027081 -0.092032246 0
0.88119483 -0.48847422 -0.089776911 0
1.0131953 -0.4133701 -0.090432115 0
1.1788462 -0.31911984 -0.089479409 0
1.2131907 -0.29957893 -0.062032167 0
1.2124523 -0.29999909 -0.029131582 0
3.0078366 0.72151881 -0.14088081 0
4.5263038 1.5854793 -0.14141826 0
9.0339231 4.1501741 -0.14066456 0
0.76535571 -0.52847338 -0.08875034 0
0.87776506 -0.46070573 -0.091863297 0
0.99551237 -0.38971999 -0.089889087 0
1.1627662 -0.28888848 -0.089676999 0
1.1482785 -0.29762265 -0.055601183 0
1.2016315 -0.2654579 -0.029889783 0
2.9573567 0.79300767 -0.14036186 0
4.4491997 1.6923876 -0.14083663 0
8.9124985 4.3831553 -0.14096661 0
0.76956326 -0.49907944 -0.092803828 0
0.85137159 -0.44690135 -0.089008786 0
0.97635543 -0.36718556 -0.089165397 0
1.1458291 -0.25909373 -0.089861117 0
1.1493624 -0.25684014 -0.05822124 0
1.180675 -0.23686871 -0.0296339 0
2.9197991 0.87236005 -0.14105447 0
4.380434 1.803966 -0.14085385 0
8.7615719 4.5982947 -0.14062086 0
0.75239569 -0.48291239 -0.091636442 0
0.85224712 -0.41562292 -0.092377372 0
0.96898085 -0.33695653 -0.090876199 0
1.1235719 -0.23277822 -0.089273222 0
1.1472812 -0.21680066 -0.060583968 0
1.1608366 -0.20766571 -0.029580032 0
2.8661311 0.94152552 -0.14056826 0
4.3078432 1.9130898 -0.14081344 0
8.6276779 4.8242092 -0.14089772 0
0.73753273 -0.46542838 -0.091154598 0
0.83203167 -0.39821771 -0.091113038 0
0.95370066 -0.31168279 -0.091176115 0
1.105181 -0.20394519 -0.089454986 0
1.1388682 -0.17998567 -0.062225077 0
1.1423417 -0.17751524 -0.02976281 0
2.8257804 1.0198004 -0.1413642 0
4.2259569 2.0156507 -0.14039725 0
8.476965 5.039104 -0.14086103 0
0.72528738 -0.44610605 -0.091475226 0
0.80671614 -0.38503996 -0.088726349 0
0.92495483 -0.29636887 -0.08884532 0
1.09377 -0.16976884 -0.090993024 0
1.1026859 -0.16308251 -0.05997527 0
1.0954187 -0.16853246 -0.026720261 0
1.1017861 -0.16375729 0.0047770832 0
1.102441 -0.16326621 0.036874462 0
1.0916343 -0.17137048 0.069273502 0
1.1006974 -0.16457382 0.10100964 0
1.1009519 -0.1643829 0.13301663 0
1.1043148 -0.16186091 0.16525429 0
1.1010531 -0.16430703 0.19717854 0
0.71425694 -0.42570832 -0.092262261 0
0.80595171 -0.35325781 -0.092264183 0
0.91646636 -0.26593718 -0.09079098 0
1.0579804 -0.1541231 -0.088348605 0
1.1029685 -0.11857691 -0.063174672 0
1.1047491 -0.11716989 -0.030335164 0
1.0973271 -0.12303427 0.0032873249 0
1.1115643 -0.11178502 0.035075758 0
1.1096698 -0.11328194 0.068117261 0
1.0978613 -0.12261221 0.10101031 0
1.103181 -0.11840895 0.1337115 0
1.0988632 -0.12182048 0.16619152 0
1.0986713 -0.12197211 0.19885351 0
0.69727457 -0.41000041 -0.091561176 0
0.78220218 -0.33934423 -0.090439953 0
0.89889157 -0.2422637 -0.090997852 0
1.0240593 -0.13812962 -0.086061172 0
1.0971678 -0.07730636 -0.065686129 0
1.0992821 -0.075547427 -0.0323858 0
1.0975595 -0.076980561 0.0012468121 0
1.0980307 -0.076588541 0.034533124 0
1.0940387 -0.079909652 0.067910857 0
1.0966632 -0.077726156 0.10101109 0
1.1035347 -0.072009414 0.13439907 0
1.0986 -0.076114863 0.16752386 0
1.1028022 -0.072618932 0.20125298 0
0.6735298 -0.40041527 -0.089044727 0
0.77083838 -0.31521371 -0.091762714 0
0.88790649 -0.21271101 -0.09277799 0
1.0041499 -0.11093047 -0.086414598 0
1.1060752 -0.021686699 -0.070698492 0
1.1007863 -0.026317444 -0.035476048 0
1.0948139 -0.031546738 -0.00066940277 0
1.1065396 -0.021280017 0.032560039 0
1.1058162 -0.021913376 0.066827074 0
1.1058662 -0.021869626 0.10101232 0
1.1025794 -0.024747457 0.13509734 0
1.1027657 -0.024584439 0.16923103 0
1.1039153 -0.023577776 0.20354001 0
1.0945286 -0.03179666 0.2367242 0
1.082634 -0.042211261 0.37184557 0
0.6630615 -0.37939259 -0.090375222 0
0.74745828 -0.30164823 -0.090193592 0
0.8611967 -0.19687495 -0.091251008 0
0.96123588 -0.10472116 -0.082510449 0
1.0594163 -0.01427969 -0.067219548 0
1.0965921 0.019965801 -0.038071636 0
1.1048409 0.02756444 -0.0039524417 0
1.1051064 0.027809057 0.031082528 0
1.0992329 0.022398505 0.066252485 0
1.0990072 0.022190724 0.10101302 0
1.0960795 0.019493613 0.13567367 0
1.1059563 0.028591905 0.17099804 0
1.0952095 0.018692169 0.20506312 0
1.0968355 0.020190034 0.24012914 0
1.0424117 -0.029943909 0.36775145 0
0.66050303 -0.35024604 -0.094234951 0
0.73764151 -0.27550313 -0.092231609 0
0.83418077 -0.18196204 -0.089706592 0
0.84256178 -0.17384133 -0.063715003 0
0.83954489 -0.17676452 -0.035496507 0
0.83651638 -0.17969897 -0.0076246765 0
0.84048927 -0.17584941 0.019248853 0
0.834562 -0.18159261 0.046933953 0
0.83187938 -0.18419191 0.074070223 0
0.8503117 -0.1663321 0.10100416 0
0.83718109 -0.17905489 0.12810872 0
0.84553623 -0.1709592 0.15578553 0
0.84587991 -0.17062619 0.18328419 0
1.1037558 0.079240948 0.2443869 0
1.0054435 -0.016018119 0.29761061 0
1.0061644 -0.015319612 0.33108741 0
0.99057961 -0.030420329 0.36059064 0
0.6346944 -0.34346482 -0.091359384 0
0.71328932 -0.26336834 -0.090588979 0
0.81358242 -0.16115913 -0.08971519 0
0.84058034 -0.13364533 -0.067499556 0
0.83693147 -0.13736394 -0.038525928 0
0.83208942 -0.14229849 -0.0097924229 0
0.84038144 -0.1338481 0.017184326 0
0.8405658 -0.13366017 0.045162641 0
0.84165639 -0.13254872 0.073062539 0
0.83879006 -0.13546988 0.10100455 0
0.84029347 -0.13393769 0.12890147 0
0.83886224 -0.13539627 0.15673338 0
0.83995533 -0.13428232 0.18478267 0
0.84074551 -0.133477 0.21295588 0
1.0982435 0.12894037 0.28416258 0
0.94353622 -0.028722432 0.29017717 0
0.94557846 -0.026641276 0.32270908 0
0.95969993 -0.012249913 0.35887671 0
0.61123484 -0.33514473 -0.089189701 0
0.69352829 -0.24693307 -0.090252556 0
0.79915696 -0.13370815 -0.091336139 0
0.8373273 -0.092792779 -0.071332105 0
0.84654242 -0.082914978 -0.043900911 0
0.83577275 -0.094459087 -0.013256794 0
0.84229439 -0.087468415 0.01474891 0
0.83587533 -0.094349176 0.043991171 0
0.84296781 -0.086746663 0.072271943 0
0.83901346 -0.090985328 0.10100547 0
0.84640026 -0.083067328 0.12985665 0
0.84501678 -0.084550291 0.1586443 0
0.83548486 -0.09476772 0.18656421 0
0.8358528 -0.094373316 0.21527903 0
1.1046365 0.19374004 0.29015464 0
0.92726016 0.0036076044 0.29187959 0
0.93148243 0.0081335045 0.32523814 0
0.92543507 0.0016513203 0.35630587 0
0.60090268 -0.31277576 -0.091229476 0
0.6760425 -0.22804341 -0.090668477 0
0.76951897 -0.12263361 -0.089404829 0
0.85040498 -0.031421509 -0.078949608 0
0.84079903 -0.042253759 -0.046964977 0
0.83981949 -0.043358352 -0.017039737 0
0.83853841 -0.04480299 0.012718948 0
0.83891457 -0.044378784 0.042174879 0
0.83796895 -0.04544517 0.071639724 0
0.84268641 -0.040125456 0.10100661 0
0.83864719 -0.044680323 0.13039696 0
0.84363347 -0.03905746 0.16016969 0
0.84358478 -0.039112356 0.18982644 0
0.84293497 -0.039845135 0.2194919 0
1.1056752 0.25643709 0.29566014 0
1.0951222 0.24453679 0.33282056 0
0.58375651 -0.29771915 -0.091267072 0
0.65566999 -0.21238121 -0.09039063 0
0.73104107 -0.12294015 -0.085230596 0
0.84779912 0.015613709 -0.083711006 0
0.8397916 0.0061114165 -0.051164497 0
0.84077013 0.0072725746 -0.020673191 0
0.83913106 0.0053275558 0.010040412 0
0.83669072 0.0024316644 0.040593866 0
0.84215075 0.0089109279 0.070619993 0
0.8383736 0.0044286582 0.1010075 0
0.83835852 0.0044107768 0.13125822 0
0.84264594 0.0094985105 0.1618519 0
0.83323401 -0.0016703274 0.19133472 0
0.83397949 -0.00078567525 0.22170483 0
0.84199381 0.0087246634 0.25358024 0
1.0970552 0.31139961 0.3401103 0
0.56077057 -0.28992066 -0.089446805 0
0.63700247 -0.19468173 -0.09073519 0
0.72476989 -0.085031062 -0.089391373 0
0.8455286 0.065836698 -0.088963099 0
0.85158676 0.073405415 -0.058117662 0
0.83694136 0.055108462 -0.023897005 0
0.83973849 0.058602963 0.0071351174 0
0.83293647 0.05010489 0.038989596 0
0.84603649 0.066471249 0.069528371 0
0.83864748 0.057239924 0.10100867 0
0.84349078 0.063290864 0.13239473 0
0.83768409 0.056036267 0.16338152 0
0.84218878 0.061664138 0.19515704 0
0.83877307 0.057396803 0.22618863 0
0.83118933 0.047922168 0.25632045 0
1.0925448 0.37444201 0.34655756 0
1.1079504 0.39368871 0.39221436 0
0.54444367 -0.27404884 -0.089972802 0
0.61226159 -0.18479571 -0.089337461 0
0.70348036 -0.064745456 -0.089868478 0
0.7278679 -0.032649782 -0.067878328 0
0.73012263 -0.029682364 -0.039885391 0
0.72817391 -0.032247033 -0.0112228 0
0.7317099 -0.02759346 0.016532095 0
0.72983146 -0.030065622 0.044885106 0
0.72761691 -0.03298011 0.073045239 0
0.7269609 -0.033843424 0.10100465 0
0.73758292 -0.019864108 0.12934811 0
0.73114794 -0.028332975 0.15722606 0
0.72566175 -0.035553183 0.18477856 0
0.72835886 -0.032003608 0.21326138 0
0.72251821 -0.039690282 0.24042621 0
0.7310856 -0.02841505 0.27063683 0
0.73082322 -0.0287604 0.29930782 0
0.73316813 -0.02567431 0.32899082 0
0.52967763 -0.25577322 -0.09122815 0
0.60004127 -0.15815124 -0.092002235 0
0.6709969 -0.059707906 -0.087357722 0
0.72838122 0.019906674 -0.073858552 0
0.95790684 0.3383489 -0.090300582 0
0.84594798 0.18301788 -0.033915017 0
0.84362757 0.17979863 0.00022224546 0
0.83237302 0.16418412 0.034775447 0
0.82996958 0.1608496 0.068006709 0
0.83603746 0.16926816 0.10101116 0
0.83486843 0.16764632 0.13421035 0
0.84427643 0.18069878 0.16819561 0
0.84917051 0.18748882 0.20246451 0
0.84106815 0.17624763 0.23515959 0
0.84074157 0.17579463 0.26890558 0
0.83802915 0.17203143 0.30223608 0
1.0997838 0.53518778 0.40993094 0
0.51296049 -0.23979983 -0.091966249 0
0.57668179 -0.1465188 -0.091268189 0
0.65345502 -0.034131017 -0.089142583 0
0.76834506 0.13405553 -0.090217121 0
0.92001939 0.35609034 -0.089454152 0
1.1589358 0.70583802 -0.090646707 0
0.84568024 0.24726585 -0.0037212649 0
0.8377279 0.23562446 0.031909619 0
0.83884621 0.23726156 0.066433787 0
0.83996224 0.23889533 0.10101286 0
0.84304744 0.24341169 0.13576546 0
0.83544993 0.23228982 0.16992782 0
0.84060723 0.23983946 0.20511872 0
0.83937538 0.23803619 0.23979291 0
0.84009928 0.23909596 0.27492175 0
0.83227247 0.22763827 0.30817097 0
1.1012166 0.62134331 0.42166176 0
1.0964385 0.61434871 0.46687943 0
0.48618251 -0.23903379 -0.088950507 0
0.55544382 -0.13193771 -0.091340803 0
0.63833803 -0.003761735 -0.091923989 0
0.7441985 0.15992621 -0.091366343 0
0.88414669 0.37632254 -0.089102305 0
1.109149 0.72423476 -0.089503966 0
1.477669 1.2940629 -0.08913105 0
0.85179609 0.32630017 0.028031254 0
0.84245813 0.31186119 0.06494274 0
0.83682692 0.3031539 0.10101434 0
0.84267402 0.31219509 0.13709584 0
0.84172928 0.31073418 0.17313513 0
0.84067357 0.30910185 0.20915732 0
0.83987409 0.30786565 0.24525046 0
0.84002316 0.30809608 0.28163645 0
0.84091336 0.30947259 0.31842574 0
0.84476238 0.31542411 0.35642901 0
1.0965924 0.70481902 0.4810918 0
0.46508068 -0.23032984 -0.088128425 0
0.52837819 -0.12681815 -0.089442722 0
0.61168295 0.0094118454 -0.091424279 0
0.70890903 0.16840759 -0.089734726 0
0.84903198 0.39755347 -0.089017682 0
1.0674596 0.75475234 -0.089843445 0
1.4195518 1.3305359 -0.089126252 0
0.84994841 0.39905205 0.025209831 0
0.85021013 0.39948002 0.063122198 0
0.83801317 0.37953416 0.1010162 0
0.84020805 0.38312355 0.13846473 0
0.83842403 0.38020602 0.17579441 0
0.83997184 0.38273719 0.21349263 0
0.8385638 0.38043454 0.25092304 0
0.84185421 0.38581553 0.28944376 0
0.84158444 0.38537434 0.32750973 0
0.84225339 0.3864682 0.36609739 0
1.09556 0.80070537 0.49628198 0
0.45713824 -0.19919476 -0.092955567 0
0.50863361 -0.11000231 -0.090265594 0
0.58327973 0.019288335 -0.090434708 0
0.67945087 0.18586126 -0.089728288 0
0.81710839 0.42429057 -0.089797892 0
1.0285033 0.79043645 -0.090849124 0
1.368957 1.3801184 -0.090299092 0
1.3716629 1.384805 -0.026653266 0
0.848378 0.47845104 0.061565429 0
0.83914524 0.46245947 0.10101826 0
0.83754826 0.45969346 0.13996737 0
0.84094012 0.46556821 0.17927505 0
0.83917558 0.46251205 0.21826276 0
0.84270501 0.4686251 0.25820199 0
0.84371006 0.47036591 0.29805428 0
0.83614695 0.45726624 0.33580872 0
0.84323871 0.46954945 0.37792334 0
0.83882743 0.46190897 0.4166899 0
0.44109738 -0.18051413 -0.094751842 0
0.48448542 -0.1007835 -0.089555822 0
0.5528301 0.024807964 -0.088778503 0
0.64915442 0.20181528 -0.089601822 0
0.7783314 0.43919316 -0.089100786 0
0.9815405 0.8126139 -0.090511046 0
1.2915411 1.3822765 -0.087783791 0
1.2918552 1.3828537 -0.024756914 0
1.2883035 1.376327 0.038352098 0
0.85323983 0.5768463 0.1010213 0
0.84077072 0.55393285 0.14192016 0
0.83989847 0.55232996 0.18277913 0
0.83528084 0.54384452 0.22309355 0
0.83972305 0.55200762 0.26485929 0
0.83831072 0.54941231 0.30580848 0
0.83882904 0.55036479 0.3474111 0
0.83995014 0.55242497 0.38954493 0
0.84034324 0.55314726 0.43182519 0
0.40944487 -0.19136223 -0.089571096 0
0.46779889 -0.077370137 -0.091988496 0
0.53079385 0.045687828 -0.090122454 0
0.6174708 0.21500757 -0.089162476 0
0.74748319 0.4689813 -0.090496384 0
0.93680137 0.83880657 -0.090723448 0
1.2472715 1.4452968 -0.090235166 0
1.2492709 1.4492023 -0.026563024 0
1.2441084 1.4391177 0.037540738 0
1.247059 1.4448814 0.10104846 0
0.85230249 0.67374152 0.14451529 0
0.83969903 0.64912122 0.18676485 0
0.83874744 0.64726228 0.22960614 0
0.83931088 0.64836293 0.27280033 0
0.84132904 0.65230531 0.31661379 0
0.84150624 0.65265149 0.36030516 0
0.8399291 0.64957052 0.40366864 0
0.84024239 0.65018255 0.4479852 0
0.39257625 -0.17424622 -0.091236942 0
0.44167063 -0.072065502 -0.090696372 0
0.50571334 0.061227474 -0.090578504 0
0.58859944 0.23373929 -0.089717589 0
0.71153057 0.48959735 -0.090787493 0
0.89347887 0.8682887 -0.091391616 0
1.1841674 1.4733021 -0.090028487 0
1.7861037 2.7261195 -0.090928398 0
4.5038991 8.3827019 -0.14077902 0
0.84713697 0.7718367 0.19204345 0
0.83958054 0.75610942 0.23645489 0
0.83878303 0.75444955 0.28165519 0
0.84448928 0.76632613 0.3287226 0
0.83804697 0.75291747 0.37271816 0
0.84157276 0.76025587 0.42009205 0
0.83925575 0.75543338 0.4656685 0
0.36971542 -0.16945371 -0.090111546 0
0.41790161 -0.062319245 -0.090473123 0
0.47553617 0.065822154 -0.089171819 0
0.55743176 0.24790433 -0.089675672 0
0.67191142 0.50243205 -0.090195112 0
0.84427297 0.88565117 -0.090924405 0
1.1225177 1.5042846 -0.090175159 0
1.6925313 2.7716215 -0.091012321 0
4.2697463 8.5016584 -0.1409913 0
1.06639 1.3794937 0.22203805 0
0.84712851 0.89200002 0.24529952 0
0.83935946 0.87472671 0.29186481 0
0.8394478 0.87492317 0.33998922 0
0.83916909 0.8743034 0.38826051 0
0.839275 0.87453896 0.43697128 0
0.83563048 0.86643583 0.48434573 0
0.34717655 -0.164547 -0.089158081 0
0.39677486 -0.046390679 -0.091638319 0
0.45013058 0.080716759 -0.089752309 0
0.52541721 0.2600694 -0.089449935 0
0.63284332 0.51598674 -0.089827679 0
0.79513705 0.90261334 -0.090548016 0
1.0611353 1.5362914 -0.090516545 0
1.594722 2.8074355 -0.09072613 0
4.0241065 8.5948715 -0.14070205 0
0.99177337 1.371053 0.22029054 0
0.85054868 1.0346184 0.254547 0
0.83954126 1.0083958 0.30332199 0
0.84126234 1.012496 0.35482797 0
0.83617145 1.0003679 0.40434828 0
0.83873111 1.0064657 0.45682922 0
0.84070307 1.0111635 0.50973648 0
0.32858843 -0.15010306 -0.090520687 0
0.3723357 -0.038043644 -0.091367535 0
0.41991475 0.083830863 -0.088362403 0
0.49266458 0.27018073 -0.089039125 0
0.59685147 0.53705722 -0.090531163 0
0.74890757 0.92655152 -0.090999223 0
0.99711621 1.5623422 -0.090524502 0
1.5007164 2.8523226 -0.091020189 0
3.78426 8.7016582 -0.14090998 0
0.92780095 1.3847899 0.21976463 0
0.84939027 1.1839395 0.26420081 0
0.83947176 1.1585331 0.31631762 0
0.83752149 1.1535375 0.36995104 0
0.84398651 1.1700978 0.42688024 0
0.84073853 1.1617782 0.4806225 0
0.84103489 1.1625371 0.53619659 0
0.30670187 -0.14378753 -0.090140186 0
0.34849432 -0.028208461 -0.091521405 0
0.39278871 0.094289809 -0.088402651 0
0.43771046 0.21852317 -0.079525404 0
0.43561798 0.21273628 -0.048416723 0
0.43387163 0.20790663 -0.017857594 0
0.93522298 1.5944183 -0.091100998 0
1.4004084 2.8809114 -0.09062276 0
3.5375206 8.7912006 -0.14084005 0
0.86162293 1.3908739 0.21894456 0
0.85051304 1.3601489 0.27576968 0
0.84169561 1.3357637 0.33188626 0
0.84086639 1.3334706 0.3897844 0
0.83991772 1.330847 0.44783539 0
0.84032178 1.3319645 0.50679135 0
0.83652592 1.3214667 0.56392872 0
0.28861979 -0.1262978 -0.092390873 0
0.32139221 -0.027973916 -0.08988788 0
0.36928144 0.11570337 -0.090459488 0
0.40404609 0.22000435 -0.078169443 0
0.40851942 0.23342529 -0.049661625 0
0.40468553 0.22192279 -0.018199487 0
0.86583084 1.6054516 -0.090237625 0
1.3061662 2.9265461 -0.091189913 0
3.289475 8.8768721 -0.14082915 0
0.78714794 1.3693869 0.21685915 0
0.84924161 1.5556805 0.28866467 0
0.84163743 1.5328665 0.34927544 0
0.83850139 1.5234575 0.41068053 0
0.83881152 1.5243883 0.47349012 0
0.83754981 1.5206027 0.53594071 0
0.8408252 1.5304296 0.6013881 0
0.26467162 -0.12613127 -0.090875886 0
0.30034491 -0.00936177 -0.092021517 0
0.33996916 0.12034026 -0.089719824 0
0.38299593 0.26117995 -0.082782187 0
0.38269058 0.26018038 -0.051722202 0
0.38143784 0.25607982 -0.020576661 0
0.72498316 1.3806071 -0.072266988 0
0.72503209 1.3807673 -0.014401047 0
0.72216928 1.3713965 0.043579109 0
0.72395217 1.3772326 0.10104104 0
0.7286036 1.392458 0.15901598 0
0.72464925 1.3795142 0.21642256 0
0.84409618 1.7705002 0.30287415 0
0.8362211 1.7447226 0.36797211 0
0.83591914 1.7437344 0.43512705 0
0.83643305 1.7454164 0.50299293 0
0.83284408 1.7336686 0.56907785 0
0.2436392 -0.11676869 -0.091534249 0
0.27538964 -0.0026070739 -0.091926359 0
0.31367964 0.13506809 -0.090833403 0
0.36481753 0.318939 -0.089859493 0
0.44333318 0.60124904 -0.091976888 0
0.55064189 0.98708719 -0.090507261 0
0.6606409 1.3825984 -0.071140684 0
0.66409165 1.3950059 -0.014242766 0
0.66046166 1.381954 0.043745328 0
0.66138911 1.3852887 0.10104076 0
0.66015434 1.3808491 0.15830934 0
0.66160989 1.3860824 0.21589343 0
0.8137396 1.9330785 0.31319991 0
0.81223202 1.9276578 0.38374779 0
0.81228745 1.9278572 0.45502269 0
0.81285155 1.9298856 0.52696323 0
0.81285816 1.9299092 0.59913254 0
0.22157429 -0.11081639 -0.091557793 0
0.25236744 0.011808429 -0.093442254 0
0.28348261 0.13571563 -0.089666836 0
0.3333613 0.33434322 -0.090821691 0
0.39697921 0.58768314 -0.089058243 0
0.50026715 0.99899739 -0.090379335 0
0.59750795 1.3862307 -0.070257224 0
0.5970943 1.3845835 -0.012975825 0
0.59680885 1.3834469 0.044090331 0
0.59566885 1.3789072 0.1010401 0
0.59535795 1.3776691 0.15785137 0
0.5967924 1.3833814 0.2149989 0
0.76945668 2.0709672 0.32173482 0
0.76736534 2.0626388 0.39486447 0
0.77021486 2.0739863 0.47028428 0
0.76817417 2.0658598 0.54383916 0
0.19884184 -0.10774621 -0.091074996 0
0.22317132 0.00064728002 -0.090124838 0
0.25358617 0.13615254 -0.088600121 0
0.30056784 0.34546688 -0.091276638 0
0.35666052 0.59537286 -0.088842653 0
0.44857255 1.0048622 -0.08979582 0
0.5516662 1.4641683 -0.074817158 0
0.54929268 1.4535937 -0.015586933 0
0.55160445 1.4638932 0.042513613 0
0.55072892 1.4599926 0.10104206 0
0.55229163 1.4669547 0.15964395 0
0.55347234 1.4722152 0.21856056 0
0.71397054 2.1872721 0.32875425 0
0.71204948 2.1787131 0.40421736 0
0.71392614 2.1870744 0.48162773 0
0.71412635 2.1879663 0.55878448 0
0.17589942 -0.10625097 -0.090378024 0
0.20032948 0.017074738 -0.092263125 0
0.22258998 0.12944809 -0.086468972 0
0.26567987 0.34697071 -0.090470009 0
0.32120153 0.62725013 -0.091631524 0
0.39905629 1.0202694 -0.090247683 0
0.41561869 1.1038783 -0.048205469 0
0.41520497 1.1017897 0.0017291105 0
0.41753784 1.1135664 0.051127926 0
0.41694233 1.1105602 0.10103151 0
0.41540235 1.1027863 0.15067919 0
0.41563198 1.1039455 0.2004361 0
0.41447604 1.0981102 0.24985728 0
0.41381255 1.0947607 0.29939899 0
0.41483921 1.0999434 0.35001433 0
0.4057357 1.0539877 0.39382324 0
0.29677054 0.5039199 0.35123989 0
0.27171558 0.37743965 0.3634803 0
0.1533135 -0.10357335 -0.090064235 0
0.1752138 0.02375761 -0.092640273 0
0.19824159 0.15764406 -0.090297975 0
0.23212822 0.35466495 -0.090675481 0
0.27848938 0.62421459 -0.090374418 0
0.34766698 1.0264215 -0.089939661 0
0.36793968 1.1442895 -0.050377209 0
0.8806451 4.1252213 -0.14063017 0
1.7638093 9.260046 -0.14083035 0
0.58381963 2.399442 0.26124495 0
0.58037823 2.3794329 0.34013018 0
0.58000398 2.3772569 0.42001602 0
0.26426309 0.54150122 0.28259617 0
0.27236274 0.58859342 0.32606727 0
0.2701242 0.57557839 0.36202851 0
0.23670557 0.38127831 0.36299142 0
0.13149543 -0.096056193 -0.090913944 0
0.14842156 0.019779596 -0.091107614 0
0.1676275 0.15121761 -0.088464506 0
0.19755147 0.3560057 -0.090098329 0
0.23883668 0.63854557 -0.091300733 0
0.29702127 1.0367382 -0.090148233 0
0.39674932 1.7192383 -0.090392239 0
0.75163722 4.147953 -0.14073204 0
1.5043585 9.299284 -0.14078389 0
0.50776803 2.479007 0.2643511 0
0.50567186 2.4646618 0.34519884 0
0.50413471 2.4541421 0.42599535 0
0.22170404 0.52129644 0.27948108 0
0.27531806 0.88821012 0.36773703 0
0.20193413 0.38599876 0.36284083 0
0.10881475 -0.093893439 -0.090732805 0
0.12313396 0.024998818 -0.091452934 0
0.13851851 0.15273657 -0.088079996 0
0.16479488 0.37090912 -0.091566466 0
0.19739947 0.64162463 -0.091017731 0
0.24693507 1.0529184 -0.091027789 0
0.32705435 1.7181485 -0.089673065 0
0.62206423 4.167613 -0.14084248 0
1.2444876 9.3355913 -0.14082251 0
0.42529598 2.5338478 0.26637733 0
0.42510676 2.5322766 0.34914392 0
0.42460644 2.5281227 0.43186375 0
0.42507386 2.5320036 0.51569527 0
0.23040822 0.9156962 0.37073371 0
0.16638818 0.38413814 0.36160859 0
0.086015187 -0.093284994 -0.090342619 0
0.097586453 0.028632078 -0.091618277 0
0.11171298 0.17747179 -0.091650628 0
0.13049577 0.37537077 -0.091673933 0
0.15600656 0.64415711 -0.090794154 0
0.19534089 1.0585909 -0.091038756 0
0.25792927 1.718034 -0.089147799 0
0.49155885 4.1795993 -0.14074697 0
0.98365057 9.3643694 -0.14083868 0
0.3429915 2.6142654 0.26969382 0
0.34006211 2.5834012 0.35206369 0
0.34051186 2.5881395 0.43659669 0
0.33983985 2.5810592 0.52033198 0
0.34009558 2.5837536 0.60557276 0
0.17219773 0.81475037 0.39890593 0
0.13096076 0.38026991 0.36016938 0
0.063238271 -0.093477756 -0.089905135 0
0.071473241 0.025001798 -0.0905338 0
0.080635503 0.15682235 -0.087849565 0
0.095692053 0.37344638 -0.091003679 0
0.11453179 0.64450043 -0.090437032 0
0.14292222 1.0529635 -0.090114363 0
0.19074111 1.7409506 -0.090359829 0
0.36055005 4.1840525 -0.14045393 0
0.72223592 9.3877554 -0.14088267 0
0.2529465 2.635922 0.27035612 0
0.25253868 2.6300542 0.35481545 0
0.13237928 0.90127832 0.2779718 0
0.13372782 0.92068034 0.32484457 0
0.13377558 0.92136735 0.37024364 0
0.12508215 0.79629213 0.39524657 0
0.096277393 0.3818678 0.35993409 0
0.040919092 -0.085336953 -0.091363676 0
0.045836601 0.02594677 -0.090437494 0
0.052012742 0.16571346 -0.089041613 0
0.061246 0.37466291 -0.090899654 0
0.073541991 0.65292233 -0.091147952 0
0.090962462 1.0471492 -0.089297257 0
0.12235825 1.7576387 -0.091253392 0
0.23047487 4.2043281 -0.14105274 0
0.45976388 9.3931599 -0.14066181 0
0.1634489 2.6875238 0.27252093 0
0.16307916 2.6791563 0.35789049 0
0.08677496 0.95238572 0.28249609 0
0.086281285 0.94121379 0.32692704 0
0.086578794 0.94794637 0.37359816 0
0.076378793 0.7171194 0.38179532 0
0.061283592 0.37551358 0.35836455 0
0.01823356 -0.077492028 -0.092878424 0
0.020106489 0.021453772 -0.089438729 0
0.023125395 0.18094102 -0.091393508 0
0.026980029 0.38457933 -0.092140786 0
0.032175262 0.65904063 -0.091710232 0
0.039273016 1.0340111 -0.087919287 0
0.052934449 1.7557378 -0.090967469 0
0.099340647 4.2073531 -0.14100096 0
0.19798428 9.418644 -0.14106211 0
0.07101614 2.7109842 0.27347812 0
0.070769869 2.6979735 0.35900283 0
0.070950679 2.7075255 0.44630739 0
0.070886068 2.7041123 0.53292191 0
0.032621402 0.68260998 0.37589708 0
0.027021877 0.38679007 0.36028469 0
-0.0046694786 -0.09448114 -0.089236252 0
-0.0054419097 0.027987633 -0.090639092 0
-0.0063002072 0.1640704 -0.088590093 0
-0.0076796953 0.38278785 -0.09185826 0
-0.0093361512 0.64541835 -0.090087436 0
-0.011838212 1.0421193 -0.088646047 0
-0.016316261 1.7521129 -0.090683497 0
-0.031791192 4.2056589 -0.14088355 0
-0.064586096 9.4052801 -0.14071284 0
-0.022469591 2.7277215 0.27423084 0
-0.022440312 2.7230794 0.36071834 0
-0.022452576 2.7250237 0.44788677 0
-0.022464463 2.7269084 0.53551877 0
-0.009351816 0.64790207 0.37014684 0
-0.0076736053 0.38182226 0.35930738 0
-0.027591653 -0.083910078 -0.091575243 0
-0.031074733 0.026484523 -0.090447374 0
-0.035244618 0.15864685 -0.087788858 0
-0.04198822 0.37238207 -0.090487294 0
-0.050633073 0.64637655 -0.090290748 0
-0.063646309 1.0588245 -0.090296678 0
-0.085494354 1.7512875 -0.090717323 0
-0.11871629 2.8042407 -0.075724103 0
-0.11916655 2.8185112 0.012393208 0
-0.11892252 2.8107769 0.10107893 0
-0.11888377 2.8095486 0.18955623 0
-0.1168789 2.7460053 0.27516627 0
-0.11639856 2.7307808 0.36138156 0
-0.11647543 2.7332175 0.44881815 0
-0.11653076 2.7349715 0.53666967 0
-0.050425295 0.63979107 0.36894125 0
-0.042471375 0.38769546 0.36053792 0
-0.050097678 -0.090699941 -0.090344466 0
-0.056623984 0.024128113 -0.090216391 0
-0.065385617 0.17828587 -0.091232337 0
-0.076509707 0.37401024 -0.090930082 0
-0.092095174 0.64823097 -0.090721227 0
-0.11576238 1.0646472 -0.091054417 0
-0.15424523 1.741739 -0.090262569 0
-0.21472722 2.8058984 -0.075998537 0
-0.2138821 2.7910287 0.012934396 0
-0.21414423 2.7956407 0.10107862 0
-0.21391165 2.7915487 0.18923485 0
-0.21085042 2.7376873 0.27497226 0
-0.21059716 2.7332313 0.36184379 0
-0.21087895 2.7381895 0.44967136 0
-0.078363307 0.40662375 0.26445994 0
-0.076403648 0.37214413 0.29268759 0
-0.076939791 0.38157752 0.32671884 0
-0.077041596 0.38336864 0.36001095 0
-0.072305411 -0.097729832 -0.089180969 0
-0.082535721 0.026737962 -0.091045238 0
-0.09354648 0.1607013 -0.088669948 0
-0.11027537 0.3642346 -0.089888506 0
-0.13323763 0.64360684 -0.090515472 0
-0.16733405 1.0584435 -0.0908105 0
-0.22378938 1.7453115 -0.090848856 0
-0.4239701 4.1808257 -0.14053428 0
-0.8512162 9.3789482 -0.1409087 0
-0.30563489 2.7410908 0.27543691 0
-0.30419424 2.7235634 0.36162305 0
-0.30492234 2.7324216 0.44974294 0
-0.30489153 2.7320468 0.53757834 0
-0.11362509 0.40498915 0.29765749 0
-0.11365352 0.4053351 0.33103427 0
-0.11177313 0.38245717 0.36029339 0
-0.095360361 -0.094444424 -0.09033931 0
-0.10885262 0.030884657 -0.092291199 0
-0.12254065 0.15803197 -0.088683464 0
-0.14427257 0.35989895 -0.089733325 0
-0.175341 0.64849216 -0.091548897 0
-0.21816349 1.0462685 -0.090127371 0
-0.29164177 1.7288046 -0.090148173 0
-0.55550569 4.1798253 -0.14106655 0
-1.1118367 9.3475599 -0.1407547 0
-0.39816406 2.7182856 0.27478611 0
-0.39832133 2.7197466 0.36197945 0
-0.39726821 2.7099643 0.44846967 0
-0.39754531 2.712538 0.53633088 0
-0.14879806 0.40193608 0.2976974 0
-0.14940917 0.40761271 0.33196256 0
-0.14600354 0.3759779 0.35968742 0
-0.11908651 -0.088312775 -0.092236511 0
-0.13442376 0.026783619 -0.092100196 0
-0.1537284 0.17165259 -0.091519065 0
-0.17993627 0.36832598 -0.091508545 0
-0.21604855 0.63932568 -0.091054089 0
-0.27106646 1.0521998 -0.091267578 0
-0.3592582 1.7140229 -0.089687385 0
-0.68444872 4.1543708 -0.14060776 0
-1.3736428 9.326334 -0.1409926 0
-0.49158302 2.7070363 0.27478617 0
-0.49031398 2.6975129 0.36120453 0
-0.24206895 0.83459216 0.27282321 0
-0.24098264 0.82644016 0.3151629 0
-0.18488052 0.40542939 0.29879168 0
-0.18595538 0.41349557 0.33364141 0
-0.18234806 0.38642481 0.36246058 0
-0.14085108 -0.097475559 -0.090978108 0
-0.15738501 0.0064919922 -0.088943459 0
-0.17883834 0.14139345 -0.08719454 0
-0.2138297 0.36142376 -0.091237403 0
-0.2557914 0.62528449 -0.090101801 0
-0.32081422 1.0341566 -0.090272419 0
-0.42656696 1.6991441 -0.089338459 0
-0.81367427 4.133327 -0.14050819 0
-1.6314976 9.2759113 -0.14069936 0
-0.58135217 2.6724544 0.27379611 0
-0.5797984 2.6626842 0.35969841 0
-0.27975371 0.77596277 0.2679134 0
-0.27942187 0.77387613 0.30973056 0
-0.27855909 0.7684508 0.35120204 0
-0.21731666 0.38335028 0.36284003 0
-0.16440138 -0.095424503 -0.09225639 0
-0.18329062 0.0066733095 -0.08980424 0
-0.20836584 0.14220682 -0.088148929 0
-0.24755479 0.35402599 -0.091016151 0
-0.29421735 0.60624069 -0.088669412 0
-0.37122843 1.0224912 -0.089996926 0
-0.49665177 1.7004139 -0.09025652 0
-0.94577944 4.1279836 -0.14130555 0
-1.8907511 9.2356272 -0.14079802 0
-0.67058063 2.6405127 0.27303371 0
-0.66764367 2.6246383 0.35811666 0
-0.66625911 2.6171546 0.44352138 0
-0.66869277 2.6303086 0.53139734 0
-0.28760526 0.57050174 0.36176816 0
-0.25278589 0.38230041 0.36377791 0
-0.18542415 -0.10687736 -0.090736561 0
-0.21160407 0.017059121 -0.092759632 0
-0.23560067 0.13065961 -0.087157004 0
-0.28150859 0.34798887 -0.091111131 0
-0.3371236 0.61127192 -0.090220757 0
-0.42127275 1.0096363 -0.089727558 0
-0.56512493 1.6906362 -0.090516187 0
-0.61639738 1.9333615 -0.03809524 0
-0.6158185 1.9306209 0.031583 0
-0.61585283 1.9307833 0.1010556 0
-0.75540406 2.5914226 0.2715573 0
-0.75378823 2.5837734 0.35648304 0
-0.75137872 2.5723667 0.44096261 0
-0.75356662 2.5827243 0.5278675 0
-0.28681231 0.37309697 0.36332262 0
-0.20692815 -0.11480919 -0.090092473 0
-0.23551224 0.0054217908 -0.091607042 0
-0.26665887 0.13643125 -0.089200608 0
-0.31370381 0.33431259 -0.090226598 0
-0.37347126 0.5857076 -0.088235684 0
-0.47369108 1.0072542 -0.090582214 0
-0.52202016 1.210537 -0.057104874 0
-0.62067634 1.6255064 -0.024153596 0
-0.61874539 1.6173844 0.038674749 0
-0.61978471 1.6217561 0.10104702 0
-0.83606344 2.5314717 0.26965395 0
-0.83557069 2.5293994 0.35402396 0
-0.83290017 2.5181665 0.43769056 0
-0.83191872 2.5140383 0.52203691 0
-0.83276451 2.5175958 0.60775626 0
-0.22794911 -0.12402567 -0.089280598 0
-0.25936154 -0.005295482 -0.090743192 0
-0.29701492 0.13702384 -0.090510271 0
-0.34387648 0.3141475 -0.088510655 0
-0.41546452 0.58473045 -0.089320339 0
-0.52198833 0.98736101 -0.089879178 0
-0.58007634 1.2069175 -0.057848025 0
-0.64854693 1.4657171 -0.017254135 0
-0.64644831 1.4577849 0.042117167 0
-0.65056443 1.4733429 0.10104312 0
-0.91309953 2.4656527 0.26755276 0
-0.91336244 2.4666462 0.35109094 0
-0.90929073 2.4512563 0.43336678 0
-0.90995193 2.4537554 0.51742214 0
-0.91066873 2.4564645 0.60208762 0
-0.25060305 -0.12700847 -0.089960046 0
-0.28333795 -0.014809277 -0.090226777 0
-0.32091603 0.11398998 -0.087915383 0
-0.34393305 0.19288114 -0.072092511 0
-0.45621446 0.5777269 -0.08980789 0
-0.57415706 0.98197645 -0.09069977 0
-0.71468884 1.4636505 -0.077662937 0
-0.71345621 1.4594257 -0.017781673 0
-0.71587312 1.4677095 0.041462295 0
-0.71384013 1.4607415 0.10104325 0
-0.98421174 2.3874433 0.26492852 0
-0.98172385 2.3789158 0.34645841 0
-0.98094094 2.3762326 0.42840862 0
-0.9807741 2.3756607 0.5108428 0
-0.98162419 2.3785744 0.59420955 0
-0.27526581 -0.1242784 -0.092046864 0
-0.30856264 -0.02001318 -0.090677552 0
-0.35442534 0.12360051 -0.091035284 0
-0.38218826 0.21053699 -0.07603658 0
-0.39474934 0.24987057 -0.051060248 0
-0.393933 0.24731436 -0.020197725 0
-0.39859372 0.2619088 0.0091476459 0
-0.39792061 0.25980106 0.039926056 0
-0.39971998 0.26543549 0.070345953 0
-0.3987591 0.26242664 0.10100791 0
-0.39747202 0.2583963 0.13149786 0
-0.39684439 0.25643089 0.16192487 0
-0.39445812 0.24895862 0.19191734 0
-0.3971518 0.25739363 0.22320151 0
-0.39689794 0.25659874 0.2539022 0
-0.39556947 0.25243869 0.28423488 0
-0.39715487 0.25740317 0.31613758 0
-0.39557281 0.25244907 0.34656724 0
-0.29594541 -0.13456807 -0.091361783 0
-0.33386415 -0.025413658 -0.091219507 0
-0.37699324 0.098739415 -0.088331573 0
-0.42826924 0.24634436 -0.082858838 0
-0.42700559 0.24270681 -0.05145805 0
-0.42927703 0.24924543 -0.021412006 0
-0.4300324 0.25141993 0.009148309 0
-0.43075848 0.25351003 0.039720487 0
-0.43037271 0.25239959 0.070408136 0
-0.4308477 0.25376692 0.10100797 0
-0.43143106 0.25544611 0.13168292 0
-0.43327612 0.26075736 0.16265321 0
-0.43035555 0.25235012 0.19293673 0
-0.42956448 0.25007299 0.22351013 0
-0.42898566 0.24840668 0.25417989 0
-0.43282595 0.25946155 0.28682807 0
-0.43250319 0.25853243 0.31815153 0
-0.43427405 0.26363006 0.3508718 0
-0.31923053 -0.13750592 -0.09245766 0
-0.35763618 -0.035341885 -0.090983458 0
-0.407803 0.098108441 -0.089956038 0
-0.47981074 0.28965834 -0.091046922 0
-0.48694319 0.30863157 -0.061086554 0
-0.51183295 0.3748416 -0.035057981 0
-0.51016015 0.37039176 -0.00057890057 0
-0.51282579 0.37748268 0.032993201 0
-0.50890988 0.36706594 0.067279786 0
-0.51271796 0.37719586 0.10101207 0
-1.201336 2.2090099 0.18060827 0
-1.1959692 2.1947334 0.25952405 0
-1.1633593 2.1079867 0.33248344 0
-1.1638523 2.1092982 0.41014558 0
-1.1565527 2.0898802 0.48562193 0
-1.1595541 2.0978646 0.56465769 0
-0.33533874 -0.15889618 -0.089467146 0
-0.38482061 -0.036719706 -0.09260387 0
-0.43346873 0.083398253 -0.089237861 0
-0.50854337 0.26876631 -0.089780234 0
-0.51025003 0.27298024 -0.058195535 0
-0.51264966 0.27890518 -0.026743433 0
-0.50853384 0.26874283 0.0060826484 0
-0.51137918 0.27576831 0.037429098 0
-0.51450109 0.28347674 0.06904307 0
-0.51391882 0.28203884 0.10100956 0
-1.2761446 2.1640637 0.25955141 0
-1.1937816 1.9606998 0.32365721 0
-1.2013339 1.9793475 0.40011171 0
-1.201076 1.9787109 0.47540528 0
-1.1967788 1.9681003 0.5495649 0
-0.36058077 -0.1575298 -0.091811858 0
-0.40488106 -0.055616345 -0.090784349 0
-0.46261513 0.077201754 -0.090152971 0
-0.51113021 0.18881133 -0.079559453 0
-0.51207131 0.19097641 -0.049440149 0
-0.51467609 0.1969687 -0.019764191 0
-0.51127917 0.18915406 0.011139112 0
-0.51373821 0.19481114 0.040862046 0
-0.51289499 0.19287124 0.071000114 0
-0.51282328 0.19270638 0.10100719 0
-1.3525829 2.1245856 0.25923368 0
-1.2277211 1.8373392 0.31661731 0
-1.2286104 1.839385 0.38904351 0
-1.2299217 1.8424017 0.46201321 0
-1.2217044 1.8234975 0.53217435 0
-1.2244157 1.829735 0.60634047 0
-0.376358 -0.1778709 -0.089244016 0
-0.42883196 -0.065030009 -0.091017775 0
-0.48498589 0.055724297 -0.088441752 0
-0.51234835 0.11456504 -0.070112966 0
-0.5095405 0.10852697 -0.040529955 0
-0.51226211 0.11437944 -0.012640676 0
-0.51144058 0.11261287 0.016014935 0
-0.51141894 0.11256626 0.044398557 0
-0.51476252 0.11975649 0.072532773 0
-0.51009315 0.10971537 0.101005 0
-1.4348278 2.0982802 0.25968799 0
-1.2532942 1.7079074 0.30909166 0
-1.2399423 1.6791952 0.37583178 0
-1.2461228 1.6924858 0.44680184 0
-1.2386515 1.6764193 0.51429176 0
-1.2396816 1.6786344 0.58471203 0
-0.40470231 -0.17154065 -0.093066372 0
-0.44847089 -0.083313137 -0.089515619 0
-0.50826883 0.037225995 -0.087358497 0
-0.51028699 0.041294012 -0.060705338 0
-0.5100379 0.040791903 -0.033419002 0
-0.51188999 0.044525299 -0.0067481007 0
-0.51611441 0.053040776 0.019627573 0
-0.50585908 0.032368336 0.047876235 0
-0.51420623 0.04919425 0.074017271 0
-0.5116123 0.043965492 0.10100333 0
-1.254088 1.540628 0.29856536 0
-1.2424442 1.5171564 0.36229065 0
-1.24164 1.5155356 0.42792329 0
-1.2416029 1.5154607 0.49407238 0
-1.2412584 1.5147662 0.56053829 0
-0.42244992 -0.18725678 -0.091811635 0
-0.47632059 -0.08521679 -0.091586865 0
-0.53433615 0.02467433 -0.087474443 0
-0.53319001 0.02250329 -0.059821282 0
-0.53293544 0.022021089 -0.032685567 0
-0.53402346 0.024081979 -0.0059908833 0
-0.5291909 0.014928374 0.021582888 0
-0.53400546 0.024047885 0.047623929 0
-0.53400248 0.024042282 0.074328117 0
-0.53396559 0.023972426 0.10100311 0
-1.2458457 1.3723915 0.28782383 0
-1.2389402 1.3593113 0.34901759 0
-1.2401941 1.3616862 0.41183144 0
-1.241271 1.3637261 0.47506031 0
-1.2385294 1.3585334 0.53746748 0
-1.2419199 1.3649554 0.60255432 0
-0.43514633 -0.21140334 -0.088593014 0
-0.49541137 -0.10391125 -0.090212651 0
-0.55806196 0.0078357793 -0.086907424 0
-0.554232 0.0010044907 -0.05858082 0
-0.5554589 0.0031928753 -0.032010917 0
-0.55436277 0.0012377832 -0.0050253253 0
-0.55938369 0.010193381 0.02086466 0
-0.55835372 0.0083561875 0.047723792 0
-0.56104976 0.013165031 0.074249662 0
-0.5557844 0.0037733649 0.1010029 0
-1.2906671 1.3145511 0.16253078 0
-1.2956256 1.3233955 0.22455515 0
-1.2480398 1.238519 0.27966923 0
-1.2424258 1.2285054 0.33844134 0
-1.2386979 1.2218561 0.39738494 0
-1.2405322 1.2251279 0.45789349 0
-1.2409351 1.2258463 0.51849341 0
-1.2364277 1.2178068 0.57770568 0
-0.45759979 -0.21766499 -0.089826815 0
-0.51856226 -0.11508539 -0.090570234 0
