# .PCD v0.7 - Point Cloud Data file format
VERSION 0.7
FIELDS x y z intensity
SIZE 4 4 4 4
TYPE F F F F
COUNT 1 1 1 1
WIDTH 1356
HEIGHT 1
VIEWPOINT 0 0 0 1 0 0 0
POINTS 1356
DATA ascii
-0.61470437 -0.019186091 0.12259953 0
-1.2408594 -0.18872719 0.31866309 0
-1.2493137 -0.19101633 0.4505465 0
-1.2446796 -0.18976156 0.58409482 0
-1.0785718 -0.16527851 -0.050087009 0
-0.6904031 -0.054911684 0.047679614 0
-0.69208837 -0.055390816 0.13165376 0
-1.2401252 -0.2112125 0.31961998 0
-1.2433476 -0.21212874 0.45052028 0
-1.2377601 -0.21054004 0.58372533 0
-1.069326 -0.18316384 -0.049948569 0
-0.77086926 -0.094227858 0.050830267 0
-0.75901008 -0.090694018 0.1396198 0
-1.2359889 -0.23282702 0.31999344 0
-1.2447852 -0.23544823 0.45253557 0
-1.246678 -0.23601227 0.588943 0
-1.0614586 -0.20137988 -0.049869541 0
-0.87484312 -0.14320286 0.054890886 0
-0.8673619 -0.14087059 0.15233092 0
-1.2348421 -0.2554318 0.32098442 0
-1.244483 -0.25843737 0.45417219 0
-1.2383034 -0.25651088 0.58826661 0
-1.0511103 -0.21873276 -0.049705632 0
-0.98684657 -0.19780727 0.059292767 0
-0.98215187 -0.19627859 0.16589318 0
-1.2445359 -0.28171572 0.3240895 0
-1.238693 -0.27981314 0.4544206 0
-1.2381675 -0.27964208 0.59056014 0
-1.0443507 -0.23718558 -0.049684554 0
-1.1255952 -0.26477644 0.064747781 0
-1.1312331 -0.26669106 0.18348457 0
-1.2332224 -0.30132696 0.32326958 0
-1.2356075 -0.30213699 0.45547113 0
-1.050881 -0.26032665 -0.050175428 0
-1.2942917 -0.346423 0.20284864 0
-1.2376251 -0.32637951 0.32549968 0
-1.2416508 -0.3278034 0.45907274 0
-1.0443743 -0.27904317 -0.050183706 0
-1.2534736 -0.35597894 0.1990708 0
-1.2426696 -0.35200372 0.32792392 0
-1.2413343 -0.3515124 0.46104977 0
-1.032133 -0.2955769 -0.049981818 0
-1.2525681 -0.37984982 0.19988067 0
-1.2424359 -0.37597623 0.32940289 0
-1.2338918 -0.37270984 0.4611713 0
-1.0290715 -0.31560346 -0.050139487 0
-1.2554352 -0.40542576 0.20116548 0
-1.2411059 -0.39973977 0.330735 0
-1.2410021 -0.39969859 0.46536103 0
-1.0112928 -0.32969823 -0.049739532 0
-1.2494853 -0.42770323 0.20146966 0
-1.236923 -0.4225345 0.33157587 0
-1.2374703 -0.42275968 0.46673006 0
-1.0078268 -0.34959063 -0.049899761 0
-1.2475816 -0.45178697 0.20228086 0
-1.2381222 -0.44775483 0.33353257 0
-1.2435422 -0.45006511 0.47085029 0
-1.001116 -0.36817822 -0.04994401 0
-1.2384218 -0.47288087 0.20227976 0
-1.2376893 -0.47255763 0.33524081 0
-1.2316021 -0.46987191 0.47006625 0
-0.99206769 -0.38573685 -0.049905933 0
-1.2338399 -0.49606755 0.20285074 0
-1.2398009 -0.49878785 0.33752513 0
-1.2421111 -0.49984214 0.4756431 0
-0.97561109 -0.39977524 -0.049583916 0
-1.2408249 -0.52486175 0.20483413 0
-1.2413148 -0.52509284 0.33976951 0
-1.2434623 -0.5261057 0.47877604 0
-0.97108626 -0.4193767 -0.049740747 0
-1.501207 -0.67761415 0.082792841 0
-1.2292603 -0.54514092 0.20465547 0
-1.2497582 -0.55512601 0.34348404 0
-1.2379644 -0.5493809 0.48007807 0
-0.97355068 -0.44261971 -0.050187696 0
-1.4453107 -0.67982346 0.081039302 0
-1.2363715 -0.57476759 0.20675281 0
-1.2431237 -0.57816261 0.34425461 0
-1.2487582 -0.58099574 0.48612422 0
-0.95682001 -0.45626524 -0.049877323 0
-1.3937783 -0.6829077 0.07945089 0
-1.2428714 -0.604635 0.20883489 0
-1.2371995 -0.60169309 0.34523332 0
-0.94901693 -0.47444031 -0.049933225 0
-1.3467027 -0.68710947 0.078033753 0
-1.2382498 -0.62911248 0.20962131 0
-1.2457939 -0.63314688 0.34924832 0
-0.94069636 -0.49237874 -0.049977716 0
-1.3059536 -0.69366103 0.076866798 0
-1.223938 -0.64846474 0.20926188 0
-1.2464768 -0.66088516 0.35174337 0
-0.93311918 -0.51077878 -0.050062284 0
-1.2564328 -0.69429189 0.07533475 0
-1.2360661 -0.68273175 0.21219715 0
-1.2441306 -0.68730915 0.35370037 0
-0.92407954 -0.5283969 -0.050096549 0
-1.2466109 -0.71687454 0.075433277 0
-1.2304903 -0.7074542 0.21300396 0
-1.2518327 -0.719926 0.35784003 0
-0.90889668 -0.54235256 -0.049884364 0
-1.2556956 -0.75091296 0.076332003 0
-1.2479024 -0.74622625 0.21673861 0
-1.2475082 -0.74598926 0.35956627 0
-0.90391803 -0.56244874 -0.050106246 0
-1.2443905 -0.77308697 0.076399691 0
-1.2381064 -0.76919919 0.21712554 0
-1.2426455 -0.77200741 0.36126116 0
-0.89594162 -0.58082694 -0.050213728 0
-1.2588612 -0.81172115 0.077570379 0
-1.2383901 -0.79869717 0.2188362 0
-1.2493287 -0.80565649 0.36550745 0
-0.88565004 -0.59778529 -0.050233178 0
-1.2444162 -0.83243459 0.077537887 0
-1.2361395 -0.8270213 0.22028308 0
-1.2422425 -0.83101279 0.36691251 0
-0.87223971 -0.61266762 -0.050127774 0
-1.2381161 -0.85859996 0.077866673 0
-1.2439102 -0.86249465 0.22308591 0
-1.2378064 -0.85839182 0.36897451 0
-0.86532092 -0.63194656 -0.050311204 0
-1.2415245 -0.89175683 0.078633778 0
-1.2352017 -0.8873902 0.223819 0
-1.2437187 -0.89327222 0.37339789 0
-0.8512311 -0.64630103 -0.050192967 0
-1.2406814 -0.92256612 0.079239875 0
-1.2396876 -0.92186111 0.22633834 0
-1.6103262 -1.1847817 0.45771351 0
-0.83630955 -0.65995026 -0.05004485 0
-1.2431355 -0.95631129 0.080014244 0
-1.2461616 -0.9585157 0.22920267 0
-1.5667638 -1.1920652 0.45210099 0
-0.8212086 -0.67333889 -0.049894966 0
-1.2321495 -0.98069149 0.080215611 0
-1.2383459 -0.98532599 0.23023807 0
-0.81226599 -0.69132608 -0.050028358 0
-1.2427771 -1.0218498 0.081405506 0
-1.2412909 -1.0207087 0.23278698 0
-0.79197526 -0.7004953 -0.049657527 0
-1.1618586 -0.99194747 0.078469686 0
-1.1548866 -0.98645383 0.22319692 0
-1.168416 -0.99711448 0.37359369 0
-0.78494966 -0.72005796 -0.049897198 0
-1.1437489 -1.010173 0.078370303 0
-1.136012 -1.0039171 0.22278239 0
-1.1357223 -1.0036829 0.36972436 0
-0.77235818 -0.73522693 -0.049892575 0
-1.234553 -1.1186687 0.083332725 0
-1.2396047 -1.1228597 0.23949516 0
-1.3290788 -1.1970885 0.41880459 0
-0.76208794 -0.75237113 -0.050005622 0
-1.2346845 -1.1545953 0.084161483 0
-1.2481779 -1.1660795 0.24318872 0
-1.3170273 -1.224677 0.42034152 0
-1.0330856 -0.98301572 0.49702421 0
-0.75758672 -0.77466196 -0.050403509 0
-1.2829849 -1.2333572 0.4167133 0
-0.9924407 -0.97969967 0.48861724 0
-0.73989129 -0.78551871 -0.050186973 0
-1.191839 -1.1902287 0.083845831 0
-1.1916474 -1.1900572 0.24030666 0
-1.184921 -1.1840339 0.39757136 0
-0.97008002 -0.99164814 0.48636264 0
-0.71959043 -0.79377943 -0.049848214 0
-0.91732299 -0.97538263 0.47360405 0
-0.70184493 -0.8041231 -0.049635813 0
-0.88589036 -0.97747797 0.4680959 0
-0.68767726 -0.8177188 -0.049604833 0
-0.85757208 -0.98183089 0.4636344 0
-0.67975366 -0.83747357 -0.049895801 0
-0.8362726 -0.99252194 0.46165708 0
-0.66842318 -0.8540644 -0.05002971 0
-0.81249988 -1.0004274 0.4588035 0
-0.65598011 -0.86963707 -0.050118726 0
-0.64255571 -0.88425773 -0.050167859 0
-0.62299645 -0.89221233 -0.049902447 0
-0.60367298 -0.90015501 -0.049651265 0
-0.59720731 -0.92265373 -0.050102334 0
-0.58284998 -0.9363181 -0.050139397 0
-0.56402707 -0.94461125 -0.04993597 0
-0.55430692 -0.96401089 -0.050254136 0
-0.53643 -0.97336048 -0.05011908 0
-0.52095675 -0.98570961 -0.050130155 0
-0.49921322 -0.98963803 -0.049775306 0
-0.48426735 -1.0025383 -0.049831182 0
-0.4701373 -1.0166703 -0.049948607 0
-0.45164204 -1.0245906 -0.049803834 0
-0.43914008 -1.0413101 -0.050048027 0
-0.42359829 -1.0536715 -0.050111432 0
-0.37511545 -0.97903126 0.49928162 0
-0.40615749 -1.0631168 -0.050059486 0
-0.35382605 -0.9802869 0.49581254 0
-0.38509709 -1.0666058 -0.049767617 0
-0.32846242 -0.97441429 0.48969203 0
-0.37498152 -1.0880294 -0.050234742 0
-0.31237775 -0.9831838 0.48941523 0
-0.34730601 -1.0798479 -0.049481817 0
-0.29009312 -0.98123044 0.48509437 0
-0.33331704 -1.0948818 -0.049699869 0
-0.27789783 -0.99652344 0.48749745 0
-0.3200987 -1.1116515 -0.049994256 0
-0.25363111 -0.99013168 0.48171937 0
-0.3014285 -1.1185985 -0.049896415 0
-0.22456767 -0.97377497 0.47234204 0
-0.28582537 -1.1313604 -0.050042175 0
-0.20634849 -0.97694308 0.47046834 0
-0.26335549 -1.130595 -0.049655173 0
-0.18894537 -0.9814356 0.46918434 0
-0.25051552 -1.1491371 -0.050047349 0
-0.16505839 -0.97229356 0.46295139 0
-0.2356319 -1.1639709 -0.050297447 0
-0.15064575 -0.98229784 0.46389818 0
-0.21389158 -1.1640885 -0.049976807 0
-0.13152684 -0.98208278 0.46117425 0
-0.19594194 -1.1723151 -0.049984619 0
-0.11656894 -0.99087197 0.46182272 0
-0.1762708 -1.1764896 -0.049844123 0
-0.10467608 -1.0070484 0.465204 0
-0.16198285 -1.1936113 -0.050213106 0
-0.074890748 -0.98003119 0.34886822 0
-0.081614271 -0.99651974 0.45902699 0
-0.13952811 -1.1906809 -0.049817957 0
-0.053522751 -0.97192758 0.34492216 0
-0.06829609 -1.0095032 0.46138987 0
-0.12207212 -1.2001722 -0.049909715 0
-0.032446906 -0.9635033 0.14710407 0
-0.029749347 -0.95637995 0.24141888 0
-0.013012184 -0.91218299 0.32698008 0
-0.0531957 -1.0182936 0.46230954 0
-0.1024632 -1.203953 -0.049792446 0
-0.005377634 -0.93750137 0.1434714 0
-0.0079628658 -0.94459659 0.23805839 0
0.00063033565 -0.92101246 0.32787961 0
-0.084369317 -1.2118196 -0.049839601 0
0.011424648 -0.93825215 0.1429399 0
0.010334836 -0.94136447 0.23639923 0
0.020817177 -0.91142911 0.32384431 0
-0.0012449159 -0.97443384 0.44268078 0
-0.06553863 -1.2176082 -0.049816888 0
0.025004255 -0.94820875 0.14347838 0
0.025541173 -0.94661123 0.23640423 0
0.024071889 -0.95098287 0.33312023 0
0.011794405 -0.98751312 0.44538879 0
-0.049238488 -1.2312101 -0.050096244 0
0.039525494 -0.95566195 0.14375138 0
0.036124095 -0.96622092 0.23916696 0
0.020313399 -1.0153016 0.3490077 0
0.020238684 -1.0155336 0.45336583 0
-0.029243661 -1.2335072 -0.049959861 0
0.023295866 -1.0630865 0.3604067 0
-0.01301579 -1.2482635 -0.050297078 0
0.065790936 -0.9807207 0.33715731 0
0.010220991 -1.2389611 -0.049748521 0
0.083094016 -0.97955579 0.33565098 0
0.024787502 -1.2605993 -0.050356064 0
0.102201 -0.97107893 0.33227631 0
0.047544226 -1.2517384 -0.049845021 0
0.11603715 -0.98201555 0.33408609 0
0.064990833 -1.2634224 -0.050100461 0
0.084825203 -1.2654282 -0.050008897 0
0.10291959 -1.2752678 -0.050212726 0
0.12120141 -1.2849205 -0.050417535 0
0.14033376 -1.2908458 -0.050494831 0
-0.067119494 -2.3949709 0.10260328 0
0.16244687 -1.2800614 -0.049975097 0
0.0016470121 -2.1995311 0.095299549 0
0.1823227 -1.2808195 -0.049883947 0
0.033347949 -2.200789 0.09515588 0
0.20191149 -1.2830884 -0.049856544 0
0.065955326 -2.1953113 0.09478379 0
0.22063135 -1.2916179 -0.050063655 0
0.096350059 -2.2041724 0.094943777 0
0.24002625 -1.2958945 -0.050125949 0
0.12829922 -2.2013974 0.09469872 0
0.2604408 -1.2913822 -0.049881246 0
0.1596442 -2.2025571 0.094609804 0
0.27943131 -1.299677 -0.05010549 0
0.19079413 -2.205117 0.094585381 0
0.29948291 -1.2974175 -0.049959898 0
0.22294918 -2.1957343 0.094147138 0
0.31878737 -1.3040832 -0.050142955 0
0.25321329 -2.2082191 0.094506554 0
0.33844292 -1.3070982 -0.050204005 0
0.28561068 -2.1894014 0.09375979 0
0.35901597 -1.2916749 -0.049614865 0
0.31619576 -2.1978834 0.094003774 0
0.37852523 -1.2950497 -0.049706757 0
0.34729478 -2.1966407 0.093914025 0
0.39812261 -1.2975066 -0.049774621 0
0.37818193 -2.2023618 0.094086967 0
0.4177773 -1.2992965 -0.049827471 0
0.4375166 -1.3151191 -0.050390154 0
0.45724955 -1.3051254 -0.050040025 0
0.47688413 -1.300267 -0.049882058 0
0.49650073 -1.2976172 -0.049811762 0
0.51625478 -1.2984016 -0.049873024 0
0.53656191 -1.3068384 -0.050217032 0
0.55607402 -1.3020684 -0.05009757 0
0.57535964 -1.2957137 -0.049929965 0
0.59557545 -1.2993909 -0.050130948 0
0.61465096 -1.2920754 -0.049946237 0
0.63459599 -1.2924478 -0.050046634 0
0.65368241 -1.2862755 -0.049920242 0
0.67300117 -1.2821577 -0.049876504 0
0.69061649 -1.2680913 -0.049481302 0
0.71212178 -1.277016 -0.049927436 0
1.0695961 -3.2478576 0.13343707 0
0.73292565 -1.2806673 -0.050192706 0
1.1082232 -3.2110338 0.13239966 0
0.75000393 -1.2654297 -0.049779486 0
1.143237 -3.1603642 0.1308724 0
0.77024347 -1.2658546 -0.049945593 0
1.1804596 -3.1246691 0.12990446 0
0.78991967 -1.2633431 -0.050013859 0
1.2520236 -3.2387435 0.13444215 0
0.80826956 -1.2552538 -0.049886301 0
0.82862389 -1.255199 -0.050063264 0
0.84729922 -1.2485354 -0.050005667 0
0.86565918 -1.2409116 -0.049920905 0
0.88203681 -1.2269073 -0.049606513 0
0.90363473 -1.2301918 -0.049945749 0
0.92176461 -1.2221633 -0.049871385 0
0.9424333 -1.2216858 -0.050090309 0
0.95971382 -1.211256 -0.049942769 0
0.97863954 -1.2055446 -0.049982503 0
0.99671763 -1.1975502 -0.049944162 0
0.92411214 -1.0094109 0.46024197 0
1.0162656 -1.1932908 -0.050058007 0
0.94023699 -1.0034333 0.46035409 0
1.0308101 -1.1767609 -0.049707614 0
0.96077275 -1.0080519 0.46435672 0
1.0562215 -1.1861222 -0.050368585 0
0.97328472 -0.99323565 0.46143624 0
1.0685428 -1.1649116 -0.049851108 0
0.99019629 -0.9888435 0.46235251 0
1.0934553 -1.17193 -0.050446089 0
1.0070292 -0.98410779 0.46322605 0
1.107291 -1.1546685 -0.050097186 0
1.0281972 -0.98832911 0.4674823 0
1.1201888 -1.1360483 -0.049698986 0
1.0445188 -0.98194319 0.46793202 0
1.1418618 -1.1353586 -0.050022364 0
1.0610983 -0.97598475 0.46862051 0
1.1589043 -1.125311 -0.049981862 0
1.0765336 -0.96771854 0.46852529 0
1.1765825 -1.1164966 -0.049999766 0
1.1062536 -0.98597294 0.47852522 0
1.194593 -1.1082485 -0.050049979 0
1.1317987 -0.9951424 0.057431374 0
1.1301874 -0.99223989 0.16046378 0
1.1318691 -0.99526912 0.26583695 0
1.1324257 -0.99627167 0.37387341 0
1.1276321 -0.98763746 0.48242432 0
1.2108508 -1.0968574 -0.049980599 0
1.1405119 -0.97383755 0.056921404 0
1.139594 -0.97223204 0.15908666 0
1.1471107 -0.98537856 0.26563224 0
1.1488345 -0.98839337 0.37417731 0
1.1521477 -0.99418801 0.48832685 0
1.2238992 -1.0801039 -0.049697004 0
1.167569 -0.98440176 0.057732392 0
1.166342 -0.98231715 0.16146673 0
1.1659743 -0.98169225 0.26676443 0
1.1661755 -0.98203415 0.3749941 0
1.1667031 -0.9829306 0.48751733 0
1.2471789 -1.0806226 -0.050138991 0
1.2616999 -1.0664876 -0.049980368 0
1.2792474 -1.0572783 -0.050037026 0
1.2977848 -1.0494938 -0.050164472 0
1.3115234 -1.0344523 -0.049990192 0
1.3281593 -1.0237881 -0.050012197 0
1.3472196 -1.0164864 -0.050191075 0
1.3618534 -1.0029298 -0.050105266 0
1.375236 -0.98780686 -0.04995684 0
1.3913643 -0.97640294 -0.049982332 0
1.3978179 -0.95276576 -0.049459875 0
1.2025787 -0.70658416 0.050242409 0
1.210824 -0.71698099 0.14060615 0
1.4182062 -0.94683105 -0.049750578 0
1.2046895 -0.68445748 0.049673766 0
1.2034301 -0.68290979 0.13725388 0
1.4398017 -0.94201714 -0.050108366 0
1.20625 -0.66229343 0.049098603 0
1.205766 -0.66171378 0.13565581 0
1.454828 -0.92914122 -0.050103776 0
1.2060823 -0.6387319 0.048452433 0
1.2114861 -0.64504075 0.13468455 0
1.4616823 -0.90696424 -0.049666058 0
1.2067933 -0.61685717 0.047879141 0
1.2118713 -0.6226368 0.13289291 0
1.483477 -0.90182263 -0.050046172 0
1.2048035 -0.59258592 0.04718456 0
1.2085526 -0.59674621 0.13057712 0
1.4943194 -0.88443154 -0.049848501 0
1.5074189 -0.86961979 -0.049782012 0
1.5255523 -0.86004931 -0.049983833 0
1.539214 -0.84578723 -0.049963132 0
1.5496418 -0.82837766 -0.049790196 0
1.5672795 -0.81800944 -0.049985927 0
1.5813208 -0.80410367 -0.050010443 0
1.5933814 -0.78837389 -0.049947705 0
1.6094944 -0.77628225 -0.050088275 0
1.6192774 -0.75859886 -0.049936175 0
1.6324608 -0.74390906 -0.049954694 0
1.6470095 -0.7303164 -0.050044604 0
1.6499559 -0.70737761 -0.049611479 0
1.6645616 -0.69389051 -0.049723051 0
1.6919981 -0.69002366 -0.050415941 0
1.6979997 -0.66972339 -0.050153445 0
1.7120627 -0.65544242 -0.050259057 0
1.7122275 -0.6313386 -0.049765956 0
1.7249023 -0.61617559 -0.049830679 0
1.7309234 -0.59654224 -0.049618054 0
1.736653 -0.57689548 -0.04940531 0
1.7659339 -0.57219845 -0.050197311 0
1.7749532 -0.55448401 -0.050138414 0
1.7813338 -0.53524983 -0.049979728 0
1.7819716 -0.51283365 -0.049595606 0
1.8022277 -0.50169694 -0.050028276 0
1.8139219 -0.48556116 -0.050115898 0
1.8221691 -0.46753654 -0.050072081 0
1.8356916 -0.45223734 -0.050249152 0
1.8324921 -0.42851886 -0.049766704 0
1.8528048 -0.41644505 -0.050229896 0
1.8475931 -0.39216515 -0.04969183 0
1.870428 -0.38088378 -0.050266292 0
1.8726887 -0.36023417 -0.050042544 0
1.8862797 -0.34449771 -0.050268613 0
1.881482 -0.32115486 -0.049793102 0
1.8883182 -0.30270037 -0.04977696 0
1.8927877 -0.28336695 -0.049679525 0
1.9046708 -0.2667782 -0.049873177 0
1.9122176 -0.24853842 -0.049910039 0
1.9181008 -0.22971468 -0.049892824 0
1.9230793 -0.21061204 -0.049850669 0
1.9266661 -0.19111298 -0.049765736 0
1.943305 -0.17547308 -0.050175581 0
1.9457312 -0.15558542 -0.050064716 0
1.948386 -0.13583575 -0.049971923 0
1.9549218 -0.11712293 -0.050031435 0
1.9491055 -0.095433153 -0.049646195 0
1.9631591 -0.078469284 -0.04999901 0
1.9744163 -0.060658436 -0.050256662 0
1.9726343 -0.040081482 -0.050047327 0
1.9826554 -0.021830719 -0.050276402 0
1.9687004 0.00070246001 -0.04964482 0
1.9824728 0.018387277 -0.050027058 0
1.9876595 0.037599657 -0.050106876 0
1.9842263 0.05801833 -0.049884833 0
1.9943888 0.076648317 -0.05016125 0
1.9971961 0.096267767 -0.050181627 0
1.9984074 0.11605599 -0.050153609 0
1.9916854 0.13647826 -0.049850371 0
1.9843786 0.15672986 -0.049535673 0
1.9837744 0.17638206 -0.04947 0
1.9949597 0.19547109 -0.049834523 0
2.0013471 0.21497157 -0.050036114 0
1.9947833 0.23486203 -0.04978396 0
2.0021706 0.25448993 -0.050038859 0
2.0031049 0.2742601 -0.050072219 0
1.9962398 0.29390964 -0.049835969 0
2.0031538 0.31382945 -0.050100643 0
1.9901139 0.33305934 -0.049661353 0
1.9929415 0.35288206 -0.049797803 0
1.993977 0.37268007 -0.049879171 0
1.9919907 0.39229092 -0.049861308 0
1.9905665 0.41194549 -0.049872424 0
1.9976974 0.43253022 -0.050199624 0
1.9857961 0.45106304 -0.049852274 0
1.9881849 0.47125226 -0.050027404 0
1.973344 0.48905694 -0.049590386 0
1.9943913 0.51224846 -0.050457891 0
1.97407 0.52896333 -0.049839322 0
1.9691538 0.54808199 -0.049786225 0
1.9650586 0.56732798 -0.049771629 0
1.9643282 0.58727598 -0.049888592 0
1.9572763 0.60589576 -0.049783785 0
1.9584569 0.62639594 -0.04998932 0
1.9511544 0.64492297 -0.049892772 0
1.9500742 0.66502565 -0.050034262 0
1.9416131 0.68318665 -0.049912136 0
1.9417187 0.70375538 -0.050116599 0
1.9328625 0.72174609 -0.049997009 0
1.9392797 0.74451864 -0.050457701 0
1.9180921 0.75845587 -0.049892493 0
1.9183161 0.77939653 -0.050140474 0
1.9078964 0.79668611 -0.049995597 0
1.8982223 0.81414968 -0.049886752 0
1.8920959 0.83291608 -0.049921699 0
1.8889675 0.85292393 -0.050081342 0
1.8761789 0.86901128 -0.049877647 0
1.8786049 0.89154422 -0.05027277 0
1.8621428 0.90590996 -0.049942084 0
1.8494791 0.92178434 -0.04976606 0
1.8546535 0.94607538 -0.050303087 0
1.8347307 0.95837092 -0.049855877 0
1.825835 0.97594756 -0.049854025 0
1.8249096 0.99772406 -0.050182659 0
1.8088586 1.0115566 -0.049910214 0
1.7995626 1.0289505 -0.049919255 0
1.7786938 1.0396899 -0.049460564 0
1.7869016 1.0672948 -0.050210811 0
1.7635345 1.0762628 -0.049660895 0
1.7578256 1.0958555 -0.049855579 0
1.7465346 1.1120142 -0.049825132 0
1.7351372 1.1280804 -0.049798559 0
1.7293327 1.1479384 -0.050022069 0
1.7154387 1.1623304 -0.049905892 0
1.7020115 1.1769609 -0.049817115 0
1.695243 1.1964327 -0.050031118 0
1.6843847 1.2129985 -0.050074909 0
1.6631312 1.221522 -0.049658351 0
1.6616063 1.2454212 -0.05014367 0
1.6401029 1.2534038 -0.049725883 0
1.6326865 1.2728429 -0.049965221 0
1.6148349 1.2835137 -0.049726784 0
1.6074247 1.3031963 -0.049989641 0
1.5981456 1.3214387 -0.050177317 0
1.580538 1.3321198 -0.049972277 0
1.570737 1.3500516 -0.050156515 0
1.5541884 1.3615692 -0.050017256 0
1.5366238 1.3719331 -0.04983215 0
1.5364465 1.4000008 -0.050541833 0
1.5056164 1.3964624 -0.049688477 0
1.0236269 0.88796467 0.29185548 0
1.4947575 1.4136498 -0.049871549 0
1.0434654 0.92536819 0.30545115 0
1.4803338 1.427079 -0.049878553 0
1.4411681 1.3836176 0.059789848 0
1.4463485 1.3893663 0.16875176 0
1.4380761 1.3801867 0.27689192 0
1.0526611 0.9525016 0.31418142 0
1.4597884 1.4335527 -0.049563613 0
1.4143347 1.3818187 0.059105027 0
1.4186323 1.3867102 0.16655841 0
1.4094281 1.3762342 0.27292478 0
1.0520674 0.96949691 0.31827426 0
1.4554064 1.4585607 -0.050135519 0
1.3881305 1.3800164 0.058443375 0
1.3902203 1.3824562 0.16421214 0
1.3986902 1.3923447 0.27385053 0
1.0598676 0.9967711 0.32682922 0
1.4350637 1.4650867 -0.049844448 0
1.3675731 1.3842535 0.05808495 0
1.365507 1.3817791 0.16244154 0
1.3704466 1.3876951 0.269921 0
1.0652454 1.0221571 0.33443356 0
1.4256979 1.484781 -0.050174315 0
1.3411851 1.3809301 0.057394151 0
1.3438921 1.3842565 0.16116942 0
1.340202 1.3797221 0.26534191 0
1.0596231 1.0349412 0.33652574 0
1.4048153 1.4903332 -0.049861908 0
1.3199003 1.3832619 0.056983121 0
1.3197471 1.3830688 0.15944472 0
1.3231188 1.3873202 0.26448056 0
1.0583525 1.0534703 0.34106687 0
1.3838519 1.4954255 -0.049543705 0
1.2938247 1.3789246 0.056287322 0
1.2991034 1.3857555 0.15830447 0
1.3020768 1.3896035 0.26246548 0
1.0483931 1.061321 0.34108096 0
1.3700564 1.5096709 -0.04964938 0
1.2724973 1.3800832 0.055858426 0
1.2828434 1.3938259 0.15793428 0
1.2742139 1.3823634 0.25837967 0
1.0366018 1.0667435 0.34013623 0
1.3631581 1.5334533 -0.050184038 0
1.2464663 1.3743205 0.055139005 0
1.2527559 1.3828977 0.15506305 0
1.2574735 1.3893311 0.25758764 0
1.0355896 1.0867479 0.34527761 0
1.3429537 1.5392569 -0.049929004 0
1.2464036 1.404054 0.055997677 0
1.2453281 1.4025478 0.15630589 0
1.2372996 1.3913053 0.25574306 0
1.0275632 1.0976032 0.34663787 0
1.3271168 1.5510328 -0.049946994 0
1.2407055 1.4267479 0.056542806 0
1.2369112 1.4212905 0.15743142 0
1.2486085 1.4381146 0.26381889 0
1.0184664 1.1071028 0.34747809 0
1.3106142 1.5618531 -0.049932275 0
1.244368 1.4639645 0.057712458 0
1.2475924 1.4687293 0.162285 0
1.2434568 1.4626181 0.26693755 0
1.0038983 1.1086348 0.34515676 0
1.2980388 1.5786237 -0.050180957 0
1.2469094 1.500984 0.058862057 0
1.2523249 1.5092075 0.16618545 0
1.2411355 1.4922163 0.27114475 0
1.1663016 1.3785814 0.34637564 0
0.98950481 1.1101165 0.34290779 0
1.2780842 1.5842067 -0.04996004 0
1.2523149 1.5439826 0.06025457 0
1.2393028 1.5236715 0.16672669 0
1.2215934 1.4960283 0.26980141 0
1.1470479 1.3796678 0.34393221 0
0.98022258 1.1192645 0.34377792 0
1.2590395 1.5909616 -0.04980075 0
1.2481804 1.5735319 0.0610676 0
1.2434548 1.5659471 0.17080605 0
1.2066175 1.5068204 0.27000427 0
1.1345913 1.3912129 0.34472492 0
0.97363752 1.13287 0.34643453 0
1.2388313 1.5955846 -0.049563739 0
1.1886714 1.5127686 0.26922414 0
1.1065316 1.377153 0.33792105 0
0.96949631 1.1509026 0.35082525 0
0.83940363 0.93611485 0.47175014 0
1.2229624 1.6072564 -0.049631063 0
1.176447 1.5282291 0.2704879 0
1.0890622 1.3797666 0.33620855 0
0.95844847 1.1578604 0.3509284 0
0.83432961 0.94698852 0.47574422 0
1.2055846 1.6163913 -0.049601823 0
1.1627226 1.5414274 0.27130473 0
1.0710604 1.3811139 0.3342011 0
0.94923025 1.1680378 0.3523182 0
0.84737515 0.98989743 0.35202938 0
0.83875448 0.97482026 0.41546816 0
0.84527534 0.98622501 0.49912933 0
1.194616 1.6370341 -0.050051671 0
1.1401393 1.5389099 0.26890981 0
1.0557235 1.3868583 0.33355713 0
0.93266153 1.1651965 0.34878865 0
0.84732348 1.0114839 0.35980564 0
0.84234488 1.0025164 0.4284232 0
0.84326261 1.0041695 0.507815 0
1.176659 1.645383 -0.050005533 0
1.1288971 1.5567412 0.27075827 0
1.0373346 1.3868099 0.33129486 0
0.91872543 1.1666822 0.34699735 0
0.85050225 1.0400665 0.37082002 0
0.8397491 1.0201097 0.43552291 0
0.84013104 1.0208185 0.51558644 0
1.1590831 1.6543974 -0.049995642 0
1.1091552 1.5588746 0.269429 0
1.0171942 1.382934 0.32801244 0
0.91078007 1.1793413 0.34947833 0
0.8482545 1.0597167 0.37757039 0
0.84058136 1.0450364 0.44673488 0
0.83627284 1.0367932 0.52288222 0
1.1402508 1.6609238 -0.049895134 0
1.0952327 1.5720878 0.27039874 0
0.99926257 1.3827056 0.32586694 0
0.89914769 1.1851445 0.34942397 0
0.85372931 1.0955185 0.39178792 0
0.84601581 1.0802971 0.46366605 0
0.84172106 1.071822 0.54283208 0
1.1270366 1.678738 -0.050253645 0
1.0800198 1.5829865 0.27093285 0
0.98241353 1.3842072 0.32429078 0
0.88594991 1.1877551 0.34824103 0
0.84661764 1.1076534 0.39496946 0
0.83913165 1.0924078 0.46755072 0
0.84010637 1.0943929 0.55438268 0
1.1059748 1.6806446 -0.049987759 0
0.96625936 1.3868139 0.32309631 0
0.87805957 1.2013239 0.35116348 0
0.8398543 1.1209757 0.39871758 0
0.84396452 1.1296197 0.48536706 0
0.83827823 1.1176611 0.56633574 0
1.0881582 1.6891625 -0.049993686 0
0.95035249 1.3896818 0.3220394 0
0.86312836 1.2001255 0.34869739 0
0.83940196 1.148563 0.40898448 0
0.83875364 1.1471541 0.49220908 0
0.8394658 1.1487017 0.58330876 0
1.0708632 1.6988707 -0.050054885 0
0.9320839 1.3869917 0.31949243 0
0.84996694 1.2024502 0.3475967 0
0.83903503 1.1778829 0.41998178 0
0.8407591 1.1817573 0.50839651 0
0.83847314 1.1766201 0.59815061 0
1.0520029 1.7050552 -0.049987305 0
0.91441083 1.3850564 0.31723288 0
0.84809518 1.2308257 0.35599628 0
0.83782321 1.2069361 0.4308016 0
0.84324867 1.2195541 0.52622205 0
0.84143728 1.2153414 0.61989415 0
1.031759 1.707791 -0.04979597 0
0.89442039 1.3769637 0.31334582 0
0.84776163 1.2645701 0.36629459 0
0.83965081 1.2450323 0.44562581 0
0.83619505 1.236708 0.53275454 0
0.838099 1.2412944 0.63330156 0
1.0142621 1.7170318 -0.049865596 0
0.88103908 1.3843497 0.31380165 0
0.84938538 1.3053046 0.37904775 0
0.83746725 1.2755429 0.45698199 0
0.83986336 1.2815264 0.55421239 0
0.84142137 1.2854171 0.65827578 0
0.99788624 1.7293226 -0.050060041 0
0.86561137 1.3865646 0.31288731 0
0.84951162 1.344846 0.39130631 0
0.84230518 1.3261722 0.47722405 0
0.83875692 1.3169779 0.5705179 0
0.84273386 1.3272831 0.68166792 0
0.98001337 1.7379868 -0.050123345 0
0.85143018 1.3918825 0.31287479 0
0.84306425 1.369364 0.39817509 0
0.83706921 1.3532274 0.48693225 0
0.83993399 1.3609383 0.59129655 0
0.8388806 1.3581029 0.69795197 0
0.96025479 1.7415146 -0.05000018 0
0.83087522 1.3793627 0.30807814 0
0.8373006 1.3973483 0.40626639 0
0.84114563 1.408111 0.50886112 0
0.84027684 1.4056791 0.61238855 0
0.94134641 1.7472624 -0.049970753 0
0.81860179 1.3895277 0.30949098 0
0.83913779 1.4493792 0.42280638 0
0.83961177 1.4507605 0.52531773 0
0.83917028 1.4494737 0.63288695 0
0.92150819 1.7501283 -0.049842101 0
1.0297143 2.0789199 0.35051787 0
0.79649252 1.3702595 0.30303401 0
0.84148461 1.5069711 0.44121763 0
0.84112769 1.5058867 0.54715312 0
0.84039861 1.5036713 0.65878755 0
0.90518188 1.7638446 -0.050129488 0
1.0077016 2.0890934 0.35104701 0
0.78557503 1.3843857 0.30561045 0
0.84107846 1.5604733 0.45811903 0
0.83713019 1.547947 0.56322163 0
0.83824253 1.551476 0.68122369 0
0.88680685 1.771477 -0.05019661 0
0.98391527 2.0936518 0.35056874 0
0.77098513 1.3872173 0.30520415 0
0.83777517 1.6088055 0.47316173 0
0.838687 1.6118307 0.58868819 0
0.86492515 1.7671046 -0.04982613 0
0.95766377 2.0894148 0.34849796 0
0.75625211 1.3894149 0.30467987 0
0.84042704 1.6819624 0.49675852 0
0.84008217 1.6807637 0.61622965 0
0.84816796 1.7804486 -0.050122976 0
0.74060488 1.3880908 0.047598455 0
0.73939878 1.3836913 0.13073091 0
0.73870558 1.3811629 0.21484327 0
0.73778987 1.3778225 0.30055851 0
0.83868867 1.7458709 0.51707214 0
0.83766133 1.7421236 0.64041746 0
0.82606649 1.7741317 -0.049701277 0
0.72119719 1.3717993 0.046857577 0
0.72351617 1.3806961 0.12997898 0
0.7217899 1.3740733 0.21281998 0
0.7223466 1.3762091 0.29914305 0
0.83068186 1.7918384 0.53115839 0
0.82923579 1.7862905 0.65718275 0
0.81072032 1.79391 -0.050250832 0
0.70904088 1.3826681 0.047126856 0
0.70914078 1.3830724 0.12984627 0
0.70882618 1.3817998 0.21359517 0
0.70747888 1.3763508 0.29824445 0
0.82652032 1.8578131 0.55209219 0
0.82386535 1.8470751 0.68102872 0
0.7898438 1.7917631 -0.050001971 0
0.69490761 1.3859301 0.047122054 0
0.69534808 1.387813 0.1299949 0
0.69532245 1.3877034 0.21406071 0
0.69577205 1.3896252 0.30083862 0
0.816495 1.9056914 0.56679928 0
0.76869863 1.7875986 -0.049689662 0
0.67762709 1.3749255 0.046602201 0
0.67930269 1.3825184 0.12905782 0
0.67847919 1.3787866 0.21181923 0
0.67918694 1.3819938 0.29800209 0
0.80354941 1.945518 0.57876539 0
0.75167727 1.8022374 -0.050073493 0
0.66491157 1.3841259 0.046828356 0
0.66566497 1.3877565 0.12930146 0
0.66411722 1.380298 0.21154352 0
0.66486865 1.3839191 0.29771769 0
0.79254031 1.9991506 0.59544688 0
0.72901869 1.7893159 -0.04946183 0
0.64702594 1.3675812 0.046123445 0
0.64910054 1.3782521 0.12794931 0
0.64992261 1.3824804 0.21142502 0
0.65001893 1.3829759 0.29673529 0
0.77873033 2.0450108 0.60950023 0
0.71285069 1.8097788 -0.050073244 0
0.63601905 1.3861876 0.046703741 0
0.636329 1.3878964 0.1287145 0
0.63715661 1.3924592 0.21276861 0
0.63565862 1.3842005 0.29636577 0
0.76296759 2.0860853 0.62196237 0
0.69235611 1.8071654 -0.049855284 0
0.62239724 1.3917443 0.046815377 0
0.62186664 1.3885937 0.12852056 0
0.61878979 1.3703232 0.20826538 0
0.62172991 1.3877816 0.2966536 0
0.74823219 2.1389618 0.63844687 0
0.67425561 1.8189696 -0.050167993 0
0.60693949 1.3860207 0.046525445 0
0.60695672 1.3861316 0.12800321 0
0.60695332 1.3861097 0.21073464 0
0.60763812 1.3905141 0.29676706 0
0.72823882 2.166167 0.64631838 0
0.65381604 1.815957 -0.049954038 0
0.59236687 1.3850714 0.046415228 0
0.59156466 1.3794458 0.12704867 0
0.59242815 1.3855008 0.21023984 0
0.59200829 1.3825568 0.29417118 0
0.70768815 2.1937113 0.65437436 0
0.63490057 1.8235389 -0.050131124 0
0.5760228 1.3698863 0.045799308 0
0.57978171 1.3988487 0.12894396 0
0.57764459 1.3823823 0.20932277 0
0.5763495 1.3724035 0.29106525 0
0.687729 2.230581 0.66563261 0
0.6148144 1.8222167 -0.049996458 0
0.5636394 1.3848333 0.046274789 0
0.56309724 1.3801999 0.12673526 0
0.56286407 1.378207 0.20824897 0
0.56175011 1.368686 0.28966779 0
0.66677207 2.2662892 0.67656946 0
0.59595537 1.831779 -0.050261743 0
0.55278134 1.4176669 0.13061556 0
0.55195403 1.4097315 0.21368365 0
0.55171376 1.4074271 0.29921058 0
0.64414459 2.2939956 0.6849038 0
0.57561493 1.8272465 -0.050029945 0
0.55183625 1.5674964 0.14663145 0
0.55200511 1.5693412 0.24233356 0
0.55164856 1.5654459 0.33933359 0
0.6212092 2.3253026 0.69452661 0
0.55558306 1.8245865 -0.049874604 0
0.6038723 2.436918 0.24020688 0
0.5987801 2.3723457 0.38735065 0
0.5973956 2.35479 0.54098839 0
0.53688186 1.8404154 -0.050389949 0
0.57397527 2.4007096 0.39212912 0
0.57307613 2.3871284 0.54876864 0
0.5161072 1.8243899 -0.049774494 0
0.54876721 2.4340997 0.39786854 0
0.54811835 2.4219866 0.5572657 0
0.49643919 1.8248584 -0.049758054 0
0.52218521 2.4536269 0.40116012 0
0.52206582 2.4507115 0.56427258 0
0.47691259 1.8300159 -0.049917944 0
0.45662314 1.1140828 0.35795203 0
0.45655844 1.1117998 0.43017241 0
0.45729047 1.8364689 -0.050132837 0
0.44591489 1.1138451 0.35775593 0
0.44580269 1.1067179 0.42751172 0
0.43749094 1.8357193 -0.050099399 0
0.43511465 1.0811558 0.41467175 0
0.4351252 1.0845064 0.49238136 0
0.41776887 1.8289361 -0.049859442 0
0.42476314 1.0882199 0.41822255 0
0.42491537 1.0720992 0.48504227 0
0.39783585 1.8392636 -0.050239306 0
0.41406557 1.1028023 0.35322455 0
0.41431335 1.0915591 0.4199754 0
0.4143759 1.0887198 0.49499643 0
0.37804729 1.8375912 -0.050199635 0
0.35209778 2.5867267 0.4250848 0
0.35236651 2.5789688 0.59688187 0
0.40514326 1.0553581 0.47537392 0
0.35862932 1.828602 -0.04990733 0
0.32273954 2.5881407 0.42555624 0
0.32291088 2.5845146 0.59860307 0
0.39558268 1.0465549 0.47038952 0
0.33898184 1.8268423 -0.049882118 0
0.2923269 2.6059844 0.42906317 0
0.29200608 2.6113417 0.60585964 0
0.38617072 1.0387839 0.46608594 0
0.31913641 1.828015 -0.049970694 0
0.2606703 2.6341457 0.43450814 0
0.26130298 2.6254225 0.60996175 0
0.29941934 1.8269078 -0.049986627 0
0.35553828 1.1682104 0.038385093 0
0.22998053 2.6419477 0.43634605 0
0.22954789 2.6470258 0.6160934 0
0.27985272 1.8241165 -0.049951069 0
0.19705163 2.66994 0.44191486 0
0.20018673 2.6379144 0.61446136 0
0.25999463 1.8241597 -0.050026119 0
0.16677453 2.6668453 0.44192597 0
0.16729878 2.6621063 0.62147039 0
0.34673151 1.0400805 0.46883851 0
0.24024081 1.8228998 -0.050063398 0
0.13517337 2.6744294 0.44394681 0
0.13364403 2.6868241 0.62873191 0
0.22084761 1.8187741 -0.050006438 0
0.10273032 2.6860685 0.44678155 0
0.10267122 2.6865025 0.62966758 0
0.20128183 1.8160574 -0.050009042 0
0.070390329 2.694298 0.44907436 0
0.071236715 2.6886189 0.63133448 0
0.18380024 1.8004394 -0.049553949 0
0.035620973 2.7154963 0.45381555 0
0.036260322 2.7115481 0.63848609 0
0.16242902 1.8089076 -0.049978793 0
0.0027854012 2.7217658 0.45591399 0
0.0046454533 2.7111299 0.63972032 0
0.14202912 1.8105667 -0.050167054 0
-0.031012459 2.7315433 0.4587369 0
-0.029341711 2.7226512 0.64416021 0
0.12117974 1.8137724 -0.050421458 0
-0.090190127 2.8655894 0.10072341 0
-0.088191167 2.8556423 0.29004943 0
-0.062367365 2.727138 0.4590362 0
-0.062145159 2.7260323 0.64660424 0
0.10309236 1.8032051 -0.050183263 0
-0.1135412 2.8150818 0.099127188 0
-0.11326148 2.8137753 0.28619123 0
-0.094852343 2.7277877 0.46034136 0
-0.095055595 2.7287374 0.6489861 0
0.086286291 1.7877443 -0.049773552 0
-0.1423284 2.7935469 0.098597892 0
-0.14168502 2.7907162 0.28442952 0
-0.13085993 2.7430904 0.46443585 0
-0.12783541 2.729784 0.6510492 0
0.066282496 1.7867975 -0.049903311 0
-0.17452057 2.7877388 0.098657779 0
-0.173719 2.7844069 0.28455347 0
-0.16183265 2.7349992 0.46428728 0
-0.16117437 2.7322631 0.65360248 0
0.046326682 1.7852772 -0.050021626 0
-0.20866121 2.7894113 0.099008299 0
-0.2098123 2.7939444 0.28647953 0
-0.19702043 2.7435703 0.46731114 0
-0.19681384 2.7427568 0.65838408 0
0.028914349 1.7739094 -0.049785689 0
-0.2502498 2.8179615 0.10036914 0
-0.25176436 2.8236256 0.29070351 0
-0.22930349 2.739624 0.46809095 0
-0.22643472 2.7288947 0.65686786 0
0.0068546399 1.7796885 -0.0501929 0
-0.25942397 2.7275579 0.46742848 0
-0.25949872 2.727824 0.6588347 0
-0.011780424 1.7728137 -0.050140984 0
-0.29406065 2.731133 0.46977544 0
-0.29391414 2.7306356 0.66195208 0
-0.028381689 1.7594554 -0.049855407 0
-0.32449973 2.7199631 0.46943086 0
-0.32704467 2.7282181 0.66380084 0
-0.047281131 1.7538781 -0.049868342 0
-0.36017197 2.7251785 0.47226205 0
-0.35622251 2.7129183 0.66231585 0
-0.069054499 1.7568133 -0.050210886 0
-0.39354712 2.722302 0.47365093 0
-0.39422482 2.7243185 0.6681096 0
-0.084018067 1.7395607 -0.049801651 0
-0.42480987 2.712791 0.4738583 0
-0.42411679 2.7108116 0.66732514 0
-0.10158475 1.7302864 -0.049700834 0
-0.45540935 2.7013593 0.47377339 0
-0.45660204 2.7046328 0.66862899 0
-0.12403549 1.7341009 -0.050107639 0
-0.48872036 2.6971071 0.47514674 0
-0.48922336 2.6984355 0.67004526 0
-0.14343967 1.7293741 -0.050199613 0
-0.51692873 2.6793382 0.47398859 0
-0.51859832 2.6835847 0.66920871 0
-0.16609772 1.7324467 -0.050602172 0
-0.55050111 2.675138 0.47553626 0
-0.54787093 2.6686878 0.66845679 0
-0.17934121 1.7125005 -0.050125755 0
-0.58292258 2.6676457 0.47653016 0
-0.58070266 2.6623917 0.67018479 0
-0.20011742 1.7106043 -0.050356567 0
-0.61082137 2.6494553 0.47550377 0
-0.61300433 2.6544452 0.67157763 0
-0.21461727 1.6944364 -0.050039649 0
-0.64098775 2.6366105 0.47559914 0
-0.64120746 2.6370962 0.67045885 0
-0.22897257 1.6784796 -0.049736355 0
-0.67300582 2.6276808 0.47654992 0
-0.66732633 2.6155398 0.66824824 0
-0.25142688 1.6797674 -0.050122127 0
-0.6996628 2.6073396 0.47530133 0
-0.69897938 2.6059256 0.66950089 0
-0.26620078 1.6650428 -0.049882729 0
-0.72575307 2.5862412 0.47395968 0
-0.72752285 2.5897889 0.66901517 0
-0.28483659 1.6581836 -0.049965035 0
-0.75862682 2.5787208 0.47542983 0
-0.76037335 2.5821145 0.67105716 0
-0.30244678 1.6492614 -0.049973968 0
-0.78993809 2.5678074 0.47630128 0
-0.78561413 2.55966 0.66896296 0
-0.32055408 1.6412283 -0.050028138 0
-0.81173122 2.539228 0.47362807 0
-0.81504822 2.5452921 0.66929805 0
-0.33963019 1.6348306 -0.050159015 0
-0.62557423 2.1423266 0.082955323 0
-0.841851 2.5261762 0.47420678 0
-0.83605313 2.5158863 0.66533983 0
-0.35368407 1.619586 -0.049935576 0
-0.62281573 2.0834863 0.081082769 0
-0.86134553 2.4946389 0.4710142 0
-0.86335158 2.4980967 0.66485667 0
-0.37083423 1.609828 -0.049945932 0
-0.61737776 2.022727 0.079114847 0
-0.88888848 2.4774399 0.47086072 0
-0.88349628 2.4684093 0.66093624 0
-0.39280343 1.6078948 -0.050293233 0
-0.62001634 1.9777586 0.077790424 0
-0.91708994 2.461344 0.47101271 0
-0.91224301 2.4534538 0.66147214 0
-0.40712285 1.5933889 -0.050124012 0
-0.62027454 1.9307641 0.076371267 0
-0.93080521 2.4222698 0.46633944 0
-0.9348464 2.4286664 0.65915394 0
-0.42254424 1.5807929 -0.050042346 0
-0.61847556 1.8824326 0.074883677 0
-0.95170367 2.3954432 0.46429867 0
-0.95295882 2.3973753 0.65492445 0
-0.4400996 1.5714915 -0.050109722 0
-0.60678923 1.8211738 0.072827637 0
-0.97533321 2.3732111 0.46329388 0
-0.97933424 2.379204 0.65475363 0
-0.45181936 1.5535934 -0.049815025 0
-0.61721873 1.7947123 0.072253935 0
-1.0025518 2.3564503 0.46354175 0
-0.99992263 2.3526175 0.65207994 0
-0.4720723 1.5481607 -0.050068542 0
-0.62329841 1.762774 0.071441621 0
-1.0234824 2.3306971 0.46188313 0
-1.0247207 2.3324542 0.6514678 0
-0.48864812 1.5373362 -0.050097957 0
-0.61558223 1.7127424 0.069827892 0
-0.61549175 1.7126174 0.19812042 0
-1.0370725 2.2951865 0.45809558 0
-1.0444444 2.3053737 0.6487695 0
-0.078126624 0.9700495 0.44183153 0
-0.50537628 1.5266768 -0.050144233 0
-0.62181139 1.6833818 0.069114082 0
-0.61838114 1.6787652 0.19537018 0
-1.0664729 2.2818327 0.45928895 0
-1.0669883 2.2825265 0.64747006 0
-0.095663801 0.97526222 0.44912371 0
-0.51331794 1.5044389 -0.049680479 0
-0.61921346 1.6432728 0.067914285 0
-0.61646974 1.6396757 0.1918904 0
-1.0813364 2.2491374 0.45619032 0
-1.0776888 2.2443552 0.64133155 0
-0.096575752 0.95807052 0.44252601 0
-0.53433096 1.4994234 -0.049997512 0
-0.61527264 1.6028155 0.066685334 0
-0.61760652 1.6057967 0.18908407 0
-1.092662 2.2126164 0.45222744 0
-1.1005241 2.2226591 0.64051396 0
-0.11131509 0.95907724 0.44743401 0
-0.54314059 1.4788557 -0.049617611 0
-0.61944485 1.5738356 0.065967239 0
-0.61511636 1.5684476 0.18577278 0
-1.1196907 2.1965177 0.45298159 0
-1.1135272 2.1888456 0.63581598 0
-0.12665059 0.96042877 0.45273176 0
-0.56493753 1.4744599 -0.049987074 0
-0.6190542 1.5401113 0.065024562 0
-0.62015855 1.541451 0.18386444 0
-1.1298401 2.1597686 0.44899628 0
-1.1258711 2.1549535 0.6310969 0
-0.1339059 0.95155597 0.45157969 0
-0.58642483 1.4692895 -0.050337046 0
-0.62072575 1.5098499 0.064233482 0
-0.61836982 1.5070641 0.18090443 0
-1.1458962 2.1308582 0.44684979 0
-1.149899 2.1355915 0.63123393 0
-0.15479501 0.95889199 0.46109599 0
-0.589499 1.4425123 -0.049682371 0
-0.61721492 1.4744613 0.063192375 0
-0.61449862 1.4713302 0.17771707 0
-1.1606749 2.100925 0.44448361 0
-1.1632713 2.1039181 0.62731594 0
-0.60587311 1.4313717 -0.049769424 0
-0.62859607 1.4569083 0.062989786 0
-0.63414061 1.4631395 0.17844909 0
-1.177953 2.0742908 0.44293174 0
-1.1677423 2.0628154 0.6201908 0
-0.625512 1.4237128 -0.050035674 0
-0.6668669 1.4690267 0.064225875 0
-0.66417956 1.4660821 0.18084519 0
-1.1794463 2.0306747 0.43726847 0
-1.1793984 2.0306222 0.61607993 0
-0.63830268 1.408458 -0.04994566 0
-0.49889976 1.2595205 0.054662641 0
-0.68352687 1.4567753 0.18152194 0
-1.190949 1.9989027 0.43446845 0
-1.1882039 1.9959699 0.61111212 0
-0.65911627 1.4016485 -0.050280411 0
-0.50685686 1.2430265 0.054430686 0
-0.71584761 1.4607505 0.1842216 0
-1.1993026 1.9644078 0.43098968 0
-1.1962817 1.9612606 0.60610271 0
-0.66630149 1.3806533 -0.049921729 0
-0.51888239 1.2308948 0.054419365 0
-0.75009942 1.4657809 0.18717502 0
-1.202451 1.9253107 0.42632934 0
-1.2142985 1.9373461 0.60493165 0
-0.68575168 1.3721594 -0.050197214 0
-0.53166986 1.2195252 0.0544542 0
-0.77981722 1.4653412 0.18939638 0
-1.2159373 1.8973637 0.42447686 0
-1.2246728 1.9060171 0.60113937 0
-0.69485319 1.3533947 -0.04996103 0
-0.53964013 1.2034645 0.054256652 0
-0.81624138 1.4706511 0.19259375 0
-1.2254808 1.8659613 0.42174694 0
-1.2241845 1.8647091 0.59368056 0
-0.70470142 1.3355577 -0.049775906 0
-0.56833363 1.207111 0.055087779 0
-0.84262729 1.465472 0.19426151 0
-1.2266399 1.8271787 0.41707045 0
-1.2226691 1.8234386 0.586133 0
-0.71952593 1.3224643 -0.049845085 0
-0.87337017 1.4637592 0.069302492 0
-0.87034571 1.4609815 0.19611412 0
-1.2368863 1.7976227 0.41479325 0
-1.23044 1.7917023 0.58207023 0
-0.23061694 0.87343639 0.37880248 0
-0.73472512 1.3096366 -0.04993939 0
-0.89914882 1.4568747 0.06981913 0
-0.90310073 1.4604137 0.19868074 0
-1.2317814 1.7547405 0.40891576 0
-1.23678 1.7592168 0.57770056 0
-0.2367657 0.86372399 0.37798685 0
-0.74240446 1.2901515 -0.049683981 0
-0.94709635 1.4688563 0.071384892 0
-1.2331727 1.7186133 0.40478781 0
-1.2406625 1.7251521 0.5726856 0
-0.23938431 0.8509931 0.3753075 0
-0.76237512 1.2813598 -0.050019085 0
-0.97956347 1.4662075 0.072201125 0
-1.2402053 1.6880383 0.40214816 0
-1.2465948 1.6934763 0.56855541 0
-0.23639233 0.83369869 0.36969388 0
-0.25402677 0.84870726 0.45709074 0
-0.7692579 1.261399 -0.04974876 0
-1.0140071 1.4644456 0.073102109 0
-1.2512079 1.6612301 0.40055692 0
-1.2347132 1.6475459 0.55869573 0
-0.2454526 0.82684427 0.37074015 0
-0.78683007 1.2503226 -0.049983535 0
-1.0532877 1.4657729 0.074217074 0
-1.2567455 1.630283 0.39779302 0
-1.2393969 1.6162555 0.55456173 0
-0.26265949 0.82649291 0.37615964 0
-0.79118478 1.2286166 -0.049621597 0
-1.087936 1.4624438 0.075109713 0
-1.2506063 1.5906211 0.39246526 0
-1.2299103 1.5743135 0.54599434 0
-0.26835239 0.81664711 0.37545869 0
-0.80956817 1.217999 -0.049906932 0
-1.1186248 1.4552764 0.075817451 0
-1.2537513 1.5590193 0.38941377 0
-1.2450932 1.5523722 0.54561508 0
-0.2599411 0.79602432 0.36746728 0
-0.24636735 0.78560311 0.43425155 0
-0.82401276 1.2041802 -0.050019979 0
-1.1673509 1.4609712 0.077326745 0
-1.2468288 1.5204147 0.38421366 0
-1.2365568 1.5127319 0.53777093 0
-0.26467764 0.78583992 0.36648354 0
-0.26874346 0.78888083 0.44416532 0
-0.83346641 1.1866233 -0.049919274 0
-1.2126694 1.4628618 0.078668565 0
-1.2507226 1.4905825 0.38158339 0
-1.2443447 1.4859364 0.53530943 0
-1.2416862 1.4839997 0.69512945 0
-0.26659745 0.77367544 0.3641319 0
-0.28077906 0.78400636 0.44756189 0
-0.83642554 1.1645424 -0.049544904 0
-1.2516046 1.4590589 0.079717994 0
-1.2602518 1.465193 0.38030604 0
-1.2432086 1.4531031 0.53018439 0
-1.2445605 1.454062 0.69009203 0
-0.28376228 0.77249861 0.36961812 0
-0.28573668 0.77389914 0.44662413 0
-0.85237539 1.1517503 -0.049749523 0
-1.2983603 1.4597524 0.081099749 0
-1.2587522 1.4323986 0.37669286 0
-1.2314606 1.4135507 0.52194214 0
-1.2392969 1.4189626 0.681961 0
-0.28657287 0.76100093 0.44326618 0
-0.87483788 1.1431582 -0.050239541 0
-1.2725288 1.4104754 0.079346992 0
-1.2676177 1.4071743 0.22615583 0
-1.2525531 1.3970484 0.37217903 0
-1.2420623 1.3899966 0.52079368 0
-1.2418654 1.3898643 0.67721611 0
-0.29057902 0.75043499 0.44194588 0
-0.8811506 1.1235867 -0.050041236 0
-1.2592798 1.3709003 0.078171968 0
-1.2608691 1.3719398 0.22345872 0
-1.2484117 1.3637919 0.36824197 0
-1.2418392 1.3594933 0.5164454 0
-1.2458621 1.3621244 0.67322409 0
-0.29738444 0.74177718 0.44238988 0
-0.89470792 1.1087862 -0.050161529 0
-1.2791454 1.3533703 0.078428686 0
-1.2707605 1.3480358 0.22295941 0
-1.2541682 1.3374796 0.36654192 0
-1.2359335 1.3258785 0.51053011 0
-1.2521095 1.3361698 0.67028975 0
-0.30796582 0.73549318 0.44513443 0
-0.90223992 1.0901546 -0.050035793 0
-1.2977793 1.3348609 0.07864102 0
-1.299771 1.3360931 0.22491831 0
-1.2558913 1.3089463 0.36407024 0
-1.2397803 1.2989789 0.50771397 0
-1.2348111 1.2959048 0.65829504 0
-0.91838598 1.0768033 -0.050279684 0
-1.3133055 1.314303 0.078732029 0
-1.3125516 1.3138497 0.22484604 0
-1.2405969 1.270577 0.35811177 0
-1.2459247 1.2737811 0.50570446 0
-1.2446861 1.2730362 0.65713769 0
-0.91746223 1.0532742 -0.049822927 0
-1.3353627 1.2974826 0.079103179 0
-1.3287914 1.2936425 0.22523984 0
-1.2551724 1.2506218 0.35853764 0
-1.2415844 1.2426814 0.50070548 0
-1.2404855 1.2420392 0.65067643 0
-0.92595863 1.0354586 -0.049768332 0
-1.3871554 1.2972344 0.080701098 0
-1.3839489 1.2954143 0.23047167 0
-1.2562323 1.2229222 0.35620999 0
-1.2416965 1.2146717 0.49716362 0
-1.2402349 1.213842 0.64592206 0
-0.95335424 1.0280982 -0.050493691 0
-1.2472525 1.1900568 0.35190311 0
-1.248981 1.1910093 0.49583873 0
-1.2351502 1.1833875 0.63949966 0
-0.94460738 1.0008264 -0.049754702 0
-1.245822 1.161906 0.34925404 0
-1.2388594 1.1581826 0.48957321 0
-1.2434654 1.1606457 0.63832104 0
-0.96075439 0.98705006 -0.050035555 0
-1.2604412 1.1424923 0.34995523 0
-1.2315944 1.12753 0.48428872 0
-1.2447246 1.1343404 0.63461322 0
-0.96669769 0.9679181 -0.04991385 0
-1.2693979 1.1201175 0.34955841 0
-1.2434187 1.1070551 0.48459941 0
-1.2377399 1.1041998 0.62798274 0
-0.97566009 0.95034891 -0.049922381 0
-1.2943336 1.1055841 0.35242626 0
-1.2371593 1.0777328 0.47984958 0
-1.2444582 1.0812883 0.62660468 0
-0.98999286 0.93530244 -0.050151605 0
-1.2862684 1.075039 0.34873331 0
-1.2400718 1.0532507 0.47781959 0
-1.2339953 1.0503848 0.6190213 0
-0.9866339 0.91200131 -0.049692694 0
-1.30182 1.0558339 0.34981981 0
-1.248701 1.0315934 0.47749117 0
-1.2356381 1.0256324 0.61605114 0
-1.0062916 0.89920592 -0.050145965 0
-1.3035158 1.0303454 0.34821674 0
-1.2385528 1.0016829 0.47200453 0
-1.2420133 1.0032097 0.61493194 0
-1.0194951 0.88330835 -0.050352596 0
-1.3186096 1.010807 0.34931207 0
-1.2431889 0.97865868 0.4707523 0
-1.2429987 0.97857761 0.61197191 0
-1.0213836 0.86259431 -0.050129093 0
-1.3318248 0.99032623 0.35008344 0
-1.2512568 0.95717627 0.47053352 0
-1.2451818 0.95467669 0.60956985 0
-1.0275764 0.84375435 -0.050082069 0
-1.3469815 0.97049588 0.35127786 0
-1.2316301 0.92472386 0.46278855 0
-1.2452068 0.93011117 0.60651535 0
-1.0305371 0.82371098 -0.049920823 0
-1.3415984 0.94263047 0.3485491 0
-1.2327013 0.90099883 0.46084613 0
-1.2333769 0.9012571 0.59936351 0
-1.0448453 0.80796063 -0.050201621 0
-1.3605411 0.92411739 0.35057518 0
-1.2434591 0.88103837 0.46162742 0
-1.2355793 0.87813902 0.59734833 0
-1.0465475 0.78753799 -0.050011326 0
-1.3775749 0.90462506 0.3522718 0
-1.2389952 0.85560828 0.45835409 0
-1.2374502 0.85506177 0.59532803 0
-1.0478297 0.76711118 -0.049815726 0
-1.3753923 0.87835246 0.35034797 0
-1.2395113 0.83220679 0.45652297 0
-1.2404804 0.83253598 0.59382606 0
-1.0595198 0.75021517 -0.050021376 0
-1.3774697 0.85374552 0.34930286 0
-1.2345099 0.80719519 0.45329821 0
-1.2415495 0.8094874 0.59174341 0
-1.0586923 0.72926164 -0.049766093 0
-1.3887062 0.83214283 0.35005081 0
-1.2358162 0.78447968 0.45185608 0
-1.2392766 0.7855584 0.58860576 0
-1.07406 0.71331865 -0.050124925 0
-1.3931986 0.80841744 0.34957802 0
-1.2454031 0.76437646 0.45270008 0
-1.2453958 0.76437432 0.58849788 0
-1.0740671 0.69274181 -0.04991981 0
-1.402193 0.78603685 0.35000721 0
-1.2402737 0.73999888 0.44970495 0
-1.245452 0.74147123 0.58638585 0
-1.0812916 0.67426586 -0.049991939 0
-1.3994186 0.76040369 0.34828874 0
-1.2484993 0.71953994 0.45033124 0
-1.2408355 0.71746486 0.58276993 0
-1.0931984 0.65693891 -0.050245043 0
-1.4153063 0.73981601 0.35011137 0
-1.2349362 0.69340748 0.44528347 0
-1.2406327 0.69487315 0.58078599 0
-1.0912334 0.63604146 -0.049995635 0
-1.4123591 0.71436834 0.34848017 0
-1.2400895 0.67234945 0.44525284 0
-1.2391529 0.67212099 0.57846838 0
-1.0938449 0.6163767 -0.049924284 0
-1.4398663 0.69617373 0.35254964 0
-1.2318376 0.64819962 0.44178197 0
-1.2392925 0.64991879 0.57680839 0
-1.1086416 0.59940916 -0.050307374 0
-1.4280241 0.66883951 0.34938797 0
-1.2391028 0.62777007 0.44245151 0
-1.2316848 0.62615746 0.57261062 0
-1.1076491 0.57893789 -0.050121944 0
-1.4409816 0.64701712 0.35086283 0
-1.2372528 0.60540789 0.44081277 0
-1.2397406 0.60591602 0.57384402 0
-1.1145391 0.56010336 -0.050232857 0
-1.4439961 0.62308049 0.35055894 0
-1.2407408 0.58422738 0.44063777 0
-1.2391437 0.58392209 0.5722301 0
-1.107676 0.53873628 -0.049853396 0
-1.4523582 0.60013568 0.35129067 0
-1.2412418 0.56252885 0.4397583 0
-1.2393287 0.56218803 0.57097775 0
-1.1141454 0.51983947 -0.049966902 0
-1.4532524 0.57585001 0.35070863 0
-1.2425673 0.54105097 0.43916458 0
-1.2344095 0.53970355 0.5680992 0
-1.1181674 0.50048584 -0.050000414 0
-1.4465215 0.55048162 0.34879255 0
-1.2385721 0.51881886 0.43726876 0
-1.2373149 0.51862741 0.56795478 0
-1.1157142 0.48020253 -0.049809251 0
-1.4560773 0.52764988 0.34990373 0
-1.2452844 0.49826491 0.43820667 0
-1.2255951 0.49552017 0.56298703 0
-1.1267886 0.4617644 -0.050114397 0
-1.455956 0.50343299 0.34930626 0
-1.2502401 0.47739187 0.43875796 0
-1.2406117 0.47617301 0.56709087 0
-1.1166493 0.4406921 -0.049665213 0
-0.52086699 0.37288359 0.040257696 0
-0.51279485 0.37196487 0.10825064 0
-0.50440878 0.37101042 0.17606884 0
-1.2406085 0.4548004 0.43563026 0
-1.241767 0.45493227 0.56662923 0
-1.1207824 0.42137769 -0.049738266 0
