# .PCD v0.7 - Point Cloud Data file format
VERSION 0.7
FIELDS x y z intensity
SIZE 4 4 4 4
TYPE F F F F
COUNT 1 1 1 1
WIDTH 1317
HEIGHT 1
VIEWPOINT 0 0 0 1 0 0 0
POINTS 1317
DATA ascii
-0.9405992 -2.3309991 -0.090599813 0
-1.1870216 -2.682142 -0.092067607 0
-1.5755402 -3.2357664 -0.090893023 0
-1.5257914 -3.1648762 -0.022764994 0
-1.5491499 -3.1981611 0.038228709 0
-1.5784235 -3.2398751 0.10104889 0
-0.4993397 -1.7419163 -0.09113165 0
-0.56620091 -1.8424958 -0.091999181 0
-0.64360005 -1.9589276 -0.09038911 0
-0.75018805 -2.1192682 -0.089716576 0
-0.90557516 -2.3530176 -0.090415783 0
-1.1326936 -2.6946726 -0.090172879 0
-1.5188712 -3.2756009 -0.090957887 0
-2.8741982 -5.3144231 -0.14081538 0
-5.7541833 -9.6467943 -0.14073829 0
-0.47664896 -1.7486686 -0.089717515 0
-0.53827363 -1.846646 -0.08979889 0
-0.62390268 -1.9827882 -0.091924138 0
-0.71820986 -2.1327279 -0.088864349 0
-0.87739378 -2.3858154 -0.091846012 0
-1.095349 -2.7323437 -0.09123259 0
-1.4624102 -3.3159368 -0.091182239 0
-2.7611079 -5.380744 -0.14054888 0
-5.5259547 -9.7765923 -0.14039071 0
-0.46058473 -1.7659423 -0.091068752 0
-0.52036107 -1.8665261 -0.09123341 0
-0.59231442 -1.9875996 -0.089890204 0
-0.6957708 -2.1616821 -0.090690844 0
-0.82794386 -2.3840854 -0.088658221 0
-1.0434654 -2.7467365 -0.089852147 0
-1.3988552 -3.3447394 -0.090582125 0
-2.6544185 -5.4574337 -0.14100364 0
-5.3152404 -9.9347105 -0.1409713 0
-0.44061685 -1.7769389 -0.090970822 0
-0.49944556 -1.881869 -0.09176641 0
-0.56899935 -2.005929 -0.090583213 0
-0.6635558 -2.1745853 -0.089997523 0
-0.79291534 -2.405318 -0.088760354 0
-1.0061289 -2.7856178 -0.091252752 0
-1.3428869 -3.3862782 -0.09114071 0
-2.5390191 -5.5197663 -0.14083055 0
-5.0868044 -10.064137 -0.14092176 0
-0.42350867 -1.7933334 -0.092293672 0
-0.4688063 -1.8791347 -0.088555343 0
-0.54417562 -2.0218966 -0.090938218 0
-0.63204485 -2.1883354 -0.089578114 0
-0.75985211 -2.4304235 -0.089490645 0
-0.96218449 -2.8136747 -0.091592468 0
-1.2832357 -3.4217992 -0.091328628 0
-1.923839 -4.6352077 -0.090965845 0
-4.8482685 -10.174562 -0.14052591 0
-0.40089452 -1.7993684 -0.091245092 0
-0.45553404 -1.9095093 -0.092509158 0
-0.51333743 -2.0260277 -0.089232974 0
-0.60637522 -2.2135708 -0.091091253 0
-0.72543007 -2.4535582 -0.090064295 0
-0.91306388 -2.8317854 -0.09100794 0
-1.2201552 -3.4508119 -0.091124587 0
-1.8289026 -4.6779079 -0.090721391 0
-4.6171427 -10.298366 -0.14063948 0
-0.37771162 -1.8036246 -0.089926384 0
-0.43001127 -1.9160907 -0.091544546 0
-0.49050432 -2.046176 -0.09059266 0
-0.57942992 -2.2374029 -0.092470311 0
-0.68719923 -2.469152 -0.089771964 0
-0.865812 -2.8532436 -0.09090323 0
-1.158421 -3.4824753 -0.091250755 0
-1.7323675 -4.7166991 -0.090402849 0
-4.3841066 -10.419042 -0.14082207 0
-0.36536634 -1.8320642 -0.094363518 0
-0.4051992 -1.9237002 -0.090934657 0
-0.46395323 -2.0588646 -0.090704627 0
-0.53914219 -2.231838 -0.089434408 0
-0.65581036 -2.5002348 -0.091580398 0
-0.81732541 -2.8718026 -0.090626635 0
-1.0910608 -3.5015349 -0.090534262 0
-1.6409577 -4.7665806 -0.090775155 0
-4.1420546 -10.52039 -0.1406626 0
-0.33696824 -1.823712 -0.090389855 0
-0.38278696 -1.9368436 -0.091583468 0
-0.43274018 -2.060184 -0.088918887 0
-0.51012129 -2.2512469 -0.090370961 0
-0.61341172 -2.5062833 -0.090314172 0
-0.76868433 -2.8896694 -0.090407066 0
-1.026273 -3.5256863 -0.090338014 0
-1.5439398 -4.8038659 -0.090627514 0
-3.8995485 -10.62014 -0.14061874 0
-0.31495246 -1.8296986 -0.089873381 0
-0.35998285 -1.9494852 -0.092239566 0
-0.41105247 -2.0853369 -0.091473736 0
-0.47533271 -2.256331 -0.08925847 0
-0.57750267 -2.5281162 -0.091164999 0
-0.72073871 -2.9091427 -0.090472795 0
-0.96206701 -3.5511076 -0.0903612 0
-1.4496671 -4.8481874 -0.090953566 0
-3.6584089 -10.723728 -0.14082342 0
-0.2943354 -1.8393821 -0.090318896 0
-0.33104914 -1.9450676 -0.089603759 0
-0.3814272 -2.0900879 -0.090552278 0
-0.44548127 -2.2744763 -0.09023013 0
-0.53813976 -2.5412066 -0.091039382 0
-0.67575568 -2.9373531 -0.091521375 0
-0.89800936 -3.577141 -0.090549953 0
-1.3530539 -4.8870502 -0.09112557 0
-3.4089835 -10.805327 -0.14063558 0
-0.27256674 -1.8458544 -0.090160944 0
-0.31281495 -1.9718871 -0.093310349 0
-0.3495003 -2.0867631 -0.088374533 0
-0.41243774 -2.2838445 -0.09001071 0
-0.49886304 -2.5544753 -0.091059066 0
-0.62588781 -2.9522388 -0.091367684 0
-0.83225906 -3.5984666 -0.090510853 0
-1.2500808 -4.9068274 -0.090483166 0
-3.1601498 -10.887989 -0.14062947 0
-0.25367287 -1.8620981 -0.092289843 0
-0.28610393 -1.9732559 -0.092086889 0
-0.32635441 -2.1112149 -0.091106646 0
-0.38251472 -2.3037047 -0.091451488 0
-0.45684835 -2.5584841 -0.090072401 0
-0.57608664 -2.9671745 -0.091342829 0
-0.76759553 -3.6235735 -0.090868719 0
-1.1537449 -4.9471049 -0.090966143 0
-2.9109383 -10.969903 -0.14075802 0
-0.23021594 -1.863127 -0.091164477 0
-0.25915077 -1.9724926 -0.090587981 0
-0.2969701 -2.1154392 -0.090481482 0
-0.34598389 -2.3006976 -0.089668579 0
-0.41959879 -2.5789416 -0.091209494 0
-0.52718657 -2.9855936 -0.091776229 0
-0.69924772 -3.6359367 -0.090421103 0
-1.0550052 -4.9806013 -0.091236867 0
-2.6571989 -11.036448 -0.14066789 0
-0.20788714 -1.8678093 -0.090973802 0
-0.23421574 -1.9785531 -0.090551265 0
-0.26524314 -2.1090612 -0.088194646 0
-0.31400642 -2.3141701 -0.090410478 0
-0.37882444 -2.5868089 -0.090940632 0
-0.47331756 -2.9842677 -0.090431474 0
-0.6313259 -3.6488855 -0.090142585 0
-0.94786727 -4.9803281 -0.090009637 0
-2.4035909 -11.103421 -0.14074203 0
-0.18368658 -1.8634818 -0.088949524 0
-0.21029024 -1.9894241 -0.091562293 0
-0.23811167 -2.1211314 -0.089153789 0
-0.28006187 -2.3197248 -0.090127401 0
-0.34008938 -2.6038966 -0.091897883 0
-0.4244819 -3.0034132 -0.09117689 0
-0.56449491 -3.6662385 -0.090303071 0
-0.84605604 -4.9991565 -0.08982686 0
-2.1482542 -11.163796 -0.14081156 0
-0.16192074 -1.8697522 -0.089357994 0
-0.18217005 -1.9792012 -0.088644095 0
-0.2103962 -2.1317656 -0.089983158 0
-0.24649899 -2.3269041 -0.090200566 0
-0.2983008 -2.6068966 -0.091292746 0
-0.36914045 -2.9897904 -0.088925637 0
-0.498505 -3.6890156 -0.090968676 0
-0.94382286 -6.0959921 -0.14080484 0
-1.8869603 -11.193722 -0.14031355 0
-0.14119972 -1.8833015 -0.091449969 0
-0.15997386 -2.0013556 -0.092048161 0
-0.1815974 -2.1373274 -0.090081744 0
-0.21190953 -2.3279343 -0.08951924 0
-0.2572647 -2.6131337 -0.091198169 0
-0.31855908 -2.9985609 -0.088932179 0
-0.42955032 -3.6964889 -0.090666436 0
-0.81460887 -6.1177888 -0.14078525 0
-1.6313961 -11.253858 -0.14068432 0
-0.11801106 -1.8822013 -0.090505831 0
-0.13438642 -2.0050881 -0.092046939 0
-0.15177102 -2.1355484 -0.08908359 0
-0.17782108 -2.3310375 -0.089258112 0
-0.21518691 -2.6114442 -0.090291701 0
-0.2690438 -3.0156059 -0.089838289 0
-0.3611877 -3.707087 -0.090708576 0
-0.68471795 -6.1349754 -0.14070266 0
-1.3713068 -11.287388 -0.1405814 0
-0.094829656 -1.8792106 -0.089285396 0
-0.10818146 -2.0032349 -0.091110162 0
-0.12400317 -2.150202 -0.090929143 0
-0.14423302 -2.3381164 -0.089681409 0
-0.17497304 -2.6236589 -0.091147117 0
-0.21853721 -3.0283246 -0.090453289 0
-0.29176137 -3.7085006 -0.0902263 0
-0.55510992 -6.1547332 -0.1408944 0
-1.1109257 -11.317682 -0.14055683 0
-0.073486991 -1.8952308 -0.092247032 0
-0.082432963 -2.0040724 -0.09080898 0
-0.093661636 -2.140687 -0.088900991 0
-0.10880277 -2.3249028 -0.087362103 0
-0.13324729 -2.622309 -0.090529226 0
-0.16662672 -3.0284224 -0.090004526 0
-0.22413935 -3.7281542 -0.091147535 0
-0.42472208 -6.1685591 -0.14096165 0
-0.85099268 -11.354812 -0.14084527 0
-0.051016413 -1.9040496 -0.093786024 0
-0.056799345 -2.0057981 -0.090798475 0
-0.064865828 -2.1477251 -0.089726843 0
-0.075834371 -2.3407125 -0.089257516 0
-0.081111878 -2.4335685 -0.068099342 0
-0.080522016 -2.4231901 -0.033086095 0
-0.081000134 -2.4316025 -2.3400184e-05 0
-0.080777131 -2.4276788 0.033898752 0
-0.081109256 -2.4335225 0.067337215 0
-0.081977859 -2.4488051 0.10101213 0
-0.027476069 -1.8910112 -0.09079615 0
-0.031188052 -2.0086608 -0.091124184 0
-0.035686918 -2.1512501 -0.090093963 0
-0.040592548 -2.3067315 -0.084267624 0
-0.040721361 -2.3108141 -0.053557087 0
-0.040852215 -2.3149617 -0.022829605 0
-0.040718745 -2.3107314 0.008543374 0
-0.040768806 -2.3123181 0.039346747 0
-0.040717375 -2.310688 0.070232071 0
-0.040957808 -2.3183084 0.10100836 0
-0.0047057909 -1.8898609 -0.09046004 0
-0.0054216716 -2.0033634 -0.090034701 0
-0.0063318079 -2.1476653 -0.089413561 0
-0.0067864405 -2.2197473 -0.071954615 0
-0.0067297965 -2.2107663 -0.041790131 0
-0.0067355298 -2.2116754 -0.013129523 0
-0.0067159622 -2.2085729 0.015729496 0
-0.0067278193 -2.2104528 0.044118561 0
-0.0066994196 -2.20595 0.072682001 0
-0.0066796257 -2.2028117 0.10100504 0
0.017836569 -1.8801198 -0.088419579 0
0.020335844 -2.0121551 -0.091721334 0
0.022899378 -2.1475854 -0.089430727 0
0.02382805 -2.1966467 -0.06873513 0
0.023861213 -2.1983986 -0.04036716 0
0.023953147 -2.2032554 -0.012361636 0
0.023623982 -2.1858659 0.01730364 0
0.023975248 -2.204423 0.04439028 0
0.023939319 -2.2025249 0.072757147 0
0.024052633 -2.2085111 0.10100521 0
0.04117078 -1.8989435 -0.092575572 0
0.046033774 -2.0089936 -0.091278754 0
0.052339178 -2.1516852 -0.090256892 0
0.054434825 -2.19911 -0.069216855 0
0.054010555 -2.1895089 -0.039439756 0
0.054485071 -2.200247 -0.012170842 0
0.054424495 -2.1988761 0.016326556 0
0.053953178 -2.1882102 0.045100719 0
0.054472513 -2.1999629 0.072794296 0
0.054421593 -2.1988106 0.10100496 0
0.064036734 -1.8965946 -0.092352889 0
0.07098975 -1.9966303 -0.089220427 0
0.081892632 -2.1534939 -0.09082932 0
0.08479818 -2.195297 -0.068923973 0
0.085098185 -2.1996133 -0.040825073 0
0.085595496 -2.2067683 -0.012943393 0
0.084929071 -2.1971803 0.016323918 0
0.084612817 -2.1926301 0.04481427 0
0.085774116 -2.2093382 0.072535351 0
0.083872601 -2.1819804 0.10100453 0
0.08662083 -1.8916808 -0.091705091 0
0.096772105 -1.9986366 -0.08999493 0
0.11120708 -2.1507263 -0.090770654 0
0.11669505 -2.2085483 -0.071147375 0
0.11601009 -2.2013316 -0.041321222 0
0.11658621 -2.2074018 -0.0132393 0
0.11620753 -2.2034118 0.015710557 0
0.11611021 -2.2023864 0.044241428 0
0.11610416 -2.2023227 0.072640151 0
0.11570256 -2.1980913 0.10100506 0
0.10880001 -1.8845688 -0.090706609 0
0.12266748 -1.9997104 -0.090718158 0
0.13985838 -2.1424463 -0.089921601 0
0.14590143 -2.1926215 -0.069361158 0
0.14636192 -2.196445 -0.04113308 0
0.14668351 -2.1991153 -0.012770956 0
0.14623016 -2.1953509 0.016046213 0
0.14628121 -2.1957748 0.044397123 0
0.14685719 -2.2005572 0.072604433 0
0.14738707 -2.2049568 0.10100535 0
0.13158064 -1.8831116 -0.091039218 0
0.14855772 -1.9992962 -0.091284998 0
0.16856469 -2.1362162 -0.089529805 0
0.17730808 -2.1960523 -0.070422195 0
0.1779637 -2.2005394 -0.042095337 0
0.17729765 -2.195981 -0.012858434 0
0.17805625 -2.2011726 0.015348846 0
0.17884019 -2.2065375 0.043700181 0
0.17799914 -2.2007818 0.072503604 0
0.1774445 -2.1969862 0.10100524 0
0.15216935 -1.8683591 -0.088629447 0
0.17343399 -1.9919944 -0.090662591 0
0.19773597 -2.1332889 -0.089807712 0
0.20898458 -2.1986897 -0.071487494 0
0.2081268 -2.1937025 -0.041859869 0
0.2084126 -2.1953642 -0.01325774 0
0.20976742 -2.2032413 0.014857801 0
0.20837176 -2.1951268 0.044008914 0
0.2090885 -2.1992941 0.072424233 0
0.20872305 -2.1971691 0.10100538 0
0.17612512 -1.8734732 -0.090624921 0
0.19912332 -1.9895706 -0.09109401 0
0.22607331 -2.125617 -0.089415126 0
0.23971914 -2.1945026 -0.07169468 0
0.23867232 -2.1892183 -0.041994009 0
0.23980194 -2.1949208 -0.013750104 0
0.23873594 -2.1895394 0.015431309 0
0.24116743 -2.2018137 0.043424983 0
0.24103209 -2.2011306 0.07224711 0
0.24028014 -2.1973348 0.10100555 0
0.19672492 -1.8614072 -0.089020379 0
0.2265705 -1.9943762 -0.093048222 0
0.25600305 -2.125505 -0.090413831 0
0.27397522 -2.2055752 -0.07421235 0
0.27237433 -2.1984429 -0.043863077 0
0.27036586 -2.1894948 -0.013844205 0
0.27382568 -2.2049091 0.013872908 0
0.27354413 -2.2036545 0.043029584 0
0.27124637 -2.1934175 0.072277382 0
0.272313 -2.1981697 0.10100577 0
0.2210646 -1.8657386 -0.091112964 0
0.25342679 -1.9946117 -0.09426149 0
0.28448045 -2.118274 -0.090340175 0
0.30440837 -2.1976311 -0.074115448 0
0.30645543 -2.2057829 -0.045619119 0
0.30694586 -2.207736 -0.016290611 0
0.30348036 -2.1939356 0.014139751 0
0.30565971 -2.2026143 0.042730857 0
0.30335444 -2.1934342 0.07210432 0
0.30545712 -2.2018075 0.10100609 0
0.2448601 -1.8662058 -0.09250278 0
0.27163535 -1.9624788 -0.089287333 0
0.31290063 -2.1108518 -0.090355597 0
0.33709961 -2.1978614 -0.07532189 0
0.33505049 -2.1904936 -0.044746343 0
0.33756608 -2.1995385 -0.016281931 0
0.33697799 -2.1974239 0.013304958 0
0.33648008 -2.1956336 0.042678025 0
0.33476233 -2.1894574 0.072006918 0
0.33872497 -2.2037055 0.10100638 0
0.26169512 -1.8427105 -0.08871042 0
0.29979977 -1.9674385 -0.091670088 0
0.33953115 -2.0974913 -0.089473449 0
0.37098223 -2.2004402 -0.077003591 0
0.37097085 -2.2004027 -0.047034133 0
0.37129262 -2.2014561 -0.017335562 0
0.37045977 -2.19873 0.012561673 0
0.37266323 -2.2059424 0.041745443 0
0.37283489 -2.2065043 0.071378455 0
0.36991528 -2.1969476 0.10100645 0
0.28766322 -1.8494171 -0.091747858 0
0.32166424 -1.951427 -0.090049915 0
0.37208247 -2.1026917 -0.091915347 0
0.4290837 -2.2737069 -0.089297064 0
0.51983666 -2.545984 -0.090805404 0
0.65264434 -2.9444339 -0.091393434 0
0.86774135 -3.5897682 -0.090660013 0
1.3039109 -4.8983641 -0.090857871 0
3.2896404 -10.855952 -0.14084131 0
0.30747858 -1.8369452 -0.090625711 0
0.34858307 -1.9506216 -0.091570549 0
0.39701593 -2.0845652 -0.090445764 0
0.46094325 -2.2613592 -0.089127131 0
0.55729681 -2.5278299 -0.090237774 0
0.69733137 -2.9151022 -0.090175875 0
0.93426669 -3.5703585 -0.090904392 0
1.3991882 -4.8561215 -0.090455703 0
3.538414 -10.772255 -0.14090113 0
0.32933125 -1.8303844 -0.090954848 0
0.37217075 -1.9401184 -0.091282092 0
0.42569974 -2.0772338 -0.090976827 0
0.49597996 -2.2572579 -0.090320326 0
0.59522504 -2.5114758 -0.090008475 0
0.75189584 -2.9127905 -0.091766201 0
0.99944949 -3.5469036 -0.090973042 0
1.4973922 -4.822392 -0.090594627 0
3.7781155 -10.664503 -0.14051715 0
0.34417418 -1.8068852 -0.087509222 0
0.39477912 -1.9274396 -0.090667121 0
0.45103768 -2.0614622 -0.090137474 0
0.53041005 -2.2505484 -0.09126278 0
0.6324752 -2.4936943 -0.089716531 0
0.79915941 -2.8907802 -0.091518037 0
1.0637612 -3.5211318 -0.090990849 0
1.5933353 -4.7827168 -0.090559341 0
4.025413 -10.576569 -0.14078054 0
0.36829138 -1.8059648 -0.089373596 0
0.4150421 -1.9099078 -0.089160107 0
0.47450978 -2.0421247 -0.088760577 0
0.55536979 -2.2219045 -0.088969223 0
0.67310077 -2.4836612 -0.090533994 0
0.84392864 -2.8634703 -0.090846054 0
1.1291778 -3.4976771 -0.09131024 0
1.6906362 -4.7459922 -0.090797223 0
4.2633934 -10.466117 -0.1406312 0
0.39389789 -1.8070892 -0.091885634 0
0.44525903 -1.9139879 -0.09225703 0
0.50800431 -2.0445802 -0.091447927 0
0.5885517 -2.2122247 -0.089702092 0
0.70866197 -2.4622116 -0.090013362 0
0.88882732 -2.8371921 -0.090389065 0
1.1923226 -3.4688604 -0.091344945 0
1.7841809 -4.7007027 -0.090721704 0
4.5049634 -10.363502 -0.14083616 0
0.41454014 -1.7971759 -0.091947921 0
0.46400395 -1.8938013 -0.090419881 0
0.53109747 -2.0248656 -0.090231963 0
0.61941445 -2.1973891 -0.08976192 0
0.74773705 -2.4480619 -0.090561502 0
0.93931508 -2.8223016 -0.091238342 0
1.2545063 -3.4380143 -0.091345109 0
1.8804059 -4.6606827 -0.091043539 0
4.7337666 -10.234602 -0.14051555 0
0.43469191 -1.7862997 -0.091903321 0
0.4873583 -1.8830805 -0.090687878 0
0.5556252 -2.0085289 -0.089739569 0
0.64820647 -2.178658 -0.089323096 0
0.77908546 -2.4191635 -0.089285158 0
0.98677176 -2.8008115 -0.091532581 0
1.3088981 -3.3927569 -0.090322368 0
1.9705168 -4.6085591 -0.090856187 0
4.9698286 -10.120149 -0.14072473 0
0.44905576 -1.7653908 -0.089519523 0
0.51012176 -1.87116 -0.090826191 0
0.58109939 -1.9940965 -0.089718021 0
0.68084371 -2.1668584 -0.090119772 0
0.82034957 -2.4084892 -0.090555526 0
1.0259627 -2.7646208 -0.090374865 0
1.369814 -3.3601875 -0.090418912 0
2.594317 -5.4810843 -0.14049359 0
5.198524 -9.9916945 -0.14071994 0
0.46792325 -1.7529035 -0.089286633 0
0.5327754 -1.8589574 -0.091030292 0
0.60478956 -1.9767236 -0.089252599 0
0.70878321 -2.1467865 -0.089700826 0
0.85313356 -2.3828454 -0.089936547 0
1.0756872 -2.7467918 -0.091315515 0
1.4301708 -3.3264861 -0.090549253 0
2.7080154 -5.4161711 -0.14059994 0
5.4247875 -9.8589621 -0.14075464 0
0.48545873 -1.7384317 -0.088667192 0
0.54948813 -1.8374379 -0.089275129 0
0.6373747 -1.9733335 -0.091632448 0
0.74238282 -2.1357033 -0.09089648 0
0.88512754 -2.3564239 -0.08931341 0
1.118799 -2.7177408 -0.091162629 0
1.4947914 -3.2991233 -0.091335289 0
2.819253 -5.3470864 -0.14063464 0
5.6487389 -9.722209 -0.14083546 0
0.51111221 -1.7360792 -0.091269739 0
0.57676023 -1.8321807 -0.091294385 0
0.66013938 -1.9542389 -0.09109021 0
0.76530898 -2.1081958 -0.089460693 0
0.92868114 -2.3473549 -0.091248848 0
1.1603653 -2.6865153 -0.090883262 0
1.5539869 -3.2627349 -0.091507785 0
2.9266973 -5.272234 -0.14050175 0
5.8682003 -9.5782766 -0.14087336 0
0.52994066 -1.7231765 -0.091323785 0
0.58895725 -1.8050556 -0.088431813 0
0.68426865 -1.93729 -0.091088124 0
0.80055141 -2.0986197 -0.091204323 0
0.95323604 -2.3104534 -0.089366995 0
1.1983765 -2.6505592 -0.090174131 0
1.6028264 -3.2116902 -0.090548031 0
3.0423694 -5.2089009 -0.14118175 0
6.0818777 -9.4258919 -0.14082709 0
0.55145282 -1.7137605 -0.092435412 0
0.61533272 -1.7978308 -0.090293594 0
0.70910305 -1.9212391 -0.091395907 0
0.82355881 -2.0718708 -0.090106197 0
0.98228168 -2.280761 -0.088597097 0
1.245952 -2.6277695 -0.091106184 0
1.664868 -3.1790922 -0.091296621 0
3.1391475 -5.1193461 -0.14051087 0
6.294055 -9.2714243 -0.14087512 0
0.56720036 -1.696697 -0.091633908 0
0.63841265 -1.7856647 -0.09116023 0
0.72665024 -1.8959029 -0.089885913 0
0.85734928 -2.0591893 -0.091621466 0
1.0277288 -2.2720499 -0.091061078 0
1.2863147 -2.5951097 -0.091019355 0
1.7160735 -3.1320212 -0.090903319 0
3.2473602 -5.0451074 -0.14088386 0
6.4991717 -9.1077003 -0.14080644 0
0.57743537 -1.6733644 -0.089181967 0
0.65440774 -1.7647057 -0.090021692 0
0.75612658 -1.8854129 -0.091628574 0
0.87613165 -2.0278199 -0.089889966 0
1.0573312 -2.2428448 -0.090619288 0
1.32438 -2.5597451 -0.090723582 0
1.7688355 -3.0871694 -0.090821408 0
3.3476856 -4.9607515 -0.14081353 0
6.6947365 -8.9326143 -0.14054658 0
0.60176665 -1.6667832 -0.091506265 0
0.67686826 -1.7514725 -0.090902887 0
0.77419752 -1.8612269 -0.090563752 0
0.90532076 -2.0090897 -0.090581454 0
1.0869766 -2.2139361 -0.090329222 0
1.3651043 -2.52757 -0.090937637 0
1.815764 -3.0357618 -0.09024816 0
3.4409885 -4.8684659 -0.14040409 0
6.8984494 -8.767314 -0.14073673 0
0.61357772 -1.6459514 -0.089919753 0
0.69796884 -1.7364115 -0.091478638 0
0.79699802 -1.8425624 -0.090815984 0
0.93492413 -1.9904075 -0.091438644 0
1.1139885 -2.1823492 -0.089722492 0
1.4019612 -2.4910314 -0.090729512 0
1.8620561 -2.9842143 -0.089759879 0
3.5422983 -4.7852917 -0.14071323 0
7.0965958 -8.5951967 -0.14087629 0
0.63333333 -1.6337328 -0.090946309 0
0.71846813 -1.7204942 -0.091981702 0
0.80896509 -1.8127201 -0.088631697 0
0.95845592 -1.9650669 -0.091151707 0
1.1452221 -2.1554012 -0.089970432 0
1.4411721 -2.4570055 -0.090964936 0
1.9075321 -2.9322753 -0.089334138 0
3.6338072 -4.6915312 -0.14050446 0
7.2874355 -8.4149637 -0.14091595 0
0.65787661 -1.6257938 -0.093457602 0
0.73456997 -1.7001054 -0.091426037 0
0.84305203 -1.8052185 -0.091736756 0
0.97740144 -1.9353955 -0.090101011 0
1.1692002 -2.1212375 -0.089143761 0
1.479732 -2.4221256 -0.091223128 0
1.9628552 -2.8902447 -0.090006463 0
3.7357285 -4.6080594 -0.1411311 0
7.4604807 -8.2171354 -0.14052771 0
0.67028815 -1.6058491 -0.092463754 0
0.75049454 -1.6797334 -0.090971135 0
0.85911119 -1.7797886 -0.090784989 0
1.0057509 -1.9148697 -0.091016077 0
1.2053044 -2.0986938 -0.090401657 0
1.5187455 -2.3874288 -0.091646053 0
2.5456088 -3.3333519 -0.14089784 0
3.8291199 -4.5156932 -0.14133842 0
7.6420112 -8.0280418 -0.14057638 0
0.6789369 -1.5829037 -0.090572365 0
0.76544291 -1.6586468 -0.090411983 0
0.87062079 -1.7507386 -0.089001961 0
1.0235052 -1.8846012 -0.090029992 0
1.2295487 -2.0650091 -0.089879148 0
1.5360574 -2.3333824 -0.089477263 0
2.6052661 -3.2695618 -0.14102091 0
3.909138 -4.4112077 -0.14085963 0
7.8284903 -7.8429189 -0.14092611 0
0.70128417 -1.5719202 -0.092669867 0
0.78531492 -1.6418301 -0.091202609 0
0.90386468 -1.7404585 -0.092061065 0
1.0425545 -1.8558424 -0.08944232 0
1.2517456 -2.0298803 -0.089186899 0
1.5604538 -2.2867124 -0.088381134 0
2.6562891 -3.1984003 -0.14050424 0
3.9912305 -4.3090143 -0.14067784 0
7.9845586 -7.6312919 -0.14049169 0
0.70823658 -1.5481195 -0.090631329 0
0.80185521 -1.6220901 -0.091280825 0
0.91479576 -1.7113276 -0.090441056 0
1.0726851 -1.8360802 -0.09098234 0
1.282189 -2.0016148 -0.089870073 0
1.602833 -2.2549644 -0.089587457 0
2.7073147 -3.1276455 -0.14015971 0
4.0828271 -4.2144752 -0.1412182 0
8.1556664 -7.4325352 -0.1406714 0
0.71434486 -1.5242724 -0.088567846 0
0.81236243 -1.597779 -0.090055652 0
0.93927705 -1.6929566 -0.091787569 0
1.0915344 -1.8071393 -0.090600319 0
1.3157042 -1.9752517 -0.091094457 0
1.6186129 -2.2024128 -0.087762199 0
2.7650473 -3.0621619 -0.14056528 0
4.1483054 -4.0995126 -0.14036879 0
8.3251591 -7.2318726 -0.14094807 0
0.73560452 -1.5117849 -0.090651639 0
0.83913738 -1.5854208 -0.0927554 0
0.94694048 -1.6620939 -0.089812718 0
1.1135212 -1.7805713 -0.090893306 0
1.3201455 -1.9275292 -0.088223659 0
1.683573 -2.1860104 -0.091755889 0
2.817142 -2.9922411 -0.14062312 0
4.2259469 -3.9942284 -0.14039665 0
8.4782858 -7.0186276 -0.14089872 0
0.74292678 -1.4892912 -0.089209341 0
0.85222656 -1.5629479 -0.092372708 0
0.9655959 -1.6393471 -0.090205349 0
1.1300288 -1.7501577 -0.090367444 0
1.3503333 -1.8986201 -0.089201055 0
1.6984382 -2.1332066 -0.090090774 0
2.8682184 -2.9215169 -0.14074424 0
4.3112788 -3.8939898 -0.14100632 0
8.6189384 -6.7969041 -0.1406527 0
0.76685351 -1.4777769 -0.092120655 0
0.86057204 -1.5375515 -0.091064163 0
0.991377 -1.62098 -0.092093624 0
1.1439948 -1.718321 -0.08955536 0
1.3635861 -1.8583782 -0.087917291 0
1.7427658 -2.1002223 -0.09186279 0
2.9110816 -2.8453846 -0.14033161 0
4.3838181 -3.7847092 -0.1410407 0
8.7708378 -6.5827889 -0.14087638 0
0.78175646 -1.4599987 -0.092821039 0
0.87915516 -1.5187171 -0.092169024 0
0.9989832 -1.5909572 -0.090555169 0
1.1726139 -1.6956331 -0.09129297 0
1.3947245 -1.8295357 -0.089233451 0
1.7605991 -2.0501089 -0.090811901 0
2.9611197 -2.7738609 -0.14066903 0
4.4477468 -3.6700966 -0.14075765 0
8.9091978 -6.3597498 -0.14087701 0
0.78729641 -1.4366852 -0.09133219 0
0.89025491 -1.4952654 -0.091740258 0
1.0151544 -1.5663292 -0.090802543 0
1.188738 -1.6650929 -0.09107881 0
1.406211 -1.7888284 -0.087986954 0
1.785773 -2.0047872 -0.09070114 0
3.0103045 -2.7015076 -0.14107932 0
4.519053 -3.5599387 -0.14102989 0
9.0273638 -6.1250267 -0.14048912 0
0.79873073 -1.4169157 -0.09142781 0
0.8936249 -1.467782 -0.089792751 0
1.0294505 -1.5405889 -0.090813719 0
1.1938058 -1.6286886 -0.089228339 0
1.4480512 -1.7649723 -0.090919442 0
1.8082547 -1.9580531 -0.090428747 0
3.0513728 -2.6244047 -0.14098616 0
4.5682578 -3.4375041 -0.14027894 0
9.1559658 -5.8966632 -0.14053912 0
0.81421775 -1.3991468 -0.092606448 0
0.90522027 -1.4450098 -0.089751996 0
1.0362226 -1.5110317 -0.089560322 0
1.228229 -1.6077981 -0.09216655 0
1.4628681 -1.7260504 -0.090357505 0
1.8359286 -1.9140636 -0.090826608 0
3.0887184 -2.5454385 -0.14075609 0
4.6379628 -3.3262191 -0.14076836 0
9.281003 -5.6661954 -0.14064677 0
0.81638706 -1.3747568 -0.090746023 0
0.91619366 -1.4219377 -0.089702629 0
1.0496926 -1.4850458 -0.089675881 0
1.2277304 -1.5692083 -0.089723967 0
1.4879032 -1.692198 -0.091250978 0
1.8570685 -1.866711 -0.09066052 0
3.1282358 -2.4676211 -0.14085177 0
4.6925802 -3.207123 -0.14062062 0
9.4034367 -5.4340529 -0.14083669 0
0.8291375 -1.3555129 -0.091509379 0
0.92043084 -1.3958834 -0.088387154 0
1.0650129 -1.4598188 -0.090241186 0
1.2385548 -1.5365605 -0.089198925 0
1.5038884 -1.6538931 -0.091087855 0
1.8909519 -1.8250557 -0.091919534 0
3.1673918 -2.3895078 -0.14106975 0
4.7552652 -3.0916784 -0.14103907 0
9.513752 -5.195919 -0.14086625 0
0.83182013 -1.3319055 -0.090062268 0
0.94852436 -1.3800304 -0.092080407 0
1.0716584 -1.4308068 -0.08937227 0
1.251209 -1.5048475 -0.089083396 0
1.5168432 -1.6143862 -0.090666212 0
1.8994612 -1.7721651 -0.090710364 0
3.2008996 -2.308835 -0.14100829 0
4.7937856 -2.965688 -0.14038384 0
9.6124182 -4.9527316 -0.14075452 0
0.83770072 -1.3098757 -0.089493327 0
0.95463735 -1.3546789 -0.09138573 0
1.0821953 -1.4035513 -0.089326136 0
1.2644532 -1.4733816 -0.089178838 0
1.52238 -1.5722039 -0.089445643 0
1.915776 -1.7229296 -0.090427138 0
3.2358038 -2.2286851 -0.14120516 0
4.8635936 -2.8523564 -0.1414541 0
9.7121544 -4.7100344 -0.14082411 0
0.84394032 -1.2881013 -0.089136414 0
0.96635824 -1.3314952 -0.091946341 0
1.0911096 -1.3757162 -0.089118026 0
1.2872297 -1.4452355 -0.090813704 0
1.5405529 -1.5350318 -0.0899354 0
1.9321895 -1.6738565 -0.090279855 0
3.2617064 -2.1451347 -0.14088334 0
4.8828115 -2.7197731 -0.14015798 0
9.8098116 -4.4662628 -0.14099361 0
0.85789943 -1.2689197 -0.090631835 0
0.96950018 -1.3053367 -0.090919115 0
1.1126834 -1.3520596 -0.091222145 0
1.2799633 -1.4066454 -0.088099472 0
1.5637894 -1.4992621 -0.091159515 0
1.948422 -1.6247735 -0.090238117 0
3.2885723 -2.0620844 -0.14079076 0
4.9225154 -2.5952644 -0.14004028 0
9.8843241 -4.214376 -0.14074676 0
0.86838377 -1.2483151 -0.091453053 0
0.97973657 -1.2815669 -0.091424413 0
1.107134 -1.3196099 -0.088761039 0
1.2965695 -1.3761784 -0.08905033 0
1.5541421 -1.4530939 -0.088474058 0
1.9576917 -1.5736004 -0.089639612 0
3.3213103 -1.9807994 -0.14128083 0
4.9823694 -2.476819 -0.14105575 0
9.9596024 -3.9631028 -0.14067526 0
0.87464243 -1.226347 -0.091452919 0
0.96450013 -1.2507282 -0.087072469 0
1.1207738 -1.2931304 -0.089724533 0
1.3235024 -1.3481373 -0.091610841 0
1.5758673 -1.416612 -0.089747719 0
1.9689181 -1.5232594 -0.089359783 0
3.3383546 -1.8948321 -0.1407799 0
5.0105224 -2.3485456 -0.14067984 0
10.030893 -3.7107353 -0.14066149 0
0.88749123 -1.2059746 -0.093016572 0
0.99006099 -1.2310445 -0.090809084 0
1.1253649 -1.2641155 -0.089264579 0
1.3267431 -1.3133363 -0.090830721 0
1.5789613 -1.3749833 -0.088883094 0
1.9744316 -1.4716442 -0.088655226 0
3.3563299 -1.8094072 -0.14050572 0
5.046186 -2.2224412 -0.14082184 0
10.099757 -3.4576335 -0.1407427 0
0.88169348 -1.1811454 -0.090627335 0
1.0042585 -1.2078446 -0.092430778 0
1.1312035 -1.235498 -0.089140527 0
1.3284062 -1.2784559 -0.089954682 0
1.6024569 -1.3381542 -0.09058959 0
1.9877604 -1.4220876 -0.088825904 0
3.3817194 -1.7257432 -0.14091821 0
5.0727305 -2.0941076 -0.14068067 0
10.159887 -3.2022777 -0.14076807 0
0.89305013 -1.1601647 -0.092098258 0
1.0047005 -1.1815507 -0.091519289 0
1.1411581 -1.2076886 -0.089827009 0
1.3397059 -1.2457193 -0.090588056 0
1.6113472 -1.2977507 -0.090660758 0
2.5389407 -1.4754264 -0.14023088 0
3.3978848 -1.6399527 -0.14082287 0
5.1012211 -1.9662176 -0.14078636 0
10.212762 -2.9453061 -0.14077453 0
0.89156544 -1.1366901 -0.090910681 0
1.0091335 -1.1561483 -0.091500513 0
1.1411924 -1.1780049 -0.088975243 0
1.3331853 -1.2097807 -0.088798307 0
1.6207844 -1.25738 -0.09091749 0
2.5693464 -1.4143722 -0.14202355 0
3.4112809 -1.5537171 -0.14068544 0
5.1258168 -1.8374823 -0.14086047 0
10.265868 -2.6881895 -0.14093964 0
0.90026546 -1.1149081 -0.092040576 0
1.0199447 -1.1316253 -0.092816971 0
1.145272 -1.1491314 -0.088922344 0
1.3415811 -1.1765524 -0.089260451 0
1.6200974 -1.2154565 -0.090099044 0
2.5636582 -1.3472559 -0.14055371 0
3.427305 -1.4678928 -0.14088795 0
5.1424327 -1.7074671 -0.14071225 0
10.298517 -2.4276848 -0.1407765 0
0.89644969 -1.0914142 -0.090607427 0
1.0255529 -1.1061374 -0.093260847 0
1.1554263 -1.1209483 -0.089995168 0
1.3632374 -1.1446476 -0.091715686 0
1.6327028 -1.175378 -0.090971224 0
2.5792897 -1.2833287 -0.14125036 0
3.4385083 -1.3813157 -0.14090331 0
5.1591153 -1.5775372 -0.14072159 0
10.323702 -2.166517 -0.14059329 0
0.90427446 -1.0692779 -0.09178818 0
1.0072061 -1.0783923 -0.089295916 0
1.1369922 -1.0898846 -0.086466216 0
1.1411735 -1.0902549 -0.059894074 0
1.6335202 -1.1338513 -0.090577193 0
2.5737062 -1.217103 -0.14010887 0
3.4554262 -1.2951776 -0.14147329 0
5.1688256 -1.446896 -0.1405585 0
10.358212 -1.9064064 -0.14078219 0
0.90848482 -1.046618 -0.092316352 0
1.0271562 -1.0541142 -0.092697211 0
1.1387517 -1.0611634 -0.086397566 0
1.1185957 -1.0598902 -0.056407202 0
1.6496348 -1.0934348 -0.09209805 0
2.5854251 -1.1525469 -0.14074394 0
3.4571521 -1.207612 -0.1411306 0
5.1962085 -1.3174646 -0.14137398 0
10.373877 -1.6445273 -0.14068489 0
0.8997671 -1.0233283 -0.09021575 0
1.0259118 -1.0281053 -0.092215963 0
1.1330129 -1.032161 -0.08521504 0
1.1251627 -1.0318638 -0.057130281 0
1.6446477 -1.051536 -0.09126883 0
2.5886962 -1.0872856 -0.14074157 0
3.4523401 -1.1199906 -0.14048555 0
5.1866045 -1.1856648 -0.14061786 0
10.398946 -1.3830487 -0.14096035 0
0.89364493 -1.0005556 -0.08879257 0
1.0135514 -1.0020685 -0.089764662 0
1.1271477 -1.0035019 -0.084132455 0
1.1305476 -1.0035447 -0.057786439 0
1.1318027 -1.0035605 -0.031203767 0
1.1378748 -1.0036372 -0.0051567461 0
1.128126 -1.0035142 0.022165598 0
1.1255333 -1.0034815 0.048612773 0
1.1344471 -1.0035939 0.074614555 0
1.139732 -1.0036607 0.10100291 0
1.1387517 -1.0036483 0.12749134 0
1.1335633 -1.0035828 0.15376669 0
1.1347588 -1.0035979 0.18030399 0
1.1242291 -1.0034651 0.20588844 0
1.1348658 -1.0035992 0.23356822 0
1.1303145 -1.0035418 0.25976023 0
1.1377437 -1.0036355 0.28788152 0
1.140761 -1.0036736 0.31573483 0
0.90436715 -0.97789377 -0.091071881 0
1.0077025 -0.97658998 -0.088662945 0
1.1269609 -0.9750852 -0.084101744 0
1.1260835 -0.97509629 -0.05715904 0
1.647104 -0.96852231 -0.091433533 0
2.601356 -0.95648205 -0.14176945 0
3.4546459 -0.94571567 -0.14049304 0
5.1960158 -0.9237439 -0.14090222 0
10.399621 -0.85808748 -0.14082201 0
0.8918792 -0.95555508 -0.088537879 0
1.0163388 -0.95084196 -0.090411596 0
1.1247774 -0.94673556 -0.083860539 0
1.1236007 -0.94678009 -0.056910608 0
1.6430379 -0.92710978 -0.091080569 0
2.594698 -0.89107174 -0.14130218 0
3.4522033 -0.85859925 -0.14047599 0
5.1911263 -0.79274869 -0.14082852 0
10.38066 -0.59622854 -0.14053488 0
0.89004576 -0.93313152 -0.088389091 0
1.0209267 -0.92486405 -0.091521524 0
1.1292344 -0.91802245 -0.084830277 0
1.1316634 -0.91786903 -0.058247317 0
1.6371418 -0.885939 -0.090635039 0
2.576474 -0.82660329 -0.13990676 0
3.4451175 -0.77173287 -0.14028758 0
5.1831431 -0.66194534 -0.14076452 0
10.391234 -0.33296087 -0.14108928 0
0.89469439 -0.91015512 -0.08974386 0
1.0124662 -0.89972663 -0.090290539 0
1.1635569 -0.88634783 -0.090849258 0
1.3569117 -0.86922663 -0.090331398 0
1.6346189 -0.84463614 -0.090706103 0
2.5778611 -0.76111382 -0.14049822 0
3.4564228 -0.68331879 -0.14154324 0
5.1742229 -0.53121078 -0.14081076 0
10.354816 -0.07247892 -0.14070296 0
0.89086854 -0.88780701 -0.089413397 0
1.0100329 -0.87421727 -0.090318702 0
1.1633379 -0.85673404 -0.091303892 0
1.3480246 -0.83567202 -0.089563914 0
1.6347065 -0.80297822 -0.091206916 0
2.5739646 -0.69586331 -0.14075008 0
3.4346373 -0.59771049 -0.14063095 0
5.1542544 -0.40160188 -0.14049381 0
10.324304 0.18800095 -0.14060739 0
0.90086913 -0.86359227 -0.092170142 0
1.0080646 -0.84861887 -0.090557642 0
1.1485306 -0.82899815 -0.089463092 0
1.3541317 -0.80027914 -0.091041364 0
1.6177543 -0.76345551 -0.089822538 0
2.5751047 -0.62972987 -0.14163251 0
3.4319696 -0.51004034 -0.1412172 0
5.14747 -0.27041396 -0.14094903 0
10.299782 0.44927683 -0.1408062 0
0.89327186 -0.8416121 -0.091278322 0
0.99783051 -0.82430708 -0.089342646 0
1.1437802 -0.80015159 -0.089406334 0
1.3387835 -0.76787746 -0.089595743 0
1.608704 -0.72320414 -0.089486383 0
2.5486248 -0.56764197 -0.14006308 0
3.4119897 -0.4247503 -0.14073566 0
5.1174607 -0.14248529 -0.14046618 0
10.250454 0.7070536 -0.14057635 0
0.88532615 -0.81989944 -0.090426587 0
1.0030898 -0.79734242 -0.091210403 0
1.1391841 -0.77127427 -0.08949668 0
1.3388027 -0.73303843 -0.090458803 0
1.3500713 -0.73087996 -0.059569452 0
1.3439386 -0.73205465 -0.026661193 0
1.3416494 -0.7324931 0.0055406857 0
1.3516864 -0.73057061 0.036945309 0
1.3352251 -0.73372364 0.069384508 0
1.3478501 -0.73130542 0.10100955 0
0.87447226 -0.7990123 -0.08905638 0
0.9912219 -0.77357996 -0.089917742 0
1.131502 -0.74302179 -0.089190744 0
1.205781 -0.72684109 -0.072317444 0
1.2078414 -0.72639227 -0.043387983 0
1.2120986 -0.72546482 -0.014727486 0
1.2182436 -0.72412622 0.013876105 0
1.2162125 -0.72456867 0.043068636 0
1.2017775 -0.72771317 0.072396442 0
1.2084771 -0.72625375 0.10100568 0
0.8693285 -0.77704948 -0.089042209 0
0.9923439 -0.7469821 -0.091251723 0
1.1129117 -0.71751297 -0.087157629 0
1.2091112 -0.69399995 -0.073812731 0
1.2053254 -0.69492525 -0.043929566 0
1.1985371 -0.69658446 -0.014101056 0
1.2110353 -0.69352967 0.0138855 0
1.2030953 -0.69547033 0.043358635 0
1.2001932 -0.69617969 0.072267242 0
1.2029769 -0.6954993 0.10100573 0
0.86476809 -0.75491703 -0.089278124 0
0.977889 -0.72422361 -0.089685448 0
1.1220636 -0.68510437 -0.089944176 0
1.2120633 -0.66068453 -0.075383522 0
1.2126086 -0.66053659 -0.045757417 0
1.197696 -0.66458285 -0.014770834 0
1.2103291 -0.6611551 0.013368199 0
1.1997375 -0.66402888 0.043144539 0
1.2068934 -0.66208732 0.071918465 0
1.2084563 -0.66166323 0.10100611 0
0.87202156 -0.72918326 -0.092260055 0
0.97897792 -0.69724435 -0.091275267 0
1.1148634 -0.6566667 -0.09008681 0
1.2020457 -0.63063264 -0.075186841 0
1.2013448 -0.63084191 -0.045442332 0
1.2212446 -0.62489951 -0.017899973 0
1.2042247 -0.62998194 0.01318142 0
1.2041869 -0.62999326 0.042511091 0
1.2097839 -0.62832189 0.071638688 0
1.2004735 -0.63110209 0.10100614 0
0.85407251 -0.71091372 -0.089776181 0
0.95731896 -0.67722285 -0.088505693 0
1.1016793 -0.63011593 -0.089319743 0
1.1959994 -0.59933794 -0.075687282 0
1.2083194 -0.59531766 -0.047458623 0
1.2077814 -0.59549326 -0.017518951 0
1.2040809 -0.59670079 0.012497159 0
1.2075578 -0.59556621 0.041883316 0
1.2096826 -0.59487289 0.071409009 0
1.2003525 -0.59791744 0.10100641 0
0.84691048 -0.68943053 -0.089806236 0
0.95251536 -0.65199643 -0.089180075 0
1.1001834 -0.59965211 -0.090700202 0
1.2069654 -0.56180072 -0.07884609 0
1.2082399 -0.56134892 -0.048729021 0
1.203249 -0.5631181 -0.018092116 0
1.2084177 -0.56128597 0.011412384 0
1.2119716 -0.56002617 0.041155659 0
1.2091044 -0.56104249 0.071168289 0
1.211704 -0.560121 0.10100707 0
0.84463203 -0.66605324 -0.091071106 0
0.95564502 -0.62351972 -0.091588981 0
1.092836 -0.57095635 -0.091198929 0
1.211144 -0.52562785 -0.081155993 0
1.2074548 -0.52704132 -0.050030235 0
1.1997213 -0.53000432 -0.018852575 0
1.2093308 -0.52632254 0.010506773 0
1.2222749 -0.52136314 0.040082805 0
1.2078384 -0.52689433 0.070921205 0
1.2144039 -0.5243789 0.10100749 0
0.83593792 -0.64498115 -0.091009043 0
0.94677067 -0.59927738 -0.091723122 0
1.0794369 -0.54457027 -0.090755112 0
1.2040823 -0.49317071 -0.081919439 0
1.2081188 -0.49150616 -0.051637191 0
1.2125311 -0.4896867 -0.02135445 0
1.208122 -0.49150485 0.0096857566 0
1.2059268 -0.49241009 0.040291939 0
1.2031791 -0.49354315 0.070735306 0
1.1996597 -0.4949944 0.10100741 0
0.8306601 -0.62239856 -0.091863252 0
0.93197703 -0.57759535 -0.090765037 0
1.0721148 -0.51562536 -0.091517411 0
1.2122591 -0.45365247 -0.085158251 0
1.2051774 -0.45678404 -0.052915413 0
1.2133392 -0.4531748 -0.022762803 0
1.213797 -0.45297238 0.0082625318 0
1.2060434 -0.45640108 0.039628312 0
1.2018739 -0.45824483 0.070440769 0
1.2018218 -0.45826784 0.10100788 0
0.82017618 -0.60203665 -0.091636904 0
0.91598088 -0.55674756 -0.089658298 0
1.0558054 -0.49064928 -0.09078712 0
1.2258672 -0.41025719 -0.089434333 0
1.4775947 -0.2912598 -0.089918353 0
1.8621184 -0.10948655 -0.091181882 0
3.1240768 0.48707047 -0.14053018 0
4.6892467 1.2269623 -0.14044896 0
9.4027538 3.4551456 -0.14081913 0
0.80535954 -0.58390218 -0.090497933 0
0.91486591 -0.5287137 -0.091786452 0
1.0515428 -0.45983204 -0.09237989 0
1.2285172 -0.37064138 -0.092211895 0
1.454061 -0.25697282 -0.089204885 0
1.8383878 -0.063281685 -0.091083668 0
3.0882325 0.56660897 -0.14071806 0
4.6385694 1.34794 -0.1408 0
9.2898693 3.6920788 -0.1408776 0
0.79110038 -0.56575918 -0.089587577 0
0.89435822 -0.51040965 -0.089949451 0
1.0285561 -0.43847528 -0.090646915 0
1.2040197 -0.34442118 -0.090856947 0
1.438475 -0.2187455 -0.089649595 0
1.8080614 -0.020635273 -0.090408273 0
3.0452309 0.64252776 -0.14049898 0
4.5758014 1.4629629 -0.14067741 0
9.171236 3.926264 -0.14094196 0
0.77726334 -0.54760802 -0.088878505 0
0.88391882 -0.48692438 -0.090367205 0
1.0061998 -0.41735026 -0.089109339 0
1.1731124 -0.32238224 -0.088552304 0
1.2110372 -0.30080423 -0.061742593 0
1.2105472 -0.301083 -0.028926989 0
3.008899 0.72212332 -0.14096627 0
4.5096607 1.5760098 -0.1405268 0
9.0398331 4.1535368 -0.14082268 0
0.77141261 -0.52482188 -0.090253673 0
0.87056315 -0.46504751 -0.090279378 0
1.0020891 -0.38575509 -0.091151215 0
1.159346 -0.29095039 -0.089115746 0
1.1372284 -0.30428436 -0.054093186 0
1.2006221 -0.26606646 -0.029779753 0
2.967056 0.79885501 -0.14115363 0
4.4507742 1.693337 -0.14092223 0
8.9027166 4.3772578 -0.14070104 0
0.7654525 -0.5017013 -0.091767438 0
0.8427816 -0.45238015 -0.08708977 0
0.98458368 -0.36193749 -0.090769373 0
1.1415313 -0.26183495 -0.089144729 0
1.1380734 -0.26404044 -0.05665632 0
1.1802294 -0.2371529 -0.029584562 0
2.9162552 0.87009984 -0.14076062 0
4.3821926 1.8050876 -0.14095095 0
8.7638168 4.5997267 -0.14068277 0
0.7495026 -0.484862 -0.090894885 0
0.84596556 -0.41985604 -0.09095066 0
0.97200537 -0.33491829 -0.091475628 0
1.1294578 -0.22881171 -0.090270691 0
1.1505808 -0.21457711 -0.061049003 0
1.1562494 -0.21075699 -0.029063722 0
2.8700676 0.9441784 -0.14090012 0
4.3086214 1.913614 -0.14085713 0
8.6259508 4.8230453 -0.14084931 0
0.72841108 -0.47191599 -0.088775285 0
0.81993854 -0.40681872 -0.088317938 0
0.95543557 -0.31044886 -0.091526009 0
1.1049482 -0.20411071 -0.089414842 0
1.1357669 -0.18219152 -0.061780278 0
1.1479841 -0.17350218 -0.030409088 0
2.8213203 1.016628 -0.14098157 0
4.2398396 2.0255246 -0.14119034 0
8.4747925 5.0375586 -0.14079905 0
0.7208066 -0.44946632 -0.090284713 0
0.81596297 -0.37810549 -0.090903334 0
0.93350226 -0.28995886 -0.090601243 0
1.0819857 -0.17860624 -0.08892297 0
1.1055547 -0.16093108 -0.060394365 0
1.1007413 -0.16454086 -0.027341252 0
1.0979784 -0.16661289 0.0051098261 0
1.1072173 -0.15968427 0.036596518 0
1.1018989 -0.16367278 0.068975195 0
1.0992711 -0.16564342 0.10100959 0
1.1023605 -0.16332659 0.13305767 0
1.0905895 -0.17215398 0.16445462 0
1.111517 -0.15645978 0.19809368 0
0.7127685 -0.42688438 -0.09185905 0
0.79929078 -0.35852078 -0.090665244 0
0.91449702 -0.26749322 -0.090378471 0
1.0560566 -0.15564319 -0.08800403 0
1.1005902 -0.12045595 -0.062820427 0
1.103135 -0.11844531 -0.030143147 0
1.0952847 -0.124648 0.0034692979 0
1.0981486 -0.12238517 0.035871748 0
1.0958122 -0.12423119 0.068527892 0
1.0995826 -0.12125215 0.10101037 0
1.1034471 -0.11819872 0.1337194 0
1.0943722 -0.12536904 0.16592471 0
1.0977859 -0.12267169 0.19877456 0
0.69319046 -0.41339818 -0.090431906 0
0.78006649 -0.34112105 -0.089916684 0
0.89499718 -0.24550369 -0.09016525 0
1.0247077 -0.13759014 -0.086179711 0
1.0988499 -0.075907022 -0.065941848 0
1.1043348 -0.07134369 -0.032999311 0
1.0918698 -0.081714064 0.0017642251 0
1.1000417 -0.074915439 0.034411337 0
1.1054106 -0.070448846 0.067566916 0
1.1002743 -0.074721903 0.10101122 0
1.0988405 -0.07591483 0.13425675 0
1.0976436 -0.076910526 0.16746587 0
1.0978031 -0.076777846 0.200798 0
0.68085498 -0.39400145 -0.091114275 0
0.76983726 -0.31609026 -0.091512091 0
0.87701112 -0.22225079 -0.090397917 0
1.0001667 -0.11441812 -0.085670568 0
1.0930092 -0.033126976 -0.068668805 0
1.1036189 -0.023837294 -0.035827462 0
1.0993956 -0.027535167 -0.0010951364 0
1.1012484 -0.025912967 0.032887455 0
1.0982985 -0.028495695 0.06705939 0
1.1030248 -0.024357464 0.10101222 0
1.1004751 -0.026590016 0.13503215 0
1.1009214 -0.026199188 0.16911677 0
1.0941652 -0.03211477 0.20263328 0
1.0976145 -0.029094603 0.23710729 0
1.1022744 -0.025014486 0.37676403 0
0.66104776 -0.38124761 -0.089793243 0
0.74159151 -0.30705252 -0.088691197 0
0.86026257 -0.19773552 -0.091042258 0
0.96797049 -0.098517388 -0.083797254 0
1.0681449 -0.0062390235 -0.068606563 0
1.102294 0.025218282 -0.038795251 0
1.098948 0.022136126 -0.0033923143 0
1.094359 0.017908845 0.031762797 0
1.1010039 0.024029884 0.066196501 0
1.0933899 0.017016087 0.1010128 0
1.1005385 0.023601208 0.13581498 0
1.0993848 0.022538457 0.17058156 0
1.1098119 0.032143626 0.20645224 0
1.1031694 0.026024733 0.24093346 0
1.0379465 -0.034057166 0.36660761 0
0.65747255 -0.35318241 -0.093338005 0
0.73147756 -0.28147563 -0.090615012 0
0.84351701 -0.17291573 -0.091843165 0
0.83435208 -0.18179604 -0.062108491 0
0.83135116 -0.1847038 -0.034163076 0
0.83516103 -0.18101218 -0.0074485149 0
0.83396834 -0.18216786 0.019883627 0
0.8333751 -0.18274269 0.047010891 0
0.83963633 -0.17667589 0.073819093 0
0.83970928 -0.17660519 0.10100374 0
0.83891219 -0.17737755 0.12816492 0
0.83867282 -0.17760947 0.15534006 0
0.83956289 -0.17674699 0.18266876 0
1.1009595 0.076531559 0.24402323 0
1.0105518 -0.011068489 0.29861063 0
1.0100937 -0.011512306 0.33198696 0
0.99575859 -0.025402155 0.36194935 0
0.62792099 -0.35036764 -0.089303695 0
0.70651275 -0.27027437 -0.088766597 0
0.81565076 -0.15905121 -0.090200551 0
0.83864027 -0.13562247 -0.067110278 0
0.8401202 -0.1341143 -0.039058033 0
0.84070367 -0.13351968 -0.010940446 0
0.84164727 -0.13255808 0.017057972 0
0.83624542 -0.1380631 0.045449816 0
0.83364433 -0.14071384 0.07332851 0
0.8387565 -0.13550404 0.10100455 0
0.83616632 -0.13814375 0.12876412 0
0.84665835 -0.12745121 0.15725222 0
0.84229177 -0.13190123 0.18501608 0
0.83828014 -0.13598952 0.21262711 0
1.0989029 0.12961248 0.28427267 0
0.95089322 -0.021224882 0.29165399 0
0.94471389 -0.027522292 0.32250613 0
0.96080309 -0.011125769 0.35917345 0
0.61527079 -0.33081856 -0.090447314 0
0.69463956 -0.24574193 -0.090559371 0
0.79294312 -0.14036891 -0.089839034 0
0.83577323 -0.09445861 -0.071011923 0
0.84404784 -0.085588962 -0.043473516 0
0.839719 -0.090229124 -0.01379676 0
0.8364768 -0.093704432 0.015345121 0
0.84518921 -0.084365457 0.043355528 0
0.83607489 -0.094135255 0.072506882 0
0.85098261 -0.078155488 0.10100597 0
0.84138209 -0.088446409 0.12968518 0
0.8346858 -0.095624238 0.15793838 0
0.83909899 -0.090893656 0.1869349 0
0.83414888 -0.096199781 0.21504574 0
1.0994506 0.18818107 0.28926569 0
0.93436086 0.011218939 0.29334307 0
0.93876612 0.015941057 0.32699364 0
0.92593044 0.0021823382 0.35644269 0
0.59635395 -0.31790522 -0.089772187 0
0.68085569 -0.22261575 -0.092034854 0
0.7796405 -0.11121991 -0.091912039 0
0.85084748 -0.030922558 -0.079043336 0
0.83854032 -0.044800844 -0.046567101 0
0.84112501 -0.041886117 -0.017223394 0
0.84053767 -0.042548444 0.01250829 0
0.83785421 -0.045574512 0.042249285 0
0.84333968 -0.039388742 0.071451515 0
0.84824616 -0.033855941 0.10100685 0
0.83874762 -0.044567075 0.13040049 0
0.84353572 -0.039167669 0.16016284 0
0.84511262 -0.037389483 0.18998756 0
0.84338325 -0.039339628 0.21955501 0
1.1009743 0.25113598 0.29483166 0
1.0978429 0.24760488 0.33339709 0
0.58639938 -0.29458287 -0.092138864 0
0.65985465 -0.20741531 -0.091613777 0
0.72925431 -0.12506053 -0.084774889 0
0.84409195 0.011214528 -0.082902513 0
0.83900815 0.0051817033 -0.051022399 0
0.84461373 0.011833701 -0.021229936 0
0.84225959 0.0090400912 0.0097010005 0
0.84352922 0.010546718 0.040099818 0
0.83411384 -0.00062629243 0.07090997 0
0.84117687 0.007755253 0.10100762 0
0.84189612 0.0086087324 0.13138616 0
0.84529257 0.012639198 0.16204335 0
0.83890557 0.0050599906 0.19195053 0
0.84610081 0.013598356 0.22346166 0
0.84447825 0.011672888 0.25403106 0
1.0994179 0.31420341 0.34062579 0
0.5651896 -0.2843999 -0.09094993 0
0.64071 -0.1900498 -0.091852672 0
0.72433728 -0.085571498 -0.089277603 0
0.85013896 0.071596533 -0.089999922 0
0.85018444 0.071653396 -0.057855386 0
0.83680731 0.054940853 -0.023876971 0
0.84066665 0.059762511 0.0070312861 0
0.8401159 0.059074435 0.03845473 0
0.84267217 0.062268052 0.069653548 0
0.83515394 0.052875314 0.1010085 0
0.84051168 0.059568916 0.13228361 0
0.84327811 0.063025028 0.16379878 0
0.83496517 0.052639518 0.19434825 0
0.84944272 0.070726782 0.22778331 0
0.83537048 0.0531458 0.25710285 0
1.0977013 0.38088408 0.34771767 0
1.0988908 0.38237014 0.38983077 0
0.54045719 -0.27929524 -0.088572197 0
0.61231154 -0.18472996 -0.089353018 0
0.70570111 -0.061822798 -0.090471752 0
0.73433167 -0.024143007 -0.069379784 0
0.7280432 -0.032418992 -0.039483685 0
0.73611432 -0.021796849 -0.012447855 0
0.73134208 -0.02807745 0.016574593 0
0.73710907 -0.020487752 0.044325095 0
0.72802079 -0.032448497 0.073029719 0
0.73021024 -0.029567089 0.10100481 0
0.73283011 -0.026119199 0.12916501 0
0.72461677 -0.036928441 0.15672286 0
0.73158008 -0.027764227 0.185463 0
0.72791904 -0.032582488 0.21319346 0
0.72355384 -0.038327362 0.24062636 0
0.7271986 -0.033530619 0.26973355 0
0.7223087 -0.039966073 0.29699397 0
0.72786087 -0.03265902 0.32733801 0
0.52771842 -0.25849137 -0.090515934 0
0.59429479 -0.16612384 -0.090151168 0
0.67740554 -0.050816622 -0.089159049 0
0.73204499 0.024989758 -0.074739121 0
0.95168936 0.32972279 -0.08905784 0
0.85295838 0.19274417 -0.035034109 0
0.84235096 0.17802742 0.00037487806 0
0.84235728 0.17803624 0.033980507 0
0.84969455 0.18821588 0.067222379 0
0.84037125 0.17528084 0.10101138 0
0.83761925 0.17146268 0.13432001 0
0.84192556 0.17743734 0.16800821 0
0.84707272 0.18457845 0.2022135 0
0.84139675 0.1767036 0.23521209 0
0.8422811 0.17793062 0.26921347 0
0.8393411 0.17385152 0.30255151 0
1.1028333 0.53941864 0.41078836 0
0.51306981 -0.23963979 -0.092007436 0
0.57749808 -0.14532384 -0.091540761 0
0.65592235 -0.030519154 -0.08986149 0
0.76385683 0.12748531 -0.089098893 0
0.92884904 0.36901596 -0.091283642 0
1.1518596 0.69547933 -0.089475773 0
0.84915733 0.25235596 -0.0041522067 0
0.84002274 0.2389839 0.031720217 0
0.83624053 0.2334471 0.066541187 0
0.83745253 0.23522142 0.10101273 0
0.83906436 0.23758093 0.13560088 0
0.83610696 0.2332516 0.16998212 0
0.84400856 0.24481872 0.20554061 0
0.84127879 0.24082258 0.24010807 0
0.84289432 0.24318758 0.27550116 0
0.84406364 0.2448993 0.31110993 0
1.1051394 0.62708598 0.42280519 0
1.0983946 0.61721236 0.46753281 0
0.49266455 -0.22901091 -0.091487698 0
0.5519439 -0.13734952 -0.090126894 0
0.63664168 -0.0063846973 -0.091410615 0
0.73140168 0.14013901 -0.088054709 0
0.88769072 0.38180259 -0.089865036 0
1.1119689 0.72859508 -0.089988656 0
1.4780642 1.2946737 -0.089181907 0
0.84373319 0.31383279 0.028722467 0
0.83725262 0.30381218 0.065165609 0
0.84212047 0.31133905 0.10101461 0
0.842902 0.31254748 0.13710563 0
0.84092635 0.30949262 0.17306621 0
0.83649248 0.30263677 0.20861863 0
0.84013993 0.30827668 0.24529618 0
0.83764201 0.30441418 0.28112373 0
0.84248775 0.31190696 0.31883335 0
0.83794105 0.3048766 0.35436383 0
1.1036625 0.71575123 0.48354474 0
0.46808332 -0.22541949 -0.089351855 0
0.52997953 -0.12419942 -0.090020888 0
0.60327911 -0.0043311385 -0.08877676 0
0.70544672 0.16274562 -0.088802047 0
0.84489036 0.39078048 -0.088089846 0
1.0668763 0.75379843 -0.089739077 0
1.4228925 1.3359988 -0.089573897 0
0.84888858 0.39731887 0.025304409 0
0.84816259 0.39613166 0.063213445 0
0.84085935 0.38418856 0.10101636 0
0.84063721 0.38382533 0.13848391 0
0.83988583 0.38259652 0.17592502 0
0.84289181 0.38751224 0.21388425 0
0.84041435 0.38346079 0.25125435 0
0.83798063 0.37948087 0.28857553 0
0.84417433 0.38960961 0.3282077 0
0.83899802 0.38114467 0.36507148 0
1.0994307 0.80703539 0.49767992 0
0.45723948 -0.1990194 -0.092998601 0
0.51011139 -0.10744271 -0.090822287 0
0.58468056 0.021714602 -0.090895154 0
0.67928988 0.18558243 -0.089683048 0
0.82154042 0.43196705 -0.090833865 0
1.0225381 0.78010446 -0.08973553 0
1.3610926 1.3664968 -0.089199506 0
1.3715277 1.3845708 -0.026640674 0
0.85307747 0.48659077 0.061346896 0
0.8408919 0.46548465 0.10101835 0
0.84135908 0.46629396 0.140145 0
0.83819592 0.4608151 0.17901923 0
0.83753496 0.45967034 0.21803318 0
0.84288514 0.46893707 0.25823563 0
0.84099346 0.4656606 0.29741898 0
0.84332275 0.469695 0.33782646 0
0.84306091 0.46924165 0.3778649 0
0.83672518 0.45826784 0.41589776 0
