# .PCD v0.7 - Point Cloud Data file format
VERSION 0.7
FIELDS x y z intensity
SIZE 4 4 4 4
TYPE F F F F
COUNT 1 1 1 1
WIDTH 1357
HEIGHT 1
VIEWPOINT 0 0 0 1 0 0 0
POINTS 1357
DATA ascii
0.83679503 0.58599669 0.4004623 0
0.84473413 0.58219105 0.52331102 0
0.86113948 0.59616232 -0.04982942 0
0.89610237 0.57994074 0.17820187 0
0.83399445 0.60875672 0.28263116 0
0.82846314 0.61132312 0.39578322 0
0.83968717 0.60611552 0.51839691 0
0.87354106 0.61217886 -0.049994826 0
0.93645293 0.58394694 0.1819683 0
0.83651775 0.62879318 0.28154495 0
0.85325068 0.62128425 0.40048161 0
0.84149867 0.62655801 0.51612163 0
0.87646776 0.63243532 -0.049798496 0
0.97021371 0.59177673 0.18494819 0
0.83498436 0.6504271 0.27971697 0
0.83850223 0.64890134 0.39419463 0
0.83727616 0.64943308 0.51176423 0
0.89100772 0.647681 -0.050062601 0
1.0024863 0.60099036 0.18775053 0
0.84161574 0.66836786 0.27954841 0
0.8338992 0.67159981 0.39084345 0
0.84187466 0.66825944 0.5107156 0
0.89190382 0.66864461 -0.049807403 0
1.0350021 0.61081755 0.19058034 0
0.8386845 0.69015086 0.27756467 0
0.83823317 0.69033325 0.3900474 0
0.83602268 0.69122654 0.50600761 0
0.91198772 0.68194401 -0.050298762 0
1.0757878 0.61813861 0.1943644 0
0.83566386 0.71167469 0.27562657 0
0.83822507 0.71067703 0.38813108 0
0.8389855 0.71038079 0.50457346 0
0.27749196 0.92910099 0.45430726 0
0.91646951 0.70146942 -0.050199289 0
0.84993786 0.72642547 0.27708122 0
0.84914488 0.7267229 0.38927153 0
0.84456211 0.72844189 0.50416076 0
0.2840918 0.93867475 0.45568123 0
0.91944295 0.72146767 -0.050052382 0
0.84861869 0.74702138 0.27557528 0
0.84030086 0.75002253 0.3851012 0
0.83294052 0.75267816 0.49774772 0
0.25809661 0.96008432 0.43977559 0
0.92313915 0.74110913 -0.049942955 0
0.84288365 0.76892865 0.27328265 0
0.84795564 0.76717055 0.3854835 0
0.84546095 0.76803529 0.49997109 0
0.83977455 0.77000642 0.61825228 0
0.27095118 0.96718174 0.44465503 0
0.9366731 0.75740057 -0.050213445 0
0.84948534 0.78639865 0.27339685 0
0.84860581 0.78669113 0.38403907 0
0.82848293 0.7933839 0.49191061 0
0.83631915 0.79077762 0.61413211 0
0.29873434 0.96957469 0.45743302 0
0.93307036 0.77935636 -0.049848445 0
0.84689385 0.80681795 0.27181226 0
0.84765607 0.80657506 0.38223797 0
0.84318799 0.8079989 0.49505708 0
0.84335643 0.80794519 0.61470187 0
0.3152692 0.97622889 0.46426883 0
0.93451816 0.79950672 -0.049683683 0
0.84288985 0.82743967 0.27001595 0
0.83817679 0.8288765 0.37823558 0
0.84355778 0.82723606 0.49326974 0
0.83523196 0.8297742 0.60880047 0
0.31899431 0.98714978 0.46442199 0
0.94189841 0.81781203 -0.049749568 0
0.86935633 0.83893204 0.27399856 0
0.84139675 0.84707218 0.37769717 0
0.84813339 0.84511089 0.49303037 0
0.83716732 0.84830356 0.60737753 0
0.33323106 0.99502015 0.47012416 0
0.95935243 0.83337307 -0.050197016 0
0.88659149 0.85356653 0.2762666 0
0.82825035 0.86975801 0.372888 0
0.84544069 0.86498713 0.49036011 0
0.83453816 0.86801296 0.60409862 0
0.32218066 1.0102082 0.46272752 0
0.94735032 0.85704064 -0.049562573 0
0.92473692 0.86301094 0.28246197 0
0.82620162 0.88902593 0.37109864 0
0.83456761 0.88681716 0.48497021 0
0.85361141 0.88178927 0.61023062 0
0.32507542 1.0213315 0.46267101 0
0.97319311 0.87076646 -0.050334007 0
0.95656461 0.87493348 0.2874853 0
0.83707505 0.90487647 0.37277767 0
0.83976644 0.90420204 0.48520407 0
0.84019929 0.90409356 0.6025514 0
0.32190576 1.0339735 0.45955899 0
0.97230905 0.89139575 -0.050128814 0
0.99010152 0.88717449 0.29283836 0
0.83836991 0.92317283 0.37199247 0
0.84084755 0.92258501 0.48410425 0
0.84171098 0.92238021 0.60136533 0
0.33576348 1.0424165 0.46529418 0
0.97432345 0.91123068 -0.050039761 0
1.0191948 0.90117997 0.29738358 0
0.84701306 0.9397468 0.37319103 0
0.83709222 0.94196898 0.48143762 0
0.83794183 0.94177866 0.59803975 0
0.34845623 1.0514181 0.47047046 0
0.96485752 0.93342471 -0.049541205 0
1.0379146 0.91802412 0.30003735 0
0.84025818 0.95969057 0.37042603 0
0.83771461 0.96022671 0.4803496 0
0.83707994 0.96036053 0.59605676 0
0.34887132 1.0632761 0.46941307 0
0.97808641 0.95077705 -0.049879983 0
1.0759732 0.93142629 0.3062788 0
0.85457247 0.97519392 0.37321278 0
0.83629531 0.97880703 0.47864997 0
0.83748418 0.97857207 0.59471184 0
0.35282478 1.0743821 0.47023919 0
0.98692089 0.9691869 -0.050066378 0
0.85277671 0.99395436 0.37186408 0
0.83964556 0.99637884 0.47864717 0
0.83827144 0.99663252 0.59362805 0
0.39136967 1.0791456 0.48873469 0
0.98096865 0.99027133 -0.049725153 0
0.85391611 1.0120789 0.37133932 0
0.83410901 1.0154786 0.4757193 0
0.83528012 1.0152776 0.59105486 0
0.38489982 1.0925819 0.48436865 0
0.99511796 1.0079249 -0.050120853 0
0.4286814 1.0978224 0.04164524 0
0.43170378 1.0973427 0.11362945 0
0.43190089 1.0973115 0.18665344 0
0.43343273 1.0970683 0.26195887 0
0.4316012 1.0973591 0.33915541 0
0.42929509 1.097725 0.41964319 0
0.39124212 1.1037643 0.48658785 0
0.99381715 1.0281168 -0.049966428 0
0.40561643 1.1138903 0.040744808 0
0.40929428 1.113354 0.11098949 0
0.39806542 1.1149913 0.18014069 0
0.39526698 1.1153995 0.25162831 0
0.39670536 1.1151897 0.32678485 0
0.39688632 1.1151633 0.40529057 0
0.40581122 1.1138618 0.49303395 0
0.99442488 1.0479481 -0.049890164 0
0.39445964 1.1277357 0.040282056 0
0.43134496 1.1228304 0.113196 0
0.43694183 1.1220862 0.18690833 0
0.43485186 1.122364 0.26138583 0
0.42948022 1.1230785 0.33722228 0
0.42688933 1.123423 0.41712204 0
0.40652654 1.1261309 0.49254087 0
1.0007288 1.0670438 -0.050027829 0
0.38491586 1.1410605 0.039884277 0
0.42055222 1.1367773 0.11185703 0
0.41957822 1.1368943 0.18346617 0
0.41788641 1.1370976 0.25661951 0
0.41766575 1.1371242 0.33273587 0
0.43856326 1.1346124 0.42133546 0
1.0012047 1.0868664 -0.049964681 0
0.35777226 1.155996 0.038861115 0
0.84236854 1.1039315 0.36518285 0
0.83985263 1.1042018 0.47353542 0
0.84732741 1.1033988 0.5909577 0
1.0077022 1.1060771 -0.050126508 0
0.34408382 1.1689339 0.038328435 0
0.85291833 1.1207379 0.36742964 0
0.8270933 1.1231841 0.46867681 0
0.83954328 1.1220047 0.58697641 0
0.999291 1.1266283 -0.049762789 0
0.36016956 1.1790544 0.038868695 0
0.85264605 1.1386573 0.36695802 0
0.84649223 1.1391622 0.47463787 0
0.83249217 1.1403105 0.58340108 0
1.0107328 1.1455485 -0.050119132 0
0.36612901 1.190261 0.039050654 0
0.85329443 1.1564691 0.36677992 0
0.83866042 1.1574842 0.47157955 0
0.83862215 1.1574868 0.5853951 0
1.0081841 1.1655171 -0.049983464 0
0.85255247 1.1743449 0.36630407 0
0.84467846 1.1747916 0.47321549 0
0.83963734 1.1750774 0.58535641 0
1.0165683 1.1849109 -0.050247561 0
0.8557114 1.1920046 0.36688218 0
0.83554178 1.192894 0.46987638 0
0.83722728 1.1928197 0.58398992 0
1.008678 1.2050067 -0.049938966 0
0.85193485 1.2099425 0.36574647 0
0.84197968 1.2102559 0.4717986 0
0.83636063 1.2104329 0.5833559 0
1.0131536 1.2246543 -0.050081041 0
0.84590977 1.2278135 0.36409494 0
0.8379932 1.2279631 0.47032437 0
0.83941728 1.2279361 0.58443868 0
1.0080545 1.2444657 -0.049890105 0
0.84590405 1.2454865 0.36403668 0
0.82868844 1.2455949 0.46715507 0
0.83770126 1.2455381 0.5836364 0
1.0055174 1.2641615 -0.049799521 0
0.85658246 1.2632239 0.36676118 0
0.83924824 1.2631147 0.47066829 0
0.84358841 1.263142 0.58607394 0
1.0117569 1.2839624 -0.050031167 0
0.84896475 1.2808874 0.36487451 0
0.83971506 1.2807126 0.47089735 0
0.8376556 1.2806737 0.58370912 0
1.0086459 1.3036354 -0.049937822 0
0.84372872 1.2984422 0.36365181 0
0.84830254 1.2985864 0.47390324 0
0.83990222 1.2983218 0.58482307 0
1.0011172 1.3230509 -0.049695402 0
0.84206051 1.3160366 0.36339599 0
0.83955783 1.3159263 0.47121382 0
0.82669121 1.3153589 0.5796234 0
1.0034829 1.3428594 -0.04981536 0
0.84408206 1.3338177 0.3641395 0
0.84363514 1.3337924 0.47286788 0
0.83658236 1.3333924 0.58408946 0
1.0040077 1.3626282 -0.049878463 0
1.2999059 1.383153 0.072467789 0
1.2930403 1.3826767 0.20534411 0
1.3008292 1.383217 0.34193575 0
0.84203464 1.351393 0.36390033 0
0.83775467 1.3510962 0.47127751 0
0.84419316 1.3515427 0.58770722 0
1.008199 1.3827455 -0.050081883 0
1.2434297 1.4020411 0.07050813 0
1.2444302 1.4021232 0.20029257 0
1.0046663 1.3824557 0.2886641 0
0.84922105 1.3697048 0.36608124 0
0.83772427 1.3687618 0.47171104 0
0.83485538 1.3685265 0.58438277 0
1.0082963 1.4026223 -0.050147809 0
1.2471902 1.4252499 0.070714802 0
1.2443926 1.4249851 0.20050482 0
0.89995426 1.3923603 0.27000961 0
0.84812862 1.3874515 0.36620215 0
0.83937973 1.3866229 0.47278273 0
0.84347481 1.3870107 0.58861142 0
1.0083535 1.4225448 -0.050221369 0
0.63709873 1.3826576 0.048890822 0
0.64357811 1.3833538 0.13581184 0
0.64325768 1.3833194 0.22378449 0
0.63959259 1.3829256 0.3131505 0
0.84526783 1.4050231 0.4753474 0
0.82427925 1.4027681 0.58135998 0
1.0019691 1.4417484 -0.050072428 0
0.56195194 1.3888612 0.046250187 0
0.56394285 1.3891006 0.12737805 0
0.53974992 1.3861927 0.20529497 0
0.55485159 1.3880078 0.29181522 0
0.84342772 1.4226928 0.4754039 0
0.84109658 1.4224126 0.58919823 0
1.0006497 1.4615228 -0.050114352 0
0.56428951 1.4034926 0.04639858 0
0.55775815 1.402624 0.12690115 0
0.5551675 1.4022795 0.20841791 0
0.55363959 1.4020762 0.2919592 0
0.84329659 1.4405969 0.4761087 0
0.85025185 1.4415219 0.59395254 0
1.0009605 1.481568 -0.050224151 0
0.55108458 1.4159656 0.045993134 0
0.54432601 1.4149801 0.12565476 0
0.54781991 1.4154896 0.20743439 0
0.55087 1.4159343 0.29174751 0
0.83801776 1.4578072 0.47515976 0
0.84285289 1.4585122 0.59188962 0
0.99370402 1.5004938 -0.050069738 0
0.54608768 1.429454 0.045889258 0
0.54329962 1.4290115 0.12577268 0
0.54405445 1.4291313 0.20713334 0
0.56101769 1.4318234 0.29491726 0
0.84267813 1.4765249 0.47762999 0
0.8433339 1.476629 0.59321564 0
0.99655932 1.5210478 -0.050289903 0
0.55117804 1.4446017 0.046156693 0
0.54556495 1.4436382 0.12626906 0
0.54459852 1.4434723 0.20765164 0
0.55616432 1.4454575 0.29426241 0
0.83940774 1.494074 0.47750792 0
0.83732671 1.4937168 0.59191459 0
0.979289 1.5380472 -0.049789306 0
0.55370551 1.4594702 0.046338622 0
0.55642575 1.4599724 0.12772605 0
0.55817765 1.4602959 0.21059482 0
0.55825275 1.4603097 0.29545152 0
0.84188026 1.5126768 0.4794032 0
0.84160501 1.5126261 0.59503156 0
0.98105258 1.5584525 -0.049987931 0
0.54863757 1.4729704 0.046251398 0
0.5549441 1.4742171 0.12785707 0
0.55228215 1.4736909 0.21000402 0
0.5518809 1.4736115 0.29449192 0
0.84089023 1.5307444 0.48020825 0
0.84955388 1.5324571 0.59980583 0
0.98246115 1.5789293 -0.05018349 0
0.55536789 1.4888971 0.046600606 0
0.54570419 1.4868599 0.127156 0
0.55957133 1.4897832 0.21187282 0
0.55729014 1.4893023 0.29664519 0
0.85389203 1.5518266 0.48585001 0
0.83674473 1.5482119 0.5959149 0
0.97316951 1.597154 -0.049997546 0
0.5514701 1.5026979 0.046569288 0
0.55400938 1.5032667 0.12840278 0
0.55869955 1.5043173 0.21227601 0
0.55372995 1.5032041 0.29651105 0
0.83828217 1.5669407 0.48184329 0
0.84670132 1.5688264 0.60175639 0
0.96427208 1.6153406 -0.04983392 0
0.55724186 1.5187725 0.046899043 0
0.55204791 1.5175402 0.12854208 0
0.54833204 1.5166587 0.21095419 0
0.54599887 1.5161051 0.29532865 0
0.83689958 1.5851214 0.48275429 0
0.84185654 1.5862974 0.6014272 0
0.95962495 1.6344765 -0.049834624 0
0.54551488 1.5307041 0.046593234 0
0.56261486 1.5349894 0.13008976 0
0.5436644 1.5302405 0.21071678 0
0.5546667 1.5329976 0.29849842 0
0.83844811 1.6041107 0.48475191 0
0.8397854 1.6044458 0.60237473 0
0.95619231 1.6539369 -0.049889058 0
0.55256861 1.5473735 0.046985414 0
0.55692583 1.5485239 0.12986009 0
0.55363232 1.5476544 0.21324039 0
0.55103177 1.5469677 0.29848841 0
0.84366661 1.6242282 0.48810112 0
0.83839375 1.6228361 0.60371399 0
0.94705397 1.6718569 -0.04974135 0
0.5601272 1.5644726 0.04740544 0
0.54906982 1.5614038 0.12940688 0
0.55891138 1.5641351 0.21493621 0
0.5462057 1.5606089 0.29820952 0
0.84163409 1.6425995 0.48904583 0
0.83615297 1.6410784 0.60479254 0
0.94988865 1.6931573 -0.050046671 0
0.56254941 1.580387 0.047644012 0
0.56292921 1.5804976 0.13140079 0
0.55354828 1.5777664 0.2146782 0
0.55048591 1.5768747 0.30039489 0
0.84093243 1.6614357 0.49053514 0
0.82519454 1.6568538 0.60221452 0
0.9477883 1.7131819 -0.050178971 0
0.85123628 1.6837479 0.3817189 0
0.84497446 1.681839 0.49376249 0
0.83597714 1.6790961 0.60912305 0
0.93688041 1.7305008 -0.049991205 0
0.85564643 1.7046143 0.38437754 0
0.84785479 1.7021314 0.49668667 0
0.84701735 1.7018645 0.61629272 0
0.93320328 1.7500886 -0.0500829 0
0.84575301 1.7210032 0.38327202 0
0.84784776 1.7216998 0.49870017 0
0.84285575 1.7200396 0.61698425 0
0.9236837 1.7677227 -0.04996353 0
0.84274989 1.7396681 0.38407785 0
0.83489662 1.7369459 0.49625126 0
0.84124058 1.7391449 0.6188947 0
0.92289323 1.7884203 -0.050183333 0
0.84908015 1.7617882 0.38748243 0
0.82639056 1.7536017 0.4954311 0
0.83551329 1.7568933 0.61910957 0
0.91336149 1.8060079 -0.050080784 0
0.84098595 1.7788599 0.38704833 0
0.833332 1.7759888 0.50017035 0
0.83410484 1.7762787 0.62133384 0
0.90149707 1.8226126 -0.049896821 0
0.83665031 1.7973527 0.38769993 0
0.82670826 1.7934799 0.50018996 0
0.82559532 1.7930464 0.62052196 0
0.89548963 1.8414476 -0.049945481 0
0.83184975 1.8157302 0.38829082 0
0.8283543 1.8143177 0.50325596 0
0.82701141 1.8137751 0.62423241 0
0.89316314 1.8618649 -0.050146028 0
0.83213276 1.8363035 0.39035484 0
0.8267712 1.8340579 0.50526786 0
0.83168536 1.8361161 0.62954181 0
0.8918944 1.8828984 -0.050398812 0
0.83458799 1.8580441 0.3931061 0
0.82020169 1.8518046 0.50557238 0
0.82483643 1.8538148 0.62980658 0
0.87454456 1.8969146 -0.050034095 0
0.83836323 1.8806781 0.39631841 0
0.8311879 1.8774581 0.51236176 0
0.81997138 1.8724247 0.63107401 0
0.86999661 1.9165902 -0.05017801 0
0.84017152 1.9027523 0.39907625 0
0.82554048 1.895964 0.51320845 0
0.81804794 1.8924876 0.63379812 0
0.85667235 1.9321748 -0.049985103 0
0.82770222 1.9182876 0.39788964 0
0.81893522 1.9140851 0.51379263 0
0.81838733 1.9138225 0.63769346 0
0.85181469 1.9518017 -0.05013606 0
0.81727582 1.9347069 0.3973327 0
0.8107633 1.9314836 0.51388341 0
0.81375891 1.9329662 0.63944179 0
0.8357237 1.9658144 -0.049847536 0
0.81440371 1.954926 0.39899537 0
0.80028194 1.9477137 0.51319355 0
0.80724746 1.9512712 0.64043772 0
0.83767051 1.9891012 -0.050292034 0
0.80739337 1.9731544 0.39954898 0
0.80051059 1.9695293 0.51660287 0
0.80146164 1.9700302 0.64188737 0
0.82346433 2.003979 -0.050095256 0
0.79844362 1.9903955 0.39960977 0
0.79267043 1.9872614 0.51708472 0
0.79976493 1.9911128 0.64538425 0
0.81812555 2.0236609 -0.050267462 0
0.7940194 2.0101783 0.40105715 0
0.79248029 2.0093174 0.52057093 0
0.78924471 2.0075078 0.64484555 0
0.79708391 2.0344427 -0.049804151 0
0.78321093 2.0264525 0.4007085 0
0.79448062 2.0329432 0.52502978 0
0.78184825 2.0256677 0.64589381 0
0.8027212 2.0606644 -0.050450251 0
0.77963716 2.0469792 0.4025636 0
0.77688378 2.045347 0.52205712 0
0.77869016 2.0464177 0.64909953 0
0.77609462 2.0677431 -0.04976584 0
0.7646603 2.0607684 0.40110213 0
0.76615816 2.061682 0.52179998 0
0.7666977 2.0620112 0.64817178 0
0.77002102 2.0871506 -0.04994598 0
0.76144463 2.0817697 0.40322345 0
0.76912743 2.0865901 0.52699995 0
0.76890081 2.0864477 0.65427059 0
0.75657946 2.1019599 -0.049824893 0
0.76035684 2.1043968 0.40608814 0
0.76337069 2.1063409 0.52891129 0
0.74974304 2.0975499 0.65004557 0
0.75046784 2.121531 -0.05002474 0
0.74731094 2.1194377 0.40540305 0
0.74696189 2.1192062 0.52668536 0
0.74783427 2.1197846 0.6544233 0
0.73822099 2.1370959 -0.049971864 0
0.74279636 2.1402135 0.40740412 0
0.73828226 2.1371377 0.52761686 0
0.73526949 2.1350849 0.65363967 0
0.73181337 2.1567066 -0.050181489 0
0.73165828 2.1565979 0.40744132 0
0.7215187 2.1495008 0.525365 0
0.73237294 2.1570981 0.65783221 0
0.72937769 2.1793582 -0.050578464 0
0.71664244 2.1702032 0.40632492 0
0.72097713 2.1733193 0.52980298 0
0.73134166 2.1807702 0.66315472 0
0.70195299 2.1839163 -0.049882885 0
0.70798594 2.1883695 0.40726882 0
0.70916671 2.1892412 0.529746 0
0.71118718 2.1907325 0.65883857 0
0.69164604 2.2008345 -0.049949974 0
0.70214099 2.2087872 0.40919465 0
0.69975251 2.2069774 0.53077203 0
0.70261639 2.2091475 0.66056341 0
0.67847449 2.2155883 -0.049897742 0
0.68854362 2.2234199 0.40871644 0
0.6895135 2.2241743 0.53155416 0
0.69477278 2.228265 0.6628077 0
0.67320782 2.2366087 -0.050214525 0
0.67592627 2.2387786 0.40861312 0
0.6815365 2.2432568 0.53339887 0
0.68404812 2.2452617 0.66367537 0
0.65686148 2.2488475 -0.050035443 0
0.6764937 2.2649269 0.41292033 0
0.6719355 2.2611935 0.53466707 0
0.66868824 2.258534 0.66218519 0
0.64321131 2.2631907 -0.049987335 0
0.66921633 2.2850425 0.41476825 0
0.66011125 2.2773917 0.53508031 0
0.66497523 2.2814789 0.66706783 0
0.62909478 2.2770915 -0.049925193 0
0.71940154 2.3549364 0.066181757 0
0.7215454 2.3567843 0.18746546 0
0.71620554 2.3521814 0.30925331 0
0.65205055 2.2968795 0.4133904 0
0.65378922 2.2983782 0.53800398 0
0.64409834 2.2900248 0.6627785 0
0.61860555 2.2941451 -0.050043508 0
0.68710548 2.3547125 0.065307908 0
0.67414981 2.3432572 0.18267225 0
0.67932314 2.3478312 0.30372643 0
0.63718098 2.3105695 0.41282961 0
0.63783807 2.3111506 0.5368008 0
0.63215595 2.3061264 0.6634382 0
0.60487086 2.3083725 -0.050017055 0
0.65980941 2.3581953 0.064664871 0
0.66062909 2.3589387 0.18271402 0
0.66338891 2.3614416 0.30322307 0
0.628398 2.3297088 0.4144178 0
0.62017924 2.3222554 0.53488874 0
0.62416285 2.3258681 0.66642553 0
0.59164959 2.323056 -0.05002401 0
0.64619893 2.3737922 0.064683646 0
0.64465815 2.3723593 0.18242548 0
0.63764387 2.3658352 0.30033931 0
0.61379153 2.3436503 0.41407913 0
0.60977358 2.3399131 0.53631282 0
0.6155445 2.3452806 0.66923428 0
0.58076817 2.3399827 -0.050155565 0
0.62181693 2.3791375 0.064180836 0
0.62973922 2.3866942 0.18231466 0
0.63041109 2.3873351 0.30204841 0
0.58984214 2.3486381 0.41050369 0
0.59746438 2.3559084 0.53698051 0
0.59719485 2.3556514 0.66664791 0
0.56092769 2.3482797 -0.049851891 0
0.59954029 2.3860507 0.063780285 0
0.61238879 2.3986192 0.18186389 0
0.60773367 2.3940654 0.29995009 0
0.58480781 2.3716393 0.41365704 0
0.58451539 2.3713531 0.53745192 0
0.59094626 2.3776438 0.67111343 0
0.55252582 2.3677523 -0.05012805 0
0.60012382 2.4155004 0.064535029 0
0.60556155 2.4209552 0.18303199 0
0.60719162 2.4225905 0.30350116 0
0.57859474 2.3939035 0.41652855 0
0.57625741 2.3915589 0.54023099 0
0.56981665 2.3850977 0.66707009 0
0.53740937 2.3806014 -0.050076365 0
0.60132807 2.4463573 0.065350279 0
0.60322839 2.448312 0.18495132 0
0.60381371 2.4489143 0.30645713 0
0.55498713 2.3986843 0.41317242 0
0.55569798 2.3994157 0.53729534 0
0.56229812 2.4062057 0.6711145 0
0.52031082 2.3913112 -0.049929474 0
0.61374515 2.4898841 0.066778362 0
0.61271912 2.4888015 0.18879691 0
0.61875218 2.4951665 0.31434074 0
0.54737526 2.4198639 0.41572592 0
0.55192715 2.4246662 0.54248714 0
0.55117077 2.4238682 0.67319995 0
0.51481217 2.4144232 -0.050397757 0
0.53644794 2.4378324 0.41716781 0
0.52776414 2.4284368 0.53790957 0
0.53813201 2.4396546 0.67428279 0
0.49481997 2.4219503 -0.050115101 0
0.51809949 2.4477832 0.4158873 0
0.52333158 2.453589 0.54309642 0
0.51528066 2.4446552 0.66943401 0
0.48483381 2.4405689 -0.050374687 0
0.50216383 2.4602933 0.41556904 0
0.50662547 2.4653716 0.54233015 0
0.50295907 2.4611986 0.67115986 0
0.46425042 2.4471014 -0.050069302 0
0.4856604 2.4720974 0.41508478 0
0.48891374 2.4758959 0.54111362 0
0.49223348 2.4797716 0.67405862 0
0.44711182 2.4574287 -0.049955718 0
0.47225508 2.4875424 0.41588515 0
0.46582064 2.479836 0.53715336 0
0.46990475 2.4847276 0.66965562 0
0.43449149 2.473186 -0.050103225 0
0.45727953 2.5011883 0.41614136 0
0.45192882 2.4946132 0.53800726 0
0.4491621 2.4912136 0.66626507 0
0.41822502 2.4845183 -0.050054912 0
0.44349477 2.5163815 0.41696057 0
0.43920848 2.5109768 0.53960085 0
0.44340011 2.5162621 0.67285615 0
0.40320161 2.4974086 -0.050086651 0
0.42916337 2.5310047 0.41764435 0
0.42015275 2.5193443 0.53788483 0
0.42424443 2.5246394 0.67069817 0
0.38886806 2.5112576 -0.050169431 0
0.4056094 2.5334952 0.414505 0
0.41066328 2.5402081 0.5414893 0
0.41511521 2.5461216 0.67547798 0
0.360558 2.506151 -0.049420279 0
0.39334646 2.5508647 0.41619617 0
0.39440969 2.5523145 0.54149717 0
0.39280805 2.5501304 0.67130172 0
0.35104117 2.5264573 -0.049808413 0
0.3731052 2.5573545 0.41450995 0
0.37974128 2.5666473 0.54249924 0
0.38172802 2.5694294 0.67508554 0
0.34221205 2.5482378 -0.050262492 0
0.35362509 2.5646532 0.41316932 0
0.35768953 2.5704992 0.53932083 0
0.3609142 2.5751371 0.6720534 0
0.32038549 2.5513899 -0.049914487 0
0.34359089 2.5856793 0.41614494 0
0.33651534 2.5752242 0.53663218 0
0.34597966 2.5892091 0.67336023 0
0.31130573 2.5734572 -0.050389741 0
0.32699451 2.5972805 0.41625553 0
0.32503703 2.5943081 0.53979236 0
0.32150087 2.5889385 0.66763943 0
0.28940383 2.5761371 -0.050044034 0
0.29988304 2.5924945 0.41146356 0
0.30538216 2.6010783 0.5381192 0
0.30865023 2.6061795 0.67072755 0
0.27032331 2.5828905 -0.049884014 0
0.29146734 2.6168282 0.41556537 0
0.28100768 2.6000397 0.53349566 0
0.28689107 2.609483 0.66707188 0
0.25636265 2.5978851 -0.050079264 0
0.27257738 2.6246562 0.41474438 0
0.27315059 2.6256027 0.53937399 0
0.27817032 2.6338904 0.67379254 0
0.23126598 2.5942378 -0.04950811 0
0.26013699 2.6432881 0.41719866 0
0.25006375 2.6261742 0.53559947 0
0.25385275 2.6326118 0.66817617 0
0.21956809 2.6132193 -0.049884699 0
0.23667182 2.6431329 0.41416007 0
0.23515709 2.6404836 0.5372287 0
0.2381195 2.6456649 0.66958207 0
0.20501097 2.627604 -0.050077014 0
0.21908481 2.6529541 0.41414052 0
0.21609451 2.647568 0.53616881 0
0.21884139 2.6525156 0.66813505 0
0.1863922 2.6347435 -0.04998165 0
0.19451208 2.6498132 0.41042888 0
0.20372404 2.6669097 0.53983945 0
0.19895674 2.658062 0.66619891 0
0.16609962 2.6385419 -0.049761806 0
0.18440147 2.6735573 0.41457069 0
0.18443199 2.6736157 0.53880131 0
0.17775305 2.6608374 0.66309834 0
0.15455098 2.6592593 -0.050230771 0
0.16328235 2.6764894 0.41276994 0
0.16279759 2.6755328 0.5360744 0
0.16172655 2.6734192 0.66469353 0
0.13252462 2.6593959 -0.049884088 0
0.14332511 2.6813915 0.41161615 0
0.13966514 2.6739378 0.53216398 0
0.14379413 2.6823468 0.66468668 0
0.11527362 2.6690133 -0.049925268 0
0.12289097 2.6850328 0.41018423 0
0.12270655 2.6846452 0.53291655 0
0.12501068 2.6894908 0.66396618 0
0.098527335 2.6798041 -0.050020896 0
0.10593661 2.6959062 0.41086414 0
0.10123589 2.6856904 0.53020477 0
0.10457637 2.69295 0.66167843 0
0.080056809 2.6868942 -0.049979627 0
0.081003152 2.6890209 0.40664095 0
0.08494588 2.6978812 0.53166544 0
0.083218597 2.6939995 0.65842843 0
0.065227471 2.7023864 -0.050274178 0
0.064454518 2.7005887 0.40765277 0
0.066431783 2.7051873 0.53142369 0
0.063848041 2.6991785 0.65717852 0
0.041331254 2.6965883 -0.049751431 0
0.046816967 2.7098024 0.40806663 0
0.045160912 2.7058134 0.52886111 0
0.0450572 2.7055633 0.65658551 0
0.030408641 2.722204 -0.050451025 0
0.026118061 2.7114897 0.40647119 0
0.025305172 2.7094598 0.52749008 0
0.027162394 2.7140975 0.65705985 0
0.010196946 2.7251287 -0.050284166 0
0.010043702 2.7247317 0.40811482 0
0.0068078251 2.7163467 0.52737069 0
0.0078571057 2.7190657 0.65604943 0
-0.0097566033 2.7284193 -0.050141744 0
-0.011854925 2.7227714 0.40566841 0
-0.011455395 2.7238467 0.52755237 0
-0.010838428 2.7255075 0.65580237 0
-0.032157876 2.7245691 -0.049738791 0
-0.032566585 2.7234251 0.40401605 0
-0.031264521 2.7270699 0.52630365 0
-0.031986333 2.7250495 0.65262651 0
-0.048534252 2.7374122 -0.049978323 0
-0.054425873 2.7202413 0.40140617 0
-0.05281464 2.7249372 0.52326447 0
-0.054988898 2.7186005 0.64695883 0
-0.066628255 2.7455869 -0.05004916 0
-0.072764464 2.7269413 0.40153593 0
-0.074392237 2.7219954 0.52004957 0
-0.074637838 2.7212491 0.64540648 0
-0.087980367 2.7436013 -0.049747944 0
-0.092208214 2.7301884 0.40080333 0
-0.091284193 2.7331197 0.52184922 0
-0.092267461 2.7300003 0.64661711 0
-0.10547239 2.7536969 -0.049908396 0
-0.11506764 2.721863 0.39705524 0
-0.10991461 2.7389591 0.52187961 0
-0.11189366 2.7323933 0.64516985 0
-0.12274427 2.7649784 -0.050120518 0
-0.10555092 2.8247333 0.064340398 0
-0.10333709 2.8324275 0.18247879 0
-0.10586778 2.823632 0.30050582 0
-0.12902065 2.743165 0.40126282 0
-0.13177906 2.7335782 0.51810694 0
-0.13324954 2.7284677 0.64111227 0
-0.14144017 2.7716432 -0.050169069 0
-0.13349564 2.8006225 0.063241839 0
-0.13428782 2.7977328 0.17798942 0
-0.13459404 2.7966156 0.29441375 0
-0.15052865 2.7384911 0.39863065 0
-0.14806275 2.7474861 0.52109641 0
-0.15223943 2.7322507 0.64049375 0
-0.16186215 2.7718339 -0.049987316 0
-0.15686999 2.7909865 0.062693931 0
-0.15576266 2.7952347 0.1771339 0
-0.15859951 2.7843511 0.2911585 0
-0.16646563 2.7541726 0.40144548 0
-0.16969459 2.7417848 0.51740491 0
-0.16879164 2.7452488 0.64392263 0
-0.18087642 2.7771971 -0.05000582 0
-0.17700319 2.7928624 0.062581927 0
-0.1788974 2.7852013 0.17547682 0
-0.1785887 2.7864499 0.29063806 0
-0.18833672 2.7470241 0.39830431 0
-0.18676446 2.7533832 0.5197472 0
-0.18914647 2.7437491 0.64124638 0
-0.20070089 2.7791681 -0.049908675 0
-0.19631375 2.7979221 0.062596299 0
-0.19607948 2.7989237 0.17647874 0
-0.19707872 2.794652 0.2912963 0
-0.21015976 2.7387333 0.39494529 0
-0.20927455 2.7425175 0.51448071 0
-0.21042471 2.7376006 0.63671058 0
-0.21916224 2.7870121 -0.050035678 0
-0.21775447 2.7933912 0.062268898 0
-0.21839048 2.7905092 0.17506547 0
-0.21835653 2.790663 0.2897442 0
-0.23159109 2.7306933 0.39173311 0
-0.22956519 2.7398732 0.51212656 0
-0.22936071 2.7407997 0.63626438 0
-0.23837732 2.7916803 -0.050055031 0
-0.23487578 2.8085539 0.062670268 0
-0.2352085 2.8069506 0.17641489 0
-0.2345769 2.8099942 0.29254094 0
-0.24609818 2.7544749 0.39689133 0
-0.24875613 2.7416666 0.51137328 0
-0.25054938 2.7330251 0.63128006 0
-0.25973344 2.7854242 -0.049685825 0
-0.25237402 2.8232777 0.063062549 0
-0.25141072 2.8282325 0.17831419 0
-0.25165361 2.8269832 0.29493809 0
-0.26873174 2.7391407 0.391918 0
-0.27055234 2.7297764 0.50606632 0
-0.27180821 2.7233167 0.62560499 0
-0.27811679 2.7941155 -0.049869597 0
-0.26853782 2.8469269 0.063785791 0
-0.26682085 2.8563929 0.18098277 0
-0.26725927 2.8539758 0.29920283 0
-0.28623566 2.7493544 0.39365438 0
-0.29038009 2.726505 0.50377852 0
-0.2891787 2.7331285 0.62826955 0
-0.29610309 2.8059642 -0.050175667 0
-0.3052747 2.7515028 0.39335749 0
-0.30869985 2.731164 0.50425535 0
-0.30763242 2.7375023 0.62873715 0
-0.31635469 2.8046691 -0.050014444 0
-0.32630372 2.7406812 0.38977435 0
-0.32891902 2.7238605 0.50078142 0
-0.32720789 2.7348659 0.62636393 0
-0.33503386 2.8136165 -0.05023209 0
-0.34624428 2.7350085 0.38759285 0
-0.34863821 2.7182221 0.4979589 0
-0.34855747 2.7187881 0.61847663 0
-0.3541342 2.8205361 -0.050384846 0
-0.36538532 2.7338462 0.38664004 0
-0.36626908 2.727037 0.50007319 0
-0.36639416 2.7260733 0.62046885 0
-0.37468603 2.816004 -0.050134409 0
-0.38567096 2.7221179 0.3830364 0
-0.38613504 2.7181518 0.49632993 0
-0.38547096 2.7238274 0.61857867 0
-0.39493561 2.8126981 -0.049937606 0
-0.40497616 2.7163923 0.3810429 0
-0.40486926 2.7174177 0.49540189 0
-0.40399316 2.7258208 0.61855578 0
-0.41380531 2.8229775 -0.050237212 0
-0.42380875 2.7137032 0.37989187 0
-0.42422634 2.7091415 0.49203402 0
-0.42465404 2.7044697 0.60892403 0
-0.43405646 2.8184667 -0.050015375 0
-0.44135219 2.7259533 0.38262612 0
-0.44270226 2.7088337 0.4914102 0
-0.44340813 2.6998832 0.60637271 0
-0.45402867 2.8158488 -0.049870573 0
-0.46110916 2.7088981 0.37792146 0
-0.46139905 2.7045193 0.48952851 0
-0.46196219 2.6960127 0.60421866 0
-0.47341621 2.8222942 -0.050058898 0
-0.47956356 2.7075331 0.37729239 0
-0.48049563 2.6901331 0.48437098 0
-0.47990581 2.701144 0.60589528 0
-0.49343762 2.8165824 -0.049821466 0
-0.49826223 2.698756 0.37483028 0
-0.49915308 2.6769996 0.47971332 0
-0.49911591 2.677907 0.59590948 0
-0.51292998 2.8237386 -0.050052714 0
-0.51627636 2.7056575 0.37643099 0
-0.51684076 2.6857436 0.48241696 0
-0.51679093 2.687501 0.599626 0
-0.53262061 2.8288605 -0.050220035 0
-0.53470671 2.6963406 0.37395081 0
-0.53490329 2.6838531 0.48165584 0
-0.5350185 2.6765344 0.59492016 0
-0.55245656 2.8262942 -0.050121732 0
-0.5528872 2.6895447 0.37217322 0
-0.55290502 2.6838827 0.48160908 0
-0.55294484 2.6712503 0.59266239 0
-0.57220274 2.8212249 -0.049942963 0
-0.57080108 2.6727848 0.36791155 0
-0.57077396 2.6699147 0.47698066 0
-0.57076567 2.66904 0.59177035 0
-0.59180421 2.8151708 -0.04973786 0
-0.58840883 2.661098 0.36500087 0
-0.58832937 2.6574938 0.47294065 0
-0.58843201 2.6621521 0.5890339 0
-0.61158788 2.8184657 -0.049875457 0
-0.60624629 2.6642594 0.36593607 0
-0.60593408 2.655247 0.47235927 0
-0.60620379 2.6630335 0.58960718 0
-0.6313135 2.8184104 -0.049902294 0
-0.6238873 2.6612489 0.36535275 0
-0.62343156 2.6516042 0.47138646 0
-0.62297195 2.6418772 0.58113891 0
-0.65047854 2.8086233 -0.049589973 0
-0.64089739 2.6486177 0.3623668 0
-0.64044464 2.6410568 0.4681851 0
-0.64045876 2.6412921 0.58128428 0
-0.63986999 2.6314597 0.69627184 0
-0.67114222 2.8225026 -0.050133139 0
-0.65834916 2.6461117 0.36202291 0
-0.65720427 2.6303256 0.46499094 0
-0.65662092 2.6222823 0.57387263 0
-0.65736997 2.6326103 0.69742459 0
-0.69082594 2.8203287 -0.050111018 0
-0.67384636 2.6210308 0.46234348 0
-0.67427808 2.6260979 0.57602227 0
-0.67397732 2.6225677 0.69306862 0
-0.71065605 2.8197789 -0.050156005 0
-0.69076043 2.6165428 0.46136951 0
-0.68981451 2.6068802 0.56868482 0
-0.69010919 2.6098905 0.68748772 0
-0.7306872 2.8207295 -0.050263915 0
-0.70636237 2.6008389 0.56690741 0
-0.70691282 2.6058149 0.68633139 0
-0.74894154 2.8066318 -0.049839742 0
-0.72278196 2.5946188 0.56513947 0
-0.72189927 2.5874653 0.67808372 0
-0.76963431 2.8126328 -0.050147299 0
-0.73952442 2.5915465 0.68124384 0
-0.78865397 2.8059151 -0.050005727 0
-0.7549122 2.5795186 0.67637289 0
-0.80759698 2.799329 -0.04987729 0
-0.82851112 2.8045216 -0.050184097 0
-0.84843719 2.8032668 -0.050266977 0
-0.86697376 2.7947848 -0.050096016 0
-0.88517594 2.7853017 -0.049896557 0
-0.90525937 2.7847161 -0.050030652 0
-0.92437398 2.7796857 -0.050011221 0
-0.94220239 2.7696331 -0.049815588 0
-0.96319413 2.7719333 -0.050084088 0
-0.98164552 2.7644787 -0.05000158 0
-0.99789256 2.7497356 -0.04965613 0
-1.0205346 2.7565522 -0.050122425 0
-1.037578 2.7449059 -0.049908791 0
-1.0579678 2.7436798 -0.050094768 0
-1.0752537 2.7331831 -0.049940594 0
-1.0957373 2.7317712 -0.050139152 0
-1.1119994 2.7188072 -0.049907479 0
-1.1364779 2.7271798 -0.050500989 0
-1.1518159 2.7120194 -0.050202101 0
-1.1690305 2.7018342 -0.050101895 0
-1.1882429 2.6963842 -0.050194081 0
-1.2027295 2.680326 -0.049880557 0
-1.2228664 2.676861 -0.050068695 0
-1.240169 2.6672184 -0.050023068 0
-1.2570133 2.6567221 -0.049951747 0
-1.274002 2.6466093 -0.049903858 0
-1.2980646 2.6498911 -0.050405644 0
-1.3072245 2.6251829 -0.049784187 0
-1.3287548 2.623316 -0.050099026 0
-1.3428415 2.60817 -0.049879223 0
-1.3637973 2.6048245 -0.050155796 0
-1.3803339 2.5939064 -0.05012824 0
-1.3974016 2.5838594 -0.050146013 0
-1.4131358 2.5717306 -0.050084423 0
-1.4287291 2.5594635 -0.050024841 0
-1.4441398 2.5469992 -0.04996467 0
-1.4591262 2.5340006 -0.049889069 0
-1.4762099 2.5239861 -0.049952555 0
-1.4906094 2.5102785 -0.049861904 0
-1.5118912 2.5056944 -0.050188139 0
-1.5278084 2.4938793 -0.050201837 0
-1.5393072 2.4765439 -0.049972009 0
-1.5505505 2.4591484 -0.049743671 0
-1.5716963 2.4537072 -0.050078403 0
-1.5790883 2.4320467 -0.049662754 0
-1.5963283 2.4218895 -0.049796585 0
-1.6112782 2.4090786 -0.049814124 0
-1.6334693 2.4039814 -0.050218228 0
-1.6418374 2.3840675 -0.049907755 0
-1.6677786 2.3823133 -0.050508387 0
-1.6805615 2.3669236 -0.050441466 0
-1.6916124 2.3499219 -0.050299045 0
-1.7041799 2.3344827 -0.050243255 0
-1.7140359 2.3166022 -0.050066151 0
-1.730406 2.3047185 -0.050214067 0
-1.7290113 2.2771826 -0.049525563 0
-1.7498823 2.2692306 -0.049904592 0
-1.7608583 2.252718 -0.049825337 0
-1.7745285 2.238452 -0.049880184 0
-1.2339903 1.8013878 0.52200156 0
-1.7981143 2.2319455 -0.050393384 0
-1.2291411 1.7836192 0.51318002 0
-1.8006262 2.2087996 -0.049956825 0
-1.2332736 1.7732162 0.51132667 0
-1.8220377 2.2001696 -0.050380003 0
-1.2366226 1.7623234 0.50900793 0
-1.8282453 2.1800909 -0.050132584 0
-1.2340126 1.7472093 0.50243932 0
-1.8289092 2.1562896 -0.049655829 0
-1.2330736 1.7336205 0.49728313 0
-1.8446374 2.143297 -0.049849864 0
-1.2399194 1.725672 0.49790615 0
-1.8562272 2.1273537 -0.049871307 0
-1.2344824 1.7094336 0.48981878 0
-1.8780944 2.1181107 -0.050339609 0
-1.2391936 1.7002407 0.48913458 0
-1.8792101 2.0952702 -0.049931031 0
-1.2394655 1.688256 0.4854171 0
-1.8912916 2.0795486 -0.049998105 0
-1.2346828 1.673328 0.47830933 0
-1.9019691 2.0629241 -0.050014462 0
-1.2362429 1.6625649 0.47577506 0
-1.9041314 2.0413067 -0.049687285 0
-1.2381634 1.652135 0.47360039 0
-1.9282603 2.0324192 -0.050275408 0
-1.2438972 1.6439741 0.47413155 0
-1.9262428 2.008646 -0.049798232 0
-1.9351587 1.9910977 -0.049779065 0
-1.9497099 1.9764841 -0.049995579 0
-1.9561177 1.9576014 -0.049892694 0
-1.9730712 1.9439331 -0.050218694 0
-1.9641464 1.9178019 -0.049528092 0
-1.9790536 1.9030781 -0.049789637 0
-2.000699 1.8911222 -0.050319921 0
-2.0001531 1.8692974 -0.049991999 0
-1.9919258 1.8445586 -0.04937987 0
-1.9929526 1.823953 -0.049138226 0
-2.0085526 1.809098 -0.049464684 0
-1.9992324 1.7848253 -0.048848785 0
-1.9995793 1.7644295 -0.048613299 0
-1.9947954 1.7424632 -0.048195075 0
-1.9913548 1.7212416 -0.047839399 0
-2.0039742 1.705286 -0.048095703 0
-2.0100329 1.6871839 -0.048114151 0
-2.0034342 1.6654661 -0.047671214 0
-2.0068479 1.6467799 -0.047610234 0
-1.9959935 1.6244639 -0.047032177 0
-1.9945595 1.6048623 -0.046812408 0
-1.9926631 1.5853102 -0.046585392 0
-2.0061312 1.5692589 -0.046929341 0
-2.001092 1.5491771 -0.046605404 0
-1.9983647 1.5297668 -0.046375494 0
-1.9995544 1.511216 -0.046297014 0
-1.9967076 1.4920517 -0.046081092 0
-1.9873395 1.4720455 -0.045638807 0
-1.9990062 1.4552838 -0.045964621 0
-2.0080082 1.43795 -0.04620162 0
-1.9972701 1.4181985 -0.045736838 0
-2.0042069 1.4005599 -0.045915809 0
-1.9997613 1.381786 -0.045694593 0
-2.0051765 1.3639119 -0.045835108 0
-1.9957418 1.3449996 -0.045452353 0
-2.0046196 1.3272777 -0.04573296 0
-1.9966203 1.308717 -0.045418452 0
-2.0000491 1.2906632 -0.045520522 0
-1.9993542 1.2724828 -0.045483459 0
-1.9924228 1.2543254 -0.045231912 0
-1.1344401 0.26436791 -0.049943294 0
-0.37792593 0.2643699 0.41150993 0
-0.3904345 0.26436988 0.49406478 0
-1.1337724 0.24464455 -0.049923893 0
-0.39445055 0.2539562 0.41981068 0
-1.135204 0.22487886 -0.049988326 0
-0.41190898 0.24309944 0.35574418 0
-0.41464311 0.24303056 0.43001547 0
-1.1340942 0.20516062 -0.049970884 0
-0.50114006 0.2290833 0.10641383 0
-0.50305247 0.22901101 0.17485379 0
-1.2442033 0.20099902 0.43409699 0
-1.2300549 0.20153376 0.55953133 0
-1.2484968 0.20083675 0.70250762 0
-1.134995 0.18535021 -0.050034173 0
-0.51193905 0.21675938 0.10763165 0
-0.50999087 0.21685758 0.17620051 0
-1.2337408 0.18037228 0.43166208 0
-1.233162 0.18040147 0.56087387 0
-1.2501656 0.17954428 0.70358628 0
-1.1364017 0.16546004 -0.05012453 0
-0.50035775 0.2055586 0.10645717 0
-0.51289409 0.20476826 0.17684676 0
-1.2451048 0.15860701 0.43487126 0
-1.2402438 0.15891345 0.56363112 0
-1.1365089 0.14560117 -0.050177414 0
-0.51073474 0.19296977 0.10766335 0
-0.49946135 0.19382311 0.17456652 0
-1.241155 0.13767987 0.43423545 0
-1.2339182 0.13822767 0.56200784 0
-1.1291707 0.12635967 -0.04997246 0
-0.52063364 0.18013757 0.10883639 0
-0.50091964 0.18187974 0.17500477 0
-1.2323303 0.11724321 0.43241778 0
-1.2264 0.1177673 0.56007141 0
-1.1321279 0.1062197 -0.050145376 0
-0.50416648 0.16969222 0.10718038 0
-0.50287777 0.16982248 0.1755614 0
-1.2441416 0.09489768 0.43595544 0
-1.2392775 0.095389314 0.5650388 0
-1.1300061 0.08653187 -0.050145146 0
-0.51374853 0.15667072 0.040001918 0
-0.51784068 0.15620498 0.10879641 0
-0.51576781 0.1564409 0.17813066 0
-1.2380447 0.074235536 0.43497196 0
-1.2345293 0.074635662 0.56420565 0
-1.1388174 0.065457053 -0.050547268 0
-0.51837379 0.14399765 0.040219862 0
-0.51644802 0.14424142 0.10880124 0
-0.50647074 0.14550443 0.17670128 0
-1.2462007 0.051863629 0.43771914 0
-1.2425003 0.052332062 0.56772423 0
-1.1217831 0.047695596 -0.050028015 0
-0.51459002 0.13233967 0.040140823 0
-0.512272 0.13266282 0.1085204 0
-0.50949103 0.13305049 0.17753734 0
-1.2403942 0.031160939 0.43694696 0
-1.2447898 0.030548174 0.56943476 0
-1.1125813 0.029108856 -0.049798682 0
-0.5073005 0.12126996 0.039940324 0
-0.5107792 0.12074029 0.10854654 0
-0.50953001 0.1209305 0.17785971 0
-1.2369357 0.010174443 0.43684646 0
-1.2411127 0.0095384317 0.56923282 0
-1.1130586 0.0090841847 -0.049927574 0
-0.51489568 0.10788313 0.04028305 0
-0.51074475 0.10856874 0.10874791 0
-0.50793719 0.10903247 0.17791235 0
-1.2544415 -0.014268111 0.44223511 0
-1.2410585 -0.012057642 0.57034123 0
-1.1109519 -0.010575692 -0.049972188 0
-0.5037514 0.097586937 0.039953101 0
-0.51855165 0.09495052 0.10982244 0
-0.51557267 0.09548118 0.17968303 0
-1.23928 -0.033435207 0.43924987 0
-1.242613 -0.034028929 0.57208759 0
-1.1150836 -0.031463306 -0.050252646 0
-0.51442349 0.083355449 0.040420037 0
-0.50737768 0.084702291 0.10884149 0
-0.51588535 0.083076008 0.18014471 0
-1.2418226 -0.055690031 0.44091877 0
-1.2510132 -0.057446849 0.57625049 0
-1.1064717 -0.049953293 -0.050079044 0
-0.5070405 0.072473414 0.040236797 0
-0.50813723 0.07224942 0.10918113 0
-0.50495231 0.072899885 0.17856628 0
-1.2303928 -0.075262703 0.43902642 0
-1.2382118 -0.07685966 0.57332492 0
-1.1034229 -0.069530524 -0.050116707 0
-0.51476383 0.058437694 0.040609971 0
-0.5086937 0.059757281 0.10951658 0
-0.52543503 0.056117896 0.18280526 0
-1.244004 -0.10009138 0.44373113 0
-1.2373351 -0.098641641 0.5745343 0
-1.0889233 -0.086497582 -0.049743965 0
-0.50586724 0.047962669 0.040381767 0
-0.50583291 0.047970597 0.10949343 0
-0.51859665 0.045027111 0.18203896 0
-1.2445271 -0.12238181 0.44510442 0
-1.243376 -0.12211636 0.57820261 0
-1.0871594 -0.10630361 -0.049845923 0
-0.51418716 0.033452008 0.040790372 0
-0.52257192 0.031406853 0.11165474 0
-0.50944555 0.034608562 0.18086687 0
-1.2371491 -0.14288811 0.44448066 0
-1.235081 -0.14238368 0.57707399 0
-1.0805993 -0.1249531 -0.049780589 0
-0.55817217 0.009465267 0.04252179 0
-0.55300438 0.010794927 0.11536573 0
-0.57110357 0.0061380756 0.19290166 0
-1.226496 -0.16249172 0.44305995 0
-1.2355127 -0.16481169 0.57902712 0
-1.0942137 -0.14902063 -0.050469894 0
-0.61631048 -0.019620966 0.044793759 0
-0.63332152 -0.024227004 0.12467236 0
-1.2394556 -0.18834709 0.3184008 0
-1.236258 -0.1874813 0.44709563 0
-1.2419349 -0.18901841 0.58314884 0
-1.078914 -0.16537584 -0.050099712 0
-0.69258893 -0.055533152 0.04776074 0
-0.69679213 -0.056728255 0.1321793 0
-1.2391587 -0.21093772 0.31943879 0
-1.2422001 -0.21180247 0.45021591 0
-1.2357826 -0.20997779 0.58304137 0
-1.0660434 -0.18218566 -0.049826287 0
-0.77860618 -0.096533366 0.051118489 0
-0.78699052 -0.099031813 0.14275751 0
-1.2464021 -0.23593007 0.32195306 0
-1.2433311 -0.23501493 0.4521485 0
-1.2456193 -0.23569678 0.58857548 0
-1.0774744 -0.20637275 -0.050468463 0
-0.87152445 -0.14216824 0.054766778 0
-0.87321532 -0.14269541 0.15298985 0
-1.2420032 -0.25766429 0.32233724 0
-1.2472042 -0.25928566 0.45489943 0
-1.252604 -0.26096907 0.59325016 0
-1.0577061 -0.22088046 -0.049953278 0
-0.99160051 -0.19935526 0.059471264 0
-0.98792994 -0.19816007 0.16654626 0
-1.2345492 -0.27846381 0.32219532 0
-1.2389421 -0.27989426 0.45448744 0
-1.2420866 -0.28091815 0.5919314 0
-1.0571519 -0.24153291 -0.050167207 0
-1.1240536 -0.26425287 0.064689659 0
-1.1256392 -0.26479134 0.18284966 0
-1.2483816 -0.30647513 0.32615691 0
-1.24739 -0.30613837 0.45864585 0
-1.0466125 -0.25881687 -0.050013788 0
-1.2937667 -0.34623721 0.20278879 0
-1.2358236 -0.32574233 0.32515505 0
-1.2339616 -0.3250837 0.45699185 0
-1.0350225 -0.27560225 -0.049827952 0
-1.2473824 -0.35373774 0.19837326 0
-1.2395593 -0.35085931 0.32732621 0
-1.236479 -0.34972599 0.45972985 0
-1.029741 -0.29466251 -0.049890395 0
-1.2446538 -0.37682417 0.19897009 0
-1.2475842 -0.37794444 0.33039692 0
-1.2457212 -0.37723222 0.46440238 0
-1.0262104 -0.31446818 -0.050029598 0
-1.2451217 -0.40133324 0.19997302 0
-1.2452401 -0.40138027 0.33153719 0
-1.2457024 -0.40156373 0.4666512 0
-1.0182036 -0.33254173 -0.050006326 0
-1.2524824 -0.42893645 0.20181796 0
-1.2326897 -0.42079267 0.33075032 0
-1.2429839 -0.42502823 0.46825117 0
-1.0105537 -0.35075292 -0.050005585 0
-1.2493 -0.45251945 0.20248161 0
-1.24228 -0.44952711 0.3343477 0
-1.2382045 -0.44778994 0.46936989 0
-1.0035795 -0.36926511 -0.050040133 0
-1.2538679 -0.47969589 0.20409414 0
-1.2512589 -0.47854474 0.33791572 0
-1.2288018 -0.46863642 0.46928534 0
-0.98484468 -0.38244072 -0.049622484 0
-1.2266623 -0.49279216 0.20200285 0
-1.2345943 -0.49641189 0.33649299 0
-1.246336 -0.50177008 0.47682792 0
-0.9856708 -0.40451983 -0.049981002 0
-1.2415367 -0.52519751 0.20491871 0
-1.247936 -0.52821571 0.34108979 0
-1.2405437 -0.52472919 0.47795275 0
-0.97246134 -0.42004654 -0.049795352 0
-1.4980686 -0.67608529 0.082668208 0
-1.2358536 -0.54835266 0.20544364 0
-1.2439368 -0.55229026 0.34231624 0
-1.2422993 -0.55149263 0.48130831 0
-0.96428049 -0.43795863 -0.04981726 0
-1.4489617 -0.68165916 0.081185192 0
-1.2509156 -0.58208048 0.20850231 0
-1.242281 -0.57773894 0.34408453 0
-1.2446986 -0.57895452 0.48496491 0
-0.96321559 -0.45958254 -0.05013454 0
-1.4033952 -0.68789583 0.079837665 0
-1.2377255 -0.6019659 0.2082119 0
-1.2417759 -0.60406679 0.34616309 0
-0.95159066 -0.47581664 -0.050037421 0
-1.3456885 -0.68656713 0.077992693 0
-1.2392479 -0.62964624 0.20974296 0
-1.2359965 -0.62790751 0.34724456 0
-0.92990148 -0.48642996 -0.049537677 0
-1.3032098 -0.69214904 0.07675495 0
-1.2479649 -0.6617052 0.21221015 0
-1.2456081 -0.66040641 0.3515645 0
-0.92105389 -0.50393051 -0.049566988 0
-1.2671872 -0.70039612 0.075776234 0
-1.2371426 -0.6833427 0.21233016 0
-1.2389843 -0.6843881 0.35263318 0
-0.92528379 -0.52910066 -0.050146349 0
-1.2459961 -0.71651524 0.075407855 0
-1.2336142 -0.70927972 0.21339279 0
-1.243788 -0.71522498 0.35615963 0
-0.90725267 -0.54136384 -0.049815871 0
-1.2444687 -0.74416131 0.075864293 0
-1.2454692 -0.74476296 0.21643347 0
-1.2290144 -0.73486727 0.35567424 0
-0.90767837 -0.56477511 -0.050264109 0
-1.2458375 -0.77398211 0.076460436 0
-1.2380561 -0.76916808 0.21711917 0
-1.2432401 -0.77237529 0.36138725 0
-0.90107656 -0.58409387 -0.050431013 0
-1.249524 -0.80578071 0.077175282 0
-1.2444283 -0.80253881 0.21960533 0
-1.2420801 -0.80104476 0.36395803 0
-0.87818086 -0.59290016 -0.049914546 0
-1.2452084 -0.83295268 0.077571683 0
-1.2480084 -0.83478397 0.22180721 0
-1.2334511 -0.82526296 0.36501801 0
-0.87029338 -0.61135936 -0.050044052 0
-1.2515618 -0.86763781 0.078445062 0
-1.2430621 -0.86192447 0.22297609 0
-1.2444572 -0.86286229 0.37041974 0
-0.86108863 -0.62902361 -0.05012757 0
-1.2437161 -0.89327031 0.07872887 0
-1.2332137 -0.88601726 0.22355935 0
-1.2287518 -0.88293582 0.37011746 0
-0.85248506 -0.64719051 -0.050247852 0
-1.249534 -0.92884594 0.079627365 0
-1.2395331 -0.92175156 0.22631799 0
-1.6096896 -1.1843301 0.45757276 0
-0.84312189 -0.66491288 -0.050345749 0
-1.2384017 -0.9528628 0.079805151 0
-1.2381645 -0.95269006 0.22813939 0
-1.5659797 -1.1914941 0.45192605 0
-0.82833529 -0.6786691 -0.050212689 0
-1.2432859 -0.98902076 0.080712095 0
-1.2418184 -0.98792309 0.23070408 0
-0.81866217 -0.69623679 -0.050316248 0
-1.2522285 -1.0291061 0.081830911 0
-1.2312655 -1.0130118 0.23142864 0
-0.8038007 -0.70981324 -0.050195023 0
-1.1605172 -0.99089056 0.078408718 0
-1.1683985 -0.99710077 0.22504568 0
-1.1590607 -0.98974293 0.37144563 0
-0.78901505 -0.72334522 -0.050083853 0
-1.1395621 -1.0067877 0.078178078 0
-1.1459118 -1.0119219 0.22415061 0
-1.1441355 -1.0104855 0.37167561 0
-0.77153158 -0.73454118 -0.04985423 0
-1.241488 -1.1244221 0.083654426 0
-1.2456867 -1.1279054 0.24034443 0
-1.3322337 -1.1997057 0.41954389 0
-0.75491714 -0.74626821 -0.049669448 0
-1.2365375 -1.1561724 0.084248349 0
-1.2344586 -1.1544031 0.24125262 0
-1.3215207 -1.2285012 0.42140564 0
-1.0245404 -0.975743 0.49416137 0
-0.74756444 -0.76591212 -0.049928527 0
-1.2845448 -1.2347192 0.41708678 0
-0.9926455 -0.97987849 0.48868659 0
-0.72585785 -0.77295202 -0.049514443 0
-1.2035464 -1.2007124 0.08440689 0
-1.1902829 -1.1888354 0.24010983 0
-1.18622 -1.1851971 0.39788586 0
-0.96957827 -0.99119884 0.4861908 0
-0.72057939 -0.79468757 -0.049896147 0
-0.92527926 -0.9826898 0.47636017 0
-0.71238339 -0.8140493 -0.050152667 0
-0.89249909 -0.98370284 0.47041219 0
-0.70134234 -0.83091873 -0.050283134 0
-0.86018908 -0.98435885 0.46456274 0
-0.68272471 -0.84041673 -0.050045099 0
-0.83429801 -0.99056596 0.46094799 0
-0.66968656 -0.85534781 -0.050094001 0
-0.81470728 -1.0026698 0.45960629 0
-0.65209901 -0.86559385 -0.049918637 0
-0.64095616 -0.88254875 -0.050084289 0
-0.62169874 -0.8907904 -0.049833719 0
-0.61071396 -0.90806788 -0.050029412 0
-0.59259188 -0.91733342 -0.049850881 0
-0.57518816 -0.92725807 -0.049715787 0
-0.56651276 -0.94762665 -0.05007549 0
-0.54407096 -0.95126969 -0.049670644 0
-0.53393143 -0.97016889 -0.049974374 0
-0.52252758 -0.98776895 -0.050222624 0
-0.50531352 -0.99784821 -0.050140474 0
-0.47754902 -0.9932546 -0.049422052 0
-0.46624589 -1.0111479 -0.049707416 0
-0.45906472 -1.0354115 -0.050272305 0
-0.43989021 -1.0424337 -0.050096259 0
-0.418383 -1.0456424 -0.049769621 0
-0.37385321 -0.97708815 0.49851072 0
-0.40505505 -1.0613718 -0.049985796 0
-0.35496867 -0.98209542 0.49652427 0
-0.38335937 -1.0637772 -0.049649097 0
-0.33039343 -0.9775576 0.49091938 0
-0.37229908 -1.083537 -0.050047938 0
-0.30694151 -0.97407943 0.48588744 0
-0.35668397 -1.0960127 -0.050149005 0
-0.29135001 -0.98339683 0.48592764 0
-0.33713174 -1.1016521 -0.049977306 0
-0.27923119 -0.99888974 0.48840109 0
-0.31612128 -1.1043799 -0.049698353 0
-0.25154054 -0.98630947 0.48027 0
-0.30232972 -1.1202966 -0.049965054 0
-0.22794159 -0.98013228 0.47473648 0
-0.28606039 -1.1318171 -0.050060511 0
-0.20647319 -0.97718543 0.47055903 0
-0.26200002 -1.1278778 -0.049546767 0
-0.19070597 -0.98496491 0.47049654 0
-0.24873717 -1.1454571 -0.04990143 0
-0.17043199 -0.98341364 0.46706027 0
-0.23123749 -1.1545771 -0.04992719 0
-0.14766689 -0.97592992 0.4615593 0
-0.21130694 -1.1583772 -0.049752999 0
-0.13046987 -0.97974724 0.46032134 0
-0.19758262 -1.1760656 -0.050130762 0
-0.11252935 -0.98163778 0.45846942 0
-0.17945351 -1.1840219 -0.050136056 0
-0.097254828 -0.98948473 0.45886043 0
-0.15686543 -1.1810617 -0.04972925 0
-0.07431455 -0.97861809 0.34847885 0
-0.082495287 -0.99868029 0.45980328 0
-0.13992722 -1.191696 -0.049856897 0
-0.054118112 -0.9734419 0.34533727 0
-0.069899872 -1.0135825 0.46284813 0
-0.12485059 -1.2075092 -0.050189808 0
-0.028526945 -0.953152 0.14591454 0
-0.029294116 -0.95517784 0.24118707 0
-0.012810512 -0.91165036 0.32683477 0
-0.054247394 -1.0210707 0.46329752 0
-0.10212626 -1.2030283 -0.049757309 0
-0.0096111428 -0.94912022 0.14480039 0
-0.0094414186 -0.94865447 0.23883729 0
0.0027889775 -0.91508812 0.32627091 0
-0.088832393 -1.2245653 -0.050321724 0
0.005327241 -0.95566505 0.14492266 0
0.012527572 -0.9351024 0.23520264 0
0.02370997 -0.9031679 0.32161117 0
-0.0037473573 -0.9815802 0.44519991 0
-0.065319434 -1.216956 -0.049792323 0
0.027889775 -0.93962318 0.14250498 0
0.020373153 -0.96198803 0.23932984 0
0.02554928 -0.94658703 0.33193707 0
0.012929158 -0.98413676 0.44420376 0
-0.047602579 -1.2261318 -0.04990577 0
0.035133436 -0.96929616 0.14529079 0
0.035266146 -0.96888417 0.2396716 0
0.019480364 -1.0178876 0.34970084 0
0.02261989 -1.0081416 0.45078212 0
-0.029962106 -1.2358376 -0.050046925 0
0.025119619 -1.057171 0.35882732 0
-0.0098197591 -1.2374132 -0.049893253 0
0.067459479 -0.97505611 0.33565071 0
0.0085241068 -1.2450016 -0.049972519 0
0.0829456 -0.98008412 0.33579099 0
0.03112294 -1.2369053 -0.049480442 0
0.10097481 -0.97566479 0.33348739 0
0.047674701 -1.2512245 -0.049826093 0
0.11699818 -0.97823101 0.33308986 0
0.067179576 -1.2543244 -0.049766388 0
0.085404232 -1.2628808 -0.04991563 0
0.10317089 -1.2740941 -0.05016987 0
0.12164454 -1.2827153 -0.050337236 0
0.14304857 -1.2763966 -0.049969956 0
-0.065527245 -2.3864965 0.10229544 0
0.16138764 -1.2861181 -0.05019461 0
0.003971593 -2.1862388 0.094817795 0
0.18098427 -1.2890847 -0.050182868 0
0.034107372 -2.1960993 0.094986275 0
0.20092066 -1.2897366 -0.050096516 0
