# .PCD v0.7 - Point Cloud Data file format
VERSION 0.7
FIELDS x y z intensity
SIZE 4 4 4 4
TYPE F F F F
COUNT 1 1 1 1
WIDTH 1323
HEIGHT 1
VIEWPOINT 0 0 0 1 0 0 0
POINTS 1323
DATA ascii
-0.61729503 1.6053988 0.066802464 0
-0.61831021 1.6066957 0.18920675 0
-1.0989753 2.220681 0.45407456 0
-1.0972652 2.2184966 0.63916516 0
-0.10488994 0.95086992 0.4422189 0
-0.54048467 1.4755497 -0.049466211 0
-0.61842871 1.5725708 0.065909319 0
-0.61792672 1.5719459 0.18625504 0
-1.1138927 2.1893005 0.45131198 0
-1.1093982 2.183706 0.63413399 0
-0.12605859 0.95969194 0.45225883 0
-0.56826246 1.4784936 -0.0501737 0
-0.61538029 1.5356543 0.064818352 0
-0.62184811 1.5435007 0.18414991 0
-1.127429 2.1568437 0.44831264 0
-1.1319876 2.1623738 0.63355035 0
-0.13848235 0.95710784 0.45517963 0
-0.57965577 1.4612852 -0.049962796 0
-0.61657953 1.5049472 0.06400425 0
-0.6160394 1.5043085 0.18051657 0
-1.1368121 2.1201162 0.44431263 0
-1.146129 2.1311333 0.62974435 0
-0.14969511 0.95286143 0.45714435 0
-0.59672296 1.4508395 -0.050075941 0
-0.61640751 1.4735305 0.063148387 0
-0.61737955 1.4746511 0.17818955 0
-1.1602226 2.1004038 0.44435915 0
-1.1580663 2.097918 0.62528938 0
-0.60320616 1.4283746 -0.049626198 0
-0.63335216 1.4622535 0.063245222 0
-0.62575889 1.45372 0.17709403 0
-1.182321 2.0791996 0.4441168 0
-1.1747894 2.0707352 0.62289548 0
-0.6219331 1.4197913 -0.049846131 0
-0.6591239 1.4605424 0.063815795 0
-0.65791309 1.4592158 0.17984615 0
-1.1785188 2.0296583 0.4370203 0
-1.1822436 2.0337398 0.6171568 0
-0.63311243 1.4029127 -0.0496745 0
-0.515728 1.2774998 0.055541821 0
-0.67887151 1.4518015 0.1807898 0
-1.1932881 2.0014017 0.43508577 0
-1.1878169 1.9955564 0.61096758 0
-0.64860153 1.3906944 -0.049738321 0
-0.51155126 1.2479171 0.054672703 0
-0.71595466 1.4608619 0.1842382 0
-1.2005447 1.9657018 0.43131319 0
-1.2006322 1.9657929 0.60770559 0
-0.67007828 1.38449 -0.050113939 0
-0.51162368 1.2235209 0.054049958 0
-0.74083841 1.456373 0.1857563 0
-1.2183684 1.9414806 0.43042144 0
-1.211182 1.9341803 0.60379827 0
-0.68584514 1.372252 -0.050201908 0
-0.52204192 1.2099878 0.05397037 0
-0.76832008 1.4539521 0.18765718 0
-1.2226629 1.9040263 0.42618424 0
-1.2251548 1.9064946 0.60131252 0
-0.69848263 1.3569006 -0.050141186 0
-0.54526377 1.2088968 0.054535795 0
-0.80420411 1.4590236 0.19079514 0
-1.2303842 1.8706979 0.42297646 0
-1.2133336 1.8542277 0.58983147 0
-0.71232867 1.342742 -0.050149981 0
-0.56599015 1.2049037 0.054972842 0
-0.83786368 1.4609852 0.19355823 0
-1.2295074 1.8298799 0.41778094 0
-1.2291986 1.8295889 0.58842152 0
-0.72878277 1.330966 -0.050293799 0
-0.86416411 1.4553041 0.068856239 0
-0.86579895 1.4568056 0.19545066 0
-1.2296686 1.7909938 0.41302586 0
-1.2286652 1.7900722 0.58145541 0
-0.23559238 0.87800598 0.38159949 0
-0.74216259 1.3162968 -0.050295822 0
-0.89552069 1.4536258 0.069645256 0
-0.90138555 1.4588777 0.19843331 0
-1.2327609 1.7556176 0.4091529 0
-1.2310218 1.7540604 0.57572854 0
-0.23794432 0.86477941 0.3786419 0
-0.74647856 1.2937083 -0.049877062 0
-0.93668985 1.4597709 0.070891701 0
-1.2400824 1.7246457 0.40644205 0
-1.2332299 1.7186632 0.57016838 0
-0.23514093 0.84728843 0.37297523 0
-0.75945628 1.2788755 -0.049882244 0
-0.97599351 1.4631692 0.072033755 0
-1.2401706 1.6880088 0.40213993 0
-1.2375101 1.6857445 0.56551182 0
-0.23481341 0.83235484 0.36883545 0
-0.25924754 0.85315061 0.46052092 0
-0.77184045 1.2635415 -0.049868554 0
-1.010663 1.4616714 0.072946988 0
-1.2500577 1.6602758 0.40028739 0
-1.2432524 1.6546301 0.56152648 0
-0.25666344 0.83614492 0.37677121 0
-0.78304911 1.2472653 -0.04980994 0
-1.0472699 1.460907 0.073940784 0
-1.2563889 1.6299948 0.39771032 0
-1.2445648 1.6204342 0.55625731 0
-0.25411743 0.81958604 0.37161142 0
-0.80056131 1.2360048 -0.050047785 0
-1.0850797 1.4601933 0.074979886 0
-1.2512958 1.5911644 0.39262354 0
-1.2423362 1.5841045 0.55003047 0
-0.27194053 0.8194744 0.37735006 0
-0.80201459 1.2121998 -0.049566951 0
-1.1220343 1.4578941 0.075970918 0
-1.2455924 1.5527554 0.3875587 0
-1.2372096 1.5463195 0.54307926 0
-0.26365268 0.7988739 0.3694047 0
-0.24774112 0.78665781 0.43511814 0
-0.82922006 1.2080749 -0.050252132 0
-1.1616763 1.456727 0.07707376 0
-1.245156 1.5191636 0.38383693 0
-1.2438422 1.518181 0.54009205 0
-0.26477402 0.78591198 0.36653337 0
-0.28035504 0.7975654 0.45142028 0
-0.8355186 1.1881182 -0.050009917 0
-1.2112297 1.4618131 0.078604974 0
-1.2411194 1.4835869 0.37944067 0
-1.2406507 1.4832454 0.53414345 0
-1.2379431 1.4812729 0.69358873 0
-0.25897825 0.76812506 0.36022899 0
-0.27050424 0.77652138 0.44120154 0
-0.8436172 1.1696441 -0.049859695 0
-1.2535125 1.4604123 0.079801507 0
-1.2569807 1.4628725 0.3795827 0
-1.2359829 1.4479773 0.52792418 0
-1.2369229 1.448644 0.68697661 0
-0.2835238 0.77232939 0.36949706 0
-0.28372765 0.77247405 0.44539171 0
-0.85279155 1.1520377 -0.049767584 0
-1.2990988 1.4602625 0.081131794 0
-1.2524284 1.4280313 0.37530681 0
-1.2430149 1.4215302 0.52552468 0
-1.2380714 1.4181163 0.68146557 0
-0.28395981 0.75919634 0.44167724 0
-0.86802852 1.1385812 -0.049946625 0
-1.2813148 1.4163811 0.079724945 0
-1.2673231 1.4069763 0.22611767 0
-1.2463603 1.3928857 0.37083331 0
-1.2422618 1.3901308 0.52085501 0
-1.2449049 1.3919073 0.67843449 0
-0.29418486 0.75285876 0.44411975 0
-0.88403738 1.1254747 -0.050164383 0
-1.2659189 1.3752425 0.07845518 0
-1.2726104 1.379619 0.22496647 0
-1.2586254 1.3704722 0.37044302 0
-1.2471249 1.3629503 0.51805675 0
-1.2380471 1.357013 0.67011738 0
-0.29913092 0.74291945 0.44343403 0
-0.8903687 1.1060256 -0.049977917 0
-1.2811397 1.3546392 0.078513078 0
-1.2778528 1.352548 0.22386278 0
-1.2476432 1.3333284 0.36514717 0
-1.2313052 1.3229339 0.50913054 0
-1.2464117 1.3325448 0.66804296 0
-0.30022532 0.73056853 0.44054416 0
-0.9019866 1.089998 -0.050025161 0
-1.2921242 1.3313624 0.078403614 0
-1.2932438 1.332055 0.22409344 0
-1.2482312 1.3042073 0.36244574 0
-1.2440783 1.301638 0.50900346 0
-1.2444032 1.301839 0.66204762 0
-0.90867722 1.0709647 -0.049875218 0
-1.3042384 1.3088502 0.078354299 0
-1.302018 1.3075149 0.22352506 0
-1.252988 1.2780288 0.36071947 0
-1.2451826 1.2733347 0.50548351 0
-1.2407548 1.270672 0.65561152 0
-0.92279041 1.0563878 -0.050043248 0
-1.3312417 1.2950745 0.078932777 0
-1.3382839 1.2991897 0.22642143 0
-1.2429931 1.2435045 0.35599357 0
-1.2422163 1.2430506 0.50089222 0
-1.2351377 1.238914 0.64861572 0
-0.9240402 1.0343696 -0.049689576 0
-1.3805939 1.2935101 0.080431737 0
-1.3820683 1.2943469 0.23023927 0
-1.2510084 1.2199571 0.35512668 0
-1.2350516 1.2109001 0.49521425 0
-1.2422324 1.214976 0.64668626 0
-0.94003308 1.0207573 -0.049950674 0
-1.2500685 1.1916085 0.352483 0
-1.2350723 1.1833446 0.49178702 0
-1.2356458 1.1836606 0.63968796 0
-0.9556458 1.0067294 -0.050201599 0
-1.2526706 1.1655685 0.35065472 0
-1.2351792 1.1562146 0.48850846 0
-1.2476244 1.1628698 0.63989013 0
-0.96208084 0.98773813 -0.050088901 0
-1.2653025 1.1450137 0.35094285 0
-1.2322389 1.1278642 0.48447394 0
-1.2354231 1.1295159 0.63112718 0
-0.96275735 0.9659369 -0.049756393 0
-1.269788 1.1203138 0.34963718 0
-1.2372193 1.103938 0.48282906 0
-1.2362237 1.1034374 0.6274181 0
-0.97607255 0.95054978 -0.049938761 0
-1.2847654 1.1009232 0.35050678 0
-1.237291 1.0777971 0.47988695 0
-1.240715 1.079465 0.62521946 0
-0.9917953 0.93615252 -0.050222751 0
-1.2898369 1.0767221 0.3494449 0
-1.2434958 1.0548656 0.47878549 0
-1.2352679 1.050985 0.61948937 0
-0.99739468 0.9169119 -0.050114982 0
-1.3108528 1.059956 0.35161045 0
-1.2447951 1.029811 0.47639579 0
-1.2454388 1.0301049 0.61963522 0
-0.99761629 0.89537823 -0.04980744 0
-1.3170204 1.0363039 0.35087883 0
-1.2399443 1.0022968 0.47239259 0
-1.2433274 1.0037894 0.61540979 0
-1.0043466 0.87685126 -0.049764689 0
-1.322479 1.0124564 0.35007066 0
-1.238819 0.97679597 0.46954033 0
-1.2396562 0.97715288 0.61076301 0
-1.0128233 0.85907215 -0.049798619 0
-1.327369 0.98849285 0.34921446 0
-1.2381686 0.95179111 0.4669227 0
-1.2404883 0.95274556 0.60788131 0
-1.0283686 0.84406871 -0.050112493 0
-1.3329453 0.96492624 0.34855446 0
-1.2467875 0.93073845 0.46694905 0
-1.2356315 0.92631161 0.60308808 0
-1.0409844 0.82770497 -0.050320134 0
-1.3540571 0.94739342 0.35095459 0
-1.2460238 0.90609205 0.46448502 0
-1.2532107 0.90883958 0.60642791 0
-1.0438485 0.80759382 -0.050163705 0
-1.347921 0.91947395 0.34814999 0
-1.2434131 0.88102144 0.46161488 0
-1.2397958 0.87969047 0.5988431 0
-1.0498635 0.78871083 -0.050136898 0
-1.3687091 0.90148908 0.35057577 0
-1.2375295 0.85508984 0.45795742 0
-1.2329338 0.85346431 0.5937342 0
-1.0475633 0.7670207 -0.049805678 0
-1.3718774 0.87715882 0.34967852 0
-1.2356873 0.83090818 0.45549265 0
-1.2377805 0.83161902 0.59287739 0
-1.0587151 0.74995315 -0.049991164 0
-1.3823264 0.85532695 0.35022405 0
-1.2417924 0.8095665 0.45525223 0
-1.2444185 0.81042159 0.59274727 0
-1.0666612 0.7317459 -0.050064098 0
-1.3837198 0.83058828 0.34910882 0
-1.2390628 0.78549176 0.45272371 0
-1.2382824 0.78524852 0.58825928 0
-1.0680895 0.71153951 -0.04990251 0
-1.392513 0.80821317 0.34944901 0
-1.2402194 0.76283181 0.45132008 0
-1.240759 0.76299262 0.58688819 0
-1.0781471 0.6939019 -0.050071243 0
-1.3983804 0.78495282 0.34929234 0
-1.2334042 0.73804563 0.44788283 0
-1.2399795 0.73991519 0.58449298 0
-1.0814724 0.67431486 -0.049998634 0
-1.4149668 0.76461357 0.35119382 0
-1.2401729 0.71728539 0.4481304 0
-1.2327553 0.71527702 0.5799849 0
-1.0763264 0.65259784 -0.049623072 0
-1.4188808 0.74073571 0.35077703 0
-1.2307656 0.69233441 0.44418472 0
-1.242992 0.69548023 0.58159649 0
-1.087286 0.63507861 -0.049850579 0
-1.4129418 0.71451044 0.34858832 0
-1.2389036 0.67206019 0.4449414 0
-1.2395408 0.67221564 0.57860124 0
-1.1033973 0.61857963 -0.050274268 0
-1.4140096 0.69021082 0.34776402 0
-1.2456499 0.65138489 0.44539842 0
-1.2469224 0.65167832 0.57941341 0
-1.1007557 0.59769487 -0.05001926 0
-1.4204247 0.66718751 0.34798545 0
-1.2512634 0.63041365 0.4456265 0
-1.242643 0.62853968 0.57634145 0
-1.0989083 0.57715267 -0.049803447 0
-1.4453281 0.64790481 0.35166287 0
-1.2424752 0.60647452 0.44217265 0
-1.2380334 0.60556734 0.57326436 0
-1.1118674 0.55959266 -0.050135747 0
-1.4292932 0.62026995 0.34785929 0
-1.2343889 0.58301318 0.43898785 0
-1.2347807 0.58308804 0.57075226 0
-1.110523 0.53924346 -0.049956631 0
-1.4490696 0.59954989 0.35068822 0
-1.2319746 0.56087804 0.43735671 0
-1.2412837 0.5625363 0.57163835 0
-1.1071843 0.51868969 -0.049715016 0
-1.4465553 0.57474381 0.34948444 0
-1.2350382 0.53980738 0.43721762 0
-1.2422584 0.54099995 0.57074589 0
-1.1164758 0.50022829 -0.049939327 0
-1.4533267 0.55151778 0.350034 0
-1.2444948 0.51972067 0.43879724 0
-1.2397292 0.51899505 0.56876725 0
-1.1056079 0.47879368 -0.049444955 0
-1.4516717 0.52703571 0.34910148 0
-1.2475638 0.49858266 0.43879384 0
-1.2448034 0.49819785 0.56943929 0
-1.1164289 0.46045297 -0.049741589 0
-1.4426754 0.50175184 0.346892 0
-1.2385353 0.47591019 0.43574786 0
-1.2437872 0.47657499 0.56815577 0
-1.1221987 0.4413237 -0.049864613 0
-0.51448798 0.37215757 0.040028486 0
-0.51573986 0.37230006 0.10856918 0
-0.50459999 0.37103218 0.17610355 0
-1.2343625 0.45408949 0.43402642 0
-1.237637 0.4544622 0.56524628 0
-1.127188 0.42202514 -0.049968116 0
-0.50526553 0.35916302 0.03965155 0
-0.51238793 0.35988292 0.10806844 0
-0.5105117 0.35969326 0.17694518 0
-1.2506304 0.43450233 0.43761936 0
-1.2418375 0.43361357 0.56589478 0
-1.132334 0.40266401 -0.050085839 0
-0.46815372 0.34396878 0.038281336 0
-0.50540209 0.3472605 0.10719309 0
-0.51403588 0.3480235 0.17737947 0
-1.2406422 0.41223547 0.43454665 0
-1.2323629 0.41150382 0.56206298 0
-1.1319728 0.3827996 -0.050015002 0
-0.50654191 0.335457 0.10721147 0
-0.50313538 0.33519915 0.17523104 0
-1.2387214 0.39088005 0.43361276 0
-1.2454691 0.39139083 0.56586176 0
-1.1226434 0.36241671 -0.049632367 0
-0.51707548 0.32423949 0.10825739 0
-0.50745654 0.32363307 0.17586415 0
-1.2495186 0.37041542 0.4359996 0
-1.237311 0.3696458 0.56265342 0
-1.2298894 0.36917791 0.69567305 0
-1.1315504 0.34322029 -0.049911041 0
-0.51199555 0.31198761 0.10763774 0
-0.50956607 0.31186515 0.1761238 0
-1.2414343 0.34875968 0.43362743 0
-1.2370491 0.34853864 0.56216872 0
-1.2378534 0.34857917 0.69848216 0
-0.34332883 0.30348489 0.46671313 0
-1.1309785 0.32346576 -0.049859565 0
-0.52424765 0.30053422 0.10889897 0
-0.51271838 0.30009845 0.17659827 0
-1.2428386 0.32769355 0.43374854 0
-1.2472416 0.32785994 0.56525338 0
-1.2356402 0.32742149 0.69718069 0
-0.34598559 0.29379675 0.46803412 0
-1.1404101 0.30399641 -0.050174247 0
-0.41138279 0.28563145 0.35552627 0
-0.40796649 0.28554538 0.42667383 0
-0.37681442 0.28476062 0.48613971 0
-1.1301572 0.28405407 -0.049794819 0
-0.39542371 0.27480018 0.42029759 0
-0.38724303 0.27469715 0.49221066 0
-1.138996 0.26437625 -0.050105952 0
-0.38012385 0.26437423 0.41260964 0
-0.38840151 0.26437426 0.49285913 0
-0.89322364 -0.98929471 -0.089102097 0
-1.0148529 -0.98929507 -0.090361662 0
-1.1297085 -0.98929536 -0.084858857 0
-1.1255913 -0.98929536 -0.057351116 0
-1.1323841 -0.98929536 -0.031488929 0
-1.1254371 -0.98929536 -0.0041692313 0
-1.1283762 -0.98929536 0.022018144 0
-1.1298119 -0.98929536 0.04832704 0
-1.137388 -0.98929536 0.074502967 0
-1.1281528 -0.98929536 0.10100263 0
-1.1270581 -0.98929536 0.1272621 0
-1.120862 -0.9892953 0.15326129 0
-1.1395245 -0.98929536 0.18076745 0
-1.123683 -0.98929536 0.20601107 0
-1.1311493 -0.98929536 0.23335095 0
-1.1346097 -0.98929536 0.26062542 0
-1.133819 -0.98929536 0.28754175 0
-1.1242682 -0.98929536 0.31297743 0
-0.89755887 -1.0119728 -0.090084441 0
-1.0191978 -1.0150431 -0.091241218 0
-1.1226646 -1.0176549 -0.083760001 0
-1.1301699 -1.0178443 -0.058045212 0
-1.1252916 -1.0177212 -0.030701941 0
-1.1300697 -1.0178418 -0.0046352651 0
-1.1234134 -1.0176737 0.022340054 0
-1.1274519 -1.0177757 0.048420172 0
-1.1281173 -1.0177925 0.074710153 0
-1.1390911 -1.0180695 0.10100295 0
-1.1262007 -1.0177442 0.12725048 0
-1.1284428 -1.0178007 0.1536314 0
-1.1330646 -1.0179174 0.18034075 0
-1.1202338 -1.0175935 0.20572227 0
-1.132396 -1.0179005 0.23353894 0
-1.1296234 -1.0178305 0.25997502 0
-1.1283791 -1.0177991 0.28670654 0
-1.1271369 -1.0177678 0.31358564 0
-0.89191514 -1.0343947 -0.089065947 0
-1.0136565 -1.0405443 -0.090379961 0
-1.1287886 -1.0463599 -0.08494439 0
-1.1303537 -1.0464389 -0.058223117 0
-1.2417879 -1.0520679 -0.044460509 0
-1.2410626 -1.0520312 -0.01510956 0
-1.247541 -1.0523584 0.013576129 0
-1.2422607 -1.0520917 0.043018229 0
-1.2456656 -1.0522637 0.071948513 0
-1.2354188 -1.0517461 0.10100574 0
-1.2384044 -1.0518969 0.12989414 0
-1.2384466 -1.0518991 0.15881579 0
-1.2391765 -1.0519359 0.18785042 0
-1.2450982 -1.052235 0.21749939 0
-0.89965779 -1.057604 -0.091019638 0
-1.0167173 -1.0664828 -0.091263406 0
-1.1317132 -1.0752051 -0.085723035 0
-1.1247724 -1.0746787 -0.057690475 0
-1.2412137 -1.0835105 -0.044625226 0
-1.2430388 -1.0836489 -0.015479742 0
-1.2415396 -1.0835352 0.013857456 0
-1.2434942 -1.0836835 0.042868186 0
-1.235985 -1.0831139 0.072127931 0
-1.2324729 -1.0828476 0.10100571 0
-1.2367816 -1.0831743 0.12990235 0
-1.2404535 -1.0834528 0.15900189 0
-1.232329 -1.0828366 0.18750854 0
-1.2422611 -1.08359 0.21741955 0
-0.8941198 -1.0799488 -0.090265937 0
-1.0118428 -1.091872 -0.090770639 0
-1.1570358 -1.1065773 -0.090323798 0
-1.2382991 -1.1148077 -0.074081458 0
-1.249005 -1.1158921 -0.04586618 0
-1.2406873 -1.1150496 -0.015519632 0
-1.2416134 -1.1151434 0.013657393 0
-1.2311178 -1.1140804 0.043317333 0
-1.245716 -1.115559 0.071836002 0
-1.2336994 -1.114342 0.10100582 0
-1.2368828 -1.1146643 0.12996945 0
-1.2441354 -1.1153989 0.1593042 0
-1.2314326 -1.1141124 0.1876391 0
-1.9923002 -1.1911741 0.28809053 0
-2.0016656 -1.1921226 0.33633941 0
-1.9276567 -1.1846269 0.37350938 0
-1.4685959 -1.1381326 0.37926877 0
-0.90572864 -1.1043029 -0.093304463 0
-1.0062388 -1.117052 -0.090259261 0
-1.1587406 -1.1363961 -0.091157548 0
-1.2058966 -1.1423775 -0.069995813 0
-1.2275217 -1.1451206 -0.043758426 0
-1.2336656 -1.1458999 -0.015194712 0
-1.2382922 -1.1464868 0.013639795 0
-1.2349542 -1.1460633 0.042971134 0
-1.2526945 -1.1483136 0.071588479 0
-1.2484335 -1.1477731 0.10100635 0
-1.2383866 -1.1464988 0.13008836 0
-1.2442802 -1.1472464 0.15947913 0
-1.2277353 -1.1451477 0.18762812 0
-1.5989051 -1.1922286 0.36611417 0
-1.4756796 -1.1765981 0.38141617 0
-0.90176535 -1.1270252 -0.0931383 0
-1.0056037 -1.1428682 -0.09081351 0
-1.1521895 -1.165233 -0.090746827 0
-1.2002428 -1.1725646 -0.069795765 0
-1.6224599 -1.2369833 -0.090961374 0
-2.5594683 -1.3799447 -0.14078782 0
-3.4130666 -1.51018 -0.1404652 0
-5.130301 -1.7721822 -0.14067875 0
-10.292936 -2.5598569 -0.14113729 0
-1.3593526 -1.1968404 0.29443589 0
-1.3518283 -1.1956924 0.32595849 0
-1.3641557 -1.1975732 0.36115107 0
-0.88001567 -1.1465478 -0.089254476 0
-1.0023837 -1.1683903 -0.091000132 0
-1.1337073 -1.1918314 -0.088463657 0
-1.1960698 -1.202963 -0.069914781 0
-1.6120186 -1.2772093 -0.090525083 0
-2.5602565 -1.4464684 -0.14187442 0
-3.4072864 -1.597662 -0.14106523 0
-5.1024508 -1.9002464 -0.14037308 0
-10.241449 -2.8175502 -0.14093459 0
-1.3340821 -1.227598 0.29163659 0
-1.3216473 -1.2253784 0.32185963 0
-1.3279018 -1.2264948 0.35530147 0
-0.87744957 -1.1690702 -0.089619435 0
-0.99402839 -1.1929291 -0.090323947 0
-1.1347612 -1.2217315 -0.089558341 0
-1.1907594 -1.2331921 -0.069981016 0
-1.6092023 -1.3188304 -0.091116987 0
-2.5367982 -1.5086718 -0.14081611 0
-3.3808296 -1.6814109 -0.14035007 0
-5.0924206 -2.0317044 -0.14106585 0
-10.184598 -3.0738673 -0.14075747 0
-1.2553176 -1.2464045 0.31179863 0
-1.2388422 -1.2430327 0.33940628 0
-0.8828395 -1.1935349 -0.091845922 0
-0.98162717 -1.2163639 -0.088981085 0
-1.1346775 -1.2517327 -0.090594478 0
-1.1941803 -1.2654833 -0.071416773 0
-1.5987719 -1.3589814 -0.090924688 0
-2.5205305 -1.5719926 -0.14059047 0
-3.3774016 -1.7700089 -0.14143434 0
-5.0590687 -2.1586292 -0.14080644 0
-10.136103 -3.3318927 -0.14093271 0
-0.87157255 -1.2142656 -0.090565644 0
-0.98314559 -1.2430331 -0.09045168 0
-1.1204365 -1.2784314 -0.089362644 0
-1.3178998 -1.3293444 -0.090438865 0
-1.5944074 -1.4006377 -0.091585167 0
-1.9854029 -1.5014502 -0.090502493 0
-3.3398418 -1.8506721 -0.14022246 0
-5.0227275 -2.284579 -0.14055514 0
-10.067701 -3.5853508 -0.14078702 0
-0.86872727 -1.2370949 -0.091252752 0
-0.96650475 -1.2649544 -0.088507809 0
-1.1145393 -1.3071338 -0.089662559 0
-1.3085709 -1.3624189 -0.090390764 0
-1.5798268 -1.4397074 -0.091136254 0
-1.9758425 -1.5525434 -0.090890132 0
-3.3309326 -1.9386469 -0.141232 0
-5.0048275 -2.4155869 -0.14134811 0
-10.010247 -3.841773 -0.14105906 0
-0.85223466 -1.2558467 -0.089033954 0
-0.96688592 -1.2916654 -0.090016268 0
-1.1023591 -1.3339891 -0.089007281 0
-1.2972462 -1.3948746 -0.090170883 0
-1.5536865 -1.4749901 -0.089388646 0
-1.9639764 -1.6031704 -0.091181017 0
-3.2999463 -2.020546 -0.14079455 0
-4.959332 -2.5389614 -0.14096206 0
-9.9235878 -4.0898647 -0.1407789 0
-0.85996848 -1.2823026 -0.09234155 0
-0.9622516 -1.3171133 -0.090673424 0
-1.0857925 -1.3591588 -0.087702043 0
-1.2893279 -1.4284294 -0.090575881 0
-1.5484372 -1.5166137 -0.090314604 0
-1.930455 -1.6466284 -0.089464717 0
-3.2687402 -2.1020956 -0.14048913 0
-4.9146147 -2.6622469 -0.14076346 0
-9.8417645 -4.3391361 -0.14076824 0
-0.8451255 -1.3012856 -0.090715818 0
-0.95911962 -1.3433203 -0.091766678 0
-1.0836867 -1.3892535 -0.08902847 0
-1.2809416 -1.4619899 -0.091040872 0
-1.5329169 -1.554904 -0.090100072 0
-1.9257387 -1.6997542 -0.090706654 0
-3.2474935 -2.1871419 -0.14107564 0
-4.8713574 -2.7859304 -0.14078915 0
-9.7571106 -4.5875177 -0.14084257 0
-0.83867276 -1.3232058 -0.091102071 0
-0.95286453 -1.3686179 -0.092371337 0
-1.0759591 -1.4175706 -0.089507617 0
-1.25342 -1.4881438 -0.088744007 0
-1.5210479 -1.5945749 -0.090463601 0
-1.9061974 -1.7477423 -0.090605982 0
-3.2198381 -2.270155 -0.14134662 0
-4.8228621 -2.9076505 -0.14070831 0
-9.6591511 -4.8309612 -0.14074083 0
-0.8427453 -1.3497379 -0.09405262 0
-0.92930382 -1.3867165 -0.089568131 0
-1.0730648 -1.4481326 -0.090982862 0
-1.2481359 -1.5229249 -0.089921005 0
-1.5091866 -1.6344484 -0.090958647 0
-1.8837656 -1.7944722 -0.090333112 0
-3.1845624 -2.3501856 -0.14119968 0
-4.7721157 -3.0284045 -0.14066738 0
-9.5602751 -5.0739546 -0.14076935 0
-0.81774402 -1.3637583 -0.090397306 0
-0.92301142 -1.4119055 -0.090403043 0
-1.0557138 -1.4726011 -0.090001144 0
-1.2397085 -1.5567567 -0.090760805 0
-1.4790463 -1.6662253 -0.08923886 0
-1.8711392 -1.845561 -0.091183908 0
-3.1353338 -2.4237792 -0.14013283 0
-4.7190733 -3.1481512 -0.14066358 0
-9.4540243 -5.313827 -0.14076561 0
-0.81426638 -1.3873385 -0.091871254 0
-0.90788853 -1.4330502 -0.089529879 0
-1.0516479 -1.5032415 -0.091549344 0
-1.207761 -1.5794648 -0.088065438 0
-1.4837579 -1.714222 -0.092134304 0
-1.8501033 -1.8930923 -0.091304876 0
-3.111779 -2.5091131 -0.14119376 0
-4.6701899 -3.2700167 -0.14103086 0
-9.3397999 -5.5499825 -0.1407112 0
-0.8102724 -1.411061 -0.093382649 0
-0.90683991 -1.4612666 -0.091745548 0
-1.0343144 -1.5275409 -0.090802647 0
-1.1949095 -1.6110346 -0.088449351 0
-1.4503617 -1.7438447 -0.090206809 0
-1.8295078 -1.9409635 -0.091599189 0
-3.0586302 -2.5799866 -0.14010553 0
-4.6064863 -3.3847201 -0.14078575 0
-9.2326717 -5.7898827 -0.14099726 0
-0.79206413 -1.4273583 -0.091607921 0
-0.88867199 -1.4807234 -0.090460829 0
-1.0086542 -1.5470003 -0.088596471 0
-1.1868349 -1.6454254 -0.089732684 0
-1.4234753 -1.7761431 -0.089220591 0
-1.7947556 -1.9812343 -0.090516008 0
-3.0273147 -2.6620867 -0.14088768 0
-4.5374441 -3.4962659 -0.14040619 0
-9.1044302 -6.0190201 -0.14088628 0
-0.78233916 -1.4481536 -0.091997229 0
-0.88033706 -1.5055604 -0.091409855 0
-0.99952692 -1.5753813 -0.089599438 0
-1.181743 -1.6821226 -0.091661267 0
-1.4155523 -1.819087 -0.09089794 0
-1.7687137 -2.0259671 -0.090468131 0
-2.9896474 -2.7411845 -0.14133354 0
-4.4822621 -3.6155512 -0.14091966 0
-8.9695864 -6.2442045 -0.14075047 0
-0.76460207 -1.4641058 -0.090518944 0
-0.87066478 -1.5298864 -0.092215337 0
-0.99761152 -1.6086192 -0.092150442 0
-1.147637 -1.7016656 -0.08897423 0
-1.3873684 -1.8503481 -0.089963265 0
-1.7431954 -2.0710332 -0.090600081 0
-2.9342806 -2.8097491 -0.14049341 0
-4.4099178 -3.7249453 -0.1406647 0
-8.8368368 -6.4705381 -0.14082414 0
-0.74443376 -1.4780616 -0.088499554 0
-0.84651113 -1.5449945 -0.089909755 0
-0.9734174 -1.6282078 -0.090529047 0
-1.1363187 -1.7350233 -0.090154164 0
-1.3730702 -1.890263 -0.091063015 0
-1.7146384 -2.1142316 -0.09052103 0
-2.8947818 -2.8880599 -0.1411093 0
-4.3490934 -3.8416622 -0.14119928 0
-8.6917162 -6.6891508 -0.14071266 0
-0.73940581 -1.5019351 -0.090449356 0
-0.82632273 -1.5621169 -0.088558622 0
-0.96463877 -1.6578876 -0.092058711 0
-1.1218014 -1.7667078 -0.09095078 0
-1.3450204 -1.9212657 -0.090369307 0
-1.6940824 -2.1629579 -0.09147168 0
-2.8405399 -2.9567704 -0.14064908 0
-4.2727771 -3.9484587 -0.14103149 0
-8.5485449 -6.9090214 -0.14080907 0
-0.72436053 -1.5190829 -0.089955784 0
-0.81426543 -1.5847502 -0.089178823 0
-0.94135672 -1.6775787 -0.090816133 0
-1.0967516 -1.7910804 -0.090067141 0
-1.3226233 -1.956059 -0.090593047 0
-1.6653342 -2.2063777 -0.091633983 0
-2.7932076 -3.0301857 -0.14092731 0
-4.1895509 -4.0500865 -0.14061622 0
-8.39993 -7.1253824 -0.1409089 0
-0.7203089 -1.5445642 -0.092516638 0
-0.80848813 -1.6124481 -0.09143845 0
-0.92362499 -1.701085 -0.090802528 0
-1.0778102 -1.8197827 -0.090357639 0
-1.2915373 -1.9843183 -0.089667939 0
-1.630716 -2.2454312 -0.091235884 0
-2.736388 -3.0966208 -0.14053591 0
-4.1186585 -4.1607461 -0.14106676 0
-8.241683 -7.3348117 -0.14088678 0
-0.69726515 -1.5554476 -0.090107344 0
-0.78505862 -1.6266334 -0.089632161 0
-0.91541159 -1.7323278 -0.092926912 0
-1.0558927 -1.8462344 -0.090245478 0
-1.2761325 -2.024812 -0.091189466 0
-1.5979463 -2.2857492 -0.091168992 0
-2.6900985 -3.1713016 -0.14123359 0
-4.0311775 -4.2586923 -0.14069813 0
-8.0757637 -7.5381746 -0.14079127 0
-0.68632293 -1.5759273 -0.091103561 0
-0.76536077 -1.6433891 -0.088798411 0
-0.88649076 -1.7467782 -0.090791725 0
-1.0407002 -1.8784021 -0.091495506 0
-1.2464004 -2.0539751 -0.090698011 0
-1.5615247 -2.3229461 -0.090776108 0
-2.6261106 -3.2316115 -0.14049123 0
-3.9533167 -4.3644333 -0.14106004 0
-7.9051733 -7.7374964 -0.14070614 0
-0.66967708 -1.5916215 -0.090639077 0
-0.76775467 -1.6797075 -0.093644328 0
-0.86539835 -1.7674038 -0.090416677 0
-1.0145904 -1.9013971 -0.090863638 0
-1.2211125 -2.08688 -0.091007821 0
-1.5294567 -2.363812 -0.091036908 0
-2.5767241 -3.3043895 -0.14124537 0
-3.8587277 -4.45579 -0.14054868 0
-7.739634 -7.9413314 -0.14093244 0
-0.6495986 -1.6039412 -0.089274161 0
-0.73777276 -1.6872463 -0.090452679 0
-0.84781277 -1.7912101 -0.090941839 0
-0.9930324 -1.9284109 -0.091207497 0
-1.1878519 -2.1124725 -0.090175219 0
-1.4902965 -2.3982165 -0.090524219 0
-1.9884642 -2.8688757 -0.090365715 0
-3.7791352 -4.5606675 -0.14113148 0
-7.5580425 -8.1309071 -0.14081344 0
-0.6398108 -1.6260504 -0.091050424 0
-0.72234935 -1.70807 -0.091095753 0
-0.82323033 -1.8083171 -0.089996733 0
-0.96323669 -1.9474435 -0.090061478 0
-1.1627123 -2.1456656 -0.090764724 0
-1.4578407 -2.4389393 -0.090993665 0
-1.9378186 -2.9159007 -0.090110607 0
-3.6874754 -4.6545615 -0.14110869 0
-7.3794756 -8.3233585 -0.14094552 0
-0.61249632 -1.6304719 -0.087654553 0
-0.69684869 -1.7186342 -0.089151852 0
-0.80050755 -1.8269751 -0.089569844 0
-0.94801122 -1.9811412 -0.091943182 0
-1.1312436 -2.1726499 -0.090439819 0
-1.4233108 -2.4779088 -0.091332622 0
-1.8867919 -2.9623244 -0.089928649 0
-3.5890815 -4.7415023 -0.14078939 0
-7.1926761 -8.507863 -0.14096555 0
-0.60489267 -1.6553872 -0.090424784 0
-0.68884605 -1.7476863 -0.092125036 0
-0.77828515 -1.8460163 -0.089366712 0
-0.91512936 -1.9964639 -0.090365387 0
-1.0993981 -2.1990504 -0.090157099 0
-1.381178 -2.5088415 -0.090761088 0
-1.8465223 -3.0204446 -0.090979345 0
-3.4965055 -4.8344488 -0.14101347 0
-6.9918618 -8.6772709 -0.14066066 0
-0.58670408 -1.6690859 -0.090038173 0
-0.66935939 -1.7646968 -0.092086993 0
-0.75581777 -1.8647071 -0.089215092 0
-0.8909564 -2.0210278 -0.090694286 0
-1.0710826 -2.229388 -0.090614267 0
-1.3461429 -2.5475624 -0.091295533 0
-1.7915231 -3.0627532 -0.090641223 0
-3.3958066 -4.9184985 -0.14083064 0
-6.8049631 -8.8620205 -0.14099139 0
-0.56838214 -1.6825002 -0.089708962 0
-0.64461756 -1.7753191 -0.090613835 0
-0.73141605 -1.8809988 -0.088678248 0
-0.86340326 -2.041697 -0.090420283 0
-1.0408235 -2.2577114 -0.090866707 0
-1.3001947 -2.5735035 -0.090383358 0
-1.7425494 -3.1120832 -0.091072164 0
-3.296978 -5.0046449 -0.14093263 0
-6.598917 -9.0248508 -0.14079933 0
-0.55095285 -1.6969557 -0.089792691 0
-0.6266697 -1.7940373 -0.091253884 0
-0.71215552 -1.9036446 -0.08960589 0
-0.84820884 -2.0780878 -0.093078785 0
-1.0075816 -2.2824304 -0.090694375 0
-1.2603018 -2.6064603 -0.090458103 0
-1.6924582 -3.1605575 -0.091529571 0
-3.1940253 -5.0858183 -0.14088786 0
-6.397613 -9.1933565 -0.14093325 0
-0.53746897 -1.7167994 -0.091417305 0
-0.60107809 -1.8027437 -0.089643233 0
-0.7014991 -1.9384255 -0.093098052 0
-0.81395334 -2.0903659 -0.091540046 0
-0.97487563 -2.3077929 -0.09074197 0
-1.2261785 -2.647336 -0.091569103 0
-1.6307391 -3.1939502 -0.090777852 0
-3.0928771 -5.1694894 -0.14114051 0
-6.1853776 -9.3478613 -0.14080811 0
-0.51598871 -1.7259452 -0.090324543 0
-0.58140826 -1.8191656 -0.089986198 0
-0.67798048 -1.9567773 -0.093284748 0
-0.78303707 -2.1064792 -0.090836503 0
-0.93248737 -2.3194401 -0.088949405 0
-1.1787275 -2.6703231 -0.090719886 0
-1.5749345 -3.2349033 -0.090819307 0
-2.9877713 -5.2481422 -0.14124987 0
-5.9762106 -9.5065565 -0.14095776 0
-0.49816111 -1.7401433 -0.090679117 0
-0.56399024 -1.8391703 -0.091247045 0
-0.65189087 -1.9713995 -0.092850469 0
-0.75306821 -2.1236007 -0.090447716 0
-0.90963918 -2.3591311 -0.091273747 0
-1.1363419 -2.700161 -0.090788014 0
-1.5157598 -3.2709205 -0.090564974 0
-2.8735056 -5.3133817 -0.14075714 0
-5.7583008 -9.6529884 -0.14091122 0
-0.47834527 -1.7513655 -0.090394773 0
-0.53773606 -1.8457913 -0.089608707 0
-0.61926645 -1.975417 -0.090492956 0
-0.72078866 -2.1368277 -0.089545034 0
-0.87611067 -2.3837752 -0.09156435 0
-1.0941943 -2.7305079 -0.091030173 0
-1.4528161 -3.3006833 -0.089922465 0
-2.765609 -5.3879008 -0.14094247 0
-5.5411458 -9.800745 -0.14105411 0
-0.46153551 -1.7675422 -0.091464333 0
-0.51870477 -1.8637391 -0.090622775 0
-0.59757811 -1.9964566 -0.091583528 0
-0.69504374 -2.1604588 -0.09049084 0
-0.83099329 -2.3892167 -0.089355834 0
-1.0423403 -2.7448432 -0.0896466 0
-1.4008408 -3.3480802 -0.090853818 0
-2.6527886 -5.4546914 -0.14085513 0
-5.3126955 -9.9304285 -0.14085549 0
-0.44099823 -1.7776191 -0.091136582 0
-0.49659246 -1.8767802 -0.090667553 0
-0.56518513 -1.9991258 -0.08930134 0
-0.66308773 -2.1737502 -0.089862995 0
-0.79807061 -2.4145133 -0.089992411 0
-1.0057609 -2.7849615 -0.091182522 0
-1.3386035 -3.378638 -0.090528391 0
-2.5387955 -5.5193667 -0.14080924 0
-5.0799708 -10.05195 -0.14059688 0
-0.41977495 -1.7862611 -0.090593733 0
-0.47801584 -1.896579 -0.092270784 0
-0.54474622 -2.0229774 -0.091139071 0
-0.63659835 -2.1969604 -0.090948783 0
-0.758542 -2.427942 -0.089162685 0
-0.95897806 -2.8076012 -0.090951405 0
-1.2816614 -3.418817 -0.091092877 0
-1.9207982 -4.6294479 -0.090662621 0
-4.8535509 -10.184567 -0.14078896 0
-0.40000573 -1.7975768 -0.090819992 0
-0.44858256 -1.8954966 -0.089562945 0
-0.51737082 -2.034158 -0.090724595 0
-0.60133588 -2.2034125 -0.089497648 0
-0.72603399 -2.4547756 -0.090223126 0
-0.90875649 -2.8231025 -0.090103231 0
-1.2178221 -3.4461086 -0.090757541 0
-1.8266934 -4.6734548 -0.090489961 0
-4.6215162 -10.307182 -0.14086832 0
-0.38112167 -1.8109577 -0.091645397 0
-0.42889562 -1.9136916 -0.091046207 0
-0.48904645 -2.043041 -0.090024434 0
-0.572514 -2.2225308 -0.090165325 0
-0.68741435 -2.4696145 -0.089831583 0
-0.86557913 -2.8527429 -0.090851687 0
-1.1534512 -3.4717879 -0.090426795 0
-1.7354887 -4.7234106 -0.090747438 0
-4.3853669 -10.421753 -0.14089157 0
-0.3579219 -1.8149382 -0.090394132 0
-0.40191895 -1.916154 -0.089384846 0
-0.45916918 -2.047859 -0.08873231 0
-0.53994089 -2.2336755 -0.089715965 0
-0.64557099 -2.4766791 -0.0885785 0
-0.82161045 -2.8816605 -0.091629945 0
-1.0961592 -3.5132639 -0.091428362 0
-1.6455351 -4.7771111 -0.091309704 0
-4.1439605 -10.524775 -0.14077377 0
-0.33684525 -1.8234082 -0.090320207 0
-0.38147107 -1.9335946 -0.090923227 0
-0.43558627 -2.0672114 -0.090164967 0
-0.50851417 -2.2472789 -0.089769296 0
-0.61730504 -2.5158963 -0.091526307 0
-0.76756996 -2.8869181 -0.090129994 0
-1.0284706 -3.5311127 -0.090747304 0
-1.5413789 -4.797543 -0.09030991 0
-3.9031458 -10.629022 -0.14084154 0
-0.31665462 -1.8342265 -0.090901621 0
-0.35828459 -1.9449676 -0.091330536 0
-0.40859851 -2.0788093 -0.090327583 0
-0.47302434 -2.2501903 -0.08833655 0
-0.57575816 -2.5234756 -0.090585582 0
-0.72002304 -2.907239 -0.090282954 0
-0.96351439 -3.5549579 -0.090648763 0
-1.4448643 -4.8354115 -0.090318151 0
-3.6554539 -10.715868 -0.14062819 0
-0.29526594 -1.8420608 -0.090921663 0
-0.33073273 -1.9441568 -0.089422144 0
-0.37942305 -2.0843186 -0.089548536 0
-0.44527641 -2.2738867 -0.090142392 0
-0.53802198 -2.5408676 -0.090997435 0
-0.67180979 -2.9259944 -0.090399005 0
-0.89815146 -3.5775502 -0.090580232 0
-1.3500986 -4.8785429 -0.090706296 0
-3.4123011 -10.814878 -0.14087066 0
-0.27467498 -1.8524562 -0.091634028 0
-0.31015292 -1.9635513 -0.091662161 0
-0.35552695 -2.1056349 -0.091630436 0
-0.41472977 -2.2910216 -0.091069557 0
-0.49644032 -2.5468888 -0.09012828 0
-0.62304437 -2.9433348 -0.090495236 0
-0.8282249 -3.5858343 -0.089583792 0
-1.2543627 -4.9202356 -0.09113843 0
-3.1632986 -10.897849 -0.14087014 0
-0.25166783 -1.8552258 -0.090768151 0
-0.28320158 -1.963308 -0.09013509 0
-0.32341653 -2.1011453 -0.089382671 0
-0.37822479 -2.289001 -0.089298941 0
-0.46030447 -2.5703301 -0.091514595 0
-0.57429665 -2.9610393 -0.090746291 0
-0.76888388 -3.6279895 -0.091190316 0
-1.1543794 -4.9492793 -0.091071583 0
-2.9115584 -10.97203 -0.14080952 0
-0.23003389 -1.8624389 -0.091013186 0
-0.25974739 -1.9747477 -0.091027357 0
-0.29578346 -2.110954 -0.08971896 0
-0.34547219 -2.2987635 -0.089387424 0
-0.41846561 -2.5746584 -0.090691678 0
-0.52289516 -2.9693732 -0.090210117 0
-0.70041293 -3.640341 -0.0907396 0
-1.0516547 -4.9679375 -0.090627007 0
-2.659555 -11.045353 -0.14088205 0
-0.20678569 -1.8631763 -0.089961566 0
-0.23412481 -1.9781706 -0.090477221 0
-0.26850039 -2.1227617 -0.090509124 0
-0.3129696 -2.309809 -0.089780502 0
-0.37794292 -2.5831013 -0.090495221 0
-0.47475189 -2.9903009 -0.09101031 0
-0.63021129 -3.6441975 -0.0898057 0
-0.94428408 -4.9652562 -0.089288421 0
-2.4037387 -11.104043 -0.14075691 0
-0.18494169 -1.8694234 -0.090240367 0
-0.20732129 -1.975369 -0.088856585 0
-0.23814656 -2.1212966 -0.089181535 0
-0.27894893 -2.3144562 -0.089370631 0
-0.33744317 -2.5913694 -0.090401478 0
-0.4237698 -3.000042 -0.090855293 0
-0.56585711 -3.6726871 -0.090763845 0
-0.84357512 -4.9874115 -0.089268021 0
-2.1485603 -11.165245 -0.140846 0
-0.16168533 -1.8684798 -0.089082934 0
-0.18437113 -1.9910983 -0.090922929 0
-0.20775241 -2.1174757 -0.08759474 0
-0.24626133 -2.3256195 -0.090016969 0
-0.29766762 -2.6034744 -0.09088596 0
-0.37036538 -2.9964111 -0.089554109 0
-0.49714509 -3.6816652 -0.090446092 0
-0.94245791 -6.0886145 -0.14045556 0
-1.8928097 -11.225339 -0.14106113 0
-0.13943812 -1.8722243 -0.089065783 0
-0.16055278 -2.0049961 -0.092742436 0
-0.18156599 -2.13713 -0.090048872 0
-0.21171135 -2.3266881 -0.089341901 0
-0.25793824 -2.6173689 -0.091699384 0
-0.32029679 -3.0094879 -0.089964919 0
-0.43010157 -3.6999552 -0.090911813 0
-0.81482148 -6.1191254 -0.14084825 0
-1.6319139 -11.257113 -0.14076097 0
-0.11791115 -1.8814515 -0.090345047 0
-0.13377027 -2.0004642 -0.091168337 0
-0.15140626 -2.1328111 -0.08862973 0
-0.17922759 -2.3415926 -0.090754546 0
-0.21568479 -2.6151805 -0.090732224 0
-0.26923397 -3.0170331 -0.089972667 0
-0.36145607 -3.7091012 -0.090850629 0
-0.68462574 -6.1342835 -0.14067015 0
-1.3723985 -11.295581 -0.14077358 0
-0.095390618 -1.8844213 -0.090399407 0
-0.10799623 -2.0015142 -0.090784214 0
-0.12381341 -2.1484394 -0.090637751 0
-0.14514019 -2.3465428 -0.090872459 0
-0.17577767 -2.6311333 -0.09202572 0
-0.21658909 -3.0102286 -0.088754438 0
-0.29329267 -3.7227247 -0.091226451 0
-0.55485713 -6.1523852 -0.14078446 0
-1.1123997 -11.331374 -0.14087701 0
-0.073013559 -1.8894706 -0.09101852 0
-0.082155034 -2.0006912 -0.090169929 0
-0.094028369 -2.1451488 -0.08963678 0
-0.11024845 -2.3424919 -0.089842312 0
-0.13284661 -2.617434 -0.089957573 0
-0.16641387 -3.0258329 -0.089761995 0
-0.22372264 -3.7230842 -0.090791903 0
-0.42465797 -6.167779 -0.14092521 0
-0.85097861 -11.354642 -0.14084128 0
-0.050184477 -1.8894119 -0.090669595 0
-0.057183281 -2.0125535 -0.092072867 0
-0.064510494 -2.1414731 -0.088697664 0
-0.076190285 -2.3469748 -0.090138979 0
-0.080696613 -2.4262621 -0.067244045 0
-0.080530986 -2.4233479 -0.033100862 0
-0.081169017 -2.4345739 -0.00023147254 0
-0.081269875 -2.4363484 0.033494484 0
-0.080768853 -2.4275331 0.06747669 0
-0.080705613 -2.4264205 0.10101149 0
-0.027653413 -1.8966321 -0.091991521 0
-0.031074338 -2.0050566 -0.090445019 0
-0.035883196 -2.1574709 -0.091116898 0
-0.040703576 -2.3102505 -0.084762417 0
-0.040769462 -2.3123388 -0.053735364 0
-0.040752161 -2.3117905 -0.02253346 0
-0.040609106 -2.3072565 0.0087864269 0
-0.040703848 -2.3102591 0.03944264 0
-0.040708289 -2.3104 0.070238769 0
-0.04054958 -2.3053699 0.10100799 0
-0.0047049019 -1.88972 -0.090430088 0
-0.0054398328 -2.006243 -0.090577073 0
-0.0063038487 -2.1432323 -0.088684984 0
-0.0067657917 -2.2164733 -0.071494512 0
-0.006733702 -2.2113855 -0.041862506 0
-0.0066735926 -2.2018552 -0.012212893 0
-0.0066617858 -2.1999834 0.016330006 0
-0.0066320854 -2.1952741 0.044825211 0
-0.0067186533 -2.2089996 0.072611094 0
-0.0067315851 -2.21105 0.10100528 0
0.01791878 -1.8844631 -0.089342959 0
0.020272002 -2.0087824 -0.091085963 0
0.022953145 -2.1504257 -0.08989764 0
0.023972442 -2.2042747 -0.069807343 0
0.024006661 -2.2060826 -0.041265357 0
0.024007998 -2.2061532 -0.01263216 0
0.023820905 -2.196269 0.016576225 0
0.023888368 -2.1998332 0.044603996 0
0.023897449 -2.2003129 0.072808586 0
0.024058094 -2.2087996 0.10100522 0
0.040635686 -1.8868343 -0.089999087 0
0.04571934 -2.0018778 -0.089937203 0
0.051614769 -2.1352921 -0.087559991 0
0.054345381 -2.1970859 -0.068932123 0
0.054278769 -2.1955786 -0.040149827 0
0.054541983 -2.201535 -0.012291176 0
0.053864114 -2.1861949 0.017213972 0
0.054980349 -2.2114553 0.044017501 0
0.054561183 -2.2019696 0.072747596 0
0.054324716 -2.1966183 0.1010049 0
0.063470379 -1.8884463 -0.090616696 0
0.071524322 -2.0043213 -0.09067256 0
0.081346072 -2.1456304 -0.089533828 0
0.085122563 -2.199964 -0.069581427 0
0.085165463 -2.2005813 -0.040938485 0
0.085126579 -2.2000217 -0.01231215 0
0.085239105 -2.2016408 0.016011337 0
0.085997567 -2.212553 0.043884527 0
0.085455917 -2.2047601 0.072642051 0
0.084668927 -2.1934373 0.10100485 0
0.086921871 -1.8948526 -0.092382334 0
0.09663216 -1.9971621 -0.089715965 0
0.11065137 -2.144871 -0.089804016 0
0.11611667 -2.2024546 -0.070287146 0
0.11574879 -2.1985786 -0.040998016 0
0.11503708 -2.1910799 -0.011708973 0
0.11637843 -2.2052126 0.015584106 0
0.11523715 -2.1931877 0.044671591 0
0.11624113 -2.2037659 0.072606452 0
0.11574888 -2.1985795 0.10100508 0
0.10897986 -1.8860621 -0.091026314 0
0.12222662 -1.9960499 -0.090023704 0
0.13950661 -2.1395254 -0.089438103 0
0.14577278 -2.1915534 -0.069209971 0
0.14659928 -2.1984158 -0.041365076 0
0.14702284 -2.2019327 -0.013035847 0
0.14614698 -2.1946604 0.016094843 0
0.14742708 -2.2052889 0.043950994 0
0.14718576 -2.2032855 0.072540544 0
0.14688437 -2.2007828 0.10100523 0
0.1313367 -1.8814422 -0.090680592 0
0.14775185 -1.9937812 -0.090235211 0
0.16722047 -2.1270168 -0.08800184 0
0.17616549 -2.1882329 -0.069311611 0
0.17827967 -2.2027016 -0.042350743 0
0.1792213 -2.2091458 -0.014100282 0
0.1776557 -2.1984313 0.015542516 0
0.17843479 -2.2037632 0.043830719 0
0.17834465 -2.2031465 0.072448045 0
0.17761445 -2.1981492 0.10100527 0
0.15358676 -1.8766 -0.090406902 0
0.17403078 -1.9954642 -0.091325738 0
0.19836147 -2.1369257 -0.090414204 0
0.21043785 -2.2071393 -0.072692357 0
0.20919113 -2.1998906 -0.042593721 0
0.20954049 -2.2019219 -0.01387882 0
0.20955868 -2.2020276 0.014943885 0
0.20881875 -2.1977255 0.043886151 0
0.20868075 -2.1969233 0.072480164 0
0.20767051 -2.1910496 0.10100521 0
0.17635311 -1.874624 -0.090874307 0
0.19876376 -1.9877555 -0.090745486 0
0.22712372 -2.1309197 -0.090303563 0
0.24188352 -2.2054288 -0.073260002 0
0.24166064 -2.2043035 -0.043791343 0
0.24081017 -2.2000103 -0.014234407 0
0.23913939 -2.191576 0.015286164 0
0.24221452 -2.2070997 0.043174122 0
0.24063556 -2.1991289 0.072294556 0
0.24138269 -2.2029004 0.10100572 0
0.19874942 -1.8704268 -0.090985306 0
0.22119319 -1.9704189 -0.088423587 0
0.254417 -2.1184387 -0.089223616 0
0.27508134 -2.2105031 -0.074922122 0
0.27230343 -2.198127 -0.043825243 0
0.27390549 -2.2052646 -0.015352784 0
0.27346653 -2.2033088 0.013987551 0
0.2722438 -2.1978614 0.043305993 0
0.27180332 -2.1958988 0.072218254 0
0.27108464 -2.192697 0.10100561 0
0.22072648 -1.8643922 -0.090817861 0
0.24832729 -1.9743043 -0.090317823 0
0.28426516 -2.1174166 -0.090194888 0
0.30608529 -2.204309 -0.07508304 0
0.30546549 -2.2018409 -0.04514407 0
0.30687165 -2.2074404 -0.016262172 0
0.30472812 -2.1989045 0.013781594 0
0.30499724 -2.1999762 0.042857487 0
0.30203986 -2.1881993 0.072229818 0
0.30299836 -2.1920161 0.1010058 0
0.24073645 -1.8513789 -0.089231528 0
0.27243942 -1.9653698 -0.089852534 0
0.3101325 -2.1008987 -0.088657714 0
0.33815223 -2.2016461 -0.075873978 0
0.33778006 -2.2003081 -0.045936931 0
0.33731416 -2.1986327 -0.016194193 0
0.33585075 -2.1933708 0.013599062 0
0.33803666 -2.2012305 0.04240758 0
0.33684123 -2.1969323 0.071826532 0
0.33494183 -2.1901028 0.10100598 0
0.26130611 -1.8414371 -0.088427387 0
0.29624838 -1.9558138 -0.089380644 0
0.34076902 -2.1015432 -0.09016975 0
0.37200856 -2.2037997 -0.077497266 0
0.3731364 -2.2074914 -0.047900397 0
0.37024829 -2.1980376 -0.017001925 0
0.37205824 -2.2039623 0.012179198 0
0.37237525 -2.2049999 0.041791331 0
0.3682023 -2.1913407 0.071747109 0
0.37239683 -2.2050705 0.10100669 0
0.28716838 -1.8479325 -0.091415219 0
0.324092 -1.9587107 -0.091496013 0
0.36749941 -2.0889416 -0.089533262 0
0.43285683 -2.285027 -0.090973981 0
0.51552027 -2.5330338 -0.089210011 0
0.64885831 -2.933075 -0.090275846 0
0.87021476 -3.5971889 -0.091206841 0
1.3062627 -4.9054203 -0.091204129 0
3.2908847 -10.859686 -0.1409328 0
0.3085109 -1.8398 -0.091271006 0
0.34807006 -1.9492029 -0.091286384 0
0.39558363 -2.0806038 -0.089753501 0
0.46290791 -2.2667925 -0.089939095 0
0.55872762 -2.5317867 -0.090729542 0
0.6976108 -2.915875 -0.090252586 0
0.93364209 -3.5686309 -0.090775974 0
1.4040426 -4.8695464 -0.091120295 0
3.5371137 -10.76866 -0.14081223 0
0.32878724 -1.8289909 -0.090636887 0
0.36973605 -1.933882 -0.090021096 0
0.42806289 -2.083287 -0.092044808 0
0.49463952 -2.2538242 -0.089802317 0
0.60257155 -2.5302939 -0.09236946 0
0.7484386 -2.903935 -0.090878852 0
0.99907213 -3.5459371 -0.090900503 0
1.4994507 -4.8276649 -0.090858154 0
3.7798038 -10.668828 -0.14062507 0
0.35405225 -1.8304175 -0.092934094 0
0.39309418 -1.9234257 -0.0898472 0
0.4560121 -2.0733128 -0.092249744 0
0.52543879 -2.2387054 -0.089457773 0
0.62970048 -2.4870844 -0.088878684 0
0.79620421 -2.8837402 -0.090805359 0
1.0661379 -3.5267935 -0.091420107 0
1.597887 -4.7935605 -0.091106825 0
4.0264888 -10.579132 -0.14084518 0
0.36863333 -1.8067251 -0.089550801 0
0.42720813 -1.936957 -0.094746463 0
0.48181692 -2.0583711 -0.091688313 0
0.55662489 -2.224695 -0.089399226 0
0.66982079 -2.4763684 -0.089599453 0
0.84744698 -2.8712928 -0.091646664 0
1.1212897 -3.4801393 -0.089965872 0
1.6861736 -4.7360706 -0.090290748 0
4.2631378 -10.465549 -0.14061671 0
0.39196953 -1.8030757 -0.090939157 0
0.44735178 -1.9183434 -0.093167193 0
0.50594133 -2.0402865 -0.09066502 0
0.59065169 -2.2165954 -0.090383537 0
0.70866251 -2.4622128 -0.090013497 0
0.89817518 -2.856648 -0.092403822 0
1.1898887 -3.4637947 -0.090952046 0
1.7888299 -4.7103786 -0.091221459 0
4.5036416 -10.36075 -0.14076519 0
0.41733935 -1.802644 -0.09325368 0
0.46921167 -1.9039744 -0.092572458 0
0.53199726 -2.0266235 -0.09055651 0
0.61913443 -2.1968422 -0.089675568 0
0.74395299 -2.4406698 -0.089590944 0
0.93834257 -2.8204019 -0.091039144 0
1.2532663 -3.4355919 -0.091154881 0
1.8799663 -4.6598239 -0.090998627 0
4.7409987 -10.24873 -0.14088455 0
0.43015581 -1.7779642 -0.089886136 0
0.48830208 -1.8848147 -0.091059767 0
0.56029177 -2.0171041 -0.091344111 0
0.65090358 -2.1836143 -0.090116076 0
0.7808665 -2.4224365 -0.089720629 0
0.98504913 -2.797646 -0.091196187 0
1.313658 -3.4015038 -0.091018535 0
1.9700816 -4.6077595 -0.090813808 0
4.9717402 -10.123662 -0.14081772 0
0.45462987 -1.7750453 -0.091889195 0
0.51084763 -1.8724172 -0.091099627 0
0.58307832 -1.9975241 -0.090368487 0
0.68557346 -2.1750505 -0.091449164 0
0.8198238 -2.4075785 -0.090432622 0
1.0272425 -2.7668374 -0.09061376 0
1.3712174 -3.362618 -0.090615131 0
2.5995064 -5.4900727 -0.14097677 0
5.2043447 -10.001776 -0.1409906 0
0.47095138 -1.7578554 -0.090520434 0
0.5291521 -1.8530321 -0.089722134 0
0.6036061 -1.9747883 -0.088879786 0
0.70966846 -2.1482341 -0.089939289 0
0.8543855 -2.3848927 -0.090217017 0
1.0727344 -2.7419629 -0.090787195 0
1.4305793 -3.3271542 -0.090603985 0
2.7127047 -5.4238391 -0.14101839 0
5.4295864 -9.8668108 -0.14096852 0
0.49351192 -1.7508841 -0.091819383 0
0.5543766 -1.8449968 -0.090970643 0
0.63883781 -1.9755958 -0.092075266 0
0.74052209 -2.1328261 -0.090414949 0
0.89242595 -2.3677092 -0.090884142 0
1.1181209 -2.7166922 -0.091046073 0
1.4833864 -3.2814882 -0.089867078 0
2.8239069 -5.3542824 -0.1410336 0
5.6471562 -9.7197628 -0.14076771 0
0.51293164 -1.7387426 -0.091955356 0
0.57558662 -1.8304627 -0.090902485 0
0.65882611 -1.9523163 -0.090707548 0
0.75975955 -2.1000719 -0.088078059 0
0.91654998 -2.3295963 -0.08873529 0
1.1582136 -2.6833656 -0.090527214 0
1.548486 -3.2546821 -0.090826012 0
2.9327521 -5.2810979 -0.14100149 0
5.8665986 -9.5759325 -0.14080735 0
0.52524811 -1.716666 -0.089617901 0
0.5946036 -1.8128893 -0.090250634 0
0.68024957 -1.9317139 -0.089958437 0
0.79715395 -2.0939062 -0.090387754 0
0.95771384 -2.3166656 -0.090262003 0
1.2002599 -2.6531723 -0.090474777 0
1.609265 -3.220623 -0.091317825 0
3.0349216 -5.1985683 -0.14058879 0
6.0804596 -9.4239244 -0.1407707 0
0.54828066 -1.7095857 -0.091320895 0
0.61843747 -1.801917 -0.091260172 0
0.71288007 -1.9262099 -0.092421941 0
0.81987059 -2.0670168 -0.089249469 0
0.98635608 -2.2861233 -0.089384176 0
1.24341 -2.624424 -0.090714 0
1.6572449 -3.1690595 -0.090415753 0
3.1442099 -5.126009 -0.14090043 0
6.303977 -9.284482 -0.14125642 0
0.56601995 -1.6952223 -0.091232397 0
0.63669837 -1.7835231 -0.090643533 0
0.72290856 -1.8912282 -0.08890184 0
0.85019696 -2.0502536 -0.090012975 0
1.025196 -2.2688856 -0.09058737 0
1.2859589 -2.5946651 -0.090966202 0
1.7109765 -3.1256533 -0.090333097 0
3.2463305 -5.0438209 -0.14080715 0
6.5010767 -9.1100798 -0.14087729 0
0.577088 -1.6729523 -0.089067392 0
0.65905476 -1.7702202 -0.091379963 0
0.74977148 -1.8778714 -0.090007715 0
0.88008714 -2.0325139 -0.090752609 0
1.0527264 -2.2373805 -0.089784123 0
1.3342488 -2.571456 -0.09215308 0
1.7670853 -3.0850923 -0.090631507 0
3.3522942 -4.9662204 -0.1411465 0
6.7040172 -8.9436274 -0.14088143 0
0.60063815 -1.6655107 -0.091144733 0
0.67882556 -1.7536796 -0.091458537 0
0.76956213 -1.8559998 -0.089415528 0
0.91138518 -2.0159283 -0.091865979 0
1.0928332 -2.22054 -0.091360845 0
1.3568126 -2.5182199 -0.089771159 0
1.8145655 -3.0344105 -0.090121888 0
3.4474032 -4.8756995 -0.14085418 0
6.9044838 -8.7741184 -0.14094818 0
0.60998136 -1.6420963 -0.088799097 0
0.69595438 -1.7342522 -0.090922423 0
0.79465801 -1.840054 -0.090252198 0
0.93513119 -1.9906294 -0.091481306 0
1.1115476 -2.1797328 -0.089304276 0
1.4003559 -2.4893107 -0.090509869 0
1.86388 -2.9861693 -0.089946814 0
3.541343 -4.7842674 -0.14064802 0
7.0975986 -8.5962715 -0.14091048 0
0.63245934 -1.6328422 -0.090681069 0
0.71774805 -1.7197603 -0.091788061 0
0.8196891 -1.8236489 -0.091148175 0
0.96216607 -1.968848 -0.091896169 0
1.138858 -2.1489155 -0.088908456 0
1.441449 -2.4572878 -0.091001846 0
1.9138137 -2.9386771 -0.089961134 0
3.6423011 -4.7001877 -0.14106905 0
7.2820325 -8.4094572 -0.14073659 0
0.64562052 -1.6139184 -0.089830078 0
0.73678732 -1.7022539 -0.09200757 0
0.84376478 -1.805909 -0.091899879 0
0.98048365 -1.9383819 -0.090704136 0
1.1761807 -2.1280015 -0.09027978 0
1.4723995 -2.4150207 -0.090270124 0
1.9642988 -2.8916435 -0.090146996 0
3.7225969 -4.5953355 -0.14027986 0
7.4705138 -8.2268572 -0.14085253 0
0.65926939 -1.5956988 -0.089279287 0
0.74694669 -1.6764653 -0.090062581 0
0.85870433 -1.7794138 -0.090694062 0
1.0027205 -1.9120781 -0.090437047 0
1.2082345 -2.101393 -0.090867274 0
1.5073363 -2.3769188 -0.090198137 0
2.5392463 -3.327491 -0.14029309 0
3.8330259 -4.5192914 -0.14158566 0
7.6538897 -8.0389843 -0.14095189 0
0.68252265 -1.5860435 -0.09158545 0
0.76462698 -1.6579324 -0.090207718 0
0.88137919 -1.7601585 -0.091352113 0
1.024514 -1.8854846 -0.090218417 0
1.2267632 -2.0625703 -0.089446463 0
1.531649 -2.3295226 -0.088930346 0
2.606178 -3.2703602 -0.14110565 0
3.9033599 -4.4061484 -0.14050208 0
7.8297 -7.8439784 -0.14096351 0
0.6956892 -1.5672654 -0.091122814 0
0.79052442 -1.6461642 -0.092478998 0
0.89133668 -1.7300357 -0.089382671 0
1.0505761 -1.8625159 -0.090908758 0
1.2416223 -2.0214581 -0.087647833 0
1.562126 -2.2881036 -0.088584177 0
2.6543288 -3.1967695 -0.14032598 0
3.9910522 -4.3088655 -0.14066704 0
7.9952741 -7.6402063 -0.14081578 0
0.70885307 -1.5486066 -0.090798326 0
0.80047059 -1.6209961 -0.09094844 0
0.92052072 -1.7158509 -0.091640227 0
1.0818381 -1.8433123 -0.092621736 0
1.2776181 -1.9980032 -0.089189209 0
1.5984627 -2.2515113 -0.089067556 0
2.707459 -3.1277595 -0.14017256 0
4.0744548 -4.20786 -0.14072146 0
8.158412 -7.4347053 -0.14075278 0
0.73260587 -1.537967 -0.093419693 0
0.82257646 -1.6054389 -0.092460372 0
0.93466115 -1.689495 -0.090839319 0
1.0939702 -1.8089659 -0.091028176 0
1.3068715 -1.9686277 -0.08980412 0
1.6263931 -2.2082474 -0.088669933 0
2.7655463 -3.062536 -0.14060889 0
