# .PCD v0.7 - Point Cloud Data file format
VERSION 0.7
FIELDS x y z intensity
SIZE 4 4 4 4
TYPE F F F F
COUNT 1 1 1 1
WIDTH 1362
HEIGHT 1
VIEWPOINT 0 0 0 1 0 0 0
POINTS 1362
DATA ascii
-0.9452672 -0.27305913 -0.050260149 0
-0.77885187 0.38227898 0.16826333 0
-0.92667484 -0.28060639 -0.050362404 0
-0.76710039 0.38269347 0.10234591 0
-0.76846141 0.37703615 0.16873147 0
-0.90484905 -0.27426791 -0.049964566 0
-0.75539309 0.38327163 0.16709958 0
-0.88633168 -0.28205705 -0.050093651 0
-0.74427575 0.38147402 0.1669841 0
-0.86623555 -0.2824682 -0.049962245 0
-0.73442823 0.37343031 0.16804367 0
-0.84754276 -0.28986335 -0.050094053 0
-0.82696801 -0.2870549 -0.049864296 0
-0.80859601 -0.29685509 -0.050100401 0
-0.78917444 -0.30076408 -0.050131779 0
-0.76839864 -0.29491687 -0.049820393 0
-0.74875861 -0.29650617 -0.049786415 0
-0.72930169 -0.2995615 -0.049814034 0
-0.71045661 -0.30909884 -0.050082937 0
-0.69074708 -0.31076074 -0.050077874 0
-0.67098421 -0.31168079 -0.050055154 0
-0.65098923 -0.30850947 -0.049895026 0
-0.63169056 -0.31774628 -0.050187469 0
-0.61159575 -0.31005001 -0.049883578 0
-0.59203827 -0.31714916 -0.050117154 0
-0.57229489 -0.32234097 -0.050291393 0
-0.55248272 -0.30933595 -0.049824864 0
-0.53281927 -0.3075968 -0.049769405 0
-0.51301479 -0.31210303 -0.049945831 0
-0.49342075 -0.30835187 -0.049836207 0
-0.47385573 -0.30544591 -0.049765546 0
-0.45382652 -0.31025922 -0.049979828 0
-0.49588373 0.32501388 0.039250109 0
-0.43396997 -0.31092024 -0.050054647 0
-0.48445746 0.32928532 0.039127521 0
-0.41367051 -0.31580675 -0.05029 0
-0.47431269 0.34662753 0.038541354 0
-0.39415798 -0.31151402 -0.050205342 0
-0.46052298 0.32503891 0.039356411 0
-0.37527266 -0.3023473 -0.049954195 0
-0.44870588 0.3252728 0.039394502 0
-0.44299132 0.27643156 0.11181005 0
-0.44273075 0.27420455 0.18396862 0
-0.44168934 0.26530385 0.26005137 0
-0.4409149 0.25868475 0.33950216 0
-0.4415831 0.26439553 0.41866088 0
-0.35548529 -0.30148292 -0.050010078 0
-0.43603307 0.31913668 0.039667331 0
-0.4284209 0.26048511 0.1137027 0
-0.42887771 0.26400471 0.18610029 0
-0.42814022 0.25832248 0.2622425 0
-0.4281927 0.25872689 0.34000659 0
-0.42913741 0.26600581 0.41863021 0
-0.43081084 0.27889955 0.4981361 0
-0.33588713 -0.29899013 -0.050016318 0
-0.42070746 0.29577523 0.040567588 0
-0.41932282 0.28606606 0.11111058 0
-0.4184691 0.28007984 0.18348096 0
-0.41886806 0.28287739 0.25635418 0
-0.41930342 0.2859301 0.33143795 0
-0.41898116 0.28367049 0.41195065 0
-0.41972825 0.28890908 0.49392197 0
-0.316181 -0.2971431 -0.050054807 0
-0.40671548 0.28513658 0.041016895 0
-0.40570813 0.27865785 0.11211374 0
-0.40609851 0.28116852 0.18361564 0
-0.40498191 0.27398705 0.25911993 0
-0.40701529 0.28706491 0.33166718 0
-0.40679994 0.28567982 0.41187125 0
-0.41099384 0.31265318 0.48281559 0
-0.29707462 -0.29155231 -0.049966812 0
-0.39182439 0.27107912 0.04159731 0
-0.39181256 0.27100885 0.11316395 0
-0.39110401 0.26680148 0.18660574 0
-0.39028156 0.26191765 0.26275924 0
-0.39424142 0.28543168 0.33288294 0
-0.39196095 0.27188993 0.41848963 0
-0.39895275 0.31340778 0.48340601 0
-0.27839395 -0.28394449 -0.049814153 0
0.070326827 -2.2065256 0.13157272 0
-0.38571885 0.3077634 0.48732865 0
-0.25791505 -0.28613389 -0.050025988 0
0.11381932 -2.1981728 0.13156638 0
-0.37443456 0.31319129 0.4857021 0
-0.24049215 -0.27284622 -0.049683444 0
0.15988566 -2.2022099 0.13203171 0
-0.36619544 0.33289993 0.4768464 0
-0.21883892 -0.27983415 -0.050089236 0
0.20409031 -2.1962557 0.13215424 0
-0.35870034 0.35392064 0.46734682 0
-0.19969334 -0.27483201 -0.050066594 0
0.25274387 -2.208909 0.13297977 0
-0.34898236 0.36334825 0.46382478 0
-0.18135197 -0.26663077 -0.049935084 0
0.29853007 -2.2075105 0.13331357 0
-0.0033398059 -0.98659968 0.25408232 0
-0.0064936071 -0.97384429 0.41994753 0
-0.33832404 0.36824173 0.46269163 0
-0.16501392 -0.25109911 -0.049541198 0
0.34245583 -2.1980124 0.13337088 0
-0.32804862 0.37438536 0.46097767 0
-0.14317407 -0.25667524 -0.049934935 0
0.38808897 -2.1945624 0.13367274 0
-0.31482908 0.36947036 0.46506199 0
-0.12620308 -0.24431431 -0.049673941 0
-0.30008969 0.3600232 0.47160733 0
-0.10352705 -0.25150788 -0.050149057 0
-0.30709979 0.42388171 0.43996665 0
-0.086150117 -0.24076474 -0.0499653 0
-0.29346174 0.41694182 0.44529527 0
-0.066268452 -0.23803699 -0.05009025 0
-0.28591302 0.42936826 0.44053534 0
-0.050967194 -0.2216785 -0.049710687 0
-0.2668772 0.40758318 0.45390192 0
-0.02902166 -0.22470486 -0.050071605 0
-0.010750272 -0.21710157 -0.050039876 0
0.005216381 -0.20357978 -0.049790293 0
0.024860224 -0.19970548 -0.049918178 0
0.037360214 -0.17837954 -0.04938167 0
0.064377449 -0.1917665 -0.050197355 0
0.080767713 -0.17984867 -0.050042056 0
-0.19169359 0.43245369 0.37845132 0
0.099847756 -0.17403066 -0.050133668 0
0.11750426 -0.16506124 -0.050110716 0
-0.16186948 0.42248011 0.38736516 0
-0.20240979 0.50773901 0.49626401 0
0.13271262 -0.15113568 -0.049899321 0
0.55485541 -1.0108469 0.4611122 0
-0.15844496 0.44181877 0.38077268 0
-0.19552477 0.51733333 0.49291745 0
0.15116222 -0.143929 -0.049963124 0
0.58487421 -0.99979186 0.46174487 0
-0.15104206 0.45242381 0.37821177 0
-0.18565668 0.52073038 0.49372721 0
0.17267825 -0.14248526 -0.050268833 0
0.61860019 -0.99562788 0.46386075 0
-0.13823037 0.45234835 0.38066712 0
-0.18109296 0.53435349 0.48778212 0
0.19062139 -0.1339494 -0.050299957 0
0.64836091 -0.98347116 0.46444032 0
-0.12948053 0.46012992 0.37951952 0
-0.16985966 0.53506982 0.49053001 0
0.20346953 -0.11618448 -0.049963638 0
0.68049496 -0.97541237 0.46594629 0
-0.11154071 0.45121825 0.38632122 0
-0.16411944 0.54592407 0.48651606 0
0.22242762 -0.10957731 -0.050090376 0
0.71785051 -0.97605157 0.46935388 0
-0.082042255 0.42292804 0.40252173 0
-0.15390606 0.54861486 0.4880991 0
0.23801889 -0.097067602 -0.049983393 0
0.75659114 -0.97809625 0.47317904 0
-0.05961106 0.40859085 0.41231704 0
-0.14831175 0.55928898 0.48428842 0
0.2532604 -0.084120043 -0.049865477 0
0.80313987 -0.99199128 0.47963461 0
-0.062216587 0.43674397 0.40175575 0
-0.13323413 0.5539965 0.49156752 0
0.26746437 -0.069658644 -0.049690995 0
0.84477717 -0.99628878 0.48422572 0
-0.12805121 0.56517339 0.4875285 0
0.29129604 -0.070447691 -0.050169267 0
0.8848539 -0.99695206 0.48818746 0
-0.11731181 0.56736207 0.48983306 0
0.29979882 -0.047340874 -0.049642805 0
0.91315001 -0.97871137 0.4882085 0
0.021632692 0.37505293 0.44189954 0
-0.1119957 0.57796687 0.48627618 0
0.32855651 -0.054820661 -0.050434973 0
0.95233315 -0.97654295 0.49180704 0
0.030668041 0.38535357 0.44042963 0
-0.10361914 0.58378279 0.48616591 0
0.3380073 -0.033547167 -0.049999528 0
0.99794644 -0.98273349 0.49738118 0
0.041752957 0.39255351 0.44056755 0
-0.10589308 0.60491186 0.47506973 0
0.34098932 -0.0037382892 -0.049190897 0
0.052687548 0.39998204 0.44066113 0
-0.096181519 0.60844928 0.47667241 0
0.36965743 -0.009916788 -0.04996964 0
0.070351027 0.39824748 0.44553053 0
-0.086594738 0.61227453 0.47816774 0
0.38273743 0.0055286833 -0.049805526 0
1.1239721 -0.97905231 0.10580406 0
1.1328826 -0.99088812 0.30802596 0
0.094572447 0.38829798 0.45481843 0
-0.078275271 0.61789137 0.47843653 0
0.40435722 0.0097391549 -0.05015412 0
0.10434159 0.39797789 0.45408481 0
-0.075134136 0.63023055 0.47374785 0
0.41676262 0.025968784 -0.049970891 0
0.12328633 0.39601976 0.45955849 0
-0.066992529 0.63594675 0.47405493 0
0.42977139 0.041257259 -0.049836248 0
-0.050349094 0.63123882 0.4824135 0
0.44621107 0.052293416 -0.049905539 0
-0.054218329 0.65165502 0.47161096 0
0.46516237 0.060477015 -0.050119348 0
-0.053484835 0.66599494 0.46539819 0
0.47452649 0.079805724 -0.049817163 0
-0.043993272 0.66996938 0.46730638 0
0.48831114 0.093915336 -0.049767986 0
1.2089927 -0.70580614 0.10020182 0
-0.038962223 0.67901689 0.46528128 0
0.50710624 0.10255729 -0.049992431 0
1.2055583 -0.65314198 0.09873037 0
-0.027259329 0.68072128 0.46921331 0
0.52541822 0.11194371 -0.050194532 0
0.37950692 0.26587975 0.054622289 0
-0.021664063 0.68911415 0.4678469 0
0.53351647 0.13204634 -0.049876977 0
0.38881084 0.28091067 0.054465171 0
0.84798151 -0.19145608 0.22268833 0
-0.016499499 0.69786906 0.46622214 0
0.55385906 0.13955331 -0.05019547 0
0.391938 0.30198461 0.054007307 0
0.84127003 -0.14876342 0.21891253 0
-0.0071506291 0.70233101 0.4682259 0
0.56250304 0.15882242 -0.049930569 0
0.40964124 0.30835223 0.054296345 0
0.73947912 -0.01429606 0.20097029 0
0.73598903 -0.010882145 0.33230728 0
0.74179977 -0.016566163 0.46968758 0
0.003251395 0.70588392 0.47112572 0
0.57230204 0.17673588 -0.04973786 0
0.4259862 0.31630093 0.054518893 0
0.84214669 -0.080658443 0.21386136 0
0.19503589 0.53659552 0.35195413 0
0.0077186436 0.7152701 0.46916381 0
0.59182829 0.18542087 -0.050032724 0
0.46307012 0.30517852 0.055754922 0
0.84052938 -0.045895461 0.21117324 0
0.18981482 0.55933249 0.34550303 0
0.010926924 0.72571564 0.46630138 0
0.60342628 0.20158076 -0.049947433 0
0.8347047 -0.008161908 0.073094107 0
0.83851928 -0.011621362 0.20852251 0
0.19339271 0.57343346 0.34320635 0
0.020187458 0.73051053 0.46842283 0
0.61594874 0.21684706 -0.049916897 0
0.83832914 0.020219559 0.072514549 0
0.84881979 0.010943765 0.20772941 0
0.83858985 0.019989008 0.34206781 0
0.20362146 0.58142447 0.343968 0
0.024131319 0.74012864 0.46636003 0
0.63201624 0.22903323 -0.050062895 0
0.83489543 0.054150458 0.071625501 0
0.84265703 0.047459837 0.20464951 0
0.84621745 0.044390794 0.34020978 0
0.23275103 0.57320172 0.35306782 0
0.04039868 0.73901027 0.47406381 0
0.64506596 0.24389386 -0.050073825 0
0.83931834 0.080665223 0.071132213 0
0.8362456 0.083247297 0.20163199 0
0.84592491 0.075113766 0.33657831 0
0.92559892 0.0081644002 0.50020689 0
0.26468804 0.56352216 0.36324668 0
0.27432111 0.55542755 0.45580098 0
0.046604298 0.74677604 0.47388145 0
0.65704948 0.25964171 -0.050044119 0
0.83735651 0.11196434 0.070364833 0
0.84592003 0.10495054 0.20094293 0
0.83269519 0.11578213 0.33005887 0
0.94132036 0.026814574 0.50025582 0
0.29897401 0.5529173 0.37427858 0
0.24715705 0.59535712 0.43658894 0
0.66565496 0.27806318 -0.049869508 0
0.8402248 0.13872004 0.069843866 0
0.8277151 0.14870536 0.19646491 0
0.83821589 0.14032364 0.3280502 0
0.98784238 0.020890469 0.51043594 0
0.27639052 0.58877736 0.36093456 0
0.24854834 0.61100119 0.4329643 0
0.055113874 0.7654022 0.47078615 0
0.6790089 0.29263926 -0.049921911 0
0.85054916 0.15921545 0.069680512 0
0.83214837 0.1735276 0.19518809 0
0.84257501 0.16541779 0.32586667 0
0.2545366 0.62279308 0.43189001 0
0.061442278 0.77298158 0.47095212 0
0.69984192 0.30159801 -0.050317097 0
0.86313123 0.1778599 0.069631465 0
0.84212321 0.19377947 0.19471298 0
0.83406848 0.19988322 0.32086447 0
0.26423785 0.63169199 0.4328323 0
0.077032648 0.77355313 0.47807959 0
0.69713277 0.32828486 -0.049668994 0
0.84213656 0.22125053 0.068103395 0
0.84563583 0.21866751 0.19341329 0
0.84498388 0.21914876 0.32035989 0
0.28757533 0.63059902 0.44084126 0
0.075591646 0.78707451 0.47259241 0
0.71859056 0.33703947 -0.050104171 0
0.84364635 0.24714005 0.067602731 0
0.8415547 0.24864376 0.1911619 0
0.84593564 0.24549437 0.31770095 0
0.086930655 0.79112363 0.47661388 0
0.72554094 0.35632706 -0.049908146 0
0.84763378 0.2708686 0.067228697 0
0.84520835 0.27256626 0.18999465 0
0.83221072 0.28166395 0.31190777 0
0.84096617 0.27553558 0.44148201 0
0.091299139 0.80026215 0.47559127 0
0.73561567 0.37332225 -0.049859315 0
0.89010912 0.26805836 0.068533517 0
0.83779639 0.30370152 0.1874377 0
0.83418971 0.30615896 0.30969104 0
0.84915918 0.29595953 0.44024089 0
0.10584971 0.80241245 0.48196721 0
0.74493855 0.39077848 -0.049787886 0
0.9183026 0.27582639 0.069214188 0
0.84047872 0.32742888 0.1862544 0
0.84085125 0.32718188 0.30857301 0
0.83635789 0.33016127 0.43266231 0
0.11161252 0.81071639 0.48205638 0
0.75636309 0.40682268 -0.049815703 0
0.95468789 0.27888554 0.070241556 0
0.8424136 0.3513124 0.18502346 0
0.83970124 0.35306215 0.30584458 0
0.84062678 0.35246509 0.43045899 0
0.12293657 0.81543928 0.48614368 0
0.77314502 0.41953248 -0.050077643 0
0.99496645 0.28036165 0.071426556 0
0.83899897 0.37821567 0.18316181 0
0.83423251 0.38120615 0.30228779 0
0.84688956 0.37326515 0.42895854 0
0.12723161 0.82477891 0.48531958 0
0.78136283 0.43768644 -0.049986154 0
1.029578 0.28627795 0.072366282 0
0.84494644 0.39890116 0.18253577 0
0.84216052 0.40060049 0.30166349 0
0.8439464 0.3995111 0.42479691 0
0.13397886 0.83258367 0.48628733 0
0.7905224 0.45521063 -0.049943957 0
1.0631634 0.29357731 0.07325954 0
0.84167761 0.4248836 0.18079561 0
0.84079164 0.4254089 0.29914603 0
0.83956474 0.42613626 0.42033795 0
0.13821168 0.84192866 0.48558232 0
0.797059 0.47421485 -0.049803123 0
0.84310013 0.4476974 0.17969057 0
0.83507019 0.45232224 0.29580614 0
0.83675617 0.45135123 0.41647345 0
0.14330734 0.85074407 0.4855538 0
0.80745655 0.49094939 -0.04983104 0
0.84262651 0.47127867 0.1783953 0
0.83999819 0.4727487 0.29476061 0
0.84069866 0.47235698 0.41470271 0
0.14229847 0.86297423 0.48145309 0
0.8187955 0.50719875 -0.049905598 0
0.85015076 0.49017638 0.17812331 0
0.84367055 0.49369442 0.29351747 0
0.84434551 0.49332798 0.41293532 0
0.82460088 0.52642566 -0.049764663 0
0.85220593 0.51188624 0.17721783 0
0.84097189 0.51780313 0.29103786 0
0.83873159 0.51898307 0.40858555 0
0.84193593 0.53965604 -0.050096571 0
0.847027 0.53705597 0.17547826 0
0.83323985 0.54409724 0.28761652 0
0.82731467 0.54712331 0.40269411 0
0.82666427 0.54745549 0.52304924 0
0.83888406 0.56324136 -0.049620971 0
0.84636229 0.55954015 0.17432895 0
0.83947951 0.56294674 0.2870948 0
0.84324032 0.56108528 0.40472409 0
0.84567207 0.55988181 0.526842 0
0.85993201 0.57490575 -0.050114162 0
0.86499327 0.57247961 0.17552005 0
0.84602934 0.58157015 0.28668585 0
0.83971423 0.58459735 0.40128824 0
0.83312982 0.58775365 0.51902968 0
0.87037474 0.59187752 -0.050192889 0
0.90278751 0.57683903 0.17899388 0
0.84443361 0.60391331 0.28470662 0
0.84028417 0.60583854 0.39910793 0
0.83668143 0.60751009 0.51729453 0
0.8722803 0.61274463 -0.049945492 0
0.94341964 0.58082062 0.18278894 0
0.84493023 0.62501806 0.28320792 0
0.84423107 0.62533182 0.39795932 0
0.84376734 0.6255399 0.51694894 0
0.89281398 0.62534577 -0.050434601 0
0.96797127 0.5927493 0.18468551 0
0.83827919 0.64899808 0.28036466 0
0.83200103 0.651721 0.39238667 0
0.83888584 0.64873493 0.512348 0
0.87777394 0.65322375 -0.049550369 0
1.0039841 0.60036308 0.18792504 0
0.83748955 0.67009604 0.27874163 0
0.83791786 0.66991669 0.39195502 0
0.83516914 0.67106789 0.50829697 0
0.88339931 0.67208135 -0.049479924 0
1.0407794 0.6084829 0.19125 0
0.84068292 0.68934333 0.27795339 0
0.84278077 0.68849558 0.39129877 0
0.83102256 0.69324714 0.50421339 0
0.90102607 0.68621397 -0.049878772 0
1.0684214 0.62100804 0.19351479 0
0.84965307 0.7062254 0.27833417 0
0.84440023 0.70827156 0.38982189 0
0.83686179 0.71120811 0.50381517 0
0.2712253 0.93154204 0.45094234 0
0.91403621 0.70238209 -0.050106511 0
0.84102291 0.72976947 0.27536401 0
0.84671575 0.72763407 0.38860965 0
0.83755404 0.73107064 0.50167054 0
0.28782722 0.93727356 0.45767739 0
0.91499418 0.72307283 -0.049883533 0
0.84246737 0.74924082 0.27439588 0
0.83522421 0.75185418 0.38372424 0
0.84498793 0.74833137 0.50200874 0
0.27434126 0.95422316 0.44841629 0
0.91429716 0.74417412 -0.049608856 0
0.85040659 0.76632094 0.27471858 0
0.84757012 0.76730418 0.3853794 0
0.83460134 0.77179962 0.49614727 0
0.84932727 0.76669508 0.62243837 0
0.26619592 0.96883011 0.44213691 0
0.93787116 0.75700212 -0.050258521 0
0.84422678 0.78814757 0.2723974 0
0.83078057 0.79261971 0.37924632 0
0.83878285 0.78995818 0.4955219 0
0.84455115 0.78803968 0.617724 0
0.28314731 0.97475886 0.44921413 0
0.93641466 0.77829069 -0.049973756 0
0.85010546 0.80579454 0.27242014 0
0.84501451 0.80741686 0.38153061 0
0.84327668 0.80797064 0.49508807 0
0.83934242 0.80922437 0.6129576 0
0.30703893 0.97885162 0.4599469 0
0.94267172 0.79702109 -0.049987998 0
0.84320265 0.8273443 0.2700749 0
0.84783894 0.82593095 0.3808127 0
0.8369208 0.8292594 0.49096131 0
0.84830672 0.82578838 0.61445981 0
0.31044486 0.98975605 0.45995 0
0.94671923 0.81640851 -0.049928822 0
0.87211639 0.83812845 0.274517 0
0.84330291 0.84651726 0.37820369 0
0.84281927 0.84665805 0.49118897 0
0.83966643 0.84757596 0.60845518 0
0.32520941 0.99735558 0.46594393 0
0.95104307 0.83567917 -0.049889147 0
0.89766735 0.8504926 0.27833965 0
0.84514099 0.86507034 0.37736019 0
0.83843821 0.86693054 0.4879424 0
0.83374459 0.8682332 0.60375762 0
0.30900118 1.0138661 0.45588407 0
0.95372313 0.85535806 -0.049797889 0
0.92860335 0.86199015 0.28318316 0
0.83666939 0.88626224 0.37386084 0
0.84218496 0.88480604 0.48759133 0
0.83278435 0.88728791 0.60131198 0
0.32725766 1.0207554 0.46380031 0
0.96677905 0.87237382 -0.050097931 0
0.95190114 0.87610209 0.28661826 0
0.83244985 0.90603554 0.37156114 0
0.83053046 0.90651649 0.48203629 0
0.83542138 0.9052909 0.60051197 0
0.32913092 1.0321629 0.4632858 0
0.96343809 0.89350039 -0.04980332 0
0.98815984 0.88763511 0.29247844 0
0.85032457 0.9203366 0.37512714 0
0.84424692 0.9217785 0.4852666 0
0.83329004 0.92437804 0.59778196 0
0.33646944 1.042249 0.46565717 0
0.97478622 0.91112703 -0.050056696 0
1.0121218 0.90276432 0.29607636 0
0.84062809 0.94117695 0.37152165 0
0.8363567 0.94213372 0.48118684 0
0.83384484 0.94269639 0.59630144 0
0.34439352 1.0523281 0.46838734 0
0.98166436 0.92988181 -0.050154418 0
1.0455111 0.91642278 0.3014375 0
0.84068912 0.95959967 0.37053841 0
0.84085804 0.95956409 0.4814184 0
0.83217698 0.96139407 0.5939821 0
0.34469518 1.0641564 0.46727765 0
0.98235255 0.94993371 -0.050035238 0
1.0892216 0.92880726 0.30871439 0
0.850779 0.97594386 0.37222618 0
0.83662707 0.97874147 0.47876248 0
0.83339411 0.97938055 0.59298563 0
0.37323985 1.0703464 0.48065135 0
0.97954136 0.9705494 -0.049798466 0
0.85088712 0.99430329 0.37137383 0
0.83764821 0.99674761 0.4779714 0
0.83913237 0.99647361 0.5939905 0
0.38264683 1.0807561 0.48429653 0
0.98988038 0.9887417 -0.050047968 0
0.84189087 1.014143 0.36822644 0
0.83814222 1.0147864 0.47708076 0
0.81817645 1.0182134 0.58386976 0
0.37766895 1.0938231 0.48069787 0
0.98688871 1.009231 -0.049823377 0
0.42382184 1.0985937 0.041469574 0
0.43129036 1.0974084 0.11358446 0
0.4299247 1.0976251 0.18629257 0
0.43578044 1.0966958 0.26256531 0
0.4262642 1.098206 0.33735758 0
0.43751171 1.096421 0.42308775 0
0.38721672 1.1044031 0.48454857 0
0.9981938 1.0274786 -0.050124332 0
0.41065708 1.1131552 0.040926669 0
0.410063 1.1132418 0.11107298 0
0.40828446 1.1135012 0.18200319 0
0.41154513 1.1130257 0.25582531 0
0.40333548 1.1142229 0.329014 0
0.41101751 1.1131027 0.41120329 0
0.40602294 1.1138309 0.493141 0
0.99406308 1.0479963 -0.049877137 0
0.38912103 1.1284456 0.040089782 0
0.43136564 1.1228276 0.11319825 0
0.42520288 1.1236472 0.1847726 0
0.42321727 1.1239113 0.25839132 0
0.4296408 1.123057 0.33727619 0
0.43533859 1.1222993 0.42065114 0
0.42536476 1.1236258 0.50204933 0
1.0132897 1.065534 -0.050479498 0
0.38279667 1.1413152 0.039808076 0
0.4288809 1.1357762 0.11275855 0
0.42566106 1.1361632 0.1845711 0
0.42805704 1.1358752 0.25923303 0
0.42434242 1.1363217 0.33497316 0
0.42648813 1.1360638 0.41629994 0
0.99625081 1.0873986 -0.049786802 0
0.36033913 1.1557201 0.038953282 0
0.84639341 1.1034992 0.36621562 0
0.8388024 1.1043147 0.47318402 0
0.84921259 1.1031963 0.59174269 0
1.0014713 1.1066673 -0.049903061 0
0.34796801 1.168566 0.038467728 0
0.854927 1.1205477 0.36794442 0
0.83834285 1.1221185 0.47243622 0
0.84057635 1.1219069 0.58740604 0
1.0114125 1.1256341 -0.050196994 0
0.35363439 1.1795905 0.038634598 0
0.85068637 1.1388181 0.36645633 0
0.84950477 1.1389151 0.47564349 0
0.84774178 1.1390597 0.58973616 0
1.0075074 1.1457722 -0.050003711 0
0.37338576 1.1897577 0.039310351 0
0.85677952 1.1562274 0.36767125 0
0.83374339 1.1578252 0.46993977 0
0.83272868 1.1578956 0.5829491 0
1.002978 1.1658124 -0.0497973 0
0.84068543 1.1750181 0.36327153 0
0.85012406 1.1744827 0.47503015 0
0.84565276 1.1747363 0.58785099 0
1.0045902 1.1854391 -0.04981951 0
0.85456437 1.1920551 0.36658925 0
0.83202296 1.1930492 0.46870455 0
0.83384973 1.1929686 0.58259016 0
1.0015926 1.2052299 -0.049685884 0
0.84499544 1.210161 0.36397514 0
0.83492392 1.2104781 0.46945003 0
0.83814925 1.2103765 0.58409685 0
1.015269 1.2246144 -0.050156578 0
0.85457855 1.2276498 0.36630702 0
0.83588392 1.2280029 0.46962249 0
0.84738964 1.2277856 0.58774006 0
1.0022032 1.2445025 -0.049681202 0
0.85340101 1.2454393 0.36594948 0
0.8433581 1.2455026 0.47203565 0
0.84923357 1.2454655 0.58841133 0
1.0112249 1.2641975 -0.05000329 0
0.83931178 1.2631152 0.36235479 0
0.83361226 1.2630793 0.46879324 0
0.83115178 1.2630638 0.58092469 0
1.0086408 1.2839035 -0.0499199 0
0.85180885 1.280941 0.36560026 0
0.83873409 1.280694 0.47057089 0
0.83007807 1.2805306 0.58057117 0
0.99743456 1.3032824 -0.049537364 0
0.84188801 1.2983843 0.36318195 0
0.83444983 1.2981501 0.46929219 0
0.84158355 1.2983748 0.58551949 0
1.0121418 1.323537 -0.050089374 0
0.8550685 1.3166102 0.36671799 0
0.83491403 1.3157215 0.46966735 0
0.84061116 1.3159727 0.58539236 0
1.0129287 1.3433952 -0.050153129 0
0.84308165 1.333761 0.36388388 0
0.8367489 1.3334018 0.47057316 0
0.84345144 1.333782 0.58693808 0
1.0034266 1.3625879 -0.049857665 0
1.2991493 1.3831005 0.072440714 0
1.3003323 1.3831825 0.20612967 0
1.3031286 1.3833765 0.34235144 0
0.85485882 1.3522825 0.36718002 0
0.84035128 1.3512763 0.47214347 0
0.84319216 1.3514733 0.58729184 0
1.0063206 1.3825915 -0.050014596 0
1.2415918 1.4018903 0.070442289 0
1.2437093 1.4020641 0.20021483 0
1.0160587 1.3833902 0.29072559 0
0.8599425 1.3705842 0.36882579 0
0.82818466 1.3679793 0.4685266 0
0.84554988 1.3694037 0.58882558 0
1.003531 1.402171 -0.049976923 0
1.2459 1.4251277 0.070668533 0
1.2471796 1.425249 0.20080568 0
0.90611452 1.3929439 0.27112556 0
0.85047108 1.3876734 0.36680245 0
0.83998579 1.3866802 0.47298527 0
0.83175164 1.3859004 0.58373594 0
1.0074965 1.4224527 -0.050190598 0
0.63348442 1.3822694 0.048761044 0
0.65128618 1.384182 0.13664497 0
0.64454013 1.3834572 0.22401711 0
0.63810188 1.3827654 0.31276795 0
0.83941537 1.4043943 0.47338912 0
0.84410411 1.404898 0.58961546 0
1.0046014 1.4420648 -0.050167076 0
0.55260831 1.3877382 0.045914207 0
0.55953211 1.3885704 0.12690063 0
0.5482555 1.387215 0.20683999 0
0.5525896 1.387736 0.29123396 0
0.84971875 1.4234489 0.47751197 0
0.84292907 1.4226328 0.58996242 0
0.99396783 1.4606342 -0.049873706 0
0.55155343 1.4017988 0.045939885 0
0.55763453 1.4026076 0.12688774 0
0.54809231 1.4013386 0.20713066 0
0.54360741 1.4007422 0.28937712 0
0.836909 1.4397475 0.47396487 0
0.83438319 1.4394115 0.5873245 0
1.0032047 1.4818952 -0.050305117 0
0.54708165 1.4153818 0.045848716 0
0.54658753 1.4153098 0.12590036 0
0.54707545 1.415381 0.2072987 0
0.55770427 1.4169309 0.2935096 0
0.83689576 1.4576435 0.47478253 0
0.84318608 1.4585608 0.59202904 0
0.99402779 1.5005451 -0.050081447 0
0.55057281 1.4301658 0.046051383 0
0.56277591 1.4321024 0.12789199 0
0.54710346 1.4296151 0.2076901 0
0.54946357 1.4299897 0.29193252 0
0.83377248 1.4751115 0.47463006 0
0.84160918 1.4763552 0.59249258 0
0.99937767 1.5215316 -0.050391991 0
0.55001444 1.4444019 0.046114542 0
0.55563968 1.4453675 0.12736762 0
0.55110711 1.4445894 0.20884262 0
0.54903275 1.4442334 0.2924163 0
0.83654124 1.493582 0.47654033 0
0.83737189 1.4937246 0.59193355 0
0.98404664 1.5389255 -0.049962029 0
0.54773027 1.458367 0.04612169 0
0.56308287 1.4612015 0.12845357 0
0.55100173 1.458971 0.20927878 0
0.5471192 1.4582541 0.29256299 0
0.84009606 1.5123475 0.47879958 0
0.84451479 1.5131633 0.59625667 0
0.97464269 1.5571853 -0.049754661 0
0.55043787 1.4733262 0.046316914 0
0.54684263 1.4726155 0.12696956 0
0.55234939 1.4737041 0.21001638 0
0.54998344 1.4732364 0.29399848 0
0.82663983 1.5279273 0.4753755 0
0.847583 1.5320674 0.59897405 0
0.9761737 1.5776038 -0.049954083 0
0.55819231 1.4894924 0.046703659 0
0.55096704 1.4879694 0.12773405 0
0.55868787 1.489597 0.21170998 0
0.55195385 1.4881774 0.29525381 0
0.83181936 1.5471736 0.47834519 0
0.84029716 1.5489608 0.59741807 0
0.97462064 1.597479 -0.050050635 0
0.54697663 1.5016915 0.046404891 0
0.55082577 1.5025536 0.12805216 0
0.55161434 1.5027303 0.21096654 0
0.55466574 1.5034137 0.2967557 0
0.83149439 1.5654203 0.47952911 0
0.84460646 1.5683572 0.60086751 0
0.96710008 1.6160115 -0.049937684 0
0.55243975 1.5176332 0.046722841 0
0.54426461 1.5156937 0.12768239 0
0.5509209 1.5172728 0.21143404 0
0.55099279 1.5172899 0.29663813 0
0.83747393 1.5852576 0.48295069 0
0.83791107 1.5853614 0.59974831 0
0.9659248 1.6360552 -0.050066493 0
0.54997855 1.5318228 0.046757519 0
0.55077988 1.5320235 0.12877853 0
0.55438751 1.5329276 0.21271048 0
0.55584389 1.5332925 0.29880804 0
0.83829182 1.6040715 0.48469833 0
0.83903009 1.6042565 0.60205233 0
0.95853788 1.6545562 -0.049975667 0
0.54412061 1.5451431 0.046673477 0
0.5505783 1.5468481 0.12915455 0
0.54905432 1.5464457 0.21238647 0
0.55254501 1.5473673 0.29888773 0
0.842987 1.6240488 0.4878673 0
0.84600967 1.6248469 0.60697538 0
0.96332568 1.6763728 -0.050344229 0
0.55707985 1.5636268 0.047292531 0
0.54322678 1.5597821 0.12875521 0
0.54538375 1.5603807 0.21240433 0
0.54932743 1.5614752 0.29903606 0
0.83401734 1.6404856 0.48641598 0
0.83615655 1.6410793 0.60479403 0
0.95270234 1.6939765 -0.050151296 0
0.55120629 1.5770845 0.047222234 0
0.54584247 1.5755229 0.12948824 0
0.5535174 1.5777574 0.21467239 0
0.55318695 1.5776612 0.30111262 0
0.83775491 1.6605107 0.48943415 0
0.84589154 1.6628795 0.6111396 0
0.94780046 1.7131855 -0.050179422 0
0.84429473 1.6816317 0.3798674 0
0.83990198 1.6802926 0.4919982 0
0.8415125 1.6807835 0.61151904 0
0.94204372 1.7321463 -0.050184678 0
0.85235208 1.7035645 0.38349539 0
0.8435058 1.7007455 0.49516806 0
0.84262234 1.700464 0.61438286 0
0.92991942 1.7489964 -0.049959347 0
0.84852976 1.7219267 0.3840186 0
0.84357291 1.7202781 0.49720135 0
0.82874888 1.7153478 0.61082894 0
0.93151993 1.770439 -0.050259627 0
0.84395581 1.7400861 0.38440347 0
0.84167463 1.7392954 0.49863786 0
0.83892316 1.7383416 0.61787921 0
0.91809708 1.7866898 -0.050001297 0
0.84726328 1.7611327 0.38698962 0
0.82919782 1.7546146 0.49642399 0
0.84045631 1.7586766 0.62128526 0
0.91443533 1.8064107 -0.050121728 0
0.85384649 1.7836838 0.39055267 0
0.81896991 1.7706015 0.49506709 0
0.83345205 1.7760339 0.62104517 0
0.9035241 1.8234022 -0.049974483 0
0.83489221 1.7966678 0.38721856 0
0.83110136 1.7951912 0.50175846 0
0.8334474 1.796105 0.62401098 0
0.89101416 1.8396391 -0.049773145 0
0.83776706 1.8181216 0.38991913 0
0.82292229 1.8121226 0.50130677 0
0.82143766 1.8115227 0.62174338 0
0.89275545 1.8616941 -0.050130248 0
0.84064287 1.8398678 0.39270881 0
0.82332343 1.8326138 0.50402427 0
0.82883173 1.8349209 0.62826085 0
0.88101143 1.8781785 -0.04997531 0
0.82506281 1.8539129 0.39045721 0
0.82562619 1.8541573 0.50753951 0
0.82837182 1.8553481 0.63140213 0
0.87356633 1.8964757 -0.049995817 0
0.83245605 1.8780272 0.39466652 0
0.8191399 1.8720515 0.50796831 0
0.81981152 1.872353 0.63100147 0
0.86317605 1.9134257 -0.049909569 0
0.82445079 1.8954583 0.39465472 0
0.82218367 1.8944066 0.51197737 0
0.81615537 1.8916095 0.63293433 0
0.84643918 1.9272695 -0.049579959 0
0.82927042 1.9190395 0.39833337 0
0.82666212 1.9177891 0.51664346 0
0.81583899 1.912601 0.63652337 0
0.84802657 1.9499267 -0.049985155 0
0.83102864 1.9415138 0.40124774 0
0.80502099 1.9286416 0.51175177 0
0.80259591 1.9274412 0.63428479 0
0.84056336 1.9682862 -0.050041549 0
0.81419057 1.9548172 0.39893433 0
0.81376988 1.9546022 0.51823229 0
0.80628878 1.9507816 0.63999206 0
0.82605368 1.9829826 -0.049823288 0
0.80492896 1.9718564 0.39883837 0
0.79984218 1.9691772 0.51635158 0
0.79679459 1.9675721 0.63970345 0
0.82916611 2.0070744 -0.050326884 0
0.79499167 1.9885216 0.39860767 0
0.79348332 1.9877027 0.51739246 0
0.79400235 1.9879844 0.64266944 0
0.81411129 2.0214157 -0.050103258 0
0.79522008 2.01085 0.40140817 0
0.79092747 2.0084491 0.519979 0
0.79111046 2.0085514 0.64573073 0
0.79992503 2.0360789 -0.049921203 0
0.7879464 2.0291798 0.40210274 0
0.78530759 2.0276599 0.52150798 0
0.78244859 2.0260134 0.64618063 0
0.79508775 2.056139 -0.050133437 0
0.77916306 2.0466981 0.40242299 0
0.77196354 2.0424299 0.52015418 0
0.78041333 2.0474393 0.64992899 0
0.78191561 2.0712938 -0.050009273 0
0.76333469 2.0599597 0.40070596 0
0.77352566 2.0661762 0.52467114 0
0.76234263 2.0593545 0.64605957 0
0.76770562 2.0856979 -0.049848393 0
0.76966697 2.0869284 0.40569994 0
0.76940125 2.0867617 0.52710754 0
0.76886207 2.0864234 0.65425169 0
0.75803882 2.1029015 -0.049886893 0
0.74787217 2.096343 0.40229768 0
0.75907499 2.1035697 0.52721059 0
0.75812823 2.1029592 0.65417701 0
0.73793393 2.11322 -0.049487829 0
0.74417621 2.1173592 0.40444344 0
0.73774606 2.1130955 0.52300656 0
0.74391431 2.1171856 0.65247589 0
0.73741418 2.1365464 -0.049937014 0
0.73870355 2.1374247 0.40614057 0
0.74100822 2.1389949 0.52871424 0
0.7339527 2.1341877 0.65297997 0
0.72424537 2.1514094 -0.049851693 0
0.73080748 2.1560025 0.40717638 0
0.72672242 2.1531432 0.52747822 0
0.72442144 2.1515324 0.65381366 0
0.70684773 2.163162 -0.049587853 0
0.73041683 2.1801052 0.41065302 0
0.72424275 2.1756668 0.53114098 0
0.72117943 2.1734648 0.65797281 0
0.70066315 2.1829643 -0.049825653 0
0.70534557 2.1864207 0.40643156 0
0.713633 2.192538 0.53159285 0
0.71619385 2.1944282 0.6614151 0
0.69571275 2.2039161 -0.050132137 0
0.6985845 2.2060924 0.40805623 0
0.6923005 2.2013302 0.52766132 0
0.70207006 2.2087336 0.66027957 0
0.67724115 2.2146289 -0.049841959 0
0.70416051 2.2355669 0.41376412 0
0.69001979 2.2245681 0.53176755 0
0.69698089 2.2299824 0.66396594 0
0.66627413 2.2310743 -0.049897794 0
0.67404038 2.2372732 0.40799749 0
0.68156856 2.2432823 0.53341246 0
0.68879169 2.249048 0.6661883 0
0.65684372 2.2488329 -0.050034627 0
0.66817313 2.258112 0.41017634 0
0.67103177 2.2604535 0.53427845 0
0.66930157 2.2590363 0.66251343 0
0.64380044 2.2636859 -0.050014809 0
0.66560692 2.2820096 0.4135654 0
0.66607159 2.2824001 0.53767043 0
0.667319 2.2834482 0.66833532 0
0.62466329 2.2732716 -0.049716312 0
0.72019356 2.3556192 0.066219091 0
0.71015412 2.3469651 0.1858492 0
0.72638649 2.3609574 0.31167743 0
0.64377111 2.2897427 0.41060159 0
0.64584309 2.2915287 0.53451371 0
0.65388995 2.298465 0.66813087 0
0.61712676 2.2928376 -0.049973037 0
0.68620664 2.3539176 0.065265074 0
0.68002683 2.3484535 0.18351533 0
0.68094188 2.3492627 0.30411616 0
0.63607901 2.3095951 0.41245434 0
0.64174622 2.3146062 0.53853643 0
0.63324255 2.3070872 0.66403872 0
0.60890514 2.312031 -0.050211489 0
0.65244287 2.3515148 0.064309835 0
0.66011709 2.3584743 0.18263972 0
0.65499943 2.3538332 0.30118048 0
0.62884372 2.3301132 0.41457132 0
0.62067276 2.3227029 0.53511041 0
0.63115054 2.3322051 0.67033124 0
0.59696931 2.3280039 -0.050283384 0
0.63936967 2.3674405 0.06435068 0
0.63246351 2.361017 0.18063569 0
0.64121896 2.3691604 0.30121985 0
0.60485774 2.335341 0.41096631 0
0.61871058 2.3482254 0.54037333 0
0.61807376 2.3476331 0.67066443 0
0.57155293 2.3311925 -0.049700897 0
0.62804466 2.385078 0.064488105 0
0.6162917 2.3738673 0.18031743 0
0.6208933 2.3782566 0.29967624 0
0.59869248 2.35708 0.4136242 0
0.59314638 2.3517897 0.5349952 0
0.59230775 2.3509898 0.66385162 0
0.56243581 2.349755 -0.049927212 0
0.61514133 2.4013116 0.06455943 0
0.60948998 2.3957834 0.18142809 0
0.61022156 2.3964989 0.30057773 0
0.58645159 2.3732471 0.41424373 0
0.59182245 2.3785009 0.54085261 0
0.58406788 2.3709154 0.66712958 0
0.53884667 2.3540301 -0.049436316 0
0.6078034 2.4232042 0.064923376 0
0.60438734 2.4197774 0.18285325 0
0.61067873 2.4260886 0.30439195 0
0.57789046 2.3931968 0.41627398 0
0.57740706 2.3927121 0.54077274 0
0.56954521 2.3848255 0.66691089 0
0.53146726 2.3744886 -0.049772017 0
0.59412962 2.4389517 0.064981572 0
0.59941393 2.4443879 0.1843632 0
0.60057265 2.44558 0.30561852 0
0.55914468 2.4029615 0.41469422 0
0.56223398 2.4061396 0.54041499 0
0.56187314 2.4057684 0.67086202 0
0.51907402 2.3900063 -0.049865291 0
0.61630994 2.49259 0.066911466 0
0.60486144 2.4805117 0.18756939 0
0.6151188 2.4913332 0.3133882 0
0.54779643 2.4203084 0.41588211 0
0.5451141 2.4174786 0.53919232 0
0.54259926 2.4148252 0.66804111 0
0.50608712 2.4049833 -0.049938831 0
0.54514378 2.4472411 0.42043644 0
0.53628141 2.4376521 0.5420844 0
0.52995676 2.4308093 0.66929579 0
0.49480137 2.4219298 -0.05011411 0
0.51831764 2.4480252 0.41597041 0
0.51526886 2.4446421 0.5390895 0
0.51812035 2.4478061 0.67119032 0
0.47506234 2.4294474 -0.04984615 0
0.50225955 2.4604025 0.41560608 0
0.50025803 2.4581244 0.53912061 0
0.50124723 2.4592502 0.67008597 0
0.45664653 2.4382238 -0.049651995 0
0.49165377 2.4790947 0.41743535 0
0.48700079 2.4736624 0.54013526 0
0.48227641 2.4681468 0.66772127 0
0.44653174 2.4567339 -0.049923409 0
0.46851715 2.4830656 0.41439718 0
0.47626254 2.4923422 0.54257369 0
0.46970579 2.4844892 0.66952705 0
0.44006273 2.480032 -0.05041834 0
0.44499967 2.4860985 0.41117775 0
0.45245978 2.4952657 0.5382871 0
0.45477638 2.4981124 0.6699478 0
0.41598794 2.4816976 -0.049926382 0
0.43796232 2.5094054 0.414689 0
0.44158921 2.5139787 0.54087555 0
0.44428083 2.5173726 0.67344302 0
0.40351138 2.4978094 -0.050104737 0
0.42441651 2.5248621 0.41566375 0
0.42459586 2.525094 0.54030234 0
0.42531922 2.5260301 0.67142588 0
0.38220677 2.5024095 -0.049774028 0
0.41251442 2.5426672 0.41743407 0
0.4061847 2.5342593 0.53901196 0
0.40576091 2.5336964 0.66903853 0
0.36431631 2.5112762 -0.049647179 0
0.3956987 2.5540724 0.417211 0
0.39105305 2.5477371 0.53960872 0
0.40115067 2.5615072 0.67714286 0
0.35534981 2.532491 -0.050073106 0
0.37618384 2.5616655 0.41586152 0
0.38237616 2.5703371 0.54400766 0
0.37975666 2.5666687 0.67368108 0
0.33445933 2.5370872 -0.049777638 0
0.36314109 2.5783401 0.41742235 0
0.35986426 2.573627 0.5405882 0
0.35787955 2.5707724 0.66985244 0
0.32242689 2.5544064 -0.050044525 0
0.33993086 2.580271 0.41447884 0
0.34304515 2.584873 0.54050827 0
0.33897826 2.5788634 0.66818804 0
0.30669966 2.5664628 -0.050090749 0
0.32333961 2.5917306 0.41456011 0
0.32050136 2.5874207 0.5370487 0
0.32429376 2.5931795 0.66974193 0
0.2911748 2.5789015 -0.050161242 0
0.3074728 2.6043415 0.41505322 0
0.30583218 2.6017807 0.53839678 0
0.30853966 2.6060069 0.67064273 0
0.27463999 2.5898192 -0.050175454 0
0.28763291 2.6106737 0.41371533 0
0.28551599 2.607276 0.53633213 0
0.28795752 2.6111946 0.66790688 0
0.25406709 2.594095 -0.049921069 0
0.27067998 2.6215236 0.41380998 0
0.27176282 2.6233113 0.53848279 0
0.26829264 2.6175818 0.66589832 0
0.24263819 2.6135588 -0.050308503 0
0.24879058 2.6240113 0.41149178 0
0.25665006 2.6373641 0.53991932 0
0.25502583 2.6346047 0.66913366 0
0.21852989 2.6114035 -0.04981003 0
0.23552252 2.6411228 0.41356933 0
0.23615082 2.6422217 0.53789473 0
0.23518826 2.6405382 0.66713697 0
0.20368548 2.6252165 -0.049979519 0
0.21207257 2.6403236 0.41045472 0
0.22259028 2.6592684 0.5406211 0
0.21599765 2.6473935 0.66570938 0
0.18540217 2.6329062 -0.049907137 0
0.1982037 2.6566646 0.41241446 0
0.19899143 2.6581264 0.53652012 0
0.19876255 2.6577017 0.66602945 0
0.1671138 2.6404824 -0.04983997 0
0.18530579 2.6752875 0.41506875 0
0.18259801 2.6701069 0.53748411 0
0.18242903 2.6697836 0.66727781 0
0.15348174 2.6571493 -0.050146323 0
0.16276361 2.6754656 0.41247714 0
0.16118325 2.6723471 0.5348863 0
0.16101511 2.6720152 0.66404182 0
0.13399805 2.6623967 -0.050003435 0
0.14140429 2.6774797 0.41050428 0
0.14330579 2.6813521 0.53491205 0
0.13788213 2.6703067 0.65913308 0
0.11370596 2.6657162 -0.049794935 0
0.12129881 2.6816845 0.40923831 0
0.11846467 2.675724 0.52963018 0
0.12249436 2.6841989 0.66154003 0
0.099414073 2.6817312 -0.050096627 0
0.10425528 2.6922522 0.40983796 0
0.10667434 2.6975093 0.53453314 0
0.10379066 2.6912425 0.66090018 0
0.079100572 2.6847451 -0.049895652 0
0.084226571 2.6962647 0.40866381 0
0.080360137 2.6875758 0.52791268 0
0.084905051 2.6977894 0.66014594 0
0.060420834 2.6912076 -0.04983975 0
0.066564225 2.7054954 0.40901539 0
0.066118918 2.7044597 0.53116018 0
0.064157091 2.6998971 0.65750241 0
0.045272551 2.7060823 -0.050118428 0
0.045418821 2.7064345 0.40713629 0
0.042921685 2.7004194 0.52691805 0
0.043614529 2.7020884 0.65502763 0
0.023924967 2.706013 -0.049828362 0
0.028993925 2.7186713 0.40844488 0
0.028169772 2.7166131 0.53005373 0
0.026533624 2.7125275 0.65635955 0
0.0052000494 2.7121804 -0.049788669 0
0.012559853 2.7312517 0.40989786 0
0.0040762634 2.7092686 0.52484661 0
0.0063079209 2.7150512 0.65426791 0
-0.013182559 2.7191978 -0.049790539 0
-0.010428467 2.7266109 0.4067134 0
-0.011331894 2.7241793 0.52767038 0
-0.014338532 2.7160864 0.65164119 0
-0.028608421 2.7345047 -0.050115459 0
-0.034983851 2.7166591 0.40218291 0
-0.02991722 2.7308412 0.52763599 0
-0.03236071 2.7240016 0.65216577 0
-0.051298417 2.7293563 -0.049674254 0
-0.054414906 2.7202733 0.40141478 0
-0.052170791 2.7268138 0.52392447 0
-0.052842475 2.7248564 0.64969712 0
-0.06468115 2.7515032 -0.050271526 0
-0.075508542 2.7186034 0.3992964 0
-0.070808418 2.7328851 0.52386367 0
-0.072120167 2.7288992 0.64874095 0
-0.088701852 2.7413123 -0.049662262 0
-0.093567677 2.7258751 0.39964956 0
-0.09097416 2.7341034 0.5221923 0
-0.092611469 2.7289088 0.64614332 0
-0.10599396 2.7519665 -0.049843878 0
-0.11013506 2.7382278 0.40141597 0
-0.11124597 2.7345421 0.52034485 0
-0.10995967 2.7388096 0.64794457 0
-0.12502517 2.7570512 -0.049826026 0
-0.10566274 2.8243446 0.064325958 0
-0.10867078 2.8138902 0.1804058 0
-0.10750384 2.817946 0.29943874 0
-0.12965022 2.740977 0.40068194 0
-0.13164939 2.7340291 0.51826298 0
-0.1311902 2.7356248 0.64419585 0
-0.14216949 2.7689829 -0.050070588 0
-0.13312949 2.8019578 0.063291281 0
-0.13279055 2.8031943 0.17859805 0
-0.13274883 2.8033466 0.29567242 0
-0.1499057 2.7407634 0.39923179 0
-0.14992447 2.740695 0.51875371 0
-0.15082701 2.7374027 0.64270562 0
-0.15927871 2.7817454 -0.050352987 0
-0.15715955 2.7898755 0.062652946 0
-0.15765835 2.7879617 0.17632619 0
-0.15728222 2.7894049 0.2921004 0
-0.17133807 2.7354796 0.39651689 0
-0.1693847 2.7429736 0.51781362 0
-0.16906829 2.7441874 0.64346844 0
-0.18110187 2.7762854 -0.049972281 0
-0.17795451 2.7890148 0.062440433 0
-0.17927201 2.7836862 0.17530909 0
-0.17823721 2.7878714 0.29090214 0
-0.19063877 2.7377136 0.39585733 0
-0.18951733 2.742249 0.51593143 0
-0.18916549 2.7436721 0.64121354 0
-0.19790165 2.7911341 -0.050347418 0
-0.19839214 2.7890375 0.062270544 0
-0.19489346 2.8039935 0.17703831 0
-0.20146208 2.7759142 0.2878257 0
-0.20795952 2.7481389 0.39740977 0
-0.20686986 2.7527969 0.51799297 0
-0.20916633 2.74298 0.63899791 0
-0.21897729 2.7878504 -0.050066318 0
-0.21578063 2.8023353 0.062595889 0
-0.21569152 2.8027391 0.17641142 0
-0.21782939 2.7930517 0.29018536 0
-0.2295913 2.7397549 0.39410064 0
-0.22968598 2.739326 0.51194012 0
-0.22823359 2.7459071 0.63842994 0
-0.24139611 2.7771332 -0.049524616 0
-0.23511843 2.8073845 0.062627628 0
-0.23411299 2.8122296 0.17699431 0
-0.23622836 2.802036 0.29107511 0
-0.24861525 2.7423453 0.39373076 0
-0.25030732 2.7341914 0.50883341 0
-0.24936102 2.7387516 0.63370156 0
-0.2580094 2.7942917 -0.050008338 0
-0.25218689 2.8242402 0.063097551 0
-0.2512213 2.8292067 0.17842086 0
-0.25261167 2.8220553 0.29403272 0
-0.26854339 2.7401097 0.3921698 0
-0.26975441 2.7338805 0.50745732 0
-0.26994473 2.7329018 0.62964779 0
-0.27733651 2.7984176 -0.05002569 0
-0.26719898 2.8543081 0.06405361 0
-0.26769063 2.8515975 0.18045899 0
-0.26673526 2.8568647 0.29973233 0
-0.2883577 2.7376552 0.3906208 0
-0.29087624 2.7237699 0.50285363 0
-0.28881189 2.7351508 0.62912053 0
-0.29797271 2.7948623 -0.049773734 0
-0.30469897 2.7549212 0.39424196 0
-0.30858445 2.7318492 0.5044865 0
-0.30799961 2.7353218 0.62782162 0
-0.31505689 2.8130159 -0.050316017 0
-0.32744977 2.7333102 0.38787121 0
-0.32832262 2.7276964 0.50207293 0
-0.32882845 2.724443 0.62199664 0
-0.33589461 2.8075809 -0.050014433 0
-0.34607589 2.7361891 0.38789716 0
-0.34717861 2.7284567 0.50139832 0
-0.34783629 2.7238452 0.62059164 0
-0.35430998 2.8191817 -0.050336093 0
-0.36689085 2.7222462 0.38365567 0
-0.36673048 2.7234819 0.49888051 0
-0.36736307 2.7186079 0.61735195 0
-0.37527162 2.8109992 -0.049954507 0
-0.38462716 2.731039 0.38532799 0
-0.38533604 2.7249804 0.49861729 0
-0.38535777 2.7247949 0.61898196 0
-0.39475951 2.8143873 -0.049998239 0
-0.4042598 2.7232633 0.38280541 0
-0.40387812 2.7269244 0.49858186 0
-0.40510175 2.7151875 0.61412942 0
-0.4134436 2.8269284 -0.050378859 0
-0.42274618 2.7253103 0.38286564 0
-0.42470902 2.7038691 0.49027255 0
-0.42404234 2.7111514 0.61170208 0
-0.4342398 2.8161418 -0.049932115 0
-0.44210553 2.7164009 0.3801814 0
-0.44284701 2.7069983 0.49079761 0
-0.44215563 2.7157655 0.61296898 0
-0.45432708 2.8113415 -0.049709305 0
-0.4605864 2.7167945 0.37994048 0
-0.46193096 2.6964846 0.48684961 0
-0.46248385 2.6881332 0.60094905 0
-0.4736765 2.817435 -0.049885172 0
-0.47939706 2.7106414 0.37808651 0
-0.48031586 2.6934888 0.48548907 0
-0.48015338 2.6965222 0.60397893 0
-0.49343368 2.8166785 -0.049824897 0
-0.49815094 2.701474 0.37552431 0
-0.49824944 2.6990681 0.48706156 0
-0.49860063 2.6904917 0.60112435 0
-0.51298779 2.8216991 -0.049979866 0
-0.51631826 2.7041793 0.37605366 0
-0.51705927 2.6780326 0.47985059 0
-0.51694423 2.682092 0.59738564 0
-0.53288502 2.8120627 -0.049620263 0
-0.53469026 2.6973841 0.37421712 0
-0.53518552 2.6659241 0.47569019 0
-0.53496748 2.6797767 0.59626281 0
-0.55243438 2.8333468 -0.050373517 0
-0.55289698 2.6864462 0.37138265 0
-0.55295551 2.6678674 0.47628087 0
-0.55291885 2.6795089 0.59608173 0
-0.57230729 2.8322999 -0.05033838 0
-0.57083881 2.6767802 0.36893094 0
-0.57067931 2.6598914 0.47364578 0
-0.57079071 2.6716876 0.5928666 0
-0.59194034 2.8213489 -0.049958479 0
-0.58854485 2.6672709 0.36657616 0
-0.58841795 2.6615121 0.47427782 0
-0.58849502 2.6650095 0.59021735 0
-0.611467 2.8149762 -0.049750801 0
-0.60623288 2.6638739 0.36583763 0
-0.60597593 2.6564555 0.4727616 0
-0.60603046 2.6580298 0.58753419 0
-0.63135976 2.8193884 -0.049937248 0
-0.62361068 2.6553943 0.36385739 0
-0.6235742 2.6546228 0.4723919 0
-0.62320733 2.6468582 0.58320355 0
-0.65111893 2.8193185 -0.049972493 0
-0.64043546 2.6409028 0.36039495 0
-0.64007598 2.6348999 0.46613312 0
-0.64050436 2.6420536 0.58160013 0
-0.6400854 2.635057 0.69807494 0
-0.67045319 2.8130019 -0.049793065 0
-0.65781295 2.6387186 0.3601318 0
-0.65745574 2.6337934 0.46614772 0
-0.6570608 2.6283479 0.57639056 0
-0.65694928 2.6268098 0.69451487 0
-0.6907351 2.819263 -0.05007283 0
-0.67392212 2.6219199 0.46264032 0
-0.67401832 2.6230495 0.57475561 0
-0.67385471 2.6211288 0.69234604 0
-0.70960301 2.8090222 -0.049770139 0
-0.68923593 2.6009698 0.45616367 0
-0.69022733 2.6110971 0.57043916 0
-0.69022691 2.611093 0.68809235 0
-0.72860694 2.801924 -0.049588442 0
-0.70675236 2.6043646 0.56837606 0
-0.70622402 2.5995882 0.6831969 0
-0.74959475 2.8119261 -0.05003019 0
-0.72378767 2.6027699 0.56853986 0
-0.72283268 2.5950301 0.6818974 0
-0.76962787 2.8125854 -0.050145589 0
-0.7384358 2.5835533 0.67720747 0
-0.78614527 2.7890823 -0.049398139 0
-0.75460839 2.5774803 0.67534173 0
-0.80802357 2.8019636 -0.049972564 0
-0.8280313 2.8017781 -0.050084662 0
-0.84774137 2.7995634 -0.050132446 0
-0.86555815 2.7877405 -0.049839497 0
-0.88513273 2.7851 -0.049889192 0
-0.90441841 2.7810163 -0.049895197 0
-0.92493272 2.7820082 -0.050096501 0
-0.94167984 2.7675753 -0.049739793 0
-0.96416378 2.7755597 -0.050218098 0
-0.98052901 2.7605042 -0.049854193 0
-1.0023841 2.7649837 -0.050223634 0
-1.0190595 2.7517674 -0.049943671 0
-1.0393451 2.7503915 -0.050114542 0
-1.0574819 2.742234 -0.050040316 0
-1.0784837 2.7424073 -0.050289519 0
-1.0943168 2.7278728 -0.049991019 0
-1.1117623 2.7181811 -0.049883578 0
-1.1312038 2.7137649 -0.049986381 0
-1.1516013 2.7114933 -0.050181814 0
-1.169768 2.7035794 -0.050169539 0
-1.1826737 2.6836531 -0.04969798 0
-1.2048758 2.6850688 -0.050066415 0
-1.2193147 2.6692684 -0.049769443 0
-1.2416978 2.6703818 -0.050148502 0
-1.2609781 2.6646698 -0.050268836 0
-1.2729305 2.6445277 -0.049820278 0
-1.2868 2.6286662 -0.04954778 0
-1.3065932 2.6240287 -0.049737219 0
-1.323835 2.6145844 -0.049741216 0
-1.3415049 2.6058662 -0.049784135 0
-1.3570926 2.5935957 -0.049688891 0
-1.3779794 2.5900736 -0.04996765 0
-1.3970002 2.5832241 -0.050119184 0
-1.4095449 2.5662026 -0.049849089 0
-1.4331459 2.5660796 -0.050308842 0
-1.4426415 2.5448151 -0.049870107 0
-1.4571373 2.5311782 -0.049765799 0
-1.4787562 2.5275049 -0.050107617 0
-1.4913477 2.5112722 -0.049906101 0
-1.5047933 2.4963887 -0.049770303 0
-1.5204029 2.4844198 -0.049772944 0
-1.5358142 2.4721959 -0.049772892 0
-1.5549598 2.4644976 -0.049991157 0
-1.5674285 2.4486606 -0.049842447 0
-1.5785471 2.4314227 -0.049633265 0
-1.5922403 2.4172955 -0.049577039 0
-1.612741 2.4106812 -0.049891595 0
-1.6308496 2.4011824 -0.050081361 0
-1.6421713 2.3844151 -0.049924962 0
-1.6599966 2.3744078 -0.050112356 0
-1.66465 2.3511615 -0.049641863 0
-1.687892 2.3463283 -0.050114375 0
-1.6890808 2.3202608 -0.049502727 0
-1.7129592 2.3156133 -0.050013959 0
-1.7274024 2.3020289 -0.050070126 0
-1.7377536 2.2848151 -0.049939886 0
-1.755675 2.2741606 -0.050176155 0
-1.7646885 2.2558956 -0.050003015 0
-1.7740138 2.2380357 -0.049856551 0
-1.2352854 1.802435 0.52298927 0
-1.7762305 2.2147021 -0.049398705 0
-1.2360951 1.7890986 0.51843041 0
-1.7979878 2.206774 -0.049838077 0
-1.2390273 1.7776335 0.51562852 0
-1.813691 2.1939268 -0.050007887 0
-1.235593 1.7615533 0.50824547 0
-1.8184854 2.172981 -0.04970149 0
-1.2331249 1.7465627 0.50178802 0
-1.8378894 2.1626599 -0.05004891 0
-1.2417331 1.7397633 0.5035795 0
-1.8477411 2.1454403 -0.049984526 0
-1.2325815 1.7206043 0.49261746 0
-1.8620292 2.1312537 -0.050120894 0
-1.23078 1.7069448 0.48717317 0
-1.8646129 2.1092932 -0.049764495 0
-1.2366639 1.6985862 0.487342 0
-1.8818032 2.0969198 -0.050040755 0
-1.2444307 1.6914151 0.48890719 0
-1.8830543 2.0744526 -0.049652293 0
-1.2405123 1.6769346 0.48237461 0
-1.8986766 2.0609441 -0.049877297 0
-1.2383317 1.6638211 0.47722062 0
-1.9029789 2.0406332 -0.049639627 0
-1.2325492 1.6488543 0.46974412 0
-1.9121515 2.0232759 -0.04961412 0
-1.2465773 1.6454953 0.47595915 0
-1.9225787 2.0066268 -0.049648874 0
-1.246052 1.6338131 0.47230533 0
-1.9343603 1.9906707 -0.049746741 0
-1.9508113 1.9770553 -0.050039876 0
-1.9738005 1.9664924 -0.050599299 0
-1.9695495 1.9422177 -0.050078847 0
-1.9732723 1.922106 -0.049888324 0
-1.985517 1.9060277 -0.050043281 0
-1.987301 1.8852109 -0.049797107 0
-1.9973457 1.8681006 -0.049883049 0
-1.9931955 1.8450811 -0.049428888 0
-1.9967418 1.8254566 -0.049283765 0
-2.0074682 1.8086834 -0.049423236 0
-1.995878 1.783591 -0.048721179 0
-1.9954054 1.762953 -0.048455242 0
-2.0079403 1.7469273 -0.04869068 0
-1.9997343 1.7239701 -0.048154015 0
-1.9988856 1.7036997 -0.047905415 0
-1.9908378 1.681464 -0.047399085 0
-2.0000346 1.6644995 -0.047545034 0
-1.9950923 1.6435969 -0.047175441 0
-1.9892498 1.6227288 -0.046783578 0
-2.0135887 1.6095037 -0.047511686 0
-2.005446 1.588258 -0.047053732 0
-1.9958299 1.5670195 -0.046552982 0
-2.0031149 1.5495902 -0.046679121 0
-1.987057 1.5276053 -0.045964487 0
-2.0022211 1.5116911 -0.046393719 0
-2.0047667 1.4933828 -0.046372712 0
-1.99428 1.4731023 -0.045889448 0
-1.9989513 1.4552761 -0.045962643 0
-1.9929914 1.4360491 -0.04566123 0
-1.9978786 1.4182677 -0.045758698 0
-1.9989647 1.40003 -0.0457277 0
-1.9990128 1.3817198 -0.045667768 0
-1.9977251 1.3633479 -0.045568321 0
-2.0078437 1.3457625 -0.045885265 0
-1.9985954 1.326974 -0.04551762 0
-1.9885936 1.3084136 -0.045131687 0
-2.0075109 1.2908512 -0.045787003 0
-2.0132983 1.2726583 -0.045981314 0
-2.0112643 1.2543254 -0.045904581 0
-1.1432559 0.26436788 -0.050258033 0
-0.39591748 0.26436988 0.42051181 0
-0.38679647 0.2643699 0.49190724 0
-1.1303859 0.2446872 -0.049802981 0
-0.40238607 0.25385627 0.42378142 0
-1.1348947 0.22488666 -0.049977284 0
-0.40665233 0.24323186 0.35356703 0
-0.41602927 0.24299565 0.43070924 0
-1.1310507 0.20527565 -0.049862146 0
-0.51051432 0.22872899 0.10742201 0
-0.50890827 0.22878969 0.17591064 0
-1.2276738 0.20162375 0.42987677 0
-1.2364545 0.20129189 0.56166196 0
-1.2427968 0.20105217 0.7001459 0
-1.1271701 0.18574467 -0.049754456 0
-0.51190257 0.21676122 0.10762773 0
