# .PCD v0.7 - Point Cloud Data file format
VERSION 0.7
FIELDS x y z intensity
SIZE 4 4 4 4
TYPE F F F F
COUNT 1 1 1 1
WIDTH 1313
HEIGHT 1
VIEWPOINT 0 0 0 1 0 0 0
POINTS 1313
DATA ascii
-1.3558172 -1.196301 0.29393309 0
-1.3580401 -1.1966401 0.32699159 0
-1.3553437 -1.1962287 0.35947162 0
-0.8858518 -1.1475896 -0.090514623 0
-1.0082664 -1.1694404 -0.092125662 0
-1.1401188 -1.1929759 -0.089534052 0
-1.201857 -1.2039959 -0.070740931 0
-1.6161414 -1.2779452 -0.091014542 0
-2.5500214 -1.4446414 -0.14090396 0
-3.4100296 -1.5981516 -0.14126003 0
-5.1153231 -1.902544 -0.14098182 0
-10.233944 -2.8162105 -0.14075732 0
-1.3320531 -1.2272358 0.29134682 0
-1.3251114 -1.2259967 0.32243818 0
-1.3260144 -1.2261579 0.35494024 0
-0.88652414 -1.1709274 -0.091588326 0
-0.99767661 -1.1936759 -0.09102533 0
-1.1190699 -1.2185202 -0.086926006 0
-1.184996 -1.2320125 -0.06915427 0
-1.6166447 -1.3203536 -0.092004843 0
-2.542021 -1.5097407 -0.14131372 0
-3.3779998 -1.6808318 -0.14014813 0
-5.0900774 -2.0312247 -0.14095451 0
-10.183197 -3.0735807 -0.14072423 0
-1.2528167 -1.2458926 0.31137893 0
-1.2354747 -1.2423434 0.33875865 0
-0.87802362 -1.1924219 -0.090795271 0
-0.99006242 -1.2183132 -0.090611733 0
-1.1282854 -1.2502556 -0.08951623 0
-1.1790831 -1.2619945 -0.069239177 0
-1.6028633 -1.3599268 -0.091415457 0
-2.5241892 -1.5728381 -0.14094096 0
-3.3678117 -1.7677928 -0.14074625 0
-5.0550723 -2.1577055 -0.14061549 0
-10.137438 -3.3322012 -0.14096457 0
-0.8762089 -1.215461 -0.091583379 0
-0.98661506 -1.2439276 -0.091126524 0
-1.121231 -1.2786362 -0.089497469 0
-1.3187392 -1.3295609 -0.090560682 0
-1.5919765 -1.4000111 -0.091291778 0
-1.9873306 -1.5019472 -0.090688296 0
-3.3601189 -1.8559002 -0.14168638 0
-5.0330057 -2.2872291 -0.1410493 0
-10.060021 -3.5833704 -0.1406026 0
-0.86305839 -1.2354797 -0.089999802 0
-0.97308046 -1.2668281 -0.089795642 0
-1.1161132 -1.3075821 -0.089931525 0
-1.3022157 -1.3606081 -0.089462094 0
-1.5707446 -1.4371196 -0.09003254 0
-1.9706525 -1.5510646 -0.090386413 0
-3.3194695 -1.9353807 -0.14039871 0
-4.9888625 -2.4110382 -0.14057529 0
-10.003333 -3.839803 -0.14089189 0
-0.8488673 -1.2547947 -0.088284068 0
-0.96390551 -1.2907343 -0.089428149 0
-1.101352 -1.3336746 -0.088833891 0
-1.2924021 -1.3933612 -0.089457668 0
-1.5587478 -1.4765713 -0.090008371 0
-1.963752 -1.6031004 -0.091159083 0
-3.3020017 -2.0211883 -0.14094511 0
-4.9622855 -2.5398841 -0.14110611 0
-9.9292994 -4.0916486 -0.140918 0
-0.84879202 -1.2784989 -0.089832045 0
-0.96433568 -1.3178226 -0.091088079 0
-1.0854628 -1.3590466 -0.087644808 0
-1.2818718 -1.4258918 -0.089469023 0
-1.5382899 -1.5131602 -0.089061849 0
-1.9410964 -1.6502501 -0.090513937 0
-3.280683 -2.1061602 -0.14137109 0
-4.9155879 -2.6625781 -0.14081131 0
-9.8421755 -4.3392763 -0.14077835 0
-0.84151465 -1.2999542 -0.089897774 0
-0.94921041 -1.3396662 -0.089777432 0
-1.0923208 -1.3924372 -0.090540893 0
-1.2670453 -1.4568657 -0.088959403 0
-1.539626 -1.5573779 -0.090935789 0
-1.9212928 -1.6981149 -0.090264358 0
-3.2423899 -2.1852601 -0.14069536 0
-4.8681922 -2.7847633 -0.14063209 0
-9.7596245 -4.5884447 -0.14090487 0
-0.83293951 -1.3209257 -0.089790575 0
-0.94523537 -1.3655839 -0.090824924 0
-1.0759107 -1.4175513 -0.089499064 0
-1.257337 -1.4897015 -0.089336403 0
-1.5232813 -1.595463 -0.090744518 0
-1.9174991 -1.7522368 -0.091741227 0
-3.210362 -2.2663865 -0.14063367 0
-4.8313284 -2.9110174 -0.14113249 0
-9.6632576 -4.8325944 -0.14084359 0
-0.82863009 -1.3437077 -0.090789936 0
-0.93883401 -1.390788 -0.091520093 0
-1.0732678 -1.4482194 -0.091019146 0
-1.2517686 -1.5244768 -0.090476148 0
-1.508062 -1.6339679 -0.090815715 0
-1.8966851 -1.7999916 -0.091644473 0
-3.1822934 -2.3492165 -0.14102718 0
-4.7682028 -3.0267329 -0.1404693 0
-9.5568924 -5.0725098 -0.14068384 0
-0.82175696 -1.3655938 -0.091335289 0
-0.92302376 -1.4119112 -0.090405606 0
-1.0595288 -1.474346 -0.09069062 0
-1.2379591 -1.5559567 -0.090490468 0
-1.4812075 -1.6672138 -0.089516617 0
-1.8690425 -1.8446021 -0.090968706 0
-3.1488633 -2.4299674 -0.1411729 0
-4.7296414 -3.1529849 -0.14120461 0
-9.4470186 -5.3106227 -0.1405865 0
-0.82154828 -1.3908939 -0.093593769 0
-0.90734756 -1.432786 -0.089416496 0
-1.0419803 -1.4985213 -0.089781158 0
-1.2138368 -1.5824313 -0.089015611 0
-1.4773169 -1.711077 -0.091296591 0
-1.8307317 -1.8836341 -0.089292727 0
-3.1124437 -2.5094378 -0.14124547 0
-4.6679125 -3.2689047 -0.14091288 0
-9.350421 -5.5551682 -0.14098601 0
-0.78560573 -1.3982368 -0.087473162 0
-0.90401328 -1.4597971 -0.091145493 0
-1.0284595 -1.524497 -0.089718126 0
-1.2001739 -1.6137716 -0.089283191 0
-1.444346 -1.7407172 -0.08941438 0
-1.8278934 -1.9401242 -0.091429345 0
-3.0658922 -2.5837619 -0.14067771 0
-4.6034141 -3.3831227 -0.14062454 0
-9.2258224 -5.7863216 -0.14081778 0
-0.77740437 -1.4192604 -0.088047989 0
-0.89260232 -1.4828944 -0.091306545 0
-1.0084662 -1.5468965 -0.08856117 0
-1.192618 -1.6486199 -0.090661161 0
-1.4347757 -1.7823852 -0.090729408 0
-1.7884952 -1.9777762 -0.089848436 0
-3.0281351 -2.6625397 -0.14095318 0
-4.5388899 -3.4970646 -0.1404831 0
-9.1085911 -6.0213184 -0.14099678 0
-0.77090037 -1.4414529 -0.0891793 0
-0.87818456 -1.5042994 -0.090939976 0
-0.99843633 -1.5747423 -0.089391701 0
-1.1707778 -1.6756992 -0.089875333 0
-1.4049774 -1.8128923 -0.089465581 0
-1.7727751 -2.0283463 -0.090907477 0
-2.988986 -2.740797 -0.14127995 0
-4.4833241 -3.6161733 -0.14097692 0
-8.968442 -6.2435346 -0.14071965 0
-0.76527226 -1.4645215 -0.090686567 0
-0.86165982 -1.5243014 -0.090219505 0
-0.9822607 -1.5990986 -0.089181669 0
-1.1580091 -1.7080984 -0.090689443 0
-1.3820173 -1.8470292 -0.089227326 0
-1.7472939 -2.0735753 -0.09105026 0
-2.940573 -2.8136516 -0.14101101 0
-4.4117937 -3.7261086 -0.14076746 0
-8.836112 -6.4700885 -0.14080432 0
-0.75512427 -1.4850714 -0.091216899 0
-0.85073435 -1.5477636 -0.09086097 0
-0.98258388 -1.6342183 -0.092330553 0
-1.1333883 -1.7331018 -0.08966171 0
-1.376956 -1.8928109 -0.091606088 0
-1.7233027 -2.1199129 -0.091488115 0
-2.8904927 -2.8852472 -0.14075074 0
-4.3406625 -3.836134 -0.14072993 0
-8.6868906 -6.685986 -0.14057848 0
-0.7401309 -1.5024372 -0.090636827 0
-0.83197272 -1.566029 -0.089853011 0
-0.94915634 -1.6471674 -0.088963725 0
-1.1095294 -1.7582105 -0.088853069 0
-1.344377 -1.9208202 -0.090277843 0
-1.6955898 -2.1640015 -0.091642819 0
-2.8397427 -2.9562185 -0.14058129 0
-4.2693443 -3.9460816 -0.1408371 0
-8.5494995 -6.9096823 -0.14083606 0
-0.72820795 -1.521893 -0.090968512 0
-0.82487386 -1.5924985 -0.091653161 0
-0.94201463 -1.6780592 -0.090950035 0
-1.1007714 -1.7940165 -0.090766706 0
-1.3236352 -1.9567981 -0.090739511 0
-1.6576003 -2.2007289 -0.090740032 0
-2.7923317 -3.029546 -0.14085147 0
-4.181078 -4.0438976 -0.14012776 0
-8.3992605 -7.1248932 -0.14088961 0
-0.71144569 -1.5377411 -0.090139054 0
-0.80192626 -1.6073965 -0.089878686 0
-0.93305045 -1.708341 -0.092757486 0
-1.0854796 -1.8256871 -0.091717862 0
-1.2965647 -1.9881885 -0.09040945 0
-1.6238703 -2.2401612 -0.090429492 0
-2.7343163 -3.095026 -0.14035314 0
-4.1177807 -4.1600704 -0.14101519 0
-8.2403746 -7.3338046 -0.14084841 0
-0.69353282 -1.5524213 -0.089085974 0
-0.78978777 -1.6304679 -0.090778925 0
-0.90681583 -1.725358 -0.091108136 0
-1.0554909 -1.8459086 -0.090172775 0
-1.2701253 -2.0199413 -0.090285592 0
-1.6011403 -2.2883389 -0.091552816 0
-2.6880219 -3.1696179 -0.1410467 0
-4.0258784 -4.2543955 -0.14038053 0
-8.0685091 -7.5322919 -0.14057411 0
-0.69013286 -1.5791792 -0.092168294 0
-0.77809525 -1.6542585 -0.091951884 0
-0.88714713 -1.7473384 -0.090933539 0
-1.0358144 -1.8742318 -0.090592764 0
-1.2466196 -2.0541623 -0.090731688 0
-1.5599008 -2.3215599 -0.090576805 0
-2.6295342 -3.2345335 -0.1408059 0
-3.9485488 -4.360364 -0.14076822 0
-7.9078827 -7.739809 -0.14078896 0
-0.674474 -1.5959299 -0.092009611 0
-0.75809216 -1.6710294 -0.091198124 0
-0.8612777 -1.763703 -0.089506395 0
-1.0040479 -1.8919287 -0.088872217 0
-1.2144209 -2.0808702 -0.089956649 0
-1.5279633 -2.3624706 -0.090849541 0
-2.5701001 -3.2984405 -0.14062294 0
-3.8599472 -4.4568853 -0.140625 0
-7.7391858 -7.9409294 -0.14091843 0
-0.65909302 -1.6129112 -0.092050575 0
-0.73612374 -1.6856884 -0.090025388 0
-0.84184277 -1.7855698 -0.089592017 0
-0.98905325 -1.9246514 -0.09043818 0
-1.1917173 -2.1161246 -0.090796731 0
-1.489531 -2.3974934 -0.090425931 0
-1.9870989 -2.8675859 -0.090234406 0
-3.7790496 -4.5605865 -0.14112598 0
-7.5639868 -8.1365223 -0.14100356 0
-0.64021397 -1.6264509 -0.091171227 0
-0.72217035 -1.7078923 -0.091048233 0
-0.81974709 -1.8048557 -0.089189656 0
-0.96270281 -1.946913 -0.089955695 0
-1.1620214 -2.144979 -0.090650879 0
-1.454947 -2.4360638 -0.090612896 0
-1.9280816 -2.906225 -0.089150958 0
-3.6877885 -4.6548724 -0.14112924 0
-7.3744926 -8.3184071 -0.14078218 0
-0.62219185 -1.6406053 -0.090635665 0
-0.70024812 -1.7221873 -0.090078019 0
-0.80469155 -1.8313481 -0.090564542 0
-0.94490212 -1.9778917 -0.091311164 0
-1.1352619 -2.1768496 -0.091119148 0
-1.4188168 -2.473212 -0.090725861 0
-1.8817626 -2.957068 -0.089420058 0
-3.5899026 -4.7423601 -0.14084469 0
-7.1914248 -8.5065546 -0.14092347 0
-0.60403663 -1.654446 -0.090154342 0
-0.68683439 -1.7454746 -0.091561921 0
-0.77290344 -1.8400996 -0.088052206 0
-0.91477144 -1.9960704 -0.090290628 0
-1.1096866 -2.2103617 -0.091944136 0
-1.3868442 -2.5150709 -0.091547094 0
-1.8536994 -3.0283353 -0.091725029 0
-3.4952114 -4.8330264 -0.14092395 0
-6.9948268 -8.6805315 -0.14076312 0
-0.5836013 -1.6654967 -0.089029692 0
-0.6664198 -1.7612965 -0.091240384 0
-0.76257449 -1.8725228 -0.09091308 0
-0.89381945 -2.0243397 -0.091309525 0
-1.0763245 -2.2354515 -0.091551013 0
-1.3405232 -2.5410619 -0.090493478 0
-1.7973931 -3.0695434 -0.091268711 0
-3.3989999 -4.9221926 -0.14105797 0
-6.797482 -8.8533669 -0.14072543 0
-0.56745946 -1.6813769 -0.089399956 0
-0.64268512 -1.7729663 -0.090040363 0
-0.74438614 -1.8967903 -0.092036776 0
-0.86208159 -2.0400879 -0.090127639 0
-1.0342438 -2.2497005 -0.089655124 0
-1.2993574 -2.572484 -0.090260215 0
-1.7376491 -3.1061168 -0.090532415 0
-3.3046033 -5.0139289 -0.14149195 0
-6.5939784 -9.0188389 -0.14061841 0
-0.56084472 -1.7096387 -0.093211643 0
-0.62165689 -1.7876101 -0.089718647 0
-0.72399235 -1.9188213 -0.092769168 0
-0.83653229 -2.0631166 -0.090410553 0
-1.0069751 -2.2816527 -0.090579115 0
-1.2666327 -2.6145775 -0.091418959 0
-1.6799359 -3.1445019 -0.090106122 0
-3.1913204 -5.0823503 -0.1406831 0
-6.3886847 -9.1819086 -0.1405957 0
-0.53752464 -1.7168746 -0.091437198 0
-0.61255795 -1.8182545 -0.093277819 0
-0.69063145 -1.9237419 -0.090095706 0
-0.81408471 -2.0905435 -0.09157107 0
-0.97230119 -2.3043146 -0.090236194 0
-1.2211937 -2.6406009 -0.090786986 0
-1.6362156 -3.2013497 -0.091421418 0
-3.0831063 -5.1562877 -0.14037588 0
-6.1800299 -9.3406353 -0.1405991 0
-0.51814729 -1.7290211 -0.091123305 0
-0.58127666 -1.8189781 -0.089943044 0
-0.6730746 -1.9497867 -0.091881134 0
-0.77812445 -2.0994787 -0.089634649 0
-0.93902451 -2.3287554 -0.090279438 0
-1.1823559 -2.6754935 -0.091309465 0
-1.5800837 -3.2422409 -0.091445975 0
-2.9810696 -5.2385926 -0.14070673 0
-5.9728394 -9.5017519 -0.14082129 0
-0.49547398 -1.736101 -0.08964736 0
-0.56225055 -1.8365532 -0.090655155 0
-0.64394987 -1.9594538 -0.090492956 0
-0.75251645 -2.1227708 -0.090307645 0
-0.9097144 -2.3592443 -0.091289632 0
-1.1381582 -2.702893 -0.091094233 0
-1.5162778 -3.2716997 -0.090630375 0
-2.8748417 -5.3153911 -0.14086948 0
-5.7529678 -9.6449661 -0.14068726 0
-0.47978395 -1.7536529 -0.090969138 0
-0.53912294 -1.8479964 -0.090099357 0
-0.62265545 -1.9808053 -0.091539122 0
-0.72604489 -2.1451848 -0.090932451 0
-0.87356633 -2.37973 -0.091005825 0
-1.0942907 -2.7306612 -0.091047071 0
-1.4647517 -3.3196597 -0.091489695 0
-2.7687814 -5.3929448 -0.14121987 0
-5.5338588 -9.7891588 -0.14073589 0
-0.46002764 -1.765005 -0.09083695 0
-0.51589376 -1.8590091 -0.089586429 0
-0.59485018 -1.9918665 -0.090705954 0
-0.6958164 -2.1617589 -0.090703391 0
-0.82889295 -2.3856826 -0.088875346 0
-1.0467737 -2.7523031 -0.090456583 0
-1.4021933 -3.3503563 -0.091038905 0
-2.6481969 -5.4469647 -0.14043671 0
-5.3135309 -9.9318342 -0.14089349 0
-0.44318894 -1.7815266 -0.092088796 0
-0.4965232 -1.8766565 -0.09064088 0
-0.56566525 -1.9999822 -0.089462705 0
-0.66408932 -2.1755369 -0.090150826 0
-0.79194278 -2.4035833 -0.088527925 0
-1.0000243 -2.7747293 -0.09008757 0
-1.3422948 -3.3852222 -0.091056071 0
-2.5399265 -5.5213847 -0.14091693 0
-5.08393 -10.059011 -0.14078511 0
-0.42426297 -1.7947621 -0.092637084 0
-0.47404706 -1.8890615 -0.090669639 0
-0.54181033 -2.0174162 -0.090105571 0
-0.63273787 -2.1896482 -0.089786716 0
-0.76188827 -2.4342804 -0.090000354 0
-0.95696187 -2.8037822 -0.090548314 0
-1.2746403 -3.4055181 -0.090041541 0
-1.9238317 -4.6351943 -0.090965129 0
-4.8517518 -10.18116 -0.14069939 0
-0.40036982 -1.7983108 -0.090994127 0
-0.44972542 -1.8978004 -0.090047322 0
-0.51649213 -2.0323868 -0.09039963 0
-0.59383667 -2.1882958 -0.087126188 0
-0.72493124 -2.4525528 -0.089933105 0
-0.91062397 -2.8268671 -0.090495475 0
-1.2188083 -3.4480968 -0.090912692 0
-1.8276393 -4.6753616 -0.090589054 0
-4.6194825 -10.303082 -0.14076191 0
-0.37874648 -1.80585 -0.090448059 0
-0.42694095 -1.9094882 -0.090173088 0
-0.48943764 -2.0438821 -0.090176903 0
-0.57344198 -2.2245264 -0.090474613 0
-0.69076055 -2.4768102 -0.090759046 0
-0.86446333 -2.8503435 -0.090604685 0
-1.1539965 -3.4729605 -0.090517186 0
-1.7370746 -4.7268209 -0.090922542 0
-4.3820891 -10.414704 -0.14071085 0
-0.35764045 -1.8142906 -0.090244047 0
-0.40629545 -1.9262222 -0.091452621 0
-0.45927104 -2.0480933 -0.088774301 0
-0.53817147 -2.2296047 -0.089092188 0
-0.64960635 -2.4859624 -0.089761548 0
-0.81184834 -2.8592024 -0.089344226 0
-1.0897114 -3.4984307 -0.090297647 0
-1.6368812 -4.7572026 -0.090299107 0
-4.1447778 -10.526654 -0.14082143 0
-0.3349373 -1.8186973 -0.089239843 0
-0.38220495 -1.9354067 -0.09129145 0
-0.43280905 -2.060354 -0.088949047 0
-0.51368737 -2.2600522 -0.09170603 0
-0.61004466 -2.4979696 -0.089265846 0
-0.76831418 -2.8887556 -0.090315036 0
-1.028443 -3.5310442 -0.090742134 0
-1.5441601 -4.80441 -0.090654828 0
-3.9050219 -10.633654 -0.14095774 0
-0.31536445 -1.8307945 -0.090122245 0
-0.36010551 -1.9498116 -0.092305221 0
-0.4050557 -2.0693848 -0.088672854 0
-0.47908106 -2.2663019 -0.0907555 0
-0.5761596 -2.5245435 -0.090718932 0
-0.72146368 -2.9110713 -0.090665109 0
-0.96544462 -3.5600924 -0.091032244 0
-1.4520117 -4.8544245 -0.091263779 0
-3.656805 -10.719461 -0.14071745 0
-0.29605699 -1.8443378 -0.091434069 0
-0.33182716 -1.9473072 -0.090050317 0
-0.38230261 -2.0926077 -0.09099073 0
-0.44456401 -2.2718358 -0.08983729 0
-0.53543681 -2.5334258 -0.090076707 0
-0.67238861 -2.9276607 -0.090563647 0
-0.89964741 -3.5818565 -0.090898938 0
-1.3509564 -4.881012 -0.090827994 0
-3.4080238 -10.802565 -0.1405676 0
-0.27218583 -1.8446617 -0.089894794 0
-0.31002882 -1.9631627 -0.091585331 0
-0.35419494 -2.1014638 -0.090910815 0
-0.41223598 -2.2832127 -0.089917518 0
-0.50253206 -2.5659645 -0.092468642 0
-0.62472045 -2.9485834 -0.09100949 0
-0.82773697 -3.5843065 -0.089471661 0
-1.2500384 -4.9066944 -0.090476654 0
-3.1621671 -10.894305 -0.14078365 0
-0.25099498 -1.8529196 -0.090257503 0
-0.28193048 -1.9589514 -0.089280285 0
-0.32666641 -2.1122842 -0.091289721 0
-0.3760353 -2.2814965 -0.088200338 0
-0.45797169 -2.5623343 -0.090541147 0
-0.57157189 -2.9517004 -0.089838229 0
-0.76666594 -3.6203873 -0.090636708 0
-1.1496712 -4.9331422 -0.090289004 0
-2.9094918 -10.964946 -0.14063796 0
-0.22869551 -1.8573803 -0.089900903 0
-0.25883955 -1.9713162 -0.090358801 0
-0.29788375 -2.1188924 -0.091068558 0
-0.34723827 -2.305439 -0.090357833 0
-0.42027399 -2.5814936 -0.091518022 0
-0.52306592 -2.9700186 -0.090272434 0
-0.70068806 -3.641381 -0.090814807 0
-1.0529838 -4.9729609 -0.090868928 0
-2.6578166 -11.038783 -0.14072403 0
-0.20787589 -1.867762 -0.090963461 0
-0.23428088 -1.9788271 -0.090604313 0
-0.27009144 -2.1294541 -0.091639675 0
-0.3151539 -2.3189967 -0.091107674 0
-0.37635314 -2.5764141 -0.0896919 0
-0.47480866 -2.9905398 -0.091033213 0
-0.63592118 -3.6682143 -0.091531523 0
-0.94917482 -4.9858279 -0.090272807 0
-2.402626 -11.099362 -0.14064504 0
-0.18810311 -1.8843896 -0.093491815 0
-0.20868035 -1.9818028 -0.09009514 0
-0.23684886 -2.1151533 -0.088149585 0
-0.28136072 -2.3258736 -0.091010578 0
-0.33720297 -2.5902321 -0.090265624 0
-0.42487743 -3.0052855 -0.091355525 0
-0.56547678 -3.6708865 -0.090635188 0
-0.84548181 -4.9964375 -0.089697503 0
-2.1492019 -11.168283 -0.1409182 0
-0.162434 -1.8725264 -0.089957692 0
-0.18379943 -1.9880081 -0.090331025 0
-0.20872843 -2.1227512 -0.088476487 0
-0.24497412 -2.3186619 -0.089022614 0
-0.2961348 -2.5951893 -0.089901231 0
-0.37203407 -3.0054307 -0.090410285 0
-0.49648756 -3.6781113 -0.090193413 0
-0.94479084 -6.1012239 -0.14105256 0
-1.8900558 -11.210453 -0.14070916 0
-0.14206938 -1.88877 -0.092626967 0
-0.15876849 -1.9937762 -0.090602614 0
-0.18200061 -2.1398628 -0.090503685 0
-0.21270804 -2.3329554 -0.090233736 0
-0.25668254 -2.609473 -0.090764962 0
-0.32123467 -3.0153854 -0.090522312 0
-0.42913517 -3.6938784 -0.090481646 0
-0.81385708 -6.113061 -0.14056239 0
-1.6328694 -11.263122 -0.14090241 0
-0.11813015 -1.883095 -0.09069749 0
-0.13218865 -1.9885951 -0.088913031 0
-0.15204048 -2.1375706 -0.089418881 0
-0.17912687 -2.3408368 -0.090647392 0
-0.21593586 -2.6170645 -0.090954371 0
-0.26920033 -3.0167804 -0.08994887 0
-0.36217311 -3.7144821 -0.091230132 0
-0.68486106 -6.1360493 -0.14075309 0
-1.3719779 -11.292425 -0.14069955 0
-0.095471986 -1.8851771 -0.090560995 0
-0.10864479 -2.0075388 -0.091925479 0
-0.1233972 -2.1445732 -0.089998685 0
-0.14511149 -2.3462763 -0.090834789 0
-0.17438456 -2.6181927 -0.090504564 0
-0.21730609 -3.0168889 -0.089379705 0
-0.29266858 -3.7169275 -0.09081883 0
-0.55479729 -6.1518292 -0.14075842 0
-1.1123438 -11.330854 -0.14086485 0
-0.073126942 -1.8908501 -0.091312744 0
-0.082541265 -2.0053902 -0.091057993 0
-0.094055153 -2.1454747 -0.089690514 0
-0.1109978 -2.3516088 -0.09112788 0
-0.13366891 -2.6274388 -0.091130786 0
-0.16640621 -3.0257397 -0.089753278 0
-0.22410788 -3.7277713 -0.091120683 0
-0.42418948 -6.1620789 -0.14065896 0
-0.85134625 -11.359116 -0.14094561 0
-0.050001226 -1.8861878 -0.089983158 0
-0.057242084 -2.013588 -0.092268057 0
-0.065427795 -2.1576126 -0.091354497 0
-0.07562536 -2.3370352 -0.088739865 0
-0.0810479 -2.4324429 -0.067967571 0
-0.081294715 -2.4367855 -0.034357149 0
-0.080435462 -2.4216671 0.00067229033 0
-0.081336387 -2.4375186 0.033439916 0
-0.081025802 -2.432054 0.067371406 0
-0.081162639 -2.4344616 0.10101172 0
-0.027099757 -1.8790842 -0.08825966 0
-0.031087738 -2.0054812 -0.090525039 0
-0.035897527 -2.1579254 -0.091191582 0
-0.040735714 -2.311269 -0.084905632 0
-0.040831257 -2.3142974 -0.05396438 0
-0.04074131 -2.3114464 -0.02250134 0
-0.040764943 -2.3121955 0.0084409658 0
-0.040335245 -2.2985766 0.039986793 0
-0.040569864 -2.3060126 0.070340827 0
-0.040724702 -2.3109202 0.10100815 0
-0.0046865698 -1.8868133 -0.089812241 0
-0.0054524057 -2.0082364 -0.090952538 0
-0.0063264989 -2.1468236 -0.089275219 0
-0.0067345849 -2.2115254 -0.070799164 0
-0.0067152395 -2.2084582 -0.041520391 0
-0.0067511462 -2.2141514 -0.013360633 0
-0.0067057959 -2.2069609 0.015842186 0
-0.006731994 -2.2111146 0.044087749 0
-0.0066908742 -2.2045953 0.072713502 0
-0.0067206724 -2.2093196 0.10100523 0
0.017983293 -1.8878711 -0.090067528 0
0.020251896 -2.0077202 -0.09088587 0
0.022811413 -2.1429381 -0.088666819 0
0.023976419 -2.2044849 -0.069836862 0
0.024067471 -2.209295 -0.041640896 0
0.023854356 -2.1980362 -0.011874391 0
0.023790462 -2.1946609 0.016688677 0
0.023835344 -2.197032 0.04473443 0
0.024018524 -2.2067091 0.072659843 0
0.024111256 -2.2116082 0.1010053 0
0.040851165 -1.8917106 -0.091036625 0
0.045442518 -1.9956133 -0.088756122 0
0.052609604 -2.1578052 -0.091263674 0
0.05434075 -2.1969812 -0.068917371 0
0.05418846 -2.1935349 -0.039910752 0
0.05443215 -2.1990495 -0.012058957 0
0.054024886 -2.1898332 0.016959371 0
0.054184735 -2.1934505 0.044856526 0
0.054208197 -2.1939814 0.072933502 0
0.054774348 -2.2067935 0.10100519 0
0.063554436 -1.8896558 -0.090874381 0
0.071289897 -2.0009484 -0.090035759 0
0.08151263 -2.1480267 -0.08992862 0
0.085288212 -2.2023473 -0.069917165 0
0.085554339 -2.206176 -0.041593958 0
0.085817799 -2.2099667 -0.013242645 0
0.084964849 -2.197695 0.01628785 0
0.085489057 -2.2052369 0.04422595 0
0.08583153 -2.2101641 0.072516099 0
0.085179083 -2.2007771 0.10100507 0
0.085617624 -1.8811109 -0.089448236 0
0.096337333 -1.9940557 -0.089128233 0
0.110421 -2.1424439 -0.089403324 0
0.11655907 -2.2071157 -0.070945136 0
0.11574513 -2.19854 -0.040993486 0
0.11611085 -2.2023931 -0.012769705 0
0.11545434 -2.1954761 0.016267838 0
0.11523923 -2.1932096 0.044670567 0
0.11584011 -2.1995406 0.072705127 0
0.11570123 -2.1980772 0.10100506 0
0.10964438 -1.8915796 -0.092207603 0
0.12333395 -2.005244 -0.091767944 0
0.13875897 -2.1333179 -0.088410504 0
0.14630133 -2.1959419 -0.069831155 0
0.14694913 -2.2013206 -0.041707028 0
0.14794442 -2.2095845 -0.013755223 0
0.14680459 -2.2001204 0.015710371 0
0.14621037 -2.1951869 0.044424698 0
0.1470201 -2.2019098 0.072572753 0
0.14715451 -2.2030258 0.1010053 0
0.13144667 -1.8821948 -0.090842254 0
0.14848642 -1.9988083 -0.091192119 0
0.16845731 -2.1354811 -0.089407749 0
0.17823359 -2.2023864 -0.071321778 0
0.17860831 -2.2049508 -0.042616401 0
0.17905837 -2.2080307 -0.013995094 0
0.17763276 -2.1982744 0.01555361 0
0.1785695 -2.2046852 0.043787342 0
0.17770074 -2.1987398 0.072551586 0
0.17685033 -2.1929197 0.10100512 0
0.15319259 -1.8743083 -0.089912616 0
0.17350072 -1.9923823 -0.090736754 0
0.19739169 -2.1312873 -0.089473911 0
0.20919627 -2.1999204 -0.071662985 0
0.21061839 -2.208189 -0.043577809 0
0.20892245 -2.1983285 -0.013538493 0
0.20781736 -2.1919034 0.015662061 0
0.20920937 -2.1999967 0.043778867 0
0.20975365 -2.2031612 0.072333001 0
0.20684442 -2.1862466 0.10100507 0
0.17838651 -1.8848889 -0.093098633 0
0.19999613 -1.9939767 -0.091940023 0
0.2275407 -2.1330247 -0.090656228 0
0.24045126 -2.1981986 -0.072224163 0
0.23967099 -2.1942596 -0.042594675 0
0.24338306 -2.2129986 -0.015470294 0
0.23901835 -2.1909652 0.015329706 0
0.24216387 -2.2068441 0.043186255 0
0.24342076 -2.2131889 0.071961299 0
0.24101123 -2.2010252 0.10100566 0
0.19914813 -1.8722031 -0.091372289 0
0.22350858 -1.9807346 -0.090414889 0
0.25398937 -2.1165335 -0.08890269 0
0.27193215 -2.1964729 -0.072901331 0
0.27382696 -2.2049146 -0.04463828 0
0.26972148 -2.1866238 -0.013569562 0
0.26921859 -2.1843834 0.015343549 0
0.27096263 -2.1921535 0.043578338 0
0.27197275 -2.1966536 0.072200269 0
0.27283737 -2.2005057 0.10100584 0
0.22177057 -1.8685499 -0.091729097 0
0.24953955 -1.9791319 -0.09125533 0
0.28255534 -2.1106079 -0.089041106 0
0.30435959 -2.1974368 -0.074087285 0
0.30433309 -2.1973314 -0.044600684 0
0.30569091 -2.2027385 -0.015809676 0
0.30559215 -2.2023451 0.013533587 0
0.30545485 -2.2017984 0.042770017 0
0.30365795 -2.1946428 0.072075345 0
0.3055605 -2.2022192 0.1010061 0
0.24218686 -1.856594 -0.090382107 0
0.27362412 -1.9696295 -0.090685315 0
0.31159389 -2.1061532 -0.089554079 0
0.33850297 -2.2029073 -0.076057918 0
0.33845216 -2.2027245 -0.046230081 0
0.33780685 -2.2004044 -0.016365824 0
0.33798316 -2.2010384 0.013042698 0
0.33619323 -2.1946025 0.042727862 0
0.33731058 -2.1986198 0.071785808 0
0.33433804 -2.1879318 0.10100591 0
0.26476476 -1.8527583 -0.090943657 0
0.29902345 -1.9648974 -0.091169618 0
0.34143823 -2.1037338 -0.090546213 0
0.3723579 -2.2049429 -0.077665277 0
0.37252828 -2.2055008 -0.047657136 0
0.3704415 -2.1986701 -0.017063646 0
0.37065515 -2.1993694 0.012514921 0
0.37109986 -2.2008252 0.041994549 0
0.36752874 -2.1891358 0.071800709 0
0.37403592 -2.2104356 0.10100685 0
0.28834519 -1.8514631 -0.092206292 0
0.32313085 -1.955827 -0.090923496 0
0.36703289 -2.0875421 -0.08929079 0
0.43167534 -2.2814825 -0.090448894 0
0.51987195 -2.5460899 -0.090818428 0
0.64867479 -2.9325244 -0.090221681 0
0.86645472 -3.5859079 -0.090375535 0
1.3017594 -4.8919096 -0.090541117 0
3.2917652 -10.862328 -0.14099754 0
0.30634198 -1.8338019 -0.089915223 0
0.34541777 -1.9418678 -0.089817278 0
0.39788324 -2.0869637 -0.090864964 0
0.46282062 -2.266551 -0.089903004 0
0.56166601 -2.5399129 -0.091739453 0
0.6970197 -2.9142404 -0.090090327 0
0.93682897 -3.5774446 -0.091431178 0
1.4036047 -4.8683357 -0.091060348 0
3.5388353 -10.773421 -0.14092994 0
0.32868955 -1.8287406 -0.090579771 0
0.37070844 -1.9363728 -0.090524726 0
0.42279041 -2.0697815 -0.089662008 0
0.49465013 -2.2538514 -0.089806415 0
0.59563762 -2.5125327 -0.090141065 0
0.74732846 -2.9010913 -0.090593912 0
0.99648535 -3.5393109 -0.090403222 0
1.5031018 -4.8370175 -0.091325559 0
3.7855835 -10.683633 -0.14099461 0
0.35371837 -1.829622 -0.092750736 0
0.3939065 -1.9253608 -0.090242483 0
0.44995105 -2.0588737 -0.089676075 0
0.52664924 -2.2415891 -0.089897268 0
0.62867284 -2.4846361 -0.088568367 0
0.79517567 -2.88129 -0.090557314 0
1.0613768 -3.5154512 -0.090560161 0
1.592544 -4.7808313 -0.090464152 0
4.0192647 -10.561922 -0.14041121 0
0.37223932 -1.8147424 -0.091419436 0
0.4168137 -1.9138466 -0.089973576 0
0.47675523 -2.0471172 -0.08966025 0
0.56068325 -2.2337182 -0.090789638 0
0.67279792 -2.4829876 -0.090447702 0
0.84504175 -2.8659451 -0.091099344 0
1.1280646 -3.4952023 -0.091120534 0
1.6928877 -4.7509985 -0.091052763 0
4.2633457 -10.466012 -0.14062852 0
0.38929236 -1.7975037 -0.089625128 0
0.44075128 -1.9046057 -0.090296529 0
0.50696635 -2.0424199 -0.091054015 0
0.58809209 -2.2112679 -0.089552946 0
0.71097684 -2.4670296 -0.090638064 0
0.88900059 -2.8375528 -0.090426408 0
1.1870743 -3.4579372 -0.09049774 0
1.7853717 -4.7031808 -0.090849705 0
4.5079517 -10.36972 -0.14099658 0
0.41232696 -1.7928525 -0.090915538 0
0.46702516 -1.8997031 -0.091668673 0
0.5349645 -2.0324197 -0.091626711 0
0.61529517 -2.1893423 -0.088491507 0
0.74234682 -2.4375324 -0.089179002 0
0.93891561 -2.821521 -0.091156505 0
1.2507728 -3.430721 -0.090772323 0
1.8754961 -4.6510916 -0.090541936 0
4.7380137 -10.242899 -0.14073226 0
0.43634403 -1.7893357 -0.092638023 0
0.48395038 -1.8768181 -0.089345001 0
0.56022918 -2.0169892 -0.091322593 0
0.64713359 -2.1766863 -0.089007653 0
0.77889806 -2.4188192 -0.089239337 0
0.98381764 -2.795383 -0.090955712 0
1.3110231 -3.3966618 -0.090633161 0
1.9621296 -4.5931468 -0.090039305 0
4.9645839 -10.110511 -0.14046961 0
0.45395049 -1.7738687 -0.091600396 0
0.51635283 -1.8819524 -0.093173422 0
0.58715194 -2.0045798 -0.091707505 0
0.6797303 -2.1649299 -0.089806832 0
0.81120229 -2.3926456 -0.088417374 0
1.0307983 -2.7729962 -0.091277562 0
1.3733407 -3.3662961 -0.090912022 0
2.5964503 -5.4847798 -0.14069222 0
5.2007613 -9.9955692 -0.14082396 0
0.46790382 -1.7528716 -0.08927872 0
0.53308183 -1.8594586 -0.091140918 0
0.60694778 -1.980253 -0.089932524 0
0.70819032 -2.145817 -0.089541115 0
0.85311377 -2.3828132 -0.089932121 0
1.0781586 -2.7508333 -0.091757692 0
1.4295571 -3.3254824 -0.090467013 0
2.7042639 -5.4100356 -0.14026515 0
5.4235773 -9.8569832 -0.14070071 0
0.49157622 -1.7478909 -0.091061719 0
0.55239809 -1.8419374 -0.090284415 0
0.62963498 -1.9613658 -0.089290075 0
0.73487347 -2.1240919 -0.08895316 0
0.88259643 -2.3525102 -0.088768668 0
1.1163146 -2.7138994 -0.090735607 0
1.4863741 -3.286108 -0.090251692 0
2.8152843 -5.3409495 -0.1402944 0
5.644948 -9.7163477 -0.14067315 0
0.50386 -1.7254627 -0.088536806 0
0.57588392 -1.8308979 -0.091001786 0
0.66286284 -1.9582256 -0.091883726 0
0.7706095 -2.1159551 -0.090781279 0
0.92014486 -2.3348587 -0.089480139 0
1.1588199 -2.684253 -0.090627529 0
1.5490766 -3.2555466 -0.090899192 0
2.9339783 -5.2828932 -0.1411027 0
5.8665051 -9.5757952 -0.14080349 0
0.53164911 -1.7255467 -0.091944836 0
0.5984866 -1.8182766 -0.091501452 0
0.68248397 -1.9348139 -0.090586491 0
0.80053204 -2.098593 -0.091199674 0
0.95532626 -2.3133533 -0.089784779 0
1.2015228 -2.6549244 -0.090676375 0
1.5970858 -3.2037256 -0.089861684 0
3.0396764 -5.2051649 -0.14096735 0
6.079936 -9.4231987 -0.14074989 0
0.55434179 -1.7175626 -0.09345042 0
0.62407142 -1.8093315 -0.093014143 0
0.70197076 -1.9118525 -0.089458384 0
0.82341826 -2.0716858 -0.090073533 0
0.9908362 -2.2920196 -0.09024965 0
1.2400825 -2.6200449 -0.090200625 0
1.6612608 -3.1743448 -0.09087979 0
3.1415536 -5.1225128 -0.14069603 0
6.2929015 -9.269906 -0.14083079 0
0.56263095 -1.6909883 -0.090079613 0
0.63695014 -1.7838376 -0.090719409 0
0.73718357 -1.9090625 -0.092656232 0
0.85556608 -2.0569615 -0.091220446 0
1.0194545 -2.2617126 -0.089513548 0
1.2825352 -2.5903878 -0.090454809 0
1.7146385 -3.1302285 -0.090742774 0
3.2437029 -5.0405378 -0.1406114 0
6.4935637 -9.1006937 -0.14059776 0
0.58835787 -1.6863259 -0.092784889 0
0.64937568 -1.7587342 -0.088550873 0
0.7467314 -1.8742639 -0.089232363 0
0.88819754 -2.0421381 -0.092521377 0
1.0491134 -2.233093 -0.089128815 0
1.3197304 -2.5542276 -0.090050109 0
1.7726955 -3.0917501 -0.09124016 0
3.3475695 -4.9606137 -0.14080516 0
6.7052312 -8.9450674 -0.14092524 0
0.59868205 -1.6633048 -0.09051805 0
0.68485558 -1.7604795 -0.093170337 0
0.77647841 -1.863799 -0.091128744 0
0.90093964 -2.0041492 -0.089653485 0
1.0793364 -2.2053204 -0.088983394 0
1.3631463 -2.525362 -0.090662189 0
1.8122816 -3.0318351 -0.089881249 0
3.4468083 -4.8750291 -0.14081246 0
6.8989873 -8.7679205 -0.14075556 0
0.61866003 -1.6513991 -0.091503434 0
0.69320124 -1.7313011 -0.090162255 0
0.79811645 -1.8437612 -0.091085441 0
0.93355137 -1.9889359 -0.091155834 0
1.1106373 -2.178757 -0.08914832 0
1.3995736 -2.4884722 -0.090402819 0
1.8584833 -2.9803846 -0.089393727 0
3.5345426 -4.776978 -0.14018393 0
7.0970769 -8.5957136 -0.14089271 0
0.63231874 -1.6326989 -0.090638392 0
0.71286559 -1.7147846 -0.09047503 0
0.82585531 -1.829933 -0.092595138 0
0.95466298 -1.9612015 -0.090390645 0
1.1421956 -2.152317 -0.089465402 0
1.4349535 -2.4506681 -0.090136193 0
1.9090807 -2.9338536 -0.089488707 0
3.6369166 -4.6947002 -0.14071114 0
7.2845263 -8.4119987 -0.14081937 0
0.64709228 -1.6153444 -0.090265684 0
0.72643328 -1.6922214 -0.089292072 0
0.83295667 -1.7954366 -0.089426465 0
0.98223805 -1.9400818 -0.091047443 0
1.1829321 -2.1345429 -0.091378473 0
1.4718796 -2.4145169 -0.090202563 0
1.9569845 -2.8845563 -0.089434989 0
3.7312589 -4.6037288 -0.14084136 0
7.4633589 -8.219924 -0.14062089 0
0.66267252 -1.5988338 -0.090262793 0
0.74917299 -1.678516 -0.090632699 0
0.8587628 -1.7794677 -0.090707131 0
1.0050915 -1.9142623 -0.090890087 0
1.2049855 -2.0984001 -0.090350978 0
1.5035032 -2.3733878 -0.089711688 0
2.5389771 -3.3272431 -0.14026749 0
3.8141172 -4.501873 -0.1403888 0
7.6395526 -8.0257769 -0.14049865 0
0.68720317 -1.5901415 -0.092907809 0
0.76909453 -1.6618441 -0.091326155 0
0.88543439 -1.7637092 -0.092237957 0
1.0293626 -1.8897299 -0.091124095 0
1.2337345 -2.0686741 -0.09052939 0
1.5309255 -2.3288889 -0.088840581 0
2.6013741 -3.2661541 -0.14065927 0
3.9060624 -4.4085145 -0.1406693 0
7.8231478 -7.8382416 -0.14076102 0
0.69490606 -1.5666138 -0.090906285 0
0.78634757 -1.6426892 -0.091455631 0
0.88971943 -1.7286901 -0.089036919 0
1.0450794 -1.8579429 -0.089903884 0
1.2439575 -2.023401 -0.088002853 0
1.5608875 -2.2870731 -0.088433795 0
2.6571441 -3.1991117 -0.14058201 0
3.9866464 -4.3052006 -0.14040023 0
7.9878778 -7.6340528 -0.14059208 0
0.70871037 -1.5484939 -0.090759687 0
0.79549444 -1.6170644 -0.089753918 0
0.91016173 -1.707666 -0.089470394 0
1.0762746 -1.8389164 -0.091625266 0
1.2748364 -1.9958055 -0.088774897 0
1.5989766 -2.2519174 -0.089128695 0
2.7131824 -3.1322818 -0.1406825 0
4.0868545 -4.2176571 -0.14145716 0
8.1605492 -7.4363937 -0.14081611 0
0.7188248 -1.5276321 -0.089758165 0
0.81717682 -1.6013895 -0.091189124 0
0.93740386 -1.6915518 -0.091402762 0
1.0957205 -1.8102787 -0.091335662 0
1.3030206 -1.9657398 -0.089241557 0
1.6235584 -2.2061217 -0.088339217 0
2.7679529 -3.0643411 -0.14081921 0
4.1532803 -4.1032434 -0.14065827 0
8.322176 -7.2296352 -0.14086138 0
0.74146861 -1.5159557 -0.092181228 0
0.83055419 -1.5793161 -0.090771548 0
0.95441473 -1.6674098 -0.091320135 0
1.1155995 -1.7820495 -0.091251709 0
1.3246338 -1.9307215 -0.088867374 0
1.6753668 -2.1801739 -0.090815939 0
2.8203161 -2.9944987 -0.14089543 0
4.223794 -3.9926972 -0.14027368 0
8.4727106 -7.0146623 -0.14073965 0
0.75008237 -1.4941134 -0.091043495 0
0.84047049 -1.5550256 -0.089702584 0
0.97280532 -1.6442055 -0.091634162 0
1.1322967 -1.7516861 -0.09075179 0
1.3491985 -1.8978553 -0.089041121 0
1.6955338 -2.1312492 -0.089763857 0
2.8701549 -2.922822 -0.14090748 0
4.3116465 -3.8942373 -0.14102693 0
8.6246395 -6.8007455 -0.14081253 0
0.75465029 -1.4699936 -0.089044012 0
0.86664218 -1.5414231 -0.092420228 0
0.97483122 -1.610427 -0.088868268 0
1.1555115 -1.7256665 -0.091475047 0
1.375832 -1.8661888 -0.089614846 0
1.7385575 -2.0975382 -0.091396876 0
2.9230845 -2.8530402 -0.14132689 0
4.3770118 -3.7803681 -0.14066489 0
8.7744408 -6.5850873 -0.14097576 0
0.77384412 -1.4552287 -0.090857185 0
0.8803823 -1.5194569 -0.092438899 0
1.0001494 -1.5916603 -0.090778969 0
1.1733096 -1.6960524 -0.091407128 0
1.4031471 -1.8346136 -0.090382881 0
1.7632488 -2.0517063 -0.091100685 0
2.9679155 -2.7779579 -0.14122382 0
4.451623 -3.6724336 -0.14096837 0
8.9026184 -6.355783 -0.14069837 0
0.77879304 -1.431847 -0.089252599 0
0.88285029 -1.4910524 -0.090135641 0
1.0208081 -1.5695461 -0.091871627 0
1.1847987 -1.6628517 -0.09044186 0
1.410459 -1.7912453 -0.088558175 0
1.7886828 -2.0064428 -0.091013618 0
3.0105214 -2.7016311 -0.14109677 0
4.5173202 -3.5589528 -0.14093708 0
9.0276747 -6.1252036 -0.14049743 0
0.80428207 -1.4198914 -0.09276665 0
0.89171213 -1.4667567 -0.089383982 0
1.0289359 -1.540313 -0.09071774 0
1.2016286 -1.6328819 -0.090475686 0
1.4474568 -1.7646538 -0.090840645 0
1.8169551 -1.9627167 -0.091350161 0
3.0541809 -2.6259098 -0.14120889 0
4.5772519 -3.4423251 -0.14075401 0
9.1676321 -5.9029164 -0.14084688 0
0.80815899 -1.3960934 -0.091164283 0
0.90972471 -1.4472799 -0.090702064 0
1.0455179 -1.5157163 -0.09127105 0
1.221115 -1.6042129 -0.091046996 0
1.4526705 -1.720911 -0.089022882 0
1.8335867 -1.9128833 -0.090581827 0
3.0921803 -2.5471833 -0.14102711 0
4.6383705 -3.3264246 -0.14078963 0
9.278903 -5.6651368 -0.14059208 0
0.82080024 -1.3768431 -0.091783635 0
0.91820413 -1.4228882 -0.090121485 0
1.0557247 -1.4878973 -0.090772443 0
1.230526 -1.5705298 -0.09015853 0
1.4792501 -1.6881075 -0.090132363 0
1.8626142 -1.8693326 -0.091233067 0
3.1234612 -2.4653642 -0.14048257 0
4.6875639 -3.2047517 -0.14036232 0
9.4103088 -5.4373016 -0.14101341 0
0.83117294 -1.3564129 -0.091982447 0
0.94828117 -1.4081991 -0.094122805 0
1.0689831 -1.4615744 -0.090954624 0
1.2418532 -1.5380191 -0.089705758 0
1.5010297 -1.652629 -0.090722553 0
1.8755282 -1.8182353 -0.090345405 0
3.1731486 -2.3920536 -0.14150982 0
4.7416368 -3.0856516 -0.14034534 0
9.5129881 -5.1955814 -0.14084683 0
0.82514167 -1.3291515 -0.088526703 0
0.94306123 -1.3777776 -0.09096735 0
1.0733551 -1.4315064 -0.089673899 0
1.2533312 -1.5057226 -0.089405991 0
1.519845 -1.6156241 -0.091045715 0
1.9005314 -1.7726065 -0.090818428 0
3.1881771 -2.3035886 -0.14004621 0
4.804565 -2.9701331 -0.14092667 0
9.6133699 -4.9531236 -0.14077845 0
0.85668892 -1.317151 -0.093815617 0
0.95780039 -1.3558908 -0.092023723 0
1.0902473 -1.4066365 -0.090743311 0
1.2731659 -1.47672 -0.090490095 0
1.511269 -1.5679468 -0.088055007 0
1.9185352 -1.7239867 -0.090702944 0
3.2230413 -2.2237954 -0.1402497 0
4.8566284 -2.8496878 -0.14110686 0
9.7166224 -4.7117462 -0.14093536 0
0.85607153 -1.2924014 -0.091872253 0
0.96439189 -1.3307981 -0.091553412 0
1.0897279 -1.3752264 -0.088877074 0
1.2783283 -1.4420803 -0.089486502 0
1.5461745 -1.5370245 -0.090632476 0
1.9385877 -1.6761245 -0.090913467 0
3.2590258 -2.1441846 -0.14068452 0
4.8906813 -2.7225628 -0.14054669 0
9.7980986 -4.462111 -0.14070466 0
0.85995001 -1.2695889 -0.091090344 0
0.95822775 -1.3016584 -0.088685744 0
1.0968039 -1.3468778 -0.088476889 0
1.2920573 -1.410592 -0.089887314 0
1.5583239 -1.4974787 -0.090487592 0
1.95578 -1.6271745 -0.09096057 0
3.2856271 -2.0611234 -0.14057417 0
4.9375725 -2.6001778 -0.14077765 0
9.8794918 -4.2127991 -0.14062858 0
0.86386949 -1.2469671 -0.090451621 0
0.97681576 -1.2806947 -0.090850256 0
1.1004022 -1.3175997 -0.087606393 0
1.3039207 -1.3783736 -0.090128519 0
1.54351 -1.4499189 -0.087177224 0
1.9529316 -1.572179 -0.089175917 0
3.3167264 -1.9794306 -0.14094639 0
4.9849162 -2.4775796 -0.14117949 0
9.9584608 -3.9627616 -0.14064755 0
0.87343246 -1.2260187 -0.091186441 0
0.97628778 -1.2539266 -0.089372955 0
1.1213081 -1.2932754 -0.089815505 0
1.3146311 -1.3457301 -0.09031903 0
1.5713516 -1.4153868 -0.089200877 0
1.975238 -1.5249742 -0.089971013 0
3.3458819 -1.8968745 -0.14132516 0
5.0053306 -2.3471367 -0.14042939 0
10.024535 -3.7090101 -0.14050832 0
0.87945682 -1.2040107 -0.091258489 0
0.99616677 -1.2325369 -0.091992967 0
1.1335992 -1.2661281 -0.090657718 0
1.3131988 -1.3100258 -0.088871248 0
1.5709558 -1.3730266 -0.087919913 0
1.971709 -1.4709786 -0.088393606 0
3.3629353 -1.8110218 -0.14098109 0
5.0391703 -2.2207265 -0.14048561 0
10.097874 -3.4571731 -0.14069761 0
0.88354409 -1.1815486 -0.091029935 0
0.98950768 -1.2046313 -0.089587308 0
1.1230623 -1.2337245 -0.087771125 0
1.3202406 -1.2766771 -0.088780217 0
1.607621 -1.3392792 -0.091207273 0
1.9871173 -1.4219475 -0.088764466 0
3.3846338 -1.7263781 -0.14112674 0
5.0765505 -2.0949397 -0.14086269 0
10.15647 -3.2015333 -0.14068677 0
0.88838375 -1.1592709 -0.091088317 0
1.0131214 -1.1831638 -0.093134202 0
1.1403629 -1.2075362 -0.089693941 0
1.3397421 -1.2457262 -0.090593226 0
1.6142956 -1.2983155 -0.091011606 0
2.5402126 -1.47567 -0.14035176 0
3.3913395 -1.6386988 -0.14035696 0
5.1056046 -1.9670573 -0.14099415 0
10.218544 -2.9464138 -0.14091142 0
0.88556796 -1.1356976 -0.089618497 0
1.007416 -1.1558641 -0.091172643 0
1.1500382 -1.1794689 -0.090448849 0
1.3387767 -1.2107061 -0.089594789 0
1.6170977 -1.2567698 -0.090480737 0
2.5582643 -1.4125382 -0.14097507 0
3.4104261 -1.5535756 -0.14062488 0
5.1245904 -1.8372793 -0.14080259 0
10.263963 -2.6878741 -0.14089471 0
0.89363271 -1.1139816 -0.090617023 0
1.0107526 -1.1303413 -0.091068827 0
1.146402 -1.1492893 -0.089109845 0
1.3515133 -1.1779398 -0.090669818 0
1.6319364 -1.2171102 -0.091496147 0
2.569977 -1.3481386 -0.14114924 0
3.4260583 -1.4677186 -0.14079994 0
5.1452088 -1.7078549 -0.14084274 0
10.30002 -2.4278948 -0.14081179 0
0.90445083 -1.0923266 -0.092319183 0
1.0075902 -1.1040889 -0.089855619 0
1.1596206 -1.1214267 -0.090688996 0
1.3541342 -1.1436094 -0.090428092 0
1.6352637 -1.17567 -0.091272466 0
2.5584927 -1.2809569 -0.13929658 0
3.4371648 -1.3811624 -0.14080879 0
5.1701093 -1.5787909 -0.14123672 0
10.332283 -2.1674955 -0.1407941 0
0.90105015 -1.0689924 -0.091100134 0
1.0151776 -1.0790982 -0.090803243 0
1.1392856 -1.0900877 -0.086844601 0
1.1301562 -1.0892793 -0.058339704 0
1.6322155 -1.1337357 -0.090424098 0
2.5812087 -1.2177674 -0.14081192 0
3.4511616 -1.2948 -0.14117399 0
5.1756926 -1.447504 -0.14087942 0
10.354208 -1.9060519 -0.14068876 0
0.89149064 -1.0455445 -0.088696815 0
1.0059271 -1.0527731 -0.08869072 0
1.1331724 -1.060811 -0.085478775 0
1.127455 -1.0604498 -0.057654712 0
1.6400024 -1.0928264 -0.090970032 0
2.591207 -1.152912 -0.14128469 0
3.4524832 -1.2073171 -0.14080355 0
5.1916127 -1.3171743 -0.14115962 0
10.376189 -1.6446735 -0.14073876 0
0.90473616 -1.0235165 -0.091272734 0
1.0165577 -1.0277511 -0.090452857 0
1.125894 -1.0318915 -0.084044196 0
1.1376567 -1.0323368 -0.058887366 0
1.6482772 -1.0516734 -0.091693334 0
2.5832543 -1.0870796 -0.14023326 0
3.4488463 -1.1198583 -0.14024113 0
5.1802592 -1.1854244 -0.14032224 0
10.403558 -1.3832233 -0.14106765 0
0.90705931 -1.0007249 -0.09164419 0
1.0232919 -1.0021914 -0.091599472 0
1.1315658 -1.0035576 -0.084858634 0
1.1296619 -1.0035336 -0.057661969 0
1.139116 -1.0036528 -0.032058571 0
1.1240667 -1.0034629 -0.0038677806 0
1.1380485 -1.0036393 0.02147186 0
1.1259507 -1.0034868 0.048593342 0
1.1314695 -1.0035564 0.074683785 0
1.1347388 -1.0035976 0.10100277 0
1.1349671 -1.0036005 0.12740313 0
1.1391115 -1.0036528 0.15402533 0
1.1282984 -1.0035163 0.17985193 0
1.1349651 -1.0036005 0.20689122 0
1.1257354 -1.003484 0.23250052 0
1.1359217 -1.0036125 0.26054862 0
1.128754 -1.0035222 0.28640342 0
1.1348 -1.0035985 0.31461161 0
0.89979833 -0.97795147 -0.090100653 0
1.0275322 -0.97633976 -0.092398189 0
1.1253736 -0.97510523 -0.083840869 0
1.1367111 -0.97496217 -0.058652703 0
1.6376706 -0.96864134 -0.090330936 0
2.5882878 -0.95664692 -0.14054956 0
3.4617553 -0.94562596 -0.14099008 0
5.1948853 -0.92375821 -0.14084958 0
10.393031 -0.85817063 -0.14066876 0
0.90935802 -0.95489317 -0.092255868 0
1.0271167 -0.95043379 -0.092443071 0
1.1265541 -0.94666827 -0.084152766 0
1.1251465 -0.94672155 -0.057128001 0
1.6364272 -0.92736012 -0.090307377 0
2.5874045 -0.89134794 -0.14062093 0
3.4493475 -0.85870737 -0.14027619 0
5.1903453 -0.79277831 -0.14079215 0
10.386347 -0.59601319 -0.1406672 0
0.90598136 -0.93212491 -0.091783144 0
1.020193 -0.92491037 -0.091383062 0
1.1322467 -0.9178322 -0.085326336 0
1.137562 -0.91749644 -0.059077937 0
1.6327697 -0.88621515 -0.090123035 0
2.5773005 -0.82655108 -0.13998407 0
3.4440634 -0.77179945 -0.14021376 0
5.1782408 -0.66225499 -0.14053585 0
10.376816 -0.33387169 -0.14075336 0
0.91150671 -0.90866637 -0.093331493 0
1.0122207 -0.89974838 -0.090244122 0
1.1508994 -0.88746864 -0.08876083 0
1.3531523 -0.86955953 -0.089801021 0
1.6494986 -0.84331858 -0.092451952 0
2.5739791 -0.76145756 -0.14013445 0
3.4469059 -0.68416148 -0.14087529 0
5.1694636 -0.53163224 -0.1405883 0
10.360383 -0.071986049 -0.14083289 0
0.90041256 -0.88671857 -0.091455229 0
1.0179511 -0.87331426 -0.091819756 0
1.153115 -0.8578999 -0.089612864 0
1.3489861 -0.83556235 -0.089699917 0
1.6384002 -0.80255699 -0.091641404 0
2.5655966 -0.69681764 -0.13996395 0
3.4295249 -0.59829348 -0.14027123 0
5.1625552 -0.40065524 -0.14088275 0
10.341147 0.18992177 -0.14100154 0
0.89801997 -0.86399025 -0.091558643 0
1.0134034 -0.84787315 -0.091572978 0
1.1509265 -0.82866347 -0.089860685 0
1.3381106 -0.80251706 -0.088767983 0
1.6252139 -0.76241356 -0.090702824 0
2.5637088 -0.63132167 -0.14055847 0
3.419131 -0.51183367 -0.14031096 0
5.1492476 -0.27016571 -0.14103259 0
10.302584 0.44966808 -0.14087197 0
0.89399701 -0.84149212 -0.091434561 0
1.0118566 -0.82198572 -0.092020385 0
1.153607 -0.79852521 -0.091043361 0
1.3354843 -0.7684235 -0.08912579 0
1.6282141 -0.71997505 -0.091797628 0
2.5533078 -0.56686687 -0.14050615 0
3.4113047 -0.42486361 -0.14068712 0
5.1169953 -0.14256236 -0.1404442 0
10.253557 0.70756727 -0.1406495 0
0.891357 -0.81874424 -0.091731809 0
0.98511934 -0.80078459 -0.087764122 0
1.1464601 -0.76988059 -0.090714239 0
1.3459126 -0.73167652 -0.091476165 0
1.3394692 -0.73291069 -0.058307815 0
1.3515856 -0.73058987 -0.027387952 0
1.3544167 -0.73004764 0.0046319012 0
1.347646 -0.73134452 0.037136827 0
1.3578449 -0.72939098 0.068849027 0
1.3437929 -0.73208255 0.10100943 0
0.88749427 -0.79617566 -0.09188927 0
0.99102658 -0.77362245 -0.089880101 0
1.1294141 -0.74347663 -0.088839523 0
1.2131227 -0.72524178 -0.073373415 0
1.2017015 -0.72772974 -0.042653564 0
1.2078775 -0.72638434 -0.014324231 0
1.2040764 -0.72721237 0.014889756 0
1.2113256 -0.72563326 0.043301482 0
1.2004718 -0.7279976 0.072427511 0
1.2005628 -0.72797775 0.10100545 0
0.87349075 -0.77603215 -0.089952998 0
0.99681133 -0.7458902 -0.092117943 0
1.1251138 -0.71453053 -0.089222111 0
1.2057911 -0.6948114 -0.073332407 0
1.1989135 -0.69649243 -0.043158133 0
1.2131482 -0.69301319 -0.015505007 0
1.2126263 -0.69314075 0.013770992 0
1.2114624 -0.6934253 0.042957649 0
1.2072859 -0.69444609 0.07209748 0
1.208694 -0.69410193 0.10100589 0
0.87839323 -0.75122005 -0.092279039 0
0.98926675 -0.72113645 -0.091905944 0
1.1277524 -0.68356085 -0.090912931 0
1.1989357 -0.66424644 -0.073471926 0
1.197751 -0.66456795 -0.043958176 0
1.2155694 -0.65973324 -0.016499473 0
1.2064159 -0.66221684 0.013651649 0
1.1938986 -0.66561323 0.043426197 0
1.2179505 -0.65908712 0.071652085 0
1.1966916 -0.66485536 0.10100577 0
0.85965616 -0.73287576 -0.089516945 0
0.98189205 -0.69637412 -0.091848098 0
1.1141815 -0.65687031 -0.089969866 0
1.204433 -0.62991971 -0.075536974 0
1.2060583 -0.62943441 -0.046017248 0
1.1968671 -0.63217902 -0.015525294 0
1.2082819 -0.62877041 0.012885416 0
1.213328 -0.62726355 0.042066962 0
1.2039864 -0.6300531 0.071779363 0
1.2116033 -0.62777859 0.10100646 0
0.86503804 -0.70733547 -0.092227988 0
0.98616022 -0.66781151 -0.094219886 0
1.108672 -0.62783414 -0.09052863 0
1.2068875 -0.59578496 -0.077296861 0
1.2094278 -0.59495598 -0.047594879 0
1.197621 -0.59880877 -0.016521355 0
1.2119824 -0.59412241 0.01191611 0
1.2137935 -0.59353137 0.041577946 0
1.2060971 -0.59604287 0.071496695 0
1.21306 -0.59377074 0.1010068 0
0.84484762 -0.69016176 -0.089341022 0
0.95465112 -0.6512394 -0.089606859 0
1.1072787 -0.59713703 -0.09193743 0
1.2104613 -0.56056154 -0.079367332 0
1.206351 -0.56201851 -0.048494805 0
1.2073609 -0.56166059 -0.018499313 0
1.2149274 -0.55897844 0.010929542 0
1.2089745 -0.56108862 0.041303698 0
1.2014947 -0.56373996 0.071356006 0
1.2077178 -0.56153405 0.10100695 0
0.85167664 -0.66335416 -0.092674665 0
0.94689107 -0.62687373 -0.089823283 0
1.0943788 -0.57036525 -0.091470473 0
1.2097195 -0.52617365 -0.08094161 0
1.2147192 -0.52425808 -0.05093943 0
1.2072154 -0.52713305 -0.019601656 0
1.201172 -0.52944851 0.011117579 0
1.2107663 -0.52577257 0.040656563 0
1.2026972 -0.52886415 0.071049213 0
1.2149459 -0.52417117 0.10100751 0
0.8351922 -0.64528865 -0.09083759 0
0.94291252 -0.60086834 -0.090937071 0
1.0753179 -0.54626882 -0.09002284 0
1.2015631 -0.49420953 -0.081536494 0
1.2065475 -0.49215412 -0.051438529 0
1.2098719 -0.49078327 -0.021085961 0
1.1963751 -0.49634889 0.01057406 0
1.2106388 -0.49046704 0.040054657 0
1.2105799 -0.49049133 0.070549183 0
1.2090029 -0.49114162 0.1010077 0
0.81870347 -0.62768584 -0.08908432 0
0.92893541 -0.57894039 -0.090138637 0
1.0715321 -0.51588303 -0.091412701 0
1.2023761 -0.45802274 -0.083639614 0
1.2148392 -0.45251146 -0.054150108 0
1.2060993 -0.4563764 -0.022023907 0
1.1956148 -0.46101269 0.009652378 0
1.2003545 -0.45891675 0.039917894 0
1.2120593 -0.45374081 0.070181839 0
1.2149858 -0.45244667 0.1010083 0
0.81801701 -0.60305732 -0.091129251 0
0.9130891 -0.55811459 -0.089055844 0
1.0615028 -0.48795602 -0.09182284 0
1.2271025 -0.40967324 -0.089626364 0
1.4771423 -0.29147366 -0.089859866 0
1.8630126 -0.10906383 -0.091274209 0
3.1245029 0.48727182 -0.14056312 0
4.6981826 1.2311866 -0.14090912 0
9.3955832 3.4517562 -0.14063473 0
0.79965699 -0.58677614 -0.089140542 0
0.91685086 -0.52771336 -0.092205115 0
1.0354667 -0.46793398 -0.089421205 0
1.2149029 -0.37750259 -0.090069376 0
1.4552196 -0.25638899 -0.089356504 0
1.8372172 -0.063871711 -0.0909613 0
3.0872428 0.56611019 -0.14064059 0
4.6407571 1.3490427 -0.14091405 0
9.2893686 3.6918266 -0.14086457 0
0.79547256 -0.56341559 -0.090642028 0
0.90179497 -0.50642329 -0.09153872 0
1.025398 -0.44016811 -0.090058021 0
1.1971738 -0.34809074 -0.089765377 0
1.4407772 -0.21751145 -0.089954875 0
1.8043418 -0.022629049 -0.090014361 0
3.0423529 0.64098507 -0.14027071 0
4.579987 1.4652066 -0.1408985 0
9.1688604 3.9249909 -0.14087929 0
0.79093307 -0.53983033 -0.092221566 0
0.8848803 -0.48637727 -0.090575568 0
1.0186015 -0.41029415 -0.091454379 0
1.1773992 -0.31994328 -0.089245416 0
1.202989 -0.30538335 -0.060660396 0
1.2181348 -0.29676595 -0.029741829 0
3.0058 0.7203601 -0.14071701 0
4.51194 1.5773067 -0.14064889 0
9.0438852 4.1558423 -0.14093107 0
0.77396202 -0.52328491 -0.090886436 0
0.86895579 -0.4660165 -0.089925863 0
0.9964065 -0.38918093 -0.090060674 0
1.173852 -0.28220531 -0.091496132 0
1.1451616 -0.29950169 -0.05517583 0
1.1835781 -0.27634165 -0.027922129 0
2.9524095 0.79002517 -0.13995804 0
4.4534764 1.6949663 -0.14106913 0
8.9069405 4.3798046 -0.14081572 0
0.75151092 -0.51059335 -0.088252522 0
0.85369545 -0.44541916 -0.089527927 0
0.97781026 -0.36625764 -0.089448981 0
1.1413666 -0.26194003 -0.089117266 0
1.1479276 -0.25775531 -0.058022339 0
1.1826122 -0.23563322 -0.029848358 0
2.9107914 0.86661488 -0.14030756 0
4.3763537 1.8013637 -0.14062856 0
8.7610111 4.5979371 -0.14060539 0
0.74788499 -0.48595217 -0.090480246 0
0.84627974 -0.41964433 -0.091022022 0
