# .PCD v0.7 - Point Cloud Data file format
VERSION 0.7
FIELDS x y z intensity
SIZE 4 4 4 4
TYPE F F F F
COUNT 1 1 1 1
WIDTH 1313
HEIGHT 1
VIEWPOINT 0 0 0 1 0 0 0
POINTS 1313
DATA ascii
-7.736938 -7.9389105 -0.14084819 0
-0.65294224 -1.6071001 -0.090251915 0
-0.74063987 -1.6899552 -0.091195606 0
-0.85282809 -1.7959485 -0.092075817 0
-0.99856603 -1.9336389 -0.092277355 0
-1.1897836 -2.1142976 -0.090485804 0
-1.4878277 -2.395884 -0.090207197 0
-1.9809091 -2.8617377 -0.08963909 0
-3.7739604 -4.555778 -0.14080003 0
-7.5637207 -8.1362715 -0.14099506 0
-0.63948965 -1.6257311 -0.090954177 0
-0.71388459 -1.6996585 -0.088848077 0
-0.81953132 -1.8046414 -0.089139678 0
-0.96437156 -1.9485713 -0.090286322 0
-1.1655853 -2.1485205 -0.091238104 0
-1.4529769 -2.4341061 -0.090353645 0
-1.9365635 -2.9146535 -0.089986898 0
-3.6875572 -4.6546426 -0.14111406 0
-7.3686829 -8.3126335 -0.14059176 0
-0.62819719 -1.6468819 -0.092482127 0
-0.70379841 -1.7258979 -0.091045283 0
-0.80534256 -1.8320285 -0.090719305 0
-0.93724006 -1.9698834 -0.089753576 0
-1.1307355 -2.1721187 -0.090353943 0
-1.4206741 -2.4751532 -0.090976618 0
-1.8803289 -2.9555695 -0.089275084 0
-3.587636 -4.7399912 -0.14069204 0
-7.1900511 -8.5051193 -0.14087726 0
-0.60515761 -1.6556785 -0.090508468 0
-0.68066186 -1.7386885 -0.089834101 0
-0.78518486 -1.8536018 -0.091051988 0
-0.91396248 -1.9951811 -0.090121679 0
-1.0923269 -2.1912761 -0.088928856 0
-1.3853464 -2.5134242 -0.091339312 0
-1.843316 -3.0169196 -0.090646215 0
-3.4879084 -4.8249969 -0.14041865 0
-7.0028238 -8.6893225 -0.14103945 0
-0.58624238 -1.6685517 -0.089888103 0
-0.66840214 -1.7635896 -0.091811307 0
-0.75186956 -1.86014 -0.088222884 0
-0.88449216 -2.0135505 -0.089305215 0
-1.080217 -2.239954 -0.092246644 0
-1.3442215 -2.5453396 -0.091021292 0
-1.7934271 -3.0649557 -0.090844758 0
-3.3909924 -4.9129295 -0.14048794 0
-6.8045006 -8.8614855 -0.14097495 0
-0.56867021 -1.682851 -0.089805432 0
-0.64488244 -1.7756417 -0.090692453 0
-0.73919743 -1.8904729 -0.090693183 0
-0.86674291 -2.0457633 -0.091159754 0
-1.045445 -2.2633383 -0.091717727 0
-1.2979207 -2.5707347 -0.090048917 0
-1.7375658 -3.1060154 -0.090523235 0
-3.3008723 -5.0093861 -0.14121827 0
-6.6029487 -9.0297604 -0.14094701 0
-0.55279738 -1.6993207 -0.090430237 0
-0.6214329 -1.787323 -0.089650057 0
-0.71378708 -1.9057366 -0.090041913 0
-0.83598286 -2.062412 -0.090284996 0
-1.0142887 -2.2910302 -0.091968991 0
-1.2561657 -2.6011572 -0.089830346 0
-1.6876624 -3.1544085 -0.090984412 0
-3.2042339 -5.0989079 -0.14166065 0
-6.3987989 -9.1948767 -0.14097808 0
-0.53303355 -1.7108066 -0.089832522 0
-0.60612667 -1.8095649 -0.091241635 0
-0.69483912 -1.9294271 -0.091258131 0
-0.81462806 -2.0912776 -0.091699429 0
-0.97367656 -2.3061728 -0.090506397 0
-1.2187104 -2.6372457 -0.090397365 0
-1.6331657 -3.1972289 -0.091063015 0
-3.0951197 -5.1725192 -0.14131598 0
-6.1884918 -9.3520689 -0.14092983 0
-0.51419139 -1.723384 -0.08965946 0
-0.58226794 -1.8203906 -0.090268083 0
-0.66805875 -1.9426394 -0.090446062 0
-0.77847046 -2.0999718 -0.089719303 0
-0.94293261 -2.3343241 -0.091074564 0
-1.1790595 -2.6707962 -0.090773828 0
-1.5768704 -3.2376621 -0.091054909 0
-2.9848974 -5.2440472 -0.14101696 0
-5.9665384 -9.492774 -0.14056627 0
-0.49427268 -1.7342939 -0.089186095 0
-0.56752133 -1.8444821 -0.092448436 0
-0.64732105 -1.9645251 -0.091493793 0
-0.74940181 -2.1180854 -0.08951699 0
-0.90656191 -2.354502 -0.090624101 0
-1.1410805 -2.707289 -0.091586955 0
-1.5195059 -3.2765558 -0.091038026 0
-2.8782408 -5.3205047 -0.14115535 0
-5.7578259 -9.6522741 -0.14089127 0
-0.47876024 -1.7520254 -0.090560444 0
-0.53606802 -1.8431393 -0.089018621 0
-0.61942577 -1.9756703 -0.09054213 0
-0.72441483 -2.1425931 -0.090502195 0
-0.8710376 -2.3757095 -0.090450726 0
-1.0992197 -2.738498 -0.091911204 0
-1.4592675 -3.3109403 -0.090769581 0
-2.7661932 -5.3888292 -0.14099354 0
-5.5403376 -9.7994595 -0.14101882 0
-0.4641782 -1.771989 -0.092563875 0
-0.51568282 -1.8586541 -0.089508645 0
-0.59259343 -1.9880691 -0.089979954 0
-0.69341707 -2.1577218 -0.090043388 0
-0.83180076 -2.3905754 -0.089540564 0
-1.0474124 -2.7533779 -0.090573274 0
-1.403338 -3.3522823 -0.091195531 0
-2.6510897 -5.4518323 -0.14070031 0
-5.3109918 -9.9275618 -0.14077795 0
-0.44104463 -1.7777019 -0.091156743 0
-0.4984608 -1.8801125 -0.091387145 0
-0.56800795 -2.0041606 -0.090250023 0
-0.65682596 -2.1625814 -0.088063546 0
-0.79320538 -2.4058354 -0.088829674 0
-1.0017408 -2.7777908 -0.090415202 0
-1.3443097 -3.3888159 -0.091344111 0
-2.5417204 -5.5245843 -0.1410877 0
-5.0894251 -10.068812 -0.14104638 0
-0.42019278 -1.7870525 -0.090783976 0
-0.47626755 -1.8932675 -0.091565467 0
-0.53772694 -2.0096817 -0.088668101 0
-0.63660657 -2.1969762 -0.090951256 0
-0.76352131 -2.4373736 -0.090409167 0
-0.95864069 -2.8069623 -0.090883963 0
-1.2811475 -3.4178436 -0.091015927 0
-1.9195201 -4.627027 -0.090535186 0
-4.8553295 -10.187937 -0.14087756 0
-0.40410104 -1.805832 -0.092778794 0
-0.44972575 -1.897801 -0.090047456 0
-0.51157856 -2.0224822 -0.088582493 0
-0.60326964 -2.2073104 -0.090109162 0
-0.72327155 -2.4492071 -0.089496635 0
-0.91304308 -2.8317435 -0.09100356 0
-1.2154943 -3.4414165 -0.090391375 0
-1.8276008 -4.6752839 -0.090585016 0
-4.6241546 -10.3125 -0.14100634 0
-0.38181004 -1.812438 -0.091992415 0
-0.42895138 -1.9138114 -0.091071106 0
-0.48729363 -2.0392716 -0.089341231 0
-0.56625217 -2.2090654 -0.088078357 0
-0.68342608 -2.4610381 -0.088726141 0
-0.8657003 -2.8530035 -0.090878509 0
-1.1555378 -3.476275 -0.090772741 0
-1.7336568 -4.7194715 -0.090545185 0
-4.3841567 -10.419149 -0.14082482 0
-0.35760248 -1.8142033 -0.090223812 0
-0.40473965 -1.9226431 -0.090717547 0
-0.4611688 -2.052459 -0.089556687 0
-0.54057169 -2.2351265 -0.089938335 0
-0.64871353 -2.4839084 -0.089499809 0
-0.81769842 -2.8726606 -0.09071397 0
-1.0949537 -3.5104907 -0.091216944 0
-1.6369615 -4.7573872 -0.09030848 0
-4.1471367 -10.532081 -0.14095899 0
-0.33800143 -1.826263 -0.09097489 0
-0.38130653 -1.9331883 -0.09084066 0
-0.43205652 -2.058496 -0.088619553 0
-0.51127285 -2.2540905 -0.090802081 0
-0.61530751 -2.5109642 -0.090904407 0
-0.76755244 -2.8868747 -0.090125628 0
-1.0291246 -3.5327272 -0.090869077 0
-1.5495799 -4.8177924 -0.091326989 0
-3.9058516 -10.635703 -0.14100914 0
-0.31430811 -1.8279845 -0.089484148 0
-0.35859391 -1.9457905 -0.091496103 0
-0.41020539 -2.0830836 -0.091078095 0
-0.47848123 -2.2647064 -0.090515949 0
-0.57292593 -2.5159416 -0.089644887 0
-0.7234832 -2.9164436 -0.091200806 0
-0.96302009 -3.553643 -0.090550549 0
-1.4496119 -4.8480406 -0.090946279 0
-3.6609631 -10.730522 -0.14099219 0
-0.29612136 -1.8445232 -0.091475777 0
-0.33017835 -1.9425609 -0.08910393 0
-0.37910521 -2.0834036 -0.089389332 0
-0.44184849 -2.2640188 -0.088674329 0
-0.53671771 -2.537113 -0.090532906 0
-0.67381006 -2.9317524 -0.090967961 0
-0.90167618 -3.5876966 -0.091331147 0
-1.3508197 -4.8806186 -0.090808593 0
-3.4162188 -10.826155 -0.14114822 0
-0.27257207 -1.8458712 -0.090164669 0
-0.30934656 -1.9610263 -0.091162927 0
-0.35087538 -2.091069 -0.089117415 0
-0.41282845 -2.2850678 -0.090191208 0
-0.49717414 -2.5491867 -0.09041021 0
-0.62205112 -2.9402246 -0.090190478 0
-0.83017415 -3.591938 -0.090031736 0
-1.2502437 -4.9073372 -0.090508081 0
-3.1618969 -10.89346 -0.14076301 0
-0.2513451 -1.8541197 -0.090523221 0
-0.28349251 -1.9643052 -0.090330742 0
-0.32432282 -2.1042516 -0.089914508 0
-0.37872028 -2.2906995 -0.089547567 0
-0.45726627 -2.5599165 -0.090246789 0
-0.57544684 -2.9649818 -0.091129623 0
-0.76851785 -3.6267347 -0.091098942 0
-1.1524123 -4.9425373 -0.090744622 0
-2.9134061 -10.978362 -0.1409629 0
-0.22938693 -1.8599936 -0.090475507 0
-0.25901228 -1.9719691 -0.090485997 0
-0.29661345 -2.1140912 -0.090252303 0
-0.34626123 -2.3017459 -0.089820988 0
-0.41762531 -2.5714822 -0.090307705 0
-0.52543235 -2.9789631 -0.091136046 0
-0.70028633 -3.6398623 -0.090704985 0
-1.0517918 -4.9684558 -0.090651967 0
-2.6588943 -11.042856 -0.14082199 0
-0.20805363 -1.8685095 -0.091126792 0
-0.23554109 -1.9841279 -0.091630541 0
-0.2679294 -2.1203601 -0.090103395 0
-0.31011188 -2.2977889 -0.088044174 0
-0.38014385 -2.5923586 -0.091607325 0
-0.47507602 -2.9916644 -0.091141112 0
-0.63380939 -3.6593318 -0.090893231 0
-0.94644117 -4.9743295 -0.089722596 0
-2.4052942 -11.110585 -0.14091326 0
-0.1862714 -1.8757184 -0.091607951 0
-0.20915937 -1.9840707 -0.090531699 0
-0.24043091 -2.1321108 -0.090998076 0
-0.28121039 -2.3251619 -0.090908371 0
-0.33861864 -2.5969341 -0.091066189 0
-0.42474431 -3.0046554 -0.091295414 0
-0.5662086 -3.6743512 -0.090882741 0
-0.8480311 -5.0085063 -0.090271749 0
-2.1494849 -11.169622 -0.14095001 0
-0.16530168 -1.8880265 -0.093308322 0
-0.18462867 -1.9924903 -0.091189556 0
-0.21072565 -2.1335464 -0.090280779 0
-0.24593537 -2.3238575 -0.089765169 0
-0.29768851 -2.6035872 -0.090899386 0
-0.37163618 -3.0032799 -0.090206139 0
-0.49972719 -3.6956217 -0.091438346 0
-0.94391412 -6.0964851 -0.14082819 0
-1.8905978 -11.213383 -0.14077844 0
-0.14054218 -1.8791667 -0.090560026 0
-0.15820128 -1.9902096 -0.089922376 0
-0.18173859 -2.1382153 -0.090229489 0
-0.21222623 -2.3299255 -0.089802615 0
-0.25839466 -2.620239 -0.092039026 0
-0.32062706 -3.0115647 -0.090161197 0
-0.43067965 -3.7035902 -0.091169126 0
-0.81587493 -6.1257496 -0.14116052 0
-1.6327018 -11.262067 -0.1408776 0
-0.1194925 -1.8933185 -0.092889838 0
-0.13292943 -1.9941542 -0.089969344 0
-0.15330759 -2.1470795 -0.090995483 0
-0.17777359 -2.3306811 -0.089207567 0
-0.21585526 -2.6164598 -0.090883069 0
-0.26807672 -3.0083485 -0.089154877 0
-0.36223835 -3.7149718 -0.091264658 0
-0.68354899 -6.1262031 -0.14029065 0
-1.3733535 -11.302748 -0.14094168 0
-0.094849393 -1.8793939 -0.089324586 0
-0.10757014 -1.9975564 -0.090034433 0
-0.12287145 -2.1396897 -0.089191414 0
-0.14505975 -2.3457956 -0.090766855 0
-0.17429514 -2.617362 -0.090406932 0
-0.21802929 -3.0236065 -0.090010352 0
-0.29229778 -3.7134831 -0.090576641 0
-0.55384213 -6.1429572 -0.140343 0
-1.1121635 -11.32918 -0.1408257 0
-0.072649725 -1.885044 -0.090074427 0
-0.082398199 -2.0036495 -0.090729035 0
-0.094082676 -2.1458097 -0.089745753 0
-0.10922454 -2.3300343 -0.088085704 0
-0.133688 -2.627671 -0.09115804 0
-0.16644661 -3.0262313 -0.089799307 0
-0.22414163 -3.7281818 -0.091149472 0
-0.42458302 -6.1668668 -0.14088261 0
-0.85063678 -11.350483 -0.14074425 0
-0.050657637 -1.897737 -0.092442043 0
-0.056503911 -2.0006001 -0.089817815 0
-0.06493751 -2.1489863 -0.089934461 0
-0.075763263 -2.3394616 -0.089081399 0
-0.081382342 -2.4383271 -0.068656407 0
-0.081093982 -2.4332535 -0.034026954 0
-0.080489442 -2.422617 0.00060578645 0
-0.081161283 -2.4344378 0.033583578 0
-0.081321701 -2.4372602 0.067250162 0
-0.080727085 -2.4267981 0.1010115 0
-0.027598897 -1.8949043 -0.091624059 0
-0.030943114 -2.0008976 -0.089661263 0
-0.035508852 -2.1456063 -0.089165948 0
-0.0408879 -2.3160927 -0.085583828 0
-0.040650491 -2.3085682 -0.053294454 0
-0.040693443 -2.3099294 -0.02235966 0
-0.04077306 -2.3124528 0.0084229652 0
-0.040743966 -2.3115306 0.039383415 0
-0.040949211 -2.3180358 0.070061147 0
-0.040798329 -2.3132536 0.10100821 0
-0.0047178511 -1.891773 -0.090866499 0
-0.0054885652 -2.0139694 -0.09203238 0
-0.006402872 -2.1589324 -0.091265373 0
-0.0066372808 -2.1960981 -0.068631016 0
-0.0066547845 -2.1988733 -0.040400121 0
-0.0067267125 -2.2102773 -0.012999034 0
-0.0066652182 -2.2005274 0.016291955 0
-0.0066679697 -2.2009637 0.044560336 0
-0.0067757075 -2.2180455 0.072400771 0
-0.0067120437 -2.2079515 0.10100519 0
0.018161811 -1.8973022 -0.092072569 0
0.020327918 -2.0117364 -0.091642447 0
0.022799581 -2.142313 -0.088564076 0
0.023751201 -2.1925867 -0.06816446 0
0.023999589 -2.2057087 -0.041221682 0
0.024018249 -2.2066946 -0.012682712 0
0.023928693 -2.2019634 0.016178066 0
0.023941016 -2.2026145 0.044474486 0
0.023952469 -2.2032194 0.072740994 0
0.024015585 -2.2065539 0.10100515 0
0.040460519 -1.8828702 -0.089155652 0
0.045917738 -2.0063677 -0.090783663 0
0.052223615 -2.1490703 -0.089826666 0
0.054579291 -2.2023795 -0.069676749 0
0.054390945 -2.198117 -0.040446807 0
0.054481372 -2.2001634 -0.012163026 0
0.054369345 -2.1976283 0.016413892 0
0.054597232 -2.2027855 0.04442152 0
0.054445531 -2.1993523 0.072808504 0
0.05434553 -2.1970892 0.10100491 0
0.063952602 -1.8953843 -0.09209498 0
0.071770653 -2.0078654 -0.091341682 0
0.081479065 -2.1475437 -0.089849047 0
0.084833451 -2.1958044 -0.068995453 0
0.084730722 -2.1943264 -0.040205691 0
0.084842741 -2.1959381 -0.011930076 0
0.084537961 -2.1915531 0.016718255 0
0.085517563 -2.205647 0.044206809 0
0.084919356 -2.1970403 0.072821967 0
0.085194618 -2.2010007 0.10100507 0
0.086007133 -1.8852148 -0.090324499 0
0.09724737 -2.003644 -0.090942331 0
0.11024679 -2.1406085 -0.089100309 0
0.11509679 -2.191709 -0.068770222 0
0.11599954 -2.2012205 -0.041308183 0
0.11605425 -2.2017968 -0.012713796 0
0.11586682 -2.1998222 0.01596264 0
0.11521271 -2.1929302 0.044683635 0
0.11604564 -2.2017062 0.072654553 0
0.11554001 -2.1963789 0.10100501 0
0.10916986 -1.8876396 -0.091364063 0
0.1238829 -2.0098019 -0.092632659 0
0.13928348 -2.1376729 -0.089131422 0
0.14566745 -2.1906788 -0.069086172 0
0.14531234 -2.1877303 -0.040107209 0
0.14650629 -2.1976438 -0.012632614 0
0.14698964 -2.2016571 0.015602173 0
0.14590454 -2.1926475 0.044543769 0
0.14644542 -2.1971383 0.072684497 0
0.14646642 -2.1973126 0.10100514 0
0.13245298 -1.8890816 -0.092321686 0
0.14806049 -1.9958934 -0.090637259 0
0.16805573 -2.1327329 -0.088951282 0
0.17782268 -2.1995742 -0.070922382 0
0.17775741 -2.1991274 -0.041928578 0
0.17788473 -2.1999989 -0.01323743 0
0.17724347 -2.1956103 0.015741834 0
0.17838465 -2.2034202 0.043846861 0
0.17920817 -2.2090559 0.072309181 0
0.17744131 -2.1969643 0.10100524 0
0.15267308 -1.8712878 -0.089261137 0
0.17357184 -1.9927958 -0.090815775 0
0.19858502 -2.1382256 -0.090630956 0
0.20929 -2.2004654 -0.071740709 0
0.20923376 -2.2001386 -0.042623121 0
0.20878744 -2.1975436 -0.013464166 0
0.20994206 -2.2042568 0.014785768 0
0.21016277 -2.2055399 0.043517012 0
0.20843579 -2.1954989 0.072513767 0
0.20851026 -2.1959321 0.10100535 0
0.17700015 -1.8778905 -0.091582112 0
0.19926046 -1.9902629 -0.091226943 0
0.2271942 -2.1312754 -0.090363167 0
0.2424545 -2.2083111 -0.073672943 0
0.24350332 -2.2136056 -0.044899631 0
0.23900197 -2.1908824 -0.013365841 0
0.2421007 -2.2065251 0.014220776 0
0.24144401 -2.2032101 0.043358717 0
0.23862867 -2.188998 0.07253468 0
0.24189167 -2.2054698 0.10100579 0
0.20004866 -1.8762151 -0.092246301 0
0.22582255 -1.9910439 -0.092404969 0
0.25706127 -2.1302197 -0.091207974 0
0.27337939 -2.2029207 -0.073830001 0
0.27102396 -2.1924267 -0.043142442 0
0.2727825 -2.2002614 -0.014874173 0
0.27404422 -2.2058825 0.013803149 0
0.27257574 -2.1993401 0.043235436 0
0.27300733 -2.201263 0.072090432 0
0.27414903 -2.2063496 0.10100601 0
0.2197208 -1.8603873 -0.089940153 0
0.24845897 -1.9748287 -0.090419658 0
0.2822575 -2.1094217 -0.08884012 0
0.30387583 -2.1955104 -0.073808156 0
0.30539861 -2.2015746 -0.045111988 0
0.30590475 -2.2035899 -0.01589161 0
0.30528271 -2.201113 0.013622412 0
0.306146 -2.2045507 0.042637903 0
0.30561033 -2.2024176 0.071888968 0
0.30367601 -2.1947148 0.10100588 0
0.24120945 -1.8530796 -0.08960674 0
0.27548656 -1.9763261 -0.091994487 0
0.3134422 -2.1127989 -0.090687774 0
0.33770952 -2.2000544 -0.075641774 0
0.33659595 -2.1960504 -0.045420457 0
0.33700934 -2.1975367 -0.016088 0
0.33750623 -2.1993234 0.01316713 0
0.33688828 -2.1971016 0.042607103 0
0.33801401 -2.201149 0.071724765 0
0.33969703 -2.2072005 0.10100649 0
0.26369181 -1.8492463 -0.090163045 0
0.2986834 -1.9637842 -0.090950407 0
0.34112456 -2.1027069 -0.090369768 0
0.37158918 -2.2024269 -0.077295534 0
0.37084064 -2.1999767 -0.046982039 0
0.36734498 -2.1885343 -0.016074402 0
0.37071991 -2.1995814 0.012499424 0
0.36965111 -2.1960828 0.042225394 0
0.3708753 -2.2000899 0.071534395 0
0.36850098 -2.1923182 0.10100631 0
0.28516331 -1.8419168 -0.090067364 0
0.32339767 -1.9566275 -0.091082431 0
0.37095505 -2.0993092 -0.091329344 0
0.43099773 -2.2794495 -0.090147726 0
0.52462584 -2.5603526 -0.092575513 0
0.65226638 -2.9432998 -0.091281869 0
0.86470485 -3.5806582 -0.089988671 0
1.3034441 -4.8969641 -0.090789162 0
3.291307 -10.860953 -0.14096385 0
0.30770206 -1.8375632 -0.090765394 0
0.34405118 -1.9380885 -0.089060329 0
0.39886591 -2.0896814 -0.091339909 0
0.46094978 -2.2613773 -0.089129828 0
0.56009507 -2.5355685 -0.091199525 0
0.69947249 -2.9210234 -0.090763591 0
0.93260568 -3.5657649 -0.090562902 0
1.3999695 -4.8582821 -0.090562649 0
3.5369625 -10.768242 -0.14080189 0
0.32732329 -1.825241 -0.089781202 0
0.36786622 -1.9290924 -0.08905267 0
0.42760333 -2.0821099 -0.09183713 0
0.49287513 -2.2493048 -0.089120485 0
0.59761709 -2.5176032 -0.090777226 0
0.74376512 -2.8919637 -0.089679323 0
0.99501854 -3.5355537 -0.090121247 0
1.4954257 -4.8173547 -0.090342887 0
3.7807646 -10.671288 -0.1406865 0
0.34944075 -1.8194317 -0.090401538 0
0.38755026 -1.9102186 -0.087149359 0
0.44933492 -2.0574059 -0.089414455 0
0.5260036 -2.240051 -0.089662842 0
0.63013196 -2.4881122 -0.089008965 0
0.80040258 -2.8937418 -0.091817819 0
1.0619465 -3.5168085 -0.090663068 0
1.5980715 -4.7939997 -0.091129012 0
4.0288301 -10.584709 -0.14098583 0
0.37063208 -1.811169 -0.090586565 0
0.41684115 -1.9139076 -0.089986183 0
0.47813907 -2.050194 -0.090214722 0
0.56435436 -2.2418804 -0.092047401 0
0.67334908 -2.4842131 -0.09060473 0
0.84606159 -2.8682125 -0.091331415 0
1.1288146 -3.4968696 -0.091248341 0
1.6880078 -4.7401485 -0.090498917 0
4.2665796 -10.473202 -0.14081182 0
0.39111584 -1.801299 -0.090520136 0
0.44538373 -1.9142474 -0.092311256 0
0.50472248 -2.0377498 -0.090202458 0
0.58005893 -2.1945486 -0.086946137 0
0.70488989 -2.4543607 -0.08899539 0
0.88880688 -2.8371494 -0.090384655 0
1.1874905 -3.4588032 -0.090564914 0
1.7847861 -4.701962 -0.090786763 0
4.5027132 -10.358817 -0.14071533 0
0.41288507 -1.7939428 -0.091175877 0
0.46733654 -1.9003115 -0.091797389 0
0.53569543 -2.0338476 -0.091890328 0
0.62204039 -2.2025189 -0.090571798 0
0.74027127 -2.4334779 -0.088646658 0
0.9389444 -2.8215773 -0.091162406 0
1.2507094 -3.4305973 -0.090762593 0
1.8752567 -4.6506238 -0.090517454 0
4.7437544 -10.254113 -0.14102517 0
0.43105847 -1.7796229 -0.090287544 0
0.48368707 -1.8763342 -0.089241244 0
0.55955029 -2.0157416 -0.091089152 0
0.649553 -2.1811323 -0.089719005 0
0.78165501 -2.4238853 -0.089913435 0
0.97653735 -2.7820048 -0.089534052 0
1.3160104 -3.4058263 -0.091362588 0
1.9728398 -4.6128278 -0.091082446 0
4.9733787 -10.126673 -0.14089742 0
0.45705003 -1.7792372 -0.092918076 0
0.50780636 -1.8671495 -0.089953966 0
0.58751488 -2.0052085 -0.091826804 0
0.6813606 -2.1677537 -0.090265043 0
0.81295842 -2.3956873 -0.088827856 0
1.0252962 -2.7634664 -0.09025044 0
1.3710295 -3.3622928 -0.09058886 0
2.5973909 -5.4864087 -0.14077979 0
5.2031407 -9.999691 -0.14093462 0
0.47477639 -1.7641104 -0.092078917 0
0.53214341 -1.8579239 -0.090802111 0
0.60798651 -1.9819516 -0.090259753 0
0.70902854 -2.1471877 -0.089766912 0
0.8557446 -2.3871155 -0.090521492 0
1.0688952 -2.7356846 -0.090100296 0
1.4258767 -3.3194637 -0.089973815 0
2.7067189 -5.4140506 -0.14048423 0
5.434598 -9.8750057 -0.14119186 0
0.48975363 -1.7450728 -0.090348311 0
0.55519557 -1.8462631 -0.091254689 0
0.63428134 -1.9685503 -0.090696268 0
0.74170327 -2.1346526 -0.090720616 0
0.88698858 -2.3593016 -0.089713939 0
1.1182414 -2.7168787 -0.091066785 0
1.4878627 -3.2884097 -0.090443335 0
2.8184559 -5.3458538 -0.14056632 0
5.6546793 -9.7313948 -0.1410898 0
0.50441152 -1.7262701 -0.088744633 0
0.57458204 -1.8289921 -0.090567045 0
0.65704346 -1.9497068 -0.090188153 0
0.76613349 -2.1094027 -0.089666106 0
0.91821474 -2.3320332 -0.089080222 0
1.1592989 -2.6849542 -0.090706788 0
1.5470759 -3.2526178 -0.090651236 0
2.9272623 -5.2730613 -0.14054841 0
5.8637815 -9.5718079 -0.14069122 0
0.52734119 -1.7195699 -0.090378813 0
0.59655142 -1.8155917 -0.090878077 0
0.68484795 -1.9380937 -0.091250949 0
0.79976362 -2.0975268 -0.091014989 0
0.95832777 -2.3175175 -0.090384714 0
1.2028594 -2.6567788 -0.09088973 0
1.6117518 -3.2240732 -0.091615163 0
3.0328526 -5.1956978 -0.14042406 0
6.0830774 -9.427557 -0.1408748 0
0.55367529 -1.7166854 -0.093216263 0
0.61103618 -1.7921762 -0.088955976 0
0.70890129 -1.9209735 -0.091341086 0
0.8266995 -2.0760043 -0.090835743 0
0.9871946 -2.2872269 -0.089546166 0
1.2423897 -2.6230812 -0.090556584 0
1.6577618 -3.16974 -0.090475477 0
3.1512144 -5.1352272 -0.14143941 0
6.298718 -9.2775612 -0.14105432 0
0.56582648 -1.6949805 -0.091166593 0
0.64194024 -1.790072 -0.092223488 0
0.73551065 -1.9069724 -0.092216246 0
0.85038751 -2.0504918 -0.090055816 0
1.0293852 -2.2741194 -0.091370873 0
1.2858021 -2.5944693 -0.090942793 0
1.7180343 -3.1344707 -0.091122665 0
3.2476096 -5.0454187 -0.14090244 0
6.4972043 -9.1052427 -0.14073323 0
0.5851137 -1.6824762 -0.091714762 0
0.6587739 -1.7698869 -0.091297872 0
0.74930656 -1.8773197 -0.089889146 0
0.88719225 -2.0409453 -0.092302136 0
1.0532447 -2.2379954 -0.08987812 0
1.3251804 -2.5606949 -0.090839528 0
1.7629888 -3.0802312 -0.090187095 0
3.3431242 -4.955339 -0.14048401 0
6.7051916 -8.9450207 -0.1409238 0
0.60410482 -1.6694198 -0.092255332 0
0.6715855 -1.7455152 -0.08940322 0
0.77523315 -1.8623948 -0.09082029 0
0.90562069 -2.0094278 -0.090644993 0
1.084659 -2.2113225 -0.089920975 0
1.3643497 -2.5267191 -0.090831481 0
1.8228002 -3.0436964 -0.090989552 0
3.4475152 -4.8758259 -0.14086205 0
6.9013438 -8.7705774 -0.14083815 0
0.6177175 -1.6503888 -0.091209732 0
0.68933415 -1.7271558 -0.089094497 0
0.79227811 -1.8375031 -0.089678816 0
0.93078166 -1.985967 -0.090585224 0
1.1148007 -2.1832197 -0.089861624 0
1.4048193 -2.4940951 -0.091120578 0
1.8579922 -2.9798579 -0.089343391 0
3.5395324 -4.7823267 -0.14052446 0
7.0997925 -8.5986242 -0.14098527 0
0.63197154 -1.6323451 -0.090533026 0
0.71606559 -1.7180457 -0.091335587 0
0.81718874 -1.8211008 -0.090561457 0
0.95324564 -1.9597571 -0.090106241 0
1.1402059 -2.1502891 -0.089133374 0
1.4377888 -2.4535577 -0.090514056 0
1.9110247 -2.9358346 -0.08968275 0
3.6409776 -4.6988392 -0.14098109 0
7.2855067 -8.4129972 -0.14085191 0
0.64532894 -1.6136359 -0.089743771 0
0.73103631 -1.6966815 -0.090499289 0
0.84115255 -1.803378 -0.091302074 0
0.98465466 -1.9424235 -0.091520347 0
1.1738383 -2.1257317 -0.089898564 0
1.4838462 -2.4261119 -0.091757856 0
1.962149 -2.8895605 -0.089937709 0
3.731652 -4.6041098 -0.14086686 0
7.4689088 -8.2253017 -0.14080057 0
0.6574977 -1.5940669 -0.088767268 0
0.75186485 -1.6809957 -0.091322057 0
0.86058295 -1.7811444 -0.091113858 0
1.0042045 -1.9134452 -0.090720601 0
1.207999 -2.101176 -0.090829842 0
1.5136467 -2.3827317 -0.09099897 0
2.542753 -3.3307211 -0.14062639 0
3.8187792 -4.5061674 -0.14068389 0
7.6481094 -8.0336599 -0.14076915 0
0.67913449 -1.5830768 -0.090628184 0
0.76831895 -1.6611651 -0.091131993 0
0.88187468 -1.7605923 -0.091460355 0
1.0351833 -1.8948265 -0.092211373 0
1.2301874 -2.0655684 -0.089978375 0
1.5279748 -2.3263056 -0.08847452 0
2.6069038 -3.2709959 -0.14117309 0
3.9102974 -4.4122229 -0.14093137 0
7.8266702 -7.8413258 -0.14086987 0
0.69635624 -1.5678203 -0.09130726 0
0.78623682 -1.6425971 -0.091428481 0
0.89474285 -1.7328695 -0.090110891 0
1.052361 -1.8640009 -0.091235049 0
1.2522063 -2.0302637 -0.089256935 0
1.5601941 -2.2864962 -0.088349603 0
2.6575737 -3.1994691 -0.14062107 0
3.9913528 -4.3091159 -0.14068525 0
7.9943542 -7.639441 -0.14078796 0
0.7174055 -1.5553641 -0.093115233 0
0.80021918 -1.6207974 -0.09088809 0
0.91030627 -1.7077802 -0.089500673 0
1.0676985 -1.8321401 -0.090089209 0
1.2827379 -2.0020485 -0.089951821 0
1.6051977 -2.2568328 -0.089868747 0
2.7121274 -3.131448 -0.14058851 0
4.0721922 -4.2060723 -0.14058721 0
8.1562986 -7.4330349 -0.14069013 0
0.72641522 -1.5333245 -0.091774888 0
0.81362951 -1.5987294 -0.090353973 0
0.92293066 -1.6806979 -0.088429488 0
1.0948811 -1.8096491 -0.0911882 0
1.3160006 -1.9754739 -0.091137744 0
1.636535 -2.2158532 -0.08985322 0
2.7675033 -3.0640037 -0.14077991 0
4.143364 -4.0958066 -0.14008123 0
8.3333054 -7.2379813 -0.14118481 0
0.73740214 -1.5130635 -0.091120549 0
0.83433396 -1.5820044 -0.091645174 0
0.95088124 -1.6648967 -0.090607502 0
1.1246787 -1.788507 -0.092817463 0
1.3261477 -1.9317981 -0.089084484 0
1.6768595 -2.1812356 -0.090986915 0
2.823545 -2.9967952 -0.14117242 0
4.2425804 -4.0060587 -0.14134692 0
8.4802361 -7.0200148 -0.14095438 0
0.75347298 -1.4963983 -0.09191259 0
0.84467632 -1.5578599 -0.090657838 0
0.97574329 -1.6461854 -0.092216425 0
1.1384165 -1.7558101 -0.091788895 0
1.3411789 -1.8924509 -0.087910883 0
1.6897258 -2.1273353 -0.089110129 0
2.8716209 -2.92381 -0.14103107 0
4.3076992 -3.8915775 -0.14080535 0
8.6293526 -6.8039222 -0.14094469 0
0.76039249 -1.4736561 -0.090491734 0
0.86076009 -1.5376714 -0.091106184 0
0.98961878 -1.6198586 -0.091750883 0
1.1561863 -1.7260969 -0.091587521 0
1.3583944 -1.855067 -0.087197624 0
1.729758 -2.0919259 -0.090422697 0
2.9125981 -2.8463521 -0.14045738 0
4.3759813 -3.7797108 -0.14060798 0
8.769311 -6.5818152 -0.14083427 0
0.77089739 -1.4534522 -0.090125792 0
0.87376833 -1.5154696 -0.090984292 0
0.99822676 -1.5905012 -0.090410002 0
1.1657137 -1.6914731 -0.09016066 0
1.404858 -1.835645 -0.090616353 0
1.7650883 -2.0528152 -0.091301166 0
2.9653764 -2.776427 -0.14101653 0
4.4568448 -3.6755815 -0.14125222 0
8.906332 -6.3580217 -0.14079919 0
0.78910387 -1.4377136 -0.091774218 0
0.88818455 -1.4940875 -0.091291614 0
1.0220644 -1.5702609 -0.092109181 0
1.1938754 -1.668016 -0.091909476 0
1.4062897 -1.7888731 -0.087997533 0
1.7838541 -2.0036955 -0.090495057 0
3.0037918 -2.6978021 -0.14055547 0
4.5184007 -3.5595675 -0.14099494 0
9.0391941 -6.1317577 -0.14080559 0
0.79083097 -1.4126811 -0.089522593 0
0.89562839 -1.4688559 -0.090220906 0
1.0311464 -1.5414978 -0.091129936 0
1.211048 -1.637931 -0.091977634 0
1.4335859 -1.7572185 -0.089001276 0
1.8093784 -1.9586554 -0.090547748 0
3.0567877 -2.6273072 -0.14141567 0
4.5861077 -3.4470723 -0.14122181 0
9.1537848 -5.895494 -0.14048159 0
0.79218578 -1.3880433 -0.087362178 0
0.90567327 -1.4452381 -0.089847542 0
1.0378255 -1.5118395 -0.089855321 0
1.221705 -1.6045102 -0.091139846 0
1.4563718 -1.7227764 -0.089507304 0
1.8338189 -1.9130003 -0.090606101 0
3.0826523 -2.5423813 -0.1402812 0
4.627636 -3.3210144 -0.14023 0
9.2908506 -5.6711583 -0.14090317 0
0.82493293 -1.3787967 -0.092755295 0
0.92026198 -1.4238609 -0.090550207 0
1.0513769 -1.485842 -0.089982055 0
1.227065 -1.5688937 -0.089620523 0
1.4903991 -1.6933779 -0.091573633 0
1.8552513 -1.8658519 -0.090472899 0
3.1295536 -2.4682441 -0.14095367 0
4.7087722 -3.2147772 -0.14145441 0
9.4123516 -5.4382672 -0.14106596 0
0.83320105 -1.3573098 -0.092453815 0
0.93181109 -1.4009159 -0.090730868 0
1.0616263 -1.4583212 -0.089632593 0
1.2447174 -1.5392855 -0.090145864 0
1.5129758 -1.6579117 -0.092249162 0
1.8835111 -1.8217653 -0.091160126 0
3.1620646 -2.387152 -0.14066255 0
4.7480822 -3.0885017 -0.14067343 0
9.5121613 -5.1952157 -0.14082581 0
0.83130741 -1.3316941 -0.08994437 0
0.94285625 -1.3776931 -0.090925597 0
1.0735886 -1.4316027 -0.089715414 0
1.2601031 -1.5085151 -0.090435438 0
1.5138178 -1.6131387 -0.090283744 0
1.9003294 -1.7725232 -0.090798013 0
3.1959794 -2.3068061 -0.14063622 0
4.8015242 -2.9688792 -0.14077356 0
9.6143398 -4.9535236 -0.14080286 0
0.84388179 -1.3122439 -0.090900324 0
0.95825839 -1.3560662 -0.092116095 0
1.0834078 -1.4040159 -0.089539535 0
1.2685921 -1.4749675 -0.089801736 0
1.5235269 -1.5726433 -0.089589171 0
1.9199935 -1.7245455 -0.090848707 0
3.2293088 -2.2261968 -0.14071891 0
4.8524585 -2.8480904 -0.14089899 0
9.7052708 -4.707397 -0.14065272 0
0.85244966 -1.2911177 -0.091055445 0
0.96291727 -1.3302754 -0.091258727 0
1.1059375 -1.3809723 -0.091703571 0
1.2783065 -1.4420724 -0.089483239 0
1.545314 -1.5367194 -0.090525769 0
1.9363459 -1.6753298 -0.09069147 0
3.2678285 -2.1473048 -0.14133744 0
4.8938651 -2.7236912 -0.14070396 0
9.8009577 -4.4631243 -0.14077519 0
0.85993487 -1.2695839 -0.091086946 0
0.96856451 -1.3050314 -0.090733714 0
1.0992877 -1.3476883 -0.088906296 0
1.2854429 -1.4084336 -0.088909529 0
1.5517024 -1.4953179 -0.089673556 0
1.9487964 -1.6248957 -0.090274893 0
3.2893012 -2.0623224 -0.14084436 0
4.9368272 -2.5999346 -0.14074112 0
9.8782129 -4.2123818 -0.14059731 0
0.86746711 -1.2480414 -0.091249712 0
0.96519482 -1.2772245 -0.088565938 0
1.1162651 -1.3223366 -0.090327226 0
1.3095965 -1.3800685 -0.090960957 0
1.5555855 -1.4535248 -0.088650115 0
1.956248 -1.5731694 -0.089498974 0
3.322185 -1.9810606 -0.14134465 0
4.9740767 -2.4743426 -0.14065284 0
9.9684191 -3.9657354 -0.14088918 0
0.87380677 -1.2261201 -0.091268875 0
0.98745179 -1.2569557 -0.091551743 0
1.1233723 -1.2938354 -0.090167038 0
1.3092989 -1.3442833 -0.08954256 0
1.576067 -1.4166662 -0.089771904 0
1.9501253 -1.5181603 -0.087542243 0
3.3392403 -1.8950725 -0.14084406 0
5.0119548 -2.3489342 -0.14074895 0
10.028809 -3.7101696 -0.14061128 0
0.87468207 -1.2028437 -0.090213679 0
0.98478878 -1.229756 -0.08978682 0
1.1189457 -1.2625465 -0.088178523 0
1.3252081 -1.3129611 -0.090608634 0
1.5764492 -1.3743694 -0.088580854 0
1.9795244 -1.4728888 -0.08914458 0
3.3576441 -1.8097285 -0.14060029 0
5.0349064 -2.2196844 -0.14028126 0
10.097742 -3.4571409 -0.14069445 0
0.88393515 -1.1816337 -0.091115005 0
0.99931496 -1.2067677 -0.091477834 0
1.1337942 -1.2360622 -0.089576282 0
1.3309033 -1.2789998 -0.090313829 0
1.5976578 -1.3371089 -0.090015553 0
1.9857757 -1.4216552 -0.088636316 0
3.3832235 -1.7260709 -0.14102584 0
5.0601544 -2.091368 -0.14008147 0
10.16714 -3.2038577 -0.14094065 0
0.88267279 -1.158177 -0.089852326 0
1.0099487 -1.182556 -0.092525773 0
1.1418281 -1.2078168 -0.089939125 0
1.3372726 -1.2452532 -0.090239875 0
1.6185681 -1.2991339 -0.091520019 0
2.5434017 -1.4762808 -0.14065483 0
3.3932624 -1.6390672 -0.14049384 0
5.1020169 -1.9663701 -0.14082408 0
10.217104 -2.9461377 -0.14087731 0
0.88935775 -1.1363248 -0.090435021 0
0.9888978 -1.1527992 -0.087637268 0
1.1443781 -1.178532 -0.089505933 0
1.351861 -1.2128717 -0.091458596 0
1.6216782 -1.2575278 -0.091023363 0
2.5507379 -1.4112924 -0.14026299 0
3.4080274 -1.5531787 -0.14045489 0
5.1116123 -1.8351315 -0.1401902 0
10.254695 -2.6863403 -0.1406763 0
0.89175195 -1.1137189 -0.090213366 0
1.0045549 -1.1294756 -0.08989016 0
1.1475059 -1.1494434 -0.089293055 0
1.3356844 -1.1757288 -0.088423707 0
1.638559 -1.2180352 -0.092277654 0
2.5702822 -1.3481812 -0.141178 0
3.41523 -1.4662061 -0.14003558 0
5.1503186 -1.7085686 -0.14108293 0
10.29739 -2.4275274 -0.14075004 0
0.89984357 -1.0918012 -0.091333516 0
1.0031694 -1.1035848 -0.089017577 0
1.155305 -1.1209346 -0.089975111 0
1.3478669 -1.1428947 -0.089541622 0
1.6389619 -1.1760918 -0.091707475 0
2.587873 -1.2843075 -0.14205673 0
3.4340687 -1.3808093 -0.14059094 0
5.1641932 -1.5781163 -0.1409595 0
10.329098 -2.1671324 -0.14071956 0
0.90354514 -1.0692133 -0.091632552 0
1.0087584 -1.0785297 -0.089589454 0
1.1286099 -1.0891423 -0.085083179 0
1.1370608 -1.0898907 -0.059313837 0
1.6447332 -1.1348442 -0.091892816 0
2.5831008 -1.2179348 -0.1409892 0
3.4500206 -1.294699 -0.14109389 0
5.1661949 -1.446663 -0.14043553 0
10.357969 -1.9063849 -0.14077656 0
0.9001134 -1.0460892 -0.090533353 0
1.0120544 -1.0531602 -0.08984711 0
1.1243024 -1.0602506 -0.084018059 0
1.1310612 -1.0606776 -0.058162529 0
1.634006 -1.0924476 -0.09026783 0
2.5830789 -1.1523986 -0.14052449 0
3.4377058 -1.2063836 -0.13976839 0
5.192843 -1.317252 -0.14121701 0
10.385896 -1.6452866 -0.1409649 0
0.90204144 -1.0234145 -0.090699516 0
1.0270739 -1.0281492 -0.092434995 0
1.132622 -1.0321462 -0.085150741 0
1.1378275 -1.0323434 -0.058911402 0
1.6235523 -1.050737 -0.088801585 0
2.583555 -1.087091 -0.14026135 0
3.4463272 -1.1197629 -0.14006491 0
5.1847405 -1.1855942 -0.14053103 0
10.401917 -1.3831612 -0.14102948 0
0.904737 -1.0006956 -0.0911505 0
1.0147899 -1.0020841 -0.08999797 0
1.1218997 -1.0034356 -0.083269872 0
1.1237905 -1.0034595 -0.056836758 0
1.131332 -1.0035546 -0.031148752 0
1.1360238 -1.0036138 -0.0049839448 0
1.1385139 -1.0036453 0.021439323 0
1.129057 -1.003526 0.048448719 0
1.1289572 -1.0035247 0.074742205 0
1.1355815 -1.0036082 0.10100279 0
1.1343211 -1.0035924 0.12738806 0
1.1280824 -1.0035136 0.1535112 0
1.1284633 -1.0035185 0.17986348 0
1.1338972 -1.003587 0.20679149 0
1.1262469 -1.0034904 0.23256032 0
1.1347079 -1.0035973 0.26037797 0
1.1241504 -1.003464 0.28564647 0
1.1269062 -1.0034988 0.31312421 0
0.90352064 -0.9779045 -0.09089195 0
1.0223558 -0.97640508 -0.091423117 0
1.136732 -0.97496194 -0.085707761 0
1.1191841 -0.97518337 -0.056189347 0
1.6519392 -0.96846133 -0.091998674 0
2.5989559 -0.95651233 -0.14154539 0
3.4658949 -0.94557375 -0.1412795 0
5.2027297 -0.92365921 -0.1412148 0
10.395351 -0.8581413 -0.14072274 0
0.9084301 -0.95492828 -0.092058487 0
1.0174084 -0.95080143 -0.090613179 0
1.126528 -0.94666922 -0.084148474 0
1.1188736 -0.94695908 -0.056245808 0
1.6406081 -0.92720175 -0.090796374 0
2.5854912 -0.89142042 -0.14044221 0
3.4551606 -0.85848725 -0.14068288 0
5.1800485 -0.79316825 -0.14031242 0
10.389351 -0.5958994 -0.1407371 0
0.89895642 -0.93256867 -0.090286933 0
1.0194882 -0.92495489 -0.09125004 0
1.135962 -0.91759747 -0.085938148 0
1.1417191 -0.91723382 -0.059663314 0
1.6457076 -0.88539791 -0.09163814 0
2.595016 -0.82543206 -0.14164093 0
3.448519 -0.77151799 -0.14052585 0
5.1870828 -0.66169649 -0.1409483 0
10.369119 -0.33435795 -0.14057404 0
0.8965261 -0.90999287 -0.090134718 0
1.0133135 -0.89965159 -0.090450741 0
1.1550956 -0.88709706 -0.089453168 0
1.3511665 -0.86973536 -0.089520849 0
1.643683 -0.84383357 -0.091769598 0
2.5840662 -0.76056439 -0.14107966 0
3.4381881 -0.68493348 -0.14026345 0
5.1741543 -0.53121686 -0.14080754 0
10.357641 -0.072228819 -0.1407689 0
0.88904977 -0.88801444 -0.089024283 0
1.0069273 -0.87457144 -0.089729957 0
1.1504707 -0.85820144 -0.089175455 0
1.3392612 -0.83667141 -0.088324375 0
1.6330754 -0.80316424 -0.091015048 0
2.5745854 -0.6957925 -0.14080842 0
3.4347265 -0.5977003 -0.14063722 0
5.157198 -0.40126619 -0.14063175 0
10.33329 0.18902579 -0.14081767 0
0.87961036 -0.86656177 -0.087607466 0
1.0038548 -0.84920692 -0.089757003 0
1.1444496 -0.82956821 -0.088785864 0
1.3499 -0.80087024 -0.090440892 0
1.6421802 -0.76004368 -0.092704989 0
2.5532143 -0.63278759 -0.1395694 0
3.4184442 -0.51192957 -0.14026248 0
5.1413307 -0.27127156 -0.14066045 0
10.299871 0.44928935 -0.1408083 0
0.90311724 -0.83998263 -0.093399547 0
1.0137501 -0.82167232 -0.092381887 0
1.1477137 -0.79950058 -0.090061612 0
1.3330839 -0.76882076 -0.088783868 0
1.6290346 -0.71983927 -0.091894828 0
2.5596728 -0.56581342 -0.14110833 0
3.4153464 -0.42419472 -0.14097352 0
5.1211314 -0.1418778 -0.14063936 0
10.266924 0.70977944 -0.14096449 0
0.87783885 -0.82133359 -0.08880613 0
1.0041281 -0.79714352 -0.091409527 0
1.1429584 -0.77055132 -0.09012828 0
1.3396204 -0.73288178 -0.090575822 0
1.3451163 -0.73182905 -0.058979798 0
1.3516608 -0.73057544 -0.027395105 0
1.349542 -0.73098135 0.0049788821 0
1.3468978 -0.73148781 0.037172284 0
1.3494269 -0.7310034 0.069048308 0
1.3479632 -0.73128372 0.10100955 0
0.88977468 -0.79567885 -0.092385374 0
1.0052536 -0.77052331 -0.0926226 0
1.1349062 -0.74228024 -0.089763321 0
1.2079178 -0.72637558 -0.07262478 0
1.2081591 -0.72632307 -0.043425981 0
1.2196078 -0.72382909 -0.015444821 0
1.2072623 -0.72651839 0.014661806 0
1.1999565 -0.72810984 0.043843176 0
1.2103723 -0.72584093 0.072191924 0
1.2091361 -0.72611022 0.1010057 0
0.88311881 -0.7736789 -0.092059799 0
0.99325776 -0.74675876 -0.091428913 0
1.1295447 -0.71344757 -0.089971758 0
1.206624 -0.69460785 -0.073452897 0
1.2030531 -0.69548064 -0.043656189 0
1.2078605 -0.6943056 -0.014996907 0
1.2121421 -0.69325912 0.013805838 0
1.2019719 -0.69574493 0.043412481 0
1.2137055 -0.69287699 0.071943827 0
1.2043253 -0.69516969 0.10100576 0
0.8616302 -0.75576842 -0.088587023 0
0.98937577 -0.72110689 -0.091927223 0
1.1134675 -0.68743682 -0.088480286 0
1.214376 -0.66005701 -0.075720273 0
1.1999471 -0.66397208 -0.044224117 0
1.2114705 -0.6608454 -0.01610305 0
1.2009473 -0.6637007 0.014047781 0
1.194227 -0.66552413 0.043410357 0
1.215566 -0.65973413 0.071709529 0
1.2159295 -0.65963554 0.10100634 0
0.86723411 -0.73061287 -0.09119802 0
0.9848249 -0.69549829 -0.092424624 0
1.1078887 -0.65874946 -0.0888905 0
1.2021195 -0.63061059 -0.075197645 0
1.2132478 -0.62728751 -0.046894167 0
1.2052088 -0.62968808 -0.01633787 0
1.2036842 -0.63014334 0.013220856 0
1.2085022 -0.62870461 0.042301428 0
1.2062262 -0.62938428 0.071725011 0
1.2045795 -0.62987602 0.10100625 0
0.84766543 -0.71300441 -0.088343598 0
0.97657961 -0.67093784 -0.092321716 0
1.1020732 -0.62998742 -0.089387842 0
1.209474 -0.5949409 -0.077679209 0
1.2023841 -0.59725446 -0.046728928 0
1.2162093 -0.5927431 -0.018346434 0
1.2042018 -0.59666133 0.01248827 0
1.2134124 -0.59365577 0.04159661 0
1.202526 -0.59720814 0.071584038 0
1.2082378 -0.59534436 0.10100665 0
0.8466444 -0.68952489 -0.089746229 0
0.9643777 -0.64779156 -0.091550566 0
1.0963376 -0.60101539 -0.090029605 0
1.2103469 -0.56060207 -0.0793503 0
1.191587 -0.56725198 -0.046664063 0
1.2019869 -0.56356549 -0.017967125 0
1.2039614 -0.56286556 0.011742914 0
1.2064565 -0.56198114 0.041428067 0
1.1997931 -0.56434309 0.071397983 0
1.2046533 -0.56262034 0.10100686 0
0.84744328 -0.66497612 -0.091711022 0
0.95424044 -0.62405789 -0.091305666 0
1.0853443 -0.57382679 -0.08988037 0
1.2045243 -0.52816415 -0.080159746 0
1.2137138 -0.52464324 -0.050813589 0
1.202559 -0.52891713 -0.019136226 0
1.2062423 -0.52750587 0.010737995 0
1.2115498 -0.5254724 0.040617503 0
1.2015179 -0.52931595 0.071078576 0
1.2042599 -0.52826542 0.10100719 0
0.83662349 -0.64469844 -0.091166668 0
0.94214445 -0.60118508 -0.090780579 0
1.0813916 -0.54376423 -0.091102608 0
1.2071259 -0.49191561 -0.08238212 0
1.2039695 -0.49321723 -0.051112611 0
1.2094561 -0.49095473 -0.021043984 0
1.2032064 -0.49353188 0.010057481 0
1.2112414 -0.49021852 0.040024307 0
1.2057997 -0.49246252 0.070669398 0
1.2014527 -0.49425507 0.10100747 0
0.82843238 -0.62338364 -0.091345496 0
0.93236744 -0.57742274 -0.090845428 0
1.0626876 -0.51979411 -0.089823328 0
1.2061285 -0.45636341 -0.084216215 0
1.1955285 -0.46105084 -0.051682372 0
1.2143438 -0.45273057 -0.022865346 0
1.2067108 -0.45610592 0.0088042039 0
1.2018509 -0.45825502 0.039841723 0
1.2098247 -0.45472893 0.070238642 0
1.2038816 -0.45735702 0.10100795 0
0.81158876 -0.60609615 -0.089617871 0
0.92393303 -0.55298841 -0.091315024 0
1.0651658 -0.4862245 -0.092488714 0
1.2247626 -0.41077933 -0.089262627 0
1.477214 -0.29143974 -0.089869134 0
1.853904 -0.11336967 -0.090333797 0
3.126672 0.48829725 -0.14073086 0
4.7005067 1.2322853 -0.14102879 0
9.4078588 3.4575593 -0.14095043 0
0.80139446 -0.58590049 -0.089554124 0
0.91500199 -0.52864516 -0.091815136 0
1.0423024 -0.46448895 -0.090679266 0
1.2221265 -0.37386206 -0.091206186 0
1.4550296 -0.25648472 -0.089331634 0
1.8444302 -0.06023654 -0.091715239 0
3.0908866 0.56794649 -0.14092582 0
4.6334672 1.3453686 -0.14053401 0
9.2725592 3.6833551 -0.1404269 0
0.79015678 -0.56626499 -0.089359991 0
0.90074432 -0.5069865 -0.091314204 0
1.0196762 -0.44323519 -0.088991039 0
1.2000296 -0.34655991 -0.090220742 0
1.4353355 -0.22042838 -0.089233287 0
1.8093034 -0.019969489 -0.090539806 0
3.0496461 0.64489442 -0.1408492 0
4.5845308 1.4676421 -0.14113851 0
9.1537848 3.9169095 -0.14048159 0
0.78442901 -0.54353094 -0.090630941 0
0.88878649 -0.48415479 -0.091422044 0
1.0172793 -0.41104642 -0.091204353 0
1.1784772 -0.31932989 -0.08941973 0
1.2072709 -0.30294713 -0.061236162 0
1.2193795 -0.29605767 -0.029875508 0
3.0003617 0.71726578 -0.14027959 0
4.5243187 1.5843499 -0.14131193 0
9.0351582 4.1508775 -0.14069763 0
0.77046168 -0.52539515 -0.090017654 0
0.87661451 -0.46139935 -0.09161026 0
1.0005714 -0.38667008 -0.090859957 0
1.1692603 -0.28497341 -0.090742655 0
1.1421916 -0.30129215 -0.054770518 0
1.2087597 -0.26116064 -0.03066667 0
2.9517634 0.78963572 -0.13990529 0
4.4466052 1.6908236 -0.14069559 0
8.9060545 4.3792701 -0.14079165 0
0.76296431 -0.50328827 -0.091140129 0
0.85414153 -0.44513467 -0.089627586 0
0.99173284 -0.35737768 -0.092162989 0
1.1346276 -0.26623818 -0.087993972 0
1.1431174 -0.26082328 -0.057355542 0
1.1761093 -0.23978081 -0.029128423 0
2.9221115 0.87383503 -0.1412462 0
4.374156 1.799962 -0.14050721 0
8.7636786 4.599638 -0.14067894 0
0.74829626 -0.48567495 -0.090585671 0
0.84075153 -0.42336974 -0.089766406 0
0.96634626 -0.33873191 -0.090354063 0
1.1324733 -0.22677961 -0.090781711 0
1.1503787 -0.21471325 -0.061020527 0
1.1606752 -0.20777455 -0.029561868 0
2.8672729 0.94229513 -0.14066452 0
4.3129945 1.9165611 -0.14110263 0
8.6265764 4.8234668 -0.14086685 0
0.73009354 -0.47071931 -0.089214154 0
0.82631153 -0.40228602 -0.089790948 0
0.95298111 -0.31219456 -0.091030993 0
1.1060693 -0.20331332 -0.0896082 0
1.1433305 -0.17681202 -0.062865056 0
1.1372576 -0.18113127 -0.029180458 0
2.8159308 1.012795 -0.14051922 0
4.2316828 2.0197232 -0.14072435 0
8.4737387 5.0368094 -0.14076899 0
0.72117025 -0.44919363 -0.090381317 0
0.81914121 -0.37572196 -0.091651596 0
0.92750323 -0.2944577 -0.089368843 0
1.0857145 -0.17581001 -0.089577965 0
1.1008929 -0.16442719 -0.059713323 0
1.098278 -0.16638806 -0.027053868 0
1.093891 -0.16967812 0.005466992 0
1.0988655 -0.16594759 0.037082527 0
1.1032115 -0.16268829 0.068937041 0
1.0973082 -0.16711542 0.10100952 0
1.1025912 -0.16315362 0.13306439 0
1.0980577 -0.16655335 0.16488974 0
1.0997412 -0.16529086 0.19706382 0
0.70973891 -0.42927817 -0.091038324 0
0.81003517 -0.35003135 -0.093244426 0
0.92163742 -0.2618514 -0.09187413 0
1.0556369 -0.15597484 -0.087928854 0
1.0991402 -0.12160173 -0.062604435 0
1.0983583 -0.12221947 -0.029574906 0
1.0987293 -0.1219264 0.0031623936 0
1.0993297 -0.12145188 0.035801668 0
1.103851 -0.11787954 0.06828969 0
1.0983179 -0.12225142 0.10101032 0
1.0961779 -0.12394229 0.13350348 0
1.1018605 -0.11945233 0.16636957 0
1.1111053 -0.11214766 0.19996227 0
0.69465768 -0.41217753 -0.09083759 0
0.78663808 -0.33565375 -0.091526799 0
0.89423829 -0.24613503 -0.090003006 0
1.0276653 -0.1351296 -0.086720385 0
1.1037014 -0.071870774 -0.06667944 0
1.1007098 -0.074359685 -0.032559145 0
1.0990762 -0.075718731 0.0011088795 0
1.1034505 -0.07207945 0.034204897 0
1.0963383 -0.077996582 0.067841306 0
1.0986334 -0.076087147 0.10101116 0
1.0987298 -0.07600686 0.1342534 0
1.0978279 -0.076757222 0.16747704 0
1.1000742 -0.074888438 0.2010047 0
0.67621517 -0.39806399 -0.089803405 0
0.76610965 -0.31935403 -0.090578906 0
0.87452346 -0.22442898 -0.089854486 0
1.0004169 -0.11419907 -0.085717283 0
1.0950952 -0.031300511 -0.068992846 0
1.1052282 -0.0224283 -0.036027107 0
1.1078328 -0.020147648 -0.0018791163 0
1.1079164 -0.020074513 0.032474849 0
1.0969499 -0.029676523 0.067101069 0
1.1029904 -0.024387624 0.10101222 0
1.1031958 -0.024207737 0.13511643 0
1.0973345 -0.029339876 0.16889454 0
1.1047039 -0.022887316 0.20361334 0
1.097357 -0.029320087 0.23707533 0
1.0868107 -0.038554277 0.37289149 0
0.66955394 -0.37341192 -0.092251562 0
0.75776321 -0.29215559 -0.092832528 0
0.8543694 -0.20316413 -0.089725398 0
0.96162218 -0.10436526 -0.082584254 0
1.063005 -0.010973837 -0.067789815 0
1.1000581 0.023158584 -0.038511503 0
1.100395 0.023468886 -0.0035298446 0
1.1046938 0.027428899 0.031108642 0
1.1114454 0.033648405 0.065866426 0
1.0983156 0.02155355 0.10101299 0
1.0886507 0.012650404 0.13543826 0
1.0964986 0.019879732 0.17039865 0
1.1023928 0.025309358 0.20574646 0
1.0960011 0.019421492 0.2400232 0
1.0405703 -0.031640198 0.36727974 0
0.65522414 -0.35536095 -0.092672534 0
0.73237509 -0.280606 -0.090850405 0
0.84678584 -0.16974846 -0.092591234 0
0.83968896 -0.17662492 -0.063152842 0
0.83884215 -0.17744544 -0.03538214 0
0.83824724 -0.17802182 -0.0078496318 0
0.8394295 -0.17687628 0.019352013 0
0.84338164 -0.17304692 0.046362229 0
0.83767527 -0.17857608 0.073882587 0
0.83069903 -0.18533567 0.10100338 0
0.84773237 -0.16883126 0.12845117 0
0.84398872 -0.17245868 0.15568508 0
0.84290767 -0.17350611 0.18299463 0
1.1001683 0.075764924 0.24392036 0
1.0035176 -0.017884161 0.29723358 0
1.0022974 -0.019066479 0.33020216 0
0.98644716 -0.03442445 0.35950652 0
0.63613945 -0.34199217 -0.09179794 0
0.70917088 -0.2675654 -0.089481436 0
0.81876618 -0.15587625 -0.090931617 0
0.83913064 -0.13512275 -0.06720867 0
0.83848381 -0.13578191 -0.03878497 0
0.83856082 -0.13570347 -0.010654865 0
0.84048367 -0.13374385 0.017174119 0
0.83824539 -0.13602492 0.045316879 0
0.84628582 -0.12783089 0.072908856 0
0.8369289 -0.13736656 0.10100447 0
0.84079266 -0.13342902 0.12891808 0
0.83820307 -0.13606808 0.15668951 0
0.83501154 -0.13932052 0.1842888 0
0.83894116 -0.13531587 0.21271525 0
1.101186 0.1319392 0.28465384 0
0.93794578 -0.034419741 0.28905496 0
0.93334568 -0.039107706 0.31983754 0
0.94906682 -0.023086216 0.35601628 0
0.60988647 -0.33659002 -0.088769548 0
0.69437712 -0.24602327 -0.090486921 0
0.7982927 -0.13463452 -0.09112791 0
0.84109145 -0.088757962 -0.072107576 0
0.84034586 -0.089557141 -0.042839248 0
0.84312505 -0.086578041 -0.014262823 0
0.83981496 -0.090126187 0.015003012 0
0.83422852 -0.096114367 0.044103559 0
0.83503985 -0.095244735 0.072542161 0
0.84531969 -0.084225625 0.10100573 0
0.83354867 -0.096843153 0.12941754 0
0.84389561 -0.0857521 0.15856768 0
0.84019995 -0.089713484 0.18704782 0
0.83973902 -0.090207607 0.21581112 0
1.0995333 0.18826976 0.28927988 0
0.92524314 0.001445565 0.29146388 0
0.93223745 0.008942876 0.32542014 0
0.92963505 0.0061533186 0.35746589 0
0.59550142 -0.31886658 -0.089499064 0
0.67111808 -0.23359653 -0.089270525 0
0.77643806 -0.11483124 -0.091118746 0
0.85119355 -0.030532207 -0.079116635 0
0.84474951 -0.037798967 -0.047660846 0
0.83720988 -0.046301093 -0.016672602 0
0.84521401 -0.037275162 0.012015561 0
0.83488101 -0.048927274 0.042457901 0
0.84337312 -0.039351013 0.071450345 0
0.83597016 -0.04769912 0.10100632 0
0.8423512 -0.040503409 0.13052708 0
0.84749699 -0.034700718 0.16044112 0
0.8374725 -0.046004977 0.18918188 0
0.84443992 -0.038148072 0.21970375 0
1.0979736 0.24775222 0.29430282 0
1.1001076 0.25015858 0.33387697 0
0.59006649 -0.2902312 -0.093348496 0
0.65198356 -0.21675572 -0.089313127 0
0.73130196 -0.12263063 -0.08529713 0
0.85308576 0.021887217 -0.084863953 0
0.83731681 0.0031746363 -0.050715644 0
0.84302247 0.0099453665 -0.02099943 0
0.84299141 0.0099085309 0.0096216071 0
0.84090936 0.0074377987 0.040289089 0
0.84137595 0.0079914667 0.070647947 0
0.83908725 0.0052755806 0.10100753 0
0.84116244 0.0077381465 0.13135964 0
0.84292716 0.0098322965 0.16187225 0
0.83899492 0.0051659676 0.19196023 0
0.85127306 0.019736085 0.22421134 0
0.84552842 0.012919102 0.25422162 0
1.0987563 0.31341842 0.34048146 0
0.56868988 -0.28002688 -0.092140578 0
0.6442498 -0.18562743 -0.09291961 0
0.73089033 -0.077384621 -0.091001071 0
0.85038358 0.071902186 -0.090054937 0
0.84586889 0.066261798 -0.05704825 0
0.84576011 0.066126019 -0.025214246 0
0.83590466 0.053813253 0.007564025 0
0.84458482 0.064657599 0.038121801 0
0.83883893 0.057479057 0.069796175 0
0.84160447 0.0609341 0.1010088 0
0.83667493 0.05477551 0.1321405 0
0.8398416 0.058731828 0.16354245 0
0.84144127 0.060730252 0.19507334 0
0.83713293 0.055347715 0.22594348 0
0.83827126 0.056769881 0.25764564 0
1.1065288 0.39191249 0.34970373 0
1.0977767 0.38097826 0.38953766 0
0.54699022 -0.27069739 -0.090867497 0
0.62194157 -0.17205623 -0.092351072 0
0.70015818 -0.069117695 -0.08896599 0
0.72764969 -0.032936897 -0.067827649 0
0.72447097 -0.037120309 -0.038793612 0
0.72422612 -0.037442591 -0.01061373 0
0.73211706 -0.027057555 0.016485045 0
0.72277129 -0.039357271 0.045428384 0
0.728643 -0.031629648 0.073005803 0
0.7337684 -0.02488431 0.10100497 0
0.73381054 -0.024828818 0.12920278 0
0.73165512 -0.027665522 0.15726513 0
0.72770041 -0.03287014 0.18501432 0
0.73133594 -0.028085556 0.21372096 0
0.72950834 -0.030490782 0.24177721 0
0.72512555 -0.036258843 0.26925179 0
0.72037196 -0.042514946 0.29646766 0
0.72796667 -0.032519784 0.32737097 0
0.52882236 -0.25695983 -0.090917237 0
0.59323883 -0.1675888 -0.08981102 0
0.67928505 -0.048208978 -0.08968734 0
0.73145527 0.024171624 -0.074597381 0
0.9576062 0.33793178 -0.090240486 0
0.85066205 0.18955818 -0.03466754 0
0.84115154 0.17636338 0.00051827938 0
0.84256458 0.17832389 0.033964004 0
0.83850145 0.17268673 0.067667454 0
