# .PCD v0.7 - Point Cloud Data file format
VERSION 0.7
FIELDS x y z intensity
SIZE 4 4 4 4
TYPE F F F F
COUNT 1 1 1 1
WIDTH 1364
HEIGHT 1
VIEWPOINT 0 0 0 1 0 0 0
POINTS 1364
DATA ascii
0.84043974 -0.045812014 0.21116006 0
0.19058223 0.55861872 0.34585172 0
0.013101242 0.72369337 0.46806237 0
0.60898918 0.19653571 -0.050215546 0
0.83774346 -0.010917788 0.073240563 0
0.83935291 -0.012377268 0.20864345 0
0.19681002 0.57033437 0.34474117 0
0.021864912 0.72898924 0.46976581 0
0.61591607 0.21687591 -0.049915336 0
0.8384009 0.02015614 0.072517969 0
0.83883327 0.019773716 0.20629682 0
0.83726257 0.021162624 0.34174827 0
0.2103916 0.57543838 0.34697455 0
0.031333648 0.73376036 0.47206157 0
0.63171571 0.22929227 -0.050048728 0
0.83403772 0.054889794 0.071585074 0
0.84067839 0.049165484 0.20436877 0
0.83015531 0.058236476 0.33638528 0
0.22998275 0.57558793 0.35185188 0
0.03446915 0.74412161 0.46942112 0
0.64175147 0.24667895 -0.049919263 0
0.83135206 0.087359183 0.070760734 0
0.84024185 0.079889171 0.20219296 0
0.84599274 0.075056784 0.33659428 0
0.9257279 0.008056039 0.50024986 0
0.26047578 0.56706172 0.36141619 0
0.27761683 0.5526582 0.45758328 0
0.042865179 0.74991798 0.47098505 0
0.65893763 0.2580952 -0.050131254 0
0.83610755 0.11298727 0.070307195 0
0.83626384 0.11285924 0.19960155 0
0.83963341 0.11009955 0.3316763 0
0.94692868 0.022221083 0.50210536 0
0.29191568 0.5586983 0.37124318 0
0.25021449 0.59285295 0.43822524 0
0.043540083 0.76212609 0.46667033 0
0.66356236 0.27973354 -0.049773917 0
0.84175867 0.13749576 0.069913931 0
0.83591062 0.14216363 0.19759186 0
0.83926493 0.13948619 0.32829228 0
0.98660547 0.02187776 0.51003218 0
0.26846668 0.59510219 0.35756153 0
0.25357071 0.6069923 0.4356249 0
0.057040058 0.7638647 0.47224781 0
0.68295401 0.28957069 -0.050100345 0
0.84088904 0.16672909 0.069243595 0
0.84364456 0.16458595 0.19675329 0
0.83736211 0.16947234 0.32467565 0
0.25362286 0.62350386 0.4314107 0
0.069203399 0.76694494 0.47678322 0
0.68944842 0.30947405 -0.049851533 0
0.84876949 0.18874311 0.068988144 0
0.84092623 0.19468665 0.19455157 0
0.83814532 0.19679391 0.32178697 0
0.2565445 0.63752192 0.42883572 0
0.070731781 0.77832782 0.47339118 0
0.70161444 0.32497668 -0.049867868 0
0.85339218 0.21294224 0.068602853 0
0.83597463 0.22579885 0.19212279 0
0.83674997 0.22522652 0.3185142 0
0.2935963 0.62615472 0.44393972 0
0.077969573 0.78531921 0.47434521 0
0.71745521 0.3378557 -0.050054248 0
0.84580046 0.24559152 0.067697443 0
0.83852249 0.2508235 0.19076057 0
0.84083611 0.24916029 0.31656829 0
0.079338335 0.79658157 0.47106856 0
0.73298758 0.35111475 -0.05023266 0
0.84140068 0.27523148 0.066957071 0
0.83459574 0.27999455 0.18860249 0
0.83380455 0.28054833 0.31225866 0
0.83903879 0.27688462 0.44088179 0
0.09039446 0.80089533 0.47493637 0
0.73536223 0.37349498 -0.049848363 0
0.87173516 0.28057748 0.067739755 0
0.83751601 0.30389261 0.18740122 0
0.84363836 0.29972112 0.31175303 0
0.8400256 0.30218267 0.43742114 0
0.10852327 0.80059081 0.48388582 0
0.74689287 0.38948262 -0.049871601 0
0.91050321 0.28099793 0.068880089 0
0.83522171 0.33091468 0.18557651 0
0.84173971 0.3265928 0.30876526 0
0.84560925 0.324027 0.43549436 0
0.12077489 0.80464113 0.48857605 0
0.75590998 0.40711498 -0.049796451 0
0.95293158 0.28001845 0.070166938 0
0.83633977 0.35523057 0.18424667 0
0.84323102 0.35078514 0.30660212 0
0.84134346 0.35200274 0.43067664 0
0.12861271 0.81177765 0.49014956 0
0.7749452 0.41840309 -0.050153513 0
0.98438317 0.28700161 0.070980512 0
0.8427611 0.37585533 0.18363911 0
0.84910041 0.37187809 0.30545324 0
0.83521432 0.38059014 0.4254421 0
0.13106169 0.82237589 0.48800105 0
0.78065187 0.43812007 -0.049956422 0
1.0251186 0.28899807 0.072179794 0
0.8468824 0.39772016 0.18277948 0
0.84511799 0.39879644 0.30228826 0
0.84288138 0.40016079 0.42447859 0
0.14160641 0.82793087 0.491586 0
0.80134875 0.44879228 -0.050393291 0
1.0747354 0.28671694 0.073739819 0
0.83912474 0.42639709 0.18047667 0
0.83045846 0.43153483 0.29697958 0
0.8333177 0.42983973 0.41848511 0
0.13191284 0.84566289 0.48123971 0
0.80229872 0.47119707 -0.050018996 0
0.85240537 0.44233799 0.1808446 0
0.83984464 0.44957238 0.29679984 0
0.83585972 0.45186752 0.41620952 0
0.146688 0.84879696 0.48786744 0
0.8010841 0.49451345 -0.04957037 0
0.84630662 0.46922046 0.17884845 0
0.83809441 0.47381353 0.29436719 0
0.83315879 0.47657406 0.41249862 0
0.14162298 0.86335206 0.48099408 0
0.8266595 0.50292951 -0.050225057 0
0.84566957 0.4926092 0.17757532 0
0.84434086 0.49333054 0.29365504 0
0.83836085 0.49657702 0.41119793 0
0.83925909 0.51870525 -0.050356127 0
0.85125285 0.51238823 0.17710206 0
0.84640592 0.51494104 0.29214552 0
0.85391587 0.51098555 0.41296405 0
0.83646637 0.54244941 -0.049877308 0
0.85496813 0.53300029 0.17643656 0
0.83561379 0.54288489 0.28809726 0
0.84751433 0.53680706 0.40848085 0
0.83586675 0.5427556 0.52648705 0
0.84192699 0.56173533 -0.049742181 0
0.84116083 0.56211454 0.17370524 0
0.83861917 0.56337249 0.28692168 0
0.84399015 0.56071419 0.40493754 0
0.83637804 0.56448174 0.52339196 0
0.86031789 0.5747208 -0.050129436 0
0.878874 0.56582576 0.17717433 0
0.8506673 0.5793469 0.28761345 0
0.83687359 0.58595908 0.4004845 0
0.83915037 0.58486766 0.5212509 0
0.87330502 0.59051794 -0.050308216 0
0.91014951 0.57342333 0.17986609 0
0.83786756 0.60695976 0.28340122 0
0.83953446 0.60618639 0.39889708 0
0.84187216 0.60510176 0.51919824 0
0.87354308 0.61217791 -0.049994908 0
0.93899292 0.58280712 0.18226749 0
0.83184332 0.63089085 0.28062093 0
0.8376599 0.6282807 0.39612171 0
0.84660405 0.62426692 0.51798338 0
0.88755316 0.62762743 -0.050229877 0
0.9566384 0.59766448 0.18335797 0
0.83813566 0.64906031 0.28033644 0
0.84008414 0.64821523 0.39463454 0
0.83606499 0.64995837 0.511325 0
0.89566165 0.64573175 -0.050242737 0
0.99913901 0.60239232 0.18736053 0
0.83735496 0.67015243 0.27871531 0
0.82944661 0.67346466 0.38961184 0
0.83677918 0.67039359 0.50887769 0
0.89385754 0.66785508 -0.049882632 0
1.0332897 0.61150956 0.19038185 0
0.83685273 0.69089109 0.27720836 0
0.83685857 0.69088876 0.38966915 0
0.83708411 0.69079757 0.50638849 0
0.89960569 0.68676728 -0.049824353 0
1.0754433 0.61827278 0.19432467 0
0.85147578 0.70551544 0.27868694 0
0.83164626 0.71323967 0.3863298 0
0.84083813 0.70965916 0.5052349 0
0.27783939 0.92896563 0.45449385 0
0.9071402 0.70496881 -0.049843565 0
0.84756142 0.72731686 0.27662346 0
0.85045558 0.72623128 0.38962871 0
0.84586936 0.72795159 0.5046252 0
0.27787253 0.94100761 0.45235777 0
0.92157847 0.72069722 -0.050133429 0
0.84038752 0.74999124 0.27399713 0
0.83736962 0.75108016 0.38430616 0
0.82818979 0.75439221 0.49606746 0
0.2629517 0.9583326 0.44235805 0
0.93517643 0.73693657 -0.050397787 0
0.85460001 0.76486737 0.27551901 0
0.84004265 0.76991343 0.38334683 0
0.83712345 0.77092534 0.49703535 0
0.8387844 0.77034962 0.61781842 0
0.26271662 0.97003615 0.44029444 0
0.9320448 0.75893986 -0.050039314 0
0.85197419 0.7855708 0.2738699 0
0.85187286 0.78560454 0.38491747 0
0.8366223 0.79067677 0.49476439 0
0.83782703 0.79027611 0.61479002 0
0.28894368 0.97283101 0.45227051 0
0.93976301 0.77722365 -0.05009922 0
0.84952432 0.80597973 0.27231014 0
0.84050804 0.80885291 0.38032389 0
0.83477515 0.81067979 0.49211952 0
0.8434425 0.80791777 0.61473924 0
0.30683032 0.97891808 0.45983735 0
0.94067842 0.7976287 -0.049913608 0
0.84507006 0.82677507 0.27042699 0
0.84253341 0.82754833 0.3793976 0
0.84010512 0.82828861 0.49206889 0
0.83304244 0.83044165 0.60785276 0
0.31325701 0.98889875 0.46142098 0
0.9434343 0.81736487 -0.049806677 0
0.8725844 0.83799219 0.27460492 0
0.83835953 0.84795648 0.37689009 0
0.83455247 0.84906489 0.48832446 0
0.84057194 0.84731233 0.60884571 0
0.32069692 0.99866939 0.46359241 0
0.94172817 0.83826435 -0.049544025 0
0.89643008 0.85083598 0.27810806 0
0.83909684 0.8667478 0.37575987 0
0.83889002 0.8668052 0.48809838 0
0.8376258 0.86715603 0.60542536 0
0.32279596 1.0100375 0.46304703 0
0.96072966 0.85350829 -0.050056599 0
0.92414027 0.86316848 0.28235066 0
0.84053963 0.88524044 0.37488207 0
0.84112424 0.88508606 0.48722634 0
0.84262878 0.88468885 0.60552758 0
0.31264833 1.0246125 0.45624018 0
0.95532793 0.87524337 -0.049676474 0
0.9541871 0.87552923 0.28704327 0
0.84308451 0.90337056 0.3743583 0
0.84175164 0.90370458 0.48588496 0
0.84298033 0.90339667 0.60373843 0
0.3214061 1.0340986 0.45930123 0
0.96130627 0.89400619 -0.049725097 0
0.99835509 0.8852163 0.29436818 0
0.84144491 0.92244333 0.37279874 0
0.83792061 0.92327946 0.48310345 0
0.83884662 0.92305976 0.60014641 0
0.325192 1.0449245 0.459858 0
0.97833472 0.9103322 -0.050186522 0
1.013702 0.90241033 0.29636842 0
0.83738154 0.94190419 0.37067282 0
0.84425253 0.94036514 0.48387882 0
0.83076292 0.94338667 0.59499383 0
0.35122004 1.050799 0.47188756 0
0.97833472 0.93058372 -0.050032932 0
1.0506483 0.91533983 0.30238435 0
0.83205754 0.96141922 0.36828783 0
0.84196144 0.95933151 0.48179355 0
0.83665651 0.96044981 0.59587753 0
0.3454158 1.0640044 0.46764612 0
0.98461658 0.94948614 -0.050117631 0
1.0819452 0.9302457 0.30737668 0
0.85678965 0.97475564 0.37378937 0
0.84739572 0.97661269 0.48241448 0
0.82699281 0.98064601 0.59028393 0
0.36877158 1.0712297 0.47837245 0
0.98880976 0.96883816 -0.050134953 0
0.8486684 0.99471295 0.37079817 0
0.83946019 0.99641305 0.47858444 0
0.83879322 0.9965362 0.59384769 0
0.38693002 1.0799654 0.4864758 0
0.98096222 0.9902724 -0.049724922 0
0.85518056 1.0118618 0.37166664 0
0.83767027 1.0148673 0.47692144 0
0.84581822 1.0134689 0.59548181 0
0.38486907 1.0925872 0.48435307 0
0.99818987 1.0074375 -0.050231893 0
0.42010602 1.0991834 0.041335255 0
0.43112412 1.0974348 0.11356638 0
0.43378511 1.0970124 0.1869975 0
0.43318382 1.0971079 0.26189455 0
0.43581781 1.0966898 0.34057581 0
0.42665467 1.0981441 0.41853628 0
0.40070149 1.102263 0.49137998 0
0.99459702 1.0280031 -0.049994562 0
0.40269426 1.1143163 0.040639378 0
0.40963534 1.1133041 0.11102654 0
0.4056569 1.1138843 0.18152429 0
0.40570226 1.1138778 0.25431883 0
0.4011763 1.1145377 0.32828805 0
0.41024348 1.1132154 0.41087943 0
0.40683261 1.1137129 0.49355039 0
0.99800271 1.0474724 -0.050019022 0
0.38459715 1.1290473 0.039926849 0
0.44520077 1.1209878 0.11469819 0
0.43736061 1.1220304 0.18698452 0
0.43794379 1.1219529 0.26218164 0
0.42906496 1.1231337 0.33708292 0
0.43072745 1.1229125 0.41872513 0
0.41526571 1.1249688 0.49695191 0
1.0148402 1.0653477 -0.050535247 0
0.38827565 1.1406567 0.040005088 0
0.43041608 1.1355916 0.11292474 0
0.42318615 1.1364607 0.18412153 0
0.42780837 1.1359051 0.25916913 0
0.42436805 1.1363186 0.33498174 0
0.42272213 1.1365165 0.41472948 0
0.99351043 1.0876931 -0.049688403 0
0.36097309 1.155652 0.038976047 0
0.84211558 1.1039587 0.36511794 0
0.83620578 1.1045936 0.47231516 0
0.84944624 1.1031711 0.59184003 0
1.0079228 1.1060562 -0.050134417 0
0.34511337 1.1688364 0.038365357 0
0.85099095 1.1209205 0.3669357 0
0.82790691 1.123107 0.46894872 0
0.84294826 1.1216823 0.5883925 0
1.0114104 1.1256342 -0.05019692 0
0.35635439 1.1793673 0.038732029 0
0.85416895 1.1385324 0.36734784 0
0.82576138 1.1408627 0.46771768 0
0.83974963 1.1397152 0.58641601 0
1.0224538 1.1447355 -0.050538592 0
0.36426947 1.19039 0.038984109 0
0.85018736 1.1566846 0.36598533 0
0.83502251 1.1577365 0.47036636 0
0.84401053 1.1571131 0.58763146 0
1.007105 1.1655782 -0.049944881 0
0.8632496 1.1737381 0.36903763 0
0.83487386 1.1753477 0.46994835 0
0.83881027 1.1751244 0.58501339 0
1.0069504 1.185335 -0.049903858 0
0.84793097 1.1923476 0.36489522 0
0.84123534 1.1926429 0.47177243 0
0.83856946 1.1927605 0.58454621 0
1.0096271 1.2049768 -0.049972869 0
0.85368687 1.2098873 0.36619371 0
0.84408742 1.2101896 0.47250018 0
0.83951992 1.2103333 0.58466464 0
1.0066226 1.2247777 -0.04984783 0
0.85153753 1.2277073 0.36553103 0
0.83257061 1.2280655 0.46851999 0
0.8383289 1.2279568 0.58398795 0
1.0122482 1.2444392 -0.050039824 0
0.84573859 1.2454876 0.36399451 0
0.84874421 1.2454686 0.47382763 0
0.84246725 1.2455082 0.58560973 0
1.0125452 1.2642058 -0.05005043 0
0.85058373 1.2631861 0.36523068 0
0.83628696 1.2630961 0.46968308 0
0.83964437 1.2631172 0.58444095 0
1.0028816 1.2837948 -0.049714252 0
0.84553629 1.2808225 0.36399963 0
0.83625978 1.2806473 0.46974757 0
0.83283144 1.2805825 0.58171141 0
1.014002 1.303804 -0.050129134 0
0.84126967 1.2983649 0.36302412 0
0.8436572 1.2984401 0.47235698 0
0.8372305 1.2982377 0.58371627 0
1.0124345 1.32355 -0.050099835 0
0.85431832 1.3165772 0.3665264 0
0.82338935 1.3152132 0.4658294 0
0.83365768 1.3156661 0.58251053 0
1.0129914 1.3433988 -0.050155371 0
0.85178381 1.3342546 0.36610767 0
0.8346532 1.3332829 0.4698748 0
0.8378616 1.333465 0.58462 0
1.0036211 1.3626014 -0.049864627 0
1.3008103 1.3832158 0.072500162 0
1.3014952 1.3832632 0.20625494 0
1.2965558 1.3829206 0.34116319 0
0.8425824 1.351431 0.3640404 0
0.8433879 1.3514869 0.47315615 0
0.83444792 1.3508668 0.58366269 0
1.0028718 1.3823085 -0.049891055 0
1.2492853 1.4025214 0.070717886 0
1.2396033 1.4017272 0.19977207 0
1.0179616 1.3835464 0.29106992 0
0.83836883 1.3688147 0.36330318 0
0.8520121 1.3699338 0.47648048 0
0.83547932 1.3685776 0.58464199 0
0.99447471 1.4013132 -0.049652159 0
1.248778 1.4254004 0.070771746 0
1.2484246 1.4253669 0.20094009 0
0.89718431 1.3920981 0.26950783 0
0.85622305 1.3882183 0.36827654 0
0.83056074 1.3857875 0.46983561 0
0.83666664 1.3863659 0.58578002 0
0.99839061 1.4214745 -0.049863636 0
0.63880366 1.3828409 0.048952043 0
0.63898438 1.3828603 0.1353153 0
0.63606185 1.3825463 0.22247925 0
0.64019698 1.3829906 0.31330556 0
0.84619242 1.4051224 0.47565678 0
0.83655781 1.4040873 0.58647305 0
0.99783486 1.4412515 -0.04992377 0
0.55244035 1.387718 0.045908164 0
0.55312711 1.3878006 0.12620732 0
0.56327671 1.3890204 0.20956853 0
0.55748457 1.3883243 0.29249179 0
0.83474177 1.4216487 0.47249332 0
0.83195108 1.4213134 0.58538443 0
1.0132296 1.4631958 -0.050567426 0
0.55111676 1.4017408 0.045924157 0
0.55813462 1.4026741 0.12694196 0
0.55748075 1.4025872 0.20883878 0
0.55241913 1.401914 0.29164508 0
0.84343046 1.4406147 0.47615361 0
0.84341067 1.4406121 0.59109509 0
1.0019845 1.4817173 -0.050261095 0
0.5560171 1.4166849 0.046171099 0
0.55410379 1.4164058 0.12671667 0
0.56182259 1.4175314 0.20998645 0
0.54987603 1.4157894 0.29149124 0
0.84415287 1.4587017 0.47722247 0
0.83231729 1.4569758 0.58748138 0
0.98855621 1.4996768 -0.049883656 0
0.55875963 1.431465 0.046347324 0
0.55705971 1.4311953 0.12726997 0
0.55854505 1.4314311 0.20977943 0
0.55071205 1.4301878 0.29225504 0
0.84205359 1.4764258 0.47741961 0
0.84137934 1.4763188 0.59239626 0
0.9807381 1.5183322 -0.0497168 0
0.55093879 1.4445605 0.046148024 0
0.55352443 1.4450043 0.12713696 0
0.54451162 1.4434574 0.20763573 0
0.54669112 1.4438314 0.29181015 0
0.84350759 1.4947777 0.47889188 0
0.83856887 1.49393 0.59243643 0
0.98461908 1.5390313 -0.049982812 0
0.55772609 1.4602125 0.046484586 0
0.55096692 1.4589646 0.12712947 0
0.53329915 1.4557024 0.20603217 0
0.54432875 1.4577389 0.29183903 0
0.8350293 1.5114119 0.47708538 0
0.82687765 1.5099069 0.58883083 0
0.97636551 1.5575259 -0.049817353 0
0.56081754 1.4753782 0.046694655 0
0.55204326 1.4736437 0.12753928 0
0.55856413 1.4749327 0.2111589 0
0.55876011 1.4749714 0.29628101 0
0.83495778 1.5295717 0.47819635 0
0.84412223 1.5313833 0.59751344 0
0.97577101 1.5775189 -0.049939394 0
0.55536479 1.4888964 0.046600491 0
0.5583182 1.489519 0.12854142 0
0.54358512 1.4864132 0.20892636 0
0.55248386 1.4882891 0.29539201 0
0.83895701 1.5486783 0.48077202 0
0.84013087 1.5489258 0.59734768 0
0.97449392 1.5974506 -0.050046001 0
0.54899734 1.5021441 0.046478819 0
0.56312221 1.5053078 0.12940639 0
0.55804783 1.5041713 0.21215557 0
0.5611797 1.5048728 0.29845878 0
0.83828038 1.5669403 0.4818427 0
0.83801955 1.5668819 0.59807277 0
0.96985477 1.6166651 -0.050038762 0
0.54881865 1.5167741 0.046589974 0
0.54719085 1.5163879 0.12800559 0
0.5569858 1.5187118 0.21255821 0
0.55644923 1.5185845 0.29806888 0
0.84616143 1.5873188 0.4859212 0
0.83510083 1.5846946 0.59855253 0
0.96740597 1.6364264 -0.050121006 0
0.54917938 1.5316225 0.046728108 0
0.55008 1.5318482 0.12870099 0
0.55373448 1.532764 0.21258906 0
0.55848366 1.533954 0.29950237 0
0.83617443 1.6035409 0.48397207 0
0.84173912 1.6049354 0.60320866 0
0.95648891 1.6540152 -0.049900014 0
0.54908115 1.5464529 0.046856645 0
0.55035371 1.5467888 0.12912957 0
0.54888922 1.5464021 0.21235567 0
0.55359608 1.5476449 0.29916507 0
0.83296865 1.6214038 0.48442003 0
0.8412742 1.6235967 0.60494751 0
0.96051604 1.675593 -0.050240129 0
0.56015605 1.5644805 0.04740651 0
0.5511325 1.5619762 0.12963694 0
0.54840726 1.5612198 0.21297023 0
0.56446463 1.5656762 0.30304402 0
0.83592659 1.6410155 0.48707518 0
0.8406238 1.6423191 0.60671353 0
0.95002574 1.6931973 -0.050051767 0
0.55090743 1.5769975 0.047211118 0
0.54813391 1.57619 0.12974474 0
0.55068547 1.5769329 0.21414044 0
0.54884261 1.5763963 0.29995823 0
0.8357597 1.6599298 0.4887428 0
0.8451435 1.6626618 0.61081707 0
0.93450505 1.7091324 -0.049683195 0
0.84863681 1.6829554 0.38102552 0
0.84577054 1.6820816 0.49403936 0
0.8411507 1.6806732 0.6113624 0
0.9327336 1.7291794 -0.049835823 0
0.84571177 1.7014484 0.38171732 0
0.84286231 1.7005404 0.49494338 0
0.83966762 1.6995224 0.61309892 0
0.93194383 1.7496697 -0.050035514 0
0.84561771 1.7209581 0.38323566 0
0.84442765 1.7205623 0.49750102 0
0.84832758 1.7218595 0.61937177 0
0.92171758 1.7670412 -0.04988924 0
0.85027641 1.742277 0.38611019 0
0.84308177 1.7397832 0.49913335 0
0.83294505 1.7362694 0.61525953 0
0.91164666 1.7843624 -0.049756482 0
0.84996206 1.7621064 0.38772163 0
0.84114724 1.758926 0.50065029 0
0.84661514 1.7608988 0.62399614 0
0.90930039 1.8044846 -0.049925931 0
0.8379994 1.7777395 0.38623452 0
0.82757622 1.7738298 0.49812517 0
0.82296115 1.7720987 0.61640602 0
0.90008563 1.8220628 -0.049842741 0
0.84867221 1.8020356 0.39099157 0
0.83350855 1.7961289 0.50261796 0
0.8342858 1.7964317 0.62438345 0
0.89569181 1.8415293 -0.049953263 0
0.83918518 1.8186946 0.39030936 0
0.82562298 1.8132139 0.50227588 0
0.83230907 1.8159158 0.62659818 0
0.89584976 1.8629901 -0.050250016 0
0.83380574 1.8370042 0.39081758 0
0.82762939 1.8344173 0.50557739 0
0.82288426 1.8324299 0.62559116 0
0.87708706 1.8764764 -0.049822595 0
0.83525926 1.8583353 0.39329278 0
0.82641619 1.8544999 0.50782597 0
0.82142085 1.8523334 0.62826508 0
0.86961013 1.8947003 -0.049841005 0
0.82449824 1.8744562 0.39244115 0
0.82698387 1.8755716 0.51082873 0
0.8165099 1.8708713 0.62950313 0
0.86586267 1.9146721 -0.050015308 0
0.82840663 1.8972938 0.39576733 0
0.81922418 1.8930335 0.51089191 0
0.82370991 1.8951147 0.6363824 0
0.85126466 1.9295826 -0.049771011 0
0.82853764 1.9186882 0.39812601 0
0.80781049 1.9087524 0.50968826 0
0.81501395 1.9122055 0.63614458 0
0.84716874 1.9495021 -0.049950987 0
0.82408363 1.9380764 0.39927071 0
0.81234616 1.9322671 0.51447099 0
0.80421788 1.928244 0.63503408 0
0.8359161 1.9659127 -0.049855251 0
0.81155342 1.9534702 0.39817882 0
0.80875355 1.9520404 0.51635832 0
0.80881864 1.9520736 0.64116818 0
0.83369488 1.9870073 -0.050131612 0
0.80624932 1.9725518 0.3992191 0
0.80597025 1.9724048 0.51865584 0
0.79395193 1.9660748 0.6383732 0
0.8185305 2.0013006 -0.049894832 0
0.79719514 1.9897177 0.39924732 0
0.79207557 1.9869385 0.51685959 0
0.79615504 1.9891531 0.64368355 0
0.82303995 2.0264096 -0.050468493 0
0.79057318 2.0082507 0.40004975 0
0.79474491 2.0105841 0.52143419 0
0.79683512 2.0117531 0.64844644 0
0.80887288 2.0412326 -0.050289851 0
0.78521162 2.0276048 0.40129757 0
0.77911967 2.024096 0.51913226 0
0.77808183 2.0234983 0.64409423 0
0.79520828 2.0562105 -0.050138436 0
0.77675885 2.0452728 0.40170991 0
0.77336198 2.0432589 0.52069503 0
0.77767533 2.0458162 0.64861107 0
0.7856707 2.0735846 -0.050166305 0
0.76447803 2.0606573 0.40104768 0
0.77118284 2.0647471 0.52375811 0
0.76618224 2.0616968 0.64792174 0
0.77439433 2.0898943 -0.050130293 0
0.7737152 2.0894685 0.40691924 0
0.76451963 2.083699 0.52519023 0
0.76669377 2.0850632 0.65319192 0
0.76054388 2.1045175 -0.049993325 0
0.75105697 2.0983975 0.40326461 0
0.75583416 2.1014793 0.52592748 0
0.7605266 2.1045063 0.65535873 0
0.74921149 2.120698 -0.049970925 0
0.75181669 2.1224253 0.40678236 0
0.7603001 2.1280503 0.53200978 0
0.74782866 2.119781 0.6544205 0
0.73781234 2.1368175 -0.049954213 0
0.74393779 2.1409912 0.40775651 0
0.72846729 2.1304502 0.52366555 0
0.74321347 2.1404977 0.65761971 0
0.72396272 2.1512115 -0.049839374 0
0.7295391 2.1551147 0.40678138 0
0.73135358 2.1563847 0.52935886 0
0.73247713 2.157171 0.65788484 0
0.71402067 2.1683185 -0.049903236 0
0.71868557 2.1716719 0.40696692 0
0.71479815 2.1688774 0.52727115 0
0.72582525 2.1768045 0.66034186 0
0.71446544 2.1931524 -0.050438114 0
0.71553439 2.1939414 0.40966251 0
0.71238571 2.1916173 0.53107709 0
0.71211857 2.1914201 0.65931791 0
0.6988315 2.2062795 -0.050271839 0
0.70060998 2.2076271 0.40870458 0
0.69646364 2.2044852 0.52939916 0
0.70779389 2.2130709 0.66325301 0
0.67586976 2.2135623 -0.049779933 0
0.69856769 2.2312167 0.4119564 0
0.6948536 2.228328 0.53380495 0
0.68902999 2.2237983 0.65979546 0
0.6695469 2.2336867 -0.050047297 0
0.68163472 2.2433352 0.4104766 0
0.68969482 2.2497687 0.53687173 0
0.68196076 2.2435954 0.66256952 0
0.65792757 2.2497206 -0.050084639 0
0.67615813 2.264652 0.41280964 0
0.67106885 2.2604837 0.53429437 0
0.67028135 2.2598388 0.66303784 0
0.63811797 2.2589109 -0.049749825 0
0.66678411 2.2829988 0.41395772 0
0.65392762 2.2721956 0.53239322 0
0.66284662 2.2796903 0.66591662 0
0.63319939 2.2806296 -0.050118659 0
0.71833676 2.3540184 0.066131569 0
0.71793085 2.3536687 0.18695261 0
0.71805245 2.3537734 0.30969304 0
0.65063792 2.2956619 0.41291457 0
0.63911635 2.2857301 0.53155905 0
0.6553666 2.2997379 0.66893804 0
0.62004703 2.2954197 -0.050112199 0
0.6829415 2.3510306 0.065109469 0
0.68500656 2.3528566 0.18422969 0
0.6791386 2.3476682 0.30368203 0
0.64030284 2.3133297 0.41389281 0
0.64337009 2.3160417 0.53925753 0
0.63729888 2.3106737 0.66628057 0
0.59814531 2.302273 -0.04969291 0
0.66062635 2.3589361 0.064704239 0
0.66201884 2.360199 0.18291563 0
0.65380079 2.3527462 0.30088866 0
0.6294089 2.3306255 0.41476598 0
0.62649542 2.3279834 0.53772551 0
0.62610251 2.3276272 0.66750968 0
0.58518094 2.3170395 -0.04970862 0
0.63958269 2.3676386 0.064361066 0
0.63507003 2.3634412 0.18101823 0
0.63536566 2.3637164 0.29977822 0
0.61418778 2.3440187 0.41421717 0
0.61086959 2.3409326 0.53681076 0
0.61957687 2.3490312 0.67151439 0
0.57879955 2.338105 -0.050058436 0
0.62181896 2.3791394 0.064180933 0
0.62944347 2.3864121 0.18227074 0
0.62526304 2.3824246 0.30076534 0
0.59724087 2.3556952 0.41311237 0
0.60026819 2.358583 0.53826964 0
0.60400385 2.3621461 0.67054391 0
0.56511432 2.352375 -0.050060984 0
0.60969633 2.3959854 0.064287499 0
0.60506123 2.3914511 0.18076228 0
0.6127283 2.3989511 0.30121014 0
0.5856685 2.3724813 0.41396424 0
0.58653098 2.3733249 0.53838998 0
0.58935231 2.3760846 0.67019022 0
0.54256362 2.3577588 -0.049624272 0
0.5972392 2.4126067 0.064389154 0
0.59941894 2.4147933 0.18209694 0
0.59688693 2.4122534 0.30086878 0
0.57724839 2.3925529 0.41604197 0
0.5721429 2.3874314 0.53829205 0
0.57130903 2.3865948 0.66794527 0
0.53991359 2.3831778 -0.050204635 0
0.59826034 2.4432013 0.065193146 0
0.59787053 2.4428003 0.18412524 0
0.61039966 2.4556894 0.3081612 0
0.56092316 2.4047911 0.41534519 0
0.56326264 2.4071977 0.54090607 0
0.5698294 2.4139533 0.67558813 0
0.51960891 2.3905706 -0.049893051 0
0.62381905 2.5005119 0.067301162 0
0.61395556 2.4901061 0.18899007 0
0.61752123 2.4938679 0.31401804 0
0.54823345 2.4207695 0.41604421 0
0.54426843 2.4165862 0.53878331 0
0.54928488 2.4218786 0.6720649 0
0.50507849 2.4038918 -0.049885776 0
0.53372961 2.4348912 0.41614601 0
0.52899116 2.4297645 0.53851098 0
0.53657991 2.4379752 0.67333597 0
0.50259405 2.430577 -0.050529692 0
0.52061552 2.4505751 0.41684619 0
0.51638871 2.4458847 0.53964603 0
0.51667267 2.4461999 0.67029494 0
0.48225972 2.4376392 -0.050235454 0
0.4961693 2.4534705 0.41325191 0
0.51119739 2.4705751 0.54463464 0
0.50293273 2.4611685 0.67114335 0
0.46759459 2.4510057 -0.050252836 0
0.48946127 2.4765351 0.41657546 0
0.48266348 2.4685986 0.53791702 0
0.48907074 2.476079 0.67204565 0
0.44577393 2.4558263 -0.049881194 0
0.47556743 2.4915097 0.41720375 0
0.46834156 2.4828553 0.53846198 0
0.47950098 2.4962208 0.67585492 0
0.43905571 2.4787946 -0.050361384 0
0.46294245 2.508147 0.41843033 0
0.45524129 2.4986837 0.5397532 0
0.45913908 2.5034735 0.67280954 0
0.41644707 2.4822764 -0.04995276 0
0.43771282 2.5090909 0.41458657 0
0.43833068 2.5098698 0.53913087 0
0.44566998 2.5191243 0.67436862 0
0.40019813 2.4935219 -0.04991129 0
0.42560861 2.5264046 0.41616115 0
0.41885039 2.5176592 0.53717625 0
0.42667571 2.5277855 0.67234445 0
0.38232616 2.502568 -0.04978111 0
0.41349551 2.5439703 0.41785026 0
0.41066667 2.5402129 0.54149115 0
0.41389301 2.5444982 0.6746366 0
0.36718366 2.5151865 -0.049820293 0
0.39443585 2.5523503 0.41666618 0
0.39119306 2.5479281 0.53968751 0
0.39533827 2.553581 0.67307329 0
0.3479397 2.5221143 -0.049617879 0
0.38105169 2.5684824 0.41799861 0
0.37349996 2.5579073 0.53892618 0
0.37600377 2.5614135 0.67100739 0
0.33302167 2.5350194 -0.049687725 0
0.35550395 2.5673556 0.41400906 0
0.36004362 2.573885 0.54069281 0
0.36246595 2.577369 0.67317891 0
0.3183237 2.5483432 -0.049783155 0
0.34275874 2.5844495 0.41576612 0
0.33975807 2.5800157 0.53855705 0
0.34785691 2.5919831 0.67474699 0
0.30687669 2.5667317 -0.050102245 0
0.32173195 2.5892892 0.41381434 0
0.32066873 2.5876749 0.53714997 0
0.32078394 2.5878499 0.66709977 0
0.29362759 2.5827301 -0.050323572 0
0.30401441 2.5989432 0.41341755 0
0.30968246 2.6077907 0.54077142 0
0.30724809 2.6039908 0.66965139 0
0.2717472 2.585176 -0.049980149 0
0.28416243 2.6051033 0.41204089 0
0.28880706 2.6125584 0.53840274 0
0.29067686 2.6155593 0.67003608 0
0.26003698 2.6039517 -0.050332472 0
0.27529797 2.629148 0.4160842 0
0.26775452 2.6166935 0.5359087 0
0.27011105 2.6205842 0.6673516 0
0.23559053 2.6015851 -0.049812481 0
0.25244668 2.6302228 0.41333067 0
0.25095609 2.6276903 0.53618473 0
0.24777867 2.622292 0.66321832 0
0.2164274 2.6077263 -0.049658805 0
0.23547925 2.6410472 0.4135471 0
0.23418619 2.6387856 0.53657788 0
0.23807783 2.645592 0.66954732 0
0.20473601 2.6271088 -0.050056789 0
0.21469386 2.645045 0.41183254 0
0.21741541 2.6499472 0.53707421 0
0.22043295 2.6553824 0.66949266 0
0.19040729 2.6421952 -0.050283842 0
0.20005496 2.6601002 0.41341019 0
0.20338823 2.6662865 0.53960395 0
0.19915505 2.6584301 0.66637206 0
0.17181678 2.6494801 -0.050202437 0
0.18223543 2.6694133 0.41337767 0
0.17699082 2.6593792 0.53345692 0
0.17759056 2.6605268 0.66295308 0
0.15226831 2.6547549 -0.050050482 0
0.15744813 2.6649764 0.409477 0
0.16303207 2.6759953 0.53624696 0
0.15998776 2.6699879 0.66310084 0
0.13495882 2.6643531 -0.050081261 0
0.13750316 2.6695349 0.40824613 0
0.14117976 2.6770225 0.53330725 0
0.13962688 2.6738598 0.66077209 0
0.11384138 2.6660011 -0.049806193 0
0.12555028 2.6906257 0.41176423 0
0.12033417 2.6796558 0.53107852 0
0.12410667 2.6875896 0.66309452 0
0.099735461 2.6824298 -0.050124079 0
0.10403814 2.6917803 0.40970543 0
0.10430201 2.692354 0.53264511 0
0.10172918 2.6867626 0.65885836 0
0.083679758 2.6950359 -0.050297778 0
0.08860781 2.7061107 0.41141331 0
0.079815947 2.6863527 0.52746737 0
0.086018287 2.7002912 0.66127968 0
0.0627416 2.696605 -0.050049502 0
0.067055546 2.7066381 0.40933272 0
0.066069566 2.704345 0.53111857 0
0.065888368 2.7039235 0.65931714 0
0.045799576 2.7073517 -0.050167501 0
0.04708501 2.7104483 0.40824503 0
0.047089361 2.7104585 0.53053445 0
0.043091737 2.700829 0.65446311 0
0.030249676 2.721807 -0.050435759 0
0.025304338 2.7094576 0.40591276 0
0.027633091 2.7152729 0.52957344 0
0.02340593 2.7047172 0.65287614 0
0.004818222 2.7111912 -0.049750812 0
0.0053863735 2.7126632 0.40481445 0
0.0079933619 2.7194188 0.52846622 0
0.0061641545 2.7146788 0.65410256 0
-0.0099950815 2.7277775 -0.050117299 0
-0.013665774 2.7178972 0.40434179 0
-0.012726405 2.7204256 0.52633822 0
-0.010575869 2.7262142 0.65611452 0
-0.030688563 2.728682 -0.049894717 0
-0.028329412 2.7352858 0.40722933 0
-0.033708252 2.7202294 0.52388704 0
-0.034783401 2.7172201 0.64918423 0
-0.047011293 2.7418509 -0.050145853 0
-0.052134849 2.7269187 0.40320724 0
-0.057010628 2.7127082 0.5189631 0
-0.054483153 2.7200747 0.64760405 0
-0.06731502 2.7435 -0.049970727 0
-0.071466483 2.7308855 0.40259525 0
-0.072087981 2.728997 0.52250195 0
-0.074000187 2.7231867 0.64625102 0
-0.085277386 2.7521768 -0.050068945 0
-0.092636891 2.7288282 0.4004395 0
-0.094463147 2.7230344 0.51833111 0
-0.091666289 2.7319076 0.64744508 0
-0.10708962 2.7483315 -0.049708333 0
-0.11135644 2.7341754 0.40033615 0
-0.11149619 2.733712 0.52005637 0
-0.11194433 2.7322252 0.6450972 0
-0.1271791 2.7495654 -0.049547926 0
-0.10066993 2.8416972 0.064970598 0
-0.10611565 2.8227706 0.18139887 0
-0.10410515 2.8297582 0.30165544 0
-0.13024314 2.7389164 0.40013486 0
-0.13255091 2.7308958 0.5171783 0
-0.13365717 2.727051 0.64050192 0
-0.14478 2.7594604 -0.049718086 0
-0.13426702 2.7978086 0.06313768 0
-0.13391809 2.7990816 0.17813973 0
-0.13389783 2.7991552 0.29488865 0
-0.14635433 2.7537179 0.40265879 0
-0.15037696 2.7390444 0.51818436 0
-0.15200324 2.7331123 0.6408636 0
-0.16279422 2.7682581 -0.049855385 0
-0.15574802 2.7952909 0.06285274 0
-0.15743025 2.788837 0.17642339 0
-0.15493901 2.7983947 0.29377586 0
-0.169661 2.7419136 0.3982133 0
-0.16912903 2.7439544 0.51815087 0
-0.17111813 2.7363234 0.64010364 0
-0.17955746 2.7825317 -0.050202005 0
-0.17768838 2.7900913 0.062480018 0
-0.17890532 2.7851694 0.17547327 0
-0.18024959 2.7797325 0.28939009 0
-0.1889077 2.7447147 0.39769736 0
-0.18971075 2.7414668 0.51566333 0
-0.19258676 2.7298348 0.6353119 0
-0.19995005 2.7823777 -0.050026361 0
-0.19785376 2.7913389 0.06235493 0
-0.19989218 2.782625 0.17467986 0
-0.20007409 2.7818475 0.28892466 0
-0.20784025 2.7486486 0.39754337 0
-0.20914139 2.7430866 0.5146752 0
-0.21024574 2.7383659 0.63703591 0
-0.22172438 2.7754023 -0.049611218 0
-0.21994011 2.7834873 0.061906811 0
-0.21599357 2.8013704 0.17626078 0
-0.21595119 2.8015625 0.2917572 0
-0.22782652 2.7477517 0.39618996 0
-0.23125111 2.732234 0.50952387 0
-0.23044966 2.7358654 0.63417226 0
-0.23830627 2.7920229 -0.050067518 0
-0.23705555 2.7980499 0.062287275 0
-0.23334153 2.8159471 0.17740235 0
-0.23545493 2.805763 0.29176158 0
-0.24820395 2.7443273 0.39424723 0
-0.2491927 2.7395625 0.51065844 0
-0.25054997 2.733022 0.63127875 0
-0.25833601 2.7926118 -0.049947239 0
-0.25027382 2.8340802 0.063455433 0
-0.25215098 2.8244247 0.17789732 0
-0.25301462 2.8199825 0.29365191 0
-0.26700279 2.7480338 0.39422935 0
-0.27013412 2.7319276 0.50679535 0
-0.26771447 2.7443731 0.63448626 0
-0.27578622 2.8069646 -0.05033581 0
-0.26607552 2.860502 0.064278349 0
-0.26805651 2.8495803 0.18023868 0
-0.26814872 2.849072 0.29830399 0
-0.28722429 2.7439039 0.39224106 0
-0.28930894 2.7324107 0.50577533 0
-0.29029047 2.7269993 0.62569034 0
-0.29452786 2.8153181 -0.050514314 0
-0.30591214 2.7477174 0.39237815 0
-0.30818585 2.734216 0.50528508 0
-0.30925331 2.7278774 0.62469596 0
-0.31753701 2.7970648 -0.0497397 0
-0.32662719 2.7386007 0.38923717 0
-0.32882467 2.7244673 0.50098574 0
-0.32777011 2.7312498 0.62484872 0
-0.33695903 2.800117 -0.049745265 0
-0.34561175 2.7394438 0.38873592 0
-0.34668463 2.7319207 0.5025624 0
-0.34706068 2.7292838 0.62286615 0
-0.35619202 2.8046806 -0.049814034 0
-0.36520642 2.7352247 0.38699466 0
-0.36709026 2.7207098 0.49795052 0
-0.36748773 2.7176473 0.61695087 0
-0.3741276 2.8207769 -0.050305974 0
-0.38465291 2.730819 0.38527149 0
-0.3870016 2.7107453 0.49384904 0
-0.38647625 2.7152355 0.61499697 0
-0.39503461 2.8117487 -0.049903523 0
-0.40394145 2.7263169 0.38358867 0
-0.40444797 2.7214587 0.49675357 0
-0.40441981 2.7217286 0.61685228 0
-0.41468745 2.8133411 -0.049891744 0
-0.42296314 2.7229402 0.38225845 0
-0.42337212 2.7184727 0.4951514 0
-0.42390341 2.7126691 0.61233306 0
-0.43462682 2.8112342 -0.049756363 0
-0.44108224 2.7293763 0.38350216 0
-0.44269246 2.7089581 0.49145165 0
-0.44269282 2.7089539 0.61013991 0
-0.45423517 2.8127296 -0.049758971 0
-0.46020436 2.7225647 0.38141587 0
-0.46164265 2.7008398 0.48830169 0
-0.46133083 2.7055497 0.60817599 0
-0.47377011 2.8156872 -0.049822684 0
-0.47993407 2.7006161 0.37552509 0
-0.47988129 2.7016013 0.4881919 0
-0.48038498 2.6921985 0.60218626 0
-0.49324724 2.8212321 -0.049987603 0
-0.49809095 2.702939 0.37589842 0
-0.49847507 2.6935582 0.48522693 0
-0.49838531 2.6957498 0.60330319 0
-0.51312786 2.816756 -0.049803317 0
-0.51667142 2.6917176 0.37287301 0
-0.51681221 2.6867502 0.482752 0
-0.51673019 2.6896441 0.60051376 0
-0.53283828 2.8150303 -0.049726218 0
-0.53449523 2.7097735 0.37737843 0
-0.5351851 2.6659536 0.47569996 0
-0.53497499 2.6792996 0.59606522 0
-0.55246973 2.8221076 -0.049972259 0
-0.55292463 2.6776669 0.3691428 0
-0.55295438 2.6682153 0.47639653 0
-0.55287969 2.6919358 0.60122687 0
-0.57214528 2.8151422 -0.049725793 0
-0.57093477 2.6869473 0.37152502 0
-0.57077527 2.6700568 0.47702789 0
-0.5708288 2.6757228 0.5945375 0
-0.59190595 2.8197901 -0.049902815 0
-0.58869487 2.6740777 0.36831325 0
-0.58860052 2.6697974 0.47703493 0
-0.58847231 2.6639793 0.58979064 0
-0.61193758 2.8285623 -0.050236132 0
-0.60588366 2.6537905 0.36326349 0
-0.60581988 2.6519506 0.47126195 0
-0.60570943 2.6487615 0.58369458 0
-0.63082886 2.8081539 -0.049535718 0
-0.6232897 2.6486022 0.3621226 0
-0.62324131 2.6475773 0.4700453 0
-0.6230408 2.6433346 0.581743 0
-0.65092438 2.8160696 -0.049856286 0
-0.64087504 2.6482446 0.36227143 0
-0.63980311 2.6303425 0.46461418 0
-0.63990432 2.6320329 0.57744372 0
-0.64020598 2.6370707 0.69908428 0
-0.6711188 2.8221793 -0.050121572 0
-0.65854532 2.6488166 0.36271483 0
-0.65665227 2.6227145 0.46245217 0
-0.65706468 2.6284008 0.57641256 0
-0.65646935 2.6201925 0.69119519 0
-0.6897983 2.8082671 -0.049678843 0
-0.67412049 2.624248 0.46341768 0
-0.67351365 2.6171255 0.57229394 0
-0.67372793 2.6196404 0.69159865 0
-0.7104823 2.8180044 -0.050092351 0
-0.68911755 2.5997608 0.4557595 0
-0.68948501 2.6035144 0.56728464 0
-0.68986368 2.6073825 0.6862269 0
-0.72957593 2.8106835 -0.04990308 0
-0.70748347 2.6109736 0.57112914 0
-0.70769155 2.6128545 0.68987507 0
-0.74957234 2.811744 -0.050023641 0
-0.72360975 2.6013277 0.56793827 0
-0.72312152 2.5973711 0.68307757 0
-0.76967674 2.8129442 -0.050158519 0
-0.73940337 2.5906575 0.68079484 0
-0.78877681 2.8067393 -0.050035477 0
-0.7555483 2.5837865 0.67853183 0
-0.80727327 2.7973299 -0.049804982 0
-0.82771623 2.7999766 -0.050019369 0
-0.8482483 2.8022614 -0.050230451 0
-0.86733991 2.7966068 -0.05016236 0
-0.88664705 2.7921731 -0.050147433 0
-0.90344989 2.7767551 -0.049739189 0
-0.92366284 2.7767296 -0.049902674 0
-0.94178081 2.7679729 -0.049754437 0
-0.96229082 2.7685549 -0.049959239 0
-0.98210317 2.7661078 -0.05006199 0
-0.99922705 2.754266 -0.049824744 0
-1.019727 2.7539325 -0.050024558 0
-1.0366966 2.7421696 -0.049806159 0
-1.06077 2.7520175 -0.050408803 0
-1.0748773 2.7321081 -0.049899925 0
-1.0916902 2.7206635 -0.049717095 0
-1.1134859 2.7227325 -0.050057329 0
-1.1271788 2.7035275 -0.049593657 0
-1.1492664 2.7057672 -0.049961038 0
-1.1658809 2.6943803 -0.049812995 0
-1.1845034 2.6878359 -0.049860977 0
-1.203894 2.6828992 -0.049981393 0
-1.2242419 2.679801 -0.050184581 0
-1.2417111 2.6704094 -0.050149594 0
-1.2598611 2.6624308 -0.050179508 0
-1.2754481 2.6494191 -0.050016683 0
-1.2937003 2.6416681 -0.050073281 0
-1.3055588 2.6221375 -0.049660265 0
-1.3265249 2.6193583 -0.049936842 0
-1.3404527 2.6040525 -0.049709275 0
-1.3583312 2.59567 -0.049775138 0
-1.3765767 2.5877903 -0.049871974 0
-1.3986745 2.5858741 -0.050231099 0
-1.4113404 2.5689666 -0.049966753 0
-1.4278147 2.558094 -0.049966052 0
-1.4426497 2.544827 -0.049870625 0
-1.4601344 2.5354316 -0.049951561 0
-1.4738679 2.5207498 -0.049809933 0
-1.4904175 2.5100205 -0.049850423 0
-1.5100949 2.5033393 -0.050082389 0
-1.5211512 2.4853756 -0.049816277 0
-1.5317553 2.4671438 -0.049541526 0
-1.5563468 2.4661803 -0.050069012 0
-1.5684793 2.4499032 -0.049900539 0
-1.58533 2.4392414 -0.050002806 0
-1.608687 2.4357786 -0.050460327 0
-1.6170561 2.4154096 -0.05012013 0
-1.6273561 2.39745 -0.04989884 0
-1.6417515 2.3839779 -0.049903326 0
-1.6585257 2.3729134 -0.050037496 0
-1.6704067 2.356864 -0.04993115 0
-1.6868522 2.3453238 -0.050062764 0
-1.7055055 2.3357313 -0.050308272 0
-1.7211214 2.3231099 -0.050409615 0
-1.7227827 2.2978919 -0.049848728 0
-1.7417761 2.288327 -0.050130527 0
-1.7479986 2.2676272 -0.049816281 0
-1.7603722 2.2523148 -0.049802788 0
-1.7718906 2.2363191 -0.049759079 0
-1.2391683 1.8055747 0.52595067 0
-1.7914593 2.2267017 -0.050090902 0
-1.2229978 1.7787784 0.50854158 0
-1.7967184 2.2057993 -0.049780939 0
-1.2347662 1.7743622 0.51244271 0
-1.8105361 2.1915672 -0.049867239 0
-1.2402847 1.7650623 0.51172 0
-1.8283933 2.1801987 -0.050139125 0
-1.234089 1.747265 0.50249547 0
-1.8399845 2.1641462 -0.050140616 0
-1.2364994 1.7360506 0.49977404 0
-1.8509024 2.1476235 -0.050121687 0
-1.2414751 1.7267464 0.49902734 0
-1.8663177 2.1341364 -0.050305374 0
-1.2382727 1.7119812 0.49252719 0
-1.865476 2.1098576 -0.049801312 0
-1.2375164 1.6991438 0.48794603 0
-1.8838966 2.0982516 -0.050129339 0
-1.2388964 1.687894 0.48501712 0
-1.8929745 2.0805898 -0.050068758 0
-1.2415841 1.6775976 0.48312202 0
-1.8990675 2.0611792 -0.049893584 0
-1.240942 1.6653908 0.47902703 0
-1.9150294 2.0476751 -0.050137918 0
-1.2394212 1.6528701 0.47446448 0
-1.9230593 2.0294671 -0.0500619 0
-1.2367185 1.6398994 0.46923625 0
-1.9316146 2.0116062 -0.050017208 0
-1.2417439 1.6314391 0.46938819 0
-1.9495006 1.9987673 -0.050359704 0
-1.9487947 1.9760094 -0.049958777 0
-1.9559846 1.9575346 -0.049887378 0
-1.9777702 1.9462222 -0.050405305 0
-1.9819032 1.9261768 -0.050229006 0
-1.9895136 1.9078515 -0.05020012 0
-1.9954878 1.888823 -0.050116573 0
-1.9994575 1.8690008 -0.049965005 0
-2.0014918 1.8484945 -0.049749162 0
-1.9973021 1.8256789 -0.049305283 0
-1.995543 1.8041245 -0.048967447 0
-1.9945965 1.7831196 -0.04867243 0
-2.0043643 1.7661219 -0.048794497 0
-1.9963775 1.7430005 -0.048254717 0
-1.998368 1.7235252 -0.048102718 0
-2.0024915 1.7048239 -0.04804026 0
-2.0023863 1.6849053 -0.047829296 0
-2.0038509 1.6655846 -0.047686677 0
-2.0026453 1.6456419 -0.047454797 0
-2.0033205 1.6263491 -0.047302276 0
-1.9976137 1.6056073 -0.046924639 0
-1.9909227 1.5849087 -0.046521619 0
-2.0071526 1.5694809 -0.046966657 0
-2.000411 1.5490381 -0.046580601 0
-2.0033178 1.5307137 -0.04655553 0
-1.9932208 1.5100878 -0.046067335 0
-2.0055225 1.4935076 -0.046400055 0
-1.9972312 1.4735518 -0.045996029 0
-1.9958267 1.4548405 -0.045850012 0
-2.0007112 1.4370263 -0.045939028 0
-2.0096452 1.4196069 -0.046181496 0
-1.9940075 1.399529 -0.045549817 0
-2.0052483 1.3822708 -0.045891248 0
-2.0021958 1.3636863 -0.045728389 0
-1.9968802 1.3450713 -0.04549307 0
-1.992605 1.326672 -0.045303483 0
-1.9962251 1.3087021 -0.045404334 0
-2.0029376 1.2907361 -0.045623671 0
-2.0060344 1.2725668 -0.045721967 0
-1.9974735 1.2543254 -0.045412228 0
-1.1473471 0.26436788 -0.050404094 0
-0.38861442 0.2643699 0.41685778 0
-0.39986736 0.26436988 0.49965891 0
-1.1359494 0.24461713 -0.050001621 0
-0.40726471 0.25379482 0.42622259 0
-1.1347783 0.22488959 -0.049973119 0
-0.40560025 0.24325836 0.35313132 0
-0.40645897 0.24323674 0.42591932 0
-1.1278389 0.20539705 -0.049747396 0
-0.50856739 0.22880258 0.10721263 0
-0.51463193 0.22857337 0.17694362 0
-1.2389504 0.20119756 0.43275583 0
-1.2431836 0.20103756 0.56390232 0
-1.2411597 0.20111406 0.6994676 0
-1.1328485 0.18545842 -0.049957443 0
-0.50152439 0.2172844 0.10651097 0
-0.52093589 0.21630584 0.17817692 0
-1.2420039 0.17995574 0.43377292 0
-1.2430712 0.17990193 0.56417477 0
-1.2474655 0.17968041 0.70246696 0
-1.1273608 0.16603 -0.049801122 0
-0.51731694 0.20448942 0.10828339 0
-0.51504254 0.20463282 0.17723499 0
-1.2426803 0.15875983 0.43425149 0
-1.244959 0.15861619 0.56520295 0
-1.1197386 0.14687061 -0.049576975 0
-0.51238608 0.19284476 0.10784133 0
-0.50552422 0.19336419 0.17566308 0
-1.2488494 0.13709745 0.43620414 0
-1.2309994 0.13844861 0.56103396 0
-1.1290283 0.12637226 -0.04996736 0
-0.51148343 0.1809462 0.10784919 0
-0.52063113 0.1801378 0.17857356 0
-1.245077 0.11611675 0.43568254 0
-1.2498024 0.11569916 0.5678876 0
-1.130965 0.10633723 -0.050103649 0
-0.50937074 0.16916619 0.10774254 0
-0.52534056 0.16755201 0.17963317 0
-1.2344007 0.095882259 0.43345755 0
-1.2411495 0.095200099 0.56566477 0
-1.1327536 0.086219169 -0.050243869 0
-0.5073334 0.15740086 0.039771412 0
-0.52191216 0.15574157 0.10923678 0
-0.50831097 0.15728959 0.17677715 0
-1.2425936 0.07371781 0.43614003 0
-1.2533412 0.072494589 0.57050467 0
-1.133986 0.066068642 -0.050373405 0
-0.50767839 0.14535156 0.039834976 0
-0.5101732 0.14503574 0.10812151 0
-0.51037383 0.14501035 0.17741081 0
-1.2326202 0.053582747 0.43422669 0
-1.2457618 0.051919196 0.56881797 0
-1.116221 0.048470978 -0.04982752 0
-0.50903165 0.13311453 0.039940462 0
-0.51295787 0.1325672 0.10859482 0
-0.50543374 0.13361607 0.17679854 0
-1.2405837 0.03113455 0.43699574 0
-1.2430314 0.030793313 0.56884408 0
-1.1099837 0.029504377 -0.049704876 0
-0.51993853 0.11934567 0.04039672 0
-0.50712675 0.12129641 0.10814948 0
-0.51230294 0.12050829 0.17836557 0
-1.2383509 0.0099589424 0.43721166 0
-1.228528 0.011454602 0.56499773 0
-1.1135142 0.0090089338 -0.049944066 0
-0.50991583 0.10870566 0.040102854 0
-0.51177698 0.10839825 0.10886036 0
-0.50733948 0.10913119 0.1778031 0
-1.2361429 -0.011245708 0.43750328 0
-1.240201 -0.011915992 0.57005209 0
-1.1042936 -0.0093896491 -0.049730737 0
-0.5082745 0.096781231 0.040117122 0
-0.51694441 0.09523683 0.10964699 0
-0.5118106 0.09615133 0.17899387 0
-1.2372754 -0.033078115 0.43873039 0
-1.2394787 -0.033470612 0.57102841 0
-1.1184648 -0.032109659 -0.050375547 0
-0.49793291 0.0865077 0.039820641 0
-0.51520848 0.083205409 0.10969831 0
-0.50933754 0.084327661 0.17894244 0
-1.2369915 -0.054766547 0.43966389 0
-1.2374692 -0.054857861 0.5716629 0
-1.1029735 -0.049238812 -0.049951572 0
-0.5082702 0.072222255 0.040281605 0
-0.51411581 0.071028359 0.10983691 0
-0.5130654 0.071242891 0.18005967 0
-1.2364967 -0.076509334 0.44061586 0
-1.2418175 -0.077596076 0.57454926 0
-1.1011419 -0.069034673 -0.050033372 0
-0.51026273 0.059416194 0.040445521 0
-0.50962508 0.059554819 0.10961901 0
-0.50651658 0.060230572 0.17931364 0
-1.2380663 -0.098800607 0.44218087 0
-1.2410965 -0.099459328 0.57581496 0
-1.0965867 -0.08826486 -0.05002474 0
-0.50731897 0.047627885 0.040434957 0
-0.50745654 0.04759616 0.10967249 0
-0.5018127 0.048897702 0.17893256 0
-1.2401866 -0.12138084 0.44396797 0
-1.2399725 -0.12133146 0.57704055 0
-1.0827862 -0.10523693 -0.049685221 0
-0.51304561 0.033730436 0.040748425 0
-0.50091636 0.036688928 0.10925921 0
-0.51993722 0.032049481 0.18281451 0
-1.2472044 -0.14534076 0.44712129 0
-1.2393887 -0.14343439 0.57854915 0
-1.0896689 -0.12728666 -0.05011493 0
-0.55032158 0.011485179 0.042232387 0
-0.56146151 0.0086189406 0.1163042 0
-0.55180633 0.011103173 0.18930806 0
-1.2391924 -0.16575845 0.4464047 0
-1.2390615 -0.16572477 0.58024621 0
-1.0824391 -0.14583246 -0.050034385 0
-0.62441885 -0.021816444 0.045093663 0
-0.625489 -0.022106182 0.12380029 0
-1.2362897 -0.18748991 0.31780931 0
-1.2347138 -0.18706317 0.44668746 0
-1.2342168 -0.18692861 0.58048862 0
-1.0725222 -0.16355844 -0.049862467 0
-0.68617642 -0.053709906 0.047522735 0
-0.69137692 -0.055188548 0.13157427 0
-1.2315851 -0.20878433 0.31801876 0
-1.2362008 -0.2100967 0.44862464 0
-1.2399949 -0.21117546 0.58449829 0
-1.0641103 -0.18160965 -0.049754273 0
-0.77186859 -0.094525643 0.050867498 0
-0.77596843 -0.095747329 0.14152148 0
-1.2418253 -0.23456626 0.32109177 0
-1.2373645 -0.23323698 0.45056006 0
-1.2439164 -0.23518933 0.58798432 0
-1.0579188 -0.20027636 -0.049737167 0
-0.8752439 -0.14332779 0.054905873 0
-0.87688231 -0.14383857 0.15340264 0
-1.242523 -0.2578263 0.32243541 0
-1.2402661 -0.25712273 0.45304528 0
-1.2387532 -0.25665113 0.58842331 0
-1.0589674 -0.22129114 -0.050000634 0
-0.9947468 -0.20037974 0.059589393 0
-0.98281121 -0.19649331 0.16596772 0
-1.2356493 -0.27882209 0.322404 0
-1.2412387 -0.28064206 0.45510364 0
-1.241531 -0.28073725 0.59173697 0
-1.0543057 -0.2405663 -0.050059896 0
-1.1250037 -0.26457557 0.064725481 0
-1.1220829 -0.26358369 0.18244605 0
-1.2439293 -0.30496308 0.32530889 0
-1.237828 -0.30289105 0.45606944 0
-1.0479144 -0.25927731 -0.050063089 0
-1.2941252 -0.34636405 0.20282966 0
-1.2284466 -0.32313302 0.32374385 0
-1.2369921 -0.32615563 0.45781201 0
-1.0287415 -0.2732912 -0.049589012 0
-1.2479796 -0.3539575 0.19844165 0
-1.2358007 -0.34947643 0.32660395 0
-1.2432743 -0.35222623 0.46157715 0
-1.0305365 -0.29496661 -0.049920797 0
-1.2418797 -0.37576362 0.19865091 0
-1.2455891 -0.37718174 0.33001173 0
-1.2457289 -0.37723514 0.46440446 0
-1.0287223 -0.31546488 -0.050126076 0
-1.2436256 -0.40073964 0.19980004 0
-1.2326785 -0.39639577 0.32909986 0
-1.2426193 -0.40034029 0.46580493 0
-1.0089141 -0.32871953 -0.0496477 0
-1.2439332 -0.42541882 0.20082444 0
-1.2401417 -0.42385885 0.3322036 0
-1.250034 -0.42792901 0.47019619 0
-1.0057982 -0.34872589 -0.04982103 0
-1.2479066 -0.45192549 0.20231882 0
-1.2306374 -0.44456443 0.33206519 0
-1.2320675 -0.44517401 0.46766785 0
-0.99220955 -0.36424854 -0.049596459 0
-1.2480692 -0.47713742 0.20341299 0
-1.2420413 -0.47447786 0.33609873 0
-1.2382112 -0.47278795 0.47190925 0
-0.99214435 -0.38577184 -0.049908943 0
-1.2404016 -0.49906197 0.20362589 0
-1.2392745 -0.49854764 0.33742079 0
-1.2468222 -0.50199205 0.47696429 0
-0.97730458 -0.40057394 -0.049650762 0
-1.2478557 -0.5281778 0.20566955 0
-1.2381883 -0.52361822 0.33914605 0
-1.2333643 -0.52134305 0.47592753 0
-0.97787201 -0.42268226 -0.050010219 0
-1.5036572 -0.67880768 0.082890145 0
-1.2491498 -0.55482966 0.2070331 0
-1.2352927 -0.54807943 0.34058213 0
-1.2371988 -0.54900795 0.47986081 0
-0.98175526 -0.44674507 -0.050515555 0
-1.4494312 -0.68189526 0.081203952 0
-1.2365649 -0.5748648 0.20677605 0
-1.2485436 -0.58088785 0.34534872 0
-1.2393676 -0.5762741 0.48344257 0
-0.96188176 -0.45889071 -0.050080895 0
-1.4034485 -0.68792349 0.079839803 0
-1.2423319 -0.60435516 0.20876956 0
-1.2462431 -0.60638386 0.34707066 0
-0.9473027 -0.47352359 -0.049863823 0
-1.3562592 -0.69222009 0.078420661 0
-1.2431825 -0.6317504 0.21022248 0
-1.2351205 -0.62743908 0.34706542 0
-0.93112528 -0.48710439 -0.049587566 0
-1.3006722 -0.6907506 0.076651506 0
-1.2393827 -0.65697581 0.21115705 0
-1.2370977 -0.65571666 0.34981206 0
-0.9338634 -0.5112012 -0.050092835 0
-1.2483562 -0.68970764 0.075003199 0
-1.2415875 -0.68586576 0.21287946 0
-1.2422166 -0.68622273 0.35330346 0
-0.93123209 -0.53257668 -0.050392311 0
-1.2468454 -0.71701157 0.07544297 0
-1.2439532 -0.71532148 0.21467973 0
-1.2417258 -0.71401983 0.35572886 0
-0.91279089 -0.54469442 -0.050046593 0
-1.2488757 -0.74681157 0.07604789 0
-1.2429438 -0.74324423 0.21611676 0
-1.2361027 -0.73913008 0.35716596 0
-0.8988682 -0.55932462 -0.049894247 0
-1.2551506 -0.77974385 0.07685142 0
-1.2404206 -0.77063102 0.217418 0
-1.2341408 -0.76674587 0.35945755 0
-0.88522816 -0.57401091 -0.049760398 0
-1.2399989 -0.7997207 0.076772243 0
-1.2340212 -0.79591769 0.21827972 0
-1.2325352 -0.79497224 0.36191779 0
-0.88475347 -0.59719896 -0.05019493 0
-1.2637039 -0.84504968 0.078360692 0
-1.2379351 -0.82819563 0.22051366 0
-1.2393256 -0.82910508 0.36628395 0
-0.86778307 -0.60967201 -0.049936064 0
-1.2363966 -0.85744411 0.077792697 0
-1.2419991 -0.86121005 0.22283845 0
-1.2401996 -0.86000043 0.36949453 0
-0.85991585 -0.62821376 -0.05007669 0
-1.2382643 -0.88950533 0.078492329 0
-1.2385188 -0.88968104 0.22425224 0
-1.2279793 -0.88240236 0.36994815 0
-0.84722507 -0.6434592 -0.050017614 0
-1.2312245 -0.91585773 0.078825928 0
-1.2368306 -0.91983455 0.22596189 0
-1.6062335 -1.1818786 0.45680857 0
-0.83910704 -0.6619882 -0.050168417 0
-1.2387229 -0.95309693 0.079819337 0
-1.2412661 -0.95494956 0.22855178 0
-1.5657595 -1.1913337 0.45187691 0
-0.81735194 -0.67045438 -0.049723029 0
-1.2414267 -0.98763019 0.080629207 0
-1.2437353 -0.98935682 0.23096134 0
