# .PCD v0.7 - Point Cloud Data file format
VERSION 0.7
FIELDS x y z intensity
SIZE 4 4 4 4
TYPE F F F F
COUNT 1 1 1 1
WIDTH 1314
HEIGHT 1
VIEWPOINT 0 0 0 1 0 0 0
POINTS 1314
DATA ascii
-1.8423905 -3.015902 -0.090550072 0
-3.4975352 -4.8355813 -0.14108473 0
-6.9937367 -8.6793327 -0.14072545 0
-0.59101558 -1.6740731 -0.091439508 0
-0.66542888 -1.7601503 -0.090955012 0
-0.75739682 -1.8665336 -0.089611925 0
-0.90008289 -2.031585 -0.092655458 0
-1.0708616 -2.2291322 -0.090574749 0
-1.3435742 -2.544591 -0.09092892 0
-1.7973654 -3.0695114 -0.091265745 0
-3.3991897 -4.9224124 -0.14107148 0
-6.7950149 -8.8505135 -0.14063771 0
-0.5685522 -1.6827073 -0.089765914 0
-0.64087206 -1.7707589 -0.089502342 0
-0.7362054 -1.88683 -0.089918412 0
-0.86720532 -2.0463262 -0.091262139 0
-1.0419879 -2.259129 -0.09108112 0
-1.3025157 -2.5763295 -0.090724699 0
-1.738741 -3.1074462 -0.090652682 0
-3.2990789 -5.0072026 -0.14108673 0
-6.5943236 -9.0192585 -0.14063106 0
-0.54784501 -1.6929709 -0.088718541 0
-0.6271171 -1.7946111 -0.091390915 0
-0.71215755 -1.9036472 -0.089606442 0
-0.83793044 -2.0649092 -0.090730049 0
-1.0064776 -2.2810149 -0.090484582 0
-1.2561375 -2.6011209 -0.089826085 0
-1.6849117 -3.1508818 -0.09067174 0
-3.1904755 -5.0812669 -0.14061914 0
-6.3969598 -9.1925192 -0.14090855 0
-0.53250229 -1.7100887 -0.089642696 0
-0.60427994 -1.8070698 -0.090656944 0
-0.69543153 -1.9302275 -0.09142179 0
-0.80743331 -2.0815566 -0.089999817 0
-0.97719496 -2.3109267 -0.091197617 0
-1.2260457 -2.6471565 -0.091548257 0
-1.627834 -3.1900251 -0.090436481 0
-3.0898218 -5.1653614 -0.1409014 0
-6.1831517 -9.3448544 -0.14072113 0
-0.51708621 -1.7275091 -0.090730675 0
-0.57674295 -1.8125176 -0.088456489 0
-0.67024159 -1.9457498 -0.091070585 0
-0.7898916 -2.1162465 -0.092513464 0
-0.94157422 -2.3323886 -0.090798192 0
-1.1840119 -2.6778531 -0.091578536 0
-1.5775012 -3.2385609 -0.09113168 0
-2.9800918 -5.2371993 -0.14062749 0
-5.9770064 -9.5076904 -0.14098997 0
-0.49987972 -1.7427286 -0.091338985 0
-0.56212306 -1.8363615 -0.090611793 0
-0.64816999 -1.9658022 -0.091745831 0
-0.75268453 -2.1230237 -0.090350308 0
-0.90577471 -2.3533177 -0.090457909 0
-1.1329772 -2.6950994 -0.090220712 0
-1.5253681 -3.2853742 -0.091778316 0
-2.8804662 -5.3238525 -0.14134249 0
-5.7553844 -9.6486015 -0.14078873 0
-0.4810203 -1.7556186 -0.091462739 0
-0.54434323 -1.8562961 -0.091946132 0
-0.61343813 -1.9661506 -0.08869382 0
-0.71673888 -2.130389 -0.088476054 0
-0.87696916 -2.3851402 -0.09175279 0
-1.0909281 -2.7253151 -0.090457551 0
-1.4602046 -3.3124301 -0.090892635 0
-2.758708 -5.3769288 -0.14033903 0
-5.5358109 -9.7922621 -0.14082113 0
-0.45673764 -1.759469 -0.089468099 0
-0.51994705 -1.8658295 -0.091080777 0
-0.59360075 -1.9897641 -0.090304025 0
-0.69433618 -2.1592681 -0.090296201 0
-0.82880563 -2.3855355 -0.088855363 0
-1.0446192 -2.748678 -0.090062968 0
-1.4015032 -3.349195 -0.090944462 0
-2.6541445 -5.4569731 -0.14097869 0
-5.3117967 -9.928916 -0.14081457 0
-0.43680122 -1.770133 -0.089312322 0
-0.49475133 -1.8734962 -0.089958437 0
-0.5699662 -2.0076535 -0.090908132 0
-0.65701497 -2.1629186 -0.08811786 0
-0.79264247 -2.4048314 -0.088695146 0
-1.002412 -2.7789881 -0.090543307 0
-1.3360573 -3.3740966 -0.090164401 0
-2.5420582 -5.5251865 -0.14111985 0
-5.0854788 -10.061773 -0.14085874 0
-0.42082149 -1.7882434 -0.091070212 0
-0.47275296 -1.8866102 -0.090147547 0
-0.54044557 -2.0148313 -0.089625143 0
-0.63039726 -2.1852148 -0.089082159 0
-0.76119095 -2.4329596 -0.089825787 0
-0.95912707 -2.8078835 -0.090981208 0
-1.2866518 -3.4282696 -0.091840155 0
-1.9216765 -4.6311116 -0.09075021 0
-4.8523812 -10.182352 -0.14073072 0
-0.40036634 -1.7983037 -0.090992458 0
-0.45006013 -1.8984751 -0.090189181 0
-0.51590419 -2.0312018 -0.090182208 0
-0.59988314 -2.2004843 -0.08903826 0
-0.72371805 -2.4501073 -0.089614056 0
-0.91495305 -2.8355935 -0.091404729 0
-1.2184244 -3.4473231 -0.090852313 0
-1.8333241 -4.686821 -0.091184579 0
-4.6217227 -10.307598 -0.14087912 0
-0.38021901 -1.8090166 -0.091190375 0
-0.42727262 -1.9102014 -0.090321235 0
-0.48540422 -2.0352085 -0.0886048 0
-0.57255244 -2.2226136 -0.090178154 0
-0.68475693 -2.4639001 -0.089095034 0
-0.86866045 -2.859369 -0.091533773 0
-1.1558264 -3.4768958 -0.090820603 0
-1.7347903 -4.721909 -0.09067034 0
-4.3855109 -10.422062 -0.14089949 0
-0.35899422 -1.817405 -0.090965889 0
-0.40593192 -1.9253858 -0.091280855 0
-0.45973802 -2.0491676 -0.088966824 0
-0.54042757 -2.2347951 -0.089887537 0
-0.65093297 -2.4890141 -0.090150468 0
-0.81765401 -2.8725584 -0.090703569 0
-1.0902487 -3.4996667 -0.090391867 0
-1.6435356 -4.772511 -0.091076203 0
-4.140132 -10.515967 -0.14055048 0
-0.33962676 -1.8302761 -0.091895245 0
-0.38118613 -1.9328911 -0.090780266 0
-0.43612492 -2.0685413 -0.090400808 0
-0.50770575 -2.2452826 -0.089466639 0
-0.6138587 -2.5073869 -0.090453319 0
-0.77372426 -2.9021137 -0.091660269 0
-1.0284286 -3.5310085 -0.090739451 0
-1.5418193 -4.7986307 -0.090364538 0
-3.9014556 -10.624848 -0.14073686 0
-0.31253836 -1.8232766 -0.088415064 0
-0.3551935 -1.9367449 -0.08967597 0
-0.40596449 -2.0718024 -0.089097314 0
-0.48051718 -2.2701223 -0.09132906 0
-0.57214069 -2.5138528 -0.089384072 0
-0.72055739 -2.9086604 -0.090424694 0
-0.96081525 -3.5477779 -0.0901125 0
-1.4508437 -4.8513174 -0.091109253 0
-3.6586971 -10.724495 -0.14084248 0
-0.29522905 -1.8419546 -0.090897776 0
-0.33378366 -1.9529393 -0.091173299 0
-0.38139808 -2.090004 -0.090537705 0
-0.44359007 -2.2690322 -0.089420192 0
-0.53832078 -2.5417278 -0.091103859 0
-0.6689589 -2.9177878 -0.089588083 0
-0.90029651 -3.583725 -0.091037221 0
-1.3502376 -4.878943 -0.090726025 0
-3.4086909 -10.804485 -0.14061487 0
-0.27254421 -1.8457839 -0.090145208 0
-0.30811447 -1.9571681 -0.090400077 0
-0.35059714 -2.0901978 -0.088967092 0
-0.41193947 -2.2822843 -0.089780532 0
-0.49712077 -2.5490196 -0.090389706 0
-0.62653857 -2.9542766 -0.09156736 0
-0.82780564 -3.5845213 -0.089487441 0
-1.2513379 -4.9107637 -0.090675525 0
-3.1622989 -10.894718 -0.14079373 0
-0.25311211 -1.8601761 -0.091864266 0
-0.28318503 -1.9632514 -0.090123959 0
-0.32628629 -2.1109812 -0.091066651 0
-0.37976679 -2.2942863 -0.090072669 0
-0.45864561 -2.5646443 -0.090822376 0
-0.57183492 -2.9526019 -0.089925893 0
-0.77054006 -3.6336658 -0.091603689 0
-1.1493561 -4.9320621 -0.090236641 0
-2.909621 -10.965388 -0.14064869 0
-0.22945209 -1.8602399 -0.090529673 0
-0.25890279 -1.9715554 -0.090405382 0
-0.29529655 -2.1091135 -0.089406081 0
-0.34594956 -2.3005679 -0.089649729 0
-0.41736948 -2.5705154 -0.090190805 0
-0.52693391 -2.9846385 -0.091684006 0
-0.70115101 -3.6431308 -0.090941332 0
-1.0524566 -4.9709687 -0.090772979 0
-2.6595125 -11.045193 -0.1408782 0
-0.20728713 -1.8652855 -0.090422384 0
-0.2328162 -1.9726664 -0.089411579 0
-0.26526654 -2.1091595 -0.088211276 0
-0.31324396 -2.3109632 -0.089947216 0
-0.38044932 -2.5936437 -0.091761701 0
-0.47540683 -2.9930558 -0.091274612 0
-0.63151109 -3.6496644 -0.090198569 0
-0.9470287 -4.9768009 -0.089840852 0
-2.4051039 -11.109785 -0.14089413 0
-0.18536204 -1.8714134 -0.090672694 0
-0.21001366 -1.9881148 -0.09131024 0
-0.23883881 -2.1245737 -0.089732014 0
-0.28197193 -2.3287671 -0.091426186 0
-0.33932114 -2.6002598 -0.091463439 0
-0.42489395 -3.0053637 -0.09136299 0
-0.56710154 -3.6785784 -0.091184787 0
-0.84517604 -4.9949903 -0.089628629 0
-2.1479917 -11.162554 -0.14078203 0
-0.16411382 -1.881606 -0.091920413 0
-0.18564054 -1.9979595 -0.092237182 0
-0.21044469 -2.1320279 -0.090026967 0
-0.24532914 -2.320581 -0.089296855 0
-0.29777235 -2.6040404 -0.090953253 0
-0.37123275 -3.0010993 -0.089999147 0
-0.49912888 -3.6923878 -0.091208421 0
-0.94416618 -6.0978479 -0.14089271 0
-1.8901043 -11.210715 -0.14071535 0
-0.1406129 -1.8796114 -0.090655737 0
-0.15809628 -1.9895493 -0.089796446 0
-0.18235384 -2.1420841 -0.090873323 0
-0.21120833 -2.323525 -0.088891782 0
-0.25643447 -2.6079128 -0.090580337 0
-0.32032189 -3.0096457 -0.08997982 0
-0.42930341 -3.694936 -0.090556525 0
-0.81497335 -6.1200805 -0.14089327 0
-1.6326121 -11.261503 -0.14086434 0
-0.11758792 -1.8790259 -0.089824907 0
-0.1346046 -2.0067253 -0.092358075 0
-0.1531287 -2.1457369 -0.09077289 0
-0.17886737 -2.3388891 -0.090371303 0
-0.21573521 -2.6155589 -0.090776853 0
-0.26989925 -3.0220253 -0.090442769 0
-0.36254799 -3.7172954 -0.091428541 0
-0.68433326 -6.1320887 -0.14056708 0
-1.3725116 -11.296429 -0.14079347 0
-0.096042402 -1.8904757 -0.091693781 0
-0.10776515 -1.9993678 -0.090377577 0
-0.12294357 -2.1403594 -0.08930213 0
-0.14404073 -2.3363302 -0.089428939 0
-0.17491198 -2.6230917 -0.09108045 0
-0.21715595 -3.0154943 -0.089248769 0
-0.29415622 -3.730746 -0.09179046 0
-0.55381697 -6.1427231 -0.14033206 0
-1.1115936 -11.323886 -0.1407019 0
-0.072585896 -1.8842674 -0.089908786 0
-0.082502894 -2.0049233 -0.090969779 0
-0.094277881 -2.1481845 -0.090137385 0
-0.11088643 -2.3502538 -0.090936832 0
-0.13363972 -2.6270835 -0.091089152 0
-0.16664855 -3.0286882 -0.090029411 0
-0.22342657 -3.7194819 -0.090539224 0
-0.42464662 -6.1676407 -0.14091876 0
-0.84950918 -11.336764 -0.14042421 0
-0.050584197 -1.8964449 -0.092166938 0
-0.056764338 -2.0051823 -0.090682261 0
-0.06471391 -2.145052 -0.089286827 0
-0.076219633 -2.3474913 -0.090211667 0
-0.081513166 -2.440629 -0.068925865 0
-0.080919363 -2.4301813 -0.03373972 0
-0.080762818 -2.4274268 0.00026899041 0
-0.080993637 -2.431488 0.033721123 0
-0.081211351 -2.4353187 0.06729538 0
-0.081301451 -2.436904 0.10101179 0
-0.027380994 -1.8879979 -0.090155311 0
-0.031081069 -2.00527 -0.090485223 0
-0.035332851 -2.140028 -0.088248692 0
-0.040840972 -2.3146052 -0.085374705 0
-0.040866971 -2.3154294 -0.054096747 0
-0.040925603 -2.3172877 -0.023046827 0
-0.040624253 -2.3077366 0.0087528471 0
-0.040463123 -2.3026295 0.039798014 0
-0.040851671 -2.3149443 0.07013306 0
-0.04080512 -2.3134689 0.10100822 0
-0.0047275159 -1.8933053 -0.091192223 0
-0.0054180943 -2.0027964 -0.089927875 0
-0.0062966398 -2.1420894 -0.08849714 0
-0.0067253974 -2.2100689 -0.070594437 0
-0.0067250254 -2.2100098 -0.041701723 0
-0.0067415959 -2.2126372 -0.013219295 0
-0.0067100259 -2.2076316 0.015795292 0
-0.0067502088 -2.2140026 0.043953296 0
-0.0067013339 -2.2062535 0.072674945 0
-0.0067184125 -2.2089612 0.10100522 0
0.017884672 -1.882661 -0.08895985 0
0.020398462 -2.0154634 -0.09234453 0
0.022911808 -2.148242 -0.089538671 0
0.023914892 -2.2012343 -0.069379978 0
0.023980306 -2.2046902 -0.041102622 0
0.023878383 -2.1993055 -0.011992892 0
0.023833519 -2.1969354 0.016529629 0
0.023907971 -2.2008688 0.044555772 0
0.023904365 -2.2006783 0.072800092 0
0.023871828 -2.1989594 0.10100494 0
0.040831208 -1.891259 -0.090940528 0
0.046183251 -2.0123761 -0.091916494 0
0.052747853 -2.1609337 -0.091778375 0
0.055228647 -2.2170744 -0.071743913 0
0.054778382 -2.2068849 -0.041472513 0
0.054598622 -2.2028167 -0.012410937 0
0.054389823 -2.1980917 0.016381459 0
0.054319207 -2.1964936 0.044714719 0
0.054056492 -2.1905484 0.073013403 0
0.054775558 -2.206821 0.10100519 0
0.063451767 -1.8881786 -0.090559624 0
0.071104512 -1.9982814 -0.089532159 0
0.081442162 -2.1470127 -0.089761578 0
0.084980898 -2.1979258 -0.069294296 0
0.085234024 -2.2015676 -0.041054044 0
0.085029706 -2.1986282 -0.01218175 0
0.084940866 -2.1973498 0.016312027 0
0.085582972 -2.206588 0.044162896 0
0.084634058 -2.1929357 0.072917633 0
0.085361958 -2.2034082 0.10100514 0
0.08646217 -1.8900092 -0.091348179 0
0.097524032 -2.0065589 -0.091493838 0
0.11050329 -2.1433108 -0.089546464 0
0.11616628 -2.2029772 -0.070360906 0
0.11654817 -2.207001 -0.041986797 0
0.11556538 -2.1966462 -0.012230864 0
0.1147856 -2.1884301 0.016762631 0
0.11669639 -2.2085626 0.043952607 0
0.11648083 -2.2062914 0.072547466 0
0.11596928 -2.2009015 0.10100514 0
0.10870233 -1.8837578 -0.090532966 0
0.12312858 -2.0035386 -0.09144444 0
0.13998517 -2.1434989 -0.09009587 0
0.14633612 -2.1962309 -0.069872059 0
0.14629985 -2.1959295 -0.041072417 0
0.14758107 -2.2065675 -0.013471587 0
0.14677726 -2.1998935 0.015726352 0
0.14649652 -2.1975625 0.044313297 0
0.14667068 -2.1990087 0.072640695 0
0.14712627 -2.2027915 0.10100529 0
0.13230999 -1.888103 -0.092111476 0
0.14787127 -1.9945984 -0.090390764 0
0.16971371 -2.1440794 -0.090835907 0
0.17800787 -2.2008414 -0.071102373 0
0.17830309 -2.202862 -0.042369682 0
0.17788866 -2.2000256 -0.01323997 0
0.17726715 -2.1957722 0.01573039 0
0.17715058 -2.1949744 0.044244215 0
0.17732273 -2.1961527 0.072612375 0
0.17715566 -2.1950092 0.10100518 0
0.15128663 -1.8632269 -0.087522529 0
0.174382 -1.9975061 -0.091715999 0
0.19692571 -2.1285779 -0.089022093 0
0.20846279 -2.1956561 -0.071054868 0
0.20746449 -2.1898518 -0.041403208 0
0.2091444 -2.1996188 -0.013660712 0
0.20803063 -2.1931434 0.015574107 0
0.21024986 -2.2060461 0.043493096 0
0.21066792 -2.2084768 0.072207592 0
0.20987795 -2.2038839 0.10100558 0
0.17490955 -1.8673369 -0.089295216 0
0.19879054 -1.9878907 -0.090771444 0
0.22467209 -2.1185436 -0.088230006 0
0.24251559 -2.2086196 -0.07371714 0
0.24047896 -2.1983383 -0.043080617 0
0.24239691 -2.2080204 -0.014996594 0
0.2403948 -2.1979136 0.01483451 0
0.23996718 -2.1957548 0.043712538 0
0.23975393 -2.1946783 0.072400041 0
0.23925956 -2.1921828 0.10100541 0
0.1989644 -1.8713845 -0.091193967 0
0.22499016 -1.9873353 -0.091689073 0
0.25301272 -2.1121824 -0.088169776 0
0.27008468 -2.188242 -0.071715809 0
0.2725777 -2.1993489 -0.043971617 0
0.27170214 -2.1954482 -0.01441372 0
0.2711539 -2.1930056 0.014725776 0
0.27163613 -2.195154 0.043435168 0
0.27068129 -2.1909001 0.072337374 0
0.2739349 -2.2053955 0.10100598 0
0.22096653 -1.8653481 -0.091027372 0
0.24915768 -1.9776112 -0.090960018 0
0.28267691 -2.1110919 -0.089123137 0
0.30484459 -2.1993682 -0.074367128 0
0.30461481 -2.1984532 -0.044735868 0
0.30504417 -2.2001631 -0.01556181 0
0.30541673 -2.2016468 0.013583938 0
0.30451193 -2.1980436 0.04295025 0
0.30613914 -2.2045236 0.071838483 0
0.30568171 -2.2027018 0.10100611 0
0.24193095 -1.8556738 -0.090179108 0
0.27448618 -1.9727292 -0.091291286 0
0.31388661 -2.114397 -0.090960361 0
0.3366659 -2.1963019 -0.075094409 0
0.33647397 -2.1956117 -0.045367245 0
0.33696228 -2.1973677 -0.016071616 0
0.33697531 -2.1974144 0.013305651 0
0.33938614 -2.2060828 0.042173114 0
0.33790499 -2.2007573 0.071734227 0
0.33887994 -2.2042627 0.1010064 0
0.26351225 -1.8486584 -0.090032421 0
0.29715338 -1.9587761 -0.089964069 0
0.34007832 -2.0992823 -0.089781232 0
0.37031496 -2.198256 -0.07668262 0
0.37075394 -2.199693 -0.046947364 0
0.37045065 -2.1987002 -0.017066574 0
0.37005344 -2.1973999 0.012658888 0
0.3688468 -2.1934502 0.042353548 0
0.37041506 -2.1985836 0.071571022 0
0.37020898 -2.1979091 0.10100648 0
0.28527477 -1.8422512 -0.090142287 0
0.32558089 -1.9631777 -0.092382871 0
0.36935681 -2.0945141 -0.090498663 0
0.42600513 -2.2644706 -0.087928839 0
0.518906 -2.5431919 -0.090461411 0
0.65123624 -2.9402092 -0.090977781 0
0.86659032 -3.5863149 -0.090405531 0
1.3011757 -4.8901587 -0.090455197 0
3.2868738 -10.847652 -0.14063789 0
0.30555174 -1.8316164 -0.089421235 0
0.34832636 -1.9499117 -0.091428362 0
0.39882618 -2.0895715 -0.091320701 0
0.46286443 -2.2666724 -0.089921109 0
0.55676067 -2.5263469 -0.090053476 0
0.69946951 -2.9210153 -0.090762787 0
0.93310577 -3.5671477 -0.09066572 0
1.4006736 -4.8602295 -0.09065906 0
3.5354517 -10.764063 -0.14069858 0
0.32459539 -1.8182534 -0.088186733 0
0.37023377 -1.9351569 -0.090278886 0
0.4217501 -2.0671167 -0.089191847 0
0.49149293 -2.2457643 -0.088586353 0
0.59719765 -2.5165286 -0.090642415 0
0.74809039 -2.903043 -0.090789475 0
1.0011089 -3.5511539 -0.091292016 0
1.5011585 -4.8320394 -0.091076769 0
3.7798476 -10.668941 -0.14062789 0
0.35122648 -1.8236856 -0.091382228 0
0.39559484 -1.9293828 -0.091064073 0
0.45444775 -2.069586 -0.09158548 0
0.52738816 -2.2433493 -0.090165578 0
0.63543987 -2.500757 -0.090611719 0
0.79571301 -2.88257 -0.090686895 0
1.0639707 -3.5216305 -0.091028668 0
1.594606 -4.7857442 -0.090712182 0
4.0252199 -10.576109 -0.14076896 0
0.37313101 -1.816725 -0.091881491 0
0.41927621 -1.9193217 -0.091104306 0
0.47923774 -2.0526369 -0.090654917 0
0.56082553 -2.2340345 -0.09083841 0
0.67177045 -2.4807034 -0.090154953 0
0.84924001 -2.8752792 -0.092054658 0
1.1291935 -3.4977121 -0.091312923 0
1.6956434 -4.7571254 -0.091365524 0
4.2668195 -10.473735 -0.14082539 0
0.38724491 -1.7932423 -0.088620193 0
0.43992344 -1.9028828 -0.089936487 0
0.50638777 -2.0412159 -0.090834446 0
0.59265167 -2.220758 -0.091032542 0
0.70785493 -2.4605319 -0.089795567 0
0.88904333 -2.8376417 -0.090435617 0
1.1919301 -3.4680436 -0.091281585 0
1.7853498 -4.7031355 -0.090847351 0
4.4990134 -10.351118 -0.14051673 0
0.41192746 -1.7920722 -0.09072917 0
0.46558806 -1.8968959 -0.091074668 0
0.5310095 -2.0246937 -0.090200238 0
0.6197772 -2.1980977 -0.089873813 0
0.74809015 -2.4487517 -0.090652071 0
0.93378139 -2.8114917 -0.090104826 0
1.2511827 -3.4315217 -0.090835191 0
1.874727 -4.6495891 -0.090463348 0
4.7409272 -10.24859 -0.1408809 0
0.43238816 -1.7820663 -0.090878867 0
0.49282733 -1.8931304 -0.092842929 0
0.55046594 -1.9990482 -0.08796563 0
0.49519685 -1.8974848 -0.044336561 0
0.4434576 -1.8024077 -0.0072209742 0
0.98413754 -2.7959709 -0.091018178 0
1.3117545 -3.3980057 -0.090740137 0
1.9669781 -4.602056 -0.090511523 0
4.9680343 -10.116851 -0.14063744 0
0.44968224 -1.7664758 -0.089785852 0
0.50702888 -1.8658029 -0.089661084 0
0.47343808 -1.8076221 0.012770655 0
1.3784926 -3.3752191 -0.091632344 0
2.5914524 -5.4761229 -0.14022686 0
5.1967478 -9.9886179 -0.14063735 0
0.46779984 -1.7527016 -0.089236341 0
0.50429803 -1.8123878 0.033522431 0
2.7092249 -5.4181485 -0.14070787 0
5.4232721 -9.8564844 -0.14068711 0
0.58051062 -1.8854067 -0.02375502 0
0.50923085 -1.7751896 0.035540279 0
0.53323209 -1.8123019 0.055341065 0
5.6451607 -9.7166767 -0.14068227 0
0.50776875 -1.7311846 -0.090009771 0
0.60399729 -1.8720529 -0.049270485 0
0.52280962 -1.7532029 0.036294866 0
0.53531945 -1.771516 0.056868654 0
0.54699206 -1.7886034 0.078463852 0
0.529015 -1.7218922 -0.090987287 0
0.53323138 -1.727742 -0.0054167714 0
0.5437429 -1.7423255 0.014326783 0
0.54974753 -1.7506564 0.035358723 0
0.54937512 -1.7501396 0.057307392 0
0.56257129 -1.7684479 0.078639381 0
0.55148858 -1.7138075 -0.092447959 0
0.61507732 -1.7974946 -0.090214066 0
0.55541289 -1.7189721 -0.049645294 0
0.55375397 -1.7167889 -0.027433744 0
0.55930001 -1.7240878 -0.0068861302 0
0.56249166 -1.7282883 0.014338845 0
0.57045382 -1.738767 0.035165634 0
0.5718708 -1.7406319 0.057040118 0
0.57579207 -1.7457926 0.07887993 0
0.5833236 -1.7557046 0.10099788 0
0.55817115 -1.6854165 -0.0885626 0
0.63627893 -1.782999 -0.090517096 0
0.57556742 -1.7071501 -0.050150398 0
0.58370966 -1.7173226 -0.030082127 0
0.59079784 -1.7261781 -0.0093429219 0
0.59022975 -1.7254684 0.012954006 0
0.58889294 -1.7237982 0.035198029 0
0.59165561 -1.7272496 0.056964908 0
0.59166944 -1.727267 0.078992546 0
0.60495806 -1.7438688 0.10099799 0
0.58207566 -1.678871 -0.090712629 0
0.65340483 -1.7635156 -0.089728557 0
0.69085759 -1.8079598 -0.07498195 0
0.59258097 -1.6913373 -0.028051278 0
0.58951443 -1.6876984 -0.0057721566 0
0.58903491 -1.6871294 0.015790397 0
0.60539675 -1.7065456 0.035397787 0
0.60894543 -1.7107567 0.057047382 0
0.62359405 -1.7281398 0.078505717 0
0.60273492 -1.6678751 -0.091816463 0
0.61524469 -1.6819819 -0.073409148 0
0.61139733 -1.6776433 -0.050236721 0
0.61441988 -1.6810517 -0.028965032 0
1.0840105 -2.2105913 -0.089806728 0
0.6220836 -1.6896938 0.013591716 0
0.62883729 -1.6973097 0.034814481 0
0.62598014 -1.6940879 0.05711579 0
0.63894939 -1.7087128 0.078613937 0
0.6605345 -1.7330534 0.10099877 0
0.60878873 -1.640818 -0.088427491 0
0.6320796 -1.6657838 -0.073285781 0
0.61943859 -1.6522337 -0.048036505 0
0.63217378 -1.6658847 -0.02906709 0
0.73411685 -1.775159 -0.024639016 0
0.63991833 -1.6741862 0.013542371 0
0.65378076 -1.6890455 0.034068462 0
0.64673674 -1.6814951 0.05689925 0
0.65804243 -1.6936138 0.078574926 0
0.66800666 -1.7042946 0.10099831 0
0.68173093 -1.7190058 0.12423027 0
0.63482076 -1.6352487 -0.091397755 0
0.71858776 -1.7206161 -0.092013873 0
0.64731789 -1.6479845 -0.050699759 0
0.65834683 -1.6592242 -0.030933743 0
1.1430602 -2.153198 -0.089609675 0
0.66961181 -1.6707045 0.011860983 0
0.67994231 -1.6812323 0.033198673 0
0.67813885 -1.6793944 0.05595918 0
0.68482476 -1.686208 0.078268826 0
0.69687295 -1.6984864 0.10099876 0
0.65041983 -1.6185687 -0.091250561 0
0.72913927 -1.6948434 -0.090001754 0
0.83678198 -1.7991431 -0.090301879 0
0.97846353 -1.9364246 -0.090308838 0
1.1737974 -2.1256921 -0.089891918 0
1.4725084 -2.4151263 -0.090284295 0
1.9569125 -2.8844864 -0.08942797 0
3.7310605 -4.6035366 -0.14082851 0
7.4653907 -8.2218933 -0.14068668 0
0.66068119 -1.5969994 -0.08968731 0
0.75777602 -1.6864409 -0.092835821 0
0.86241192 -1.7828292 -0.091522552 0
1.0149193 -1.9233154 -0.092767917 0
1.2086926 -2.101815 -0.090940051 0
1.5113471 -2.3806133 -0.090707131 0
2.5451126 -3.332895 -0.14085068 0
3.8124101 -4.5003004 -0.14028075 0
7.6405301 -8.0266781 -0.14052956 0
0.68269944 -1.5861982 -0.091635399 0
0.76294023 -1.6564555 -0.089785449 0
0.88011825 -1.7590544 -0.091076665 0
1.0271442 -1.8877876 -0.090709724 0
1.2259408 -2.0618501 -0.0893187 0
1.521307 -2.3204672 -0.087647282 0
2.6026452 -3.2672668 -0.14077736 0
3.9160583 -4.4172668 -0.14128783 0
7.8245559 -7.8394742 -0.14080453 0
0.69290328 -1.5649476 -0.090352483 0
0.78260922 -1.6395791 -0.090539686 0
0.90306723 -1.739795 -0.091890581 0
1.0598688 -1.8702471 -0.092607565 0
1.2487704 -2.027405 -0.08873456 0
1.5675478 -2.2926142 -0.089242481 0
2.6583776 -3.2001381 -0.14069419 0
4.0029593 -4.3187718 -0.14138813 0
7.9939051 -7.6390672 -0.14077437 0
0.71673381 -1.5548334 -0.092933275 0
0.80840957 -1.6272689 -0.092854194 0
0.91489232 -1.7114038 -0.090461276 0
1.0762173 -1.838871 -0.091614984 0
1.2709203 -1.9927112 -0.088191576 0
1.605065 -2.2567279 -0.089852966 0
2.7172389 -3.1354868 -0.14104393 0
4.0836992 -4.2151642 -0.14126994 0
8.1550331 -7.4320354 -0.14065266 0
0.72731102 -1.5339962 -0.09201289 0
0.82080549 -1.6041108 -0.092043407 0
0.94388521 -1.6964123 -0.09273424 0
1.1016006 -1.8146883 -0.09236858 0
1.3138582 -1.9738672 -0.090824775 0
1.6270757 -2.2087593 -0.088749565 0
2.7719898 -3.0673683 -0.14117195 0
4.1551991 -4.1046824 -0.14076996 0
8.3094215 -7.2200704 -0.14049071 0
0.73190486 -1.5091536 -0.08968661 0
0.83506668 -1.5825256 -0.091814525 0
0.95290673 -1.6663373 -0.091015987 0
1.1150485 -1.7816576 -0.091156684 0
1.3266951 -1.9321874 -0.089162998 0
1.661231 -2.1701202 -0.089196824 0
2.8222983 -2.9959085 -0.14106546 0
4.2370329 -4.0021129 -0.14103 0
8.4643345 -7.0087047 -0.14050066 0
0.7455529 -1.491061 -0.089882471 0
0.83924943 -1.5542027 -0.089425243 0
0.96428198 -1.6384616 -0.089944951 0
1.1310945 -1.7508758 -0.090548031 0
1.350159 -1.8985026 -0.089176498 0
1.6957873 -2.1314201 -0.089792408 0
2.8645563 -2.919049 -0.1404355 0
4.3063936 -3.8906977 -0.14073206 0
8.6172848 -6.7957897 -0.14060634 0
0.75066286 -1.4674504 -0.08803872 0
0.86158216 -1.5381957 -0.091289826 0
0.98001343 -1.6137322 -0.089878462 0
1.1558081 -1.7258556 -0.091524474 0
1.3684181 -1.8614602 -0.088587128 0
1.7387367 -2.0976527 -0.091416724 0
2.9067609 -2.842629 -0.13997336 0
4.3709989 -3.7765329 -0.14033286 0
8.7671022 -6.5804067 -0.14077337 0
0.77433956 -1.4555273 -0.09098015 0
0.86686283 -1.5113064 -0.089465566 0
0.99711537 -1.5898311 -0.090196721 0
1.1688882 -1.6933869 -0.09068159 0
1.4039762 -1.8351133 -0.090496026 0
1.7633111 -2.0517437 -0.09110748 0
2.9714272 -2.7800748 -0.14151046 0
4.4488049 -3.6707346 -0.14081518 0
8.9063187 -6.3580141 -0.14079884 0
0.7877087 -1.4369198 -0.091433026 0
0.89279157 -1.4967086 -0.092289962 0
1.0133497 -1.5653024 -0.090461291 0
1.1887704 -1.6651114 -0.091084041 0
1.4195511 -1.7964184 -0.089780755 0
1.7900788 -2.007237 -0.091163538 0
3.0045612 -2.6982398 -0.14061736 0
4.5114479 -3.5556114 -0.14062253 0
9.0447531 -6.1349206 -0.14095429 0
0.7907927 -1.4126606 -0.089513369 0
0.89737362 -1.4697914 -0.090593867 0
1.0358784 -1.5440345 -0.092012338 0
1.2004495 -1.6322498 -0.090287678 0
1.4483379 -1.765126 -0.09095747 0
1.8119193 -1.9600174 -0.090816848 0
3.0413213 -2.6190166 -0.14018889 0
4.5770364 -3.4422097 -0.14074264 0
9.1672316 -5.9027023 -0.14083633 0
0.79867423 -1.3913132 -0.088906609 0
0.90764469 -1.4462316 -0.090263359 0
1.0380163 -1.5119357 -0.089890443 0
1.2139243 -1.6005889 -0.089915372 0
1.4490578 -1.7190903 -0.088550068 0
1.8359981 -1.9140986 -0.09083388 0
3.0859184 -2.5440273 -0.1405369 0
4.634541 -3.3244946 -0.14059 0
9.2888584 -5.6701541 -0.14085129 0
0.81778008 -1.3754153 -0.09107355 0
0.91644257 -1.4220554 -0.089754499 0
1.0523918 -1.4863217 -0.090166546 0
1.2285678 -1.5696042 -0.089854144 0
1.4879405 -1.6922157 -0.091255806 0
1.854345 -1.8654236 -0.090379335 0
3.1273968 -2.4672246 -0.1407869 0
4.6950054 -3.2082694 -0.14074551 0
9.3908262 -5.4280915 -0.14051238 0
0.82508296 -1.3537198 -0.09056703 0
0.93220222 -1.4010888 -0.090811409 0
1.0646887 -1.4596754 -0.090182908 0
1.2483655 -1.5408988 -0.090706445 0
1.5039109 -1.6539031 -0.091090746 0
1.8833972 -1.821715 -0.091148503 0
3.1732147 -2.3920827 -0.14151488 0
4.7464638 -3.0877862 -0.14059106 0
9.5030642 -5.1911926 -0.14059454 0
0.83001882 -1.3311627 -0.089648105 0
0.93382508 -1.373969 -0.089085616 0
1.0717535 -1.430846 -0.089389183 0
1.252517 -1.5053868 -0.089282237 0
1.5132859 -1.6129193 -0.09021651 0
1.892066 -1.7691156 -0.089963712 0
3.1921299 -2.3052187 -0.14034513 0
4.8083134 -2.9716787 -0.14111543 0
9.6107578 -4.9520464 -0.14071275 0
0.8458792 -1.3130093 -0.091355003 0
0.95554817 -1.3550278 -0.091569446 0
1.0773557 -1.4016972 -0.088474385 0
1.2672246 -1.4744436 -0.089595936 0
1.5315711 -1.5757253 -0.090595983 0
1.9244976 -1.7262712 -0.091298915 0
3.2281373 -2.2257478 -0.14063118 0
4.8502264 -2.8472352 -0.14078769 0
9.7139082 -4.7107062 -0.14086778 0
0.84433228 -1.2882402 -0.089224808 0
0.96503466 -1.331026 -0.091681845 0
1.0898857 -1.3752823 -0.088904597 0
1.2795746 -1.4425219 -0.08967232 0
1.5559077 -1.5404747 -0.091839381 0
1.9306576 -1.6733135 -0.090128146 0
3.2599623 -2.1445165 -0.14075398 0
4.8952184 -2.7241709 -0.14077079 0
9.8087311 -4.4658799 -0.14096695 0
0.85841525 -1.269088 -0.09074717 0
0.97182435 -1.3060951 -0.091379575 0
1.1133842 -1.3522882 -0.091343291 0
1.2943119 -1.4113276 -0.090220593 0
1.5566853 -1.496944 -0.090286143 0
1.9604727 -1.6287057 -0.091421314 0
3.2927382 -2.0634439 -0.1410971 0
4.9367847 -2.5999207 -0.14073905 0
9.884634 -4.2144771 -0.14075434 0
0.86457062 -1.2471764 -0.090607159 0
0.97772062 -1.2809649 -0.091028132 0
1.1068188 -1.3195157 -0.088706993 0
1.2978795 -1.3765696 -0.089242466 0
1.5593443 -1.4546473 -0.089108594 0
1.9617829 -1.5748222 -0.090038143 0
3.304049 -1.9756449 -0.14002144 0
4.9675765 -2.4724016 -0.14033702 0
9.9597349 -3.9631424 -0.14067848 0
0.8788414 -1.2274863 -0.092377745 0
0.97958368 -1.2548208 -0.090016179 0
1.1233926 -1.2938409 -0.090170495 0
1.3078638 -1.343894 -0.089333616 0
1.568428 -1.4145935 -0.088846825 0
1.9597689 -1.520777 -0.088474907 0
3.3367369 -1.8943932 -0.14066271 0
5.0139904 -2.3494866 -0.14084712 0
10.040684 -3.7133915 -0.14089735 0
0.88614827 -1.2056463 -0.092722706 0
0.99311906 -1.2317921 -0.091402031 0
1.1236743 -1.2637023 -0.088978536 0
1.3175734 -1.311095 -0.089504115 0
1.5880414 -1.3772027 -0.089975558 0
1.9802121 -1.4730569 -0.089210652 0
3.3636897 -1.8112061 -0.14103538 0
5.0454016 -2.2222495 -0.14078426 0
10.098243 -3.4572632 -0.14070643 0
0.8765415 -1.1800232 -0.089506529 0
0.99462283 -1.2057456 -0.090573348 0
1.1315322 -1.2355695 -0.089195795 0
1.3272569 -1.2782055 -0.089789368 0
1.6151383 -1.3409168 -0.092106454 0
1.9852946 -1.4215504 -0.088590361 0
3.3913705 -1.7278455 -0.14160874 0
5.0772967 -2.0951023 -0.14089824 0
10.164294 -3.2032375 -0.14087293 0
0.88179243 -1.1580085 -0.089661784 0
1.000888 -1.1808206 -0.090788163 0
1.1461184 -1.2086387 -0.090657063 0
1.3377645 -1.2453474 -0.090310253 0
1.6112163 -1.2977257 -0.090645187 0
2.5476663 -1.4770977 -0.14106014 0
3.3898864 -1.6384206 -0.14025353 0
5.1017556 -1.96632 -0.1408117 0
10.209331 -2.9446487 -0.14069329 0
0.89095801 -1.1365896 -0.090779789 0
1.0169981 -1.15745 -0.093001969 0
1.1469648 -1.1789602 -0.089936845 0
1.3411925 -1.2111059 -0.089938901 0
1.6161531 -1.2566135 -0.090368845 0
2.5504911 -1.4112515 -0.14023964 0
3.4192219 -1.5550314 -0.14124814 0
5.1168585 -1.8359997 -0.14043775 0
10.258276 -2.686933 -0.1407607 0
0.89139903 -1.1136696 -0.090137608 0
1.0132766 -1.1306938 -0.091548853 0
1.1453391 -1.1491407 -0.08893349 0
1.3379257 -1.1760418 -0.088741742 0
1.6218798 -1.2157054 -0.090309374 0
2.5670083 -1.3477238 -0.14086944 0
3.4221914 -1.4671785 -0.14052698 0
5.1442862 -1.707726 -0.14079937 0
10.298987 -2.4277503 -0.14078754 0
0.89062959 -1.0907505 -0.089362271 0
1.0084186 -1.1041833 -0.090012677 0
1.1509942 -1.120443 -0.089262031 0
1.3601243 -1.1442926 -0.091275372 0
1.6304946 -1.1751261 -0.090711467 0
2.5705168 -1.2823281 -0.14042619 0
3.4358711 -1.3810149 -0.14071776 0
5.1624384 -1.5779161 -0.14087728 0
10.325439 -2.1667151 -0.14063396 0
0.89208287 -1.0681983 -0.089186572 0
1.0057164 -1.0782604 -0.089014225 0
1.1375899 -1.0899376 -0.086564831 0
1.1283023 -1.0891151 -0.058078159 0
1.6367209 -1.1341347 -0.090952732 0
2.5743916 -1.2171637 -0.14017312 0
3.432205 -1.2931215 -0.13984354 0
5.1769342 -1.447614 -0.14093746 0
10.348884 -1.9055804 -0.14056447 0
0.89675325 -1.0458769 -0.08981768 0
1.0111743 -1.0531046 -0.089680992 0
1.130319 -1.0606308 -0.085008882 0
1.1282482 -1.0604999 -0.057766411 0
1.6367203 -1.0926191 -0.090585686 0
2.5913885 -1.1529235 -0.14130166 0
3.4545391 -1.2074469 -0.14094757 0
5.1867251 -1.3168656 -0.14093162 0
10.379251 -1.6448668 -0.1408101 0
0.8974877 -1.023242 -0.089730881 0
1.0256534 -1.0280955 -0.092167251 0
1.1250759 -1.0318605 -0.083909653 0
1.1257892 -1.0318875 -0.057218377 0
1.6293551 -1.0509568 -0.089480259 0
2.5837827 -1.0870996 -0.14028263 0
3.4518676 -1.1199727 -0.1404525 0
5.188159 -1.1857235 -0.14069028 0
10.388303 -1.3826456 -0.14071271 0
0.90449876 -1.0006926 -0.091099866 0
1.0119852 -1.0020487 -0.089469664 0
1.1367521 -1.003623 -0.085711084 0
1.1356053 -1.0036086 -0.058497284 0
1.1302702 -1.0035412 -0.031024655 0
1.1379763 -1.0036385 -0.0051662158 0
1.1177926 -1.0033838 0.022888051 0
1.1343443 -1.0035926 0.048202552 0
1.1312448 -1.0035535 0.074689008 0
1.1279162 -1.0035115 0.10100257 0
1.1347162 -1.0035974 0.12739727 0
1.1296264 -1.0035331 0.15358317 0
1.1401179 -1.0036654 0.18067898 0
1.133406 -1.0035808 0.20674561 0
1.1257403 -1.0034841 0.23250109 0
1.1276672 -1.0035084 0.259388 0
1.1375247 -1.0036328 0.28784552 0
1.1198696 -1.00341 0.31179836 0
0.90332729 -0.97790694 -0.090850838 0
1.0181143 -0.97645861 -0.090624176 0
1.1261835 -0.97509503 -0.083973981 0
1.1331451 -0.97500718 -0.058151517 0
1.6365891 -0.96865499 -0.090204529 0
2.5999901 -0.95649928 -0.14164196 0
3.4612987 -0.94563174 -0.14095816 0
5.1905956 -0.92381233 -0.14064986 0
10.398962 -0.85809577 -0.14080669 0
0.90872282 -0.95491719 -0.092120759 0
1.0170817 -0.95081383 -0.090551622 0
1.1302171 -0.94652957 -0.084755205 0
1.1360798 -0.94630754 -0.058665607 0
1.6311958 -0.92755818 -0.089695536 0
2.5880446 -0.89132369 -0.14068072 0
3.4557714 -0.85846412 -0.14072561 0
5.1852007 -0.7929731 -0.14055246 0
10.404518 -0.59532505 -0.14108999 0
0.90157992 -0.93240291 -0.090845697 0
1.0182327 -0.92503422 -0.091013096 0
1.1245759 -0.91831672 -0.08406309 0
1.1199003 -0.91861206 -0.056590918 0
1.6313734 -0.88630337 -0.089959525 0
2.5800149 -0.8263796 -0.14023794 0
3.4527876 -0.77124834 -0.14082487 0
5.1884656 -0.66160911 -0.14101282 0
10.379744 -0.3336868 -0.14082156 0
0.90375692 -0.9093526 -0.091677733 0
1.0203565 -0.89902794 -0.091782503 0
1.1526809 -0.88731086 -0.089054771 0
1.3428515 -0.8704716 -0.08834774 0
1.6392564 -0.84422553 -0.091250218 0
2.5791485 -0.7609998 -0.14061886 0
3.4424548 -0.68455565 -0.14056291 0
5.167696 -0.53178877 -0.14050569 0
10.360253 -0.071997494 -0.14082986 0
0.89859098 -0.88692635 -0.091065533 0
1.0072296 -0.87453699 -0.089787267 0
1.1557461 -0.85759985 -0.090048082 0
1.3486286 -0.83560312 -0.089649357 0
1.6266903 -0.80389243 -0.09026397 0
2.585665 -0.694529 -0.14184929 0
3.4383342 -0.59728885 -0.14089108 0
5.1615381 -0.40077123 -0.14083511 0
10.329429 0.18858531 -0.1407273 0
0.89149684 -0.86490142 -0.090158619 0
1.0064286 -0.84884739 -0.090246491 0
1.1509269 -0.82866341 -0.089860745 0
1.3467627 -0.80130845 -0.089995705 0
1.6192126 -0.76325184 -0.089994632 0
2.5608068 -0.63172704 -0.14028497 0
3.4209926 -0.51157361 -0.14044236 0
5.1416688 -0.27122429 -0.14067633 0
10.301723 0.44954792 -0.14085178 0
0.88639557 -0.84275019 -0.089796804 0
1.0115212 -0.82204121 -0.09195637 0
1.1452086 -0.79991519 -0.089644291 0
1.346621 -0.76658034 -0.090712167 0
1.621359 -0.72110963 -0.090985544 0
2.5623391 -0.56537217 -0.1413606 0
3.415571 -0.42415753 -0.14098944 0
5.1306987 -0.14029434 -0.14109086 0
10.255301 0.70785588 -0.14069058 0
0.88627821 -0.81971705 -0.090632625 0
1.0045217 -0.79706812 -0.091485016 0
1.1432005 -0.77050495 -0.090168782 0
1.3281721 -0.73507464 -0.088937692 0
1.3549231 -0.72995061 -0.060146797 0
1.34717 -0.73143566 -0.026968291 0
1.3573307 -0.72948945 0.0044244844 0
1.3443207 -0.73198146 0.037294444 0
1.3586498 -0.72923678 0.068829969 0
1.3548632 -0.72996211 0.10100975 0
0.87466532 -0.79897022 -0.089098386 0
0.98796457 -0.77428949 -0.089289851 0
1.1336337 -0.74255741 -0.089549296 0
1.208065 -0.72634351 -0.072645955 0
1.2092251 -0.72609085 -0.04355349 0
1.2181323 -0.72415048 -0.015303863 0
1.1932873 -0.72956264 0.015661703 0
1.2162752 -0.72455502 0.043065652 0
1.2041538 -0.72719556 0.0723399 0
1.2021809 -0.72762531 0.10100549 0
0.87697238 -0.77518117 -0.090714835 0
0.99241829 -0.74696392 -0.091266163 0
1.1318775 -0.71287733 -0.090366445 0
1.2067695 -0.69457233 -0.073473938 0
1.2019043 -0.69576144 -0.043517966 0
1.2077466 -0.69433343 -0.014985977 0
1.2073437 -0.69443196 0.014151165 0
1.2159262 -0.69233423 0.042743713 0
1.205323 -0.69492584 0.072144464 0
1.2056476 -0.69484651 0.1010058 0
0.87778604 -0.75138479 -0.092145301 0
0.97593904 -0.72475272 -0.089304887 0
1.1157881 -0.68680716 -0.08887548 0
1.2067308 -0.66213143 -0.074607022 0
1.2183278 -0.65898478 -0.046450008 0
1.2111923 -0.66092086 -0.016076131 0
1.2041284 -0.66283756 0.013817349 0
1.2030514 -0.66312975 0.042984683 0
1.2128524 -0.66047043 0.071774907 0
1.2080755 -0.66176653 0.10100611 0
0.87067747 -0.72958463 -0.091961883 0
0.97112221 -0.69959015 -0.089731075 0
1.114608 -0.65674293 -0.090043016 0
1.2118794 -0.6276961 -0.07662911 0
1.2042896 -0.62996256 -0.045801509 0
1.2158631 -0.62650651 -0.01737575 0
1.198095 -0.63181239 0.013628656 0
1.2044756 -0.62990701 0.042497061 0
1.2080712 -0.62883329 0.071680248 0
1.2124091 -0.62753791 0.10100649 0
0.86045849 -0.70882988 -0.09120404 0
0.966986 -0.67406833 -0.090420969 0
1.093138 -0.6329031 -0.087843128 0
1.2074376 -0.59560543 -0.077378176 0
1.2030292 -0.59704399 -0.046808232 0
1.2019846 -0.59738481 -0.016949801 0
1.2000875 -0.59800386 0.012790823 0
1.2064718 -0.59592056 0.041936494 0
1.2086087 -0.59522325 0.071435273 0
1.217225 -0.5924117 0.10100692 0
0.84406185 -0.69044036 -0.089163817 0
0.96302944 -0.64826947 -0.091281138 0
1.0988629 -0.60012019 -0.090469964 0
1.2000575 -0.5642494 -0.077816091 0
1.2086828 -0.56119198 -0.048783917 0
1.2136161 -0.55944324 -0.019118784 0
1.2079102 -0.56146586 0.011450024 0
1.2120519 -0.55999774 0.041151699 0
1.2109339 -0.56039399 0.07112316 0
1.1978371 -0.56503648 0.10100665 0
0.84924066 -0.66428751 -0.092120163 0
0.95491886 -0.62379795 -0.091442518 0
1.0867984 -0.57326961 -0.090136297 0
1.2167785 -0.52346903 -0.082003973 0
1.2063762 -0.52745461 -0.049895246 0
1.2175446 -0.52317554 -0.020634135 0
1.2120689 -0.52527344 0.010301778 0
1.2052716 -0.52787781 0.040930502 0
1.2040913 -0.52833003 0.071014501 0
1.2050147 -0.52797621 0.10100721 0
0.82988369 -0.64747769 -0.089617036 0
0.94717938 -0.59910887 -0.091806374 0
1.08575 -0.54196697 -0.091877423 0
1.2065655 -0.49214667 -0.082296945 0
1.2181021 -0.48738942 -0.052899275 0
1.2011893 -0.4943637 -0.020209311 0
1.2029839 -0.49362364 0.010074304 0
1.2044706 -0.49301055 0.040365268 0
1.2017862 -0.49411756 0.070770338 0
1.2057117 -0.49249876 0.1010076 0
0.827757 -0.62368232 -0.091188513 0
0.92948139 -0.57869899 -0.090251066 0
1.067284 -0.51776153 -0.090649314 0
1.2030138 -0.45774081 -0.083737589 0
1.2016456 -0.4583458 -0.052464072 0
1.213534 -0.45308867 -0.022782682 0
1.2091485 -0.45502791 0.0086178575 0
1.2040371 -0.45728824 0.039730437 0
1.2062429 -0.45631287 0.070329703 0
1.2113826 -0.45404002 0.10100818 0
0.81510592 -0.60443348 -0.090444811 0
0.91876185 -0.55543292 -0.090237685 0
1.0599433 -0.48869321 -0.091539346 0
1.227213 -0.40962097 -0.089643545 0
1.4805266 -0.28987381 -0.090297364 0
1.8634924 -0.10883704 -0.091323741 0
3.128551 0.48918548 -0.14087614 0
4.7003598 1.2322156 -0.14102122 0
9.4110394 3.4590623 -0.1410322 0
0.81217539 -0.58046716 -0.092120312 0
0.91041464 -0.53095704 -0.090847589 0
1.0397298 -0.46578547 -0.090205796 0
1.2115865 -0.37917396 -0.089547463 0
1.4570606 -0.25546119 -0.089597441 0
1.8292266 -0.06789878 -0.09012609 0
3.093802 0.56941575 -0.14115407 0
4.6399355 1.3486285 -0.14087121 0
9.283371 3.6888039 -0.14070842 0
0.80527443 -0.55816144 -0.093005978 0
0.89489216 -0.51012343 -0.090063564 0
1.0275613 -0.4390085 -0.090461411 0
1.1966376 -0.34837815 -0.089679889 0
1.4465718 -0.21440533 -0.090723284 0
1.8010396 -0.024399187 -0.089664631 0
3.0474153 0.64369863 -0.14067225 0
4.5713158 1.4605584 -0.14044046 0
9.1667747 3.9238727 -0.14082426 0
0.78641272 -0.54240227 -0.091116078 0
0.88712072 -0.48510256 -0.091061063 0
1.0127681 -0.41361317 -0.090351321 0
1.1768714 -0.32024345 -0.089160107 0
1.2093662 -0.30175498 -0.061517898 0
1.2211964 -0.29502395 -0.030070623 0
3.0032272 0.71889621 -0.14051007 0
4.5064836 1.5742021 -0.14035663 0
9.0387487 4.1529202 -0.14079367 0
0.76987451 -0.52574915 -0.089871921 0
0.8761434 -0.46168336 -0.091506638 0
1.006898 -0.38285598 -0.092074074 0
1.1613128 -0.28976467 -0.089438491 0
1.1484028 -0.29754767 -0.055618141 0
1.2020209 -0.26522323 -0.029932206 0
2.9651091 0.79768127 -0.1409947 0
4.4499574 1.6928446 -0.14087783 0
8.9036531 4.3778224 -0.14072646 0
0.76736343 -0.5004825 -0.092249207 0
0.85562271 -0.44418994 -0.089958481 0
0.97749102 -0.36646125 -0.089386754 0
1.1595237 -0.25035927 -0.092143811 0
1.1418313 -0.26164362 -0.057177249 0
1.18604 -0.23344687 -0.030227846 0
2.915791 0.86980385 -0.14072214 0
4.3759775 1.8011236 -0.14060777 0
8.7757845 4.6073594 -0.14101279 0
0.75118029 -0.48373148 -0.091324903 0
0.85115719 -0.41635743 -0.092129834 0
0.97197688 -0.33493754 -0.091469981 0
1.1427357 -0.21986386 -0.092520855 0
1.1455884 -0.21794143 -0.0603454 0
1.1500651 -0.21492466 -0.028367614 0
2.8636839 0.9398765 -0.14036196 0
4.3025904 1.90955 -0.14051855 0
8.6304617 4.8260856 -0.14097579 0
0.72685671 -0.47302148 -0.088369854 0
0.83128095 -0.39875165 -0.090939529 0
0.94761091 -0.31601402 -0.089947931 0
1.0986031 -0.20862356 -0.08832062 0
1.1430656 -0.17700049 -0.062827043 0
1.150038 -0.17204145 -0.030644333 0
2.8179088 1.0142016 -0.1406889 0
4.2345972 2.0217962 -0.14089085 0
8.4745626 5.037395 -0.14079249 0
0.72308838 -0.44775519 -0.090890951 0
0.81803393 -0.37655237 -0.0913909 0
0.93372434 -0.28979233 -0.09064687 0
1.0846776 -0.17658755 -0.089395829 0
1.1067071 -0.16006687 -0.060562719 0
1.098357 -0.16632894 -0.027063077 0
1.1027792 -0.16301259 0.0046903063 0
1.1036206 -0.1623815 0.036805812 0
1.0963567 -0.16782895 0.069136254 0
1.09953 -0.16544929 0.1010096 0
1.1050026 -0.16134515 0.13313463 0
1.0953386 -0.16859254 0.16473131 0
1.0972842 -0.16713342 0.19684894 0
0.71154803 -0.42784873 -0.091528408 0
0.80184728 -0.35650083 -0.091278918 0
0.9150725 -0.26703849 -0.090499021 0
1.0534506 -0.15770224 -0.087537281 0
1.0952449 -0.12467948 -0.062024225 0
1.1019847 -0.11935416 -0.03000631 0
1.0962886 -0.12385485 0.0033798537 0
1.0968003 -0.12345049 0.035951745 0
1.0910197 -0.12801787 0.068669908 0
1.1018717 -0.11944339 0.10101045 0
1.0938675 -0.12576774 0.13343485 0
1.0985076 -0.12210146 0.16617039 0
1.1024166 -0.1190128 0.19918749 0
0.69654316 -0.41060886 -0.091358952 0
0.78943801 -0.33332434 -0.092212819 0
0.8944236 -0.24598083 -0.090042628 0
1.0305459 -0.1327329 -0.087247021 0
1.1017041 -0.073532432 -0.066375785 0
1.1017625 -0.073483795 -0.032686982 0
1.1006508 -0.07440868 0.00096568675 0
1.1069925 -0.069132715 0.033990402 0
1.1135722 -0.063658565 0.067320064 0
1.09885 -0.075906843 0.10101117 0
1.1003358 -0.074670762 0.13430209 0
1.1067082 -0.069369227 0.16801548 0
1.0986067 -0.07610932 0.20087114 0
0.68194509 -0.393047 -0.091422267 0
0.75875443 -0.32579419 -0.08873754 0
0.88068187 -0.21903673 -0.091199793 0
0.99503291 -0.11891314 -0.084711619 0
1.1113242 -0.017090704 -0.071513899 0
1.0982989 -0.028495338 -0.035167459 0
1.1064645 -0.021345761 -0.0017519647 0
1.1036577 -0.02380332 0.032738369 0
1.0983058 -0.028489377 0.067059174 0
1.1091969 -0.018953349 0.10101245 0
1.1047941 -0.022808339 0.13516594 0
1.1019814 -0.025271084 0.16918243 0
1.0971851 -0.029470589 0.20291412 0
1.1032324 -0.024175789 0.23780468 0
1.0901589 -0.035622682 0.37372997 0
0.66477156 -0.37781736 -0.090869434 0
0.74940777 -0.2998524 -0.090692826 0
0.85165298 -0.20566645 -0.089118399 0
0.96828926 -0.098223776 -0.083858155 0
1.0589592 -0.014700677 -0.06714692 0
1.0913955 0.015178952 -0.037412155 0
1.102547 0.025451455 -0.0037344003 0
1.0938941 0.017480526 0.031792227 0
1.1095639 0.031915221 0.065925904 0
1.1007578 0.023803268 0.10101309 0
1.0996497 0.022782478 0.13578682 0
1.1046468 0.027385626 0.17091504 0
1.1051931 0.027888928 0.20601285 0
1.1060957 0.028720293 0.24130505 0
1.0441414 -0.028350499 0.36819455 0
0.64839882 -0.36197433 -0.090652384 0
0.72845083 -0.28440842 -0.089821212 0
0.84361202 -0.17282364 -0.091864921 0
0.84173059 -0.17464671 -0.063552357 0
0.83113915 -0.18490919 -0.034128565 0
0.8409583 -0.17539498 -0.0082019847 0
0.85249829 -0.16421339 0.018079849 0
0.83793753 -0.17832193 0.046715137 0
0.83471245 -0.18144688 0.073978506 0
0.83568037 -0.180509 0.10100358 0
0.8392418 -0.17705819 0.1281756 0
0.84387803 -0.17256591 0.1556779 0
0.84803367 -0.16853932 0.18349402 0
1.0906386 0.066531211 0.24268101 0
1.0084152 -0.013138738 0.29819235 0
1.0079687 -0.013571348 0.33150047 0
0.98800379 -0.032916095 0.3599149 0
0.62505817 -0.35328516 -0.088434853 0
0.71830142 -0.25826046 -0.091936864 0
0.81394076 -0.16079387 -0.089799292 0
0.83530158 -0.13902494 -0.066440351 0
0.83665758 -0.13764307 -0.038480226 0
0.84475917 -0.12938669 -0.011480911 0
0.84092671 -0.13329235 0.017129892 0
0.84349614 -0.13067386 0.04496786 0
0.83839029 -0.13587722 0.07317096 0
0.84272224 -0.13146254 0.1010047 0
0.83320761 -0.14115897 0.12866567 0
0.83824646 -0.13602379 0.1566924 0
0.84298456 -0.13119522 0.18508528 0
0.83641613 -0.13788912 0.21237853 0
1.0958935 0.12654558 0.28377023 0
0.94506878 -0.027160671 0.29048482 0
0.94522488 -0.027001526 0.32262608 0
0.95120722 -0.020904925 0.35659209 0
0.61791027 -0.32798925 -0.091269784 0
0.69520426 -0.24513665 -0.090715297 0
0.79492027 -0.13824949 -0.090315394 0
0.83963156 -0.090322822 -0.071806811 0
0.83466488 -0.09564665 -0.041865934 0
0.83869284 -0.091329068 -0.013656354 0
0.83980685 -0.090134948 0.015003847 0
0.84698057 -0.082445294 0.043233272 0
0.84522736 -0.084324569 0.072194926 0
0.83843136 -0.091609329 0.10100544 0
0.84209317 -0.087684125 0.12970948 0
0.83998221 -0.089946896 0.15830028 0
0.83661413 -0.093557209 0.18668003 0
0.83862513 -0.091401607 0.21565861 0
1.0898467 0.17788652 0.28761944 0
0.93229723 0.009006951 0.29291776 0
0.93554598 0.012489352 0.32621753 0
0.93123478 0.0078680851 0.35790771 0
0.59501028 -0.31942043 -0.089341708 0
0.67174202 -0.23289296 -0.08944764 0
0.77329665 -0.11837366 -0.090340607 0
0.84742677 -0.034779932 -0.078318782 0
0.84130859 -0.04167911 -0.047054742 0
0.83647269 -0.047132459 -0.01656889 0
0.83663273 -0.046951916 0.012919741 0
0.83907348 -0.044199552 0.04216373 0
0.83648163 -0.047122326 0.071691841 0
0.84123814 -0.041758563 0.10100655 0
0.83382744 -0.050115373 0.13022766 0
0.83679807 -0.046765473 0.15968949 0
0.84600043 -0.036388304 0.19008118 0
0.8339631 -0.049962427 0.21822894 0
1.1073052 0.25827506 0.2959474 0
1.0968752 0.24651352 0.33319202 0
0.58487707 -0.29638931 -0.09163671 0
0.65979618 -0.20748475 -0.09159667 0
0.72517365 -0.12990293 -0.083734132 0
0.85294235 0.021716986 -0.084832676 0
0.83814836 0.0041613909 -0.050866459 0
0.84385294 0.010930929 -0.021119734 0
0.83386922 -0.00091656705 0.01061126 0
0.83581245 0.0013894174 0.040657315 0
0.84695089 0.014607105 0.070446797 0
0.83663172 0.0023616289 0.10100742 0
0.83668864 0.002429161 0.13119781 0
0.83681279 0.0025765037 0.16142997 0
0.84261501 0.0094618537 0.19235329 0
0.84049845 0.0069501731 0.22264968 0
0.84021568 0.0066145989 0.25325757 0
1.1015396 0.31672123 0.34108871 0
0.56988531 -0.27853337 -0.092547201 0
0.63961184 -0.19142178 -0.091521673 0
0.72418284 -0.085764498 -0.089236967 0
0.84859562 0.069668442 -0.089652844 0
0.85262573 0.074703366 -0.058311973 0
0.83731973 0.055581126 -0.02395351 0
0.84314603 0.062860042 0.0067539085 0
0.83801609 0.056451116 0.03861117 0
0.83895284 0.057621393 0.069791935 0
0.84005368 0.058996711 0.10100873 0
0.84028292 0.059283052 0.13227507 0
0.84245503 0.061996851 0.16373739 0
0.83898717 0.057664309 0.19479857 0
0.83378023 0.051159058 0.22544238 0
0.83846998 0.057018194 0.25768283 0
1.0982147 0.38152555 0.34783319 0
1.1040951 0.38887218 0.39120004 0
0.54891884 -0.26815918 -0.091545112 0
0.6193772 -0.1754311 -0.091552712 0
0.70545191 -0.062150802 -0.090404041 0
0.73247522 -0.026586261 -0.068948545 0
0.73047471 -0.029219057 -0.039953399 0
0.73740065 -0.020104017 -0.012646301 0
0.73251277 -0.026536848 0.016439321 0
0.72671139 -0.034171786 0.04512519 0
0.73649222 -0.021299507 0.072704159 0
0.73227847 -0.026845124 0.10100491 0
0.73551649 -0.02258363 0.1292685 0
0.73213893 -0.027028766 0.15730241 0
0.72944975 -0.030567911 0.18521662 0
0.72586691 -0.035283174 0.21287668 0
0.72925586 -0.030823078 0.24172843 0
0.72862929 -0.031647768 0.27006602 0
0.72554767 -0.035703328 0.29787418 0
0.7314291 -0.027962949 0.32844925 0
0.53146678 -0.25329092 -0.091878571 0
0.59100211 -0.17069212 -0.089090519 0
0.67831439 -0.049555685 -0.0894145 0
0.72768474 0.018940482 -0.073691152 0
0.95818496 0.33873466 -0.090356179 0
0.84882808 0.18701378 -0.034374777 0
0.84006339 0.17485371 0.00064837397 0
0.83805043 0.17206088 0.034323413 0
0.84043741 0.17537263 0.067590475 0
0.84373301 0.1799449 0.10101154 0
0.84223843 0.17787138 0.13450412 0
0.84165984 0.17706862 0.16798703 0
0.83654398 0.1699709 0.20095362 0
0.84200048 0.17754129 0.23530851 0
0.83973116 0.17439273 0.26870352 0
0.83703548 0.17065278 0.30199715 0
1.0946388 0.52804965 0.40848425 0
0.51608074 -0.23523214 -0.09314207 0
0.57394755 -0.15052137 -0.090355195 0
0.6589008 -0.026159074 -0.090729319 0
0.76616353 0.13086203 -0.089673586 0
0.92541695 0.36399177 -0.090572514 0
1.1536185 0.69805413 -0.089766808 0
0.85403842 0.25950137 -0.004757164 0
0.83830577 0.23647037 0.031861927 0
0.84075159 0.24005082 0.066355251 0
0.83869034 0.2370334 0.1010128 0
0.841308 0.24086538 0.13569359 0
0.83401841 0.23019424 0.16980952 0
0.84359926 0.24421957 0.20548986 0
0.83752698 0.23533037 0.23948686 0
0.84223199 0.24221805 0.27536386 0
0.84641212 0.24833718 0.31169528 0
1.1070348 0.6298607 0.42335764 0
1.0961248 0.6138894 0.46677461 0
0.49018401 -0.23284647 -0.090516768 0
0.55214787 -0.13703415 -0.09019763 0
0.62948686 -0.017447915 -0.089245237 0
0.73362339 0.14357427 -0.088629656 0
0.89106798 0.38702479 -0.090591885 0
1.1144611 0.73244852 -0.09041702 0
1.4821383 1.3009734 -0.089706399 0
0.85001558 0.32354704 0.028183887 0
0.8422572 0.31155053 0.064951345 0
0.84551245 0.31658402 0.10101479 0
0.84590679 0.31719378 0.1372346 0
0.8429752 0.31266072 0.17324206 0
0.83965671 0.30752948 0.20902631 0
0.84173316 0.31074014 0.2455702 0
0.83825213 0.30535761 0.2812551 0
0.84018064 0.30833963 0.31823605 0
0.83874589 0.30612114 0.35460749 0
1.1022595 0.71358174 0.48305798 0
0.47112903 -0.22043881 -0.090592824 0
0.53364354 -0.11820754 -0.091343738 0
0.60350519 -0.0039614108 -0.088847987 0
0.70830154 0.16741422 -0.089571081 0
0.85485965 0.40708354 -0.090323247 0
