# .PCD v0.7 - Point Cloud Data file format
VERSION 0.7
FIELDS x y z intensity
SIZE 4 4 4 4
TYPE F F F F
COUNT 1 1 1 1
WIDTH 1348
HEIGHT 1
VIEWPOINT 0 0 0 1 0 0 0
POINTS 1348
DATA ascii
0.93826061 1.7309407 -0.050042924 0
0.85008031 1.7028406 0.3828871 0
0.83874851 1.6992295 0.49350694 0
0.83971006 1.699536 0.61311734 0
0.93495828 1.7506722 -0.050148927 0
0.84574515 1.7210006 0.38326994 0
0.83303326 1.7167727 0.49350601 0
0.83885831 1.7187101 0.61524004 0
0.92111796 1.7668333 -0.049866583 0
0.83972031 1.7386179 0.38325977 0
0.82786304 1.7345078 0.49377462 0
0.84153122 1.7392457 0.61902207 0
0.91370934 1.7851067 -0.049834765 0
0.84583479 1.7606173 0.38660219 0
0.8352645 1.7568035 0.4985697 0
0.83320373 1.7560599 0.61809295 0
0.90922791 1.8044574 -0.049923167 0
0.84003812 1.7785043 0.38679007 0
0.82557887 1.7730806 0.49741545 0
0.84161896 1.7790972 0.62465656 0
0.91164476 1.8265655 -0.050285622 0
0.84090525 1.7990102 0.38886496 0
0.82546228 1.7929946 0.4997451 0
0.82886201 1.7943189 0.62197351 0
0.8871538 1.838079 -0.049624495 0
0.83953315 1.8188351 0.39040512 0
0.82552963 1.8131763 0.50224239 0
0.82480055 1.8128816 0.62324512 0
0.88602465 1.858875 -0.049869724 0
0.82896072 1.8349749 0.38947743 0
0.82254058 1.832286 0.50374192 0
0.82215887 1.8321261 0.62526548 0
0.89342636 1.8835629 -0.050458428 0
0.82938927 1.8557894 0.39166036 0
0.82699603 1.8547515 0.50803626 0
0.82991785 1.8560187 0.63209975 0
0.87497002 1.8971055 -0.050050743 0
0.82682496 1.8755002 0.3930918 0
0.81654197 1.8708857 0.50702101 0
0.82138509 1.873059 0.63171554 0
0.86547214 1.9144909 -0.049999937 0
0.82667857 1.896492 0.39528131 0
0.81193787 1.8896528 0.5082196 0
0.82204419 1.8943418 0.63562214 0
0.84643406 1.927267 -0.049579758 0
0.82160002 1.9153625 0.39616317 0
0.81468183 1.9120462 0.51222342 0
0.81795651 1.9136159 0.63749558 0
0.84440094 1.9481323 -0.04984073 0
0.82111877 1.9366089 0.39842668 0
0.80586201 1.9290578 0.51206398 0
0.81153935 1.9318677 0.63841641 0
0.839454 1.9677196 -0.049997076 0
0.81631988 1.9559046 0.39954433 0
0.8000645 1.9476027 0.51311237 0
0.80195671 1.9485691 0.63797802 0
0.82702929 1.9834965 -0.049862653 0
0.80875653 1.9738723 0.39994207 0
0.80888504 1.97394 0.51975185 0
0.79706961 1.9677169 0.63983214 0
0.82635385 2.0055478 -0.05021264 0
0.80001289 1.9912475 0.40006533 0
0.79683942 1.9895247 0.51866293 0
0.78349239 1.9822787 0.63771808 0
0.80807525 2.0180397 -0.049856346 0
0.79411191 2.0102301 0.40108421 0
0.78907686 2.0074139 0.51927358 0
0.78209323 2.0035079 0.64145297 0
0.80404145 2.0384498 -0.050090794 0
0.79126281 2.03109 0.40307918 0
0.77886075 2.023947 0.51903284 0
0.78911132 2.0298507 0.64936405 0
0.79154521 2.0540388 -0.049986407 0
0.77731031 2.0455997 0.40187347 0
0.78015178 2.0472844 0.52332109 0
0.77353543 2.0433619 0.64661849 0
0.77274126 2.0656977 -0.049625609 0
0.7737326 2.0663023 0.40381336 0
0.77662641 2.0680676 0.5258795 0
0.77538401 2.0673096 0.65238446 0
0.7773034 2.0917196 -0.0502529 0
0.76702172 2.0852687 0.40490323 0
0.76708442 2.0853083 0.52619761 0
0.7597608 2.0807133 0.64980322 0
0.75858635 2.1032546 -0.049910158 0
0.758295 2.1030667 0.40546215 0
0.75115854 2.0984631 0.5240764 0
0.76612729 2.1081192 0.65811825 0
0.74852389 2.1202419 -0.049941469 0
0.75441879 2.1241508 0.40757892 0
0.75066131 2.1216593 0.52816212 0
0.75062042 2.1216321 0.65580744 0
0.73293537 2.1334946 -0.049743522 0
0.74361616 2.1407719 0.40765721 0
0.73465818 2.1346684 0.52615786 0
0.73938853 2.1378915 0.65570337 0
0.72259539 2.1502542 -0.049779788 0
0.72824341 2.1542077 0.40637788 0
0.72488838 2.1518593 0.5267334 0
0.73099285 2.1561322 0.65713471 0
0.70525664 2.1620183 -0.049517889 0
0.72412711 2.1755836 0.40867671 0
0.71421534 2.1684585 0.52703238 0
0.72833127 2.178606 0.66161966 0
0.69702226 2.1802766 -0.049664091 0
0.71214169 2.191437 0.40858668 0
0.71553427 2.1939414 0.53237903 0
0.715671 2.1940422 0.66114604 0
0.68657595 2.1969924 -0.049722861 0
0.70564526 2.2114427 0.41031641 0
0.69422001 2.202785 0.52846259 0
0.70307952 2.2094984 0.66080397 0
0.67858249 2.2156723 -0.049902625 0
0.68902916 2.2237976 0.40887335 0
0.68178195 2.2181609 0.52829546 0
0.69453233 2.2280779 0.66268158 0
0.66916496 2.2333817 -0.050029848 0
0.68879551 2.2490509 0.4128142 0
0.67897362 2.2412109 0.53230786 0
0.69184858 2.251488 0.6678077 0
0.65612465 2.248244 -0.050001442 0
0.66591746 2.2562647 0.40943247 0
0.66821259 2.2581444 0.53306609 0
0.66862279 2.2584803 0.66215014 0
0.64849156 2.2676277 -0.050233565 0
0.66056186 2.2777703 0.41188416 0
0.66023129 2.2774925 0.53513247 0
0.65581173 2.2737789 0.66211218 0
0.62931865 2.2772846 -0.049935747 0
0.72293073 2.3579786 0.066348106 0
0.71386379 2.3501627 0.18637554 0
0.72751552 2.3619306 0.31194624 0
0.64439517 2.2902806 0.41081178 0
0.65925366 2.3030887 0.54040414 0
0.65512019 2.2995255 0.66880339 0
0.62190133 2.2970593 -0.05020057 0
0.67964226 2.3481135 0.064952239 0
0.6798057 2.348258 0.1834836 0
0.69243962 2.3594289 0.30688405 0
0.63848656 2.3117239 0.41327426 0
0.63674098 2.3101804 0.53631365 0
0.63820499 2.311475 0.66678131 0
0.60273999 2.3064399 -0.049914356 0
0.66617173 2.3639653 0.064971507 0
0.66551465 2.3633692 0.18342282 0
0.65448242 2.3533645 0.30105463 0
0.62133688 2.3233051 0.41198578 0
0.62213999 2.3240335 0.5357694 0
0.62320203 2.3249967 0.66588849 0
0.59350246 2.3247793 -0.050114349 0
0.64259249 2.3704379 0.064507812 0
0.64829165 2.3757386 0.18295877 0
0.64227563 2.3701432 0.30148011 0
0.61233395 2.3422945 0.41357127 0
0.61078471 2.3408537 0.53677225 0
0.61420876 2.3440382 0.66847903 0
0.58300227 2.3421137 -0.050265789 0
0.62287778 2.3801494 0.064233176 0
0.62585932 2.3829935 0.18173841 0
0.62861007 2.3856173 0.30159953 0
0.59194869 2.3506472 0.41124642 0
0.59488767 2.3534505 0.53579581 0
0.59900504 2.357378 0.66768366 0
0.56630367 2.3535385 -0.050120376 0
0.61677307 2.4029078 0.064640924 0
0.61025232 2.3965292 0.18154269 0
0.61430091 2.4004896 0.30160689 0
0.59003705 2.3767545 0.41552338 0
0.58969492 2.3764198 0.53986245 0
0.58008403 2.3670185 0.66482216 0
0.54676884 2.3619773 -0.04983693 0
0.6070469 2.4224453 0.064885117 0
0.60339004 2.418777 0.18270144 0
0.59872669 2.414099 0.30133876 0
0.57540315 2.3907018 0.41537517 0
0.57796258 2.3932693 0.54103452 0
0.57791692 2.3932235 0.67182058 0
0.52971441 2.3726854 -0.049682237 0
0.59766513 2.442589 0.065162666 0
0.60257536 2.4476402 0.18485065 0
0.60768825 2.4528999 0.30745959 0
0.56587225 2.4098823 0.41715673 0
0.56296271 2.4068892 0.5407629 0
0.55885619 2.4026647 0.66906995 0
0.52917987 2.4006679 -0.050389748 0
0.61729044 2.4936244 0.066962354 0
0.61731929 2.4936547 0.18951556 0
0.61314827 2.4892542 0.31287161 0
0.54805166 2.4205775 0.41597679 0
0.54542607 2.4178076 0.53934318 0
0.54272431 2.4149573 0.66811645 0
0.50374955 2.4024539 -0.049815875 0
0.5368529 2.4382706 0.41732001 0
0.54297501 2.4448946 0.54536533 0
0.53117067 2.4321225 0.67003626 0
0.48924896 2.4157684 -0.049817998 0
0.52025884 2.4501793 0.41671023 0
0.52095777 2.4509549 0.54191673 0
0.51392728 2.4431534 0.66859704 0
0.47493491 2.4293022 -0.049839254 0
0.50431091 2.4627373 0.416399 0
0.50811988 2.4670725 0.54308343 0
0.50670475 2.4654617 0.67350948 0
0.46249864 2.4450562 -0.049973164 0
0.48479661 2.4710889 0.41474599 0
0.48575899 2.4722126 0.53950018 0
0.48959085 2.4766862 0.67237669 0
0.45800981 2.4704809 -0.05056278 0
0.47290215 2.4883175 0.41614273 0
0.47477731 2.4905634 0.5418027 0
0.47322783 2.4887075 0.67180234 0
0.43298987 2.4713407 -0.050018292 0
0.45574257 2.4992998 0.4155201 0
0.45641133 2.5001214 0.54036987 0
0.45483395 2.4981833 0.66998559 0
0.41925696 2.4858196 -0.050114203 0
0.44192067 2.5143967 0.41631427 0
0.44561681 2.519057 0.54303193 0
0.44085476 2.5130527 0.6711601 0
0.40638599 2.5015292 -0.050272573 0
0.4328858 2.5358217 0.41919753 0
0.42570731 2.5265324 0.54090708 0
0.42156622 2.5211735 0.66888469 0
0.38687286 2.5086074 -0.050050996 0
0.41058692 2.5401068 0.41661644 0
0.41404882 2.5447052 0.54336202 0
0.41219327 2.5422406 0.67346656 0
0.36725107 2.5152783 -0.049824361 0
0.39308307 2.5505054 0.4160825 0
0.39572373 2.5541065 0.54223651 0
0.38938919 2.5454681 0.66890794 0
0.35695913 2.5347445 -0.050171968 0
0.37347427 2.5578713 0.41467199 0
0.37939712 2.5661654 0.54230219 0
0.37731048 2.5632434 0.6719383 0
0.33745745 2.5413995 -0.049965139 0
0.3578966 2.570797 0.41507843 0
0.34982696 2.5591905 0.53473848 0
0.36081532 2.5749948 0.67198175 0
0.32293662 2.5551596 -0.050076991 0
0.3456187 2.5886757 0.417068 0
0.34616968 2.5894899 0.54236299 0
0.3452594 2.5881448 0.67282814 0
0.30222675 2.5596707 -0.049800407 0
0.32151398 2.5889583 0.41371325 0
0.32758823 2.598182 0.54133558 0
0.32249454 2.5904474 0.66838747 0
0.28696975 2.5723376 -0.049882937 0
0.30490091 2.600327 0.41383681 0
0.30559018 2.601403 0.53824753 0
0.306142 2.6022644 0.66880244 0
0.27030286 2.5828576 -0.049882632 0
0.28606924 2.6081638 0.41296089 0
0.2874414 2.6103663 0.53754354 0
0.28422198 2.6051989 0.66498196 0
0.25741455 2.5996218 -0.05015175 0
0.26817176 2.6173823 0.41257474 0
0.26743755 2.6161702 0.53570515 0
0.27181527 2.6233978 0.66871363 0
0.24329628 2.6146767 -0.050354823 0
0.25279209 2.6308095 0.41350439 0
0.2521008 2.6296351 0.53693557 0
0.25232413 2.6300147 0.66692847 0
0.21882178 2.6119139 -0.049831022 0
0.2373118 2.6442523 0.41448903 0
0.23401655 2.638489 0.53646421 0
0.23323376 2.63712 0.66550666 0
0.20402087 2.6258206 -0.050004188 0
0.21635784 2.6480422 0.41270715 0
0.21831621 2.6515696 0.53769159 0
0.22371186 2.6612885 0.67228955 0
0.18039466 2.6236126 -0.049530249 0
0.20135196 2.6625073 0.4141078 0
0.20311536 2.6657801 0.53941256 0
0.19907476 2.6582811 0.66630197 0
0.16625179 2.6388333 -0.049773537 0
0.18546696 2.6755958 0.41515753 0
0.17898078 2.6631863 0.53488612 0
0.17888536 2.6630039 0.66411036 0
0.15299226 2.6561835 -0.050107665 0
0.16305681 2.6760442 0.41264266 0
0.16073038 2.6714535 0.53455293 0
0.1597413 2.6695015 0.66287506 0
0.13305612 2.6604781 -0.049927138 0
0.14302625 2.6807828 0.41144314 0
0.14368154 2.6821175 0.53519565 0
0.13753416 2.6695981 0.65880626 0
0.11764713 2.6740048 -0.050122596 0
0.12112948 2.6813283 0.4091377 0
0.1220217 2.6832049 0.53238595 0
0.12696005 2.6935906 0.66584569 0
0.097953342 2.6785569 -0.049971875 0
0.10348358 2.6905751 0.40936697 0
0.10440876 2.6925859 0.53273004 0
0.10634693 2.6967978 0.66343212 0
0.084239267 2.6962934 -0.050346915 0
0.083712898 2.6951103 0.40834147 0
0.082087658 2.691458 0.52932644 0
0.087169789 2.7028792 0.6624524 0
0.063298427 2.6979001 -0.050099831 0
0.065625332 2.7033117 0.40840897 0
0.066445313 2.7052188 0.53143513 0
0.065837167 2.7038045 0.65926343 0
0.042684101 2.699847 -0.049877401 0
0.046681248 2.7094755 0.40797636 0
0.04896351 2.7149732 0.5321607 0
0.046212159 2.7083457 0.65783274 0
0.029172501 2.7191172 -0.050332312 0
0.027653476 2.7153239 0.40752494 0
0.029485663 2.7198992 0.53123134 0
0.027412375 2.7147219 0.65733826 0
0.0083270883 2.7202835 -0.050098751 0
0.0067380876 2.716166 0.40577233 0
0.010348103 2.7255204 0.53064215 0
0.0078982329 2.7191722 0.65609676 0
-0.012417891 2.721256 -0.04986893 0
-0.013392189 2.7186334 0.40454218 0
-0.01494179 2.7144625 0.52422184 0
-0.012743273 2.7203801 0.65353769 0
-0.030596057 2.728941 -0.049904533 0
-0.028806308 2.7339509 0.40686765 0
-0.030289272 2.7297997 0.52726811 0
-0.035137452 2.716229 0.64874846 0
-0.04591278 2.7450526 -0.050266694 0
-0.052816309 2.7249324 0.40267152 0
-0.048998095 2.7360606 0.52717686 0
-0.053730644 2.7222676 0.64856404 0
-0.067371733 2.7433276 -0.049964249 0
-0.071956672 2.7293961 0.40219522 0
-0.075290002 2.7192674 0.51909417 0
-0.071979322 2.7293272 0.64892751 0
-0.086812027 2.747308 -0.049886696 0
-0.090417691 2.7358687 0.40232289 0
-0.08985991 2.7376382 0.52342546 0
-0.091383226 2.7328055 0.64783496 0
-0.10745163 2.7471304 -0.049663547 0
-0.1140568 2.7252166 0.39794889 0
-0.11248029 2.7304471 0.51892185 0
-0.11189211 2.7323983 0.64517206 0
-0.12325797 2.7631929 -0.050054189 0
-0.10587192 2.8236177 0.06429895 0
-0.10809649 2.8158863 0.180629 0
-0.10518701 2.8259981 0.30094981 0
-0.1314707 2.7346499 0.39900222 0
-0.12953706 2.7413702 0.52080446 0
-0.13120617 2.7355692 0.64417195 0
-0.14381804 2.7629695 -0.049847983 0
-0.13270177 2.8035183 0.063349038 0
-0.13257854 2.8039677 0.17868422 0
-0.13364612 2.8000734 0.29506034 0
-0.1505257 2.7385018 0.39863351 0
-0.15207465 2.7328517 0.51604807 0
-0.15175651 2.7340121 0.64125001 0
-0.16077526 2.7760038 -0.050141159 0
-0.15636732 2.7929149 0.062765077 0
-0.15986265 2.779505 0.17538698 0
-0.16026466 2.7779627 0.28996786 0
-0.16920568 2.7436604 0.39867386 0
-0.17050935 2.7386589 0.51633018 0
-0.16903646 2.7443097 0.64352077 0
-0.18005769 2.7805085 -0.050127599 0
-0.17889793 2.7851992 0.062300105 0
-0.178905 2.7851706 0.17547342 0
-0.17962755 2.7822483 0.28985748 0
-0.19025461 2.7392671 0.39626566 0
-0.18997295 2.7404063 0.51529992 0
-0.19017307 2.7395971 0.63947552 0
-0.1992725 2.785274 -0.050132558 0
-0.19848423 2.7886438 0.062256113 0
-0.19772999 2.791868 0.17570001 0
-0.19745739 2.7930334 0.29099649 0
-0.21072023 2.7363374 0.39431757 0
-0.21010874 2.7389514 0.51326227 0
-0.20843275 2.7461159 0.64033139 0
-0.22192188 2.7745075 -0.049578499 0
-0.21712865 2.796227 0.062372576 0
-0.21775483 2.7933896 0.17538247 0
-0.21549539 2.8036277 0.29213864 0
-0.22792728 2.7472951 0.39607069 0
-0.22877164 2.743469 0.51335168 0
-0.22852467 2.7445881 0.63787073 0
-0.23884787 2.789413 -0.049972355 0
-0.23334192 2.8159454 0.062939778 0
-0.23384686 2.8135121 0.17713508 0
-0.23504294 2.8077483 0.29212728 0
-0.24785952 2.7459869 0.3946797 0
-0.24910109 2.7400043 0.51080853 0
-0.24952792 2.7379472 0.63336146 0
-0.25614095 2.8039021 -0.050357871 0
-0.25199938 2.8252046 0.063132636 0
-0.25365397 2.8166943 0.17705096 0
-0.25206378 2.8248734 0.29455048 0
-0.2676934 2.7444813 0.39330611 0
-0.27025414 2.7313101 0.50658613 0
-0.2720136 2.7222602 0.62515938 0
-0.27853853 2.7917905 -0.049785234 0
-0.26840469 2.8476608 0.06381242 0
-0.26743656 2.8529983 0.180612 0
-0.26740402 2.8531778 0.29905653 0
-0.28605744 2.7503369 0.39390913 0
-0.28900328 2.7340958 0.50634509 0
-0.28824791 2.7382603 0.63042891 0
-0.29506466 2.8121307 -0.050398916 0
-0.30652592 2.7440727 0.39143518 0
-0.30878392 2.7306647 0.50408691 0
-0.30997872 2.7235699 0.62288731 0
-0.31800729 2.7940404 -0.049630426 0
-0.32776484 2.7312839 0.387348 0
-0.32800567 2.7297349 0.50275928 0
-0.32770729 2.7316539 0.62501812 0
-0.33585489 2.8078594 -0.050024476 0
-0.34463578 2.7462871 0.39049953 0
-0.34653407 2.7329762 0.50291717 0
-0.34798282 2.7228177 0.62016195 0
-0.35543898 2.8104827 -0.050022922 0
-0.3650783 2.736212 0.38724867 0
-0.36571082 2.7313383 0.50151616 0
-0.36798933 2.7137823 0.61533731 0
-0.37457761 2.8169308 -0.050167717 0
-0.38451365 2.7320094 0.38557723 0
-0.38577276 2.7212479 0.49736708 0
-0.38576937 2.721277 0.6175155 0
-0.39489323 2.8131046 -0.049952198 0
-0.40454251 2.7205517 0.38210982 0
-0.40439293 2.7219865 0.49693015 0
-0.40542534 2.7120841 0.61283743 0
-0.41482627 2.8118248 -0.049837381 0
-0.42255959 2.7273486 0.38338786 0
-0.42345807 2.7175338 0.49483773 0
-0.42348677 2.7172203 0.61422533 0
-0.43462473 2.8112607 -0.049757317 0
-0.44219953 2.7152085 0.37987626 0
-0.44336706 2.7004039 0.48859686 0
-0.44325784 2.7017887 0.60716414 0
-0.45347613 2.8241947 -0.050169181 0
-0.46132523 2.7056341 0.37708688 0
-0.4610419 2.709914 0.49132723 0
-0.46138984 2.7046585 0.60780615 0
-0.47374886 2.8160839 -0.049836867 0
-0.47979033 2.7032998 0.37621078 0
-0.47984961 2.7021933 0.4883891 0
-0.48049626 2.6901214 0.60132498 0
-0.4934912 2.8152742 -0.049774725 0
-0.49790037 2.7075937 0.37708697 0
-0.49836272 2.6963017 0.48614043 0
-0.49824286 2.6992292 0.60474509 0
-0.51324975 2.8124542 -0.049649678 0
-0.5165028 2.6976681 0.37439179 0
-0.51681656 2.6865959 0.48270065 0
-0.51720375 2.6729338 0.59359235 0
-0.53276557 2.8196497 -0.049891159 0
-0.53473723 2.6944034 0.37345651 0
-0.53484035 2.6878505 0.48298579 0
-0.53484076 2.6878269 0.59959626 0
-0.55245423 2.827039 -0.050148323 0
-0.55289894 2.6858311 0.37122574 0
-0.55296868 2.6636815 0.47488821 0
-0.55293375 2.6747689 0.59411919 0
-0.57230049 2.8315797 -0.050312661 0
-0.57084137 2.677053 0.36900055 0
-0.57076323 2.6687765 0.4766019 0
-0.57079935 2.6726034 0.5932458 0
-0.59189284 2.8191938 -0.049881522 0
-0.58862603 2.6709554 0.36751646 0
-0.58853978 2.6670401 0.47611737 0
-0.5884974 2.665117 0.59026188 0
-0.61136633 2.8120706 -0.049647003 0
-0.60599369 2.6569669 0.36407441 0
-0.60606527 2.6590345 0.47362015 0
-0.60594046 2.6554313 0.58645773 0
-0.63142276 2.8207216 -0.049984902 0
-0.62385124 2.6604855 0.36515772 0
-0.62337095 2.6503217 0.47095934 0
-0.62337226 2.6503489 0.5846504 0
-0.65104848 2.8181412 -0.049930386 0
-0.64088881 2.6484747 0.36233023 0
-0.64034516 2.6393948 0.46763122 0
-0.64024782 2.6377692 0.57982308 0
-0.64019275 2.6368499 0.69897354 0
-0.67096311 2.8200328 -0.050044734 0
-0.6582191 2.6443186 0.36156425 0
-0.65731531 2.6318569 0.46550179 0
-0.6566301 2.6224089 0.57392514 0
-0.65759319 2.6356883 0.69896865 0
-0.69122589 2.8250239 -0.050279241 0
-0.6741389 2.6244648 0.46349001 0
-0.67441112 2.62766 0.57667136 0
-0.67467833 2.6307957 0.69720036 0
-0.71072608 2.8204942 -0.050181665 0
-0.69048643 2.6137438 0.46043384 0
-0.68960357 2.6047251 0.5677883 0
-0.69004846 2.6092699 0.68717581 0
-0.72952509 2.8102241 -0.049886573 0
-0.707398 2.6102006 0.57080722 0
-0.70585233 2.5962284 0.68150562 0
-0.74955797 2.8116281 -0.050019469 0
-0.72356957 2.6010025 0.56780255 0
-0.72321218 2.5981059 0.68344802 0
-0.76973897 2.8134012 -0.050174985 0
-0.73872393 2.5856688 0.67827582 0
-0.7873534 2.7971885 -0.049690742 0
-0.75434798 2.5757327 0.67445773 0
-0.80947524 2.8109279 -0.05029678 0
-0.82733232 2.797781 -0.049939793 0
-0.84638226 2.7923298 -0.049869679 0
-0.86573458 2.7886183 -0.04987146 0
-0.88629615 2.790534 -0.05008759 0
-0.90359384 2.7773886 -0.049762383 0
-0.92370087 2.7768877 -0.049908482 0
-0.94436818 2.778162 -0.050129745 0
-0.96012431 2.7604523 -0.0496598 0
-0.9806717 2.7610123 -0.049873028 0
-1.0001014 2.7572346 -0.049935225 0
-1.0208287 2.7575059 -0.050158057 0
-1.0373603 2.74423 -0.04988344 0
-1.0579944 2.7437587 -0.050097741 0
-1.0758231 2.7348092 -0.050002102 0
-1.0937505 2.7263181 -0.049931951 0
-1.1132119 2.7220089 -0.050029702 0
-1.1296035 2.7096949 -0.049830247 0
-1.1497608 2.7069798 -0.05000779 0
-1.1682274 2.6999335 -0.050028227 0
-1.1841787 2.6870937 -0.049832053 0
-1.2009386 2.6763685 -0.04972548 0
-1.2238462 2.6789553 -0.050151251 0
-1.2368582 2.660367 -0.049751401 0
-1.2554667 2.6536219 -0.04982806 0
-1.2734312 2.6455004 -0.049859334 0
-1.2960296 2.6460567 -0.050250661 0
-1.3118672 2.6336708 -0.050129589 0
-1.3287923 2.6233828 -0.050101757 0
-1.3387614 2.6011372 -0.049588948 0
-1.3596522 2.5978823 -0.049867131 0
-1.3774973 2.5892889 -0.049934771 0
-1.3912431 2.5741119 -0.04973438 0
-1.4068784 2.5620973 -0.049674314 0
-1.4250816 2.5540001 -0.049790323 0
-1.4471368 2.551368 -0.050153814 0
-1.4613619 2.5371735 -0.050027639 0
-1.4780991 2.5265968 -0.0500676 0
-1.4978254 2.5199904 -0.050293863 0
-1.5108069 2.5042729 -0.05012431 0
-1.5275584 2.4935598 -0.050187357 0
-1.5437089 2.4820228 -0.050222922 0
-1.5538944 2.4632051 -0.049931359 0
-1.5607495 2.4407628 -0.049473178 0
-1.5855113 2.4394505 -0.050012685 0
-1.5972421 2.4229164 -0.049845666 0
-1.6174923 2.4158876 -0.050143231 0
-1.6339535 2.4044986 -0.050243523 0
-1.6444173 2.386755 -0.050040755 0
-1.6526561 2.3669508 -0.049738783 0
-1.6751441 2.361557 -0.050169218 0
-1.6905998 2.3489439 -0.050248783 0
-1.7009336 2.331425 -0.050084043 0
-1.7055978 2.3088524 -0.049657125 0
-1.7282463 2.3027844 -0.050110564 0
-1.7358339 2.283139 -0.049848903 0
-1.7519894 2.2710238 -0.050003372 0
-1.7711458 2.2612526 -0.050302554 0
-1.7747598 2.2386389 -0.049890805 0
-1.2260913 1.7950009 0.51597732 0
-1.7842187 2.2209966 -0.049761795 0
-1.2342458 1.7876414 0.51703417 0
-1.7959368 2.2051992 -0.049745761 0
-1.2388119 1.7774682 0.51546746 0
-1.8147206 2.1946969 -0.05005379 0
-1.228874 1.756528 0.50326961 0
-1.8249562 2.1776948 -0.049987305 0
-1.2342654 1.7473936 0.50262493 0
-1.8332787 2.1593893 -0.049847089 0
-1.2347255 1.7347924 0.49848425 0
-1.8423851 2.1417415 -0.049752142 0
-1.234871 1.7221856 0.49426764 0
-1.8645877 2.1329734 -0.05023095 0
-1.2430035 1.7151612 0.49590769 0
-1.8771082 2.1174657 -0.050297536 0
-1.2416005 1.701815 0.4908402 0
-1.8764188 2.0934942 -0.04981292 0
-1.2472281 1.6931947 0.49087346 0
-1.8921279 2.0800662 -0.050033215 0
-1.2303134 1.670625 0.47526231 0
-1.8863404 2.0535252 -0.049363371 0
-1.2416186 1.6657977 0.47949526 0
-1.9049194 2.0417671 -0.04971987 0
-1.2465107 1.6570129 0.47933412 0
-1.9286368 2.0326328 -0.050290864 0
-1.2358121 1.6393849 0.46861812 0
-1.934624 2.0132647 -0.050139878 0
-1.2454808 1.6334983 0.47191849 0
-1.9407643 1.9940953 -0.05000601 0
-1.9424832 1.9727356 -0.049704935 0
-1.9568549 1.957972 -0.04992215 0
-1.9591161 1.9371352 -0.049664512 0
-1.9789971 1.9248061 -0.050114293 0
-1.9777807 1.9024972 -0.049739681 0
-1.9873662 1.8852397 -0.049799655 0
-1.9986501 1.8686566 -0.049933672 0
-2.0095551 1.8518121 -0.050060447 0
-1.9929636 1.8239574 -0.049138647 0
-1.9960302 1.8043107 -0.048986066 0
-1.9957798 1.7835549 -0.048717443 0
-1.9989865 1.7642198 -0.04859085 0
-1.9989185 1.7438635 -0.048350528 0
-2.0009449 1.7243643 -0.048199467 0
-2.003402 1.7051077 -0.048074309 0
-2.0005019 1.6843437 -0.047759093 0
-1.9999826 1.6644847 -0.047543105 0
-1.9946913 1.6434884 -0.047160611 0
-2.0060656 1.6270555 -0.047403477 0
-1.9981166 1.6057299 -0.046943121 0
-2.0086114 1.5889881 -0.047169708 0
-1.9970131 1.5672767 -0.046596207 0
-1.9919178 1.5473033 -0.046271123 0
-2.002708 1.5305971 -0.046533357 0
-1.9978985 1.5109211 -0.046236962 0
-1.9973154 1.4921521 -0.04610309 0
-1.9991938 1.4738505 -0.046066899 0
-2.0101576 1.4568383 -0.046366587 0
-2.0011771 1.4370853 -0.0459558 0
-1.9895934 1.4173247 -0.045460999 0
-2.0054357 1.4006841 -0.045959897 0
-2.0073264 1.3824545 -0.045965727 0
-1.9989645 1.3634417 -0.045612697 0
-2.0085995 1.3458101 -0.045912296 0
-2.0034001 1.3272161 -0.045689367 0
-2.0040505 1.3089979 -0.045683905 0
-2.0038791 1.2907598 -0.045657299 0
-2.0038342 1.2725391 -0.045643408 0
-1.9938881 1.2543254 -0.045284227 0
-1.1348643 0.26436791 -0.049958441 0
-0.38779044 0.2643699 0.41644555 0
-0.38899493 0.26436988 0.49321103 0
-1.1348783 0.24463062 -0.049963377 0
-0.39320439 0.2539719 0.4191871 0
-1.133436 0.2249234 -0.049925186 0
-0.4101454 0.24314387 0.35501376 0
-0.41227901 0.24309012 0.42883226 0
-1.1194026 0.20571589 -0.049446002 0
-0.5104304 0.22873217 0.10741298 0
-0.50715488 0.22885597 0.17559418 0
-1.2503049 0.20076841 0.43565479 0
-1.249225 0.20080923 0.56591374 0
-1.2287225 0.20158413 0.69431442 0
-1.1218278 0.18601398 -0.049563494 0
-0.51439893 0.21663538 0.10789635 0
-0.51156396 0.21677828 0.17648457 0
-1.2359426 0.1802613 0.43222451 0
-1.2371585 0.1802 0.5622052 0
-1.2429117 0.17990997 0.70057911 0
-1.1351206 0.1655408 -0.050078705 0
-0.51159322 0.20485027 0.10766704 0
-0.50278258 0.20540573 0.17501953 0
-1.2429174 0.15874489 0.43431211 0
-1.2336655 0.15932816 0.56143814 0
-1.1254352 0.1464394 -0.049780935 0
-0.49124491 0.19444507 0.1055628 0
-0.51234281 0.19284804 0.17689633 0
-1.2400496 0.13776354 0.4339526 0
-1.2358226 0.13808352 0.56264323 0
-1.1204379 0.1271314 -0.049659476 0
-0.51347262 0.18077041 0.10806379 0
-0.50739914 0.18130714 0.17617789 0
-1.2395191 0.11660791 0.43425903 0
-1.2422581 0.11636587 0.56536788 0
-1.1252574 0.10691414 -0.04989884 0
-0.51748627 0.1683459 0.10861915 0
-0.5193513 0.16815738 0.17854752 0
-1.246498 0.0946595 0.43655968 0
-1.2333802 0.095985405 0.56306678 0
-1.1214417 0.087506615 -0.049837414 0
-0.50989014 0.15710987 0.039863277 0
-0.52377576 0.15552948 0.10943836 0
-0.5100404 0.15709276 0.17709106 0
-1.2359233 0.074476995 0.4344272 0
-1.2501963 0.072852515 0.56945169 0
-1.1375848 0.065613084 -0.050502915 0
-0.51409054 0.14453986 0.040065724 0
-0.52159923 0.14358935 0.10935925 0
-0.51315725 0.144658 0.17791681 0
-1.247057 0.051755238 0.43793935 0
-1.2407206 0.052557338 0.56712741 0
-1.116329 0.048455913 -0.049831413 0
-0.51700181 0.13200347 0.04022776 0
-0.50657809 0.13345656 0.10790256 0
-0.50861764 0.13317224 0.1773783 0
-1.2510687 0.029672895 0.4396967 0
-1.2402211 0.031185079 0.56790006 0
-1.1344074 0.025785584 -0.050586883 0
-0.51121104 0.12067453 0.040081546 0
-0.51720989 0.11976115 0.10924561 0
-0.50923985 0.12097467 0.17780678 0
-1.2413181 0.009507169 0.4379774 0
-1.2408937 0.0095717805 0.56915915 0
-1.1160384 0.0085919993 -0.050035398 0
-0.52421933 0.10634314 0.040620428 0
-0.50683326 0.10921481 0.10832186 0
-0.50538921 0.10945331 0.1774466 0
-1.2305301 -0.010318677 0.43605191 0
-1.2384429 -0.011625628 0.56945926 0
-1.1082788 -0.01009954 -0.049875252 0
-0.50656646 0.097085483 0.040055182 0
-0.51436257 0.09569674 0.10936516 0
-0.5079186 0.096844621 0.1782809 0
-1.2325535 -0.032237004 0.43750671 0
-1.2496498 -0.035282414 0.57446551 0
-1.109965 -0.030484866 -0.050066594 0
-0.5072071 0.084734909 0.040157735 0
-0.5069648 0.084781222 0.10879632 0
-0.50597095 0.084971197 0.17832428 0
-1.2347522 -0.054338466 0.43908221 0
-1.2452697 -0.056348931 0.57430506 0
-1.1137818 -0.0514463 -0.05034541 0
-0.5168373 0.070472531 0.040593777 0
-0.51489514 0.070869185 0.10992239 0
-0.51092112 0.071680836 0.17966497 0
-1.2511891 -0.0795101 0.44444177 0
-1.2252977 -0.074222095 0.56893975 0
-1.0902898 -0.066675551 -0.049636889 0
-0.50855297 0.059787888 0.040383052 0
-0.51256955 0.05891471 0.10994284 0
-0.50439548 0.060691673 0.17892218 0
-1.2429668 -0.099865921 0.44346035 0
-1.2370943 -0.098589309 0.57445234 0
-1.0902582 -0.08680544 -0.049792878 0
-0.5097242 0.047073219 0.040523078 0
-0.49248731 0.051048253 0.10802155 0
-0.51695108 0.045406599 0.1817344 0
-1.2429496 -0.12201805 0.44469142 0
-1.2489972 -0.12341268 0.58012182 0
-1.0948442 -0.10817806 -0.05012833 0
-0.51245695 0.033874024 0.040726792 0
-0.50867897 0.034795526 0.1101179 0
-0.51237005 0.033895213 0.18140978 0
-1.2480835 -0.14555518 0.44735214 0
-1.238888 -0.14331226 0.57837766 0
-1.0876358 -0.12676354 -0.050039981 0
-0.55530357 0.010203351 0.042416044 0
-0.55423969 0.010477086 0.1155028 0
-0.56964827 0.006512512 0.19263065 0
-1.2436578 -0.16690738 0.44758108 0
-1.2418978 -0.16645454 0.58122057 0
-1.08499 -0.14652316 -0.050128739 0
-0.62314427 -0.021471333 0.045046523 0
-0.62145329 -0.02101345 0.12335096 0
-1.2386616 -0.18813209 0.31825244 0
-1.2344248 -0.18698494 0.44661111 0
-1.2344335 -0.1869873 0.58056331 0
-1.0701218 -0.16287594 -0.049773373 0
-0.68949556 -0.054653626 0.047645926 0
-0.69208384 -0.055389564 0.13165325 0
-1.2388831 -0.21085934 0.31938711 0
-1.2331182 -0.20922022 0.44780698 0
-1.2481604 -0.21349712 0.58732259 0
-1.0619693 -0.18097164 -0.049674515 0
-0.78500366 -0.098439701 0.051356811 0
-0.77688384 -0.09602014 0.14162414 0
-1.2434531 -0.23505132 0.32139811 0
-1.2383595 -0.23353346 0.45082495 0
-1.2422607 -0.23469596 0.58740956 0
-1.0659672 -0.20278542 -0.050038144 0
-0.87830174 -0.14428107 0.055020224 0
-0.87831163 -0.14428414 0.15356354 0
-1.2421952 -0.25772414 0.32237351 0
-1.2450807 -0.25862369 0.45433196 0
-1.2417659 -0.25759026 0.58947319 0
-1.0522035 -0.21908872 -0.049746677 0
-0.98536646 -0.19732533 0.059237197 0
-0.99424481 -0.20021631 0.16725998 0
-1.2443168 -0.28164437 0.32404792 0
-1.2396735 -0.28013238 0.45468369 0
-1.2579044 -0.28606877 0.59746581 0
-1.0504495 -0.23925672 -0.049914498 0
-1.1227831 -0.26382145 0.064641751 0
-1.120816 -0.2631534 0.18230225 0
-1.2459047 -0.30563393 0.32568511 0
-1.2427831 -0.3045738 0.45740455 0
-1.0534741 -0.26124379 -0.050273623 0
-1.2932582 -0.34605739 0.20273082 0
-1.2409663 -0.32756129 0.32613882 0
-1.2420057 -0.32792893 0.45916876 0
-1.0419067 -0.27813521 -0.050089832 0
-1.2532263 -0.35588792 0.19904245 0
-1.2364683 -0.34972206 0.32673222 0
-1.234611 -0.34903869 0.45922202 0
-1.037111 -0.29748008 -0.050172087 0
-1.2450342 -0.37696961 0.19901386 0
-1.2387142 -0.37455341 0.32868433 0
-1.2373819 -0.37404409 0.46212459 0
-1.0217034 -0.3126798 -0.049856488 0
-1.2431841 -0.4005644 0.19974899 0
-1.2404256 -0.39946982 0.330603 0
-1.2487046 -0.40275493 0.46747524 0
-1.0220194 -0.33411178 -0.050153635 0
-1.2474728 -0.4268752 0.20123579 0
-1.2308108 -0.42001954 0.33038387 0
-1.2342627 -0.42143992 0.46584514 0
-1.013611 -0.35205612 -0.050124235 0
-1.2471211 -0.45159069 0.20222706 0
-1.2375548 -0.44751301 0.33342132 0
-1.2394717 -0.44833007 0.46972138 0
-1.0085086 -0.3714399 -0.050232477 0
-1.2498726 -0.47793308 0.20362483 0
-1.2373906 -0.47242591 0.33518195 0
-1.240803 -0.47393146 0.47263199 0
-0.99092174 -0.38521394 -0.049860965 0
-1.2474178 -0.50226378 0.20445471 0
-1.2275822 -0.49321195 0.33510292 0
-1.239777 -0.49877694 0.47498852 0
-0.98524928 -0.40432104 -0.049964365 0
-1.2281443 -0.51888108 0.20332739 0
-1.2335411 -0.52142644 0.33821943 0
-1.2490984 -0.52876395 0.48036587 0
-0.98172307 -0.42455819 -0.050163154 0
-1.4978056 -0.6759572 0.082657762 0
-1.2339756 -0.54743785 0.20521915 0
-1.2359637 -0.5484063 0.34071675 0
-1.2363845 -0.54861128 0.4796297 0
-0.96580052 -0.43872294 -0.049878001 0
-1.448554 -0.68145418 0.081168897 0
-1.247912 -0.58057028 0.20814101 0
-1.2306963 -0.57191408 0.341746 0
-1.2407116 -0.57694978 0.48382634 0
-0.96910751 -0.46263859 -0.050371502 0
-1.3960301 -0.68407565 0.079541452 0
-1.2451948 -0.60584009 0.20911616 0
-1.2416253 -0.60398871 0.34613249 0
-0.95543814 -0.47787407 -0.050193187 0
-1.3487575 -0.6882084 0.078116946 0
-1.2397797 -0.62993068 0.20980778 0
-1.2406573 -0.63039994 0.34819779 0
-0.94489789 -0.49469402 -0.050148983 0
-1.3070093 -0.69424284 0.076909833 0
-1.2395056 -0.65704358 0.21117215 0
-1.2377756 -0.65609014 0.34995162 0
-0.93566561 -0.51222414 -0.050166819 0
-1.2592151 -0.69587111 0.075448968 0
-1.2350811 -0.68217266 0.21207543 0
-1.2378358 -0.68373621 0.352395 0
-0.92456257 -0.52867919 -0.050116524 0
-1.2513601 -0.71964979 0.075629652 0
-1.2423638 -0.71439272 0.21448189 0
-1.2280204 -0.70601082 0.35286602 0
-0.91286707 -0.5447402 -0.050049767 0
-1.2532556 -0.74944562 0.076230355 0
-1.2393504 -0.7410832 0.21566613 0
-1.2443045 -0.7440626 0.35889205 0
-0.90738559 -0.56459397 -0.050251815 0
-1.253347 -0.77862817 0.0767757 0
-1.2422429 -0.77175838 0.21764828 0
-1.2395027 -0.7700631 0.36059466 0
-0.88685882 -0.57504839 -0.049829405 0
-1.2500914 -0.80614179 0.077199295 0
-1.2479839 -0.80480093 0.22005823 0
-1.2378007 -0.79832214 0.36304328 0
-0.87834918 -0.59301025 -0.049921729 0
-1.2468301 -0.8340134 0.077640869 0
-1.2417302 -0.83067781 0.221001 0
-1.227635 -0.821459 0.36376464 0
-0.86907828 -0.61054265 -0.049991783 0
-1.2394384 -0.85948879 0.077923551 0
-1.2280042 -0.851803 0.22102623 0
-1.2379777 -0.85850698 0.36901173 0
-0.86008883 -0.62833321 -0.050084196 0
-1.2413095 -0.8916083 0.07862445 0
-1.2269298 -0.88167757 0.22273862 0
-1.2404678 -0.89102703 0.37268534 0
-0.83613312 -0.63559091 -0.049532101 0
-1.2398717 -0.92199177 0.079204433 0
-1.23891 -0.92130953 0.22623588 0
-1.6050276 -1.1810231 0.4565419 0
-0.83219957 -0.65695626 -0.049863312 0
-1.2439179 -0.95688134 0.080048807 0
-1.2405177 -0.95440441 0.22845227 0
-1.5639708 -1.1900306 0.4514778 0
-0.82778668 -0.67825872 -0.050188228 0
-1.2314276 -0.98015159 0.080183424 0
-1.2458297 -0.99092335 0.23124242 0
-0.82151568 -0.69842756 -0.050444689 0
-1.239678 -1.0194705 0.081266008 0
-1.2397089 -1.0194942 0.23257263 0
-0.79382181 -0.70195031 -0.049741458 0
-1.1475308 -0.98065788 0.077818453 0
-1.1678804 -0.99669248 0.22497478 0
-1.1536405 -0.98547202 0.37020108 0
-0.78361917 -0.71898222 -0.049836118 0
-1.1426846 -1.0093124 0.078321442 0
-1.1357633 -1.0037161 0.22274804 0
-1.1399555 -1.0071057 0.37070617 0
-0.76814437 -0.73173112 -0.049697105 0
-1.2338805 -1.1181109 0.083301529 0
-1.2391129 -1.1224517 0.23942648 0
-1.3439661 -1.2094392 0.42229319 0
-0.76043212 -0.75096196 -0.049927998 0
-1.2384663 -1.157814 0.084338777 0
-1.2510921 -1.1685598 0.2436 0
-1.3171917 -1.2248168 0.42038044 0
-1.0305414 -0.9808504 0.49617186 0
-0.74997604 -0.76801759 -0.050042819 0
-1.2799871 -1.2307401 0.4159956 0
-0.98551583 -0.97365397 0.48627192 0
-0.73684728 -0.78279287 -0.050041094 0
-1.1951607 -1.1932033 0.084005021 0
-1.1979277 -1.195681 0.24121267 0
-1.1937308 -1.1919228 0.39970413 0
-0.97391725 -0.99508423 0.48767677 0
-0.72326767 -0.79715675 -0.050026465 0
-0.92382634 -0.98135549 0.47585687 0
-0.70693696 -0.80891925 -0.049885545 0
-0.8928901 -0.98407108 0.47054923 0
-0.68845975 -0.81847471 -0.049643677 0
-0.86445141 -0.9884761 0.46607468 0
-0.6813401 -0.83904511 -0.049975518 0
-0.83280349 -0.98908538 0.46041125 0
-0.66787648 -0.85350901 -0.050001882 0
-0.81968105 -1.0077225 0.4614152 0
-0.65505016 -0.86866826 -0.050070781 0
-0.64213061 -0.88380367 -0.050145652 0
-0.63668382 -0.90721005 -0.050627347 0
-0.61211824 -0.90964597 -0.050104827 0
-0.59259641 -0.91733855 -0.049851123 0
-0.57676375 -0.9291212 -0.049802896 0
-0.55927318 -0.93884403 -0.049669143 0
-0.54653931 -0.95434207 -0.049811352 0
-0.54032707 -0.97833842 -0.050344784 0
-0.51299655 -0.97527331 -0.049661558 0
-0.49960923 -0.99017102 -0.049799014 0
-0.48694229 -1.0062348 -0.049994078 0
-0.4635554 -1.0073296 -0.049540654 0
-0.45296776 -1.0265234 -0.049887508 0
-0.43348783 -1.0328436 -0.049684595 0
-0.41872007 -1.0461613 -0.049791712 0
-0.37697715 -0.98189741 0.50041866 0
-0.40272707 -1.057687 -0.049830195 0
-0.34801269 -0.97108561 0.49219152 0
-0.38408118 -1.0649521 -0.049698327 0
-0.3294999 -0.97610313 0.49035147 0
-0.37235093 -1.0836239 -0.050051551 0
-0.3094331 -0.97825223 0.48750433 0
-0.3559078 -1.0946747 -0.050093781 0
-0.29218864 -0.98484248 0.48648366 0
-0.33779359 -1.1028268 -0.050025441 0
-0.27421308 -0.98998362 0.4850001 0
-0.31696898 -1.1059297 -0.049761418 0
-0.25451338 -0.99174458 0.48233104 0
-0.30307651 -1.1217036 -0.050021924 0
-0.22364052 -0.97202796 0.47168407 0
-0.28441852 -1.1286269 -0.04993242 0
-0.20622082 -0.97669512 0.47037557 0
-0.27277648 -1.1494799 -0.050408628 0
-0.18641396 -0.97636122 0.46729773 0
-0.24751754 -1.1429332 -0.049801353 0
-0.16771503 -0.97779125 0.46498278 0
-0.23309346 -1.1585445 -0.050083566 0
-0.14932413 -0.97947258 0.46286049 0
-0.21941282 -1.1762892 -0.050454911 0
-0.13066275 -0.98017329 0.46047696 0
-0.19542463 -1.1711327 -0.049938537 0
-0.11568744 -0.98885697 0.46109098 0
-0.17855908 -1.1819053 -0.050054017 0
-0.10143252 -0.99937195 0.46243146 0
-0.16047819 -1.1899214 -0.050070837 0
-0.069361821 -0.96647233 0.34513235 0
-0.084537759 -1.0036891 0.4616029 0
-0.14124669 -1.195052 -0.04998564 0
-0.055489585 -0.9769302 0.34629357 0
-0.069325343 -1.0121212 0.46232575 0
-0.12451716 -1.2066287 -0.050156198 0
-0.032428488 -0.96345466 0.14709848 0
-0.030091895 -0.95728451 0.24159333 0
-0.01497261 -0.91735977 0.32839239 0
-0.049420431 -1.0083244 0.45876297 0
-0.10435541 -1.2091463 -0.049989771 0
-0.0091767441 -0.94792813 0.14466403 0
-0.0051857368 -0.9369747 0.23659539 0
0.0036769377 -0.912651 0.32560915 0
-0.081641927 -1.2040309 -0.049544975 0
0.0076804026 -0.94894499 0.14415745 0
0.012299376 -0.93575412 0.23532717 0
0.020410584 -0.91259021 0.32415822 0
-0.0010010733 -0.97373742 0.44243529 0
-0.066262528 -1.219762 -0.04989801 0
0.024283575 -0.95035309 0.14372149 0
0.024552153 -0.94955391 0.23696411 0
0.026455985 -0.94388932 0.33121094 0
0.013079332 -0.98368984 0.44404694 0
-0.049879059 -1.2331985 -0.050170828 0
0.037824467 -0.96094245 0.14434759 0
0.038964704 -0.95740288 0.23749617 0
0.023611533 -1.0050633 0.34626338 0
0.021051483 -1.0130104 0.45248386 0
-0.029796107 -1.2352991 -0.050026808 0
0.021944867 -1.0674688 0.36157665 0
-0.0093142521 -1.235697 -0.049829382 0
0.068649635 -0.97101575 0.33457607 0
0.0089664627 -1.2434269 -0.049914129 0
0.08456327 -0.97432584 0.33426499 0
0.026813434 -1.2530224 -0.05007606 0
0.10061546 -0.97700876 0.33384237 0
0.048202589 -1.2491457 -0.04974952 0
0.11707033 -0.97794694 0.33301508 0
0.064421788 -1.2657877 -0.050187316 0
0.084318087 -1.2676593 -0.050090581 0
0.10306324 -1.2745969 -0.050188228 0
0.12375678 -1.2722045 -0.049954481 0
0.14267062 -1.2784082 -0.050043028 0
-0.064529046 -2.3811839 0.10210245 0
0.16333194 -1.2750005 -0.049791668 0
0.0024424063 -2.194983 0.095134713 0
0.17987217 -1.2959522 -0.050431244 0
0.03414844 -2.1958456 0.094977103 0
0.20137209 -1.2867078 -0.049987186 0
0.0647607 -2.2033267 0.095073111 0
0.22165047 -1.2841347 -0.049794033 0
0.097079113 -2.1988192 0.094750896 0
0.24056999 -1.2914877 -0.049967427 0
0.12907048 -2.1951468 0.094473876 0
0.26048195 -1.2910101 -0.049867883 0
0.15917121 -2.2068329 0.094763383 0
0.27929857 -1.3010329 -0.050154127 0
0.19094598 -2.2035656 0.094529733 0
0.2993235 -1.2992886 -0.050026938 0
0.2220362 -2.2064502 0.094531104 0
0.31900707 -1.3010541 -0.05003453 0
0.25337034 -2.2060533 0.094429031 0
0.33852905 -1.3056597 -0.050152559 0
0.2845307 -2.2074373 0.094404854 0
0.35851055 -1.3023709 -0.049997155 0
0.31671274 -2.1869419 0.093612716 0
0.37814832 -1.30593 -0.050095435 0
0.34713155 -2.2013524 0.094082333 0
0.3981165 -1.2977841 -0.04978453 0
0.37845573 -2.1899376 0.093643293 0
0.41774613 -1.3026005 -0.049945436 0
0.43746594 -1.2990296 -0.049815733 0
0.45724466 -1.3048146 -0.050028928 0
0.47686496 -1.2995907 -0.049857907 0
0.49673748 -1.3033988 -0.050018348 0
0.51652616 -1.3034674 -0.05005414 0
0.53624892 -1.3021114 -0.050047901 0
0.5560106 -1.3012644 -0.050068781 0
0.57460135 -1.2874304 -0.049633007 0
0.59578806 -1.3014303 -0.050204154 0
0.61426413 -1.2887695 -0.049827404 0
0.6335935 -1.2847235 -0.049768552 0
0.70510733 -1.8357368 0.081605427 0
0.65248924 -1.277909 -0.049618527 0
0.727633 -1.804822 0.080620326 0
0.6716609 -1.2735375 -0.049565058 0
0.75132453 -1.7859006 0.080076866 0
0.69292521 -1.2818006 -0.04997763 0
0.80800813 -1.9651718 0.086718403 0
0.71309465 -1.2823796 -0.050122049 0
0.83419144 -1.9500151 0.086346403 0
0.73170537 -1.2743907 -0.049964428 0
0.83066249 -1.7833829 0.080476344 0
0.7509594 -1.2700341 -0.049947366 0
0.86467302 -1.8180037 0.081927381 0
0.76887476 -1.2596525 -0.049718842 0
0.89125007 -1.8141723 0.081992269 0
0.78999704 -1.2636738 -0.050025981 0
0.91474015 -1.7969253 0.081577711 0
0.80837232 -1.2556694 -0.049901586 0
0.98045206 -1.9516447 0.087497026 0
0.82698101 -1.2488958 -0.049830712 0
1.0002676 -1.9137118 0.086358532 0
0.8494398 -1.2563436 -0.050294716 0
0.86643529 -1.243609 -0.050021112 0
0.88346988 -1.2316617 -0.049783792 0
0.90298814 -1.2281406 -0.049868964 0
0.92704028 -1.2381938 -0.050473891 0
0.94222862 -1.2210892 -0.050067797 0
0.96043986 -1.2132883 -0.050019819 0
0.98017359 -1.2096739 -0.05013977 0
1.0003976 -1.2070858 -0.050309073 0
0.92489457 -1.0114383 0.46096495 0
1.0155464 -1.1914948 -0.049988937 0
0.93915039 -1.00072 0.4593817 0
1.038736 -1.1958531 -0.050445627 0
0.95901251 -1.0038117 0.46282932 0
1.0538822 -1.1806817 -0.05015716 0
0.97625893 -1.0001526 0.46394125 0
1.0724932 -1.1737891 -0.050198011 0
0.98903006 -0.98622257 0.46139812 0
1.0847497 -1.1530108 -0.049702577 0
1.0060394 -0.98195702 0.46243834 0
1.1040438 -1.1478395 -0.049827226 0
1.0281343 -0.98819679 0.46743357 0
1.1201487 -1.1359663 -0.049695726 0
1.0423658 -0.97755855 0.4663069 0
1.1411049 -1.1338651 -0.049962588 0
1.0618142 -0.97739738 0.46914738 0
1.1566162 -1.1209334 -0.049805515 0
1.0808713 -0.97601753 0.47164077 0
1.1749978 -1.1135557 -0.049880501 0
1.1063012 -0.98606128 0.4785586 0
1.192229 -1.1039906 -0.049876112 0
1.1339496 -0.99901658 0.057589576 0
1.1327348 -0.99682826 0.16102779 0
1.1245933 -0.98216361 0.26313359 0
1.1302775 -0.99240226 0.37274426 0
1.1311848 -0.9940365 0.48485932 0
1.2149395 -1.1040082 -0.050274674 0
1.1421236 -0.97665638 0.057037327 0
1.1463653 -0.98407489 0.16055277 0
1.1468621 -0.98494381 0.26554194 0
1.1432393 -0.97860748 0.37130132 0
1.1518599 -0.99368459 0.48813394 0
1.227141 -1.0856116 -0.049925167 0
1.1665664 -0.98269826 0.057661824 0
1.1649853 -0.98001212 0.16117929 0
1.1646404 -0.97942609 0.26629019 0
1.1647265 -0.97957236 0.37426531 0
1.1658611 -0.98149997 0.48696503 0
1.2390232 -1.0671573 -0.049576964 0
1.259518 -1.0629855 -0.049833063 0
1.2743338 -1.0496085 -0.049711835 0
1.2930726 -1.0423383 -0.049858589 0
1.3114666 -1.0343684 -0.049986575 0
1.3271209 -1.0222944 -0.049947247 0
1.3433307 -1.0110408 -0.049952172 0
1.3563489 -0.99542338 -0.049772944 0
1.3757653 -0.98850983 -0.049988259 0
1.3889352 -0.97325939 -0.049840502 0
1.404714 -0.96146125 -0.049856089 0
1.2079449 -0.71335065 0.050550729 0
1.2106445 -0.71675467 0.14057511 0
1.4233618 -0.95316619 -0.050042182 0
1.1990377 -0.67751229 0.049354084 0
1.2081261 -0.68868029 0.13805343 0
1.444748 -0.94794136 -0.050383899 0
1.204007 -0.65960717 0.048973668 0
1.2040275 -0.65963173 0.13536431 0
1.447963 -0.92112631 -0.049727019 0
1.1998444 -0.6314491 0.04811009 0
1.208532 -0.64159179 0.13419652 0
1.4752465 -0.92240256 -0.050399743 0
1.2110083 -0.62165457 0.048107132 0
1.2066987 -0.61674941 0.13205068 0
1.4848709 -0.90336949 -0.05012051 0
1.1971542 -0.58409774 0.04677663 0
1.1999564 -0.58720726 0.12919712 0
1.4999092 -0.89047939 -0.050142515 0
1.5072169 -0.86940676 -0.049771532 0
1.5283332 -0.86291021 -0.050126269 0
1.5396423 -0.84621698 -0.04998479 0
1.5522847 -0.83096296 -0.049922187 0
1.5618687 -0.81284839 -0.049718969 0
1.5810285 -0.80383176 -0.04999619 0
1.5951576 -0.78998476 -0.050033309 0
1.6034954 -0.77097791 -0.049802385 0
1.620845 -0.7599501 -0.050010066 0
1.6376395 -0.74826056 -0.050196186 0
1.6441236 -0.72795272 -0.049911425 0
1.6574918 -0.71339279 -0.049955718 0
1.6747407 -0.70180774 -0.050183438 0
1.6798888 -0.68084747 -0.049873523 0
1.6901271 -0.66391224 -0.049804106 0
1.7082065 -0.65267032 -0.050089505 0
1.7085234 -0.62874591 -0.049604539 0
1.7316295 -0.62075919 -0.050121296 0
1.7403492 -0.60279208 -0.05002182 0
1.744681 -0.58207428 -0.049746383 0
1.7564062 -0.56622076 -0.049795754 0
1.7679172 -0.55019212 -0.049844172 0
1.7790408 -0.53389043 -0.049884558 0
1.7913587 -0.51824015 -0.04998235 0
1.789726 -0.49470469 -0.049516879 0
1.8185426 -0.48806968 -0.050303604 0
1.8213302 -0.46709475 -0.050038233 0
1.8259262 -0.44724998 -0.04985768 0
1.8516096 -0.4379808 -0.050528243 0
1.8377919 -0.40924844 -0.049635518 0
1.8599416 -0.39789447 -0.050177831 0
1.8675658 -0.37959936 -0.050154291 0
1.8764225 -0.36185357 -0.050187845 0
1.878168 -0.34110025 -0.049954638 0
1.8858886 -0.32293561 -0.049962785 0
1.8912731 -0.30385146 -0.049890175 0
1.9025702 -0.28703645 -0.050052539 0
1.9126008 -0.26963934 -0.050174147 0
1.9050281 -0.24604629 -0.049638383 0
1.9231803 -0.23140405 -0.050083935 0
1.9172823 -0.20876475 -0.049633458 0
1.9423608 -0.1958975 -0.050351512 0
1.942384 -0.17520492 -0.050141335 0
1.9456109 -0.15555204 -0.050060257 0
1.9467043 -0.13539179 -0.04990983 0
1.9437761 -0.11432991 -0.049621213 0
1.950931 -0.09586627 -0.049713176 0
1.9689925 -0.079775937 -0.050212432 0
1.9683957 -0.059389304 -0.050037 0
1.9651585 -0.038603615 -0.049775269 0
1.9749458 -0.020407271 -0.049996506 0
1.9809037 -0.0013921367 -0.050086863 0
1.9756731 0.019466434 -0.049781259 0
1.9790682 0.038852472 -0.049796909 0
1.9720535 0.059637163 -0.049446419 0
1.9914589 0.077000476 -0.050055899 0
2.0028713 0.095658012 -0.050385408 0
1.9990875 0.11599157 -0.050177999 0
1.9828585 0.13720231 -0.049534183 0
2.0028267 0.15545021 -0.050195884 0
2.0020666 0.17534448 -0.050124109 0
1.9928935 0.19556221 -0.049760684 0
2.0094628 0.21471602 -0.050325997 0
2.0056193 0.23465733 -0.050170891 0
2.0109227 0.25443482 -0.050351329 0
1.9963994 0.27421787 -0.049832817 0
2.0032957 0.29404292 -0.050087925 0
1.9981166 0.31367084 -0.049920723 0
2.0059187 0.33375633 -0.050226159 0
1.9804212 0.35217187 -0.049350098 0
2.0023849 0.37326327 -0.050180066 0
1.9907174 0.39218646 -0.049815696 0
1.994706 0.41233757 -0.05002087 0
2.0000441 0.43278238 -0.050283894 0
1.9970446 0.45241505 -0.050256748 0
1.9723431 0.46914548 -0.04945685 0
1.9812 0.49020255 -0.049873821 0
1.9964586 0.51257652 -0.05053262 0
1.972684 0.52872545 -0.04978912 0
1.9751481 0.54918873 -0.050003849 0
1.9699166 0.56828839 -0.049948424 0
1.968609 0.5881784 -0.050044782 0
1.9612509 0.60678601 -0.049929198 0
1.9640939 0.62773335 -0.05019616 0
1.9449834 0.64337659 -0.049665648 0
1.9483728 0.66457647 -0.049971439 0
1.9456099 0.68429595 -0.050060228 0
1.9304873 0.70048541 -0.049698971 0
1.9240415 0.71905702 -0.049667776 0
1.9197353 0.73829055 -0.049725369 0
1.9150314 0.75743794 -0.049777336 0
1.90396 0.77442014 -0.049598023 0
1.9181179 0.80037409 -0.050383545 0
1.8986995 0.81432861 -0.049904943 0
1.8896776 0.83197409 -0.049829043 0
1.8930968 0.85459262 -0.050240345 0
1.8839743 0.87227625 -0.050179377 0
1.881542 0.89281803 -0.050387062 0
1.8617347 0.90572685 -0.049926121 0
1.8533338 0.92357278 -0.049917769 0
1.838704 0.93842983 -0.049671628 0
1.8356718 0.95883673 -0.049893364 0
1.824275 0.97515082 -0.049791485 0
1.8190439 0.99463469 -0.04994598 0
1.8012829 1.0074438 -0.049602464 0
1.8015258 1.0300485 -0.049999561 0
1.7860699 1.0439382 -0.049764451 0
1.7866887 1.0671686 -0.050201975 0
1.765358 1.0773752 -0.049737148 0
1.7633816 1.0993413 -0.050089739 0
1.7494432 1.1138904 -0.049948703 0
1.7373303 1.1295346 -0.049892504 0
1.7361246 1.1525661 -0.050315488 0
1.7124314 1.1602255 -0.04977484 0
1.7025754 1.1773664 -0.049841911 0
1.7084701 1.2061962 -0.050618056 0
1.6825265 1.2115903 -0.049991671 0
1.6680411 1.225341 -0.049880419 0
1.6605948 1.2446138 -0.050097466 0
1.6512929 1.2625688 -0.050242271 0
1.6292664 1.2699689 -0.049805731 0
1.6163131 1.2847878 -0.049796458 0
1.6078755 1.3035949 -0.050011121 0
1.5917033 1.3155962 -0.049866822 0
1.5748775 1.3268549 -0.049696293 0
1.5645376 1.3441384 -0.049850654 0
1.5550313 1.3623937 -0.050059356 0
1.5409049 1.3762276 -0.050048634 0
1.5181776 1.381207 -0.049606107 0
1.5151122 1.4064803 -0.050181266 0
1.0201828 0.88433123 0.29018992 0
1.5094581 1.4295552 -0.050644781 0
1.0449705 0.92699671 0.30618891 0
1.4809904 1.4278075 -0.049913563 0
1.444607 1.3874338 0.059973247 0
1.4445788 1.3874025 0.16846767 0
1.4408194 1.3832307 0.27763095 0
1.0495285 0.94902539 0.31262457 0
1.4705752 1.44583 -0.050147071 0
1.4144984 1.3820051 0.05911389 0
1.4157733 1.3834561 0.1660929 0
1.4130056 1.3803059 0.2739023 0
1.0511672 0.96847236 0.31782055 0
1.4502332 1.452521 -0.049851608 0
1.3839214 1.3751023 0.05821237 0
1.3930345 1.3857416 0.16467705 0
1.3828909 1.3738992 0.26947042 0
1.062987 1.0004129 0.32842454 0
1.4404712 1.4715631 -0.05014566 0
1.369664 1.3867577 0.058201417 0
1.3660816 1.3824673 0.16253789 0
1.3664907 1.3829572 0.26880786 0
1.0535864 1.0081933 0.32838145 0
1.4150968 1.4717542 -0.049574703 0
1.3457559 1.3865469 0.057652686 0
1.3299048 1.3670686 0.15878789 0
1.342645 1.3827242 0.26603994 0
1.054315 1.0284184 0.33372793 0
1.4094858 1.4962223 -0.050130252 0
1.3135387 1.3752404 0.056617618 0
1.3212999 1.3850268 0.1597133 0
1.3181212 1.3810186 0.26303005 0
1.059918 1.0554444 0.34190512 0
1.3886286 1.5016068 -0.049822599 0
1.3001821 1.3871515 0.05665851 0
1.2933947 1.3783683 0.15730113 0
1.2927568 1.3775427 0.25971654 0
1.0489519 1.0620441 0.34138501 0
1.3821756 1.5257688 -0.05036876 0
1.2783339 1.387836 0.056204878 0
1.2675956 1.3735723 0.15520978 0
1.2708434 1.3778864 0.25736901 0
1.0343592 1.0637646 0.33889571 0
1.3524631 1.5188686 -0.049538352 0
1.2511135 1.380658 0.055419575 0
1.2449548 1.3722595 0.15364531 0
1.2524617 1.3824965 0.25605917 0
1.0296147 1.0785999 0.34191608 0
1.3451941 1.5423942 -0.050066639 0
1.2447175 1.4016929 0.055894095 0
1.2428517 1.3990803 0.15584795 0
1.2429011 1.3991493 0.2574814 0
1.0228258 1.0909693 0.34392583 0
1.3240169 1.5465742 -0.049753126 0
1.246853 1.4355898 0.056927267 0
1.2498971 1.4399682 0.15987618 0
1.2434283 1.4306642 0.26218235 0
1.0093954 1.094056 0.34219152 0
1.3060596 1.5551231 -0.049642153 0
1.2396865 1.4570469 0.057414252 0
1.245258 1.4652797 0.16183735 0
1.2454083 1.4655017 0.26756552 0
1.004331 1.1092743 0.3454136 0
1.2898902 1.56625 -0.04965201 0
1.2446361 1.4975319 0.05871449 0
1.245579 1.4989638 0.1648673 0
1.2286754 1.4732957 0.26705897 0
1.1687263 1.3822634 0.34750044 0
0.99459404 1.1178443 0.34598625 0
1.2797176 1.5867562 -0.05006814 0
1.2506993 1.5414606 0.060147639 0
1.2391117 1.5233734 0.16668864 0
1.2196922 1.4930607 0.26916581 0
1.153702 1.3900545 0.34707937 0
0.98478961 1.1263933 0.3465946 0
