# .PCD v0.7 - Point Cloud Data file format
VERSION 0.7
FIELDS x y z intensity
SIZE 4 4 4 4
TYPE F F F F
COUNT 1 1 1 1
WIDTH 1363
HEIGHT 1
VIEWPOINT 0 0 0 1 0 0 0
POINTS 1363
DATA ascii
0.97963017 0.027445549 0.5077551 0
0.27177694 0.59245992 0.35897064 0
0.24736358 0.61194688 0.43233666 0
0.063385628 0.75879961 0.47706288 0
0.68838674 0.28534514 -0.050346065 0
0.85624915 0.15478206 0.069938317 0
0.84744507 0.16162992 0.19727074 0
0.8405382 0.16700196 0.32540131 0
0.26252607 0.61657888 0.43608075 0
0.063908301 0.77106351 0.47280487 0
0.69196779 0.30756491 -0.049964387 0
0.85551649 0.18363023 0.06929037 0
0.84757143 0.18965089 0.19544762 0
0.84059483 0.19493771 0.32234126 0
0.25416049 0.63932842 0.42759728 0
0.065358125 0.78239989 0.46939272 0
0.70150393 0.32505822 -0.049862962 0
0.85280234 0.21337759 0.068576679 0
0.84333736 0.22036409 0.19310628 0
0.83006436 0.23016155 0.31701553 0
0.28785142 0.63039529 0.44098333 0
0.079170845 0.78443247 0.47523069 0
0.71296483 0.34108371 -0.049856812 0
0.85427231 0.23950136 0.068069942 0
0.83563918 0.25289619 0.19037893 0
0.8395986 0.25004995 0.31629342 0
0.092435144 0.78716666 0.48063424 0
0.72091371 0.35956585 -0.049706504 0
0.84997505 0.26922989 0.067330718 0
0.84946305 0.26958823 0.19055277 0
0.8375029 0.27795964 0.3130728 0
0.84426862 0.273224 0.44251049 0
0.089769267 0.80133295 0.47448382 0
0.7445572 0.36722994 -0.050245594 0
0.88293439 0.27294689 0.068223566 0
0.84353679 0.29979038 0.18818419 0
0.83982128 0.30232191 0.31092003 0
0.83870012 0.3030858 0.43701193 0
0.10704621 0.80159724 0.48282582 0
0.75929183 0.38126129 -0.050402727 0
0.92818111 0.26927626 0.069637351 0
0.8449952 0.32443416 0.18683678 0
0.83759362 0.32934189 0.30786809 0
0.84160179 0.32668418 0.43426758 0
0.11333927 0.80957144 0.48328507 0
0.75734407 0.40618992 -0.049857378 0
0.94271702 0.2866078 0.069732971 0
0.84120589 0.35209149 0.18486901 0
0.83845395 0.35386676 0.30557686 0
0.84191304 0.35163528 0.43084955 0
0.12208357 0.81598949 0.4855417 0
0.76393193 0.42531282 -0.049689345 0
0.99042135 0.2832132 0.071235001 0
0.83791667 0.37889475 0.1830245 0
0.85068637 0.37088299 0.3057909 0
0.84439832 0.37482816 0.4282082 0
0.13033928 0.82282913 0.48749533 0
0.78242344 0.43703949 -0.050030507 0
1.032946 0.2842235 0.072507128 0
0.84073144 0.40147221 0.18200515 0
0.8338024 0.40569884 0.29989779 0
0.8327027 0.40636969 0.4214367 0
0.13751037 0.83042943 0.48874056 0
0.79431134 0.45296443 -0.050101209 0
1.0765903 0.28561729 0.073816806 0
0.83837289 0.42684281 0.18038273 0
0.84382755 0.42360908 0.29978251 0
0.83903986 0.42644739 0.42018229 0
0.14214499 0.83959681 0.48829409 0
0.78929812 0.47868478 -0.049483377 0
0.84808177 0.44482821 0.18030839 0
0.8439818 0.44718963 0.29766086 0
0.84453052 0.44687355 0.41876242 0
0.14039464 0.85242164 0.48356041 0
0.81183368 0.48850125 -0.050010089 0
0.86047322 0.46129704 0.18059288 0
0.83603424 0.47496575 0.2939415 0
0.83445913 0.47584677 0.41287875 0
0.14466394 0.86165118 0.48306042 0
0.81562132 0.50892198 -0.049776651 0
0.85041159 0.49003482 0.1781552 0
0.83866757 0.49641049 0.29249081 0
0.84855932 0.49104035 0.41415861 0
0.81980342 0.52895248 -0.049571082 0
0.85157794 0.51221699 0.17714155 0
0.84056169 0.5180192 0.29095423 0
0.83608836 0.52037525 0.40782335 0
0.84328693 0.53896606 -0.05015073 0
0.84812099 0.53649724 0.17561027 0
0.84835416 0.53637815 0.29067728 0
0.83514887 0.54312223 0.40493843 0
0.84730023 0.53691638 0.53075826 0
0.84459502 0.56041485 -0.04984846 0
0.85393995 0.55578965 0.17523761 0
0.84649986 0.55947208 0.28850749 0
0.84294969 0.56122917 0.40464133 0
0.83417839 0.56557047 0.52257538 0
0.84997636 0.57967806 -0.049720004 0
0.86450392 0.57271421 0.17546172 0
0.83368891 0.58748567 0.2842178 0
0.84242338 0.58329868 0.40205476 0
0.83443385 0.58712852 0.51951081 0
0.8648265 0.59445173 -0.049974527 0
0.90605956 0.5753209 0.17938153 0
0.82661527 0.61218041 0.28116408 0
0.83122677 0.61004084 0.39656052 0
0.84044224 0.60576522 0.51867384 0
0.87257844 0.61261088 -0.049957156 0
0.92909878 0.58724713 0.18110202 0
0.83923966 0.62757176 0.282083 0
0.83698934 0.62858158 0.39593422 0
0.8452993 0.62485248 0.51750755 0
0.88271052 0.62972778 -0.05004143 0
0.96217448 0.59526342 0.18400645 0
0.84153348 0.64758664 0.28100437 0
0.84275049 0.64705884 0.39537603 0
0.84156829 0.64757156 0.51332068 0
0.88655263 0.64954692 -0.049890161 0
0.99942118 0.60227412 0.1873934 0
0.83973223 0.66915679 0.27918011 0
0.8486616 0.66541684 0.39492682 0
0.84603077 0.66651875 0.51221472 0
0.90493506 0.66337854 -0.050309189 0
1.0399004 0.60883814 0.1911481 0
0.83445424 0.69186038 0.27674183 0
0.84250778 0.68860584 0.39122367 0
0.8402136 0.689533 0.50751144 0
0.91087264 0.68237841 -0.05025604 0
1.0789949 0.6168893 0.19473429 0
0.84363896 0.70856816 0.27717015 0
0.84171897 0.70931607 0.38908774 0
0.83588272 0.71158946 0.50346565 0
0.28478274 0.92626101 0.45822212 0
0.91524535 0.70192856 -0.050152615 0
0.85232133 0.7255314 0.2775403 0
0.8456834 0.72802132 0.38832834 0
0.84615749 0.72784346 0.5047276 0
0.27090463 0.94362122 0.44863427 0
0.91997021 0.72127748 -0.050072391 0
0.84424859 0.74859816 0.27473742 0
0.84468681 0.74844003 0.38629082 0
0.83452338 0.75210702 0.49830759 0
0.26155123 0.95883787 0.44161314 0
0.91571993 0.74368089 -0.049662616 0
0.84830695 0.76704878 0.2743178 0
0.84077626 0.76965916 0.38354492 0
0.84083182 0.76963991 0.49834114 0
0.84326047 0.76879805 0.61977983 0
0.26587054 0.96894288 0.4419646 0
0.92927676 0.75986052 -0.049935166 0
0.84102911 0.78921109 0.27178967 0
0.83515853 0.79116362 0.38042346 0
0.84029192 0.78945625 0.49605101 0
0.84035522 0.78943521 0.61589319 0
0.29112133 0.97210675 0.45341876 0
0.93753988 0.77793211 -0.050015919 0
0.8528356 0.80492455 0.27293691 0
0.84376031 0.80781651 0.38119474 0
0.84171945 0.80846685 0.49454433 0
0.83352405 0.81107849 0.61042917 0
0.30487183 0.9795422 0.4588089 0
0.93943375 0.79800814 -0.049867149 0
0.84381777 0.82715684 0.27019089 0
0.84025568 0.82824272 0.37879011 0
0.83552665 0.82968438 0.49047643 0
0.84186012 0.8277536 0.61166942 0
0.31308994 0.98894972 0.46133357 0
0.94625288 0.81654429 -0.049911484 0
0.86386687 0.84053028 0.27296743 0
0.84635907 0.84562749 0.3790158 0
0.84297889 0.84661162 0.49124426 0
0.83504146 0.84892249 0.60646081 0
0.33798447 0.99363625 0.47260121 0
0.95520967 0.83452278 -0.050043523 0
0.8966369 0.85077858 0.27814677 0
0.83818775 0.8670001 0.37551916 0
0.83131796 0.86890668 0.48548397 0
0.83152646 0.8688488 0.60280454 0
0.32721475 1.0088112 0.46534148 0
0.96235293 0.85307968 -0.050116539 0
0.92312878 0.86343551 0.28216198 0
0.83717114 0.8861298 0.37399322 0
0.83919626 0.88559508 0.48656291 0
0.83694547 0.88618934 0.6030938 0
0.32309607 1.0218542 0.46164674 0
0.95854872 0.87443626 -0.049795013 0
0.96399528 0.87307137 0.28886685 0
0.8365677 0.90500367 0.37264422 0
0.8425954 0.90349311 0.48617437 0
0.8421666 0.90360057 0.60339111 0
0.32261404 1.033796 0.45992431 0
0.97200745 0.89146733 -0.050117746 0
0.98967248 0.88727629 0.29275882 0
0.83421665 0.92415822 0.37090343 0
0.84349793 0.92195624 0.48501047 0
0.84245807 0.92220294 0.6016832 0
0.33659765 1.0422186 0.4657231 0
0.9778294 0.91044539 -0.050168034 0
1.0121887 0.9027493 0.29608873 0
0.84469491 0.94026607 0.37258494 0
0.83646256 0.94211 0.48122293 0
0.84420234 0.9403764 0.60069609 0
0.34112582 1.0530601 0.46671188 0
0.97958452 0.9303202 -0.050078534 0
1.0501057 0.91545421 0.30228433 0
0.85447019 0.9566946 0.37413165 0
0.83659345 0.96046305 0.47996843 0
0.84288138 0.95913756 0.59851152 0
0.35515115 1.0619522 0.47262418 0
0.98726553 0.94896245 -0.050214034 0
1.0761455 0.93139219 0.30631047 0
0.85733312 0.97464818 0.37393072 0
0.84367579 0.97734803 0.48115292 0
0.84316748 0.97744852 0.59711045 0
0.36679932 1.0716195 0.47736654 0
0.99107033 0.96842074 -0.050217021 0
0.85119873 0.99424571 0.37145469 0
0.83574849 0.99709839 0.47732869 0
0.8457002 0.99526095 0.59675574 0
0.38415965 1.0804768 0.48506624 0
0.98490089 0.98959637 -0.049867593 0
0.85199851 1.012408 0.37084293 0
0.83790976 1.0148263 0.47700226 0
0.83258873 1.0157396 0.58992422 0
0.38017419 1.093393 0.48196968 0
0.99299091 1.0082625 -0.050043959 0
0.44222739 1.0956726 0.0421349 0
0.43379924 1.0970101 0.11385747 0
0.43193677 1.0973058 0.18665999 0
0.42777869 1.0979657 0.26049826 0
0.42872629 1.0978153 0.33818695 0
0.44143137 1.0957989 0.42473093 0
0.40290669 1.1019131 0.49249712 0
0.99397177 1.0280943 -0.049972005 0
0.41784444 1.1121072 0.041185983 0
0.40089068 1.1145793 0.11007681 0
0.40936878 1.113343 0.1822008 0
0.41050228 1.1131778 0.25555643 0
0.41189852 1.1129742 0.331893 0
0.40940437 1.1133379 0.41052833 0
0.3987014 1.1148986 0.48943898 0
0.99195462 1.0482767 -0.049801197 0
0.38600579 1.12886 0.039977584 0
0.42457828 1.1237303 0.11246239 0
0.42841604 1.12322 0.18535718 0
0.42720917 1.1233804 0.25941876 0
0.44352254 1.1212109 0.34193522 0
0.43120405 1.1228492 0.41892421 0
0.41948852 1.1244072 0.49908337 0
1.0057522 1.06644 -0.050208461 0
0.38311067 1.1412774 0.039819367 0
0.43498382 1.1350427 0.11341916 0
0.43411514 1.1351471 0.18610676 0
0.41736004 1.1371609 0.25648424 0
0.43169811 1.1354376 0.33743796 0
0.42185822 1.1366203 0.4143692 0
1.006698 1.0862762 -0.050161928 0
0.36247441 1.1554908 0.039029952 0
0.84578592 1.1035644 0.36605975 0
0.83130091 1.1051207 0.47067395 0
0.85037881 1.103071 0.59222835 0
1.00415 1.1064135 -0.049999122 0
0.34684536 1.1686723 0.038427472 0
0.84990424 1.1210234 0.36665723 0
0.84688359 1.1213095 0.47529042 0
0.83667403 1.1222765 0.58578312 0
1.0137633 1.1254412 -0.050281204 0
0.35356864 1.1795958 0.03863224 0
0.84749287 1.13908 0.36563885 0
0.83995062 1.1396987 0.47245422 0
0.83366877 1.140214 0.58388984 0
1.0054708 1.1459135 -0.049930822 0
0.36581358 1.1902829 0.039039366 0
0.84425491 1.1570961 0.36446813 0
0.82927781 1.1581349 0.46845052 0
0.84058434 1.1573508 0.58620948 0
1.0054435 1.1656725 -0.049885467 0
0.84348983 1.1748589 0.36398819 0
0.8489415 1.1745497 0.47463608 0
0.83107609 1.1755631 0.581806 0
1.0109452 1.1851588 -0.050046615 0
0.86012715 1.1918098 0.36800987 0
0.84059924 1.1926709 0.4715606 0
0.84078485 1.1926627 0.58546436 0
1.006331 1.2050806 -0.049855132 0
0.8566826 1.209793 0.36695838 0
0.84228474 1.2102463 0.47190014 0
0.83644396 1.2104303 0.58339047 0
1.0121558 1.2246733 -0.050045412 0
0.85255951 1.227688 0.3657918 0
0.83632702 1.2279946 0.46976995 0
0.83761579 1.2279702 0.58369261 0
1.0008318 1.2445111 -0.04963224 0
0.84592158 1.2454864 0.36404118 0
0.84490651 1.2454928 0.47255081 0
0.83992547 1.2455242 0.58455735 0
1.0116049 1.2641999 -0.050016861 0
0.84697491 1.2631633 0.36430991 0
0.8289718 1.26305 0.46724933 0
0.83831006 1.2631088 0.58388847 0
1.0082076 1.2838954 -0.049904428 0
0.84933406 1.2808943 0.36496872 0
0.83522135 1.2806277 0.46940202 0
0.83382624 1.2806014 0.58212334 0
1.0155989 1.3038543 -0.050186172 0
0.84543198 1.2984959 0.3640866 0
0.83800644 1.2982621 0.47047609 0
0.84194726 1.2983862 0.58567017 0
1.007632 1.3233382 -0.049928214 0
0.85092837 1.3164277 0.3656607 0
0.84296221 1.3160764 0.47234753 0
0.84481639 1.3161582 0.58713514 0
1.0081958 1.3431268 -0.049983881 0
0.84412986 1.3338205 0.36415172 0
0.83194512 1.3331293 0.46897238 0
0.83581489 1.3333489 0.58377117 0
1.0059431 1.3627625 -0.049947724 0
1.2840925 1.3820561 0.07190188 0
1.3053081 1.3835278 0.20666569 0
1.2980405 1.3830236 0.34143159 0
0.86065072 1.3526843 0.36866125 0
0.83948678 1.3512163 0.47185516 0
0.83349627 1.3508008 0.58326769 0
1.0076374 1.3826995 -0.050061766 0
1.2437202 1.4020649 0.070518531 0
1.2522058 1.402761 0.20113102 0
1.0157292 1.3833632 0.29066598 0
0.84946507 1.3697249 0.3661437 0
0.8351956 1.3685544 0.47086692 0
0.84388751 1.3692673 0.588135 0
1.0094159 1.4027284 -0.05018796 0
1.2535578 1.4258531 0.070943154 0
1.2397964 1.4245497 0.20000866 0
0.89455086 1.3918486 0.26903075 0
0.84603268 1.387253 0.36566505 0
0.83666128 1.3863654 0.47187427 0
0.83951682 1.3866359 0.58696538 0
1.0043958 1.4221196 -0.05007926 0
0.64273292 1.383263 0.049093127 0
0.64126939 1.3831058 0.13556227 0
0.63510138 1.3824431 0.22230504 0
0.63922828 1.3828865 0.31305701 0
0.84004885 1.4044623 0.4736011 0
0.84475523 1.404968 0.58988661 0
0.99113888 1.4404467 -0.049682993 0
0.54675812 1.387035 0.045703843 0
0.54195732 1.386458 0.12499826 0
0.55136651 1.387589 0.20740508 0
0.55302769 1.3877887 0.29134655 0
0.83271092 1.4214047 0.47181281 0
0.8324433 1.4213725 0.58558971 0
0.98649722 1.4596407 -0.049604647 0
0.54913026 1.4014766 0.045852613 0
0.55128115 1.4017626 0.12619895 0
0.54415101 1.4008144 0.2064136 0
0.55176848 1.4018275 0.29147762 0
0.83913749 1.4400438 0.47471279 0
0.84346658 1.4406195 0.59111851 0
0.99443012 1.4806157 -0.049988542 0
0.54791516 1.4155034 0.045878787 0
0.54411823 1.4149497 0.12563218 0
0.54777151 1.4154824 0.20742555 0
0.55513614 1.4165564 0.29284745 0
0.83649212 1.4575846 0.47464681 0
0.8358199 1.4574866 0.58894694 0
1.0010028 1.5016521 -0.050333574 0
0.55290729 1.4305363 0.046135768 0
0.55886143 1.4314812 0.12746604 0
0.55609888 1.4310428 0.20933273 0
0.55657202 1.4311179 0.29376882 0
0.84270447 1.4765291 0.47763887 0
0.84279662 1.4765437 0.5929904 0
0.99037486 1.5199863 -0.050065879 0
0.54357868 1.4432973 0.04588142 0
0.54711264 1.4439038 0.12643781 0
0.55158824 1.444672 0.20893067 0
0.55090088 1.4445541 0.29289991 0
0.84523863 1.4950749 0.47947621 0
0.84019202 1.4942086 0.59311825 0
0.98737234 1.5395396 -0.050082769 0
0.54918665 1.4586358 0.046174567 0
0.5575431 1.4601787 0.12784815 0
0.5495401 1.4587011 0.20901072 0
0.54871887 1.4585495 0.29297802 0
0.83331519 1.5110955 0.47650549 0
0.84171599 1.5126466 0.59507829 0
0.98036426 1.5583163 -0.049962878 0
0.5525828 1.4737502 0.046394974 0
0.54878551 1.4729996 0.12718239 0
0.54897767 1.4730376 0.20939654 0
0.54972273 1.4731848 0.29393065 0
0.84570009 1.5316952 0.48183942 0
0.82777256 1.5281513 0.59061307 0
0.9716838 1.5766574 -0.049790267 0
0.55267483 1.4883293 0.046502344 0
0.54714829 1.4871644 0.12731463 0
0.55220312 1.48823 0.21051478 0
0.55284637 1.4883655 0.29548654 0
0.84743828 1.5504662 0.48365572 0
0.84377652 1.5496943 0.59889024 0
0.97733051 1.598086 -0.05014978 0
0.55038351 1.5024545 0.046529535 0
0.54177481 1.5005263 0.12705536 0
0.55311614 1.5030667 0.21124409 0
0.55226165 1.5028752 0.29612714 0
0.84002227 1.5673305 0.48243657 0
0.84060794 1.5674616 0.59917098 0
0.97256798 1.6173089 -0.050138317 0
0.54962903 1.5169663 0.046619713 0
0.54497129 1.5158613 0.12776044 0
0.55721837 1.5187669 0.21260132 0
0.54938382 1.5169082 0.29621622 0
0.84187442 1.5863017 0.48445535 0
0.84330076 1.5866401 0.60204178 0
0.95358163 1.6329621 -0.049612198 0
0.55662972 1.5334895 0.047002316 0
0.54772514 1.5312581 0.12844008 0
0.54213828 1.529858 0.21043305 0
0.54382211 1.53028 0.29564607 0
0.84303147 1.6052593 0.48632389 0
0.83871764 1.6041782 0.60191894 0
0.95636052 1.6539813 -0.049895272 0
0.54955024 1.5465766 0.046873961 0
0.54719967 1.5459561 0.12877899 0
0.55590481 1.5482544 0.21366429 0
0.54428595 1.5451868 0.29670838 0
0.85151666 1.6263008 0.49080232 0
0.84323889 1.6241153 0.60578883 0
0.9664008 1.6772262 -0.050458167 0
0.5494104 1.5614983 0.047008377 0
0.5564788 1.56346 0.13023323 0
0.5645538 1.565701 0.21599229 0
0.55380291 1.5627173 0.30022106 0
0.84575731 1.6437439 0.49046946 0
0.83679086 1.6412554 0.6050666 0
0.93709749 1.6894333 -0.049571052 0
0.56207448 1.5802487 0.047626346 0
0.56147677 1.5800747 0.13123821 0
0.55512518 1.5782255 0.21497439 0
0.55570155 1.5783933 0.30178082 0
0.83771187 1.6604981 0.48941922 0
0.84341973 1.6621599 0.61007375 0
0.94212967 1.7114568 -0.049967773 0
0.8472771 1.6825409 0.38066286 0
0.84575433 1.6820767 0.49403372 0
0.83997351 1.6803144 0.61085284 0
0.93728799 1.7306308 -0.050006479 0
0.85015947 1.7028658 0.38290828 0
0.83711427 1.6987088 0.49293628 0
0.84364969 1.7007914 0.6148293 0
0.93268007 1.7499145 -0.050063211 0
0.84932131 1.72219 0.38423148 0
0.83948988 1.7189201 0.49576977 0
0.84128124 1.7195159 0.61629725 0
0.91931695 1.766209 -0.04979853 0
0.83829182 1.7381227 0.38287404 0
0.83184844 1.7358892 0.49517792 0
0.82965773 1.7351298 0.61381906 0
0.9190945 1.7870497 -0.050039157 0
0.84798807 1.7613941 0.3871862 0
0.83584243 1.757012 0.49877408 0
0.83533162 1.7568277 0.61902958 0
0.90377253 1.8024111 -0.04971515 0
0.83809274 1.7777746 0.38625997 0
0.83140558 1.7752662 0.49948585 0
0.82733041 1.7737375 0.61833817 0
0.90946728 1.8257173 -0.050202195 0
0.84585994 1.8009402 0.39022157 0
0.83157986 1.7953776 0.50192934 0
0.82924849 1.7944695 0.62214524 0
0.89686984 1.8420054 -0.049998626 0
0.83507639 1.8170341 0.38917869 0
0.83032078 1.8151124 0.50396162 0
0.83428317 1.8167137 0.62747973 0
0.88567251 1.8587276 -0.049856097 0
0.83121365 1.8359185 0.3901006 0
0.83095092 1.8358085 0.50677544 0
0.83150202 1.8360393 0.6294595 0
0.88528854 1.8800335 -0.050141752 0
0.82486719 1.8538281 0.39040279 0
0.81879312 1.8511937 0.50506157 0
0.81869823 1.8511527 0.62703639 0
0.86700279 1.8935302 -0.049738977 0
0.83654481 1.8798621 0.39580992 0
0.81990689 1.8723958 0.50824803 0
0.81593961 1.8706155 0.62924433 0
0.86833245 1.9158181 -0.050112508 0
0.82692438 1.8966061 0.39535043 0
0.81888062 1.892874 0.51076591 0
0.82047123 1.893612 0.63490421 0
0.85472316 1.9312404 -0.049907934 0
0.822761 1.9159191 0.39649165 0
0.82198697 1.9155481 0.51491863 0
0.81910938 1.9141686 0.63802493 0
0.85124046 1.9515175 -0.050113183 0
0.81689328 1.9345176 0.3972238 0
0.816935 1.9345382 0.51617444 0
0.81282562 1.9325043 0.63901061 0
0.83696038 1.966446 -0.049897112 0
0.81390899 1.9546733 0.39885363 0
0.80935293 1.9523464 0.51658225 0
0.8090145 1.9521736 0.64125925 0
0.8356995 1.9880631 -0.050212499 0
0.81236559 1.9757732 0.40098277 0
0.79400188 1.9661012 0.51415551 0
0.80179769 1.9702072 0.6420446 0
0.8204121 2.002322 -0.049971268 0
0.79674846 1.9894753 0.39911768 0
0.7891379 1.9853436 0.51574749 0
0.79502803 1.9885414 0.64315265 0
0.80029541 2.0136886 -0.049538106 0
0.78617734 2.0057921 0.39876473 0
0.79290277 2.0095537 0.52073199 0
0.79392403 2.0101249 0.64706546 0
0.80527478 2.0391603 -0.050141606 0
0.78765112 2.0290098 0.40201584 0
0.78979915 2.030247 0.5232324 0
0.78066224 2.0249846 0.64532709 0
0.78985053 2.0530341 -0.049916074 0
0.78282696 2.0488703 0.40350968 0
0.77704507 2.0454426 0.52211952 0
0.78489918 2.0500989 0.65208811 0
0.78733307 2.0745986 -0.050235827 0
0.76735097 2.0624096 0.40190625 0
0.7645933 2.0607276 0.52119017 0
0.76808661 2.0628583 0.64884531 0
0.76834518 2.0860991 -0.049875349 0
0.76466566 2.0837905 0.40419361 0
0.7664544 2.084913 0.52595013 0
0.77380699 2.0895259 0.65666866 0
0.7555353 2.1012864 -0.049780533 0
0.75573605 2.1014159 0.40468523 0
0.75659508 2.10197 0.52622873 0
0.7682479 2.1094873 0.65916312 0
0.7426123 2.1163223 -0.049688239 0
0.73839873 2.1135283 0.40267485 0
0.74825782 2.1200655 0.52720267 0
0.74937266 2.1208048 0.65518755 0
0.74117368 2.1391077 -0.050099425 0
0.73703438 2.1362875 0.40562525 0
0.73693794 2.1362219 0.52707565 0
0.72787064 2.1300437 0.6499328 0
0.73572451 2.1594441 -0.050351929 0
0.72748798 2.1536789 0.40614262 0
0.73825949 2.1612184 0.53216332 0
0.72529918 2.1521468 0.65425724 0
0.71045715 2.1657567 -0.049746554 0
0.71315116 2.1676934 0.4052279 0
0.72385865 2.1753907 0.53098363 0
0.71665889 2.1702149 0.65566772 0
0.70414525 2.1855345 -0.049980167 0
0.71015185 2.1899683 0.40795568 0
0.69970936 2.1822603 0.52583522 0
0.71013731 2.1899576 0.65829825 0
0.68863147 2.19855 -0.049814939 0
0.70097405 2.2079031 0.40882114 0
0.70852429 2.2136245 0.53443354 0
0.6991511 2.2065215 0.65876323 0
0.67857116 2.2156634 -0.049902111 0
0.70086461 2.2330031 0.41269881 0
0.68856901 2.2234397 0.53115612 0
0.69571823 2.2290003 0.66330361 0
0.6680482 2.2324903 -0.049978834 0
0.68764728 2.2481344 0.41243938 0
0.68296927 2.2444005 0.5340088 0
0.68195802 2.2435932 0.66256803 0
0.65380305 2.2463424 -0.049894307 0
0.68063027 2.2683148 0.4142845 0
0.68440968 2.2714102 0.54003149 0
0.67257363 2.2617161 0.66426462 0
0.64485985 2.2645762 -0.050064214 0
0.66886681 2.284749 0.41465178 0
0.66923243 2.2850561 0.53904402 0
0.66973251 2.2854762 0.66964054 0
0.62748045 2.2757001 -0.0498491 0
0.72753066 2.3619437 0.066564918 0
0.720074 2.355516 0.18725669 0
0.71997982 2.3554349 0.31015196 0
0.64564735 2.2913599 0.41123357 0
0.64904541 2.2942891 0.53592032 0
0.64669222 2.2922606 0.66419637 0
0.61225957 2.2885342 -0.049741086 0
0.67162806 2.3410273 0.064570323 0
0.68753403 2.3550913 0.18459226 0
0.68776518 2.3552957 0.30575877 0
0.63980347 2.3128881 0.41372272 0
0.64292091 2.3156447 0.53905809 0
0.63807076 2.3113563 0.6667071 0
0.60421818 2.3077805 -0.049985599 0
0.66109782 2.3593638 0.064726964 0
0.6562869 2.355001 0.18208405 0
0.65201658 2.3511281 0.30045426 0
0.62270492 2.3245459 0.41245702 0
0.6227209 2.3245604 0.53603029 0
0.62343007 2.3252034 0.66601598 0
0.58317822 2.3151767 -0.049610976 0
0.63695282 2.3651924 0.064232841 0
0.64533919 2.3729925 0.18252543 0
0.63907963 2.3671706 0.30069295 0
0.61061352 2.3406944 0.41297182 0
0.61150187 2.3415205 0.53709805 0
0.61179429 2.3417926 0.66711378 0
0.57407695 2.3336 -0.04982543 0
0.62367421 2.3809092 0.064272471 0
0.62552625 2.3826756 0.18168895 0
0.61940283 2.3768349 0.29930475 0
0.60023135 2.3585479 0.41416678 0
0.5978294 2.3562567 0.53714836 0
0.59650284 2.3549914 0.66625196 0
0.567702 2.3549063 -0.050190218 0
0.60815984 2.3944824 0.064210758 0
0.60612994 2.3924966 0.18092296 0
0.60271508 2.3891561 0.29868394 0
0.59027225 2.3769846 0.4156073 0
0.58616525 2.372967 0.53821975 0
0.58860606 2.3753548 0.66975802 0
0.54861456 2.3638289 -0.049930263 0
0.60008997 2.4154665 0.064533316 0
0.59463114 2.4099903 0.18136811 0
0.60630387 2.4217 0.30327436 0
0.57173008 2.3870173 0.41404778 0
0.57686478 2.392168 0.54051721 0
0.57127815 2.3865638 0.66792721 0
0.53650445 2.3796706 -0.050030015 0
0.60530871 2.4504523 0.065554164 0
0.60281032 2.4478819 0.18488686 0
0.59758025 2.4425015 0.30484423 0
0.55874699 2.4025524 0.41454867 0
0.56267911 2.4065974 0.54062748 0
0.56278628 2.4067078 0.67140448 0
0.51447779 2.3851573 -0.049626764 0
0.61480373 2.4910009 0.066833302 0
0.61380869 2.4899511 0.18896712 0
0.61740154 2.4937415 0.31398666 0
0.54345256 2.4157255 0.41427112 0
0.54805845 2.4205849 0.54061627 0
0.5475679 2.4200673 0.67103153 0
0.50758046 2.4065988 -0.050017372 0
0.533508 2.4346516 0.41606271 0
0.53500265 2.4362686 0.54145759 0
0.53301424 2.4341173 0.67116088 0
0.49016497 2.416785 -0.049866855 0
0.52066678 2.4506319 0.41686568 0
0.51836354 2.448076 0.54062748 0
0.51967126 2.4495273 0.6721496 0
0.47429082 2.4285691 -0.049804416 0
0.50180358 2.4598835 0.41542977 0
0.50335234 2.4616461 0.54068035 0
0.49771854 2.4552338 0.66787249 0
0.45692715 2.4385514 -0.049667396 0
0.48756573 2.4743218 0.41583201 0
0.49039146 2.4776208 0.54186934 0
0.48952743 2.4766123 0.67233634 0
0.4470329 2.457334 -0.049951319 0
0.47038612 2.4853041 0.41514117 0
0.46855578 2.4831119 0.53857321 0
0.47334477 2.4888477 0.67187792 0
0.43140897 2.469398 -0.049928874 0
0.46171197 2.506635 0.41793296 0
0.45490143 2.498266 0.53957403 0
0.4595699 2.5040028 0.67309213 0
0.41923288 2.4857891 -0.050112817 0
0.43827346 2.5097978 0.41481677 0
0.44692406 2.5207055 0.54373193 0
0.44019184 2.5122168 0.67071837 0
0.40327248 2.4975002 -0.05009079 0
0.42414483 2.5245104 0.41555038 0
0.4229534 2.5229685 0.53940868 0
0.424041 2.5243759 0.67056042 0
0.38476565 2.5058084 -0.04992592 0
0.41477594 2.545671 0.4183934 0
0.41195109 2.5419188 0.54220164 0
0.41077438 2.5403559 0.67248976 0
0.37056741 2.5198009 -0.050024576 0
0.3968462 2.5556374 0.4177061 0
0.39348927 2.5510595 0.54097933 0
0.39533761 2.55358 0.67307281 0
0.35670277 2.5343854 -0.050156217 0
0.37996677 2.566963 0.41752231 0
0.37341002 2.5577815 0.53887469 0
0.37338433 2.5577455 0.66914117 0
0.33959177 2.5444691 -0.05009862 0
0.36305037 2.5782096 0.41738182 0
0.36420301 2.5798674 0.54311687 0
0.36206147 2.5767872 0.67288554 0
0.32323155 2.5555954 -0.050095778 0
0.34916177 2.5939112 0.41868088 0
0.34754214 2.5915179 0.54317766 0
0.34615257 2.5894644 0.6734879 0
0.29916796 2.5550261 -0.049601853 0
0.32195964 2.5896351 0.41391999 0
0.31868556 2.5846634 0.53595036 0
0.32534948 2.5947826 0.6705367 0
0.28458038 2.568608 -0.049724806 0
0.30418923 2.5992162 0.41350022 0
0.31205878 2.6115 0.54223698 0
0.3127723 2.6126137 0.67389143 0
0.26730004 2.578038 -0.049679898 0
0.2839705 2.6047952 0.41194829 0
0.29257622 2.618608 0.54077411 0
0.28890958 2.6127229 0.66865236 0
0.25030956 2.5878913 -0.049662128 0
0.27082935 2.6217701 0.41388354 0
0.27038601 2.6210382 0.53759861 0
0.26751873 2.6163042 0.66527981 0
0.23321207 2.5975442 -0.049645081 0
0.24971791 2.6255867 0.41195819 0
0.25647458 2.6370661 0.53980422 0
0.24958421 2.6253595 0.66469204 0
0.22303791 2.6192877 -0.050134271 0
0.23942877 2.6479547 0.41557717 0
0.23515339 2.6404772 0.5372262 0
0.23666175 2.6431153 0.66836607 0
0.20597114 2.6293335 -0.050147634 0
0.22094388 2.6563027 0.41511768 0
0.21789236 2.6508062 0.53740108 0
0.22120531 2.6567736 0.67015147 0
0.18381853 2.629967 -0.049787946 0
0.19583054 2.6522601 0.41113803 0
0.198137 2.6565409 0.53592086 0
0.19533475 2.65134 0.66303742 0
0.16566016 2.6377013 -0.049727935 0
0.18017204 2.6654656 0.41224122 0
0.18107469 2.6671925 0.53639007 0
0.18057956 2.6662452 0.66562468 0
0.15334912 2.6568875 -0.050135847 0
0.1644987 2.6788895 0.41345647 0
0.16413631 2.6781745 0.53705972 0
0.1644171 2.6787286 0.66715795 0
0.12836905 2.6509328 -0.049547493 0
0.14485599 2.6845093 0.41250226 0
0.13796748 2.6704805 0.53088254 0
0.13762303 2.6697791 0.65888971 0
0.11127474 2.6606033 -0.049592808 0
0.12158551 2.6822875 0.40940866 0
0.12661602 2.692867 0.53594542 0
0.11824157 2.6752548 0.65743959 0
0.098772131 2.6803362 -0.050041802 0
0.104229 2.6921952 0.40982193 0
0.1046662 2.6931453 0.53293496 0
0.099258207 2.6813927 0.65641093 0
0.079672121 2.6860294 -0.049945842 0
0.082020663 2.6913073 0.40727946 0
0.086894237 2.7022598 0.53325987 0
0.082649373 2.6927204 0.65784872 0
0.06302508 2.6972644 -0.050075125 0
0.066042505 2.704282 0.40867841 0
0.063293301 2.6978881 0.52878034 0
0.061272286 2.6931877 0.65447867 0
0.045109116 2.7056885 -0.050103206 0
0.041830681 2.6977913 0.40474865 0
0.04278525 2.7000906 0.52679968 0
0.044852458 2.7050703 0.65636444 0
0.025333604 2.7095306 -0.049963642 0
0.02919217 2.7191663 0.40858096 0
0.025185546 2.709161 0.52738303 0
0.025038024 2.7087927 0.65469384 0
0.0063283057 2.7151041 -0.04990055 0
0.01020529 2.7251503 0.40822929 0
0.0071499557 2.7172332 0.52768689 0
0.0074337334 2.7179685 0.65556258 0
-0.0092566991 2.7297649 -0.050192993 0
-0.010701098 2.725877 0.40651366 0
-0.011484244 2.7237692 0.52752483 0
-0.010633626 2.7260587 0.65604585 0
-0.03527192 2.7158525 -0.049408335 0
-0.031897224 2.7252989 0.40452367 0
-0.032356955 2.7240119 0.52522331 0
-0.033701517 2.7202485 0.65051568 0
-0.048876502 2.7364149 -0.049940675 0
-0.054578938 2.7197955 0.40128586 0
-0.052349307 2.7262936 0.52374148 0
-0.051099338 2.7299366 0.65192086 0
-0.067265011 2.7436519 -0.049976438 0
-0.072501339 2.727741 0.40175068 0
-0.07305143 2.7260695 0.52147657 0
-0.074568339 2.7214603 0.64549851 0
-0.08415056 2.7557516 -0.050202761 0
-0.09041936 2.7358634 0.40232146 0
-0.092133321 2.7304258 0.52090949 0
-0.091997273 2.7308574 0.64698923 0
-0.10495863 2.7554016 -0.049971957 0
-0.11391843 2.7256758 0.3980712 0
-0.11026029 2.7378123 0.5214811 0
-0.11272351 2.72964 0.64397931 0
-0.12676404 2.7510078 -0.049601514 0
-0.10540042 2.8252563 0.064359829 0
-0.10434172 2.8289359 0.18208832 0
-0.10565845 2.8243597 0.30064234 0
-0.12799628 2.7467253 0.402208 0
-0.13188352 2.7332153 0.51798129 0
-0.1338328 2.7264407 0.64023894 0
-0.14217727 2.7689545 -0.050069541 0
-0.13307218 2.8021669 0.063299023 0
-0.13423134 2.7979388 0.17801239 0
-0.13366266 2.8000131 0.29504907 0
-0.15074889 2.7376876 0.3984181 0
-0.15419708 2.7251098 0.51337731 0
-0.15232085 2.7319536 0.64036626 0
-0.16297032 2.7675824 -0.049830459 0
-0.15716289 2.7898626 0.062652469 0
-0.15466268 2.7994547 0.17760259 0
-0.15683074 2.791137 0.29242322 0
-0.16876753 2.7453413 0.39911705 0
-0.1712871 2.7356751 0.51530433 0
-0.17009024 2.7402668 0.64179093 0
-0.18146659 2.7748103 -0.049918033 0
-0.17900823 2.7847531 0.062283695 0
-0.17620434 2.7960935 0.17668264 0
-0.17713253 2.7923393 0.29173219 0
-0.19042797 2.7385659 0.39608136 0
-0.18671913 2.7535665 0.51981002 0
-0.19005664 2.740068 0.63967633 0
-0.20138551 2.7762415 -0.049801372 0
-0.19739954 2.7932806 0.06242612 0
-0.19796987 2.7908425 0.17558683 0
-0.19924884 2.7853751 0.28957805 0
-0.20956992 2.7412548 0.39560598 0
-0.2113768 2.7335308 0.51141012 0
-0.21030267 2.7381225 0.63693243 0
-0.21998341 2.7832911 -0.049899634 0
-0.21915744 2.787034 0.062036473 0
-0.21688057 2.7973511 0.17581844 0
-0.21690275 2.7972507 0.29096085 0
-0.22857244 2.7443717 0.39530689 0
-0.23068653 2.7347922 0.51039547 0
-0.22927625 2.7411826 0.63642675 0
-0.24004115 2.7836628 -0.049762689 0
-0.23299025 2.8176401 0.063001566 0
-0.23330705 2.8161135 0.1774206 0
-0.23775472 2.7946806 0.28972033 0
-0.24761449 2.7471678 0.3949874 0
-0.25036773 2.7339003 0.50873452 0
-0.2498721 2.7362888 0.63266009 0
-0.25539437 2.8077424 -0.050497532 0
-0.2508145 2.8312991 0.063354291 0
-0.25189188 2.8257575 0.17804325 0
-0.2506519 2.8321357 0.2958847 0
-0.26705196 2.7477808 0.39416364 0
-0.27050477 2.730021 0.50614923 0
-0.26967931 2.7342668 0.63022357 0
-0.27746278 2.7977214 -0.050000429 0
-0.26791316 2.8503706 0.063910745 0
-0.26647264 2.8583126 0.18119243 0
-0.26595345 2.8611751 0.30052236 0
-0.2875911 2.7418814 0.39171669 0
-0.29076365 2.7243905 0.50306356 0
-0.2906172 2.725198 0.62493241 0
-0.29665408 2.8026927 -0.050057221 0
-0.30566517 2.7491841 0.39275759 0
-0.30756217 2.7379196 0.50653452 0
-0.30940101 2.7270002 0.62432766 0
-0.31667975 2.8025784 -0.04993891 0
-0.32738417 2.733732 0.3879801 0
-0.32889554 2.7240117 0.50083226 0
-0.32825425 2.7281361 0.62354404 0
-0.33443728 2.8177998 -0.050382949 0
-0.34591085 2.7373464 0.3881954 0
-0.34805205 2.722332 0.49934012 0
-0.3469691 2.7299259 0.62313473 0
-0.35639533 2.8031139 -0.049757641 0
-0.36498782 2.7369089 0.38742799 0
-0.36504403 2.7364759 0.50323981 0
-0.3660154 2.7289915 0.62168723 0
-0.37485829 2.814532 -0.050081495 0
-0.38470086 2.7304091 0.38516623 0
-0.38559344 2.7227805 0.49788043 0
-0.38587543 2.7203705 0.61713761 0
-0.3934319 2.8271215 -0.050455324 0
-0.40458658 2.720129 0.38200137 0
-0.40467212 2.7193086 0.49603435 0
-0.40545392 2.7118096 0.61272323 0
-0.41468194 2.8134015 -0.049893904 0
-0.42253458 2.7276218 0.38345784 0
-0.42373887 2.7144666 0.49381307 0
-0.42467859 2.7042015 0.60881251 0
-0.43449113 2.8129549 -0.049817983 0
-0.44248658 2.7115686 0.37894472 0
-0.44284105 2.7070739 0.49082282 0
-0.44245699 2.7119439 0.61138183 0
-0.45404986 2.8155289 -0.049859125 0
-0.46083978 2.7129672 0.37896189 0
-0.46237388 2.6897943 0.48461887 0
-0.46113017 2.7085805 0.60943353 0
-0.47325546 2.8252952 -0.05016619 0
-0.47930002 2.7124529 0.37854937 0
-0.47987527 2.701714 0.48822939 0
-0.48039261 2.6920559 0.60212713 0
-0.49350587 2.8149161 -0.049761929 0
-0.49815482 2.7013788 0.37550005 0
-0.49880344 2.685539 0.4825567 0
-0.49852195 2.6924129 0.60192043 0
-0.51316148 2.8155696 -0.049760945 0
-0.51629955 2.7048402 0.37622231 0
-0.51680475 2.687012 0.48283917 0
-0.51695985 2.6815407 0.5971573 0
-0.53275728 2.8201754 -0.049909931 0
-0.53488594 2.6849551 0.37104565 0
-0.5351007 2.6713147 0.47748384 0
-0.53494358 2.6812947 0.59689134 0
-0.55247957 2.8189855 -0.049860798 0
-0.55288285 2.6909297 0.37252659 0
-0.55290866 2.6827321 0.48122624 0
-0.55295068 2.6693997 0.59189618 0
-0.57222348 2.8234222 -0.050021417 0
-0.57084227 2.6771464 0.3690244 0
-0.57082987 2.6758332 0.47894979 0
-0.57070261 2.6623569 0.58900321 0
-0.59206283 2.8269064 -0.05015694 0
-0.58842349 2.6617653 0.36517116 0
-0.58864683 2.6718976 0.47773379 0
-0.58843213 2.6621554 0.58903533 0
-0.61167747 2.8210528 -0.049967878 0
-0.60659963 2.6744602 0.36854014 0
-0.60592681 2.6550372 0.47228944 0
-0.60608226 2.6595254 0.58815384 0
-0.63050914 2.8013871 -0.049293865 0
-0.6232602 2.6479776 0.36196303 0
-0.62302566 2.6430135 0.46852526 0
-0.62320668 2.6468449 0.58319801 0
-0.65165299 2.8282366 -0.050291449 0
-0.64045346 2.6412036 0.36047181 0
-0.64047962 2.6416404 0.46837968 0
-0.64020962 2.6371312 0.57955843 0
-0.64005423 2.6345363 0.69781381 0
-0.67067158 2.8160136 -0.049900863 0
-0.65807372 2.6423142 0.3610515 0
-0.65712297 2.6292052 0.46461728 0
-0.65806812 2.6422365 0.58215606 0
-0.65705657 2.6282892 0.69525701 0
-0.6906302 2.8180313 -0.050028693 0
-0.67363131 2.6185069 0.4615007 0
-0.6738553 2.6211357 0.5739603 0
-0.67258936 2.6062765 0.68488795 0
-0.71119088 2.825242 -0.050351985 0
-0.6899451 2.6082144 0.45858544 0
-0.69020641 2.6108835 0.57035029 0
-0.69012421 2.6100438 0.68756479 0
-0.730066 2.8151135 -0.050062198 0
-0.70494193 2.5879986 0.5615586 0
-0.70753342 2.6114252 0.68915552 0
-0.74897128 2.8068726 -0.049848411 0
-0.7228229 2.5949507 0.56527799 0
-0.72277218 2.5945396 0.6816501 0
-0.76940131 2.8109221 -0.05008566 0
-0.73794448 2.5799453 0.67538565 0
-0.78849727 2.8048637 -0.049967781 0
-0.75612533 2.5876582 0.68049037 0
-0.80995119 2.8138669 -0.05040307 0
-0.8278842 2.8009369 -0.050054174 0
-0.84915298 2.8070765 -0.050405364 0
-0.86741543 2.7969828 -0.050176051 0
-0.88403273 2.7799621 -0.049701598 0
-0.90456873 2.7816777 -0.049919412 0
-0.92238021 2.7713981 -0.049706902 0
-0.9420557 2.7690554 -0.049794309 0
-0.96370763 2.7738538 -0.050155055 0
-0.98146904 2.7638505 -0.049978279 0
-0.99979246 2.7561855 -0.049896188 0
-1.0190893 2.7518642 -0.049947288 0
-1.0366628 2.742065 -0.049802233 0
-1.0609566 2.7525725 -0.050429709 0
-1.0761629 2.7357798 -0.050038811 0
-1.0944899 2.7283478 -0.050009068 0
-1.1092287 2.7114911 -0.04962818 0
-1.1306037 2.7122386 -0.049927827 0
-1.1470226 2.7002647 -0.049748883 0
-1.1710657 2.7066507 -0.050288569 0
-1.1863558 2.6920705 -0.050025988 0
-1.2049764 2.6852911 -0.050075121 0
-1.2241263 2.6795542 -0.050174851 0
-1.2424642 2.671968 -0.050211389 0
-1.253442 2.6495633 -0.049666137 0
-1.278433 2.6552186 -0.050249539 0
-1.2921745 2.6387928 -0.049957074 0
-1.3093143 2.6290035 -0.049939658 0
-1.3252013 2.6170094 -0.049840584 0
-1.3419747 2.6066761 -0.049817562 0
-1.3628303 2.6032047 -0.050088447 0
-1.3825741 2.597553 -0.050281033 0
-1.3951242 2.5802548 -0.049993794 0
-1.415495 2.5753629 -0.050239056 0
-1.4271606 2.5571144 -0.049923994 0
-1.4439981 2.5467927 -0.049955726 0
-1.4587243 2.5334303 -0.049864154 0
-1.4777812 2.5261574 -0.05004824 0
-1.4908999 2.5106697 -0.049879301 0
-1.5031457 2.4942286 -0.049673311 0
-1.5203598 2.4843645 -0.049770441 0
-1.5362095 2.472688 -0.049795426 0
-1.5572057 2.4672222 -0.050117221 0
-1.5641139 2.4447412 -0.049659189 0
-1.5865877 2.4406912 -0.050071325 0
-1.5829657 2.4068723 -0.049078934 0
-1.6130108 2.4109771 -0.049905885 0
-1.6239607 2.3938224 -0.049721457 0
-1.6475183 2.3899856 -0.050200626 0
-1.6569253 2.3712876 -0.04995605 0
-1.6672004 2.353688 -0.049770031 0
-1.6847886 2.3433306 -0.049960334 0
-1.7000766 2.3306177 -0.050042011 0
-1.7134771 2.3160889 -0.050039064 0
-1.7167343 2.2924757 -0.04955887 0
-1.7380559 2.285079 -0.049954213 0
-1.761663 2.2792571 -0.050456878 0
-1.7650081 2.2561607 -0.050017841 0
-1.7746466 2.2385473 -0.049885608 0
-1.2274718 1.7961172 0.51703024 0
-1.7883353 2.2242401 -0.049948905 0
-1.2392788 1.7916073 0.52083427 0
-1.79799 2.2067757 -0.049838174 0
-1.2378232 1.7767091 0.51472825 0
-1.8175303 2.1967983 -0.050179053 0
-1.2338318 1.760236 0.50694114 0
-1.8246175 2.177448 -0.049972348 0
-1.2337292 1.747003 0.50223148 0
-1.847114 2.1692035 -0.050452683 0
-1.2400531 1.7385715 0.50235796 0
-1.8520203 2.1483955 -0.050170191 0
-1.235413 1.7225598 0.49465823 0
-1.8586614 2.1289899 -0.049976021 0
-1.242031 1.7145075 0.49521282 0
-1.8683282 2.1117232 -0.049922988 0
-1.2431142 1.7028049 0.49191284 0
-1.8783818 2.094743 -0.049895987 0
-1.2376151 1.6870788 0.48411652 0
-1.8903834 2.0789869 -0.04995998 0
-1.2445793 1.6794508 0.48521078 0
-1.9011749 2.0624466 -0.049981374 0
-1.2388513 1.6641335 0.47758016 0
-1.9029883 2.0406387 -0.049640018 0
-1.2457105 1.6565454 0.47878444 0
-1.9253771 2.0307827 -0.050157052 0
-1.2475804 1.6460646 0.47664323 0
-1.9337424 2.0127788 -0.05010394 0
-1.2372471 1.6289611 0.46634325 0
-1.9476368 1.9977705 -0.050284248 0
-1.9497991 1.9765303 -0.049999166 0
-1.9641274 1.9616288 -0.050212763 0
-1.9580755 1.9366283 -0.049623191 0
-1.9794742 1.9250312 -0.050133128 0
-1.9870424 1.9067237 -0.050103143 0
-1.9920319 1.8872982 -0.049981721 0
-1.9971747 1.8680278 -0.049876414 0
-2.0205834 1.8563498 -0.050486203 0
-2.0117371 1.8314068 -0.049859717 0
-1.9952127 1.8039982 -0.048954822 0
-1.99812 1.784416 -0.048806466 0
-2.002733 1.7655449 -0.048732724 0
-1.9992923 1.7439904 -0.048364617 0
-2.0098948 1.7272785 -0.048535507 0
-1.9975328 1.7032779 -0.047854826 0
-1.9979899 1.6835952 -0.047665522 0
-1.9958233 1.6633022 -0.047388725 0
-2.0019236 1.6454467 -0.047428109 0
-2.0039451 1.6265099 -0.047325306 0
-1.9956387 1.6051255 -0.046852067 0
-2.0011094 1.587258 -0.046894841 0
-2.0006807 1.568074 -0.046730198 0
-2.0049148 1.5499579 -0.046744704 0
-1.9980509 1.5297068 -0.046364088 0
-1.9965186 1.5106753 -0.046186928 0
-2.0021448 1.4929498 -0.04627784 0
-1.9981592 1.473693 -0.046029538 0
-2.0122306 1.4571272 -0.046441317 0
-1.9995137 1.4368747 -0.045895938 0
-1.9857 1.4168816 -0.045321103 0
-2.0045145 1.400591 -0.045926839 0
-1.9971751 1.3815573 -0.045601901 0
-2.0004783 1.3635563 -0.045666888 0
-2.0057583 1.345631 -0.045810662 0
-2.0082183 1.3274591 -0.045861606 0
-2.0019205 1.3089173 -0.045607809 0
-1.9958078 1.2905564 -0.045369051 0
-2.0016127 1.2725111 -0.045564085 0
-1.9998076 1.2543254 -0.045495559 0
-1.1366593 0.26436791 -0.050022524 0
-0.3950913 0.26436988 0.42009845 0
-0.39815617 0.26436988 0.49864408 0
-1.1397048 0.24456984 -0.050135706 0
-0.41149306 0.25374156 0.42833838 0
-1.141885 0.22471057 -0.050226923 0
-0.41265398 0.24308068 0.35605273 0
-0.39769197 0.24345759 0.42153144 0
-1.1293495 0.20533995 -0.049801368 0
-0.51302648 0.22863404 0.10769217 0
-0.51652479 0.22850183 0.17728524 0
-1.2383785 0.20121917 0.43260983 0
-1.2280616 0.2016091 0.55886769 0
-1.2428273 0.20105103 0.70015854 0
-1.1324923 0.18547638 -0.04994471 0
-0.50996816 0.21685873 0.10741958 0
-0.51854616 0.2164263 0.1777454 0
-1.2372849 0.18019363 0.43256742 0
-1.2392923 0.18009244 0.56291592 0
-1.244025 0.17985384 0.70104069 0
-1.1363181 0.16546531 -0.050121542 0
-0.52237403 0.20417061 0.10882793 0
-0.51882464 0.20439437 0.17791843 0
-1.2473218 0.15846722 0.43543804 0
-1.246114 0.15854336 0.56558794 0
-1.1359348 0.14564462 -0.050156862 0
-0.50900984 0.19310033 0.10747743 0
-0.51823783 0.19240181 0.17796253 0
-1.2402301 0.13774988 0.43399879 0
-1.240631 0.13771954 0.56424755 0
-1.1276766 0.12649171 -0.049918912 0
-0.5145613 0.18067421 0.10818126 0
-0.51088589 0.18099901 0.17680916 0
-1.2362484 0.11689696 0.43342128 0
-1.2286657 0.11756707 0.56082815 0
-1.1232268 0.10711939 -0.049825974 0
-0.50844342 0.16925992 0.10764237 0
-0.51896971 0.16819596 0.17847835 0
-1.2360806 0.095712446 0.43388835 0
-1.2395409 0.095362701 0.56512684 0
-1.1186295 0.087826692 -0.049736362 0
-0.50786418 0.15734045 0.039790481 0
-0.51066095 0.15702213 0.10801981 0
-0.50634712 0.15751311 0.17642069 0
-1.2412602 0.073869579 0.4357976 0
-1.237103 0.07434272 0.56506747 0
-1.1233222 0.067418538 -0.049989659 0
-0.50468802 0.14573009 0.039727364 0
-0.51749915 0.14410837 0.10891511 0
-0.50081331 0.14622059 0.17567281 0
-1.2414036 0.052470896 0.43648547 0
-1.2425333 0.05232786 0.56773531 0
-1.1244389 0.047325376 -0.050123744 0
-0.51216489 0.13267775 0.040053405 0
-0.51103717 0.13283494 0.10838642 0
-0.5128113 0.13258764 0.17814194 0
-1.2440534 0.030650843 0.43788955 0
-1.2458254 0.030403826 0.56978261 0
-1.1182314 0.028248567 -0.050002724 0
-0.5070461 0.12130869 0.039931137 0
-0.50939953 0.12095036 0.10839656 0
-0.51170027 0.12060005 0.17825563 0
-1.2336994 0.010667195 0.43601125 0
-1.2437524 0.0091365175 0.57012111 0
-1.1076379 0.0099795358 -0.049731426 0
-0.52032834 0.10698581 0.040479634 0
-0.51322371 0.1081593 0.10901794 0
-0.50703406 0.10918164 0.17774726 0
-1.2476456 -0.013145636 0.44047779 0
-1.2417437 -0.012170832 0.57057232 0
-1.1072705 -0.0099199219 -0.049838684 0
-0.51845902 0.094967015 0.040486448 0
-0.51952642 0.094776891 0.10992885 0
-0.51140702 0.096223213 0.17891994 0
-1.2373972 -0.033099812 0.43876195 0
-1.2301986 -0.031817507 0.56789237 0
-1.1158231 -0.031604689 -0.050279528 0
-0.50419104 0.085311435 0.040048108 0
-0.50587541 0.084989451 0.10867713 0
-0.51913476 0.082454868 0.18074135 0
-1.2397555 -0.055294883 0.44038185 0
-1.2390085 -0.0551521 0.57218432 0
-1.1052588 -0.049705576 -0.050034847 0
-0.50174069 0.073555835 0.040043682 0
-0.51400864 0.071050249 0.10982513 0
-0.50613594 0.072658159 0.17878415 0
-1.2435442 -0.077948727 0.44245103 0
-1.2338318 -0.075965084 0.5718376 0
-1.0952121 -0.067745604 -0.049816724 0
-0.5059818 0.060346831 0.040289115 0
-0.49986094 0.061677445 0.10854515 0
-0.50989258 0.05949666 0.17993672 0
-1.2415887 -0.099566348 0.44310054 0
-1.2413567 -0.099515893 0.57590353 0
-1.0926298 -0.087352343 -0.049879763 0
-0.5270763 0.043071602 0.041158829 0
-0.52235633 0.044160072 0.11131579 0
-0.51977843 0.044754583 0.1822577 0
-1.2401919 -0.12138209 0.44396937 0
-1.2422031 -0.12184588 0.57780218 0
-1.1009768 -0.10967387 -0.050353687 0
-0.50402886 0.035929743 0.040417075 0
-0.51520407 0.033203963 0.11083971 0
-0.49925387 0.037094433 0.17897494 0
-1.234338 -0.14220248 0.44374242 0
-1.2366421 -0.14276446 0.57760859 0
-1.0857708 -0.12628372 -0.049971234 0
-0.55516708 0.010238458 0.042411011 0
-0.55868357 0.0093336897 0.11599594 0
-0.55776662 0.0095696049 0.190418 0
-1.2305595 -0.16353725 0.44413042 0
-1.2374123 -0.16530044 0.57967967 0
-1.0851184 -0.14655791 -0.050133482 0
-0.62025666 -0.020689469 0.044939719 0
-0.63150537 -0.023735236 0.12447014 0
-1.2393073 -0.18830694 0.31837308 0
-1.2367967 -0.18762715 0.44723803 0
-1.2370859 -0.18770547 0.58147752 0
-1.0816752 -0.1661609 -0.050202195 0
-0.69109154 -0.055107426 0.04770517 0
-0.70065057 -0.057825308 0.1326104 0
-1.2485528 -0.2136087 0.32120016 0
-1.2450762 -0.21262021 0.45097879 0
-1.2342843 -0.20955177 0.58252311 0
-1.073198 -0.1843176 -0.050092809 0
-0.78384376 -0.098094083 0.051313601 0
-0.78345096 -0.09797705 0.14236058 0
-1.239774 -0.23395495 0.32070574 0
-1.2416492 -0.23451371 0.45170069 0
-1.2507048 -0.23721217 0.59034091 0
-1.0687447 -0.20365126 -0.050142009 0
-0.86192644 -0.13917609 0.054407854 0
-0.87808442 -0.14421333 0.15353796 0
-1.2491121 -0.25988045 0.32368016 0
-1.2398626 -0.25699696 0.45293745 0
-1.2449489 -0.25858262 0.59058243 0
-1.064826 -0.22319882 -0.050220605 0
-0.9917233 -0.19939522 0.059475873 0
-0.98592484 -0.19750716 0.16631962 0
-1.2399919 -0.2802361 0.32322764 0
-1.2385173 -0.27975592 0.45437348 0
-1.2431191 -0.28125438 0.59229261 0
-1.0542111 -0.24053417 -0.050056327 0
-1.1216037 -0.26342091 0.064597286 0
-1.1182853 -0.26229396 0.18201502 0
-1.2389238 -0.30326316 0.32435551 0
-1.2362846 -0.30236688 0.45565358 0
-1.0441531 -0.25794694 -0.049920652 0
-1.2860821 -0.34351918 0.20191281 0
-1.2478671 -0.33000216 0.32745895 0
-1.2424413 -0.32808307 0.45928666 0
-1.0476505 -0.28024855 -0.050308332 0
-1.2542263 -0.35625586 0.19915698 0
-1.2359045 -0.34951457 0.32662386 0
-1.2423928 -0.35190186 0.46133751 0
-1.0246267 -0.29270723 -0.049694918 0
-1.2524756 -0.37981448 0.19987004 0
-1.2324394 -0.37215456 0.32747278 0
-1.2480456 -0.37812081 0.46503726 0
-1.023657 -0.31345496 -0.049931522 0
-1.2514426 -0.40384141 0.20070384 0
-1.2285471 -0.39475641 0.32829824 0
-1.2365174 -0.39791909 0.46413007 0
-1.0219259 -0.33407328 -0.050150022 0
-1.2527686 -0.42905417 0.20185122 0
-1.2275172 -0.41866449 0.3297416 0
-1.2414795 -0.42440924 0.46783611 0
-1.0034642 -0.34773102 -0.049730446 0
-1.2543542 -0.4546738 0.20307207 0
-1.2318496 -0.44508114 0.33230281 0
-1.233916 -0.44596192 0.46818054 0
-1.0060284 -0.37034562 -0.050135694 0
-1.2543529 -0.47990993 0.20415112 0
-1.2433262 -0.47504476 0.33635199 0
-1.2339844 -0.47092298 0.47073054 0
-0.99940467 -0.38908502 -0.050193857 0
-1.240401 -0.49906167 0.20362581 0
-1.2442507 -0.50081849 0.33840725 0
-1.2452544 -0.50127655 0.47652459 0
-0.97523928 -0.39959988 -0.049569238 0
-1.2414367 -0.52515036 0.20490684 0
-1.2397554 -0.52435738 0.33945855 0
-1.2328235 -0.52108794 0.47577497 0
-0.98171437 -0.42455402 -0.050162811 0
-1.5034813 -0.67872196 0.082883157 0
-1.2433332 -0.55199623 0.20633778 0
-1.2459805 -0.55328578 0.3427262 0
-1.2433869 -0.55202234 0.48161691 0
-0.96806359 -0.43986079 -0.049968433 0
-1.4483147 -0.6813339 0.081159338 0
-1.2452638 -0.57923871 0.20782244 0
-1.2474046 -0.58031511 0.34511879 0
-1.2362795 -0.57472134 0.48256069 0
-0.96254849 -0.45923653 -0.05010771 0
-1.3903053 -0.68110633 0.079311214 0
-1.2439672 -0.60520333 0.20896754 0
-1.2400535 -0.60317343 0.34581316 0
-0.95349538 -0.47683522 -0.050114535 0
-1.3536772 -0.69083923 0.078316122 0
-1.2392366 -0.62964016 0.20974158 0
-1.2406071 -0.63037312 0.34818751 0
-0.92954457 -0.48623332 -0.049523134 0
-1.3067129 -0.69407946 0.076897748 0
-1.2456909 -0.66045213 0.21193112 0
-1.2415396 -0.65816444 0.35072672 0
-0.93086517 -0.50949937 -0.049969751 0
-1.2647107 -0.6989904 0.075674564 0
-1.2380062 -0.683833 0.21243691 0
-1.241163 -0.68562472 0.35308498 0
-0.92296076 -0.52774316 -0.050050288 0
-1.2453135 -0.71611637 0.075379625 0
-1.2400301 -0.71302891 0.21419141 0
-1.2403589 -0.71322113 0.35544336 0
-0.90333486 -0.53900766 -0.049652655 0
-1.2545047 -0.75019675 0.076282389 0
-1.2372147 -0.73979872 0.21539828 0
-1.2404536 -0.74174672 0.35808161 0
-0.89753199 -0.55849791 -0.049838148 0
-1.2454258 -0.77372748 0.076443158 0
-1.2417076 -0.77142709 0.21758063 0
-1.2394233 -0.77001399 0.36057782 0
-0.89570737 -0.58067793 -0.050203819 0
-1.2477518 -0.80465323 0.077100299 0
-1.2346352 -0.79630834 0.21835794 0
-1.2359303 -0.79713219 0.36264348 0
-0.8756727 -0.59125966 -0.049807549 0
-1.2596643 -0.84240752 0.078188367 0
-1.2401543 -0.829647 0.22079863 0
-1.2401439 -0.82964033 0.36646026 0
-0.85959637 -0.60416913 -0.049583901 0
-1.2426258 -0.86163121 0.078060664 0
-1.2313625 -0.85406035 0.22146109 0
-1.2395189 -0.85954291 0.36934665 0
-0.85538125 -0.62508208 -0.049879942 0
-1.2422767 -0.89227635 0.078666411 0
-1.2298392 -0.88368684 0.22311862 0
-1.2371238 -0.88871771 0.37195241 0
-0.84056592 -0.63873541 -0.049726132 0
-1.2454231 -0.92592973 0.079447426 0
-1.2402645 -0.92227048 0.22641437 0
-1.6101006 -1.1846217 0.45766363 0
-0.8248837 -0.65162683 -0.049540173 0
-1.2346201 -0.95010811 0.079638124 0
-1.2485906 -0.96028513 0.22952564 0
-1.5641934 -1.1901927 0.45152748 0
-0.82700634 -0.67767513 -0.050153442 0
-1.2384881 -0.98543233 0.080498196 0
-1.2426068 -0.98851281 0.23080988 0
-0.81196022 -0.69109142 -0.0500146 0
-1.2415807 -1.0209312 0.081351653 0
-1.2398734 -1.0196205 0.23259494 0
-0.7932657 -0.70151216 -0.049716182 0
-1.1585115 -0.9893102 0.078317553 0
-1.1600733 -0.9905408 0.22390659 0
-1.1581882 -0.98905545 0.37124529 0
-0.79001737 -0.72415566 -0.050129872 0
-1.1417438 -1.0085517 0.078278244 0
-1.1448743 -1.011083 0.22400723 0
-1.1375762 -1.0051819 0.37015435 0
-0.77543557 -0.73777992 -0.050035328 0
-1.2286545 -1.1137753 0.08305911 0
-1.2386001 -1.1220263 0.23935488 0
-1.334934 -1.201946 0.42017666 0
-0.76312053 -0.75324994 -0.050054032 0
-1.2392042 -1.158442 0.08437337 0
-1.2234036 -1.1449943 0.23969249 0
-1.3161145 -1.2239001 0.42012537 0
-1.0266546 -0.97754234 0.49486968 0
-0.7503252 -0.76832241 -0.050059367 0
-1.2820622 -1.2325517 0.4164924 0
-0.99266112 -0.97989208 0.48869187 0
-0.73412907 -0.78035873 -0.049910828 0
-1.1918118 -1.1902044 0.08384452 0
-1.188656 -1.1873783 0.23987511 0
-1.1944317 -1.1925504 0.39987379 0
-0.97483122 -0.99590272 0.48798978 0
-0.7194351 -0.79363674 -0.049840681 0
-0.92827523 -0.98544151 0.47739801 0
-0.70306432 -0.80527157 -0.049695618 0
-0.89522469 -0.98627013 0.47136748 0
-0.69611096 -0.82586545 -0.050023459 0
-0.85616374 -0.98047048 0.46313486 0
-0.67863774 -0.83636814 -0.04983972 0
-0.8322916 -0.98857838 0.46022743 0
-0.67299306 -0.85870689 -0.050262276 0
-0.81581938 -1.0037996 0.46001077 0
-0.65448236 -0.86807674 -0.050041508 0
