# .PCD v0.7 - Point Cloud Data file format
VERSION 0.7
FIELDS x y z intensity
SIZE 4 4 4 4
TYPE F F F F
COUNT 1 1 1 1
WIDTH 1343
HEIGHT 1
VIEWPOINT 0 0 0 1 0 0 0
POINTS 1343
DATA ascii
0.92270827 1.1740742 0.34979084 0
0.85209775 1.0430275 0.37221265 0
0.84098673 1.0224066 0.43682837 0
0.84217161 1.0246055 0.51813763 0
1.161397 1.6588243 -0.050173976 0
1.1115534 1.563463 0.2703627 0
1.0184517 1.3853399 0.32870504 0
0.91042 1.1786524 0.34921974 0
0.84732348 1.0579355 0.37673822 0
0.83548349 1.0352831 0.44122851 0
0.84053296 1.0449439 0.52833641 0
1.1409717 1.6623464 -0.049952064 0
1.0904717 1.5626928 0.26849923 0
0.99917531 1.3825333 0.32581767 0
0.89889538 1.1846467 0.34923828 0
0.84989083 1.0879439 0.38827208 0
0.84204352 1.0724585 0.45926923 0
0.83796185 1.0644039 0.53790009 0
1.1215895 1.6676451 -0.049812444 0
1.0773281 1.5775046 0.26983145 0
0.98506898 1.3896152 0.32582787 0
0.88816619 1.1922686 0.34991392 0
0.84358424 1.1014757 0.39211994 0
0.84255248 1.0993745 0.471434 0
0.840114 1.0944084 0.55439293 0
1.1072192 1.6832616 -0.050091214 0
0.96613276 1.3865476 0.32302108 0
0.87663859 1.1983354 0.35006255 0
0.84145784 1.124348 0.40026367 0
0.84471738 1.1312031 0.48624426 0
0.83766562 1.1163728 0.56548971 0
1.0882158 1.6892877 -0.049998604 0
0.94454724 1.3770657 0.3184962 0
0.86455113 1.2032174 0.34982976 0
0.84125298 1.1525857 0.41081789 0
0.8400901 1.1500585 0.49380875 0
0.83676344 1.1428289 0.57947487 0
1.0694342 1.6956589 -0.04992938 0
0.93196213 1.386718 0.31941602 0
0.85293686 1.2091246 0.35002714 0
0.83631897 1.1717792 0.41721568 0
0.83850253 1.1766862 0.50561935 0
0.84219503 1.1849844 0.60357994 0
1.0504034 1.7013351 -0.049842734 0
0.91051382 1.3759931 0.31471583 0
0.85087729 1.2372961 0.35833949 0
0.83935976 1.2105097 0.43241215 0
0.83619404 1.2031472 0.5172863 0
0.83910179 1.2099097 0.61638772 0
1.0383718 1.7237201 -0.050411716 0
0.89563298 1.3798846 0.31415269 0
0.8532595 1.2778136 0.3710652 0
0.84012711 1.2461797 0.44614017 0
0.84018052 1.2463083 0.53795546 0
0.83664495 1.2377917 0.63105243 0
1.0128592 1.7135285 -0.049730863 0
0.88489807 1.3939862 0.31645006 0
0.84553796 1.295697 0.37560454 0
0.83624458 1.2724897 0.45562029 0
0.83604705 1.2719964 0.54907602 0
0.8408004 1.2838664 0.65728515 0
0.9973982 1.7280579 -0.05001165 0
0.86260426 1.3787724 0.31075639 0
0.85019964 1.3466288 0.39194205 0
0.83934307 1.3184967 0.47381768 0
0.8411454 1.3231668 0.5738371 0
0.84104562 1.3229084 0.67888701 0
0.97904831 1.7353891 -0.050024409 0
0.85048538 1.3893393 0.31218264 0
0.84308416 1.3694177 0.39819413 0
0.84147966 1.3650988 0.4921757 0
0.84001344 1.3611523 0.5914107 0
0.84342963 1.3703475 0.70569849 0
0.95794219 1.7350413 -0.049754769 0
0.83079636 1.3791419 0.30801836 0
0.83920813 1.4026877 0.4081527 0
0.84142685 1.4088981 0.50920719 0
0.8425315 1.4119903 0.61574173 0
0.94070113 1.7453817 -0.049899768 0
0.81552762 1.3805683 0.30707431 0
0.83850676 1.44754 0.42215952 0
0.83827299 1.4468586 0.52360976 0
0.83822048 1.4467057 0.6314227 0
0.92006689 1.7457489 -0.049677499 0
1.0297703 2.0790901 0.35055017 0
0.80240661 1.38823 0.30786076 0
0.840702 1.5045931 0.44038478 0
0.84053868 1.5040969 0.54637295 0
0.84041053 1.5037075 0.65880656 0
0.90211695 1.7541208 -0.049765501 0
1.006065 2.0839014 0.35006517 0
0.78553194 1.384249 0.30557388 0
0.84173775 1.5625647 0.4588486 0
0.84148353 1.5617583 0.56921726 0
0.83906037 1.5540706 0.68258482 0
0.88507909 1.7657448 -0.049982872 0
0.98340541 2.0919602 0.35025012 0
0.77246386 1.3921233 0.30651146 0
0.83847171 1.6111163 0.47396466 0
0.8410601 1.6197039 0.59209281 0
0.86537629 1.7686727 -0.049884383 0
0.96136206 2.102268 0.35091007 0
0.75443065 1.3830845 0.30299929 0
0.83737916 1.6713693 0.49309132 0
0.83864939 1.6757841 0.6140843 0
0.84758598 1.7783257 -0.050044388 0
0.738846 1.381675 0.047360953 0
0.73887092 1.381766 0.13051635 0
0.738042 1.3787422 0.21439061 0
0.73913157 1.3827167 0.30185324 0
0.83749962 1.7415335 0.51557583 0
0.83517039 1.7330374 0.63651663 0
0.82687676 1.7772402 -0.049815964 0
0.72387367 1.3820677 0.047236416 0
0.72635716 1.3915956 0.13118951 0
0.72352219 1.3807192 0.21405862 0
0.72467458 1.3851404 0.30149782 0
0.82930762 1.7865661 0.52934569 0
0.83102286 1.7931466 0.66011626 0
0.81034094 1.7923756 -0.050194401 0
0.71094042 1.3903511 0.047409404 0
0.70894986 1.3823 0.12976077 0
0.70785189 1.3778595 0.21286313 0
0.70998514 1.3864872 0.30090845 0
0.82556659 1.8539556 0.55077016 0
0.82442766 1.8493493 0.68199867 0
0.788831 1.7874335 -0.049843226 0
0.69488686 1.3858415 0.047118805 0
0.69336522 1.3793366 0.12905934 0
0.69451147 1.3842367 0.2134186 0
0.69253731 1.3757976 0.29721552 0
0.81761605 1.9104837 0.56843668 0
0.77122492 1.7990458 -0.050108176 0
0.68046474 1.387784 0.04707231 0
0.67939621 1.382942 0.12910445 0
0.67923027 1.38219 0.21244779 0
0.6783852 1.3783607 0.29705289 0
0.80486637 1.9514859 0.58079863 0
0.75120407 1.7999574 -0.04999036 0
0.66513628 1.3852088 0.04686784 0
0.6646589 1.3829083 0.12876934 0
0.66490996 1.3841181 0.21224713 0
0.66534919 1.3862348 0.29832107 0
0.79226136 1.9978065 0.59499013 0
0.73126006 1.8008446 -0.049881127 0
0.65180725 1.3921741 0.047017884 0
0.64949417 1.3802767 0.12817095 0
0.6481657 1.3734436 0.20976473 0
0.65044719 1.3851787 0.29730779 0
0.77724671 2.0373797 0.60691392 0
0.71234852 1.8070102 -0.049972787 0
0.63548231 1.3832283 0.046596367 0
0.63476562 1.3792771 0.12777308 0
0.63574827 1.3846945 0.2113454 0
0.63632232 1.3878593 0.29731449 0
0.76299953 2.0862613 0.62202185 0
0.69391793 1.8164397 -0.050191052 0
0.62222642 1.3907299 0.046778657 0
0.6210528 1.3837609 0.12799387 0
0.6203745 1.3797331 0.20998631 0
0.62161881 1.3871222 0.29648295 0
0.74665403 2.1295907 0.63528526 0
0.67257965 1.8081907 -0.049778551 0
0.60659999 1.383837 0.046446547 0
0.60810953 1.3935459 0.12880959 0
0.60657012 1.3836451 0.2102848 0
0.6073432 1.3886173 0.29627728 0
0.72972357 2.1757164 0.64953357 0
0.65270817 1.8081884 -0.049673889 0
0.59259385 1.3866628 0.046472616 0
0.59122753 1.3770821 0.12679209 0
0.59202367 1.3826647 0.2097232 0
0.59290111 1.3888172 0.29578459 0
0.70807087 2.1963952 0.6552763 0
0.6330443 1.809236 -0.04961621 0
0.57737261 1.3802865 0.046173722 0
0.57879072 1.3912131 0.12811647 0
0.57794982 1.3847338 0.20975041 0
0.57678914 1.3757908 0.29193673 0
0.68646729 2.2208598 0.66237122 0
0.61561573 1.8290652 -0.050242621 0
0.56278205 1.3775058 0.046011399 0
0.56319219 1.381011 0.12682302 0
0.56374234 1.3857133 0.20961197 0
0.56308925 1.3801316 0.29260784 0
0.66684252 2.2668915 0.67677116 0
0.59532911 1.825772 -0.050046127 0
0.55255365 1.4154835 0.13037965 0
0.55244881 1.4144773 0.21454419 0
0.55168837 1.4071836 0.29914811 0
0.64560294 2.3079834 0.68958265 0
0.57540643 1.8249687 -0.049948279 0
0.55248648 1.5745991 0.14739797 0
0.5514887 1.5636997 0.24131188 0
0.55116421 1.5601552 0.33797812 0
0.62154001 2.3289158 0.69573373 0
0.55576009 1.8268313 -0.049954996 0
0.60262293 2.4210751 0.23849899 0
0.59931445 2.3791218 0.38857648 0
0.59721124 2.3524518 0.54038996 0
0.53590804 1.8257059 -0.049863648 0
0.57380968 2.3982089 0.39167708 0
0.57352787 2.3939524 0.55051351 0
0.51623362 1.826751 -0.049858909 0
0.54877681 2.4342782 0.39790079 0
0.54806185 2.4209318 0.55699623 0
0.49715826 1.8424191 -0.050385524 0
0.52198249 2.4486763 0.4002665 0
0.52193648 2.4475529 0.56346607 0
0.47712126 1.8373796 -0.050180942 0
0.45635912 1.1047665 0.35409319 0
0.4564324 1.1073524 0.4279463 0
0.45726904 1.8351083 -0.050084252 0
0.44580686 1.1069828 0.35491437 0
0.44592199 1.1142958 0.43130371 0
0.43747482 1.8305999 -0.049916629 0
0.43513036 1.0861357 0.41716343 0
0.43512493 1.0844159 0.49232769 0
0.41775116 1.8308101 -0.049926348 0
0.42475799 1.0887671 0.41849631 0
0.42479393 1.0849611 0.4926703 0
0.39818361 1.8234833 -0.049675796 0
0.41403702 1.1040984 0.35376132 0
0.41405201 1.1034182 0.42591044 0
0.41456267 1.0802448 0.48996907 0
0.37811881 1.8355266 -0.050125882 0
0.35249883 2.5751491 0.42299557 0
0.35263854 2.5711157 0.59487712 0
0.4048582 1.0635878 0.48025751 0
0.35814592 1.8388319 -0.05027296 0
0.32237923 2.5957658 0.42693293 0
0.32252517 2.5926769 0.60068786 0
0.3954688 1.0489649 0.47182032 0
0.33851981 1.8345584 -0.050158087 0
0.29172844 2.6159787 0.43086886 0
0.29196918 2.6119583 0.60601717 0
0.38604164 1.0409395 0.46736661 0
0.31856546 1.835887 -0.050252475 0
0.26102796 2.6292143 0.43361646 0
0.26097059 2.6300051 0.61113399 0
0.30018649 1.8179035 -0.049664002 0
0.35500684 1.1744479 0.038608585 0
0.23022866 2.6390352 0.43581885 0
0.2301273 2.6402249 0.61435199 0
0.28088471 1.8135746 -0.049572907 0
0.19748649 2.6654978 0.4411099 0
0.19718574 2.6685698 0.62231994 0
0.25978759 1.8260312 -0.050093342 0
0.16537444 2.6795015 0.44422242 0
0.1667489 2.6670768 0.62274629 0
0.34738088 1.0342104 0.46533602 0
0.24009497 1.8240818 -0.050105914 0
0.13480754 2.6773944 0.4444856 0
0.13456877 2.6793296 0.62680531 0
0.22046325 1.8215963 -0.050108124 0
0.10310258 2.6833351 0.44628406 0
0.10240783 2.6884365 0.63016558 0
0.20099677 1.8179702 -0.050078083 0
0.068708524 2.7055824 0.45113197 0
0.069175944 2.7024462 0.63490123 0
0.18249686 1.8084881 -0.049845047 0
0.036192343 2.7119679 0.45317093 0
0.0364687 2.7102616 0.63815355 0
0.1622092 1.8101646 -0.050024349 0
0.0024690793 2.7235746 0.45624515 0
0.0033433901 2.7185752 0.64164871 0
0.14234053 1.8089093 -0.050106846 0
-0.029450906 2.7232323 0.45721179 0
-0.029925151 2.7257564 0.6449663 0
0.12392713 1.8001009 -0.04992361 0
-0.089786783 2.8635824 0.10065031 0
-0.089659885 2.862951 0.29085058 0
-0.060116306 2.7159364 0.45697561 0
-0.062132373 2.7259686 0.64658767 0
0.10288323 1.8041819 -0.050218925 0
-0.11487837 2.8213274 0.099355221 0
-0.11262055 2.8107815 0.28586218 0
-0.09473969 2.7272618 0.46024433 0
-0.096139267 2.733799 0.65030676 0
0.083555266 1.7997596 -0.050213456 0
-0.14289548 2.7960415 0.098689228 0
-0.14242209 2.7939591 0.28478694 0
-0.12800552 2.7305324 0.46211323 0
-0.12840112 2.7322729 0.65170032 0
0.067230299 1.7828579 -0.049758647 0
-0.17494781 2.7895148 0.098722987 0
-0.17566235 2.792485 0.28544641 0
-0.15870424 2.7219956 0.46187517 0
-0.16412301 2.7445197 0.65681875 0
0.048008814 1.778653 -0.049777627 0
-0.20949169 2.7926817 0.09912876 0
-0.20945401 2.7925334 0.2863231 0
-0.19254203 2.7259345 0.46402958 0
-0.19599219 2.739521 0.65753233 0
0.029652851 1.7711475 -0.049683619 0
-0.2517488 2.8235676 0.10057632 0
-0.25150532 2.8226569 0.29059574 0
-0.228727 2.7374678 0.46768841 0
-0.23134638 2.7472641 0.66171908 0
0.0082556475 1.7747014 -0.050007958 0
-0.26162165 2.7353809 0.46889395 0
-0.26117307 2.7337842 0.66041416 0
-0.010186894 1.7674037 -0.04993964 0
-0.29626477 2.7386158 0.47118226 0
-0.29383361 2.7303624 0.66187936 0
-0.028149022 1.7587007 -0.049827211 0
-0.32718408 2.7286701 0.47107413 0
-0.32906955 2.7347863 0.6655544 0
-0.046568826 1.7516669 -0.049785402 0
-0.36312455 2.734344 0.4739987 0
-0.35959804 2.7233968 0.66512448 0
-0.067365751 1.7517887 -0.050021641 0
-0.39277673 2.72001 0.47321483 0
-0.39338714 2.7218261 0.66743875 0
-0.085301653 1.7432263 -0.049940314 0
-0.42290193 2.7073421 0.47281712 0
-0.42504549 2.7134638 0.66804212 0
-0.10278691 1.7335856 -0.049826201 0
-0.45408016 2.6977115 0.47307318 0
-0.45782369 2.7079856 0.66953939 0
-0.12374289 1.7333283 -0.050078146 0
-0.48738092 2.6935701 0.47446463 0
-0.48948985 2.6991391 0.67023724 0
-0.14298512 1.728218 -0.050155263 0
-0.52032202 2.687969 0.47566113 0
-0.51868719 2.6838107 0.66927063 0
-0.15967877 1.7167052 -0.049995251 0
-0.55062884 2.6754513 0.47559729 0
-0.55023456 2.6744845 0.6700539 0
-0.17724617 1.7075422 -0.049933586 0
-0.57949591 2.6595356 0.47494233 0
-0.57939506 2.659297 0.66932768 0
-0.19785787 1.7054391 -0.050155286 0
-0.61201227 2.6521776 0.47603968 0
-0.61298358 2.6543977 0.67156446 0
-0.21390481 1.6928622 -0.049977958 0
-0.64061093 2.635778 0.4754343 0
-0.64187145 2.6385634 0.67086977 0
-0.23052932 1.6818075 -0.049867526 0
-0.66511917 2.6108217 0.47319317 0
-0.67306185 2.6278005 0.67170167 0
-0.24730314 1.6712338 -0.049783759 0
-0.70311391 2.6144814 0.47673184 0
-0.69970798 2.6074333 0.66992813 0
-0.26369244 1.6600145 -0.049682118 0
-0.72831881 2.5913846 0.4749963 0
-0.72940159 2.5935552 0.67008895 0
-0.28734434 1.6630559 -0.050160673 0
-0.75541925 2.572489 0.4741658 0
-0.75756669 2.5766613 0.66949242 0
-0.30224293 1.6488773 -0.049958445 0
-0.78579533 2.5600016 0.47470754 0
-0.78217781 2.5531852 0.6670928 0
-0.32157373 1.6430925 -0.050103996 0
-0.80298305 2.5232339 0.47034028 0
-0.80826795 2.532896 0.66569322 0
-0.33713788 1.6304072 -0.04997775 0
-0.62129736 2.1347358 0.082644269 0
-0.83825636 2.5197966 0.47288615 0
-0.83885729 2.5208633 0.66679728 0
-0.35543334 1.622601 -0.050060026 0
-0.61624622 2.0721626 0.080615394 0
-0.86776888 2.5057108 0.47332272 0
-0.86482406 2.5006349 0.66560537 0
-0.36833155 1.6056367 -0.049771652 0
-0.6241442 2.034059 0.079586051 0
-0.88199186 2.4658897 0.4684346 0
-0.88191891 2.4657674 0.66015124 0
-0.38703454 1.5985038 -0.049899761 0
-0.62075472 1.9789605 0.07784079 0
-0.91218936 2.4533668 0.46932423 0
-0.9089191 2.4480431 0.65985203 0
-0.40160167 1.58465 -0.04975497 0
-0.62103868 1.9319735 0.076422341 0
-0.93970096 2.4363501 0.46934316 0
-0.93701553 2.4320996 0.66019011 0
-0.41570586 1.5702651 -0.04959416 0
-0.61672986 1.879745 0.074769258 0
-0.95946407 2.4073904 0.46686801 0
-0.9634465 2.4135213 0.65983659 0
-0.43550879 1.564615 -0.049814537 0
-0.6229074 1.845317 0.07386402 0
-0.98078477 2.381377 0.46506462 0
-0.98388994 2.3860281 0.65684694 0
-0.45644867 1.560342 -0.0501072 0
-0.61749506 1.7951151 0.072271369 0
-0.99944603 2.3519228 0.46255153 0
-0.99768531 2.3493559 0.65107089 0
-0.4586724 1.529144 -0.049238008 0
-0.6191287 1.7568564 0.071183175 0
-1.0218837 2.3284283 0.46138254 0
-1.0234282 2.3306201 0.65089536 0
-0.48653024 1.5344096 -0.049968984 0
-0.61874616 1.7171147 0.070020571 0
-0.61777961 1.7157789 0.19853982 0
-1.0399162 2.2991159 0.45897034 0
-1.0420914 2.3021219 0.64774549 0
-0.077037588 0.96854454 0.44090205 0
-0.50490952 1.5260485 -0.050116289 0
-0.61933243 1.6800454 0.068965696 0
-0.6174041 1.6774502 0.19519411 0
-1.0623032 2.2762208 0.45802805 0
-1.0659697 2.2811556 0.64703429 0
-0.094911054 0.97424912 0.4484922 0
-0.51536655 1.5071247 -0.049801074 0
-0.61976337 1.6439937 0.067946658 0
-0.61755049 1.6410925 0.19208191 0
-1.0798014 2.2471249 0.45573387 0
-1.0847358 2.2535939 0.64429611 0
-0.093611255 0.95418388 0.44008026 0
-0.53563774 1.5010927 -0.050073195 0
-0.61884522 1.6073791 0.066892251 0
-0.61417258 1.6014103 0.18848538 0
-1.0975294 2.2188339 0.45365152 0
-1.0928321 2.2128336 0.63733035 0
-0.10589673 0.95215595 0.44303605 0
-0.55521792 1.493889 -0.050306063 0
-0.62072039 1.5754234 0.066039957 0
-0.6239146 1.5793993 0.18728252 0
-1.1136737 2.189028 0.45124891 0
-1.1094613 2.1837847 0.63415968 0
-0.12720086 0.96111369 0.45317134 0
-0.57288933 1.4841067 -0.050433401 0
-0.60493922 1.5229878 0.064232312 0
-0.62586534 1.5483742 0.18482865 0
-1.1269877 2.1563082 0.44818753 0
-1.1370877 2.168561 0.63559604 0
-0.13505693 0.95295233 0.45248511 0
-0.57799816 1.4593252 -0.04987115 0
-0.61997497 1.5089622 0.064191975 0
-0.62207055 1.5114403 0.18152036 0
-1.1380333 2.1215603 0.44465372 0
-1.1450795 2.1298923 0.62932968 0
-0.15456994 0.95862591 0.46092165 0
-0.59644341 1.4505173 -0.050060712 0
-0.61776745 1.4750983 0.063222483 0
-0.62266994 1.4807495 0.17905718 0
-1.1571015 2.0968058 0.44350013 0
-1.1594808 2.0995486 0.62584013 0
-0.61719429 1.4440949 -0.050377443 0
-0.63643444 1.4657174 0.063410766 0
-0.6289748 1.457334 0.17761394 0
-1.1716172 2.0671704 0.44121283 0
-1.1649742 2.0597048 0.61912841 0
-0.62585783 1.4240918 -0.050053991 0
-0.66560757 1.4676468 0.064159185 0
-0.65724373 1.4584823 0.17973943 0
-1.1786715 2.0298254 0.43706116 0
-1.1840539 2.0357232 0.6178419 0
-0.64016473 1.4104475 -0.050042946 0
-0.50835568 1.2696233 0.055156659 0
-0.68280363 1.4560026 0.1814082 0
-1.1915443 1.9995387 0.43462557 0
-1.1857772 1.9933772 0.61020613 0
-0.65398514 1.3963029 -0.050015874 0
-0.50267893 1.238674 0.054215293 0
-0.72397184 1.4692142 0.18548241 0
-1.2072749 1.9727132 0.43306595 0
-1.193058 1.9579022 0.60491502 0
-0.66987634 1.3842847 -0.050103661 0
-0.51326478 1.225188 0.054133475 0
-0.74706304 1.4626964 0.18670988 0
-1.2030467 1.9259158 0.4264825 0
-1.2071812 1.9301159 0.60234326 0
-0.67455161 1.3610646 -0.049634378 0
-0.52640957 1.2143143 0.054189857 0
-0.7818476 1.4673525 0.18970351 0
-1.2236494 1.9050033 0.42643464 0
-1.2210088 1.9023875 0.59982359 0
-0.69566965 1.3541833 -0.050001554 0
-0.54160976 1.2053671 0.054354418 0
-0.80930221 1.4639482 0.19155692 0
-1.2305996 1.870906 0.4230305 0
-1.22404 1.8645695 0.5936293 0
-0.7052871 1.3361095 -0.049804635 0
-0.55509013 1.1946368 0.054438252 0
-0.84392655 1.4666958 0.19445333 0
-1.2223593 1.8231469 0.41600993 0
-1.2314284 1.8316892 0.58920306 0
-0.7213856 1.3241723 -0.049935229 0
-0.8658421 1.4568453 0.068937577 0
-0.87140203 1.4619516 0.19626826 0
-1.2273858 1.7888972 0.41246685 0
-1.2324487 1.793547 0.58276606 0
-0.22943719 0.8723529 0.37813926 0
-0.73186481 1.3070753 -0.049802314 0
-0.90551138 1.4625723 0.070124045 0
-0.9096055 1.4662385 0.19961911 0
-1.2311504 1.7541755 0.40876302 0
-1.2416278 1.7635578 0.57936078 0
-0.23435231 0.86156279 0.37664554 0
-0.74491107 1.2923398 -0.049802773 0
-0.94316697 1.4654257 0.071198665 0
-1.2346094 1.7198676 0.40513176 0
-1.2450256 1.7289613 0.57416338 0
-0.23775823 0.84957343 0.37441376 0
-0.76012516 1.2794448 -0.049913604 0
-0.97741258 1.4643769 0.072100282 0
-1.2379363 1.6861072 0.40161079 0
-1.239621 1.687541 0.56621903 0
-0.23522045 0.83270127 0.36905673 0
-0.25478393 0.8493517 0.45758823 0
-0.77686656 1.2677113 -0.050101709 0
-1.0063968 1.458132 0.072749086 0
-1.2523744 1.6621978 0.4008303 0
-1.239001 1.6511031 0.56011719 0
-0.24968649 0.83035678 0.37301785 0
-0.78076029 1.2454147 -0.049704861 0
-1.0423928 1.4569635 0.073716871 0
-1.2445755 1.6204427 0.39497048 0
-1.2340497 1.6119319 0.55280727 0
-0.25774348 0.82251793 0.37354207 0
-0.80112565 1.2364496 -0.050073437 0
-1.0858152 1.4607728 0.075013317 0
-1.2536536 1.5930222 0.39316493 0
-1.238997 1.5814735 0.54894584 0
-0.2667141 0.81535619 0.37459508 0
-0.81006932 1.2183838 -0.049929488 0
-1.1314446 1.4651188 0.076394469 0
-1.257199 1.5616664 0.39019769 0
-1.2418193 1.5498586 0.54456204 0
-0.2622627 0.79780674 0.36867914 0
-0.2572943 0.79399228 0.44114423 0
-0.81876254 1.2002535 -0.049785916 0
-1.1616211 1.4566858 0.077071302 0
-1.2544568 1.5261198 0.38593155 0
-1.2416415 1.516535 0.53939092 0
-0.26760471 0.78802913 0.36799693 0
-0.27813357 0.79590392 0.45003226 0
-0.82879078 1.1832172 -0.049712751 0
-1.2065917 1.4584345 0.078400113 0
-1.2416002 1.483937 0.37954792 0
-1.238472 1.4816582 0.53345573 0
-1.233036 1.4776983 0.69156897 0
-0.2587986 0.76799423 0.36013699 0
-0.27278244 0.77818102 0.44261181 0
-0.84811807 1.1728368 -0.0500567 0
-1.2548435 1.4613564 0.079859771 0
-1.2582629 1.4637821 0.37986624 0
-1.2367154 1.4484969 0.5281533 0
-1.2377696 1.4492447 0.68732202 0
-0.27623004 0.76715547 0.36579454 0
-0.27952355 0.76949179 0.44281274 0
-0.85321796 1.1523322 -0.049786083 0
-1.3061101 1.4651046 0.081435993 0
-1.2492173 1.4258137 0.374603 0
-1.2474585 1.4245991 0.52690244 0
-1.243557 1.4219047 0.68368345 0
-0.27958626 0.75617594 0.43901789 0
-0.86971271 1.1397132 -0.050019074 0
-1.2846727 1.4186382 0.07986939 0
-1.2740139 1.4114736 0.22698407 0
-1.2478092 1.3938595 0.37114814 0
-1.2336599 1.3843488 0.51821065 0
-1.2426463 1.3903892 0.67752916 0
-0.29438937 0.75299621 0.44424304 0
-0.87755561 1.1212353 -0.049887873 0
-1.2773807 1.3827389 0.078944132 0
-1.2718986 1.3791535 0.22487506 0
-1.2577119 1.3698747 0.37024614 0
-1.2417861 1.3594584 0.51642919 0
-1.2426759 1.3600404 0.67195743 0
-0.30385625 0.74601001 0.44625905 0
-0.8988024 1.1113912 -0.050334785 0
-1.2739431 1.3500606 0.078208558 0
-1.2687007 1.3467253 0.22269705 0
-1.2514505 1.3357506 0.36596102 0
-1.2474698 1.333218 0.51401854 0
-1.2369041 1.326496 0.664294 0
-0.29677415 0.72837287 0.43849757 0
-0.90034664 1.0889834 -0.049956314 0
-1.2971214 1.3344539 0.0786134 0
-1.287871 1.3287309 0.22341447 0
-1.2483312 1.3042691 0.36246693 0
-1.241053 1.2997664 0.50809586 0
-1.2427729 1.3008304 0.6614098 0
-0.91500223 1.0747684 -0.050138719 0
-1.300209 1.306427 0.07818643 0
-1.315882 1.3158525 0.22526368 0
-1.2457747 1.2736909 0.35920146 0
-1.2371917 1.2685291 0.50310451 0
-1.2318462 1.2653145 0.65215296 0
-0.91439986 1.0514846 -0.049696296 0
-1.3283917 1.2934089 0.078814924 0
-1.3397541 1.3000487 0.22660442 0
-1.2498058 1.2474858 0.35741666 0
-1.2402866 1.241923 0.50032198 0
-1.2386272 1.2409533 0.6499604 0
-0.93008149 1.0377986 -0.04993758 0
-1.3755016 1.2906196 0.080222689 0
-1.3810825 1.2937874 0.23011746 0
-1.249105 1.2188767 0.35473195 0
-1.2383347 1.2127635 0.49617738 0
-1.238434 1.2128198 0.64523315 0
-0.93721294 1.0192033 -0.049835719 0
-1.2384824 1.1852238 0.35009718 0
-1.2372078 1.1845214 0.49240908 0
-1.2291332 1.1800718 0.63721406 0
-0.94825804 1.0027786 -0.049902499 0
-1.2627182 1.1709415 0.35270959 0
-1.2434577 1.1606417 0.49090359 0
-1.2381691 1.1578134 0.63632286 0
-0.95014119 0.98154521 -0.049608711 0
-1.2612128 1.1428925 0.35011199 0
-1.2367916 1.1302257 0.48578244 0
-1.244419 1.1341819 0.63449866 0
-0.9665215 0.96782953 -0.049906809 0
-1.2753404 1.1231055 0.35075799 0
-1.2407004 1.1056883 0.48382315 0
-1.2434506 1.1070712 0.63010931 0
-0.97455072 0.94980848 -0.049878325 0
-1.2841746 1.1006354 0.35038829 0
-1.2383236 1.0783 0.48018003 0
-1.2403948 1.079309 0.62510097 0
-0.97985721 0.93052202 -0.049751524 0
-1.2963843 1.0798103 0.35075045 0
-1.2327037 1.0497756 0.47574118 0
-1.235831 1.0512506 0.61969656 0
-0.98440397 0.91098374 -0.049605187 0
-1.3045057 1.0570595 0.3503522 0
-1.2326552 1.0242711 0.47299123 0
-1.2432513 1.0291066 0.61883527 0
-0.99813116 0.89560539 -0.049827531 0
-1.3172313 1.0363969 0.35092038 0
-1.2441077 1.0041337 0.47355357 0
-1.2360055 1.000559 0.61274725 0
-1.0125875 0.880364 -0.050084516 0
-1.3143405 1.0089873 0.3484751 0
-1.2355663 0.97540951 0.46863821 0
-1.2456771 0.97971928 0.61294055 0
-1.0191789 0.86168712 -0.050043978 0
-1.3316895 0.99027056 0.35005704 0
-1.2353787 0.95064318 0.46615303 0
-1.2393177 0.95226389 0.6074602 0
-1.0154724 0.83895147 -0.049617164 0
-1.3379229 0.96690136 0.34952027 0
-1.2524166 0.93297207 0.46849412 0
-1.2417049 0.92872161 0.60526198 0
-1.0372956 0.82629472 -0.050179139 0
-1.3467942 0.94461685 0.3495523 0
-1.2295382 0.89978957 0.45998213 0
-1.2382847 0.90313333 0.60111159 0
-1.0450357 0.80803061 -0.050208863 0
-1.3585694 0.92339188 0.35019627 0
-1.235355 0.87805659 0.45942429 0
-1.2292722 0.87581843 0.5951125 0
-1.0500309 0.78877008 -0.050143238 0
-1.3617181 0.89901632 0.3492384 0
-1.233766 0.85375863 0.45693892 0
-1.2357768 0.8544699 0.59473753 0
-1.0642476 0.77268672 -0.050434742 0
-1.3814499 0.88040966 0.35150173 0
-1.2478234 0.83502966 0.45876262 0
-1.2395524 0.83222079 0.59349996 0
-1.0564775 0.74922454 -0.049907152 0
-1.3948897 0.85941786 0.35260692 0
-1.2405845 0.80917317 0.45492813 0
-1.2349558 0.80734038 0.58943641 0
-1.0670049 0.73185307 -0.05007695 0
-1.3848542 0.83094198 0.34932312 0
-1.2443756 0.787148 0.45414349 0
-1.2401677 0.78583622 0.58891624 0
-1.0671966 0.71127343 -0.049869247 0
-1.3917456 0.80798447 0.34930459 0
-1.2429192 0.76363635 0.45203882 0
-1.2455778 0.76442856 0.58856106 0
-1.0756283 0.69318569 -0.049977753 0
-1.4105684 0.78841817 0.35157755 0
-1.2424642 0.74062169 0.45028594 0
-1.2447356 0.7412675 0.58613801 0
-1.0797913 0.67385966 -0.049936451 0
-1.4113269 0.76362801 0.35051373 0
-1.2368253 0.71637905 0.44724557 0
-1.2338191 0.71556503 0.58035153 0
-1.0917931 0.65657735 -0.050193235 0
-1.4182394 0.74057066 0.35065758 0
-1.2388184 0.69440639 0.4463062 0
-1.2412033 0.69501996 0.58098197 0
-1.1004096 0.63827968 -0.050332844 0
-1.4155583 0.71514869 0.34907404 0
-1.2408518 0.67253536 0.44545299 0
-1.2342805 0.67093253 0.57679981 0
-1.0972545 0.617163 -0.050049208 0
-1.4205109 0.69171011 0.34896731 0
-1.2474376 0.65179718 0.44586647 0
-1.2420474 0.65055412 0.57774901 0
-1.0980237 0.59710097 -0.049919445 0
-1.4263316 0.66847163 0.34907562 0
-1.246419 0.6293605 0.44436166 0
-1.2430192 0.62862146 0.57646954 0
-1.1017795 0.57773912 -0.049908064 0
-1.4371519 0.64623493 0.35015789 0
-1.2376637 0.60549182 0.44091976 0
-1.2345669 0.60485935 0.57208723 0
-1.1089162 0.55902851 -0.050028473 0
-1.4446787 0.62321097 0.35068429 0
-1.2396742 0.58402348 0.44036072 0
-1.2345679 0.58304739 0.5706802 0
-1.1200094 0.54093331 -0.050300647 0
-1.4558399 0.60075587 0.35192844 0
-1.2361887 0.5616287 0.43844879 0
-1.2408192 0.56245351 0.57148141 0
-1.1058621 0.5184713 -0.049667172 0
-1.4464506 0.57472652 0.34946531 0
-1.2341411 0.5396592 0.43698567 0
-1.2365344 0.5400545 0.56881571 0
-1.1162052 0.50018704 -0.049929552 0
-1.4547782 0.5517388 0.35029879 0
-1.2414649 0.51925933 0.43801528 0
-1.2439277 0.51963431 0.57018018 0
-1.114417 0.48002169 -0.049762491 0
-1.4459456 0.52623749 0.34805882 0
-1.2391864 0.49741483 0.43663582 0
-1.2541108 0.49949533 0.57256573 0
-1.1261646 0.46168539 -0.050091941 0
-1.4686151 0.50503546 0.35160753 0
-1.2442232 0.47663018 0.43721059 0
-1.2470143 0.47698352 0.56923801 0
-1.1308287 0.44230589 -0.050174702 0
-0.51597041 0.37232628 0.040081754 0
-0.50747699 0.37135962 0.10767544 0
-0.51025945 0.3716763 0.17713082 0
-1.2368387 0.45437133 0.43466228 0
-1.2373397 0.45442837 0.56514674 0
-1.1291806 0.42222655 -0.050039615 0
-0.51545656 0.36019307 0.04001724 0
-0.51494128 0.36014101 0.10834423 0
-0.50623178 0.35926068 0.17616938 0
-1.2342424 0.43284589 0.43341699 0
-1.2347411 0.43289629 0.56352186 0
-1.126225 0.40212414 -0.049866889 0
-0.51506251 0.34811422 0.10823533 0
-0.5119735 0.34784123 0.17700608 0
-1.2402554 0.41220129 0.43444756 0
-1.2488335 0.41295937 0.56756407 0
-1.1246632 0.38224629 -0.049753297 0
-0.50400096 0.33526465 0.10693761 0
-0.52069914 0.33652863 0.1784077 0
-1.2315769 0.39033926 0.43178478 0
-1.2495391 0.39169893 0.56721973 0
-1.1365824 0.3632955 -0.050130993 0
-0.51289266 0.3239758 0.10780697 0
-0.50714266 0.32361329 0.17580743 0
-1.2485844 0.3703565 0.4357608 0
-1.2439247 0.37006274 0.56485814 0
-1.2378055 0.36967698 0.69895703 0
-1.1281472 0.34304872 -0.049789391 0
-0.51560777 0.3121697 0.10802644 0
-0.51752388 0.31226632 0.17756079 0
-1.2450331 0.34894112 0.43454677 0
-1.22912 0.3481389 0.5595274 0
-1.2336453 0.34836704 0.69673765 0
-1.1401649 0.32381296 -0.050187767 0
-0.50978303 0.29998752 0.10734337 0
-0.52661359 0.30062363 0.17910604 0
-1.2430644 0.32770208 0.43380621 0
-1.2369704 0.32747176 0.5618338 0
-1.2451524 0.32778099 0.70112187 0
-0.36249816 0.29442084 0.47783384 0
-1.1357672 0.30387947 -0.050008439 0
-0.39982688 0.28534034 0.35074016 0
-0.40400583 0.2854456 0.42469153 0
-0.38503492 0.28496772 0.49101639 0
-1.1320058 0.28407735 -0.04986082 0
-0.39756733 0.27482718 0.42137024 0
-0.37656075 0.27456263 0.48587504 0
-1.1391678 0.26437625 -0.05011208 0
-0.39382893 0.26437426 0.41946685 0
-0.37745774 0.26437423 0.48636892 0
-0.90592414 -0.98929477 -0.09180174 0
-1.0103897 -0.98929501 -0.089521013 0
-1.1279956 -0.98929536 -0.084577329 0
-1.1397623 -0.98929536 -0.059342641 0
-1.1259682 -0.98929536 -0.030739089 0
-1.1162658 -0.9892953 -0.0033131742 0
-1.1291356 -0.98929536 0.021965059 0
-1.115966 -0.9892953 0.048971631 0
-1.1256028 -0.98929536 0.074776977 0
-1.1338909 -0.98929536 0.1010028 0
-1.1268733 -0.98929536 0.12725779 0
-1.1232656 -0.9892953 0.15337333 0
-1.1238563 -0.98929536 0.1796712 0
-1.1278619 -0.98929536 0.20640136 0
-1.1261564 -0.98929536 0.23276713 0
-1.128571 -0.98929536 0.25977644 0
-1.1275522 -0.98929536 0.28651142 0
-1.1316276 -0.98929536 0.31436405 0
-0.88933051 -1.0117651 -0.088334836 0
-1.0140167 -1.0149124 -0.090265058 0
-1.1402225 -1.0180981 -0.086646579 0
-1.1401209 -1.0180955 -0.059444103 0
-1.1302427 -1.0178461 -0.031280775 0
-1.1326859 -1.0179079 -0.0048795398 0
-1.1335323 -1.0179292 0.021632427 0
-1.1296679 -1.0178317 0.048316974 0
-1.1287178 -1.0178076 0.074696191 0
-1.1322613 -1.0178971 0.10100276 0
-1.1248056 -1.0177089 0.12721795 0
-1.1366827 -1.0180087 0.15401562 0
-1.1309944 -1.0178652 0.18019585 0
-1.1351216 -1.0179693 0.20711321 0
-1.1381021 -1.0180446 0.23420638 0
-1.1266681 -1.0177559 0.25955939 0
-1.1272253 -1.0177699 0.28651676 0
-1.1293228 -1.017823 0.31399763 0
-0.90410691 -1.0350106 -0.091660745 0
-1.0138599 -1.0405545 -0.090418316 0
-1.1341897 -1.0466328 -0.085833214 0
-1.1359278 -1.0467205 -0.05900747 0
-1.2294245 -1.0514433 -0.043013711 0
-1.2463893 -1.0523002 -0.015607392 0
-1.242192 -1.0520883 0.013950543 0
-1.2378606 -1.0518694 0.04322334 0
-1.2380162 -1.0518773 0.07212659 0
-1.2431048 -1.0521344 0.10100596 0
-1.2533383 -1.0526513 0.13024266 0
-1.2361594 -1.0517836 0.15870903 0
-1.2292339 -1.0514337 0.18715388 0
-1.2383528 -1.0518943 0.21686856 0
-0.90689594 -1.058153 -0.092562608 0
-1.0167257 -1.0664834 -0.091264986 0
-1.1297752 -1.0750581 -0.085403599 0
-1.12312 -1.0745533 -0.05745757 0
-1.2504557 -1.0842116 -0.045708481 0
-1.245289 -1.0838196 -0.01569037 0
-1.2399865 -1.0834174 0.013966339 0
-1.2404268 -1.0834508 0.043011397 0
-1.2395744 -1.0833862 0.072044238 0
-1.2334826 -1.0829241 0.10100574 0
-1.2440752 -1.0837276 0.13007283 0
-1.2469389 -1.0839448 0.15930505 0
-1.2412317 -1.0835119 0.18813322 0
-1.244755 -1.0837791 0.21765316 0
-0.89304924 -1.0798403 -0.090037219 0
-1.0187505 -1.0925716 -0.092078365 0
-1.1571757 -1.1065915 -0.09034688 0
-1.2392983 -1.1149089 -0.074222617 0
-1.2331254 -1.1142838 -0.044000793 0
-1.221913 -1.1131482 -0.01375827 0
-1.2348286 -1.1144563 0.014134141 0
-1.2437261 -1.1153574 0.042727351 0
-1.2330252 -1.1142737 0.07213258 0
-1.2455763 -1.1155448 0.10100617 0
-1.2407151 -1.1150525 0.13005923 0
-1.2364818 -1.1146237 0.15894562 0
-1.2451762 -1.1155043 0.18860562 0
-1.9886353 -1.1908029 0.28774649 0
-2.0027561 -1.1922331 0.33646756 0
-1.9392104 -1.1857971 0.37514207 0
-1.4707168 -1.1383474 0.37967041 0
-0.90235692 -1.1038752 -0.092582025 0
-1.0101417 -1.117547 -0.091000281 0
-1.1523023 -1.1355793 -0.090090908 0
-1.2023805 -1.1419315 -0.069497727 0
-1.235273 -1.1461037 -0.044671614 0
-1.2325174 -1.1457542 -0.015086686 0
-1.2365323 -1.1462635 0.013763817 0
-1.240654 -1.1467863 0.042703662 0
-1.2361264 -1.1462121 0.071976781 0
-1.2409964 -1.1468297 0.10100614 0
-1.2412776 -1.1468655 0.13015628 0
-1.2428806 -1.1470687 0.15941337 0
-1.2356056 -1.1461459 0.1881832 0
-1.6072592 -1.1932883 0.36749867 0
-1.4786806 -1.1769788 0.38198611 0
-0.89734566 -1.126351 -0.092187978 0
-1.0053697 -1.1428324 -0.090768941 0
-1.1388634 -1.1631999 -0.088531338 0
-1.2085129 -1.1738265 -0.070971467 0
-1.624158 -1.2372423 -0.091162153 0
-2.5526395 -1.3789028 -0.14014307 0
-3.4240322 -1.5118531 -0.14124069 0
-5.1287541 -1.7719462 -0.14060591 0
-10.278647 -2.5576768 -0.14080122 0
-1.3489262 -1.1952496 0.29295304 0
-1.3473963 -1.1950161 0.32522136 0
-1.360642 -1.1970371 0.36048141 0
-0.88474548 -1.147392 -0.090275742 0
-1.0081176 -1.1694138 -0.092097171 0
-1.1473793 -1.1942718 -0.090746172 0
-1.2013538 -1.2039062 -0.070669092 0
-1.6263635 -1.2797698 -0.092228122 0
-2.5491159 -1.4444797 -0.14081812 0
-3.397198 -1.5958612 -0.14034879 0
-5.1185684 -1.9031233 -0.14113529 0
-10.232197 -2.8158984 -0.14071602 0
-1.3349787 -1.227758 0.29176465 0
-1.3288276 -1.2266601 0.32305881 0
-1.3196084 -1.2250144 0.35371423 0
-0.88014859 -1.1696225 -0.090205036 0
-1.0003154 -1.1942159 -0.09153267 0
-1.1409292 -1.2229939 -0.090593092 0
-1.1939651 -1.2338481 -0.070440866 0
-1.6168554 -1.3203967 -0.092029966 0
-2.5263426 -1.506532 -0.13981995 0
-3.3930318 -1.6839082 -0.14122079 0
-5.0851264 -2.0302117 -0.14071925 0
-10.187817 -3.0745261 -0.14083385 0
-1.2505963 -1.2454382 0.31100631 0
-1.2345279 -1.2421497 0.33857659 0
-0.8718856 -1.1910036 -0.089456178 0
-0.99466193 -1.2193762 -0.091500886 0
-1.134204 -1.2516233 -0.090514623 0
-1.1854141 -1.2634575 -0.07015235 0
-1.6011033 -1.3595201 -0.091204338 0
-2.5128534 -1.5702184 -0.13985498 0
-3.3670554 -1.7676179 -0.14069198 0
-5.0516586 -2.1569169 -0.14045238 0
-10.126225 -3.3296099 -0.14069697 0
-0.87634927 -1.2154971 -0.091614194 0
-0.98905659 -1.244557 -0.091601439 0
-1.1254448 -1.2797227 -0.090212665 0
-1.3304555 -1.3325818 -0.092261083 0
-1.5820019 -1.3974392 -0.090087883 0
-1.9894645 -1.5024974 -0.090893991 0
-3.343703 -1.8516676 -0.14050122 0
-5.0242457 -2.2849705 -0.14062814 0
-10.059291 -3.5831823 -0.14058508 0
-0.87284911 -1.2382693 -0.092163764 0
-0.98018628 -1.2688527 -0.091187306 0
-1.1198008 -1.3086329 -0.09056171 0
-1.308273 -1.3623339 -0.090347223 0
-1.580735 -1.4399661 -0.091246612 0
-1.9713907 -1.551275 -0.090458073 0
-3.3210454 -1.9358298 -0.14051327 0
-4.9841924 -2.4097075 -0.14034921 0
-9.9983377 -3.8383796 -0.14077112 0
-0.86170691 -1.258806 -0.091143362 0
-0.97447675 -1.2940369 -0.091514163 0
-1.1087376 -1.3359818 -0.090105556 0
-1.3011976 -1.3961091 -0.090752669 0
-1.5714338 -1.4805347 -0.091561697 0
-1.9572411 -1.6010662 -0.090522371 0
-3.29878 -2.0201817 -0.14070913 0
-4.95156 -2.5365334 -0.14058299 0
-9.9293756 -4.0916729 -0.14091988 0
-0.8552236 -1.2806878 -0.091276161 0
-0.96242797 -1.3171734 -0.090708517 0
-1.0967454 -1.3628864 -0.089603566 0
-1.2864698 -1.4274566 -0.090151601 0
-1.5662595 -1.5226793 -0.09251488 0
-1.9464459 -1.6520706 -0.091041394 0
-3.2668822 -2.1014633 -0.14035194 0
-4.9105434 -2.6608613 -0.14056323 0
-9.8470898 -4.3409486 -0.14089903 0
-0.84857601 -1.3025581 -0.091497548 0
-0.95049697 -1.3401407 -0.090035714 0
-1.0891168 -1.3912559 -0.089979656 0
-1.2712011 -1.4583981 -0.089581899 0
-1.5313352 -1.5543207 -0.089903049 0
-1.9238584 -1.6990609 -0.090519585 0
-3.2365162 -2.1830943 -0.14025773 0
-4.8647304 -2.7834866 -0.14046031 0
-9.7599173 -4.588553 -0.14091213 0
-0.82621175 -1.3182503 -0.088251568 0
-0.94987017 -1.3674271 -0.091764398 0
-1.0819162 -1.4199396 -0.090561263 0
-1.2598952 -1.4907188 -0.089723311 0
-1.5219378 -1.5949287 -0.090575524 0
-1.9082023 -1.7485397 -0.090807371 0
-3.2132068 -2.2675178 -0.14084771 0
-4.82796 -2.909678 -0.14096373 0
-9.6587534 -4.8308029 -0.14073087 0
-0.81776166 -1.3390646 -0.08827772 0
-0.92713237 -1.3857888 -0.089123376 0
-1.0783863 -1.4504061 -0.091933943 0
-1.245064 -1.5216125 -0.089451559 0
-1.5078584 -1.633881 -0.090789832 0
-1.8887511 -1.7966021 -0.090839155 0
-3.187144 -2.3512886 -0.14139593 0
-4.7706203 -3.0277658 -0.14059168 0
-9.5641489 -5.0756092 -0.14086729 0
-0.81270033 -1.3614514 -0.0892184 0
-0.92369062 -1.4122162 -0.090543725 0
-1.0500525 -1.4700117 -0.088978 0
-1.2373551 -1.5556804 -0.090397112 0
-1.4972484 -1.6745505 -0.091578163 0
-1.8751183 -1.847381 -0.091592319 0
-3.1392605 -2.4255753 -0.14043468 0
-4.7228355 -3.1498721 -0.14085619 0
-9.453989 -5.3138103 -0.1407647 0
-0.80919486 -1.3848623 -0.090671621 0
-0.91777921 -1.4378793 -0.091603003 0
-1.0430518 -1.4990445 -0.089977153 0
-1.2175448 -1.5842417 -0.089595519 0
-1.4796991 -1.7122402 -0.091606431 0
-1.8429905 -1.8896195 -0.090566061 0
-3.1101537 -2.5083196 -0.14106731 0
-4.6649294 -3.2674482 -0.14075832 0
-9.3450813 -5.5525608 -0.14084786 0
-0.80316669 -1.4073668 -0.091680311 0
-0.90397298 -1.4597762 -0.09113694 0
-1.0256252 -1.5230235 -0.089193098 0
-1.2052734 -1.6164228 -0.090090908 0
-1.4520354 -1.744715 -0.090427272 0
-1.8274976 -1.9399184 -0.091387711 0
-3.0648732 -2.5832324 -0.14059742 0
-4.6033602 -3.3830948 -0.14062172 0
-9.2228765 -5.78479 -0.14074059 0
-0.79256499 -1.427635 -0.091729544 0
-0.89116472 -1.4821004 -0.090997212 0
-1.0141457 -1.5500338 -0.089627542 0
-1.1785313 -1.6408386 -0.088399522 0
-1.4295452 -1.779496 -0.090031035 0
-1.7957066 -1.9817597 -0.090617426 0
-3.018719 -2.6573384 -0.14020117 0
-4.5445032 -3.5001655 -0.14078164 0
-9.1060467 -6.0199132 -0.14092922 0
-0.78369606 -1.4489485 -0.092331477 0
-0.87346071 -1.5015322 -0.089908816 0
-1.0009567 -1.5762188 -0.089871772 0
-1.1714535 -1.676095 -0.089985393 0
-1.4093076 -1.8154289 -0.090052091 0
-1.7749249 -2.0296059 -0.091140039 0
-2.9800375 -2.7355549 -0.14055492 0
-4.4807973 -3.6146932 -0.1408406 0
-8.9799557 -6.2502794 -0.14102989 0
-0.76045203 -1.4615319 -0.089480899 0
-0.85846037 -1.5223172 -0.089510404 0
-0.99103934 -1.6045431 -0.090879418 0
-1.1631433 -1.7112827 -0.091538481 0
-1.3897107 -1.8518007 -0.090285383 0
-1.7427125 -2.0707338 -0.090547062 0
-2.9397342 -2.8131313 -0.14094202 0
-4.4047856 -3.7217619 -0.14038353 0
-8.8410387 -6.4731441 -0.14093912 0
-0.75382721 -1.4842209 -0.090887211 0
-0.8506757 -1.5477252 -0.090847753 0
-0.97995156 -1.6324922 -0.091813214 0
-1.1319728 -1.7321737 -0.089423828 0
-1.3714322 -1.8891889 -0.090834089 0
-1.7278308 -2.1228819 -0.091993518 0
-2.8856606 -2.8820789 -0.1403468 0
-4.341548 -3.8367143 -0.14077921 0
-8.7001591 -6.6946864 -0.1409474 0
-0.74115163 -1.5031439 -0.090900727 0
-0.83115673 -1.5654639 -0.089666076 0
-0.96786368 -1.6601205 -0.09270338 0
-1.1168773 -1.7632983 -0.090109088 0
-1.3455714 -1.9216472 -0.090447627 0
-1.6906493 -2.1605809 -0.09108191 0
-2.8489118 -2.9625673 -0.14136097 0
-4.2596235 -3.9393511 -0.14028667 0
-8.5418797 -6.9044061 -0.14062056 0
-0.72431058 -1.5190463 -0.089942627 0
-0.81946659 -1.5885491 -0.090391956 0
-0.94339794 -1.6790695 -0.091231562 0
-1.1069014 -1.7984939 -0.091833524 0
-1.3269972 -1.9592537 -0.091226079 0
-1.6558663 -2.1994624 -0.090539612 0
-2.795681 -3.0319924 -0.14114144 0
-4.1935496 -4.0530071 -0.14084676 0
-8.4023619 -7.1271582 -0.1409789 0
-0.70527041 -1.5329871 -0.088482507 0
-0.80612588 -1.6106296 -0.090876929 0
-0.92602575 -1.7029332 -0.091300465 0
-1.0906875 -1.8296963 -0.09264151 0
-1.3067101 -1.995999 -0.091905855 0
-1.6230769 -2.2395504 -0.090336047 0
-2.7348444 -3.0954325 -0.14039974 0
-4.108604 -4.1530061 -0.14047603 0
-8.2430811 -7.3358879 -0.14092782 0
-0.7071079 -1.5634284 -0.092800878 0
-0.78864789 -1.6295437 -0.090502508 0
-0.90657699 -1.7251644 -0.091057606 0
-1.0651681 -1.8537552 -0.091923647 0
-1.2763033 -2.0249505 -0.091215171 0
-1.6021326 -2.2891436 -0.09167207 0
-2.6811035 -3.1640081 -0.14042403 0
-4.0355854 -4.2622662 -0.14096233 0
-8.0757675 -7.538177 -0.14079137 0
-0.68425232 -1.5741599 -0.09052489 0
-0.77692235 -1.6532573 -0.091661416 0
-0.88946545 -1.7493173 -0.091434486 0
-1.0375104 -1.8756794 -0.090906121 0
-1.2463547 -2.0539362 -0.090690993 0
-1.5620306 -2.3233778 -0.090838172 0
-2.6303301 -3.2352128 -0.14087905 0
-3.9453385 -4.3576236 -0.14057173 0
-7.9108171 -7.7423134 -0.14087865 0
-0.6736306 -1.5951723 -0.09176863 0
-0.76187468 -1.6744266 -0.092155717 0
-0.86107957 -1.7635251 -0.08946263 0
-1.0213373 -1.9074568 -0.092138089 0
-1.2213726 -2.0871136 -0.09104868 0
-1.5290619 -2.3634572 -0.090987377 0
-2.5770826 -3.3047116 -0.14127907 0
-3.8594785 -4.4564643 -0.14059567 0
-7.7244034 -7.9276524 -0.14045647 0
-0.65216601 -1.6063668 -0.090024926 0
-0.74305022 -1.6922325 -0.091820173 0
-0.8464213 -1.7898954 -0.090627231 0
-0.99762994 -1.9327545 -0.092096366 0
-1.1911711 -2.1156085 -0.090708889 0
-1.4886239 -2.3966362 -0.090309434 0
-1.9840616 -2.8647163 -0.089942284 0
-3.7802365 -4.5617075 -0.14120199 0
-7.5542254 -8.1273003 -0.14069134 0
-0.63260794 -1.6188927 -0.088891961 0
-0.72471112 -1.710417 -0.091722883 0
-0.82154304 -1.8066404 -0.089605786 0
-0.95041984 -1.9347073 -0.087522171 0
-1.1616801 -2.1446397 -0.090594642 0
-1.457171 -2.4382737 -0.090905525 0
-1.9260478 -2.9042039 -0.088950507 0
-3.6828351 -4.64995 -0.14080413 0
-7.3783426 -8.3222332 -0.14090838 0
-0.62393284 -1.6424249 -0.091170959 0
-0.70920467 -1.7315483 -0.092518233 0
-0.80592149 -1.8326336 -0.090856932 0
-0.94024903 -1.9730284 -0.090365268 0
-1.1361612 -2.1777894 -0.091271199 0
-1.4159808 -2.470248 -0.090342946 0
-1.8779713 -2.9531052 -0.089036666 0
-3.5879195 -4.7402878 -0.14071114 0
-7.1887636 -8.5037737 -0.14083397 0
-0.60464698 -1.655117 -0.090347163 0
-0.68717802 -1.7458524 -0.091658108 0
-0.77881861 -1.8466028 -0.089497007 0
-0.91794527 -1.9995596 -0.090953507 0
-1.1102279 -2.2109568 -0.092038162 0
-1.3818004 -2.5095258 -0.090847425 0
-1.8509678 -3.025332 -0.091441222 0
-3.4913642 -4.8287964 -0.14065777 0
-6.998426 -8.6844883 -0.14088748 0
-0.58992529 -1.672812 -0.091085143 0
-0.6647917 -1.7594132 -0.090771504 0
-0.76259655 -1.8725483 -0.090918623 0
-0.8930766 -2.0234804 -0.091149904 0
-1.066197 -2.2237365 -0.089741163 0
-1.3418925 -2.5426457 -0.090688892 0
-1.7916878 -3.0629439 -0.090658836 0
-3.3872855 -4.9086418 -0.14022407 0
-6.8016214 -8.8581553 -0.1408726 0
-0.57773077 -1.6938825 -0.092839845 0
-0.64196461 -1.7720891 -0.089826547 0
-0.73820931 -1.8892698 -0.09043733 0
-0.87132746 -2.0513451 -0.092174865 0
-1.0438364 -2.2613797 -0.091421492 0
-1.3063586 -2.5810082 -0.091289841 0
-1.7356174 -3.1036432 -0.090308614 0
-3.2900705 -4.9962344 -0.14042597 0
-6.5992355 -9.025239 -0.14081101 0
-0.54825324 -1.6934943 -0.088859625 0
-0.62197757 -1.7880213 -0.089816876 0
-0.71088809 -1.9020195 -0.089267202 0
-0.83866632 -2.0658526 -0.090898208 0
-0.99981064 -2.2724669 -0.089217596 0
-1.2617764 -2.608351 -0.090681918 0
-1.6831344 -3.1486027 -0.090469696 0
-3.1964467 -5.088923 -0.14107114 0
-6.3929024 -9.1873169 -0.14075515 0
-0.53974915 -1.7198802 -0.092232026 0
-0.60569865 -1.8089867 -0.091106109 0
-0.69530004 -1.9300498 -0.091385461 0
-0.81141531 -2.0869367 -0.090940483 0
-0.97463298 -2.3074651 -0.090694301 0
-1.2195096 -2.6383255 -0.090522759 0
-1.628634 -3.1911058 -0.090530477 0
-3.0896287 -5.1651001 -0.14088629 0
-6.1872296 -9.3503637 -0.1408805 0
-0.51372403 -1.7227181 -0.089486532 0
-0.58353883 -1.8222015 -0.090684779 0
-0.66954058 -1.9447509 -0.09087003 0
-0.77770346 -2.0988789 -0.089531653 0
-0.94477159 -2.3369448 -0.091448717 0
-1.1762109 -2.6667371 -0.090310954 0
-1.5788368 -3.240464 -0.091294207 0
-2.9858143 -5.2453537 -0.14109127 0
-5.9750214 -9.5048618 -0.14090963 0
-0.4983969 -1.7404981 -0.090769656 0
-0.56373125 -1.8387806 -0.091158934 0
-0.64327973 -1.9584457 -0.090294011 0
-0.74962658 -2.1184237 -0.089574032 0
-0.90862823 -2.3576102 -0.091060318 0
-1.1374536 -2.7018332 -0.090975441 0
-1.5109348 -3.2636621 -0.08995565 0
-2.8767493 -5.3182611 -0.14102991 0
-5.7494407 -9.6396599 -0.14053911 0
-0.47589457 -1.7474692 -0.089416333 0
-0.55142504 -1.8675555 -0.09445145 0
-0.61593854 -1.970126 -0.08946567 0
-0.72420627 -2.1422615 -0.090447135 0
-0.87210274 -2.377403 -0.090684526 0
-1.0923905 -2.7276402 -0.090713941 0
-1.4601337 -3.3123174 -0.090883307 0
-2.7665312 -5.3893671 -0.14102311 0
-5.5389862 -9.7973108 -0.1409598 0
-0.46399677 -1.7716837 -0.092488386 0
-0.52072465 -1.8671378 -0.091367446 0
-0.59355128 -1.9896808 -0.090288095 0
-0.69711345 -2.1639414 -0.091060184 0
-0.83200169 -2.3909135 -0.089586519 0
-1.0429076 -2.7457979 -0.089750253 0
-1.3978083 -3.3429778 -0.090438865 0
-2.6527717 -5.4546628 -0.1408536 0
-5.3162055 -9.9363346 -0.14101522 0
-0.43948141 -1.7749137 -0.09047728 0
-0.49639758 -1.8764325 -0.090592496 0
-0.57024503 -2.0081508 -0.091001846 0
-0.66265696 -2.172982 -0.089739211 0
-0.80236924 -2.4221807 -0.091019727 0
-1.0012385 -2.776895 -0.090319328 0
-1.3436162 -3.3875792 -0.091244988 0
-2.5444562 -5.5294638 -0.14134814 0
-5.0902958 -10.070365 -0.14108776 0
-0.42008376 -1.786846 -0.090734325 0
-0.4759393 -1.8926457 -0.091433041 0
-0.54107952 -2.016032 -0.089848287 0
-0.63376534 -2.1915944 -0.090096004 0
-0.76088715 -2.4323843 -0.089749746 0
-0.95501775 -2.8000996 -0.090159632 0
-1.2806365 -3.4168758 -0.090939425 0
-1.9200042 -4.627944 -0.090583451 0
-4.8520184 -10.181665 -0.14071266 0
-0.3975729 -1.7926728 -0.089656346 0
-0.45010927 -1.8985741 -0.090209998 0
-0.51788867 -2.035202 -0.090916105 0
-0.60091281 -2.2025597 -0.089363866 0
-0.72930574 -2.4613707 -0.091083549 0
-0.91324139 -2.8321431 -0.091045208 0
-1.2193623 -3.4492133 -0.090999834 0
-1.8274199 -4.6749191 -0.090566061 0
-4.6169658 -10.298009 -0.14063023 0
-0.37860274 -1.8055409 -0.09037561 0
-0.42607206 -1.9076197 -0.089784957 0
-0.48905542 -2.0430601 -0.090027921 0
-0.57090098 -2.2190623 -0.089627735 0
-0.69115525 -2.477659 -0.090868466 0
-0.86701936 -2.8558402 -0.091170497 0
-1.1582148 -3.4820316 -0.091216557 0
-1.7338175 -4.7198172 -0.090562932 0
-4.3809872 -10.412333 -0.14065006 0
-0.36263064 -1.8257706 -0.092904843 0
-0.40477815 -1.9227316 -0.090735726 0
-0.46215245 -2.0547218 -0.089962207 0
-0.53953665 -2.2327454 -0.08957345 0
-0.65309393 -2.4939857 -0.090784006 0
-0.81460011 -2.8655329 -0.089988537 0
-1.0911353 -3.5017064 -0.090547331 0
-1.6454701 -4.7769618 -0.091302119 0
-4.1460934 -10.529681 -0.14089815 0
-0.34162641 -1.8352135 -0.09302754 0
-0.37915492 -1.9278758 -0.089761086 0
-0.4353393 -2.0666015 -0.090056829 0
-0.50706047 -2.2436895 -0.089225061 0
-0.61076182 -2.4997404 -0.08948914 0
-0.76438355 -2.8790505 -0.089337684 0
-1.0285274 -3.5312526 -0.090757854 0
-1.5473772 -4.8123536 -0.091053806 0
-3.9010773 -10.623915 -0.14071344 0
-0.32165414 -1.847526 -0.093921699 0
-0.35462725 -1.9352387 -0.089372866 0
-0.40676475 -2.0739312 -0.089471094 0
-0.47632098 -2.2589598 -0.089653172 0
-0.57838666 -2.5304677 -0.091458611 0
-0.72123241 -2.9104562 -0.090603761 0
-0.96148521 -3.5495601 -0.090245612 0
-1.451835 -4.8539548 -0.091240399 0
-3.6580391 -10.722744 -0.14079899 0
-0.29600433 -1.8441863 -0.09139996 0
-0.33090255 -1.9446456 -0.089519598 0
-0.38046342 -2.0873134 -0.090069585 0
-0.44441855 -2.2714171 -0.089775003 0
-0.53590196 -2.5347648 -0.090242364 0
-0.67523211 -2.9358459 -0.091372453 0
-0.89837861 -3.5782042 -0.090628631 0
-1.3516114 -4.8828974 -0.090920918 0
-3.4176548 -10.830289 -0.14124998 0
-0.27560267 -1.8553611 -0.092282243 0
-0.30575559 -1.9497815 -0.08893957 0
-0.34890431 -2.0848968 -0.088052534 0
-0.41086212 -2.2789106 -0.089282833 0
-0.49963236 -2.5568843 -0.091354631 0
-0.62633491 -2.9536388 -0.091504849 0
-0.82829916 -3.5860667 -0.089600854 0
-1.254449 -4.920506 -0.091151632 0
-3.1682694 -10.913414 -0.14125004 0
-0.25410524 -1.86358 -0.092617981 0
-0.28271708 -1.9616474 -0.089809261 0
-0.32395342 -2.1029854 -0.089697726 0
-0.38127908 -2.2994697 -0.090831481 0
-0.45789012 -2.5620549 -0.090507127 0
-0.57489526 -2.9630914 -0.090945803 0
-0.7658543 -3.6176054 -0.090434112 0
-1.1522019 -4.9418163 -0.090709649 0
-2.9129021 -10.976634 -0.14092106 0
-0.22899257 -1.858503 -0.090147771 0
-0.25930941 -1.9730922 -0.090704806 0
-0.2963939 -2.1132612 -0.090111218 0
-0.34402549 -2.2932954 -0.088592537 0
-0.41707301 -2.5693948 -0.090055324 0
-0.52257806 -2.9681747 -0.090094395 0
-0.69855541 -3.6333201 -0.090231888 0
-1.0550103 -4.9806209 -0.091237806 0
-2.6590011 -11.04326 -0.14083171 0
-0.20575304 -1.8588327 -0.089012556 0
-0.23496097 -1.9816877 -0.091158129 0
-0.26687315 -2.1159172 -0.089352854 0
-0.3132247 -2.3108821 -0.089935519 0
-0.3791053 -2.5879903 -0.091082551 0
-0.47447935 -2.9891546 -0.090900324 0
-0.63435179 -3.6616132 -0.091057174 0
-0.94715494 -4.9773316 -0.089866258 0
-2.4030244 -11.101038 -0.1406851 0
-0.18297462 -1.8601112 -0.088217281 0
-0.20927174 -1.9846026 -0.0906341 0
-0.23866442 -2.1237483 -0.089593343 0
-0.27835372 -2.3116384 -0.0889659 0
-0.33754212 -2.5918376 -0.090457417 0
-0.42461616 -3.0040488 -0.091237523 0
-0.56491607 -3.6682322 -0.090445526 0
-0.84576201 -4.9977641 -0.089760624 0
-2.1490183 -11.167414 -0.14089754 0
-0.16489533 -1.88583 -0.092833526 0
-0.18493629 -1.9941529 -0.091508038 0
-0.2102595 -2.1310267 -0.089859657 0
-0.24598941 -2.3241496 -0.089806907 0
-0.29576355 -2.5931826 -0.089662723 0
-0.37092233 -2.9994216 -0.089839868 0
-0.49856865 -3.6893597 -0.090993129 0
-0.94534099 -6.104198 -0.14119335 0
-1.8921038 -11.221523 -0.1409709 0
-0.14199856 -1.8883247 -0.092531122 0
-0.16005576 -2.0018706 -0.092146374 0
-0.18096371 -2.1333427 -0.089418627 0
-0.21193929 -2.3281212 -0.089545853 0
-0.25691465 -2.6109324 -0.090937667 0
-0.31992757 -3.0071661 -0.089745484 0
-0.42861769 -3.6906242 -0.090251289 0
-0.81528181 -6.1220198 -0.1409847 0
-1.6330552 -11.264289 -0.14092992 0
-0.11720467 -1.8761499 -0.089208148 0
-0.13347216 -1.9982271 -0.090743251 0
-0.15362187 -2.1494377 -0.091386519 0
-0.1788983 -2.3391213 -0.090404205 0
-0.21643625 -2.6208198 -0.091397144 0
-0.26898685 -3.0151784 -0.089798026 0
-0.36192995 -3.7126572 -0.09110143 0
-0.68569535 -6.1423101 -0.14104713 0
-1.3743106 -11.30993 -0.14111015 0
-0.095964402 -1.8897512 -0.091538869 0
-0.10828753 -2.00422 -0.091296799 0
