# .PCD v0.7 - Point Cloud Data file format
VERSION 0.7
FIELDS x y z intensity
SIZE 4 4 4 4
TYPE F F F F
COUNT 1 1 1 1
WIDTH 1319
HEIGHT 1
VIEWPOINT 0 0 0 1 0 0 0
POINTS 1319
DATA ascii
-1.2740273 1.4114827 0.079411462 0
-1.2758806 1.4127283 0.22722578 0
-1.2508962 1.3959346 0.37181899 0
-1.2363153 1.3861337 0.51902694 0
-1.2357223 1.385735 0.67475349 0
-0.28923386 0.74953079 0.44113496 0
-0.87707508 1.120921 -0.049867373 0
-1.2763574 1.3820697 0.078900479 0
-1.2671212 1.3760289 0.22426158 0
-1.2492222 1.3643221 0.36841661 0
-1.2460136 1.3622235 0.51771802 0
-1.2369584 1.356301 0.66968453 0
-0.29518032 0.74033558 0.44107214 0
-0.8930124 1.1077075 -0.050089784 0
-1.2744737 1.3503982 0.078231007 0
-1.2826667 1.3556107 0.22447598 0
-1.2533057 1.3369308 0.36635754 0
-1.2422113 1.3298725 0.51242846 0
-1.2418785 1.3296607 0.66625547 0
-0.29715616 0.72861588 0.4387241 0
-0.89838719 1.0877712 -0.049874052 0
-1.2902175 1.3301827 0.078323565 0
-1.3024956 1.3377787 0.22526261 0
-1.2427599 1.3008224 0.36128545 0
-1.2432162 1.3011047 0.50874484 0
-1.2426873 1.3007774 0.66137636 0
-0.91983831 1.0776768 -0.050340191 0
-1.310052 1.3123465 0.078596495 0
-1.3113475 1.3131255 0.22469503 0
-1.2443024 1.2728055 0.35889158 0
-1.2367548 1.2682664 0.50297445 0
-1.2421159 1.2714905 0.65613985 0
-0.92327189 1.0566691 -0.050063156 0
-1.3297263 1.2941889 0.078870118 0
-1.3354077 1.297509 0.22606343 0
-1.2405277 1.2420639 0.35547858 0
-1.2431185 1.2435778 0.50115883 0
-1.2407818 1.2422123 0.65079057 0
-0.93322217 1.0395814 -0.050066516 0
-1.3728001 1.2890862 0.080111787 0
-1.3872101 1.2972654 0.23087467 0
-1.2480462 1.2182758 0.35451239 0
-1.2273533 1.2065305 0.49295583 0
-1.2339385 1.2102683 0.64351338 0
-0.9390378 1.0202088 -0.049910106 0
-1.2515577 1.1924293 0.35278967 0
-1.233637 1.1825536 0.49136892 0
-1.2460419 1.1893896 0.64363706 0
-0.94575834 1.0014418 -0.049801294 0
-1.2517945 1.1650999 0.35047552 0
-1.2436352 1.1607366 0.49095497 0
-1.2353261 1.1562932 0.63525027 0
-0.95822656 0.98573893 -0.049933892 0
-1.2623868 1.1435014 0.35035047 0
-1.233596 1.1285682 0.48486397 0
-1.2328851 1.1281995 0.63017601 0
-0.97294283 0.97105825 -0.050163407 0
-1.2712647 1.1210562 0.34993526 0
-1.2410821 1.1058803 0.48393214 0
-1.2470742 1.1088932 0.63145864 0
-0.97737443 0.95118397 -0.04999046 0
-1.2813904 1.0992792 0.34982973 0
-1.2358803 1.0771098 0.47948661 0
-1.2459394 1.0820099 0.6271528 0
-0.99325991 0.93684334 -0.050280567 0
-1.2983564 1.0807403 0.35114369 0
-1.2382023 1.052369 0.47729224 0
-1.2470038 1.0565201 0.62380636 0
-0.98428965 0.91093153 -0.049600702 0
-1.299148 1.0546145 0.34929007 0
-1.2479371 1.0312449 0.47727695 0
-1.2420528 1.0285597 0.618397 0
-0.99952435 0.89622009 -0.049881894 0
-1.3090873 1.0328037 0.34931502 0
-1.2419218 1.0031693 0.47294402 0
-1.2424599 1.0034066 0.6150943 0
-1.015993 0.88181561 -0.050216682 0
-1.329769 1.0155638 0.35149986 0
-1.2313849 0.97362721 0.46747854 0
-1.2377911 0.97635782 0.61008847 0
-1.020925 0.8624056 -0.050111387 0
-1.3293378 0.98930293 0.34959844 0
-1.2343709 0.95022857 0.465875 0
-1.236606 0.95114815 0.60648465 0
-1.017269 0.83966434 -0.049686167 0
-1.3328785 0.96489972 0.34854147 0
-1.2458383 0.93036175 0.46668848 0
-1.2327095 0.92515218 0.6020422 0
-1.036451 0.82597184 -0.050146859 0
-1.3402379 0.9421103 0.34828639 0
-1.2429212 0.90490592 0.46363759 0
-1.2468802 0.90641946 0.60417312 0
-1.0353643 0.80447215 -0.049840949 0
-1.3597127 0.92381257 0.35041597 0
-1.239785 0.87968647 0.46062857 0
-1.2349292 0.87789989 0.59711784 0
-1.0405251 0.78540778 -0.049783263 0
-1.3718319 0.90259361 0.35117316 0
-1.2518109 0.86014128 0.4618223 0
-1.2405826 0.85616976 0.59643346 0
-1.0531074 0.76890343 -0.050014712 0
-1.3765984 0.87876207 0.35057768 0
-1.2415361 0.8328945 0.45706856 0
-1.2374129 0.83149421 0.59274822 0
-1.0561721 0.74912506 -0.049895685 0
-1.3781588 0.85396993 0.3494336 0
-1.2391282 0.80869901 0.45453739 0
-1.2357596 0.80760211 0.58971763 0
-1.060707 0.72988969 -0.04984143 0
-1.3897786 0.83247709 0.35025337 0
-1.2456946 0.78755921 0.45449603 0
-1.2380606 0.78517932 0.58818197 0
-1.0704635 0.71224689 -0.049990945 0
-1.3918264 0.80800855 0.34931979 0
-1.236032 0.76158404 0.45020533 0
-1.2429885 0.76365697 0.58766216 0
-1.0725801 0.69231904 -0.04986462 0
-1.4037551 0.78648102 0.3503001 0
-1.2309433 0.73734599 0.4472301 0
-1.2427828 0.74071223 0.58546257 0
-1.0868394 0.67576802 -0.050197139 0
-1.4038087 0.76159233 0.34910899 0
-1.2458965 0.71883518 0.44964325 0
-1.2404751 0.71736729 0.58264565 0
-1.0784193 0.65313631 -0.049700227 0
-1.4005132 0.73600978 0.34735656 0
-1.2322388 0.69271344 0.44457284 0
-1.2397552 0.69464737 0.58048451 0
-1.1000143 0.63818324 -0.050318319 0
-1.4289386 0.71841228 0.35155791 0
-1.2451965 0.67359513 0.44659397 0
-1.2531469 0.67553437 0.5832606 0
-1.104224 0.61877024 -0.050304558 0
-1.4247251 0.69268197 0.34974727 0
-1.2383038 0.64969075 0.44347498 0
-1.2311051 0.6480307 0.57401299 0
-1.0937961 0.59618193 -0.049764995 0
-1.4420186 0.67188179 0.35197082 0
-1.2437528 0.62878096 0.44366556 0
-1.2481618 0.6297394 0.57822043 0
-1.1057987 0.57855999 -0.05005452 0
-1.4431163 0.64745307 0.35125574 0
-1.2394208 0.6058507 0.44137728 0
-1.2418618 0.60634923 0.57456428 0
-1.1113883 0.55950111 -0.050118331 0
-1.4365097 0.62164944 0.34918433 0
-1.2402532 0.58413416 0.44051111 0
-1.2367641 0.58346719 0.57142407 0
-1.108086 0.53880936 -0.049868263 0
-1.4461769 0.59903461 0.3501583 0
-1.2447268 0.56314963 0.44066143 0
-1.2423471 0.56272572 0.57199776 0
-1.1161779 0.52017516 -0.050040446 0
-1.4586972 0.57674927 0.35170388 0
-1.2397466 0.5405851 0.43843517 0
-1.2246131 0.53808546 0.56479579 0
-1.1106861 0.4993467 -0.049730241 0
-1.4584084 0.55229151 0.35096103 0
-1.2414192 0.51925236 0.43800351 0
-1.242357 0.51939517 0.56965154 0
-1.11498 0.48010018 -0.049782787 0
-1.4592487 0.52809197 0.35048121 0
-1.2467513 0.49846938 0.43858451 0
-1.2390705 0.49739867 0.56751359 0
-1.1213927 0.46108133 -0.04992022 0
-1.4661462 0.50472295 0.35115874 0
-1.24467 0.47668675 0.43732551 0
-1.2487173 0.47719908 0.56980908 0
-1.1246446 0.44160205 -0.049952496 0
-0.52335829 0.37316716 0.040347215 0
-0.51723617 0.37247035 0.10873102 0
-0.51802427 0.37256005 0.17854023 0
-1.2465756 0.45547953 0.43716249 0
-1.2382419 0.45453104 0.56544882 0
-1.1363355 0.42294976 -0.050296359 0
-0.50759852 0.35939881 0.039735265 0
-0.51166427 0.35980976 0.10799028 0
-0.51303411 0.35994822 0.17740242 0
-1.2473948 0.43417531 0.43678966 0
-1.2336568 0.4327867 0.56315923 0
-1.1374447 0.40311566 -0.050269011 0
-0.46705395 0.34387159 0.038241919 0
-0.5194788 0.34850451 0.10871179 0
-0.51634973 0.34822798 0.17779839 0
-1.237082 0.41192085 0.43363479 0
-1.2404176 0.41221562 0.56475317 0
-1.1269702 0.38242093 -0.049835894 0
-0.51107502 0.33580014 0.10770003 0
-0.51849651 0.33636191 0.17800932 0
-1.2332335 0.39046463 0.43220863 0
-1.2403879 0.3910062 0.56416643 0
-1.1426883 0.36368042 -0.050349414 0
-0.50959945 0.32376817 0.10745234 0
-0.51528561 0.32412666 0.17727891 0
-1.237397 0.36965123 0.43290085 0
-1.2395363 0.36978608 0.5633952 0
-1.2355582 0.3695353 0.69802475 0
-1.1334847 0.34331778 -0.049980182 0
-0.50585139 0.31167787 0.10697658 0
-0.50779587 0.31177589 0.17580412 0
-1.240867 0.3487311 0.4334825 0
-1.2470195 0.34904125 0.56549001 0
-1.2459522 0.34898746 0.70183963 0
-0.34525841 0.30358216 0.46785897 0
-1.1257838 0.32326943 -0.049673975 0
-0.50642455 0.29986057 0.10698216 0
-0.50041097 0.29963329 0.17437705 0
-1.2448285 0.32776874 0.43425658 0
-1.2329988 0.32732165 0.56051147 0
-1.2469484 0.32784888 0.70186603 0
-0.35862374 0.29427442 0.47553447 0
-1.1267991 0.30365354 -0.049688164 0
-0.40559989 0.28548577 0.35313118 0
-0.40988564 0.28559372 0.42763439 0
-0.3825177 0.2849043 0.48952308 0
-1.1298628 0.28405035 -0.049784306 0
-0.394674 0.27479073 0.41992247 0
-0.38388091 0.27465481 0.49021661 0
-1.1392181 0.26437625 -0.050113875 0
-0.39181125 0.26437426 0.4184573 0
-0.39536583 0.26437426 0.49698931 0
-0.89186221 -0.98929471 -0.088812701 0
-1.0112227 -0.98929507 -0.089677908 0
-1.1300532 -0.98929536 -0.084915496 0
-1.1326069 -0.98929536 -0.058337051 0
-1.1299326 -0.98929536 -0.031202426 0
-1.1334049 -0.98929536 -0.0049129557 0
-1.1218421 -0.9892953 0.022474939 0
-1.1234086 -0.98929536 0.048625141 0
-1.1205832 -0.9892953 0.074893683 0
-1.1240509 -0.98929536 0.10100251 0
-1.1260053 -0.98929536 0.12723756 0
-1.1231446 -0.9892953 0.15336768 0
-1.1259676 -0.98929536 0.17981893 0
-1.1346654 -0.98929536 0.20703681 0
-1.1227698 -0.9892953 0.23237112 0
-1.1255119 -0.98929536 0.25934634 0
-1.1299722 -0.98929536 0.28690931 0
-1.1184082 -0.9892953 0.31187338 0
-0.9069075 -1.0122088 -0.092072226 0
-1.0095818 -1.0148004 -0.08942946 0
-1.1246638 -1.0177053 -0.084088691 0
-1.1339246 -1.0179391 -0.058573041 0
-1.1384096 -1.0180523 -0.032235581 0
-1.1258097 -1.0177343 -0.004237501 0
-1.1283816 -1.0177991 0.021992626 0
-1.1120914 -1.017388 0.049135502 0
-1.1345708 -1.0179554 0.074560054 0
-1.1311935 -1.0178702 0.10100273 0
-1.1349126 -1.017964 0.1274536 0
-1.129921 -1.017838 0.15370034 0
-1.1248909 -1.017711 0.17976868 0
-1.1298223 -1.0178355 0.20661812 0
-1.1371323 -1.01802 0.23409294 0
-1.135089 -1.0179685 0.26074371 0
-1.1415662 -1.018132 0.28887531 0
-1.1326243 -1.0179063 0.31461984 0
-0.9061532 -1.0351139 -0.092096262 0
-1.0139267 -1.0405579 -0.090430923 0
-1.1190807 -1.0458695 -0.083346836 0
-1.1381481 -1.0468327 -0.059319887 0
-1.242786 -1.0521183 -0.044577319 0
-1.23448 -1.0516987 -0.01449435 0
-1.2397205 -1.0519633 0.014123553 0
-1.242546 -1.0521061 0.043004934 0
-1.2415137 -1.0520539 0.072045162 0
-1.2391582 -1.051935 0.10100584 0
-1.2429227 -1.0521251 0.12999958 0
-1.239658 -1.0519602 0.15887232 0
-1.2417986 -1.0520684 0.18803412 0
-1.2412885 -1.0520426 0.2171431 0
-0.89690006 -1.0573949 -0.090431757 0
-0.99867725 -1.0651145 -0.087855779 0
-1.1334312 -1.0753354 -0.086006202 0
-1.1371027 -1.0756139 -0.059428293 0
-1.2442523 -1.0837411 -0.044981379 0
-1.2370414 -1.083194 -0.014918325 0
-1.2478223 -1.0840118 0.013416978 0
-1.2394329 -1.0833755 0.043057799 0
-1.244055 -1.083726 0.071939759 0
-1.2339838 -1.0829622 0.10100576 0
-1.2305336 -1.0827005 0.1297563 0
-1.2465183 -1.0839128 0.15928538 0
-1.2331922 -1.0829021 0.18756911 0
-1.2326958 -1.0828645 0.2165236 0
-0.8888101 -1.079411 -0.089131527 0
-1.01452 -1.0921431 -0.091277473 0
-1.1661774 -1.1075032 -0.091833912 0
-1.2382264 -1.1148005 -0.074071191 0
-1.2378405 -1.1147614 -0.044554684 0
-1.2388406 -1.1148626 -0.015346384 0
-1.239233 -1.1149024 0.013824658 0
-1.2456521 -1.1155525 0.042637233 0
-1.2340544 -1.1143779 0.072108522 0
-1.2409507 -1.1150763 0.10100603 0
-1.2335107 -1.1143228 0.12989044 0
-1.2321384 -1.1141838 0.15874214 0
-1.2406981 -1.1150508 0.1882907 0
-1.9876304 -1.1907011 0.28765216 0
-1.9848396 -1.1904185 0.33436188 0
-1.9180036 -1.1836493 0.37214527 0
-1.4770402 -1.1389878 0.3808679 0
-0.90028757 -1.1036127 -0.092138641 0
-1.0119532 -1.1177769 -0.0913442 0
-1.1467474 -1.1348748 -0.089170642 0
-1.2049341 -1.1422554 -0.069859467 0
-1.2375782 -1.1463962 -0.044943172 0
-1.2333356 -1.145858 -0.015163651 0
-1.2451977 -1.1473627 0.013153175 0
-1.2511386 -1.1481162 0.042211641 0
-1.2358023 -1.146171 0.07198438 0
-1.2452778 -1.1473728 0.10100626 0
-1.2273452 -1.1450982 0.12982894 0
-1.2374332 -1.1463778 0.15915741 0
-1.2415587 -1.1469011 0.18860306 0
-1.613483 -1.1940777 0.36853012 0
-1.4810249 -1.1772761 0.38243133 0
-0.89264768 -1.1256342 -0.091177799 0
-1.0048435 -1.1427522 -0.090668671 0
-1.13989 -1.1633565 -0.088702001 0
-1.2106993 -1.17416 -0.07128229 0
-1.6220151 -1.2369153 -0.090908803 0
-2.5551972 -1.379293 -0.14038457 0
-3.4189231 -1.5110736 -0.14087938 0
-5.1396928 -1.7736151 -0.14112104 0
-10.289067 -2.5592666 -0.14104629 0
-1.3497038 -1.1953683 0.29306364 0
-1.3417813 -1.1941595 0.32428753 0
-1.3695641 -1.1983984 0.36218187 0
-0.89736331 -1.1496443 -0.093000211 0
-1.0081499 -1.1694195 -0.092103355 0
-1.1414827 -1.1932193 -0.089761756 0
-1.2114177 -1.2057025 -0.072105773 0
-1.6165706 -1.2780218 -0.091065504 0
-2.5517688 -1.4449532 -0.14106964 0
-3.4073284 -1.5976695 -0.14106821 0
-5.1020584 -1.9001763 -0.14035454 0
-10.239602 -2.8172204 -0.14089094 0
-1.3368233 -1.2280873 0.2920281 0
-1.3224244 -1.2255172 0.32198942 0
-1.3253231 -1.2260345 0.35480794 0
-0.88446695 -1.1705064 -0.091141976 0
-0.99538213 -1.1932062 -0.090584211 0
-1.1394023 -1.2226813 -0.090336911 0
-1.1973592 -1.2345428 -0.070927747 0
-1.5963448 -1.3161991 -0.089583151 0
-2.5383422 -1.5089878 -0.14096321 0
-3.3902576 -1.6833404 -0.14102283 0
-5.0960293 -2.032443 -0.14123735 0
-10.1853 -3.0740113 -0.14077416 0
-1.2631353 -1.2480046 0.31311059 0
-1.2302806 -1.2412804 0.33775976 0
-0.87840307 -1.1925097 -0.090878047 0
-0.9824844 -1.216562 -0.0891468 0
-1.1285405 -1.2503145 -0.089559279 0
-1.1864713 -1.2637019 -0.070304863 0
-1.6044465 -1.3602927 -0.091605358 0
-2.518858 -1.5716062 -0.14043023 0
-3.3622973 -1.7665185 -0.14035058 0
-5.0552049 -2.1577363 -0.14062183 0
-10.122934 -3.3288496 -0.14061847 0
-0.86528677 -1.2126448 -0.089185826 0
-0.98358798 -1.243147 -0.090537719 0
-1.1291941 -1.2806895 -0.090849049 0
-1.324928 -1.3311565 -0.091458894 0
-1.5858802 -1.3984392 -0.090555973 0
-1.9861158 -1.501634 -0.090571202 0
-3.3364952 -1.8498092 -0.13998085 0
-5.0177088 -2.2832851 -0.14031388 0
-10.067494 -3.5852973 -0.14078203 0
-0.86930674 -1.23726 -0.091380827 0
-0.98398715 -1.2699357 -0.091931693 0
-1.1139082 -1.3069539 -0.08955469 0
-1.3037083 -1.3610333 -0.089680202 0
-1.591145 -1.4429322 -0.092511691 0
-1.9738892 -1.5519869 -0.090700559 0
-3.3302939 -1.938465 -0.14118557 0
-4.988812 -2.4110236 -0.14057282 0
-9.9983912 -3.8383949 -0.14077243 0
-0.86238283 -1.2590172 -0.091293894 0
-0.97786504 -1.2950954 -0.092182763 0
-1.1137382 -1.3375441 -0.090966605 0
-1.2899706 -1.3926016 -0.089099668 0
-1.5621459 -1.477633 -0.090424456 0
-1.9455047 -1.5973996 -0.089374684 0
-3.2990875 -2.0202777 -0.14073165 0
-4.946897 -2.5350766 -0.14035556 0
-9.9242754 -4.0900793 -0.14079565 0
-0.84379101 -1.2767968 -0.088709138 0
-0.96402413 -1.3177166 -0.09102609 0
-1.0913109 -1.3610369 -0.088660069 0
-1.29005 -1.4286751 -0.09068308 0
-1.5521115 -1.5178642 -0.090768225 0
-1.9490967 -1.6529728 -0.091302745 0
-3.2751613 -2.1042809 -0.14096332 0
-4.9111528 -2.6610687 -0.1405932 0
-9.8430805 -4.3395839 -0.14080057 0
-0.83979326 -1.2993195 -0.089507781 0
-0.95844424 -1.3430712 -0.091631107 0
-1.0902147 -1.3916606 -0.09017197 0
-1.2674303 -1.4570076 -0.089017071 0
-1.5393385 -1.5572718 -0.090899982 0
-1.9167279 -1.6964316 -0.089810215 0
-3.2429862 -2.1854799 -0.14073981 0
-4.868319 -2.7848101 -0.14063838 0
-9.7543764 -4.5865097 -0.14077482 0
-0.83979827 -1.3236533 -0.091359533 0
-0.94036818 -1.3636483 -0.089838348 0
-1.0717105 -1.4158809 -0.088756166 0
-1.267185 -1.4936179 -0.090825804 0
-1.5284255 -1.5975088 -0.091391526 0
-1.9030856 -1.7465048 -0.090293385 0
-3.2303369 -2.2743301 -0.14213648 0
-4.8244209 -2.9082704 -0.14078641 0
-9.6719446 -4.8360491 -0.14106095 0
-0.82304591 -1.3413221 -0.089499168 0
-0.9398697 -1.3912303 -0.091732211 0
-1.0693629 -1.4465512 -0.09032125 0
-1.2454319 -1.5217696 -0.089507766 0
-1.5022618 -1.63149 -0.09007854 0
-1.8863324 -1.7955688 -0.090593658 0
-3.1741955 -2.3457568 -0.14041157 0
-4.7756577 -3.0299177 -0.1408467 0
-9.5618143 -5.0746121 -0.14080827 0
-0.82468021 -1.3669308 -0.092018582 0
-0.93400103 -1.416932 -0.092679195 0
-1.0535191 -1.4715973 -0.089604504 0
-1.2427076 -1.5581285 -0.091224276 0
-1.4956671 -1.6738273 -0.091374926 0
-1.8648223 -1.8426718 -0.090535544 0
-3.1421461 -2.4268949 -0.14065652 0
-4.7264814 -3.1515396 -0.14104284 0
-9.446269 -5.3102794 -0.14056732 0
-0.81156093 -1.3860176 -0.091231294 0
-0.91448265 -1.4362698 -0.090912037 0
-1.0324355 -1.4938611 -0.088035487 0
-1.2179767 -1.5844526 -0.089663066 0
-1.4747967 -1.7098466 -0.090968825 0
-1.8506769 -1.8933723 -0.091364451 0
-3.1137657 -2.5100832 -0.14134832 0
-4.6581874 -3.2641566 -0.14040905 0
-9.3439054 -5.5519872 -0.14081745 0
-0.80217552 -1.4068514 -0.091442846 0
-0.89294183 -1.454041 -0.088795178 0
-1.0367565 -1.5288106 -0.091255032 0
-1.1997588 -1.6135558 -0.089217447 0
-1.4447104 -1.7409066 -0.089462377 0
-1.8113375 -1.9315168 -0.089687638 0
-3.0679798 -2.5848475 -0.1408422 0
-4.6015992 -3.3821793 -0.14052933 0
-9.2185326 -5.7825317 -0.14062676 0
-0.79771215 -1.4304781 -0.092979454 0
-0.8839708 -1.4781265 -0.089449249 0
-1.0128996 -1.5493455 -0.089393593 0
-1.1820903 -1.6428045 -0.088970922 0
-1.4242096 -1.7765486 -0.089318626 0
-1.7966669 -1.98229 -0.090719812 0
-3.0284307 -2.662703 -0.1409768 0
-4.5500889 -3.5032508 -0.14107871 0
-9.0938463 -6.0131741 -0.14060517 0
-0.77500796 -1.4438591 -0.090191193 0
-0.87962091 -1.5051409 -0.091253527 0
-1.0048281 -1.5784867 -0.090609185 0
-1.1638955 -1.6716676 -0.088754393 0
-1.4076035 -1.8144307 -0.089821286 0
-1.7634139 -2.0228627 -0.089894824 0
-2.9768412 -2.7336826 -0.14029597 0
-4.4745488 -3.6110327 -0.14050348 0
-8.9679699 -6.243258 -0.14070693 0
-0.77170938 -1.4685137 -0.092296638 0
-0.86462855 -1.5261427 -0.090877496 0
-0.99028456 -1.604075 -0.090733446 0
-1.1441845 -1.6995243 -0.088403277 0
-1.382895 -1.8475736 -0.089348055 0
-1.739367 -2.0686591 -0.0901796 0
-2.936214 -2.8109481 -0.14065245 0
-4.4123807 -3.7264726 -0.14079961 0
-8.8262234 -6.4639554 -0.14053378 0
-0.75154495 -1.4827244 -0.090307109 0
-0.85107392 -1.5479863 -0.090937443 0
-0.978863 -1.6317785 -0.091599278 0
-1.1317337 -1.7320168 -0.089383639 0
-1.3767515 -1.8926768 -0.091577522 0
-1.7190148 -2.1171012 -0.09100949 0
-2.8936336 -2.8873069 -0.14101332 0
-4.3467326 -3.8401139 -0.14106785 0
-8.6948013 -6.6911736 -0.14079843 0
-0.74724531 -1.5073632 -0.092476197 0
-0.83540082 -1.5684025 -0.090638377 0
-0.95969319 -1.6544632 -0.091070063 0
-1.1193571 -1.7650154 -0.090532966 0
-1.3419069 -1.9191098 -0.089926697 0
-1.6862851 -2.1575589 -0.090586446 0
-2.8330719 -2.9515998 -0.14001408 0
-4.2747664 -3.9498363 -0.14114414 0
-8.5495167 -6.9096942 -0.14083655 0
-0.72347212 -1.5184339 -0.089721926 0
-0.81742144 -1.5870553 -0.08991494 0
-0.93586642 -1.6735685 -0.089698724 0
-1.1029979 -1.7956427 -0.091154195 0
-1.3246318 -1.957526 -0.090883754 0
-1.656867 -2.2001932 -0.090655275 0
-2.7973461 -3.0332084 -0.14128558 0
-4.1950274 -4.0540867 -0.14093196 0
-8.3897772 -7.1179662 -0.14061657 0
-0.72007167 -1.5443816 -0.09245301 0
-0.80487263 -1.6096647 -0.09057904 0
-0.92665929 -1.7034209 -0.091431879 0
-1.0748607 -1.8175122 -0.089834534 0
-1.3005494 -1.9912561 -0.090997167 0
-1.6221142 -2.2388093 -0.090222634 0
-2.7353363 -3.0958109 -0.14044312 0
-4.1133385 -4.1566505 -0.14075419 0
-8.240221 -7.3336868 -0.14084391 0
-0.70173883 -1.559075 -0.091331609 0
-0.78634441 -1.6276759 -0.089943953 0
-0.9100275 -1.7279623 -0.091787703 0
-1.0531983 -1.8440498 -0.089758001 0
-1.27422 -2.0232613 -0.090901695 0
-1.5989485 -2.2865617 -0.091289438 0
-2.6869383 -3.1687393 -0.14094917 0
-4.0310869 -4.2586188 -0.14069271 0
-8.0744648 -7.5371208 -0.14075238 0
-0.68792754 -1.5772969 -0.091551982 0
-0.77129728 -1.6484561 -0.090268485 0
-0.88833177 -1.7483497 -0.091189526 0
-1.0299693 -1.8692428 -0.089512803 0
-1.2482356 -2.0555415 -0.090980001 0
-1.5614035 -2.3228426 -0.090761237 0
-2.6289768 -3.2340577 -0.14075467 0
-3.9449332 -4.3572779 -0.14054692 0
-7.9119301 -7.7432637 -0.14091268 0
-0.67325747 -1.5948372 -0.091662027 0
-0.76086712 -1.6735218 -0.091900654 0
-0.87284559 -1.7740924 -0.09206181 0
-1.0235904 -1.9094803 -0.092563696 0
-1.2299099 -2.0947812 -0.092389829 0
-1.5237737 -2.3587077 -0.090323903 0
-2.5644443 -3.2933609 -0.14009149 0
-3.8643367 -4.4608278 -0.14089967 0
-7.7245646 -7.9277973 -0.1404615 0
-0.65371138 -1.6078268 -0.090476833 0
-0.73836434 -1.6878053 -0.090605967 0
-0.84621912 -1.7897044 -0.090581514 0
-0.99800611 -1.9331099 -0.092169099 0
-1.1961282 -2.1202919 -0.091505937 0
-1.4978358 -2.4053392 -0.091492333 0
-1.9829334 -2.8636503 -0.089833789 0
-3.7719836 -4.5539107 -0.14067343 0
-7.5577631 -8.1306429 -0.1408045 0
-0.6435374 -1.6297535 -0.092167147 0
-0.71829391 -1.7040402 -0.090018906 0
-0.82187068 -1.8069659 -0.089681707 0
-0.97600216 -1.9601288 -0.092590593 0
-1.1618576 -2.1448164 -0.090623908 0
-1.4578096 -2.4389083 -0.090989567 0
-1.931556 -2.9096773 -0.089493372 0
-3.6881149 -4.6551967 -0.14115065 0
-7.373004 -8.3169279 -0.14073338 0
-0.62138635 -1.6397635 -0.090387993 0
-0.69941229 -1.7213136 -0.089850299 0
-0.80626059 -1.832988 -0.090937562 0
-0.94252867 -1.9754109 -0.090828665 0
-1.1326797 -2.1741507 -0.090682618 0
-1.4209316 -2.4754224 -0.091011398 0
-1.8922647 -2.9680443 -0.090482078 0
-3.5919764 -4.7445278 -0.14098434 0
-7.1822491 -8.4969645 -0.14061487 0
-0.60242182 -1.6526707 -0.089644231 0
-0.68776208 -1.7464945 -0.091821618 0
-0.77936375 -1.8472021 -0.089630164 0
-0.91573972 -1.9971349 -0.090492852 0
-1.111243 -2.2120728 -0.092214473 0
-1.3823259 -2.5101035 -0.090920322 0
-1.8424 -3.0159125 -0.090551056 0
-3.4894178 -4.8266568 -0.14052309 0
-7.0054941 -8.6922588 -0.14113171 0
-0.58579952 -1.6680394 -0.089744158 0
-0.66057485 -1.7545354 -0.089557044 0
-0.76266986 -1.8726332 -0.090937056 0
-0.89631289 -2.0272241 -0.091845341 0
-1.0726671 -2.2312207 -0.090897419 0
-1.3420416 -2.5428181 -0.090710185 0
-1.7915951 -3.0628366 -0.090648912 0
-3.3934808 -4.9158082 -0.14066507 0
-6.7932172 -8.8484335 -0.1405738 0
-0.56943214 -1.6837786 -0.090060614 0
-0.64426059 -1.7748845 -0.090507902 0
-0.73503721 -1.8854077 -0.089615934 0
-0.86405468 -2.0424902 -0.090564527 0
-1.0313976 -2.2462351 -0.089131035 0
-1.3046348 -2.5789094 -0.091036312 0
-1.7359028 -3.1039908 -0.090340056 0
-3.295105 -5.0023642 -0.14079525 0
-6.591465 -9.0157785 -0.14052635 0
-0.55177492 -1.6980097 -0.090076827 0
-0.6207974 -1.7865081 -0.089455418 0
-0.71454769 -1.9067117 -0.09024518 0
-0.82949269 -2.0540905 -0.088801913 0
-1.0097532 -2.2852149 -0.091107078 0
-1.2633322 -2.6103458 -0.090918042 0
-1.6822374 -3.1474526 -0.090367727 0
-3.1884537 -5.0786748 -0.14046609 0
-6.4008255 -9.1974754 -0.14105469 0
-0.54310912 -1.7244201 -0.093432568 0
-0.60847604 -1.8127393 -0.091985457 0
-0.69459224 -1.9290935 -0.091189928 0
-0.81609929 -2.0932653 -0.092046984 0
-0.97590923 -2.3091896 -0.090945028 0
-1.2243247 -2.6448314 -0.091278248 0
-1.6291246 -3.1917689 -0.090588145 0
-3.0868688 -5.1613712 -0.14067031 0
-6.181848 -9.3430929 -0.14067018 0
-0.52155703 -1.7338798 -0.092385016 0
-0.59049076 -1.8321078 -0.092964254 0
-0.67922837 -1.9585556 -0.093641795 0
-0.7768144 -2.0976119 -0.089314155 0
-0.93775064 -2.3269401 -0.090020262 0
-1.1724821 -2.6614239 -0.089705072 0
-1.575325 -3.2354598 -0.090866826 0
-2.9859304 -5.2455192 -0.14110067 0
-5.9733348 -9.5024586 -0.14084135 0
-0.49208 -1.7309954 -0.088344194 0
-0.56474406 -1.8403043 -0.091503523 0
-0.64100009 -1.9550165 -0.089617245 0
-0.74901861 -2.1175089 -0.0894197 0
-0.90455109 -2.3514769 -0.090199582 0
-1.1310817 -2.6922479 -0.089901097 0
-1.5168657 -3.2725842 -0.090704627 0
-2.8781149 -5.3203154 -0.14114477 0
-5.7503085 -9.6409655 -0.14057556 0
-0.47859502 -1.7517626 -0.090494476 0
-0.53645945 -1.8437617 -0.089157082 0
-0.62062329 -1.9775743 -0.090911813 0
-0.71988738 -2.1353948 -0.089307122 0
-0.87342852 -2.3795109 -0.090975575 0
-1.0919118 -2.7268789 -0.090630002 0
-1.4536874 -3.3020685 -0.090036876 0
-2.7644596 -5.3860731 -0.14084196 0
-5.5312357 -9.7849884 -0.14062132 0
-0.45531091 -1.7570683 -0.088874482 0
-0.52320784 -1.8713162 -0.092282943 0
-0.59153146 -1.9862821 -0.08963833 0
-0.69566339 -2.1615014 -0.09066131 0
-0.83352965 -2.3934844 -0.08993607 0
-1.0438564 -2.7473943 -0.089923598 0
-1.4038298 -3.3531098 -0.09126284 0
-2.652612 -5.4543939 -0.14083904 0
-5.3047748 -9.9171009 -0.140495 0
-0.44425499 -1.7834281 -0.092552163 0
-0.49662542 -1.8768389 -0.090680249 0
-0.56209987 -1.9936228 -0.088264473 0
-0.66260701 -2.1728928 -0.089724846 0
-0.79593539 -2.4107049 -0.089482121 0
-1.002413 -2.77899 -0.090543531 0
-1.3413187 -3.3834813 -0.090916552 0
-2.5324667 -5.5080786 -0.14020677 0
-5.0892668 -10.06853 -0.14103884 0
-0.41920382 -1.7851793 -0.090333708 0
-0.47453296 -1.8899819 -0.090865664 0
-0.54361969 -2.0208435 -0.090742506 0
-0.63165939 -2.1876054 -0.089462094 0
-0.75895721 -2.4287286 -0.089266606 0
-0.96000504 -2.8095465 -0.091156743 0
-1.2803279 -3.4162912 -0.090893216 0
-1.9229876 -4.633595 -0.090880953 0
-4.8537769 -10.184996 -0.14080022 0
-0.3989529 -1.7954545 -0.090316407 0
-0.45208159 -1.9025499 -0.091045924 0
-0.50827795 -2.0158291 -0.087361865 0
-0.6007387 -2.2022088 -0.089308806 0
-0.72266537 -2.4479852 -0.089337222 0
-0.91183811 -2.8293145 -0.090750478 0
-1.2180032 -3.4464738 -0.090786032 0
-1.8259578 -4.6719718 -0.090412892 0
-4.6164165 -10.296902 -0.1406015 0
-0.37653369 -1.8010917 -0.089332588 0
-0.42993596 -1.9159287 -0.091510914 0
-0.48898393 -2.0429065 -0.090000056 0
-0.57400399 -2.2257349 -0.090661921 0
-0.68813139 -2.4711564 -0.09003032 0
-0.86566448 -2.8529265 -0.090870582 0
-1.1513612 -3.4672935 -0.090080284 0
-1.7305732 -4.7128406 -0.090204738 0
-4.3859921 -10.423097 -0.14092603 0
-0.35853431 -1.8163469 -0.090720661 0
-0.40282458 -1.9182373 -0.089812718 0
-0.46118239 -2.0524902 -0.089562289 0
-0.54353189 -2.2419367 -0.090981878 0
-0.64467365 -2.4746146 -0.08831542 0
-0.81583875 -2.8683825 -0.090278558 0
-1.0961709 -3.5132909 -0.091430403 0
-1.6408763 -4.7663932 -0.090765648 0
-4.1467285 -10.531143 -0.14093521 0
-0.33332121 -1.814707 -0.088324718 0
-0.38286963 -1.9370478 -0.091624968 0
-0.43241706 -2.0593863 -0.08877743 0
-0.50748652 -2.2447417 -0.089384578 0
-0.62040138 -2.5235415 -0.092490338 0
-0.77119845 -2.8958771 -0.091032214 0
-1.0318151 -3.5393701 -0.091370128 0
-1.5440302 -4.8040895 -0.090638719 0
-3.9017501 -10.625576 -0.1407551 0
-0.31740716 -1.8362284 -0.091356196 0
-0.35821283 -1.9447768 -0.091292121 0
-0.40841982 -2.0783339 -0.090244122 0
-0.47922304 -2.2666798 -0.090812214 0
-0.57588995 -2.5238264 -0.090629362 0
-0.72189832 -2.9122276 -0.0907804 0
-0.96441728 -3.5573597 -0.090828128 0
-1.4500099 -4.8490996 -0.090998925 0
-3.6597703 -10.727349 -0.14091338 0
-0.29675555 -1.8463488 -0.091886558 0
-0.33230773 -1.9486907 -0.090326138 0
-0.3803297 -2.0869286 -0.090002619 0
-0.44547752 -2.2744656 -0.09022852 0
-0.53824204 -2.541501 -0.0910758 0
-0.67458659 -2.9339876 -0.091188841 0
-0.89897549 -3.5799222 -0.090755783 0
-1.3504788 -4.8796372 -0.090760238 0
-3.4104636 -10.809587 -0.14074045 0
-0.27038702 -1.839029 -0.088637911 0
-0.31028834 -1.9639753 -0.09174601 0
-0.35268047 -2.0967214 -0.090092622 0
-0.41446123 -2.2901807 -0.09094549 0
-0.50240993 -2.565582 -0.092421718 0
-0.62260908 -2.9419718 -0.090361677 0
-0.82945931 -3.5896997 -0.089867465 0
-1.2531536 -4.9164495 -0.090953402 0
-3.1604211 -10.888838 -0.14065021 0
-0.25133723 -1.8540926 -0.090517245 0
-0.28513074 -1.9699203 -0.09143243 0
-0.32585832 -2.1095145 -0.090815522 0
-0.38047239 -2.2967048 -0.090426721 0
-0.4567014 -2.5579805 -0.090011083 0
-0.57615793 -2.9674189 -0.091366582 0
-0.76514947 -3.6151896 -0.090258174 0
-1.1541929 -4.9486403 -0.091040604 0
-2.9101303 -10.967134 -0.14069095 0
-0.22998531 -1.8622553 -0.090972818 0
-0.26146615 -1.9812441 -0.092293061 0
-0.29481095 -2.1072781 -0.08909405 0
-0.34786567 -2.3078103 -0.090702541 0
-0.41701895 -2.5691905 -0.090030633 0
-0.52396923 -2.9734328 -0.090602078 0
-0.70019013 -3.6394989 -0.090678699 0
-1.0522838 -4.970315 -0.090741508 0
-2.6603835 -11.048485 -0.14095737 0
-0.21011201 -1.8771676 -0.09301845 0
-0.23511477 -1.9823346 -0.091283374 0
-0.26609519 -2.1126449 -0.088800065 0
-0.31500554 -2.3183727 -0.091017552 0
-0.37887004 -2.5870008 -0.090963684 0
-0.47148579 -2.976563 -0.089692257 0
-0.63603061 -3.6686747 -0.091564603 0
-0.94428331 -4.9652529 -0.089288272 0
-2.4040909 -11.105524 -0.14079231 0
-0.18633638 -1.8760259 -0.091674782 0
-0.2092541 -1.984519 -0.090618022 0
-0.23824476 -2.1217616 -0.089259617 0
-0.27964622 -2.3177571 -0.089844756 0
-0.34217927 -2.6137903 -0.093079694 0
-0.42344472 -2.9985032 -0.090708472 0
-0.56579673 -3.6724014 -0.09074343 0
-0.84676427 -5.0025086 -0.089986376 0
-2.1479053 -11.162146 -0.14077234 0
-0.16348307 -1.8781967 -0.091183431 0
-0.18361139 -1.9869918 -0.090136342 0
-0.2108489 -2.1342125 -0.090392135 0
-0.24761686 -2.3329461 -0.091064103 0
-0.29758906 -2.6030495 -0.090835489 0
-0.37143907 -3.0022147 -0.090105005 0
-0.49643704 -3.6778381 -0.090174012 0
-0.94370854 -6.0953741 -0.14077559 0
-1.8908099 -11.214529 -0.14080553 0
-0.14038064 -1.8781508 -0.090341382 0
-0.15842529 -1.9916182 -0.090191014 0
-0.18143404 -2.1363001 -0.089910798 0
-0.21204843 -2.3288076 -0.089643516 0
-0.25880104 -2.6227944 -0.09234143 0
-0.3194747 -3.0043185 -0.08947634 0
-0.42930582 -3.6949513 -0.090557598 0
-0.81375468 -6.1124172 -0.14053203 0
-1.6337247 -11.268499 -0.14102904 0
-0.11882859 -1.8883363 -0.091821425 0
-0.13312095 -1.9955915 -0.090242453 0
-0.15287474 -2.143831 -0.090456896 0
-0.17701136 -2.3249609 -0.088396601 0
-0.21611632 -2.6184189 -0.091114067 0
-0.26883149 -3.0140126 -0.089688249 0
-0.36052021 -3.7020781 -0.090355314 0
-0.68479568 -6.1355591 -0.14073005 0
-1.3720499 -11.292965 -0.14071222 0
-0.096131556 -1.8913039 -0.091870822 0
-0.10705248 -1.9927479 -0.08912351 0
-0.12334952 -2.1441302 -0.089925461 0
-0.14440998 -2.3397601 -0.089913733 0
-0.17461418 -2.6203256 -0.090755276 0
-0.21800031 -3.0233374 -0.08998508 0
-0.29369062 -3.7264211 -0.091486357 0
-0.55507487 -6.1544075 -0.14087917 0
-1.1116767 -11.324657 -0.14071995 0
-0.072180778 -1.8793385 -0.088857569 0
-0.0824714 -2.0045402 -0.090897359 0
-0.093745925 -2.1417124 -0.089070104 0
-0.11040714 -2.3444223 -0.090114556 0
-0.13374268 -2.628336 -0.091236018 0
-0.16649035 -3.0267632 -0.089849137 0
-0.22404225 -3.7269731 -0.091064669 0
-0.42482245 -6.1697803 -0.14101869 0
-0.85003912 -11.343211 -0.14057462 0
-0.049979553 -1.8858063 -0.089901946 0
-0.05693737 -2.0082266 -0.091256611 0
-0.065209784 -2.1537769 -0.09072306 0
-0.076132692 -2.3459613 -0.08999633 0
-0.080930673 -2.4303803 -0.067726128 0
-0.080900989 -2.429858 -0.033709485 0
-0.081268914 -2.4363315 -0.00035455613 0
-0.080958731 -2.4308739 0.033749755 0
-0.080968879 -2.4310524 0.067394733 0
-0.081422716 -2.4390376 0.10101185 0
-0.027686246 -1.8976727 -0.092212833 0
-0.031220429 -2.0096869 -0.091317572 0
-0.035473984 -2.1445012 -0.088984229 0
-0.040671505 -2.3092341 -0.084619485 0
-0.040874772 -2.3156765 -0.054125655 0
-0.040676627 -2.3093965 -0.02230989 0
-0.040578645 -2.3062911 0.0088539589 0
-0.04100243 -2.3197227 0.039001852 0
-0.041029815 -2.3205905 0.070001714 0
-0.040741947 -2.3114667 0.10100816 0
-0.0046850871 -1.8865783 -0.089762278 0
-0.0054389434 -2.0061018 -0.090550505 0
-0.006312666 -2.1446304 -0.088914759 0
-0.0067063957 -2.207056 -0.070171036 0
-0.0067797932 -2.2186933 -0.042716611 0
-0.0067124055 -2.208009 -0.012787296 0
-0.0067226533 -2.2096338 0.015655326 0
-0.0067106681 -2.2077336 0.044245161 0
-0.0066870339 -2.2039864 0.072727658 0
-0.0067934678 -2.2208614 0.10100555 0
0.018158231 -1.8971131 -0.092032351 0
0.020333013 -2.0120056 -0.091693155 0
0.023095811 -2.1579628 -0.091136582 0
0.023739642 -2.1919761 -0.06807863 0
0.024142729 -2.2132709 -0.042105649 0
0.02383743 -2.1971421 -0.011790914 0
0.023762833 -2.1932013 0.016790742 0
0.02392946 -2.202004 0.044502914 0
0.023832789 -2.1968968 0.072888024 0
0.023861844 -2.198432 0.10100492 0
0.040936295 -1.8936372 -0.091446526 0
0.045991335 -2.008033 -0.091097675 0
0.051872134 -2.1411161 -0.088518135 0
0.054332461 -2.1967936 -0.068890981 0
0.053941112 -2.1879373 -0.039255906 0
0.054454718 -2.1995602 -0.01210667 0
0.054170508 -2.1931286 0.016728768 0
0.054578021 -2.2023506 0.044441782 0
0.054702897 -2.2051766 0.072672963 0
0.054165926 -2.1930249 0.10100479 0
0.06331218 -1.8861703 -0.090131707 0
0.071223632 -1.9999952 -0.089855753 0
0.081570625 -2.1488609 -0.090066068 0
0.085572161 -2.2064326 -0.070492677 0
0.085524485 -2.2057467 -0.041543622 0
0.084767558 -2.1948564 -0.011828853 0
0.085137837 -2.2001836 0.01611344 0
0.086009949 -2.2127311 0.043876212 0
0.08495564 -2.1975625 0.072809801 0
0.08550261 -2.2054319 0.1010052 0
0.085072108 -1.8753632 -0.088221006 0
0.096816257 -1.9991018 -0.090082936 0
0.11040799 -2.1423068 -0.089380689 0
0.11526327 -2.1934628 -0.069017805 0
0.11652379 -2.206744 -0.041956637 0
0.11591175 -2.2002954 -0.012573032 0
0.11674441 -2.2090685 0.015313329 0
0.11610504 -2.202332 0.044243969 0
0.11622482 -2.203594 0.072610468 0
0.11494917 -2.1901534 0.10100483 0
0.10807011 -1.8785084 -0.089409091 0
0.12326936 -2.0047076 -0.091666199 0
0.14010875 -2.1445251 -0.090265729 0
0.1467699 -2.1998324 -0.070381872 0
0.14622448 -2.1953039 -0.040998761 0
0.14595988 -2.1931069 -0.012206076 0
0.14663638 -2.1987238 0.015808711 0
0.14849553 -2.2141602 0.043535009 0
0.14634936 -2.1963406 0.072703175 0
0.14664887 -2.1988275 0.10100517 0
0.13077241 -1.8775804 -0.089850999 0
0.14804138 -1.9957626 -0.090612359 0
0.1700342 -2.1462729 -0.09120021 0
0.1780526 -2.2011478 -0.071145855 0
0.18005015 -2.214818 -0.04378188 0
0.17859323 -2.2048476 -0.013694813 0
0.17755046 -2.1977112 0.015593396 0
0.17947257 -2.2108653 0.043496568 0
0.17906353 -2.208066 0.072332442 0
0.17672251 -2.192045 0.1010051 0
0.15446997 -1.8817351 -0.091514446 0
0.17365547 -1.993282 -0.090908684 0
0.19951655 -2.1436415 -0.091534145 0
0.20974778 -2.2031271 -0.072120242 0
0.20906694 -2.1991687 -0.042508084 0
0.21077004 -2.2090707 -0.014555892 0
0.20935448 -2.2008402 0.015028113 0
0.21006116 -2.2049491 0.043544922 0
0.20867345 -2.1968808 0.072481163 0
0.21032888 -2.2065055 0.10100566 0
0.17587356 -1.8722032 -0.090349741 0
0.1991764 -1.9898386 -0.091145463 0
0.22670265 -2.128794 -0.08994741 0
0.24112222 -2.2015855 -0.072709419 0
0.23963408 -2.1940732 -0.042572457 0
0.241951 -2.2057695 -0.014782405 0
0.23928587 -2.1923156 0.015233466 0
0.24028824 -2.1973755 0.043635618 0
0.24081986 -2.2000592 0.072272502 0
0.24137433 -2.2028582 0.10100572 0
0.19749616 -1.8648431 -0.089768924 0
0.2223081 -1.9753861 -0.089382447 0
0.2558727 -2.1249244 -0.090316035 0
0.27247366 -2.1988854 -0.073248811 0
0.27234003 -2.1982901 -0.043844763 0
0.27519229 -2.2109976 -0.015901236 0
0.27431971 -2.2071099 0.013715209 0
0.27048111 -2.1900082 0.043680694 0
0.27523279 -2.2111781 0.071854167 0
0.27158061 -2.1949067 0.10100567 0
0.22231892 -1.8707335 -0.092207648 0
0.2475352 -1.9711502 -0.089705281 0
0.28349882 -2.1143649 -0.089677773 0
0.30279493 -2.1912062 -0.073184468 0
0.30106854 -2.1843312 -0.04303414 0
0.3065336 -2.2060943 -0.016132621 0
0.30400473 -2.1960237 0.013989234 0
0.30431238 -2.1972489 0.042988393 0
0.30472201 -2.19888 0.071973771 0
0.30548355 -2.2019126 0.10100609 0
0.24164861 -1.8546587 -0.089955129 0
0.26954845 -1.9549751 -0.087820373 0
0.31481463 -2.1177337 -0.091529571 0
0.3374345 -2.1990654 -0.075497545 0
0.3373701 -2.1988339 -0.045758102 0
0.33628801 -2.1949432 -0.015836721 0
0.33983672 -2.2077029 0.012559095 0
0.34086481 -2.2113996 0.041916199 0
0.33921909 -2.2054822 0.071620196 0
0.33646739 -2.1955881 0.10100614 0
0.26484096 -1.8530078 -0.090999089 0
0.29924121 -1.9656101 -0.091310002 0
0.34165144 -2.1044316 -0.090666138 0
0.37175465 -2.2029684 -0.077375121 0
0.36880484 -2.1933129 -0.046167705 0
0.36875606 -2.1931531 -0.0165252 0
0.37242341 -2.2051575 0.012091817 0
0.36970785 -2.1962688 0.042216349 0
0.36771834 -2.1897564 0.071785621 0
0.37059975 -2.1991882 0.10100652 0
0.28494567 -1.8412638 -0.089921065 0
0.32371894 -1.9575914 -0.091273792 0
0.37100232 -2.0994511 -0.091353916 0
0.4330734 -2.285677 -0.091070242 0
0.51961744 -2.5453265 -0.090724371 0
0.64822358 -2.9311707 -0.090088479 0
0.86429638 -3.5794327 -0.08989837 0
1.3024125 -4.8938689 -0.090637274 0
3.289361 -10.855115 -0.14082076 0
0.30960393 -1.8428229 -0.091954269 0
0.3446297 -1.9396884 -0.089380778 0
0.39762077 -2.0862377 -0.090738095 0
0.46305534 -2.2672002 -0.090000026 0
0.56154394 -2.5395753 -0.091697507 0
0.69993144 -2.9222927 -0.090889581 0
0.93007898 -3.5587771 -0.090043448 0
1.40292 -4.8664422 -0.090966605 0
3.5349858 -10.762774 -0.14066672 0
0.33002022 -1.8321491 -0.091357566 0
0.37247238 -1.9408911 -0.091438331 0
0.42300397 -2.0703287 -0.089758523 0
0.4959867 -2.2572751 -0.090322934 0
0.59953117 -2.522506 -0.091392376 0
0.75068218 -2.9096818 -0.091454692 0
1.0001503 -3.5486987 -0.091107763 0
1.5035533 -4.8381734 -0.091383331 0
3.7794123 -10.667826 -0.14060006 0
0.34977585 -1.82023 -0.090585582 0
0.39663541 -1.9318618 -0.091570459 0
0.44864815 -2.0557699 -0.089122824 0
0.52311367 -2.2331665 -0.088613532 0
0.63334149 -2.4957583 -0.089978121 0
0.79374963 -2.8778927 -0.090213425 0
1.0631469 -3.5196683 -0.090879895 0
1.5936894 -4.7835603 -0.090601929 0
4.0308986 -10.589636 -0.14111006 0
0.36707357 -1.8032572 -0.088742532 0
0.41450813 -1.9087206 -0.088914923 0
0.47771192 -2.0492444 -0.090043567 0
0.5609889 -2.2343979 -0.090894379 0
0.66812062 -2.4725885 -0.089115031 0
0.84379119 -2.8631647 -0.090814777 0
1.1250987 -3.4886079 -0.090615027 0
1.6908875 -4.746551 -0.090825744 0
4.2647109 -10.469047 -0.14070588 0
0.39544544 -1.8103101 -0.092645206 0
0.44360468 -1.9105446 -0.091537513 0
0.5009895 -2.0299802 -0.08878579 0
0.58717448 -2.2093582 -0.089255176 0
0.70711035 -2.4589822 -0.089594625 0
0.89073426 -2.841161 -0.090800069 0
1.1856259 -3.4549224 -0.090263925 0
1.7799838 -4.6919665 -0.090270512 0
4.5018125 -10.356943 -0.14066699 0
0.4116362 -1.7915032 -0.090593301 0
0.46641323 -1.8985077 -0.091415741 0
0.53071511 -2.0241189 -0.090094052 0
0.62211215 -2.2026591 -0.090593927 0
0.73979914 -2.4325557 -0.088525571 0
0.93991178 -2.8234673 -0.091360562 0
1.2530572 -3.4351838 -0.091122799 0
1.8768719 -4.653779 -0.090682484 0
4.7411857 -10.249095 -0.1408941 0
0.43322316 -1.7836008 -0.091250189 0
0.48524988 -1.8792059 -0.089857049 0
0.56284469 -2.0217955 -0.092221893 0
0.64511693 -2.1729805 -0.088414736 0
0.77687871 -2.4151084 -0.088745587 0
0.98970693 -2.8062055 -0.092105754 0
1.3123395 -3.3990808 -0.090825699 0
1.966309 -4.6008267 -0.09044636 0
4.9743252 -10.128411 -0.14094345 0
0.45352915 -1.7731389 -0.091421254 0
0.51073962 -1.8722301 -0.091058932 0
0.5811891 -1.994252 -0.089747496 0
0.6772396 -2.1606159 -0.089106761 0
0.8200621 -2.4079912 -0.090488322 0
1.0275261 -2.7673287 -0.090666719 0
1.3719902 -3.3639567 -0.090723179 0
2.6024206 -5.49512 -0.14124809 0
5.1956573 -9.9867287 -0.14058663 0
0.47019354 -1.756616 -0.090211652 0
0.53010327 -1.8545877 -0.090065546 0
0.61034459 -1.9858078 -0.091002621 0
0.71205461 -2.1521363 -0.09058208 0
0.85082728 -2.3790741 -0.089419894 0
1.0773187 -2.7494597 -0.091607429 0
1.4285821 -3.3238878 -0.090336345 0
2.7136414 -5.4253712 -0.14110199 0
5.4210644 -9.8528738 -0.14058872 0
0.4906272 -1.7464235 -0.090690248 0
0.5544194 -1.845063 -0.090985484 0
0.63328409 -1.9670082 -0.090394445 0
0.73600006 -2.125834 -0.089244701 0
0.88085359 -2.3498154 -0.088393591 0
1.1163383 -2.7139359 -0.090739675 0
1.4885117 -3.2894132 -0.090526871 0
2.8188093 -5.3464003 -0.1405966 0
5.645637 -9.7174129 -0.14070265 0
0.51328808 -1.7392644 -0.09208969 0
0.57151568 -1.8245033 -0.089543156 0
0.65969187 -1.9535837 -0.090959825 0
0.76538956 -2.1083136 -0.08948075 0
0.92100036 -2.3361111 -0.089657404 0
1.1621832 -2.6891766 -0.091184072 0
1.5529027 -3.2611477 -0.091373406 0
2.9269583 -5.2726164 -0.14052331 0
5.8657713 -9.5747204 -0.14077322 0
0.52933437 -1.7223353 -0.091103382 0
0.60041505 -1.8209521 -0.092122622 0
0.68560296 -1.9391412 -0.091463156 0
0.80472577 -2.1044111 -0.092207603 0
0.95776898 -2.3167422 -0.090273015 0
1.1990376 -2.6514764 -0.090279646 0
1.6077994 -3.2185895 -0.091142602 0
3.0386481 -5.2037382 -0.14088549 0
6.0761395 -9.4179316 -0.14059892 0
0.54751253 -1.7085748 -0.09105102 0
0.62239039 -1.8071191 -0.0924908 0
0.70627087 -1.9175117 -0.09062653 0
0.83477998 -2.0866387 -0.092712738 0
0.98534852 -2.2847972 -0.089189537 0
1.2420518 -2.6226368 -0.09050446 0
1.6563936 -3.1679394 -0.090317376 0
3.1403964 -5.1209898 -0.14060698 0
6.2872739 -9.2624998 -0.14061451 0
0.56578159 -1.6949245 -0.091151305 0
0.63481075 -1.7811648 -0.090074576 0
0.7319057 -1.9024687 -0.09126813 0
0.84734118 -2.0466859 -0.089370735 0
1.0262108 -2.2701535 -0.090777181 0
1.2839249 -2.592124 -0.090662397 0
1.7109265 -3.125591 -0.090327509 0
3.2434988 -5.0402827 -0.14059618 0
6.4939146 -9.1011324 -0.14061083 0
0.57636619 -1.6720957 -0.088829286 0
0.65986085 -1.7711767 -0.09161558 0
0.75256199 -1.8811829 -0.090719424 0
0.88179684 -2.0345426 -0.091125466 0
1.0523719 -2.2369597 -0.08971981 0
1.3234603 -2.5586538 -0.09059038 0
1.7687218 -3.0870345 -0.09080907 0
3.3425736 -4.9546852 -0.14044422 0
6.6998787 -8.9387159 -0.14073212 0
0.59733605 -1.661787 -0.09008684 0
0.6758123 -1.7502817 -0.090603136 0
0.77194226 -1.8586837 -0.090005107 0
0.9106797 -2.0151327 -0.09171655 0
1.083944 -2.2105162 -0.089795016 0
1.3590021 -2.5206888 -0.090079181 0
1.8199351 -3.0404656 -0.09068767 0
3.437129 -4.8641138 -0.14013329 0
6.9027987 -8.7722178 -0.14088914 0
0.61771601 -1.6503873 -0.09120927 0
0.6980378 -1.7364854 -0.091497682 0
0.7997725 -1.8455364 -0.09148445 0
0.9316923 -1.9869432 -0.09077283 0
1.1151887 -2.1836357 -0.089928113 0
1.3995779 -2.4884768 -0.090403385 0
1.8628359 -2.98505 -0.089839794 0
3.5499072 -4.7934475 -0.14123249 0
7.092061 -8.5903368 -0.14072174 0
0.62789851 -1.6281942 -0.089296885 0
0.71404308 -1.7159846 -0.090791695 0
0.82215732 -1.8261644 -0.091727383 0
0.95383531 -1.960358 -0.090224572 0
1.1458428 -2.1560338 -0.09007401 0
1.4398636 -2.4556718 -0.090790547 0
1.9116088 -2.93643 -0.089741059 0
3.6435001 -4.7014093 -0.14114876 0
7.2789359 -8.4063015 -0.14063379 0
0.65494555 -1.6229538 -0.092590071 0
0.73150808 -1.6971387 -0.090623014 0
0.83752608 -1.7998642 -0.090472169 0
0.98454529 -1.9423175 -0.091498934 0
1.1727804 -2.1247065 -0.089726411 0
1.4737538 -2.416333 -0.090446152 0
1.9660735 -2.893363 -0.090319745 0
3.7314696 -4.6039329 -0.14085503 0
7.4612293 -8.2178612 -0.14055195 0
0.66673654 -1.6025774 -0.091437317 0
0.74861795 -1.6780047 -0.090490572 0
0.8603698 -1.780948 -0.091066234 0
1.0054653 -1.9146066 -0.090961508 0
1.2088069 -2.1019201 -0.090958215 0
1.5131683 -2.3822911 -0.090938263 0
2.5439906 -3.3318613 -0.14074403 0
3.8269384 -4.5136838 -0.14120035 0
7.6513762 -8.0366688 -0.14087243 0
0.68175066 -1.5853674 -0.091367327 0
0.76742268 -1.6603802 -0.090907611 0
0.87799096 -1.7571918 -0.090611957 0
1.0258696 -1.8866715 -0.090471663 0
1.2268682 -2.0626621 -0.08946275 0
1.5384927 -2.3355148 -0.089779399 0
2.6061459 -3.2703321 -0.14110264 0
3.9053051 -4.4078517 -0.14062245 0
7.8280845 -7.8425641 -0.14091358 0
0.69540668 -1.5670303 -0.091044702 0
0.78514326 -1.6416873 -0.091160558 0
0.90108055 -1.7381421 -0.091465838 0
1.0493045 -1.8614581 -0.090676285 0
1.2438068 -2.0232756 -0.08797995 0
1.5558461 -2.2828789 -0.08782167 0
2.6555245 -3.1977644 -0.14043473 0
3.9958375 -4.3128471 -0.14095683 0
7.9928484 -7.6381884 -0.14074242 0
0.70556295 -1.546007 -0.089907013 0
0.78872043 -1.611712 -0.088127829 0
0.91821855 -1.7140321 -0.09115801 0
1.0679591 -1.832346 -0.090135865 0
1.2697705 -1.9918027 -0.088020302 0
1.5940104 -2.2479935 -0.088537909 0
2.7117934 -3.1311841 -0.14055873 0
4.0731878 -4.2068591 -0.14064628 0
8.1615438 -7.4371796 -0.14084558 0
0.72904426 -1.5352961 -0.09247341 0
0.80798984 -1.5944999 -0.08902622 0
0.93190789 -1.6874301 -0.090273701 0
1.0796777 -1.7982476 -0.088517524 0
1.3150468 -1.9747586 -0.090998404 0
1.6272768 -2.2089102 -0.088773035 0
2.7648122 -3.0619855 -0.14054474 0
4.1469846 -4.0985222 -0.14029194 0
8.3193645 -7.2275267 -0.14077966 0
0.73585224 -1.5119611 -0.09071625 0
0.83935821 -1.5855778 -0.092806436 0
0.95226365 -1.6658798 -0.090886287 0
1.1094787 -1.7776963 -0.090196155 0
1.321437 -1.9284477 -0.08840888 0
1.6696123 -2.1760812 -0.090156816 0
2.8128076 -2.9891582 -0.14025126 0
4.2289042 -3.9963317 -0.1405656 0
8.4743853 -7.0158534 -0.14078744 0
0.75145954 -1.4950414 -0.091396488 0
0.84099334 -1.555378 -0.089821331 0
0.96740925 -1.6405691 -0.090564735 0
1.1288885 -1.7493893 -0.090174191 0
1.3432173 -1.8938246 -0.088198148 0
1.6938578 -2.1301198 -0.089575209 0
2.8639216 -2.9186213 -0.14038201 0
4.3045101 -3.8894284 -0.14062633 0
8.6185398 -6.7966352 -0.14064153 0
0.76362324 -1.4757167 -0.091306247 0
0.85163575 -1.5318519 -0.089067794 0
0.98087168 -1.6142796 -0.090045772 0
1.1626618 -1.730227 -0.092666902 0
1.3699723 -1.8624514 -0.088802569 0
1.7377493 -2.0970228 -0.091307409 0
2.913486 -2.8469183 -0.140531 0
4.3772154 -3.7804978 -0.14067613 0
8.7645235 -6.5787611 -0.14070225 0
0.77217203 -1.4542207 -0.090442158 0
0.8610909 -1.5078267 -0.088196136 0
1.0038562 -1.5938948 -0.091490321 0
1.1723176 -1.6954544 -0.091244347 0
1.4011565 -1.8334135 -0.090111218 0
1.7627479 -2.0514042 -0.091046087 0
2.9704835 -2.7795062 -0.14143343 0
4.4447637 -3.6682982 -0.14059548 0
8.9126663 -6.3618407 -0.14097115 0
0.78235543 -1.4338739 -0.090123825 0
0.88307345 -1.4911793 -0.090184011 0
1.0129737 -1.5650885 -0.090390198 0
1.1915761 -1.6667078 -0.091537692 0
1.404932 -1.7881006 -0.087814979 0
1.7855092 -2.0046372 -0.090672813 0
3.005336 -2.6986809 -0.1406797 0
4.5108757 -3.5552862 -0.1405919 0
9.035223 -6.1294985 -0.14069936 0
0.78931069 -1.4118662 -0.08915595 0
0.90522456 -1.4739997 -0.092271648 0
1.0219989 -1.5365945 -0.089424171 0
1.2048258 -1.6345956 -0.090985484 0
1.4410858 -1.7612387 -0.089995794 0
1.8142411 -1.961262 -0.091062717 0
3.0470569 -2.6220913 -0.14064384 0
4.5719628 -3.4394901 -0.14047465 0
9.1571054 -5.897274 -0.14056918 0
0.80300003 -1.3934933 -0.089936294 0
0.90333641 -1.4440604 -0.089354657 0
1.0433704 -1.514634 -0.090875827 0
1.2171258 -1.6022024 -0.090419196 0
1.4449242 -1.7170072 -0.088009082 0
1.8357159 -1.9139564 -0.090804376 0
3.0888488 -2.5455041 -0.14076631 0
4.6431298 -3.3288231 -0.14103775 0
9.2760916 -5.6637197 -0.14051889 0
0.81544125 -1.3743097 -0.090523653 0
0.9203586 -1.4239066 -0.090570338 0
1.0558004 -1.487933 -0.090786196 0
1.2208796 -1.5659697 -0.088659026 0
1.4822478 -1.6895245 -0.090519883 0
1.8431298 -1.8601218 -0.08922141 0
3.1237624 -2.4655066 -0.14050587 0
4.7039933 -3.2125182 -0.14120834 0
9.3994608 -5.4321737 -0.14073443 0
0.82861006 -1.3552796 -0.091386788 0
0.92972827 -1.3999949 -0.090301923 0
1.0706766 -1.4623233 -0.091258951 0
1.2466716 -1.5401498 -0.090446152 0
1.5053297 -1.6545305 -0.091272049 0
1.8714076 -1.816413 -0.089924864 0
3.1719093 -2.3915055 -0.14141507 0
4.7541265 -3.0911748 -0.14098111 0
9.502862 -5.1911035 -0.14058942 0
0.82603759 -1.3295209 -0.088732712 0
0.94256955 -1.3775749 -0.090867184 0
1.0778705 -1.4333684 -0.09047664 0
1.2493856 -1.5040956 -0.088806219 0
0.89032465 -1.3560308 -0.011461554 0
1.8982602 -1.7716699 -0.090589114 0
3.2108328 -2.3129311 -0.14175944 0
4.8085699 -2.9717846 -0.14112835 0
9.6089783 -4.951313 -0.140668 0
0.84623677 -1.3131462 -0.091436394 0
0.94621092 -1.3514503 -0.089686103 0
1.0158923 -1.3781481 -0.077656709 0
0.88448799 -1.3278018 -0.03199539 0
0.88922125 -1.3296154 -0.010200782 0
0.93507552 -1.3471839 0.007600585 0
3.2211325 -2.2230639 -0.1401068 0
4.8513269 -2.8476567 -0.14084254 0
9.7012911 -4.7058721 -0.14055362 0
0.84356976 -1.2879699 -0.089052849 0
0.95780146 -1.328462 -0.090236418 0
1.0009724 -1.3437649 -0.073400654 0
0.85203314 -1.29097 -0.025924748 0
0.86636537 -1.2960503 -0.006337015 0
0.89920586 -1.3076915 0.012017587 0
3.2529399 -2.1420271 -0.14023313 0
4.9053359 -2.7277575 -0.14127053 0
9.8076563 -4.4654984 -0.14094041 0
0.86233002 -1.2703656 -0.091622494 0
0.8516131 -1.2668685 -0.067562677 0
0.85374409 -1.2675638 -0.046456654 0
0.86513776 -1.2712817 -0.026776826 0
0.85366064 -1.2675366 -0.0038574615 0
0.85931093 -1.2693803 0.01669533 0
0.92253464 -1.2900112 0.033201318 0
4.948154 -2.6036305 -0.14129581 0
9.8828325 -4.2138891 -0.14071028 0
0.85606915 -1.2446377 -0.088721223 0
0.8611604 -1.2461581 -0.068115957 0
1.1205844 -1.3236264 -0.091068082 0
0.86731297 -1.2479954 -0.026092684 0
1.0463148 -1.3014482 -0.026532879 0
0.87227315 -1.2494766 0.016094426 0
0.90834749 -1.2602489 0.034768578 0
0.94256967 -1.2704682 0.055222027 0
9.9656744 -3.964916 -0.14082259 0
0.87247139 -1.2257578 -0.090974756 0
0.88110834 -1.2281014 -0.070797615 0
0.87955379 -1.2276795 -0.048646245 0
1.0588218 -1.2763207 -0.053069104 0
0.89013755 -1.2305512 -0.0067064743 0
0.88767505 -1.2298831 0.01521291 0
0.92214429 -1.2392358 0.034243476 0
