# .PCD v0.7 - Point Cloud Data file format
VERSION 0.7
FIELDS x y z intensity
SIZE 4 4 4 4
TYPE F F F F
COUNT 1 1 1 1
WIDTH 1361
HEIGHT 1
VIEWPOINT 0 0 0 1 0 0 0
POINTS 1361
DATA ascii
0.093128048 0.81108034 0.47283787 0
0.74951249 0.38774562 -0.049983818 0
0.91456896 0.27830201 0.069054253 0
0.83807153 0.32902503 0.18594399 0
0.83729213 0.3295418 0.30780283 0
0.8398307 0.32785857 0.43372539 0
0.11340304 0.80952919 0.48333046 0
0.75525159 0.40753973 -0.049768478 0
0.95319396 0.27984923 0.070178084 0
0.84172803 0.35175472 0.18493576 0
0.83680624 0.35492969 0.30522326 0
0.83873314 0.35368663 0.42988408 0
0.12136593 0.81645244 0.48503521 0
0.76968437 0.4217037 -0.049931791 0
0.99263412 0.28182489 0.07132826 0
0.84698659 0.37320423 0.18417519 0
0.84721547 0.3730607 0.30505192 0
0.84513158 0.37436813 0.42842904 0
0.12509246 0.82612103 0.48382199 0
0.78334707 0.43647605 -0.050069135 0
1.0339658 0.2836014 0.072549775 0
0.8390246 0.40251338 0.18179029 0
0.83469969 0.40515149 0.30008736 0
0.83103746 0.40738541 0.42093906 0
0.14559372 0.8254987 0.49435586 0
0.79877967 0.45031536 -0.050286662 0
1.0783072 0.28459942 0.073888063 0
0.83916217 0.42637485 0.18048134 0
0.83521432 0.42871541 0.29797667 0
0.83501405 0.42883408 0.41898823 0
0.13378079 0.8445555 0.48252755 0
0.79428512 0.47581244 -0.049688842 0
0.85365957 0.4416157 0.18100014 0
0.84234065 0.44813484 0.29731929 0
0.84507912 0.44655758 0.41892394 0
0.14114453 0.85198975 0.48407358 0
0.80780774 0.49075294 -0.049845405 0
0.85035247 0.46695757 0.17934665 0
0.84191149 0.47167867 0.29515597 0
0.84817547 0.46817511 0.41688842 0
0.14114471 0.86361951 0.48066908 0
0.81898683 0.50709492 -0.049913369 0
0.84467918 0.49314684 0.17745422 0
0.84035069 0.49549675 0.29283619 0
0.82564956 0.50347781 0.40750778 0
0.83002859 0.5235669 -0.049983677 0
0.85940903 0.5080924 0.17809275 0
0.84255403 0.5169698 0.29136038 0
0.83923572 0.51871753 0.40873092 0
0.82921404 0.54615325 -0.049586583 0
0.84404451 0.53857911 0.17511837 0
0.83844095 0.54144096 0.28866979 0
0.8377139 0.5418123 0.40567324 0
0.83464116 0.54338157 0.52602917 0
0.84792978 0.55876434 -0.0499813 0
0.8546322 0.55544704 0.17532063 0
0.83221 0.56654465 0.28563198 0
0.84478647 0.56032008 0.40516421 0
0.83924371 0.56306338 0.52445573 0
0.86784118 0.57111442 -0.050427292 0
0.87191564 0.5691613 0.17634504 0
0.8482818 0.58049041 0.28713635 0
0.84226888 0.58337271 0.40201104 0
0.84128815 0.58384287 0.52203965 0
0.87228376 0.5909918 -0.05026802 0
0.90909129 0.57391429 0.17974071 0
0.8467223 0.60285145 0.28516164 0
0.84212297 0.60498542 0.39962512 0
0.84449261 0.60388595 0.52015936 0
0.86999017 0.61377233 -0.049855873 0
0.93270034 0.58563089 0.18152627 0
0.84576374 0.62464404 0.28337267 0
0.8415305 0.6265437 0.39720413 0
0.8405003 0.62700605 0.51575756 0
0.88734251 0.62771881 -0.050221682 0
0.97064859 0.59158814 0.18499914 0
0.8409602 0.64783531 0.28089169 0
0.84754878 0.64497775 0.39671043 0
0.84991986 0.64394939 0.51634932 0
0.88494688 0.65021944 -0.049828008 0
1.0134969 0.5963788 0.18903343 0
0.83280426 0.6720584 0.2778255 0
0.84085768 0.66868538 0.3927682 0
0.83656055 0.67048514 0.50879878 0
0.88423222 0.6717447 -0.049512003 0
1.050001 0.60475636 0.1923189 0
0.83837909 0.6902743 0.27750528 0
0.82703656 0.6948579 0.38696635 0
0.84998971 0.68558234 0.51101941 0
0.89899427 0.6870054 -0.049800929 0
1.0820961 0.61568129 0.19509198 0
0.85303897 0.70490652 0.27898949 0
0.83096498 0.71350509 0.38614324 0
0.84580666 0.70772374 0.50700891 0
0.27869084 0.92863399 0.45495105 0
0.91234833 0.70301527 -0.050042149 0
0.85289508 0.72531617 0.27765083 0
0.84363753 0.72878873 0.38777086 0
0.85153538 0.7258262 0.50663853 0
0.28523746 0.938245 0.45629346 0
0.91177112 0.72423571 -0.049761206 0
0.84445888 0.74852228 0.27477771 0
0.84336942 0.74891537 0.38593349 0
0.84208947 0.74937713 0.5009836 0
0.2621676 0.95861548 0.44194096 0
0.91963059 0.74232531 -0.049810383 0
0.847624 0.76728547 0.27418748 0
0.83470792 0.77176267 0.3819063 0
0.83261079 0.77248961 0.49544638 0
0.84543699 0.76804358 0.62073356 0
0.26377013 0.96967101 0.44085231 0
0.93141085 0.75915074 -0.050015461 0
0.85546726 0.78440905 0.27453381 0
0.82794398 0.79356313 0.37848365 0
0.83008462 0.79285115 0.49247217 0
0.83812338 0.79017752 0.6149193 0
0.2936568 0.97126347 0.45475569 0
0.92921144 0.78058612 -0.049703851 0
0.85365993 0.80466181 0.27309296 0
0.84419221 0.80767888 0.38131043 0
0.84530908 0.80732298 0.49579772 0
0.83146662 0.81173408 0.60953516 0
0.30809334 0.97851562 0.4605006 0
0.94468421 0.79640758 -0.050063115 0
0.84221619 0.82764506 0.26988891 0
0.83871061 0.82871372 0.37837797 0
0.83783525 0.82898057 0.49127939 0
0.84243602 0.82757801 0.61191875 0
0.31719139 0.98769939 0.46347892 0
0.955782 0.81376994 -0.050265808 0
0.87730521 0.83661777 0.27549165 0
0.83783251 0.8481099 0.37675005 0
0.83827156 0.84798205 0.48961318 0
0.83967668 0.84757298 0.60845965 0
0.325479 0.99727708 0.46608442 0
0.95251852 0.83526969 -0.049943816 0
0.89000827 0.85261822 0.27690613 0
0.84990972 0.86374688 0.37862286 0
0.84963256 0.86382377 0.49180746 0
0.83633143 0.86751527 0.60486919 0
0.31500211 1.0122006 0.45900005 0
0.96730202 0.85177308 -0.050299283 0
0.93350333 0.86069643 0.28409716 0
0.84736532 0.88343835 0.37668318 0
0.82615036 0.88903946 0.48207387 0
0.82979387 0.8880775 0.60003138 0
0.32369074 1.0216972 0.46195447 0
0.96449333 0.87294656 -0.050013807 0
0.95616084 0.87503463 0.28741023 0
0.8444466 0.90302926 0.37471652 0
0.84662288 0.90248388 0.48755571 0
0.83981389 0.90419018 0.60238689 0
0.33381459 1.0309892 0.4657017 0
0.96446759 0.89325613 -0.049841095 0
0.9853937 0.88829142 0.29196572 0
0.82951039 0.92527479 0.36966935 0
0.83642453 0.92363441 0.48259187 0
0.83415788 0.92417216 0.59815121 0
0.33009216 1.043762 0.46237779 0
0.96777016 0.91269857 -0.049800009 0
1.0150551 0.90210724 0.29661849 0
0.84024161 0.94126356 0.37142062 0
0.83557826 0.94230807 0.48092145 0
0.84082538 0.94113278 0.59926325 0
0.33832815 1.0536867 0.4652774 0
0.97528416 0.93122679 -0.049921628 0
1.0552976 0.91435975 0.30324125 0
0.84577936 0.95852667 0.37186563 0
0.84115034 0.95950246 0.48151776 0
0.84586889 0.95850778 0.59977561 0
0.34987774 1.0630639 0.4699277 0
0.98069686 0.950261 -0.049974985 0
1.0837091 0.92989701 0.30770096 0
0.84618956 0.97685111 0.3710326 0
0.84160668 0.9777571 0.48045126 0
0.83964628 0.97814465 0.59562433 0
0.35846421 1.0732672 0.47311544 0
0.99157375 0.96832782 -0.050235298 0
0.84002298 0.99630916 0.36855519 0
0.82958454 0.99823642 0.47524333 0
0.84448725 0.99548489 0.59624511 0
0.38228127 1.0808237 0.48411053 0
0.99159497 0.98844737 -0.050110076 0
0.85572892 1.0117677 0.37180859 0
0.84191138 1.0141394 0.47835305 0
0.82592839 1.0168828 0.58712626 0
0.38257816 1.0929804 0.48319006 0
0.98313969 1.0098259 -0.049687859 0
0.42186102 1.0989048 0.041398697 0
0.43257752 1.0972041 0.11372453 0
0.42412463 1.0985456 0.18523344 0
0.43335852 1.0970801 0.26193967 0
0.44091842 1.0958803 0.34229398 0
0.42859831 1.0978357 0.4193511 0
0.39943495 1.1024641 0.49073836 0
0.98374909 1.029585 -0.049603183 0
0.40230557 1.1143731 0.040625356 0
0.40743414 1.1136252 0.11078747 0
0.40779278 1.1135728 0.18191357 0
0.41385862 1.1126883 0.2564218 0
0.40433803 1.1140766 0.32935107 0
0.40148202 1.1144931 0.40721351 0
0.40933588 1.1133479 0.49481612 0
1.0159849 1.0450809 -0.05066666 0
0.39764628 1.1273119 0.040396824 0
0.43093142 1.1228855 0.11315117 0
0.4265686 1.1234657 0.18502107 0
0.42881867 1.1231664 0.25983301 0
0.42605737 1.1235336 0.33607349 0
0.44288358 1.1212959 0.42380255 0
0.42293724 1.1239486 0.50082409 0
0.99553162 1.0676684 -0.049840949 0
0.38195607 1.1414162 0.039777849 0
0.422555 1.1365365 0.11207382 0
0.4322072 1.1353763 0.18576019 0
0.42283925 1.1365024 0.25789222 0
0.42284909 1.1365012 0.33447275 0
0.4302226 1.1356149 0.41785729 0
1.0086311 1.0860685 -0.050231338 0
0.36270192 1.1554663 0.039038125 0
0.85095483 1.103009 0.3673861 0
0.8401466 1.1041703 0.4736338 0
0.85059601 1.1030476 0.59231877 0
1.0019628 1.1066207 -0.049920686 0
0.35786101 1.1676289 0.038822502 0
0.84600514 1.1213927 0.36565799 0
0.84665555 1.1213311 0.47521421 0
0.82754892 1.1231408 0.58198804 0
0.99206525 1.127221 -0.049503952 0
0.35070482 1.1798307 0.038529657 0
0.85508293 1.1384574 0.36758181 0
0.84329718 1.1394242 0.47357133 0
0.84865552 1.1389847 0.59011573 0
1.0027527 1.1461021 -0.049833551 0
0.36958215 1.1900215 0.039174233 0
0.84052604 1.1573547 0.36351448 0
0.8366515 1.1576235 0.4709096 0
0.83831149 1.1575084 0.58526617 0
1.0080259 1.165526 -0.049977809 0
0.85962731 1.1739436 0.36811197 0
0.84111351 1.1749938 0.47202754 0
0.84440762 1.174807 0.58733463 0
1.0083947 1.1852714 -0.049955469 0
0.85628432 1.1919793 0.36702847 0
0.83892578 1.1927447 0.47100332 0
0.84267014 1.1925796 0.58624572 0
1.0067697 1.2050668 -0.049870804 0
0.8533116 1.2098991 0.3660979 0
0.83569294 1.2104539 0.469706 0
0.83397835 1.2105079 0.58236909 0
0.99898618 1.2249219 -0.049575161 0
0.84864181 1.2277619 0.36479211 0
0.83999628 1.2279252 0.4709909 0
0.84599537 1.2278119 0.58716267 0
1.0041379 1.2444903 -0.049750268 0
0.84983426 1.2454618 0.36503944 0
0.83195204 1.2455744 0.46824086 0
0.83747739 1.2455395 0.58354372 0
1.0074401 1.2641736 -0.049868166 0
0.84015566 1.2631204 0.36257011 0
0.84338647 1.2631408 0.47204512 0
0.84786087 1.2631689 0.58784294 0
1.0174655 1.2840703 -0.050235007 0
0.85247165 1.2809535 0.36576939 0
0.8401311 1.2807205 0.47103578 0
0.83354181 1.280596 0.58200556 0
1.0072219 1.3035905 -0.049886961 0
0.86341888 1.2990624 0.36867788 0
0.83247 1.2980877 0.4686332 0
0.83824307 1.2982695 0.58413577 0
1.0100226 1.3234435 -0.050013643 0
0.84970051 1.3163736 0.36534712 0
0.8479417 1.316296 0.47400579 0
0.83413035 1.3156869 0.58270645 0
1.0096519 1.3432093 -0.050035954 0
0.85621482 1.3345059 0.36723995 0
0.83660847 1.3333938 0.47052634 0
0.84773356 1.3340249 0.58871388 0
1.0132029 1.363266 -0.050207533 0
1.2910707 1.3825401 0.072151601 0
1.2929142 1.382668 0.20533052 0
1.3046916 1.383485 0.34263399 0
0.85087937 1.3520066 0.3661623 0
0.84731764 1.3517594 0.47446668 0
0.84458166 1.3515697 0.58786851 0
1.0020381 1.3822402 -0.049861193 0
1.2432855 1.4020293 0.070502959 0
1.2451252 1.4021802 0.2003675 0
1.0140425 1.3832248 0.29036078 0
0.84623593 1.36946 0.36531708 0
0.84637541 1.3694714 0.47459888 0
0.83632153 1.3686467 0.58499187 0
1.0110638 1.4028845 -0.050247058 0
1.2403969 1.4246066 0.07047119 0
1.2453895 1.4250795 0.20061243 0
0.89005071 1.3914223 0.26821551 0
0.85495704 1.3880984 0.36795211 0
0.83427376 1.3861393 0.47107643 0
0.8430267 1.3869683 0.5884251 0
1.0005314 1.4217044 -0.049940508 0
0.64072722 1.3830475 0.04902111 0
0.64915818 1.3839533 0.13641496 0
0.6418317 1.3831662 0.22352584 0
0.63240355 1.3821533 0.31130576 0
0.84068447 1.4045306 0.4738138 0
0.85328823 1.4058847 0.59343994 0
0.99745184 1.4412055 -0.049909998 0
0.55560666 1.3880986 0.04602202 0
0.54793721 1.3871768 0.12564556 0
0.54329723 1.3866191 0.20593932 0
0.54419225 1.3867266 0.28907612 0
0.8394137 1.4222103 0.47405887 0
0.83374161 1.4215286 0.5861311 0
0.99793297 1.4611615 -0.050016511 0
0.55139416 1.4017776 0.045934148 0
0.55313605 1.4020094 0.12640005 0
0.53953725 1.4002008 0.20557418 0
0.56495863 1.4035816 0.29487249 0
0.84351248 1.4406257 0.47618115 0
0.83715671 1.4397804 0.58848292 0
0.98699158 1.479531 -0.049720172 0
0.55219322 1.4161272 0.046033133 0
0.56048661 1.4173366 0.12740988 0
0.55593008 1.4166721 0.20891249 0
0.55990559 1.4172518 0.29407716 0
0.83276576 1.4570413 0.47339398 0
0.83693069 1.4576486 0.58941174 0
0.99723059 1.5010535 -0.050197218 0
0.54841787 1.4298238 0.045973487 0
0.55692309 1.4311736 0.12725511 0
0.56158608 1.4319136 0.21033472 0
0.55351669 1.4306329 0.29297957 0
0.83594936 1.475457 0.47536334 0
0.84965497 1.4776322 0.59586555 0
0.99081713 1.5200622 -0.050081901 0
0.54634804 1.4437726 0.045981735 0
0.5489946 1.4442269 0.12664302 0
0.55490524 1.4452413 0.20953761 0
0.55738324 1.4456667 0.29457796 0
0.84479815 1.4949992 0.4793275 0
0.84183115 1.4944899 0.59380686 0
0.98455435 1.5390193 -0.049980462 0
0.55332762 1.4594004 0.046324901 0
0.55675465 1.4600332 0.12776199 0
0.54981869 1.4587525 0.20906182 0
0.54545957 1.4579477 0.29213241 0
0.83689469 1.5117564 0.47771651 0
0.83467227 1.511346 0.59211266 0
0.98147589 1.5585362 -0.050003335 0
0.54538745 1.4723278 0.046133116 0
0.55431145 1.474092 0.12778775 0
0.56047648 1.4753107 0.21151045 0
0.5463447 1.4725171 0.29305214 0
0.8415615 1.5308771 0.48043594 0
0.83519441 1.5296184 0.59374547 0
0.96483845 1.5752144 -0.049540509 0
0.54798168 1.48734 0.046331111 0
0.55592114 1.4890137 0.12827817 0
0.55807072 1.4894668 0.21159625 0
0.54407471 1.4865165 0.29319942 0
0.83443588 1.5477252 0.47923484 0
0.83899361 1.548686 0.59686643 0
0.96206313 1.5946662 -0.04959121 0
0.55458111 1.5033947 0.046683107 0
0.54814512 1.5019531 0.12775694 0
0.55717343 1.5039754 0.21199396 0
0.55963629 1.5045271 0.29805529 0
0.83267027 1.5656837 0.47992998 0
0.84671217 1.5688289 0.60176098 0
0.97245485 1.6172819 -0.050134163 0
0.55650181 1.5185969 0.046871889 0
0.55180901 1.5174836 0.12851569 0
0.54775304 1.5165213 0.21084687 0
0.55879682 1.5191414 0.29868445 0
0.8309924 1.58372 0.48073447 0
0.84385878 1.5867724 0.60227925 0
0.95014817 1.6321018 -0.049485832 0
0.55708259 1.533603 0.047018986 0
0.5632028 1.5351366 0.13015489 0
0.54380518 1.5302757 0.21074297 0
0.55853695 1.5339674 0.29951638 0
0.8338899 1.6029685 0.48318854 0
0.83648652 1.6036192 0.60096663 0
0.95820421 1.6544681 -0.049963348 0
0.55839676 1.5489123 0.04720062 0
0.55778974 1.5487521 0.1299561 0
0.55401462 1.5477554 0.2133117 0
0.54561788 1.5455384 0.29705983 0
0.8367694 1.6224073 0.48572782 0
0.83164483 1.6210543 0.600824 0
0.95606774 1.6743585 -0.050075315 0
0.55036849 1.5617641 0.047043875 0
0.54443115 1.5601163 0.12888953 0
0.55036479 1.5617632 0.2133366 0
0.55076438 1.561874 0.29941651 0
0.84239393 1.6428103 0.48930818 0
0.84341782 1.6430945 0.60791415 0
0.94443208 1.6915687 -0.049843777 0
0.55720598 1.5788313 0.04744532 0
0.55342478 1.5777304 0.13033696 0
0.57183915 1.5830916 0.21811388 0
0.55884367 1.579308 0.30261573 0
0.83966595 1.661067 0.49009633 0
0.84414357 1.6623707 0.61038589 0
0.9369486 1.7098774 -0.049774397 0
0.84702998 1.6824656 0.38059697 0
0.84740192 1.6825789 0.49460676 0
0.83874673 1.6799405 0.61032182 0
0.93304008 1.7292771 -0.049847312 0
0.84858185 1.702363 0.38248584 0
0.83193618 1.6970587 0.49112824 0
0.83873647 1.6992257 0.61269426 0
0.93075877 1.7492756 -0.049990926 0
0.83813006 1.7184678 0.38122243 0
0.84396666 1.720409 0.4973394 0
0.83850724 1.7185932 0.61508679 0
0.92732984 1.7689866 -0.050101299 0
0.84846729 1.74165 0.3856217 0
0.8318972 1.7359061 0.49519509 0
0.83749038 1.7378449 0.61725134 0
0.9083001 1.7831551 -0.049629465 0
0.83983999 1.7584543 0.38497621 0
0.83273309 1.7558901 0.49767435 0
0.83405799 1.7563682 0.618469 0
0.92382008 1.8099309 -0.050479572 0
0.84496158 1.780351 0.38813162 0
0.83649892 1.7771767 0.50129569 0
0.83001429 1.7747443 0.61952496 0
0.91205877 1.8267268 -0.050301485 0
0.83712775 1.7975386 0.38783064 0
0.82798785 1.7939783 0.50064683 0
0.83084756 1.7950923 0.62285572 0
0.90357 1.844713 -0.050256621 0
0.8407988 1.8193467 0.39075339 0
0.82187539 1.8116995 0.50093114 0
0.8204574 1.8111266 0.62130564 0
0.90015513 1.8647933 -0.050416663 0
0.83565015 1.8377767 0.39132777 0
0.83066899 1.8356904 0.50667375 0
0.83166319 1.8361068 0.6295318 0
0.87223691 1.8743728 -0.049633857 0
0.83345932 1.8575546 0.39279222 0
0.82670957 1.8546271 0.50793236 0
0.83357853 1.8576063 0.63375187 0
0.87659305 1.8978338 -0.050114259 0
0.83059746 1.8771932 0.39414677 0
0.81720859 1.8711848 0.50726408 0
0.82896191 1.8764592 0.63515407 0
0.87206823 1.9175514 -0.050259538 0
0.83638602 1.900996 0.39801157 0
0.81569022 1.8913938 0.50959581 0
0.81756395 1.8922632 0.63357723 0
0.85391873 1.9308548 -0.049876083 0
0.8288458 1.9188359 0.39821324 0
0.81011277 1.9098561 0.51053768 0
0.80244368 1.9061798 0.63037294 0
0.86061078 1.9561551 -0.050486445 0
0.82237548 1.9372309 0.39878446 0
0.80836922 1.9302987 0.51299471 0
0.80920929 1.9307145 0.63734001 0
0.83273047 1.9642857 -0.049727544 0
0.82246882 1.9590449 0.40130588 0
0.80650109 1.9508901 0.51551688 0
0.8051278 1.9501886 0.63945228 0
0.83183855 1.9860295 -0.050056711 0
1.0267187 2.0886719 0.46279284 0
0.79663628 1.9674886 0.51514608 0
0.80971199 1.9743756 0.64574814 0
0.81965965 2.0019135 -0.049940702 0
0.79503399 1.9885445 0.39861992 0
0.79398233 1.9879736 0.51758134 0
0.79717344 1.989706 0.64416337 0
0.82001454 2.0247176 -0.050344735 0
0.79354078 2.0099106 0.40091726 0
0.78460866 2.0049148 0.51757032 0
0.79171425 2.008889 0.64601713 0
0.81221479 2.0431573 -0.050427534 0
0.78495079 2.0274546 0.40122077 0
0.78443187 2.0271556 0.52117175 0
0.78253013 2.0260603 0.64621961 0
0.79085153 2.0536275 -0.049957614 0
0.76962215 2.0410419 0.39959317 0
0.77599901 2.0448225 0.52171493 0
0.77436167 2.0438516 0.64701611 0
0.78479213 2.0730486 -0.050129563 0
0.77179927 2.0651231 0.40323561 0
0.7625863 2.0595031 0.52040797 0
0.76808649 2.0628583 0.64884531 0
0.76776379 2.0857344 -0.049850844 0
0.77073449 2.0875983 0.40602148 0
0.76843017 2.0861526 0.52672613 0
0.76287252 2.0826657 0.65132415 0
0.76014739 2.1042616 -0.049976479 0
0.76348466 2.1064146 0.40703779 0
0.76277608 2.1059573 0.52867585 0
0.7561689 2.1016953 0.65321165 0
0.75398964 2.1238661 -0.050175603 0
0.75589889 2.1251321 0.40803203 0
0.75563461 2.1249568 0.53014743 0
0.75448114 2.124192 0.65772533 0
0.7406891 2.1387775 -0.050078489 0
0.741947 2.1396346 0.40714192 0
0.73717159 2.1363809 0.5271697 0
0.74158996 2.1393914 0.65680623 0
0.73438865 2.158509 -0.050293714 0
0.72278744 2.1503887 0.40467873 0
0.73781306 2.1609058 0.53198206 0
0.71817094 2.1471574 0.65065479 0
0.71259886 2.1672964 -0.049840719 0
0.71674973 2.1702802 0.40635866 0
0.71810824 2.1712568 0.52862746 0
0.72678477 2.1774943 0.66083109 0
0.70423645 2.1856019 -0.049984213 0
0.70419306 2.1855698 0.40606609 0
0.70799702 2.1883776 0.5292623 0
0.71550924 2.1939228 0.66106278 0
0.68972856 2.1993814 -0.04986408 0
0.69262451 2.2015758 0.40614834 0
0.69762057 2.2053618 0.52988207 0
0.69792968 2.205596 0.65812874 0
0.6815607 2.2179887 -0.050037324 0
0.70424837 2.235635 0.41379252 0
0.6949653 2.2284148 0.53385198 0
0.68735963 2.2224991 0.65891927 0
0.67317909 2.2365859 -0.05021321 0
0.6839481 2.2451818 0.41123179 0
0.68973929 2.2498043 0.53689063 0
0.67617053 2.2389736 0.65950209 0
0.64815313 2.241715 -0.049633577 0
0.66601163 2.2563417 0.4094635 0
0.67427498 2.2631097 0.53567314 0
0.67858177 2.2666371 0.66748005 0
0.63592893 2.2570715 -0.049647741 0
0.65959352 2.2769566 0.41156146 0
0.670057 2.285749 0.53940231 0
0.66598254 2.2823253 0.66761261 0
0.63162726 2.2792747 -0.050044559 0
0.71909636 2.3546734 0.066167377 0
0.71776479 2.3535254 0.18692905 0
0.71289819 2.3493304 0.30846578 0
0.65205497 2.2968833 0.41339189 0
0.64655751 2.2921445 0.53482753 0
0.64732105 2.2928026 0.66454011 0
0.61105782 2.2874715 -0.049683813 0
0.67797333 2.346638 0.064872712 0
0.68224305 2.3504131 0.18383324 0
0.68415898 2.352107 0.3048906 0
0.63310975 2.3069696 0.41144311 0
0.63707298 2.3104739 0.53646106 0
0.64094728 2.3138995 0.66829687 0
0.60133046 2.3051617 -0.049846422 0
0.65840238 2.3569193 0.064597055 0
0.665335 2.3632064 0.18339676 0
0.66191787 2.3601074 0.30286491 0
0.61877197 2.3209791 0.41110238 0
0.62362319 2.3253787 0.53643554 0
0.62756127 2.3289499 0.66832507 0
0.59684426 2.3278875 -0.050277285 0
0.63642615 2.3647027 0.064207159 0
0.64541787 2.3730659 0.18253699 0
0.64085168 2.3688188 0.3011294 0
0.61894351 2.3484421 0.41587421 0
0.60640687 2.3367817 0.53478312 0
0.6150195 2.3447924 0.66893744 0
0.58286458 2.3419824 -0.050258998 0
0.63172251 2.388586 0.064669557 0
0.62627155 2.3833866 0.18179964 0
0.62731868 2.3843853 0.30127767 0
0.60783464 2.3658004 0.41684759 0
0.59044892 2.3492167 0.53375494 0
0.59792644 2.3563492 0.66706651 0
0.56358713 2.3508811 -0.049984712 0
0.60916609 2.3954666 0.064261019 0
0.60465699 2.3910558 0.18070151 0
0.60161799 2.388083 0.29840717 0
0.59113306 2.3778267 0.41591454 0
0.58604783 2.3728523 0.53816509 0
0.58721513 2.3739941 0.66895247 0
0.5450682 2.3602712 -0.049750928 0
0.59638017 2.4117451 0.064345717 0
0.6014207 2.4168015 0.18240166 0
0.60737747 2.4227769 0.30354863 0
0.57246035 2.3877497 0.41431168 0
0.5652222 2.3804889 0.53503072 0
0.57838339 2.3936915 0.67209417 0
0.53714496 2.3803296 -0.050062828 0
0.60091001 2.4459271 0.065328866 0
0.5923484 2.4371195 0.18327381 0
0.60201603 2.4470649 0.30599198 0
0.56375593 2.4077053 0.41638213 0
0.55865806 2.4024608 0.53870821 0
0.5592013 2.4030197 0.66927493 0
0.52126473 2.3923173 -0.049978979 0
0.61167198 2.4876969 0.066670775 0
0.60638779 2.4821219 0.18780784 0
0.60938627 2.4852855 0.31188539 0
0.54879957 2.4213667 0.41625416 0
0.54607099 2.418488 0.53965503 0
0.54684621 2.4193058 0.67059714 0
0.50636846 2.4052875 -0.049953625 0
0.53690022 2.4383218 0.41733781 0
0.53086823 2.4317954 0.5394311 0
0.53756696 2.439043 0.67393804 0
0.4983227 2.4258373 -0.050301898 0
0.51403493 2.4432728 0.41433823 0
0.52064806 2.4506114 0.54176283 0
0.51422387 2.4434824 0.66878045 0
0.47278628 2.4268568 -0.049723037 0
0.5034917 2.4618046 0.41608232 0
0.49563667 2.4528644 0.53679121 0
0.50034386 2.4582222 0.66951936 0
0.46955761 2.4532976 -0.050360564 0
0.49141249 2.4788129 0.4173407 0
0.48737106 2.4740946 0.54032463 0
0.48477444 2.4710631 0.66931117 0
0.44471714 2.4545605 -0.049822323 0
0.47271451 2.4880927 0.41606805 0
0.47165558 2.4868245 0.54018229 0
0.47134611 2.486454 0.67058682 0
0.4317579 2.4698269 -0.04994861 0
0.45585689 2.4994402 0.4155663 0
0.45962366 2.5040689 0.54206312 0
0.45791015 2.5019631 0.67200339 0
0.41753563 2.483649 -0.050015301 0
0.4371914 2.5084333 0.41437247 0
0.44281718 2.515527 0.54153305 0
0.43886784 2.5105472 0.66983616 0
0.40315774 2.4973519 -0.050084092 0
0.42205498 2.521806 0.41467839 0
0.42687419 2.5280423 0.54154193 0
0.42626968 2.5272601 0.67206949 0
0.3894926 2.5120871 -0.050206501 0
0.40876856 2.5376914 0.4158451 0
0.40796319 2.5366216 0.53999573 0
0.40891239 2.5378826 0.67120796 0
0.36827275 2.5166717 -0.049886044 0
0.39473692 2.5527608 0.41679606 0
0.39543232 2.553709 0.54207253 0
0.38597056 2.5408061 0.6665144 0
0.35067096 2.525939 -0.04978567 0
0.38232216 2.5702615 0.41855636 0
0.37955299 2.5663836 0.54239142 0
0.37729755 2.5632253 0.67192912 0
0.3353689 2.5383954 -0.04983452 0
0.36297187 2.5780966 0.41734672 0
0.35743907 2.5701389 0.53917485 0
0.35781863 2.5706847 0.66980821 0
0.32023296 2.5511644 -0.049904771 0
0.34025243 2.5807462 0.41462523 0
0.34101984 2.5818801 0.53930604 0
0.33906075 2.5789852 0.66824895 0
0.30302075 2.5608764 -0.049851947 0
0.32584217 2.5955307 0.415721 0
0.32811478 2.5989816 0.54165405 0
0.32661745 2.5967078 0.67149121 0
0.28696993 2.5723379 -0.049882952 0
0.30787328 2.6049666 0.41524261 0
0.31000301 2.6082911 0.54096913 0
0.30847302 2.6059029 0.67059159 0
0.27134022 2.5845227 -0.049952671 0
0.28422639 2.605206 0.41207176 0
0.29211399 2.6178663 0.5404833 0
0.28236279 2.6022148 0.6635263 0
0.2572197 2.5993001 -0.050138324 0
0.27190802 2.6235511 0.41441473 0
0.27616879 2.6305859 0.54131228 0
0.27343699 2.6260755 0.67000973 0
0.23518141 2.6008899 -0.049783684 0
0.25313959 2.6313999 0.41367918 0
0.25089446 2.6275856 0.53614432 0
0.25448987 2.6336942 0.66869622 0
0.2169493 2.608639 -0.049696341 0
0.2361166 2.6421618 0.41387469 0
0.23739804 2.6444032 0.53873074 0
0.24251373 2.6533501 0.67324746 0
0.20629533 2.6299174 -0.05017148 0
0.21554019 2.6465695 0.4122774 0
0.21680595 2.6488495 0.5366565 0
0.22196181 2.6581361 0.67079675 0
0.18921305 2.6399786 -0.050193958 0
0.19365717 2.6482265 0.40996906 0
0.19816811 2.6565983 0.53594267 0
0.20053013 2.6609821 0.66757226 0
0.16434391 2.6351829 -0.049626488 0
0.17923822 2.6636789 0.41172686 0
0.17566378 2.6568403 0.53250384 0
0.17772819 2.66079 0.66307616 0
0.15032108 2.6509123 -0.049896695 0
0.15765668 2.6653879 0.40959471 0
0.15984435 2.6697049 0.5339008 0
0.16044147 2.6708834 0.6635164 0
0.13753112 2.6695919 -0.050289616 0
0.1397499 2.6741104 0.40954664 0
0.13917227 2.6729341 0.53179199 0
0.14486839 2.6845345 0.66569579 0
0.11394956 2.6662285 -0.049815189 0
0.12414118 2.6876621 0.41092703 0
0.12675406 2.6931572 0.53605235 0
0.12070759 2.6804411 0.65981728 0
0.096435212 2.6752577 -0.049842216 0
0.10145136 2.6861587 0.40812662 0
0.1021755 2.6877325 0.53095257 0
0.10723492 2.6987276 0.66431171 0
0.078961454 2.6844325 -0.049883433 0
0.086174987 2.7006433 0.40988654 0
0.085202836 2.6984587 0.53187567 0
0.084853314 2.6976733 0.66009325 0
0.06659808 2.705574 -0.050398055 0
0.063910566 2.6993237 0.40730143 0
0.066569291 2.705507 0.5315395 0
0.064106546 2.6997795 0.65744948 0
0.044291697 2.7037194 -0.050027091 0
0.041561745 2.6971433 0.40456969 0
0.047163926 2.7106383 0.53059912 0
0.046188317 2.7082882 0.65780699 0
0.029086253 2.7189019 -0.05032403 0
0.028491518 2.7174165 0.40810007 0
0.026565513 2.7126071 0.52861804 0
0.023658415 2.7053475 0.65315735 0
0.0069060535 2.7166014 -0.049957842 0
0.010566971 2.7260876 0.40848562 0
0.0086012697 2.720994 0.529028 0
0.011497579 2.7284989 0.660236 0
-0.014033237 2.7169082 -0.049703334 0
-0.011747518 2.7230604 0.40574706 0
-0.01361213 2.7180417 0.52549207 0
-0.00875453 2.7311168 0.6582799 0
-0.030400136 2.7294893 -0.04992532 0
-0.030813435 2.7283325 0.40534556 0
-0.0351092 2.7163081 0.52250165 0
-0.032887377 2.7225273 0.65151763 0
-0.049048342 2.735914 -0.04992177 0
-0.051687218 2.7282231 0.40355909 0
-0.057974942 2.7098978 0.51797456 0
-0.052299418 2.726439 0.65038991 0
-0.070176162 2.7348063 -0.049643971 0
-0.070326366 2.7343497 0.40352577 0
-0.073624976 2.7243268 0.52086616 0
-0.070534535 2.7337172 0.65084106 0
-0.086175241 2.7493281 -0.049962319 0
-0.094043769 2.724365 0.39924553 0
-0.092550613 2.7291019 0.52044767 0
-0.09327776 2.726795 0.6452257 0
-0.1010311 2.7684319 -0.050457828 0
-0.11042068 2.7372801 0.40116343 0
-0.11259247 2.7300749 0.51879257 0
-0.11419073 2.7247722 0.64187431 0
-0.12338404 2.7627549 -0.050037917 0
-0.10791586 2.816514 0.064035058 0
-0.10805077 2.8160453 0.18064676 0
-0.10666344 2.8208668 0.29998684 0
-0.12709333 2.7498634 0.40304112 0
-0.13157789 2.7342775 0.51834899 0
-0.13118623 2.7356386 0.64420176 0
-0.14399676 2.7623174 -0.04982385 0
-0.1339667 2.7989042 0.063178234 0
-0.13420503 2.7980347 0.17802308 0
-0.1369855 2.7878923 0.29278246 0
-0.14688255 2.751791 0.40214908 0
-0.14957322 2.7419763 0.51919568 0
-0.15413879 2.7253225 0.63751936 0
-0.16469438 2.760968 -0.049586423 0
-0.15799727 2.7866616 0.06253437 0
-0.15922923 2.7819352 0.17565686 0
-0.15804605 2.7864745 0.29155424 0
-0.16544197 2.7581 0.40248093 0
-0.16961823 2.7420776 0.51750565 0
-0.16760443 2.7498038 0.64587146 0
-0.18162586 2.7741661 -0.049894348 0
-0.17928414 2.783637 0.062242657 0
-0.17892344 2.7850959 0.17546515 0
-0.17862539 2.7863014 0.29061049 0
-0.1889203 2.7446637 0.39768395 0
-0.19170047 2.7334194 0.51290536 0
-0.19072463 2.7373662 0.63852406 0
-0.19801201 2.7906625 -0.050330121 0
-0.19876103 2.7874606 0.062212724 0
-0.1969326 2.7952769 0.17607623 0
-0.19539936 2.801831 0.29262596 0
-0.20976476 2.7404218 0.39538774 0
-0.21129461 2.733882 0.51153016 0
-0.2085519 2.7456067 0.64011478 0
-0.22071894 2.7799582 -0.049777783 0
-0.21761827 2.7940085 0.062291462 0
-0.21735393 2.7952063 0.17558239 0
-0.21814568 2.7916186 0.28992066 0
-0.2256308 2.7577012 0.39878947 0
-0.22859915 2.7442505 0.51361799 0
-0.23084976 2.7340524 0.63340354 0
-0.23910494 2.7881742 -0.049927182 0
-0.23584943 2.8038621 0.062499195 0
-0.23535033 2.806267 0.17633988 0
-0.23540689 2.8059945 0.29180422 0
-0.24732856 2.7485456 0.39534637 0
-0.24974643 2.7368944 0.50975186 0
-0.24861293 2.7423565 0.63522595 0
-0.25802329 2.7942204 -0.050005745 0
-0.25255433 2.8223503 0.06302882 0
-0.25130415 2.8287807 0.1783742 0
-0.25009406 2.8350048 0.29641184 0
-0.26733655 2.7463169 0.39378318 0
-0.27045354 2.7302845 0.50623852 0
-0.26953468 2.7350109 0.63053739 0
-0.27672991 2.8017619 -0.050147034 0
-0.26614892 2.8600974 0.064263664 0
-0.26779148 2.8510416 0.18039827 0
-0.26804632 2.8496366 0.29840747 0
-0.28872499 2.7356303 0.39009577 0
-0.28912047 2.7334497 0.50612664 0
-0.28946564 2.7315469 0.62760395 0
-0.29526663 2.8109314 -0.050355498 0
-0.3050406 2.7528927 0.39371711 0
-0.30854437 2.7320871 0.50456679 0
-0.30773053 2.7369196 0.62849253 0
-0.31676313 2.8020422 -0.049919534 0
-0.3278538 2.7307117 0.38720027 0
-0.32741106 2.7335591 0.50404686 0
-0.32848057 2.7266805 0.62293416 0
-0.33645603 2.8036442 -0.049872462 0
-0.34552705 2.7400377 0.38888896 0
-0.3481276 2.7218025 0.49916211 0
-0.34815583 2.7216046 0.61965454 0
-0.35630491 2.8038106 -0.049782723 0
-0.36530063 2.7344987 0.38680792 0
-0.36737463 2.7185187 0.49721545 0
-0.36622879 2.7273474 0.62100077 0
-0.37598366 2.8049135 -0.049735762 0
-0.3853336 2.7250016 0.38377711 0
-0.38511628 2.7268589 0.49924651 0
-0.38649103 2.7151089 0.61494428 0
-0.3953923 2.8083177 -0.049780369 0
-0.4026826 2.7383916 0.386686 0
-0.40419981 2.7238388 0.49754971 0
-0.40419644 2.723871 0.61774415 0
-0.41487244 2.8113205 -0.049819306 0
-0.42351145 2.7169509 0.38072395 0
-0.4241958 2.7094753 0.49214548 0
-0.42375743 2.7142637 0.6129961 0
-0.43415049 2.8172748 -0.049972687 0
-0.44264108 2.7096097 0.37844336 0
-0.44331086 2.7011168 0.48883477 0
-0.44231817 2.7137041 0.61211288 0
-0.45352933 2.823391 -0.050140429 0
-0.46091041 2.7119002 0.37868905 0
-0.46165565 2.7006435 0.48823622 0
-0.46194118 2.6963303 0.60435045 0
-0.47376633 2.8157582 -0.049825221 0
-0.47920245 2.7142742 0.3790147 0
-0.48007151 2.6980503 0.48700878 0
-0.48012558 2.6970413 0.60419422 0
-0.4931879 2.822681 -0.050039373 0
-0.4980343 2.7043226 0.3762517 0
-0.49897197 2.6814232 0.48118627 0
-0.49853557 2.6920807 0.6017828 0
-0.51301664 2.8206804 -0.049943481 0
-0.51644838 2.6995883 0.37488189 0
-0.51680684 2.686939 0.48281488 0
-0.51669919 2.690737 0.60096633 0
-0.53261888 2.8289671 -0.050223839 0
-0.53480422 2.6901457 0.37237015 0
-0.53488034 2.6853104 0.48214066 0
-0.53481334 2.6895688 0.6003176 0
-0.55246621 2.8232243 -0.050012127 0
-0.5528959 2.6867812 0.37146813 0
-0.5529328 2.6750746 0.47867867 0
-0.55293655 2.6738811 0.59375155 0
-0.57219481 2.8203886 -0.049913101 0
-0.57091635 2.6849954 0.37102699 0
-0.57069522 2.6615796 0.47420743 0
-0.57070744 2.6628728 0.58921683 0
-0.59195656 2.8220859 -0.049984794 0
-0.58843535 2.6623013 0.36530793 0
-0.58850992 2.6656871 0.47566715 0
-0.58842582 2.6618688 0.58891666 0
-0.61168218 2.8211894 -0.04997275 0
-0.60609013 2.6597521 0.3647854 0
-0.60622823 2.663738 0.4751859 0
-0.60582024 2.6519597 0.58501941 0
-0.63129443 2.8180063 -0.049887855 0
-0.62385923 2.6606541 0.36520079 0
-0.62311518 2.6449087 0.46915647 0
-0.62296343 2.6416974 0.5810644 0
-0.65215051 2.8365457 -0.050588623 0
-0.64063984 2.6443167 0.36126751 0
-0.6398508 2.6311393 0.46487978 0
-0.64033872 2.6392875 0.5804528 0
-0.63987041 2.6314671 0.69627547 0
-0.67104381 2.8211455 -0.050084565 0
-0.6582849 2.6452258 0.36179632 0
-0.65682179 2.6250522 0.46323198 0
-0.65680927 2.6248798 0.57495087 0
-0.65699637 2.6274593 0.69484055 0
-0.68983102 2.808651 -0.04969259 0
-0.67331135 2.6147516 0.4602468 0
-0.67289019 2.609808 0.56925315 0
-0.67383373 2.6208825 0.69222236 0
-0.71020412 2.8151627 -0.049990416 0
-0.69102532 2.6192486 0.46227401 0
-0.6899907 2.6086798 0.56943345 0
-0.69052196 2.6141069 0.68960744 0
-0.73051924 2.8192105 -0.050209362 0
-0.70646894 2.6018023 0.56730872 0
-0.70708436 2.6073658 0.68711209 0
-0.75028825 2.8175464 -0.050232362 0
-0.72437733 2.607549 0.57053363 0
-0.72219199 2.5898373 0.67927957 0
-0.76911253 2.8088017 -0.050009258 0
-0.73857158 2.5845501 0.67771089 0
-0.78897929 2.8080981 -0.050084524 0
-0.75631928 2.5889597 0.68114883 0
-0.80809122 2.8023813 -0.049987674 0
-0.82649142 2.7929728 -0.049765535 0
-0.84850484 2.803627 -0.050280057 0
-0.8668412 2.7941248 -0.050071988 0
-0.88452142 2.7822444 -0.049784936 0
-0.90118444 2.7667882 -0.049374282 0
-0.92371857 2.7769613 -0.049911186 0
-0.9425754 2.771102 -0.049869698 0
-0.96321565 2.7720137 -0.050087053 0
-0.98206455 2.7659702 -0.050056893 0
-0.99733651 2.7478478 -0.049585871 0
-1.0188662 2.7511404 -0.049920246 0
-1.0369843 2.743063 -0.049839668 0
-1.056204 2.7384315 -0.049897105 0
-1.0773761 2.7392442 -0.050169867 0
-1.0938371 2.7265561 -0.049940985 0
-1.1161308 2.7297168 -0.050323959 0
-1.1314455 2.71438 -0.050009973 0
-1.1492414 2.7057061 -0.049958687 0
-1.162925 2.6873844 -0.049541853 0
-1.1867667 2.6930096 -0.050062589 0
-1.2032686 2.6815174 -0.049927242 0
-1.2193376 2.6693172 -0.049771369 0
-1.2333444 2.6530955 -0.049463078 0
-1.2561431 2.6549778 -0.049882151 0
-1.2765363 2.6515336 -0.050101582 0
-1.2921008 2.638654 -0.049951464 0
-1.3117975 2.6335435 -0.050124403 0
-1.3283826 2.6226554 -0.050071955 0
-1.3416773 2.6061635 -0.049796402 0
-1.3648632 2.6066096 -0.050230023 0
-1.3779315 2.5899956 -0.04996438 0
-1.393461 2.5776224 -0.049882624 0
-1.4131528 2.5717568 -0.050085541 0
-1.4249842 2.5538542 -0.049784053 0
-1.4385591 2.5388637 -0.049612451 0
-1.4642345 2.5412502 -0.050205685 0
-1.4790599 2.5279243 -0.050126109 0
-1.4909345 2.5107162 -0.049881365 0
-1.5031546 2.4942403 -0.049673833 0
-1.5260614 2.4916477 -0.050100662 0
-1.5366948 2.4732921 -0.049823087 0
-1.5513021 2.4600604 -0.04978586 0
-1.5720145 2.4540834 -0.050095998 0
-1.5866381 2.4407494 -0.050074074 0
-1.6021494 2.4284315 -0.050109219 0
-1.6164783 2.4147766 -0.050089527 0
-1.6226767 2.3924506 -0.049654376 0
-1.6385384 2.3806305 -0.049737673 0
-1.6578467 2.3722236 -0.05000294 0
-1.6708223 2.3572757 -0.049952038 0
-1.6820332 2.3406687 -0.049823556 0
-1.7018257 2.3322651 -0.050127797 0
-1.7065421 2.3097198 -0.049702898 0
-1.7226601 2.2977822 -0.049842849 0
-1.7396404 2.2864621 -0.050029304 0
-1.7487661 2.2682805 -0.049852259 0
-1.7648437 2.2560244 -0.050010215 0
-1.7779647 2.2412305 -0.05003795 0
-1.2324475 1.8001404 0.52082497 0
-1.7961495 2.2303975 -0.050304081 0
-1.2332433 1.7868515 0.51627725 0
-1.8017648 2.2096739 -0.050008081 0
-1.22798 1.769152 0.5073688 0
-1.819103 2.1979747 -0.050249167 0
-1.2331992 1.7597629 0.50647271 0
-1.8198889 2.1740034 -0.049763486 0
-1.2352303 1.7480963 0.50333279 0
-1.8398303 2.1640368 -0.050133858 0
-1.240134 1.738629 0.50241685 0
-1.8443018 2.1430652 -0.049835306 0
-1.2299764 1.7188053 0.49073997 0
-1.8591095 2.1292913 -0.049995299 0
-1.241827 1.7143704 0.49506703 0
-1.8757174 2.1165559 -0.050238203 0
-1.2403214 1.7009783 0.48993376 0
-1.8665365 2.0872068 -0.049394757 0
-1.2503909 1.695207 0.49309656 0
-1.8821381 2.0738857 -0.049613833 0
-1.2357676 1.6739993 0.47906587 0
-1.896283 2.0595047 -0.049777579 0
-1.2424443 1.6662942 0.4800666 0
-1.9097763 2.0446055 -0.049920704 0
-1.2339076 1.6496481 0.47067717 0
-1.9237545 2.0298617 -0.050090436 0
-1.235909 1.6394399 0.46868423 0
-1.932436 2.0120587 -0.050050691 0
-1.9420058 1.9947592 -0.050056271 0
-1.9515014 1.9774133 -0.05006763 0
-1.9575485 1.9583209 -0.04994987 0
-1.98051 1.9475569 -0.050514106 0
-1.9783074 1.9244808 -0.050087068 0
-1.9965457 1.9110605 -0.050476078 0
-1.9877266 1.8853986 -0.049813714 0
-2.0049043 1.8713225 -0.050176386 0
-1.9992959 1.847591 -0.049664397 0
-2.0006335 1.8270009 -0.049433239 0
-2.002238 1.8066839 -0.049223334 0
-2.0030069 1.7862141 -0.048992373 0
-2.0035336 1.765828 -0.048763044 0
-1.9920875 1.7415437 -0.048092972 0
-1.9864932 1.7196585 -0.047656864 0
-1.9945188 1.7023383 -0.047742113 0
-1.9898484 1.6811692 -0.047362231 0
-2.0027306 1.665266 -0.047645096 0
-1.9962924 1.6439219 -0.047219828 0
-1.9915624 1.6233238 -0.046868827 0
-2.0009234 1.6064146 -0.047046259 0
-2.0005457 1.5871279 -0.046874188 0
-1.9992431 1.5677614 -0.046677683 0
-2.0052137 1.5500189 -0.046755597 0
-2.0001845 1.5301147 -0.046441641 0
-2.0028455 1.5118023 -0.046416357 0
-1.9966923 1.4920492 -0.046080541 0
-1.9953347 1.4732629 -0.045927543 0
-2.0066564 1.4563502 -0.046240378 0
-1.988031 1.4354211 -0.045482721 0
-2.0053279 1.4191155 -0.046026368 0
-1.9920028 1.3993264 -0.045477886 0
-1.9995813 1.38177 -0.045688145 0
-1.9963747 1.3632456 -0.045519974 0
-2.0093617 1.3458581 -0.045939561 0
-2.0142484 1.3277631 -0.046077158 0
-1.9962629 1.3087035 -0.045405686 0
-2.0110247 1.2909397 -0.045912486 0
-1.9989823 1.272478 -0.045470178 0
-1.9998271 1.2543254 -0.045496259 0
-1.1329058 0.26436791 -0.049888525 0
-0.39374948 0.26436988 0.4194271 0
-0.38745409 0.2643699 0.49229726 0
-1.1302381 0.24468906 -0.049797706 0
-0.40032572 0.2538822 0.42275047 0
-1.1334013 0.22492428 -0.049923945 0
-0.40849131 0.24318554 0.35432869 0
-0.40143645 0.24336325 0.42340556 0
-1.1461734 0.20470409 -0.050402433 0
-0.51122755 0.22870204 0.10749872 0
-0.52419388 0.22821197 0.17866933 0
-1.2366033 0.20128627 0.43215656 0
-1.2363585 0.20129551 0.56163001 0
-1.2364239 0.20129305 0.69750535 0
-1.1339165 0.18540458 -0.04999562 0
-0.50428271 0.21714534 0.10680779 0
-0.51423705 0.21664353 0.17696728 0
-1.2450602 0.17980166 0.43455365 0
-1.241064 0.18000312 0.56350613 0
-1.2364707 0.18023467 0.69790888 0
-1.1164367 0.16671871 -0.049410339 0
-0.51937568 0.20435964 0.10850507 0
-0.51135916 0.20486502 0.17656937 0
-1.2408518 0.15887512 0.43378404 0
-1.2369882 0.15911868 0.56254584 0
-1.1445646 0.14499138 -0.050465837 0
-0.50927377 0.19308035 0.10750589 0
-0.51561636 0.19260025 0.1774884 0
-1.2366039 0.13802437 0.43307099 0
-1.2368698 0.13800424 0.56299263 0
-1.1290832 0.12636741 -0.049969327 0
-0.51209468 0.18089218 0.10791514 0
-0.50261557 0.18172988 0.1753118 0
-1.2367364 0.11685384 0.43354627 0
-1.2438239 0.1162275 0.56589085 0
-1.1269715 0.10674088 -0.049960349 0
-0.51010209 0.16909227 0.10782152 0
-0.50959033 0.16914399 0.17677817 0
-1.242458 0.095067851 0.43552369 0
-1.2349719 0.095824517 0.56359905 0
-1.1283092 0.086724989 -0.050084174 0
-0.51661623 0.15634434 0.040104959 0
-0.50500089 0.15766633 0.10740761 0
-0.51636672 0.15637274 0.17823938 0
-1.2431651 0.073652767 0.43628678 0
-1.2448431 0.073461793 0.5676592 0
-1.1166217 0.068266742 -0.049748532 0
-0.5122503 0.14477281 0.0399995 0
-0.49748325 0.14664215 0.10674684 0
-0.51246476 0.14474566 0.17779092 0
-1.2391498 0.052756179 0.4359059 0
-1.2424767 0.052335043 0.5677163 0
-1.1232864 0.047486041 -0.050082203 0
-0.51685369 0.13202411 0.040222421 0
-0.50494069 0.13368481 0.10772489 0
-0.52127624 0.1314076 0.17968333 0
-1.23572 0.031812537 0.43574288 0
-1.2414868 0.031008635 0.56832522 0
-1.104908 0.030277211 -0.04952158 0
-0.51153249 0.12062559 0.040093154 0
-0.51587027 0.11996511 0.10909998 0
-0.51183653 0.12057929 0.17828049 0
-1.2428591 0.0092725353 0.43837512 0
-1.2305638 0.011144658 0.56568277 0
-1.1099725 0.0095939236 -0.049815908 0
-0.50845778 0.10894648 0.040050097 0
-0.52126288 0.10683145 0.10989362 0
-0.5062232 0.10931557 0.17759904 0
-1.2520648 -0.013875554 0.44162056 0
-1.2332554 -0.010768781 0.56771004 0
-1.1090335 -0.010233979 -0.049902618 0
-0.50751299 0.096916877 0.040089507 0
-0.51446068 0.095679261 0.10937586 0
-0.51240498 0.096045442 0.17910275 0
-1.2480439 -0.034996372 0.44152105 0
-1.2445006 -0.034365188 0.57272547 0
-1.1078699 -0.030084383 -0.049990442 0
-0.50478506 0.085197873 0.040069699 0
-0.51056772 0.08409249 0.10919054 0
-0.50686407 0.084800474 0.17848827 0
-1.237995 -0.054958384 0.43992457 0
-1.2409436 -0.055521976 0.57283974 0
-1.0976011 -0.04814158 -0.049755812 0
-0.50884986 0.072103865 0.040302727 0
-0.5172233 0.070393704 0.11017776 0
-0.52009404 0.069807373 0.18135343 0
-1.2394768 -0.077118017 0.44139189 0
-1.2466053 -0.07857392 0.57617497 0
-1.1059871 -0.070087947 -0.05021039 0
-0.51951987 0.057403807 0.040783729 0
-0.50493413 0.06057458 0.1091031 0
-0.52787554 0.05558737 0.18325567 0
-1.2345124 -0.098028012 0.44125298 0
-1.2348398 -0.09809918 0.57368475 0
-1.0980256 -0.088596679 -0.050077457 0
-0.50448203 0.048282135 0.040331014 0
-0.51691467 0.045415003 0.11071564 0
-0.51644176 0.045524064 0.18164013 0
-1.2392104 -0.12115572 0.44371235 0
-1.2434177 -0.12212599 0.57821685 0
-1.0977207 -0.10887966 -0.050234031 0
-0.51727408 0.032699067 0.04090381 0
-0.5096525 0.034558076 0.1102256 0
-0.5184412 0.03241438 0.1825368 0
-1.238422 -0.14319859 0.44481492 0
-1.2438589 -0.14452474 0.58007997 0
-1.0870758 -0.1266195 -0.050019342 0
-0.55444521 0.010424216 0.042384397 0
-0.55087388 0.011343081 0.11512931 0
-0.55793053 0.0095274346 0.19044852 0
-1.2482026 -0.16807674 0.44877836 0
-1.2411877 -0.16627185 0.58097667 0
-1.0705639 -0.14261709 -0.049595162 0
-0.62083769 -0.020846795 0.04496121 0
-0.61843312 -0.020195704 0.1230147 0
-1.240991 -0.18876283 0.31868768 0
-1.2455859 -0.19000696 0.44956115 0
-1.2436889 -0.18949334 0.58375341 0
-1.0716413 -0.16330798 -0.049829774 0
-0.68410969 -0.053122263 0.047446024 0
-0.69014108 -0.054837178 0.13143618 0
-1.2412232 -0.21152471 0.31982586 0
-1.2446784 -0.21250708 0.45087323 0
-1.2458694 -0.21284576 0.58653021 0
-1.0734447 -0.18439119 -0.050102007 0
-0.78621864 -0.098801769 0.051402073 0
-0.78597009 -0.098727711 0.14264306 0
-1.237301 -0.23321806 0.32024038 0
-1.2361286 -0.23286866 0.45023102 0
-1.2312243 -0.23140727 0.58357823 0
-1.0735787 -0.20515831 -0.050322786 0
-0.87510622 -0.1432849 0.054900724 0
-0.88641465 -0.14681025 0.15447569 0
-1.2403367 -0.25714472 0.32202238 0
-1.2373039 -0.25619927 0.45225364 0
-1.2421991 -0.25772533 0.58962417 0
-1.0552065 -0.22006656 -0.049859431 0
-0.98894787 -0.1984915 0.059371665 0
-0.98874128 -0.19842423 0.16663794 0
-1.2386115 -0.27978662 0.3229658 0
-1.2473356 -0.28262731 0.45673954 0
-1.2325715 -0.27781984 0.58860213 0
-1.0656371 -0.24441449 -0.050487131 0
-1.124947 -0.26455632 0.064723343 0
-1.1313069 -0.26671615 0.18349294 0
-1.257039 -0.30941513 0.32780582 0
-1.2264951 -0.29904237 0.45301589 0
-1.0498201 -0.25995138 -0.050135255 0
-1.2940378 -0.34633312 0.20281969 0
-1.2429632 -0.32826766 0.32652083 0
-1.2455049 -0.32916668 0.46011573 0
-1.037288 -0.27643582 -0.049914133 0
-1.2569696 -0.35726526 0.19947113 0
-1.2370009 -0.34991798 0.32683459 0
-1.239815 -0.35095343 0.46063673 0
-1.0321071 -0.29556701 -0.04998083 0
-1.249647 -0.37873307 0.19954459 0
-1.2449965 -0.37695518 0.32989731 0
-1.2397054 -0.37493238 0.46275923 0
-1.0317835 -0.31667963 -0.050243653 0
-1.2415233 -0.39990541 0.19955698 0
-1.239096 -0.39894226 0.33034503 0
-1.2342297 -0.39701125 0.46350211 0
-1.0114315 -0.32975528 -0.049744885 0
-1.2510332 -0.42834011 0.20164953 0
-1.2342638 -0.42144033 0.33105728 0
-1.2389162 -0.42335454 0.46712893 0
-1.0113679 -0.3511 -0.050037183 0
-1.2529057 -0.45405635 0.20290285 0
-1.2404203 -0.44873443 0.33398309 0
-1.2412324 -0.44908062 0.47020969 0
-1.0007925 -0.36803547 -0.049931381 0
-1.2470031 -0.47666702 0.20328777 0
-1.2351873 -0.47145376 0.33474764 0
-1.243687 -0.47520396 0.47343627 0
-0.99857783 -0.38870773 -0.050161414 0
-1.2399492 -0.49885556 0.20357244 0
-1.2316839 -0.49508366 0.33591598 0
-1.2379429 -0.49793997 0.47447416 0
-0.97609389 -0.40000293 -0.04960297 0
-1.2363021 -0.52272868 0.20429672 0
-1.2417748 -0.5253098 0.33986124 0
-1.2482479 -0.52836275 0.48012593 0
-0.98111355 -0.4242613 -0.05013895 0
-1.499223 -0.67664766 0.082714051 0
-1.2390889 -0.54992872 0.20583041 0
-1.2303505 -0.545672 0.3395907 0
-1.2474543 -0.55400372 0.48277122 0
-0.96565497 -0.43864968 -0.049872182 0
-1.4500096 -0.68218607 0.081227064 0
-1.2409948 -0.57709223 0.20730893 0
-1.247753 -0.58049029 0.34518912 0
-1.2448283 -0.57901978 0.48500198 0
-0.9679811 -0.46205428 -0.050326198 0
-1.3979472 -0.68507004 0.079618551 0
-1.231777 -0.59888053 0.20749173 0
-1.2427137 -0.60455322 0.34635362 0
-0.9541378 -0.47717878 -0.050140545 0
-1.3614398 -0.69499046 0.078630395 0
-1.2473164 -0.63396096 0.21072628 0
-1.2353799 -0.62757778 0.34711847 0
-0.94038987 -0.49220982 -0.049965221 0
-1.3171811 -0.69984818 0.077324465 0
-1.2362127 -0.65522897 0.21076807 0
-1.2410727 -0.65790713 0.35063058 0
-0.93116152 -0.50966758 -0.049981918 0
-1.2644651 -0.69885105 0.07566449 0
-1.2307748 -0.67972839 0.21154328 0
-1.2336847 -0.68138003 0.35153416 0
-0.92333114 -0.52795959 -0.050065603 0
-1.2528256 -0.72050619 0.075690255 0
-1.2331321 -0.70899796 0.21333279 0
-1.2416195 -0.71395773 0.35570666 0
-0.91703725 -0.54724818 -0.0502235 0
-1.2503126 -0.74767572 0.076107748 0
-1.2421353 -0.74275798 0.21601537 0
-1.2459321 -0.74504131 0.35923457 0
-0.89503598 -0.55695367 -0.049733363 0
-1.2576654 -0.78129965 0.076956987 0
-1.2405101 -0.77068633 0.21742931 0
-1.2447889 -0.77333349 0.3617157 0
-0.89508343 -0.58028096 -0.050177421 0
-1.2519991 -0.80735546 0.077280015 0
-1.243302 -0.80182225 0.21946186 0
-1.2364753 -0.79747897 0.36275998 0
-0.88326526 -0.59622556 -0.050131444 0
-1.2586766 -0.84176153 0.078146234 0
-1.2444832 -0.83247834 0.22135453 0
-1.2409279 -0.83015305 0.36662921 0
-0.87785792 -0.61644405 -0.050369453 0
-1.2393316 -0.85941702 0.077918954 0
-1.2428728 -0.86179727 0.22295158 0
-1.2349912 -0.85649949 0.36836275 0
-0.85818088 -0.62701553 -0.050001413 0
-1.2417079 -0.89188343 0.078641735 0
-1.2404237 -0.89099663 0.22450103 0
-1.243382 -0.89303964 0.37332407 0
-0.84265506 -0.64021736 -0.049817577 0
-1.2473602 -0.92730385 0.079532214 0
-1.2356585 -0.91900307 0.22580746 0
-1.5989538 -1.1767145 0.45519888 0
-0.8321017 -0.65688497 -0.049858991 0
-1.2456617 -0.95815164 0.080125824 0
-1.2368323 -0.95171958 0.22796224 0
-1.5798916 -1.2016283 0.45503014 0
-0.82464612 -0.67590982 -0.050048213 0
-1.2318481 -0.98046619 0.080202177 0
-1.2392836 -0.9860273 0.23036389 0
-0.8062613 -0.68671608 -0.049758092 0
-1.2382745 -1.0183928 0.081202835 0
-1.2366271 -1.0171281 0.23215508 0
-0.79944646 -0.70638233 -0.049997114 0
-1.1607141 -0.99104577 0.078417674 0
-1.1580849 -0.98897403 0.22363453 0
-1.1502796 -0.98282379 0.36942941 0
-0.7856729 -0.72064286 -0.049930409 0
-1.1414138 -1.0082849 0.078263097 0
-1.1350137 -1.0031099 0.22264443 0
-1.1399256 -1.0070816 0.37069923 0
-0.77720654 -0.73924917 -0.050117478 0
-1.2434349 -1.1260372 0.083744735 0
-1.2391418 -1.1224757 0.23943052 0
-1.3369755 -1.2036395 0.42065501 0
-0.76493168 -0.75479144 -0.050138943 0
-1.2356385 -1.1554073 0.084206209 0
-1.2435861 -1.1621715 0.24254072 0
-1.3080751 -1.2170577 0.41822141 0
-1.0258795 -0.97688264 0.49460998 0
-0.75349021 -0.77108568 -0.050209366 0
-1.2838789 -1.2341378 0.41692737 0
-0.99335611 -0.98049885 0.48892727 0
-0.73069787 -0.77728623 -0.049746394 0
-1.197373 -1.1951844 0.084111035 0
-1.1940501 -1.1922086 0.24065328 0
-1.1895288 -1.1881599 0.39868686 0
-0.97189951 -0.99327749 0.48698574 0
-0.72021854 -0.79435629 -0.049878661 0
-0.91730714 -0.97536796 0.47359854 0
-0.71183097 -0.81352907 -0.050125573 0
-0.88973176 -0.98109621 0.46944225 0
-0.69788969 -0.82758361 -0.050111752 0
-0.85300624 -0.97742051 0.46201482 0
-0.68401265 -0.84169263 -0.050109826 0
-0.83848751 -0.99471611 0.46245253 0
-0.66768026 -0.85330969 -0.049991898 0
-0.81733394 -1.0053381 0.46056157 0
-0.64886773 -0.8622275 -0.049752045 0
-0.63848603 -0.87990969 -0.049955238 0
-0.62503815 -0.89444953 -0.050010581 0
-0.59920645 -0.89513534 -0.049411383 0
-0.59604251 -0.92131096 -0.05003887 0
-0.5787009 -0.93141192 -0.049910005 0
-0.56978214 -0.95159298 -0.050258994 0
-0.54921585 -0.95767373 -0.049963925 0
-0.52813947 -0.9627704 -0.049638927 0
-0.70276368 -1.1858294 0.071752474 0
-0.51838595 -0.98233908 -0.049978819 0
-0.66130245 -1.1697092 0.07039196 0
-0.50020158 -0.99096817 -0.049834471 0
-0.49193239 -1.0131304 -0.050297961 0
-0.61743319 -1.186556 0.069940612 0
-0.47524822 -1.0239235 -0.050265383 0
-0.70406735 -1.3486533 0.076447725 0
-0.45656949 -1.0317739 -0.050114825 0
-0.58829057 -1.2237966 0.070428178 0
-0.43506384 -1.0352043 -0.049785931 0
-0.59119093 -1.269065 0.071824685 0
-0.41958892 -1.0474989 -0.049848657 0
-0.57726479 -1.2902437 0.07218273 0
-0.37212294 -0.9744243 0.4974539 0
-0.40456051 -1.0605891 -0.049952742 0
-0.55449164 -1.297899 0.071974277 0
-0.35332686 -0.97949678 0.49550161 0
-0.38876992 -1.0725846 -0.050018124 0
-0.62880015 -1.463313 0.07838954 0
-0.33824503 -0.99033874 0.49590984 0
-0.3682062 -1.0766826 -0.049762923 0
-0.59934831 -1.4637879 0.077859305 0
-0.56057572 -1.3988535 0.21418563 0
-0.31217104 -0.98283762 0.48928109 0
-0.35523689 -1.0935184 -0.050046053 0
-0.57145488 -1.4662118 0.077428736 0
-0.29100245 -0.9827978 0.48569724 0
-0.33955193 -1.1059475 -0.050153323 0
