# .PCD v0.7 - Point Cloud Data file format
VERSION 0.7
FIELDS x y z intensity
SIZE 4 4 4 4
TYPE F F F F
COUNT 1 1 1 1
WIDTH 1361
HEIGHT 1
VIEWPOINT 0 0 0 1 0 0 0
POINTS 1361
DATA ascii
-1.2392408 -0.47991252 0.48142707 0
-1.1132765 -0.21353638 -0.050036214 0
-0.8876282 0.38232225 0.039289013 0
-0.88919538 0.37818396 0.10668334 0
-0.88914639 0.3783133 0.17493594 0
-1.2374839 -0.54152501 0.49593118 0
-1.096898 -0.22631335 -0.050260182 0
-0.87311405 0.3878625 0.038923137 0
-0.87821156 0.3738724 0.1067066 0
-0.87482935 0.38315487 0.17321819 0
-1.0748559 -0.22340393 -0.049897615 0
-0.86398715 0.37879306 0.039118439 0
-0.86568111 0.37395549 0.10624514 0
-0.86352247 0.38012004 0.17304757 0
-1.0615031 -0.24555528 -0.050490942 0
-0.85351467 0.37328899 0.039182965 0
-0.85140657 0.37956148 0.10517739 0
-0.85025978 0.38297355 0.17178451 0
-1.0362072 -0.23200738 -0.049749177 0
-0.83678418 0.38705713 0.038529325 0
-0.83638859 0.38828516 0.10378228 0
-0.83836013 0.38216501 0.17125213 0
-1.0166146 -0.23519373 -0.049647391 0
-0.82597393 0.38318068 0.038545299 0
-0.8270117 0.37981451 0.10434758 0
-0.82673776 0.38070303 0.17087346 0
-1.0042003 -0.26250684 -0.050453126 0
-0.81331688 0.38552767 0.038334664 0
-0.81346524 0.38502389 0.10339139 0
-0.81671244 0.37399989 0.17150916 0
-0.98027122 -0.25094354 -0.049820166 0
-0.80260426 0.38149565 0.038367245 0
-0.80194843 0.38383025 0.10317244 0
-0.80435956 0.37524742 0.1706769 0
-0.96312416 -0.26302862 -0.050074417 0
-0.79034269 0.38316071 0.038194176 0
-0.78991163 0.38477266 0.10273273 0
-0.78825516 0.39096773 0.1671747 0
-0.94347018 -0.26598239 -0.049999483 0
-0.77910548 0.38128018 0.038157955 0
-0.78226757 0.36882824 0.1041837 0
-0.77930647 0.38048875 0.16859643 0
-0.92404938 -0.26969337 -0.049961679 0
-0.76851648 0.37680721 0.10299654 0
-0.76865029 0.37625092 0.16887711 0
-0.90698433 -0.28366208 -0.050308507 0
-0.75667399 0.37763602 0.16814189 0
-0.88726473 -0.28641522 -0.050252769 0
-0.74421358 0.38176447 0.16693053 0
-0.86696351 -0.28609073 -0.050094157 0
-0.73353511 0.37787473 0.16722609 0
-0.84714913 -0.28776836 -0.050017949 0
-0.72258896 0.37517655 0.16732702 0
-0.82761627 -0.29076195 -0.049998652 0
-0.80770302 -0.29134071 -0.049900968 0
-0.78801137 -0.29296041 -0.049850099 0
-0.76821363 -0.29355824 -0.049771439 0
-0.74852687 -0.2946279 -0.049718853 0
-0.73118317 -0.31656945 -0.050424941 0
-0.70964199 -0.3007772 -0.049784422 0
-0.69048059 -0.30763233 -0.049965784 0
-0.67056155 -0.30585301 -0.049846549 0
-0.65132892 -0.31418157 -0.050097886 0
-0.63133454 -0.31021261 -0.049918208 0
-0.61181313 -0.31632626 -0.050107781 0
-0.59194428 -0.312886 -0.049964916 0
-0.57214135 -0.30608308 -0.049710941 0
-0.55248106 -0.30987716 -0.049844187 0
-0.53278571 -0.30972874 -0.049845532 0
-0.5129292 -0.31512153 -0.050053641 0
-0.49340633 -0.30870342 -0.049848769 0
-0.47307038 -0.32010674 -0.050289705 0
-0.45380402 -0.31059861 -0.049991973 0
-0.49562034 0.32103544 0.039392456 0
-0.43382308 -0.312783 -0.050121356 0
-0.48461103 0.33123279 0.03905778 0
-0.41422576 -0.30974138 -0.050072554 0
-0.47505313 0.35471565 0.038251389 0
-0.39529827 -0.30057645 -0.049812742 0
-0.46134362 0.3329103 0.03907387 0
-0.3748447 -0.306005 -0.050085671 0
-0.44893521 0.3272329 0.039324041 0
-0.44159433 0.26449162 0.11310197 0
-0.44272023 0.27411449 0.18398497 0
-0.44224602 0.27006155 0.25882927 0
-0.44169709 0.26537007 0.33726281 0
-0.44173563 0.26569933 0.41811737 0
-0.35679102 -0.29142213 -0.049647883 0
-0.43437034 0.30632526 0.040128548 0
-0.4293353 0.26753044 0.11293919 0
-0.42894533 0.26452577 0.18600553 0
-0.42916524 0.26622021 0.26021063 0
-0.42885798 0.26385278 0.33828694 0
-0.42816746 0.25853235 0.42175046 0
-0.43040004 0.27573431 0.49973309 0
-0.33608294 -0.2976172 -0.049966808 0
-0.41992363 0.29027909 0.040765792 0
-0.41973245 0.2889384 0.11079875 0
-0.41907701 0.28434253 0.1827044 0
-0.41966999 0.28850055 0.25490502 0
-0.42033345 0.29315269 0.32901073 0
-0.41961861 0.28814012 0.41008136 0
-0.41985661 0.28980911 0.49346706 0
-0.31521553 -0.30335259 -0.050279159 0
-0.40650758 0.28379953 0.041065205 0
-0.40493983 0.27371633 0.11265118 0
-0.40615028 0.28150147 0.18355487 0
-0.40719095 0.28819472 0.25545153 0
-0.40483382 0.27303457 0.33639109 0
-0.40727091 0.28870887 0.41060206 0
-0.40951803 0.3031615 0.48762172 0
-0.29692629 -0.29243302 -0.049998697 0
-0.39221409 0.27339309 0.041513532 0
-0.39157984 0.26962686 0.11331455 0
-0.39145762 0.26890111 0.18622173 0
-0.39225987 0.27366495 0.25971994 0
-0.39250141 0.2750994 0.33636883 0
-0.39055836 0.26356137 0.42198652 0
-0.39776939 0.30638105 0.48697126 0
-0.27734727 -0.28971505 -0.050023533 0
0.069851778 -2.2039065 0.1314777 0
-0.38526642 0.30526906 0.48859704 0
-0.25971749 -0.27686298 -0.049688809 0
0.11319443 -2.1949584 0.13144946 0
-0.3751173 0.31670296 0.4839122 0
-0.23882161 -0.28089643 -0.049976967 0
0.15984102 -2.2019949 0.13202387 0
-0.36797902 0.34149486 0.47245437 0
-0.22033294 -0.27306437 -0.049841732 0
0.20500083 -2.2003815 0.13230509 0
-0.35968333 0.35837495 0.46506456 0
-0.20051469 -0.27132094 -0.049937863 0
0.25041053 -2.1989346 0.13261405 0
-0.34924978 0.3644914 0.46323738 0
-0.18330298 -0.25873995 -0.049644887 0
0.29758385 -2.2036834 0.13317282 0
-0.0045978217 -0.98151183 0.25351906 0
-0.0018538622 -0.99260974 0.42343378 0
-0.33876097 0.37000901 0.46178079 0
-0.16044886 -0.26861298 -0.050187357 0
0.34262517 -2.198662 0.13339485 0
-0.32849479 0.37609714 0.46009257 0
-0.14440425 -0.25218797 -0.04976882 0
0.38931563 -2.1990368 0.13383837 0
-0.312978 0.36271822 0.46856505 0
-0.12423933 -0.25113928 -0.049927488 0
-0.3029204 0.36986125 0.46648523 0
-0.10488296 -0.2470094 -0.049981315 0
-0.30476746 0.41614377 0.44401029 0
-0.085285582 -0.2435075 -0.050067969 0
-0.29248846 0.413854 0.44691518 0
-0.068689711 -0.23067975 -0.049813729 0
-0.28585812 0.42920142 0.44062319 0
-0.046713986 -0.23407447 -0.050178565 0
-0.26140001 0.3916201 0.46234593 0
-0.032444037 -0.2151252 -0.049708426 0
-0.013061383 -0.21088088 -0.049802959 0
0.0090775108 -0.21358478 -0.050173163 0
0.029688856 -0.2117635 -0.050381903 0
0.046667837 -0.20080006 -0.050248347 0
0.061952017 -0.18612564 -0.049978137 0
0.0778028 -0.17318559 -0.049781688 0
-0.19279201 0.43492216 0.37733266 0
0.099061094 -0.17232108 -0.050066482 0
0.11530282 -0.1604315 -0.049927693 0
0.66409951 -1.3145869 0.1075535 0
-0.16222693 0.42323178 0.38702053 0
-0.2029721 0.50892156 0.49548745 0
0.13759859 -0.16108608 -0.050295077 0
0.69097227 -1.2880545 0.10711804 0
0.55382198 -1.0087423 0.46068937 0
-0.15975942 0.44449568 0.37953791 0
-0.19132562 0.50878161 0.49856743 0
0.14950164 -0.14065206 -0.049831972 0
0.71766096 -1.2618258 0.10670546 0
0.58815736 -1.0062706 0.46305481 0
-0.14933316 0.44905156 0.37977704 0
-0.18519641 0.51982206 0.49433106 0
0.17049564 -0.13830948 -0.050100617 0
0.71532434 -1.1806815 0.10409143 0
0.61043233 -0.98000097 0.46068069 0
-0.14246638 0.46045268 0.37688091 0
-0.17792542 0.52829337 0.49183741 0
0.18795468 -0.12900019 -0.05009925 0
0.74230808 -1.1578283 0.10382236 0
0.64343101 -0.9743216 0.46256593 0
-0.12654404 0.45468009 0.38208267 0
-0.17323314 0.5413307 0.4863123 0
0.20528729 -0.11945868 -0.050097335 0
0.77304202 -1.1421099 0.10385656 0
0.67681128 -0.96877718 0.46457756 0
-0.11253882 0.45301604 0.38546982 0
-0.16614611 0.54957455 0.48403984 0
0.22373863 -0.11187018 -0.050184671 0
0.81511921 -1.1461706 0.1047203 0
0.71836108 -0.97694468 0.4695394 0
-0.081157275 0.42138022 0.40325993 0
-0.1572143 0.55440086 0.48414645 0
0.23673894 -0.094893105 -0.049893308 0
0.75532073 -0.97593784 0.47272736 0
-0.059683301 0.40871364 0.41225806 0
-0.14574791 0.55493313 0.48728588 0
0.25745866 -0.091051586 -0.05015479 0
0.80741745 -0.99905372 0.48112372 0
-0.0552781 0.42528826 0.40730095 0
-0.13778485 0.56150991 0.48635814 0
0.26925829 -0.072537906 -0.049812108 0
0.8445937 -0.99599433 0.48416314 0
-0.12104768 0.55393225 0.49538305 0
0.2837185 -0.058619622 -0.049667764 0
0.87598366 -0.98310637 0.48522189 0
-0.11931444 0.57048804 0.48763141 0
0.30518225 -0.055515531 -0.049992252 0
0.91860181 -0.98698997 0.48999622 0
0.01730915 0.38161808 0.4386448 0
-0.11626754 0.58445364 0.48166999 0
0.32552156 -0.050336007 -0.050241649 0
0.95707434 -0.98354888 0.49333268 0
0.030252298 0.38596791 0.44012249 0
-0.10700635 0.58878785 0.48258179 0
0.33579466 -0.030364757 -0.049861148 0
0.99443299 -0.97768021 0.49627119 0
0.044503115 0.38859797 0.44256222 0
-0.10262103 0.60020572 0.47846901 0
0.35564753 -0.024264818 -0.050091393 0
0.055241726 0.39640534 0.44248086 0
-0.10050128 0.61449838 0.47226417 0
0.36687335 -0.00612021 -0.049801558 0
0.069244705 0.39975619 0.44475591 0
-0.089266278 0.61591774 0.47548848 0
0.38636026 0.00071656186 -0.050020572 0
1.1250751 -0.98051763 0.10586955 0
1.1297928 -0.98678398 0.30747387 0
0.097531103 0.38436794 0.45685518 0
-0.080161251 0.62039649 0.47657692 0
0.40414879 0.010008806 -0.050141953 0
0.10330334 0.39932144 0.45338178 0
-0.076642938 0.63218307 0.47228447 0
0.41722289 0.025388474 -0.049997333 0
0.1249698 0.393897 0.46068025 0
0.42730227 0.044291373 -0.049696591 0
-0.063305415 0.64715976 0.47024024 0
0.44142196 0.05802929 -0.049638771 0
-0.056868292 0.65482885 0.46915889 0
0.45941553 0.067186467 -0.049803957 0
-0.049579836 0.66143584 0.46895817 0
0.46886155 0.086253278 -0.049510751 0
-0.045667268 0.67187464 0.46580228 0
0.48875365 0.093424313 -0.049791586 0
1.2077565 -0.70443439 0.10013589 0
-0.033006586 0.67240804 0.47055727 0
0.50623423 0.10350084 -0.049946565 0
1.2048033 -0.65232515 0.098690659 0
-0.027084986 0.68053257 0.46936566 0
0.51590604 0.12197911 -0.049700882 0
0.37504318 0.27058899 0.054390639 0
-0.021789828 0.68924677 0.46773854 0
0.53852874 0.12689006 -0.050133701 0
0.37847528 0.29154325 0.053935785 0
0.83862191 -0.18182743 0.22124523 0
-0.012141683 0.69338602 0.46992993 0
0.55315179 0.14026272 -0.050159708 0
0.39328668 0.3006317 0.054075509 0
0.83834165 -0.14582598 0.21846677 0
-0.0012454776 0.69640726 0.47318631 0
0.56835729 0.15309572 -0.050222944 0
0.40685639 0.3110764 0.054157265 0
0.74871844 -0.023334032 0.2023593 0
0.74450511 -0.01921249 0.33445576 0
0.74088269 -0.015669113 0.46936026 0
-0.0002826837 0.70934093 0.46819383 0
0.57718974 0.17207372 -0.049979012 0
0.42435953 0.31785262 0.054438636 0
0.84641129 -0.084726222 0.21449474 0
0.19290937 0.53862387 0.35097644 0
0.0097376322 0.71334428 0.47081852 0
0.5955978 0.18191481 -0.050216511 0
0.46384272 0.30445987 0.055792592 0
0.83853763 -0.044042829 0.21088091 0
0.19767351 0.55202311 0.34907365 0
0.012178144 0.72455186 0.46731478 0
0.61369783 0.19226551 -0.050442483 0
0.83926111 -0.01229406 0.073313713 0
0.83760029 -0.010787969 0.20838919 0
0.20289125 0.56481946 0.3474724 0
0.019271692 0.731341 0.46768963 0
0.61010212 0.22201657 -0.049638275 0
0.84315377 0.015953654 0.072744466 0
0.8405264 0.018276686 0.20653971 0
0.84596676 0.013466353 0.3438437 0
0.21504779 0.57132137 0.34904236 0
0.029971799 0.73496449 0.47098351 0
0.63910848 0.2229197 -0.05039718 0
0.84357983 0.046664473 0.072034836 0
0.84285182 0.04729199 0.20467715 0
0.83684868 0.052466746 0.33797902 0
0.23467351 0.57154453 0.35391226 0
0.029236874 0.74863183 0.4653244 0
0.64091867 0.24737871 -0.049880426 0
0.83177251 0.087005965 0.070780337 0
0.84707981 0.074143402 0.20315284 0
0.83968085 0.080360644 0.33510742 0
0.92507213 0.0086070243 0.50003135 0
0.2615886 0.56612659 0.36189979 0
0.27874437 0.55171078 0.45819306 0
0.037948035 0.75404984 0.46717611 0
0.65592867 0.26055962 -0.049992401 0
0.84624642 0.10468315 0.070775084 0
0.8483457 0.1029638 0.20127989 0
0.8403706 0.10949563 0.33184817 0
0.94762367 0.021651858 0.50233454 0
0.28647038 0.56315821 0.36890149 0
0.24557109 0.59665608 0.43574017 0
0.047267757 0.75907296 0.4695279 0
0.67226261 0.27278888 -0.050171345 0
0.85575455 0.12632406 0.070553258 0
0.840442 0.13854659 0.19821496 0
0.83459502 0.14321375 0.32721469 0
0.98601013 0.022352928 0.50983781 0
0.27030566 0.59363431 0.35834435 0
0.2460257 0.61301482 0.43162787 0
0.056292199 0.76446164 0.47168028 0
0.68284339 0.28965676 -0.050095342 0
0.85199171 0.15809345 0.069745757 0
0.83239037 0.17333937 0.19522104 0
0.84425157 0.16411376 0.32624975 0
0.25485238 0.62254751 0.43205565 0
0.06209477 0.77247405 0.47144234 0
0.69278389 0.30694646 -0.05000094 0
0.84591454 0.19090641 0.068860263 0
0.83199269 0.20145631 0.19334698 0
0.84374362 0.19255161 0.32305378 0
0.26473919 0.63131207 0.43309274 0
0.06791272 0.78046405 0.47129357 0
0.69663256 0.32865405 -0.049646799 0
0.85344642 0.21290207 0.068605259 0
0.84122461 0.22192359 0.19282405 0
0.83897418 0.22358477 0.31901276 0
0.28440538 0.63293892 0.43920994 0
0.074260436 0.78805709 0.47161114 0
0.72393543 0.33319718 -0.050339177 0
0.85166162 0.24137807 0.067955159 0
0.84236079 0.24806416 0.19126859 0
0.8398878 0.24984205 0.31635764 0
0.09035071 0.78866506 0.47911182 0
0.72600466 0.35600245 -0.049928356 0
0.85628897 0.26481038 0.067605875 0
0.84142953 0.27521122 0.18949895 0
0.85122687 0.26835364 0.31609398 0
0.83959824 0.27649301 0.44105604 0
0.096178673 0.79684675 0.47912347 0
0.7324844 0.3754558 -0.049724039 0
0.86982089 0.28188175 0.067657053 0
0.84460741 0.29906088 0.18832342 0
0.82963771 0.30926043 0.30869764 0
0.83829302 0.3033632 0.43688625 0
0.11286803 0.79763055 0.48700371 0
0.7434116 0.39179099 -0.049722474 0
0.91542894 0.27773184 0.069091089 0
0.84845752 0.32213843 0.18728325 0
0.83397132 0.33174372 0.30708423 0
0.84754974 0.32274032 0.43608838 0
0.1115221 0.81077635 0.48199204 0
0.75030524 0.41073054 -0.049558334 0
0.96051544 0.27512622 0.070489138 0
0.84294337 0.35097069 0.1850912 0
0.83763939 0.35439223 0.30540207 0
0.84500235 0.34964246 0.43178749 0
0.12240317 0.81578338 0.48576725 0
0.77277416 0.41976517 -0.050062016 0
0.99180764 0.28234351 0.071293429 0
0.84711117 0.37312609 0.184191 0
0.84210438 0.37626737 0.30396375 0
0.83163255 0.38283736 0.42436332 0
0.1296428 0.82326609 0.48700771 0
0.78160149 0.43754083 -0.049996134 0
1.0283827 0.28700697 0.072316296 0
0.83960503 0.40215933 0.18186337 0
0.83819848 0.40301722 0.30082649 0
0.83750683 0.40343922 0.42287242 0
0.13143714 0.83413404 0.48452166 0
0.79027182 0.45535922 -0.049933556 0
1.0721411 0.28825498 0.073632143 0
0.83335859 0.42981553 0.17975625 0
0.83858401 0.42671764 0.29868317 0
0.84183294 0.42479151 0.4210107 0
0.13083823 0.84630001 0.48049882 0
0.81280166 0.46514785 -0.050451711 0
0.84933406 0.44410694 0.1804637 0
0.83451957 0.4526394 0.29569155 0
0.83949202 0.44977552 0.41727895 0
0.14045216 0.8523885 0.48359978 0
0.81354541 0.48754382 -0.050080109 0
0.84726697 0.46868324 0.17896672 0
0.8304401 0.47809458 0.29278553 0
0.83916253 0.47321612 0.41425368 0
0.14974125 0.85881144 0.48651046 0
0.824202 0.50426364 -0.05012523 0
0.85216731 0.48908162 0.17836991 0
0.84463996 0.49316818 0.2937164 0
0.84221989 0.49448198 0.4123182 0
0.83388358 0.52153653 -0.050139226 0
0.8550939 0.51036519 0.1775686 0
0.84283119 0.51682383 0.29141685 0
0.84452552 0.51593149 0.41025627 0
0.84790164 0.53660923 -0.050335724 0
0.85233992 0.53434259 0.1761194 0
0.84557503 0.53779751 0.29011449 0
0.84418398 0.53850788 0.40752682 0
0.84057528 0.54035091 0.52824599 0
0.84131175 0.56203985 -0.049717672 0
0.84386009 0.56077862 0.1740289 0
0.8402862 0.56254745 0.28725713 0
0.84914035 0.55816519 0.40640363 0
0.83786827 0.56374419 0.52394515 0
0.85667199 0.57646847 -0.049985088 0
0.8767274 0.56685472 0.17691851 0
0.83841485 0.58522022 0.28516299 0
0.8433736 0.58284318 0.40232357 0
0.83486646 0.58692116 0.51967043 0
0.86659843 0.5936296 -0.050044265 0
0.9038493 0.5763464 0.17911968 0
0.8421554 0.60497034 0.28425369 0
0.83788568 0.60695136 0.39843336 0
0.8374508 0.60715312 0.51757669 0
0.87916511 0.60965502 -0.050214905 0
0.93208557 0.5859068 0.18145384 0
0.8443082 0.62529719 0.28308496 0
0.83625096 0.62891293 0.39572772 0
0.84146971 0.626571 0.51611108 0
0.87935156 0.63118458 -0.049910717 0
0.97336179 0.59041137 0.18531696 0
0.84311217 0.64690197 0.28131473 0
0.83983439 0.64832354 0.39456511 0
0.84091836 0.64785343 0.51308501 0
0.89540535 0.64583915 -0.050232816 0
1.0029711 0.60078734 0.18780702 0
0.84185022 0.66826963 0.27959427 0
0.83553451 0.67091489 0.39129579 0
0.83310133 0.67193395 0.50755107 0
0.89531511 0.66726601 -0.049938761 0
1.0378011 0.60968643 0.19090478 0
0.84282357 0.68847829 0.27836978 0
0.84504384 0.687581 0.39192155 0
0.83582884 0.69130486 0.50593811 0
0.90704733 0.68386847 -0.050109476 0
1.0813026 0.61599034 0.19500047 0
0.85128862 0.70558834 0.27865073 0
0.82605022 0.71541953 0.38479757 0
0.84536606 0.70789534 0.50685161 0
0.2799066 0.92816037 0.45560387 0
0.90965527 0.70402545 -0.049939461 0
0.84460872 0.72842443 0.27605471 0
0.84092218 0.72980726 0.38703093 0
0.84215587 0.72934449 0.50330573 0
0.28601328 0.93795395 0.45670804 0
0.92142326 0.72075319 -0.05012754 0
0.85144144 0.74600291 0.27611649 0
0.83042866 0.75358444 0.38242358 0
0.84990317 0.74655795 0.50374722 0
0.26144281 0.95887697 0.44155547 0
0.93138558 0.73825061 -0.050254546 0
0.85314566 0.7653715 0.2752414 0
0.85099071 0.76611847 0.38630307 0
0.83466607 0.77177715 0.49617007 0
0.84259337 0.76902926 0.61948752 0
0.2620618 0.97026312 0.43994769 0
0.93435925 0.75817013 -0.050126392 0
0.84931761 0.78645438 0.27336499 0
0.83593065 0.79090679 0.38063106 0
0.85266262 0.78534186 0.50038832 0
0.83605295 0.79086614 0.61401594 0
0.29384336 0.97120142 0.45485407 0
0.93343991 0.77923864 -0.049862292 0
0.84784454 0.80651498 0.27199221 0
0.83912784 0.80929273 0.37995431 0
0.83787221 0.80969286 0.49320093 0
0.83774811 0.80973238 0.61226475 0
0.31641272 0.97586453 0.46486935 0
0.94015795 0.79778737 -0.04989418 0
0.85271305 0.82444507 0.27186802 0
0.84388655 0.82713586 0.37975854 0
0.83735389 0.82912731 0.49111196 0
0.84981698 0.82532793 0.61511356 0
0.31156197 0.98941553 0.46053433 0
0.95284098 0.81462622 -0.050156448 0
0.87438089 0.83746916 0.27494234 0
0.83045286 0.85025841 0.37478912 0
0.83756596 0.84818751 0.48936868 0
0.84244961 0.8467657 0.60965538 0
0.33665517 0.99402326 0.47190848 0
0.9595992 0.83330458 -0.050206158 0
0.88982099 0.85267019 0.27687109 0
0.83582383 0.86765611 0.37489325 0
0.8411141 0.86618793 0.4888663 0
0.84752208 0.86440951 0.60967761 0
0.31989405 1.0108429 0.46154019 0
0.95972544 0.85377336 -0.050019521 0
0.9311263 0.86132407 0.28365377 0
0.83784944 0.88595068 0.37417221 0
0.83557373 0.8865515 0.48531643 0
0.84021384 0.88532645 0.60449344 0
0.31279847 1.0245728 0.45631787 0
0.96044904 0.87396008 -0.049864955 0
0.96510166 0.87279415 0.28907254 0
0.83314401 0.90586156 0.37174371 0
0.84149116 0.90376985 0.48579562 0
0.83521241 0.90534323 0.6004228 0
0.33409169 1.0309198 0.4658446 0
0.96474713 0.89318979 -0.04985135 0
0.98289543 0.88888413 0.29150265 0
0.84180373 0.92235821 0.37289286 0
0.83596963 0.92374235 0.48243633 0
0.83966595 0.92286539 0.6004951 0
0.3301833 1.0437404 0.46242467 0
0.97659189 0.91072255 -0.050122757 0
1.0188484 0.90125757 0.29731956 0
0.84234279 0.94079292 0.37196997 0
0.84494346 0.9402104 0.48411438 0
0.8457213 0.94003618 0.60134053 0
0.33282486 1.0549194 0.46245566 0
0.98245198 0.92971575 -0.050183155 0
1.0529776 0.9148488 0.30281365 0
0.83577675 0.96063524 0.36925754 0
0.83360642 0.96109277 0.4789528 0
0.84644133 0.95838714 0.60001785 0
0.36570427 1.0597275 0.47802034 0
0.97957999 0.95048177 -0.049934339 0
1.0766475 0.93129295 0.30640277 0
0.8492462 0.97624689 0.37182754 0
0.83394307 0.97927207 0.47785226 0
0.8471356 0.97666413 0.59878522 0
0.36372921 1.0722264 0.47580072 0
0.97569114 0.97126025 -0.049658686 0
0.84245604 0.99585992 0.36918643 0
0.83528143 0.99718463 0.47717068 0
0.84537941 0.9953202 0.59662074 0
0.38173494 1.0809245 0.48383257 0
1.0061989 0.98594075 -0.050639074 0
0.84948248 1.0128399 0.3701916 0
0.83443743 1.0154222 0.47583017 0
0.83673495 1.0150279 0.59166598 0
0.38564482 1.0924541 0.48474687 0
0.99703246 1.0076212 -0.050190058 0
0.43163583 1.0973536 0.041752037 0
0.43827096 1.0963005 0.11434406 0
0.4327198 1.0971816 0.18680297 0
0.43071797 1.0974993 0.26125756 0
0.43910167 1.0961686 0.34168202 0
0.4219546 1.0988901 0.41656592 0
0.39185455 1.1036671 0.48689809 0
0.99860698 1.0274184 -0.050139241 0
0.41503379 1.112517 0.041084576 0
0.40798983 1.1135441 0.11084783 0
0.39841554 1.1149403 0.18020451 0
0.40646127 1.113767 0.25451455 0
0.41162017 1.1130147 0.33179942 0
0.40225062 1.1143811 0.40753511 0
0.40636256 1.1137815 0.49331272 0
1.0006713 1.0471175 -0.050115131 0
0.39358625 1.1278518 0.040250599 0
0.43408164 1.1224664 0.1134927 0
0.43780699 1.121971 0.18706574 0
0.43483749 1.122366 0.26138213 0
0.43043277 1.1229517 0.337542 0
0.42973009 1.1230452 0.41830856 0
0.41654631 1.1247984 0.49759829 0
1.0018014 1.0669149 -0.050066397 0
0.38416377 1.1411508 0.039857235 0
0.41993484 1.1368514 0.11179021 0
0.43075237 1.1355512 0.18549591 0
0.43242547 1.1353501 0.26035556 0
0.42736837 1.135958 0.33598712 0
0.42937848 1.1357164 0.41750526 0
0.99986941 1.0870099 -0.049916737 0
0.35813472 1.155957 0.038874131 0
0.84410912 1.1037445 0.36562949 0
0.83424956 1.1048038 0.47166058 0
0.84744376 1.1033863 0.59100616 0
1.0008887 1.1067225 -0.04988217 0
0.34772262 1.1685892 0.038458928 0
0.83921057 1.1220363 0.3639167 0
0.8381657 1.1221353 0.47237703 0
0.84377211 1.1216042 0.5887351 0
1.0072368 1.1259766 -0.05004742 0
0.35086086 1.1798179 0.038535245 0
0.85789472 1.1382269 0.3683016 0
0.84092408 1.1396189 0.47277915 0
0.84295803 1.1394521 0.58774883 0
1.0118858 1.1454685 -0.050160397 0
0.36738768 1.1901737 0.039095696 0
0.84745842 1.1568739 0.36528742 0
0.84301656 1.157182 0.4730323 0
0.84002239 1.1573896 0.58597624 0
1.023035 1.1646746 -0.050514515 0
0.84651762 1.1746873 0.36476192 0
0.83751506 1.1751978 0.47082847 0
0.84754139 1.1746292 0.58863419 0
1.017379 1.1848751 -0.050276536 0
0.85125357 1.1922011 0.36574373 0
0.83181423 1.1930584 0.46863502 0
0.83915073 1.1927348 0.58478707 0
1.0201019 1.2046469 -0.050347015 0
0.85861439 1.2097321 0.36745149 0
0.8375141 1.2103965 0.47031221 0
0.84140605 1.210274 0.585446 0
1.0084511 1.2247432 -0.049913127 0
0.8500635 1.227735 0.36515486 0
0.84484404 1.2278336 0.47260401 0
0.83341998 1.2280495 0.58195508 0
1.010246 1.2444519 -0.049968343 0
0.84569913 1.2454878 0.36398441 0
0.83251828 1.2455708 0.46842927 0
0.83870023 1.2455319 0.58405 0
1.0156996 1.2642256 -0.050163046 0
0.85104328 1.263189 0.36534792 0
0.83420235 1.263083 0.46898955 0
0.84055871 1.2631229 0.58481956 0
1.0145791 1.2840157 -0.050131943 0
0.84471208 1.280807 0.36378932 0
0.83621806 1.2806466 0.46973366 0
0.83584851 1.2806395 0.58296078 0
1.0201077 1.3039963 -0.050347224 0
0.85412258 1.2987696 0.36630493 0
0.82608503 1.2978867 0.46650794 0
0.84619409 1.29852 0.58742934 0
1.0206969 1.3239143 -0.050395098 0
0.84472877 1.3161542 0.36407742 0
0.83354753 1.3156612 0.46921223 0
0.85144705 1.3164506 0.58988315 0
1.0137556 1.3434421 -0.050182693 0
0.8512736 1.3342257 0.36597726 0
0.84589857 1.3339208 0.47362208 0
0.84103864 1.3336451 0.5859375 0
0.99525613 1.3620211 -0.049565271 0
1.3038396 1.3834258 0.072608568 0
1.3118182 1.3839793 0.20736702 0
1.2974849 1.382985 0.34133115 0
0.86164075 1.352753 0.36891448 0
0.84909254 1.3518826 0.47505859 0
0.83634156 1.3509982 0.58444858 0
0.99701816 1.3818284 -0.049681377 0
1.2389851 1.4016765 0.070348918 0
1.2497907 1.4025629 0.20087059 0
1.0194128 1.3836653 0.29133254 0
0.84441608 1.3693107 0.36485121 0
0.8435722 1.3692415 0.47366315 0
0.83781368 1.3687692 0.58561176 0
1.0046504 1.402277 -0.050017063 0
1.2514348 1.425652 0.070867017 0
1.2506384 1.4255766 0.20117906 0
0.89752406 1.3921301 0.26956937 0
0.83970815 1.386654 0.36404422 0
0.84031779 1.3867117 0.47309622 0
0.84651321 1.3872986 0.5898751 0
0.99943238 1.4215863 -0.049901046 0
0.63578373 1.3825164 0.048843604 0
0.65059525 1.3841077 0.13657029 0
0.64240628 1.3832279 0.22363006 0
0.650235 1.3840691 0.31588134 0
0.84131688 1.4045986 0.4740254 0
0.83511394 1.4039322 0.58587182 0
0.98947185 1.4402463 -0.049623046 0
0.5555554 1.3880924 0.04602018 0
0.54723388 1.3870922 0.12556942 0
0.54111844 1.3863572 0.20554355 0
0.55897278 1.3885032 0.29287425 0
0.82900041 1.4209588 0.47056946 0
0.84198171 1.422519 0.58956736 0
0.99893075 1.4612942 -0.050052449 0
0.55374879 1.4020908 0.046018951 0
0.55055243 1.4016657 0.12611994 0
0.54765779 1.4012808 0.20705162 0
0.54443139 1.4008517 0.28958923 0
0.83299011 1.4392263 0.47264957 0
0.8474099 1.4411439 0.59276551 0
0.99871558 1.4812406 -0.05014316 0
0.55923337 1.4171538 0.046287134 0
0.55431432 1.4164366 0.12673953 0
0.54077441 1.4144621 0.20615029 0
0.55590564 1.4166685 0.29304582 0
0.85017782 1.4595803 0.47924817 0
0.84145731 1.4583087 0.59130573 0
0.98812777 1.4996088 -0.04986817 0
0.53616124 1.4278785 0.045530435 0
0.55100268 1.430234 0.12661089 0
0.55726522 1.4312279 0.2095457 0
0.54723161 1.4296355 0.29135597 0
0.83505231 1.4753146 0.47506118 0
0.84349602 1.4766546 0.59328359 0
0.98851794 1.5196676 -0.049998615 0
0.55383486 1.4450576 0.046252929 0
0.54147226 1.4429357 0.12582278 0
0.54777914 1.4440182 0.20823365 0
0.55131167 1.4446245 0.29300624 0
0.84342974 1.4947643 0.47886559 0
0.83767706 1.4937769 0.59206176 0
0.9949612 1.5409408 -0.050358281 0
0.55388004 1.4595025 0.046344958 0
0.54927713 1.4586525 0.12694481 0
0.55548829 1.4597993 0.21010159 0
0.55925578 1.460495 0.29571176 0
0.83211321 1.5108736 0.47609884 0
0.84475416 1.5132076 0.59635746 0
0.98470348 1.5591742 -0.05012079 0
0.55339307 1.4739105 0.04642446 0
0.56023616 1.4752632 0.1284368 0
0.54665178 1.4725778 0.20896895 0
0.54955691 1.473152 0.29388753 0
0.85637587 1.5338057 0.48545995 0
0.84268445 1.5310991 0.5969066 0
0.98556453 1.5795835 -0.050296716 0
0.54707152 1.4871482 0.046297904 0
0.55193335 1.488173 0.12784018 0
0.54703385 1.4871402 0.209562 0
0.54957086 1.4876751 0.29463249 0
0.83911818 1.5487123 0.48082682 0
0.84649044 1.5502664 0.60003865 0
0.97030514 1.5965124 -0.049892753 0
0.54933482 1.5022197 0.046491168 0
0.55252665 1.5029346 0.12823948 0
0.55991596 1.5045897 0.21250081 0
0.55662197 1.5038519 0.29726717 0
0.84746975 1.5689986 0.48497573 0
0.83309847 1.5657796 0.59598476 0
0.96752065 1.6161113 -0.049953114 0
0.54999977 1.5170543 0.046633314 0
0.55334324 1.5178475 0.12868515 0
0.55521542 1.5182917 0.21223006 0
0.55836254 1.5190383 0.29857057 0
0.83697289 1.5851388 0.48277938 0
0.83600813 1.5849099 0.59893852 0
0.96721536 1.6363786 -0.050113991 0
0.54838938 1.5314245 0.046699028 0
0.54711097 1.5311042 0.12837204 0
0.55249685 1.5324538 0.21235895 0
0.55189914 1.532304 0.2977705 0
0.84977525 1.6069492 0.48863691 0
0.83043307 1.6021022 0.59838277 0
0.94813222 1.651809 -0.049591444 0
0.55292839 1.5474685 0.046998698 0
0.54707819 1.5459239 0.12876549 0
0.55615085 1.5483193 0.21371017 0
0.55295175 1.5474747 0.29899505 0
0.84003407 1.6232692 0.48685122 0
0.84179384 1.6237339 0.60517001 0
0.94936866 1.6724993 -0.04982711 0
0.54797322 1.5610994 0.046955124 0
0.55630726 1.5634123 0.1302141 0
0.556503 1.5634667 0.21448547 0
0.5493198 1.5614731 0.29903403 0
0.84586507 1.6437738 0.49050665 0
0.83831602 1.6416787 0.60572195 0
0.95748574 1.6953692 -0.05032916 0
0.55094463 1.5770084 0.0472125 0
0.55489188 1.5781575 0.13050117 0
0.55453104 1.5780525 0.21486279 0
0.5601055 1.5796754 0.30295107 0
0.85084921 1.6643229 0.49397141 0
0.84936088 1.6638896 0.61263573 0
0.93744594 1.7100289 -0.049792957 0
0.85368747 1.6844951 0.38237268 0
0.84017628 1.6803762 0.49209359 0
0.83324963 1.6782646 0.6079424 0
0.94428891 1.7328618 -0.050268807 0
0.85433513 1.7041965 0.38402644 0
0.83621591 1.6984224 0.49262258 0
0.83296639 1.697387 0.61018687 0
0.92917722 1.7487495 -0.049931422 0
0.8508237 1.7226896 0.38463542 0
0.83990175 1.7190571 0.49591422 0
0.8362574 1.717845 0.61410511 0
0.93255502 1.7707978 -0.050298739 0
0.83901745 1.7383742 0.38306999 0
0.82549924 1.7336884 0.49294227 0
0.8294782 1.7350676 0.61374038 0
0.91838712 1.7867944 -0.050012305 0
0.84703177 1.7610492 0.38692686 0
0.83688515 1.7573882 0.49914289 0
0.83895916 1.7581365 0.62062627 0
0.90928143 1.8044775 -0.049925208 0
0.84074801 1.7787706 0.38698348 0
0.83111328 1.7751565 0.49938199 0
0.83576828 1.7769027 0.62206942 0
0.90585274 1.8243092 -0.050063703 0
0.82883364 1.7943078 0.38555968 0
0.83056313 1.7949815 0.50156629 0
0.82939142 1.7945251 0.62220871 0
0.89748043 1.8422521 -0.050022136 0
0.84075195 1.8193277 0.39074051 0
0.83084494 1.8153242 0.50414968 0
0.82323402 1.8122486 0.6225456 0
0.89343554 1.861979 -0.050156571 0
0.8393324 1.839319 0.39234632 0
0.82513565 1.8333728 0.50467789 0
0.82236928 1.8322142 0.62535995 0
0.87731582 1.8765756 -0.049831498 0
0.82325357 1.8531283 0.38995406 0
0.82477504 1.8537881 0.50723088 0
0.82408732 1.8534899 0.6294685 0
0.87941021 1.899098 -0.050224494 0
0.83859915 1.8807839 0.39638439 0
0.82378393 1.8741356 0.50966179 0
0.82010478 1.8724846 0.63113457 0
0.86897165 1.9161147 -0.050137669 0
0.83301622 1.8994325 0.39706382 0
0.81399328 1.8906065 0.50897342 0
0.82015103 1.8934635 0.63475806 0
0.85718709 1.9324216 -0.050005484 0
0.83223087 1.9204586 0.39917096 0
0.81703061 1.9131721 0.51309001 0
0.8160519 1.912703 0.63662118 0
0.84737414 1.9496038 -0.049959164 0
0.82270259 1.9373928 0.39887759 0
0.81009966 1.9311552 0.51363707 0
0.81655163 1.9343485 0.64073193 0
0.84395391 1.9700177 -0.05017747 0
0.82604605 1.9608718 0.40233064 0
0.7946561 1.9448406 0.51109189 0
0.79857463 1.9468418 0.63640565 0
0.82586151 1.9828814 -0.049815532 0
0.81308919 1.9761543 0.40119138 0
0.78960675 1.9637862 0.51250285 0
0.79603797 1.9671736 0.63934934 0
0.82027203 2.0022459 -0.049965579 0
0.7984398 1.9903935 0.39960867 0
0.79604703 1.9890945 0.51836294 0
0.79334062 1.9876252 0.64235771 0
0.81280214 2.0206835 -0.050049704 0
0.79457122 2.0104868 0.40121847 0
0.79116386 2.0085812 0.52006918 0
0.79079872 2.0083768 0.6455828 0
0.80603665 2.0395989 -0.050173 0
0.78302258 2.0263441 0.40065309 0
0.78128821 2.0253451 0.51996481 0
0.78639621 2.0282869 0.64806682 0
0.79473013 2.055927 -0.050118592 0
0.78577977 2.0506208 0.40438551 0
0.78083414 2.047689 0.52358502 0
0.77373713 2.0434813 0.64671552 0
0.78968626 2.0760338 -0.050334234 0
0.76662737 2.0619683 0.40168998 0
0.77853197 2.0692298 0.52662212 0
0.77550453 2.0673833 0.65244287 0
0.76916522 2.0866137 -0.049909912 0
0.75747913 2.0792818 0.4020291 0
0.77072662 2.0875933 0.52762806 0
0.7713235 2.0879679 0.65545481 0
0.76154214 2.1051614 -0.050035734 0
0.75672621 2.1020546 0.40498585 0
0.76387423 2.1066658 0.52911067 0
0.75574321 2.1014206 0.65300196 0
0.74224299 2.1160774 -0.049672421 0
0.74388093 2.1171634 0.40435308 0
0.74903578 2.1205814 0.52751327 0
0.74856645 2.1202703 0.654787 0
0.74160272 2.1394002 -0.050117958 0
0.74385458 2.1409345 0.40773082 0
0.72809821 2.1301987 0.52351695 0
0.74555057 2.1420901 0.65879059 0
0.72667509 2.15311 -0.049957573 0
0.73656386 2.1600316 0.40896899 0
0.72140867 2.1494236 0.52532029 0
0.73029596 2.1556444 0.65678257 0
0.71451396 2.168673 -0.049924925 0
0.72342366 2.1750782 0.4084557 0
0.72127002 2.1735299 0.52992296 0
0.72123939 2.1735079 0.65800345 0
0.70560938 2.1866152 -0.050045136 0
0.71707731 2.1950803 0.41015181 0
0.70728689 2.1878536 0.52896863 0
0.70818907 2.1885195 0.6572957 0
0.69881994 2.2062707 -0.050271317 0
0.69651073 2.2045207 0.40739238 0
0.70386726 2.2100954 0.5324896 0
0.69602162 2.2041502 0.65713751 0
0.67410868 2.2121925 -0.049700283 0
0.69042975 2.2248871 0.40932605 0
0.68348807 2.2194879 0.52901459 0
0.69545728 2.2287974 0.66316676 0
0.66246754 2.2280357 -0.049723905 0
0.69431895 2.2534597 0.41461727 0
0.67667359 2.2393751 0.5313288 0
0.68389004 2.2451353 0.66359162 0
0.66170353 2.2528133 -0.050258894 0
0.67488068 2.2636056 0.41238835 0
0.66912192 2.2588892 0.53345716 0
0.67943889 2.267339 0.66793877 0
0.64263397 2.2627058 -0.049960416 0
0.66916519 2.2849996 0.4147512 0
0.66346985 2.2802138 0.53653985 0
0.66068858 2.2778769 0.66474956 0
0.63666731 2.2836192 -0.050282117 0
0.71907431 2.3546543 0.066166334 0
0.71811467 2.353827 0.1869787 0
0.71925014 2.3548059 0.30997822 0
0.649041 2.2942853 0.41237664 0
0.64891845 2.2941797 0.53586453 0
0.64901119 2.2942595 0.66546404 0
0.62061828 2.2959249 -0.050139423 0
0.68689054 2.3545225 0.065297663 0
0.69475108 2.3614726 0.18562759 0
0.68345422 2.3514841 0.30472094 0
0.63642472 2.3099008 0.41257209 0
0.63754553 2.3108919 0.53667092 0
0.63372558 2.3075142 0.66430563 0
0.61615151 2.3186028 -0.050560739 0
0.65223747 2.3513284 0.064299934 0
0.66244811 2.3605883 0.18297791 0
0.65727788 2.3558996 0.30173525 0
0.62368566 2.3254354 0.41279477 0
0.61896282 2.3211522 0.53434241 0
0.62835699 2.3296716 0.66876978 0
0.58774763 2.3194268 -0.049833763 0
0.64293605 2.3707573 0.064524561 0
0.6400668 2.3680887 0.18175161 0
0.64031464 2.3683193 0.30099714 0
0.61503297 2.3448048 0.41451168 0
0.60375935 2.3343194 0.53358024 0
0.61611634 2.3458126 0.66955763 0
0.57766575 2.3370233 -0.050002493 0
0.62749344 2.384552 0.064460911 0
0.62433511 2.3815393 0.18151203 0
0.62047869 2.377861 0.29957289 0
0.59945804 2.3578103 0.41389412 0
0.59722072 2.3556759 0.53686845 0
0.60178393 2.3600287 0.66927373 0
0.56500715 2.3522701 -0.050055627 0
0.60468894 2.3910871 0.06403742 0
0.60913473 2.395436 0.18137468 0
0.60682505 2.3931766 0.29972085 0
0.59186345 2.3785412 0.41617522 0
0.59255272 2.3792152 0.54119247 0
0.58442742 2.3712671 0.66733783 0
0.54720324 2.3624132 -0.049858894 0
0.59865791 2.4140298 0.064460896 0
0.60514385 2.4205363 0.18296841 0
0.60601062 2.4214058 0.30319947 0
0.56981367 2.3850946 0.4133552 0
0.56941992 2.3846998 0.53700888 0
0.57121271 2.3864982 0.66788882 0
0.53246683 2.3755169 -0.049823213 0
0.60451108 2.4496317 0.065513313 0
0.59900028 2.4439623 0.18429942 0
0.60351425 2.448606 0.30637962 0
0.56838161 2.4124639 0.41807526 0
0.55983335 2.4036698 0.53926921 0
0.56779975 2.4118652 0.67438251 0
0.52759188 2.3989925 -0.050307337 0
0.61510009 2.4913135 0.06684868 0
0.61181039 2.4878428 0.18865494 0
0.60988897 2.4858158 0.31201717 0
0.54213518 2.4143357 0.41378257 0
0.5497337 2.4223523 0.54142642 0
0.53851706 2.4105186 0.66558421 0
0.50855213 2.4076502 -0.050068486 0
0.5320918 2.4331193 0.41553035 0
0.52852648 2.4292617 0.53828323 0
0.52967542 2.4305048 0.66912425 0
0.49883279 2.4264033 -0.050329104 0
0.5207656 2.4507415 0.41690335 0
0.517461 2.4470747 0.54017889 0
0.52120286 2.4512269 0.67309684 0
0.4742119 2.4284794 -0.049800146 0
0.50214535 2.4602723 0.41556191 0
0.50090104 2.4588561 0.53944474 0
0.5015375 2.4595804 0.67026806 0
0.46594116 2.4490752 -0.050162088 0
0.49474797 2.482707 0.41864884 0
0.49606451 2.4842443 0.54477066 0
0.48386046 2.469996 0.66872942 0
0.44659922 2.4568148 -0.049927168 0
0.47964188 2.4963896 0.41882566 0
0.46951398 2.4842596 0.53907061 0
0.47279069 2.488184 0.67151999 0
0.43590531 2.4749231 -0.050183192 0
0.45771965 2.5017292 0.41631925 0
0.45346412 2.4964998 0.53881645 0
0.45634302 2.5000374 0.67097545 0
0.42070886 2.4876502 -0.05019762 0
0.43391791 2.5043058 0.41302842 0
0.4451153 2.5184247 0.54276347 0
0.44286534 2.5155878 0.67249984 0
0.40860155 2.5043964 -0.050401933 0
0.42528561 2.5259867 0.41602638 0
0.41656509 2.5147018 0.53593284 0
0.42650482 2.5275643 0.67222869 0
0.38703856 2.5088277 -0.050060835 0
0.40681514 2.5350969 0.41501647 0
0.41192779 2.5418878 0.54218876 0
0.40426394 2.531708 0.66800803 0
0.37113318 2.5205724 -0.050058734 0
0.39597347 2.5544472 0.41732958 0
0.3905094 2.5469956 0.53930283 0
0.39157763 2.5484524 0.6704402 0
0.35322586 2.5295167 -0.049942624 0
0.37814268 2.5644088 0.41672149 0
0.38029072 2.5674167 0.54281378 0
0.38069656 2.5679851 0.67435074 0
0.33125451 2.5324779 -0.049577206 0
0.36338922 2.578697 0.41753325 0
0.36116776 2.5755019 0.54134792 0
0.35921535 2.5726936 0.67082125 0
0.32188007 2.5535984 -0.05000969 0
0.34752253 2.5914888 0.41793466 0
0.34118572 2.5821252 0.53940451 0
0.34145746 2.5825267 0.67001951 0
0.30768076 2.5679526 -0.050154436 0
0.32077673 2.5878389 0.41337124 0
0.32376876 2.5923822 0.53902519 0
0.32449207 2.5934806 0.66989118 0
0.29251817 2.5809984 -0.050250147 0
0.30830726 2.6056442 0.41544789 0
0.3118442 2.611165 0.54210466 0
0.3041946 2.5992246 0.66730773 0
0.27410373 2.5889583 -0.050139248 0
0.28500053 2.6064487 0.41244525 0
0.28122368 2.6003864 0.53363156 0
0.28918287 2.6131616 0.66886634 0
0.25037292 2.5879958 -0.049666494 0
0.27167991 2.6231744 0.41430241 0
0.27114525 2.6222918 0.53808618 0
0.27026442 2.6208375 0.66747421 0
0.23433955 2.5994596 -0.049724434 0
0.25281313 2.6308453 0.413515 0
0.25721595 2.6383255 0.54029042 0
0.253858 2.6326206 0.66818041 0
0.22710969 2.6264093 -0.050427139 0
0.23526837 2.6406784 0.41343871 0
0.24115808 2.650979 0.54125094 0
0.23372592 2.6379807 0.66591716 0
0.20952345 2.6357319 -0.050408911 0
0.21985741 2.6543458 0.41454658 0
0.21626844 2.6478813 0.53628808 0
0.21782978 2.6506934 0.66727215 0
0.18564089 2.6333492 -0.049925104 0
0.19986416 2.6597462 0.41330758 0
0.19845785 2.6571362 0.53614593 0
0.20259757 2.6648192 0.66937685 0
0.16303046 2.6326702 -0.049525261 0
0.17911877 2.6634505 0.41166109 0
0.17868181 2.6626143 0.53467143 0
0.17833222 2.6619456 0.663616 0
0.15352978 2.6572442 -0.050150119 0
0.16011877 2.6702466 0.41098437 0
0.15602185 2.6621618 0.53108746 0
0.15987231 2.66976 0.66299504 0
0.13269891 2.6597509 -0.049898211 0
0.14437057 2.6835206 0.41222128 0
0.13948502 2.6735711 0.53202808 0
0.14052989 2.6756988 0.66162032 0
0.11944231 2.6777802 -0.050271839 0
0.12708153 2.693846 0.41267398 0
0.1193827 2.6776547 0.53034139 0
0.11772867 2.6741762 0.65694505 0
0.10235723 2.6881275 -0.050347995 0
0.10256179 2.6885719 0.40880436 0
0.10687026 2.6979351 0.53468913 0
0.10171416 2.6867299 0.65884352 0
0.078731678 2.6839161 -0.049863257 0
0.081692658 2.6905704 0.40707365 0
0.082542919 2.692481 0.52969897 0
0.082538448 2.692471 0.65773576 0
0.063601397 2.6986046 -0.050127212 0
0.062531076 2.6961155 0.40641043 0
0.06397637 2.6994767 0.52935565 0
0.063797139 2.69906 0.65712517 0
0.048103355 2.7129011 -0.050382018 0
0.043479048 2.701762 0.40584552 0
0.044474624 2.7041602 0.5282656 0
0.045144759 2.7057743 0.65668011 0
0.024860701 2.7083497 -0.049918223 0
0.028134665 2.7165256 0.40785518 0
0.026527485 2.712512 0.528584 0
0.028654179 2.7178228 0.65872133 0
0.0069488497 2.716712 -0.049962085 0
0.0098150587 2.7241392 0.40795279 0
0.010522029 2.7259712 0.53080285 0
0.01053407 2.7260022 0.65912795 0
-0.011348286 2.7241352 -0.049978577 0
-0.015483239 2.7130051 0.40301031 0
-0.011718967 2.7231374 0.5273006 0
-0.0093074227 2.7296286 0.65762258 0
-0.028725425 2.7341771 -0.050103042 0
-0.034507908 2.7179911 0.40254381 0
-0.034786202 2.7172122 0.52282107 0
-0.029335896 2.7324684 0.65588838 0
-0.051574625 2.7285511 -0.049643867 0
-0.051977672 2.7273767 0.40333077 0
-0.054334857 2.7205067 0.5217061 0
-0.053607561 2.7226264 0.64872104 0
-0.063025273 2.7565348 -0.050460637 0
-0.072734244 2.7270334 0.4015606 0
-0.073410131 2.7249796 0.5210948 0
-0.070189662 2.7347653 0.65129787 0
-0.089565583 2.7385721 -0.04955969 0
-0.090164252 2.7366729 0.40253797 0
-0.094195403 2.7238839 0.51862746 0
-0.095763095 2.7189102 0.64180273 0
-0.10560957 2.7532418 -0.049891431 0
-0.11062873 2.7365899 0.40097949 0
-0.11349586 2.7270777 0.5177511 0
-0.11226428 2.7311637 0.64463818 0
-0.1241032 2.7602556 -0.049945064 0
-0.10565964 2.8243554 0.064326361 0
-0.1022623 2.8361628 0.18289651 0
-0.10448665 2.8284321 0.30140659 0
-0.12980904 2.7404249 0.40053537 0
-0.13157667 2.7342815 0.51835048 0
-0.13417716 2.7252438 0.6397233 0
-0.14391984 2.762598 -0.049834237 0
-0.13339545 2.8009877 0.06325537 0
-0.13580732 2.7921901 0.17737179 0
-0.13515635 2.7945647 0.29403019 0
-0.14468513 2.7598064 0.40426952 0
-0.14946054 2.7423873 0.51933753 0
-0.15222837 2.732291 0.64051104 0
-0.16347875 2.7656319 -0.04975849 0
-0.1577685 2.7875392 0.06256675 0
-0.15697955 2.7905662 0.17661542 0
-0.1571051 2.7900844 0.29222703 0
-0.16863756 2.7458401 0.39924851 0
-0.17297377 2.7292042 0.51307952 0
-0.1715783 2.7345579 0.63934827 0
-0.18262129 2.7701402 -0.049746282 0
-0.17619686 2.7961237 0.062701866 0
-0.17810078 2.7884233 0.17583351 0
-0.17835365 2.7874005 0.29081467 0
-0.18992762 2.7405896 0.39661324 0
-0.19057788 2.7379596 0.5144614 0
-0.18904971 2.7441404 0.64141333 0
-0.20077954 2.7788317 -0.049896348 0
-0.19801678 2.790642 0.062329378 0
-0.19803573 2.790561 0.17555575 0
-0.19794099 2.790966 0.29061359 0
-0.20834352 2.7464974 0.39697963 0
-0.21170975 2.7321074 0.51092386 0
-0.20937522 2.7420871 0.63861823 0
-0.21950854 2.7854431 -0.049978308 0
-0.21741675 2.7949216 0.062324848 0
-0.21712552 2.7962413 0.1756963 0
-0.21932869 2.786258 0.28893062 0
-0.22847395 2.744818 0.39542347 0
-0.23065822 2.7349205 0.51043916 0
-0.23088242 2.7339044 0.63334084 0
-0.2400939 2.7834086 -0.049753424 0
-0.23463254 2.809726 0.062713005 0
-0.23448281 2.8104477 0.17679873 0
-0.23522671 2.8068628 0.29196417 0
-0.24621855 2.7538948 0.39674017 0
-0.24979828 2.7366445 0.50966692 0
-0.25241479 2.7240357 0.62747884 0
-0.25904584 2.7889607 -0.049814451 0
-0.25406802 2.8145645 0.062745653 0
-0.25208157 2.8247819 0.17793642 0
-0.25283393 2.8209121 0.29382268 0
-0.26648036 2.750721 0.3949278 0
-0.27212706 2.7216766 0.50332111 0
-0.2682083 2.7418332 0.63341498 0
-0.27542043 2.8089814 -0.050408982 0
-0.268325 2.8481002 0.063828364 0
-0.26612678 2.8602195 0.18140072 0
-0.26652002 2.8580513 0.29994982 0
-0.28554654 2.7531536 0.39463952 0
-0.28994682 2.728894 0.50458622 0
-0.28760496 2.7418051 0.63192052 0
-0.29580319 2.8077452 -0.050240144 0
-0.30493659 2.7535102 0.39387691 0
-0.31020439 2.7222297 0.50124115 0
-0.30894917 2.7296834 0.62545419 0
-0.31693459 2.8009396 -0.049879692 0
-0.32618871 2.7414207 0.38996533 0
-0.32717454 2.7350802 0.50455898 0
-0.32972392 2.718684 0.61958349 0
-0.3364065 2.8039916 -0.049884986 0
-0.34655911 2.7328007 0.3870239 0
-0.34749398 2.7262454 0.50065517 0
-0.34832653 2.7204075 0.61915392 0
-0.35557932 2.8094015 -0.049983993 0
-0.36515883 2.7355914 0.38708904 0
-0.36728701 2.7191937 0.49744195 0
-0.36720607 2.7198174 0.61785692 0
-0.37460747 2.8166754 -0.050158542 0
-0.38478944 2.7296522 0.38497177 0
-0.38506851 2.727267 0.49938321 0
-0.38578689 2.721127 0.61745304 0
-0.39475733 2.8144083 -0.049998987 0
-0.40438375 2.7220745 0.38250044 0
-0.4043898 2.7220166 0.4969402 0
-0.40357015 2.7298782 0.6202448 0
-0.4151547 2.8082371 -0.049708761 0
-0.42275488 2.7252152 0.38284126 0
-0.42353022 2.7167456 0.49457443 0
-0.42409152 2.7106144 0.61147887 0
-0.4345912 2.8116858 -0.049772538 0
-0.44255528 2.7106977 0.37872183 0
-0.44190067 2.7189984 0.49480242 0
-0.44222817 2.7148454 0.61258686 0
-0.45372167 2.8204856 -0.050036475 0
-0.46163374 2.7009742 0.37589541 0
-0.46168405 2.7002141 0.48809311 0
-0.4619135 2.6967487 0.60452402 0
-0.47359979 2.8188667 -0.049936362 0
-0.47873962 2.7229149 0.38122237 0
-0.48004273 2.6985879 0.48718786 0
-0.48017785 2.6960652 0.60378945 0
-0.49330011 2.8199413 -0.04994148 0
-0.49802569 2.7045326 0.37630534 0
-0.49897674 2.6813064 0.48114738 0
-0.49869457 2.6881974 0.60017359 0
-0.51270396 2.831713 -0.050337516 0
-0.51629394 2.7050376 0.37627274 0
-0.51694024 2.6822321 0.48124829 0
-0.51680815 2.6868935 0.59937441 0
-0.53265554 2.8266411 -0.050140794 0
-0.53483033 2.6884892 0.37194744 0
-0.53501141 2.6769857 0.47937074 0
-0.53504211 2.675034 0.5942989 0
-0.55248296 2.8179193 -0.049822729 0
-0.55292118 2.6787553 0.36942047 0
-0.55294174 2.6722367 0.47773451 0
-0.55293912 2.6730585 0.59341097 0
-0.57224947 2.8261788 -0.050119836 0
-0.57086182 2.6792204 0.3695536 0
-0.57071853 2.6640475 0.47502854 0
-0.57072496 2.6647267 0.58998448 0
-0.59206605 2.8270535 -0.050162189 0
-0.58859265 2.6694398 0.36712965 0
-0.58853716 2.6669216 0.47607794 0
-0.58865845 2.6724267 0.59328908 0
-0.61167765 2.8210583 -0.049968068 0
-0.60598177 2.6566229 0.36398655 0
-0.60611808 2.6605582 0.47412735 0
-0.60570627 2.6486709 0.58365697 0
-0.63117588 2.8154981 -0.049798205 0
-0.62299854 2.6424396 0.36054856 0
-0.62306559 2.6438584 0.46880668 0
-0.62343425 2.6516604 0.58519405 0
-0.65132397 2.822742 -0.050094929 0
-0.64099705 2.6502814 0.36279204 0
-0.64022088 2.6373196 0.46693957 0
-0.64034808 2.6394441 0.58051777 0
-0.64016104 2.6363201 0.69870794 0
-0.67042023 2.8125477 -0.049776807 0
-0.65697515 2.6271665 0.35717672 0
-0.6575765 2.6354582 0.46670309 0
-0.65698522 2.6273057 0.57595789 0
-0.65693921 2.6266708 0.69444507 0
-0.69089705 2.8211637 -0.050140928 0
-0.67387044 2.6213133 0.46243781 0
-0.67425448 2.6258209 0.57590717 0
-0.67337477 2.6154952 0.68951714 0
-0.71053499 2.8185422 -0.050111648 0
-0.68991429 2.6078994 0.45848012 0
-0.69141448 2.623224 0.5754841 0
-0.69040483 2.61291 0.68900585 0
-0.73059219 2.8198702 -0.050233059 0
-0.70487136 2.5873606 0.56129289 0
-0.70570993 2.5949411 0.6808576 0
-0.74810684 2.7998669 -0.049596403 0
-0.72183454 2.5869405 0.56193626 0
-0.72297609 2.5961924 0.68248326 0
-0.76897478 2.80779 -0.04997281 0
-0.73970926 2.5929034 0.68192899 0
-0.78970861 2.8129914 -0.050261147 0
-0.75450969 2.5768178 0.67500657 0
-0.8066718 2.7936158 -0.049670663 0
-0.82591486 2.7896762 -0.049646046 0
-0.84568423 2.7886147 -0.049734723 0
-0.86437708 2.781863 -0.049625471 0
-0.88602996 2.7892909 -0.050042205 0
-0.90656024 2.7904396 -0.0502402 0
-0.92401648 2.7781997 -0.049956653 0
-0.94345838 2.774579 -0.049997773 0
-0.96306366 2.7714453 -0.05006605 0
-0.98178291 2.7649679 -0.050019719 0
-1.0011841 2.7609103 -0.050072026 0
-1.020388 2.7560763 -0.050104652 0
-1.0381593 2.7467103 -0.049976464 0
-1.0553794 2.7359781 -0.049804695 0
-1.0753716 2.73352 -0.049953334 0
-1.0970633 2.7354105 -0.050277434 0
-1.1101854 2.7140172 -0.049724612 0
-1.1313807 2.714215 -0.050003644 0
-1.1497115 2.7068586 -0.050003119 0
-1.1660672 2.6948209 -0.049830079 0
-1.1839973 2.6866786 -0.049815886 0
-1.2028968 2.6806958 -0.049895048 0
-1.2197325 2.6701615 -0.049804643 0
-1.2381958 2.6631348 -0.049861144 0
-1.2534313 2.6495419 -0.04966528 0
-1.2775326 2.6534691 -0.050179295 0
-1.2941734 2.6425593 -0.050109304 0
-1.3109874 2.6320622 -0.050064128 0
-1.3243115 2.6154301 -0.049775869 0
-1.3416474 2.6061118 -0.049794268 0
-1.3651125 2.6070271 -0.050247386 0
-1.3752036 2.5855551 -0.049778324 0
-1.3914233 2.5743971 -0.049746428 0
-1.4111898 2.5687349 -0.049956888 0
-1.4234518 2.5515587 -0.049685523 0
-1.445003 2.5482576 -0.050019149 0
-1.459862 2.5350449 -0.049934674 0
-1.4776338 2.5259538 -0.050039269 0
-1.4895613 2.508868 -0.04979917 0
-1.5030773 2.494139 -0.049669284 0
-1.5204362 2.4844623 -0.049774863 0
-1.5439994 2.4823844 -0.050239481 0
-1.5569251 2.4668818 -0.05010147 0
-1.5696256 2.4512587 -0.049963921 0
-1.5860225 2.4400399 -0.050040536 0
-1.6005862 2.4266746 -0.050025262 0
-1.6107213 2.4084682 -0.049784631 0
-1.6342378 2.4048023 -0.050258376 0
-1.64229 2.3845389 -0.049931087 0
-1.661358 2.3757908 -0.050181635 0
-1.6746228 2.3610406 -0.050143026 0
-1.6800067 2.3387115 -0.049722973 0
-1.700397 2.3309195 -0.050057728 0
-1.7178428 2.3200986 -0.050250687 0
-1.7218912 2.2970936 -0.049805999 0
-1.7422514 2.2887418 -0.050153051 0
-1.7581283 2.2762487 -0.050291173 0
-1.7644404 2.2556899 -0.049991507 0
-1.7842768 2.2463341 -0.050327752 0
-1.2356603 1.8027382 0.52327526 0
-1.7904414 2.2258997 -0.050044633 0
-1.2279799 1.7827041 0.51230317 0
-1.8077729 2.2142863 -0.050278496 0
-1.2355571 1.7749693 0.51303393 0
-1.811973 2.192642 -0.049931295 0
-1.2402509 1.7650371 0.51169503 0
-1.8222414 2.1757171 -0.049867395 0
-1.2362593 1.7488459 0.50408781 0
-1.8324286 2.1587861 -0.049809873 0
-1.2352632 1.7351738 0.49887523 0
-1.8386821 2.139184 -0.049591478 0
-1.2325747 1.7205997 0.4926126 0
-1.8589023 2.1291518 -0.049986389 0
-1.243934 1.7157867 0.49657264 0
-1.8698994 2.1127508 -0.049990013 0
-1.2427534 1.702569 0.49165711 0
-1.8726236 2.0910795 -0.049652327 0
-1.2363555 1.6862775 0.48323113 0
-1.8949884 2.0818357 -0.050153304 0
-1.2427605 1.6783255 0.48394248 0
-1.9029733 2.0635281 -0.050056297 0
-1.2390494 1.6642526 0.47771731 0
-1.9054457 2.0420747 -0.04974163 0
-1.2445766 1.6558827 0.47800556 0
-1.9131445 2.0238395 -0.049654882 0
-1.2357781 1.6393656 0.46859494 0
-1.9303067 2.0108855 -0.049963888 0
-1.2373729 1.6290303 0.46642837 0
-1.9409586 1.9941993 -0.050013877 0
-1.9493639 1.9763047 -0.049981665 0
-1.9625292 1.9608252 -0.050148897 0
-1.9644461 1.9397316 -0.049876176 0
-1.9812868 1.925886 -0.050204672 0
-1.9877441 1.9070439 -0.050130676 0
-1.98834 1.8856694 -0.049837653 0
