# .PCD v0.7 - Point Cloud Data file format
VERSION 0.7
FIELDS x y z intensity
SIZE 4 4 4 4
TYPE F F F F
COUNT 1 1 1 1
WIDTH 1341
HEIGHT 1
VIEWPOINT 0 0 0 1 0 0 0
POINTS 1341
DATA ascii
0.83927542 1.1197582 0.39815944 0
0.84077841 1.1229192 0.48165485 0
0.84467697 1.1311181 0.5751726 0
1.079186 1.669664 -0.049227405 0
0.94528037 1.378659 0.31894368 0
0.86771184 1.2100862 0.35234532 0
0.84034407 1.1506104 0.40991762 0
0.84078038 1.1515585 0.49463493 0
0.83886141 1.1473883 0.58245134 0
1.0719935 1.7014104 -0.050154131 0
0.9293009 1.3807374 0.31774592 0
0.85095263 1.2046653 0.34840333 0
0.8426621 1.186034 0.42367566 0
0.83963025 1.1792206 0.50700724 0
0.83867782 1.1770802 0.59844917 0
1.0502948 1.7010825 -0.049832918 0
0.91210449 1.3796926 0.31574324 0
0.85033619 1.2360376 0.35788375 0
0.83994424 1.2118689 0.43302473 0
0.84303081 1.2190474 0.52594608 0
0.83778942 1.2068576 0.61441743 0
1.0290947 1.701373 -0.049547877 0
0.89756924 1.3845488 0.31544116 0
0.85041708 1.2709666 0.36859879 0
0.83998322 1.245833 0.44598475 0
0.83910799 1.2437248 0.53655583 0
0.8363086 1.2369815 0.63053215 0
1.0144614 1.7175295 -0.049884733 0
0.88205135 1.3868774 0.31449634 0
0.84823066 1.3024211 0.37801436 0
0.84325349 1.2899922 0.46342638 0
0.84080994 1.2838902 0.55548644 0
0.8389132 1.2791537 0.65427458 0
0.9968192 1.7265575 -0.049954232 0
0.86627978 1.3882966 0.31336096 0
0.84694219 1.3381879 0.38893196 0
0.83865458 1.3167126 0.47302586 0
0.83993632 1.320034 0.57215691 0
0.83991057 1.3199673 0.67701733 0
0.97809947 1.7328352 -0.049927138 0
0.84443128 1.3730437 0.30774742 0
0.84621745 1.3778515 0.40118739 0
0.83937287 1.359428 0.48967099 0
0.83847916 1.3570224 0.5892064 0
0.84210891 1.3667926 0.70344949 0
0.95987815 1.7404603 -0.049960211 0
0.83210051 1.3827925 0.30900735 0
0.83864695 1.4011168 0.40759778 0
0.83789742 1.3990188 0.50486362 0
0.84030449 1.4057566 0.61242974 0
0.94258404 1.7508694 -0.050106898 0
0.81345105 1.374516 0.30544186 0
0.83956426 1.4506221 0.42324358 0
0.84099305 1.4547863 0.52707994 0
0.83899808 1.448972 0.63262153 0
0.92044586 1.7469003 -0.049720779 0
1.0312359 2.0835438 0.35139573 0
0.80224478 1.3877382 0.30772868 0
0.83907789 1.4996581 0.4386563 0
0.84032369 1.5034435 0.54608816 0
0.84044218 1.5038036 0.65885723 0
0.90382743 1.7595475 -0.049968634 0
1.0059907 2.0836656 0.35002062 0
0.78455836 1.3811604 0.30474764 0
0.83754969 1.5492779 0.45421374 0
0.84313995 1.5670133 0.57149857 0
0.83871448 1.5529734 0.68200922 0
0.88544071 1.7669446 -0.050027609 0
0.98338914 2.0919061 0.35023993 0
0.76994056 1.3837519 0.30428073 0
0.84153527 1.6212802 0.47749642 0
0.83892566 1.6126225 0.58903056 0
0.86228204 1.7579186 -0.049484871 0
0.9611364 2.1014836 0.35076287 0
0.75482708 1.3844622 0.30336502 0
0.84213752 1.687907 0.49881652 0
0.84387952 1.6939613 0.62191564 0
0.84915 1.7840307 -0.050255582 0
0.73985064 1.3853397 0.047496617 0
0.740991 1.3894993 0.13137811 0
0.738038 1.3787278 0.21438791 0
0.73799056 1.3785546 0.30075216 0
0.83645654 1.7377288 0.51426333 0
0.83470672 1.731346 0.63579047 0
0.82946706 1.7871777 -0.0501826 0
0.72525835 1.3873799 0.047432408 0
0.72325671 1.3797007 0.12986846 0
0.72550339 1.38832 0.2154752 0
0.72743231 1.3957204 0.30428728 0
0.83148772 1.7949302 0.53222138 0
0.83110785 1.7934728 0.66025579 0
0.8087852 1.7860836 -0.049963001 0
0.7084285 1.3801914 0.047035769 0
0.70812649 1.3789699 0.12939212 0
0.71069431 1.3893555 0.21499887 0
0.70920658 1.3833385 0.3000809 0
0.82643658 1.8574744 0.55197608 0
0.82480317 1.850868 0.68264645 0
0.79062974 1.7951227 -0.050125152 0
0.69437361 1.3836472 0.047038358 0
0.69109291 1.3696231 0.12798727 0
0.69568491 1.3892529 0.21434768 0
0.69356209 1.3801782 0.29836333 0
0.81836307 1.9136771 0.5695278 0
0.76908016 1.7893274 -0.049752865 0
0.67940676 1.3829898 0.046897031 0
0.68152046 1.3925675 0.13016379 0
0.67964607 1.3840743 0.21279579 0
0.67875028 1.380015 0.29748511 0
0.80597246 1.9564977 0.58250618 0
0.75052369 1.7966785 -0.049870808 0
0.66618437 1.3902593 0.047051989 0
0.66415465 1.3804785 0.12850264 0
0.66602349 1.3894839 0.21323548 0
0.66481465 1.3836589 0.29764986 0
0.79310161 2.0018556 0.59636593 0
0.73118442 1.8004557 -0.049866982 0
0.65089291 1.3874712 0.046846841 0
0.64768803 1.3709868 0.12715389 0
0.64859819 1.3756683 0.21017347 0
0.65056133 1.3857659 0.29746041 0
0.77829218 2.0427573 0.60873646 0
0.71258622 1.8083206 -0.050020333 0
0.63479316 1.3794289 0.046458513 0
0.63591611 1.3856198 0.12846585 0
0.63482702 1.3796155 0.21041447 0
0.63437939 1.3771476 0.29453698 0
0.76248658 2.0834334 0.62106568 0
0.6945889 1.8204238 -0.050335295 0
0.62187666 1.3886532 0.046703469 0
0.61895567 1.371308 0.12663671 0
0.62161529 1.3871011 0.21133386 0
0.62046152 1.3802497 0.29470491 0
0.7464962 2.1286535 0.63496906 0
0.67375189 1.81573 -0.050050948 0
0.60640031 1.3825527 0.046400148 0
0.60600728 1.3800249 0.12733905 0
0.6067214 1.3846178 0.21046236 0
0.60761279 1.3903513 0.296725 0
0.7291159 2.171808 0.64821762 0
0.65364307 1.814744 -0.049910296 0
0.59334582 1.3919356 0.04666277 0
0.59215569 1.3835906 0.12749861 0
0.59195369 1.3821741 0.20963381 0
0.59205478 1.3828827 0.29425517 0
0.70803863 2.1961689 0.65520024 0
0.63405526 1.8170255 -0.049896639 0
0.57847792 1.388803 0.04648032 0
0.57709372 1.3781377 0.12669951 0
0.57740539 1.3805393 0.20898759 0
0.57661921 1.3744814 0.29159987 0
0.68867141 2.2378423 0.66806865 0
0.61486083 1.8226136 -0.050010718 0
0.5620259 1.3710432 0.045779102 0
0.56420368 1.3896562 0.12775846 0
0.56434453 1.3908602 0.21054652 0
0.56315988 1.3807353 0.29276294 0
0.66821951 2.2786603 0.6807133 0
0.59433544 1.8162413 -0.049704019 0
0.55224007 1.4124757 0.13005465 0
0.55101448 1.4007202 0.21204968 0
0.55165255 1.4068398 0.29905993 0
0.64453977 2.2977862 0.68617165 0
0.57482803 1.8186507 -0.049721777 0
0.55185509 1.5677023 0.14665367 0
0.5520252 1.5695602 0.24237323 0
0.55210996 1.5704867 0.34062505 0
0.62187451 2.3325703 0.69695467 0
0.55515057 1.8191028 -0.049678218 0
0.60202217 2.4134567 0.23767769 0
0.59839678 2.3674853 0.38647133 0
0.59822482 2.3653045 0.5436793 0
0.53565133 1.8218288 -0.049724929 0
0.57379436 2.3979776 0.3916353 0
0.57372499 2.3969293 0.55127466 0
0.51620591 1.8262326 -0.049840372 0
0.54829258 2.4252388 0.39626819 0
0.54790026 2.4179149 0.55622536 0
0.49641079 1.8241644 -0.049733263 0
0.52208573 2.4511974 0.40072158 0
0.52190304 2.4467359 0.56325746 0
0.47667238 1.8215401 -0.049615227 0
0.45643866 1.1075736 0.35525593 0
0.45643929 1.1075959 0.42806822 0
0.45700523 1.8183496 -0.049485873 0
0.44584417 1.1093539 0.3558962 0
0.44581473 1.1074831 0.42789465 0
0.43747491 1.8306274 -0.049917612 0
0.4351404 1.0893331 0.41876322 0
0.43513444 1.0874394 0.49412084 0
0.41770461 1.8357409 -0.05010239 0
0.4247447 1.0901754 0.41920105 0
0.42491898 1.0717189 0.4848167 0
0.39831072 1.817716 -0.049469844 0
0.41398975 1.106243 0.35464948 0
0.41417706 1.0977432 0.42307031 0
0.41455424 1.080628 0.49019641 0
0.37832484 1.8295788 -0.04991341 0
0.3524524 2.576489 0.42323738 0
0.35250154 2.5750704 0.59588671 0
0.40514854 1.0552058 0.47528359 0
0.35824642 1.8367056 -0.050196964 0
0.32236904 2.5959811 0.42697185 0
0.32211995 2.6012528 0.60287827 0
0.39543408 1.0496994 0.47225639 0
0.33873937 1.8308918 -0.050026953 0
0.29217955 2.6084452 0.42950773 0
0.29227459 2.6068575 0.6047135 0
0.31934494 1.8251394 -0.049867764 0
0.26157713 2.6216426 0.43224734 0
0.26116031 2.6273894 0.61046493 0
0.29855317 1.8370748 -0.050350916 0
0.23049046 2.6359622 0.43526268 0
0.22876772 2.656183 0.61843818 0
0.27981079 1.824545 -0.04996644 0
0.19775108 2.6627951 0.44062012 0
0.19678389 2.6726749 0.62337226 0
0.2601082 1.8231329 -0.049989238 0
0.16520841 2.6810024 0.44449478 0
0.16605134 2.6733828 0.62436491 0
0.34732419 1.034723 0.46564189 0
0.24051711 1.8206605 -0.049982846 0
0.1350864 2.6751342 0.44407487 0
0.13483201 2.677196 0.62625682 0
0.22075713 1.8194385 -0.050030373 0
0.10178243 2.6930287 0.44804841 0
0.1027938 2.6856024 0.62943584 0
0.20037349 1.8221521 -0.050229032 0
0.071174279 2.689038 0.44811523 0
0.070927426 2.6906941 0.63186979 0
0.18148006 1.8147672 -0.050072137 0
0.035477623 2.7163818 0.45397729 0
0.03696315 2.7072082 0.63736439 0
0.16199814 1.8113714 -0.050068092 0
0.0033031271 2.7188056 0.45537198 0
0.0023093687 2.7244878 0.64318013 0
0.14497651 1.7948799 -0.049597215 0
-0.029714389 2.7246346 0.45746914 0
-0.029806657 2.7251256 0.64480257 0
0.1242492 1.7984983 -0.04986525 0
-0.088406041 2.8567116 0.10040012 0
-0.087912992 2.8542581 0.28989768 0
-0.064497963 2.7377403 0.46098655 0
-0.062220261 2.7264061 0.64670151 0
0.1056907 1.7910684 -0.049740151 0
-0.11274274 2.8113525 0.098991029 0
-0.11508889 2.8223112 0.28712934 0
-0.095385268 2.7302771 0.46080047 0
-0.095789447 2.7321649 0.64988041 0
0.082993969 1.802229 -0.050303865 0
-0.14208628 2.7924817 0.098558895 0
-0.14341821 2.7983415 0.28526992 0
-0.12860824 2.7331841 0.46260366 0
-0.13004424 2.739502 0.65359175 0
0.0651225 1.7916193 -0.050080366 0
-0.17310674 2.781862 0.098441981 0
-0.17553373 2.7919502 0.28538728 0
-0.16271479 2.7386661 0.46496749 0
-0.16209288 2.7360809 0.65460438 0
0.049517468 1.7727121 -0.049558796 0
-0.20934923 2.7921207 0.0991081 0
-0.21053644 2.7967961 0.28679577 0
-0.19682659 2.7428069 0.46716911 0
-0.19447173 2.7335336 0.65595627 0
0.029804932 1.7705787 -0.049662601 0
-0.25290978 2.8279095 0.10073678 0
-0.25510257 2.8361104 0.29209235 0
-0.23121156 2.7467599 0.46942312 0
-0.22432239 2.7209949 0.65478158 0
0.0086102951 1.7734389 -0.049961142 0
-0.26031345 2.7307241 0.46802157 0
-0.25847411 2.7241766 0.65786815 0
-0.012948615 1.7767795 -0.050288588 0
-0.29418033 2.7315395 0.46985182 0
-0.29151797 2.722501 0.65978849 0
-0.030793829 1.7672796 -0.050147712 0
-0.32342172 2.7164664 0.46877095 0
-0.3269819 2.7280145 0.66374648 0
-0.047762468 1.7553723 -0.049924385 0
-0.36125821 2.7285504 0.47290096 0
-0.35937494 2.7227042 0.66493887 0
-0.070409611 1.7608453 -0.050362743 0
-0.39304084 2.7207959 0.47336435 0
-0.39361298 2.7224982 0.66761965 0
-0.085487679 1.7437577 -0.049960412 0
-0.42295533 2.7074947 0.47284627 0
-0.42406261 2.7106569 0.6672833 0
-0.10331012 1.7350217 -0.049880765 0
-0.45691419 2.7054894 0.47456613 0
-0.45795435 2.7083442 0.66963679 0
-0.12157084 1.7275928 -0.049859188 0
-0.48766309 2.6943152 0.4746083 0
-0.48860443 2.6968009 0.66959935 0
-0.13979097 1.7200937 -0.049843606 0
-0.52322751 2.695359 0.47709322 0
-0.52284479 2.6943855 0.67216963 0
-0.15980335 1.7170107 -0.050007034 0
-0.54937339 2.6723723 0.47499761 0
-0.55021733 2.6744421 0.67004222 0
-0.17710705 1.7072129 -0.049920827 0
-0.5843395 2.6709991 0.47718671 0
-0.5805378 2.6620016 0.67007673 0
-0.19431122 1.6973317 -0.049839355 0
-0.61235321 2.652957 0.47619313 0
-0.611637 2.6513197 0.67070723 0
-0.20980157 1.6837949 -0.04962264 0
-0.64168584 2.6381533 0.47590455 0
-0.64275575 2.6405175 0.671417 0
-0.23203494 1.685026 -0.049994383 0
-0.67329156 2.6282916 0.47667155 0
-0.669608 2.6204171 0.66962206 0
-0.24503519 1.6665405 -0.049597666 0
-0.70191503 2.6120005 0.47623488 0
-0.70475388 2.6178751 0.67288691 0
-0.26578134 1.664202 -0.049849182 0
-0.72862685 2.5920019 0.47512072 0
-0.73168945 2.5981412 0.67139649 0
-0.28633213 1.6610892 -0.050081708 0
-0.75780678 2.5771277 0.47510666 0
-0.75284433 2.567486 0.66685963 0
-0.2991643 1.6430764 -0.049723987 0
-0.77792358 2.5451694 0.47167918 0
-0.78559351 2.5596213 0.66895181 0
-0.31510109 1.6312588 -0.049622454 0
-0.80574822 2.5282896 0.47137955 0
-0.81326139 2.5420256 0.66834807 0
-0.338126 1.632161 -0.050049622 0
-0.61607993 2.1254759 0.082264811 0
-0.8355546 2.5150015 0.47189352 0
-0.83407152 2.5123694 0.66430992 0
-0.35627007 1.6240433 -0.050119556 0
-0.61762643 2.0745418 0.080713585 0
-0.86128461 2.494534 0.47099233 0
-0.85825694 2.4893153 0.66226649 0
-0.36789149 1.6048996 -0.049741007 0
-0.6234715 2.0329325 0.07953921 0
-0.88766873 2.4753969 0.47043163 0
-0.88391221 2.4691057 0.66114324 0
-0.38538241 1.5958145 -0.049787074 0
-0.61734581 1.9734114 0.07760828 0
-0.90736711 2.4455168 0.46766272 0
-0.91437769 2.456929 0.66251266 0
-0.40683705 1.5929365 -0.050104909 0
-0.61532128 1.9229239 0.076040179 0
-0.93659317 2.4314311 0.46829382 0
-0.9378773 2.4334636 0.66060174 0
-0.42371804 1.5826 -0.050119281 0
-0.61455619 1.8763988 0.074626803 0
-0.95606923 2.402164 0.46574405 0
-0.95966208 2.4076951 0.65806407 0
-0.43893301 1.5697441 -0.050034713 0
-0.61779773 1.8376633 0.073535472 0
-0.97827566 2.3776186 0.46424964 0
-0.98382223 2.3859267 0.65681583 0
-0.45526284 1.5586133 -0.050032359 0
-0.62297845 1.8031089 0.072617449 0
-1.0044986 2.3592882 0.46416238 0
-1.0028211 2.3568428 0.65338719 0
-0.47660953 1.5545996 -0.050349761 0
-0.62238741 1.761481 0.071385153 0
-1.0201141 2.325917 0.46082848 0
-1.0227932 2.3297188 0.65061408 0
-0.49203545 1.5420171 -0.050304238 0
-0.61963999 1.7183497 0.070074998 0
-0.61375189 1.7102132 0.19780149 0
-1.0442151 2.3050566 0.46029282 0
-1.0433232 2.3038242 0.64828151 0
-0.078637078 0.9707548 0.44226715 0
-0.51009977 1.533034 -0.050426982 0
-0.61944342 1.6801947 0.068972334 0
-0.61782193 1.6780126 0.19526942 0
-1.057454 2.2696946 0.45656171 0
-1.068202 2.2841599 0.64798927 0
-0.089155093 0.96650243 0.44366339 0
-0.51852155 1.511261 -0.049986798 0
-0.61759853 1.6411556 0.067819223 0
-0.61964774 1.6438422 0.19245356 0
-1.0815551 2.249424 0.45625538 0
-1.0740142 2.2395375 0.63978571 0
-0.092546239 0.95278764 0.43920162 0
-0.52620161 1.4890393 -0.049526695 0
-0.61980569 1.6086059 0.06694787 0
-0.61321247 1.600184 0.18831801 0
-1.0959998 2.2168801 0.45320401 0
-1.1001343 2.2221613 0.64035261 0
-0.10398687 0.94971639 0.44148588 0
-0.54352343 1.4793322 -0.049639434 0
-0.61076999 1.5630375 0.065472737 0
-0.62125182 1.5760849 0.18682562 0
-1.1127164 2.1878364 0.4509733 0
-1.1056354 2.1790223 0.63260114 0
-0.12350674 0.95651543 0.45022017 0
-0.56862295 1.4789308 -0.050193932 0
-0.61799943 1.5388316 0.06496536 0
-0.61612964 1.5365633 0.18318371 0
-1.1240587 2.1527548 0.44735703 0
-1.1304801 2.1605449 0.63294566 0
-0.1395954 0.95845819 0.45605519 0
-0.57642519 1.4574651 -0.049784184 0
-0.62221837 1.511615 0.064316012 0
-0.62377 1.5134498 0.1818032 0
-1.1403285 2.1242743 0.44529477 0
-1.141335 2.1254644 0.62785023 0
-0.14953335 0.95267022 0.45701906 0
-0.59854829 1.4529437 -0.050175391 0
-0.61816132 1.4755523 0.06324394 0
-0.62294781 1.4810698 0.17910275 0
-1.16608 2.1071558 0.44597119 0
-1.1642759 2.1050761 0.627707 0
-0.60700774 1.432647 -0.049830366 0
-0.63950622 1.4691696 0.063575737 0
-0.64011681 1.4698558 0.17941524 0
-1.1622537 2.0566473 0.43867248 0
-1.1649082 2.0596306 0.61910307 0
-0.62420011 1.4222754 -0.049966194 0
-0.65879214 1.460179 0.063798226 0
-0.66009486 1.4616063 0.18019398 0
-1.1831522 2.0347352 0.43825993 0
-1.1825793 2.0341074 0.61728382 0
-0.63640988 1.4064357 -0.049846768 0
-0.50653177 1.2676746 0.05506137 0
-0.68585861 1.4592665 0.18188865 0
-1.1931293 2.0012321 0.43504387 0
-1.1911174 1.9990827 0.6121999 0
-0.65185249 1.3940812 -0.04990593 0
-0.5129385 1.2493622 0.054744225 0
-0.71165967 1.4563875 0.18357165 0
-1.1920089 1.9568093 0.42909014 0
-1.1980363 1.9630885 0.60674918 0
-0.67610335 1.3906106 -0.05042056 0
-0.51684785 1.2288278 0.054315824 0
-0.74249244 1.4580532 0.18600968 0
-1.2194023 1.942531 0.43068725 0
-1.2134626 1.9364971 0.60462767 0
-0.67197704 1.3585142 -0.049505003 0
-0.5312714 1.2191305 0.054434177 0
-0.77836645 1.463904 0.18917692 0
-1.223619 1.9049733 0.42642692 0
-1.221342 1.9027176 0.59994328 0
-0.69525981 1.3537874 -0.04998121 0
-0.54553968 1.2091633 0.054549489 0
-0.81209755 1.4666483 0.19197458 0
-1.218787 1.8594953 0.42006847 0
-1.2205557 1.8612038 0.59239334 0
-0.7075175 1.3382102 -0.049914021 0
-0.562738 1.2018405 0.05481334 0
-0.83543313 1.4586958 0.19319941 0
-1.221486 1.8223243 0.41579357 0
-1.2298427 1.8301955 0.58864731 0
-0.72553504 1.3279833 -0.050136369 0
-0.86842823 1.4592204 0.069062941 0
-0.86988556 1.4605588 0.19604696 0
-1.2288866 1.7902756 0.41283435 0
-1.2325451 1.7936356 0.58279943 0
-0.23475648 0.87723827 0.38112956 0
-0.73064053 1.305979 -0.049743649 0
-0.9036994 1.4609497 0.070037201 0
-0.89949179 1.4571819 0.1981601 0
-1.242029 1.763917 0.41139659 0
-1.2348537 1.7574918 0.57704085 0
-0.23307414 0.86041826 0.37593514 0
-0.74839807 1.295384 -0.04996803 0
-0.94941616 1.4708816 0.07149484 0
-1.2392879 1.7239521 0.40625182 0
-1.2440057 1.7280709 0.57381791 0
-0.23172952 0.84431016 0.37110025 0
-0.75929642 1.2787395 -0.049874753 0
-0.97175348 1.4595605 0.071834981 0
-1.2450733 1.6921815 0.40330103 0
-1.2419903 1.6895576 0.56701279 0
-0.23086096 0.82899094 0.36668652 0
-0.25173569 0.84675735 0.45558548 0
-0.78044879 1.2706832 -0.050267879 0
-1.0101452 1.4612418 0.072922967 0
-1.2505386 1.6606748 0.40040007 0
-1.2366233 1.6491305 0.55932891 0
-0.24729015 0.82836866 0.37172866 0
-0.78584635 1.2495271 -0.04993837 0
-1.0460567 1.459926 0.073885083 0
-1.2451571 1.620913 0.39510536 0
-1.241165 1.6176852 0.55514181 0
-0.25034684 0.8165372 0.36960378 0
-0.79287255 1.2299465 -0.049698312 0
-1.0815662 1.4574248 0.074820191 0
-1.248015 1.5885793 0.39187026 0
-1.2354091 1.5786464 0.54778045 0
-0.2727074 0.82007861 0.3777543 0
-0.81018066 1.2184693 -0.049934503 0
-1.126266 1.4611429 0.076161385 0
-1.2498959 1.5560595 0.3885372 0
-1.2439933 1.5515277 0.54526132 0
-0.26448655 0.79951411 0.36983997 0
-0.24738808 0.78638679 0.43489543 0
-0.82082808 1.2017983 -0.049878001 0
-1.1571536 1.4533445 0.076872125 0
-1.2513126 1.5237682 0.38522345 0
-1.2429658 1.5175256 0.5398128 0
-0.26597542 0.78681058 0.36715454 0
-0.28192586 0.79874027 0.45240173 0
-0.84177816 1.1926782 -0.050286401 0
-1.216912 1.4659525 0.078855962 0
-1.2553811 1.4939761 0.38262284 0
-1.2394575 1.4823762 0.53376681 0
-1.2387232 1.4818412 0.69390982 0
-0.2528984 0.76369607 0.35711461 0
-0.27701926 0.78126746 0.44523451 0
-0.84963882 1.1739156 -0.050123271 0
-1.2532028 1.4601926 0.079787955 0
-1.2579241 1.4635417 0.37979132 0
-1.2374777 1.4490377 0.52839172 0
-1.234412 1.4468629 0.68595248 0
-0.2798484 0.76972222 0.36763132 0
-0.28335005 0.77220619 0.44516009 0
-0.85233092 1.1517197 -0.049747597 0
-1.3008736 1.4614881 0.081208795 0
-1.2515905 1.4274527 0.37512317 0
-1.2431386 1.4216157 0.525563 0
-1.2327093 1.4144131 0.67929751 0
-0.28609741 0.76067257 0.44297707 0
-0.86979139 1.1397661 -0.050022457 0
-1.276002 1.41281 0.079496406 0
-1.2778019 1.4140198 0.22747459 0
-1.2468586 1.3932205 0.37094158 0
-1.245523 1.3923228 0.5218575 0
-1.2435306 1.3909837 0.67788363 0
-0.29588068 0.75399864 0.44514209 0
-0.87315607 1.1183578 -0.049700193 0
-1.2730027 1.3798757 0.078757375 0
-1.2712384 1.3787216 0.22479029 0
-1.2493147 1.3643826 0.36843657 0
-1.2521126 1.3662125 0.51957732 0
-1.2403857 1.3585426 0.67104697 0
-0.29520363 0.74035084 0.44108605 0
-0.89641786 1.1098741 -0.050233886 0
-1.2735604 1.3498172 0.078192361 0
-1.2794499 1.3535641 0.22406623 0
-1.2497064 1.334641 0.36558819 0
-1.2431648 1.330479 0.51271671 0
-1.2418797 1.3296615 0.66625589 0
-0.29915738 0.72988909 0.43991089 0
-0.90126431 1.0895511 -0.049994841 0
-1.2843125 1.3265295 0.07807567 0
-1.2849129 1.326901 0.22304064 0
-1.2550311 1.3084141 0.36388782 0
-1.2417156 1.3001763 0.50829458 0
-1.2378913 1.2978103 0.65950006 0
-0.91103506 1.0723826 -0.049973443 0
-1.3123393 1.313722 0.078691781 0
-1.3104551 1.3125888 0.22458312 0
-1.2532637 1.2781947 0.3607775 0
-1.234143 1.2666957 0.50219691 0
-1.2441612 1.2727206 0.65693396 0
-0.91770756 1.0534174 -0.04983307 0
-1.3327013 1.2959274 0.078993134 0
-1.3379163 1.2989749 0.22637567 0
-1.2402332 1.2418917 0.35541707 0
-1.2407016 1.2421654 0.50044459 0
-1.2387667 1.2410347 0.6500141 0
-0.92123508 1.0327775 -0.049574427 0
-1.3819189 1.2942621 0.080486126 0
-1.3831354 1.2949526 0.23037115 0
-1.2548931 1.2221621 0.35593227 0
-1.2446601 1.2163539 0.49803305 0
-1.2578628 1.2238477 0.65266567 0
-0.94200587 1.0218445 -0.050031092 0
-1.2485515 1.1907727 0.35217062 0
-1.2356133 1.1836427 0.49194464 0
-1.2328345 1.1821114 0.63862002 0
-0.95092046 1.0042024 -0.050010286 0
-1.2408744 1.1592602 0.34824219 0
-1.2427865 1.1602827 0.49070942 0
-1.242215 1.1599771 0.63784927 0
-0.95967221 0.98648882 -0.049992032 0
-1.2636064 1.144134 0.35059828 0
-1.2352433 1.1294225 0.48533744 0
-1.2414094 1.1326208 0.63337076 0
-0.95945871 0.96427834 -0.049624577 0
-1.2728025 1.1218294 0.35024565 0
-1.2461389 1.1084229 0.48537624 0
-1.2393535 1.1050111 0.62858361 0
-0.97963071 0.95228308 -0.050080061 0
-1.2843291 1.1007106 0.35041925 0
-1.2466848 1.082373 0.48255286 0
-1.2467139 1.0823872 0.62743944 0
-0.98314095 0.93207073 -0.049881138 0
-1.2961776 1.0797126 0.35070923 0
-1.2358143 1.0512427 0.47661865 0
-1.2315789 1.0492451 0.61813247 0
-1.0038192 0.91984367 -0.050367098 0
-1.2973508 1.0537944 0.34893382 0
-1.2324569 1.0241807 0.47293568 0
-1.235263 1.0254612 0.61591393 0
-0.98828161 0.89125961 -0.049443182 0
-1.3063599 1.0316002 0.34877738 0
-1.2341218 0.99972779 0.4707689 0
-1.2383087 1.0015751 0.61358482 0
-1.0005088 0.87521541 -0.049615752 0
-1.3155942 1.0095217 0.34872088 0
-1.2378012 0.97636217 0.46925804 0
-1.2348782 0.97511619 0.60903502 0
-1.0182284 0.86129606 -0.05000728 0
-1.3261459 0.98798966 0.34897596 0
-1.2442428 0.95429033 0.46859848 0
-1.2386943 0.95200741 0.60723597 0
-1.0214012 0.841304 -0.04984488 0
-1.3470901 0.97053897 0.35129893 0
-1.2365482 0.92667538 0.46413848 0
-1.242967 0.9292224 0.60571373 0
-1.0329909 0.82464904 -0.050014611 0
-1.349236 0.94555032 0.35002375 0
-1.2352717 0.90198147 0.46154818 0
-1.2463022 0.9061985 0.60396725 0
-1.0399517 0.80616003 -0.050015461 0
-1.3537313 0.92161179 0.34926653 0
-1.2456393 0.88184053 0.4622201 0
-1.2367194 0.87855852 0.59775245 0
-1.0352095 0.78352767 -0.049581971 0
-1.3525933 0.89578879 0.34749284 0
-1.24889 0.85910815 0.46103182 0
-1.2485324 0.85898161 0.59923887 0
-1.0499246 0.76782262 -0.049894713 0
-1.3663446 0.87527984 0.34862471 0
-1.2569848 0.8381409 0.46123111 0
-1.2400229 0.83238059 0.5936653 0
-1.0507743 0.7473675 -0.049693018 0
-1.3980261 0.86043906 0.35320181 0
-1.2375244 0.80817676 0.45410705 0
-1.2418276 0.80957794 0.59184074 0
-1.0661522 0.73158723 -0.050045062 0
-1.3961121 0.83445156 0.35144985 0
-1.2494478 0.78872925 0.45549902 0
-1.2373421 0.78495538 0.58793163 0
-1.0620363 0.70973569 -0.049677007 0
-1.3935788 0.80853075 0.34964958 0
-1.2466077 0.7647354 0.45302075 0
-1.2442808 0.76404208 0.5881108 0
-1.0840287 0.69557416 -0.050289549 0
-1.399323 0.78522086 0.34946907 0
-1.2388281 0.73958784 0.44932151 0
-1.2434894 0.74091315 0.58570695 0
-1.0769861 0.67310011 -0.049832698 0
-1.3966142 0.75964433 0.34776476 0
-1.2402434 0.71730453 0.44814906 0
-1.2382936 0.71677661 0.5818938 0
-1.0754098 0.65236199 -0.04958928 0
-1.4130102 0.73922521 0.34968379 0
-1.2356381 0.69358808 0.44546837 0
-1.2455057 0.696127 0.58245999 0
-1.0791996 0.63310623 -0.04955342 0
-1.4159169 0.71523613 0.34914061 0
-1.2363021 0.67142564 0.44425821 0
-1.2418302 0.67277402 0.57938522 0
-1.0966357 0.61702031 -0.050026536 0
-1.4259059 0.69295424 0.34996581 0
-1.23918 0.64989281 0.4437044 0
-1.2370317 0.64939743 0.57603651 0
-1.0916024 0.59570503 -0.049684845 0
-1.4305136 0.66938072 0.34984744 0
-1.2341403 0.62669128 0.44115582 0
-1.237646 0.62745333 0.57464015 0
-1.1038101 0.57815379 -0.049982056 0
-1.43086 0.64494991 0.34899971 0
-1.2431648 0.60661536 0.44235224 0
-1.2336226 0.60466647 0.57176656 0
-1.1114753 0.55951774 -0.050121494 0
-1.4510369 0.62442636 0.35185173 0
-1.2377983 0.58366489 0.43987346 0
-1.2404184 0.58416575 0.57266188 0
-1.1133013 0.53973836 -0.050057385 0
-1.4300501 0.5961619 0.34720409 0
-1.2363377 0.56165522 0.43848738 0
-1.2429708 0.56283683 0.57220852 0
-1.11415 0.51984024 -0.049967073 0
-1.4551668 0.57616615 0.35105857 0
-1.252422 0.54267865 0.44171289 0
-1.2465254 0.54170471 0.57218468 0
-1.1216959 0.50102311 -0.050127838 0
-1.4563645 0.55198032 0.35058817 0
-1.2459818 0.51994705 0.43918097 0
-1.2430375 0.51949877 0.56988055 0
-1.1200116 0.48080158 -0.049964156 0
-1.4565479 0.5277155 0.34998941 0
-1.2447259 0.49818704 0.43806279 0
-1.2356073 0.49691588 0.56635022 0
-1.12052 0.46097088 -0.049888816 0
-1.4586656 0.50377601 0.34979886 0
-1.2395381 0.47603711 0.43600574 0
-1.2419518 0.47634268 0.56754029 0
-1.1284993 0.44204077 -0.050091002 0
-0.50981665 0.3716259 0.03986064 0
-0.50331783 0.37088624 0.10722557 0
-0.51747596 0.37249765 0.1784407 0
-1.2413454 0.45488426 0.43581951 0
-1.232579 0.45388651 0.56355262 0
-1.1282431 0.42213178 -0.050005976 0
-0.50727069 0.35936567 0.039723501 0
-0.50520438 0.35915682 0.1072925 0
-0.51945376 0.3605971 0.17856608 0
-1.2472026 0.43415588 0.4367404 0
-1.2418289 0.43361273 0.56589198 0
-1.1319597 0.40263093 -0.05007242 0
-0.46556413 0.34373993 0.038188525 0
-0.51047486 0.34770882 0.10774038 0
-0.50800049 0.34749013 0.17628676 0
-1.240842 0.41225314 0.43459782 0
-1.2432125 0.41246262 0.56568664 0
-1.1254649 0.38230699 -0.049782 0
-0.52908963 0.33716378 0.10964157 0
-0.51549435 0.33613464 0.17746633 0
-1.2452301 0.39137274 0.43527809 0
-1.241567 0.39109546 0.56455982 0
-1.127903 0.36274832 -0.049820513 0
-0.51747942 0.32426497 0.10830088 0
-0.51858413 0.32433459 0.17787497 0
-1.2391154 0.36975956 0.43334016 0
-1.2307574 0.36923262 0.56046873 0
-1.2429261 0.3699998 0.7010814 0
-1.1334682 0.34331697 -0.049979594 0
-0.51618063 0.31219858 0.10808808 0
-0.49912655 0.31133887 0.17423865 0
-1.2474599 0.34906346 0.43516669 0
-1.2438858 0.34888327 0.56444615 0
-1.2345713 0.34841371 0.6971215 0
-0.35074908 0.30385894 0.47111931 0
-1.1301626 0.32343492 -0.049830418 0
-0.51137221 0.30004758 0.10751428 0
-0.50902706 0.29995894 0.17593206 0
-1.2354162 0.32741299 0.43185347 0
-1.2359986 0.32743502 0.56151021 0
-1.2342995 0.32737079 0.69662523 0
-0.35288495 0.29405752 0.47212866 0
-1.1491251 0.30421597 -0.050485484 0
-0.41417819 0.28570187 0.356684 0
-0.41323465 0.28567809 0.42931053 0
-0.38189209 0.28488854 0.48915195 0
-1.1367064 0.28413653 -0.050028648 0
-0.39856994 0.27483982 0.42187193 0
-0.3889097 0.27471814 0.49319914 0
-1.1385326 0.26437625 -0.050089408 0
-0.3888104 0.26437426 0.41695586 0
-0.39331186 0.26437426 0.4957712 0
-0.90168965 -0.98929477 -0.090901636 0
-1.0139534 -0.98929507 -0.090192236 0
-1.1259615 -0.98929536 -0.084243037 0
-1.1290404 -0.98929536 -0.057835836 0
-1.1296711 -0.98929536 -0.031171864 0
-1.1425763 -0.98929536 -0.0057690199 0
-1.1255447 -0.98929536 0.022216106 0
-1.1261076 -0.98929536 0.048499491 0
-1.1323225 -0.98929536 0.074620739 0
-1.1379528 -0.98929536 0.10100291 0
-1.1429168 -0.98929536 0.12763172 0
-1.1357414 -0.98929536 0.15395485 0
-1.1301116 -0.98929536 0.18010886 0
-1.1385432 -0.98929536 0.207399 0
-1.1265185 -0.98929536 0.23280947 0
-1.1317189 -0.98929536 0.26021901 0
-1.1260744 -0.98929536 0.28626847 0
-1.1224232 -0.9892953 0.31262982 0
-0.90195191 -1.0120838 -0.09101852 0
-1.0187658 -1.0150323 -0.091159843 0
-1.1293048 -1.0178225 -0.08485166 0
-1.1312149 -1.0178707 -0.058192108 0
-1.1284453 -1.0178008 -0.03107064 0
-1.1370438 -1.0180178 -0.0052864458 0
-1.1248112 -1.017709 0.02224231 0
-1.1198809 -1.0175846 0.048772752 0
-1.123633 -1.0176793 0.074814446 0
-1.1254165 -1.0177243 0.10100257 0
-1.1310211 -1.0178658 0.12736286 0
-1.1214849 -1.0176251 0.15330699 0
-1.1343405 -1.0179496 0.18043005 0
-1.1292149 -1.0178202 0.20656137 0
-1.1358731 -1.0179883 0.23394565 0
-1.1259021 -1.0177366 0.25945166 0
-1.1376787 -1.0180339 0.28823596 0
-1.1268067 -1.0177594 0.31352341 0
-0.91194594 -1.0354066 -0.093329139 0
-1.0187083 -1.0407994 -0.091332696 0
-1.1240822 -1.0461222 -0.084169917 0
-1.1295871 -1.0464002 -0.058115233 0
-1.2512255 -1.0525446 -0.045564923 0
-1.2366463 -1.0518081 -0.014696812 0
-1.2343183 -1.0516905 0.0145017 0
-1.2404925 -1.0520024 0.043100659 0
-1.2323772 -1.0515925 0.072257861 0
-1.2361475 -1.051783 0.10100576 0
-1.2372903 -1.0518407 0.12986813 0
-1.2412281 -1.0520395 0.15894561 0
-1.2327836 -1.051613 0.18740255 0
-1.2356238 -1.0517565 0.21661335 0
-0.90210032 -1.0577892 -0.091540314 0
-1.0124553 -1.0661595 -0.090458356 0
-1.1321286 -1.0752366 -0.085791521 0
-1.1212322 -1.0744101 -0.05719151 0
-1.2382864 -1.0832886 -0.044282112 0
-1.237404 -1.0832216 -0.01495227 0
-1.2318053 -1.0827969 0.014539929 0
-1.2494364 -1.0841342 0.042590752 0
-1.2393125 -1.0833663 0.07205034 0
-1.2461149 -1.0838823 0.1010061 0
-1.2446725 -1.0837729 0.13008679 0
-1.240515 -1.0834576 0.15900476 0
-1.2334722 -1.0829233 0.18758877 0
-1.2338176 -1.0829495 0.21662869 0
-0.90656263 -1.0812091 -0.092924349 0
-1.0088553 -1.0915694 -0.090205051 0
-1.155937 -1.1064661 -0.090142272 0
-1.2372932 -1.1147059 -0.073939376 0
-1.2362145 -1.1145966 -0.044363666 0
-1.2418849 -1.115171 -0.015632002 0
-1.2410802 -1.1150894 0.013694862 0
-1.2349187 -1.1144654 0.043139476 0
-1.2375652 -1.1147335 0.072026484 0
-1.2310054 -1.1140691 0.10100575 0
-1.2197413 -1.1129283 0.12956788 0
-1.2379448 -1.1147718 0.15901418 0
-1.2339425 -1.1143665 0.18781561 0
-1.9935627 -1.1913019 0.28820905 0
-1.9864717 -1.1905838 0.33455369 0
-1.9311609 -1.1849818 0.37400457 0
-1.4669905 -1.13797 0.37896472 0
-0.89434481 -1.1028589 -0.090865307 0
-1.0088198 -1.1173794 -0.090749301 0
-1.1523794 -1.1355891 -0.090103693 0
-1.2054529 -1.1423212 -0.06993296 0
-1.2448385 -1.1473172 -0.045798514 0
-1.2486988 -1.1478068 -0.01660916 0
-1.2385546 -1.14652 0.013621302 0
-1.2370205 -1.1463255 0.042874176 0
-1.2428801 -1.1470687 0.071818501 0
-1.2476113 -1.1476688 0.10100633 0
-1.2339818 -1.1459401 0.12998487 0
-1.231889 -1.1456746 0.15889692 0
-1.2372994 -1.1463609 0.18830267 0
-1.5961628 -1.1918808 0.36565968 0
-1.4800285 -1.1771498 0.38224211 0
-0.87908316 -1.1235646 -0.088261135 0
-1.0078301 -1.1432079 -0.091237746 0
-1.1461205 -1.1643071 -0.089737855 0
-1.2012483 -1.172718 -0.069938727 0
-1.6166952 -1.2361037 -0.09027984 0
-2.5560908 -1.3794293 -0.14046894 0
-3.4250371 -1.5120064 -0.14131175 0
-5.1330514 -1.7726018 -0.14080828 0
-10.273446 -2.5568831 -0.14067888 0
-1.3492416 -1.1952977 0.2929979 0
-1.3453792 -1.1947085 0.32488593 0
-1.3563771 -1.1963865 0.35966855 0
-0.88554031 -1.1475339 -0.090447374 0
-1.001213 -1.1681813 -0.090776138 0
-1.1319149 -1.1915114 -0.088164411 0
-1.1997503 -1.20362 -0.070440196 0
-1.6240128 -1.2793502 -0.091949053 0
-2.5565364 -1.4458042 -0.14152169 0
-3.4054842 -1.5973402 -0.14093724 0
-5.1147757 -1.9024463 -0.14095592 0
-10.235957 -2.8165698 -0.14080486 0
-1.3301028 -1.2268877 0.29106829 0
-1.3285959 -1.2266188 0.32302013 0
-1.3243873 -1.2258675 0.35462883 0
-0.88877547 -1.1713881 -0.092076801 0
-1.000559 -1.1942657 -0.091579504 0
-1.1404452 -1.2228948 -0.090511881 0
-1.1860827 -1.232235 -0.069310151 0
-1.5996258 -1.3168705 -0.089974545 0
-2.5262935 -1.5065219 -0.13981527 0
-3.3915966 -1.6836145 -0.14111839 0
-5.0876675 -2.0307317 -0.14083999 0
-10.188868 -3.0747414 -0.14085881 0
-1.246911 -1.244684 0.31038785 0
-1.2330871 -1.2418548 0.33829948 0
-0.88898683 -1.1949555 -0.093187042 0
-0.98919916 -1.2181138 -0.090444855 0
-1.1351072 -1.251832 -0.090666957 0
-1.1819801 -1.262664 -0.06965705 0
-1.6000478 -1.3592762 -0.091077723 0
-2.515193 -1.5707592 -0.14007913 0
-3.3681738 -1.7678765 -0.14077224 0
-5.0562911 -2.1579874 -0.14067373 0
-10.126866 -3.3297584 -0.14071231 0
-0.87532121 -1.2152321 -0.091388516 0
-0.99304551 -1.2455856 -0.092377327 0
-1.1224979 -1.278963 -0.089712508 0
-1.3270627 -1.3317069 -0.091768689 0
-1.5923228 -1.4001004 -0.091333576 0
-1.9921721 -1.5031955 -0.091154985 0
-3.3458586 -1.8522234 -0.14065684 0
-5.0221162 -2.2844214 -0.14052577 0
-10.06904 -3.585696 -0.14081916 0
-0.86268294 -1.2353728 -0.089916818 0
-0.97176021 -1.266452 -0.089537077 0
-1.1072289 -1.3050508 -0.088413276 0
-1.3169549 -1.3648077 -0.091615893 0
-1.5740685 -1.4380666 -0.090436466 0
-1.970348 -1.5509778 -0.090356864 0
-3.3287055 -1.9380124 -0.14107011 0
-4.989717 -2.4112816 -0.14061664 0
-9.9927435 -3.8367856 -0.14063588 0
-0.85856044 -1.257823 -0.090442665 0
-0.98076385 -1.2960011 -0.092754774 0
-1.1018478 -1.3338294 -0.088919245 0
-1.2947887 -1.3941069 -0.089809053 0
-1.5622045 -1.4776512 -0.090431623 0
-1.9593866 -1.6017365 -0.090732194 0
-3.2938221 -2.0186327 -0.14034601 0
-4.9488955 -2.5357008 -0.14045301 0
-9.9162836 -4.0875826 -0.14060098 0
-0.85173029 -1.2794988 -0.090491794 0
-0.96619618 -1.3184558 -0.091458254 0
-1.1026534 -1.3648973 -0.090629257 0
-1.2804619 -1.4254119 -0.089259721 0
-1.5634143 -1.521711 -0.09216363 0
-1.9439478 -1.6512204 -0.090795077 0
-3.2670901 -2.1015341 -0.1403673 0
-4.9102445 -2.6607597 -0.14054854 0
-9.848731 -4.3415074 -0.14093934 0
-0.84605366 -1.301628 -0.090926088 0
-0.949839 -1.3398981 -0.089903615 0
-1.088716 -1.391108 -0.089909457 0
-1.2699463 -1.4579355 -0.089393951 0
-1.5361303 -1.5560889 -0.090500347 0
-1.9287704 -1.7008722 -0.091008268 0
-3.2422876 -2.1852224 -0.14068776 0
-4.865438 -2.7837477 -0.14049542 0
-9.7581224 -4.5878911 -0.14086765 0
-0.83815384 -1.3229994 -0.090983368 0
-0.94228667 -1.3644112 -0.090227224 0
-1.082148 -1.4200318 -0.090602256 0
-1.2580266 -1.4899758 -0.089440711 0
-1.5169071 -1.5929282 -0.089942791 0
-1.9196508 -1.7530925 -0.091957368 0
-3.2181861 -2.2694981 -0.14122233 0
-4.8277731 -2.9096036 -0.14095438 0
-9.6671782 -4.8341532 -0.14094166 0
-0.8386628 -1.3479937 -0.093108959 0
-0.94296205 -1.3925514 -0.092365585 0
-1.0727358 -1.4479921 -0.090924062 0
-1.2385939 -1.5188484 -0.088462777 0
-1.5096468 -1.6346449 -0.09101712 0
-1.8885536 -1.7965177 -0.090819113 0
-3.1782148 -2.3474739 -0.14071712 0
-4.7770658 -3.0305192 -0.14091799 0
-9.5622358 -5.0747919 -0.14081892 0
-0.82353973 -1.3664092 -0.091752015 0
-0.93311119 -1.416525 -0.092494898 0
-1.051125 -1.4705024 -0.089171834 0
-1.2444971 -1.558947 -0.091500811 0
-1.4989759 -1.6753407 -0.091800176 0
-1.8696761 -1.8448918 -0.091033734 0
-3.1449687 -2.4281862 -0.14087351 0
-4.7188044 -3.1480281 -0.14064981 0
-9.4483509 -5.3112316 -0.14062054 0
-0.80238307 -1.3815365 -0.089060314 0
-0.91818964 -1.4380797 -0.091689043 0
-1.0507284 -1.5027926 -0.09138117 0
-1.2243183 -1.587549 -0.090654843 0
-1.467666 -1.706365 -0.090041406 0
-1.8444846 -1.8903489 -0.090721257 0
-3.0999076 -2.5033169 -0.14027019 0
-4.6584101 -3.2642651 -0.14042057 0
-9.3449945 -5.5525188 -0.14084561 0
-0.800924 -1.4062008 -0.091143019 0
-0.90392387 -1.4597507 -0.091126509 0
-1.0278107 -1.5241597 -0.089597933 0
-1.2050369 -1.6162999 -0.090053461 0
-1.445578 -1.7413577 -0.089576669 0
-1.8337972 -1.9431936 -0.092050441 0
-3.0666018 -2.584131 -0.14073363 0
-4.6143465 -3.3888063 -0.14119817 0
-9.2169561 -5.7817125 -0.14058545 0
-0.79139227 -1.4269872 -0.091444768 0
-0.88708121 -1.4798447 -0.090118535 0
-1.0149127 -1.5504575 -0.089771561 0
-1.1992072 -1.6522597 -0.091719054 0
-1.4208606 -1.7746987 -0.088871486 0
-1.8035877 -1.9861131 -0.091457807 0
-3.0217874 -2.6590333 -0.14044622 0
-4.5480623 -3.5021315 -0.14097093 0
-9.098649 -6.0158267 -0.14073272 0
-0.77794766 -1.4455812 -0.090915389 0
-0.87104219 -1.5001155 -0.089380898 0
-0.98974663 -1.569652 -0.08773654 0
-1.1768751 -1.679271 -0.090868421 0
-1.4084492 -1.814926 -0.089935817 0
-1.7834831 -2.0346191 -0.092065834 0
-2.9861155 -2.7391155 -0.14104737 0
-4.4869699 -3.618309 -0.14117365 0
-8.97616 -6.2480559 -0.14092761 0
-0.76732957 -1.4657974 -0.091201149 0
-0.86460376 -1.5261272 -0.090871997 0
-0.98284072 -1.5994583 -0.089293845 0
-1.1443315 -1.6996155 -0.088427596 0
-1.3889319 -1.8513176 -0.090178274 0
-1.7416251 -2.0700593 -0.090427615 0
-2.9395206 -2.812999 -0.14092447 0
-4.4180269 -3.7299745 -0.14110892 0
-8.8382721 -6.4714284 -0.14086342 0
-0.75733501 -1.486521 -0.091778837 0
-0.84245449 -1.5423344 -0.088996075 0
-0.97362167 -1.6283417 -0.090569191 0
-1.1342547 -1.7336699 -0.089807309 0
-1.3681862 -1.8870605 -0.090380438 0
-1.715464 -2.1147728 -0.090613164 0
-2.8914666 -2.885886 -0.14083217 0
-4.3340254 -3.8317821 -0.14036046 0
-8.6903524 -6.6882558 -0.14067473 0
-0.73746639 -1.5005922 -0.089947931 0
-0.83765018 -1.56996 -0.091153689 0
-0.95535201 -1.6514573 -0.09020225 0
-1.1090291 -1.7578641 -0.088767536 0
-1.3450077 -1.9212569 -0.090367489 0
-1.6870506 -2.1580889 -0.09067335 0
-2.8390918 -2.9557679 -0.14052595 0
-4.2725315 -3.9482887 -0.14101759 0
-8.548954 -6.9093046 -0.14082062 0
-0.72403574 -1.5188456 -0.089870282 0
-0.81959873 -1.5886456 -0.090422787 0
-0.94233942 -1.6782964 -0.091016136 0
-1.1006061 -1.7938957 -0.090737931 0
-1.3305452 -1.9618452 -0.091739587 0
-1.651293 -2.1961219 -0.090011008 0
-2.7910733 -3.0286269 -0.14074254 0
-4.1855321 -4.0471511 -0.14038455 0
-8.404665 -7.1288404 -0.14104523 0
-0.7125715 -1.5386077 -0.090441041 0
-0.80209887 -1.6075294 -0.089919724 0
-0.92214698 -1.6999471 -0.090495966 0
-1.0785735 -1.8203704 -0.090493031 0
-1.2984875 -1.989669 -0.090693079 0
-1.619781 -2.2370131 -0.089947797 0
-2.7350485 -3.0955896 -0.14041774 0
-4.1164412 -4.1590395 -0.14093651 0
-8.2455006 -7.3377509 -0.14099881 0
-0.71080792 -1.5664285 -0.093813427 0
-0.79322624 -1.633256 -0.091612704 0
-0.89971554 -1.7196009 -0.089605801 0
-1.0602894 -1.8497995 -0.091040961 0
-1.275789 -2.0245335 -0.091137789 0
-1.6013435 -2.2885036 -0.091577239 0
-2.6847596 -3.1669726 -0.14075308 0
-4.0346222 -4.2614851 -0.14090458 0
-8.0757427 -7.5381575 -0.14079064 0
-0.68474096 -1.574577 -0.090661444 0
-0.77529466 -1.651868 -0.091258369 0
-0.89803755 -1.7566339 -0.09328673 0
-1.0319116 -1.8709006 -0.089871667 0
-1.2466767 -2.0542109 -0.090740465 0
-1.558199 -2.3201075 -0.09036798 0
-2.6264923 -3.2319372 -0.14052631 0
-3.9453206 -4.3576083 -0.14057063 0
-7.9116311 -7.7430081 -0.14090353 0
-0.66404402 -1.5865624 -0.089029677 0
-0.76010466 -1.6728369 -0.09170761 0
-0.86893135 -1.770577 -0.091197141 0
-1.0190307 -1.9053851 -0.091702379 0
-1.2161132 -2.0823901 -0.090222485 0
-1.5307802 -2.3650005 -0.091202937 0
-2.5734534 -3.3014519 -0.14093803 0
-3.863373 -4.4599619 -0.14083937 0
-7.7402501 -7.941885 -0.14095169 0
-0.65793866 -1.6118207 -0.091713004 0
-0.74081814 -1.6901237 -0.091241799 0
-0.84742188 -1.7908407 -0.09085346 0
-0.98873162 -1.9243475 -0.090375997 0
-1.1901127 -2.1146085 -0.090538733 0
-1.4924467 -2.4002478 -0.090800323 0
-1.9890488 -2.8694282 -0.090421937 0
-3.7806256 -4.5620751 -0.14122692 0
-7.5678554 -8.1401777 -0.1411273 0
-0.63920444 -1.6254478 -0.090868704 0
-0.72061384 -1.7063456 -0.09063492 0
-0.82168794 -1.8067844 -0.089639373 0
-0.97189468 -1.9560472 -0.091776811 0
-1.1611668 -2.1441298 -0.090510078 0
-1.458954 -2.4400454 -0.091140158 0
-1.9274652 -2.9056122 -0.089090191 0
-3.6820154 -4.6491356 -0.14075035 0
-7.3791466 -8.3230314 -0.14093472 0
-0.62087649 -1.6392306 -0.090231217 0
-0.70223969 -1.7242688 -0.090620629 0
-0.80052406 -1.8269924 -0.089573778 0
-0.94664878 -1.9797171 -0.091666214 0
-1.1350553 -2.1766336 -0.091084234 0
-1.4126189 -2.4667339 -0.089889027 0
-1.8877101 -2.963284 -0.090021499 0
-3.5885544 -4.7409511 -0.1407539 0
-7.1893592 -8.5043955 -0.14085399 0
-0.61064696 -1.6617135 -0.092242591 0
-0.68105334 -1.7391188 -0.089943685 0
-0.77681452 -1.8443995 -0.089007489 0
-0.91407579 -1.9953055 -0.090145342 0
-1.1047252 -2.2049072 -0.091082372 0
-1.3696387 -2.496155 -0.089160345 0
-1.8493915 -3.0235991 -0.091277443 0
-3.493911 -4.8315964 -0.14083397 0
-6.9962068 -8.6820478 -0.1408108 0
-0.59602064 -1.6798627 -0.093066253 0
-0.66362727 -1.7580663 -0.090436138 0
-0.76319736 -1.8732435 -0.091069631 0
-0.88826525 -2.017915 -0.090116002 0
-1.0796728 -2.2393246 -0.092149399 0
-1.3372896 -2.5373213 -0.090031944 0
-1.7913162 -3.0625138 -0.090619095 0
-3.3900502 -4.91184 -0.14042087 0
-6.7995753 -8.8557882 -0.14079985 0
-0.57192063 -1.6868086 -0.090894021 0
-0.6452716 -1.7761154 -0.090807922 0
-0.74191809 -1.8937854 -0.09139768 0
-0.86139262 -2.0392489 -0.089975081 0
-1.0425928 -2.2598655 -0.091192506 0
-1.302646 -2.576488 -0.090743862 0
-1.7386487 -3.1073339 -0.090642504 0
-3.2926922 -4.9994264 -0.14061826 0
-6.6039233 -9.0309467 -0.14098272 0
-0.55022073 -1.6960169 -0.089539655 0
-0.62370104 -1.790231 -0.09034469 0
-0.71863753 -1.9119556 -0.09133815 0
-0.81360251 -2.0337167 -0.085170798 0
-0.81834108 -2.0397923 -0.054731328 0
-0.81401312 -2.0342431 -0.022723226 0
-0.89866817 -2.1427851 -0.0012959444 0
-3.1925604 -5.0839405 -0.14077696 0
-6.3960309 -9.191328 -0.14087343 0
-0.53953499 -1.7195909 -0.092155494 0
-0.60533905 -1.8085008 -0.090992264 0
-0.6920138 -1.9256097 -0.090477593 0
-0.79382831 -2.0631745 -0.086785905 0
-0.77609038 -2.0392082 -0.051689241 0
-0.77064067 -2.0318449 -0.020095481 0
-0.77293813 -2.0349491 0.010025294 0
-0.77763546 -2.0412958 0.040039904 0
-6.1865649 -9.3494654 -0.14085452 0
-0.51868349 -1.7297851 -0.091321714 0
-0.58169091 -1.8195684 -0.090078868 0
-0.67016912 -1.9456465 -0.091049857 0
-0.78246379 -2.1056621 -0.090696253 0
-0.94435894 -2.3363566 -0.091364764 0
-0.73061788 -2.0317838 -0.017906336 0
-0.72516751 -2.0240171 0.012598211 0
-0.87797749 -2.2417655 0.029736521 0
-0.72830313 -2.0284853 0.0714527 0
-0.73877633 -2.0434091 0.10100716 0
-0.49814513 -1.7401192 -0.090672977 0
-0.56369859 -1.8387315 -0.091147818 0
-0.64868361 -1.9665748 -0.0918983 0
-0.75612622 -2.128201 -0.091224007 0
-0.91015482 -2.3599067 -0.091382615 0
-1.1314414 -2.6927888 -0.089961745 0
-0.71284401 -2.0630915 0.0108284 0
-0.83696508 -2.2498071 0.030504422 0
-0.70349956 -2.0490346 0.071383469 0
-0.70393187 -2.049685 0.10100675 0
-0.47648317 -1.748405 -0.089651339 0
-0.5403645 -1.8499703 -0.090538584 0
-0.61892718 -1.9748776 -0.090388231 0
-0.72281605 -2.1400511 -0.090080179 0
-0.79665464 -2.2574477 -0.074122421 0
-0.79428214 -2.2536755 -0.038450751 0
-0.68431014 -2.0788305 0.01098776 0
-0.76574421 -2.208303 0.03392775 0
-0.68006867 -2.0720868 0.071229234 0
-0.68162811 -2.0745661 0.101007 0
-0.46315944 -1.7702748 -0.092139997 0
-0.51260263 -1.8534712 -0.088373058 0
-0.59539652 -1.9927858 -0.090881713 0
-0.68861276 -2.1496377 -0.088721804 0
-0.69843787 -2.1661699 -0.059031595 0
-0.6727407 -2.1229303 -0.022119535 0
-0.67246598 -2.122468 0.0088169146 0
-0.6662274 -2.1119704 0.040171295 0
-5.3104248 -9.9266081 -0.14075215 0
-0.44158405 -1.778664 -0.091391213 0
-0.4981699 -1.8795937 -0.091275103 0
-0.57065451 -2.0088813 -0.091139458 0
-0.65795094 -2.164588 -0.088386826 0
-0.65935922 -2.1671 -0.056841929 0
-0.9973399 -2.7699411 -0.089575209 0
-1.3375968 -3.3768425 -0.090384476 0
-2.5361686 -5.5146813 -0.14055917 0
-5.0822268 -10.055973 -0.14070414 0
-0.42194805 -1.7903773 -0.091583125 0
-0.47429487 -1.8895309 -0.090769611 0
-0.54031718 -2.0145881 -0.089579932 0
-0.63794357 -2.1995087 -0.091353707 0
-0.76136237 -2.4332843 -0.089868717 0
-0.95664191 -2.8031762 -0.090484343 0
-1.275238 -3.4066501 -0.090131037 0
-1.9207218 -4.6293035 -0.090655006 0
-4.8565502 -10.190248 -0.14093834 0
-0.40239316 -1.8023893 -0.091961898 0
-0.44947323 -1.897292 -0.089940436 0
-0.51379251 -2.0269451 -0.089401267 0
-0.60178244 -2.2043128 -0.089638866 0
-0.71960419 -2.4418147 -0.088532172 0
-0.91219604 -2.8300359 -0.090825655 0
-1.2147141 -3.4398437 -0.090268634 0
-1.8283623 -4.6768188 -0.090664782 0
-4.6223683 -10.3089 -0.14091291 0
-0.38287234 -1.8147223 -0.092527919 0
-0.42894015 -1.9137874 -0.091066085 0
-0.48694688 -2.0385258 -0.089206077 0
-0.57392758 -2.2255707 -0.090636455 0
-0.6916635 -2.4787519 -0.091009326 0
-0.86781383 -2.8575485 -0.091346361 0
-1.1601264 -3.4861424 -0.091533504 0
-1.7349966 -4.7223525 -0.090693109 0
-4.3846922 -10.420301 -0.14085436 0
-0.35270014 -1.8029255 -0.08760988 0
-0.4080281 -1.9302082 -0.092271231 0
-0.46751902 -2.0670679 -0.092174672 0
-0.53950697 -2.2326772 -0.08956299 0
-0.65016222 -2.4872413 -0.089924522 0
-0.81752568 -2.8722632 -0.090673529 0
-1.0923401 -3.504478 -0.090758614 0
-1.6444011 -4.7745023 -0.091177277 0
-4.1443062 -10.52557 -0.14079393 0
-0.33955675 -1.8301033 -0.091855608 0
-0.37967163 -1.9291515 -0.090020351 0
-0.43632895 -2.0690451 -0.090490125 0
-0.50918138 -2.2489264 -0.090019085 0
-0.61461407 -2.5092521 -0.090688504 0
-0.76858306 -2.8894196 -0.090381898 0
-1.0290037 -3.5324287 -0.090846561 0
-1.5456704 -4.8081393 -0.090842135 0
-3.904484 -10.632326 -0.14092444 0
-0.31573927 -1.8317915 -0.090348668 0
-0.3599903 -1.9495051 -0.09224356 0
-0.40663144 -2.0735765 -0.089408822 0
-0.47956792 -2.2675972 -0.090949945 0
-0.57809961 -2.5297041 -0.091363259 0
-0.72234577 -2.9134178 -0.090899087 0
-0.96084648 -3.5478609 -0.090118714 0
-1.4456605 -4.8375292 -0.090423487 0
-3.6553116 -10.715489 -0.14061879 0
-0.29620087 -1.8447521 -0.091527276 0
-0.33327574 -1.9514772 -0.090881757 0
-0.37727788 -2.0781434 -0.088474132 0
-0.44323987 -2.2680242 -0.089270212 0
-0.53699017 -2.5378973 -0.090629943 0
-0.67488301 -2.9348409 -0.091273151 0
-0.90083069 -3.5852625 -0.091151007 0
-1.3536829 -4.8888607 -0.091214798 0
-3.4115694 -10.812771 -0.1408188 0
-0.27261007 -1.8459902 -0.090191208 0
-0.31132498 -1.9672215 -0.092387848 0
-0.35056332 -2.0900917 -0.088948809 0
-0.40901002 -2.2731109 -0.088427238 0
-0.49756873 -2.5504224 -0.090561815 0
-0.62504888 -2.9496119 -0.091110282 0
-0.83011007 -3.5917375 -0.090017013 0
-1.2516818 -4.9118409 -0.090728171 0
-3.1649895 -10.903144 -0.14099938 0
-0.25218365 -1.8569938 -0.091159619 0
-0.2857081 -1.9718992 -0.091820695 0
-0.32408914 -2.1034505 -0.089777358 0
-0.37654439 -2.2832415 -0.088455789 0
-0.45604184 -2.5557199 -0.089735858 0
-0.57488477 -2.9630551 -0.090942286 0
-0.76832837 -3.6260853 -0.091051646 0
-1.1533448 -4.9457331 -0.090899609 0
-2.9110153 -10.970168 -0.14076443 0
-0.2309943 -1.8660691 -0.091811351 0
-0.25663966 -1.9630013 -0.088738777 0
-0.29770932 -2.1182332 -0.090956487 0
-0.345227 -2.2978368 -0.089252718 0
-0.41604024 -2.5654912 -0.089583419 0
-0.52392101 -2.9732506 -0.090584494 0
-0.70169032 -3.6451693 -0.091088749 0
-1.0544039 -4.9783287 -0.091127403 0
-2.6589103 -11.042916 -0.14082344 0
-0.20947227 -1.8744767 -0.092430539 0
-0.23435295 -1.9791303 -0.090662993 0
-0.2667121 -2.1152399 -0.089238428 0
-0.31230217 -2.3070016 -0.089374982 0
-0.37783226 -2.5826356 -0.090439297 0
-0.47391698 -2.986789 -0.09067338 0
-0.63400459 -3.6601529 -0.09095224 0
-0.94739455 -4.9783397 -0.089914478 0
-2.4043009 -11.106407 -0.14081341 0
-0.1865167 -1.8768796 -0.091860227 0
-0.20939898 -1.9852049 -0.090750061 0
-0.23776646 -2.1194973 -0.088879265 0
-0.28040278 -2.3213387 -0.090359204 0
-0.33801758 -2.5940886 -0.090726294 0
-0.42264798 -2.9947312 -0.090348639 0
-0.56497812 -3.6685259 -0.090466522 0
-0.84509337 -4.9945989 -0.089610018 0
-2.1510642 -11.1771 -0.14112771 0
-0.16486126 -1.8856459 -0.092793725 0
-0.18570422 -1.9983037 -0.092303105 0
-0.21158527 -2.1381927 -0.091057368 0
-0.24512689 -2.3194876 -0.089140616 0
-0.29592553 -2.594058 -0.089766778 0
-0.37203252 -3.0054224 -0.090409495 0
-0.49847382 -3.6888471 -0.090956695 0
-0.94182485 -6.0851932 -0.14029357 0
-1.8909366 -11.215215 -0.14082174 0
-0.14135884 -1.884302 -0.09166532 0
-0.15846521 -1.9918692 -0.090238906 0
-0.18353474 -2.1495097 -0.092109077 0
-0.2120983 -2.3291211 -0.089688145 0
-0.25729188 -2.6133044 -0.09121839 0
-0.31974736 -3.0060329 -0.089638375 0
-0.42869952 -3.6911387 -0.090287723 0
-0.81400299 -6.1139784 -0.14060563 0
-1.633454 -11.266797 -0.14098896 0
-0.11799918 -1.8821123 -0.090486728 0
-0.13434613 -2.0047855 -0.09198948 0
-0.15267269 -2.1423149 -0.090205498 0
-0.17806354 -2.3328569 -0.089516066 0
-0.21597932 -2.6173909 -0.090992846 0
-0.27078363 -3.028662 -0.091067709 0
-0.36190018 -3.7124341 -0.09108568 0
-0.68473768 -6.1351237 -0.14070961 0
-1.3736396 -11.304894 -0.14099203 0
-0.095492929 -1.8853717 -0.090602584 0
-0.10820563 -2.0034595 -0.09115269 0
-0.12406697 -2.1507947 -0.091027088 0
-0.144108 -2.3369548 -0.089517243 0
-0.17420709 -2.616544 -0.09031079 0
-0.21815616 -3.024785 -0.090120994 0
-0.29268715 -3.7170999 -0.090830944 0
-0.55521375 -6.1556978 -0.14093958 0
-1.1121867 -11.329395 -0.14083074 0
-0.072317176 -1.880998 -0.089211501 0
-0.082337916 -2.0029161 -0.09059044 0
-0.094576642 -2.1518195 -0.090736799 0
-0.10967681 -2.3355367 -0.088861592 0
-0.13373002 -2.6281822 -0.091217987 0
-0.16530679 -3.0123634 -0.088500522 0
-0.22328827 -3.7177994 -0.090421207 0
-0.42445245 -6.1652784 -0.14080842 0
-0.85096955 -11.354531 -0.1408387 0
-0.050286479 -1.8912066 -0.091051705 0
-0.056775771 -2.0053835 -0.090720214 0
-0.065353565 -2.1563065 -0.091139518 0
-0.076408818 -2.3508198 -0.090680204 0
-0.081291884 -2.4367356 -0.068470083 0
-0.080556117 -2.4237902 -0.033142198 0
-0.080679514 -2.4259613 0.0003716147 0
