# .PCD v0.7 - Point Cloud Data file format
VERSION 0.7
FIELDS x y z intensity
SIZE 4 4 4 4
TYPE F F F F
COUNT 1 1 1 1
WIDTH 1322
HEIGHT 1
VIEWPOINT 0 0 0 1 0 0 0
POINTS 1322
DATA ascii
5.1619802 -1.5778639 -0.14085582 0
10.336018 -2.1679215 -0.14088149 0
0.90451735 -1.0692995 -0.091840021 0
1.0275817 -1.0801965 -0.093148686 0
1.1404897 -1.0901943 -0.087043278 0
1.1207674 -1.0884479 -0.057015095 0
1.641407 -1.1345496 -0.091502555 0
2.5753305 -1.2172468 -0.14026108 0
3.4458373 -1.2943286 -0.1408003 0
5.1844363 -1.4482783 -0.14128809 0
10.356194 -1.9062277 -0.14073512 0
0.8844173 -1.0450976 -0.087190308 0
1.0185981 -1.0535736 -0.091082059 0
1.1366814 -1.0610327 -0.086056642 0
1.133975 -1.0608617 -0.058572832 0
1.6375222 -1.0926697 -0.090679593 0
2.5770676 -1.1520189 -0.13996229 0
3.4556201 -1.2075152 -0.14102328 0
5.1816511 -1.3165451 -0.14069493 0
10.375936 -1.6446574 -0.14073284 0
0.90715003 -1.023608 -0.091786198 0
1.0133592 -1.02763 -0.089849971 0
1.1355709 -1.0322579 -0.085635744 0
1.1342435 -1.0322076 -0.058407355 0
1.6550627 -1.0519303 -0.09248694 0
2.5969789 -1.0875993 -0.14151524 0
3.463732 -1.120422 -0.14128253 0
5.185535 -1.1856242 -0.14056805 0
10.400474 -1.3831065 -0.14099589 0
0.90589315 -1.0007101 -0.09139628 0
1.0309392 -1.002288 -0.093039952 0
1.1296676 -1.0035336 -0.084546633 0
1.124305 -1.003466 -0.056909073 0
1.1388102 -1.003649 -0.032022823 0
1.1418766 -1.0036877 -0.0055302959 0
1.1385185 -1.0036453 0.021439003 0
1.1309719 -1.0035501 0.048359565 0
1.1410646 -1.0036775 0.074460678 0
1.1365691 -1.0036207 0.10100282 0
1.1153789 -1.0033534 0.12694654 0
1.1397747 -1.0036612 0.15405624 0
1.1293615 -1.0035298 0.17992632 0
1.1287049 -1.0035214 0.2063065 0
1.129305 -1.0035291 0.23291795 0
1.1299371 -1.0035371 0.25970718 0
1.1298081 -1.0035354 0.28657672 0
1.1305443 -1.0035447 0.31380972 0
0.90738899 -0.97785568 -0.09171427 0
1.0239942 -0.9763844 -0.091731749 0
1.1267354 -0.97508806 -0.0840647 0
1.131489 -0.9750281 -0.057918761 0
1.6455611 -0.9685418 -0.091253199 0
2.5897286 -0.95662874 -0.14068405 0
3.4577661 -0.94567627 -0.14071117 0
5.1961865 -0.92374176 -0.14091016 0
10.401942 -0.85805815 -0.140876 0
0.88823038 -0.95569324 -0.087761708 0
1.0161663 -0.95084846 -0.090379067 0
1.1355025 -0.94632941 -0.085624494 0
1.1333541 -0.94641078 -0.058282275 0
1.6402707 -0.92721456 -0.090756916 0
2.5872555 -0.89135355 -0.14060701 0
3.4635899 -0.85816807 -0.14127259 0
5.1891384 -0.79282397 -0.14073591 0
10.388766 -0.59592152 -0.1407235 0
0.89304173 -0.93294227 -0.089027174 0
1.0120838 -0.92542261 -0.089852639 0
1.1235441 -0.91838193 -0.083893187 0
1.1291952 -0.91802496 -0.057899777 0
1.6420852 -0.88562673 -0.091213934 0
2.5749276 -0.82670099 -0.13976215 0
3.465976 -0.77041525 -0.1417487 0
5.1842494 -0.66187549 -0.14081612 0
10.373661 -0.33407101 -0.14067987 0
0.89398938 -0.91021752 -0.089593403 0
1.0113013 -0.8998298 -0.090070255 0
1.1667134 -0.88606834 -0.091370039 0
1.3454835 -0.87023854 -0.088719077 0
1.6390978 -0.84423959 -0.091231607 0
2.573334 -0.76151466 -0.14007401 0
3.4372227 -0.68501896 -0.14019571 0
5.1836634 -0.53037488 -0.14125195 0
10.349947 -0.0729101 -0.1405893 0
0.89384937 -0.88746709 -0.090051107 0
1.0135059 -0.8738212 -0.09097708 0
1.1612102 -0.85697669 -0.090951927 0
1.3457017 -0.8359369 -0.089235343 0
1.6276098 -0.80378753 -0.090372123 0
2.5715106 -0.69614321 -0.14051954 0
3.4446731 -0.59656596 -0.1413371 0
5.1759806 -0.39912418 -0.14151184 0
10.336896 0.18943694 -0.14090204 0
0.89759302 -0.86404985 -0.091467001 0
1.0061738 -0.84888297 -0.090198047 0
1.1536566 -0.82828212 -0.09031374 0
1.347968 -0.80114013 -0.09016674 0
1.6189119 -0.76329386 -0.089959137 0
2.554719 -0.63257742 -0.1397112 0
3.4140263 -0.51254672 -0.13995062 0
5.1479325 -0.27034935 -0.14097078 0
10.299476 0.44923392 -0.140799 0
0.8787297 -0.84401894 -0.088145159 0
1.0030422 -0.82344455 -0.090337612 0
1.1434811 -0.80020106 -0.089356519 0
1.3394594 -0.76776558 -0.089692034 0
1.6302491 -0.71963829 -0.092038698 0
2.5570536 -0.56624693 -0.14086053 0
3.4122396 -0.42470893 -0.14075337 0
5.1262913 -0.14102378 -0.14088286 0
10.256674 0.70808309 -0.14072295 0
0.8897236 -0.81905711 -0.091378294 0
1.0018933 -0.7975716 -0.09098094 0
1.1459463 -0.769979 -0.090628274 0
1.3322059 -0.73430198 -0.089514874 0
1.3394471 -0.73291492 -0.058305193 0
1.3481522 -0.73124754 -0.027061632 0
1.348372 -0.73120546 0.0050621647 0
1.3426313 -0.73230505 0.037374523 0
1.3543724 -0.73005611 0.068931237 0
1.3503182 -0.73083264 0.10100962 0
0.88901782 -0.79584378 -0.092220716 0
1.0001844 -0.7716276 -0.091645427 0
1.1349056 -0.74228036 -0.089763232 0
1.1997216 -0.72816104 -0.071445905 0
1.2197542 -0.7237972 -0.044812936 0
1.20834 -0.72628361 -0.014368413 0
1.1979651 -0.72854364 0.015327008 0
1.2013125 -0.72781444 0.043778565 0
1.2073961 -0.72648925 0.072262742 0
1.2148383 -0.72486806 0.10100587 0
0.88546008 -0.77310663 -0.092572115 0
1.0003635 -0.745022 -0.092806689 0
1.1306435 -0.71317899 -0.090157665 0
1.2140825 -0.69278485 -0.074531935 0
1.2099947 -0.693784 -0.044491339 0
1.2152873 -0.69249034 -0.015710546 0
1.2032505 -0.69543242 0.014445746 0
1.2054927 -0.69488436 0.04324374 0
1.2130408 -0.69303948 0.071959741 0
1.192584 -0.69803947 0.10100542 0
0.87296653 -0.75269252 -0.091083817 0
0.99025059 -0.72086954 -0.09209796 0
1.1147829 -0.68707985 -0.088704325 0
1.2107761 -0.66103381 -0.075196065 0
1.2132941 -0.66035056 -0.045840431 0
1.1932417 -0.66579145 -0.014340041 0
1.2082528 -0.66171849 0.013518596 0
1.211753 -0.66076875 0.04256494 0
1.2187754 -0.65886337 0.071632214 0
1.2135506 -0.660281 0.10100627 0
0.86601198 -0.73097783 -0.090926908 0
0.97765428 -0.69763958 -0.091015078 0
1.1178961 -0.65576106 -0.090606995 0
1.2099028 -0.62828636 -0.076339222 0
1.2079972 -0.62885541 -0.04625373 0
1.2089454 -0.62857229 -0.01670186 0
1.209865 -0.62829769 0.012769917 0
1.2069272 -0.62917495 0.042377949 0
1.2030414 -0.63033527 0.071802296 0
1.2153525 -0.62665898 0.10100657 0
0.85272217 -0.71135432 -0.089474238 0
0.97485811 -0.67149955 -0.091980644 0
1.1089208 -0.6277529 -0.090571664 0
1.1958402 -0.59938979 -0.075663768 0
1.2149272 -0.59316146 -0.048270974 0
1.2050335 -0.59638995 -0.01724915 0
1.1990764 -0.59833384 0.01286518 0
1.211889 -0.59415287 0.041671213 0
1.2065611 -0.59589148 0.071485348 0
1.2074233 -0.59561008 0.10100663 0
0.83715713 -0.69288784 -0.087606646 0
0.96531475 -0.64745939 -0.091737829 0
1.1034576 -0.59849149 -0.09127114 0
1.1949019 -0.56607687 -0.0770474 0
1.2047365 -0.56259084 -0.048294593 0
1.2051191 -0.56245518 -0.018277323 0
1.2102429 -0.56063896 0.011277007 0
1.2130741 -0.5596354 0.041101206 0
1.206646 -0.56191397 0.071228936 0
1.2091678 -0.56102008 0.10100699 0
0.84354502 -0.66646975 -0.090823658 0
0.94969666 -0.62579876 -0.09038917 0
1.0936358 -0.57064992 -0.091339685 0
1.2123467 -0.52516705 -0.081336997 0
1.1949024 -0.53185064 -0.048459206 0
1.21067 -0.52580947 -0.019946961 0
1.2112621 -0.52558261 0.010362187 0
1.2073187 -0.52709347 0.040828444 0
1.2192738 -0.52251297 0.070636481 0
1.1991626 -0.53021842 0.10100703 0
0.82773805 -0.64836246 -0.089123689 0
0.94450217 -0.60021287 -0.091260932 0
1.085348 -0.54213274 -0.091805957 0
1.1936009 -0.49749285 -0.080326132 0
1.2093908 -0.49098167 -0.051797975 0
1.2042248 -0.49311191 -0.020515813 0
1.219897 -0.48664925 0.0087953303 0
1.2059729 -0.49239105 0.040289614 0
1.2095698 -0.49090782 0.070574582 0
1.21085 -0.49037993 0.10100776 0
0.8314811 -0.6220355 -0.092054062 0
0.92435002 -0.58096808 -0.089194305 0
1.0763366 -0.51375842 -0.092276089 0
1.209921 -0.45468631 -0.084798984 0
1.204742 -0.45697656 -0.052859757 0
1.2030166 -0.4577395 -0.021709291 0
1.2017522 -0.45829865 0.0091832299 0
1.2066588 -0.45612893 0.039596982 0
1.2038248 -0.45738217 0.070391178 0
1.2150522 -0.45241728 0.1010083 0
0.81739938 -0.60334933 -0.090984039 0
0.9220497 -0.55387866 -0.090922661 0
1.0580133 -0.48960558 -0.091188483 0
1.2272462 -0.40960529 -0.089648701 0
1.4731787 -0.29334733 -0.089347489 0
1.8543921 -0.113139 -0.090384178 0
3.1270287 0.48846582 -0.14075842 0
4.6924667 1.2284846 -0.14061478 0
9.4000111 3.4538496 -0.14074861 0
0.80956042 -0.58178508 -0.091497861 0
0.90552789 -0.53341985 -0.089816876 0
1.0425286 -0.46437493 -0.090720914 0
1.2136447 -0.37813666 -0.089871384 0
1.464871 -0.2515249 -0.090619646 0
1.8309506 -0.067029923 -0.090306289 0
3.086024 0.56549591 -0.14054516 0
4.6437669 1.3505595 -0.14107096 0
9.2873669 3.6908176 -0.14081244 0
0.78397495 -0.56957865 -0.0878691 0
0.89956152 -0.50762051 -0.091061421 0
1.0212512 -0.44239095 -0.08928474 0
1.1982696 -0.34750333 -0.089940108 0
1.4495505 -0.2128087 -0.091118254 0
1.8181634 -0.015220251 -0.091478117 0
3.0467052 0.64331788 -0.14061593 0
4.5838532 1.467279 -0.14110272 0
9.1632376 3.9219768 -0.14073096 0
0.78515238 -0.54311937 -0.090807848 0
0.87822229 -0.49016553 -0.089132734 0
1.0113046 -0.41444585 -0.090074591 0
1.1712005 -0.32347009 -0.088243164 0
1.2058301 -0.30376694 -0.061042417 0
1.2221925 -0.29445717 -0.030177599 0
3.0037563 0.71919721 -0.14055263 0
4.5097203 1.5760438 -0.14053001 0
9.0399866 4.1536241 -0.14082676 0
0.77275735 -0.52401119 -0.090587445 0
0.87665123 -0.46137717 -0.091618337 0
1.0059971 -0.38339916 -0.091901161 0
1.1688423 -0.28522542 -0.090674065 0
1.1465638 -0.29865637 -0.055367175 0
1.1935995 -0.27030018 -0.029014355 0
2.9620447 0.79583389 -0.14074455 0
4.4500399 1.6928942 -0.1408823 0
8.9091082 4.3811116 -0.14087456 0
0.76260751 -0.50351584 -0.09105017 0
0.85583431 -0.44405499 -0.090005763 0
0.98061401 -0.36446938 -0.089995541 0
1.147577 -0.25797895 -0.090152465 0
1.1306993 -0.26874372 -0.055634115 0
1.1767023 -0.23940256 -0.029194077 0
2.9097707 0.86596411 -0.14022294 0
4.38029 1.8038743 -0.14084591 0
8.7632284 4.5993514 -0.14066654 0
0.75309175 -0.4824433 -0.091814853 0
0.8396225 -0.42413059 -0.089509986 0
0.96961182 -0.33653125 -0.091001265 0
1.1247516 -0.23198333 -0.089473121 0
1.1339866 -0.22575983 -0.058710296 0
1.1649945 -0.2048637 -0.030048048 0
2.8628829 0.9393366 -0.14029443 0
4.30972 1.9143543 -0.14091879 0
8.6286745 4.8248811 -0.14092568 0
0.73714578 -0.46570358 -0.091053672 0
0.8287425 -0.40055707 -0.090352811 0
0.94845521 -0.3154135 -0.090118207 0
1.1130145 -0.19837376 -0.090805911 0
1.1530216 -0.1699194 -0.064254932 0
1.1406343 -0.17872962 -0.029567232 0
2.8206456 1.0161483 -0.14092368 0
4.2381287 2.0243077 -0.1410926 0
8.4692774 5.0336361 -0.14064169 0
0.72127354 -0.4491162 -0.090408765 0
0.82550544 -0.37094924 -0.093149938 0
0.92579412 -0.29573944 -0.089017741 0
1.0866151 -0.17513457 -0.089736171 0
1.0994231 -0.16552946 -0.059498597 0
1.0982395 -0.16641697 -0.027049368 0
1.1064124 -0.16028789 0.0043728221 0
1.097887 -0.16668132 0.037139464 0
1.0982684 -0.16639534 0.069080703 0
1.0978055 -0.16674247 0.10100954 0
1.1036537 -0.16235676 0.13309534 0
1.0966439 -0.1676136 0.16480736 0
1.1014946 -0.16397592 0.19721717 0
0.71167338 -0.42774966 -0.091562368 0
0.79195523 -0.36431679 -0.088904344 0
0.91955554 -0.26349631 -0.091438048 0
1.0506454 -0.15991876 -0.087034844 0
1.0992239 -0.12153551 -0.062616922 0
1.107331 -0.11512992 -0.030642306 0
1.1017925 -0.11950603 0.0028894639 0
1.0965315 -0.12366286 0.035967696 0
1.106479 -0.11580297 0.068211809 0
1.1054376 -0.11662588 0.10101058 0
1.1044482 -0.11740771 0.13374914 0
1.1049933 -0.11697695 0.16655567 0
1.0966772 -0.12354776 0.19867569 0
0.69851184 -0.40897098 -0.091903307 0
0.77661043 -0.34399632 -0.08906991 0
0.90401798 -0.23799875 -0.092093833 0
1.0243143 -0.13791737 -0.086107813 0
1.1012056 -0.073947102 -0.066299997 0
1.0977124 -0.076853365 -0.032195199 0
1.1026846 -0.072716683 0.00078073354 0
1.1020377 -0.073254913 0.034290459 0
1.1027055 -0.072699338 0.067648731 0
1.101211 -0.073942691 0.10101125 0
1.0936829 -0.080205768 0.13410038 0
1.0969778 -0.077464432 0.1674255 0
1.1049987 -0.070791453 0.20145291 0
0.67390472 -0.40008697 -0.089150645 0
0.77266109 -0.31361774 -0.092219017 0
0.8771506 -0.22212872 -0.09042839 0
0.9903143 -0.12304464 -0.08383023 0
1.0974321 -0.029254343 -0.069355868 0
1.0938032 -0.032431748 -0.034609694 0
1.1070256 -0.02085444 -0.0018041113 0
1.1035696 -0.023880448 0.032743815 0
1.0951135 -0.031284537 0.067157827 0
1.0988733 -0.027992453 0.10101206 0
1.1046166 -0.022963729 0.13516045 0
1.092033 -0.033981707 0.16856609 0
1.0980136 -0.028745141 0.20299117 0
1.0985315 -0.028291728 0.23722112 0
1.092131 -0.033895876 0.37422386 0
0.66274589 -0.37968335 -0.090284012 0
0.75374746 -0.29585478 -0.091804169 0
0.85576206 -0.20188126 -0.090036593 0
0.96242315 -0.10362747 -0.082737289 0
1.0633107 -0.010692146 -0.067838408 0
1.0977179 0.021002922 -0.038214508 0
1.1038314 0.026634607 -0.0038564855 0
1.0957849 0.019222293 0.031672549 0
1.1008174 0.023858223 0.066202395 0
1.1015524 0.024535093 0.10101312 0
1.0946949 0.018218193 0.1356298 0
1.0892791 0.013229165 0.16994111 0
1.1015415 0.024525199 0.20566548 0
1.1001118 0.023208175 0.2405452 0
1.0412935 -0.030973937 0.36746502 0
0.64839464 -0.36197832 -0.090651162 0
0.72563416 -0.2871376 -0.089082487 0
0.83286583 -0.18323609 -0.089405678 0
0.83755624 -0.17869142 -0.062735505 0
0.83761722 -0.17863229 -0.035182793 0
0.83959728 -0.17671373 -0.008025093 0
0.83945566 -0.17685094 0.019349465 0
0.8371895 -0.17904672 0.046763629 0
0.83983541 -0.17648301 0.073812649 0
0.84369135 -0.17274681 0.10100389 0
0.83942425 -0.17688134 0.12818153 0
0.83791316 -0.17834559 0.15529077 0
0.84373283 -0.17270657 0.18307501 0
1.0999238 0.075527936 0.24388854 0
1.0093021 -0.012279239 0.29836601 0
1.0114217 -0.01022562 0.33229098 0
0.98434287 -0.036463346 0.35895446 0
0.633412 -0.34477171 -0.090970196 0
0.71382689 -0.26282045 -0.090733565 0
0.81841671 -0.15623245 -0.090849601 0
0.83677477 -0.13752368 -0.066735946 0
0.8420347 -0.1321632 -0.039377514 0
0.84027773 -0.13395378 -0.01088368 0
0.84093398 -0.13328496 0.01712917 0
0.84109366 -0.13312224 0.045127556 0
0.83743578 -0.13685003 0.073202647 0
0.84291762 -0.13126346 0.10100471 0
0.84614557 -0.12797382 0.12909622 0
0.84895033 -0.12511548 0.15740475 0
0.84702033 -0.12708238 0.18548845 0
0.83155406 -0.14284405 0.21173018 0
1.0974876 0.12817004 0.28403637 0
0.94639724 -0.025806751 0.29075149 0
0.9437263 -0.028528776 0.3222743 0
0.95460641 -0.017440762 0.35750648 0
0.61979681 -0.32596698 -0.091857664 0
0.69616395 -0.24410787 -0.090980299 0
0.80053061 -0.13223574 -0.091667093 0
0.84668535 -0.082761735 -0.073260002 0
0.84260857 -0.087131709 -0.043226916 0
0.83971274 -0.09023574 -0.01379591 0
0.83743405 -0.092678398 0.015247026 0
0.84583801 -0.08367005 0.043311249 0
0.84049958 -0.089392334 0.072356068 0
0.84375221 -0.08590582 0.10100567 0
0.84645569 -0.083007902 0.12985854 0
0.84720033 -0.082209736 0.15879349 0
0.84464759 -0.084946066 0.18750401 0
0.83943546 -0.090532988 0.21576956 0
1.1014174 0.19028941 0.28960285 0
0.93385416 0.010675821 0.29323864 0
0.92641115 0.0026975607 0.32401589 0
0.92148179 -0.0025863315 0.35521394 0
0.59873301 -0.31522241 -0.090534382 0
0.67950904 -0.22413436 -0.09165255 0
0.77031374 -0.12173739 -0.089601703 0
0.85353035 -0.027897146 -0.079611607 0
0.835289 -0.048467185 -0.045994375 0
0.83463448 -0.04920527 -0.01631028 0
0.8380639 -0.045338061 0.012768941 0
0.84036821 -0.042739596 0.042072885 0
0.83556515 -0.048155811 0.07172396 0
0.84241337 -0.040433373 0.1010066 0
0.84395653 -0.038693156 0.13058348 0
0.83874601 -0.044568863 0.15982634 0
0.84649575 -0.035829809 0.19013341 0
0.83521008 -0.048556235 0.21840447 0
1.095567 0.2450383 0.29387867 0
1.0970966 0.24676314 0.33323893 0
0.58177513 -0.30007032 -0.090613507 0
0.65708065 -0.21070716 -0.09080296 0
0.72746497 -0.12718382 -0.084318526 0
0.85268193 0.021407995 -0.084775887 0
0.83751464 0.0034093594 -0.050751526 0
0.83737147 0.0032394861 -0.020180902 0
0.84629726 0.01383153 0.009262966 0
0.8347795 0.00016358834 0.040731944 0
0.84214914 0.0089090206 0.070620045 0
0.83711004 0.002929244 0.10100744 0
0.84745443 0.015204702 0.13158721 0
0.83759093 0.0034998988 0.16148625 0
0.84658927 0.014177952 0.1927848 0
0.83816874 0.0041855904 0.222312 0
0.84506285 0.012366686 0.25413713 0
1.0934491 0.30712035 0.33932355 0
0.56513518 -0.28446785 -0.090931438 0
0.63924122 -0.19188479 -0.091409959 0
0.72732168 -0.081842989 -0.090062521 0
0.84033376 0.05934659 -0.087794818 0
0.8504529 0.071988732 -0.057905588 0
0.84832358 0.069328576 -0.025597161 0
0.83891702 0.05757669 0.0072270203 0
0.83782494 0.05621222 0.038625408 0
0.84004527 0.058986221 0.069751292 0
0.83576834 0.053642903 0.10100853 0
0.83851957 0.057080064 0.1322093 0
0.84477657 0.064897209 0.16391055 0
0.84249347 0.062044892 0.19519116 0
0.83478165 0.052410159 0.22559206 0
0.8394953 0.058299098 0.25787467 0
1.0993463 0.38293937 0.34808779 0
1.1017087 0.38589063 0.39057213 0
0.54820377 -0.26910028 -0.091293864 0
0.61310679 -0.18368337 -0.0896006 0
0.70833349 -0.058358397 -0.091186859 0
0.7260527 -0.035038736 -0.06745667 0
0.72783941 -0.032687273 -0.039444316 0
0.72854394 -0.031760063 -0.011279887 0
0.72579235 -0.035381343 0.01721588 0
0.73537391 -0.022771325 0.044458617 0
0.73370916 -0.024962272 0.072811112 0
0.73162162 -0.02770957 0.10100488 0
0.7262392 -0.034793224 0.12891109 0
0.74097884 -0.015394833 0.15798347 0
0.73886049 -0.018182781 0.18630494 0
0.73294598 -0.025966611 0.21396951 0
0.73186183 -0.027393486 0.24223208 0
0.7278266 -0.032704141 0.26987949 0
0.73088998 -0.028672542 0.29932594 0
0.73717058 -0.020406809 0.33023724 0
0.52628523 -0.26047978 -0.089994945 0
0.59477001 -0.16546449 -0.090304248 0
0.6797477 -0.047567096 -0.089817382 0
0.72966009 0.021680985 -0.074165918 0
0.95899493 0.33985844 -0.090518065 0
0.8447656 0.18137756 -0.033726279 0
0.84189469 0.17739442 0.00042942376 0
0.83674371 0.17024806 0.034427453 0
0.83786893 0.17180911 0.067692608 0
0.83694839 0.1705319 0.10101121 0
0.84240168 0.17809787 0.13451064 0
0.83760053 0.1714367 0.16766344 0
0.83142877 0.16287413 0.20034155 0
0.84069586 0.17573121 0.23510012 0
0.8419947 0.17753318 0.26915619 0
0.84147292 0.17680934 0.30306411 0
1.0984938 0.53339809 0.40956822 0
0.50863934 -0.24612561 -0.09033785 0
0.57643461 -0.1468806 -0.091185667 0
0.65897787 -0.026046183 -0.090751775 0
0.76578552 0.13030866 -0.089579411 0
0.92098331 0.35750142 -0.089653872 0
1.1522954 0.6961171 -0.08954785 0
0.84950411 0.25286356 -0.0041951966 0
0.84002078 0.23898104 0.031720381 0
0.83885539 0.23727491 0.066433407 0
0.83827883 0.23643091 0.10101277 0
0.84849226 0.25138238 0.13599044 0
0.84001517 0.23897281 0.17030507 0
0.83871919 0.23707572 0.20488453 0
0.8368274 0.23430625 0.23937102 0
0.84406149 0.2448962 0.2757431 0
0.84001195 0.23896816 0.31010005 0
1.0955782 0.61308926 0.42001832 0
1.0995492 0.6189025 0.46791846 0
0.49378458 -0.22727904 -0.091926105 0
0.55475545 -0.13300219 -0.091102026 0
0.63399893 -0.010471072 -0.090610795 0
0.73979247 0.15311328 -0.090226136 0
0.88305515 0.37463477 -0.088867404 0
1.1112652 0.72750705 -0.089867719 0
1.477183 1.2933111 -0.089068465 0
0.85063928 0.32451144 0.028130421 0
0.84006101 0.30815461 0.065045372 0
0.84054005 0.30889538 0.10101453 0
0.83320916 0.29755989 0.13668962 0
0.83712763 0.30361882 0.17274015 0
0.83635074 0.30241767 0.20860037 0
0.84079319 0.30928686 0.24540855 0
0.84042197 0.30871275 0.28172231 0
0.83649087 0.30263427 0.3172808 0
0.84255892 0.31201711 0.35576192 0
1.0989342 0.70844001 0.48190427 0
0.47149771 -0.21983591 -0.090743028 0
0.52685821 -0.12930378 -0.088893957 0
0.60623449 0.00050184468 -0.089707814 0
0.71205199 0.1735473 -0.09058138 0
0.84785539 0.39562932 -0.088754095 0
1.0622616 0.74625188 -0.088913418 0
1.4271743 1.3430011 -0.090147696 0
0.85024196 0.39953211 0.025183635 0
0.84860688 0.39685825 0.063193649 0
0.83997345 0.38273981 0.10101631 0
0.83850867 0.38034442 0.13838881 0
0.84410048 0.38948885 0.17630158 0
0.8363722 0.37685063 0.21300988 0
0.84439534 0.38997105 0.25196707 0
0.84332925 0.38822761 0.28977436 0
0.83678865 0.37753168 0.32621729 0
0.83499587 0.37459984 0.36381018 0
1.1071351 0.8196345 0.50046235 0
0.45021066 -0.21119365 -0.090010487 0
0.50398481 -0.1180543 -0.08851438 0
0.58062267 0.014686141 -0.089561321 0
0.67974061 0.18636313 -0.089809723 0
0.8153652 0.42127135 -0.089390434 0
1.0295606 0.79226774 -0.091046505 0
1.3658092 1.3746662 -0.089858972 0
1.3739027 1.3886845 -0.026861822 0
0.84783792 0.47751561 0.061590541 0
0.84167886 0.46684781 0.1010184 0
0.845788 0.47396508 0.14035146 0
0.83717465 0.45904627 0.17892402 0
0.83362913 0.45290521 0.21748663 0
0.837237 0.45915428 0.2571806 0
0.83702791 0.45879212 0.29649159 0
0.83879423 0.46185151 0.3365531 0
0.83079004 0.44798782 0.37382999 0
0.84191471 0.46725634 0.41785327 0
0.43183613 -0.19753274 -0.09063337 0
0.48879477 -0.092864543 -0.091253914 0
0.55782825 0.033992682 -0.090497069 0
0.64661551 0.19714966 -0.088855334 0
0.78474253 0.45097438 -0.090668358 0
0.985623 0.82011598 -0.091308258 0
1.2958112 1.3901234 -0.088408314 0
1.2913204 1.381871 -0.02470482 0
1.295513 1.3895752 0.038001414 0
0.85112846 0.5729664 0.10102117 0
0.83805138 0.54893571 0.14178757 0
0.84012407 0.55274457 0.18280113 0
0.84233409 0.55680567 0.22412598 0
0.83887041 0.55044085 0.26469269 0
0.84064829 0.5537079 0.3063803 0
0.84019381 0.55287272 0.34781253 0
0.84152645 0.55532163 0.39008713 0
0.84278172 0.55762833 0.43278638 0
0.41625831 -0.17805246 -0.092749394 0
0.46847481 -0.076049715 -0.092267878 0
0.52815717 0.040537272 -0.089171477 0
0.62050897 0.22094265 -0.090099491 0
0.75068885 0.47524348 -0.091318585 0
0.93869579 0.84250706 -0.091111489 0
1.2387511 1.4286523 -0.088927962 0
1.2449265 1.4407158 -0.026119178 0
1.2445859 1.4400504 0.037516374 0
1.2439257 1.4387608 0.10104827 0
0.84743875 0.6642403 0.14426652 0
0.84318793 0.65593666 0.18712173 0
0.84020412 0.6501078 0.2298298 0
0.84222382 0.65405327 0.27339739 0
0.83995765 0.64962631 0.31626186 0
0.8380717 0.64594215 0.35924545 0
0.84275585 0.65509254 0.40468854 0
0.83976269 0.64924544 0.44778687 0
0.38941467 -0.18082646 -0.089685164 0
0.44000173 -0.075539023 -0.089970537 0
0.50375026 0.057141695 -0.08983352 0
0.58451211 0.22523227 -0.088391207 0
0.71293324 0.49251679 -0.091166042 0
0.88889802 0.85875458 -0.090404294 0
1.1820002 1.4687915 -0.089678638 0
1.7782037 2.7096775 -0.090079166 0
4.4991302 8.372776 -0.14052299 0
0.84718788 0.77194268 0.19204894 0
0.84063143 0.75829655 0.23662467 0
0.8429898 0.76320511 0.28256243 0
0.84180939 0.76074833 0.32799903 0
0.8421033 0.76135999 0.374035 0
0.84477299 0.76691645 0.42130694 0
0.84134829 0.75978869 0.46657887 0
0.3696999 -0.16948828 -0.090103485 0
0.42142361 -0.054488625 -0.092090346 0
0.47627777 0.067471057 -0.089468963 0
0.55804944 0.24927762 -0.089887284 0
0.67137295 0.50123483 -0.09004169 0
0.84230667 0.88127941 -0.090476967 0
1.1249429 1.5096769 -0.090588488 0
1.6896443 2.7652028 -0.09068466 0
4.2664256 8.4942751 -0.14080307 0
1.068542 1.3842783 0.22228256 0
0.84975529 0.8978402 0.24574757 0
0.83595836 0.86716491 0.29109043 0
0.84023762 0.87667912 0.34021434 0
0.8384518 0.87270874 0.38801467 0
0.84164381 0.87980551 0.43792072 0
0.83957577 0.8752076 0.48615789 0
0.34855384 -0.16126594 -0.089914449 0
0.39835721 -0.042621162 -0.092408337 0
0.44937256 0.078910857 -0.089430429 0
0.5256508 0.26062587 -0.089534752 0
0.63747495 0.52702051 -0.091226242 0
0.798145 0.90977901 -0.091273405 0
1.0590751 1.5313833 -0.090144418 0
1.5917798 2.8004267 -0.090372242 0
4.0257244 8.5987263 -0.14079927 0
0.99493206 1.3785777 0.22067094 0
0.85264015 1.0396008 0.25492507 0
0.84605044 1.0239024 0.30489269 0
0.83911079 1.0073704 0.35417795 0
0.83768141 1.003965 0.40489677 0
0.84186184 1.0139239 0.45815909 0
0.83870673 1.0064077 0.50876468 0
0.33080053 -0.14443669 -0.091813661 0
0.3688415 -0.046994116 -0.089557789 0
0.42023733 0.084657222 -0.088508196 0
0.49546003 0.2773414 -0.090119399 0
0.59473896 0.53164607 -0.089852266 0
0.74376661 0.91338295 -0.089679711 0
0.9981305 1.5649402 -0.090719484 0
1.4984306 2.8464673 -0.09072756 0
3.7800958 8.6909924 -0.14064376 0
0.92793024 1.3851211 0.21978121 0
0.8520813 1.1908326 0.26471856 0
0.83972478 1.1591814 0.31638259 0
0.83816236 1.1551793 0.37015709 0
0.83938104 1.1583009 0.42509976 0
0.83871263 1.1565888 0.47970662 0
0.84001642 1.1599283 0.53566897 0
0.30753592 -0.14148095 -0.090661548 0
0.34808207 -0.029348578 -0.091293044 0
0.39452872 0.099101931 -0.089243643 0
0.43612596 0.21414104 -0.078870542 0
0.43944299 0.22331455 -0.049731378 0
0.43802097 0.21938184 -0.018996572 0
0.93131751 1.5836174 -0.090298079 0
1.4032491 2.8887675 -0.091011666 0
3.5317247 8.7751713 -0.14044376 0
0.85839844 1.3819563 0.21850255 0
0.85143822 1.3627076 0.27596006 0
0.8452211 1.3455138 0.3328546 0
0.84211165 1.3369145 0.39021263 0
0.84281814 1.3388684 0.44903457 0
0.84176874 1.3359661 0.50749093 0
0.84270072 1.3385437 0.56735009 0
0.28881505 -0.12571201 -0.092522137 0
0.32355416 -0.021487679 -0.091175653 0
0.36945587 0.1162267 -0.090550147 0
0.40650025 0.22736731 -0.079260163 0
0.40379718 0.2192575 -0.047916237 0
0.40422446 0.22053948 -0.018063387 0
0.86813158 1.6123543 -0.090746276 0
1.3071984 2.9296432 -0.09134189 0
3.2893937 8.8766289 -0.14082317 0
0.79219747 1.3845365 0.2176035 0
0.8501178 1.5583093 0.28885853 0
0.84008795 1.5282178 0.34881777 0
0.83857203 1.5236697 0.41070667 0
0.84098125 1.5308979 0.47445482 0
0.83850008 1.5234537 0.53643477 0
0.84264076 1.5358765 0.60246986 0
0.26482037 -0.12564436 -0.090984114 0
0.29831368 -0.016010728 -0.090712048 0
0.34042606 0.12183586 -0.08997684 0
0.3848868 0.2673693 -0.083691694 0
0.38269407 0.26019183 -0.051723603 0
0.38210684 0.25826958 -0.020790381 0
0.72330719 1.3751214 -0.071865968 0
0.72618955 1.3845561 -0.014585471 0
0.72385955 1.3769293 0.043444604 0
0.72454131 1.3791609 0.1010411 0
0.72375882 1.3765996 0.15862951 0
0.72758478 1.3891232 0.21689089 0
0.84486073 1.7730029 0.30305722 0
0.83837891 1.7517858 0.36866191 0
0.83343279 1.7355957 0.43413198 0
0.83612359 1.7444034 0.50284398 0
0.83689308 1.746922 0.57135624 0
0.24422112 -0.11467633 -0.091995887 0
0.272504 -0.012982693 -0.089897938 0
0.31239319 0.13044253 -0.090044342 0
0.3642126 0.31676379 -0.089542203 0
0.4405157 0.59111851 -0.09074796 0
0.5516119 0.99057502 -0.090845175 0
0.6606378 1.3825872 -0.07113988 0
0.66037858 1.3816552 -0.013597636 0
0.65995979 1.3801494 0.043788876 0
0.66105705 1.3840947 0.10104073 0
0.66202605 1.387579 0.15847215 0
0.66294545 1.3908846 0.21612577 0
0.8122595 1.9277568 0.31281343 0
0.81475407 1.9367263 0.3846269 0
0.81437004 1.9353454 0.45593154 0
0.81114876 1.923763 0.52606982 0
0.81163222 1.9255013 0.59838027 0
0.22170424 -0.1102989 -0.091671206 0
0.24787262 -0.0060908464 -0.08996623 0
0.28044015 0.12359992 -0.087613769 0
0.33367985 0.33561173 -0.091005512 0
0.39902747 0.5958398 -0.090041138 0
0.49640301 0.98360974 -0.088898458 0
0.59689009 1.3837702 -0.070079885 0
0.59815955 1.3888257 -0.013179457 0
0.59710264 1.3846169 0.044062283 0
0.59919065 1.3929317 0.10104052 0
0.59679979 1.3834107 0.15798935 0
0.59838969 1.3897421 0.2153046 0
0.77135676 2.0785336 0.32228068 0
0.76840597 2.0667827 0.39526352 0
0.77070045 2.0759199 0.4705174 0
0.76848978 2.0671167 0.54402131 0
0.19839433 -0.10973999 -0.090640657 0
0.2259161 0.012875948 -0.09248542 0
0.2572678 0.15255502 -0.091362961 0
0.29934528 0.34002009 -0.090492137 0
0.35820231 0.60224181 -0.089665435 0
0.44790569 1.0018913 -0.089511611 0
0.55302906 1.4702404 -0.075252198 0
0.55054998 1.4591954 -0.015854193 0
0.55192804 1.4653351 0.042479254 0
0.55066723 1.4597178 0.10104205 0
0.5522874 1.4669359 0.1596435 0
0.55246574 1.4677305 0.21834633 0
0.7135998 2.1856201 0.32863581 0
0.71215481 2.1791825 0.40426227 0
0.71408617 2.1877873 0.48171318 0
0.71141446 2.175884 0.55704361 0
0.17697287 -0.10083202 -0.091552265 0
0.19874993 0.0091009475 -0.09073209 0
0.22718342 0.15263632 -0.090354048 0
0.26505423 0.34381238 -0.090017535 0
0.32052195 0.62381953 -0.091222785 0
0.39729646 1.0113857 -0.089402355 0
0.41559666 1.1037672 -0.048197541 0
0.4151687 1.1016068 0.0017377979 0
0.41491693 1.1003358 0.05144152 0
0.41714212 1.1115689 0.10103154 0
0.41575554 1.1045692 0.15072155 0
0.41286084 1.0899563 0.19977136 0
0.41418818 1.096657 0.24975362 0
0.41537988 1.1026728 0.30015233 0
0.41581616 1.1048751 0.35060221 0
0.40679565 1.0593386 0.39459017 0
0.29738468 0.50702006 0.35175949 0
0.27040249 0.37081102 0.36220714 0
0.15412007 -0.098883897 -0.091075681 0
0.17342927 0.013382111 -0.090657346 0
0.19624642 0.14604381 -0.088363461 0
0.2303804 0.34450296 -0.089226387 0
0.27965531 0.63099343 -0.09117832 0
0.3476564 1.02636 -0.089933835 0
0.36826849 1.1462011 -0.050512824 0
0.88157642 4.1306362 -0.14088596 0
1.7633541 9.2573986 -0.14076789 0
0.58222228 2.3901548 0.26080573 0
0.57962805 2.3750713 0.33982053 0
0.58083928 2.3821137 0.42047629 0
0.26177749 0.5270496 0.28088152 0
0.2727322 0.59074157 0.32637373 0
0.27285638 0.59146363 0.36467856 0
0.23646416 0.37987474 0.36272308 0
0.13105102 -0.09909758 -0.090260588 0
0.14804399 0.017195735 -0.090615772 0
0.16908042 0.16116086 -0.090116046 0
0.19956779 0.36980453 -0.09205813 0
0.23807888 0.63335949 -0.090688191 0
0.29653335 1.0333991 -0.089833252 0
0.39486963 1.7063744 -0.089483388 0
0.75191575 4.1498594 -0.14082173 0
1.5029304 9.2895107 -0.14055423 0
0.50703377 2.4739821 0.26411438 0
0.50358558 2.4503841 0.34418926 0
0.50551224 2.4635692 0.42688519 0
0.22206062 0.52373666 0.27976945 0
0.27501294 0.88612181 0.36744028 0
0.20216654 0.38758937 0.36314368 0
0.10929742 -0.089885861 -0.091590829 0
0.12251528 0.019861851 -0.090478398 0
0.13936643 0.15977684 -0.089245431 0
0.16371876 0.36197403 -0.0903017 0
0.19741465 0.64175087 -0.091032587 0
0.24704044 1.0537932 -0.091110058 0
0.32696316 1.717391 -0.089619733 0
0.62130648 4.1613216 -0.14054748 0
1.2444941 9.3356428 -0.14082377 0
0.42552742 2.5357695 0.26646754 0
0.42365238 2.520201 0.34829292 0
0.4234263 2.5183237 0.43094197 0
0.42474493 2.5292726 0.51537359 0
0.22996767 0.91203827 0.37021571 0
0.16632156 0.38358513 0.36150363 0
0.085859701 -0.094923288 -0.089992829 0
0.09761063 0.028886709 -0.091666453 0
0.11250257 0.18579105 -0.093024038 0
0.13014245 0.3716481 -0.091148414 0
0.15572608 0.64120203 -0.09044724 0
0.19527417 1.057888 -0.090972848 0
0.25819173 1.7207994 -0.089341991 0
0.49223045 4.1866755 -0.14107786 0
0.98294568 9.3569431 -0.14066523 0
0.34113485 2.5947037 0.26877791 0
0.33987993 2.5814815 0.35192877 0
0.33999127 2.5826547 0.43608212 0
0.34013996 2.5842214 0.52070338 0
0.3399967 2.5827119 0.60542566 0
0.17290473 0.8221994 0.40013614 0
0.13077973 0.37836257 0.35980839 0
0.063715123 -0.086617082 -0.091366984 0
0.071923301 0.031476889 -0.091756336 0
0.081194319 0.1648623 -0.089174114 0
0.095272027 0.3674033 -0.09015236 0
0.11437981 0.64231354 -0.090180837 0
0.14238565 1.0452435 -0.089392044 0
0.19128174 1.748729 -0.090904914 0
0.36168015 4.2003117 -0.1412127 0
0.72201169 9.3845291 -0.14080749 0
0.25317469 2.6392047 0.27050948 0
0.25256968 2.6305003 0.35484675 0
0.13291153 0.90893608 0.27868873 0
0.13369025 0.92013985 0.32478121 0
0.13344237 0.91657346 0.36956802 0
0.12426367 0.78451639 0.39330587 0
0.096594922 0.38643625 0.3607969 0
0.041131753 -0.080524355 -0.092387654 0
0.045885891 0.027062211 -0.090647794 0
0.051824812 0.16146055 -0.088341959 0
0.061005305 0.36921588 -0.090133421 0
0.073396683 0.64963406 -0.090763278 0
0.090962186 1.047143 -0.089296676 0
0.12229162 1.7561309 -0.091147862 0
0.23006606 4.1950765 -0.14062162 0
0.45971933 9.3921509 -0.14063834 0
0.1634184 2.6868336 0.27248874 0
0.16254553 2.6670804 0.35704476 0
0.086467527 0.94542843 0.28184566 0
0.085444689 0.92228144 0.32471111 0
0.086461022 0.94528121 0.3732231 0
0.076819733 0.72709793 0.38343748 0
0.06149587 0.38031748 0.35927054 0
0.017886737 -0.095814496 -0.088983066 0
0.020281155 0.030681286 -0.091177054 0
0.023054313 0.17718568 -0.090776198 0
0.02688998 0.37982205 -0.091472097 0
0.031928323 0.6459952 -0.090185292 0
0.039499942 1.0459998 -0.089038499 0
0.053058054 1.7622676 -0.091424055 0
0.099384204 4.2096543 -0.1411081 0
0.19783379 9.4106932 -0.14087722 0
0.071089894 2.7148802 0.27365974 0
0.070798099 2.699465 0.3591072 0
0.070786901 2.6988735 0.44549918 0
0.07085108 2.7022638 0.53270578 0
0.032508072 0.67662281 0.37491256 0
0.027015265 0.38644078 0.36021885 0
-0.0046998844 -0.089660317 -0.09026099 0
-0.0053640213 0.015638385 -0.088313065 0
-0.0062639504 0.15832189 -0.0876453 0
-0.0076396698 0.37644187 -0.090966411 0
-0.0093466509 0.6470831 -0.090282001 0
-0.011860116 1.0455923 -0.088970222 0
-0.016275095 1.7455859 -0.090227194 0
-0.031755418 4.1999869 -0.14061949 0
-0.064557306 9.4007158 -0.14060673 0
-0.022488326 2.7306919 0.2743693 0
-0.022463921 2.7268226 0.36098024 0
-0.022447607 2.724236 0.44781315 0
-0.022425752 2.7207708 0.53480107 0
-0.0094017042 0.65581185 0.37144732 0
-0.0077292044 0.39063743 0.36096826 0
-0.027519077 -0.086210281 -0.091086052 0
-0.031098995 0.027253423 -0.090592273 0
-0.035580613 0.16929618 -0.089539938 0
-0.042018484 0.37334123 -0.090622164 0
-0.050934188 0.65592021 -0.09140671 0
-0.063949674 1.0684395 -0.091194578 0
-0.085891835 1.7638855 -0.091598488 0
-0.11876828 2.8058884 -0.075800858 0
-0.11905304 2.8149137 0.012476893 0
-0.11886769 2.8090391 0.10107889 0
-0.11883783 2.8080926 0.18952227 0
-0.11684536 2.7449427 0.27511671 0
-0.11648908 2.7336504 0.36158243 0
-0.1163403 2.7289352 0.44841796 0
-0.1163408 2.7289505 0.53596526 0
-0.05086286 0.65365952 0.3712225 0
-0.042379636 0.38478783 0.35998982 0
-0.049887203 -0.094403177 -0.089556016 0
-0.056908909 0.029141221 -0.091162138 0
-0.065002687 0.1715484 -0.090123244 0
-0.076151773 0.36771253 -0.090043597 0
-0.092304938 0.65192169 -0.091153271 0
-0.11592363 1.0674841 -0.091319643 0
-0.15507983 1.7564237 -0.091290839 0
-0.2138826 2.7910376 -0.075305574 0
-0.21360257 2.7861106 0.013048934 0
-0.21373165 2.7883818 0.10107842 0
-0.21458146 2.8033338 0.18950997 0
-0.21125124 2.7447398 0.27530152 0
-0.21140751 2.7474895 0.36284301 0
-0.21058704 2.7330534 0.44919088 0
-0.077495731 0.391359 0.26267213 0
-0.076441504 0.37281027 0.29278138 0
-0.076515891 0.37411907 0.32549062 0
-0.076689661 0.37717643 0.3588424 0
-0.072324239 -0.097500771 -0.08922983 0
-0.08226718 0.023470793 -0.090427794 0
-0.093933083 0.16540495 -0.089445613 0
-0.11057604 0.36789277 -0.090404339 0
-0.13340782 0.64567739 -0.090758272 0
-0.1671879 1.0566654 -0.09064398 0
-0.22388582 1.7464848 -0.09093117 0
-0.42437923 4.1858034 -0.1407668 0
-0.85060656 9.3715305 -0.14073567 0
-0.30595341 2.7449665 0.27561817 0
-0.30431461 2.7250278 0.36172584 0
-0.30484685 2.7315035 0.4496569 0
-0.30436623 2.7256556 0.53682846 0
-0.11286411 0.39573064 0.2963514 0
-0.11453992 0.41611961 0.33281335 0
-0.11158081 0.38011745 0.35985106 0
-0.095018722 -0.097617954 -0.089660846 0
-0.1064342 0.0084199049 -0.088035502 0
-0.1219608 0.15264586 -0.087793119 0
-0.14460838 0.3630183 -0.090174235 0
-0.17437896 0.63955599 -0.090498455 0
-0.21791175 1.0439301 -0.089907847 0
-0.29160464 1.7284601 -0.090123929 0
-0.55468982 4.1722469 -0.14071171 0
-1.1123126 9.3519802 -0.14085805 0
-0.39852074 2.7215989 0.27494144 0
-0.39798412 2.7166142 0.36175904 0
-0.39777261 2.7146494 0.44890979 0
-0.39806902 2.7174029 0.53690302 0
-0.14940244 0.40755001 0.29849124 0
-0.14885037 0.40242186 0.33110422 0
-0.14720197 0.38711002 0.36179692 0
-0.11765364 -0.099065632 -0.089930646 0
-0.13388129 0.022712622 -0.091326647 0
-0.15305474 0.16659716 -0.09068086 0
-0.17946757 0.36480871 -0.091009878 0
-0.21589024 0.63813764 -0.090914018 0
-0.27092791 1.0511601 -0.091169678 0
-0.358394 1.7075374 -0.089229979 0
-0.68431318 4.1533537 -0.14055999 0
-1.3726914 9.3191938 -0.14082512 0
-0.49139461 2.7056224 0.27471969 0
-0.49038827 2.6980705 0.3612439 0
-0.2422338 0.8358292 0.27293977 0
-0.24108051 0.8271746 0.31524953 0
-0.18493365 0.40582815 0.29884824 0
-0.18380645 0.39736918 0.33096665 0
-0.18079391 0.37476197 0.36024377 0
-0.14144121 -0.093764752 -0.091776781 0
-0.15769108 0.008416567 -0.089310504 0
-0.17912877 0.14321974 -0.087498449 0
-0.21461663 0.36637214 -0.091941558 0
-0.25733641 0.63499969 -0.091251515 0
-0.3212167 1.0366876 -0.090511627 0
-0.42682961 1.7007959 -0.089455374 0
-0.81393671 4.1349778 -0.140586 0
-1.630587 9.2701845 -0.14056455 0
-0.58145565 2.673105 0.27382681 0
-0.58057898 2.6675923 0.36004615 0
-0.27841198 0.76752585 0.2671155 0
-0.27973595 0.77585119 0.30996439 0
-0.27901432 0.77131337 0.35160953 0
-0.2180627 0.38804153 0.36373499 0
-0.16467468 -0.093947321 -0.092575721 0
-0.18198395 -0.00038936394 -0.088451408 0
-0.20870271 0.14402762 -0.088453256 0
-0.2496749 0.36548534 -0.092653908 0
-0.29687321 0.62059587 -0.090375625 0
-0.36839938 1.0072001 -0.088545419 0
-0.49519581 1.6925445 -0.089697026 0
-0.94378036 4.1171784 -0.14079398 0
-1.8880049 9.2207842 -0.14044705 0
-0.66891491 2.6315093 0.27260691 0
-0.66591793 2.6153104 0.35745296 0
-0.66760653 2.6244373 0.44421312 0
-0.66697121 2.6210034 0.53029078 0
-0.2876054 0.57050258 0.36176831 0
-0.25090513 0.37213472 0.36183006 0
-0.18449207 -0.11128983 -0.089777924 0
-0.20955792 0.0073725912 -0.0908949 0
-0.23727986 0.13860908 -0.088492326 0
-0.28205481 0.35057476 -0.091482542 0
-0.33673024 0.60940975 -0.089998312 0
-0.42059401 1.006423 -0.089421012 0
-0.56278837 1.679575 -0.08972583 0
-0.62010419 1.9509096 -0.038930211 0
-0.61820865 1.941936 0.031314109 0
-0.61727977 1.9375386 0.10105579 0
-0.75513142 2.5901322 0.27149582 0
-0.75264829 2.578377 0.35609713 0
-0.7539798 2.5846801 0.44213805 0
-0.75072867 2.5692892 0.52626181 0
-0.2858161 0.3683807 0.36241445 0
-0.20777766 -0.11123595 -0.090873174 0
-0.23443389 0.00088599662 -0.090728916 0
-0.26837808 0.1436626 -0.090422221 0
-0.31658 0.34641054 -0.091974176 0
-0.37373704 0.58682567 -0.088369988 0
-0.47034112 0.99316353 -0.089230321 0
-0.51993072 1.2017481 -0.056473348 0
-0.6181168 1.6147406 -0.023638433 0
-0.61899012 1.6184139 0.038650144 0
-0.61861712 1.6168449 0.10104688 0
-0.83349109 2.5206521 0.26913556 0
-0.83264947 2.5171118 0.35314029 0
-0.83078754 2.5092802 0.43683746 0
-0.83052808 2.508189 0.52133387 0
-0.83288008 2.5180819 0.60782653 0
-0.23454306 -0.099102348 -0.094760619 0
-0.26053569 -0.00085749885 -0.091607861 0
-0.29539979 0.13091913 -0.089472435 0
-0.34580857 0.32145026 -0.089572243 0
-0.41456404 0.5813269 -0.088908873 0
-0.52351725 0.9931398 -0.090437137 0
-0.58134729 1.2117212 -0.058195416 0
-0.64612943 1.4565797 -0.016814103 0
-0.64883363 1.4668009 0.041900333 0
-0.65003902 1.4713569 0.10104306 0
-0.91145051 2.4594195 0.26725224 0
-0.90885442 2.4496071 0.34985775 0
-0.90990907 2.4535935 0.43359259 0
-0.91356832 2.4674244 0.51907545 0
-0.91320771 2.4660614 0.60348326 0
-0.25288883 -0.11917391 -0.091694809 0
-0.28169852 -0.020428386 -0.0891243 0
-0.32226437 0.11861148 -0.08870659 0
-0.34897599 0.21016577 -0.074622877 0
-0.45849937 0.58555835 -0.090761341 0
-0.57015991 0.9682762 -0.08936768 0
-0.71473676 1.4638147 -0.077674888 0
-0.71239167 1.4557769 -0.017604722 0
-0.71585661 1.4676533 0.041463662 0
-0.71258515 1.45644 0.10104313 0
-0.98808247 2.4007101 0.2655727 0
-0.978329 2.36728 0.34561035 0
-0.98350829 2.3850319 0.42926475 0
-0.97951978 2.3713613 0.51031911 0
-0.98161381 2.3785388 0.59420437 0
-0.27204078 -0.13437721 -0.089793451 0
-0.30876008 -0.019394901 -0.090799801 0
-0.35107985 0.11312464 -0.089227878 0
-0.38034692 0.20477107 -0.075185932 0
-0.39385045 0.2470558 -0.050714899 0
-0.39642143 0.25510648 -0.020961246 0
-0.39315408 0.24487522 0.010397697 0
-0.39777803 0.25935462 0.039947875 0
-0.39643225 0.25514045 0.070597224 0
-0.39584845 0.25331226 0.10100763 0
-0.3994188 0.26449242 0.13164702 0
-0.39470473 0.24973086 0.16159703 0
-0.39876747 0.26245287 0.19290847 0
-0.39467615 0.24964133 0.22244143 0
-0.39655772 0.25553325 0.25377142 0
-0.39605379 0.25395539 0.28445873 0
-0.39607763 0.25403002 0.31555539 0
-0.39296278 0.2442762 0.34495077 0
-0.29395321 -0.14030287 -0.090071328 0
-0.33128372 -0.032841828 -0.089738391 0
-0.38318983 0.11657718 -0.091435097 0
-0.42792517 0.24535397 -0.082711495 0
-0.43160063 0.25593427 -0.053094614 0
-0.42792219 0.24534538 -0.021026624 0
-0.43267983 0.25904098 0.0085843075 0
-0.43432277 0.26377037 0.039214816 0
-0.42806929 0.24576893 0.070571341 0
-0.42854089 0.24712637 0.10100777 0
-0.43012315 0.25168112 0.13159002 0
-0.43095088 0.25406387 0.16232292 0
-0.43198133 0.25703016 0.19328338 0
-0.42990938 0.25106576 0.22360829 0
-0.43068445 0.253297 0.25478524 0
-0.43147463 0.25557151 0.2862491 0
-0.42874363 0.24771002 0.31626794 0
-0.42949834 0.24988249 0.34812978 0
-0.31629393 -0.1453177 -0.090683721 0
-0.35754752 -0.035577741 -0.090936013 0
-0.4111428 0.10699263 -0.091515936 0
-0.4771238 0.28251079 -0.0899738 0
-0.48897445 0.31403497 -0.061761234 0
-0.51151848 0.37400511 -0.034974579 0
-0.51414287 0.38098636 -0.0013701597 0
-0.51257151 0.37680629 0.033026841 0
-0.51363468 0.37963441 0.066967599 0
-0.50882089 0.36682907 0.10101176 0
-1.2065803 2.2229602 0.18095565 0
-1.189322 2.1770508 0.25864354 0
-1.1591336 2.0967457 0.33164322 0
-1.1614782 2.1029825 0.40951538 0
-1.1596394 2.0980911 0.48664767 0
-1.1580728 2.093924 0.56406581 0
-0.33821079 -0.15180477 -0.091093443 0
-0.38208127 -0.043483462 -0.091229387 0
-0.43195206 0.079653412 -0.088573821 0
-0.50685418 0.26459542 -0.089147829 0
-0.51029116 0.27308181 -0.058208335 0
-0.5136466 0.28136674 -0.026991313 0
-0.5083093 0.26818839 0.0061244685 0
-0.51610923 0.28744724 0.036842491 0
-0.5092591 0.27053347 0.069367751 0
-0.51084763 0.27445582 0.10100932 0
-1.2713482 2.152221 0.25895584 0
-1.1994469 1.9746881 0.32471317 0
-1.1990927 1.9738135 0.39955407 0
-1.202855 1.983103 0.47595939 0
-1.1959246 1.9659915 0.54924506 0
-0.36068487 -0.15729037 -0.09186735 0
-0.40332711 -0.059191253 -0.090050153 0
-0.46242097 0.076755077 -0.090072922 0
-0.50726897 0.17992845 -0.078198262 0
-0.50859106 0.18296996 -0.048419822 0
-0.51225168 0.19139126 -0.019196546 0
-0.51121199 0.18899956 0.011150891 0
-0.51024413 0.18677285 0.041270092 0
-0.51351488 0.19429734 0.070963956 0
-0.51052785 0.18742552 0.10100703 0
-1.3512636 2.1215506 0.25907943 0
-1.2292315 1.8408139 0.31688243 0
-1.2260345 1.8334591 0.38844004 0
-1.2312968 1.8455651 0.46241653 0
-1.2233441 1.8272698 0.53275263 0
-1.2284412 1.8389959 0.6080007 0
-0.37859231 -0.17306617 -0.09037035 0
-0.42578828 -0.071575195 -0.089658208 0
-0.48657104 0.059133086 -0.089059584 0
-0.51108825 0.11185518 -0.069692977 0
-0.51198041 0.11377373 -0.041206215 0
-0.5104267 0.11043265 -0.012234395 0
-0.50890684 0.10716441 0.016435007 0
-0.51046717 0.11051968 0.044503637 0
-0.51258934 0.11508325 0.072652608 0
-0.50839776 0.10606959 0.10100488 0
-1.4303638 2.0886807 0.25919452 0
-1.2494327 1.6996033 0.30845091 0
-1.240018 1.679358 0.37584856 0
-1.2383525 1.6757762 0.44464707 0
-1.2383796 1.6758344 0.5142011 0
-1.243927 1.6877637 0.58636731 0
-0.39786389 -0.18532535 -0.089795537 0
-0.45393482 -0.072299093 -0.091831364 0
-0.51245475 0.045663748 -0.088906519 0
-0.51223069 0.045212064 -0.061319996 0
-0.50590903 0.032469068 -0.032333169 0
-0.50746387 0.035603199 -0.0058184769 0
-0.51183259 0.044409666 0.020301135 0
-0.50774008 0.036160026 0.047679186 0
-0.51132727 0.043391023 0.074167892 0
-0.51125586 0.043247137 0.1010033 0
-1.2481126 1.5285826 0.29762459 0
-1.2396451 1.5115142 0.36170241 0
-1.2395335 1.5112894 0.42736903 0
-1.2386205 1.509449 0.4931289 0
-1.2363362 1.5048444 0.55871737 0
-0.4193508 -0.19312701 -0.090400614 0
-0.47390103 -0.089799792 -0.090610735 0
-0.53435248 0.024705205 -0.08748018 0
-0.53096932 0.018296871 -0.059152801 0
-0.53191197 0.020082507 -0.032429371 0
-0.53358483 0.023251209 -0.00590319 0
-0.53267038 0.021518979 0.021061869 0
-0.53523934 0.026385102 0.04750089 0
-0.52843046 0.013487969 0.074605606 0
-0.53227466 0.02076951 0.10100301 0
-1.2479069 1.3762956 0.28813273 0
-1.2397871 1.3609154 0.34918702 0
-1.2360216 1.3537831 0.41078642 0
-1.2422907 1.3656578 0.4753674 0
-1.2337537 1.3494871 0.53578562 0
-1.2406337 1.362519 0.60203528 0
-0.43552253 -0.21073237 -0.088756524 0
-0.49888751 -0.097710997 -0.09155149 0
-0.55680913 0.0056012007 -0.086486392 0
-0.56399214 0.01841322 -0.06138562 0
-0.56124604 0.013515148 -0.033393983 0
-0.55650502 0.0050587389 -0.0054342058 0
-0.55941153 0.010243032 0.020860681 0
-0.56110299 0.01326004 0.047462065 0
-0.55532795 0.0029592847 0.074521698 0
-0.56351483 0.017561827 0.10100335 0
-1.295446 1.3230753 0.16275854 0
-1.2961645 1.3243568 0.2246065 0
-1.2522559 1.2460392 0.28027242 0
-1.2377093 1.2200928 0.33754057 0
-1.2404585 1.2249963 0.3978059 0
-1.2403429 1.2247901 0.45783907 0
-1.2350985 1.215436 0.51653117 0
-1.2369967 1.2188218 0.57792491 0
-0.45929205 -0.21481743 -0.09053091 0
-0.51501513 -0.12105408 -0.089262478 0
-0.58716691 0.00035330994 -0.088234253 0
-0.58476919 -0.0036812092 -0.060156424 0
-0.58451134 -0.0041150716 -0.032969046 0
-0.58788228 0.0015570853 -0.006615622 0
-0.58046991 -0.010915425 0.021405647 0
-0.58001077 -0.01168808 0.048027836 0
-0.58598101 -0.0016421344 0.074257977 0
-0.5841772 -0.0046773222 0.1010031 0
-1.3554119 1.2930539 0.16285141 0
-1.3538808 1.2904775 0.22458403 0
-1.2475537 1.1115644 0.27195904 0
-1.2415475 1.1014581 0.32812327 0
-1.2405837 1.0998363 0.38513783 0
-1.24248 1.1030271 0.44316262 0
-1.2379727 1.0954428 0.49968109 0
-1.242995 1.1038938 0.55973595 0
-0.47816607 -0.2275041 -0.090323217 0
-0.53902483 -0.13074431 -0.090064652 0
-0.6042496 -0.027043071 -0.085857384 0
-0.60970759 -0.01836535 -0.060224254 0
-0.61892438 -0.0037114883 -0.035107676 0
-0.61084855 -0.016551282 -0.006291924 0
-0.61015826 -0.017648842 0.020724425 0
-0.60917687 -0.019209173 0.047618162 0
-0.61714357 -0.0065428284 0.07397718 0
-0.61152267 -0.015479531 0.10100324 0
-1.2456287 0.99268979 0.26479244 0
-1.238521 0.98138934 0.31840783 0
-1.2421417 0.98714584 0.37399018 0
-1.2456915 0.9927898 0.43017474 0
-1.2361934 0.97768873 0.48301047 0
-1.2402332 0.98411149 0.54020923 0
-0.4965786 -0.24082199 -0.090071492 0
-0.56367856 -0.13988331 -0.091141008 0
-0.63703805 -0.029528346 -0.088440992 0
-0.64224708 -0.021692421 -0.062315125 0
-0.64017946 -0.02480277 -0.034386758 0
-0.6353392 -0.032084014 -0.0063158926 0
-0.63977093 -0.025417235 0.020056175 0
-0.63156813 -0.037756767 0.047777154 0
-0.6353153 -0.032119956 0.074247114 0
-0.64036 -0.024531152 0.10100347 0
-1.250952 0.89398462 0.25919521 0
-1.2368115 0.87271291 0.30979735 0
-1.238052 0.87457901 0.36267695 0
-1.2430993 0.88217169 0.41691664 0
-1.2343079 0.86894673 0.46782854 0
-1.2443349 0.8840304 0.52479404 0
-0.51677954 -0.25151262 -0.090617187 0
-0.58568293 -0.15332791 -0.091387801 0
-0.67155778 -0.030959453 -0.091447167 0
-0.6640029 -0.041724827 -0.061715025 0
-0.66649699 -0.038170841 -0.034831662 0
-0.65848488 -0.049587872 -0.0061854105 0
-0.66094059 -0.046088543 0.02041469 0
-0.6629743 -0.043190565 0.04716127 0
-0.66444904 -0.041089084 0.074037209 0
-0.66673756 -0.037827995 0.10100358 0
-1.3059878 0.87307972 0.26015955 0
-1.248024 0.79048342 0.30404592 0
-1.2380159 0.77622229 0.3531771 0
-1.2410991 0.78061575 0.40496725 0
-1.2419302 0.78180009 0.45670363 0
-1.241955 0.7818355 0.50864071 0
-0.53288078 -0.26798448 -0.089777939 0
-0.60269415 -0.17365757 -0.090154879 0
-0.69078308 -0.054637875 -0.090137593 0
-0.69273472 -0.052000966 -0.062904544 0
-0.68741095 -0.059194114 -0.034267563 0
-0.69056135 -0.054937448 -0.0075311046 0
-0.69099224 -0.05435523 0.019655036 0
-0.69297081 -0.051681962 0.046665378 0
-0.6899606 -0.055749144 0.073966891 0
-0.68834758 -0.057928529 0.10100348 0
-1.3490653 0.83478743 0.2597484 0
-1.2566043 0.70986062 0.29840544 0
-1.24303 0.69151992 0.34548455 0
-1.2396761 0.68698841 0.39417079 0
-1.23777 0.68441302 0.44331357 0
-1.2387264 0.68570524 0.49359077 0
-0.54867798 -0.28454581 -0.089006431 0
-0.63128221 -0.1786333 -0.092666544 0
-0.70720464 -0.08128801 -0.088282831 0
-0.7195276 -0.065487891 -0.063673474 0
-0.72493601 -0.058553364 -0.036980737 0
-0.72456962 -0.059023168 -0.009148052 0
-0.72065753 -0.064039141 0.018939318 0
-0.7173577 -0.068270057 0.04659339 0
-0.71528137 -0.070932239 0.073891789 0
-0.71069628 -0.076811105 0.10100343 0
-1.3892752 0.7932412 0.2591359 0
-1.2462277 0.60983032 0.29037961 0
-1.2344209 0.59469193 0.33585972 0
-1.234013 0.59416896 0.38329768 0
-1.2412137 0.60340148 0.43305025 0
-1.2327548 0.59255582 0.47893491 0
-0.56833231 -0.29614511 -0.089692272 0
-0.64060056 -0.20815644 -0.089421757 0
-0.73535067 -0.092795402 -0.089697085 0
