# .PCD v0.7 - Point Cloud Data file format
VERSION 0.7
FIELDS x y z intensity
SIZE 4 4 4 4
TYPE F F F F
COUNT 1 1 1 1
WIDTH 1314
HEIGHT 1
VIEWPOINT 0 0 0 1 0 0 0
POINTS 1314
DATA ascii
1.0990092 -0.16583988 0.069059178 0
1.102985 -0.16285822 0.10100972 0
1.1058036 -0.1607444 0.13315797 0
1.0974058 -0.16704223 0.16485175 0
1.0969111 -0.16741326 0.1968163 0
0.7132597 -0.4264963 -0.091992103 0
0.80025327 -0.35776028 -0.090896286 0
0.92591733 -0.25846973 -0.092770599 0
1.0582088 -0.15394267 -0.088389508 0
1.0980878 -0.12243322 -0.062447686 0
1.1087389 -0.11401752 -0.030809781 0
1.1026005 -0.11886761 0.0028174764 0
1.1002436 -0.12072989 0.03574745 0
1.092785 -0.12662306 0.068617597 0
1.099982 -0.12093654 0.10101038 0
1.0975354 -0.12286964 0.1335438 0
1.104293 -0.11753026 0.16651408 0
1.0991142 -0.12162223 0.198893 0
0.69410181 -0.41264001 -0.0906839 0
0.786529 -0.33574453 -0.091500066 0
0.89481145 -0.24565819 -0.090125553 0
1.0250034 -0.13734403 -0.086233787 0
1.0961376 -0.078163475 -0.065529503 0
1.096365 -0.077974349 -0.032031599 0
1.0960928 -0.078200787 0.0013801923 0
1.0999316 -0.075007051 0.034418005 0
1.1019751 -0.073306948 0.067670822 0
1.0983775 -0.076299995 0.10101115 0
1.1087197 -0.067695767 0.13455628 0
1.095138 -0.078995138 0.16731393 0
1.1016591 -0.073569924 0.20114894 0
0.68073493 -0.39410654 -0.09108036 0
0.76996255 -0.31598058 -0.091543444 0
0.87785828 -0.22150907 -0.090582974 0
1.000412 -0.1142033 -0.085716389 0
1.1004354 -0.026624706 -0.069822408 0
1.1020516 -0.025209572 -0.035633016 0
1.1014504 -0.025736 -0.0012860501 0
1.096596 -0.029986467 0.033175331 0
1.101141 -0.026006963 0.066971555 0
1.095754 -0.030723598 0.10101194 0
1.1010891 -0.026052382 0.13505118 0
1.0991561 -0.027744856 0.16900741 0
1.0952722 -0.03114548 0.20273623 0
1.1015059 -0.025687482 0.23759036 0
1.0894734 -0.036222842 0.37355831 0
0.66685337 -0.37589964 -0.091471083 0
0.74753267 -0.30157968 -0.090212651 0
0.85527402 -0.2023308 -0.089927547 0
0.96630096 -0.10005531 -0.08347825 0
1.0668261 -0.0074538854 -0.068397008 0
1.0995342 0.022676025 -0.038445 0
1.1083843 0.030828509 -0.0042892303 0
1.0987415 0.021945868 0.031485405 0
1.0968673 0.02021936 0.066327266 0
1.0997885 0.02291039 0.10101305 0
1.1061363 0.028757725 0.13599238 0
1.0955056 0.018965039 0.17033572 0
1.1035087 0.026337299 0.20585261 0
1.1038469 0.026648793 0.2410195 0
1.0371028 -0.034834351 0.36639151 0
0.64398789 -0.36624822 -0.089346863 0
0.73595238 -0.27713981 -0.091788597 0
0.83817202 -0.17809471 -0.090619989 0
0.84574836 -0.17075369 -0.064338572 0
0.84084135 -0.17550829 -0.035707477 0
0.83688682 -0.17934003 -0.0076728147 0
0.84150356 -0.17486665 0.019150117 0
0.83397949 -0.18215701 0.046971712 0
0.84393007 -0.17251548 0.073680088 0
0.83783537 -0.17842093 0.10100366 0
0.84303093 -0.17338672 0.12829858 0
0.84087425 -0.1754764 0.15548295 0
0.84278673 -0.17362329 0.18298285 0
1.0939633 0.069752485 0.24311337 0
1.0062281 -0.015257861 0.29776421 0
1.0036547 -0.017751303 0.33051288 0
0.99058902 -0.03041121 0.36059311 0
0.63031787 -0.34792492 -0.090031154 0
0.71177328 -0.26491329 -0.090181284 0
0.81639642 -0.15829131 -0.090375535 0
0.83902055 -0.13523498 -0.067186572 0
0.83702838 -0.13726518 -0.03854211 0
0.84484792 -0.12929627 -0.01149275 0
0.83394444 -0.14040801 0.017826835 0
0.84697974 -0.12712368 0.044736307 0
0.8367812 -0.13751706 0.073224381 0
0.83765662 -0.1366249 0.1010045 0
0.84106374 -0.13315269 0.12892711 0
0.83914948 -0.13510355 0.1567525 0
0.84059471 -0.13363072 0.18484655 0
0.8377583 -0.13652131 0.21255752 0
1.0978388 0.12852791 0.28409499 0
0.95023102 -0.021899786 0.29152107 0
0.94070655 -0.031606223 0.32156545 0
0.9512617 -0.020849433 0.35660672 0
0.61693752 -0.32903191 -0.090966694 0
0.69367278 -0.24677822 -0.090292446 0
0.80015057 -0.13264307 -0.091575526 0
0.83969605 -0.090253681 -0.071820103 0
0.83748829 -0.092620224 -0.04234967 0
0.84102654 -0.088827521 -0.013975671 0
0.8359611 -0.094257206 0.015397975 0
0.84063464 -0.089247555 0.043666363 0
0.83642513 -0.093759865 0.072494946 0
0.84369117 -0.085971266 0.10100567 0
0.84388351 -0.085765034 0.12977065 0
0.83748424 -0.092624515 0.1581296 0
0.84485513 -0.084723562 0.18752529 0
0.83486229 -0.095435053 0.21514341 0
1.1063542 0.19558123 0.29044908 0
0.94016409 0.017439637 0.29453912 0
0.93692911 0.013971839 0.3265509 0
0.93236011 0.0090743639 0.35821855 0
0.60099483 -0.31267187 -0.091258995 0
0.67324352 -0.23119971 -0.089873902 0
0.77507931 -0.11636338 -0.090782188 0
0.85273355 -0.028795626 -0.079442836 0
0.83622062 -0.047416653 -0.046158481 0
0.84659004 -0.035723414 -0.017992226 0
0.83857244 -0.044764604 0.012715356 0
0.8333708 -0.050630298 0.042563871 0
0.83817875 -0.04520854 0.07163237 0
0.84212011 -0.040764 0.10100659 0
0.83948869 -0.043731418 0.13042653 0
0.84282446 -0.039969709 0.16011286 0
0.83306056 -0.050980177 0.18871662 0
0.83765936 -0.045794275 0.21874925 0
1.1051141 0.25580421 0.29556125 0
1.0991095 0.24903312 0.33366546 0
0.58349651 -0.29802766 -0.091181315 0
0.6549567 -0.2132276 -0.090182148 0
0.73126405 -0.12267557 -0.085287459 0
0.85212439 0.020746384 -0.084654294 0
0.83809578 0.0040989849 -0.050856922 0
0.83931208 0.0055423114 -0.02046199 0
0.84072745 0.0072219106 0.009867223 0
0.83355653 -0.001287606 0.040820297 0
0.84208632 0.0088344552 0.070622317 0
0.83633846 0.002013657 0.10100741 0
0.8453902 0.01275507 0.13151255 0
0.83422571 -0.00049349328 0.16124284 0
0.84424418 0.01139513 0.19253018 0
0.84110367 0.007668409 0.22273739 0
0.84235352 0.0091515519 0.25364551 0
1.1068208 0.32298818 0.34224093 0
0.5713979 -0.27664366 -0.093061723 0
0.63424665 -0.19812468 -0.089904554 0
0.72801006 -0.080983013 -0.090243556 0
0.85615617 0.07911399 -0.091353141 0
0.85555142 0.078358561 -0.058859158 0
0.84279525 0.062421832 -0.024771383 0
0.84428352 0.064281136 0.0066266526 0
0.8427161 0.062322889 0.038261022 0
0.84016216 0.059132252 0.069746941 0
0.83899456 0.057673488 0.10100868 0
0.84250009 0.062053118 0.13235778 0
0.84089017 0.060041819 0.16362065 0
0.84058172 0.059656415 0.1949771 0
0.84263051 0.062215958 0.22676516 0
0.84860176 0.069676071 0.25957868 0
1.1002406 0.38405648 0.34828895 0
1.0990562 0.38257697 0.38987431 0
0.54778248 -0.26965472 -0.091145851 0
0.61744183 -0.17797813 -0.090950213 0
0.69787896 -0.072117299 -0.088346832 0
0.73063928 -0.029002454 -0.068522088 0
0.73193645 -0.027295258 -0.040235776 0
0.73092437 -0.028627183 -0.011647141 0
0.72733557 -0.033350315 0.017037557 0
0.73059851 -0.029056098 0.044826079 0
0.72897708 -0.031190004 0.072992966 0
0.73108447 -0.028416481 0.10100485 0
0.72509611 -0.036297645 0.12886706 0
0.73019552 -0.02958646 0.15715268 0
0.72655815 -0.034373429 0.18488222 0
0.72546101 -0.035817411 0.21281402 0
0.73088753 -0.028675701 0.24204378 0
0.72699887 -0.033793475 0.26968712 0
0.73457497 -0.023822751 0.30032736 0
0.72309327 -0.038933542 0.32585329 0
0.53214753 -0.25234649 -0.092126049 0
0.60098165 -0.15684649 -0.092305161 0
0.68372929 -0.042043116 -0.090936504 0
0.72208977 0.01117805 -0.072346427 0
0.9532609 0.33190313 -0.089371957 0
0.85215241 0.19162598 -0.034905452 0
0.84510636 0.18185022 4.5435732e-05 0
0.83769244 0.17156425 0.034351919 0
0.83941007 0.17394724 0.067631327 0
0.83953869 0.17412582 0.10101134 0
0.84134871 0.17663696 0.13446866 0
0.84248781 0.17821732 0.16805303 0
0.84492254 0.18159524 0.2019562 0
0.8361367 0.16940585 0.23437189 0
0.83845586 0.17262343 0.2684485 0
0.83881837 0.17312637 0.30242583 0
1.099889 0.53533381 0.40996051 0
0.51119781 -0.24238023 -0.091301985 0
0.57104439 -0.1547713 -0.08938577 0
0.65696937 -0.02898642 -0.090166561 0
0.76547772 0.12985805 -0.089502715 0
0.92965013 0.37018874 -0.091449626 0
1.1516955 0.69523889 -0.089448594 0
0.85041887 0.25420263 -0.0043085646 0
0.83883083 0.23723903 0.031818587 0
0.84265614 0.24283889 0.066276744 0
0.83622658 0.23342672 0.10101267 0
0.83727175 0.23495677 0.13552681 0
0.84395152 0.24473527 0.17063035 0
0.83965468 0.23844507 0.20500058 0
0.84188384 0.24170831 0.24020827 0
0.84286636 0.24314669 0.27549535 0
0.84768522 0.2502009 0.31201258 0
1.097484 0.61587936 0.42057383 0
1.104332 0.62590402 0.46951604 0
0.48916429 -0.23442325 -0.090117626 0
0.55273187 -0.13613108 -0.090400197 0
0.63546997 -0.0081964396 -0.091055997 0
0.74098843 0.15496257 -0.090535633 0
0.8866564 0.38020328 -0.089642443 0
1.1105765 0.72644204 -0.089749344 0
1.4847002 1.304935 -0.090036206 0
0.85098475 0.32504562 0.028100805 0
0.84067953 0.30911103 0.065018892 0
0.83950967 0.30730215 0.10101448 0
0.84271324 0.31225577 0.13709752 0
0.84190387 0.31100419 0.17315011 0
0.83408332 0.2989116 0.20830823 0
0.84212691 0.31134906 0.24563792 0
0.83321911 0.29757527 0.28017136 0
0.83976316 0.30769411 0.31812796 0
0.83910042 0.30666927 0.35471484 0
1.097162 0.70569974 0.48128939 0
0.47270685 -0.21785858 -0.091235705 0
0.53399318 -0.11763576 -0.091469966 0
0.60863638 0.0044296714 -0.09046448 0
0.7089904 0.16854063 -0.08975663 0
0.85287547 0.40383878 -0.089878745 0
1.0703188 0.75942808 -0.090355016 0
1.4262902 1.3415551 -0.090029217 0
0.85137272 0.40138128 0.025082732 0
0.84908116 0.39763382 0.063172512 0
0.84664291 0.39364651 0.10101668 0
0.83988565 0.38259628 0.13845032 0
0.84159851 0.38539734 0.17607804 0
0.83877105 0.38077357 0.2133316 0
0.84011227 0.38296679 0.25120026 0
0.83969492 0.38228431 0.28895977 0
0.83470547 0.37412503 0.32565591 0
0.83513713 0.37483087 0.36385471 0
1.1021187 0.81143123 0.4986507 0
0.45381939 -0.20494315 -0.09154465 0
0.5103159 -0.10708854 -0.090899311 0
0.57639986 0.0073720547 -0.088173278 0
0.67798388 0.18332031 -0.089315958 0
0.81540161 0.4213343 -0.089398943 0
1.0282278 0.78995937 -0.090797715 0
1.3648742 1.3730469 -0.089728244 0
1.3714898 1.3845053 -0.026637157 0
0.85060358 0.48230579 0.061461937 0
0.84048271 0.46477607 0.10101833 0
0.83931649 0.46275607 0.14004979 0
0.84000725 0.46395245 0.17918809 0
0.83967167 0.46337131 0.21833217 0
0.84571761 0.47384313 0.25876471 0
0.83951724 0.4631038 0.29707375 0
0.84285796 0.4688901 0.33769578 0
0.83773148 0.46001068 0.37611246 0
0.84388304 0.4706656 0.41859499 0
0.43600959 -0.18986353 -0.09248931 0
0.48664662 -0.09681204 -0.090407439 0
0.55517793 0.029122267 -0.089585774 0
0.65199894 0.20704237 -0.09043812 0
0.78139687 0.44482639 -0.089850314 0
0.98555624 0.81999344 -0.09129522 0
1.2908309 1.3809714 -0.087679915 0
1.2907002 1.3807313 -0.024644425 0
1.2899067 1.3792732 0.038274121 0
0.85145766 0.57357138 0.10102119 0
0.83159018 0.53706259 0.1414725 0
0.83732343 0.54759806 0.18252802 0
0.83766681 0.54822904 0.22344281 0
0.84330642 0.5585925 0.26555946 0
0.84128237 0.55487305 0.30653542 0
0.84023589 0.55294997 0.3478249 0
0.83864266 0.5500223 0.38909522 0
0.84359509 0.55912286 0.43310696 0
0.4121694 -0.18603995 -0.090842031 0
0.46658102 -0.079749197 -0.091485091 0
0.52763623 0.039519582 -0.088983573 0
0.61805987 0.21615842 -0.089344166 0
0.74790412 0.4698036 -0.090604357 0
0.94005173 0.84515589 -0.091389246 0
1.2434443 1.4378204 -0.089647986 0
1.2487984 1.4482794 -0.026514759 0
1.2393312 1.4297857 0.037784483 0
1.2417842 1.4345775 0.10104813 0
0.85035628 0.66993958 0.14441574 0
0.83999401 0.64969736 0.18679501 0
0.83815938 0.64611346 0.22951584 0
0.83755285 0.64492875 0.27244002 0
0.84331864 0.65619189 0.31712434 0
0.84392738 0.657381 0.36105216 0
0.84249353 0.65458006 0.40459388 0
0.84064555 0.65097016 0.44815192 0
0.39105079 -0.17742118 -0.090488203 0
0.44010213 -0.075330049 -0.090014197 0
0.5055601 0.06090847 -0.090520345 0
0.58835888 0.23323861 -0.089639522 0
0.71458495 0.49595454 -0.091611795 0
0.88631696 0.85338241 -0.089847989 0
1.1794074 1.4633949 -0.089260079 0
1.7839986 2.7217383 -0.090702109 0
4.5027008 8.380208 -0.14071468 0
0.85587049 0.79001385 0.19298345 0
0.83942652 0.75578886 0.23643002 0
0.83917272 0.75526065 0.28173923 0
0.84047323 0.75796741 0.32763827 0
0.84156293 0.76023549 0.37385958 0
0.83853936 0.75394231 0.41894042 0
0.83830023 0.75344461 0.46525279 0
0.37514889 -0.15737322 -0.092927165 0
0.41688654 -0.064576119 -0.090007029 0
0.47679457 0.068620116 -0.089676015 0
0.55817181 0.24954966 -0.089929216 0
0.67790896 0.51576668 -0.091903962 0
0.8423394 0.88135213 -0.090484418 0
1.1178184 1.4938366 -0.089374252 0
1.6909318 2.7680652 -0.090830781 0
4.2667732 8.4950476 -0.14082277 0
1.0669787 1.3808026 0.22210492 0
0.84877241 0.89565486 0.24557991 0
0.83868462 0.87322634 0.29171118 0
0.842691 0.8821339 0.34091371 0
0.84316325 0.8831839 0.38962951 0
0.8398149 0.87573928 0.43718767 0
0.83703083 0.86954945 0.48498896 0
0.35190973 -0.15327135 -0.091757454 0
0.39117354 -0.059734549 -0.088912554 0
0.45365325 0.089108616 -0.091248102 0
0.52474064 0.25845757 -0.089204274 0
0.63139945 0.51254708 -0.089391701 0
0.79487002 0.90197712 -0.090483613 0
1.0628104 1.5402818 -0.090819098 0
1.595826 2.8100657 -0.090858929 0
4.0202479 8.58568 -0.14047028 0
1.0001355 1.3909738 0.22129758 0
0.84888524 1.0306556 0.25424629 0
0.84400135 1.0190208 0.30439824 0
0.83781743 1.004289 0.35378721 0
0.83631998 1.0007218 0.40440226 0
0.83856148 1.0060617 0.45675719 0
0.84263903 1.0157754 0.51067883 0
0.32629135 -0.15598705 -0.089178033 0
0.37049481 -0.042759147 -0.090414084 0
0.42049038 0.085305363 -0.088622548 0
0.49111828 0.26621988 -0.088441573 0
0.59716809 0.53786832 -0.090632923 0
0.75110513 0.9321807 -0.091563262 0
1.0004112 1.5707819 -0.091157906 0
1.4975975 2.8443332 -0.090620898 0
3.7844675 8.7021894 -0.14092325 0
0.92683238 1.382309 0.21964048 0
0.85039848 1.186522 0.26439479 0
0.83954579 1.1587229 0.31633663 0
0.83899581 1.1573141 0.37042508 0
0.84104866 1.1625724 0.42574444 0
0.83875817 1.1567054 0.47972721 0
0.84079868 1.161932 0.53607422 0
0.30462793 -0.14952317 -0.088843755 0
0.34549856 -0.036493447 -0.089862041 0
0.39874926 0.11077395 -0.091283523 0
0.43984675 0.22443119 -0.080408297 0
0.43293616 0.20531955 -0.047494981 0
0.43537572 0.21206632 -0.018270461 0
0.93159759 1.5843921 -0.090355657 0
1.3998851 2.8794641 -0.090551116 0
3.5374048 8.7908802 -0.14083213 0
0.85952908 1.3850832 0.21865755 0
0.85026652 1.359467 0.27571896 0
0.84125477 1.3345447 0.33176517 0
0.84102273 1.3339031 0.38983816 0
0.84050691 1.3324764 0.44807899 0
0.84049046 1.3324311 0.50687289 0
0.8431595 1.3398123 0.56760424 0
0.28752685 -0.12957683 -0.091656186 0
0.32061583 -0.030303206 -0.089425422 0
0.36659986 0.10765806 -0.089065708 0
0.40630785 0.2267901 -0.079174645 0
0.40386173 0.21945122 -0.047940109 0
0.40469393 0.22194806 -0.01820196 0
0.87209505 1.6242454 -0.091622554 0
1.3032308 2.9177392 -0.09075775 0
3.2886488 8.8743935 -0.14076839 0
0.790447 1.3792849 0.21734546 0
0.84593844 1.5457702 0.2879338 0
0.83822757 1.5226362 0.34826827 0
0.83869672 1.5240438 0.4107528 0
0.8387503 1.5242045 0.47346291 0
0.84262884 1.5358407 0.53858149 0
0.83920646 1.525573 0.60042357 0
0.26577133 -0.12253156 -0.09167596 0
0.29556406 -0.025010969 -0.088939495 0
0.34032044 0.12149015 -0.089917429 0
0.37927493 0.24899986 -0.080992378 0
0.38450187 0.26610926 -0.052446757 0
0.38070241 0.25367251 -0.0203417 0
0.72533554 1.3817606 -0.072351299 0
0.72690094 1.3868847 -0.014698824 0
0.72742397 1.3885968 0.043160953 0
0.72318816 1.3747315 0.10104097 0
0.72694182 1.3870187 0.15888342 0
0.72694534 1.3870299 0.21678887 0
0.84328038 1.7678297 0.30267879 0
0.83458048 1.7393522 0.36744767 0
0.83549476 1.7423451 0.43495718 0
0.83305532 1.73436 0.50136751 0
0.83284873 1.7336838 0.56908047 0
0.24253061 -0.12075469 -0.090654813 0
0.27324569 -0.010315862 -0.090419285 0
0.30913326 0.11872116 -0.0880448 0
0.36609295 0.32352486 -0.090528421 0
0.44053453 0.59118623 -0.090756185 0
0.55293071 0.9953168 -0.091304578 0
0.66198248 1.3874223 -0.071490712 0
0.66010976 1.3806887 -0.01355092 0
0.66168946 1.3863685 0.043638788 0
0.66069776 1.3828027 0.10104068 0
0.65869486 1.3756013 0.15818238 0
0.6621685 1.3880911 0.21599062 0
0.81231958 1.9279728 0.31282911 0
0.81270736 1.9293671 0.38391349 0
0.81109786 1.9235802 0.45450357 0
0.81377774 1.9332159 0.52744925 0
0.81398779 1.9339709 0.59982562 0
0.21864514 -0.1224809 -0.08900138 0
0.24721117 -0.0087248944 -0.089454688 0
0.28503111 0.14188209 -0.090711765 0
0.33191189 0.32857135 -0.089985363 0
0.39672568 0.58667356 -0.08893659 0
0.49866378 0.99261254 -0.089764871 0
0.59817529 1.3888884 -0.070448793 0
0.59623861 1.3811762 -0.01281227 0
0.5949797 1.376163 0.044264942 0
0.59716165 1.3848519 0.10104028 0
0.59806561 1.3884516 0.1581105 0
0.59760785 1.3866286 0.21515496 0
0.77212858 2.0816071 0.32250237 0
0.76962638 2.0716429 0.39573154 0
0.76951528 2.0712004 0.46994841 0
0.76906461 2.0694056 0.54435313 0
0.19972795 -0.10379836 -0.091935046 0
0.22458065 0.0069261524 -0.091336884 0
0.25624031 0.14797738 -0.090591885 0
0.29866529 0.33699051 -0.090055771 0
0.35537195 0.58963186 -0.088154994 0
0.44912013 1.0073018 -0.090029202 0
0.55287129 1.4695375 -0.075201847 0
0.55019152 1.4575984 -0.015778003 0
0.55163449 1.4640272 0.04251042 0
0.55173469 1.4644737 0.10104219 0
0.54984176 1.4560401 0.15938322 0
0.55164111 1.4640565 0.21817081 0
0.71199971 2.1784914 0.32812461 0
0.71193957 2.1782236 0.40417051 0
0.71407032 2.1877167 0.48170471 0
0.7140035 2.1874189 0.55870563 0
0.17555122 -0.10800871 -0.089997135 0
0.20058386 0.01835886 -0.092509709 0
0.22638845 0.14862326 -0.089681678 0
0.26808104 0.35909215 -0.092206605 0
0.32086918 0.62557238 -0.09143164 0
0.3988584 1.0192704 -0.090152629 0
0.41568694 1.1042228 -0.048230026 0
0.41676891 1.1096847 0.0013544208 0
0.41670194 1.1093466 0.051227942 0
0.41467521 1.0991154 0.10103118 0
0.41403911 1.0959044 0.15051568 0
0.41564253 1.1039987 0.20043862 0
0.41588467 1.105221 0.25036445 0
0.41349599 1.0931625 0.29924682 0
0.41582876 1.1049387 0.35060978 0
0.40618393 1.0562506 0.39414757 0
0.29746592 0.50743026 0.35182825 0
0.2706593 0.37210742 0.36245614 0
0.1531996 -0.10423562 -0.089921393 0
0.17358392 0.014281306 -0.090829186 0
0.19630963 0.14641133 -0.08842475 0
0.23154059 0.35124841 -0.090188287 0
0.27919763 0.62833244 -0.090862744 0
0.34855229 1.0315688 -0.090427168 0
0.36962032 1.1540608 -0.051070366 0
0.88140357 4.1296315 -0.14083849 0
1.7621073 9.2501497 -0.14059687 0
0.58156145 2.3863122 0.26062399 0
0.58142364 2.3855112 0.34056172 0
0.58034539 2.3792422 0.42020416 0
0.26192695 0.52791852 0.28098461 0
0.27332819 0.59420663 0.32686803 0
0.27099264 0.58062762 0.36287084 0
0.23631515 0.37900832 0.36255744 0
0.13120244 -0.098061234 -0.090483226 0
0.14933157 0.026007328 -0.092293076 0
0.1683377 0.15607801 -0.089271791 0
0.19908264 0.36648431 -0.091586582 0
0.23936622 0.64216954 -0.091728784 0
0.29594356 1.0293629 -0.089452498 0
0.39436015 1.7028878 -0.089237042 0
0.75214374 4.1514196 -0.14089513 0
1.5048863 9.3028955 -0.14086875 0
0.50676775 2.4721618 0.26402864 0
0.50427979 2.4551349 0.34452519 0
0.5060004 2.4669099 0.42720053 0
0.22230232 0.52539092 0.27996492 0
0.27631965 0.89506453 0.36871094 0
0.20126198 0.38139895 0.36196494 0
0.11013093 -0.082965344 -0.093072496 0
0.1208951 0.0064096781 -0.087926336 0
0.13788626 0.14748695 -0.087210976 0
0.16363642 0.36129037 -0.090204932 0
0.1975607 0.64296347 -0.091175325 0
0.24674162 1.0513122 -0.090876795 0
0.32724926 1.7197666 -0.089786999 0
0.62131989 4.1614327 -0.14055268 0
1.2432621 9.3254137 -0.14058422 0
0.42628562 2.5420647 0.26676309 0
0.42331091 2.5173657 0.34809309 0
0.42394111 2.5225983 0.43134409 0
0.42494014 2.5308933 0.5155645 0
0.22981676 0.91078538 0.3700383 0
0.16641694 0.38437703 0.36165392 0
0.086546123 -0.087690979 -0.091537036 0
0.097710617 0.029940162 -0.091865771 0
0.11100812 0.17004529 -0.09042459 0
0.13026078 0.37289479 -0.091324411 0
0.15571162 0.64104956 -0.090429343 0
0.19415966 1.0461452 -0.089871846 0
0.25965405 1.7362068 -0.090423949 0
0.49113172 4.1750994 -0.14053652 0
0.98324364 9.3600826 -0.14073855 0
0.3422007 2.6059337 0.26930371 0
0.33972406 2.5798395 0.35181338 0
0.34072217 2.5903556 0.43680462 0
0.34051257 2.5881472 0.52116454 0
0.34083259 2.5915191 0.60666943 0
0.17288248 0.82196504 0.40009743 0
0.13040249 0.37438789 0.35905614 0
0.063083038 -0.095711201 -0.089429252 0
0.071809381 0.02983788 -0.091446884 0
0.080910422 0.16077784 -0.088501208 0
0.0955633 0.37159386 -0.090742715 0
0.11491776 0.65005344 -0.091087602 0
0.14274098 1.0503557 -0.089870371 0
0.19068597 1.7401574 -0.090304233 0
0.36075392 4.1869855 -0.1405908 0
0.72264284 9.39361 -0.14101912 0
0.253411 2.6426048 0.27066836 0
0.25312066 2.6384277 0.35540274 0
0.13287261 0.90837616 0.27863631 0
0.13350767 0.91751295 0.32447332 0
0.13441926 0.93062824 0.3715488 0
0.12485374 0.79300588 0.39470497 0
0.096639417 0.38707641 0.36091781 0
0.041193929 -0.079117328 -0.092687018 0
0.046055425 0.030898724 -0.091371112 0
0.051739004 0.15951875 -0.088022508 0
0.061219532 0.37406388 -0.090815388 0
0.073597595 0.65418071 -0.09129516 0
0.091098927 1.0502374 -0.089585789 0
0.1222216 1.7545464 -0.091036998 0
0.22988592 4.191 -0.14043164 0
0.46034661 9.4063463 -0.14096871 0
0.16293122 2.6758087 0.27197433 0
0.16286311 2.6742673 0.35754809 0
0.086580783 0.94799155 0.28208527 0
0.085792795 0.93015927 0.32563317 0
0.086843468 0.95393592 0.37444109 0
0.076891772 0.72872823 0.38370577 0
0.06154947 0.38153043 0.35949931 0
0.017981045 -0.090832263 -0.090042286 0
0.020217877 0.0273383 -0.090547301 0
0.023059441 0.17745677 -0.090820737 0
0.02682253 0.37625876 -0.090971239 0
0.031928681 0.64601392 -0.090187483 0
0.039280407 1.0344017 -0.087955736 0
0.052757882 1.7464097 -0.09031523 0
0.099195637 4.1996918 -0.14064424 0
0.19759765 9.3982182 -0.14058711 0
0.070890337 2.7043378 0.27316827 0
0.070817724 2.7005019 0.35917974 0
0.071061529 2.7133818 0.44685447 0
0.070877768 2.7036741 0.53287065 0
0.032399032 0.6708625 0.37396532 0
0.027149204 0.39351669 0.36155227 0
-0.0046561197 -0.096599191 -0.088786013 0
-0.0054429797 0.028157268 -0.09067104 0
-0.0063778241 0.17637649 -0.090612672 0
-0.007666612 0.38071337 -0.091566734 0
-0.0093101282 0.64129251 -0.089605235 0
-0.011875811 1.0480807 -0.089202486 0
-0.016388176 1.7635148 -0.09148062 0
-0.031749062 4.1989794 -0.14057258 0
-0.064606905 9.4085798 -0.14078957 0
-0.022504335 2.7332301 0.27448761 0
-0.022463271 2.7267194 0.36097303 0
-0.022388613 2.7148824 0.44693956 0
-0.022458216 2.7259181 0.53540295 0
-0.0093760611 0.65174609 0.37077889 0
-0.0076139681 0.3723667 0.35752583 0
-0.027795263 -0.077456743 -0.092947654 0
-0.031424101 0.037557516 -0.092534028 0
-0.035627387 0.17077866 -0.089783706 0
-0.042001046 0.37278858 -0.090544455 0
-0.051034898 0.65911216 -0.091779955 0
-0.063844174 1.0650959 -0.090882324 0
-0.085674986 1.7570126 -0.091117762 0
-0.11891782 2.8106277 -0.076021604 0
-0.11871164 2.8040934 0.012728596 0
-0.11884876 2.8084393 0.10107887 0
-0.11872604 2.8045495 0.18943965 0
-0.11703318 2.7508955 0.27539432 0
-0.11617647 2.7237422 0.36088884 0
-0.11629035 2.7273514 0.44826999 0
-0.11654179 2.7353208 0.53671056 0
-0.05111536 0.66166228 0.37253889 0
-0.042340089 0.38353434 0.35975352 0
-0.050399661 -0.085386664 -0.091475673 0
-0.05662588 0.024161492 -0.090222679 0
-0.064818561 0.16830865 -0.089589931 0
-0.076512709 0.37406316 -0.090937518 0
-0.092140861 0.64903492 -0.090815328 0
-0.11556392 1.0611553 -0.090727963 0
-0.15505074 1.7559118 -0.091254987 0
-0.21386757 2.7907732 -0.07529325 0
-0.21361321 2.7862978 0.013044568 0
-0.21418141 2.7962949 0.10107864 0
-0.21452056 2.8022623 0.18948495 0
-0.21137558 2.7469275 0.27540365 0
-0.21060602 2.7333872 0.36185473 0
-0.21029967 2.7279971 0.44871786 0
-0.078110158 0.40216962 0.26393825 0
-0.076753303 0.37829629 0.29355392 0
-0.077247933 0.38699904 0.32761163 0
-0.076875359 0.38044372 0.35945898 0
-0.072436616 -0.096133441 -0.089521445 0
-0.082849309 0.030553374 -0.09176629 0
-0.094306506 0.16994813 -0.090194814 0
-0.11146701 0.37873283 -0.09193287 0
-0.13357317 0.64768928 -0.090994202 0
-0.1669791 1.0541251 -0.090406068 0
-0.22363953 1.7434883 -0.090720974 0
-0.42492655 4.1924624 -0.14107786 0
-0.85066777 9.3722744 -0.14075305 0
-0.30560544 2.7407329 0.27542016 0
-0.30483577 2.7313683 0.36217096 0
-0.30389225 2.7198892 0.44856849 0
-0.30502054 2.7336164 0.53776246 0
-0.11327689 0.40075281 0.29705986 0
-0.11347731 0.40319124 0.33068061 0
-0.1119216 0.38426366 0.36063489 0
-0.095354542 -0.094498485 -0.090327762 0
-0.10720041 0.015537295 -0.089383818 0
-0.12287401 0.16112867 -0.089195333 0
-0.14521426 0.36864629 -0.090969719 0
-0.17550635 0.65002829 -0.091729455 0
-0.21727552 1.0380201 -0.089353032 0
-0.2912243 1.7249269 -0.089875512 0
-0.55419946 4.1676917 -0.1404984 0
-1.1110172 9.3399477 -0.14057669 0
-0.39838672 2.7203538 0.27488306 0
-0.39814484 2.7181072 0.36186409 0
-0.39927885 2.728641 0.4502241 0
-0.39960515 2.731672 0.53858119 0
-0.14945509 0.40803912 0.29856041 0
-0.14908634 0.40461388 0.33146667 0
-0.14664173 0.38190594 0.36081076 0
-0.11905029 -0.088584691 -0.092178203 0
-0.13363482 0.020862971 -0.090975188 0
-0.1530806 0.16679123 -0.090713032 0
-0.17655586 0.342958 -0.087911956 0
-0.21427433 0.62601131 -0.089484237 0
-0.26994544 1.0437875 -0.090475418 0
-0.35834152 1.7071435 -0.089202203 0
-0.68530095 4.1607666 -0.14090814 0
-1.3726102 9.3185854 -0.14081085 0
-0.49196565 2.7099075 0.27492121 0
-0.48997229 2.6949487 0.36102355 0
-0.24158627 0.83096999 0.27248192 0
-0.24111579 0.82743937 0.31528077 0
-0.18356533 0.3955597 0.2973918 0
-0.18551815 0.41021433 0.33309719 0
-0.18190639 0.38311043 0.36183059 0
-0.14023247 -0.10136548 -0.090140857 0
-0.15880568 0.015425358 -0.090647213 0
-0.18137987 0.15737489 -0.089854114 0
-0.21319318 0.35742131 -0.090667851 0
-0.25773969 0.63753563 -0.091551624 0
-0.32010463 1.0296948 -0.089850701 0
-0.42707309 1.7023268 -0.08956375 0
-0.81399798 4.1353631 -0.14060415 0
-1.6317092 9.2772417 -0.14073068 0
-0.5805673 2.6675191 0.27356318 0
-0.57776594 2.649904 0.35879299 0
-0.27899387 0.77118486 0.26746154 0
-0.27924487 0.77276319 0.30959877 0
-0.27774084 0.7633056 0.35046956 0
-0.21837454 0.39000228 0.36410907 0
-0.16266266 -0.10482243 -0.090224855 0
-0.18486163 0.015164647 -0.091430746 0
-0.20909265 0.14613524 -0.088805519 0
-0.24712203 0.35168687 -0.090681858 0
-0.29530361 0.61211199 -0.089367248 0
-0.36996156 1.0156438 -0.089346923 0
-0.49589789 1.6963394 -0.089966826 0
-0.94552934 4.1266317 -0.14124155 0
-1.889639 9.2296171 -0.14065591 0
-0.66834587 2.6284337 0.27246112 0
-0.66850764 2.629308 0.35844892 0
-0.66814929 2.6273711 0.44449177 0
-0.66737872 2.6232061 0.53055274 0
-0.28881988 0.57706696 0.36286587 0
-0.2519668 0.37787321 0.36292961 0
-0.18717882 -0.098570675 -0.09254121 0
-0.20871469 0.0033807491 -0.090126447 0
-0.23715791 0.13803163 -0.088395335 0
-0.2789019 0.3356488 -0.089338653 0
-0.33623376 0.60705942 -0.089717574 0
-0.42408496 1.0229492 -0.090997629 0
-0.56355441 1.6832013 -0.089984946 0
-0.62028676 1.9517739 -0.038971353 0
-0.62078619 1.9541383 0.031024145 0
-0.61816519 1.9417305 0.10105592 0
-0.75583261 2.5934515 0.27165395 0
-0.75399828 2.5847676 0.35655415 0
-0.75221354 2.5763187 0.44133988 0
-0.75344402 2.5821438 0.52779812 0
-0.28823704 0.3798416 0.36462143 0
-0.20901276 -0.10604087 -0.092008241 0
-0.23691867 0.011337552 -0.092752345 0
-0.26968643 0.1491659 -0.091351904 0
-0.31201115 0.32719293 -0.08919815 0
-0.37470075 0.59087926 -0.088856958 0
-0.47205451 1.0003704 -0.089921765 0
-0.52436596 1.2204039 -0.057813901 0
-0.6193285 1.619837 -0.023882313 0
-0.61914241 1.6190543 0.03863484 0
-0.61824006 1.6152589 0.10104682 0
-0.83704174 2.5355868 0.26985109 0
-0.83444208 2.5246522 0.35368258 0
-0.83042985 2.5077758 0.43669301 0
-0.83494693 2.5267758 0.52356786 0
-0.83463442 2.5254612 0.60889292 0
-0.23434012 -0.09986946 -0.094591953 0
-0.25967309 -0.0041179326 -0.090972625 0
-0.29628202 0.13425365 -0.09003932 0
-0.34392259 0.31432179 -0.088535987 0
-0.41612118 0.58721238 -0.089620389 0
-0.51955789 0.97817451 -0.088992201 0
-0.58051801 1.2085869 -0.057968754 0
-0.6492371 1.4683259 -0.017379766 0
-0.64632535 1.4573202 0.042128347 0
-0.64492786 1.452038 0.10104249 0
-0.91427457 2.4700937 0.26776689 0
-0.91036958 2.4553342 0.35027224 0
-0.91013539 2.4544489 0.43367523 0
-0.91294217 2.4650578 0.51878923 0
-0.91109788 2.4580867 0.60232353 0
-0.2489021 -0.13283846 -0.088669159 0
-0.28541887 -0.007676926 -0.091626175 0
-0.32364616 0.12334755 -0.089517422 0
-0.34732616 0.20451096 -0.073795043 0
-0.45552498 0.5753637 -0.089520179 0
-0.56906813 0.9645341 -0.089003824 0
-0.71388042 1.4608796 -0.077461146 0
-0.71285802 1.4573755 -0.017682245 0
-0.71581018 1.467494 0.041467518 0
-0.71317029 1.4584458 0.10104319 0
-0.98592776 2.3933249 0.26521409 0
-0.98259139 2.3818896 0.34667513 0
-0.9827897 2.3825691 0.42902511 0
-0.98230761 2.3809168 0.51148301 0
-0.97863334 2.3683231 0.59270823 0
-0.2736643 -0.12929329 -0.090927847 0
-0.30561101 -0.029255833 -0.088850088 0
-0.35541224 0.12669101 -0.091568463 0
-0.37912005 0.20092919 -0.074619167 0
-0.39421877 0.24820915 -0.0508564 0
-0.39563134 0.25263241 -0.020718826 0
-0.39646307 0.25523689 0.0096372832 0
-0.39818668 0.26063421 0.039885338 0
-0.4007965 0.26880649 0.070263676 0
-0.39774126 0.25923946 0.10100781 0
-0.39676526 0.25618318 0.13144371 0
-0.39791048 0.25976935 0.16208822 0
-0.39634791 0.25487629 0.19235198 0
-0.39831808 0.26104572 0.22355957 0
-0.39390194 0.24721697 0.25275061 0
-0.39846799 0.26151505 0.28557444 0
-0.3948262 0.25011125 0.31487906 0
-0.39742661 0.25825408 0.34771538 0
-0.29316878 -0.14256093 -0.089563213 0
-0.32826716 -0.04152545 -0.088006951 0
-0.38057524 0.10905066 -0.090125598 0
-0.42899218 0.24842551 -0.083168454 0
-0.42779928 0.24499157 -0.051740725 0
-0.42916822 0.24893227 -0.021381056 0
-0.42920157 0.24902835 0.0093253125 0
-0.43151596 0.2556906 0.03961302 0
-0.43365079 0.26183596 0.070175879 0
-0.43137294 0.25527886 0.10100801 0
-0.42873037 0.24767187 0.13149109 0
-0.42786929 0.24519303 0.1618852 0
-0.4305816 0.25300089 0.19298494 0
-0.42910689 0.24875572 0.2233799 0
-0.43143663 0.2554622 0.25505325 0
-0.42925134 0.24917153 0.28529656 0
-0.42836639 0.24662414 0.3160789 0
-0.43163311 0.25602785 0.34935549 0
-0.31856799 -0.13926837 -0.092057429 0
-0.35746783 -0.035789754 -0.090893351 0
-0.40475395 0.08999756 -0.088531919 0
-0.47962895 0.28917471 -0.090974309 0
-0.48737445 0.30977884 -0.061229814 0
-0.50993985 0.36980572 -0.034555826 0
-0.51075882 0.37198427 -0.00069783418 0
-0.51071274 0.37186161 0.033272762 0
-0.50918847 0.36780694 0.067261383 0
-0.51247633 0.37655309 0.10101205 0
-1.1984537 2.2013423 0.18041736 0
-1.195793 2.1942647 0.25950071 0
-1.1636913 2.1088698 0.33254948 0
-1.1578773 2.0934038 0.40855965 0
-1.1585374 2.09516 0.48628148 0
-1.1568261 2.0906076 0.5635677 0
-0.33458072 -0.16076782 -0.089037918 0
-0.37854019 -0.052226808 -0.089452647 0
-0.43443432 0.085782319 -0.089660607 0
-0.51078546 0.27430227 -0.090619616 0
-0.51289201 0.27950349 -0.059018079 0
-0.50898355 0.26985314 -0.025831854 0
-0.51368958 0.28147283 0.0051224772 0
-0.50987899 0.27206412 0.037615154 0
-0.5100174 0.27240589 0.069320783 0
-0.50973243 0.2717022 0.10100923 0
-1.2783474 2.1695027 0.25982493 0
-1.1985086 1.9723713 0.32453826 0
-1.2041812 1.9863777 0.40082014 0
-1.1972555 1.9692774 0.47421518 0
-1.2011452 1.9788814 0.55120027 0
-0.35806572 -0.16331568 -0.090470813 0
-0.40446445 -0.056574788 -0.090587519 0
-0.46301952 0.078132063 -0.090319686 0
-0.51183456 0.19043174 -0.079807766 0
-0.50735235 0.18012038 -0.048056681 0
-0.50945818 0.18496493 -0.018542474 0
-0.51309532 0.19333211 0.010820622 0
-0.50814968 0.18195453 0.041514684 0
-0.51308411 0.19330636 0.07098908 0
-0.51555276 0.19898549 0.10100739 0
-1.3526169 2.1246638 0.25923768 0
-1.2269577 1.835583 0.31648335 0
-1.2294465 1.8413086 0.3892394 0
-1.2286292 1.8394284 0.46163413 0
-1.2240109 1.8288038 0.53298777 0
-1.2235729 1.8277962 0.60599291 0
-0.37647039 -0.1776292 -0.08930067 0
-0.42661062 -0.069806844 -0.090025537 0
-0.48616937 0.058269296 -0.088903032 0
-0.51097304 0.11160758 -0.069654591 0
-0.51290232 0.1157563 -0.041461755 0
-0.51488805 0.12002638 -0.01322197 0
-0.50984591 0.1091837 0.016279319 0
-0.51258856 0.11508158 0.04426942 0
-0.50850075 0.10629109 0.072878048 0
-0.5118041 0.11339465 0.10100511 0
-1.4316852 2.091522 0.25934058 0
-1.2491111 1.6989117 0.30839753 0
-1.2448485 1.6897457 0.37691852 0
-1.2372392 1.6733825 0.44433835 0
-1.2381154 1.6752665 0.51411301 0
-1.2405138 1.6804242 0.58503652 0
-0.39933527 -0.18235943 -0.090499304 0
-0.44690397 -0.086471707 -0.088851519 0
-0.50792056 0.036523972 -0.087229691 0
-0.51483828 0.050468359 -0.062144581 0
-0.50687271 0.034411702 -0.032586623 0
-0.51201791 0.044783149 -0.0067749601 0
-0.51074803 0.042223368 0.020471754 0
-0.51282334 0.046406779 0.047146682 0
-0.51228428 0.045320068 0.074117824 0
-0.5120315 0.044810567 0.10100335 0
-1.2519087 1.5362349 0.29822224 0
-1.2351923 1.5025382 0.36076659 0
-1.2397705 1.5117671 0.4274314 0
-1.2330295 1.4981785 0.4913601 0
-1.243389 1.5190611 0.5613265 0
-0.41904122 -0.19371346 -0.090259664 0
-0.47080809 -0.095658392 -0.089362927 0
-0.53109396 0.018533025 -0.086333074 0
-0.53386462 0.023781095 -0.06002434 0
-0.53539735 0.026684437 -0.033301879 0
-0.53040761 0.017232928 -0.0052679759 0
-0.5317983 0.019867215 0.021192448 0
-0.54032695 0.036021862 0.046993569 0
-0.53528059 0.026463185 0.074264467 0
-0.5297882 0.01605979 0.10100285 0
-1.2490751 1.3785083 0.28830779 0
-1.2432418 1.3674593 0.34987813 0
-1.2369447 1.3555315 0.4110176 0
-1.2409436 1.363106 0.4749617 0
-1.2412136 1.3636174 0.53841269 0
-1.2423997 1.3658643 0.60274798 0
-0.4363856 -0.20919296 -0.089131661 0
-0.49712375 -0.10085699 -0.090872176 0
-0.55194139 -0.0030811692 -0.084850468 0
-0.55606598 0.004275653 -0.059107844 0
-0.5606609 0.012471352 -0.033254135 0
-0.55435848 0.0012300942 -0.0050245058 0
-0.55809385 0.0078927018 0.021049054 0
-0.56163585 0.014210496 0.047411337 0
-0.56252044 0.015788112 0.074179739 0
-0.56042308 0.012047205 0.10100317 0
-1.2975204 1.3267753 0.16285741 0
-1.292683 1.3181469 0.22427468 0
-1.2538623 1.248904 0.28050223 0
-1.2397797 1.2237856 0.33793598 0
-1.2459562 1.2348025 0.39912045 0
-1.2363656 1.217696 0.45669562 0
-1.2417762 1.2273469 0.51877624 0
-1.2377982 1.2202513 0.57823372 0
-0.46191651 -0.21040139 -0.091622867 0
-0.5140813 -0.12262538 -0.088918202 0
-0.58418089 -0.0046711233 -0.08727365 0
-0.58487374 -0.0035053159 -0.060185168 0
-0.58232635 -0.0077916649 -0.032469187 0
-0.58966947 0.0045643779 -0.0069421511 0
-0.58670777 -0.00041922586 0.020552063 0
-0.59155238 0.0077326628 0.046976097 0
-0.58448315 -0.0041625765 0.07432615 0
-0.58378816 -0.00533196 0.10100307 0
-1.3504972 1.2847841 0.16262719 0
-1.3525665 1.2882659 0.22446412 0
-1.253324 1.121274 0.2727493 0
-1.2415344 1.1014359 0.32812089 0
-1.2360048 1.0921316 0.3840898 0
-1.2439017 1.1054194 0.44355386 0
-1.2374679 1.0945935 0.49951863 0
-1.2370715 1.0939264 0.55755138 0
-0.47855899 -0.22687933 -0.090480097 0
-0.53956771 -0.12988123 -0.090256698 0
-0.61207074 -0.014608171 -0.088271715 0
-0.60786921 -0.021288183 -0.059738997 0
-0.61000937 -0.017885592 -0.033150677 0
-0.613271 -0.012699928 -0.0067165997 0
-0.61212587 -0.014520552 0.020466061 0
-0.61488712 -0.010130372 0.04711885 0
-0.6111601 -0.016056027 0.074238479 0
-0.61123163 -0.015942302 0.10100322 0
-1.2483031 0.99694175 0.26514387 0
-1.2455134 0.99250656 0.31963447 0
-1.2345587 0.97508961 0.37232476 0
-1.2371285 0.97917527 0.42791349 0
-1.2353492 0.97634631 0.48274976 0
-1.2438242 0.98982102 0.54148006 0
-0.49923402 -0.23682746 -0.091091074 0
-0.56140453 -0.14330414 -0.09036731 0
-0.64120209 -0.023264375 -0.089677207 0
-0.63804573 -0.028012481 -0.061248589 0
-0.63459337 -0.033205893 -0.033207465 0
-0.63016754 -0.039863672 -0.0054439362 0
-0.63771009 -0.028517392 0.020316416 0
-0.63512021 -0.03241339 0.047478445 0
-0.63759243 -0.028694358 0.074151479 0
-0.63833797 -0.027572896 0.10100336 0
-1.2529984 0.89706284 0.25945383 0
-1.2384568 0.87518805 0.31007496 0
-1.2419316 0.88041502 0.36349639 0
-1.2384927 0.87524194 0.41574675 0
-1.2365034 0.87224931 0.46848053 0
-1.242173 0.88077813 0.52405822 0
-0.51546067 -0.25339201 -0.090129144 0
-0.58573735 -0.15325037 -0.091405652 0
-0.6641801 -0.041472401 -0.089336328 0
-0.66431016 -0.041286971 -0.061790202 0
-0.65872395 -0.049247112 -0.033250172 0
-0.66634625 -0.038385656 -0.0074628051 0
-0.66118324 -0.045742776 0.020385163 0
-0.66211009 -0.044421997 0.047231305 0
-0.66713256 -0.037265148 0.073928595 0
-0.66357577 -0.04233351 0.10100342 0
-1.2974029 0.86084658 0.25911391 0
-1.2488883 0.79171497 0.30418643 0
-1.2420716 0.78200144 0.35400268 0
-1.2344531 0.77114528 0.40334061 0
-1.2413065 0.78091127 0.45652512 0
-1.2381288 0.7763831 0.50738573 0
-0.54105043 -0.2569463 -0.092696972 0
-0.60617137 -0.16895935 -0.091255791 0
-0.6900602 -0.055614557 -0.089937888 0
-0.69760686 -0.04541805 -0.064055495 0
-0.69312316 -0.051476147 -0.03538977 0
-0.68378532 -0.064092785 -0.006467944 0
-0.68708664 -0.059632208 0.020113992 0
-0.69914854 -0.043335047 0.046181936 0
-0.68597525 -0.061133888 0.074122645 0
-0.69156826 -0.053577032 0.10100363 0
-1.345431 0.82987708 0.25932097 0
-1.2536297 0.70584148 0.29793844 0
-1.2371521 0.68357819 0.34432924 0
-1.2414954 0.68944651 0.39460075 0
-1.2391726 0.68630797 0.44370118 0
-1.2407837 0.68848485 0.49424231 0
-0.5534336 -0.27844831 -0.090650119 0
-0.62216455 -0.19032368 -0.089874126 0
-0.71329695 -0.073476642 -0.089910932 0
-0.71511179 -0.071149677 -0.062664412 0
-0.71547097 -0.070689172 -0.035182003 0
-0.71811116 -0.067303985 -0.0081678312 0
-0.71816146 -0.067239493 0.019223059 0
-0.71146673 -0.075823277 0.04703933 0
-0.7163803 -0.069523245 0.073850244 0
-0.71420205 -0.07231614 0.10100359 0
-1.3915015 0.79609579 0.25938919 0
-1.2522814 0.61759216 0.29129899 0
-1.240634 0.60265821 0.33704102 0
-1.2338538 0.59396487 0.38326129 0
-1.2437032 0.60659355 0.43371582 0
-1.2395808 0.60130781 0.48102611 0
-0.57422841 -0.28896639 -0.0916669 0
-0.64307868 -0.20513925 -0.090157159 0
-0.73326045 -0.095340282 -0.089155845 0
-0.74060339 -0.086400002 -0.063229911 0
-0.74850076 -0.07678476 -0.03703827 0
-0.75026613 -0.074635416 -0.0095092263 0
-0.7393961 -0.087869972 0.019421401 0
-0.74878961 -0.076433092 0.045975622 0
-0.74794084 -0.077466518 0.073535852 0
-0.74612927 -0.079672128 0.101004 0
-1.4349482 0.7589851 0.25926164 0
-1.2591982 0.54500431 0.28640944 0
-1.2434921 0.52588171 0.33024046 0
-1.2448142 0.52749127 0.37692747 0
-1.2286569 0.50781935 0.41949055 0
-1.2368355 0.51777703 0.46841505 0
-0.59258157 -0.30270013 -0.091948487 0
-0.67003495 -0.21310636 -0.092281573 0
-0.75394392 -0.11604515 -0.088744186 0
-0.76808679 -0.09968546 -0.064291157 0
-0.77530706 -0.091333479 -0.037756924 0
-0.77662688 -0.089806765 -0.010011932 0
-0.77747321 -0.088827819 0.017757127 0
-0.77530426 -0.091336757 0.045710739 0
-0.77445775 -0.092315882 0.073402569 0
-0.779001 -0.087060541 0.10100444 0
-1.4768878 0.7202161 0.25907826 0
-1.2380103 0.44389585 0.27791232 0
-1.2367666 0.44245723 0.32227355 0
-1.235942 0.44150344 0.3668783 0
-1.2410208 0.44737831 0.41320112 0
-1.2360816 0.44166484 0.45735675 0
-0.60572582 -0.32228157 -0.090687968 0
-0.67899781 -0.24172571 -0.089368291 0
-0.78246701 -0.1279709 -0.090388142 0
-0.79044145 -0.11920372 -0.064323299 0
-0.79806405 -0.11082336 -0.037817318 0
-0.80581737 -0.1022993 -0.01094733 0
-0.80452394 -0.10372135 0.017281385 0
-0.79891479 -0.10988811 0.04562762 0
-0.79450774 -0.11473319 0.073483244 0
-0.80570096 -0.10242727 0.10100462 0
-1.249053 0.38499752 0.27448055 0
-1.2415559 0.37675515 0.31689665 0
-1.2434177 0.37880197 0.36097959 0
-1.236416 0.37110427 0.40331557 0
-1.2394863 0.3744798 0.44831079 0
-0.62418813 -0.33589289 -0.091249458 0
-0.69829226 -0.25844166 -0.089545138 0
-0.80314302 -0.14885506 -0.090196408 0
-0.82401347 -0.12704197 -0.066736422 0
-0.83646512 -0.11402789 -0.040605221 0
-0.82770658 -0.12318203 -0.010915784 0
-0.82392389 -0.12713555 0.017553145 0
-0.82940477 -0.12140712 0.045051418 0
-0.8326686 -0.11799589 0.072933428 0
-0.83266455 -0.11800012 0.10100482 0
-1.2392826 0.30698386 0.26852977 0
-1.2336876 0.30113629 0.30980295 0
-1.2431767 0.3110539 0.35399118 0
-1.2396058 0.3073217 0.39600489 0
-1.2350386 0.30254832 0.43782851 0
-0.63837117 -0.35396501 -0.090619005 0
-0.72688431 -0.26600811 -0.092299946 0
-0.82297957 -0.17051682 -0.089938633 0
-0.8605265 -0.13320586 -0.069712274 0
-0.86632168 -0.1274471 -0.04192983 0
-0.85991102 -0.13381746 -0.012312664 0
-0.86272866 -0.13101754 0.015846709 0
-0.8582406 -0.13547739 0.044578698 0
-0.86473191 -0.12902686 0.072594337 0
-0.865251 -0.12851104 0.10100526 0
-1.2775279 0.28117505 0.14298002 0
-1.2726731 0.27635065 0.18466474 0
-1.2758796 0.27953699 0.22691616 0
-1.2440044 0.24786213 0.26489702 0
-1.2451662 0.24901667 0.30639273 0
-1.2400105 0.2438933 0.34693927 0
-1.2396625 0.24354759 0.38852689 0
-1.2359504 0.23985866 0.42951757 0
-0.66405004 -0.36099014 -0.093500145 0
-0.73931158 -0.28988448 -0.090851404 0
-0.83255476 -0.20179012 -0.087491982 0
-0.88270098 -0.1544129 -0.069876395 0
-0.88770038 -0.14968958 -0.041915301 0
-0.88672298 -0.15061304 -0.01301912 0
-0.89035195 -0.1471844 0.015246266 0
-0.88975453 -0.14774886 0.043922555 0
-0.8951807 -0.14262226 0.072305851 0
-0.89730549 -0.1406149 0.10100567 0
-1.2927053 0.23295143 0.1424519 0
-1.2919494 0.23223713 0.18387911 0
-1.2924523 0.23271242 0.22546901 0
-1.2526206 0.19508007 0.26204428 0
-1.250321 0.19290748 0.30225974 0
-1.2372984 0.18060389 0.34047303 0
-1.2428064 0.18580785 0.38229173 0
-1.241035 0.18413427 0.42289907 0
-0.67096895 -0.38580289 -0.091008179 0
-0.76167363 -0.30433866 -0.09210483 0
-0.8622849 -0.21397707 -0.089728884 0
-0.91901475 -0.16302654 -0.072809972 0
-0.91848814 -0.1634995 -0.043468405 0
-0.9136886 -0.16781011 -0.013782864 0
-0.91578078 -0.16593108 0.014826672 0
-0.91943556 -0.16264865 0.043376178 0
-0.91878575 -0.16323224 0.072226845 0
-0.91967666 -0.1624321 0.10100573 0
-1.3387092 0.21391192 0.14293991 0
-1.3295727 0.20570615 0.1843311 0
-1.3324054 0.20825031 0.22636548 0
-1.2440541 0.12889972 0.25726756 0
-1.2476074 0.13209096 0.29720783 0
-1.2370523 0.12261131 0.33492303 0
-1.2424328 0.12744358 0.37574473 0
-1.2356443 0.12134674 0.41413638 0
-0.68604052 -0.40289858 -0.091024615 0
-0.76659596 -0.33414134 -0.089104302 0
-0.88705969 -0.23132083 -0.090914659 0
-0.94294351 -0.18362185 -0.073433392 0
-0.94461012 -0.18219933 -0.044325683 0
-0.94629794 -0.18075868 -0.015276795 0
-0.94581527 -0.18117067 0.013948711 0
-0.94388175 -0.18282101 0.043138556 0
-0.95501137 -0.17332146 0.071747661 0
-0.95473278 -0.17355928 0.10100627 0
-1.4032154 0.20923808 0.14399938 0
-1.4005479 0.2069613 0.18685886 0
-1.4149734 0.21927407 0.23122033 0
-1.2392336 0.069273263 0.25325993 0
-1.2481091 0.076848894 0.29299641 0
-1.2494779 0.078017145 0.33210701 0
-1.2384347 0.068591386 0.36887559 0
-1.236506 0.066945106 0.40750587 0
-0.69304657 -0.42655769 -0.088952906 0
-0.80222458 -0.33803263 -0.093794681 0
-0.90930939 -0.25120476 -0.091635756 0
-0.97465628 -0.19821939 -0.075547598 0
-0.98761076 -0.1877155 -0.047777031 0
-0.97031295 -0.20174107 -0.015747434 0
-0.96600342 -0.20523539 0.013939725 0
-0.98118013 -0.1929296 0.042104606 0
-0.98542356 -0.18948892 0.071444474 0
-0.97946316 -0.19432184 0.10100643 0
-1.2417367 0.018338118 0.25039688 0
-1.2518704 0.026554856 0.28957301 0
-1.2457436 0.021587048 0.32662889 0
-1.2420382 0.018582616 0.3640722 0
-1.2420496 0.018591795 0.40248182 0
-0.70889401 -0.442808 -0.089454554 0
-0.80165213 -0.37139925 -0.089813538 0
-0.91751295 -0.28220502 -0.089534812 0
-1.017343 -0.20535192 -0.079633482 0
-1.0051194 -0.21476206 -0.04742289 0
-1.00467 -0.21510807 -0.017490303 0
-1.0211322 -0.20243487 0.010794105 0
-1.0101676 -0.21087578 0.041563664 0
-1.019184 -0.20393464 0.071036771 0
-1.0132519 -0.20850143 0.10100694 0
-1.2545971 -0.022704508 0.24896272 0
-1.2443248 -0.030612495 0.2847361 0
-1.2384908 -0.035103705 0.32088706 0
-1.2258906 -0.044803824 0.35552761 0
-1.2396407 -0.034218397 0.39595661 0
-0.72611237 -0.4582223 -0.090416901 0
-0.81915599 -0.39026251 -0.090319507 0
-0.93441433 -0.30607685 -0.08940319 0
-1.0469114 -0.22390804 -0.081393443 0
-1.0422808 -0.22729024 -0.050019253 0
-1.0415823 -0.2278004 -0.019536084 0
-1.0485516 -0.22271004 0.010110917 0
-1.0393149 -0.22945663 0.040997021 0
-1.0462255 -0.22440895 0.070819363 0
-1.0411018 -0.22815135 0.10100724 0
-1.2528429 -0.073493928 0.24598537 0
-1.2477882 -0.077185959 0.28179249 0
-1.2409194 -0.082202941 0.31718704 0
-1.2436843 -0.080183417 0.3543781 0
-1.2345139 -0.086881608 0.38923022 0
-0.74475205 -0.47294781 -0.091831587 0
-0.83815175 -0.40827742 -0.091268592 0
-0.9517656 -0.32961068 -0.089485325 0
-1.074697 -0.24449226 -0.082898997 0
-1.0801984 -0.24068305 -0.05272356 0
-1.078298 -0.241999 -0.021560846 0
-1.0736502 -0.24521706 0.0095929746 0
-1.0827038 -0.23894837 0.039606944 0
-1.0789789 -0.24152753 0.070429444 0
-1.0765232 -0.24322787 0.10100781 0
-1.2466004 -0.12546554 0.20714118 0
-1.2528069 -0.12116817 0.24340171 0
-1.2336217 -0.13445207 0.27656114 0
-1.2416571 -0.12888828 0.31346706 0
-1.2407486 -0.12951729 0.34928334 0
-1.2399462 -0.13007292 0.38534746 0
-0.74853599 -0.49783325 -0.089542277 0
-0.85319316 -0.42920879 -0.091414757 0
-0.96698052 -0.35459766 -0.089263983 0
-1.1137884 -0.25833467 -0.086367898 0
-1.1049583 -0.2641246 -0.053592298 0
-1.1122968 -0.25931266 -0.0232895 0
-1.106498 -0.26311502 0.0083878133 0
-1.1120797 -0.259455 0.039006311 0
-1.1121908 -0.25938222 0.070021048 0
-1.1116529 -0.25973502 0.10100838 0
-1.2457396 -0.17181328 0.20527886 0
-1.2457868 -0.1717824 0.24021591 0
-1.2411364 -0.17483166 0.27465099 0
-1.2324562 -0.18052337 0.30833694 0
-1.2474732 -0.17067656 0.34641823 0
-1.2377789 -0.17703322 0.38006383 0
-0.77028453 -0.51095456 -0.091940261 0
-0.86873639 -0.44989434 -0.091787927 0
-0.98571038 -0.37734661 -0.089848824 0
-1.1409918 -0.28104046 -0.087875314 0
-1.1510848 -0.27478072 -0.057468031 0
-1.157894 -0.27055761 -0.026313638 0
-1.1495519 -0.27573147 0.0063243005 0
-1.1437428 -0.27933428 0.038261134 0
-1.153017 -0.27358231 0.069398232 0
-1.1503942 -0.27520904 0.10100908 0
-1.2459165 -0.21596572 0.16936085 0
-1.2482427 -0.21452299 0.20381948 0
-1.2429001 -0.21783653 0.23767537 0
-1.2447563 -0.21668527 0.27237597 0
-1.2380987 -0.22081432 0.30595949 0
-1.2426803 -0.21797284 0.34157196 0
-1.242992 -0.21777943 0.37676343 0
-0.77618468 -0.53403628 -0.090481065 0
-0.88408518 -0.47082868 -0.092228018 0
-1.0021112 -0.40168956 -0.090091683 0
-1.1600633 -0.30916199 -0.088130243 0
-1.1938297 -0.28938177 -0.060865629 0
-1.1783593 -0.29844424 -0.026605701 0
-1.1835947 -0.2953774 0.0049951244 0
-1.1833574 -0.2955164 0.037070569 0
-1.1839283 -0.29518202 0.069041997 0
-1.1976415 -0.28714886 0.10101005 0
-1.24806 -0.25761393 0.16844404 0
-1.2501329 -0.2563996 0.20241986 0
-1.2364532 -0.26441315 0.23491348 0
-1.2475518 -0.25791159 0.27016684 0
-1.2322773 -0.26685938 0.30191588 0
-1.2499819 -0.25648811 0.33933049 0
-1.2323724 -0.26680365 0.37028047 0
-0.78678864 -0.55414057 -0.090326838 0
-0.89392483 -0.49495971 -0.091591112 0
-1.0280768 -0.42085555 -0.092243232 0
-1.1870695 -0.33302966 -0.089770354 0
-1.420593 -0.20403376 -0.088835768 0
-1.8027936 0.0070897075 -0.091373138 0
-3.0219843 0.68055755 -0.14046195 0
-4.546062 1.5224419 -0.14086455 0
-9.1017418 4.0389514 -0.14081489 0
-1.2512199 -0.29759374 0.13431275 0
-1.2524426 -0.2969183 0.16771553 0
-1.2302092 -0.30919978 0.19938111 0
-1.2364134 -0.30577269 0.23299979 0
-1.2392055 -0.3042303 0.26663989 0
-1.2351087 -0.30649331 0.29950607 0
-1.2416477 -0.30288127 0.33436716 0
-1.2379686 -0.30491355 0.36764583 0
-0.8080523 -0.5686779 -0.092850767 0
-0.90594774 -0.51778185 -0.091556154 0
-1.0364027 -0.44995806 -0.091189481 0
-1.2051126 -0.36224547 -0.090065442 0
-1.4476702 -0.23613927 -0.089852266 0
-1.8251573 -0.039882984 -0.091141514 0
-3.0676708 0.60610205 -0.14081785 0
-4.6086369 1.4072533 -0.14089859 0
-9.2222786 3.8058946 -0.14072491 0
-1.2635028 -0.33188823 0.13418743 0
-1.2407473 -0.34371892 0.16620433 0
-1.2470285 -0.34045336 0.1993852 0
-1.2362245 -0.34607026 0.23120597 0
-1.2415545 -0.34329924 0.26472351 0
-1.239442 -0.34439757 0.29752517 0
-1.2434843 -0.34229591 0.33157155 0
-1.2363526 -0.34600368 0.36371961 0
-0.80121672 -0.59761769 -0.088784419 0
-0.91798085 -0.54060692 -0.091645263 0
-1.0494097 -0.47643593 -0.09113998 0
-1.2177014 -0.39426652 -0.089620017 0
-1.4583676 -0.27675971 -0.088832058 0
-1.8431828 -0.08887139 -0.090586029 0
