# .PCD v0.7 - Point Cloud Data file format
VERSION 0.7
FIELDS x y z intensity
SIZE 4 4 4 4
TYPE F F F F
COUNT 1 1 1 1
WIDTH 1364
HEIGHT 1
VIEWPOINT 0 0 0 1 0 0 0
POINTS 1364
DATA ascii
-0.39179677 0.27091503 0.11317417 0
-0.39199963 0.2721197 0.18563311 0
-0.39207968 0.27259505 0.25999674 0
-0.39203608 0.27233613 0.33730111 0
-0.39136741 0.2683655 0.41996941 0
-0.39779124 0.30651075 0.48690546 0
-0.27726251 -0.29018247 -0.050040491 0
0.069850706 -2.2039008 0.13147749 0
-0.38474873 0.30241483 0.49004841 0
-0.25677362 -0.29200506 -0.050239518 0
0.11496117 -2.204046 0.13177998 0
-0.37568197 0.31960738 0.48243177 0
-0.23845868 -0.28264523 -0.050040737 0
0.16029067 -2.2041619 0.13210288 0
-0.36771974 0.34024543 0.47309285 0
-0.21884589 -0.27980256 -0.050088082 0
0.20340396 -2.1931458 0.13204055 0
-0.35688004 0.34567237 0.47157308 0
-0.19739841 -0.28464246 -0.050426297 0
0.24935301 -2.1944139 0.1324483 0
-0.3476887 0.35781813 0.46666643 0
-0.18201201 -0.26396132 -0.049836911 0
0.29858217 -2.2077212 0.13332132 0
-0.0028863933 -0.9884336 0.25428537 0
-0.0051657348 -0.97921467 0.42094529 0
-0.33880994 0.37020695 0.46167874 0
-0.16145675 -0.26474619 -0.050044697 0
0.34408823 -2.2042749 0.13360193 0
-0.3268635 0.36983871 0.46332854 0
-0.14362396 -0.25503421 -0.049874187 0
0.3888292 -2.1972625 0.13377269 0
-0.31856784 0.38310826 0.45798665 0
-0.12705193 -0.24136424 -0.049564347 0
-0.3009463 0.36300021 0.47005734 0
-0.10309044 -0.25295651 -0.05020307 0
-0.30357084 0.41217375 0.44608492 0
-0.083487041 -0.24921358 -0.050281562 0
-0.29389906 0.41832918 0.44456744 0
-0.066839822 -0.23630083 -0.050024997 0
-0.28397959 0.42349344 0.44362983 0
-0.049388923 -0.22627842 -0.049884308 0
-0.26212797 0.39374173 0.46122366 0
-0.027382234 -0.22929394 -0.050245579 0
-0.0062046438 -0.2293371 -0.050505873 0
0.0094479537 -0.21454477 -0.050209899 0
0.028434595 -0.2086314 -0.050261449 0
0.042624258 -0.19105971 -0.049871828 0
0.058619104 -0.17837429 -0.04967691 0
0.082782052 -0.18437541 -0.050218947 0
-0.18832432 0.42488194 0.38188267 0
0.097665332 -0.1692878 -0.049947277 0
0.11986747 -0.17003131 -0.050307192 0
-0.16367899 0.42628556 0.38562047 0
-0.20105322 0.50488603 0.4981375 0
0.13265528 -0.15101886 -0.049894672 0
0.55931348 -1.0199258 0.46293634 0
-0.16006206 0.44511205 0.3792536 0
-0.19767065 0.52170348 0.49003014 0
0.15078135 -0.14317751 -0.049933046 0
0.58957869 -1.0090754 0.46362185 0
-0.146863 0.44417709 0.38203961 0
-0.18731268 0.5239982 0.49155456 0
0.16854639 -0.13458014 -0.049950384 0
0.61669344 -0.99197984 0.46311837 0
-0.1391203 0.45405096 0.3798717 0
-0.17684419 0.52622473 0.4932217 0
0.18568487 -0.1247877 -0.049928416 0
0.64517349 -0.97755575 0.46322843 0
-0.1228315 0.44778997 0.3853232 0
-0.1692941 0.53402019 0.49123707 0
0.19969411 -0.10938407 -0.049685948 0
0.68287116 -0.97969246 0.46682915 0
-0.11187578 0.45182174 0.38603541 0
-0.16338475 0.54460073 0.48741367 0
0.22246404 -0.10964108 -0.050092995 0
0.71666497 -0.97397828 0.46892315 0
-0.076765098 0.41369849 0.40692362 0
-0.15638615 0.55295247 0.48513591 0
0.23809667 -0.097199805 -0.049988866 0
0.7543115 -0.97422314 0.47236851 0
-0.060255565 0.40968585 0.41179097 0
-0.14507283 0.55378616 0.48807517 0
0.2573674 -0.090900905 -0.050148502 0
0.7996394 -0.98621202 0.47841603 0
-0.056614675 0.42749494 0.4062328 0
-0.13133432 0.55085987 0.49374232 0
0.27413884 -0.080371626 -0.050141621 0
0.84427088 -0.99547625 0.48405302 0
-0.12545811 0.56101125 0.4904367 0
0.29366663 -0.074148066 -0.050326157 0
0.88295811 -0.99399304 0.48755369 0
-0.11786351 0.56822324 0.48922652 0
0.30432895 -0.054219846 -0.049936865 0
0.91280144 -0.97818208 0.48809421 0
0.019768795 0.3778832 0.44049639 0
-0.10745282 0.57106853 0.49117467 0
0.32180348 -0.044842128 -0.050004814 0
0.95596153 -0.98190451 0.49297461 0
0.030404529 0.38574296 0.44023496 0
-0.10626558 0.58769327 0.48336563 0
0.33273491 -0.025963908 -0.049669791 0
0.99083823 -0.97250986 0.49513552 0
0.039465033 0.39584428 0.4389081 0
-0.10140774 0.59846067 0.47972944 0
0.34834096 -0.014033085 -0.049642533 0
0.055413626 0.3961646 0.44260335 0
-0.098562248 0.61178309 0.4742429 0
0.37455079 -0.016589886 -0.050265066 0
0.069606982 0.39926213 0.44500959 0
-0.088028677 0.61422998 0.47672966 0
0.38745257 -0.00073445361 -0.05008541 0
1.1299781 -0.98703003 0.10616057 0
1.1343784 -0.9928751 0.30829325 0
0.09517052 0.3875035 0.45523018 0
-0.088091977 0.6309309 0.46875703 0
0.39716414 0.019047374 -0.049734145 0
0.10594287 0.39590567 0.45516908 0
-0.082504161 0.63976783 0.46659979 0
0.40974244 0.034820672 -0.049567547 0
0.12016829 0.39995134 0.45748091 0
-0.062887885 0.63077104 0.47797245 0
0.43129048 0.03939056 -0.049922172 0
-0.058945186 0.64180183 0.47433695 0
0.44457945 0.054247614 -0.049814653 0
-0.058517106 0.65680367 0.46763322 0
0.46501502 0.060649034 -0.050111264 0
-0.053022183 0.6654548 0.46581993 0
0.47979555 0.073808663 -0.050102163 0
-0.036981501 0.66198879 0.4736065 0
0.49143419 0.090449803 -0.049934536 0
1.2022567 -0.69833148 0.099842586 0
0.50135165 0.10878348 -0.049689747 0
1.2050225 -0.65256226 0.098702185 0
-0.027426163 0.68090171 0.46906757 0
0.52439839 0.1130197 -0.050141603 0
0.37559149 0.27001059 0.054419089 0
-0.020091156 0.6874547 0.46920288 0
0.53271025 0.1328758 -0.049835682 0
0.39145741 0.27818799 0.054600727 0
0.83810681 -0.18129742 0.22116579 0
-0.0061292439 0.68720078 0.47504553 0
0.5538041 0.13960838 -0.050192695 0
0.39220956 0.30171221 0.054021042 0
0.84172732 -0.14922225 0.21898215 0
0.55849963 0.16273856 -0.049730632 0
0.40707281 0.31086475 0.054168072 0
0.74330276 -0.018036371 0.20154513 0
0.74711925 -0.021769768 0.33511528 0
0.74056965 -0.015362864 0.46924853 0
-0.00033602986 0.70939314 0.46814957 0
0.57078892 0.17817926 -0.049663201 0
0.42836085 0.31403589 0.054636054 0
0.83948499 -0.078119524 0.21346603 0
0.18788834 0.54341322 0.34866789 0
0.0074798674 0.71549791 0.46896809 0
0.59625357 0.18130493 -0.050248485 0
0.45875427 0.30919266 0.055544496 0
0.83430809 -0.040109042 0.21026015 0
0.18441267 0.56435698 0.34304854 0
0.0125226 0.72423154 0.46759376 0
0.59946972 0.20516884 -0.049756743 0
0.84409243 -0.016675478 0.073546559 0
0.83634418 -0.0096488055 0.20820695 0
0.19194962 0.5747422 0.34255821 0
0.61334962 0.21914518 -0.049793035 0
0.83872288 0.019871468 0.072533317 0
0.83489901 0.023252482 0.20573242 0
0.84121281 0.017669791 0.34269926 0
0.21820505 0.56852978 0.35044447 0
0.025594374 0.73883504 0.46751821 0
0.62980598 0.23093843 -0.049958717 0
0.83979207 0.049929496 0.071856305 0
0.84287459 0.047272321 0.20468038 0
0.83804554 0.05143499 0.33826399 0
0.2341425 0.57200223 0.35367903 0
0.040940128 0.73854357 0.47448775 0
0.64224821 0.24626148 -0.049942426 0
0.83628243 0.083216302 0.070990644 0
0.82828552 0.089936011 0.20051461 0
0.83791667 0.081843011 0.33469185 0
0.92623001 0.0076340386 0.50041723 0
0.26923355 0.55970258 0.36522195 0
0.27630654 0.55375922 0.4568747 0
0.65555042 0.26086944 -0.049974944 0
0.85282642 0.09929394 0.071078733 0
0.85097271 0.10081219 0.20164484 0
0.84170479 0.10840296 0.33215919 0
0.95561844 0.015103931 0.50497109 0
0.29257581 0.55815768 0.37152708 0
0.2488683 0.59395552 0.4375048 0
0.046739243 0.75950587 0.46912274 0
0.67402905 0.27137893 -0.050252035 0
0.8469786 0.13332915 0.07015238 0
0.83951968 0.13928282 0.19808814 0
0.83034307 0.14660776 0.32623351 0
0.97879559 0.028111691 0.50748265 0
0.26759258 0.59579992 0.35718945 0
0.24645253 0.61267406 0.43185401 0
0.056126259 0.76459408 0.4715544 0
0.68614453 0.28708917 -0.050244648 0
0.8467744 0.16215146 0.069509782 0
0.84141427 0.16632056 0.19644965 0
0.84714073 0.16186655 0.32690987 0
0.25425628 0.62301117 0.43174297 0
0.066144966 0.76932377 0.47448537 0
0.68733805 0.31107324 -0.049757 0
0.85243517 0.18596518 0.069152348 0
0.83747238 0.19730377 0.19408587 0
0.84703332 0.19005871 0.32379815 0
0.25668976 0.63741177 0.42891118 0
0.070447348 0.77854335 0.47317952 0
0.70485491 0.32258475 -0.050011657 0
0.84312195 0.22052312 0.068147123 0
0.83910078 0.22349131 0.19254036 0
0.83344883 0.22766328 0.31777421 0
0.2943469 0.62560064 0.44432598 0
0.076615237 0.7863189 0.47334689 0
0.71598524 0.33891243 -0.049989615 0
0.84769267 0.24423122 0.067780644 0
0.84147292 0.24870253 0.19115107 0
0.83512384 0.25326669 0.31529951 0
0.089259349 0.78944957 0.47831473 0
0.73239285 0.35153103 -0.050206743 0
0.84660441 0.2715891 0.067183837 0
0.84109229 0.27544731 0.1894547 0
0.83923203 0.27674937 0.31345344 0
0.84080786 0.27564645 0.44143271 0
0.090325199 0.80094385 0.47488624 0
0.73247772 0.37546027 -0.049723756 0
0.88036102 0.27470022 0.068112396 0
0.85342258 0.29305464 0.18946978 0
0.84335309 0.29991555 0.31169078 0
0.84654242 0.29774249 0.43943304 0
0.10457065 0.80328393 0.48104933 0
0.75341278 0.38515949 -0.05015089 0
0.9146772 0.27823031 0.069058888 0
0.8451969 0.32430035 0.1868628 0
0.84101003 0.32707655 0.30860737 0
0.83778292 0.32921642 0.43309852 0
0.11715396 0.80704206 0.48599952 0
0.75821084 0.40563071 -0.049894203 0
0.94685155 0.28394067 0.069908626 0
0.84421653 0.35014933 0.18525404 0
0.83750147 0.35448116 0.30537248 0
0.83360654 0.35699373 0.42832759 0
0.11632135 0.81970668 0.48147509 0
0.77635783 0.41751677 -0.05021305 0
0.99828511 0.27827948 0.071566425 0
0.83838516 0.37860078 0.18308394 0
0.84333342 0.37549627 0.30422541 0
0.84113508 0.37687546 0.42722535 0
0.12858219 0.82393157 0.48626515 0
0.77291995 0.44283646 -0.049633082 0
1.0385919 0.28077948 0.072743237 0
0.83809 0.4030835 0.18167265 0
0.83799213 0.40314317 0.30078289 0
0.84266406 0.40029335 0.42441365 0
0.14550556 0.82555246 0.49429464 0
0.79370707 0.45332265 -0.050076131 0
1.0695475 0.28979254 0.073524505 0
0.83694607 0.42768872 0.18020447 0
0.84264511 0.42431003 0.29953462 0
0.84260267 0.42433524 0.42123899 0
0.12578233 0.84929734 0.47701314 0
0.79838532 0.47345096 -0.049857769 0
0.84599179 0.44603193 0.1800492 0
0.83670145 0.4513827 0.29614568 0
0.84174746 0.44847643 0.417943 0
0.14480992 0.84987867 0.48658213 0
0.81601244 0.48616403 -0.050181028 0
0.85524029 0.46422374 0.17994852 0
0.83467394 0.4757266 0.2936604 0
0.83069187 0.47795379 0.41177747 0
0.15609081 0.85526013 0.49082503 0
0.82365173 0.50456238 -0.050102875 0
0.8532812 0.48847687 0.17850612 0
0.84410506 0.49345857 0.29360664 0
0.84612066 0.49236429 0.41345063 0
0.82604951 0.52566266 -0.049823117 0
0.8544423 0.51070833 0.17748946 0
0.83944029 0.51860982 0.29072568 0
0.83816141 0.51928341 0.40842113 0
0.83588451 0.5427466 -0.049853984 0
0.84654206 0.53730363 0.17541975 0
0.84238857 0.5394249 0.28946921 0
0.83921891 0.54104364 0.40610442 0
0.84131557 0.5399729 0.52852255 0
0.85296124 0.55627406 -0.050181728 0
0.85717446 0.55418879 0.17562547 0
0.85188204 0.55680817 0.28959057 0
0.83721966 0.56406516 0.40301016 0
0.8343572 0.56548196 0.52264178 0
0.85124296 0.57907093 -0.04977015 0
0.87554795 0.56742013 0.17677794 0
0.84289187 0.58307415 0.28605837 0
0.83981723 0.58454794 0.40131739 0
0.83532459 0.58670157 0.51983941 0
0.87116355 0.59151155 -0.050223932 0
0.90887016 0.57401687 0.17971452 0
0.8441667 0.60403717 0.28465357 0
0.84106535 0.60547608 0.39932767 0
0.84465569 0.60381025 0.52021915 0
0.87406009 0.61194593 -0.050015137 0
0.9318766 0.58600062 0.18142922 0
0.8424744 0.62612015 0.28272244 0
0.83974749 0.62734383 0.39670554 0
0.83365554 0.63007766 0.51326156 0
0.89323527 0.62516302 -0.050450996 0
0.95500273 0.59837389 0.18316635 0
0.84191686 0.64742035 0.28107974 0
0.84282893 0.64702481 0.39539787 0
0.845231 0.64598298 0.51464891 0
0.89576012 0.64569056 -0.050246548 0
1.0001143 0.60198379 0.18747418 0
0.84505802 0.66692615 0.28022149 0
0.84435314 0.66722137 0.39373505 0
0.84097213 0.66863739 0.5103901 0
0.89901239 0.66577196 -0.050081126 0
1.0373509 0.60986841 0.19085258 0
0.834719 0.69175339 0.2767933 0
0.83936733 0.68987495 0.39035949 0
0.84568411 0.68732226 0.50947446 0
0.89530414 0.68844289 -0.049659539 0
1.0661681 0.62188578 0.19325492 0
0.86410671 0.70059526 0.28113163 0
0.83600062 0.71154356 0.38752201 0
0.84149879 0.70940179 0.50547081 0
0.2756646 0.92981279 0.45332605 0
0.9123773 0.70300442 -0.050043255 0
0.86382645 0.72121584 0.2797564 0
0.83860916 0.73067486 0.38640067 0
0.82909566 0.73424339 0.49866506 0
0.28653935 0.93775666 0.45698914 0
0.91462308 0.72320676 -0.049869448 0
0.85387617 0.74512446 0.27658328 0
0.83896738 0.75050366 0.38473952 0
0.83684045 0.75127101 0.49912709 0
0.26564488 0.95736086 0.44379058 0
0.92177778 0.74158102 -0.049891517 0
0.85597509 0.76439071 0.27578148 0
0.8343696 0.77187997 0.38181496 0
0.83494431 0.77168077 0.49626803 0
0.84003443 0.7699163 0.61836618 0
0.26604244 0.96888334 0.44205561 0
0.93103892 0.75927442 -0.050001465 0
0.84738177 0.78709823 0.27299705 0
0.84391862 0.78825009 0.38277882 0
0.84772354 0.78698456 0.4986566 0
0.84911317 0.78652239 0.61971456 0
0.29628864 0.97038811 0.45614344 0
0.93436652 0.77894336 -0.049897011 0
0.84078389 0.80876499 0.27065572 0
0.83856064 0.80947351 0.37980244 0
0.83253437 0.81139386 0.49133709 0
0.83471721 0.81069821 0.61094773 0
0.31459394 0.97644407 0.46391425 0
0.95370823 0.79365659 -0.050399918 0
0.84152991 0.82785428 0.26975954 0
0.84954947 0.82540947 0.38126895 0
0.83901089 0.82862222 0.49168825 0
0.84051627 0.82816327 0.6110878 0
0.31408748 0.98864561 0.46185535 0
0.94739372 0.81621212 -0.049953904 0
0.87855083 0.83625513 0.2757256 0
0.83597749 0.84864998 0.37625715 0
0.84376067 0.84638399 0.49151519 0
0.85316902 0.84364486 0.61427784 0
0.33047768 0.99582177 0.46868929 0
0.95490009 0.83460873 -0.050032053 0
0.90629941 0.84809697 0.27995527 0
0.83870953 0.86685526 0.37565732 0
0.83754152 0.86717945 0.48763278 0
0.84132975 0.86612809 0.60701692 0
0.3292633 1.0082426 0.46640521 0
0.95512849 0.85498708 -0.049849778 0
0.93662542 0.85987222 0.2846795 0
0.84328932 0.88451445 0.37560767 0
0.83337682 0.88713151 0.48456049 0
0.83431858 0.8868829 0.60196894 0
0.31984636 1.0227121 0.45996508 0
0.9677152 0.87213922 -0.050132386 0
0.95408946 0.87555367 0.28702512 0
0.84676975 0.90244704 0.37532759 0
0.84628338 0.902569 0.48743924 0
0.83862084 0.9044891 0.60187763 0
0.32473728 1.0332639 0.46101949 0
0.96464008 0.89321518 -0.049847424 0
0.98613328 0.88811594 0.29210281 0
0.84243506 0.92220837 0.37305841 0
0.84305841 0.92206055 0.48486018 0
0.84291762 0.92209393 0.60187876 0
0.34223446 1.0408813 0.46862173 0
0.95737511 0.9150269 -0.049419694 0
1.0099955 0.90324056 0.29568338 0
0.85137874 0.93876898 0.37433246 0
0.83793575 0.94178003 0.48172522 0
0.85131603 0.93878299 0.60371441 0
0.34468505 1.0522628 0.46853685 0
0.96885437 0.9325822 -0.049687032 0
1.0628347 0.91277093 0.30463046 0
0.85161132 0.95729727 0.37338623 0
0.84660619 0.95835239 0.48337281 0
0.83947974 0.95985466 0.59707218 0
0.35089836 1.0628487 0.47044957 0
0.97121936 0.95213455 -0.049630072 0
1.0855675 0.92952961 0.30804262 0
0.8520003 0.9757024 0.37254384 0
0.83880168 0.9783116 0.4795 0
0.83118671 0.97981697 0.59205401 0
0.3633652 1.0722984 0.47561505 0
0.99047917 0.96852988 -0.050195564 0
0.84482151 0.9954232 0.36980012 0
0.84851915 0.99474049 0.48164925 0
0.84343892 0.99567848 0.59580368 0
0.3867667 1.0799955 0.48639271 0
0.9913612 0.98848754 -0.050101608 0
0.84378284 1.0138183 0.36871618 0
0.8419736 1.0141287 0.47837406 0
0.84025317 1.0144241 0.59314394 0
0.39163318 1.0914261 0.48778692 0
0.99367481 1.008154 -0.050068684 0
0.42996392 1.0976188 0.041691601 0
0.43771842 1.0963882 0.11428393 0
0.43172351 1.0973396 0.18662104 0
0.44075462 1.0959064 0.26385027 0
0.42601034 1.0982463 0.33727208 0
0.4410961 1.0958521 0.42459038 0
0.39833263 1.102639 0.4901799 0
0.98739392 1.0290534 -0.049734682 0
0.41832158 1.1120375 0.041203193 0
0.39735839 1.1150944 0.10969318 0
0.40911165 1.1133806 0.18215394 0
0.40557417 1.1138964 0.25428581 0
0.40612403 1.1138163 0.32995155 0
0.40007398 1.1146984 0.40662435 0
0.40455619 1.1140448 0.49239936 0
0.99325377 1.0481039 -0.04984799 0
0.39445445 1.1277363 0.040281869 0
0.42248806 1.1240083 0.11223578 0
0.41871509 1.12451 0.18359223 0
0.42518249 1.12365 0.25889716 0
0.42642137 1.1234852 0.33619568 0
0.43351296 1.1225421 0.41988859 0
0.41774955 1.1246384 0.49820563 0
0.99990278 1.0671431 -0.049998127 0
0.37985519 1.1416688 0.039702307 0
0.42326263 1.1364515 0.11215043 0
0.42136022 1.1366801 0.18378986 0
0.43692139 1.1348097 0.26151088 0
0.42392781 1.1363715 0.33483422 0
0.43174335 1.1354321 0.41849145 0
0.99627131 1.0873964 -0.04978754 0
0.36513022 1.1552054 0.039125316 0
0.86049479 1.101984 0.36983404 0
0.84171563 1.1040016 0.47415879 0
0.84313208 1.1038495 0.58921069 0
1.0032521 1.1064986 -0.04996692 0
0.34392431 1.168949 0.038322717 0
0.84797245 1.1212064 0.36616215 0
0.83845097 1.1221082 0.47247237 0
0.84511405 1.1214771 0.58929318 0
1.0034446 1.1262876 -0.049911577 0
0.36135593 1.178957 0.038911194 0
0.85903805 1.138133 0.36859429 0
0.83683902 1.139954 0.47141552 0
0.83442086 1.1401523 0.58420229 0
1.0127883 1.1454059 -0.050192695 0
0.37036189 1.1899674 0.039202135 0
0.8543511 1.1563958 0.36705017 0
0.84934336 1.1567432 0.47514227 0
0.83943611 1.1574304 0.58573294 0
1.0110698 1.1653534 -0.050086658 0
0.84390742 1.1748353 0.36409491 0
0.83440167 1.1753745 0.469791 0
0.83703727 1.175225 0.58427811 0
0.99721807 1.1857642 -0.049556062 0
0.85538262 1.192019 0.36679819 0
0.84004134 1.1926955 0.47137481 0
0.84259754 1.1925828 0.58621562 0
1.0045477 1.2051368 -0.04979144 0
0.84556466 1.210143 0.36412045 0
0.85184103 1.2099454 0.47508103 0
0.84483117 1.2101661 0.58686477 0
1.004383 1.22482 -0.049767863 0
0.8477121 1.2277795 0.36455485 0
0.84625882 1.2278069 0.47307479 0
0.8353079 1.2280138 0.58273691 0
1.0004278 1.2445136 -0.049617816 0
0.84573716 1.2454876 0.36399412 0
0.83915228 1.2455291 0.4706364 0
0.85218209 1.245447 0.58963215 0
1.0104365 1.2641925 -0.049975146 0
0.85469455 1.263212 0.36627948 0
0.84157091 1.2631294 0.47144106 0
0.8447203 1.2631491 0.58654267 0
1.0168543 1.2840587 -0.050213184 0
0.84700936 1.2808504 0.36437553 0
0.83638591 1.2806497 0.46978953 0
0.84014398 1.2807207 0.58473963 0
1.004692 1.3035109 -0.049796592 0
0.85499591 1.2987971 0.36652783 0
0.84202796 1.2983887 0.47181466 0
0.83437318 1.2981477 0.58253264 0
1.0154325 1.3236822 -0.05020697 0
0.83855778 1.3158822 0.36250147 0
0.84430426 1.3161355 0.47279444 0
0.83584756 1.3157626 0.58341813 0
1.0041493 1.3428972 -0.049839191 0
0.8468129 1.3339727 0.36483738 0
0.84527057 1.3338852 0.47341284 0
0.84425241 1.3338274 0.58727026 0
0.99835902 1.3622364 -0.049676314 0
1.3006929 1.3832076 0.07249596 0
1.3027095 1.3833475 0.20638576 0
1.2962743 1.3829011 0.34111232 0
0.85407752 1.3522284 0.36698022 0
0.84405404 1.3515331 0.47337827 0
0.84024805 1.3512691 0.58606988 0
1.0033404 1.382347 -0.049907841 0
1.2466781 1.4023075 0.070624493 0
1.2406379 1.4018121 0.19988364 0
1.0131137 1.3831487 0.29019269 0
0.84687704 1.3695126 0.3654812 0
0.83709413 1.3687102 0.47150066 0
0.84324211 1.3692144 0.58786684 0
1.0077425 1.4025699 -0.050127953 0
1.2564511 1.4261272 0.071046911 0
1.2431872 1.4248708 0.20037469 0
0.90437895 1.3927795 0.27081114 0
0.84790033 1.38743 0.36614367 0
0.83355993 1.3860716 0.47083786 0
0.84332162 1.3869963 0.58854777 0
0.99982113 1.4216281 -0.049915001 0
0.63696247 1.382643 0.04888593 0
0.62691742 1.3815638 0.13401102 0
0.6437003 1.3833669 0.22386478 0
0.64568311 1.38358 0.3147133 0
0.83882612 1.404331 0.47319195 0
0.84090644 1.4045545 0.5882839 0
0.99911898 1.4414059 -0.049969945 0
0.55141896 1.3875952 0.04587144 0
0.55839318 1.3884335 0.12677734 0
0.55623335 1.3881739 0.20828913 0
0.55172318 1.3876318 0.29101133 0
0.83394605 1.4215531 0.47222671 0
0.83290619 1.4214282 0.58578271 0
1.0050503 1.462108 -0.050272845 0
0.55342799 1.4020481 0.046007399 0
0.55444676 1.4021837 0.12654215 0
0.55846721 1.4027183 0.20901823 0
0.54718715 1.4012182 0.29029849 0
0.84073693 1.4402565 0.47524959 0
0.83752733 1.4398297 0.58863771 0
0.98011988 1.478529 -0.049472243 0
0.55826503 1.4170126 0.046252195 0
0.5486024 1.4156036 0.1261192 0
0.55328244 1.4162861 0.20842996 0
0.55630451 1.4167267 0.29314867 0
0.83022565 1.4566709 0.47253996 0
0.8419053 1.458374 0.59149313 0
0.99287194 1.5003617 -0.050039664 0
0.55296105 1.4305447 0.046137717 0
0.55596727 1.4310219 0.1271511 0
0.56144661 1.4318914 0.21030924 0
0.55486256 1.4308466 0.29332724 0
0.85399872 1.4783216 0.48144343 0
0.83798927 1.4757807 0.59097505 0
0.9867968 1.5193722 -0.049936272 0
0.55459899 1.4451888 0.046280608 0
0.55354029 1.4450071 0.12713867 0
0.55072552 1.4445239 0.20877278 0
0.55104274 1.4445784 0.29293662 0
0.84156424 1.4944441 0.4782359 0
0.84746569 1.4954571 0.59617388 0
0.98474652 1.5390548 -0.049987439 0
0.54589206 1.4580276 0.046054959 0
0.5564025 1.4599681 0.1277235 0
0.5558663 1.4598691 0.21017092 0
0.53778821 1.4565313 0.29014212 0
0.83290678 1.5110201 0.47636729 0
0.84343618 1.5129641 0.59580255 0
0.97377318 1.5570134 -0.049723014 0
0.55550975 1.4743289 0.046501491 0
0.55528742 1.4742849 0.12789468 0
0.5496183 1.4731642 0.20951432 0
0.55072874 1.4733838 0.29419228 0
0.83959585 1.5304885 0.47976929 0
0.84058899 1.5306848 0.59602225 0
0.97601491 1.5775704 -0.04994829 0
0.54384798 1.4864687 0.046180289 0
0.54709917 1.487154 0.12730923 0
0.556485 1.4891325 0.21130398 0
0.54911822 1.4875796 0.29451445 0
0.83967096 1.5488288 0.48101479 0
0.84252244 1.5494299 0.59835964 0
0.96860093 1.5961306 -0.049830403 0
0.55230743 1.5028855 0.046599921 0
0.55433601 1.5033399 0.12843876 0
0.55130917 1.5026619 0.21091014 0
0.55422074 1.503314 0.29663935 0
0.84534127 1.5685219 0.48425004 0
0.83550805 1.5663193 0.5970071 0
0.95891577 1.6140698 -0.049637385 0
0.55199498 1.5175277 0.046706524 0
0.55681115 1.5186703 0.1290682 0
0.55411667 1.518031 0.21202639 0
0.54646081 1.5162147 0.29544976 0
0.83597475 1.584902 0.48243809 0
0.84439081 1.5868987 0.60250562 0
0.962192 1.6351198 -0.049929105 0
0.55048543 1.5319498 0.046776179 0
0.56276208 1.5350262 0.13010606 0
0.55482501 1.5330372 0.21279182 0
0.5475741 1.5312202 0.29663295 0
0.83857781 1.6041433 0.4847964 0
0.83982342 1.6044554 0.60239094 0
0.96548516 1.6563904 -0.050232194 0
0.54975778 1.5466315 0.046881627 0
0.54990405 1.5466701 0.1290796 0
0.55505186 1.5480292 0.21350519 0
0.54800731 1.5461693 0.29769036 0
0.84183639 1.6237451 0.48747137 0
0.83819526 1.6227838 0.60362905 0
0.95173472 1.6731559 -0.049914774 0
0.55659229 1.5634915 0.04727447 0
0.54260927 1.5596107 0.12868634 0
0.54965228 1.5615654 0.21320324 0
0.55830413 1.5639665 0.30141288 0
0.84536582 1.6436352 0.49033427 0
0.83394784 1.6404663 0.603845 0
0.95053333 1.6933451 -0.050070643 0
0.55255753 1.5774779 0.047272477 0
0.54798585 1.576147 0.12972817 0
0.55441326 1.5780182 0.21484067 0
0.55000335 1.5767343 0.30026665 0
0.85099941 1.6643666 0.49402344 0
0.8359614 1.6599884 0.60685748 0
0.94902378 1.7135584 -0.050225083 0
0.8527804 1.6842186 0.38213074 0
0.84244496 1.6810678 0.4928827 0
0.85272688 1.6842023 0.61637312 0
0.93165427 1.7288355 -0.049795382 0
0.85885817 1.7056378 0.38523757 0
0.83550078 1.6981945 0.49237287 0
0.83667046 1.6985673 0.6117965 0
0.931521 1.749529 -0.050019603 0
0.84697872 1.7214109 0.38360158 0
0.83791345 1.7183958 0.49521708 0
0.84277624 1.7200131 0.6169495 0
0.91713256 1.7654519 -0.049715996 0
0.84011525 1.7387547 0.38336641 0
0.83775622 1.7379371 0.49725816 0
0.836757 1.7375908 0.61693001 0
0.91606086 1.7859551 -0.049924016 0
0.8425681 1.7594386 0.38571614 0
0.83813947 1.7578408 0.49958652 0
0.83266228 1.7558646 0.61785465 0
0.90925735 1.8044685 -0.049924292 0
0.8361755 1.7770554 0.38573751 0
0.83278042 1.7757819 0.49997437 0
0.82567173 1.7731154 0.61760467 0
0.91958982 1.8296603 -0.050590031 0
0.84981471 1.8024807 0.3913044 0
0.82200199 1.7916467 0.49850962 0
0.82866758 1.7942431 0.62188709 0
0.89542204 1.8414203 -0.049942877 0
0.82787091 1.8141223 0.38719594 0
0.83752209 1.8180225 0.50654566 0
0.83527941 1.8171163 0.62792462 0
0.89119416 1.8610402 -0.050069816 0
0.83235341 1.8363959 0.39041588 0
0.82287198 1.8324248 0.50386143 0
0.82267028 1.8323404 0.62549508 0
0.89498657 1.8842396 -0.050519142 0
0.82447249 1.853657 0.39029306 0
0.81519216 1.8496319 0.50375575 0
0.82627457 1.8544385 0.63045561 0
0.8812272 1.8999134 -0.050295595 0
0.82270867 1.8736531 0.39194071 0
0.82948726 1.876695 0.51174164 0
0.81587106 1.8705846 0.62921321 0
0.85882169 1.9114054 -0.049738199 0
0.82688957 1.8965899 0.39534065 0
0.82452434 1.8954926 0.5128358 0
0.82344216 1.8949904 0.63626021 0
0.84935349 1.9286665 -0.049695343 0
0.82167822 1.9154 0.39618528 0
0.8167389 1.9130323 0.51298237 0
0.81733209 1.9133167 0.63720894 0
0.85818416 1.9549541 -0.050389782 0
0.81534892 1.9337533 0.39678419 0
0.81744903 1.9347926 0.51636523 0
0.81459934 1.9333823 0.63983005 0
0.83388644 1.9648761 -0.049773887 0
0.80853504 1.9519287 0.39731413 0
0.803289 1.9492495 0.51431692 0
0.80790466 1.9516069 0.64074332 0
0.83030504 1.9852219 -0.04999483 0
0.80463213 1.9717001 0.39875275 0
0.79872364 1.9685881 0.51593095 0
0.80022377 1.9693782 0.64130807 0
0.82026881 2.0022442 -0.049965449 0
0.79541439 1.9887511 0.39873037 0
0.78951532 1.9855485 0.51589036 0
0.79284972 1.9873587 0.64212638 0
0.80619675 2.0169892 -0.049779508 0
0.80052334 2.0138159 0.40295845 0
0.78364486 2.0043757 0.51720291 0
0.78660172 2.0060296 0.64359176 0
0.79627794 2.0339785 -0.049770944 0
0.78328174 2.0264933 0.40072939 0
0.79082519 2.030838 0.52362633 0
0.7914924 2.0312221 0.65050173 0
0.79071265 2.0535452 -0.049951855 0
0.77243632 2.0427103 0.40042785 0
0.7668708 2.0394108 0.51818448 0
0.77871579 2.046433 0.64911187 0
0.77760476 2.0686643 -0.049828991 0
0.7718721 2.0651674 0.40325737 0
0.76666433 2.0619907 0.52199721 0
0.76987141 2.063947 0.64971095 0
0.78030211 2.093601 -0.050379287 0
0.76384205 2.0832739 0.40394557 0
0.76185781 2.0820291 0.52414477 0
0.77168471 2.0881944 0.65563136 0
0.7606774 2.1046035 -0.049998999 0
0.76060754 2.1045585 0.40616426 0
0.76831383 2.1095297 0.53086835 0
0.75423473 2.1004474 0.65225869 0
0.75151449 2.122225 -0.050069578 0
0.74670976 2.1190391 0.40521902 0
0.75628394 2.1253874 0.53040665 0
0.75308961 2.1232693 0.6570341 0
0.74511284 2.1417918 -0.050269596 0
0.73254269 2.1332271 0.40423858 0
0.74336928 2.1406038 0.52966475 0
0.74644464 2.1426992 0.65923852 0
0.72455341 2.1516249 -0.049865112 0
0.72933131 2.1549692 0.40671664 0
0.73006731 2.1554844 0.52883655 0
0.72796398 2.1540122 0.655604 0
0.71493167 2.1689734 -0.049943291 0
0.72720641 2.1777973 0.40964428 0
0.71489412 2.1689463 0.52731049 0
0.7234177 2.1750736 0.65911418 0
0.71095055 2.1905577 -0.050282143 0
0.70834702 2.1886361 0.40738335 0
0.70938438 2.1894019 0.52983594 0
0.71303672 2.1920977 0.65979034 0
0.68578762 2.1963949 -0.049687549 0
0.7060203 2.2117269 0.41043648 0
0.69808048 2.2057104 0.53007406 0
0.70197302 2.2086599 0.66022921 0
0.68019754 2.2169285 -0.049975675 0
0.68819612 2.2231498 0.40860409 0
0.70242316 2.2342155 0.53699535 0
0.69364935 2.2273912 0.66221845 0
0.66694063 2.2316062 -0.04992824 0
0.69344276 2.2527604 0.41433126 0
0.68273109 2.2442102 0.53390741 0
0.68944365 2.2495682 0.66653371 0
0.66017479 2.2515612 -0.05018834 0
0.66855854 2.2584276 0.41030344 0
0.67906421 2.2670321 0.53773272 0
0.67172772 2.2610233 0.66381186 0
0.64230007 2.2624252 -0.049944844 0
0.66343278 2.2801828 0.41284087 0
0.66171128 2.2787361 0.5357756 0
0.66327029 2.2800462 0.6661458 0
0.62609774 2.274508 -0.049783926 0
0.71728307 2.3531103 0.066081904 0
0.71886116 2.3544705 0.18708462 0
0.72031981 2.3557279 0.31023291 0
0.64146107 2.2877514 0.40982348 0
0.65278131 2.2975094 0.5375613 0
0.64439791 2.290283 0.66294223 0
0.61966795 2.2950845 -0.050094139 0
0.67841917 2.3470321 0.064893961 0
0.68776494 2.3552954 0.18462539 0
0.6834206 2.3514543 0.30471286 0
0.64097744 2.3139262 0.41412255 0
0.63870746 2.3119192 0.53718692 0
0.63245541 2.306391 0.66360366 0
0.60190028 2.3056786 -0.049873888 0
0.66129631 2.3595438 0.06473653 0
0.6575194 2.3561187 0.18226285 0
0.65614277 2.3548701 0.30145887 0
0.61731929 2.3196619 0.41060206 0
0.6282987 2.3296189 0.53853548 0
0.6251964 2.3268054 0.66700327 0
0.58963627 2.3211834 -0.049925849 0
0.64054388 2.3685324 0.06440793 0
0.64539582 2.3730454 0.18253376 0
0.64607817 2.3736799 0.30241668 0
0.61258286 2.342526 0.41365799 0
0.60459691 2.3350983 0.53396082 0
0.61194021 2.3419282 0.66719627 0
0.57755393 2.3369167 -0.049996976 0
0.62230283 2.379601 0.064204812 0
0.62299651 2.3802626 0.18131322 0
0.6194635 2.3768926 0.29931986 0
0.60063761 2.3589354 0.41431001 0
0.60131496 2.3595815 0.53875095 0
0.59522623 2.3537736 0.6655215 0
0.5572378 2.3446701 -0.049667612 0
0.61729938 2.4034226 0.06466721 0
0.61312371 2.399338 0.18197438 0
0.61038011 2.3966541 0.30061775 0
0.58777577 2.3745425 0.4147163 0
0.58931714 2.3760502 0.53968662 0
0.58467251 2.3715069 0.66747981 0
0.55230564 2.3675315 -0.050116915 0
0.61032897 2.4257376 0.065051094 0
0.59553581 2.410898 0.18150583 0
0.60051388 2.4158916 0.3017953 0
0.57610542 2.3914063 0.41562894 0
0.57827514 2.3935828 0.5411818 0
0.58190078 2.3972199 0.6741569 0
0.53123122 2.3742459 -0.049759924 0
0.59598845 2.4408641 0.065076783 0
0.6046471 2.4497716 0.18517007 0
0.60276586 2.4478362 0.30618599 0
0.55968446 2.4035168 0.41489178 0
0.55864102 2.4024434 0.5387001 0
0.56457728 2.4085503 0.6724683 0
0.51961249 2.3905745 -0.049893238 0
0.61780399 2.4941661 0.066989005 0
0.61074239 2.486716 0.18848811 0
0.61548239 2.4917169 0.31348354 0
0.54735786 2.4198456 0.41571951 0
0.54841202 2.4209578 0.54078722 0
0.55538636 2.4283156 0.67573708 0
0.51213449 2.4115262 -0.050256915 0
0.53294772 2.4340453 0.4158521 0
0.5359754 2.4373212 0.54193437 0
0.54324406 2.4451857 0.67740119 0
0.4813002 2.4069479 -0.049394093 0
0.51993269 2.4498174 0.41658592 0
0.51851147 2.4482403 0.54070103 0
0.51915675 2.4489563 0.67183131 0
0.4815329 2.4368119 -0.050196137 0
0.50748545 2.4663503 0.41762608 0
0.50243026 2.4605966 0.54021555 0
0.50200635 2.4601142 0.67056221 0
0.46297845 2.4456162 -0.049999494 0
0.48755118 2.4743049 0.41582635 0
0.48880252 2.4757659 0.54105669 0
0.48604402 2.4725454 0.67011929 0
0.43986723 2.4487517 -0.049552165 0
0.47237751 2.4876893 0.41593391 0
0.47561571 2.4915676 0.54223794 0
0.47032019 2.4852252 0.66992402 0
0.43579844 2.474792 -0.050177149 0
0.45274612 2.4956176 0.41430891 0
0.45847973 2.5026631 0.54146016 0
0.45744118 2.5013869 0.67169577 0
0.41811875 2.4843843 -0.050048806 0
0.43477759 2.5053897 0.4133814 0
0.44207403 2.51459 0.54113513 0
0.4416661 2.5140758 0.67170072 0
0.40329102 2.4975243 -0.05009187 0
0.42167643 2.5213161 0.41452047 0
0.42945048 2.5313764 0.54294372 0
0.42518958 2.5258625 0.67133814 0
0.38885024 2.511234 -0.050168373 0
0.41240761 2.5425253 0.41738877 0
0.40987471 2.5391607 0.54105312 0
0.40758315 2.5361168 0.67029297 0
0.37029269 2.5194261 -0.050007991 0
0.39347461 2.5510395 0.41625145 0
0.38647631 2.5414958 0.5370338 0
0.39648053 2.5551386 0.67387301 0
0.3529816 2.5291746 -0.049927615 0
0.37401381 2.5586269 0.41490886 0
0.37618396 2.5616658 0.54046273 0
0.37955377 2.5663848 0.67353654 0
0.3390415 2.5436778 -0.050064206 0
0.36246601 2.577369 0.41712064 0
0.36005339 2.573899 0.54069847 0
0.35513434 2.566824 0.66786134 0
0.32085332 2.5520811 -0.049944289 0
0.33976033 2.580019 0.41440123 0
0.33588406 2.5742912 0.53625745 0
0.34228882 2.5837553 0.67063367 0
0.30609778 2.5655489 -0.050051682 0
0.33119693 2.6036618 0.41820496 0
0.31947866 2.5858676 0.53643006 0
0.326507 2.5965402 0.67140806 0
0.2908152 2.5783403 -0.050137442 0
0.30713734 2.6038179 0.41489455 0
0.30759272 2.6045289 0.53948259 0
0.3062363 2.6024115 0.66887486 0
0.27244809 2.5863008 -0.050027471 0
0.28721777 2.6100073 0.41351503 0
0.29179749 2.6173582 0.54028416 0
0.2929534 2.6192136 0.67181855 0
0.26040837 2.6045647 -0.050358064 0
0.27022496 2.6207724 0.41358587 0
0.26794901 2.6170146 0.53603363 0
0.26682404 2.6151571 0.66472459 0
0.24191822 2.6123354 -0.050257836 0
0.25117114 2.6280558 0.41268912 0
0.25604686 2.6363394 0.53952366 0
0.25396392 2.6328006 0.66826689 0
0.22369488 2.6204367 -0.050181523 0
0.23820837 2.6458201 0.41494986 0
0.22820784 2.6283298 0.53257084 0
0.23485823 2.639961 0.66686165 0
0.20046706 2.6194196 -0.049742799 0
0.2195325 2.6537607 0.41437584 0
0.21394975 2.6437049 0.53469878 0
0.21659447 2.6484685 0.66621846 0
0.18347521 2.6293299 -0.049762104 0
0.20158674 2.6629431 0.41423407 0
0.20326592 2.6660595 0.53951818 0
0.19633628 2.6531987 0.66391164 0
0.16852178 2.6431763 -0.049948487 0
0.17568381 2.6568787 0.40976921 0
0.1817999 2.6685801 0.53691089 0
0.18326916 2.671391 0.66802871 0
0.15839215 2.6668394 -0.050534151 0
0.16200699 2.6739726 0.41205013 0
0.15931012 2.6686509 0.53350765 0
0.16164573 2.6732597 0.66461945 0
0.13855328 2.6716735 -0.050372407 0
0.1398737 2.6743627 0.40961832 0
0.13963683 2.6738801 0.53214264 0
0.14179952 2.6782846 0.66281301 0
0.11488339 2.6681924 -0.049892824 0
0.12337001 2.6860404 0.41046885 0
0.12114384 2.6813586 0.53170586 0
0.12035354 2.6796966 0.65947586 0
0.10141142 2.6860721 -0.050267216 0
0.11006375 2.7048752 0.41338307 0
0.10208597 2.6875379 0.53088135 0
0.10311272 2.6897693 0.66022873 0
0.081478022 2.690088 -0.050104432 0
0.083454989 2.6945307 0.40817958 0
0.081049763 2.6891255 0.52847707 0
0.081266247 2.6896122 0.65644014 0
0.063541435 2.6984651 -0.050121792 0
0.06407591 2.6997082 0.40740821 0
0.065266393 2.702477 0.53044212 0
0.065350793 2.7026732 0.65875363 0
0.045666359 2.7070308 -0.050155096 0
0.045702361 2.7071176 0.40732497 0
0.045133077 2.7057462 0.52883691 0
0.047100209 2.7104847 0.65879172 0
0.023813447 2.7057347 -0.049817655 0
0.025803348 2.7107036 0.40625519 0
0.026467701 2.7123628 0.52853048 0
0.028763255 2.7180953 0.65884274 0
0.0094993329 2.7233212 -0.050214995 0
0.0087337708 2.7213373 0.40718654 0
0.0057430477 2.7135875 0.52638674 0
0.0094734645 2.723254 0.65790826 0
-0.012854257 2.7200816 -0.049824193 0
-0.011959829 2.7224889 0.40559152 0
-0.008770206 2.7310746 0.53011757 0
-0.014599838 2.7153831 0.65133053 0
-0.028817812 2.7339187 -0.050093237 0
-0.033902563 2.7196856 0.40300286 0
-0.033193685 2.7216699 0.52439588 0
-0.034335293 2.7184744 0.64973569 0
-0.047830679 2.7394629 -0.05005572 0
-0.05192671 2.7275252 0.40337086 0
-0.05201719 2.7272613 0.52408189 0
-0.052789785 2.7250097 0.6497643 0
-0.06617371 2.746968 -0.050101068 0
-0.072296537 2.7283633 0.40191785 0
-0.071096398 2.7320099 0.52355719 0
-0.072145708 2.7288215 0.64870715 0
-0.084616996 2.7542717 -0.05014737 0
-0.096684225 2.7159879 0.39700463 0
-0.091533817 2.7323277 0.52157295 0
-0.092013426 2.7308061 0.64696693 0
-0.1028956 2.7622459 -0.050227173 0
-0.11122871 2.7345994 0.4004491 0
-0.11544663 2.7206056 0.51550215 0
-0.10914991 2.7414961 0.64910626 0
-0.12269602 2.765146 -0.05012675 0
-0.1065786 2.8211617 0.06420771 0
-0.10483155 2.8272336 0.18189795 0
-0.1064697 2.8215401 0.30011323 0
-0.1304241 2.7382874 0.39996791 0
-0.13060398 2.7376623 0.51952082 0
-0.12877853 2.7440066 0.647807 0
-0.14303847 2.7658131 -0.049953248 0
-0.13370682 2.7998521 0.063213326 0
-0.13381831 2.7994454 0.17818028 0
-0.13380651 2.7994883 0.29495093 0
-0.14821588 2.7469275 0.40086243 0
-0.15168701 2.7342658 0.51653582 0
-0.15177761 2.7339351 0.64121693 0
-0.16171567 2.7723958 -0.050008047 0
-0.15625007 2.7933648 0.062781669 0
-0.15811919 2.7861938 0.17612983 0
-0.15812115 2.7861862 0.29150054 0
-0.16970821 2.7417324 0.39816552 0
-0.17078875 2.737587 0.51596165 0
-0.17233227 2.7316651 0.63811058 0
-0.18247063 2.7707493 -0.04976869 0
-0.17700358 2.792861 0.062581874 0
-0.17888315 2.785259 0.1754832 0
-0.1791674 2.7841094 0.29020321 0
-0.19127811 2.7351277 0.39517772 0
-0.19008593 2.7399495 0.51514328 0
-0.18857051 2.7460785 0.64223993 0
-0.19850157 2.7885697 -0.050253388 0
-0.19851394 2.7885168 0.062251456 0
-0.1991886 2.7856328 0.17501181 0
-0.19917102 2.785708 0.28963968 0
-0.20554768 2.7584491 0.40011123 0
-0.21116967 2.734416 0.51171267 0
-0.21193813 2.7311311 0.63395959 0
-0.21862514 2.7894459 -0.050124653 0
-0.21430682 2.8090136 0.062840052 0
-0.21769701 2.7936516 0.1754113 0
-0.21761991 2.7940009 0.29036066 0
-0.22936837 2.7407651 0.39436457 0
-0.23267157 2.7257972 0.50733089 0
-0.2322305 2.7277958 0.63075083 0
-0.24038254 2.7820175 -0.049702704 0
-0.23554014 2.8053524 0.06255354 0
-0.23409499 2.8123164 0.17700385 0
-0.2360125 2.8030763 0.29126671 0
-0.24687581 2.7507274 0.39591491 0
-0.25109404 2.7304003 0.50754523 0
-0.25214082 2.7253561 0.62803715 0
-0.26042446 2.7818696 -0.049556553 0
-0.25190645 2.8256826 0.063150018 0
-0.25038651 2.8335006 0.17889094 0
-0.25164118 2.8270471 0.29494983 0
-0.26771593 2.7443657 0.39327601 0
-0.2686671 2.7394733 0.5093528 0
-0.2711896 2.7264986 0.62694705 0
-0.27815887 2.7938836 -0.049861178 0
-0.2674171 2.8531055 0.064009979 0
-0.26813826 2.8491297 0.18018945 0
-0.26590946 2.8614175 0.30056682 0
-0.2873368 2.7432835 0.39208025 0
-0.28799662 2.7396457 0.50822169 0
-0.28894696 2.7344065 0.62880719 0
-0.29608113 2.8060949 -0.050180394 0
-0.30797735 2.7354541 0.38920534 0
-0.30880389 2.730546 0.50404692 0
-0.3101671 2.7224512 0.62241769 0
-0.31524619 2.8117986 -0.050272033 0
-0.32534313 2.7468593 0.39136952 0
-0.32823452 2.7282629 0.50226367 0
-0.32861558 2.7258122 0.62257034 0
-0.33514112 2.8128645 -0.05020497 0
-0.34600231 2.7367051 0.38803014 0
-0.34771231 2.7247143 0.50014067 0
-0.34675041 2.7314594 0.62377608 0
-0.35402983 2.8213401 -0.050413795 0
-0.36594379 2.7295434 0.38553303 0
-0.36706007 2.7209425 0.49802861 0
-0.36727047 2.7193213 0.61764979 0
-0.37597263 2.8050079 -0.049739156 0
-0.3851561 2.7265184 0.38416681 0
-0.38544193 2.7240753 0.49831414 0
-0.38468373 2.7305555 0.62138337 0
-0.39494449 2.812613 -0.049934547 0
-0.40401721 2.7255902 0.38340226 0
-0.40469018 2.7191353 0.49597642 0
-0.40454152 2.7205613 0.61636633 0
-0.4146603 2.8136377 -0.04990238 0
-0.42332494 2.7189879 0.38124585 0
-0.42422575 2.7091479 0.49203619 0
-0.42346758 2.7174301 0.61431259 0
-0.43446651 2.813267 -0.049829163 0
-0.44272599 2.708533 0.37816787 0
-0.44298929 2.705194 0.49019548 0
-0.44283855 2.7071056 0.60937238 0
-0.45464486 2.806541 -0.049537543 0
-0.46080008 2.7135668 0.37911519 0
-0.46147645 2.7033501 0.48913869 0
-0.46140569 2.7044189 0.60770673 0
-0.47343522 2.821939 -0.050046206 0
-0.48021147 2.6954379 0.37420207 0
-0.48045754 2.6908441 0.48460785 0
-0.48065689 2.6871226 0.60008162 0
-0.49321494 2.822021 -0.050015792 0
-0.49819636 2.7003646 0.37524104 0
-0.49860674 2.6903427 0.48415622 0
-0.49851242 2.6926458 0.60201699 0
-0.51284105 2.8268764 -0.050164778 0
-0.51625997 2.7062359 0.3765786 0
-0.51694316 2.6821282 0.48121372 0
-0.51705146 2.6783085 0.59581852 0
-0.53270572 2.8234506 -0.050026871 0
-0.53488445 2.6850486 0.37106952 0
-0.53492594 2.6824162 0.48117766 0
-0.53503257 2.6756427 0.59455097 0
-0.55251145 2.8088703 -0.049499668 0
-0.55290592 2.6836028 0.37065727 0
-0.55289567 2.686862 0.48260027 0
-0.55290097 2.6851804 0.59842998 0
-0.57223094 2.8242159 -0.050049752 0
-0.57088929 2.6821315 0.37029633 0
-0.57075882 2.6683104 0.47644681 0
-0.57086253 2.6792982 0.59601784 0
-0.59196001 2.8222415 -0.04999036 0
-0.58829492 2.6559312 0.36368233 0
-0.58837283 2.6594641 0.47359627 0
-0.58852822 2.6665168 0.59084147 0
-0.61187834 2.8268521 -0.050175037 0
-0.60641265 2.6690633 0.36716244 0
-0.6062488 2.6643329 0.47538391 0
-0.60577905 2.6507719 0.58452737 0
-0.63169551 2.8264952 -0.05019125 0
-0.62278223 2.6378617 0.35937923 0
-0.62356955 2.6545246 0.47235918 0
-0.62301952 2.6428843 0.58155638 0
-0.65082848 2.8144674 -0.049798992 0
-0.64058024 2.6433206 0.36101291 0
-0.6399824 2.6333368 0.46561211 0
-0.64048374 2.6417091 0.5814572 0
-0.63983357 2.6308515 0.6959669 0
-0.67061609 2.815248 -0.04987346 0
-0.65811896 2.6429379 0.36121106 0
-0.65725803 2.6310675 0.46523845 0
-0.65681022 2.624893 0.57495636 0
-0.65642631 2.6195996 0.6908977 0
-0.69006312 2.8113759 -0.049790226 0
-0.67395192 2.6222699 0.4627572 0
-0.67423373 2.6255774 0.57580596 0
-0.67375958 2.6200123 0.6917854 0
-0.71015626 2.8146734 -0.049972866 0
-0.6892767 2.6013863 0.45630288 0
-0.68974286 2.6061485 0.56838042 0
-0.69011652 2.6099656 0.68752551 0
-0.72992384 2.8138287 -0.050016049 0
-0.70662332 2.6031978 0.56789005 0
-0.70602226 2.5977645 0.68227887 0
-0.74959779 2.8119507 -0.050031073 0
-0.72285348 2.5951984 0.56538129 0
-0.72273046 2.5942016 0.68147975 0
-0.76828116 2.8026974 -0.049789313 0
-0.73976868 2.5933397 0.68214929 0
-0.78889465 2.8075299 -0.050064016 0
-0.7536298 2.5709143 0.6720202 0
-0.80855042 2.8052168 -0.050090224 0
-0.82781893 2.8005636 -0.050040644 0
-0.84433609 2.7814395 -0.049474083 0
-0.86589634 2.7894232 -0.049900778 0
-0.88290775 2.7747073 -0.049509753 0
-0.90533769 2.7850609 -0.050043277 0
-0.92550051 2.7843683 -0.050183166 0
-0.94579756 2.7837906 -0.050337076 0
-0.9632681 2.7722099 -0.05009431 0
-0.98418015 2.7735012 -0.050336163 0
-1.0002774 2.7578318 -0.04995745 0
-1.0207032 2.7570989 -0.050142854 0
-1.0406498 2.7544413 -0.050266441 0
-1.0537568 2.7311506 -0.049622878 0
-1.0761137 2.7356391 -0.050033491 0
-1.089373 2.7143042 -0.04947545 0
-1.1073624 2.7065625 -0.049440034 0
-1.1330099 2.718359 -0.050162613 0
-1.1492811 2.7058034 -0.049962439 0
-1.1697553 2.7035494 -0.050168376 0
-1.1855941 2.6903291 -0.049958128 0
-1.2020248 2.6787689 -0.049819537 0
-1.2218678 2.674726 -0.049984552 0
-1.2377846 2.6622839 -0.049827412 0
-1.2529029 2.6484826 -0.049623013 0
-1.2733618 2.6453657 -0.049853925 0
-1.2949243 2.6439741 -0.050166491 0
-1.3087739 2.6280155 -0.049899455 0
-1.3289564 2.6236737 -0.050113678 0
-1.3380522 2.5999148 -0.049538493 0
-1.3678492 2.6116104 -0.050437964 0
-1.3855244 2.6023557 -0.050482266 0
-1.3955246 2.5808887 -0.050020561 0
-1.4050617 2.5593007 -0.04955525 0
-1.4321245 2.5645497 -0.050243169 0
-1.4479231 2.5525143 -0.050203439 0
-1.4571298 2.5311675 -0.049765334 0
-1.4724232 2.5187533 -0.049721953 0
-1.4903519 2.509932 -0.049846496 0
-1.5104364 2.503787 -0.050102498 0
-1.5304307 2.4972289 -0.05035371 0
-1.5355815 2.4719062 -0.049759626 0
-1.5557882 2.4655025 -0.050037656 0
-1.5622764 2.4425683 -0.049557589 0
-1.5898221 2.4444196 -0.050247543 0
-1.6081004 2.4351194 -0.050428819 0
-1.6188711 2.4173982 -0.050216254 0
-1.6328179 2.4032855 -0.050184194 0
-1.6436702 2.3859768 -0.050002243 0
-1.6638403 2.3783123 -0.050307963 0
-1.6762135 2.3626163 -0.050222959 0
-1.6845479 2.3430979 -0.049948383 0
-1.7035438 2.3338835 -0.050212055 0
-1.722401 2.324285 -0.050471637 0
-1.7254761 2.3003039 -0.049977805 0
-1.7393336 2.2861946 -0.050014772 0
-1.7490509 2.268523 -0.049865611 0
-1.7711133 2.2612257 -0.050301045 0
-1.7742268 2.2382081 -0.049866334 0
-1.2302783 1.7983863 0.51917052 0
-1.7870406 2.2232201 -0.04989006 0
-1.2329125 1.7865908 0.51602745 0
-1.8043711 2.2116747 -0.050125387 0
-1.2320713 1.7722931 0.51042777 0
-1.8222204 2.2003062 -0.05038815 0
-1.2336056 1.760067 0.50677371 0
-1.8240309 2.1770208 -0.049946439 0
-1.2362767 1.7488587 0.50410062 0
-1.8394749 2.1637847 -0.050118309 0
-1.229584 1.731145 0.49474579 0
-1.8488486 2.1462052 -0.050032575 0
-1.230857 1.7194134 0.49137458 0
-1.8550835 2.126585 -0.049822107 0
-1.2349015 1.7097152 0.49011829 0
-1.8710207 2.1134841 -0.05003785 0
-1.2317733 1.6953875 0.48387632 0
-1.883701 2.0981271 -0.050121062 0
-1.2362891 1.6862353 0.48318452 0
-1.8931894 2.0807228 -0.050077781 0
-1.2446778 1.6795115 0.48527944 0
-1.9024621 2.0632207 -0.050035 0
-1.2412763 1.6655918 0.47925836 0
-1.9105548 2.0450602 -0.049952891 0
-1.2389464 1.6525927 0.47413835 0
-1.9244314 2.0302458 -0.05011823 0
-1.2474653 1.6459993 0.47656471 0
-1.9254477 2.0082078 -0.049765822 0
-1.2445796 1.6330018 0.47130832 0
-1.9422911 1.9949118 -0.050067823 0
-1.9537134 1.9785606 -0.050156593 0
-1.9552417 1.9571609 -0.049857691 0
-1.9751699 1.9449556 -0.050302044 0
-1.9737271 1.9223206 -0.049906272 0
-1.9802552 1.9036264 -0.049836796 0
-1.9974535 1.8896903 -0.050193276 0
-1.9966968 1.8678241 -0.049857866 0
-2.0086789 1.8514516 -0.050026622 0
-2.0071235 1.829576 -0.049682513 0
-1.9961499 1.8043565 -0.048990645 0
-1.9963392 1.7837608 -0.048738722 0
-1.9981912 1.7639384 -0.048560735 0
-2.0059357 1.7462465 -0.048615098 0
-2.0111461 1.7276859 -0.048582487 0
-2.0128846 1.7080638 -0.048428915 0
-1.9978945 1.6835668 -0.047661971 0
-2.0023663 1.6651624 -0.047631573 0
-1.999197 1.6447084 -0.047327261 0
-2.0159459 1.6295977 -0.047767699 0
-1.9987937 1.6058952 -0.046968002 0
-1.9948162 1.5858067 -0.046664272 0
-1.9980762 1.5675079 -0.04663505 0
-2.002574 1.5494797 -0.04665941 0
-1.9937804 1.5288905 -0.046208866 0
-2.0021362 1.511676 -0.046390641 0
-1.9991001 1.4924469 -0.046167664 0
-1.9928286 1.4728813 -0.045837034 0
-2.0161498 1.4576735 -0.046582583 0
-2.0054481 1.437626 -0.046109498 0
-1.9980212 1.4182839 -0.045763832 0
-2.0066111 1.400803 -0.046002071 0
-2.0115325 1.3828262 -0.046116479 0
-1.9980541 1.3633728 -0.045580104 0
-2.0074418 1.3457371 -0.045870878 0
-1.9979525 1.3269416 -0.045494635 0
-2.0057971 1.3090639 -0.045746312 0
-2.0004354 1.290673 -0.045534316 0
-2.0089798 1.272604 -0.045827128 0
-1.9906541 1.2543254 -0.045168769 0
-1.1357725 0.26436791 -0.049990866 0
-0.38494658 0.2643699 0.41502264 0
-0.39897877 0.26436988 0.49913192 0
-1.1463386 0.24448629 -0.050372556 0
-0.3966893 0.25392801 0.42093089 0
-1.1438435 0.22466123 -0.050296865 0
-0.40809983 0.2431954 0.35416654 0
-0.41258198 0.24308248 0.42898387 0
-1.1304555 0.20529816 -0.049840886 0
-0.51584923 0.22852735 0.10799577 0
-0.51277232 0.22864366 0.17660801 0
-1.2476542 0.20086859 0.43497804 0
-1.2447058 0.20098002 0.56440914 0
-1.2474945 0.20087463 0.70209229 0
-1.1236956 0.18591982 -0.049630258 0
-0.51194972 0.21675883 0.1076328 0
-0.52149767 0.21627751 0.17827837 0
-1.2420835 0.17995171 0.43379328 0
-1.2262954 0.18074763 0.55858648 0
-1.2484964 0.17962843 0.70289433 0
-1.1310387 0.16579814 -0.049932681 0
-0.5140242 0.20469701 0.10792881 0
-0.51072377 0.20490509 0.17645456 0
-1.2248669 0.15988286 0.42969769 0
-1.2320701 0.15942875 0.56090635 0
-1.139084 0.14540625 -0.050269607 0
-0.50366324 0.19350505 0.10690121 0
-0.52543104 0.19185731 0.17926353 0
-1.2335283 0.13825719 0.43228403 0
-1.2372149 0.13797812 0.56310779 0
-1.1254036 0.12669256 -0.049837451 0
-0.52060407 0.18014018 0.10883319 0
-0.50685358 0.18135536 0.17607911 0
-1.2320868 0.11726474 0.43235537 0
-1.2278999 0.11763474 0.56057239 0
-1.1331831 0.10611302 -0.050183244 0
-0.51027167 0.16907513 0.10783985 0
-0.51247036 0.1688529 0.17730021 0
-1.2497975 0.094325982 0.43740579 0
-1.2323 0.096094571 0.56270558 0
-1.1190995 0.087773196 -0.049753252 0
-0.50797135 0.15732825 0.039794333 0
-0.5104512 0.15704601 0.10799713 0
-0.50753838 0.15737753 0.1766369 0
-1.2375 0.07429754 0.4348321 0
-1.2388622 0.074142508 0.56565654 0
-1.1244618 0.06727431 -0.050030664 0
-0.50619805 0.14553896 0.039781705 0
-0.51141077 0.14487907 0.10825557 0
-0.51134819 0.144887 0.17758794 0
-1.2453586 0.051970232 0.43750259 0
-1.2424431 0.052339289 0.56770504 0
-1.1214336 0.047744323 -0.050015416 0
-0.50171989 0.1341338 0.039676901 0
-0.50870162 0.13316053 0.10813298 0
-0.51437032 0.13237031 0.17842582 0
-1.2391975 0.031327773 0.43663868 0
-1.2426969 0.030839939 0.56873173 0
-1.1069272 0.02996977 -0.049594495 0
-0.51941854 0.11942484 0.040377941 0
-0.51271689 0.12044526 0.10875719 0
-0.51534909 0.12004446 0.17892128 0
-1.2321886 0.010897239 0.43562132 0
-1.2456012 0.0088550346 0.57074332 0
-1.1094474 0.0096806483 -0.049796905 0
-0.50954109 0.10876755 0.040089298 0
-0.50550026 0.10943497 0.10817667 0
-0.5176574 0.10742696 0.17968914 0
-1.2296487 -0.010173063 0.43582398 0
-1.2460943 -0.012889425 0.57203937 0
-1.1110693 -0.010596613 -0.049976442 0
-0.51729459 0.095174454 0.040444221 0
-0.51925015 0.094826095 0.10989869 0
-0.50807875 0.0968161 0.17831025 0
-1.2457612 -0.034589719 0.44092947 0
-1.2351071 -0.032691877 0.56955111 0
-1.0981098 -0.028218698 -0.04963569 0
-0.50389111 0.08536876 0.040037207 0
-0.51413715 0.083410181 0.10958109 0
-0.51986092 0.082316063 0.18087468 0
-1.2461287 -0.056513142 0.44203728 0
-1.2478855 -0.056848954 0.57519108 0
-1.1043025 -0.049510282 -0.050000001 0
-0.51080889 0.071703769 0.040374111 0
-0.50214529 0.073473208 0.10852388 0
-0.5153802 0.070770122 0.18048576 0
-1.2414314 -0.077517219 0.44190085 0
-1.2392591 -0.077073552 0.57368052 0
-1.0997261 -0.068726905 -0.049981646 0
-0.50668502 0.060193945 0.040314808 0
-0.51472306 0.058446575 0.11017968 0
-0.51523352 0.058335606 0.18092245 0
-1.2425683 -0.099779285 0.44335628 0
