# .PCD v0.7 - Point Cloud Data file format
VERSION 0.7
FIELDS x y z intensity
SIZE 4 4 4 4
TYPE F F F F
COUNT 1 1 1 1
WIDTH 1351
HEIGHT 1
VIEWPOINT 0 0 0 1 0 0 0
POINTS 1351
DATA ascii
0.8570202 1.1740915 0.36744577 0
0.83984607 1.1750656 0.47160521 0
0.84006602 1.1750531 0.58553416 0
0.99915713 1.1856787 -0.049625359 0
0.86183983 1.1917343 0.36844724 0
0.84319085 1.1925566 0.47242364 0
0.84108037 1.1926497 0.58558685 0
1.0068126 1.2050655 -0.049872335 0
0.85310024 1.2099057 0.36604396 0
0.838 1.2103813 0.47047392 0
0.84471089 1.2101699 0.58681494 0
1.01851 1.2245532 -0.050272305 0
0.84673017 1.227798 0.3643043 0
0.8439799 1.22785 0.47231647 0
0.83443218 1.2280303 0.58237427 0
1.005805 1.2444798 -0.049809791 0
0.84978348 1.2454621 0.3650265 0
0.83204287 1.2455738 0.46827108 0
0.8436951 1.2455004 0.58611816 0
1.0064622 1.2641674 -0.049833253 0
0.84193617 1.2631316 0.36302435 0
0.83933455 1.2631153 0.47069705 0
0.83419806 1.2630829 0.58218592 0
1.0044837 1.283825 -0.049771462 0
0.8467111 1.2808447 0.36429942 0
0.82973915 1.2805241 0.46757782 0
0.8329156 1.2805841 0.58174628 0
1.0102999 1.3036875 -0.049996898 0
0.86144191 1.299 0.36817324 0
0.83687109 1.2982264 0.47009814 0
0.83215064 1.2980777 0.58161199 0
1.0093442 1.3234136 -0.049989402 0
0.84854943 1.3163228 0.36505315 0
0.84506899 1.3161693 0.4730491 0
0.84183997 1.3160269 0.58590162 0
1.0117422 1.3433279 -0.050110701 0
0.85141581 1.3342338 0.36601362 0
0.83309251 1.3331944 0.46935475 0
0.84210736 1.3337058 0.58638072 0
1.0064626 1.3627985 -0.049966317 0
1.3033253 1.3833902 0.072590165 0
1.2986877 1.3830684 0.2059525 0
1.2989867 1.3830892 0.34160265 0
0.85077709 1.3519994 0.36613613 0
0.84498388 1.3515975 0.47368836 0
0.85036629 1.3519709 0.59026933 0
1.0053416 1.3825111 -0.04997953 0
1.2481773 1.4024305 0.070678189 0
1.2482458 1.4024361 0.20070401 0
1.009286 1.3828347 0.28950006 0
0.85423893 1.3701165 0.36736578 0
0.84687299 1.3695122 0.47476494 0
0.83837765 1.3688154 0.58584601 0
1.0057161 1.402378 -0.050055284 0
1.2428595 1.4248397 0.070559502 0
1.2471234 1.4252436 0.20079961 0
0.90417665 1.3927603 0.27077451 0
0.85057288 1.387683 0.36682856 0
0.83844572 1.3865345 0.47247064 0
0.82768315 1.385515 0.58204389 0
1.0029281 1.4219619 -0.050026566 0
0.64516622 1.3835244 0.0491805 0
0.6423406 1.3832209 0.13567807 0
0.633825 1.382306 0.22207353 0
0.64138144 1.3831178 0.31360951 0
0.83792859 1.4042345 0.47289166 0
0.84325761 1.4048071 0.58926296 0
1.0049397 1.4421054 -0.050179243 0
0.55508965 1.3880365 0.046003431 0
0.54281145 1.3865607 0.12509072 0
0.55561393 1.3880994 0.20817663 0
0.5503872 1.3874712 0.29066804 0
0.84693867 1.4231148 0.47658038 0
0.84036404 1.4223245 0.58889276 0
1.0011122 1.4615843 -0.050131012 0
0.54772538 1.4012898 0.045802016 0
0.5532034 1.4020183 0.12640734 0
0.55458373 1.4022019 0.20831171 0
0.55901378 1.402791 0.29334241 0
0.83513206 1.4395112 0.47336847 0
0.83744711 1.439819 0.58860427 0
0.99071985 1.4800746 -0.049854681 0
0.54857153 1.4155991 0.045902465 0
0.5506323 1.4158996 0.12633964 0
0.54706234 1.415379 0.2072963 0
0.55396241 1.4163852 0.29254481 0
0.84281641 1.4585069 0.47677314 0
0.84425431 1.4587165 0.59247601 0
0.98060971 1.4984156 -0.049596403 0
0.56044704 1.4317329 0.046408322 0
0.55756468 1.4312754 0.12732492 0
0.55078167 1.4301989 0.20836177 0
0.56020671 1.4316947 0.29470775 0
0.83985561 1.476077 0.47667921 0
0.83879417 1.4759085 0.59131247 0
0.97655493 1.5176142 -0.049565274 0
0.5524506 1.44482 0.04620279 0
0.55201727 1.4447457 0.12697262 0
0.55330545 1.4449668 0.20924489 0
0.5454933 1.4436258 0.29150009 0
0.84013039 1.494198 0.47775185 0
0.83210391 1.4928204 0.58972055 0
0.98938328 1.5399109 -0.050155777 0
0.54742962 1.4583114 0.046110775 0
0.56055838 1.4607354 0.12817769 0
0.55553716 1.4598083 0.21011056 0
0.56351393 1.4612812 0.2968165 0
0.83430105 1.5112776 0.47683901 0
0.82414132 1.5094017 0.58767879 0
0.99118501 1.5604554 -0.050356671 0
0.55103201 1.4734437 0.046338536 0
0.55272573 1.4737785 0.12761405 0
0.54830235 1.4729041 0.20927238 0
0.53579444 1.4704314 0.29030833 0
0.83382028 1.5293468 0.47781062 0
0.83980507 1.5305299 0.59569138 0
0.97534281 1.5774287 -0.04992377 0
0.55407327 1.4886242 0.046553373 0
0.54073662 1.4858128 0.12661043 0
0.54745299 1.4872286 0.20963927 0
0.55079669 1.4879334 0.29495212 0
0.83495635 1.547835 0.47941178 0
0.84751302 1.5504819 0.60047132 0
0.97161037 1.5968047 -0.049940504 0
0.54985315 1.5023358 0.04651013 0
0.54730445 1.5017649 0.12766436 0
0.55285186 1.5030074 0.21119525 0
0.55496138 1.50348 0.29683301 0
0.84846479 1.5692215 0.48531497 0
0.8372305 1.5667051 0.59773797 0
0.96554452 1.6156425 -0.049880609 0
0.54989308 1.517029 0.046629399 0
0.55204564 1.5175397 0.12854183 0
0.55599052 1.5184757 0.21237372 0
0.54762191 1.5164901 0.29575422 0
0.84106022 1.5861086 0.48417696 0
0.84523541 1.5870991 0.60286504 0
0.96798187 1.6365708 -0.050142206 0
0.54894811 1.5315645 0.046719596 0
0.55262309 1.5324855 0.12898274 0
0.54960221 1.5317285 0.21182078 0
0.54630834 1.530903 0.29629999 0
0.83470207 1.6031719 0.4834671 0
0.83946103 1.6043645 0.60223627 0
0.95586342 1.6538501 -0.049876913 0
0.54973894 1.5466264 0.046880934 0
0.56040043 1.5494413 0.13024628 0
0.55486029 1.5479786 0.21346945 0
0.54636961 1.5457369 0.29725823 0
0.84681922 1.6250607 0.48918593 0
0.84028894 1.6233366 0.60452557 0
0.94854325 1.6722702 -0.049796529 0
0.55624944 1.5633963 0.047261767 0
0.54426342 1.5600698 0.12887083 0
0.54762524 1.5610029 0.21282384 0
0.54922384 1.5614464 0.29900864 0
0.8365044 1.6411759 0.48727471 0
0.84225327 1.6427714 0.60741371 0
0.93491203 1.6887971 -0.049489789 0
0.5591926 1.5794097 0.047519192 0
0.55464202 1.5780848 0.1304732 0
0.55939251 1.5794679 0.21577597 0
0.55295342 1.5775932 0.30105054 0
0.83772749 1.6605027 0.48942462 0
0.84456116 1.6624922 0.61056596 0
0.93426961 1.7090607 -0.049674407 0
0.85352284 1.6844449 0.38232878 0
0.83732909 1.6795082 0.49110335 0
0.84731656 1.6825529 0.61403126 0
0.93035561 1.7284217 -0.049746722 0
0.85585779 1.7046816 0.38443416 0
0.83764976 1.6988794 0.49312329 0
0.8465485 1.7017151 0.61608899 0
0.91977245 1.7456216 -0.049577575 0
0.84462422 1.7206277 0.38296852 0
0.83450466 1.717262 0.49402189 0
0.8330484 1.7167777 0.61270499 0
0.9203648 1.7665722 -0.049838122 0
0.84782332 1.7414267 0.3854478 0
0.83300632 1.7362906 0.49558565 0
0.83965248 1.7385944 0.61819881 0
0.91930312 1.787125 -0.050047074 0
0.84744877 1.7611996 0.38703993 0
0.83357686 1.7561946 0.49797282 0
0.83400565 1.7563493 0.61844593 0
0.90839297 1.8041443 -0.049891334 0
0.84648448 1.7809223 0.38854662 0
0.83613425 1.7770399 0.50116605 0
0.83436757 1.7763772 0.62145001 0
0.89877599 1.8215526 -0.049792562 0
0.8443858 1.8003659 0.38981795 0
0.8281247 1.7940316 0.50069571 0
0.83653718 1.7973086 0.62538385 0
0.89589089 1.8416097 -0.04996093 0
0.84016222 1.8190894 0.39057824 0
0.82766336 1.8140385 0.50300807 0
0.82819825 1.8142546 0.62476242 0
0.89231235 1.8615085 -0.050113097 0
0.84025782 1.8397065 0.39260229 0
0.82057399 1.8314623 0.50303251 0
0.82277459 1.832384 0.62554187 0
0.88066608 1.8780286 -0.049961869 0
0.83137161 1.8566492 0.39221165 0
0.82139212 1.8523209 0.5060041 0
0.82741624 1.8549337 0.63097084 0
0.87664551 1.8978574 -0.050116308 0
0.82754534 1.8758235 0.39329326 0
0.82639641 1.8753079 0.51061451 0
0.81549281 1.8704149 0.62904155 0
0.85824472 1.9111377 -0.049715489 0
0.83394426 1.899863 0.3973248 0
0.82008141 1.8934312 0.51120633 0
0.82398814 1.8952438 0.63650948 0
0.85380846 1.930802 -0.04987172 0
0.82899207 1.918906 0.3982546 0
0.81304187 1.9112601 0.51161832 0
0.81387585 1.9116598 0.63562202 0
0.8460682 1.9489574 -0.049907148 0
0.82736701 1.9397014 0.40020537 0
0.8263728 1.9392093 0.51967782 0
0.81076449 1.9314842 0.63805848 0
0.83713919 1.9665374 -0.049904283 0
0.80421156 1.9497207 0.39607552 0
0.80188555 1.9485327 0.51379263 0
0.81370968 1.9545715 0.64344203 0
0.82846302 1.9842516 -0.049920507 0
0.80220634 1.9704224 0.39805326 0
0.80337518 1.971038 0.51768005 0
0.80440551 1.9715806 0.64326495 0
0.81365091 1.9986514 -0.049696609 0
0.8003642 1.9914383 0.40016732 0
0.79307419 1.9874806 0.5172376 0
0.79466587 1.9883447 0.64298207 0
0.81059915 2.0194514 -0.049959589 0
0.79318601 2.0097122 0.40081355 0
0.78994912 2.0079017 0.51960605 0
0.78880125 2.0072598 0.6446352 0
0.80249792 2.0375609 -0.050027207 0
0.78548402 2.0277617 0.40137777 0
0.78225046 2.0258992 0.52033424 0
0.78876108 2.029649 0.64919674 0
0.78062981 2.0475676 -0.049533375 0
0.77454621 2.043961 0.40105364 0
0.77542561 2.0444825 0.5214932 0
0.77898759 2.0465941 0.6492427 0
0.77970809 2.0699472 -0.049916957 0
0.77545244 2.0673513 0.40432736 0
0.771218 2.0647683 0.52377182 0
0.77459294 2.0668271 0.65200084 0
0.76446003 2.0836616 -0.0497116 0
0.76576585 2.084481 0.40452498 0
0.75754374 2.0793223 0.52245045 0
0.75855035 2.0799539 0.64921159 0
0.76025647 2.104332 -0.049981114 0
0.75492269 2.1008914 0.40443826 0
0.76331323 2.1063039 0.52888858 0
0.7541489 2.1003921 0.65221637 0
0.74667686 2.1190174 -0.049862348 0
0.74313658 2.1166699 0.40412518 0
0.75299436 2.1232061 0.52909344 0
0.74362606 2.1169944 0.65233272 0
0.74135548 2.1392317 -0.050107274 0
0.73323637 2.1336997 0.40445271 0
0.74957591 2.1448326 0.53216344 0
0.73469239 2.1346917 0.65335053 0
0.72362894 2.1509778 -0.04982483 0
0.73029071 2.1556406 0.40701541 0
0.72808486 2.1540966 0.52803147 0
0.73238105 2.1571038 0.65783632 0
0.71803766 2.1712062 -0.050079856 0
0.71872073 2.1716971 0.40697798 0
0.71518427 2.1691549 0.5274294 0
0.72761267 2.1780894 0.66125327 0
0.7001422 2.1825798 -0.049802534 0
0.70639724 2.187197 0.40676504 0
0.71379453 2.1926572 0.53165966 0
0.71382767 2.1926816 0.66019738 0
0.69380552 2.2024708 -0.050046701 0
0.7026388 2.2091646 0.40935403 0
0.7095353 2.2143905 0.5348556 0
0.6973291 2.2051408 0.65781677 0
0.67964345 2.2164974 -0.049950615 0
0.69058329 2.2250066 0.4093757 0
0.69485265 2.228327 0.53380454 0
0.69036728 2.2248385 0.66049689 0
0.67144555 2.2352021 -0.050134022 0
0.68251854 2.2440405 0.41076511 0
0.68430144 2.2454636 0.53457582 0
0.67960197 2.2417126 0.66131991 0
0.65096194 2.2440155 -0.049763199 0
0.67698509 2.2653294 0.41308239 0
0.66640359 2.2566626 0.53228813 0
0.68371445 2.2708409 0.67022693 0
0.640374 2.2608066 -0.049855027 0
0.6649645 2.2814698 0.41335133 0
0.66529375 2.2817464 0.53733242 0
0.66628081 2.2825758 0.6677739 0
0.63139457 2.279074 -0.050033592 0
0.72551996 2.3602104 0.066470146 0
0.72327727 2.3582773 0.18771118 0
0.71613878 2.352124 0.30923742 0
0.64735156 2.292829 0.4118076 0
0.6500141 2.2951241 0.53634578 0
0.65365702 2.2982643 0.6680035 0
0.62466592 2.2995038 -0.050332319 0
0.68259615 2.3507254 0.065093011 0
0.69127196 2.3583963 0.18512848 0
0.68546611 2.3532629 0.30520529 0
0.63914615 2.3123071 0.41349891 0
0.63681465 2.3102455 0.53634638 0
0.63505238 2.3086874 0.66503894 0
0.60341781 2.3070548 -0.049947027 0
0.6581673 2.3567061 0.06458573 0
0.6640448 2.3620365 0.18320957 0
0.65963835 2.3580401 0.30230993 0
0.63364154 2.3344641 0.41622382 0
0.62673563 2.3282013 0.53783345 0
0.62065476 2.3226867 0.66446471 0
0.59180468 2.3232002 -0.050031573 0
0.6443308 2.3720548 0.06459257 0
0.64797992 2.3754487 0.18291302 0
0.64129514 2.3692312 0.30123863 0
0.62019151 2.3496027 0.41630906 0
0.61780173 2.3473802 0.53996038 0
0.61224931 2.3422158 0.66737103 0
0.57455045 2.3340518 -0.049848795 0
0.62129956 2.378644 0.06415531 0
0.62224144 2.3795424 0.18120109 0
0.63085932 2.3877628 0.30216014 0
0.60293549 2.3611271 0.41512021 0
0.59912795 2.3574953 0.53774536 0
0.59760576 2.3560433 0.66688299 0
0.56166154 2.3489976 -0.049888548 0
0.61437994 2.4005668 0.064521402 0
0.61512309 2.4012938 0.18227495 0
0.61042017 2.3966932 0.30062783 0
0.58021623 2.3671477 0.4120183 0
0.58317333 2.3700404 0.53682733 0
0.59115404 2.3778472 0.67123383 0
0.55072504 2.3659458 -0.050036985 0
0.61172003 2.4271331 0.065121435 0
0.60630184 2.4216979 0.18314469 0
0.60442668 2.4198167 0.30279484 0
0.57641536 2.3917172 0.41574094 0
0.57494253 2.3902397 0.53961134 0
0.57215863 2.3874471 0.66844356 0
0.53688794 2.3800652 -0.050049663 0
0.60204953 2.4470994 0.065387234 0
0.59611613 2.4409955 0.18385473 0
0.600586 2.4455938 0.30562195 0
0.55764753 2.4014213 0.41414621 0
0.56907231 2.4131744 0.54367906 0
0.55965716 2.4034886 0.66954571 0
0.51903516 2.3899653 -0.049863271 0
0.61633843 2.49262 0.066912949 0
0.61233395 2.4883952 0.18873675 0
0.61331922 2.4894347 0.31291643 0
0.54397494 2.4162767 0.41446486 0
0.55415338 2.4270148 0.54356384 0
0.55337101 2.4261894 0.67452413 0
0.51051527 2.4097743 -0.050171748 0
0.53678268 2.4381945 0.41729361 0
0.52590865 2.4264293 0.53700006 0
0.52252895 2.4227726 0.66476482 0
0.48878977 2.4152589 -0.049793508 0
0.52306265 2.4532905 0.41777879 0
0.5185408 2.4482729 0.54071558 0
0.52028018 2.4502029 0.67252612 0
0.47616467 2.430702 -0.04990577 0
0.49970385 2.4574935 0.41461816 0
0.51047176 2.4697492 0.54426891 0
0.51266795 2.472249 0.67725015 0
0.4590002 2.4409719 -0.049781166 0
0.48312506 2.4691374 0.41409042 0
0.48788258 2.4746919 0.54058623 0
0.49253628 2.480125 0.67425132 0
0.44894633 2.4596257 -0.05005791 0
0.47901091 2.4956338 0.41857448 0
0.47392842 2.4895468 0.54136211 0
0.46856686 2.4831252 0.66879135 0
0.4305996 2.4684036 -0.049883094 0
0.46091494 2.5056555 0.41761079 0
0.45534131 2.4988065 0.53980595 0
0.45647964 2.5002053 0.67106503 0
0.41387334 2.4790311 -0.049804885 0
0.44426152 2.5173483 0.41727537 0
0.44271848 2.5154026 0.54148018 0
0.44207802 2.514595 0.6719752 0
0.40066203 2.4941223 -0.049938373 0
0.420342 2.5195892 0.41396368 0
0.42353413 2.52372 0.53972465 0
0.42850336 2.5301507 0.67358196 0
0.38558766 2.5069003 -0.04997471 0
0.40962556 2.5388298 0.41620865 0
0.40866438 2.5375531 0.54038364 0
0.41017899 2.5395648 0.67207992 0
0.36946443 2.5182967 -0.049957987 0
0.39530364 2.5535338 0.41704056 0
0.39693025 2.5557518 0.54291528 0
0.39199957 2.5490279 0.6707356 0
0.35385194 2.5303934 -0.049981084 0
0.38286194 2.5710173 0.41879332 0
0.37938544 2.566149 0.54229552 0
0.37819985 2.5644886 0.6725719 0
0.33653542 2.5400732 -0.049907476 0
0.35794881 2.5708721 0.41510177 0
0.36043265 2.5744445 0.54091948 0
0.35922113 2.5727019 0.67082548 0
0.32195726 2.5537124 -0.050014608 0
0.34153458 2.5826406 0.41520888 0
0.34333315 2.5852985 0.54067922 0
0.33862391 2.5783398 0.66792625 0
0.30395344 2.5622926 -0.049912486 0
0.32460758 2.5936561 0.41514829 0
0.32869777 2.5998669 0.54200673 0
0.32830307 2.5992675 0.67276013 0
0.28774509 2.5735481 -0.049934257 0
0.3066577 2.6030693 0.41466773 0
0.31092951 2.6097374 0.5415405 0
0.30358902 2.5982792 0.66684294 0
0.27540204 2.5910423 -0.050226904 0
0.28902629 2.6129103 0.41438758 0
0.28955111 2.6137526 0.53887081 0
0.28757074 2.610574 0.66760403 0
0.25787911 2.6003888 -0.050183766 0
0.27737138 2.6325712 0.41710529 0
0.26833245 2.6176476 0.53627986 0
0.27165291 2.6231298 0.66858387 0
0.23988934 2.6088886 -0.050115041 0
0.25620469 2.6366074 0.41522083 0
0.2495885 2.6253669 0.5352878 0
0.25426826 2.6333175 0.66851532 0
0.22135402 2.6163428 -0.050013158 0
0.23551829 2.6411154 0.41356716 0
0.2353427 2.6408083 0.5373531 0
0.23709078 2.6438656 0.66872394 0
0.20251752 2.6231129 -0.049893614 0
0.22182442 2.6578889 0.41558051 0
0.21828993 2.6515224 0.53767359 0
0.21667726 2.6486177 0.66628909 0
0.17912163 2.6212499 -0.049434435 0
0.1993468 2.6587861 0.41302928 0
0.20002373 2.6600423 0.5372442 0
0.20019121 2.6603532 0.66727644 0
0.17044081 2.6468477 -0.050096389 0
0.18173517 2.6684563 0.41310215 0
0.18008722 2.6653032 0.53568083 0
0.17972346 2.6646073 0.66485953 0
0.14839818 2.6471179 -0.049744822 0
0.16011132 2.6702318 0.41098017 0
0.16080607 2.6716027 0.53460866 0
0.16361989 2.6771555 0.66642773 0
0.13164414 2.6576028 -0.049812775 0
0.14056988 2.6757805 0.41002131 0
0.14210542 2.6789074 0.53400594 0
0.1430703 2.6808727 0.66400671 0
0.11763217 2.6739733 -0.050121352 0
0.12101289 2.6810832 0.40906844 0
0.12387355 2.6870995 0.53382069 0
0.11921664 2.6773055 0.65837967 0
0.097990893 2.6786385 -0.049975079 0
0.10584351 2.6957037 0.41080731 0
0.10334172 2.6902668 0.5318808 0
0.10074719 2.6846285 0.65788573 0
0.077788852 2.6817973 -0.049780462 0
0.083162807 2.6938741 0.40799624 0
0.080950044 2.6889014 0.52839547 0
0.082351409 2.6920507 0.65754527 0
0.064781092 2.7013483 -0.050233833 0
0.068245672 2.7094059 0.41010144 0
0.063470982 2.6983016 0.52893001 0
0.066469334 2.7052746 0.65992606 0
0.042873047 2.7003021 -0.049894996 0
0.045114778 2.7057023 0.40693399 0
0.047423027 2.7112622 0.53082395 0
0.044449411 2.7040994 0.65592921 0
0.02680107 2.7131953 -0.05010457 0
0.025065979 2.7088625 0.40574917 0
0.029484233 2.7198956 0.53123009 0
0.027523896 2.7150004 0.65746248 0
0.0084910011 2.7207081 -0.050115004 0
0.0079221344 2.7192342 0.40661141 0
0.0098610735 2.7242584 0.53019214 0
0.007279715 2.7175696 0.65538549 0
-0.016978005 2.7089818 -0.049401455 0
-0.015668312 2.712507 0.40287474 0
-0.010428169 2.7266116 0.5285337 0
-0.012328246 2.7214973 0.65403116 0
-0.027981142 2.7362607 -0.050182022 0
-0.037175275 2.7105248 0.40052101 0
-0.030880669 2.7281444 0.52668321 0
-0.03360299 2.7205243 0.65063697 0
-0.052787341 2.7250168 -0.04951046 0
-0.055526115 2.7170348 0.40054125 0
-0.051049031 2.730083 0.52507442 0
-0.052364863 2.726248 0.6503064 0
-0.066444971 2.7461436 -0.050070088 0
-0.072551228 2.7275894 0.40170997 0
-0.073809899 2.7237649 0.52066934 0
-0.071931429 2.7294726 0.64899099 0
-0.086938716 2.746906 -0.04987165 0
-0.08955539 2.7386043 0.40305468 0
-0.094133623 2.7240798 0.51869577 0
-0.093424149 2.7263305 0.64502406 0
-0.1042837 2.7576406 -0.050055452 0
-0.11142413 2.7339511 0.40027633 0
-0.11114208 2.7348866 0.5204646 0
-0.11235348 2.7308676 0.64451021 0
-0.122993 2.7641139 -0.050088406 0
-0.10879142 2.8134711 0.06392201 0
-0.10666961 2.8208454 0.18118356 0
-0.10639361 2.8218045 0.30016285 0
-0.13173883 2.7337182 0.39875484 0
-0.13120599 2.73557 0.51879644 0
-0.12900193 2.7432301 0.64747244 0
-0.1424623 2.7679148 -0.050031051 0
-0.13272299 2.8034408 0.06334617 0
-0.13133149 2.8085165 0.17919113 0
-0.13303001 2.802321 0.29548061 0
-0.15110768 2.7363789 0.39807189 0
-0.15159576 2.7345986 0.51665068 0
-0.15258725 2.7309818 0.63994902 0
-0.16411184 2.7632029 -0.049668882 0
-0.15488128 2.7986162 0.062975422 0
-0.15729694 2.7893484 0.17648019 0
-0.15720846 2.7896879 0.29215315 0
-0.1684299 2.7466369 0.39945859 0
-0.17059885 2.7383156 0.51621217 0
-0.17127301 2.7357292 0.63984942 0
-0.17960264 2.7823491 -0.050195284 0
-0.17842142 2.7871265 0.062370982 0
-0.1788172 2.7855258 0.17551273 0
-0.17668857 2.7941349 0.2920658 0
-0.18795602 2.7485638 0.39870894 0
-0.19123445 2.7353041 0.51355129 0
-0.19125493 2.7352214 0.6376093 0
-0.20131837 2.7765284 -0.049811896 0
-0.19817345 2.7899723 0.062304821 0
-0.19577019 2.8002458 0.17662466 0
-0.2001961 2.7813258 0.28882805 0
-0.20862861 2.7452786 0.39666033 0
-0.2095909 2.7411652 0.51401865 0
-0.2104799 2.7373648 0.63661027 0
-0.21994849 2.7834494 -0.049905423 0
-0.21859415 2.7895863 0.062129792 0
-0.21606247 2.8010583 0.17622644 0
-0.21783166 2.7930415 0.29018345 0
-0.22893859 2.7427125 0.39487338 0
-0.2313899 2.7316051 0.50930959 0
-0.22955669 2.7399118 0.63588792 0
-0.2385876 2.7906671 -0.050018083 0
-0.23437752 2.810955 0.06275782 0
-0.23553832 2.8053613 0.17624044 0
-0.23598881 2.8031905 0.29128772 0
-0.24849917 2.7429047 0.39387655 0
-0.25058049 2.7328751 0.50838619 0
-0.24953423 2.7379169 0.63334858 0
-0.25683615 2.8003263 -0.050227821 0
-0.25178197 2.826323 0.063173309 0
-0.25243455 2.8229663 0.17773764 0
-0.25288719 2.8206382 0.29377234 0
-0.26799929 2.7429082 0.39289719 0
-0.26961908 2.7345767 0.50769323 0
-0.26944825 2.7354555 0.63072491 0
-0.27699271 2.800313 -0.050094463 0
-0.26564553 2.8628726 0.064364366 0
-0.26554555 2.8634241 0.18175071 0
-0.26646298 2.8583658 0.30000746 0
-0.28654289 2.7476604 0.39321515 0
-0.29014421 2.7278056 0.50421828 0
-0.28897345 2.7342603 0.62874573 0
-0.29727441 2.7990088 -0.04992386 0
-0.30716076 2.740303 0.39045987 0
-0.30762678 2.7375357 0.50640506 0
-0.30742633 2.7387261 0.62925094 0
-0.31731835 2.7984712 -0.049790513 0
-0.3274205 2.7334986 0.38791981 0
-0.32825953 2.7281022 0.50220954 0
-0.3291567 2.7223318 0.62111205 0
-0.33719155 2.7984867 -0.049686465 0
-0.34601018 2.73665 0.3880159 0
-0.34741768 2.7267804 0.500835 0
-0.34754816 2.7258656 0.62143666 0
-0.35612565 2.8051918 -0.049832445 0
-0.36696926 2.7216423 0.38350025 0
-0.36753422 2.7172892 0.49680296 0
-0.36593473 2.7296133 0.62194675 0
-0.37493065 2.8139133 -0.050059263 0
-0.38416407 2.734997 0.38634473 0
-0.38595021 2.7197313 0.49685904 0
-0.38713434 2.7096107 0.6126523 0
-0.39594278 2.8030379 -0.049590848 0
-0.40400389 2.725718 0.38343504 0
-0.40507728 2.7154224 0.49473441 0
-0.40414548 2.72436 0.61794764 0
-0.41310957 2.8305774 -0.050509669 0
-0.42347527 2.717346 0.38082516 0
-0.42394632 2.7122004 0.49305594 0
-0.42422563 2.7091494 0.61086965 0
-0.43402803 2.8188274 -0.050028291 0
-0.44338575 2.7001669 0.37602675 0
-0.44286981 2.7067091 0.49070117 0
-0.44259554 2.7101872 0.61065215 0
-0.45336065 2.8259389 -0.050231598 0
-0.46068951 2.7152367 0.37954217 0
-0.46132973 2.7055662 0.48987755 0
-0.46108329 2.7092886 0.60972732 0
-0.47387183 2.8137884 -0.049754798 0
-0.47911009 2.7159986 0.3794553 0
-0.48019123 2.6958158 0.48626429 0
-0.47964796 2.7059572 0.60789102 0
-0.49310711 2.8246546 -0.050109889 0
-0.49834901 2.6966364 0.37428907 0
-0.49842244 2.6948435 0.48565489 0
-0.49813759 2.7017996 0.60581017 0
-0.51293594 2.8235273 -0.050045159 0
-0.51625353 2.7064641 0.37663683 0
-0.51679528 2.6873481 0.48295105 0
-0.51695418 2.6817405 0.59724009 0
-0.53282356 2.8159647 -0.049759585 0
-0.53468233 2.6978896 0.37434605 0
-0.53489894 2.6841309 0.48174825 0
-0.53480625 2.6900175 0.60050339 0
-0.55248201 2.8182163 -0.049833342 0
-0.55289131 2.688247 0.37184209 0
-0.55293727 2.6736448 0.47820297 0
-0.55294681 2.6706305 0.59240574 0
-0.57215625 2.816303 -0.049767241 0
-0.57086319 2.6793618 0.36958966 0
-0.57074136 2.6664605 0.47583139 0
-0.57068312 2.6602926 0.58814853 0
-0.59203476 2.8256342 -0.05011151 0
-0.5887199 2.6752138 0.36860314 0
-0.58840764 2.6610432 0.47412178 0
-0.58832198 2.6571591 0.58696616 0
-0.61171287 2.8220754 -0.050004404 0
-0.60596788 2.6562228 0.36388442 0
-0.6060009 2.6571763 0.47300157 0
-0.60620618 2.6631017 0.58963543 0
-0.63085175 2.8086383 -0.049553029 0
-0.62405598 2.6648183 0.3662644 0
-0.62316644 2.6459925 0.46951747 0
-0.62306195 2.6437817 0.58192831 0
-0.65223616 2.8379755 -0.050639763 0
-0.64064389 2.6443841 0.3612847 0
-0.64073312 2.6458745 0.46979085 0
-0.64035523 2.6395638 0.58056742 0
-0.64015818 2.6362722 0.69868404 0
-0.67096448 2.8200514 -0.050045401 0
-0.6579808 2.6410329 0.36072376 0
-0.65758818 2.6356196 0.46675694 0
-0.65720844 2.630383 0.5772354 0
-0.65661198 2.6221592 0.69218183 0
-0.69065773 2.8183548 -0.050040286 0
-0.67350566 2.6170316 0.46100813 0
-0.67355728 2.6176376 0.57250673 0
-0.67357439 2.6178384 0.6906938 0
-0.70884883 2.8013179 -0.049493771 0
-0.69063526 2.6152639 0.46094203 0
-0.68973476 2.6060658 0.56834596 0
-0.69016975 2.6105089 0.68779874 0
-0.73071575 2.8209875 -0.050273187 0
-0.70726371 2.6089871 0.57030159 0
-0.7069732 2.6063607 0.68660611 0
-0.74901438 2.8072224 -0.049860988 0
-0.72367114 2.6018252 0.56814581 0
-0.72354704 2.6008198 0.68481618 0
-0.76896495 2.8077178 -0.049970206 0
-0.73801249 2.5804448 0.6756379 0
-0.78906071 2.8086443 -0.050104242 0
-0.75599259 2.5867674 0.68003982 0
-0.80844527 2.8045673 -0.050066736 0
-0.82875675 2.8059263 -0.050235007 0
-0.84831053 2.8025925 -0.05024248 0
-0.86625785 2.7912221 -0.049966283 0
-0.88552725 2.7869427 -0.049956467 0
-0.90483111 2.7828321 -0.049961675 0
-0.92522603 2.7832272 -0.050141267 0
-0.94292843 2.7724922 -0.049920902 0
-0.96108091 2.76403 -0.04979201 0
-0.98124027 2.7630363 -0.049948089 0
-1.0001112 2.7572677 -0.049936458 0
-1.0189998 2.7515738 -0.049936436 0
-1.0422641 2.7594531 -0.050454419 0
-1.0544698 2.7332718 -0.049702771 0
-1.0713508 2.7220373 -0.049518984 0
-1.0958484 2.7320762 -0.050150741 0
-1.1151414 2.7271039 -0.050224215 0
-1.1304736 2.7119081 -0.049915146 0
-1.1494815 2.7062948 -0.049981385 0
-1.1649421 2.6921582 -0.049726877 0
-1.1880777 2.6960063 -0.050179362 0
-1.2038023 2.6826966 -0.049973454 0
-1.2227589 2.676631 -0.050059635 0
-1.2423143 2.6716578 -0.050199091 0
-1.2552305 2.6531484 -0.049809169 0
-1.2703151 2.639446 -0.049616236 0
-1.2901049 2.6348932 -0.049799465 0
-1.3088586 2.6281705 -0.049905762 0
-1.323573 2.6141193 -0.049722161 0
-1.3404549 2.6040564 -0.049709432 0
-1.3622679 2.602263 -0.050049283 0
-1.3780466 2.590183 -0.049972236 0
-1.3937193 2.5780311 -0.049899887 0
-1.4117353 2.5695748 -0.04999264 0
-1.4224906 2.5501192 -0.04962372 0
-1.4423724 2.5444229 -0.049853124 0
-1.4560864 2.5296869 -0.049700662 0
-1.4764429 2.5243082 -0.049966741 0
-1.4874313 2.5060012 -0.049671665 0
-1.513708 2.5080764 -0.050295092 0
-1.5219293 2.4863694 -0.049861338 0
-1.5354513 2.4717443 -0.049752209 0
-1.5553039 2.464915 -0.050010473 0
-1.5648344 2.4455931 -0.04969902 0
-1.5804045 2.4335637 -0.049734462 0
-1.603802 2.4302886 -0.050197966 0
-1.6131842 2.4111669 -0.049915068 0
-1.6238248 2.3936772 -0.04971436 0
-1.6382092 2.3802876 -0.049720701 0
-1.6596892 2.3740954 -0.050096709 0
-1.6677872 2.3542693 -0.049799517 0
-1.6867543 2.3452294 -0.050057907 0
-1.6997577 2.3303173 -0.050026368 0
-1.7115687 2.3143363 -0.049946558 0
-1.7188909 2.2944069 -0.049662221 0
-1.7395002 2.2863398 -0.050022658 0
-1.7589623 2.2769585 -0.050330266 0
-1.7659504 2.2569425 -0.050061554 0
-1.7801393 2.2429886 -0.050137788 0
-1.2325293 1.8002065 0.52088732 0
-1.79221 2.2272933 -0.050125021 0
-1.2278833 1.7826281 0.51223028 0
-1.7971256 2.2061119 -0.049799267 0
-1.2319015 1.7721628 0.51030082 0
-1.8162243 2.1958218 -0.050120831 0
-1.2321796 1.7590004 0.50571769 0
-1.826146 2.1785614 -0.050039858 0
-1.2348334 1.7478073 0.50304157 0
-1.8385997 2.1631639 -0.050079998 0
-1.2410971 1.7393122 0.50311702 0
-1.851275 2.1478808 -0.050137848 0
-1.2302592 1.7190006 0.49094376 0
-1.8623971 2.131501 -0.050136719 0
-1.2358962 1.7103838 0.49082902 0
-1.864282 2.1090767 -0.04975038 0
-1.2418728 1.701993 0.49103314 0
-1.8795195 2.0954669 -0.049944121 0
-1.2482783 1.6938629 0.4916116 0
-1.8922745 2.0801568 -0.05003937 0
-1.2364088 1.6743959 0.47951296 0
-1.8969878 2.0599284 -0.049806941 0
-1.2413545 1.6656389 0.47931248 0
-1.904336 2.0414262 -0.049695745 0
-1.2455755 1.6564665 0.47869176 0
-1.9287679 2.0327072 -0.050296247 0
-1.2387613 1.6410589 0.47062925 0
-1.9334749 2.0126314 -0.050093036 0
-1.9337524 1.9903456 -0.049722131 0
-1.9509577 1.9771312 -0.050045758 0
-1.9585872 1.9588431 -0.049991373 0
-1.9667097 1.9408343 -0.049966071 0
-1.9828879 1.9266411 -0.050267871 0
-1.9934336 1.9096403 -0.050353948 0
-1.9927287 1.8876057 -0.050008908 0
-1.9934467 1.8664387 -0.049731731 0
-1.9960668 1.8462625 -0.049539734 0
-1.9971559 1.8256209 -0.049299669 0
-2.0027564 1.8068821 -0.049243152 0
-2.005806 1.787244 -0.049098846 0
-1.9872942 1.760084 -0.048148073 0
-2.0036511 1.7454706 -0.048528966 0
-1.9987543 1.7236509 -0.04811722 0
-1.9950246 1.7024961 -0.047761027 0
-2.000077 1.6842171 -0.047743272 0
-1.9970528 1.6636517 -0.04743436 0
-1.9969394 1.6440971 -0.047243759 0
-1.9992936 1.625313 -0.047153831 0
-2.0015562 1.6065689 -0.047069516 0
-1.9958986 1.5860564 -0.046703931 0
-2.0008776 1.5681168 -0.046737399 0
-2.0109799 1.5511966 -0.046965707 0
-2.003474 1.5307435 -0.046561204 0
-1.9984376 1.5110171 -0.046256516 0
-2.0006337 1.4927002 -0.04622316 0
-2.0087905 1.4753118 -0.046413466 0
-2.0046055 1.4560642 -0.046166454 0
-2.0004127 1.4369885 -0.045928288 0
-1.998015 1.4182832 -0.045763608 0
-2.0032201 1.4004602 -0.045880396 0
-1.9956868 1.3814259 -0.045548562 0
-2.0070958 1.3640572 -0.045903824 0
-2.0089695 1.3458334 -0.045925535 0
-2.0055323 1.3273237 -0.04576559 0
-1.9966489 1.3087181 -0.045419477 0
-1.9945283 1.2905242 -0.045323361 0
-1.9974841 1.2724591 -0.045416687 0
-2.0029168 1.2543254 -0.045606561 0
-1.1411064 0.26436791 -0.050181288 0
-0.38327533 0.2643699 0.41418645 0
-0.38860923 0.2643699 0.49298233 0
-1.1331776 0.24465205 -0.049902659 0
-0.3933301 0.25397032 0.41925001 0
-1.1343895 0.22489938 -0.049959235 0
-0.40963221 0.24315679 0.35480121 0
-0.40385121 0.24330242 0.42461416 0
-1.1305686 0.20529388 -0.049844924 0
-0.51106465 0.22870819 0.1074812 0
-0.5160144 0.22852111 0.17719312 0
-1.2358047 0.20131645 0.43195269 0
-1.2357258 0.20131943 0.56141937 0
-1.2424444 0.2010655 0.69999993 0
-1.1344194 0.18537922 -0.050013598 0
-0.50047249 0.21733743 0.10639779 0
-0.50474554 0.21712202 0.17525332 0
-1.2447037 0.17981964 0.43446258 0
-1.2336652 0.1803761 0.56104147 0
-1.2423053 0.17994054 0.70032769 0
-1.1375213 0.16538945 -0.05016458 0
-0.51805568 0.20444286 0.10836293 0
-0.50818509 0.20506513 0.1759958 0
-1.2498187 0.1583098 0.43607631 0
-1.2314552 0.15946752 0.56070137 0
-1.1355032 0.1456773 -0.050141405 0
-0.50380427 0.19349438 0.10691641 0
-0.51095486 0.19295311 0.17664529 0
-1.2374145 0.13796301 0.43327838 0
-1.2431568 0.13752834 0.5650903 0
-1.1329854 0.12602256 -0.050109182 0
-0.51338649 0.18077803 0.1080545 0
-0.50566053 0.18146078 0.1758631 0
-1.2408897 0.1164868 0.43461004 0
-1.2521629 0.11549055 0.56867605 0
-1.1281328 0.10662351 -0.05000202 0
-0.50865656 0.16923837 0.10766539 0
-0.51142246 0.16895881 0.17711027 0
-1.2434074 0.094971888 0.43576714 0
-1.2359848 0.095722146 0.56393772 0
-1.1299266 0.086540915 -0.050142288 0
-0.51756072 0.15623684 0.040138897 0
-0.51440191 0.15659636 0.10842445 0
-0.50887644 0.15722524 0.17687978 0
-1.2307982 0.075060301 0.43311119 0
-1.245465 0.073391013 0.5678674 0
-1.1199104 0.067850448 -0.049866874 0
-0.51684451 0.14419125 0.040164828 0
-0.50270796 0.14598076 0.10731282 0
-0.51411331 0.14453697 0.1780906 0
-1.2437553 0.052173171 0.43709028 0
-1.2430387 0.052263904 0.56790477 0
-1.1235054 0.047455508 -0.050090097 0
-0.51392037 0.13243303 0.040116683 0
-0.51369953 0.13246381 0.10867529 0
-0.51554269 0.13220687 0.17863929 0
-1.2420142 0.030935112 0.43736425 0
-1.2322218 0.032300193 0.56521302 0
-1.1205769 0.027891431 -0.050087426 0
-0.51435137 0.12019638 0.040194951 0
-0.51475525 0.12013488 0.10897877 0
-0.51431656 0.12020168 0.17873292 0
-1.2372631 0.010124584 0.43693092 0
-1.2512066 0.0080015259 0.57262975 0
-1.1308692 0.0061423969 -0.050572053 0
-0.49700695 0.11083782 0.039635748 0
-0.51132274 0.10847328 0.10881088 0
-0.51638603 0.10763697 0.17945673 0
-1.2419039 -0.012197266 0.43899304 0
-1.248255 -0.013246308 0.57276791 0
-1.1110905 -0.010600398 -0.049977213 0
-0.51983368 0.094722159 0.040536296 0
-0.5085423 0.096733518 0.10872981 0
-0.51304328 0.095931746 0.17921969 0
-1.2453337 -0.034513574 0.4408187 0
-1.2430369 -0.034104448 0.57223082 0
-1.1142461 -0.031303208 -0.050222203 0
-0.51935995 0.082411833 0.040599462 0
-0.5026626 0.085603602 0.1083256 0
-0.51161814 0.083891712 0.17936119 0
-1.2477292 -0.056819092 0.44245303 0
-1.2421569 -0.055753928 0.57325071 0
-1.0947012 -0.047549319 -0.049650148 0
-0.51324183 0.07120686 0.040462762 0
-0.50992757 0.07188376 0.10937751 0
-0.5101819 0.071831815 0.17952889 0
-1.2356602 -0.076338507 0.44039804 0
-1.2343066 -0.076062061 0.57199883 0
-1.1051143 -0.069898255 -0.050178505 0
-0.50768626 0.059976298 0.040351387 0
-0.51368052 0.058673207 0.11006502 0
-0.51396865 0.058610562 0.18068901 0
-1.2433941 -0.099958815 0.44357193 0
-1.2493135 -0.10124562 0.57861257 0
-1.0962503 -0.088187285 -0.050012413 0
-0.51936895 0.044849012 0.040876444 0
-0.51997441 0.044709388 0.11105309 0
-0.49966133 0.049393836 0.17853437 0
-1.2418201 -0.12175757 0.44439569 0
-1.2383863 -0.12096567 0.57649899 0
-1.0976005 -0.10885031 -0.050229609 0
-0.51069224 0.034304474 0.040661942 0
-0.50707829 0.035185952 0.10994083 0
-0.51265383 0.033826012 0.18146245 0
-1.2453989 -0.14490034 0.44664714 0
-1.2393739 -0.14343081 0.57854408 0
-1.0901836 -0.12741913 -0.050133906 0
-0.55063051 0.011405696 0.042243775 0
-0.55157816 0.011161883 0.11520747 0
-0.55442315 0.010429879 0.18979537 0
-1.2418691 -0.16644715 0.44710985 0
-1.2432067 -0.16679133 0.58167022 0
-1.079715 -0.14509489 -0.049933631 0
-0.61625826 -0.01960684 0.044791829 0
-0.62391865 -0.021681022 0.12362545 0
-1.2380511 -0.18796678 0.31813839 0
-1.2433892 -0.18941219 0.44898057 0
-1.2410166 -0.18876974 0.58283234 0
-1.083542 -0.16669168 -0.050271481 0
-0.68970764 -0.054713916 0.047653798 0
-0.6950829 -0.056242269 0.13198833 0
-1.2380265 -0.2106158 0.3192265 0
-1.2382371 -0.21067567 0.44916475 0
-1.2515434 -0.21445902 0.58849269 0
-1.0635945 -0.1814559 -0.049735054 0
-0.78022838 -0.097016729 0.051178921 0
-0.7771703 -0.096105494 0.14165626 0
-1.2268814 -0.23011313 0.31827953 0
-1.2409959 -0.23431905 0.45152679 0
-1.2330958 -0.23196493 0.58422792 0
-1.0660049 -0.20279716 -0.050039552 0
-0.88986433 -0.1478857 0.055452615 0
-0.87642527 -0.14369608 0.15335119 0
-1.2440165 -0.25829193 0.32271758 0
-1.2382475 -0.25649348 0.45250583 0
-1.2355181 -0.25564256 0.58729595 0
-1.0486619 -0.21793555 -0.049613707 0
-0.9981246 -0.2014796 0.059716217 0
-0.98778701 -0.19811349 0.16653009 0
-1.2520967 -0.28417763 0.32552353 0
-1.239602 -0.28010914 0.4546645 0
-1.2368609 -0.27921656 0.59010297 0
-1.0540862 -0.24049179 -0.050051618 0
-1.1265069 -0.26508608 0.064782158 0
-1.1310451 -0.26662722 0.18346323 0
-1.2339003 -0.30155715 0.32339871 0
-1.2371666 -0.30266646 0.45589125 0
-1.0395461 -0.25631741 -0.049746189 0
-1.2914426 -0.3454152 0.20252386 0
-1.2454407 -0.32914391 0.32699478 0
-1.2445753 -0.32883784 0.45986414 0
-1.0409876 -0.27779707 -0.050054871 0
-1.2577763 -0.35756204 0.19956349 0
-1.2373689 -0.3500534 0.32690531 0
-1.2508675 -0.35502008 0.46364141 0
-1.0385134 -0.29801616 -0.050225686 0
-1.247322 -0.37784424 0.19927709 0
-1.2348683 -0.37308314 0.32794178 0
-1.2312852 -0.37171337 0.46045935 0
-1.0327178 -0.31705037 -0.050279543 0
-1.2520391 -0.40407816 0.20077282 0
-1.2345111 -0.39712295 0.32945544 0
-1.2473357 -0.40221182 0.46709949 0
-1.0156975 -0.33151057 -0.049909573 0
-1.2444528 -0.42563269 0.20088483 0
-1.2446687 -0.4257215 0.33308646 0
-1.2352331 -0.42183915 0.46611285 0
-1.0124549 -0.3515633 -0.050079368 0
-1.2487353 -0.45227876 0.20241565 0
-1.2376688 -0.44756159 0.33344367 0
-1.2426658 -0.44969156 0.47060722 0
-0.99827397 -0.36692426 -0.049833104 0
-1.2556529 -0.4804835 0.20430382 0
-1.2399397 -0.47355059 0.33568442 0
-1.2384723 -0.47290316 0.47198206 0
-0.99846971 -0.38865837 -0.050157171 0
-1.2392111 -0.49851868 0.20348525 0
-1.2360251 -0.49706474 0.33677658 0
-1.2340313 -0.49615493 0.47337717 0
-0.98582554 -0.40459278 -0.049987108 0
-1.2370039 -0.52305961 0.20438011 0
-1.24018 -0.52455765 0.33954322 0
-1.2394056 -0.52419239 0.47763169 0
-0.97927463 -0.4233655 -0.050065923 0
-1.5066549 -0.68026793 0.083009183 0
-1.2457778 -0.55318707 0.20663001 0
-1.2485518 -0.55453837 0.34324205 0
-1.2360246 -0.54843599 0.47952756 0
-0.96742105 -0.43953773 -0.049942754 0
-1.445696 -0.68001717 0.081054695 0
-1.2441529 -0.57868016 0.20768882 0
-1.2366282 -0.57489669 0.34294343 0
-1.2415047 -0.57734859 0.48405281 0
-0.95775688 -0.4567512 -0.049915001 0
-1.4074878 -0.69001859 0.080002256 0
-1.2460805 -0.60629952 0.20922339 0
-1.2389455 -0.60259867 0.34558803 0
-0.94116044 -0.47023889 -0.049615148 0
-1.3482097 -0.68791544 0.078094766 0
-1.238983 -0.62950456 0.20971067 0
-1.2385416 -0.62926859 0.34776509 0
-0.93924809 -0.49158058 -0.049918678 0
-1.3020793 -0.69152606 0.076708868 0
-1.2471616 -0.66126257 0.21211159 0
-1.2428886 -0.65890783 0.35100451 0
-0.9247936 -0.50605321 -0.049720507 0
-1.2586031 -0.6955238 0.075423844 0
-1.2390698 -0.68443668 0.21256834 0
-1.2375022 -0.6835469 0.35232583 0
-0.92111981 -0.52666736 -0.049974166 0
-1.2416295 -0.71396357 0.075227298 0
-1.2427716 -0.71463096 0.21453264 0
-1.2400484 -0.71303964 0.35537848 0
-0.90858519 -0.54216516 -0.049871385 0
-1.2552214 -0.75062782 0.076312244 0
-1.2405967 -0.74183267 0.21582241 0
-1.2374156 -0.7399196 0.35744226 0
-0.89730668 -0.55835855 -0.049828693 0
-1.262924 -0.78455299 0.077177756 0
-1.2444831 -0.7731443 0.21793139 0
-1.2440491 -0.77287585 0.36155882 0
-0.88686669 -0.57505339 -0.049829736 0
-1.2541506 -0.80872422 0.077371053 0
-1.2423919 -0.80124325 0.21934594 0
-1.2463065 -0.80373365 0.36486146 0
-0.87519479 -0.59094715 -0.049787164 0
-1.2518035 -0.83726627 0.077853031 0
-1.2450165 -0.83282715 0.22142301 0
-1.2396059 -0.82928842 0.36634436 0
-0.86877573 -0.61033916 -0.049978763 0
-1.2409279 -0.86049002 0.077987626 0
-1.238674 -0.85897499 0.22240786 0
-1.2350851 -0.85656267 0.36838317 0
-0.85922241 -0.62773484 -0.050046604 0
-1.2354969 -0.88759404 0.078372255 0
-1.2355373 -0.88762194 0.22386283 0
-1.2419182 -0.89202875 0.37300321 0
-0.84719801 -0.64344007 -0.050016433 0
-1.2418355 -0.92338485 0.07929039 0
-1.2478125 -0.92762476 0.22740892 0
-1.6067122 -1.1822181 0.4569144 0
-0.84056199 -0.66304809 -0.050232682 0
-1.2403668 -0.9542945 0.07989195 0
-1.2480891 -0.95991987 0.22945897 0
-1.5741936 -1.1974777 0.45375881 0
-0.82089448 -0.67310387 -0.049880959 0
-1.2374868 -0.98468345 0.08045356 0
-1.2447646 -0.99012667 0.23109947 0
-0.8008703 -0.68257713 -0.049515445 0
-1.2364047 -1.0169574 0.081118681 0
-1.2390999 -1.0190265 0.23249011 0
-0.78830063 -0.69759989 -0.049490508 0
-1.1684954 -0.99717706 0.078771353 0
-1.1587108 -0.9894672 0.22372016 0
-1.1609576 -0.99123758 0.37188116 0
-0.78319347 -0.71863806 -0.049816575 0
-1.1409191 -1.0078849 0.07824038 0
-1.1444675 -1.010754 0.223951 0
-1.1401143 -1.0072342 0.37074301 0
-0.76489222 -0.72903305 -0.049546245 0
-1.2385771 -1.1220073 0.083519399 0
-1.237522 -1.1211319 0.23920433 0
-1.3358365 -1.2026948 0.42038813 0
-0.76385856 -0.75387806 -0.050088629 0
-1.2383662 -1.1577289 0.08433409 0
-1.2404485 -1.1595011 0.24209793 0
-1.316669 -1.2243719 0.42025664 0
-1.0351061 -0.98473531 0.49770114 0
-0.75263321 -0.7703374 -0.050168749 0
-1.2804959 -1.2311842 0.4161174 0
-0.98295307 -0.97141665 0.48540395 0
-0.7384913 -0.7842651 -0.050119884 0
-1.1913239 -1.1897674 0.08382114 0
-1.1933415 -1.1915742 0.24055105 0
-1.2023453 -1.1996368 0.40178958 0
-0.98570657 -1.0056413 0.4917143 0
-0.71967149 -0.79385394 -0.049852144 0
-0.92545092 -0.98284751 0.47641963 0
-0.7091713 -0.81102389 -0.049995132 0
-0.88669336 -0.97823423 0.46837732 0
-0.69383049 -0.82366258 -0.049910266 0
-0.8588357 -0.9830516 0.46408266 0
-0.68181109 -0.83951169 -0.049999192 0
-0.83208144 -0.98837024 0.46015197 0
-0.66642654 -0.85203606 -0.049928095 0
-0.82132769 -1.0093952 0.46201405 0
-0.64720142 -0.86049145 -0.049666137 0
-0.63952053 -0.88101488 -0.050009284 0
-0.6249088 -0.89430779 -0.05000373 0
-0.61193192 -0.90943664 -0.050094821 0
-0.59342599 -0.91829485 -0.049896318 0
-0.58154082 -0.93477005 -0.050067015 0
-0.56770825 -0.94907707 -0.050142594 0
-0.55387753 -0.96347648 -0.050229657 0
-0.54006368 -0.97800201 -0.050329532 0
-0.52089489 -0.98562843 -0.050126515 0
-0.50348949 -0.99539322 -0.050031286 0
-0.48447597 -1.0028266 -0.049843885 0
-0.47071517 -1.0174904 -0.049984425 0
-0.45546514 -1.030164 -0.050045125 0
-0.43728399 -1.0385298 -0.04992868 0
-0.42020386 -1.0484456 -0.049888957 0
-0.38022745 -0.98690134 0.5024038 0
-0.40324998 -1.0585147 -0.049865142 0
-0.35451245 -0.98137337 0.49624008 0
-0.38823324 -1.0717109 -0.04998152 0
-0.32946974 -0.97605413 0.49033231 0
-0.37068188 -1.0808287 -0.049935322 0
-0.31052935 -0.98008817 0.48821574 0
-0.35191953 -1.0878001 -0.049810037 0
-0.28601748 -0.9742052 0.48239228 0
-0.34016585 -1.1070372 -0.050197974 0
-0.27467322 -0.99080032 0.48531196 0
-0.3190524 -1.1097387 -0.04991642 0
-0.25395972 -0.99073237 0.48194718 0
-0.30292368 -1.1214157 -0.050010286 0
-1.0879575 -2.6006007 0.12179546 0
-0.22605021 -0.9765684 0.47339419 0
-0.28824663 -1.1360648 -0.050231066 0
-1.0011582 -2.5211964 0.11784758 0
-0.20783658 -0.97983438 0.47155017 0
-0.26713622 -1.1381736 -0.04995754 0
-0.97122765 -2.5495651 0.118268 0
-0.18736102 -0.97825962 0.46800357 0
-0.24623699 -1.1402832 -0.049696282 0
-0.94733691 -2.5911283 0.11922403 0
-0.16541328 -0.973028 0.46322274 0
-0.23346646 -1.1593419 -0.050114993 0
-0.93465328 -2.6582553 0.12119393 0
-0.14709665 -0.974711 0.46111158 0
-0.21706386 -1.1710985 -0.050251503 0
-0.90706539 -2.695833 0.12200097 0
-0.12949897 -0.97760171 0.45953789 0
-0.1985022 -1.1781677 -0.050212681 0
-0.11576392 -0.98903185 0.46115449 0
-0.17451067 -1.1723239 -0.049682669 0
-0.10327233 -1.0037261 0.4640041 0
-0.1595424 -1.1876265 -0.049982358 0
-0.075249508 -0.98091108 0.3491106 0
-0.083208457 -1.0004292 0.46043167 0
-0.13867851 -1.18852 -0.049735062 0
-0.053748235 -0.9725011 0.34507936 0
-0.067364946 -1.0071349 0.46054325 0
-0.12022753 -1.1953014 -0.04972377 0
-0.036075518 -0.97308511 0.14820521 0
-0.031461671 -0.96090156 0.24229088 0
-0.013877524 -0.91446799 0.32760346 0
-0.05171375 -1.0143802 0.46091735 0
-0.10747321 -1.217703 -0.050314903 0
-0.01037441 -0.95121497 0.14503999 0
-0.012356175 -0.95665401 0.24037278 0
0.0057040318 -0.90708762 0.32409847 0
-0.082985356 -1.2078673 -0.049690094 0
0.0091470052 -0.94475669 0.14368054 0
0.011378484 -0.938384 0.23582971 0
0.020882921 -0.91124135 0.32379359 0
-0.002958311 -0.9793269 0.44440559 0
-0.06747146 -1.2233591 -0.050033487 0
0.02284308 -0.95463914 0.14420743 0
0.021080749 -0.95988256 0.23892927 0
0.024818467 -0.94876152 0.33252233 0
0.013572739 -0.98222178 0.44353166 0
-0.050946847 -1.2365134 -0.050295159 0
0.037271246 -0.9626599 0.1445415 0
0.037031516 -0.963404 0.23863325 0
0.018194931 -1.021878 0.35077044 0
0.021040516 -1.0130445 0.45249578 0
-0.029156161 -1.2332233 -0.049949259 0
0.027359234 -1.0499064 0.35688782 0
-0.007631226 -1.2299832 -0.049616728 0
0.064009592 -0.98676831 0.33876577 0
0.0058384105 -1.2545618 -0.050327044 0
0.085518017 -0.97092718 0.33336434 0
0.027595358 -1.2500981 -0.049967989 0
0.099025175 -0.98295623 0.33541304 0
0.045744494 -1.2588257 -0.050106075 0
0.11740093 -0.97664493 0.33267236 0
0.065914854 -1.2595816 -0.049959429 0
0.087655291 -1.252977 -0.049553037 0
0.10325523 -1.2737001 -0.050155487 0
0.12301613 -1.27589 -0.050088689 0
0.14281394 -1.2776455 -0.050015319 0
-0.064587578 -2.3814955 0.10211377 0
0.1622857 -1.280983 -0.050008498 0
0.0001728402 -2.2079606 0.09560506 0
0.18300183 -1.2766255 -0.049732264 0
0.035379991 -2.1882403 0.09470205 0
0.200801 -1.2905395 -0.050125495 0
0.06591104 -2.1956084 0.094794512 0
0.22139163 -1.2860353 -0.049862508 0
0.097896144 -2.1928201 0.09453474 0
0.24120641 -1.2863299 -0.049781889 0
0.12845086 -2.2001686 0.094654515 0
0.26017755 -1.2937618 -0.049966723 0
0.16051073 -2.1947241 0.094328441 0
0.28028867 -1.2909189 -0.049791321 0
0.19203675 -2.1924233 0.094130039 0
0.29891619 -1.3040693 -0.050198235 0
0.22346933 -2.1896288 0.093928382 0
0.3194007 -1.2956266 -0.049840253 0
0.25338432 -2.2058606 0.094422132 0
0.33882993 -1.3006351 -0.049972851 0
0.28512329 -2.1975408 0.094050899 0
0.35882449 -1.2957271 -0.049759697 0
0.31588525 -2.2044549 0.094238646 0
0.37813255 -1.3063856 -0.050111711 0
0.34713057 -2.2013807 0.094083354 0
0.39792284 -1.3065717 -0.050098337 0
0.37839758 -2.1925757 0.093737498 0
0.41771469 -1.3059276 -0.050064225 0
0.43742874 -1.2872195 -0.049394097 0
0.45714027 -1.2981843 -0.049792189 0
0.47713938 -1.3092744 -0.050203767 0
0.49667862 -1.3019613 -0.049966983 0
0.51651222 -1.3032076 -0.05004485 0
0.53601843 -1.2986294 -0.049923319 0
0.55518299 -1.2907696 -0.04969294 0
0.57505202 -1.2923532 -0.049809493 0
0.59494799 -1.2933726 -0.049914923 0
0.61350965 -1.282321 -0.049595613 0
0.63500273 -1.2955817 -0.050159458 0
0.65393883 -1.2880735 -0.049985085 0
0.6750409 -1.2952763 -0.050350487 0
0.6925413 -1.2795211 -0.049895104 0
0.7120325 -1.2765236 -0.049909569 0
0.7311359 -1.271462 -0.049857907 0
0.75055295 -1.2680752 -0.049875945 0
0.7707172 -1.2680012 -0.05002407 0
0.78882742 -1.2586739 -0.049842659 0
0.80848885 -1.2561408 -0.049918924 0
0.82896572 -1.2565104 -0.050111648 0
0.84750497 -1.2492859 -0.05003345 0
0.86476594 -1.237807 -0.049805574 0
0.88387591 -1.2330089 -0.049834028 0
0.902412 -1.2263128 -0.049800541 0
0.92381287 -1.228387 -0.050105307 0
0.94092941 -1.2173028 -0.04992488 0
0.96315014 -1.2208749 -0.050307434 0
0.97668606 -1.2002864 -0.049782243 0
0.9982869 -1.2016166 -0.050099775 0
0.9242478 -1.0097623 0.46036729 0
1.0150936 -1.1903639 -0.04994544 0
0.94040442 -1.0038514 0.46050394 0
1.0319005 -1.1793876 -0.049809147 0
0.95773929 -1.0007447 0.46172452 0
1.0521885 -1.1767428 -0.050004087 0
0.97265416 -0.99176902 0.46090513 0
1.0764149 -1.1826025 -0.050542407 0
0.98737979 -0.98251396 0.46004763 0
1.0908519 -1.1662722 -0.050223742 0
1.0084326 -0.987158 0.46434307 0
1.1089963 -1.1582546 -0.050238956 0
1.022936 -0.97726434 0.46340615 0
1.1240659 -1.1439439 -0.050013021 0
1.0426836 -0.97820562 0.46654677 0
1.1434675 -1.1385274 -0.050149195 0
1.0645111 -0.98271924 0.47113231 0
1.1569024 -1.1214809 -0.049827572 0
1.0844576 -0.98287898 0.47421649 0
1.1856729 -1.1333678 -0.05068396 0
1.1021179 -0.97829753 0.47562456 0
1.1914732 -1.1026292 -0.049820524 0
1.1311414 -0.99395829 0.057383023 0
1.1327816 -0.99691278 0.16103818 0
1.128778 -0.98970133 0.26468843 0
1.1317282 -0.99501532 0.37350678 0
1.1321553 -0.99578458 0.48552451 0
1.2124754 -1.0996987 -0.050097443 0
1.1392937 -0.97170693 0.056833778 0
1.1433443 -0.9787913 0.15989868 0
1.1419202 -0.97630066 0.26374635 0
1.1400007 -0.97294348 0.36963671 0
1.1513177 -0.9927364 0.48777053 0
1.2296814 -1.0899276 -0.050103959 0
1.1645628 -0.97929436 0.057520811 0
1.1651369 -0.98026961 0.1612114 0
1.1657825 -0.98136634 0.26669621 0
1.1679513 -0.98505121 0.3758873 0
1.1609391 -0.9731378 0.48373684 0
1.2475811 -1.0812867 -0.050166715 0
1.2607496 -1.0649621 -0.049916204 0
1.2769498 -1.0536917 -0.049884964 0
1.2919775 -1.0406754 -0.04978751 0
1.3139424 -1.0380268 -0.050144281 0
1.3230726 -1.0164716 -0.049694065 0
1.3476382 -1.0170728 -0.050216794 0
1.35417 -0.99245209 -0.049641397 0
1.3744577 -0.98677295 -0.049910635 0
1.3910189 -0.97595578 -0.049962156 0
1.4088812 -0.96671575 -0.050095517 0
1.2064745 -0.71149665 0.050466251 0
1.207319 -0.71256143 0.13999994 0
1.4277111 -0.95851082 -0.050288185 0
1.2037746 -0.68333316 0.04962201 0
1.2026665 -0.68197161 0.13712388 0
1.4337168 -0.93472928 -0.049769413 0
1.2095983 -0.66630375 0.049285121 0
1.2064101 -0.6624853 0.13576381 0
1.4527179 -0.92667764 -0.049987968 0
1.2073625 -0.64022648 0.048522688 0
1.2093457 -0.64254189 0.13433096 0
1.4647835 -0.91049379 -0.049833797 0
1.2107466 -0.62135673 0.048092976 0
1.2006222 -0.60983336 0.13106129 0
1.4832115 -0.90152794 -0.050032012 0
1.2090137 -0.59725797 0.047409095 0
1.2006695 -0.58799863 0.12931161 0
1.4951723 -0.88535422 -0.049893361 0
1.5080324 -0.87026709 -0.049813855 0
1.5267403 -0.86127156 -0.050044686 0
1.5399905 -0.84656614 -0.050002396 0
1.5577631 -0.83632189 -0.050195787 0
1.5620687 -0.81303912 -0.049728837 0
1.5824897 -0.80519086 -0.050067436 0
1.5981377 -0.79268736 -0.050176941 0
1.6072177 -0.77426916 -0.049979772 0
1.6198837 -0.7591216 -0.049964756 0
1.6327845 -0.74418098 -0.049969785 0
1.6438346 -0.72771603 -0.049898088 0
1.6556749 -0.71194261 -0.049872726 0
1.6657387 -0.69480598 -0.049776286 0
1.6773181 -0.67889941 -0.049758367 0
1.6923488 -0.6655522 -0.049902692 0
1.70577 -0.65091872 -0.049982373 0
1.7171601 -0.63479114 -0.049980909 0
1.7282343 -0.61844587 -0.049974624 0
1.7381055 -0.60130441 -0.049925711 0
1.7466735 -0.5833596 -0.049831033 0
1.7628156 -0.57024205 -0.050065886 0
1.767881 -0.55017 -0.049842659 0
1.7747573 -0.53135097 -0.049706776 0
1.783779 -0.51387465 -0.04967007 0
1.7922001 -0.49608842 -0.049618084 0
1.8153481 -0.48633543 -0.050173834 0
1.8124367 -0.4624106 -0.04967938 0
1.823949 -0.44624022 -0.049778417 0
1.8415645 -0.43300912 -0.050128102 0
1.8492208 -0.41472694 -0.050087996 0
1.8621926 -0.39893886 -0.050266419 0
1.8671656 -0.37941983 -0.050138634 0
1.8677756 -0.35810331 -0.04985135 0
1.8794589 -0.34164092 -0.050004605 0
1.8846079 -0.32241806 -0.04991347 0
1.9040791 -0.30883977 -0.050380822 0
1.9011103 -0.2864888 -0.049996868 0
1.912914 -0.26975235 -0.050186038 0
1.9060977 -0.24641703 -0.049678795 0
1.9137928 -0.22828184 -0.049730737 0
1.9285573 -0.21235768 -0.050055932 0
1.9397337 -0.19509669 -0.050253466 0
1.9449507 -0.17595221 -0.050236773 0
1.943399 -0.15493818 -0.049978308 0
1.9443328 -0.1347657 -0.049822263 0
