# .PCD v0.7 - Point Cloud Data file format
VERSION 0.7
FIELDS x y z intensity
SIZE 4 4 4 4
TYPE F F F F
COUNT 1 1 1 1
WIDTH 1348
HEIGHT 1
VIEWPOINT 0 0 0 1 0 0 0
POINTS 1348
DATA ascii
-0.51684904 2.685451 0.598777 0
-0.53287292 2.8128302 -0.049647663 0
-0.53483009 2.6885045 0.37195131 0
-0.53503823 2.6752806 0.47880337 0
-0.53505564 2.674176 0.5939436 0
-0.55244738 2.8292046 -0.050225634 0
-0.55288118 2.6914599 0.37266186 0
-0.55295938 2.6666396 0.47587231 0
-0.55293524 2.6742868 0.59391963 0
-0.57228249 2.8296709 -0.05024451 0
-0.57090384 2.6836684 0.37068841 0
-0.57068259 2.6602404 0.47376186 0
-0.57079899 2.6725633 0.59322923 0
-0.59187835 2.8185368 -0.04985806 0
-0.58866477 2.6727133 0.36796501 0
-0.58853644 2.6668882 0.47606683 0
-0.58829999 2.6561608 0.58655274 0
-0.61187261 2.8266857 -0.050169092 0
-0.60621172 2.6632624 0.3656815 0
-0.60565543 2.6472034 0.46968162 0
-0.60573339 2.6494524 0.5839808 0
-0.63176233 2.8279083 -0.050241761 0
-0.62362266 2.6556485 0.3639223 0
-0.62315983 2.6458533 0.46947104 0
-0.62351555 2.6533813 0.58590734 0
-0.65138763 2.8238058 -0.050132979 0
-0.64074528 2.6460774 0.36171749 0
-0.64017731 2.6365919 0.46669704 0
-0.64068645 2.6450944 0.58286142 0
-0.64010894 2.6354508 0.69827229 0
-0.67019928 2.8095007 -0.049667738 0
-0.657004 2.6275642 0.35727841 0
-0.65639079 2.6191099 0.4612498 0
-0.65748531 2.6342006 0.57882017 0
-0.65658748 2.6218216 0.69201243 0
-0.69028151 2.8139389 -0.049882058 0
-0.67383212 2.6208634 0.46228758 0
-0.67334747 2.6151752 0.57148355 0
-0.67400533 2.6228969 0.69323397 0
-0.71048093 2.8179901 -0.050091837 0
-0.69049442 2.6138253 0.46046108 0
-0.69120532 2.6210876 0.57459527 0
-0.69035512 2.6124027 0.68875068 0
-0.73023462 2.8166378 -0.050116949 0
-0.7069943 2.6065512 0.56928694 0
-0.70716566 2.6081004 0.68748188 0
-0.74867135 2.8044422 -0.049760979 0
-0.72299606 2.5963538 0.56586331 0
-0.72193915 2.5877881 0.67824644 0
-0.76877999 2.80636 -0.049921278 0
-0.7378642 2.579356 0.67508799 0
-0.78866816 2.80601 -0.050009158 0
-0.75422525 2.5749094 0.67404127 0
-0.80729127 2.797441 -0.049809005 0
-0.82664418 2.7938464 -0.049797192 0
-0.84593809 2.7899659 -0.049783807 0
-0.86501306 2.7850277 -0.049740713 0
-0.88578993 2.7881699 -0.050001267 0
-0.90655321 2.7904084 -0.05023906 0
-0.92561144 2.7848294 -0.050200094 0
-0.94423699 2.7776453 -0.050110716 0
-0.95921487 2.7570512 -0.049534108 0
-0.9799335 2.7583845 -0.049775586 0
-0.99878305 2.7527587 -0.049768642 0
-1.0156025 2.7405536 -0.049524732 0
-1.0378054 2.7456117 -0.049935263 0
-1.0565144 2.7393553 -0.049931899 0
-1.0752244 2.7330992 -0.04993742 0
-1.0944579 2.7282598 -0.05000573 0
-1.1145697 2.7255945 -0.050166585 0
-1.1315277 2.7145889 -0.050017983 0
-1.1492105 2.7056298 -0.049955748 0
-1.1668594 2.6966958 -0.049902748 0
-1.1842545 2.6872668 -0.0498388 0
-1.2054936 2.6864338 -0.050119907 0
-1.2200629 2.6708677 -0.049832474 0
-1.2399343 2.6667325 -0.050003804 0
-1.2632743 2.6692727 -0.050452478 0
-1.2693228 2.6375182 -0.049538828 0
-1.2942584 2.6427193 -0.050115772 0
-1.3106974 2.6315324 -0.050042566 0
-1.3303043 2.626066 -0.050211709 0
-1.3458165 2.6132982 -0.050090883 0
-1.361382 2.6007793 -0.049987596 0
-1.383687 2.5993648 -0.050356947 0
-1.3979238 2.584686 -0.050180923 0
-1.4127302 2.5711064 -0.050057851 0
-1.4324887 2.5650952 -0.050266586 0
-1.440841 2.5421901 -0.049756464 0
-1.4608952 2.5365112 -0.049998712 0
-1.4724663 2.5188131 -0.049724583 0
-1.4977655 2.5199099 -0.050290275 0
-1.5072124 2.4995604 -0.04991271 0
-1.5152363 2.4778199 -0.049473707 0
-1.5368589 2.4734964 -0.049832448 0
-1.5536433 2.4629004 -0.049917266 0
-1.5732185 2.4555073 -0.050162565 0
-1.5826161 2.4361131 -0.049854945 0
-1.596076 2.4216061 -0.049783036 0
-1.6145277 2.4126391 -0.049986221 0
-1.6346852 2.4052804 -0.050281748 0
-1.6508434 2.3934498 -0.05037206 0
-1.657166 2.3715322 -0.049968302 0
-1.663361 2.3498845 -0.049577087 0
-1.687186 2.3456464 -0.050079331 0
-1.6955955 2.3263969 -0.049822237 0
-1.7072227 2.3103447 -0.049735889 0
-1.7304704 2.3047762 -0.050217144 0
-1.7351407 2.2825336 -0.04981605 0
-1.7458372 2.2657878 -0.049714953 0
-1.7656449 2.2566891 -0.050047383 0
-1.769735 2.234576 -0.049660109 0
-1.2371576 1.8039489 0.52441716 0
-1.7891823 2.2249076 -0.049987402 0
-1.2277558 1.7825276 0.51213402 0
-1.7950097 2.2044876 -0.04970403 0
-1.2270802 1.7684612 0.50669605 0
-1.8093073 2.1906483 -0.049812455 0
-1.234645 1.7608442 0.50754339 0
-1.8236096 2.1767139 -0.049927831 0
-1.2364783 1.7490056 0.5042485 0
-1.8283736 2.1559098 -0.049632382 0
-1.2332672 1.7337579 0.49742389 0
-1.8393735 2.1396616 -0.04962147 0
-1.2366886 1.7234408 0.4955776 0
-1.8631285 2.1319926 -0.050168186 0
-1.2370894 1.7111858 0.49168167 0
-1.8766387 2.1171584 -0.050277505 0
-1.2469023 1.7052826 0.49459723 0
-1.8700962 2.0894716 -0.049545389 0
-1.2351022 1.6854801 0.48235023 0
-1.8826182 2.0741827 -0.049633987 0
-1.2344489 1.6731834 0.47814626 0
-1.915037 2.0707831 -0.050558876 0
-1.2448597 1.6677469 0.48173815 0
-1.9124693 2.0461791 -0.050032057 0
-1.2375164 1.6517569 0.47315601 0
-1.9217027 2.028697 -0.050006215 0
-1.2421223 1.6429666 0.47292122 0
-1.9391031 2.0157328 -0.050322462 0
-1.2386316 1.629724 0.46728075 0
-1.940757 1.9940914 -0.050005715 0
-1.9535177 1.978459 -0.050148718 0
-1.9666786 1.9629115 -0.05031471 0
-1.9659778 1.9404777 -0.049937006 0
-1.9682312 1.9197284 -0.049689334 0
-1.9809102 1.9039253 -0.049862493 0
-2.0028329 1.8920637 -0.050403185 0
-2.0086136 1.8729037 -0.050320346 0
-1.9866967 1.8424071 -0.049178001 0
-2.00017 1.8268169 -0.049415439 0
-2.0036094 1.8072083 -0.049275752 0
-2.0019803 1.7858363 -0.048953313 0
-1.9977604 1.7637861 -0.048544422 0
-2.0004652 1.7443887 -0.04840884 0
-1.9946547 1.722316 -0.047963295 0
-1.9928619 1.7018218 -0.047680151 0
-2.0050244 1.6856914 -0.047927577 0
-2.0007522 1.6647036 -0.047571667 0
-1.998696 1.6445727 -0.047308732 0
-1.9911332 1.6232134 -0.046853006 0
-2.0101955 1.6086762 -0.047386996 0
-2.0014775 1.5873429 -0.04690833 0
-2.0011654 1.5681794 -0.046747912 0
-2.0089123 1.5507743 -0.046890371 0
-1.9949608 1.5291162 -0.04625177 0
-2.0044708 1.5120919 -0.046475299 0
-2.0017574 1.4928858 -0.046263814 0
-1.9931067 1.4729238 -0.045847081 0
-2.001137 1.4555807 -0.046041429 0
-1.9939899 1.4361755 -0.045697156 0
-2.0050066 1.4190789 -0.046014819 0
-1.9989237 1.400026 -0.045726229 0
-1.9991704 1.3817338 -0.045673415 0
-2.0124288 1.3644608 -0.04609476 0
-2.0123405 1.346046 -0.046046123 0
-2.0068562 1.3273904 -0.045812916 0
-2.0002694 1.3088549 -0.045548819 0
-2.0085413 1.2908772 -0.045823801 0
-1.9982464 1.2724687 -0.045443904 0
-2.0000639 1.2543254 -0.045504712 0
-1.1349746 0.26436791 -0.049962379 0
-0.38131905 0.2643699 0.41320765 0
-0.38542324 0.2643699 0.49109286 0
-1.1341783 0.24463944 -0.049938384 0
-0.39624321 0.25393364 0.42070767 0
-1.1295279 0.22502185 -0.049785618 0
-0.41812414 0.24294287 0.3583183 0
-0.40942633 0.24316198 0.42740446 0
-1.131857 0.20524518 -0.049890958 0
-0.50153846 0.22906823 0.10645669 0
-0.50801039 0.22882363 0.17574857 0
-1.242088 0.20107897 0.43355688 0
-1.2443362 0.200994 0.56428605 0
-1.2362667 0.20129898 0.69744027 0
-1.1307167 0.18556589 -0.049881238 0
-0.50639325 0.21703894 0.1070349 0
-0.51886082 0.21641044 0.17780222 0
-1.2395401 0.18007994 0.43314353 0
-1.2389836 0.180108 0.56281316 0
-1.2409545 0.18000863 0.69976777 0
-1.1442893 0.16496278 -0.050406683 0
-0.50947201 0.20498399 0.10743862 0
-0.52460152 0.20403019 0.17896236 0
-1.2334658 0.15934075 0.43189588 0
-1.2383065 0.15903558 0.56298524 0
-1.1283801 0.1462165 -0.049886372 0
-0.50021625 0.19376598 0.1065297 0
-0.50623411 0.19331044 0.17579149 0
-1.2481682 0.13714901 0.43602985 0
-1.2454116 0.13735767 0.56584257 0
-1.1289215 0.1263817 -0.049963534 0
-0.51842952 0.18033236 0.10859859 0
-0.51310116 0.18080324 0.17721024 0
-1.2476016 0.11589365 0.43632913 0
-1.238458 0.11670168 0.56409872 0
-1.1405518 0.10536823 -0.050447654 0
-0.50476503 0.16963172 0.10724504 0
-0.50335574 0.16977417 0.17564803 0
-1.2422416 0.095089726 0.43546823 0
-1.2467171 0.094637342 0.56752652 0
-1.1323702 0.0862628 -0.050230093 0
-0.50807327 0.15731665 0.039797995 0
-0.51933849 0.15603451 0.10895841 0
-0.51188672 0.15688263 0.17742619 0
-1.2317265 0.074954636 0.43334958 0
-1.2412623 0.073869325 0.56646019 0
-1.1315995 0.066370733 -0.050287526 0
-0.51140589 0.14487971 0.039969113 0
-0.50679135 0.14546385 0.10775515 0
-0.5159024 0.14431049 0.17841583 0
-1.2431339 0.052251849 0.43693048 0
-1.2403759 0.052600969 0.56701183 0
-1.1198125 0.047970299 -0.049956981 0
-0.51266754 0.13260767 0.040071525 0
-0.51773214 0.13190165 0.10911287 0
-0.50996339 0.13298464 0.17762335 0
-1.2372395 0.031600732 0.43613428 0
-1.2418048 0.030964304 0.56843203 0
-1.1118702 0.029217128 -0.049773004 0
-0.51090664 0.12072089 0.040070552 0
-0.50800198 0.12116315 0.10824463 0
-0.517461 0.11972291 0.17930654 0
-1.2358779 0.010335525 0.43657345 0
-1.2345889 0.010531773 0.56703734 0
-1.1101913 0.0095577734 -0.049823824 0
-0.50777322 0.10905955 0.040025327 0
-0.50212491 0.10999248 0.10780901 0
-0.50578612 0.10938776 0.17751916 0
-1.2390132 -0.011719803 0.43824553 0
-1.2420406 -0.012219856 0.57067245 0
-1.1062624 -0.0097403629 -0.049802132 0
-0.51857948 0.094945572 0.040490814 0
-0.50966209 0.096534051 0.10885204 0
-0.50031459 0.098199151 0.17688794 0
-1.2404572 -0.033644926 0.43955496 0
-1.2433622 -0.034162384 0.57234073 0
-1.1039459 -0.029334288 -0.049847815 0
-0.51647425 0.082963444 0.040494576 0
-0.51114619 0.083981924 0.10925382 0
-0.50696105 0.084781937 0.17850608 0
-1.2447245 -0.056244742 0.44167253 0
-1.2414584 -0.055620413 0.57301414 0
-1.0965996 -0.047937047 -0.049719322 0
-0.51363426 0.071126707 0.040477064 0
-0.5150736 0.070832752 0.10994196 0
-0.51219004 0.071421675 0.17989855 0
-1.2347208 -0.07614667 0.44015342 0
-1.2422169 -0.077677645 0.57468486 0
-1.1021806 -0.069260485 -0.050071321 0
-0.51492846 0.058401916 0.040615983 0
-0.51220715 0.058993507 0.10990298 0
-0.50830334 0.059842143 0.17964342 0
-1.2358851 -0.098326452 0.44161138 0
-1.2352006 -0.098177619 0.5738076 0
-1.0966409 -0.088277347 -0.050026726 0
-0.50276929 0.048677105 0.040268261 0
-0.51970863 0.044770677 0.11102378 0
-0.5085569 0.047342408 0.18018079 0
-1.2444907 -0.12237344 0.44509491 0
-1.2382023 -0.12092326 0.57643622 0
-1.0937881 -0.10792045 -0.050089516 0
-0.52141291 0.031689543 0.041055903 0
-0.52161962 0.031639133 0.1115494 0
-0.52084905 0.031827081 0.18298379 0
-1.2415258 -0.14395563 0.44562998 0
-1.24141 -0.14392744 0.57924134 0
-1.08316 -0.12561195 -0.049874987 0
-0.55532146 0.010198732 0.042416703 0
-0.55795276 0.0095217125 0.11591484 0
-0.55626804 0.0099551873 0.19013894 0
-1.2470224 -0.16777308 0.44846746 0
-1.2334833 -0.16428952 0.57832992 0
-1.069868 -0.14242862 -0.049569417 0
-0.6169641 -0.019797962 0.044817936 0
-0.62100613 -0.020892393 0.12330117 0
-1.2517605 -0.19167884 0.3206999 0
-1.2372696 -0.18775521 0.44736302 0
-1.2331223 -0.18663226 0.58011138 0
-1.0748529 -0.16422112 -0.049948975 0
-0.6933136 -0.055739176 0.04778764 0
-0.68337107 -0.052912246 0.13067977 0
-1.2492318 -0.21380176 0.32132745 0
-1.2359723 -0.2100317 0.44856402 0
-1.2493838 -0.21384497 0.58774573 0
-1.0719829 -0.18395554 -0.050047547 0
-0.77179849 -0.094504781 0.050864886 0
-0.77584505 -0.095710583 0.14150766 0
-1.2498937 -0.23697047 0.32261014 0
-1.2307529 -0.23126681 0.44879994 0
-1.2363232 -0.23292668 0.58534837 0
-1.067014 -0.20311175 -0.050077289 0
-0.87450516 -0.14309748 0.054878246 0
-0.86732793 -0.14086001 0.15232709 0
-1.2298312 -0.25386968 0.32003781 0
-1.2382903 -0.25650677 0.45251724 0
-1.2443801 -0.2584053 0.59038424 0
-1.0589039 -0.22127049 -0.049998254 0
-0.98906195 -0.19852866 0.059375953 0
-0.98967254 -0.19872747 0.1667432 0
-1.2253929 -0.27548239 0.32045865 0
-1.2383991 -0.27971748 0.45434177 0
-1.2391082 -0.27994832 0.59088928 0
-1.0586677 -0.24204765 -0.050224356 0
-1.1215855 -0.26341471 0.064596601 0
-1.1285592 -0.26578304 0.18318108 0
-1.2516803 -0.30759534 0.32678518 0
-1.2337321 -0.30150005 0.45496583 0
-1.0476865 -0.25919667 -0.050054457 0
-1.3023107 -0.34925935 0.20376275 0
-1.2387506 -0.32677761 0.32571498 0
-1.2394041 -0.32700875 0.45846474 0
-1.0311453 -0.27417573 -0.04968046 0
-1.2484157 -0.35411796 0.1984916 0
-1.2355225 -0.34937403 0.32655045 0
-1.234614 -0.34903976 0.45922285 0
-1.0364512 -0.29722783 -0.050146867 0
-1.2585391 -0.38213256 0.20056768 0
-1.2413722 -0.37556961 0.32919753 0
-1.237648 -0.37414584 0.46219727 0
-1.0242677 -0.31369731 -0.049954977 0
-1.2456635 -0.40154824 0.20003566 0
-1.2413549 -0.3998386 0.33078334 0
-1.2478445 -0.4024137 0.46723914 0
-1.0156314 -0.33148339 -0.049907025 0
-1.2372671 -0.42267606 0.20004977 0
-1.2373459 -0.42270848 0.33165836 0
-1.241539 -0.42443374 0.46785253 0
-1.018261 -0.35403815 -0.0503047 0
-1.2473638 -0.4516941 0.20225541 0
-1.2459148 -0.45107648 0.3350603 0
-1.2329277 -0.4455407 0.46790645 0
-0.99933064 -0.36739048 -0.049874336 0
-1.2556983 -0.48050347 0.20430915 0
-1.2319196 -0.47001204 0.33410349 0
-1.2391264 -0.47319177 0.47216448 0
-0.99437177 -0.38678828 -0.049996354 0
-1.2489431 -0.50295979 0.20463489 0
-1.2254316 -0.4922305 0.33467653 0
-1.2500029 -0.50344348 0.47785628 0
-0.98614132 -0.40474173 -0.049999576 0
-1.2417803 -0.52531236 0.20494765 0
-1.2394125 -0.52419561 0.33939019 0
-1.2411352 -0.52500814 0.47811961 0
-0.96694529 -0.4173595 -0.049576297 0
-1.4965225 -0.67533219 0.082606815 0
-1.2443371 -0.55248529 0.20645778 0
-1.2325991 -0.54676735 0.34004182 0
-1.243742 -0.55219537 0.48171771 0
-0.96870494 -0.44018325 -0.049994059 0
-1.4537908 -0.68408728 0.081378162 0
-1.2458205 -0.57951862 0.20788941 0
-1.2383792 -0.57577711 0.34329692 0
-1.2469273 -0.58007509 0.48560134 0
-0.9601686 -0.45800212 -0.050011996 0
-1.4059752 -0.68923402 0.079941429 0
-1.2338455 -0.59995341 0.20774215 0
-1.2400726 -0.60318327 0.34581703 0
-0.952685 -0.47640184 -0.050081726 0
-1.3598884 -0.69416088 0.078567594 0
-1.2429011 -0.63159984 0.21018818 0
-1.2442179 -0.63230401 0.34892598 0
-0.94508386 -0.49479654 -0.050156567 0
-1.3094814 -0.6956051 0.077010602 0
-1.2398555 -0.6572364 0.21121506 0
-1.2418528 -0.658337 0.35079122 0
-0.92777407 -0.50774491 -0.049842861 0
-1.2612134 -0.69700545 0.075531006 0
-1.2371827 -0.68336552 0.21233514 0
-1.2399188 -0.68491852 0.35282698 0
-0.92719281 -0.53021622 -0.050225284 0
-1.2570064 -0.72294939 0.075863138 0
-1.2380853 -0.71189237 0.21394932 0
-1.2321779 -0.7084403 0.35373443 0
-0.90383565 -0.53930885 -0.049673516 0
-1.2443713 -0.74410266 0.075860232 0
-1.246963 -0.74566132 0.21662079 0
-1.2449176 -0.74443132 0.35902107 0
-0.90983951 -0.5661121 -0.050354835 0
-1.2575977 -0.78125781 0.076954149 0
-1.2445329 -0.77317518 0.21793769 0
-1.2399213 -0.77032214 0.36068344 0
-0.89472163 -0.58005077 -0.05016211 0
-1.2388167 -0.79896861 0.076722212 0
-1.2458911 -0.80346936 0.21979164 0
-1.2444966 -0.8025822 0.36447456 0
-0.88152397 -0.59508669 -0.050057162 0
-1.2483332 -0.8349964 0.077704988 0
-1.2439452 -0.83212656 0.22128545 0
-1.2382106 -0.82837576 0.36604363 0
-0.86556745 -0.60818273 -0.049840756 0
-1.2415591 -0.86091429 0.078014776 0
-1.2371879 -0.85797602 0.22221541 0
-1.235824 -0.8570593 0.36854371 0
-0.85735655 -0.62644625 -0.049965646 0
-1.2430598 -0.89281708 0.078700393 0
-1.2374846 -0.88896686 0.22411716 0
-1.2462 -0.89498574 0.37394169 0
-0.84090388 -0.63897514 -0.049740925 0
-1.2465044 -0.92669684 0.079494759 0
-1.2462947 -0.92654818 0.22720893 0
-1.6027867 -1.1794335 0.4560464 0
-0.84274793 -0.66464049 -0.050329234 0
-1.2374396 -0.95216209 0.07976266 0
-1.2423742 -0.95575672 0.2286991 0
-1.5681196 -1.1930529 0.45240352 0
-0.82908201 -0.67922759 -0.050245978 0
-1.2346133 -0.98253423 0.080325447 0
-1.2427795 -0.98864192 0.23083305 0
-0.80454695 -0.68539989 -0.04968093 0
-1.2368286 -1.0172828 0.081137761 0
-1.234897 -1.0157999 0.23192067 0
-0.80185735 -0.70828199 -0.050106693 0
-1.1541619 -0.98588294 0.078119859 0
-1.1609238 -0.991211 0.22402297 0
-1.1621828 -0.99220294 0.37216246 0
-0.78690171 -0.72163635 -0.049986821 0
-1.1479852 -1.0135984 0.0785648 0
-1.1486443 -1.0141313 0.22452827 0
-1.1427258 -1.0093458 0.37134871 0
-0.77195287 -0.73489064 -0.049873773 0
-1.243309 -1.1259329 0.083738901 0
-1.2431816 -1.1258272 0.23999463 0
-1.332467 -1.1998993 0.41959855 0
-0.75901532 -0.74975616 -0.049861576 0
-1.2434577 -1.1620622 0.084572777 0
-1.2374638 -1.1569608 0.24167673 0
-1.3234212 -1.2301186 0.42185575 0
-1.0350327 -0.98467296 0.49767655 0
-0.74834991 -0.76659793 -0.04996575 0
-1.2810587 -1.2316755 0.41625214 0
-0.98934031 -0.97699291 0.48756722 0
-0.7359916 -0.78202671 -0.05000009 0
-1.1979504 -1.1957012 0.084138699 0
-1.1968843 -1.1947466 0.24106213 0
-1.1910071 -1.1894839 0.39904475 0
-0.97540569 -0.99641711 0.48818651 0
-0.7265749 -0.80019408 -0.050186776 0
-0.92342341 -0.98098534 0.47571728 0
-0.70487416 -0.80697626 -0.049784377 0
-0.88900495 -0.98041171 0.46918753 0
-0.6999929 -0.82961529 -0.050216153 0
-0.85892749 -0.98314017 0.4641152 0
-0.6802907 -0.8380056 -0.049922787 0
-0.83166683 -0.98795956 0.46000308 0
-0.66256475 -0.84811312 -0.049731564 0
-0.82444692 -1.0125641 0.46314847 0
-0.65329432 -0.86683911 -0.04998026 0
-0.64003038 -0.88155979 -0.050035924 0
-0.62250364 -0.89167231 -0.049876347 0
-0.60818708 -0.9052282 -0.049893703 0
-0.59317672 -0.91800755 -0.049882744 0
-0.58375287 -0.93738586 -0.05018932 0
-0.56688321 -0.94807607 -0.050096281 0
-0.54768568 -0.955769 -0.049876697 0
-0.53879553 -0.9763822 -0.050256085 0
-0.51646864 -0.97982544 -0.049865954 0
-0.50168842 -0.99296933 -0.049923476 0
-0.48287892 -1.0006198 -0.049746633 0
-0.47601515 -1.0250119 -0.050312921 0
-0.45375144 -1.0276657 -0.049936969 0
-0.43806028 -1.0396926 -0.049978599 0
-0.42489022 -1.0556604 -0.050196104 0
-0.37408632 -0.97744697 0.49865308 0
-0.40665996 -1.063912 -0.05009307 0
-0.34720254 -0.96980327 0.49168691 0
-0.38476074 -1.0660583 -0.049744673 0
-0.33258718 -0.98112875 0.49231374 0
-0.37247366 -1.0838294 -0.050060097 0
-0.30940902 -0.97821182 0.48748869 0
-0.35554737 -1.0940534 -0.050068136 0
-0.29003441 -0.98112923 0.48505548 0
-0.34000468 -1.1067511 -0.050186254 0
-0.28249681 -1.0046856 0.49061435 0
-0.32360053 -1.1180539 -0.050254788 0
-0.2502014 -0.98386127 0.4793416 0
-0.30556482 -1.1263922 -0.050211426 0
-0.22983386 -0.98369771 0.4760794 0
-0.28577232 -1.1312573 -0.050038036 0
-0.20439191 -0.97314161 0.46904594 0
-0.26089138 -1.1256554 -0.049458101 0
-0.18300344 -0.96952468 0.46475595 0
-0.25087678 -1.1498847 -0.050076991 0
-0.16698147 -0.97627312 0.46442187 0
-0.22782148 -1.1472747 -0.049639374 0
-0.15305199 -0.98744148 0.46578744 0
-0.2149833 -1.166501 -0.050071344 0
-0.13172074 -0.98251122 0.46133074 0
-0.19724323 -1.1752899 -0.050100535 0
-0.11438878 -0.9858883 0.46001297 0
-0.17731895 -1.1789701 -0.049940262 0
-0.10135044 -0.99917775 0.46236131 0
-0.15720119 -1.181885 -0.049760994 0
-0.073062018 -0.97554642 0.34763253 0
-0.086265877 -1.0079269 0.46312553 0
-0.1402166 -1.192432 -0.049885135 0
-0.057571068 -0.9822244 0.34774494 0
-0.066909865 -1.0059775 0.46012947 0
-0.1226628 -1.201732 -0.049969267 0
-0.031690553 -0.96150607 0.14687456 0
-0.029999269 -0.95703989 0.24154615 0
-0.014519973 -0.91616446 0.32806629 0
-0.050291702 -1.0106251 0.45958149 0
-0.10248591 -1.2040154 -0.049794808 0
-0.0067130462 -0.94116646 0.14389062 0
-0.0089197587 -0.94722277 0.23856248 0
0.0048349961 -0.90947276 0.32474613 0
-0.085716382 -1.2156665 -0.049985118 0
0.0081902016 -0.94748908 0.14399168 0
0.0091087092 -0.944866 0.23706833 0
0.021888213 -0.90837044 0.32301751 0
-0.002404405 -0.97774512 0.44384801 0
-0.070031539 -1.2309762 -0.050320376 0
0.023502605 -0.95267671 0.14398494 0
0.024560379 -0.94952947 0.23695946 0
0.023266869 -0.95337814 0.33376491 0
0.010714786 -0.99072534 0.44651625 0
-0.047785953 -1.226701 -0.049927119 0
0.033877537 -0.97319478 0.14573097 0
0.03705205 -0.96334022 0.23862116 0
0.023193376 -1.0063614 0.34661132 0
0.02134447 -1.0121009 0.45216599 0
-0.028742684 -1.2318821 -0.049899153 0
0.026470022 -1.0527906 0.35765788 0
-0.011434061 -1.2428936 -0.050097223 0
0.066628978 -0.97787565 0.33640063 0
0.0074805184 -1.2487164 -0.050110281 0
0.085773334 -0.97001833 0.33312348 0
0.027849542 -1.2491474 -0.049932856 0
0.10148312 -0.97376376 0.33298537 0
0.047388569 -1.2523514 -0.049867596 0
0.11685283 -0.97880334 0.33324054 0
0.066316888 -1.2579104 -0.049898062 0
0.085688844 -1.2616286 -0.049869787 0
0.10461833 -1.2673331 -0.049923025 0
0.12338437 -1.2740576 -0.050021965 0
0.14262153 -1.2786696 -0.05005252 0
-0.064651743 -2.3818369 0.10212617 0
0.16187851 -1.2833114 -0.050092883 0
0.0025430785 -2.1944075 0.095113851 0
0.18072112 -1.2907097 -0.050241638 0
0.034332529 -2.1947088 0.094935991 0
0.20126154 -1.2874495 -0.050013956 0
0.064441159 -2.2054708 0.095150501 0
0.21999048 -1.2963234 -0.050233204 0
0.097189113 -2.1980114 0.094721794 0
0.24049908 -1.2920624 -0.049988106 0
0.12845285 -2.2001522 0.094653934 0
0.26027447 -1.2928857 -0.049935251 0
0.16005124 -2.1988778 0.094477639 0
0.27979144 -1.2959982 -0.049973525 0
0.19129394 -2.2000113 0.094402231 0
0.29965791 -1.2953635 -0.049886305 0
0.22286409 -2.1967328 0.094182923 0
0.31927487 -1.2973615 -0.049902353 0
0.25353256 -2.2038169 0.094348975 0
0.33857685 -1.3048617 -0.050124019 0
0.28490245 -2.2012286 0.094182797 0
0.35904026 -1.2911608 -0.049596496 0
0.31617844 -2.1982493 0.094016857 0
0.37804675 -1.3088626 -0.050200194 0
0.34717351 -2.2001414 0.094039083 0
0.39789447 -1.3078597 -0.05014433 0
0.37827566 -2.1981084 0.093935072 0
0.41769555 -1.3079543 -0.050136581 0
0.43746293 -1.2980752 -0.049781661 0
0.45729479 -1.3079995 -0.05014265 0
0.47685567 -1.299263 -0.049846202 0
0.49689776 -1.307313 -0.050158203 0
0.51672167 -1.3071176 -0.050184645 0
0.53595036 -1.2976011 -0.049886532 0
0.55574822 -1.2979369 -0.049949616 0
0.57531703 -1.2952484 -0.049913287 0
0.55124873 -1.0323342 0.052487664 0
0.59513116 -1.2951294 -0.049977984 0
0.56387901 -0.9953683 0.051218119 0
0.614402 -1.2899476 -0.049869757 0
0.57746512 -0.97425526 0.050522245 0
0.6344291 -1.2911618 -0.050000336 0
0.59062362 -0.95364124 0.049849354 0
0.6534096 -1.2843627 -0.049851261 0
0.58906889 -0.83320135 0.045581251 0
0.67272884 -1.280406 -0.049813218 0
0.60540992 -0.84743887 0.046170007 0
0.61419779 -0.90395874 0.13306832 0
0.69483572 -1.2931455 -0.050388366 0
0.62261534 -0.8642953 0.046862271 0
0.62346381 -0.86933357 0.12955415 0
0.71110684 -1.2714202 -0.049724396 0
0.68298233 -1.1163629 0.056098331 0
0.63111657 -0.83041483 0.12557572 0
0.73279035 -1.2799717 -0.050167404 0
0.6443674 -0.82516259 0.045626108 0
0.64257163 -0.8159259 0.12427267 0
0.75170046 -1.2736049 -0.050077569 0
0.70857757 -1.0658021 0.054500684 0
0.65568376 -0.81091422 0.12402226 0
0.77090436 -1.2688491 -0.050055072 0
0.72050101 -1.0404561 0.053704951 0
0.70911419 -0.98885912 0.14392462 0
0.67489254 -0.83379036 0.20881766 0
0.79113674 -1.2685459 -0.05020462 0
0.74061459 -1.0525739 0.054285984 0
0.71969646 -0.96315318 0.14148276 0
0.68688798 -0.82290345 0.20738253 0
0.8087492 -1.2571937 -0.049957648 0
0.73900515 -0.97511429 0.051583793 0
0.73399013 -0.95483118 0.14097251 0
0.70398891 -0.8334915 0.20996054 0
0.82724768 -1.2499188 -0.049868461 0
0.75303751 -0.96521086 0.051364403 0
0.74416226 -0.93116087 0.13877596 0
0.7203846 -0.83993751 0.21181513 0
0.85030252 -1.2594905 -0.050411209 0
0.74902171 -0.8900488 0.048735008 0
0.75582713 -0.91487283 0.1374087 0
0.8665244 -1.2439185 -0.050032612 0
0.75427002 -0.85378212 0.047539145 0
0.76144356 -0.87871355 0.13383068 0
0.88610625 -1.2404084 -0.050109942 0
0.90242404 -1.2263509 -0.049801968 0
0.92191327 -1.2226149 -0.049888361 0
0.94111133 -1.2178329 -0.049944889 0
0.95751774 -1.205109 -0.04970973 0
0.97954172 -1.207973 -0.050074991 0
0.99754393 -1.1996913 -0.0500261 0
0.92274785 -1.0058756 0.45898125 0
1.0109586 -1.1800381 -0.049548339 0
0.94143718 -1.0064304 0.46142817 0
1.0342579 -1.1850662 -0.050028652 0
0.96169394 -1.0102708 0.46515605 0
1.0556546 -1.1848037 -0.050317347 0
0.97320515 -0.99305052 0.46136922 0
1.0653882 -1.1578223 -0.049574085 0
0.98845172 -0.98492283 0.46092483 0
1.0857371 -1.1551566 -0.049786907 0
1.0000976 -0.96904427 0.45770937 0
1.1055882 -1.1510874 -0.049955621 0
1.0255277 -0.98271483 0.46541408 0
1.1278222 -1.1515937 -0.050317276 0
1.0450797 -0.98308533 0.46835536 0
1.1405396 -1.1327497 -0.049917948 0
1.0649791 -0.98364288 0.47147676 0
1.1540866 -1.1160938 -0.049610555 0
1.0809873 -0.97623962 0.47172409 0
1.1763648 -1.1160928 -0.04998339 0
1.105787 -0.985107 0.47819799 0
1.19336 -1.1060276 -0.049959294 0
1.1264962 -0.98559135 0.057041366 0
1.1320242 -0.99554843 0.16087048 0
1.1299658 -0.99184078 0.26512977 0
1.1325769 -0.99654406 0.3739529 0
1.1276979 -0.98775607 0.48246941 0
1.2123244 -1.0994346 -0.050086584 0
1.1453079 -0.9822256 0.057266362 0
1.1436467 -0.97932023 0.15996416 0
1.1451237 -0.98190337 0.26491028 0
1.1475278 -0.98610812 0.37350568 0
1.1488758 -0.98846573 0.48613384 0
1.2307494 -1.0917419 -0.050179124 0
1.1661587 -0.98200554 0.057633124 0
1.1687889 -0.9864741 0.16198513 0
1.159229 -0.97023243 0.26436621 0
1.1611322 -0.97346586 0.3724575 0
1.1653416 -0.98061746 0.48662436 0
1.2482989 -1.0824717 -0.050216176 0
1.2660581 -1.0734826 -0.050274607 0
1.2821863 -1.0618656 -0.050231524 0
1.2982237 -1.0501603 -0.050192963 0
1.3109977 -1.0336757 -0.049956709 0
1.3253257 -1.0197126 -0.049834985 0
1.3354087 -0.99994725 -0.049465496 0
1.3560776 -0.99505347 -0.049756568 0
1.3756176 -0.98831373 -0.049979493 0
1.3995811 -0.98703593 -0.050462078 0
1.4023438 -0.95847255 -0.049719904 0
1.2053565 -0.71008688 0.050402012 0
1.2051026 -0.70976663 0.13961659 0
1.420301 -0.94940501 -0.049869057 0
1.2033417 -0.68280131 0.049597532 0
1.2099726 -0.6909495 0.13836785 0
1.436195 -0.93769747 -0.049907461 0
1.2023416 -0.65761244 0.048880894 0
1.2131674 -0.67057848 0.13689689 0
1.4558076 -0.9302848 -0.050157532 0
1.2038106 -0.63607955 0.048327755 0
1.2070371 -0.6398465 0.13394955 0
1.474463 -0.92151076 -0.05035736 0
1.2033085 -0.61289084 0.047690649 0
1.2051873 -0.61502934 0.1318046 0
1.4776129 -0.89531535 -0.049733441 0
1.1994981 -0.58669859 0.046901625 0
1.2056358 -0.59350955 0.13010888 0
1.4950827 -0.88525754 -0.049888656 0
1.5077465 -0.86996537 -0.049799018 0
1.5324696 -0.86716563 -0.050338142 0
1.5364455 -0.84301001 -0.049823131 0
1.5616251 -0.84009975 -0.050388668 0
1.5643241 -0.81519049 -0.049840115 0
1.5810937 -0.80389243 -0.049999371 0
1.5997077 -0.79411119 -0.050252609 0
1.6086155 -0.77550513 -0.050046388 0
1.6147892 -0.75473017 -0.049724631 0
1.635463 -0.74643177 -0.050094694 0
1.6475705 -0.73077589 -0.050070491 0
1.6559238 -0.71214128 -0.049884096 0
1.6717261 -0.69946301 -0.050047092 0
1.6748711 -0.67704511 -0.049648758 0
1.6997665 -0.67102754 -0.050231844 0
1.7061172 -0.65116829 -0.049997639 0
1.7213999 -0.63775885 -0.050165672 0
1.7247596 -0.61607832 -0.04982451 0
1.7415277 -0.60357356 -0.050072305 0
1.7498862 -0.58543211 -0.049967524 0
1.7556504 -0.56574661 -0.049763903 0
1.7686498 -0.55063897 -0.049874809 0
1.7877998 -0.53908318 -0.05024809 0
1.7960322 -0.52093184 -0.050174892 0
1.8066816 -0.504188 -0.050210461 0
1.8101349 -0.48350528 -0.049962059 0
1.8116819 -0.46201298 -0.049648918 0
1.8351216 -0.45194623 -0.050226301 0
1.8328025 -0.42867246 -0.049779069 0
1.8387557 -0.40971044 -0.049673673 0
1.8543046 -0.39527902 -0.049955972 0
1.8543659 -0.37367597 -0.049637772 0
1.8787955 -0.36288276 -0.050280187 0
1.8798327 -0.3417975 -0.050019074 0
1.8855084 -0.32278195 -0.049948148 0
1.8970677 -0.30610862 -0.050112188 0
1.905847 -0.2882655 -0.050177477 0
1.9170213 -0.2712343 -0.050341923 0
1.911797 -0.24839263 -0.04989415 0
1.9184076 -0.22981669 -0.049904365 0
1.9260497 -0.2115586 -0.049961973 0
1.9241625 -0.19034974 -0.049672291 0
1.9354452 -0.17318477 -0.049883325 0
1.9413531 -0.15437035 -0.049902502 0
1.9466023 -0.13536488 -0.049906064 0
1.9613335 -0.11872963 -0.050267417 0
1.9574753 -0.097418912 -0.049953308 0
1.962754 -0.078378595 -0.049984194 0
1.9587823 -0.057362776 -0.049686246 0
1.9825052 -0.042032819 -0.050406549 0
1.9708639 -0.01965363 -0.049848318 0
1.9765458 -0.00064412813 -0.049929008 0
1.9854292 0.017918069 -0.050133925 0
1.9817835 0.038456518 -0.049894877 0
1.9823143 0.058272604 -0.049815971 0
1.983673 0.077936299 -0.049775928 0
1.9830937 0.097782902 -0.049675256 0
1.983039 0.11751165 -0.049602482 0
1.9867038 0.13688691 -0.049671918 0
1.9907416 0.1562885 -0.049763385 0
1.9935803 0.17582585 -0.04982065 0
2.0010021 0.19520463 -0.050050456 0
1.9966618 0.21511911 -0.049868755 0
2.0041902 0.23468433 -0.050119866 0
1.9967084 0.25452432 -0.049843848 0
1.9924152 0.27419281 -0.049690574 0
2.0043426 0.29406267 -0.050125305 0
1.999531 0.31371537 -0.049971242 0
1.9907081 0.33308554 -0.049682587 0
1.9950416 0.35300118 -0.049872905 0
1.9962115 0.37283507 -0.049959142 0
2.0006773 0.39300346 -0.050172474 0
1.985714 0.41148588 -0.049698409 0
1.9891082 0.43160743 -0.049891215 0
1.9873896 0.45125458 -0.049909573 0
1.9939313 0.47201642 -0.050234359 0
1.9866549 0.490998 -0.050070632 0
1.9714187 0.5086025 -0.049627475 0
1.9748445 0.52909625 -0.049867377 0
1.9698151 0.54820412 -0.049810242 0
1.9798857 0.57025909 -0.050311223 0
1.9713023 0.58874613 -0.050143048 0
1.9752233 0.60991567 -0.05044039 0
1.9563029 0.62588489 -0.049910288 0
1.9488009 0.64433324 -0.049806155 0
1.9530778 0.66581863 -0.050145168 0
1.9319531 0.68050569 -0.049554229 0
1.9242556 0.69867116 -0.049467258 0
1.9311842 0.72123444 -0.049934365 0
1.9275049 0.74076647 -0.0500165 0
1.915519 0.75760013 -0.049795683 0
1.9116745 0.7770943 -0.04988952 0
1.911051 0.79782432 -0.050115328 0
1.9004067 0.814969 -0.049970042 0
1.8895437 0.83192188 -0.04982391 0
1.8906537 0.85360533 -0.050146271 0
1.8750552 0.8685407 -0.049834155 0
1.8599155 0.88343841 -0.049545482 0
1.8675818 0.90835071 -0.050154921 0
1.8571645 0.92535007 -0.050068527 0
1.8534018 0.94547534 -0.050253529 0
1.8290911 0.9555797 -0.049631227 0
1.8255786 0.97581661 -0.049843747 0
1.819724 0.99499285 -0.049973421 0
1.8142527 1.0144849 -0.050129335 0
1.7950827 1.0264448 -0.049736001 0
1.7943486 1.0487063 -0.050105527 0
1.7781949 1.0621331 -0.049849451 0
1.769833 1.0801048 -0.049924288 0
1.760635 1.0976181 -0.049973983 0
1.7472082 1.1124487 -0.049853753 0
1.73555 1.1283541 -0.049816243 0
1.7286514 1.1474742 -0.049992643 0
1.7151413 1.1621222 -0.049892932 0
1.7056459 1.1795737 -0.049976915 0
1.6934445 1.1951051 -0.049951311 0
1.6859201 1.214162 -0.050143685 0
1.6726992 1.2289641 -0.050091106 0
1.6562182 1.2411203 -0.049897544 0
1.6514913 1.2627313 -0.050251428 0
1.6307507 1.2712162 -0.049874946 0
1.6124978 1.281499 -0.049616627 0
1.6139578 1.3089728 -0.050300974 0
1.5943236 1.3179725 -0.049993116 0
1.5752281 1.327181 -0.049713384 0
1.5659648 1.3454998 -0.049921066 0
1.5512855 1.3587297 -0.049872287 0
1.5389084 1.3742248 -0.049947672 0
1.5262325 1.3894932 -0.050018672 0
1.5092031 1.4002463 -0.049874607 0
1.0292605 0.89390808 0.29457998 0
1.496475 1.4155079 -0.049961884 0
1.0395678 0.92115116 0.30354071 0
1.4796239 1.4262912 -0.049840692 0
1.4397676 1.3820636 0.059715163 0
1.4453375 1.3882445 0.16858947 0
1.4325359 1.3740388 0.27539936 0
1.0493741 0.94885409 0.31254786 0
1.4686041 1.4435865 -0.050040454 0
1.4190164 1.3871472 0.059358262 0
1.4122995 1.3795024 0.1655273 0
1.4106514 1.3776267 0.27325907 0
1.0522066 0.96965539 0.31834444 0
1.4477735 1.4496491 -0.04971661 0
1.3822722 1.3731769 0.058121867 0
1.3898551 1.3820298 0.16415182 0
1.3864051 1.378002 0.27044469 0
1.0544173 0.99040776 0.32404175 0
1.4373504 1.4678254 -0.049971823 0
1.3683013 1.3851256 0.058125511 0
1.3671758 1.3837777 0.16272137 0
1.3688898 1.3858306 0.26948294 0
1.0601734 1.0160824 0.33180073 0
1.4264685 1.485728 -0.050217904 0
1.3483051 1.3896793 0.057796869 0
1.3438331 1.384184 0.16115938 0
1.3401873 1.379704 0.26533768 0
1.0604995 1.0360181 0.33698773 0
1.404249 1.4896191 -0.049829371 0
1.3208635 1.3844764 0.057038464 0
1.3130788 1.3746605 0.1582914 0
1.3159895 1.3783306 0.26241136 0
1.0567244 1.0514175 0.34019518 0
1.3917038 1.5055863 -0.05000215 0
1.3011693 1.3884289 0.056716148 0
1.2937334 1.3788065 0.15736066 0
1.2905061 1.3746302 0.25905272 0
1.0481735 1.0610368 0.34096149 0
1.3789289 1.5214562 -0.050176039 0
1.2764975 1.3853966 0.056095868 0
1.2751826 1.3836501 0.15656543 0
1.2747935 1.3831332 0.25855345 0
1.0365895 1.0667272 0.34012941 0
1.3617077 1.5314753 -0.050096471 0
1.2540872 1.3847133 0.055599108 0
1.2562279 1.3876324 0.15569402 0
1.2573167 1.3891174 0.25753987 0
1.0295885 1.0785642 0.3419013 0
1.344879 1.5419531 -0.050047286 0
1.2498012 1.4088117 0.056206398 0
1.2452357 1.4024186 0.15628882 0
1.2487911 1.4073974 0.25930926 0
1.0286779 1.0991641 0.34727603 0
1.3268206 1.5506067 -0.049928471 0
1.2387593 1.4239488 0.056421086 0
1.245582 1.4337616 0.15906379 0
1.2387385 1.423919 0.2607007 0
1.0132453 1.0995934 0.3444353 0
1.3090851 1.5595937 -0.049834877 0
1.2452083 1.465206 0.057765983 0
1.2457436 1.4659973 0.16193049 0
1.247286 1.4682763 0.2681697 0
1.0024604 1.1065102 0.34430319 0
1.2976464 1.5780277 -0.050155483 0
1.2395152 1.4897559 0.058382083 0
1.2547827 1.5129396 0.16666569 0
1.2332773 1.4802837 0.26856798 0
1.1681414 1.3813751 0.34722909 0
0.99077493 1.112045 0.34367606 0
1.2716392 1.5741466 -0.049533498 0
1.2447255 1.5321361 0.059752285 0
1.2471819 1.5359703 0.16829643 0
1.2198964 1.4933795 0.26923409 0
1.1534433 1.3896507 0.34695703 0
0.9805246 1.1197358 0.34396419 0
1.2622037 1.5960402 -0.050014377 0
1.2404903 1.5611888 0.06054841 0
1.2461149 1.5702165 0.17134668 0
1.2071495 1.5076742 0.27018568 0
1.1310842 1.3855839 0.34303284 0
0.97437662 1.1340563 0.34689954 0
1.2472992 1.6095654 -0.050147284 0
1.1927847 1.5195599 0.27065608 0
1.1139446 1.3893921 0.34157175 0
0.96423805 1.142221 0.34744847 0
0.837681 0.93327069 0.46977815 0
1.2250123 1.6107391 -0.04977534 0
1.1752585 1.5262098 0.27006534 0
1.0911921 1.3833852 0.33727983 0
0.95675951 1.1549909 0.34982064 0
0.842363 0.96063685 0.48513636 0
1.2192158 1.6402315 -0.050582252 0
1.1604539 1.5374595 0.27048039 0
1.0668164 1.3736914 0.33201969 0
0.94492018 1.1604998 0.34942934 0
0.84768015 0.99043089 0.35228378 0
0.84128058 0.97923839 0.41801453 0
0.83648914 0.97085828 0.48863164 0
1.1933711 1.6347919 -0.04996011 0
1.1415066 1.5413724 0.26941776 0
1.0536754 1.3831693 0.33248064 0
0.93907219 1.1767436 0.35318261 0
0.85250223 1.020812 0.36422309 0
0.8360939 0.99125695 0.4219797 0
0.83228844 0.98440254 0.49440685 0
1.1751505 1.6425834 -0.049891997 0
1.1279602 1.5550025 0.27040207 0
1.0378276 1.3877249 0.33156002 0
0.9242999 1.1770279 0.35090715 0
0.84689867 1.0333785 0.36767456 0
0.84287441 1.0259099 0.4388195 0
0.84394538 1.0278976 0.52035534 0
1.1585863 1.6534469 -0.049957354 0
1.1132952 1.5667953 0.27104086 0
1.0164117 1.3814368 0.32758144 0
0.91368824 1.1849053 0.35156706 0
0.85207111 1.0670187 0.38098171 0
0.84452838 1.0525879 0.45099816 0
0.83870685 1.04145 0.52599841 0
1.1419684 1.6643133 -0.05003079 0
1.0932356 1.5681467 0.26960194 0
0.99715155 1.3785399 0.32467544 0
0.90314305 1.1930287 0.35236454 0
0.85154551 1.0912091 0.38978764 0
0.84024674 1.0689127 0.4572804 0
0.83981186 1.0680547 0.54032731 0
1.1224654 1.6694288 -0.049883388 0
1.0810239 1.5850316 0.27134374 0
0.98227036 1.3839157 0.3242079 0
0.88914937 1.1942708 0.35065603 0
0.84334397 1.1009864 0.39189428 0
0.84128153 1.096786 0.46999121 0
0.839113 1.0923698 0.55304605 0
1.1059606 1.6806148 -0.049986586 0
0.96237868 1.3786525 0.32079065 0
0.87102771 1.1865355 0.34571558 0
0.8390891 1.1193664 0.39797977 0
0.84035379 1.1220262 0.4811601 0
0.83901393 1.1192083 0.56735176 0
1.0872393 1.6871653 -0.049915198 0
0.94465065 1.3772904 0.31855932 0
0.8661983 1.206797 0.35114071 0
0.8404907 1.1509291 0.41006285 0
0.84024608 1.1503974 0.49399546 0
0.84295958 1.1562945 0.58826542 0
1.0689303 1.6945266 -0.049885135 0
0.93273091 1.3884457 0.31989846 0
0.85570294 1.2153407 0.35229072 0
0.84184933 1.1842076 0.42284796 0
0.84376681 1.1885167 0.51209819 0
0.84130186 1.1829772 0.60227704 0
1.0500654 1.7005491 -0.049812194 0
0.91240007 1.3803799 0.31593415 0
0.85023391 1.2357998 0.35779762 0
0.83986998 1.2116963 0.43294692 0
0.84108931 1.214532 0.52348685 0
0.83608943 1.2029039 0.61186516 0
1.0365773 1.7193975 -0.050244626 0
0.89794999 1.385466 0.31569451 0
0.85187566 1.2744801 0.3698644 0
0.83552051 1.2350831 0.44116563 0
0.83755147 1.2399755 0.53452462 0
0.83996725 1.2457947 0.63619125 0
1.0176394 1.7254655 -0.050189931 0
0.87955654 1.3806475 0.31278419 0
0.84650922 1.2981224 0.37647378 0
0.84181267 1.2863941 0.46182165 0
0.8410697 1.2845389 0.55583602 0
0.84135085 1.285241 0.65816331 0
0.99439132 1.7202663 -0.049713485 0
0.86457235 1.3838722 0.31215101 0
0.84848052 1.3421742 0.39035347 0
0.84060073 1.3217556 0.47526395 0
0.83869857 1.3168266 0.57043678 0
0.84026366 1.3208821 0.67759895 0
0.98039234 1.7390069 -0.050162192 0
0.84910566 1.3856255 0.31117183 0
0.84252816 1.3679211 0.397663 0
0.8403331 1.3620126 0.4908126 0
0.84036475 1.362098 0.59191549 0
0.84142792 1.3649597 0.70228988 0
0.96179289 1.7458199 -0.050163403 0
0.83074671 1.3790029 0.30798069 0
0.83808643 1.3995479 0.40704349 0
0.83724642 1.3971965 0.50406247 0
0.84071785 1.4069135 0.61304444 0
0.9398706 1.7429612 -0.049808405 0
0.81439102 1.3772556 0.30618078 0
0.84238809 1.4588521 0.42613834 0
0.83798569 1.4460214 0.52324331 0
0.84301251 1.4606719 0.63881046 0
0.92440277 1.7589238 -0.050172675 0
1.0306478 2.0817566 0.35105643 0
0.80311066 1.3903693 0.30843535 0
0.84168553 1.5075817 0.44143152 0
0.84107721 1.5057333 0.54708618 0
0.84110641 1.5058219 0.65992033 0
0.90246654 1.7552301 -0.04980702 0
1.0066595 2.0857875 0.35042185 0
0.78574848 1.3849362 0.3057577 0
0.83976239 1.5562979 0.45666254 0
0.84126717 1.561072 0.56891936 0
0.84031045 1.5580368 0.6846655 0
0.88427144 1.7630652 -0.049882956 0
0.984658 2.0961158 0.35103288 0
0.76905733 1.3808216 0.30349988 0
0.83893698 1.6126599 0.47450104 0
0.8404842 1.6177931 0.59126651 0
0.86313063 1.760868 -0.04959444 0
0.96071476 2.1000185 0.35048789 0
0.75269592 1.3770555 0.30139866 0
0.84005195 1.6806587 0.49630719 0
0.83814192 1.6740204 0.61332446 0
0.84812945 1.7803081 -0.050117776 0
0.73752022 1.376839 0.04718193 0
0.73832983 1.3797922 0.13029641 0
0.73721778 1.3757358 0.21382838 0
0.73840564 1.3800688 0.30115274 0
0.83671075 1.738656 0.51458317 0
0.83843327 1.7449393 0.6416263 0
0.82469064 1.7688531 -0.049506526 0
0.72426677 1.3835759 0.047292061 0
0.72336888 1.380131 0.12991625 0
0.72581875 1.3895299 0.2157007 0
0.72421455 1.3833754 0.30103245 0
0.8304587 1.7909824 0.53086406 0
0.82971787 1.7881402 0.65797418 0
0.80997384 1.7908909 -0.0501398 0
0.70680028 1.3736062 0.046793591 0
0.70820487 1.3792869 0.12942719 0
0.70930052 1.3837184 0.21395159 0
0.70866185 1.3811352 0.29950187 0
0.82344449 1.8453728 0.54782873 0
0.82477427 1.8507512 0.68259656 0
0.78875315 1.7871008 -0.049831025 0
0.69303346 1.3779185 0.046828307 0
0.69326127 1.3788922 0.12901032 0
0.69261384 1.3761247 0.2119161 0
0.69490647 1.3859252 0.29986912 0
0.81772947 1.9109687 0.56860238 0
0.76826268 1.7856232 -0.04961744 0
0.68093395 1.38991 0.047150038 0
0.67941374 1.3830214 0.1291132 0
0.67983413 1.3849264 0.21295318 0
0.68264198 1.3976495 0.30209249 0
0.80683899 1.9604243 0.58384401 0
0.75123554 1.8001088 -0.049995881 0
0.66331661 1.3764399 0.04654811 0
0.66374278 1.3784937 0.1282848 0
0.66450399 1.3821617 0.21188679 0
0.66538489 1.3864068 0.29836586 0
0.79145402 1.993916 0.59366822 0
0.730708 1.7980052 -0.049777862 0
0.64991146 1.3824229 0.046663236 0
0.64931792 1.3793701 0.1280717 0
0.64684218 1.3666362 0.20851402 0
0.65183693 1.3923267 0.29916564 0
0.7792685 2.0477788 0.61043841 0
0.71214312 1.8058778 -0.049931698 0
0.63635135 1.3880196 0.046770215 0
0.63389176 1.374459 0.12724683 0
0.6354208 1.3828893 0.21101451 0
0.63558042 1.383769 0.29625392 0
0.76320642 2.0874021 0.62240762 0
0.6924119 1.8074969 -0.049867284 0
0.62004942 1.3778028 0.046310645 0
0.61928546 1.3732665 0.12685016 0
0.62074327 1.3819231 0.21038684 0
0.62137675 1.3856845 0.29611102 0
0.74614817 2.1265867 0.6342718 0
0.6739561 1.8170433 -0.050098397 0
0.60695982 1.3861513 0.046530165 0
0.60927528 1.4010438 0.12962505 0
0.60655999 1.3835799 0.21027291 0
0.60756421 1.3900386 0.29664427 0
0.72688216 2.1574416 0.64338058 0
0.65301383 1.8103313 -0.04975117 0
0.59212166 1.3833518 0.046353213 0
0.59145552 1.3786807 0.12696561 0
0.59166789 1.3801701 0.20926875 0
0.5923295 1.3848093 0.29475167 0
0.70846593 2.1991651 0.65620714 0
0.63411587 1.8174927 -0.049913455 0
0.57720524 1.378997 0.046127297 0
0.57740885 1.3805658 0.12696263 0
0.57716292 1.3786709 0.20864782 0
0.57695973 1.3771051 0.29227486 0
0.68718064 2.226356 0.66421521 0
0.61432707 1.8180515 -0.049846735 0
0.56386793 1.3867866 0.046344995 0
0.56430668 1.3905367 0.12785371 0
0.56427968 1.3903055 0.21044581 0
0.5627473 1.3772088 0.29185706 0
0.66843337 2.2804883 0.68132561 0
0.59513044 1.8238667 -0.049977735 0
0.55262417 1.4161595 0.13045269 0
0.55213994 1.4115148 0.21400701 0
0.5505814 1.3965659 0.29642451 0
0.64507711 2.3029399 0.6878956 0
0.57472217 1.817494 -0.049680308 0
0.55240947 1.5737579 0.14730719 0
0.55304086 1.5806551 0.24438256 0
0.55118936 1.5604299 0.33804852 0
0.621795 2.3317015 0.69666439 0
0.55599689 1.8298347 -0.050062552 0
0.60280812 2.4234231 0.23875208 0
0.59909558 2.3763468 0.38807443 0
0.59772336 2.3589461 0.54205197 0
0.53561866 1.8213354 -0.049707279 0
0.57346934 2.3930686 0.39074802 0
0.57331306 2.3907073 0.54968375 0
0.51652753 1.8322375 -0.050055064 0
0.54843509 2.4278994 0.39674872 0
0.54809761 2.4215996 0.55716687 0
0.49700022 1.8385597 -0.050247625 0
0.52172613 2.4424155 0.39913642 0
0.52174348 2.4428394 0.56226248 0
0.47711331 1.8370979 -0.05017088 0
0.45659718 1.1131674 0.35757288 0
0.4565638 1.1119894 0.4302673 0
0.45703074 1.8199708 -0.049543761 0
0.44600585 1.1196243 0.36014903 0
0.44578651 1.1056905 0.42699754 0
0.43751365 1.8429217 -0.050356533 0
0.43509662 1.075425 0.41180444 0
0.43511862 1.0824074 0.49113655 0
0.41774687 1.831264 -0.049942557 0
0.42472306 1.0924674 0.42034787 0
0.42492831 1.07073 0.48423022 0
0.39806834 1.8287145 -0.049862601 0
0.4140127 1.1052014 0.42680284 0
0.41479009 1.0699259 0.48384807 0
0.37827256 1.8310878 -0.049967315 0
0.35235769 2.5792234 0.42373079 0
0.35227287 2.581672 0.59757197 0
0.40537775 1.0485885 0.47135687 0
0.35862222 1.8287524 -0.04991271 0
0.32189596 2.6059935 0.42877957 0
0.32228026 2.5978601 0.60201174 0
0.39525175 1.053558 0.47454727 0
0.33884251 1.829169 -0.049965333 0
0.29185358 2.6138887 0.43049124 0
0.29203066 2.6109316 0.60575479 0
0.38582587 1.0445428 0.46950737 0
0.3196055 1.8215472 -0.049739178 0
0.26084653 2.6317163 0.43406886 0
0.26133919 2.6249232 0.60983402 0
0.29988596 1.8214308 -0.049790386 0
0.22952792 2.6472602 0.4373076 0
0.23066913 2.6338654 0.61272359 0
0.27935159 1.8292356 -0.0501347 0
0.19793436 2.6609228 0.44028085 0
0.19766212 2.6637037 0.62107247 0
0.26022699 1.822059 -0.049950667 0
0.16648571 2.669456 0.44239968 0
0.16599198 2.6739194 0.62450266 0
0.34593824 1.0472516 0.47311723 0
0.24007019 1.8242825 -0.050113138 0
0.13316219 2.6907294 0.44690877 0
0.13493313 2.6763763 0.62604618 0
0.21949545 1.8287024 -0.050364166 0
0.10270713 2.6862388 0.44681254 0
0.10236184 2.6887741 0.63025254 0
0.19953941 1.8277485 -0.050431039 0
0.069767281 2.6984785 0.44983664 0
0.06911771 2.7028368 0.63500196 0
0.18107809 1.8172497 -0.050161917 0
0.0361595 2.7121708 0.45320797 0
0.036332414 2.7111032 0.63837105 0
0.16279261 1.8068286 -0.049903445 0
0.0041777953 2.713804 0.4544563 0
0.0037718283 2.7161255 0.64101422 0
0.14261131 1.8074681 -0.050054494 0
-0.028315557 2.7171896 0.45610294 0
-0.031311944 2.7331371 0.64688236 0
0.12180947 1.8106389 -0.050307348 0
-0.087347224 2.8514428 0.10020825 0
-0.089949027 2.8643897 0.29100829 0
-0.062880531 2.7296917 0.45950598 0
-0.062274203 2.7266746 0.64677137 0
0.10644923 1.7875254 -0.049610794 0
-0.11232682 2.8094096 0.098920099 0
-0.11322774 2.8136177 0.28617391 0
-0.096145228 2.7338269 0.4614552 0
-0.094942704 2.7282097 0.64884847 0
0.08510755 1.7929302 -0.049963418 0
-0.14041527 2.78513 0.098289736 0
-0.14206274 2.7923777 0.28461269 0
-0.12723793 2.7271554 0.46148869 0
-0.12832923 2.7319565 0.65161759 0
0.064345255 1.79485 -0.050198998 0
-0.17477728 2.788806 0.098696955 0
-0.17308386 2.7817669 0.28426167 0
-0.1626804 2.738523 0.46494097 0
-0.16193195 2.7354119 0.65442878 0
0.048081622 1.7783664 -0.04976707 0
-0.20924707 2.7917185 0.099093281 0
-0.2095706 2.7929926 0.286374 0
-0.1917937 2.7229877 0.46348125 0
-0.19661857 2.7419879 0.65818167 0
0.027209179 1.7802867 -0.050021362 0
-0.25242001 2.8260777 0.10066909 0
-0.25207174 2.8247755 0.29083139 0
-0.22851934 2.7366912 0.46754345 0
-0.22750033 2.7328801 0.65792036 0
0.0087931622 1.772788 -0.049937006 0
-0.26144075 2.7347369 0.46877331 0
-0.2648837 2.7469928 0.66391462 0
-0.010771794 1.7693894 -0.050013542 0
-0.29268438 2.7264607 0.46889699 0
-0.2921415 2.7246177 0.66035146 0
-0.029653145 1.7635796 -0.050009485 0
-0.32954723 2.7363355 0.47252074 0
-0.32674158 2.7272348 0.6635384 0
-0.045530632 1.7484441 -0.049664523 0
-0.35718924 2.7159193 0.47050765 0
-0.3583771 2.7196066 0.66410857 0
-0.065650597 1.7466855 -0.049829435 0
-0.39250678 2.7192068 0.47306201 0
-0.39035988 2.7128189 0.66501439 0
-0.084943667 1.7422041 -0.049901642 0
-0.42403597 2.7105808 0.47343597 0
-0.42627382 2.7169714 0.66899031 0
-0.10239805 1.7325186 -0.049785651 0
-0.4555828 2.7018354 0.47386476 0
-0.45608902 2.7032249 0.66824669 0
-0.12550206 1.7379738 -0.050255485 0
-0.48373264 2.6839364 0.47260675 0
-0.4875021 2.6938901 0.66880524 0
-0.1417786 1.7251493 -0.050037544 0
-0.52275574 2.694159 0.47686067 0
-0.51728606 2.6802471 0.66829371 0
-0.15792449 1.7124032 -0.049829386 0
-0.54961485 2.6729646 0.47511294 0
-0.55208391 2.6790197 0.67130345 0
-0.17694499 1.7068293 -0.04990596 0
-0.58386827 2.6698837 0.47696838 0
-0.58049929 2.6619103 0.67005146 0
-0.195264 1.6995096 -0.049924225 0
-0.61289263 2.6541901 0.47643587 0
-0.61455739 2.6579957 0.67256635 0
-0.2099048 1.684023 -0.049631581 0
-0.64103544 2.6367161 0.47562003 0
-0.63650775 2.6267111 0.66755062 0
-0.23262806 1.686294 -0.050044358 0
-0.67072308 2.6228011 0.47557834 0
-0.66889203 2.6188867 0.66919094 0
-0.24727501 1.6711756 -0.049781453 0
-0.69787204 2.6036339 0.47455907 0
-0.69581378 2.5993745 0.66764462 0
-0.26487815 1.6623914 -0.049776949 0
-0.73199272 2.5987492 0.47648057 0
-0.72557569 2.585886 0.66790235 0
-0.28164846 1.6519892 -0.04971632 0
-0.75621498 2.5740349 0.47447935 0
-0.75637674 2.5743492 0.66882902 0
-0.29759508 1.6401197 -0.049604479 0
-0.78860474 2.565295 0.47578833 0
-0.7840482 2.5567095 0.66811073 0
-0.32225072 1.6443303 -0.050154362 0
-0.81038046 2.5367584 0.47312042 0
-0.81663907 2.5482006 0.67014384 0
-0.33739364 1.6308612 -0.049996354 0
-0.61508262 2.1237059 0.082192279 0
-0.8334074 2.5111907 0.47110465 0
-0.83791053 2.5191827 0.66630518 0
-0.34600323 1.6063465 -0.049389128 0
-0.61653864 2.0726666 0.080636188 0
-0.86469674 2.5004153 0.47221863 0
-0.85683417 2.4868627 0.66154313 0
-0.3677811 1.6047148 -0.049733318 0
-0.61375332 2.0166569 0.078862444 0
-0.88170302 2.4654059 0.46833298 0
-0.89070022 2.480474 0.66452134 0
-0.38995326 1.6032552 -0.050098836 0
-0.61979735 1.9774022 0.077775501 0
-0.91756201 2.4621124 0.47117534 0
-0.91368186 2.455796 0.66217345 0
-0.40274918 1.5864663 -0.04983167 0
-0.62149632 1.9326979 0.076452933 0
-0.93734562 2.4326222 0.46854788 0
-0.93896294 2.4351821 0.6611203 0
-0.41951042 1.5761223 -0.049843512 0
-0.61585355 1.878396 0.074711837 0
-0.95902312 2.4067116 0.46672201 0
-0.958009 2.4051502 0.6572898 0
-0.44260883 1.5752501 -0.050271064 0
-0.61721742 1.836794 0.07349816 0
-0.97596395 2.3741558 0.46349874 0
-0.98068118 2.3812218 0.65537256 0
-0.45102704 1.5524384 -0.049765024 0
-0.61878145 1.7969905 0.072352566 0
-1.0040296 2.3586047 0.46401289 0
-1.0027356 2.3567183 0.65334868 0
-0.46905184 1.5438741 -0.049881328 0
-0.61460137 1.7504314 0.070902571 0
-1.0291966 2.3388064 0.46367222 0
-1.0209699 2.3271315 0.6498065 0
-0.48522592 1.5326072 -0.049889553 0
-0.61668181 1.7142619 0.06989485 0
-0.61105645 1.7064885 0.19730738 0
-1.0426607 2.3029087 0.45981464 0
-1.0468979 2.308764 0.64983726 0
-0.078477219 0.97053391 0.44213071 0
