# .PCD v0.7 - Point Cloud Data file format
VERSION 0.7
FIELDS x y z intensity
SIZE 4 4 4 4
TYPE F F F F
COUNT 1 1 1 1
WIDTH 1313
HEIGHT 1
VIEWPOINT 0 0 0 1 0 0 0
POINTS 1313
DATA ascii
-1.1468115 -1.1941705 -0.090651385 0
-1.1981164 -1.2033283 -0.070206933 0
-1.618919 -1.278441 -0.091344304 0
-2.5483999 -1.4443519 -0.14075021 0
-3.4097855 -1.5981081 -0.14124268 0
-5.1181417 -1.9030471 -0.14111511 0
-10.234674 -2.8163407 -0.14077453 0
-1.3318369 -1.2271972 0.29131594 0
-1.3279245 -1.2264988 0.32290798 0
-1.3279612 -1.2265054 0.35531282 0
-0.89169139 -1.1719849 -0.092709459 0
-0.99958628 -1.1940666 -0.09139248 0
-1.1448947 -1.2238054 -0.091258325 0
-1.1866398 -1.2323489 -0.069390066 0
-1.609049 -1.318799 -0.091098689 0
-2.5315356 -1.5075948 -0.14031471 0
-3.3879189 -1.6828618 -0.14085597 0
-5.0855536 -2.0302989 -0.14073955 0
-10.195131 -3.0760231 -0.14100745 0
-1.2521914 -1.2457647 0.31127402 0
-1.2355714 -1.2423633 0.33877724 0
-0.87890059 -1.1926246 -0.090986587 0
-0.98694706 -1.2175933 -0.090009503 0
-1.1331822 -1.2513871 -0.090342246 0
-1.183399 -1.2629919 -0.069861688 0
-1.5866578 -1.3561819 -0.089471541 0
-2.5150959 -1.5707368 -0.14006984 0
-3.3640115 -1.7669146 -0.14047357 0
-5.0650764 -2.1600175 -0.14109349 0
-10.139178 -3.3326035 -0.14100611 0
-0.87220824 -1.2144295 -0.090705179 0
-0.98808473 -1.2443064 -0.091412388 0
-1.1210175 -1.2785813 -0.089461245 0
-1.322461 -1.3305205 -0.091100834 0
-1.5909708 -1.3997517 -0.091170378 0
-1.9872702 -1.5019317 -0.090682484 0
-3.3438714 -1.851711 -0.14051338 0
-5.0305471 -2.2865953 -0.14093111 0
-10.067543 -3.58531 -0.14078322 0
-0.8670274 -1.2366107 -0.090877049 0
-0.99123967 -1.2720022 -0.093352087 0
-1.1101304 -1.3058776 -0.088909112 0
-1.3043144 -1.3612061 -0.08976876 0
-1.5841869 -1.4409497 -0.09166611 0
-1.9691687 -1.5506419 -0.090242408 0
-3.3240883 -1.9366968 -0.14073446 0
-4.9847822 -2.4098756 -0.14037776 0
-10.011615 -3.8421626 -0.14109211 0
-0.85637027 -1.2571387 -0.08995492 0
-0.96911693 -1.2923623 -0.090456508 0
-1.1107353 -1.336606 -0.090449549 0
-1.2961757 -1.3945402 -0.090013273 0
-1.5674033 -1.4792755 -0.091068186 0
-1.963778 -1.6031084 -0.091161616 0
-3.3057647 -2.0223639 -0.14122072 0
-4.9465528 -2.5349689 -0.14033876 0
-9.9241447 -4.0900383 -0.14079246 0
-0.84440911 -1.2770072 -0.088847928 0
-0.96319526 -1.3174344 -0.090861179 0
-1.0948714 -1.3622487 -0.089278229 0
-1.2869868 -1.4276326 -0.090228342 0
-1.5506458 -1.5173655 -0.090587281 0
-1.9444633 -1.6513959 -0.090845905 0
-3.2707496 -2.1027794 -0.14063752 0
-4.9235749 -2.6652966 -0.1412041 0
-9.8492737 -4.341692 -0.14095266 0
-0.83202285 -1.2964542 -0.087747388 0
-0.95874292 -1.3431814 -0.091691069 0
-1.0934314 -1.3928467 -0.090735428 0
-1.2782511 -1.4609977 -0.090637855 0
-1.5294918 -1.553641 -0.089673422 0
-1.932323 -1.7021822 -0.091361679 0
-3.2436492 -2.1857245 -0.14078921 0
-4.8728099 -2.7864659 -0.14086121 0
-9.7554169 -4.5868931 -0.1408006 0
-0.83212125 -1.3206004 -0.089603387 0
-0.94726646 -1.3663917 -0.091236614 0
-1.0728092 -1.4163179 -0.088950507 0
-1.2628548 -1.4918959 -0.090170927 0
-1.5259238 -1.596514 -0.091076888 0
-1.9077654 -1.7483659 -0.090763472 0
-3.2229393 -2.2713883 -0.14157994 0
-4.8257089 -2.9087827 -0.14085095 0
-9.6629429 -4.832469 -0.1408357 0
-0.82426548 -1.3418431 -0.089781068 0
-0.92701036 -1.3857367 -0.089098386 0
-1.0670059 -1.4455442 -0.089900009 0
-1.2467809 -1.5223459 -0.089713924 0
-1.5104903 -1.6350054 -0.091124333 0
-1.8820385 -1.7937344 -0.090157814 0
-3.1861954 -2.3508832 -0.14132382 0
-4.774004 -3.0292113 -0.14076297 0
-9.5540285 -5.0712857 -0.14061141 0
-0.82414901 -1.3666878 -0.091894411 0
-0.92363673 -1.4121916 -0.090532564 0
-1.0522777 -1.4710295 -0.089380138 0
-1.2288796 -1.5518038 -0.08908733 0
-1.4839594 -1.6684724 -0.089870282 0
-1.8728671 -1.8463514 -0.091361277 0
-3.149061 -2.4300578 -0.1411881 0
-4.7254343 -3.1510608 -0.14098924 0
-9.4543819 -5.3139901 -0.14077474 0
-0.81061697 -1.3855567 -0.091008015 0
-0.91634774 -1.4371804 -0.091302969 0
-1.0473394 -1.501138 -0.090761326 0
-1.2230583 -1.5869339 -0.090457805 0
-1.4796829 -1.7122322 -0.091604315 0
-1.8458962 -1.8910382 -0.090867884 0
-3.1149118 -2.5106428 -0.14143749 0
-4.6599751 -3.2650292 -0.14050166 0
-9.3358555 -5.5480566 -0.14060916 0
-0.79966927 -1.4055485 -0.090842418 0
-0.90306878 -1.4593061 -0.090944998 0
-1.020324 -1.5202674 -0.088211127 0
-1.2054231 -1.6165007 -0.090114631 0
-1.4417431 -1.7393639 -0.08907152 0
-1.8261511 -1.9392184 -0.091246061 0
-3.0681295 -2.5849254 -0.14085402 0
-4.6057692 -3.3843472 -0.14074811 0
-9.2256861 -5.7862511 -0.14081421 0
-0.79416025 -1.4285161 -0.092116915 0
-0.88383901 -1.4780537 -0.089420877 0
-1.0140446 -1.5499779 -0.089608558 0
-1.1891817 -1.6467217 -0.09010946 0
-1.4334338 -1.781644 -0.090550251 0
-1.7975492 -1.9827775 -0.090813898 0
-3.0251436 -2.6608875 -0.14071429 0
-4.5391011 -3.4971814 -0.14049433 0
-9.1008511 -6.0170431 -0.14079121 0
-0.78801161 -1.4514766 -0.093394615 0
-0.87370867 -1.5016775 -0.089962952 0
-1.0069991 -1.5797585 -0.091022708 0
-1.1731412 -1.6770837 -0.090260275 0
-1.4098247 -1.8157318 -0.090122141 0
-1.7691543 -2.0262253 -0.090515785 0
-2.9850121 -2.7384691 -0.14095798 0
-4.4809523 -3.614784 -0.14084898 0
-8.9731951 -6.2463188 -0.14084771 0
-0.76943201 -1.4671013 -0.091727011 0
-0.86590415 -1.5269338 -0.091160201 0
-0.99076849 -1.6043751 -0.090827025 0
-1.1501933 -1.7032511 -0.089396976 0
-1.3872429 -1.8502702 -0.089945994 0
-1.7437004 -2.0713465 -0.090655543 0
-2.9405541 -2.8136399 -0.14100946 0
-4.4087057 -3.7241933 -0.14059828 0
-8.8372021 -6.4707646 -0.14083415 0
-0.75642902 -1.485927 -0.091548555 0
-0.84933341 -1.5468451 -0.090545423 0
-0.96979851 -1.6258348 -0.089817815 0
-1.1386976 -1.7365832 -0.090553962 0
-1.3773679 -1.8930809 -0.091663636 0
-1.7137532 -2.1136513 -0.090422235 0
-2.8934507 -2.887187 -0.14099804 0
-4.347044 -3.8403182 -0.14108519 0
-8.7124987 -6.7027779 -0.14129049 0
-0.73978609 -1.5021985 -0.090547659 0
-0.84223074 -1.5731316 -0.092203058 0
-0.95828015 -1.6534848 -0.090787597 0
-1.1200302 -1.7654814 -0.090648003 0
-1.3468229 -1.9225137 -0.090625517 0
-1.6956222 -2.1640241 -0.0916465 0
-2.8366935 -2.9541073 -0.14032203 0
-4.2599854 -3.9396017 -0.14030716 0
-8.5408335 -6.9036818 -0.14059098 0
-0.72431582 -1.5190502 -0.089944012 0
-0.8282758 -1.5949835 -0.092446648 0
-0.94542545 -1.6805505 -0.091644205 0
-1.094421 -1.789378 -0.089661561 0
-1.3234736 -1.9566801 -0.090716116 0
-1.6647089 -2.2059209 -0.091561697 0
-2.7968161 -3.0328214 -0.1412397 0
-4.1969619 -4.0554996 -0.14104348 0
-8.3909569 -7.1188278 -0.14065053 0
-0.70608091 -1.5336111 -0.088699929 0
-0.80023271 -1.6060928 -0.089476131 0
-0.91876775 -1.6973456 -0.089795075 0
-1.0774676 -1.819519 -0.090296887 0
-1.2910767 -1.9839636 -0.089599989 0
-1.6185973 -2.2361019 -0.089808352 0
-2.7406993 -3.0999396 -0.14091627 0
-4.1146135 -4.1576324 -0.14082912 0
-8.2373943 -7.3315101 -0.14076094 0
-0.70459419 -1.5613902 -0.092112981 0
-0.79431331 -1.6341374 -0.091876306 0
-0.90178597 -1.7212797 -0.09004388 0
-1.0559919 -1.8463149 -0.090263419 0
-1.2771723 -2.0256553 -0.091345929 0
-1.5893942 -2.2788148 -0.090141319 0
-2.6801255 -3.1632152 -0.14033599 0
-4.0433459 -4.2685585 -0.14142743 0
-8.0772352 -7.5393672 -0.14083531 0
-0.68237412 -1.5725567 -0.090000011 0
-0.77418923 -1.6509246 -0.09098462 0
-0.88851225 -1.7485037 -0.091228507 0
-1.0371407 -1.8753639 -0.090837829 0
-1.248078 -2.055407 -0.090955801 0
-1.5616372 -2.3230419 -0.090789892 0
-2.6312976 -3.2360387 -0.14096797 0
-3.9513109 -4.362721 -0.14093727 0
-7.9037962 -7.736321 -0.14066404 0
-0.66470695 -1.5871577 -0.089219086 0
-0.75864679 -1.6715275 -0.091338538 0
-0.86808908 -1.7698206 -0.09101107 0
-1.0178236 -1.9043009 -0.091474362 0
-1.2185228 -2.084554 -0.090601005 0
-1.5266964 -2.3613327 -0.09069059 0
-2.5714321 -3.2996368 -0.14074811 0
-3.8736346 -4.4691782 -0.14148147 0
-7.7410464 -7.9426003 -0.14097658 0
-0.65478933 -1.6088452 -0.090792052 0
-0.74245548 -1.6916705 -0.091666065 0
-0.84249234 -1.7861835 -0.089738883 0
-0.98761833 -1.9232957 -0.09016075 0
-1.1888075 -2.1133754 -0.09032888 0
-1.4961768 -2.4037721 -0.09127932 0
-1.9921315 -2.8723404 -0.090718426 0
-3.7784259 -4.5599971 -0.14108604 0
-7.560545 -8.1332712 -0.14089349 0
-0.63092488 -1.6172202 -0.088387616 0
-0.72204357 -1.7077662 -0.091014557 0
-0.8253234 -1.810397 -0.090481691 0
-0.96791238 -1.9520899 -0.090987839 0
-1.1569915 -2.1399808 -0.089822136 0
-1.4575902 -2.4386904 -0.090960719 0
-1.9372842 -2.9153695 -0.090057932 0
-3.6882653 -4.6553464 -0.14116053 0
-7.3738022 -8.3177204 -0.14075954 0
-0.62145603 -1.6398363 -0.09040942 0
-0.70112967 -1.7231086 -0.090318196 0
-0.79655343 -1.8228424 -0.088629819 0
-0.94240618 -1.9752829 -0.090803765 0
-1.1354609 -2.1770575 -0.09115278 0
-1.417681 -2.4720249 -0.090572514 0
-1.8811537 -2.9564314 -0.089358486 0
-3.5918317 -4.7443767 -0.1409746 0
-7.1963916 -8.5117455 -0.14109051 0
-0.60478044 -1.6552638 -0.090389319 0
-0.68552345 -1.7440333 -0.091194965 0
-0.77478546 -1.8421687 -0.088511907 0
-0.91672337 -1.9982164 -0.090698294 0
-1.0996841 -2.1993649 -0.090206765 0
-1.3807105 -2.5083275 -0.090696223 0
-1.8439569 -3.0176244 -0.090712823 0
-3.4899342 -4.8272243 -0.14055882 0
-6.9946237 -8.6803074 -0.14075609 0
-0.58449048 -1.6665252 -0.0893187 0
-0.66323215 -1.7576092 -0.090322338 0
-0.7654072 -1.8757997 -0.091624953 0
-0.89051199 -2.0205138 -0.090598799 0
-1.0669242 -2.2245777 -0.089871116 0
-1.3401843 -2.5406697 -0.090445094 0
-1.7903948 -3.0614481 -0.090520613 0
-3.3997848 -4.9231005 -0.14111383 0
-6.7992892 -8.8554573 -0.14078967 0
-0.57474226 -1.690244 -0.091838993 0
-0.64619476 -1.7772393 -0.09108188 0
-0.73472792 -1.8850311 -0.08953584 0
-0.86854041 -2.0479517 -0.091557749 0
-1.0420866 -2.2592492 -0.091099314 0
-1.3008494 -2.5743005 -0.090479635 0
-1.7382863 -3.1068926 -0.090602584 0
-3.2945261 -5.0016594 -0.14075278 0
-6.5906315 -9.0147638 -0.14049582 0
-0.55293685 -1.6994995 -0.090478443 0
-0.6315788 -1.8003317 -0.092757367 0
-0.72296137 -1.9174994 -0.092493646 0
-0.83893639 -2.0661991 -0.090959929 0
-1.0077665 -2.2826676 -0.090729527 0
-1.2591718 -2.6050115 -0.090286605 0
-1.6932433 -3.1615641 -0.091618814 0
-3.1981406 -5.091095 -0.14119938 0
-6.3938537 -9.1885366 -0.14079112 0
-0.53293371 -1.7106717 -0.089796834 0
-0.60150087 -1.8033149 -0.089777075 0
-0.69409275 -1.9284186 -0.091051929 0
-0.80883557 -2.083451 -0.09033107 0
-0.97592759 -2.3092144 -0.090948634 0
-1.223277 -2.6434157 -0.091113858 0
-1.6290076 -3.1916108 -0.090574391 0
-3.0912299 -5.1672635 -0.1410116 0
-6.188982 -9.3527308 -0.14094898 0
-0.51838541 -1.7293603 -0.091211401 0
-0.58070469 -1.818163 -0.089755513 0
-0.66982734 -1.9451594 -0.090952061 0
-0.78234339 -2.1054907 -0.090666808 0
-0.94336194 -2.3349359 -0.091161914 0
-1.1815913 -2.6744039 -0.09118522 0
-1.572572 -3.2315369 -0.090531789 0
-2.9803402 -5.2375536 -0.14064763 0
-5.9729247 -9.501874 -0.14082475 0
-0.49859986 -1.7408034 -0.090847574 0
-0.55949754 -1.8324119 -0.089718513 0
-0.64212358 -1.9567065 -0.089950778 0
-0.75422776 -2.1253452 -0.090742074 0
-0.90996408 -2.3596199 -0.091342352 0
-1.137069 -2.7012546 -0.090910606 0
-1.5186921 -3.2753317 -0.090935268 0
-2.8730991 -5.3127699 -0.14072296 0
-5.7516646 -9.6430054 -0.14063251 0
-0.4808366 -1.7553265 -0.09138941 0
-0.5423106 -1.8530644 -0.091227047 0
-0.62412435 -1.9831406 -0.09199255 0
-0.72276539 -2.1399705 -0.090066813 0
-0.86831003 -2.3713729 -0.089851968 0
-1.0901037 -2.7240043 -0.090313025 0
-1.461689 -3.3147902 -0.091087542 0
-2.7635295 -5.3845944 -0.14076065 0
-5.5397787 -9.7985716 -0.14099441 0
-0.46185541 -1.7680805 -0.09159743 0
-0.51497906 -1.8574699 -0.089249186 0
-0.59362882 -1.9898113 -0.09031304 0
-0.68959266 -2.1512864 -0.088991366 0
-0.83276778 -2.3922026 -0.089761786 0
-1.043226 -2.7463338 -0.089808427 0
-1.3989081 -3.3448284 -0.090589352 0
-2.6561613 -5.4603662 -0.14116246 0
-5.3141375 -9.9328556 -0.14092112 0
-0.4404124 -1.7765743 -0.090881951 0
-0.49707231 -1.877636 -0.090852357 0
-0.56423539 -1.9974318 -0.088982157 0
-0.66040343 -2.1689625 -0.089091606 0
-0.79715538 -2.4128809 -0.089773677 0
-1.0055772 -2.7846339 -0.09114746 0
-1.3376143 -3.3768737 -0.090386964 0
-2.5385783 -5.5189795 -0.14078857 0
-5.086338 -10.063306 -0.14089958 0
-0.42105624 -1.7886881 -0.091177084 0
-0.47277564 -1.8866532 -0.090156712 0
-0.538118 -2.0104225 -0.088805757 0
-0.63242596 -2.1890574 -0.089692824 0
-0.7567175 -2.4244862 -0.088705949 0
-0.9540118 -2.7981942 -0.089958511 0
-1.283954 -3.4231596 -0.091436185 0
-1.9239581 -4.6354337 -0.090977721 0
-4.8521891 -10.181988 -0.14072114 0
-0.40238178 -1.8023664 -0.091956444 0
-0.4519155 -1.9022151 -0.09097553 0
-0.51023853 -2.0197811 -0.088086925 0
-0.59853935 -2.1977754 -0.088613309 0
-0.72380066 -2.4502738 -0.089635782 0
-0.90751278 -2.8205957 -0.089842029 0
-1.21795 -3.4463665 -0.090777673 0
-1.8282385 -4.6765695 -0.090651818 0
-4.6194835 -10.303084 -0.14076196 0
-0.37487626 -1.7975274 -0.088497065 0
-0.4305833 -1.9173208 -0.091800071 0
-0.49013796 -2.0453882 -0.090449862 0
-0.57354414 -2.224746 -0.090508662 0
-0.69305044 -2.4817345 -0.091393746 0
-0.86135554 -2.8436604 -0.089916743 0
-1.1537861 -3.4725082 -0.090482317 0
-1.734916 -4.7221794 -0.090684213 0
-4.3833075 -10.417324 -0.14077802 0
-0.35936275 -1.8182528 -0.091162391 0
-0.40133455 -1.9148096 -0.089108728 0
-0.46412069 -2.0592499 -0.09077365 0
-0.53803581 -2.2292926 -0.08904437 0
-0.65099883 -2.4891658 -0.090169795 0
-0.81809574 -2.8735747 -0.090806998 0
-1.0928797 -3.5057194 -0.090853252 0
-1.6434298 -4.7722678 -0.09106385 0
-4.1440868 -10.525065 -0.14078115 0
-0.33776924 -1.8256897 -0.090843417 0
-0.38526413 -1.9429601 -0.092826419 0
-0.43515274 -2.0661409 -0.089975156 0
-0.50551564 -2.2398751 -0.088646717 0
-0.61375576 -2.5071328 -0.090421282 0
-0.76936632 -2.8913534 -0.090576656 0
-1.023651 -3.5192122 -0.089849703 0
-1.5464565 -4.8100801 -0.090939634 0
-3.9008205 -10.623281 -0.14069752 0
-0.31303257 -1.8245914 -0.088713624 0
-0.36368874 -1.9593433 -0.094223209 0
-0.40765354 -2.0762954 -0.089886211 0
-0.47991657 -2.2685246 -0.091089182 0
-0.57818651 -2.5299354 -0.091392152 0
-0.72242838 -2.9136376 -0.090920992 0
-0.968225 -3.5674887 -0.09158463 0
-1.4471004 -4.8413596 -0.090613984 0
-3.6583529 -10.723578 -0.14081971 0
-0.29506108 -1.841471 -0.090788953 0
-0.3325184 -1.9492971 -0.090447061 0
-0.37896237 -2.0829926 -0.089317806 0
-0.44901362 -2.2846446 -0.09174291 0
-0.54025298 -2.5472898 -0.091792025 0
-0.67256385 -2.928165 -0.090613492 0
-0.90040839 -3.5840471 -0.091061063 0
-1.3510548 -4.8812952 -0.090841956 0
-3.412658 -10.815905 -0.14089593 0
-0.2713016 -1.8418928 -0.089276947 0
-0.31191188 -1.9690593 -0.092751227 0
-0.35303244 -2.0978236 -0.090282761 0
-0.41052184 -2.2778449 -0.089125641 0
-0.49858239 -2.5535965 -0.090951242 0
-0.62465191 -2.9483685 -0.090988465 0
-0.82774943 -3.5843453 -0.089474522 0
-1.2498029 -4.9059577 -0.090440638 0
-3.1634154 -10.898215 -0.14087908 0
-0.25283325 -1.8592203 -0.091652624 0
-0.2843889 -1.9673775 -0.090933539 0
-0.32515991 -2.1071205 -0.090405695 0
-0.38073421 -2.2976022 -0.090558089 0
-0.45921102 -2.5665822 -0.091058321 0
-0.57112539 -2.95017 -0.089689441 0
-0.76550597 -3.6164117 -0.090347163 0
-1.1493227 -4.9319482 -0.090231098 0
-2.9108193 -10.969496 -0.14074816 0
-0.22989519 -1.8619148 -0.090897925 0
-0.26010215 -1.9760886 -0.091288604 0
-0.29650614 -2.1136854 -0.090183325 0
-0.34820643 -2.3090982 -0.090889789 0
-0.41611814 -2.5657856 -0.089619018 0
-0.52585864 -2.9805744 -0.091291599 0
-0.70120496 -3.6433346 -0.09095607 0
-1.0532615 -4.9740105 -0.090919472 0
-2.6557498 -11.030971 -0.14053614 0
-0.20751648 -1.8662502 -0.090633161 0
-0.23381977 -1.9768876 -0.090228818 0
-0.26656288 -2.1146121 -0.089132406 0
-0.31314674 -2.310554 -0.089888133 0
-0.38069451 -2.5946748 -0.091885589 0
-0.47362846 -2.9855754 -0.090556942 0
-0.63214409 -3.6523271 -0.090389885 0
-0.94730043 -4.9779439 -0.089895539 0
-2.4043059 -11.106429 -0.14081392 0
-0.18552329 -1.8721768 -0.090838529 0
-0.21002069 -1.9881481 -0.091316648 0
-0.24022384 -2.1311305 -0.090833403 0
-0.2817716 -2.3278186 -0.091289975 0
-0.33851394 -2.5964384 -0.091006987 0
-0.42432213 -3.0026567 -0.091104738 0
-0.56685525 -3.6774123 -0.091101475 0
-0.84699506 -5.0036016 -0.090038367 0
-2.1469762 -11.157746 -0.1406678 0
-0.16460462 -1.8842587 -0.092493854 0
-0.18319386 -1.984735 -0.089704074 0
-0.2097096 -2.1280546 -0.089362882 0
-0.24751931 -2.3324189 -0.090988763 0
-0.29975668 -2.6147656 -0.092228033 0
-0.37080026 -2.9987617 -0.089777239 0
-0.49798319 -3.6861951 -0.090768151 0
-0.94352049 -6.094358 -0.14072748 0
-1.8914106 -11.217776 -0.14088231 0
-0.14042361 -1.8784212 -0.090399556 0
-0.15912873 -1.9960415 -0.091034628 0
-0.18083136 -2.1325104 -0.089280136 0
-0.21240465 -2.3310475 -0.089962266 0
-0.25578213 -2.603811 -0.090094917 0
-0.31898633 -3.0012474 -0.08918608 0
-0.42924243 -3.6945529 -0.09052939 0
-0.81407273 -6.1144171 -0.14062631 0
-1.6324525 -11.2605 -0.14084071 0
-0.11859033 -1.8865484 -0.091438018 0
-0.13412714 -2.0031424 -0.091677226 0
-0.15455529 -2.1564424 -0.092547931 0
-0.17825617 -2.3343024 -0.089721002 0
-0.21647277 -2.6210938 -0.09142945 0
-0.26895368 -3.0149295 -0.089774586 0
-0.36148429 -3.7093129 -0.09086556 0
-0.68474782 -6.1352 -0.14071319 0
-1.3736683 -11.30511 -0.1409971 0
-0.094790138 -1.8788434 -0.089206912 0
-0.10857715 -2.0069103 -0.091806434 0
-0.12303858 -2.141242 -0.089448027 0
-0.14384681 -2.3345289 -0.089174323 0
-0.1748123 -2.6221659 -0.090971611 0
-0.21868862 -3.0297313 -0.090585329 0
-0.29303488 -3.72033 -0.091058068 0
-0.55471921 -6.151104 -0.14072448 0
-1.1127059 -11.334219 -0.14094353 0
-0.07232216 -1.8810587 -0.089224435 0
-0.082195692 -2.0011857 -0.090263419 0
-0.094305411 -2.1485195 -0.090192623 0
-0.10966828 -2.335433 -0.088846959 0
-0.13346069 -2.6249053 -0.090833701 0
-0.16579111 -3.0182557 -0.089052372 0
-0.22353987 -3.7208607 -0.090635933 0
-0.42579347 -6.1815944 -0.14157055 0
-0.85140151 -11.359787 -0.1409613 0
-0.050639413 -1.8974165 -0.092373796 0
-0.056665737 -2.0034473 -0.090354986 0
-0.064253978 -2.1369598 -0.087954693 0
-0.076589249 -2.3539944 -0.091127075 0
-0.081440888 -2.4393573 -0.068777002 0
-0.081048049 -2.4324455 -0.033951405 0
-0.081298821 -2.4368577 -0.00039138435 0
-0.081081316 -2.4330306 0.033649188 0
-0.080711558 -2.4265249 0.067500167 0
-0.081427567 -2.4391229 0.10101186 0
-0.027451538 -1.8902338 -0.090630807 0
-0.031118479 -2.0064557 -0.090708651 0
-0.035589904 -2.1481752 -0.089588366 0
-0.040825643 -2.3141193 -0.085306384 0
-0.040614553 -2.3074291 -0.053161252 0
-0.040845901 -2.3147614 -0.022810912 0
-0.040635254 -2.3080852 0.0087284688 0
-0.040470969 -2.3028781 0.039786428 0
-0.040626083 -2.3077946 0.07029938 0
-0.040733054 -2.3111849 0.10100815 0
-0.0047140857 -1.891176 -0.0907396 0
-0.0054120128 -2.001832 -0.089746244 0
-0.0063486891 -2.1503417 -0.089853458 0
-0.0067436197 -2.2129579 -0.071000464 0
-0.0067262165 -2.2101986 -0.041723806 0
-0.0067114304 -2.2078543 -0.012772864 0
-0.0066959588 -2.2054014 0.015951218 0
-0.0067051267 -2.2068548 0.044286065 0
-0.006738123 -2.2120864 0.072539322 0
-0.0067277579 -2.210443 0.10100526 0
0.017880749 -1.8824538 -0.088915788 0
0.020178422 -2.0038388 -0.09015464 0
0.022967894 -2.1512048 -0.090025716 0
0.023878267 -2.1992996 -0.069108017 0
0.023822227 -2.1963389 -0.040126402 0
0.023863871 -2.198539 -0.011921315 0
0.023827678 -2.1966269 0.016551206 0
0.023865482 -2.1986241 0.044660289 0
0.023875475 -2.199152 0.07283558 0
0.023931701 -2.2021224 0.10100503 0
0.040751521 -1.8894557 -0.090556838 0
0.045768335 -2.0029867 -0.090146236 0
0.052091166 -2.1460729 -0.089333571 0
0.054008398 -2.18946 -0.067859359 0
0.054412615 -2.1986074 -0.040504176 0
0.054192211 -2.1936197 -0.011551632 0
0.054996289 -2.2118161 0.015421057 0
0.054690521 -2.2048965 0.044323143 0
0.054760527 -2.2064807 0.072642609 0
0.054850392 -2.2085145 0.10100524 0
0.063793577 -1.8930963 -0.091607474 0
0.071206473 -1.9997483 -0.089809142 0
0.081626378 -2.1496632 -0.090198226 0
0.085749313 -2.2089813 -0.070851721 0
0.085283995 -2.2022867 -0.04113828 0
0.085701905 -2.2082992 -0.01308663 0
0.085511483 -2.2055595 0.015736708 0
0.085576199 -2.2064905 0.04416744 0
0.084830023 -2.1957552 0.072851926 0
0.085416049 -2.2041864 0.10100517 0
0.08544293 -1.8792703 -0.089055233 0
0.096857741 -1.9995389 -0.090165637 0
0.1111906 -2.1505525 -0.090741999 0
0.11653213 -2.2068319 -0.070905067 0
0.11494107 -2.190068 -0.039998908 0
0.11565051 -2.1975431 -0.012314966 0
0.116137 -2.2026687 0.015762748 0
0.11608493 -2.2021201 0.044253882 0
0.11517539 -2.1925371 0.072868697 0
0.11573985 -2.1984842 0.10100507 0
0.10835584 -1.880881 -0.089917041 0
0.12282693 -2.0010343 -0.090969302 0
0.13896576 -2.1350348 -0.088694714 0
0.1481403 -2.211211 -0.071992494 0
0.14552054 -2.1894591 -0.040310699 0
0.14552745 -2.1895165 -0.01186852 0
0.14847872 -2.2140207 0.014731595 0
0.14668792 -2.1991518 0.044238772 0
0.14683199 -2.2003479 0.072609328 0
0.14750028 -2.2058969 0.10100538 0
0.13098972 -1.8790677 -0.09017048 0
0.1475506 -1.9924039 -0.08997304 0
0.16973022 -2.1441925 -0.090854652 0
0.17832753 -2.2030292 -0.071413077 0
0.1788286 -2.2064583 -0.042794455 0
0.17890824 -2.2070034 -0.01389817 0
0.17739871 -2.1966727 0.01566677 0
0.17769206 -2.1986802 0.044069868 0
0.17753777 -2.1976242 0.072577797 0
0.17834534 -2.203151 0.10100542 0
0.15641412 -1.8930387 -0.09395244 0
0.1743429 -1.9972788 -0.091672547 0
0.19756961 -2.1323216 -0.089646421 0
0.20991954 -2.2041256 -0.072262637 0
0.20897257 -2.1986198 -0.042443026 0
0.20728657 -2.1888173 -0.01263768 0
0.20905286 -2.1990867 0.015152501 0
0.2092119 -2.2000115 0.04377817 0
0.21009843 -2.2051659 0.072285704 0
0.20944381 -2.2013597 0.10100551 0
0.1762639 -1.8741738 -0.090776719 0
0.19774921 -1.9826339 -0.089762099 0
0.22659196 -2.1282353 -0.089853786 0
0.23833729 -2.1875269 -0.070695303 0
0.24186654 -2.205343 -0.043915186 0
0.2403239 -2.1975555 -0.014000831 0
0.24055737 -2.1987343 0.014776023 0
0.24115692 -2.2017608 0.043427501 0
0.24101864 -2.2010627 0.07224872 0
0.24061039 -2.1990018 0.10100561 0
0.19877592 -1.8705448 -0.091011025 0
0.22457252 -1.9854747 -0.091329895 0
0.25370589 -2.1152706 -0.088689961 0
0.27347681 -2.2033548 -0.073892526 0
0.27147862 -2.1944523 -0.043385077 0
0.27101135 -2.1923704 -0.01411931 0
0.27285245 -2.200573 0.014183575 0
0.27213237 -2.1973648 0.043329686 0
0.27418441 -2.2065072 0.071965471 0
0.27442309 -2.2075706 0.10100605 0
0.22037941 -1.86301 -0.090514965 0
0.24736847 -1.9704862 -0.089576326 0
0.28348613 -2.1143143 -0.089669205 0
0.30646089 -2.2058048 -0.075299777 0
0.30545586 -2.2018025 -0.045139465 0
0.30501705 -2.2000551 -0.015551424 0
0.30543008 -2.2017 0.013580101 0
0.30326042 -2.1930597 0.04318947 0
0.30638716 -2.2055111 0.071814813 0
0.30641055 -2.2056043 0.1010062 0
0.24334395 -1.8607544 -0.091300033 0
0.27269483 -1.9662882 -0.090032063 0
0.31099367 -2.1039951 -0.089185916 0
0.33719727 -2.1982124 -0.075373106 0
0.33919138 -2.2053823 -0.046552513 0
0.33665404 -2.1962593 -0.015964231 0
0.33686554 -2.1970196 0.013334299 0
0.33725974 -2.198437 0.042542566 0
0.33711711 -2.1979241 0.071802594 0
0.33661708 -2.1961262 0.10100616 0
0.26487657 -1.8531244 -0.091025002 0
0.29773048 -1.960665 -0.090336092 0
0.33683321 -2.08866 -0.087955795 0
0.37047803 -2.1987896 -0.076761059 0
0.36847672 -2.1922388 -0.046036441 0
0.37062952 -2.1992855 -0.01712372 0
0.37230986 -2.2047858 0.01211899 0
0.36742184 -2.1887858 0.042580608 0
0.37267944 -2.2059956 0.07139083 0
0.37209213 -2.2040732 0.10100666 0
0.28723282 -1.8481257 -0.091458522 0
0.32056522 -1.9481297 -0.089395277 0
0.36937842 -2.094579 -0.090509884 0
0.43042541 -2.2777324 -0.089893378 0
0.5184077 -2.5416968 -0.090277232 0
0.6506089 -2.9383271 -0.090792604 0
0.86526638 -3.5823429 -0.090112828 0
1.3022938 -4.8935127 -0.090619795 0
3.2903659 -10.85813 -0.14089465 0
0.30747807 -1.8369437 -0.090625383 0
0.344365 -1.9389564 -0.089234151 0
0.40209657 -2.0986159 -0.092901357 0
0.46331957 -2.267931 -0.090109222 0
0.56072164 -2.5373013 -0.091414876 0
0.70103264 -2.9253383 -0.091191866 0
0.93775445 -3.580004 -0.091621436 0
1.3978193 -4.8523359 -0.090268292 0
3.5353477 -10.763775 -0.14069147 0
0.32800707 -1.8269925 -0.090180866 0
0.36932194 -1.9328213 -0.089806624 0
0.42387587 -2.072562 -0.090152569 0
0.49453339 -2.2535524 -0.089761309 0
0.59395534 -2.5082233 -0.089600407 0
0.74735093 -2.9011488 -0.090599678 0
0.99787545 -3.5428717 -0.090670459 0
1.4976914 -4.8231583 -0.090632923 0
3.7845278 -10.680928 -0.14092711 0
0.35086644 -1.8228281 -0.091184504 0
0.39541864 -1.9289632 -0.090978347 0
0.45317233 -2.0665476 -0.091043897 0
0.52987647 -2.2492771 -0.09106905 0
0.62981582 -2.487359 -0.088913493 0
0.79375762 -2.8779118 -0.090215348 0
1.0621463 -3.5172844 -0.090699144 0
1.5945319 -4.7855673 -0.090703271 0
4.0259361 -10.577814 -0.14081196 0
0.36983642 -1.8094 -0.09017425 0
0.41940314 -1.9196038 -0.091162585 0
0.47920072 -2.0525544 -0.09064009 0
0.55941045 -2.2308884 -0.090353586 0
0.67320138 -2.4838846 -0.090562649 0
0.84248394 -2.8602581 -0.090517305 0
1.1253611 -3.4891913 -0.09065976 0
1.6932126 -4.7517209 -0.091089644 0
4.2655349 -10.470879 -0.14075258 0
0.38682303 -1.7923642 -0.088413127 0
0.4438934 -1.9111456 -0.091663085 0
0.50675368 -2.0419774 -0.09097331 0
0.58918321 -2.2135391 -0.089907028 0
0.70427048 -2.4530716 -0.088828228 0
0.89545131 -2.8509786 -0.091816731 0
1.1932892 -3.4708722 -0.09150099 0
1.7862692 -4.7050486 -0.09094619 0
4.500855 -10.35495 -0.14061558 0
0.41065702 -1.7895904 -0.090136535 0
0.46472019 -1.8952005 -0.090715922 0
0.53104705 -2.0247672 -0.090213768 0
0.61818218 -2.1949821 -0.089381881 0
0.74430221 -2.4413521 -0.08968053 0
0.93924499 -2.8221645 -0.091223978 0
1.2487503 -3.4267702 -0.090462036 0
1.8798497 -4.659596 -0.090986706 0
4.7408385 -10.248417 -0.14087638 0
0.43254179 -1.7823488 -0.090947188 0
0.48569992 -1.880033 -0.090034388 0
0.55828941 -2.0134249 -0.090655632 0
0.65344477 -2.1882839 -0.09086322 0
0.78292322 -2.4262159 -0.090223514 0
0.98566025 -2.7987692 -0.09131553 0
1.3158135 -3.4054646 -0.091333799 0
1.9726769 -4.6125283 -0.091066577 0
4.9764757 -10.132364 -0.14104807 0
0.45231637 -1.7710383 -0.090905674 0
0.51358777 -1.8771632 -0.092131831 0
0.58665955 -2.003727 -0.091545664 0
0.68277735 -2.1702075 -0.090663247 0
0.82105315 -2.4097078 -0.090719976 0
1.031381 -2.7740054 -0.091386355 0
1.371927 -3.3638475 -0.090714358 0
2.5991948 -5.4895334 -0.14094776 0
5.2037587 -10.000761 -0.14096336 0
0.47277158 -1.760832 -0.091262065 0
0.52897036 -1.852735 -0.089656539 0
0.6100412 -1.9853117 -0.09090706 0
0.70959556 -2.1481149 -0.089919664 0
0.85551 -2.3867316 -0.090468951 0
1.0696858 -2.7369776 -0.090241753 0
1.426874 -3.3210948 -0.090107463 0
2.7102253 -5.4197845 -0.14079714 0
5.4222236 -9.8547697 -0.14064036 0
0.48623928 -1.7396387 -0.088972725 0
0.55095893 -1.8397121 -0.08978527 0
0.63760799 -1.9736942 -0.091703065 0
0.74311882 -2.1368415 -0.091086961 0
0.88242078 -2.3522387 -0.088730879 0
1.1182613 -2.7169094 -0.091070212 0
1.4944913 -3.2986593 -0.091296665 0
2.8213143 -5.3502736 -0.14081134 0
5.6497178 -9.7237234 -0.14087738 0
0.50894469 -1.7329062 -0.090452932 0
0.57662576 -1.8319839 -0.091249473 0
0.66418517 -1.9601614 -0.092269026 0
0.77083594 -2.1162865 -0.090837695 0
0.91887695 -2.3330026 -0.089217447 0
1.1577972 -2.6827559 -0.090458296 0
1.5465364 -3.2518282 -0.090584375 0
2.9237912 -5.2679801 -0.14026192 0
5.866364 -9.5755882 -0.14079767 0
0.53192723 -1.7259326 -0.092045955 0
0.59196776 -1.8092324 -0.08940158 0
0.67946965 -1.9306318 -0.089739211 0
0.8021372 -2.1008198 -0.091585465 0
0.95856088 -2.3178411 -0.09043131 0
1.1957679 -2.6469402 -0.089757703 0
1.603141 -3.2121265 -0.090585642 0
3.0397692 -5.2052937 -0.14097475 0
6.0855594 -9.4310007 -0.14097349 0
0.54700184 -1.7079027 -0.090871595 0
0.61516708 -1.7976128 -0.090242021 0
0.71345925 -1.9269722 -0.092579283 0
0.83430552 -2.0860143 -0.092602529 0
0.99094105 -2.2921574 -0.090269901 0
1.2420884 -2.622685 -0.090510108 0
1.6583781 -3.1705511 -0.090546705 0
3.1463029 -5.1287637 -0.1410615 0
6.301754 -9.2815561 -0.14117099 0
0.56391263 -1.6925895 -0.090515576 0
0.63942397 -1.7869282 -0.091465048 0
0.73519701 -1.9065806 -0.092133768 0
0.85592443 -2.0574093 -0.091301031 0
1.0232401 -2.2664421 -0.090221561 0
1.2901437 -2.5998933 -0.091591291 0
1.7258468 -3.1442313 -0.091996692 0
3.2482662 -5.0462389 -0.14095135 0
6.5010905 -9.1100979 -0.14087783 0
0.5805409 -1.6770496 -0.090206362 0
0.65526658 -1.7657249 -0.090272732 0
0.75561368 -1.8848042 -0.091497757 0
0.88182294 -2.0345736 -0.091131158 0
1.054835 -2.2398827 -0.090166546 0
1.3300111 -2.5664272 -0.091539256 0
1.7612721 -3.0781939 -0.090000845 0
3.3554583 -4.9699755 -0.14137508 0
6.6986718 -8.9372845 -0.14068857 0
0.60135764 -1.666322 -0.091375239 0
0.67363083 -1.7478217 -0.089983843 0
0.77045584 -1.8570076 -0.089636914 0
0.91130918 -2.0158424 -0.091849886 0
1.0862191 -2.2130816 -0.090195768 0
1.3653437 -2.5278399 -0.090971328 0
1.8231217 -3.044059 -0.091023438 0
3.4442041 -4.8720922 -0.14062971 0
6.9034858 -8.7729931 -0.1409132 0
0.6195901 -1.6523961 -0.091793247 0
0.69586468 -1.734156 -0.090897657 0
0.79636216 -1.8418808 -0.090662785 0
0.9389956 -1.9947717 -0.09227743 0
1.1151627 -2.1836078 -0.089923657 0
1.3963526 -2.4850197 -0.089962088 0
1.8661497 -2.9886022 -0.090179406 0
3.5433168 -4.7863832 -0.14078273 0
7.0907779 -8.5889606 -0.140678 0
0.63131356 -1.6316745 -0.090333335 0
0.71002907 -1.7118938 -0.08971221 0
0.81284505 -1.8166741 -0.089542158 0
0.96043187 -1.9670806 -0.091548197 0
1.1457666 -2.1559563 -0.0900613 0
1.4343935 -2.4500973 -0.090061553 0
1.9162953 -2.941206 -0.090208836 0
3.6406691 -4.6985245 -0.14096057 0
7.280086 -8.4074736 -0.14067197 0
0.65111685 -1.619244 -0.091456853 0
0.7359584 -1.7014507 -0.091790177 0
0.83326715 -1.7957375 -0.089497529 0
0.98597515 -1.9437029 -0.091778748 0
1.1743864 -2.1262627 -0.089987762 0
1.4785552 -2.4209852 -0.091070183 0
1.9620848 -2.8894982 -0.089931466 0
3.729274 -4.6018057 -0.14071271 0
7.4707317 -8.2270679 -0.14085957 0
0.65679371 -1.5934184 -0.088563822 0
0.74717021 -1.6766711 -0.090119816 0
0.85970157 -1.7803324 -0.090916909 0
1.0050501 -1.9142241 -0.09088216 0
1.2008096 -2.0945532 -0.089687414 0
1.5124205 -2.3816023 -0.090843357 0
2.5469291 -3.334568 -0.14102332 0
3.8235786 -4.5105886 -0.14098768 0
7.6537256 -8.0388327 -0.14094669 0
0.67988503 -1.5837339 -0.090840243 0
0.76831305 -1.6611599 -0.091130517 0
0.88115883 -1.7599655 -0.091303967 0
1.0274496 -1.888055 -0.09076678 0
1.2235547 -2.0597608 -0.088948034 0
1.532234 -2.3300347 -0.089002915 0
2.5954018 -3.2609248 -0.14010432 0
3.9120312 -4.4137406 -0.14103864 0
7.8204756 -7.8359017 -0.14067845 0
0.70191818 -1.5724477 -0.092845179 0
0.78335708 -1.6402012 -0.090722911 0
0.89511716 -1.7331809 -0.09019091 0
1.052786 -1.8643545 -0.091312744 0
1.2540932 -2.0318334 -0.089543812 0
1.5638969 -2.2895768 -0.088799201 0
2.6631298 -3.2040915 -0.14112633 0
3.9894292 -4.3075156 -0.14056876 0
8.0042 -7.6476321 -0.14108574 0
0.71079737 -1.5501429 -0.091325067 0
0.80122465 -1.6215919 -0.091129459 0
0.91862977 -1.7143569 -0.091244124 0
1.0658443 -1.8306751 -0.089757107 0
1.2779781 -1.9982877 -0.089242838 0
1.6044798 -2.2562654 -0.089783348 0
2.7103896 -3.130075 -0.14043367 0
4.0764589 -4.2094436 -0.14084037 0
8.1592312 -7.4353518 -0.14077704 0
0.71626651 -1.5257136 -0.089078434 0
0.81276006 -1.5980773 -0.090149276 0
0.94144177 -1.69458 -0.092232265 0
1.0989534 -1.812703 -0.091903545 0
1.314576 -1.9744055 -0.090929635 0
1.6297536 -2.2107675 -0.089061998 0
2.7662683 -3.0630777 -0.14067198 0
4.1538424 -4.1036654 -0.14069101 0
8.3223009 -7.2297292 -0.14086501 0
0.73846447 -1.513819 -0.091397636 0
0.82820392 -1.5776446 -0.090228327 0
0.95704836 -1.6692829 -0.091851287 0
1.1080629 -1.7766892 -0.089951985 0
1.3188541 -1.9266107 -0.088038437 0
1.6707468 -2.176888 -0.090286769 0
2.8051248 -2.9836941 -0.13959219 0
4.2305207 -3.9974813 -0.14065796 0
8.4855165 -7.0237699 -0.14110501 0
0.74410349 -1.4900843 -0.08951097 0
0.83477998 -1.5511907 -0.088410102 0
0.968104 -1.6410373 -0.090702422 0
1.1297655 -1.7499803 -0.09032283 0
1.3565973 -1.9028413 -0.090083875 0
1.6998413 -2.1341519 -0.090248697 0
2.8721485 -2.9241655 -0.14107554 0
4.3095717 -3.8928392 -0.14091046 0
8.6292419 -6.8038473 -0.14094158 0
0.76166201 -1.4744657 -0.090811796 0
0.85299194 -1.5327168 -0.089370765 0
0.98410422 -1.6163415 -0.090675913 0
1.1532304 -1.7242116 -0.091094814 0
1.361428 -1.8570019 -0.08761815 0
1.7297431 -2.0919166 -0.090421058 0
2.9220257 -2.852365 -0.14123909 0
4.378408 -3.7812586 -0.14074197 0
8.7671213 -6.5804186 -0.14077391 0
0.7725296 -1.4544362 -0.090530924 0
0.86914164 -1.5126802 -0.089966737 0
1.001109 -1.5922387 -0.090963118 0
1.1749691 -1.697053 -0.091679461 0
1.4071989 -1.8370562 -0.090935819 0
1.7539711 -2.046113 -0.090089507 0
2.9623809 -2.7746212 -0.140772 0
4.4440098 -3.6678436 -0.1405545 0
8.9033222 -6.3562074 -0.14071749 0
0.77646643 -1.4305233 -0.088683628 0
0.87867659 -1.4886776 -0.089231201 0
1.0161711 -1.5669078 -0.090994813 0
1.1847525 -1.6628252 -0.09043438 0
1.4104165 -1.7912211 -0.088552453 0
1.7820376 -2.0026619 -0.090299986 0
3.006597 -2.6993983 -0.14078112 0
4.5124598 -3.5561874 -0.14067675 0
9.0476294 -6.1365576 -0.14103124 0
0.7928459 -1.4137611 -0.090008549 0
0.90477824 -1.4737605 -0.092176266 0
1.0283748 -1.5400122 -0.090613104 0
1.2093172 -1.6370032 -0.091701649 0
1.448583 -1.7652574 -0.09098997 0
1.8107864 -1.9594101 -0.090696864 0
3.0491941 -2.6232369 -0.14081335 0
4.5819635 -3.4448507 -0.14100289 0
9.1701717 -5.9042778 -0.14091387 0
0.81060433 -1.3973258 -0.091746353 0
0.90404868 -1.4444194 -0.08950489 0
1.044287 -1.5150959 -0.091044508 0
1.2175426 -1.6024125 -0.090484805 0
1.452377 -1.7207631 -0.088984467 0
1.8371974 -1.914703 -0.090959229 0
3.0874476 -2.5447981 -0.14065661 0
4.6320019 -3.3232148 -0.1404576 0
9.2844315 -5.667923 -0.14073603 0
0.81339574 -1.3733428 -0.090042718 0
0.91592175 -1.4218092 -0.089645989 0
1.0588155 -1.4893583 -0.091334321 0
1.2259667 -1.5683746 -0.089449815 0
1.4794023 -1.6881794 -0.090152033 0
1.8605994 -1.8683801 -0.091025062 0
3.1355906 -2.4710979 -0.1414205 0
4.6969523 -3.2091897 -0.14084576 0
9.3964863 -5.4307675 -0.14065795 0
0.82048941 -1.3516886 -0.089499407 0
0.9511494 -1.4094675 -0.094713502 0
1.0624683 -1.4586936 -0.089783914 0
1.2396498 -1.5370446 -0.089367159 0
1.5014805 -1.6528283 -0.090780146 0
1.8814722 -1.8208637 -0.090952046 0
3.1626778 -2.3874233 -0.14070943 0
4.7586918 -3.0931935 -0.14121349 0
9.5211992 -5.1992121 -0.14105557 0
0.83480406 -1.333136 -0.090748347 0
0.93565273 -1.3747226 -0.089457981 0
1.0651236 -1.428112 -0.088210531 0
1.2458911 -1.5026546 -0.088274993 0
1.5228187 -1.6168503 -0.091421641 0
1.9018847 -1.7731645 -0.090955041 0
3.2015288 -2.3090944 -0.14105588 0
4.7999749 -2.9682403 -0.14069553 0
9.6119719 -4.9525476 -0.1407433 0
0.84231848 -1.311645 -0.09054447 0
0.94170654 -1.3497245 -0.08877755 0
1.0852311 -1.4047146 -0.089860447 0
1.2629936 -1.4728225 -0.08895918 0
1.5245284 -1.573027 -0.08971452 0
1.9222484 -1.7254094 -0.091074102 0
3.2281849 -2.2257662 -0.14063478 0
4.8559928 -2.8494446 -0.14107518 0
9.7098389 -4.7091475 -0.14076646 0
0.8561691 -1.292436 -0.091894262 0
0.96723849 -1.3318071 -0.092122249 0
1.0916499 -1.3759077 -0.089212216 0
1.2853165 -1.4445573 -0.090528436 0
1.5560429 -1.5405226 -0.091856144 0
1.9414337 -1.6771333 -0.091195308 0
3.2644503 -2.1461074 -0.14108686 0
4.8977122 -2.725055 -0.14089398 0
9.8043966 -4.4643435 -0.14086002 0
0.86110651 -1.2699662 -0.091348924 0
0.9634918 -1.3033761 -0.089728691 0
1.1080483 -1.3505471 -0.09042082 0
1.284194 -1.408026 -0.088724889 0
1.5692436 -1.5010419 -0.091830038 0
1.9616065 -1.6290758 -0.09153264 0
3.2924664 -2.0633552 -0.14107713 0
4.9402118 -2.6010389 -0.14090687 0
9.8850307 -4.2146068 -0.14076406 0
0.85952204 -1.2456689 -0.089487202 0
0.97532797 -1.2802504 -0.090557806 0
1.1083353 -1.3199686 -0.088967077 0
1.3030599 -1.3781166 -0.090002261 0
1.5544376 -1.4531821 -0.088510104 0
1.9703753 -1.5773879 -0.090875156 0
3.319921 -1.9803846 -0.14117946 0
4.9870682 -2.4782221 -0.14128405 0
9.9703083 -3.9662998 -0.14093502 0
0.88441169 -1.2289976 -0.093604587 0
0.97859919 -1.2545538 -0.089824058 0
1.1232892 -1.2938129 -0.090152882 0
1.306463 -1.3435138 -0.089129604 0
1.5657601 -1.4138696 -0.088523738 0
1.96672 -1.522663 -0.089147188 0
3.3507283 -1.8981895 -0.14167622 0
5.0228996 -2.3519039 -0.14127688 0
10.033688 -3.7114935 -0.14072882 0
0.8695032 -1.2015779 -0.089080445 0
0.99128944 -1.2313448 -0.091047265 0
1.1380839 -1.2672243 -0.091416515 0
1.3193581 -1.3115313 -0.089762323 0
1.5805202 -1.3753644 -0.089070655 0
1.9738115 -1.4714925 -0.088595636 0
3.3646495 -1.8114407 -0.14110446 0
5.042357 -2.2215054 -0.14063834 0
10.105055 -3.4589281 -0.14086948 0
0.87874961 -1.1805042 -0.089986898 0
0.99282676 -1.2053543 -0.09022712 0
1.1347849 -1.2362781 -0.089742936 0
1.6119055 -1.3402125 -0.091719769 0
1.9794832 -1.4202845 -0.088035204 0
3.3925016 -1.728092 -0.14168967 0
5.0649147 -2.0924051 -0.14030829 0
10.166708 -3.2037635 -0.14093037 0
0.88193953 -1.1580366 -0.089693628 0
1.0011684 -1.1808742 -0.090841927 0
2.5480804 -1.477177 -0.14109948 0
3.4027865 -1.6408916 -0.14117177 0
5.0905781 -1.964179 -0.14028186 0
10.211501 -2.9450648 -0.14074469 0
2.5618522 -1.413132 -0.14131452 0
3.4159682 -1.554493 -0.14101759 0
5.1207919 -1.8366507 -0.14062336 0
10.261744 -2.6875067 -0.14084241 0
3.4227734 -1.4672598 -0.14056806 0
5.1445546 -1.7077636 -0.14081199 0
10.315042 -2.4299932 -0.14116445 0
5.1627936 -1.5779567 -0.14089392 0
10.332038 -2.1674676 -0.14078838 0
10.358205 -1.9064058 -0.14078204 0
1.1301614 -1.0035399 0.1272911 0
1.1318314 -1.0035609 0.15368596 0
1.1248648 -1.003473 0.17961168 0
1.1316233 -1.0035583 0.20657909 0
1.133744 -1.0035851 0.23343705 0
1.1355217 -1.0036075 0.26049238 0
1.1289726 -1.0035249 0.28643936 0
1.132442 -1.0035686 0.31416732 0
1.3544544 -0.86944419 -0.089984722 0
0.88621849 -0.84277946 -0.089758657 0
1.0009278 -0.82379448 -0.089933939 0
0.88713837 -0.8195523 -0.090818785 0
1.0068738 -0.79661763 -0.091936089 0
1.1424978 -0.77063954 -0.090051211 0
1.3341023 -0.73393869 -0.089786239 0
1.3471016 -0.73144877 -0.059216056 0
1.3443547 -0.7319749 -0.026700741 0
1.335245 -0.73371983 0.005996557 0
1.3620621 -0.72858316 0.036453489 0
1.3493901 -0.73101044 0.06904918 0
1.343299 -0.73217714 0.10100941 0
0.89449388 -0.79465085 -0.093412019 0
0.99961537 -0.77175152 -0.09153574 0
1.1305691 -0.74322498 -0.089033805 0
1.2001565 -0.72806633 -0.07150846 0
1.2168901 -0.72442108 -0.044470329 0
1.2092313 -0.72608948 -0.014453566 0
1.2024062 -0.72757626 0.015009264 0
1.1906879 -0.73012888 0.044284791 0
1.2105933 -0.72579277 0.072186664 0
1.2089653 -0.72614741 0.10100569 0
0.86586583 -0.77789581 -0.088284515 0
0.99338698 -0.74672717 -0.091453977 0
1.1339223 -0.71237755 -0.090712391 0
1.218349 -0.69174206 -0.075149171 0
1.2101426 -0.69374782 -0.044509146 0
1.2057781 -0.69481462 -0.014796814 0
1.2070606 -0.69450116 0.01417155 0
1.201713 -0.69580823 0.043424889 0
1.2098312 -0.69382393 0.072036557 0
1.2088034 -0.69407517 0.1010059 0
0.87092829 -0.75324553 -0.09063489 0
0.97987455 -0.72368491 -0.090072952 0
1.1239959 -0.68458009 -0.090273224 0
1.1938188 -0.66563487 -0.072726823 0
1.2120956 -0.66067576 -0.045695294 0
1.2041817 -0.66282308 -0.015398106 0
1.2015421 -0.66353929 0.014004687 0
1.2028892 -0.66317379 0.042992514 0
1.211551 -0.66082358 0.071806259 0
1.2129433 -0.66044575 0.10100625 0
0.86582005 -0.73103511 -0.090884335 0
0.97109616 -0.69959795 -0.089725964 0
1.1129541 -0.65723681 -0.089759342 0
1.2065717 -0.6292811 -0.075850643 0
1.2103567 -0.62815082 -0.046541546 0
1.2122266 -0.62759238 -0.017021513 0
1.2013377 -0.63084406 0.013392055 0
1.2018671 -0.63068599 0.042623803 0
1.1962496 -0.63236344 0.071967095 0
1.2104727 -0.62811619 0.10100643 0
0.85181302 -0.71165103 -0.089270972 0
0.97400188 -0.67177898 -0.091810994 0
1.1029801 -0.62969148 -0.089544632 0
1.20831 -0.59532076 -0.077507146 0
1.1990725 -0.59833509 -0.046321813 0
1.2106243 -0.59456557 -0.017798087 0
1.204988 -0.59640479 0.012430454 0
1.1992269 -0.59828472 0.042291291 0
1.2063134 -0.5959723 0.071491405 0
1.2069167 -0.59577543 0.10100661 0
0.84811008 -0.68900532 -0.090076767 0
0.95285016 -0.65187776 -0.089246966 0
1.0965102 -0.60095417 -0.09005972 0
1.2009262 -0.56394148 -0.077945612 0
1.201103 -0.56387883 -0.047844026 0
1.2051624 -0.56243986 -0.0182816 0
1.1974415 -0.56517673 0.012226509 0
1.2113581 -0.56024361 0.04118596 0
1.2087905 -0.56115377 0.071176037 0
1.2153103 -0.55884272 0.10100718 0
0.83875453 -0.66830516 -0.089733206 0
0.95536959 -0.62362522 -0.09153343 0
1.1002315 -0.56812286 -0.092500545 0
1.2107558 -0.52577657 -0.08109758 0
1.1986204 -0.53042614 -0.048924539 0
1.2003057 -0.52978045 -0.01891098 0
1.2013714 -0.5293721 0.011102648 0
1.2062604 -0.5274989 0.040881198 0
1.2077169 -0.52694088 0.07092423 0
1.2033491 -0.5286144 0.10100716 0
0.84066206 -0.64303303 -0.092095248 0
0.93579626 -0.60380286 -0.089487217 0
1.0845096 -0.5424785 -0.091656916 0
1.2019114 -0.49406591 -0.081589438 0
1.2097309 -0.49084142 -0.05184098 0
1.2009708 -0.49445379 -0.020187264 0
1.2030903 -0.49357978 0.010066258 0
1.199198 -0.49518478 0.04063078 0
1.2084064 -0.49138758 0.07060384 0
1.2068772 -0.49201816 0.10100763 0
0.83312255 -0.62130964 -0.092435576 0
0.92494744 -0.58070391 -0.089317329 0
1.0703589 -0.51640183 -0.091201879 0
1.2172648 -0.45143887 -0.085927449 0
1.2126197 -0.45349297 -0.053866465 0
1.2115378 -0.45397136 -0.02257896 0
1.2093638 -0.45493278 0.0086014066 0
1.2008834 -0.45868286 0.039890975 0
1.2061872 -0.45633748 0.070331119 0
1.2064403 -0.45622554 0.10100803 0
0.80808479 -0.6077525 -0.08879403 0
0.91642177 -0.55653912 -0.089750163 0
1.0529171 -0.49201468 -0.090262048 0
1.2278568 -0.40931669 -0.089743607 0
1.4821554 -0.28910378 -0.090507947 0
1.8506423 -0.11491153 -0.089997046 0
3.1280842 0.48896483 -0.14084004 0
4.6921697 1.2283442 -0.14059947 0
9.3968458 3.4523528 -0.14066719 0
0.80646235 -0.58334643 -0.090760432 0
0.90325558 -0.53456503 -0.08933761 0
1.0457138 -0.46276966 -0.091307111 0
1.2116361 -0.37914905 -0.089555256 0
1.4593732 -0.25429562 -0.089900129 0
1.8313558 -0.066825718 -0.090348639 0
3.0898867 0.5674426 -0.14084755 0
4.6473913 1.352386 -0.14125991 0
9.2935972 3.693958 -0.14097467 0
0.79420447 -0.56409526 -0.090336196 0
0.9073332 -0.50345463 -0.092722259 0
1.029834 -0.43779024 -0.090885215 0
1.1925477 -0.35057047 -0.08902774 0
1.4459909 -0.21471676 -0.090646245 0
1.8131313 -0.0179176 -0.090945192 0
3.0564153 0.64852291 -0.14138614 0
4.5725622 1.4612267 -0.14050631 0
9.1677933 3.9244187 -0.14085113 0
0.78407604 -0.54373181 -0.090544619 0
0.88236684 -0.48780742 -0.090030871 0
1.0169407 -0.41123912 -0.091140322 0
1.181922 -0.31736985 -0.089976721 0
1.2129521 -0.29971465 -0.0620001 0
1.2166055 -0.297636 -0.029577604 0
2.9972112 0.71547335 -0.1400262 0
4.5124011 1.577569 -0.14067359 0
9.0355787 4.1511164 -0.14070888 0
0.77403498 -0.52324092 -0.090904556 0
0.88254255 -0.45782551 -0.092914023 0
0.99690735 -0.38887897 -0.090156801 0
1.1593666 -0.29093799 -0.089119114 0
1.1445888 -0.29984698 -0.055097658 0
1.1901654 -0.27237049 -0.028640067 0
2.9647627 0.79747242 -0.14096643 0
4.455574 1.6962306 -0.14118314 0
8.9073877 4.3800745 -0.14082786 0
0.773018 -0.49687597 -0.093674816 0
0.8627525 -0.43964252 -0.091551282 0
0.99187601 -0.35728636 -0.092190899 0
1.1447325 -0.25979325 -0.089678325 0
1.1410664 -0.26213148 -0.057071213 0
1.1789161 -0.23799059 -0.029439172 0
2.9181314 0.87129647 -0.14091618 0
4.3841171 1.8063152 -0.14105722 0
8.7685909 4.6027718 -0.14081442 0
0.74707276 -0.48649952 -0.090272047 0
0.83893603 -0.42459318 -0.089354061 0
0.96827555 -0.33743182 -0.090736426 0
1.1212353 -0.23435292 -0.088877223 0
1.1323357 -0.22687235 -0.058477644 0
1.1619916 -0.20688733 -0.029710045 0
2.8672955 0.94231039 -0.14066643 0
4.3130555 1.9166024 -0.14110605 0
8.6169701 4.8169932 -0.14059752 0
0.72123253 -0.4770216 -0.086902834 0
0.83022791 -0.39950058 -0.090696134 0
0.94952315 -0.31465396 -0.090333588 0
1.1070881 -0.20258877 -0.08978387 0
1.1376238 -0.1808708 -0.062046591 0
1.1402175 -0.1790261 -0.029519489 0
2.8218124 1.016978 -0.14102378 0
4.2227764 2.0133889 -0.14021556 0
8.4784622 5.0401688 -0.14090376 0
0.72585762 -0.44567844 -0.091626726 0
0.82008028 -0.37501773 -0.091872685 0
0.93366528 -0.28983662 -0.090634726 0
1.0817571 -0.17877772 -0.088882811 0
1.0878371 -0.17421809 -0.057806049 0
1.1003636 -0.16482404 -0.027297204 0
1.098578 -0.16616318 0.0050574262 0
1.1031867 -0.16270694 0.03683107 0
1.0994042 -0.16554353 0.069047689 0
1.1075329 -0.15944764 0.10100988 0
1.0985764 -0.16616437 0.13294742 0
1.1041784 -0.16196325 0.16524634 0
1.1079862 -0.1591076 0.1977849 0
0.70744544 -0.43109027 -0.09041699 0
0.8050642 -0.35395905 -0.092051141 0
0.91781253 -0.26487353 -0.091072954 0
1.0571965 -0.15474257 -0.088208191 0
1.0974487 -0.12293819 -0.062352497 0
1.1011109 -0.12004456 -0.029902359 0
1.0890998 -0.12953487 0.0040203575 0
1.098081 -0.12243858 0.035875756 0
1.100307 -0.12067977 0.068394698 0
1.0953673 -0.12458274 0.10101022 0
1.0964531 -0.12372485 0.13351165 0
1.1008283 -0.12026784 0.16630825 0
1.100017 -0.12090889 0.19897351 0
0.69516766 -0.41175321 -0.090978615 0
0.78655517 -0.33572277 -0.091506489 0
0.89072663 -0.24905655 -0.089252256 0
1.0180624 -0.14311871 -0.084964879 0
1.0963751 -0.077965945 -0.065565608 0
1.1012825 -0.073883146 -0.032628689 0
1.106475 -0.06956324 0.00043603987 0
1.096871 -0.077553302 0.034603354 0
1.0918517 -0.081729144 0.067977004 0
1.1032817 -0.072219878 0.10101134 0
1.1015042 -0.07369867 0.13433751 0
1.0952008 -0.078942925 0.16731775 0
1.1004845 -0.074547082 0.20104206 0
0.67441159 -0.39964315 -0.089293845 0
0.76630914 -0.31917939 -0.09062884 0
0.88164061 -0.21819732 -0.091409214 0
0.99774623 -0.11653742 -0.085218452 0
1.1032017 -0.024202611 -0.070252128 0
1.1007582 -0.02634206 -0.035472561 0
1.1008331 -0.026276495 -0.0012286955 0
1.0922817 -0.033763971 0.033442292 0
1.0911222 -0.034779217 0.067281172 0
1.0938526 -0.032388415 0.10101186 0
1.0888137 -0.03680053 0.13467088 0
1.1033391 -0.024082329 0.16926655 0
1.1065729 -0.02125087 0.20378715 0
1.1049707 -0.022653725 0.23802048 0
1.0869337 -0.038446572 0.3729223 0
0.66257715 -0.37983879 -0.090235241 0
0.74971938 -0.29956535 -0.090772636 0
0.85018253 -0.20702097 -0.088789828 0
0.95842606 -0.10730949 -0.08197356 0
1.0610842 -0.012743261 -0.06748458 0
1.1033862 0.026224408 -0.038933862 0
1.1018547 0.024813686 -0.0036685893 0
1.101019 0.024043832 0.031341251 0
1.1030704 0.025933538 0.066131175 0
1.1085331 0.0309656 0.10101338 0
1.1015224 0.024507556 0.13584617 0
1.1026514 0.025547538 0.17078859 0
1.0980499 0.021308694 0.20533332 0
1.0980638 0.021321569 0.24028513 0
1.0324284 -0.03914031 0.36519408 0
0.64759028 -0.36275777 -0.090413071 0
0.7312758 -0.28167114 -0.090562098 0
0.83794749 -0.17831227 -0.090568595 0
0.84841913 -0.16816583 -0.064861201 0
0.83073974 -0.18529621 -0.034063566 0
0.83752155 -0.17872503 -0.0077553 0
0.83726549 -0.17897311 0.019562664 0
0.83739603 -0.17884663 0.04675024 0
0.83125079 -0.18480101 0.07409057 0
0.84028977 -0.17604277 0.10100376 0
0.84115505 -0.17520431 0.12823769 0
0.84364146 -0.17279515 0.15566255 0
0.84335119 -0.17307642 0.18303783 0
1.1043658 0.079832107 0.24446623 0
1.0137504 -0.0079691075 0.29923683 0
1.0091134 -0.012462165 0.33176255 0
0.98733425 -0.033564892 0.35973924 0
0.63130021 -0.34692386 -0.090329282 0
0.71979576 -0.2567375 -0.092338748 0
0.81400377 -0.16072968 -0.089814059 0
0.83853924 -0.13572547 -0.067090012 0
0.84699219 -0.12711099 -0.040204767 0
0.84209162 -0.1321052 -0.011125421 0
0.83833152 -0.13593712 0.017388934 0
0.84331924 -0.1308541 0.044979617 0
0.8395493 -0.1346961 0.073132485 0
0.83263838 -0.14173904 0.1010043 0
0.84377801 -0.13038656 0.12901743 0
0.84572583 -0.12840155 0.15719016 0
0.83010578 -0.14432004 0.18379872 0
0.83265364 -0.14172348 0.21187681 0
1.1034273 0.13422337 0.28502804 0
0.93817574 -0.034185376 0.28910112 0
0.94072497 -0.031587448 0.32156977 0
0.95950693 -0.012446608 0.35882479 0
0.61738712 -0.32855001 -0.09110678 0
0.70164841 -0.23822901 -0.092494614 0
0.79746461 -0.13552222 -0.090928398 0
