# .PCD v0.7 - Point Cloud Data file format
VERSION 0.7
FIELDS x y z intensity
SIZE 4 4 4 4
TYPE F F F F
COUNT 1 1 1 1
WIDTH 1327
HEIGHT 1
VIEWPOINT 0 0 0 1 0 0 0
POINTS 1327
DATA ascii
-0.97990417 2.3800581 0.65501553 0
-0.45046145 1.5516138 -0.049729325 0
-0.61546338 1.7921535 0.072143145 0
-0.99846709 2.3504956 0.46223941 0
-1.0040587 2.3586471 0.65394545 0
-0.47277391 1.5491563 -0.050112024 0
-0.61228645 1.7471462 0.070759095 0
-1.0215737 2.3279884 0.46128547 0
-1.0301521 2.3401623 0.65387362 0
-0.48565233 1.5331964 -0.049915522 0
-0.61770308 1.7156732 0.069957048 0
-0.61418176 1.7108072 0.19788028 0
-1.040248 2.2995746 0.45907244 0
-1.0416334 2.3014891 0.64754617 0
-0.074988738 0.96571332 0.43915349 0
-0.49943632 1.5186825 -0.049788665 0
-0.62721622 1.6906559 0.069437623 0
-0.61813033 1.6784276 0.19532497 0
-1.0619531 2.2757497 0.45792219 0
-1.0625437 2.2765446 0.64556873 0
-0.08957769 0.96707118 0.44401792 0
-0.5159356 1.5078707 -0.049834572 0
-0.61959088 1.6437676 0.06793651 0
-0.62769294 1.6543899 0.19387922 0
-1.0860376 2.2553008 0.45758834 0
-1.0806943 2.2482955 0.64259589 0
-0.093355492 0.95384854 0.43986925 0
-0.53538901 1.500775 -0.050058793 0
-0.6190393 1.6076269 0.066903487 0
-0.61994565 1.6087847 0.18949187 0
-1.1037452 2.2267737 0.45547006 0
-1.0982512 2.2197559 0.63957328 0
-0.10207678 0.94727647 0.43993551 0
-0.54797381 1.4848719 -0.049893122 0
-0.60991418 1.5619723 0.065423958 0
-0.61236775 1.5650264 0.18530114 0
-1.1034008 2.1762409 0.44829077 0
-1.1180149 2.1944318 0.63764417 0
-0.12645365 0.96018368 0.45257443 0
-0.57218742 1.483255 -0.050393999 0
-0.62000251 1.5412617 0.065077789 0
-0.61285412 1.5325897 0.18263029 0
-1.1314349 2.1617033 0.4494485 0
-1.1269809 2.1562998 0.63154209 0
-0.1389903 0.95772409 0.45557919 0
-0.58408785 1.466526 -0.050207835 0
-0.61871266 1.5074695 0.064122185 0
-0.62457311 1.5143995 0.18193686 0
-1.1456026 2.130511 0.44676781 0
-1.1441455 2.128788 0.62896067 0
-0.15448196 0.95852184 0.46085343 0
-0.59551895 1.4494516 -0.050010346 0
-0.62149262 1.4793924 0.063425437 0
-0.62437415 1.4827141 0.17933668 0
-1.1561116 2.0956647 0.44322768 0
-1.1598997 2.1000316 0.62600321 0
-0.6140151 1.440522 -0.050206698 0
-0.62977159 1.4582295 0.063052922 0
-0.63792086 1.4673878 0.17906022 0
-1.1723654 2.0680113 0.44141582 0
-1.1715134 2.0670538 0.62163818 0
-0.62939751 1.4279703 -0.050241455 0
-0.65637147 1.4575264 0.063670024 0
-0.66137087 1.4630045 0.18039741 0
-1.1764259 2.027365 0.43646041 0
-1.1740463 2.0247576 0.61405426 0
-0.64321017 1.4137012 -0.050202053 0
-0.5069077 1.2680762 0.05508101 0
-0.69352996 1.4674625 0.18309511 0
-1.1906153 1.9985461 0.43438038 0
-1.1854123 1.9929873 0.61006987 0
-0.64821959 1.3902963 -0.04971863 0
-0.50903106 1.2452915 0.054542776 0
-0.72381985 1.4690559 0.18545882 0
-1.1980447 1.9630972 0.43066207 0
-1.197651 1.9626871 0.60660726 0
-0.66159499 1.375872 -0.049682207 0
-0.51790547 1.2299024 0.054369647 0
-0.74495995 1.4605598 0.18638769 0
-1.2074347 1.9303734 0.42761058 0
-1.2093829 1.9323525 0.60314393 0
-0.67830527 1.364783 -0.049823012 0
-0.52000183 1.2079668 0.05386785 0
-0.77045059 1.4560624 0.18797944 0
-1.2244105 1.9057573 0.42662784 0
-1.2178966 1.8993045 0.59870595 0
-0.69858909 1.3570033 -0.050146468 0
-0.54572022 1.2093377 0.054558452 0
-0.80386269 1.4586939 0.19074413 0
-1.2157316 1.856544 0.41930234 0
-1.2226667 1.863243 0.59314215 0
-0.70630252 1.3370658 -0.049854431 0
-0.56382197 1.2028614 0.054866504 0
-0.84043133 1.4634036 0.1939373 0
-1.2201811 1.8210952 0.41547027 0
-1.224677 1.8253299 0.58683676 0
-0.72500861 1.3274997 -0.05011085 0
-0.87278509 1.4632219 0.069274135 0
-0.87634802 1.4664942 0.19698997 0
-1.2301039 1.7913935 0.41313243 0
-1.2322125 1.7933302 0.58268428 0
-0.23083438 0.87363607 0.3789247 0
-0.7340337 1.3090175 -0.049906261 0
-0.90089846 1.4584416 0.069902979 0
-0.90360773 1.4608676 0.19875388 0
-1.240958 1.7629579 0.41113734 0
-1.2314548 1.7544482 0.57587683 0
-0.24123384 0.86772507 0.38047013 0
-0.73764002 1.2859918 -0.04945818 0
-0.93860376 1.4614419 0.070982404 0
-1.2442462 1.728281 0.40743893 0
-1.2373768 1.7222837 0.57157284 0
-0.23287053 0.84530628 0.37172738 0
-0.76390088 1.2826583 -0.050090618 0
-0.96780753 1.456202 0.071649991 0
-1.2377536 1.6859517 0.40156752 0
-1.2415997 1.6892251 0.56688195 0
-0.2321281 0.83006942 0.36737546 0
-0.25378066 0.84849781 0.45692906 0
-0.77427948 1.2655649 -0.049981698 0
-1.0048021 1.4568092 0.072675109 0
-1.2522881 1.6621263 0.40081006 0
-1.2418216 1.6534432 0.5610522 0
-0.24108745 0.82322288 0.36839181 0
-0.78524196 1.2490386 -0.049910624 0
-1.0455581 1.4595228 0.073862195 0
-1.2457058 1.6213567 0.39523262 0
-1.2380433 1.6151611 0.55411756 0
-0.25619107 0.82126272 0.37271553 0
-0.80030847 1.2358057 -0.050036296 0
-1.089437 1.4636266 0.075177938 0
-1.253731 1.5930831 0.39318269 0
-1.2355589 1.5787643 0.54782909 0
-0.27145946 0.81909531 0.37709647 0
-0.81304324 1.220667 -0.050063342 0
-1.1256808 1.4606936 0.076135039 0
-1.2409575 1.549197 0.38650486 0
-1.2403219 1.548709 0.54408038 0
-0.2614727 0.7972002 0.36826676 0
-0.24931629 0.78786713 0.43611172 0
-0.82150745 1.2023065 -0.049908288 0
-1.175854 1.4673309 0.07770583 0
-1.2493016 1.5222641 0.38477054 0
-1.2334434 1.5104034 0.53677899 0
-0.26592892 0.78677577 0.36713049 0
-0.27795678 0.79577172 0.44992185 0
-0.83391213 1.1869479 -0.049938958 0
-1.2106529 1.4613929 0.078579493 0
-1.2457104 1.4869312 0.38046503 0
-1.2359829 1.479845 0.53267002 0
-1.2404512 1.4831001 0.69462115 0
-0.25229794 0.76325864 0.35680702 0
-0.28044254 0.7837612 0.44735357 0
-0.85291326 1.1762384 -0.050266597 0
-1.2521635 1.4594554 0.079742461 0
-1.2504253 1.4582224 0.37813324 0
-1.241496 1.4518882 0.52964866 0
-1.2360294 1.4480103 0.68661219 0
-0.27752817 0.76807624 0.36645347 0
-0.27221024 0.76430392 0.43832645 0
-0.86136746 1.1579604 -0.050139673 0
-1.297918 1.4594469 0.081080556 0
-1.2584226 1.432171 0.37662062 0
-1.2422564 1.4210064 0.52528948 0
-1.243645 1.4219655 0.68371904 0
-0.29032105 0.7635895 0.44554532 0
-0.8696605 1.1396781 -0.050016824 0
-1.2812741 1.4163537 0.079723194 0
-1.268123 1.407514 0.22622126 0
-1.250367 1.3955789 0.37170398 0
-1.2426558 1.3903955 0.52097607 0
-1.2428439 1.390522 0.67760831 0
-0.28712034 0.74811012 0.43986076 0
-0.88222218 1.1242875 -0.050086949 0
-1.2849593 1.3876958 0.079267435 0
-1.265981 1.3752831 0.22411516 0
-1.2494035 1.3644406 0.36845568 0
-1.2438079 1.3607808 0.51704556 0
-1.2398235 1.3581749 0.67082351 0
-0.2948938 0.74014819 0.44090086 0
-0.90030372 1.1123463 -0.050398313 0
-1.2762984 1.351559 0.078308217 0
-1.2704223 1.3478206 0.22291633 0
-1.2442926 1.3311965 0.36443096 0
-1.2462325 1.3324307 0.5136444 0
-1.2307721 1.3225946 0.66187602 0
-0.30160719 0.7314477 0.44136363 0
-0.89913249 1.0882322 -0.049905341 0
-1.2838573 1.3262479 0.078056566 0
-1.2850126 1.3269627 0.22305325 0
-1.2522131 1.3066708 0.36329019 0
-1.2251221 1.2899106 0.5033164 0
-1.2398653 1.2990316 0.6602723 0
-0.90845239 1.0708294 -0.049865849 0
-1.3069488 1.3104801 0.078467213 0
-1.315307 1.3155067 0.22519158 0
-1.2479346 1.2749898 0.35965598 0
-1.233297 1.266187 0.50194502 0
-1.2379174 1.2689656 0.65450996 0
-0.92293358 1.0564715 -0.050049167 0
-1.3384128 1.299265 0.079229303 0
-1.3293154 1.2939488 0.2253051 0
-1.2459642 1.2452407 0.35661417 0
-1.240438 1.2420114 0.50036675 0
-1.2422417 1.2430655 0.65135318 0
-0.92322576 1.0339074 -0.049656145 0
-1.3746321 1.2901261 0.080186993 0
-1.3817371 1.2941589 0.23019835 0
-1.2415248 1.2145742 0.35315999 0
-1.2436988 1.2158083 0.49775106 0
-1.2403162 1.2138883 0.64595318 0
-0.94946599 1.0259556 -0.050335191 0
-1.2402086 1.1861751 0.35045266 0
-1.2460388 1.1893879 0.49498162 0
-1.234585 1.1830761 0.63928503 0
-0.95362175 1.0056469 -0.05011965 0
-1.2485143 1.1633457 0.34980467 0
-1.2339348 1.155549 0.48814842 0
-1.2323999 1.1547283 0.63414627 0
-0.96638262 0.98996937 -0.050261911 0
-1.2582061 1.141333 0.34950113 0
-1.2398863 1.1318308 0.48667189 0
-1.2312698 1.1273617 0.6295706 0
-0.97154081 0.97035325 -0.050107382 0
-1.2672563 1.1190407 0.3491261 0
-1.2326295 1.1016303 0.48151839 0
-1.2348474 1.1027454 0.62690562 0
-0.97372949 0.94940841 -0.049845714 0
-1.2827245 1.0999291 0.35009739 0
-1.2464919 1.0822791 0.48249814 0
-1.2330693 1.0757406 0.62239003 0
-0.98315382 0.93207681 -0.049881648 0
-1.2897558 1.0766839 0.34942871 0
-1.2475301 1.0567684 0.47992352 0
-1.2382145 1.0523747 0.62057328 0
-0.98168588 0.90974337 -0.049498525 0
-1.2918195 1.0512702 0.34783727 0
-1.2457508 1.0302472 0.47666383 0
-1.2429148 1.028953 0.61871219 0
-0.99235404 0.89305645 -0.049602095 0
-1.3091959 1.0328516 0.34933642 0
-1.2411909 1.0028468 0.4727402 0
-1.240136 1.0023813 0.61424923 0
-1.0046948 0.87699974 -0.049778208 0
-1.3100119 1.0071423 0.34762648 0
-1.2412192 0.97781903 0.47020599 0
-1.2387149 0.97675163 0.61042261 0
-1.0209408 0.86241204 -0.050111994 0
-1.3318809 0.99034935 0.35009441 0
-1.2525775 0.95771968 0.47089788 0
-1.2470304 0.9554373 0.61023492 0
-1.0192196 0.84043837 -0.049761087 0
-1.3403653 0.96787053 0.34999415 0
-1.2350399 0.92607689 0.46372449 0
-1.2395854 0.92788059 0.60450333 0
-1.0303141 0.82362568 -0.0499123 0
-1.3563248 0.94826037 0.35139245 0
-1.2422003 0.9046303 0.46344066 0
-1.2310518 0.90036821 0.59853542 0
-1.0432354 0.80736828 -0.050140381 0
-1.3577751 0.92309964 0.35004362 0
-1.2343876 0.87770063 0.45916128 0
-1.2419226 0.88047302 0.59959704 0
-1.0510134 0.78911757 -0.050180443 0
-1.362951 0.89945239 0.34947425 0
-1.2420219 0.85667884 0.45917317 0
-1.2390039 0.85561132 0.59587634 0
-1.0533113 0.76897275 -0.050022401 0
-1.3868145 0.88223147 0.35252348 0
-1.2432543 0.83347797 0.45753151 0
-1.2366254 0.83122677 0.59247154 0
-1.0653658 0.75211877 -0.050240874 0
-1.3735951 0.85248393 0.34856799 0
-1.2350731 0.80737853 0.45344931 0
-1.241871 0.80959207 0.59185588 0
-1.0626367 0.73049128 -0.049913596 0
-1.3963201 0.83451641 0.35148913 0
-1.237417 0.78497869 0.45228386 0
-1.2478769 0.78823954 0.5916028 0
-1.0787978 0.71473044 -0.050301421 0
-1.403059 0.81135577 0.35143363 0
-1.2528625 0.7665993 0.45468593 0
-1.2336078 0.76086164 0.58440566 0
-1.0702503 0.69165659 -0.049778141 0
-1.4054266 0.78695625 0.35061347 0
-1.2299424 0.73706138 0.44696462 0
-1.2331692 0.73797882 0.58213741 0
-1.084357 0.67509592 -0.050105322 0
-1.4106176 0.76343596 0.3503812 0
-1.2431908 0.71810257 0.44892809 0
-1.2499082 0.71992147 0.58589703 0
-1.0794489 0.65340126 -0.049738184 0
-1.4157777 0.73993725 0.35019916 0
-1.2432264 0.69554049 0.44746742 0
-1.2445346 0.69587713 0.58212644 0
-1.0932099 0.63652354 -0.050068267 0
-1.432775 0.71934801 0.35227007 0
-1.2303662 0.66997778 0.44269937 0
-1.2365516 0.6714865 0.57757759 0
-1.0953053 0.61671352 -0.049977794 0
-1.435401 0.69514394 0.35172319 0
-1.2369975 0.64938956 0.44313297 0
-1.2460718 0.65148216 0.57912302 0
-1.0965828 0.59678769 -0.049866803 0
-1.4327147 0.66985923 0.3502537 0
-1.2350239 0.62688333 0.44138649 0
-1.2371539 0.6273464 0.57447261 0
-1.1020648 0.57779741 -0.049918465 0
-1.4346181 0.64571744 0.34969148 0
-1.2428291 0.60654682 0.44226483 0
-1.236007 0.60515344 0.57257622 0
-1.113392 0.55988407 -0.05019116 0
-1.4373018 0.62180084 0.34932977 0
-1.2490231 0.58581054 0.44278908 0
-1.24483 0.58500904 0.57415617 0
-1.1185158 0.54066724 -0.050246481 0
-1.4475566 0.59928036 0.35041106 0
-1.2377237 0.56190211 0.43884659 0
-1.2510436 0.56427485 0.57493657 0
-1.1130521 0.51965886 -0.049927343 0
-1.4494386 0.57522005 0.35001147 0
-1.2343297 0.53969038 0.43703443 0
-1.2323987 0.53937143 0.56742114 0
-1.1254351 0.5015924 -0.050262868 0
-1.4557264 0.55188316 0.35047176 0
-1.2544942 0.52124316 0.44137779 0
-1.239131 0.51890397 0.56856591 0
-1.1218058 0.48105171 -0.050028831 0
-1.4621817 0.52850085 0.35101527 0
-1.2391913 0.49741551 0.43663707 0
-1.2474556 0.49856758 0.5703302 0
-1.1334902 0.46261275 -0.050355565 0
-1.4581723 0.50371355 0.34970918 0
-1.2349635 0.47545803 0.43482932 0
-1.2436857 0.47656217 0.56812179 0
-1.1197344 0.4410432 -0.049776066 0
-0.51207036 0.37188241 0.039941616 0
-0.51355642 0.37205154 0.10833301 0
-0.51565683 0.37229061 0.17811051 0
-1.2420638 0.45496604 0.43600398 0
-1.2426087 0.45502806 0.56691104 0
-1.1283733 0.42214495 -0.050010648 0
-0.50586587 0.35922369 0.039673094 0
-0.51802444 0.36045265 0.10867728 0
-0.51516688 0.36016381 0.17778902 0
-1.2397578 0.43340337 0.43483129 0
-1.2360694 0.43303058 0.56396604 0
-1.1296401 0.40242594 -0.049989287 0
-0.4845596 0.3454186 0.038869329 0
-0.51094413 0.34775028 0.10779101 0
-0.51243597 0.34788212 0.17708981 0
-1.2296801 0.41126671 0.43173897 0
-1.2443841 0.41256616 0.56607795 0
-1.1342738 0.38297379 -0.050097387 0
-0.50180095 0.33509812 0.10670049 0
-0.52145427 0.33658579 0.17854427 0
-1.2467679 0.39148915 0.43567157 0
-1.2337025 0.39050016 0.5619359 0
-1.1287824 0.36280376 -0.049851973 0
-0.50995594 0.32379064 0.10749073 0
-0.50160587 0.32326424 0.17480689 0
-1.2388685 0.36974397 0.43327701 0
-1.2398298 0.36980459 0.56349307 0
-1.2435428 0.37003866 0.70133722 0
-1.1376245 0.34352648 -0.050128166 0
-0.50656682 0.31171393 0.10705358 0
-0.51285905 0.31203115 0.17671843 0
-1.2392652 0.34865034 0.43307328 0
-1.2390499 0.34863949 0.56283522 0
-1.2413875 0.34875733 0.69994724 0
-0.3580789 0.30422845 0.47547174 0
-1.125567 0.32326123 -0.049666233 0
-0.50944191 0.29997462 0.10730667 0
-0.50106156 0.29965788 0.17449448 0
-1.2386441 0.327535 0.43267763 0
-1.2418976 0.32765797 0.56347418 0
-1.2422503 0.32767129 0.69991946 0
-0.3642267 0.29448617 0.47885966 0
-1.1412669 0.30401802 -0.050204851 0
-0.4089359 0.28556982 0.35451284 0
-0.3985793 0.28530893 0.42197555 0
-0.38052344 0.28485405 0.48833999 0
-1.1468986 0.28426492 -0.050392557 0
-0.41019833 0.27498627 0.42769054 0
-0.38209212 0.27463228 0.48915568 0
-1.1393032 0.26437625 -0.050116919 0
-0.38761151 0.26437426 0.41635603 0
-0.39049429 0.26437426 0.49410024 0
-0.88969588 -0.98929471 -0.088352211 0
-1.025937 -0.98929507 -0.09244936 0
-1.140041 -0.98929536 -0.086557023 0
-1.1256658 -0.98929536 -0.057361577 0
-1.1273788 -0.98929536 -0.030903956 0
-1.1240171 -0.98929536 -0.0040366855 0
-1.1344132 -0.98929536 0.021596106 0
-1.1251717 -0.98929536 0.048543062 0
-1.1220167 -0.9892953 0.074860357 0
-1.1274902 -0.98929536 0.10100261 0
-1.1371129 -0.98929536 0.12749645 0
-1.1343566 -0.98929536 0.1538903 0
-1.1299242 -0.98929536 0.18009575 0
-1.1315867 -0.98929536 0.20674925 0
-1.1294932 -0.98929536 0.23315731 0
-1.1242633 -0.98929536 0.2591708 0
-1.1329663 -0.98929536 0.28740156 0
-1.135607 -0.98929536 0.31511381 0
-0.9023633 -1.0120941 -0.09110599 0
-1.0212898 -1.0150959 -0.091635384 0
-1.1216577 -1.0176295 -0.083594464 0
-1.1394627 -1.0180789 -0.059351582 0
-1.1302826 -1.0178472 -0.031285439 0
-1.1352866 -1.0179734 -0.0051223766 0
-1.1247989 -1.0177088 0.022243166 0
-1.1252244 -1.0177195 0.04852391 0
-1.1302556 -1.0178465 0.07466042 0
-1.1270386 -1.0177653 0.10100261 0
-1.1178678 -1.0175338 0.1270562 0
-1.1240138 -1.0176889 0.1534249 0
-1.1302782 -1.0178471 0.18014574 0
-1.1281129 -1.0177923 0.2064584 0
-1.1209927 -1.0176127 0.23220511 0
-1.130067 -1.0178417 0.26003742 0
-1.1323432 -1.0178992 0.28735846 0
-1.1228398 -1.0176593 0.31277576 0
-0.90029591 -1.0348181 -0.090849645 0
-1.0200551 -1.0408674 -0.091586672 0
-1.1283849 -1.0463395 -0.084877975 0
-1.1299607 -1.0464191 -0.058167804 0
-1.2279338 -1.051368 -0.042839263 0
-1.2404709 -1.0520012 -0.015054261 0
-1.2372606 -1.0518391 0.014295744 0
-1.247195 -1.052341 0.042788219 0
-1.24298 -1.0521281 0.072011031 0
-1.2338892 -1.0516689 0.1010057 0
-1.2357097 -1.0517608 0.12983125 0
-1.2288072 -1.0514121 0.15836591 0
-1.2376781 -1.0518602 0.18774544 0
-1.2447782 -1.0522189 0.21746945 0
-0.90110147 -1.0577135 -0.091327392 0
-1.0145018 -1.0663148 -0.090844907 0
-1.1214057 -1.0744233 -0.084024139 0
-1.1341627 -1.0753908 -0.059013907 0
-1.2367376 -1.083171 -0.044100586 0
-1.2461133 -1.0838822 -0.015767543 0
-1.250656 -1.0842267 0.0132183 0
-1.2458889 -1.0838652 0.042756375 0
-1.248646 -1.0840743 0.071832716 0
-1.2404959 -1.083456 0.10100594 0
-1.2396578 -1.0833925 0.12996958 0
-1.2409306 -1.0834891 0.15902418 0
-1.2455833 -1.0838419 0.18843856 0
-1.2355649 -1.0830821 0.21679235 0
-0.89254498 -1.0797893 -0.089929484 0
-1.0190438 -1.0926013 -0.092133902 0
-1.1646785 -1.1073514 -0.091586299 0
-1.2402602 -1.1150064 -0.074358471 0
-1.2312846 -1.1140974 -0.043784548 0
-1.2477244 -1.1157624 -0.016179843 0
-1.2279361 -1.1137582 0.014618451 0
-1.2392932 -1.1149085 0.042934783 0
-1.2330296 -1.114274 0.072132476 0
-1.2421024 -1.115193 0.10100607 0
-1.2403393 -1.1150144 0.13005042 0
-1.2216221 -1.1131186 0.15824945 0
-1.2431201 -1.115296 0.18846102 0
-1.9953501 -1.191483 0.28837684 0
-1.9906774 -1.1910098 0.33504799 0
-1.9261763 -1.184477 0.37330019 0
-1.4785154 -1.1391373 0.38114727 0
-0.90026188 -1.1036094 -0.092133142 0
-1.0085666 -1.1173472 -0.09070123 0
-1.1460631 -1.134788 -0.089057289 0
-1.2021019 -1.1418962 -0.069458269 0
-1.2475464 -1.1476606 -0.046117548 0
-1.2295696 -1.1453804 -0.014809323 0
-1.2312806 -1.1455973 0.014133902 0
-1.2387532 -1.1465453 0.042792857 0
-1.2307464 -1.1455296 0.072102875 0
-1.2393781 -1.1466246 0.10100609 0
-1.2281477 -1.1452 0.12984779 0
-1.2505572 -1.1480426 0.15977405 0
-1.2448767 -1.1473219 0.18883707 0
-1.598204 -1.1921396 0.365998 0
-1.4763327 -1.1766809 0.38154018 0
-0.89973843 -1.126716 -0.092702456 0
-1.0045006 -1.1426998 -0.090603359 0
-1.1382471 -1.1631058 -0.088428877 0
-1.2020798 -1.1728449 -0.070056923 0
-1.6337023 -1.2386985 -0.092290513 0
-2.565305 -1.3808352 -0.14133894 0
-3.4116583 -1.5099652 -0.14036562 0
-5.1295509 -1.7720678 -0.14064345 0
-10.28648 -2.5588717 -0.14098543 0
-1.353321 -1.1959201 0.29357806 0
-1.3631203 -1.1974152 0.32783648 0
-1.3564216 -1.1963933 0.35967705 0
-0.88672912 -1.1477461 -0.090704061 0
-0.99936265 -1.167851 -0.090422101 0
-1.1382946 -1.1926502 -0.089229502 0
-1.2049822 -1.2045538 -0.071187057 0
-1.6153657 -1.2778068 -0.090922467 0
-2.5604312 -1.4464995 -0.14189099 0
-3.4009652 -1.5965337 -0.14061633 0
-5.1018968 -1.9001474 -0.14034688 0
-10.23047 -2.8155904 -0.14067525 0
-1.3400528 -1.2286638 0.29248932 0
-1.3273786 -1.2264014 0.32281682 0
-1.319507 -1.2249963 0.3536948 0
-0.87588352 -1.1687497 -0.089279659 0
-0.99310774 -1.1927408 -0.090146951 0
-1.1427493 -1.2233664 -0.090898417 0
-1.189588 -1.2329524 -0.069812976 0
-1.6136175 -1.3197341 -0.091643713 0
-2.5427768 -1.5098953 -0.14138572 0
-3.3928499 -1.683871 -0.14120781 0
-5.088254 -2.0308516 -0.14086787 0
-10.18859 -3.0746844 -0.14085221 0
-1.2612293 -1.2476144 0.31279072 0
-1.2334944 -1.2419382 0.3383778 0
-0.87466639 -1.1916461 -0.090062834 0
-0.9941833 -1.2192656 -0.091408379 0
-1.1340996 -1.2515992 -0.090496995 0
-1.1969171 -1.2661158 -0.071811534 0
-1.5879607 -1.356483 -0.089627825 0
-2.5192578 -1.5716985 -0.14046854 0
-3.3660719 -1.7673907 -0.14062142 0
-5.0550327 -2.1576965 -0.1406136 0
-10.130613 -3.3306241 -0.14080171 0
-0.86496401 -1.2125616 -0.089114971 0
-0.99512589 -1.246122 -0.092781983 0
-1.1294205 -1.2807478 -0.09088745 0
-1.315449 -1.3287125 -0.090083174 0
-1.5883904 -1.3990864 -0.090858944 0
-1.9816564 -1.5004842 -0.090141349 0
-3.3540697 -1.8543406 -0.14124964 0
-5.0260434 -2.285434 -0.14071456 0
-10.065349 -3.5847442 -0.14073053 0
-0.85653144 -1.23362 -0.088557206 0
-0.97252572 -1.26667 -0.089686997 0
-1.1127261 -1.3066171 -0.08935269 0
-1.2970548 -1.3591375 -0.088707931 0
-1.5826157 -1.4405019 -0.091475166 0
-1.9845114 -1.5550134 -0.091731496 0
-3.3102281 -1.9327476 -0.13972694 0
-4.9959526 -2.4130583 -0.14091849 0
-10.006163 -3.8406093 -0.14096031 0
-0.84863752 -1.254723 -0.088232897 0
-0.9786371 -1.2953366 -0.092335112 0
-1.1091493 -1.3361105 -0.090176456 0
-1.2941976 -1.3939222 -0.089722015 0
-1.5660156 -1.4788419 -0.090898283 0
-1.9660953 -1.6038324 -0.091388233 0
-3.2991228 -2.0202887 -0.14073424 0
-4.9545856 -2.5374784 -0.14073054 0
-9.9191694 -4.0884838 -0.14067125 0
-0.85949582 -1.2821418 -0.092235424 0
-0.96152836 -1.3168671 -0.090529539 0
-1.0993135 -1.3637605 -0.090049408 0
-1.2899969 -1.4286571 -0.090675183 0
-1.5565275 -1.5193672 -0.091313414 0
-1.9528408 -1.654247 -0.091671906 0
-3.2702482 -2.1026089 -0.14060052 0
-4.9078546 -2.6599462 -0.140431 0
-9.8489256 -4.3415737 -0.14094412 0
-0.84186405 -1.300083 -0.089976929 0
-0.95528555 -1.3419064 -0.090997003 0
-1.0907925 -1.3918737 -0.090273179 0
-1.2655904 -1.4563292 -0.088741489 0
-1.535091 -1.5557057 -0.090370886 0
-1.9285556 -1.7007929 -0.090986885 0
-3.2420118 -2.1851206 -0.1406672 0
-4.8732476 -2.7866275 -0.14088294 0
-9.7564249 -4.587265 -0.14082558 0
-0.83595026 -1.3221231 -0.090479292 0
-0.94214952 -1.3643568 -0.090199418 0
-1.0833646 -1.4205157 -0.090817444 0
-1.2612652 -1.4912636 -0.089930497 0
-1.5253308 -1.5962781 -0.091002293 0
-1.90072 -1.7455641 -0.090055771 0
-3.2118344 -2.2669721 -0.14074446 0
-4.8225026 -2.9075077 -0.1406903 0
-9.6617279 -4.831986 -0.1408053 0
-0.83412915 -1.3460569 -0.09206102 0
-0.94106746 -1.3917421 -0.091977544 0
-1.0633755 -1.4439933 -0.089251183 0
-1.2458093 -1.5219309 -0.089565448 0
-1.5071299 -1.6335697 -0.090697251 0
-1.8911959 -1.7976465 -0.091087304 0
-3.1725259 -2.3450437 -0.14028463 0
-4.7705827 -3.0277495 -0.14058977 0
-9.5682573 -5.0773644 -0.14097117 0
-0.81304306 -1.3616081 -0.089298509 0
-0.92225724 -1.4115607 -0.090246849 0
-1.0636505 -1.4762312 -0.091435514 0
-1.2414654 -1.5575603 -0.091032319 0
-1.486292 -1.6695393 -0.090170063 0
-1.8611528 -1.8409934 -0.090158902 0
-3.1393964 -2.4256375 -0.14044514 0
-4.7247534 -3.1507492 -0.14095436 0
-9.4480743 -5.3111053 -0.14061347 0
-0.81037223 -1.3854373 -0.090950109 0
-0.9102158 -1.4341865 -0.090017684 0
-1.0430428 -1.49904 -0.089975484 0
-1.2174428 -1.5841919 -0.08957956 0
-1.474926 -1.7099097 -0.090985633 0
-1.8418224 -1.8890491 -0.090444721 0
-3.1115975 -2.5090246 -0.14117965 0
-4.6660786 -3.2680092 -0.14081787 0
-9.3471079 -5.5535502 -0.14090028 0
-0.80579591 -1.4087337 -0.092310198 0
-0.90660983 -1.4611471 -0.091696702 0
-1.0224303 -1.5213623 -0.088601269 0
-1.2099694 -1.6188643 -0.090834729 0
-1.4573425 -1.7474741 -0.091126345 0
-1.8082817 -1.9299279 -0.08936616 0
-3.0666831 -2.5841732 -0.14074002 0
-4.6089449 -3.385998 -0.14091474 0
-9.2180767 -5.7822948 -0.14061481 0
-0.79301077 -1.4278811 -0.091837786 0
-0.8928718 -1.4830433 -0.091364525 0
-1.0108138 -1.5481932 -0.089001961 0
-1.1840398 -1.6438814 -0.089283936 0
-1.4322895 -1.7810119 -0.090397455 0
-1.8027996 -1.9856777 -0.091373779 0
-3.0221322 -2.6592238 -0.14047377 0
-4.5458698 -3.5009203 -0.14085433 0
-9.0997992 -6.0164618 -0.14076327 0
-0.78193682 -1.4479179 -0.091898106 0
-0.86867094 -1.4987264 -0.088863261 0
-1.0037587 -1.5778602 -0.090405472 0
-1.1665177 -1.6732037 -0.08918149 0
-1.4085976 -1.8150129 -0.089955918 0
-1.7683412 -2.025749 -0.090427838 0
-2.9840224 -2.7378893 -0.14087778 0
-4.4755998 -3.6116486 -0.14056018 0
-8.9791441 -6.2498035 -0.141008 0
-0.76308787 -1.4631667 -0.090140186 0
-0.86347687 -1.5254284 -0.090622239 0
-0.99334496 -1.605973 -0.091325305 0
-1.1554973 -1.7065406 -0.090274088 0
-1.3860394 -1.8495237 -0.089780472 0
-1.746623 -2.0731592 -0.090976559 0
-2.9319165 -2.8082826 -0.1402989 0
-4.4114046 -3.7258673 -0.14074613 0
-8.847887 -6.4773917 -0.14112648 0
-0.7551015 -1.4850565 -0.091211118 0
-0.85301197 -1.549257 -0.091373943 0
-0.974904 -1.6291826 -0.090821199 0
-1.1263413 -1.7284812 -0.088477455 0
-1.3650651 -1.8850139 -0.089944236 0
-1.7157283 -2.1149461 -0.090642668 0
-2.8857367 -2.8821287 -0.14035314 0
-4.3447852 -3.8388371 -0.14095944 0
-8.6963911 -6.6922159 -0.14084263 0
-0.74247253 -1.5040585 -0.091242217 0
-0.83638954 -1.5690871 -0.090864874 0
-0.95817167 -1.6534096 -0.090765916 0
-1.1240883 -1.7682911 -0.091341682 0
-1.3485258 -1.9236927 -0.090867601 0
-1.6879045 -2.1586802 -0.090770282 0
-2.8340328 -2.952265 -0.14009579 0
-4.2740011 -3.9493062 -0.14110079 0
-8.5425529 -6.9048724 -0.1406396 0
-0.72031087 -1.516125 -0.0888898 0
-0.81876659 -1.5880378 -0.090228684 0
-0.93167275 -1.6705054 -0.088845216 0
-1.0949162 -1.7897398 -0.089747734 0
-1.3152817 -1.9506966 -0.08953052 0
-1.6645843 -2.2058301 -0.091547288 0
-2.7958834 -3.0321403 -0.14115897 0
-4.1868033 -4.0480795 -0.14045784 0
-8.3894138 -7.1177011 -0.14060612 0
-0.70688623 -1.5342309 -0.088915952 0
-0.80352658 -1.6086285 -0.090259083 0
-0.92427671 -1.7015867 -0.090937696 0
-1.0843505 -1.8248178 -0.09151759 0
-1.3027341 -1.992938 -0.091319405 0
-1.6357405 -2.2492993 -0.091827758 0
-2.743135 -3.1018147 -0.14113116 0
-4.116159 -4.1588221 -0.14091991 0
-8.2396765 -7.3332672 -0.14082792 0
-0.70355266 -1.5605457 -0.091827966 0
-0.79215699 -1.6323889 -0.091353424 0
-0.90860784 -1.7268111 -0.091487311 0
-1.060328 -1.8498307 -0.09104795 0
-1.2747028 -2.0236528 -0.090974338 0
-1.5932279 -2.2819233 -0.090602003 0
-2.6818428 -3.1646078 -0.14049058 0
-4.0334606 -4.2605433 -0.14083497 0
-8.0751038 -7.5376391 -0.14077152 0
-0.67922789 -1.5698713 -0.089120753 0
-0.77499127 -1.6516091 -0.091183238 0
-0.89001018 -1.7497822 -0.09155219 0
-1.0414726 -1.8790613 -0.091638215 0
-1.2577714 -2.0636806 -0.092445232 0
-1.5621352 -2.323467 -0.090851016 0
-2.6282048 -3.2333989 -0.14068371 0
-3.9470637 -4.3590961 -0.14067732 0
-7.9013486 -7.7342319 -0.14058922 0
-0.66894639 -1.5909653 -0.090430327 0
-0.75727892 -1.6702991 -0.09099225 0
-0.8665784 -1.7684637 -0.090677343 0
-1.0171028 -1.9036536 -0.09133821 0
-1.2174242 -2.0835674 -0.090428419 0
-1.5276859 -2.3622215 -0.090814747 0
-2.566844 -3.295516 -0.14031698 0
-3.8663282 -4.462616 -0.14102428 0
-7.7378736 -7.9397502 -0.14087743 0
-0.65634274 -1.6103129 -0.091246329 0
-0.74197233 -1.6912141 -0.091540866 0
-0.84374774 -1.7873695 -0.090022735 0
-0.99064499 -1.9261552 -0.090745918 0
-1.1932009 -2.1175263 -0.091035269 0
-1.4984602 -2.4059293 -0.091572516 0
-1.9790018 -2.8599358 -0.089455642 0
-3.7821293 -4.5634961 -0.14132322 0
-7.55264 -8.125802 -0.14064063 0
-0.64554447 -1.631748 -0.092768602 0
-0.72815889 -1.7138431 -0.092638381 0
-0.82399124 -1.8090732 -0.090173028 0
-0.96757096 -1.9517506 -0.090920188 0
-1.1641778 -2.1471217 -0.091006167 0
-1.4577984 -2.4388971 -0.090988092 0
-1.9440855 -2.9221282 -0.090728231 0
-3.6833098 -4.6504221 -0.14083529 0
-7.3693171 -8.3132639 -0.14061253 0
-0.6272192 -1.6458597 -0.092181422 0
-0.7077015 -1.7299773 -0.092108689 0
-0.7997635 -1.8261975 -0.089392968 0
-0.9452315 -1.9782358 -0.091378115 0
-1.1355408 -2.1771412 -0.09116631 0
-1.4106219 -2.4646468 -0.089619406 0
-1.8869691 -2.9625096 -0.089946575 0
-3.5839396 -4.7361279 -0.14044312 0
-7.1932344 -8.5084457 -0.14098433 0
-0.60835183 -1.6591903 -0.091517545 0
-0.68230981 -1.7405002 -0.090295397 0
-0.78134257 -1.8493776 -0.090113498 0
-0.9133873 -1.9945487 -0.090001531 0
-1.1015828 -2.2014523 -0.090536557 0
-1.3821621 -2.5099235 -0.090897597 0
-1.8444681 -3.0181863 -0.090765931 0
-3.4904051 -4.8277421 -0.1405914 0
-6.9909048 -8.676219 -0.14062759 0
-0.58744353 -1.6699412 -0.090278514 0
-0.66441905 -1.7589822 -0.090664186 0
-0.75609446 -1.8650272 -0.089284621 0
-0.88675171 -2.0161641 -0.089790754 0
-1.0700017 -2.2281375 -0.090421088 0
-1.3496717 -2.5516441 -0.091799177 0
-1.7968099 -3.0688689 -0.091206364 0
-3.3882847 -4.9097977 -0.14029521 0
-6.7926493 -8.8477774 -0.14055362 0
-0.57365113 -1.6889155 -0.091473572 0
-0.64656341 -1.7776883 -0.091191284 0
-0.74684387 -1.8997825 -0.09267319 0
-0.86775732 -2.0469983 -0.091384359 0
-1.0390149 -2.2555094 -0.090533681 0
-1.2989368 -2.5719719 -0.090198375 0
-1.7381803 -3.1067636 -0.090590917 0
-3.2934358 -5.0003319 -0.14067282 0
-6.5978532 -9.0235567 -0.14076038 0
-0.55366373 -1.7004315 -0.090729661 0
-0.62514985 -1.7920886 -0.090788402 0
-0.71822381 -1.9114252 -0.091227584 0
-0.83573627 -2.0620959 -0.090228654 0
-1.01676 -2.2941988 -0.092438646 0
-1.2616353 -2.60817 -0.090660505 0
-1.6906559 -3.1582468 -0.091324709 0
-3.1930456 -5.0845623 -0.14081369 0
-6.3925323 -9.186842 -0.14074117 0
-0.53052193 -1.7074131 -0.088935114 0
-0.60855979 -1.8128524 -0.092011966 0
-0.69475538 -1.9293139 -0.091235004 0
-0.81066638 -2.0859249 -0.090763561 0
-0.97034705 -2.3016741 -0.089852296 0
-1.2143228 -2.6313174 -0.089708947 0
-1.6334893 -3.1976662 -0.091101043 0
-3.0863485 -5.1606684 -0.1406296 0
-6.1833153 -9.3450747 -0.14072752 0
-0.51514226 -1.7247391 -0.090011336 0
-0.58274204 -1.8210661 -0.090423532 0
-0.67183959 -1.9480268 -0.091527782 0
-0.78995138 -2.1163318 -0.092528097 0
-0.94179273 -2.3327 -0.090842642 0
-1.1835994 -2.6772654 -0.09151151 0
-1.5710251 -3.2293327 -0.090343527 0
-2.984668 -5.2437205 -0.14099836 0
-5.9678059 -9.4945803 -0.14061758 0
-0.49958676 -1.742288 -0.091226526 0
-0.56280708 -1.8373904 -0.090844505 0
-0.64191049 -1.956386 -0.089887507 0
-0.74967802 -2.1185009 -0.0895871 0
-0.90438449 -2.3512266 -0.090164416 0
-1.1355139 -2.6989152 -0.09064839 0
-1.5134709 -3.2674773 -0.090275921 0
-2.8731782 -5.3128891 -0.14072961 0
-5.7495737 -9.6398602 -0.1405447 0
-0.47698861 -1.7492086 -0.089853115 0
-0.5432722 -1.8545933 -0.091567241 0
-0.61864012 -1.9744213 -0.090299614 0
-0.72210503 -2.1389208 -0.089892499 0
-0.86896074 -2.3724077 -0.089994811 0
-1.09088 -2.7252386 -0.090449132 0
-1.4650739 -3.3201721 -0.091532014 0
-2.7617829 -5.3818173 -0.14060791 0
-5.5291109 -9.7816105 -0.14052854 0
-0.46056366 -1.7659069 -0.091059975 0
-0.51693887 -1.8607676 -0.089971729 0
-0.59117436 -1.9856813 -0.089523442 0
-0.69380295 -2.158371 -0.090149529 0
-0.83649647 -2.3984766 -0.090614773 0
-1.0396364 -2.7402935 -0.089152582 0
-1.4043638 -3.3540084 -0.0913359 0
-2.6523633 -5.4539752 -0.14081636 0
-5.3093257 -9.924758 -0.14070213 0
-0.4424462 -1.7802018 -0.091765948 0
-0.49610156 -1.8759044 -0.090478472 0
-0.56944543 -2.0067248 -0.090733133 0
-0.66286463 -2.1733525 -0.089798905 0
-0.79761046 -2.4136925 -0.089882441 0
-1.0070311 -2.7872269 -0.091424935 0
-1.3403349 -3.3817263 -0.090775885 0
-2.5335851 -5.5100737 -0.14031324 0
-5.0830755 -10.057487 -0.14074449 0
-0.41701269 -1.7810289 -0.08933609 0
-0.47315398 -1.8873699 -0.090309344 0
-0.54381853 -2.0212202 -0.090812512 0
-0.63398552 -2.1920114 -0.090162285 0
-0.76549625 -2.4411147 -0.090903573 0
-0.95986599 -2.809283 -0.091128938 0
-1.2771733 -3.4103158 -0.09042082 0
-1.9217824 -4.6313124 -0.09076076 0
-4.8473716 -10.172863 -0.14048123 0
-0.39561993 -1.788736 -0.088722236 0
-0.45543426 -1.9093081 -0.092466868 0
-0.51268882 -2.0247202 -0.08899308 0
-0.60043001 -2.2015865 -0.089211188 0
-0.72289008 -2.4484382 -0.08939632 0
-0.90999305 -2.8255954 -0.090362974 0
-1.2195747 -3.4496417 -0.091033258 0
-1.8303516 -4.680829 -0.090873174 0
-4.6171141 -10.298308 -0.14063801 0
-0.38095045 -1.8105896 -0.09155909 0
-0.4305504 -1.91725 -0.091785364 0
-0.48744532 -2.0395977 -0.089400358 0
-0.57073736 -2.2187102 -0.089573197 0
-0.68794274 -2.4707508 -0.089978047 0
-0.86732817 -2.856504 -0.091238849 0
-1.1597744 -3.4853854 -0.091475137 0
-1.733375 -4.7188654 -0.090514071 0
-4.3880811 -10.427588 -0.14104122 0
-0.35834447 -1.8159102 -0.090619437 0
-0.40185624 -1.9160098 -0.089355223 0
-0.46331161 -2.0573885 -0.090440102 0
-0.54165781 -2.2376251 -0.090321206 0
-0.65023655 -2.4874122 -0.089946307 0
-0.82062531 -2.8793941 -0.091399275 0
-1.0916566 -3.5029056 -0.090638749 0
-1.6356843 -4.7544489 -0.090159304 0
-4.1470351 -10.531848 -0.14095309 0
-0.3376703 -1.8254454 -0.090787403 0
-0.38344368 -1.9384652 -0.091912992 0
-0.43783945 -2.0727746 -0.091151454 0
-0.50786209 -2.2456689 -0.089525186 0
-0.61472797 -2.5095332 -0.090723969 0
-0.77142501 -2.8964367 -0.091088556 0
-1.025947 -3.5248814 -0.090277307 0
-1.5451814 -4.8069315 -0.090781488 0
-3.9054019 -10.634592 -0.14098129 0
-0.31716692 -1.8355893 -0.091211088 0
-0.35746813 -1.9427958 -0.0908935 0
-0.40461701 -2.068218 -0.088467963 0
-0.4772507 -2.2614329 -0.090024494 0
-0.57737541 -2.5277777 -0.091122724 0
-0.72311676 -2.9154687 -0.091103606 0
-0.96384639 -3.555841 -0.090714715 0
-1.4483596 -4.8447094 -0.090780579 0
-3.6550088 -10.714684 -0.14059877 0
-0.29288599 -1.8352097 -0.089380018 0
-0.33218339 -1.9483327 -0.090254776 0
-0.37873366 -2.082334 -0.089203261 0
-0.44641265 -2.2771575 -0.090629004 0
-0.5408057 -2.5488808 -0.091988869 0
-0.67247248 -2.927902 -0.090587504 0
-0.8961466 -3.571779 -0.09015312 0
-1.3531678 -4.8873777 -0.091141723 0
-3.4115467 -10.812706 -0.1408172 0
-0.27433148 -1.8513806 -0.09139403 0
-0.30875269 -1.9591666 -0.090795226 0
-0.35048416 -2.089844 -0.088906057 0
-0.41410992 -2.2890806 -0.090783201 0
-0.499605 -2.5567987 -0.091344096 0
-0.62711734 -2.956089 -0.091744937 0
-0.82699835 -3.5819933 -0.089301921 0
-1.2521532 -4.9133167 -0.090800308 0
-3.1659029 -10.906004 -0.14106917 0
-0.25138059 -1.8542413 -0.090550162 0
-0.28805497 -1.9799432 -0.093398951 0
-0.32427198 -2.1040771 -0.089884661 0
-0.38068053 -2.2974181 -0.090531148 0
-0.46065536 -2.5715327 -0.091661014 0
-0.57448459 -2.9616838 -0.090808935 0
-0.76664835 -3.6203272 -0.090632312 0
-1.1527079 -4.9435506 -0.090793751 0
-2.9124267 -10.975005 -0.1408816 0
-0.2317538 -1.8689398 -0.09244255 0
-0.25955218 -1.9740099 -0.090883605 0
-0.29652438 -2.1137545 -0.090195052 0
-0.34627059 -2.3017812 -0.089826114 0
-0.41994619 -2.5802546 -0.091368221 0
-0.5246641 -2.9760592 -0.090855666 0
-0.69805527 -3.6314297 -0.09009517 0
-1.0543284 -4.9780436 -0.091113679 0
-2.6589303 -11.042991 -0.14082527 0
-0.20834014 -1.8697146 -0.091390096 0
-0.23512857 -1.9823927 -0.091294609 0
-0.26827186 -2.1218004 -0.090346731 0
-0.31270853 -2.3087108 -0.089621879 0
-0.38048461 -2.593792 -0.091779523 0
-0.47581005 -2.9947517 -0.091437332 0
-0.63329571 -3.657171 -0.090737961 0
-0.94721162 -4.9775701 -0.089877672 0
-2.4039161 -11.10479 -0.14077474 0
-0.18567134 -1.8728776 -0.090990789 0
-0.20753299 -1.9763713 -0.089049511 0
-0.23685071 -2.1151621 -0.08815106 0
-0.27916524 -2.3154802 -0.08951772 0
-0.33849975 -2.5963714 -0.090998955 0
-0.42241168 -2.9936125 -0.090241916 0
-0.56637949 -3.6751602 -0.090940557 0
-0.84780025 -5.0074134 -0.090219758 0
-2.1488698 -11.166711 -0.14088084 0
-0.16298117 -1.8754839 -0.090596996 0
-0.18430932 -1.9907641 -0.090858929 0
-0.21163319 -2.1384518 -0.09110067 0
-0.24593976 -2.3238814 -0.089768566 0
-0.29861382 -2.6085885 -0.091493823 0
-0.3731426 -3.0114224 -0.090979047 0
-0.49878165 -3.690511 -0.091074981 0
-0.9445138 -6.0997267 -0.14098166 0
-1.8894143 -11.206986 -0.14062718 0
-0.14173965 -1.8866966 -0.092180707 0
-0.15890923 -1.9946612 -0.090771399 0
-0.18148839 -2.136642 -0.08996769 0
-0.21311805 -2.3355334 -0.090600617 0
-0.25790483 -2.6171589 -0.091674514 0
-0.32108575 -3.0144489 -0.090433799 0
-0.43232307 -3.7139242 -0.091900639 0
-0.81390584 -6.113368 -0.14057684 0
-1.630527 -11.248392 -0.14055566 0
-0.11759456 -1.8790758 -0.089835577 0
-0.13359419 -1.9991429 -0.090917252 0
-0.15332276 -2.1471932 -0.091014348 0
-0.178601 -2.3368902 -0.090087883 0
-0.21567665 -2.6151195 -0.090725027 0
-0.26830706 -3.010077 -0.089317657 0
-0.35947144 -3.6942077 -0.089800231 0
-0.68496376 -6.1368198 -0.14078929 0
-1.3723286 -11.295056 -0.14076127 0
-0.095532969 -1.8857436 -0.090682082 0
-0.10791703 -2.0007787 -0.090644844 0
-0.12375531 -2.1478996 -0.090548538 0
-0.1444311 -2.3399563 -0.089941479 0
-0.17443283 -2.6186409 -0.09055727 0
-0.21797025 -3.0230582 -0.089958869 0
-0.29246429 -3.71503 -0.090685405 0
-0.55504352 -6.1541162 -0.14086552 0
-1.1122311 -11.329808 -0.14084038 0
-0.073284924 -1.8927722 -0.09172269 0
-0.082346648 -2.0030224 -0.090610512 0
-0.09426108 -2.1479802 -0.090103678 0
-0.1097135 -2.3359833 -0.088924564 0
-0.13349368 -2.6253066 -0.090880774 0
-0.16647723 -3.0266037 -0.089834206 0
-0.22346637 -3.7199664 -0.090573199 0
-0.42446181 -6.1653924 -0.14081374 0
-0.85060585 -11.350106 -0.14073548 0
-0.050059978 -1.8872215 -0.090203233 0
-0.056740478 -2.0047624 -0.090603061 0
-0.065607458 -2.1607738 -0.091874875 0
-0.076404199 -2.3507385 -0.090668775 0
-0.081360757 -2.4379473 -0.068611942 0
-0.081124 -2.4337819 -0.034076337 0
-0.080254339 -2.4184804 0.00089542777 0
-0.081132993 -2.4339399 0.033606786 0
-0.081304155 -2.4369516 0.067257352 0
-0.080889635 -2.4296582 0.10101158 0
-0.027716793 -1.8986409 -0.092418738 0
-0.03115619 -2.0076509 -0.090933882 0
-0.035913356 -2.158427 -0.091274075 0
-0.040866751 -2.3154223 -0.085489593 0
-0.040638298 -2.3081818 -0.053249259 0
-0.040665582 -2.3090465 -0.022277197 0
-0.040452264 -2.3022854 0.0091341231 0
-0.040661175 -2.3089068 0.039505638 0
-0.04059777 -2.3068972 0.070320256 0
-0.040916257 -2.3169913 0.10100832 0
-0.0047492124 -1.8967453 -0.091923468 0
-0.0066294973 -2.1948638 -0.068457566 0
-0.006712364 -2.2080023 -0.041467104 0
-0.0067459173 -2.2133222 -0.013283251 0
-0.0067559103 -2.2149067 0.015286693 0
-0.0066851997 -2.2036955 0.044433154 0
-0.0066555436 -2.1989934 0.072843745 0
-0.0066669462 -2.2008014 0.10100499 0
0.023772791 -2.1937273 -0.068324782 0
0.023949547 -2.2030652 -0.040912647 0
0.023978671 -2.2046037 -0.012487514 0
0.023802046 -2.1952727 0.016645888 0
0.023875665 -2.199162 0.044635244 0
0.023892006 -2.2000253 0.072815269 0
0.024000106 -2.2057362 0.10100513 0
0.054706782 -2.2052646 -0.070082597 0
0.054201119 -2.1938212 -0.03994425 0
0.054587796 -2.2025719 -0.012388041 0
0.054422375 -2.1988282 0.016329909 0
0.054661475 -2.2042391 0.044353772 0
0.054279074 -2.1955853 0.072896175 0
0.054427084 -2.1989348 0.10100497 0
0.063701704 -1.8917745 -0.091325842 0
0.084511437 -2.1911716 -0.039836083 0
0.084583312 -2.1922057 -0.01158083 0
0.084736161 -2.1944048 0.016518416 0
0.085676141 -2.2079284 0.04410034 0
0.084879585 -2.1964684 0.072835304 0
0.084541433 -2.1916032 0.1010048 0
0.11672621 -2.2088768 -0.013377605 0
0.1164386 -2.2058465 0.015539588 0
0.11567608 -2.1978123 0.044455327 0
0.11556035 -2.196593 0.072773971 0
0.11527636 -2.1936007 0.10100494 0
0.14623809 -2.1954167 -0.012423245 0
0.14608236 -2.1941237 0.016132632 0
0.1469423 -2.2012639 0.044139735 0
0.14569421 -2.190901 0.072830565 0
0.1455472 -2.1896803 0.10100491 0
0.17765713 -2.1984413 0.015541824 0
0.17747833 -2.1972175 0.044138681 0
0.17798576 -2.20069 0.072505757 0
0.17809191 -2.2014167 0.10100537 0
0.21005116 -2.204891 0.072292186 0
0.2107535 -2.2089744 0.10100573 0
0.24311845 -2.2116628 0.071997471 0
0.24113269 -2.2016385 0.10100568 0
0.27143896 -2.1942756 0.072256938 0
0.27338362 -2.2029395 0.1010059 0
0.41806942 -1.9166385 -0.090550177 0
0.41066328 -1.7896025 -0.090139456 0
0.45624405 -1.7778412 -0.092575423 0
0.5086996 -1.8686967 -0.090290435 0
0.58695787 -2.0042436 -0.091643713 0
0.6790337 -2.1637235 -0.089611031 0
0.81864083 -2.4055295 -0.090156116 0
1.0237449 -2.7607794 -0.089960821 0
1.3730433 -3.3657808 -0.090870433 0
2.5950513 -5.4823565 -0.14056195 0
5.1986737 -9.9919529 -0.14072688 0
0.47368598 -1.7623273 -0.091634639 0
0.52722031 -1.8498731 -0.089024685 0
0.6101799 -1.9855386 -0.090950765 0
0.70684451 -2.1436162 -0.089178585 0
0.85231847 -2.3815124 -0.089753948 0
1.0726569 -2.7418363 -0.090773337 0
1.4271157 -3.3214898 -0.090139844 0
2.7109153 -5.4209132 -0.14085871 0
5.4191418 -9.8497305 -0.14050303 0
0.49175727 -1.748171 -0.091132589 0
0.54673272 -1.8331773 -0.088319458 0
0.63465959 -1.9691352 -0.090810739 0
0.74454027 -2.1390393 -0.091454796 0
0.88023776 -2.3488631 -0.088261046 0
1.1198541 -2.7193723 -0.091343991 0
1.4894202 -3.290818 -0.090643816 0
2.821243 -5.3501635 -0.14080524 0
5.6471157 -9.7196989 -0.14076595 0
0.51073229 -1.735523 -0.091126554 0
0.57494211 -1.8295193 -0.090687282 0
0.66299319 -1.9584165 -0.091921724 0
0.76372522 -2.1058772 -0.089066096 0
0.92345625 -2.3397062 -0.090166263 0
1.1611012 -2.6875925 -0.091005035 0
1.5534738 -3.2619839 -0.091444187 0
2.9290228 -5.2756386 -0.14069369 0
5.8684745 -9.5786772 -0.14088465 0
0.52679169 -1.7188076 -0.090179048 0
0.59592628 -1.8147243 -0.090676703 0
0.6768409 -1.9269848 -0.089000337 0
0.79662538 -2.0931728 -0.090260722 0
0.95287663 -2.3099546 -0.089295141 0
1.1995319 -2.6521623 -0.090358563 0
1.6090056 -3.220263 -0.091286816 0
3.0377133 -5.2024412 -0.14081104 0
6.0832601 -9.4278097 -0.14088206 0
0.54442829 -1.7045157 -0.089967407 0
0.61680663 -1.7997706 -0.090752445 0
0.70112246 -1.9107361 -0.089227952 0
0.81733322 -2.0636775 -0.088660069 0
0.99217838 -2.2937858 -0.090508915 0
1.2450947 -2.6266413 -0.090973906 0
1.6589098 -3.1712508 -0.090608127 0
3.1425946 -5.1238828 -0.14077613 0
6.2967954 -9.2750301 -0.14098044 0
0.57019824 -1.7004423 -0.092653655 0
0.64258432 -1.7908765 -0.09241762 0
0.72532195 -1.8942434 -0.08953657 0
0.85322779 -2.0540402 -0.090694584 0
1.017668 -2.2594807 -0.089179434 0
1.2892404 -2.5987647 -0.091456346 0
1.7167647 -3.1328847 -0.090980642 0
3.2509041 -5.0495348 -0.14114788 0
6.494298 -9.1016111 -0.14062509 0
0.57835829 -1.6744597 -0.089486413 0
0.66138983 -1.7729911 -0.092062481 0
0.75756228 -1.8871167 -0.09199474 0
0.87749606 -2.029439 -0.090187527 0
1.05627 -2.2415855 -0.09042681 0
1.3290699 -2.5653105 -0.091402911 0
1.7652497 -3.0829144 -0.090432383 0
3.3446529 -4.9571528 -0.14059445 0
6.703476 -8.9429846 -0.1408619 0
0.6011669 -1.6661068 -0.09131413 0
0.67475927 -1.7490942 -0.090304188 0
0.77099508 -1.8576157 -0.089770488 0
0.91061449 -2.0150592 -0.091702737 0
1.0880278 -2.2151213 -0.090514384 0
1.3643199 -2.5266855 -0.090827294 0
1.8173192 -3.0375156 -0.090412028 0
3.4457996 -4.8738914 -0.14074166 0
6.9020314 -8.7713528 -0.14086224 0
0.6192292 -1.6520092 -0.091680773 0
0.6912657 -1.7292262 -0.089627825 0
0.79142809 -1.8365918 -0.089474015 0
0.93624616 -1.9918245 -0.091711007 0
1.117869 -2.1865087 -0.090387322 0
1.4069022 -2.4963279 -0.091405593 0
1.8539958 -2.9755743 -0.088933833 0
3.5445998 -4.7877584 -0.14087027 0
7.0859838 -8.5838223 -0.1405146 0
0.62809616 -1.6283956 -0.089356877 0
0.72003412 -1.7220901 -0.092402838 0
0.81555206 -1.8194329 -0.090177394 0
0.96463537 -1.9713645 -0.092391632 0
1.1424967 -2.1526239 -0.089515649 0
1.4385363 -2.4543192 -0.090613656 0
1.9095452 -2.9343269 -0.08953508 0
3.6375332 -4.6953287 -0.14075214 0
7.2808647 -8.408267 -0.14069782 0
0.65057462 -1.6187186 -0.091296382 0
0.73242575 -1.6980278 -0.090863697 0
0.83169311 -1.7942122 -0.089137293 0
0.98072565 -1.9386164 -0.090751491 0
1.1724111 -2.1243489 -0.089666314 0
1.4827628 -2.4250622 -0.09161704 0
1.9546256 -2.8822708 -0.089205362 0
3.7264349 -4.5990548 -0.14052866 0
7.471333 -8.2276506 -0.14087905 0
0.66254592 -1.5987171 -0.090226211 0
0.74542183 -1.6750605 -0.089672081 0
0.8664155 -1.7865171 -0.092417173 0
0.99970663 -1.9093019 -0.089861192 0
1.2096134 -2.1026633 -0.09108638 0
1.5130104 -2.3821456 -0.090918221 0
2.5403619 -3.3285186 -0.14039911 0
3.8196852 -4.5070019 -0.14074123 0
7.6521521 -8.0373831 -0.14089695 0
0.68126553 -1.5849427 -0.091230281 0
0.77017856 -1.6627933 -0.09159752 0
0.87701219 -1.7563348 -0.090398155 0
1.0260358 -1.8868171 -0.090502702 0
1.2252125 -2.0612123 -0.089205556 0
1.5413839 -2.3380461 -0.090138085 0
2.6043961 -3.2688 -0.14094009 0
3.9034777 -4.4062514 -0.14050937 0
7.8241739 -7.8391399 -0.14079273 0
0.69387645 -1.5657573 -0.090621583 0
0.77961975 -1.637092 -0.08980722 0
0.89842373 -1.7359318 -0.090897821 0
1.0483471 -1.8606615 -0.090501256 0
1.254643 -2.0322909 -0.089627393 0
1.5610546 -2.2872121 -0.08845409 0
2.6585805 -3.2003069 -0.14071263 0
3.9909432 -4.3087754 -0.14066045 0
7.9981732 -7.6426187 -0.14090347 0
0.70558995 -1.5460284 -0.089914329 0
0.79895401 -1.6197978 -0.09058439 0
0.91663504 -1.7127808 -0.09082631 0
1.0755116 -1.8383135 -0.091488592 0
1.273429 -1.9946934 -0.088565238 0
1.6056713 -2.2572069 -0.089925088 0
2.7227318 -3.139827 -0.14153334 0
4.0715179 -4.2055392 -0.14054719 0
8.1551676 -7.4321413 -0.14065664 0
0.71668065 -1.5260242 -0.089188464 0
0.81111592 -1.5968443 -0.089762203 0
0.93121904 -1.6869136 -0.090132184 0
1.0946884 -1.8095046 -0.091154344 0
1.3100594 -1.9710184 -0.090269826 0
1.6271983 -2.2088513 -0.088763885 0
2.7730896 -3.068193 -0.14126806 0
4.1658645 -4.1126804 -0.14139058 0
8.3173704 -7.2260313 -0.14072171 0
0.73302597 -1.509951 -0.089979045 0
0.82805681 -1.5775399 -0.090194322 0
0.95455229 -1.6675076 -0.091347866 0
1.1182616 -1.7839429 -0.091710798 0
1.3326007 -1.9363877 -0.090009965 0
1.671823 -2.1776536 -0.090410031 0
2.8141301 -2.990099 -0.14036474 0
4.2403016 -4.0044379 -0.14121674 0
8.4841623 -7.0228066 -0.14106637 0
0.75522983 -1.4975822 -0.092362903 0
0.83605778 -1.5520519 -0.088700347 0
0.96901852 -1.6416535 -0.090883665 0
1.1293675 -1.7497121 -0.090255372 0
1.3451525 -1.8951287 -0.088470899 0
1.694088 -2.130275 -0.089601137 0
2.8581228 -2.9147134 -0.13989314 0
4.3052726 -3.8899422 -0.14066912 0
8.625473 -6.8013072 -0.1408359 0
0.76259303 -1.4750595 -0.09104652 0
0.8622933 -1.5386493 -0.091448687 0
0.98669529 -1.6179941 -0.091181003 0
1.148904 -1.7214521 -0.090373643 0
1.3729186 -1.8643306 -0.089210995 0
1.737156 -2.0966444 -0.09124174 0
2.9174137 -2.8494234 -0.14085668 0
4.3809452 -3.782877 -0.14088209 0
8.7666111 -6.5800929 -0.14075981 0
0.77649325 -1.4568257 -0.091514699 0
0.87152475 -1.5141169 -0.090490855 0
0.99709278 -1.5898175 -0.090192385 0
1.1644561 -1.690715 -0.089954294 0
1.397149 -1.8309975 -0.089564316 0
1.7676404 -2.0543537 -0.091579325 0
2.9658113 -2.7766893 -0.14105204 0
4.4471126 -3.6697142 -0.14072317 0
8.8955708 -6.3515344 -0.14050703 0
0.78895563 -1.4376292 -0.091737963 0
0.88204664 -1.4905951 -0.089961492 0
1.0168148 -1.567274 -0.091116525 0
1.1878893 -1.66461 -0.090941586 0
1.4129286 -1.7926505 -0.088890247 0
1.7863868 -2.0051365 -0.090767048 0
2.9998498 -2.6955593 -0.14023842 0
4.5124879 -3.5562034 -0.14067826 0
9.0296726 -6.1263404 -0.14055088 0
0.78313804 -1.4085574 -0.087667249 0
0.90369493 -1.4731798 -0.091944762 0
1.0273844 -1.5394814 -0.090428434 0
1.2016436 -1.6328899 -0.090478085 0
1.4415004 -1.7614609 -0.090050779 0
1.8110461 -1.9595494 -0.090724371 0
3.04986 -2.6235938 -0.14086618 0
4.5815873 -3.444649 -0.14098302 0
9.1588173 -5.8981919 -0.14061435 0
0.80532783 -1.3946666 -0.090490378 0
0.91939121 -1.4521517 -0.092740916 0
1.0463494 -1.5161353 -0.091424085 0
1.2214936 -1.6044036 -0.091106571 0
1.4517201 -1.720432 -0.088898502 0
1.8301494 -1.9111511 -0.090222545 0
3.0867209 -2.5444317 -0.14059973 0
4.6395564 -3.3270223 -0.14085145 0
9.287529 -5.6694837 -0.14081666 0
0.82480919 -1.3787382 -0.092726208 0
0.92803061 -1.4275333 -0.092168696 0
1.0526263 -1.4864326 -0.090209179 0
1.2230325 -1.5669875 -0.088993691 0
1.4869044 -1.6917259 -0.09112186 0
1.8638941 -1.8699377 -0.091365226 0
3.1214743 -2.4644248 -0.14032891 0
4.6941223 -3.2078521 -0.14070004 0
9.395133 -5.4301276 -0.14062314 0
0.83023387 -1.3559977 -0.091764189 0
0.93757284 -1.4034638 -0.091917463 0
1.0660714 -1.4602869 -0.0904314 0
1.2369171 -1.5358362 -0.088947259 0
1.4972059 -1.650938 -0.0902339 0
1.8735704 -1.8173695 -0.090145595 0
3.1630383 -2.3875825 -0.14073698 0
4.7430201 -3.0862634 -0.14041574 0
9.5140963 -5.1960716 -0.14087501 0
0.8406086 -1.3355296 -0.092082955 0
0.94713312 -1.3794568 -0.091796957 0
1.0803069 -1.4343731 -0.090909772 0
1.2576447 -1.5075014 -0.090061702 0
1.5110319 -1.6119899 -0.089931555 0
1.9040687 -1.7740651 -0.091175564 0
3.198581 -2.3078787 -0.14083295 0
4.8003068 -2.9683771 -0.14071225 0
9.6047907 -4.9495859 -0.14056268 0
0.84499288 -1.3126698 -0.091153242 0
0.94297737 -1.3502115 -0.089033894 0
1.0770775 -1.4015906 -0.08842542 0
1.2677757 -1.4746547 -0.089678876 0
1.5259303 -1.5735641 -0.089889966 0
1.9261354 -1.7268987 -0.091462635 0
3.2245474 -2.2243724 -0.14036244 0
4.8360262 -2.8417945 -0.14007974 0
9.7042141 -4.7069921 -0.1406264 0
0.85842925 -1.2932372 -0.092403971 0
0.95936143 -1.329015 -0.09054815 0
1.0962977 -1.3775553 -0.090022661 0
1.275923 -1.4412276 -0.089127861 0
1.5462847 -1.5370636 -0.09064614 0
1.9416361 -1.6772051 -0.091215365 0
3.2670326 -2.1470227 -0.14127839 0
4.8955307 -2.7242818 -0.14078622 0
9.7960854 -4.4613972 -0.14065498 0
0.86245966 -1.2704078 -0.091651477 0
0.98238403 -1.309541 -0.093471713 0
1.1055917 -1.3497454 -0.089996122 0
1.2894095 -1.4097279 -0.089495875 0
1.5664542 -1.5001317 -0.091487102 0
1.9540886 -1.6266226 -0.090794496 0
3.2929962 -2.0635281 -0.14111608 0
4.9342284 -2.5990865 -0.14061385 0
9.8828745 -4.213903 -0.14071132 0
0.85658705 -1.2447925 -0.088836111 0
0.97651809 -1.2806058 -0.09079174 0
1.1141405 -1.3217021 -0.089962833 0
1.3053541 -1.3788017 -0.090338744 0
1.5456061 -1.4505448 -0.087432899 0
1.955938 -1.5730767 -0.08946877 0
3.3164213 -1.9793395 -0.14092413 0
4.9795561 -2.4759789 -0.14091906 0
