# .PCD v0.7 - Point Cloud Data file format
VERSION 0.7
FIELDS x y z intensity
SIZE 4 4 4 4
TYPE F F F F
COUNT 1 1 1 1
WIDTH 1314
HEIGHT 1
VIEWPOINT 0 0 0 1 0 0 0
POINTS 1314
DATA ascii
-1.3163111 -1.9514486 -0.089679502 0
-1.6548425 -2.1987145 -0.090421267 0
-2.7977989 -3.0335393 -0.14132479 0
-4.1950774 -4.0541229 -0.14093482 0
-8.3926926 -7.1200957 -0.1407005 0
-0.72183806 -1.5457416 -0.092926852 0
-0.81748497 -1.6193742 -0.09357699 0
-0.92083251 -1.6989352 -0.090223335 0
-1.0776663 -1.819672 -0.090332128 0
-1.2974072 -1.9888371 -0.090533711 0
-1.6356449 -2.2492256 -0.091816492 0
-2.7369058 -3.0970194 -0.14058159 0
-4.1136699 -4.1569061 -0.14077367 0
-8.2367115 -7.3309851 -0.14074093 0
-0.69387585 -1.5526994 -0.089179851 0
-0.78118801 -1.623495 -0.088693596 0
-0.90426123 -1.7232867 -0.090567626 0
-1.0590303 -1.8487786 -0.090813167 0
-1.2720063 -2.0214663 -0.09056861 0
-1.5993446 -2.2868829 -0.091337033 0
-2.6841226 -3.1664562 -0.14069575 0
-4.0405989 -4.2663312 -0.14126281 0
-8.0767365 -7.5389633 -0.1408204 0
-0.68498111 -1.5747819 -0.090728559 0
-0.77501458 -1.651629 -0.091189004 0
-0.88698804 -1.7472026 -0.090899162 0
-1.0420903 -1.8795885 -0.091752328 0
-1.2490728 -2.0562561 -0.091108643 0
-1.5596262 -2.3213255 -0.090543114 0
-2.6317213 -3.2364004 -0.14100693 0
-3.954802 -4.3657012 -0.14115095 0
-7.9084606 -7.7403026 -0.14080663 0
-0.6666193 -1.5888753 -0.089765452 0
-0.7517336 -1.6653186 -0.089588366 0
-0.87286627 -1.774111 -0.092066385 0
-1.0186679 -1.9050592 -0.091633849 0
-1.2226416 -2.0882533 -0.091248028 0
-1.5365089 -2.3701456 -0.09192168 0
-2.5727208 -3.3007941 -0.1408692 0
-3.8709123 -4.4667335 -0.14131114 0
-7.738297 -7.9401307 -0.14089064 0
-0.6648556 -1.6183556 -0.093735702 0
-0.74192697 -1.6911712 -0.091529109 0
-0.84845299 -1.7918149 -0.091086604 0
-0.99693906 -1.9321017 -0.091962792 0
-1.1855617 -2.1103089 -0.089806996 0
-1.4945494 -2.4022346 -0.091070332 0
-1.9800241 -2.8609016 -0.089553975 0
-3.7732129 -4.5550718 -0.14075215 0
-7.5581717 -8.1310291 -0.14081757 0
-0.63064033 -1.6169374 -0.088302337 0
-0.71491128 -1.7006788 -0.089120708 0
-0.81978172 -1.8048902 -0.089197703 0
-0.96255332 -1.9467645 -0.089926086 0
-1.1543568 -2.1373627 -0.089388035 0
-1.4624449 -2.4435143 -0.091599517 0
-1.9314708 -2.9095926 -0.089484967 0
-3.691005 -4.6580687 -0.14134033 0
-7.3753567 -8.3192654 -0.1408105 0
-0.6138922 -1.6319308 -0.088083751 0
-0.69810474 -1.719947 -0.089494057 0
-0.80368894 -1.8303002 -0.090326183 0
-0.94020295 -1.9729803 -0.090355895 0
-1.1277757 -2.1690252 -0.089853548 0
-1.4194593 -2.4738834 -0.090812616 0
-1.8879317 -2.9635158 -0.09004391 0
-3.591157 -4.7436714 -0.14092916 0
-7.1934552 -8.5086765 -0.14099175 0
-0.6107437 -1.6618198 -0.092273138 0
-0.67961949 -1.7375424 -0.089542322 0
-0.78261042 -1.8507714 -0.090423174 0
-0.91980016 -2.0015988 -0.091340922 0
-1.0992274 -2.1988628 -0.090127446 0
-1.3737917 -2.500721 -0.089736469 0
-1.8458585 -3.0197148 -0.090910383 0
-3.4938958 -4.8315797 -0.14083292 0
-7.0014052 -8.6877632 -0.14099042 0
-0.58863205 -1.671316 -0.090664811 0
-0.6612137 -1.7552744 -0.089741029 0
-0.75548518 -1.8643223 -0.089131497 0
-0.89401531 -2.0245662 -0.091351621 0
-1.0685924 -2.2265074 -0.090169244 0
-1.3436447 -2.5446725 -0.090938993 0
-1.7909609 -3.062103 -0.090581127 0
-3.4011693 -4.9247017 -0.14121239 0
-6.7980785 -8.8540564 -0.14074662 0
-0.57369298 -1.6889664 -0.091487579 0
-0.64680171 -1.7779784 -0.091262005 0
-0.74278337 -1.8948389 -0.091621749 0
-0.85926181 -2.0366547 -0.089503281 0
-1.0434184 -2.2608707 -0.091344543 0
-1.2992479 -2.5723505 -0.090244092 0
-1.739441 -3.1082985 -0.09072978 0
-3.2946522 -5.0018134 -0.14076205 0
-6.5940843 -9.0189676 -0.1406223 0
-0.55914474 -1.707459 -0.092624076 0
-0.62897092 -1.796988 -0.091958679 0
-0.71727204 -1.9102049 -0.090973236 0
-0.84445459 -2.0732741 -0.092220895 0
-1.0045567 -2.2785521 -0.090119533 0
-1.2623564 -2.6090946 -0.090769939 0
-1.6810875 -3.1459782 -0.090237014 0
-3.1955054 -5.0877161 -0.1409999 0
-6.3991165 -9.1952839 -0.14099009 0
-0.53613919 -1.7150028 -0.090942182 0
-0.60562795 -1.8088911 -0.091083728 0
-0.69370127 -1.9278896 -0.090943776 0
-0.81510603 -2.0919235 -0.09181235 0
-0.97346717 -2.3058898 -0.09046527 0
-1.2227095 -2.6426489 -0.091024823 0
-1.6346306 -3.1992083 -0.091235168 0
-3.0844498 -5.158103 -0.14048101 0
-6.1847477 -9.3470106 -0.1407835 0
-0.51454759 -1.7238916 -0.089791276 0
-0.58571392 -1.8253009 -0.091397963 0
-0.66892475 -1.9438733 -0.090693824 0
-0.78443158 -2.1084661 -0.09117768 0
-0.94449729 -2.3365538 -0.091392897 0
-1.1814144 -2.6741519 -0.09115646 0
-1.5690322 -3.2264929 -0.090100996 0
-2.9822054 -5.2402115 -0.14079879 0
-5.9699616 -9.4976521 -0.14070484 0
-0.49712139 -1.7385793 -0.0902799 0
-0.56288052 -1.8375009 -0.090869494 0
-0.63970631 -1.9530702 -0.089233138 0
-0.75093049 -2.1203852 -0.089905046 0
-0.90961504 -2.3590949 -0.091268651 0
-1.1380506 -2.7027311 -0.091076083 0
-1.5169699 -3.2727408 -0.090717785 0
-2.86852 -5.3058815 -0.14033787 0
-5.7629375 -9.6599636 -0.14110595 0
-0.47970593 -1.7535288 -0.090937994 0
-0.5399406 -1.8492963 -0.090388618 0
-0.61902332 -1.9750305 -0.090417914 0
-0.72412276 -2.1421287 -0.090425096 0
-0.87635458 -2.3841631 -0.091617875 0
-1.0924577 -2.7277467 -0.090725712 0
-1.4602549 -3.3125103 -0.090899237 0
-2.7620847 -5.3822975 -0.14063431 0
-5.5399714 -9.7988768 -0.14100282 0
-0.454427 -1.755581 -0.088506721 0
-0.52401912 -1.8726814 -0.09258204 0
-0.59567755 -1.9932586 -0.090972118 0
-0.69216496 -2.1556149 -0.089698948 0
-0.83546764 -2.3967454 -0.090379424 0
-1.0414622 -2.7433658 -0.089486174 0
-1.4054782 -3.3558836 -0.091488399 0
-2.656291 -5.4605846 -0.14117429 0
-5.3129864 -9.9309187 -0.14086872 0
-0.44072491 -1.7771316 -0.09101779 0
-0.49458867 -1.873206 -0.089895792 0
-0.56602567 -2.0006249 -0.089583822 0
-0.66312534 -2.1738174 -0.089873813 0
-0.80042899 -2.4187198 -0.090556048 0
-1.0025144 -2.7791705 -0.090562843 0
-1.3421283 -3.3849251 -0.091032274 0
-2.544266 -5.5291247 -0.14133003 0
-5.0842304 -10.059547 -0.1407994 0
-0.41928378 -1.7853308 -0.090370111 0
-0.47320819 -1.8874725 -0.090331219 0
-0.54077929 -2.0154634 -0.089742608 0
-0.63849151 -2.2005465 -0.091518648 0
-0.75955266 -2.4298563 -0.089415677 0
-0.9522934 -2.7949393 -0.08961495 0
-1.279074 -3.4139161 -0.090705447 0
-1.9244434 -4.6363525 -0.09102612 0
-4.8575735 -10.192187 -0.1409893 0
-0.39838871 -1.7943172 -0.090046547 0
-0.44881135 -1.8959578 -0.089659907 0
-0.51889902 -2.0372386 -0.091289766 0
-0.60958773 -2.2200465 -0.09210714 0
-0.72937781 -2.4615159 -0.091102503 0
-0.91750759 -2.8407428 -0.091941275 0
-1.2190475 -3.4485791 -0.090950333 0
-1.8282098 -4.6765113 -0.090648808 0
-4.6191001 -10.302312 -0.14074191 0
-0.38054302 -1.8097134 -0.091353692 0
-0.4294394 -1.914861 -0.09128911 0
-0.48571673 -2.0358806 -0.088726602 0
-0.57282054 -2.2231901 -0.090267487 0
-0.68395275 -2.4621706 -0.088872127 0
-0.8650344 -2.8515716 -0.090731107 0
-1.1569943 -3.4794071 -0.091014214 0
-1.7421865 -4.7378139 -0.091486938 0
-4.3862085 -10.423562 -0.14093797 0
-0.35296246 -1.8035289 -0.087749742 0
-0.40925133 -1.9330223 -0.092849188 0
-0.46267226 -2.0559177 -0.09017653 0
-0.5395357 -2.2327433 -0.089573108 0
-0.64666641 -2.4791989 -0.088899635 0
-0.8229655 -2.8847775 -0.091947205 0
-1.0869956 -3.492183 -0.089821376 0
-1.6401874 -4.7648087 -0.090685196 0
-4.1473508 -10.532574 -0.1409715 0
-0.33545709 -1.8199807 -0.089534156 0
-0.3805891 -1.9314169 -0.090480693 0
-0.43544626 -2.0668657 -0.090103664 0
-0.50632012 -2.2418616 -0.0889479 0
-0.61493331 -2.5100403 -0.09078791 0
-0.7668609 -2.8851674 -0.089953683 0
-1.0278752 -3.5296421 -0.090636395 0
-1.5418345 -4.7986679 -0.090366401 0
-3.9045637 -10.632523 -0.14092937 0
-0.31591186 -1.8322507 -0.090452932 0
-0.35945094 -1.9480703 -0.09195485 0
-0.40700513 -2.0745707 -0.089583375 0
-0.48015848 -2.2691681 -0.091185801 0
-0.57770723 -2.5286605 -0.091232948 0
-0.71979189 -2.9066241 -0.090221636 0
-0.9648689 -3.5585611 -0.090917863 0
-1.4497353 -4.8483686 -0.090962596 0
-3.656395 -10.718371 -0.14069036 0
-0.29460108 -1.8401468 -0.090490989 0
-0.33366656 -1.9526023 -0.091106094 0
-0.38001221 -2.0860145 -0.089843608 0
-0.44237715 -2.2655406 -0.088900752 0
-0.53555435 -2.5337641 -0.090118565 0
-0.67746592 -2.9422762 -0.092007853 0
-0.90039623 -3.584012 -0.09105847 0
-1.3484143 -4.8736944 -0.090467356 0
-3.4125669 -10.815643 -0.1408895 0
-0.27374545 -1.8495455 -0.090984546 0
-0.30873403 -1.9591082 -0.090783663 0
-0.34955111 -2.0869222 -0.088401966 0
-0.40933791 -2.2741377 -0.088578694 0
-0.50082195 -2.5606093 -0.091811635 0
-0.62352306 -2.9448338 -0.090642102 0
-0.82755738 -3.583744 -0.089430384 0
-1.2496495 -4.905477 -0.090417169 0
-3.1623306 -10.894818 -0.14079617 0
-0.25206232 -1.8565779 -0.091067545 0
-0.28373289 -1.9651291 -0.09049239 0
-0.32416874 -2.1037235 -0.089824088 0
-0.37932026 -2.2927558 -0.089848615 0
-0.45702153 -2.5590777 -0.090144671 0
-0.57222354 -2.953934 -0.090055414 0
-0.76641899 -3.6195409 -0.090575062 0
-1.1516089 -4.939784 -0.090611108 0
-2.9158235 -10.986648 -0.14116357 0
-0.22930685 -1.8596909 -0.090408973 0
-0.25732163 -1.9655789 -0.089240991 0
-0.29749185 -2.1174111 -0.090816744 0
-0.34783623 -2.307699 -0.090686373 0
-0.41661131 -2.5676496 -0.089844368 0
-0.52297205 -2.9696636 -0.090238161 0
-0.70106661 -3.6428118 -0.090918265 0
-1.051036 -4.9655991 -0.090514399 0
-2.6597216 -11.045983 -0.14089721 0
-0.20686972 -1.8635298 -0.090038784 0
-0.23590086 -1.9856411 -0.091923513 0
-0.27001381 -2.1291275 -0.091584496 0
-0.31197932 -2.3056438 -0.089178823 0
-0.37956551 -2.589926 -0.091315098 0
-0.47307745 -2.9832578 -0.090334572 0
-0.63133609 -3.6489284 -0.09014567 0
-0.94549471 -4.9703484 -0.0895321 0
-2.4052074 -11.110221 -0.14090455 0
-0.18651079 -1.8768516 -0.091854148 0
-0.20885736 -1.9826407 -0.09025646 0
-0.23960249 -2.1281891 -0.09033931 0
-0.27808601 -2.3103709 -0.088783853 0
-0.3371985 -2.5902112 -0.090263106 0
-0.42381978 -3.0002787 -0.090877853 0
-0.56460494 -3.6667595 -0.090340294 0
-0.84755993 -5.0062757 -0.090165608 0
-2.1473293 -11.159418 -0.14070754 0
-0.1636364 -1.8790255 -0.091362573 0
-0.18536554 -1.9964731 -0.091952465 0
-0.20833513 -2.1206255 -0.088121183 0
-0.24569699 -2.3225691 -0.08958102 0
-0.29810897 -2.6058598 -0.091169484 0
-0.37098271 -2.999748 -0.089870863 0
-0.49823225 -3.6875412 -0.090863861 0
-0.94355416 -6.0945401 -0.14073609 0
-1.8907219 -11.214054 -0.14079429 0
-0.141248 -1.883605 -0.09151531 0
-0.15998797 -2.0014443 -0.092065088 0
-0.18058982 -2.1309917 -0.089027368 0
-0.2124732 -2.3314786 -0.0900236 0
-0.25551844 -2.6021528 -0.089898683 0
-0.31825459 -2.9966462 -0.088751204 0
-0.43031645 -3.7013063 -0.091007449 0
-0.8155039 -6.1234164 -0.14105053 0
-1.6317065 -11.255809 -0.14073028 0
-0.11785795 -1.8810523 -0.090259425 0
-0.13340302 -1.9977083 -0.090644665 0
-0.15229715 -2.1394968 -0.089738242 0
-0.17847885 -2.3359737 -0.08995793 0
-0.21615443 -2.6187048 -0.091147773 0
-0.26852325 -3.0116994 -0.089470409 0
-0.36103773 -3.7059619 -0.090629213 0
-0.68517178 -6.138381 -0.1408626 0
-1.3720398 -11.292888 -0.14071043 0
-0.095030472 -1.881076 -0.089684196 0
-0.10774477 -1.9991784 -0.090341695 0
-0.12317763 -2.1425335 -0.089661516 0
-0.14400662 -2.3360133 -0.089384146 0
-0.17435095 -2.6178803 -0.090467863 0
-0.21839038 -3.0269606 -0.090325229 0
-0.29367948 -3.7263176 -0.09147907 0
-0.55539232 -6.1573567 -0.14101724 0
-1.1115966 -11.323914 -0.14070255 0
-0.072544605 -1.8837651 -0.089801662 0
-0.081708975 -1.9952641 -0.089144297 0
-0.093881212 -2.1433585 -0.089341529 0
-0.11095901 -2.3511369 -0.091061346 0
-0.13515911 -2.6455691 -0.093256913 0
-0.16622646 -3.0235527 -0.089548461 0
-0.22408648 -3.7275109 -0.091102414 0
-0.42469844 -6.1682715 -0.14094822 0
-0.85047054 -11.34846 -0.14069708 0
-0.050068058 -1.8873636 -0.090233497 0
-0.055999555 -1.9917262 -0.088143699 0
-0.064787164 -2.1463408 -0.089498989 0
-0.076021217 -2.3440001 -0.089720257 0
-0.081210114 -2.435297 -0.06830167 0
-0.080941319 -2.4305675 -0.033775825 0
-0.080701403 -2.4263463 0.00034463615 0
-0.08102864 -2.4321039 0.033692401 0
-0.080536418 -2.4234436 0.067571931 0
-0.080987804 -2.4313855 0.10101163 0
-0.027252477 -1.8839246 -0.089289047 0
-0.031061009 -2.0046341 -0.090365387 0
-0.035562627 -2.1473107 -0.089446194 0
-0.040636886 -2.3081369 -0.084465213 0
-0.040919133 -2.3170826 -0.05429006 0
-0.040714797 -2.3106062 -0.022422863 0
-0.0408311 -2.3142924 0.0082943011 0
-0.040892534 -2.3162396 0.039164092 0
-0.040797003 -2.3132117 0.07017336 0
-0.04071217 -2.310523 0.10100813 0
-0.0046584774 -1.8823594 -0.088865481 0
-0.0054562041 -2.0088387 -0.091065966 0
-0.0063613914 -2.1523559 -0.090184458 0
-0.0067494973 -2.2138898 -0.071131431 0
-0.0067821224 -2.2190626 -0.04275978 0
-0.0066601541 -2.1997244 -0.012014 0
-0.0066847443 -2.2036233 0.016075524 0
-0.0067212596 -2.2094128 0.044166982 0
-0.0067166928 -2.2086887 0.072618321 0
-0.0067065312 -2.2070775 0.10100517 0
0.01820471 -1.8995684 -0.092554368 0
0.020177834 -2.0038075 -0.090148769 0
0.02276884 -2.1406891 -0.088297121 0
0.023952782 -2.2032361 -0.069661357 0
0.023890838 -2.1999636 -0.040550102 0
0.023936266 -2.2023635 -0.012278376 0
0.023978412 -2.2045901 0.015994402 0
0.023792328 -2.1947594 0.044840239 0
0.023926642 -2.2018552 0.072772719 0
0.024044935 -2.2081046 0.1010052 0
0.040271763 -1.8785987 -0.0882468 0
0.045662522 -2.000592 -0.089694776 0
0.052099533 -2.1462622 -0.08936473 0
0.054632921 -2.203593 -0.069847472 0
0.05437145 -2.1976759 -0.040395204 0
0.05473594 -2.2059243 -0.012701271 0
0.054454908 -2.1995645 0.016278388 0
0.054715354 -2.2054584 0.044296954 0
0.05453629 -2.2014062 0.072760709 0
0.05398237 -2.1888709 0.10100468 0
0.064012058 -1.8962398 -0.092277251 0
0.071973272 -2.0107806 -0.091892086 0
0.081535108 -2.14835 -0.089981891 0
0.085179202 -2.200779 -0.069696225 0
0.085784003 -2.2094803 -0.04198106 0
0.08497186 -2.1977959 -0.012103876 0
0.084855281 -2.1961186 0.01639832 0
0.08485309 -2.1960869 0.044652946 0
0.084887564 -2.196583 0.072832629 0
0.084864624 -2.1962528 0.10100494 0
0.086691588 -1.8924264 -0.09186428 0
0.097470783 -2.0059979 -0.091387682 0
0.1094965 -2.1327031 -0.087795235 0
0.11609375 -2.202213 -0.070253037 0
0.11638561 -2.2052879 -0.041785706 0
0.11658622 -2.2074018 -0.013239322 0
0.1158278 -2.1994109 0.015991511 0
0.11668946 -2.2084894 0.043956023 0
0.11614866 -2.2027915 0.072629206 0
0.11617561 -2.2030754 0.1010052 0
0.10869122 -1.8836656 -0.090513207 0
0.12172169 -1.9918575 -0.089228354 0
0.14124115 -2.1539273 -0.09182217 0
0.14788717 -2.2091091 -0.071694992 0
0.14627106 -2.1956906 -0.041044269 0
0.14724661 -2.2037907 -0.013210511 0
0.14636412 -2.1964633 0.015967892 0
0.14655684 -2.1980634 0.044289809 0
0.14638044 -2.1965988 0.072697133 0
0.14582093 -2.1919532 0.10100498 0
0.13073047 -1.8772933 -0.089789338 0
0.14845005 -1.9985592 -0.091144718 0
0.16821735 -2.1338391 -0.089134999 0
0.17821869 -2.2022843 -0.071307279 0
0.17798124 -2.2006593 -0.042109508 0
0.176109 -2.1878464 -0.012091083 0
0.17675027 -2.192235 0.015980305 0
0.1756018 -2.1843753 0.044742901 0
0.17871031 -2.2056487 0.072389245 0
0.17740376 -2.1967072 0.10100523 0
0.15412366 -1.8797218 -0.091080196 0
0.17261536 -1.9872347 -0.08975295 0
0.19934849 -2.1426644 -0.091371201 0
0.20929481 -2.2004936 -0.071744688 0
0.20965254 -2.2025733 -0.042911861 0
0.21013023 -2.2053506 -0.014203576 0
0.20892358 -2.1983349 0.015205825 0
0.20950291 -2.2017033 0.043698248 0
0.2100087 -2.204644 0.072298013 0
0.21083148 -2.2094278 0.10100574 0
0.17607723 -1.8732314 -0.090572529 0
0.20040312 -1.9960312 -0.092334516 0
0.22585173 -2.1244986 -0.089227714 0
0.23977306 -2.1947749 -0.071733691 0
0.24014211 -2.1966379 -0.042878021 0
0.2414927 -2.2034559 -0.014562255 0
0.24145885 -2.203285 0.014451699 0
0.23954137 -2.1936052 0.043814555 0
0.23983511 -2.1950881 0.072390333 0
0.24137916 -2.2028825 0.10100572 0
0.19767793 -1.8656529 -0.089945339 0
0.22215171 -1.9746894 -0.089247949 0
0.25446254 -2.1186416 -0.089257784 0
0.27181959 -2.1959715 -0.07282909 0
0.27188918 -2.1962814 -0.043604169 0
0.27281481 -2.2004054 -0.014887942 0
0.27298447 -2.2011611 0.014141435 0
0.27257028 -2.199316 0.043236591 0
0.2733402 -2.2027459 0.072055094 0
0.27285957 -2.2006047 0.10100584 0
0.22079872 -1.8646798 -0.090880908 0
0.24828394 -1.9741317 -0.09028431 0
0.28450507 -2.118372 -0.09035679 0
0.30480006 -2.1991909 -0.074341439 0
0.30508238 -2.2003152 -0.044960234 0
0.3036668 -2.1946781 -0.015033944 0
0.30548698 -2.2019265 0.013563776 0
0.30562451 -2.2024741 0.042737581 0
0.30284309 -2.1913979 0.072153136 0
0.30466053 -2.1986353 0.10100599 0
0.24020545 -1.8494697 -0.088810287 0
0.27726486 -1.9827201 -0.093244515 0
0.31338853 -2.112606 -0.090654857 0
0.33671808 -2.1964896 -0.075121783 0
0.34066874 -2.2106946 -0.047196899 0
0.33970845 -2.2072415 -0.01702824 0
0.33914399 -2.2052121 0.012739832 0
0.33790898 -2.2007716 0.042429764 0
0.34023857 -2.2091477 0.071531735 0
0.33819729 -2.2018082 0.10100633 0
0.26567137 -1.855726 -0.091603242 0
0.29974419 -1.9672565 -0.091634251 0
0.34122598 -2.1030388 -0.09042681 0
0.37355223 -2.2088525 -0.078239761 0
0.37300083 -2.2070477 -0.047846157 0
0.36817846 -2.1912625 -0.016340686 0
0.36913672 -2.1943991 0.012878248 0
0.36940432 -2.1952751 0.042264715 0
0.36892995 -2.1937225 0.071689203 0
0.37099046 -2.2004671 0.10100655 0
0.2830599 -1.8356061 -0.088653423 0
0.32556817 -1.9631395 -0.092375301 0
0.36813796 -2.0908573 -0.089865141 0
0.42706218 -2.267642 -0.088398628 0
0.51853693 -2.5420847 -0.090325005 0
0.65233791 -2.9435143 -0.091302969 0
0.86364031 -3.5774643 -0.089753322 0
1.2989244 -4.8834043 -0.090123735 0
3.2888825 -10.853679 -0.14078557 0
0.30994835 -1.8437754 -0.09216956 0
0.3486664 -1.950852 -0.091616713 0
0.39784396 -2.0868549 -0.09084598 0
0.46517935 -2.2730744 -0.090877838 0
0.55646288 -2.5255234 -0.08995115 0
0.69728822 -2.9149828 -0.090164028 0
0.93335789 -3.5678451 -0.090717562 0
1.403628 -4.8684001 -0.091063537 0
3.5358431 -10.765145 -0.14072534 0
0.32813188 -1.8273122 -0.090253823 0
0.37056056 -1.9359939 -0.090448134 0
0.42235458 -2.0686653 -0.089465044 0
0.49687621 -2.2595537 -0.090666674 0
0.59468389 -2.5100896 -0.089834549 0
0.74792796 -2.902627 -0.090747796 0
0.99905282 -3.5458875 -0.090896793 0
1.4980202 -4.8240008 -0.090675019 0
3.7830515 -10.677147 -0.14083272 0
0.35352927 -1.8291715 -0.092646874 0
0.39218169 -1.9212519 -0.089403145 0
0.4548763 -2.0706069 -0.091767468 0
0.52828759 -2.245492 -0.090492137 0
0.63449335 -2.4985023 -0.090325929 0
0.79725087 -2.8862336 -0.09105777 0
1.0630654 -3.5194738 -0.090865143 0
1.5957429 -4.7884521 -0.09084893 0
4.0265269 -10.579222 -0.14084746 0
0.36768845 -1.8046243 -0.089061148 0
0.41498798 -1.9097875 -0.089135252 0
0.48245093 -2.0597808 -0.091942348 0
0.56057519 -2.2334778 -0.090752639 0
0.67149627 -2.4800937 -0.090076827 0
0.84531116 -2.866544 -0.091160648 0
1.1236788 -3.4854512 -0.090373062 0
1.6907669 -4.7462831 -0.090812065 0
4.26231 -10.46371 -0.14056981 0
0.39297715 -1.8051729 -0.091433726 0
0.44110885 -1.90535 -0.090452038 0
0.5053789 -2.0391159 -0.090451576 0
0.59142762 -2.2182102 -0.090635337 0
0.70701641 -2.4587867 -0.089569263 0
0.89234024 -2.8445034 -0.091146193 0
1.1905874 -3.4652491 -0.091064848 0
1.787997 -4.7086449 -0.091131918 0
4.5030532 -10.359526 -0.1407336 0
0.41228124 -1.7927632 -0.0908942 0
0.46631402 -1.898314 -0.091374733 0
0.53283614 -2.0282621 -0.090859048 0
0.62161279 -2.2016835 -0.090439908 0
0.74407637 -2.4409108 -0.089622594 0
0.93889058 -2.8214724 -0.091151394 0
1.245859 -3.4211221 -0.090018459 0
1.8817502 -4.6633086 -0.091180883 0
4.7390332 -10.24489 -0.14078428 0
0.43042397 -1.7784569 -0.09000539 0
0.48349643 -1.8759838 -0.089166112 0
0.5603289 -2.0171726 -0.091356881 0
0.64672405 -2.1759338 -0.088887252 0
0.78410196 -2.4283819 -0.090511747 0
0.98270011 -2.7933295 -0.090737484 0
1.309286 -3.3934696 -0.090379097 0
1.9718089 -4.6109338 -0.090982042 0
4.9720974 -10.124318 -0.14083509 0
0.45404699 -1.7740358 -0.091641404 0
0.50953716 -1.8701473 -0.090605967 0
0.58528322 -2.001343 -0.09109325 0
0.68463552 -2.1734259 -0.091185533 0
0.81503892 -2.3992908 -0.08931417 0
1.0267003 -2.7658982 -0.090512536 0
1.3707228 -3.3617616 -0.090545975 0
2.5984535 -5.4882488 -0.14087872 0
5.2011199 -9.996191 -0.14084065 0
0.46755087 -1.7522944 -0.089134909 0
0.52643752 -1.8485929 -0.08874207 0
0.61478674 -1.9930723 -0.092402063 0
0.70509696 -2.1407583 -0.088707827 0
0.84963626 -2.3771262 -0.089153059 0
1.0748627 -2.7454433 -0.091167994 0
1.4279855 -3.3229125 -0.0902564 0
2.7118299 -5.4224086 -0.14094032 0
5.4307857 -9.8687716 -0.14102197 0
0.49062502 -1.7464201 -0.090689398 0
0.56273448 -1.8579202 -0.09386947 0
0.63944775 -1.976539 -0.092259847 0
0.7415331 -2.1343894 -0.090676583 0
0.88382077 -2.3544033 -0.089032181 0
1.1142511 -2.7107086 -0.090380944 0
1.4900583 -3.2918046 -0.090725966 0
2.8193448 -5.3472281 -0.14064249 0
5.6518455 -9.7270126 -0.14096846 0
0.50808436 -1.7316467 -0.090128697 0
0.577115 -1.8327001 -0.09141285 0
0.65552253 -1.9474802 -0.089744993 0
0.76799417 -2.1121266 -0.090129696 0
0.92515564 -2.3421938 -0.090518378 0
1.1645463 -2.6926358 -0.091575123 0
1.545561 -3.2504001 -0.090463467 0
2.9319956 -5.2799907 -0.14093906 0
5.8701582 -9.5811424 -0.14095406 0
0.52837509 -1.7210044 -0.090754636 0
0.59595352 -1.8147622 -0.090685494 0
0.68628854 -1.9400923 -0.091655858 0
0.79831147 -2.0955122 -0.090665959 0
0.9544363 -2.3121185 -0.089606903 0
1.2062806 -2.6615252 -0.091435872 0
1.6013685 -3.2096674 -0.090373732 0
3.0370212 -5.2014813 -0.14075595 0
6.0845709 -9.4296284 -0.14093418 0
0.55412209 -1.7172734 -0.093373232 0
0.61654079 -1.7994207 -0.090669684 0
0.70622808 -1.9174554 -0.090614907 0
0.8286106 -2.0785193 -0.091279648 0
0.98758638 -2.2877426 -0.089621849 0
1.2417828 -2.6222825 -0.09046296 0
1.6635016 -3.1772938 -0.091138728 0
3.1418483 -5.122901 -0.14071871 0
6.2900524 -9.2661562 -0.14072129 0
0.57021457 -1.7004627 -0.092659213 0
0.63212401 -1.7778082 -0.089264773 0
0.72518814 -1.8940761 -0.089501373 0
0.84863514 -2.0483024 -0.089661725 0
1.0232621 -2.2664697 -0.090225704 0
1.290978 -2.6009357 -0.091715895 0
1.7138205 -3.1292064 -0.090651266 0
3.2452009 -5.0424094 -0.14072299 0
6.5107613 -9.122179 -0.14123763 0
0.58265984 -1.6795642 -0.090905331 0
0.66174787 -1.773416 -0.092167132 0
0.75040942 -1.8786285 -0.090170421 0
0.88257378 -2.0354645 -0.091294907 0
1.0480956 -2.2318852 -0.088944234 0
1.329712 -2.5660725 -0.091495924 0
1.7615858 -3.0785663 -0.090034895 0
3.3451931 -4.9577942 -0.14063348 0
6.70717 -8.9473686 -0.1409952 0
0.59788579 -1.6624069 -0.090262942 0
0.67461228 -1.7489284 -0.090262465 0
0.77840596 -1.8659726 -0.091606222 0
0.90998822 -2.014353 -0.091570087 0
1.0772438 -2.2029607 -0.088614784 0
1.3653936 -2.5278962 -0.090978347 0
1.8178686 -3.0381353 -0.090469934 0
3.4461594 -4.8742971 -0.14076692 0
6.8999238 -8.7689762 -0.14078839 0
0.6258775 -1.6591357 -0.093752421 0
0.68768251 -1.7253854 -0.088638447 0
0.79394114 -1.8392856 -0.090079494 0
0.92940402 -1.9844904 -0.090301417 0
1.1142176 -2.1825948 -0.089761741 0
1.4101415 -2.4998 -0.091848828 0
1.8671283 -2.9896512 -0.090279706 0
3.5473866 -4.7907457 -0.14106049 0
7.0978193 -8.596509 -0.140918 0
0.63205022 -1.6324252 -0.090556912 0
0.71528643 -1.7172517 -0.091126062 0
0.81710154 -1.821012 -0.090540998 0
0.95025337 -1.9567077 -0.089505844 0
1.143693 -2.1538429 -0.08971528 0
1.438068 -2.4538422 -0.090551265 0
1.9109173 -2.9357252 -0.089672036 0
3.6370499 -4.6948361 -0.14072001 0
7.2853298 -8.412818 -0.14084604 0
0.65123945 -1.6193628 -0.091493152 0
0.73389709 -1.6994535 -0.091249563 0
0.84319562 -1.8053576 -0.091769628 0
0.99206161 -1.9496003 -0.092969768 0
1.1653054 -2.1174638 -0.088509955 0
1.3705504 -2.3163347 -0.077032842 0
1.365422 -2.3113656 -0.031850073 0
1.3632824 -2.3092923 0.012660207 0
7.4757686 -8.2319479 -0.14102264 0
0.66383535 -1.599905 -0.090598874 0
0.75097591 -1.6801769 -0.091094397 0
0.86274868 -1.7831393 -0.091597803 0
1.005491 -1.9146303 -0.090966426 0
1.201261 -2.0949693 -0.089759164 0
1.5142492 -2.3832867 -0.091075428 0
1.3729172 -2.2530949 -0.029433167 0
1.3847339 -2.2639802 0.01338304 0
7.6502075 -8.0355921 -0.14083548 0
0.68183893 -1.5854448 -0.091392271 0
0.77075016 -1.6632938 -0.091740631 0
0.87630349 -1.7557143 -0.090243332 0
1.0282516 -1.8887572 -0.090916596 0
1.2263994 -2.0622516 -0.089389928 0
1.3378675 -2.1598511 -0.06488914 0
1.5262127 -2.3247626 -0.040755052 0
1.4039547 -2.2177157 0.014156537 0
1.4008995 -2.2150407 0.05770801 0
0.69445235 -1.5662364 -0.090780832 0
0.78519672 -1.6417319 -0.091173656 0
0.89729637 -1.7349938 -0.090656795 0
1.0509001 -1.8627855 -0.090967976 0
1.2456845 -2.0248377 -0.088265426 0
1.3626845 -2.1221766 -0.064368047 0
1.3574066 -2.1177857 -0.02238371 0
1.3725235 -2.1303625 0.017909953 0
1.3864162 -2.1419206 0.059067953 0
1.4223927 -2.1718514 0.10102318 0
0.70932436 -1.548979 -0.090925999 0
0.80125666 -1.6216172 -0.091137148 0
0.91858691 -1.714323 -0.091235153 0
1.0719773 -1.8355209 -0.090855561 0
1.2719895 -1.993556 -0.088350825 0
1.6026572 -2.2548254 -0.089566536 0
1.3928331 -2.0890379 -0.023041731 0
1.3955129 -2.0911553 0.018228227 0
1.3882412 -2.0854096 0.059862565 0
1.4006667 -2.0952272 0.10102133 0
0.72343147 -1.5310868 -0.090982117 0
0.82289094 -1.6056747 -0.092534401 0
0.93610454 -1.6905774 -0.091135837 0
1.0938981 -1.8089119 -0.09101551 0
1.3128399 -1.9731036 -0.090676017 0
1.5228908 -2.1306276 -0.076594152 0
1.513569 -2.123637 -0.031206137 0
1.4458911 -2.0728831 0.016888598 0
1.4355454 -2.0651245 0.059278719 0
1.4447266 -2.0720098 0.10102192 0
0.73431838 -1.5108702 -0.090316154 0
0.83107495 -1.5796866 -0.09089192 0
0.94851804 -1.6632159 -0.090130888 0
1.1118548 -1.7793862 -0.090605907 0
1.321861 -1.9287493 -0.088469692 0
1.6764028 -2.1809108 -0.090934612 0
2.8223033 -2.9959121 -0.14106588 0
4.231462 -3.9981508 -0.14071174 0
8.4767733 -7.0175519 -0.14085557 0
0.75184232 -1.4952995 -0.091494612 0
0.84799749 -1.5600979 -0.091412164 0
0.96501702 -1.638957 -0.090090625 0
1.1355096 -1.7538513 -0.091296263 0
1.3477536 -1.8968817 -0.088837497 0
1.6890962 -2.1269112 -0.089039274 0
2.8579209 -2.9145775 -0.13987613 0
4.3098087 -3.8929992 -0.14092378 0
8.6227245 -6.7994552 -0.14075884 0
0.75546807 -1.4705153 -0.089250185 0
0.8585903 -1.5362875 -0.090621434 0
0.98379624 -1.616145 -0.090615861 0
1.1473048 -1.7204322 -0.090107091 0
1.3742166 -1.8651584 -0.089390911 0
1.7222626 -2.0871453 -0.089592896 0
2.9137251 -2.8470707 -0.14055082 0
4.3856096 -3.785852 -0.14113966 0
8.7710142 -6.582901 -0.14088124 0
0.76877278 -1.4521713 -0.089598469 0
0.87811768 -1.5180916 -0.091940843 0
0.99806917 -1.5904062 -0.090379767 0
1.1686612 -1.6932502 -0.090644352 0
1.4035029 -1.834828 -0.090431444 0
1.7601222 -2.0498214 -0.090759911 0
2.9634295 -2.7752533 -0.14085759 0
4.4452176 -3.6685719 -0.14062016 0
8.9046345 -6.3569984 -0.14075309 0
0.77687746 -1.4307572 -0.088784136 0
0.89220184 -1.4963732 -0.09216217 0
1.0110706 -1.5640057 -0.090030335 0
1.1814635 -1.660954 -0.089902587 0
1.4138366 -1.793167 -0.089012347 0
1.7850261 -2.0043623 -0.090620913 0
3.0165489 -2.7050605 -0.14158157 0
4.5217905 -3.561496 -0.14117651 0
9.041276 -6.1329422 -0.14086127 0
0.80070871 -1.4179759 -0.091904841 0
0.89971691 -1.4710475 -0.09109465 0
1.0300907 -1.5409321 -0.090933077 0
1.1978503 -1.6308566 -0.089873247 0
1.4498171 -1.765919 -0.091153614 0
1.8176712 -1.9631007 -0.091425993 0
3.0480058 -2.6225998 -0.14071909 0
4.5786295 -3.4430635 -0.14082678 0
9.1762362 -5.9075289 -0.14107387 0
0.80553782 -1.3947723 -0.090540372 0
0.90405583 -1.444423 -0.089506395 0
1.0456189 -1.5157672 -0.091289647 0
1.2190936 -1.6031941 -0.090728886 0
1.4555161 -1.7223451 -0.089395307 0
1.8377323 -1.9149727 -0.091015153 0
3.0843031 -2.5432134 -0.14041044 0
4.6355753 -3.3250158 -0.14064389 0
9.2882671 -5.6698561 -0.14083588 0
0.81937587 -1.3761697 -0.091448732 0
0.92110109 -1.4242575 -0.090725027 0
1.0562078 -1.4881256 -0.09086024 0
1.2381339 -1.5741264 -0.09134116 0
1.4714651 -1.6844274 -0.089125969 0
1.8579576 -1.8671312 -0.090752311 0
3.1336777 -2.4701936 -0.14127257 0
4.6966066 -3.2090263 -0.14082795 0
9.3983727 -5.4316592 -0.14070646 0
0.82750416 -1.3547906 -0.091129757 0
0.92447609 -1.3976723 -0.089220248 0
1.0640635 -1.459399 -0.090070583 0
1.2373047 -1.5360076 -0.089006819 0
1.5063663 -1.6549889 -0.091404505 0
1.8940686 -1.8264339 -0.092237614 0
3.1694651 -2.3904247 -0.14122824 0
4.7611198 -3.0942674 -0.1413371 0
9.5057726 -5.1923909 -0.1406634 0
0.83535641 -1.3333638 -0.09087535 0
0.94585532 -1.3789299 -0.091536619 0
1.074403 -1.4319386 -0.089860208 0
1.2609141 -1.5088495 -0.0905587 0
1.5221233 -1.6165636 -0.091333725 0
1.9024419 -1.7733942 -0.091011308 0
3.1992438 -2.3081522 -0.14088307 0
4.8160291 -2.9748604 -0.14150397 0
9.6163445 -4.9543505 -0.14085326 0
0.83780086 -1.3099141 -0.089516126 0
0.95429528 -1.3545479 -0.091316737 0
1.0815489 -1.4033037 -0.08921238 0
1.2705102 -1.4757024 -0.090090416 0
1.531672 -1.5757639 -0.090608604 0
1.9115642 -1.7213159 -0.090006135 0
3.2364573 -2.2289355 -0.14125407 0
4.8517284 -2.8478105 -0.14086257 0
9.7082472 -4.7085371 -0.14072682 0
0.85425788 -1.2917585 -0.091463231 0
0.95927697 -1.328985 -0.090531267 0
1.0963031 -1.3775572 -0.0900236 0
1.2752876 -1.4410024 -0.089033119 0
1.5425258 -1.5357311 -0.090180032 0
1.9419889 -1.6773301 -0.091250293 0
3.2636859 -2.1458364 -0.14103018 0
4.8909278 -2.7226501 -0.14055887 0
9.8015757 -4.4633431 -0.14079043 0
0.85810661 -1.2689874 -0.090678163 0
0.96138585 -1.302689 -0.089311443 0
1.0998187 -1.3478616 -0.088998087 0
1.3012615 -1.4135954 -0.091247953 0
1.5681996 -1.5007013 -0.091701709 0
1.9553447 -1.6270324 -0.090917833 0
3.282419 -2.0600765 -0.14033826 0
4.9374084 -2.6001241 -0.1407696 0
9.8897953 -4.2161613 -0.14088058 0
0.85722274 -1.2449822 -0.088977121 0
0.97713619 -1.2807904 -0.090913258 0
1.114623 -1.3218462 -0.090045579 0
1.3009098 -1.3774745 -0.089686923 0
1.559924 -1.4548204 -0.0891793 0
1.9611715 -1.5746396 -0.089978583 0
3.32024 -1.9804798 -0.14120273 0
4.9826269 -2.4768958 -0.14106825 0
9.9695768 -3.9660811 -0.14091727 0
0.86690843 -1.2242484 -0.089749537 0
0.98718429 -1.2568831 -0.09149953 0
1.1235646 -1.2938875 -0.090199776 0
1.3121953 -1.3450692 -0.089964338 0
1.5724539 -1.4156858 -0.089334346 0
1.9567561 -1.5199596 -0.08818353 0
3.3354445 -1.8940425 -0.14056911 0
5.0122876 -2.3490245 -0.14076498 0
10.044202 -3.7143464 -0.14098212 0
0.88442338 -1.2052246 -0.09234526 0
0.98451728 -1.2296896 -0.089734189 0
1.127266 -1.2645801 -0.089586236 0
1.3184981 -1.311321 -0.089637898 0
1.5774103 -1.3746043 -0.088696502 0
1.9722589 -1.4711131 -0.088446446 0
3.363605 -1.8111854 -0.14102928 0
5.0613561 -2.2261491 -0.14154886 0
10.099894 -3.4576666 -0.14074595 0
0.88499755 -1.1818652 -0.091346122 0
1.0003085 -1.2069842 -0.091669358 0
1.1371362 -1.2367903 -0.090138443 0
1.3222584 -1.2771167 -0.089070432 0
1.6000376 -1.3376272 -0.090300195 0
1.9895569 -1.4224789 -0.088997535 0
3.374002 -1.7240621 -0.14036605 0
5.0870104 -2.0972183 -0.14136104 0
10.160722 -3.2024596 -0.14078793 0
0.88865012 -1.1593219 -0.09114597 0
0.98982751 -1.178702 -0.088667043 0
1.1395948 -1.2073891 -0.089565404 0
1.334166 -1.2446581 -0.089795358 0
1.6176999 -1.2989676 -0.091416709 0
2.5411208 -1.475844 -0.14043806 0
3.4024932 -1.6408353 -0.14115089 0
5.0969176 -1.9653933 -0.14058237 0
10.226637 -2.947964 -0.141103 0
0.88777286 -1.1360625 -0.090093561 0
1.0050431 -1.1554713 -0.090719633 0
1.1367139 -1.1772636 -0.088229172 0
1.3354557 -1.2101564 -0.089121722 0
1.6183124 -1.2569708 -0.090624623 0
2.5593827 -1.4127232 -0.14108087 0
3.408253 -1.553216 -0.14047089 0
5.1277981 -1.8378103 -0.14095397 0
10.271304 -2.6890888 -0.1410677 0
0.90009618 -1.1148845 -0.092004247 0
1.0129373 -1.1306465 -0.091484331 0
1.1381099 -1.1481309 -0.087733813 0
1.3436583 -1.1768426 -0.089555196 0
1.6319331 -1.2171097 -0.091495745 0
2.5588205 -1.3465801 -0.14009777 0
3.4256046 -1.4676553 -0.1407679 0
5.138607 -1.7069328 -0.14053242 0
10.296095 -2.4273465 -0.14071964 0
0.90306544 -1.0921687 -0.092022799 0
1.0182211 -1.1053013 -0.091870956 0
1.1596479 -1.1214298 -0.090693511 0
1.3409115 -1.1421015 -0.088557802 0
1.6381379 -1.1759979 -0.091610558 0
2.5638349 -1.2815661 -0.13979846 0
3.4207742 -1.3792932 -0.1396555 0
5.1588345 -1.5775052 -0.14070843 0
10.334169 -2.1677108 -0.14083825 0
0.89356333 -1.0683295 -0.089502491 0
1.015982 -1.0791694 -0.090955339 0
1.1219467 -1.0885524 -0.083983801 0
1.1288753 -1.0891659 -0.058158997 0
1.637792 -1.1342295 -0.091078408 0
2.5826643 -1.2178962 -0.14094831 0
3.4517195 -1.2948494 -0.14121313 0
5.1592965 -1.4460522 -0.14011313 0
10.353088 -1.9059527 -0.14066263 0
0.89848357 -1.0459862 -0.090186216 0
1.0180733 -1.0535405 -0.090983026 0
1.1373112 -1.0610725 -0.086160339 0
1.1252964 -1.0603135 -0.057350744 0
1.6410136 -1.0928903 -0.091088451 0
2.5758784 -1.1519438 -0.13985106 0
3.4521487 -1.207296 -0.14078011 0
5.1792579 -1.316394 -0.14058329 0
10.394248 -1.6458142 -0.14115946 0
0.90190125 -1.0234091 -0.090669714 0
1.0265102 -1.0281279 -0.092328764 0
1.1307577 -1.0320756 -0.08484412 0
1.1293445 -1.0320221 -0.057718385 0
1.6489443 -1.0516986 -0.091771342 0
2.5836105 -1.0870931 -0.14026654 0
3.4513612 -1.1199535 -0.14041707 0
5.1899285 -1.1857907 -0.14077273 0
10.386614 -1.3825816 -0.14067343 0
0.90742391 -1.0007294 -0.091721691 0
1.0155178 -1.0020933 -0.09013509 0
1.1385758 -1.003646 -0.086010836 0
1.1344885 -1.0035945 -0.058340315 0
1.1193854 -1.0034039 -0.029752394 0
1.1352444 -1.0036041 -0.0049111899 0
1.1251872 -1.0034771 0.022371063 0
1.1356688 -1.0036093 0.048140887 0
1.1356634 -1.0036093 0.074586272 0
1.1202931 -1.0034153 0.10100236 0
1.1239147 -1.003461 0.1271455 0
1.1253331 -1.0034789 0.15338305 0
1.1349847 -1.0036007 0.1803198 0
1.1363491 -1.0036179 0.20702049 0
1.1279479 -1.0035119 0.23275925 0
1.1253659 -1.0034794 0.25906444 0
1.1278265 -1.0035104 0.28625089 0
1.1300446 -1.0035384 0.31371558 0
0.9031617 -0.97790903 -0.090815626 0
1.0171756 -0.97647041 -0.090447329 0
1.1321527 -0.97501969 -0.084955104 0
1.1346875 -0.97498775 -0.058368284 0
1.6454298 -0.96854341 -0.09123785 0
2.5873377 -0.9566589 -0.14046086 0
3.4598398 -0.9456501 -0.14085616 0
5.1919503 -0.92379522 -0.14071293 0
10.389926 -0.85820979 -0.14059658 0
0.90097344 -0.95521069 -0.090472348 0
1.0230521 -0.95058775 -0.091676958 0
1.1264297 -0.94667298 -0.084132291 0
1.1289376 -0.94657803 -0.057661165 0
1.651122 -0.92680365 -0.092026047 0
2.5948086 -0.89106756 -0.14131251 0
3.4591837 -0.8583349 -0.14096433 0
5.1867256 -0.79291534 -0.14062349 0
10.40315 -0.59537691 -0.14105815 0
0.89714348 -0.93268317 -0.089900799 0
1.014614 -0.92526281 -0.090330161 0
1.1267067 -0.91818213 -0.084414013 0
1.1287805 -0.91805112 -0.057841364 0
1.6373969 -0.88592291 -0.090664916 0
2.5895591 -0.82577676 -0.14113058 0
3.4624758 -0.77063638 -0.14150351 0
5.1914034 -0.66142356 -0.14114985 0
10.389408 -0.33307627 -0.14104672 0
0.8982324 -0.90984184 -0.090498842 0
1.0072601 -0.90018761 -0.089306124 0
1.1606256 -0.88660741 -0.090365596 0
1.3467972 -0.87012225 -0.088904403 0
1.6352043 -0.84458435 -0.090774782 0
2.5824573 -0.76070684 -0.14092892 0
3.4385524 -0.68490118 -0.14028902 0
5.1762233 -0.53103369 -0.14090423 0
10.349651 -0.072936326 -0.1405824 0
0.8986848 -0.88691562 -0.091085605 0
1.0127767 -0.87390435 -0.090838842 0
1.160416 -0.85706729 -0.090820573 0
1.3497496 -0.83547527 -0.089807905 0
1.6244129 -0.80415213 -0.089996062 0
2.5763524 -0.69559103 -0.14097442 0
3.4431338 -0.5967415 -0.14122878 0
5.161891 -0.400731 -0.14085163 0
10.332004 0.18887904 -0.14078756 0
0.89701706 -0.86413032 -0.091343381 0
1.0095714 -0.8484084 -0.090844192 0
1.1490426 -0.82892662 -0.089548059 0
1.3433975 -0.80177855 -0.089518197 0
1.6236268 -0.76263523 -0.090515547 0
2.5689492 -0.63058966 -0.14105235 0
3.4226537 -0.51134163 -0.14055961 0
5.1440525 -0.27089134 -0.14078839 0
10.299565 0.44924644 -0.1408011 0
0.89247084 -0.84174472 -0.091105737 0
1.0066885 -0.82284105 -0.091033734 0
1.1389463 -0.80095166 -0.088601075 0
1.3294255 -0.76942629 -0.088262729 0
1.624415 -0.72060388 -0.091347568 0
2.5524275 -0.56701261 -0.14042285 0
3.411763 -0.42478779 -0.14071959 0
5.1312885 -0.14019677 -0.14111866 0
10.263044 0.7091375 -0.14087307 0
0.89068216 -0.81887352 -0.091585748 0
1.0015355 -0.79764014 -0.09091232 0
1.1375887 -0.77157986 -0.089229725 0
1.3458071 -0.73169672 -0.09146107 0
1.347982 -0.73128015 -0.059320826 0
1.3465277 -0.73155874 -0.026907256 0
1.3336738 -0.73402077 0.0061083827 0
1.3529519 -0.7303282 0.036885317 0
1.3446501 -0.73191833 0.069161385 0
1.3419087 -0.73244345 0.10100938 0
0.87465358 -0.79897279 -0.089095823 0
0.99403965 -0.77296615 -0.090460934 0
1.1329796 -0.74269992 -0.08943928 0
1.2069148 -0.72659409 -0.072480522 0
1.2142444 -0.72499746 -0.044153873 0
1.2066205 -0.72665823 -0.01420415 0
1.2035962 -0.72731698 0.014924118 0
1.2071147 -0.72655052 0.043502118 0
1.2096349 -0.72600156 0.07220947 0
1.1994619 -0.7282176 0.10100541 0
0.87789917 -0.77495468 -0.090917639 0
0.99754375 -0.74571115 -0.092259966 0
1.1364763 -0.71175337 -0.091144495 0
1.2123342 -0.69321221 -0.074278988 0
1.2067173 -0.69458508 -0.044097025 0
1.2141688 -0.69276375 -0.015603064 0
1.2171057 -0.69204587 0.013448613 0
1.2113636 -0.69344944 0.04296238 0
1.200768 -0.69603914 0.072253488 0
1.202556 -0.69560218 0.10100571 0
0.87622958 -0.75180715 -0.0918025 0
0.97657746 -0.72457945 -0.08942949 0
1.1149335 -0.68703902 -0.088729955 0
1.2070096 -0.66205579 -0.074647613 0
1.2043808 -0.66276908 -0.044761021 0
1.2040526 -0.66285813 -0.015385626 0
1.2044441 -0.66275191 0.013794491 0
1.2104601 -0.66111952 0.042627309 0
1.2021261 -0.6633808 0.072033316 0
1.2109253 -0.66099328 0.10100619 0
0.87206328 -0.7291708 -0.092269309 0
0.97415799 -0.69868362 -0.090327822 0
1.098411 -0.66157967 -0.087264858 0
1.2036539 -0.6301524 -0.075422712 0
1.1989354 -0.6315614 -0.045148436 0
1.2141192 -0.62702727 -0.01720587 0
1.2018034 -0.630705 0.013358081 0
1.2089036 -0.62858474 0.042281926 0
1.2088302 -0.62860662 0.07166183 0
1.1992248 -0.63147497 0.1010061 0
0.85149181 -0.71175581 -0.089199148 0
0.97602141 -0.67111999 -0.09221112 0
1.101519 -0.63016826 -0.089292027 0
1.2187907 -0.59190077 -0.079056464 0
1.2046461 -0.59651637 -0.047007028 0
1.2066838 -0.59585142 -0.017411171 0
1.2049236 -0.59642577 0.012435192 0
1.2099568 -0.59478337 0.041765835 0
1.2139958 -0.59346539 0.071303517 0
1.1996694 -0.5981403 0.1010064 0
0.8502447 -0.68824869 -0.090558179 0
0.96329641 -0.64817488 -0.091334485 0
1.0948701 -0.60153556 -0.089773722 0
1.199674 -0.56438529 -0.077758931 0
1.2105968 -0.5605135 -0.049021263 0
1.2133492 -0.55953783 -0.019092357 0
1.2138104 -0.55937433 0.011012385 0
1.2109133 -0.56040132 0.041207932 0
1.2042068 -0.56277859 0.071289107 0
1.2100588 -0.56070423 0.10100702 0
0.83123881 -0.67118472 -0.088022403 0
0.9535535 -0.6243211 -0.0911671 0
1.0925912 -0.57105017 -0.091155834 0
1.2020835 -0.52909929 -0.079792432 0
1.2110329 -0.52567041 -0.05047806 0
1.2034434 -0.52857822 -0.019224627 0
1.2078164 -0.52690279 0.010620156 0
1.2038265 -0.52843148 0.041002542 0
1.2076391 -0.52697074 0.070926167 0
1.2170027 -0.52338314 0.10100757 0
0.83581096 -0.64503348 -0.090979867 0
0.94074619 -0.6017617 -0.090495698 0
1.0719693 -0.54764968 -0.089427553 0
1.2137158 -0.48919818 -0.083383895 0
1.2083045 -0.4914296 -0.051660661 0
1.2144595 -0.48889145 -0.021549163 0
1.212338 -0.48976633 0.0093669537 0
1.2036517 -0.49334827 0.040406507 0
1.1990205 -0.49525803 0.070839897 0
1.194523 -0.49711266 0.10100725 0
0.83066392 -0.62239683 -0.091864146 0
0.93512607 -0.57620287 -0.091413565 0
1.0700532 -0.51653701 -0.091146939 0
1.2054249 -0.45667461 -0.084108092 0
1.2194495 -0.4504728 -0.054739241 0
1.2118441 -0.45383593 -0.022610223 0
1.1974225 -0.46021327 0.0095141921 0
1.2010019 -0.45863047 0.03988494 0
1.2058462 -0.45648828 0.070339784 0
1.2088004 -0.45518187 0.1010081 0
0.82416177 -0.60015255 -0.092573993 0
0.92174196 -0.55402416 -0.090858556 0
1.0449471 -0.49578226 -0.088813193 0
1.2212425 -0.41244337 -0.088715456 0
1.4752368 -0.29237446 -0.089613535 0
1.8594456 -0.11075005 -0.090905927 0
3.1345718 0.49203172 -0.14134172 0
4.7022729 1.2331202 -0.14111975 0
9.4008636 3.454252 -0.14077051 0
0.8087393 -0.58219892 -0.091302402 0
0.90704626 -0.53265464 -0.090137132 0
1.04108 -0.46510503 -0.090454288 0
1.2075105 -0.38122824 -0.088905998 0
1.4638537 -0.25203755 -0.090486519 0
1.8375995 -0.06367901 -0.091001265 0
3.0901098 0.56755501 -0.14086501 0
4.6385689 1.3479397 -0.14079997 0
9.3061171 3.7002676 -0.14130065 0
0.79015982 -0.56626338 -0.089360721 0
0.89863002 -0.50811982 -0.090862371 0
1.0282807 -0.43862286 -0.090595581 0
1.2033057 -0.34480384 -0.090743117 0
1.4454418 -0.21501103 -0.090573438 0
1.8213578 -0.013507869 -0.091816433 0
3.0378132 0.63855153 -0.13991061 0
4.5752468 1.4626656 -0.14064811 0
9.1599426 3.9202106 -0.14064404 0
0.78287733 -0.54441381 -0.090251468 0
0.90004152 -0.47775105 -0.093861051 0
1.0194538 -0.40980926 -0.09161552 0
1.1781225 -0.31953165 -0.08936239 0
1.2073876 -0.30288073 -0.061251853 0
1.222446 -0.29431298 -0.030204808 0
3.0040247 0.71935004 -0.14057423 0
4.5187364 1.5811737 -0.14101294 0
9.0363617 4.1515622 -0.14072981 0
0.77052736 -0.52535558 -0.090033971 0
0.86835229 -0.46638033 -0.089793138 0
0.99163985 -0.39205459 -0.089145921 0
1.1623887 -0.28911605 -0.08961504 0
1.1395159 -0.30290529 -0.054405365 0
1.1982751 -0.26748142 -0.029523944 0
2.9614189 0.79545659 -0.14069347 0
4.4525557 1.694411 -0.14101908 0
8.9046621 4.3784308 -0.14075387 0
0.76122612 -0.50439692 -0.0907019 0
0.85788661 -0.44274601 -0.090464242 0
0.9851898 -0.3615509 -0.090887524 0
1.1402487 -0.26265308 -0.088930927 0
1.1414695 -0.26187435 -0.057127092 0
1.1804334 -0.23702285 -0.029607138 0
2.9168839 0.87050086 -0.14081275 0
4.3689613 1.7966487 -0.14022037 0
8.7668409 4.601655 -0.14076614 0
0.74810725 -0.48580238 -0.090537213 0
0.85032392 -0.41691896 -0.091940574 0
0.97082734 -0.33571216 -0.091242157 0
1.1233118 -0.23295352 -0.089229129 0
1.1475432 -0.21662411 -0.060620893 0
1.165271 -0.20467731 -0.030079177 0
2.8612418 0.93823081 -0.14015609 0
4.3120599 1.9159312 -0.14105015 0
8.6194401 4.8186574 -0.14066675 0
0.73374832 -0.46811995 -0.09016747 0
0.83862638 -0.3935273 -0.092637293 0
0.95372468 -0.31166568 -0.091180958 0
1.1058046 -0.20350167 -0.089562528 0
1.1431807 -0.17691854 -0.062843584 0
1.144909 -0.17568931 -0.030056855 0
2.8175206 1.0139258 -0.14065561 0
4.2298856 2.018445 -0.14062168 0
8.4766445 5.0388756 -0.14085187 0
0.72479969 -0.44647178 -0.091345645 0
0.81090504 -0.38189855 -0.089712538 0
0.93327266 -0.29013106 -0.090554081 0
1.0836879 -0.17732975 -0.089221977 0
1.1031064 -0.1627672 -0.060036693 0
1.0967674 -0.16752097 -0.026877617 0
1.104847 -0.16146186 0.0045096222 0
1.0929682 -0.17037013 0.037425693 0
1.0892097 -0.17318878 0.069343969 0
1.1079092 -0.15916541 0.1010099 0
1.1021881 -0.16345581 0.13305265 0
1.0972145 -0.16718575 0.16484061 0
1.1009418 -0.16439047 0.19716881 0
0.71039909 -0.42875656 -0.091217153 0
0.80369097 -0.3550441 -0.091721497 0
0.90856361 -0.27218136 -0.089135639 0
1.0588953 -0.15340015 -0.088512488 0
1.1001081 -0.12083682 -0.062748633 0
1.0956753 -0.12433937 -0.029255738 0
1.1025157 -0.1189346 0.0028250313 0
1.1006423 -0.12041476 0.035723787 0
1.1082729 -0.11438569 0.068158656 0
1.0993259 -0.12145492 0.10101036 0
1.1047333 -0.11718234 0.13375762 0
1.0958012 -0.12423983 0.16600962 0
1.0889626 -0.12964335 0.19798777 0
0.6974746 -0.40983394 -0.091616504 0
0.78270745 -0.33892384 -0.090563752 0
0.89900553 -0.24216887 -0.091022216 0
1.0250289 -0.13732287 -0.086238451 0
1.1084688 -0.067904443 -0.067404233 0
1.0981245 -0.076510519 -0.032245252 0
1.0998336 -0.075088531 0.0010399988 0
1.1027918 -0.072627515 0.034244794 0
1.1003997 -0.074617654 0.067718469 0
1.0972176 -0.077264994 0.1010111 0
1.1049001 -0.070873469 0.13444047 0
1.0957401 -0.078494221 0.16735044 0
1.1087238 -0.067692369 0.20179194 0
0.68179548 -0.39317796 -0.091380008 0
0.76502949 -0.32029983 -0.090308495 0
0.88161206 -0.21822229 -0.091402985 0
0.99812019 -0.11620995 -0.085288294 0
1.0973884 -0.02929261 -0.069349073 0
1.0977368 -0.028987553 -0.035097707 0
1.0898161 -0.035922851 -0.00020498573 0
1.1002728 -0.026767101 0.03294782 0
1.0972881 -0.029380407 0.067090623 0
1.0963957 -0.030161764 0.10101196 0
1.0938483 -0.03239223 0.13482685 0
1.1045643 -0.023009505 0.16934247 0
1.110366 -0.017929699 0.20413989 0
1.0996592 -0.027304377 0.2373611 0
1.0950512 -0.031339075 0.37495515 0
0.66585326 -0.37682089 -0.091182061 0
0.74981874 -0.29947379 -0.090798073 0
0.85541439 -0.20220152 -0.089958914 0
0.9612093 -0.10474566 -0.082505368 0
1.0587071 -0.014932957 -0.067106865 0
1.1003406 0.023418937 -0.038547356 0
1.1010814 0.024101291 -0.0035950893 0
1.0971862 0.02051321 0.031583849 0
1.1044027 0.027160797 0.066089064 0
1.0966702 0.020037685 0.10101292 0
1.0951526 0.018639836 0.1356443 0
1.107187 0.029725704 0.17107603 0
1.1014867 0.024474654 0.20566027 0
1.0909199 0.01474062 0.23937793 0
1.0361454 -0.035716202 0.36614627 0
0.6463272 -0.36398157 -0.090039231 0
0.7300213 -0.28288665 -0.090233095 0
0.83848095 -0.17779538 -0.09069068 0
0.83848149 -0.1777949 -0.062916555 0
0.84322578 -0.1731979 -0.036095519 0
0.84418327 -0.17227015 -0.0086211469 0
0.83895612 -0.17733499 0.019398095 0
0.83978671 -0.17653015 0.046595264 0
0.84370273 -0.17273578 0.073687449 0
0.83482462 -0.18133816 0.10100354 0
0.84246445 -0.17393562 0.12828019 0
0.84071428 -0.17563137 0.15547256 0
0.83108896 -0.18495777 0.18184321 0
1.1032848 0.078784734 0.24432565 0
1.0160446 -0.0057462719 0.29968593 0
1.0068558 -0.014649596 0.33124572 0
0.9872871 -0.033610549 0.35972688 0
0.62805498 -0.35023108 -0.08934436 0
0.71861136 -0.25794461 -0.092020221 0
0.81683499 -0.15784439 -0.090478443 0
0.83387637 -0.14047739 -0.066154383 0
0.83974612 -0.13449553 -0.038995612 0
0.83167344 -0.1427224 -0.0097369906 0
0.83645684 -0.13784763 0.017576056 0
0.84363288 -0.1305345 0.044958774 0
0.83753806 -0.13674578 0.073199257 0
0.84049958 -0.13372764 0.10100462 0
0.84478283 -0.12936255 0.12905087 0
0.8373149 -0.13697317 0.1566304 0
0.8327359 -0.14163968 0.18406147 0
0.84299695 -0.13118258 0.21325611 0
1.0929666 0.12356272 0.28328156 0
0.94253224 -0.029745664 0.28997564 0
0.9537257 -0.018338289 0.32462159 0
0.95908034 -0.012881424 0.35871002 0
0.6202774 -0.32545188 -0.092007406 0
0.69796115 -0.24218145 -0.091476522 0
0.79497498 -0.13819084 -0.090328582 0
0.84021974 -0.089692324 -0.071927987 0
0.8341549 -0.096193284 -0.041778553 0
0.84279054 -0.086936623 -0.014217054 0
0.839589 -0.09036842 0.015026176 0
0.83750331 -0.092604131 0.043880068 0
0.84191138 -0.087879032 0.072307952 0
0.84924573 -0.080017179 0.1010059 0
0.8417834 -0.088016182 0.1296989 0
0.84711415 -0.082302123 0.15878761 0
0.83965063 -0.090302378 0.18699148 0
0.83629698 -0.093897194 0.21533985 0
1.1022338 0.1911644 0.28974277 0
0.92597443 0.0022294258 0.29161459 0
0.94173205 0.01912025 0.32770848 0
0.92758775 0.0039587351 0.35690042 0
0.5991677 -0.31473222 -0.090673633 0
0.6765489 -0.22747245 -0.090812229 0
0.77520829 -0.116218 -0.090814121 0
0.84667015 -0.035633113 -0.078158535 0
0.83542651 -0.048312154 -0.046018589 0
0.84028572 -0.042832579 -0.017105317 0
0.84410226 -0.038528826 0.012132699 0
0.84138823 -0.041589405 0.042001314 0
0.84046334 -0.042632248 0.071552314 0
0.84639782 -0.035940256 0.10100678 0
0.83887625 -0.044421997 0.13040501 0
0.84122843 -0.041769531 0.16000074 0
0.84312356 -0.039632466 0.18977781 0
0.83421785 -0.049675133 0.2182648 0
1.1009946 0.25115874 0.29483521 0
1.0975796 0.24730793 0.3333413 0
0.58623439 -0.29477867 -0.09208443 0
0.65610659 -0.21186307 -0.090518244 0
0.73344874 -0.12008306 -0.085844673 0
0.85608816 0.025450144 -0.08551874 0
0.84202021 0.0087560154 -0.051568691 0
0.84626877 0.013797674 -0.021469666 0
0.8332265 -0.0016792681 0.010680983 0
0.84680313 0.014431749 0.039863296 0
0.83921617 0.0054285261 0.070725873 0
0.83506143 0.0004982088 0.10100735 0
0.83820349 0.0042268368 0.1312526 0
0.83727616 0.0031263565 0.16146348 0
0.83760124 0.0035121178 0.19180891 0
0.83906835 0.0052531096 0.22244239 0
0.84206706 0.0088116266 0.25359353 0
1.0981489 0.31269756 0.34034893 0
0.56728303 -0.28178445 -0.091662042 0
0.64027148 -0.19059762 -0.091720499 0
