# .PCD v0.7 - Point Cloud Data file format
VERSION 0.7
FIELDS x y z intensity
SIZE 4 4 4 4
TYPE F F F F
COUNT 1 1 1 1
WIDTH 1362
HEIGHT 1
VIEWPOINT 0 0 0 1 0 0 0
POINTS 1362
DATA ascii
-0.16876639 -0.97996682 0.46578667 0
-0.23112185 -1.1543299 -0.049917448 0
-0.14851363 -0.97774011 0.46222413 0
-0.21343793 -1.1630862 -0.049937528 0
-0.13305588 -0.98546165 0.46240813 0
-0.19172008 -1.1626642 -0.04960854 0
-0.11752833 -0.9930653 0.46261916 0
-0.17888631 -1.1826797 -0.050084032 0
-0.10255755 -1.0020345 0.46339312 0
-0.16375662 -1.1979612 -0.050380819 0
-0.071255699 -0.97111672 0.34641203 0
-0.083809093 -1.001902 0.46096084 0
-0.14098938 -1.1943976 -0.049960535 0
-0.054154113 -0.97353345 0.34536237 0
-0.063786402 -0.99803299 0.45728943 0
-0.12461849 -1.2068963 -0.050166409 0
-0.011854662 -0.90912622 0.32614619 0
-0.052964553 -1.0176831 0.46209237 0
-0.10200979 -1.2027086 -0.049745157 0
-0.010594679 -0.9518196 0.23944482 0
0.007223384 -0.9029178 0.32296619 0
-0.086837247 -1.2188675 -0.050106201 0
0.0084625948 -0.94671124 0.23742092 0
0.021072941 -0.91069859 0.32364687 0
-0.0037745072 -0.9816578 0.44522727 0
-0.066312805 -1.2199116 -0.049903642 0
0.021757381 -0.95786947 0.23854624 0
0.027843999 -0.93975943 0.33009937 0
0.015877204 -0.97536522 0.44112512 0
-0.045221224 -1.2187394 -0.049628496 0
0.03619276 -0.96600777 0.23912659 0
0.022554027 -1.0083461 0.34714332 0
0.01890205 -1.0196829 0.4548161 0
-0.026890708 -1.225875 -0.049674727 0
0.023527699 -1.0623345 0.36020592 0
-0.0089061987 -1.2343117 -0.049777824 0
0.066713974 -0.97758704 0.33632386 0
0.0072885915 -1.2493995 -0.050135612 0
0.087539956 -0.96372968 0.33145693 0
0.024410324 -1.2620099 -0.050408192 0
0.10189547 -0.97222155 0.33257809 0
0.045448318 -1.259992 -0.050149035 0
0.115887 -0.98260683 0.33424169 0
0.064982429 -1.2634573 -0.050101742 0
0.085358098 -1.2630838 -0.049923062 0
0.10280477 -1.2758043 -0.05023231 0
0.1221752 -1.2800747 -0.050241075 0
0.14175646 -1.2832736 -0.050219767 0
-0.066080555 -2.3894415 0.10240242 0
0.16369735 -1.2729111 -0.049715944 0
0.001571046 -2.1999655 0.095315292 0
0.17981742 -1.2962904 -0.050443474 0
0.034480825 -2.1937931 0.094902866 0
0.20170754 -1.284457 -0.049905941 0
0.065017655 -2.2016027 0.095010884 0
0.22156774 -1.2847422 -0.049815919 0
0.097601041 -2.1949868 0.094612807 0
0.24040005 -1.292865 -0.050016973 0
0.1279455 -2.2042644 0.094801851 0
0.25971743 -1.2979212 -0.050116122 0
0.15920089 -2.2065647 0.09475375 0
0.27835879 -1.3106329 -0.0504985 0
0.19301672 -2.1824126 0.093770936 0
0.29925695 -1.3000698 -0.05005493 0
0.22293963 -2.1958461 0.094151154 0
0.31864604 -1.3060319 -0.050212711 0
0.25458106 -2.1893601 0.093831502 0
0.33961332 -1.2875525 -0.049504951 0
0.28439978 -2.2096236 0.09448304 0
0.35817525 -1.3094672 -0.050250784 0
0.31602901 -2.2014115 0.094129875 0
0.37831581 -1.3010945 -0.049922701 0
0.34691748 -2.2075324 0.094303109 0
0.39821362 -1.293377 -0.049627159 0
0.37829554 -2.1972065 0.093902864 0
0.41773829 -1.3034295 -0.049975034 0
0.43748862 -1.3062289 -0.050072759 0
0.45712304 -1.2970889 -0.049753074 0
0.47709638 -1.3077573 -0.050149579 0
0.49656591 -1.2992089 -0.049868632 0
0.51637602 -1.300665 -0.049953949 0
0.53574729 -1.2945335 -0.049776774 0
0.55561775 -1.2962823 -0.049890362 0
0.57647705 -1.3079197 -0.050367564 0
0.59448594 -1.2889407 -0.049755838 0
0.61346084 -1.2819037 -0.049580619 0
0.63363916 -1.2850751 -0.049781211 0
0.65324956 -1.2832402 -0.049810782 0
0.67369491 -1.2866193 -0.050037708 0
0.69301212 -1.2823167 -0.049996316 0
0.71352303 -1.2847413 -0.050207738 0
0.73301172 -1.2811102 -0.050208814 0
0.75111574 -1.2707874 -0.049974833 0
0.77145267 -1.2713338 -0.050145913 0
0.78913343 -1.259982 -0.049890626 0
0.80793434 -1.2538979 -0.049836438 0
0.82775587 -1.2518687 -0.0499404 0
0.84668392 -1.246291 -0.049922585 0
0.86664069 -1.2443228 -0.050047629 0
0.88370341 -1.2324365 -0.049812689 0
0.90393591 -1.2311474 -0.049981516 0
0.92340934 -1.2271608 -0.050059222 0
0.93905801 -1.2118486 -0.049719017 0
0.96263856 -1.2194428 -0.050253142 0
0.97563082 -1.1974461 -0.049674071 0
0.99835843 -1.2018019 -0.050106868 0
0.92354536 -1.0079422 0.4597182 0
1.0162354 -1.1932153 -0.050055102 0
0.9384563 -0.99898666 0.4587605 0
1.0319406 -1.1794842 -0.049812879 0
0.96322024 -1.0139475 0.46648046 0
1.0517631 -1.1757531 -0.049965627 0
0.97058266 -0.98695129 0.45916045 0
1.0734613 -1.1759648 -0.050283026 0
0.98988551 -0.98814505 0.46209815 0
1.0858409 -1.1553824 -0.049795777 0
1.0050942 -0.97990268 0.46168602 0
1.1097279 -1.1597934 -0.050299782 0
1.0229222 -0.97723526 0.46339545 0
1.1251475 -1.1461465 -0.050100628 0
1.0455776 -0.98409957 0.46873128 0
1.1338285 -1.1195062 -0.049387895 0
1.0639203 -0.98155326 0.47069743 0
1.1586587 -1.1248412 -0.049962938 0
1.0838977 -0.98180777 0.47381437 0
1.1733799 -1.110553 -0.049758732 0
1.1022533 -0.97854882 0.47571954 0
1.1970023 -1.1125883 -0.050227195 0
1.1302299 -0.99231666 0.057315987 0
1.1311026 -0.99388832 0.16066641 0
1.1285509 -0.9892922 0.26460406 0
1.1336601 -0.99849492 0.37452221 0
1.1281855 -0.98863429 0.48280358 0
1.2059873 -1.0883514 -0.049630787 0
1.143551 -0.97915286 0.057139996 0
1.1458256 -0.98313111 0.16043593 0
1.1440325 -0.97999495 0.26451385 0
1.1427636 -0.97777575 0.37105688 0
1.1519408 -0.99382621 0.48818818 0
1.2301725 -1.0907619 -0.050138526 0
1.1650093 -0.98005289 0.057552233 0
1.1631992 -0.97697753 0.16080086 0
1.1670669 -0.98354858 0.26715291 0
1.1618919 -0.97475654 0.3728396 0
1.1608455 -0.97297865 0.48367542 0
1.2497497 -1.084867 -0.050316155 0
1.2610457 -1.0654374 -0.049936194 0
1.2710806 -1.0445305 -0.049496531 0
1.293521 -1.0430193 -0.049887702 0
1.3050939 -1.0249517 -0.049580637 0
1.3282087 -1.023859 -0.050015286 0
1.3468478 -1.0159658 -0.050168235 0
1.361062 -1.0018507 -0.050057493 0
1.3772744 -0.99051446 -0.050077833 0
1.3953913 -0.98161405 -0.050217453 0
1.4042971 -0.96093553 -0.049832135 0
1.2161324 -0.72367442 0.05102114 0
1.1920146 -0.69326365 0.13735299 0
1.4200032 -0.94903904 -0.049852215 0
1.2066731 -0.68689501 0.04978596 0
1.2181894 -0.70104635 0.13976686 0
1.4417815 -0.94438845 -0.050218653 0
1.2074329 -0.66371018 0.049164496 0
1.2120651 -0.6692583 0.13671206 0
1.4495332 -0.92295951 -0.049813192 0
1.208685 -0.6417706 0.048595276 0
1.2037164 -0.63596964 0.13340096 0
1.4651431 -0.91090304 -0.049853247 0
1.2020216 -0.61142612 0.047621038 0
1.2077745 -0.61797398 0.13222586 0
1.4829675 -0.90125734 -0.050019007 0
1.1997654 -0.58699536 0.046915885 0
1.2091483 -0.59740722 0.13067274 0
1.4986149 -0.88907903 -0.050074439 0
1.5118905 -0.87433738 -0.050014079 0
1.5250647 -0.85954779 -0.049958859 0
1.5374182 -0.84398574 -0.049872316 0
1.5556276 -0.83423287 -0.050089136 0
1.5710534 -0.82160932 -0.050172128 0
1.5839791 -0.80657619 -0.050140053 0
1.5975431 -0.79214805 -0.050148278 0
1.6007502 -0.76855057 -0.049671561 0
1.6114841 -0.75188094 -0.049568843 0
1.6282663 -0.74038452 -0.049759097 0
1.6561828 -0.73782963 -0.050467927 0
1.6529007 -0.70972824 -0.049746003 0
1.6686217 -0.69704837 -0.049906678 0
1.6801616 -0.68105417 -0.049885742 0
1.6949579 -0.66747802 -0.050018467 0
1.7020839 -0.64826888 -0.0498203 0
1.717141 -0.63477784 -0.049980078 0
1.722524 -0.61455518 -0.049727935 0
1.7489442 -0.60849118 -0.050389998 0
1.7511418 -0.58624214 -0.050020874 0
1.7611835 -0.56921804 -0.049997102 0
1.7715551 -0.5524112 -0.049996305 0
1.7799528 -0.53443104 -0.049922407 0
1.7915343 -0.5183413 -0.049989585 0
1.8030785 -0.50217277 -0.050063077 0
1.8154724 -0.48640296 -0.050178885 0
1.8220315 -0.46746406 -0.050066527 0
1.8311861 -0.44993624 -0.050068531 0
1.8385272 -0.43150583 -0.050007112 0
1.8421903 -0.41135684 -0.049809653 0
1.8605928 -0.39819661 -0.050203461 0
1.856644 -0.37469819 -0.049726911 0
1.8693231 -0.35877451 -0.049911577 0
1.8908355 -0.34640583 -0.050444953 0
1.8822407 -0.32146141 -0.049822316 0
1.890874 -0.30369595 -0.049874879 0
1.9039606 -0.28755793 -0.050105549 0
1.9127957 -0.26970968 -0.050181545 0
1.9079709 -0.24706636 -0.049749576 0
1.9243692 -0.2317995 -0.050128665 0
1.931139 -0.21318041 -0.050152671 0
1.9355212 -0.19381247 -0.050096236 0
1.9460093 -0.1762604 -0.050276134 0
1.944199 -0.1551602 -0.050007951 0
1.9569396 -0.13809405 -0.050287761 0
1.9461696 -0.11492968 -0.049709305 0
1.9476209 -0.095080949 -0.049591724 0
1.9737213 -0.080835111 -0.050385438 0
1.9779158 -0.061396163 -0.05038435 0
1.9631289 -0.038202386 -0.049701404 0
1.9791154 -0.021177094 -0.05014788 0
1.9878898 -0.002591233 -0.050339922 0
1.9805721 0.018688921 -0.049958352 0
1.9960327 0.036378641 -0.050408971 0
1.9992344 0.056022439 -0.050425358 0
1.9896946 0.07721252 -0.049992457 0
1.9902003 0.097019382 -0.049930431 0
1.996453 0.11624109 -0.050083522 0
1.9936825 0.13631444 -0.049921907 0
1.997121 0.155846 -0.049991686 0
1.997332 0.17561305 -0.049954802 0
2.002141 0.19515441 -0.050091155 0
1.9985234 0.21506049 -0.049935248 0
2.0012453 0.23473996 -0.050014708 0
2.0024886 0.2544879 -0.050050218 0
1.9927983 0.27419522 -0.04970425 0
1.9896059 0.29378432 -0.049599092 0
2.0050421 0.31388891 -0.05016809 0
2.0012195 0.33354908 -0.050058227 0
1.9939033 0.35293663 -0.049832199 0
2.0021482 0.37324685 -0.050171591 0
1.996585 0.39266777 -0.050025877 0
1.9973534 0.41258833 -0.050115813 0
1.9906545 0.43177354 -0.049946737 0
1.9957111 0.45225477 -0.0502088 0
1.9884993 0.47129405 -0.050038725 0
1.974124 0.4891707 -0.049618531 0
1.9973794 0.51272267 -0.050565906 0
1.9893453 0.53158522 -0.050392646 0
1.9777857 0.54967576 -0.050099608 0
1.9642478 0.56716776 -0.049742129 0
1.9636992 0.58714342 -0.049865644 0
1.9651587 0.60766137 -0.050072171 0
1.9635954 0.62761503 -0.050177868 0
1.9509962 0.64488333 -0.049886953 0
1.942205 0.66294801 -0.049743693 0
1.9509444 0.68577641 -0.050257873 0
1.9426883 0.70403767 -0.050152652 0
1.9311759 0.72123194 -0.049934059 0
1.9234191 0.73946446 -0.049863406 0
1.9121743 0.75648767 -0.049669843 0
1.9084644 0.77598155 -0.049768224 0
1.8961927 0.79246336 -0.049551394 0
1.9031243 0.81598836 -0.050073665 0
1.8909724 0.8324784 -0.049878649 0
1.8837801 0.85082769 -0.049881596 0
1.8753591 0.8686679 -0.049845915 0
1.8582653 0.88272274 -0.049481265 0
1.8592681 0.90461987 -0.049829595 0
1.8515096 0.92272639 -0.049845971 0
1.8483919 0.94307381 -0.050055183 0
1.8326991 0.95736539 -0.049774949 0
1.8182648 0.9720813 -0.049550552 0
1.8262485 0.9984293 -0.050236691 0
1.8108689 1.0126479 -0.049991872 0
1.8068689 1.0330369 -0.050218128 0
1.7946192 1.0488622 -0.050116681 0
1.7847295 1.0660071 -0.050120663 0
1.7766607 1.0842696 -0.050209817 0
1.7699901 1.1034874 -0.050368264 0
1.7526598 1.1159655 -0.050085366 0
1.7423373 1.1328546 -0.050106987 0
1.7307674 1.1489159 -0.050084054 0
1.7128235 1.1604999 -0.049791928 0
1.7018152 1.1768199 -0.049808487 0
1.6976023 1.1981741 -0.05013581 0
1.6805936 1.2101257 -0.049905092 0
1.666128 1.223853 -0.049793899 0
1.6610301 1.2449613 -0.050117351 0
1.6439496 1.2565544 -0.049903397 0
1.6396099 1.2786605 -0.050288074 0
1.6228472 1.2904203 -0.050104443 0
1.6054808 1.3014776 -0.049897 0
1.593224 1.3169754 -0.04994012 0
1.5864142 1.3375851 -0.050258778 0
1.5705131 1.3498381 -0.05014547 0
1.5491908 1.3566806 -0.049767669 0
1.5413625 1.3766867 -0.050071776 0
1.5191803 1.3822384 -0.04965746 0
1.5068824 1.3977979 -0.049754176 0
1.0241145 0.88847899 0.29209128 0
1.4943631 1.413223 -0.049850803 0
1.0450538 0.92708689 0.30622977 0
1.4826134 1.4296086 -0.05000012 0
1.4347966 1.3765473 0.059450056 0
1.4364898 1.3784263 0.16716909 0
1.4395447 1.3818163 0.27728757 0
1.0513561 0.95105344 0.31353286 0
1.4654558 1.4400032 -0.049870159 0
1.4173994 1.385307 0.059270803 0
1.4155655 1.3832195 0.16605905 0
1.4224149 1.3910154 0.27647331 0
1.0582545 0.97653878 0.32139286 0
1.4536495 1.4565095 -0.050039098 0
1.3874314 1.3792001 0.058405001 0
1.385578 1.3770363 0.16344522 0
1.400043 1.3939241 0.27422556 0
1.0585313 0.99521089 0.32614577 0
1.4403217 1.4713842 -0.050137337 0
1.3644445 1.3805064 0.057910673 0
1.365154 1.3813564 0.16238235 0
1.3710089 1.3883685 0.27007923 0
1.0595646 1.0153532 0.33148468 0
1.4215909 1.4797343 -0.04994202 0
1.3469292 1.3879886 0.057719044 0
1.3467754 1.3877996 0.16166034 0
1.3366956 1.3754133 0.26434001 0
1.0587274 1.0338404 0.33605361 0
1.40878 1.4953322 -0.050089698 0
1.3225111 1.386554 0.057133127 0
1.3251965 1.38994 0.1603872 0
1.320488 1.3840029 0.263717 0
1.0579756 1.0529951 0.34086508 0
1.3924804 1.5065912 -0.050047491 0
1.2982316 1.3846275 0.056544628 0
1.2960163 1.3817608 0.1577619 0
1.3021855 1.389744 0.26249751 0
1.0545807 1.0693281 0.34444758 0
1.3743122 1.5153239 -0.049902 0
1.2738622 1.3818963 0.055939451 0
1.270539 1.3774821 0.15573572 0
1.2703298 1.3772042 0.25721499 0
1.0356355 1.0654598 0.33960167 0
1.3547984 1.5220531 -0.049679335 0
1.2531708 1.3834635 0.055543777 0
1.2503966 1.3796804 0.15463428 0
1.2499709 1.3790998 0.25529951 0
1.0283041 1.0768126 0.34117872 0
1.3448429 1.5419025 -0.050045066 0
1.2435827 1.4001038 0.05582438 0
1.2435532 1.4000624 0.15597767 0
1.2453601 1.4025929 0.25824454 0
1.0248065 1.093743 0.34505975 0
1.3227638 1.5447719 -0.049674761 0
1.2431786 1.430305 0.056697477 0
1.245402 1.4335028 0.15902992 0
1.2461389 1.4345628 0.26303869 0
1.0193045 1.1083083 0.34796658 0
1.3079683 1.5579432 -0.049763728 0
1.2403738 1.4580625 0.057458036 0
1.2411307 1.459181 0.16104595 0
1.2455821 1.4657586 0.26762146 0
1.0000294 1.102918 0.34286019 0
1.298975 1.5800453 -0.050241727 0
1.24707 1.5012276 0.058872472 0
1.2485614 1.5034925 0.16545005 0
1.2356272 1.483852 0.26933852 0
1.1649709 1.3765607 0.34575838 0
0.99324173 1.1157908 0.34516823 0
1.2800481 1.5872723 -0.050090019 0
1.2424597 1.5285991 0.059602324 0
1.2440013 1.5310055 0.16766275 0
1.2252686 1.5017651 0.27103013 0
1.1509368 1.3857383 0.34577155 0
0.98902547 1.1330051 0.34920704 0
1.2590693 1.5910095 -0.049802762 0
1.2462096 1.5703688 0.060934547 0
1.24736 1.5722152 0.17159973 0
1.2081064 1.5092101 0.27051204 0
1.1296967 1.3833568 0.34236339 0
0.97299039 1.1318313 0.34602737 0
1.246098 1.6075822 -0.050064508 0
1.1929382 1.5198134 0.27070954 0
1.1051459 1.3748652 0.33723864 0
0.97010922 1.1519146 0.35121885 0
0.84263146 0.94144404 0.47544512 0
1.2241272 1.6092353 -0.049713042 0
1.1772158 1.5295352 0.27076122 0
1.0908645 1.3828288 0.33711511 0
0.95762795 1.1564662 0.3503902 0
0.84390497 0.9632566 0.4869391 0
1.2125785 1.6286234 -0.050104868 0
1.160558 1.5376414 0.27051821 0
1.0734318 1.3852614 0.33542001 0
0.93823349 1.1488049 0.34494746 0
0.85269004 0.99919301 0.35646275 0
0.83856779 0.9744938 0.41527998 0
0.83888555 0.9750495 0.49149483 0
1.1970229 1.6413696 -0.050228707 0
1.1440432 1.5459415 0.27036026 0
1.0498749 1.3763237 0.33048296 0
0.93267453 1.1652199 0.34879756 0
0.84488004 1.0070828 0.35772142 0
0.84047091 0.99914092 0.4264915 0
0.84136349 1.0007486 0.50549465 0
1.1778432 1.6475809 -0.050094664 0
1.1241865 1.5479989 0.26896727 0
1.0337917 1.3802345 0.32938921 0
0.9216907 1.1721857 0.34907717 0
0.85304558 1.0447867 0.37303999 0
0.84515989 1.0301516 0.44123024 0
0.84045559 1.0214208 0.51599222 0
1.1604844 1.6570784 -0.050103646 0
1.1095428 1.5596164 0.26957995 0
1.016091 1.3808233 0.3274048 0
0.91477615 1.1869867 0.35234842 0
0.84901834 1.0611782 0.37825313 0
0.83971947 1.0433875 0.44580394 0
0.84158963 1.0469655 0.52968919 0
1.1346209 1.6498142 -0.049450483 0
1.1001981 1.5818863 0.27237985 0
0.99936271 1.3829032 0.32592347 0
0.8992303 1.1853076 0.34948474 0
0.84811425 1.0844381 0.38664481 0
0.84128517 1.070962 0.45842981 0
0.84297186 1.0742904 0.54447311 0
1.1237742 1.6720941 -0.049989399 0
1.0780411 1.5789568 0.27012321 0
0.9849146 1.3893008 0.32573852 0
0.8892414 1.1944584 0.35072553 0
0.84511298 1.1045891 0.39355603 0
0.83999854 1.0941733 0.46853483 0
0.83802295 1.0901499 0.55157936 0
1.0994015 1.6668204 -0.049441267 0
0.96774602 1.3899404 0.32397956 0
0.87554497 1.1960355 0.34921527 0
0.83972782 1.1207097 0.3985956 0
0.83819771 1.1174917 0.47864792 0
0.83816808 1.1174295 0.56618363 0
1.0804396 1.6723882 -0.049334466 0
0.94572532 1.3796259 0.31921524 0
0.86237317 1.1984843 0.34809637 0
0.84121895 1.1525117 0.41078413 0
0.83882272 1.1473042 0.49229178 0
0.83694154 1.143216 0.57972753 0
1.0724853 1.7025157 -0.050197322 0
0.92969424 1.3816214 0.31799278 0
0.85159189 1.2061019 0.34892645 0
0.839333 1.1785526 0.42028525 0
0.83497655 1.1687623 0.50127995 0
0.84140331 1.1832052 0.60242504 0
1.052173 1.7054508 -0.050002679 0
0.9104867 1.37593 0.31469834 0
0.85314137 1.2425616 0.36024639 0
0.8361243 1.2029849 0.42902085 0
0.83741927 1.2059966 0.51883817 0
0.84122002 1.2148361 0.61956793 0
1.0336975 1.7124603 -0.049976468 0
0.89124513 1.369315 0.31123292 0
0.84947562 1.2686988 0.36778188 0
0.8342374 1.2319922 0.43978 0
0.84299809 1.2530955 0.54163229 0
0.84380805 1.2550465 0.6421321 0
1.0164115 1.7223994 -0.050072018 0
0.87956142 1.3806597 0.31278753 0
0.84811383 1.3021293 0.37790978 0
0.83791715 1.2766664 0.45748308 0
0.84235734 1.2877543 0.55756903 0
0.83753681 1.2757167 0.65207887 0
0.99821776 1.7301816 -0.050092917 0
0.864205 1.3829203 0.31189069 0
0.84880245 1.3430083 0.39065093 0
0.83670253 1.3116543 0.47078103 0
0.84030199 1.3209814 0.57266504 0
0.84061635 1.3217961 0.67817992 0
0.9805612 1.7394613 -0.0501795 0
0.85001266 1.3880669 0.3118363 0
0.84396094 1.3717777 0.39903173 0
0.83921802 1.3590112 0.4894869 0
0.8394261 1.3595713 0.59056687 0
0.83699572 1.3530295 0.6947422 0
0.95871454 1.7372031 -0.049836729 0
0.831433 1.380924 0.30850115 0
0.84201372 1.4105408 0.41092718 0
0.83723289 1.3971587 0.50404578 0
0.84144229 1.4089414 0.61412185 0
0.94099516 1.7462386 -0.049932111 0
0.81700414 1.3848714 0.30823502 0
0.84057117 1.4535567 0.42427579 0
0.84490162 1.4661777 0.53206629 0
0.83848923 1.4474889 0.63183701 0
0.92373919 1.7569075 -0.050096896 0
1.0286555 2.0757029 0.34990704 0
0.79967093 1.3799174 0.30562806 0
0.83796465 1.4962754 0.43747151 0
0.83947897 1.5008769 0.54496944 0
0.83982104 1.5019163 0.65786308 0
0.90370524 1.7591598 -0.04995412 0
1.0049239 2.0802813 0.34938064 0
0.78670466 1.3879696 0.30656916 0
0.84022039 1.5577509 0.45716938 0
0.83779693 1.5500624 0.5641399 0
0.84177125 1.5626712 0.68709671 0
0.88345444 1.7603548 -0.049781885 0
0.98203284 2.0874064 0.34939235 0
0.76806301 1.3775227 0.30262083 0
0.83599252 1.6028912 0.47110662 0
0.83818948 1.61018 0.58797437 0
0.86822277 1.7785655 -0.050251897 0
0.95926142 2.0949674 0.34954 0
0.75572306 1.3875763 0.30419177 0
0.84017354 1.6810813 0.49645352 0
0.83755583 1.6719834 0.61244678 0
0.84798121 1.7797673 -0.050097756 0
0.73619735 1.3720137 0.047003303 0
0.73933518 1.3834594 0.13070507 0
0.73972797 1.3848921 0.21554066 0
0.74013102 1.3863624 0.30281767 0
0.83817285 1.7439895 0.51642305 0
0.83773828 1.7424041 0.64053792 0
0.82960272 1.7876984 -0.050201811 0
0.72310954 1.3791361 0.047128256 0
0.72552985 1.3884215 0.13083701 0
0.72371608 1.3814631 0.21419725 0
0.72653425 1.3922749 0.30337888 0
0.83034778 1.7905568 0.53071773 0
0.83098936 1.7930182 0.6600613 0
0.80942643 1.7886769 -0.050058372 0
0.71021426 1.387414 0.047301389 0
0.70857489 1.3807836 0.1295929 0
0.71084136 1.3899504 0.21510936 0
0.70921481 1.3833716 0.3000896 0
0.8259998 1.8557079 0.55137068 0
0.823937 1.8473648 0.68115228 0
0.79165387 1.7995006 -0.050285667 0
0.69549245 1.3884302 0.047213722 0
0.69649863 1.3927314 0.13053776 0
0.69339371 1.3794583 0.21253355 0
0.69284558 1.3771151 0.29756075 0
0.81602049 1.9036632 0.56610626 0
0.76923245 1.7900174 -0.049778096 0
0.67727369 1.3733242 0.046543654 0
0.68108845 1.39061 0.12994835 0
0.6782679 1.3778292 0.2116424 0
0.6793288 1.3826365 0.29817006 0
0.80372322 1.9463056 0.57903373 0
0.75012463 1.7947556 -0.049800694 0
0.66322786 1.3760122 0.046532515 0
0.66453511 1.3823118 0.12870386 0
0.66517454 1.3853931 0.21248199 0
0.66458833 1.3825684 0.2973657 0
0.79423982 2.0073402 0.59822953 0
0.73049837 1.7969269 -0.049738638 0
0.64894992 1.3774774 0.046483368 0
0.65189415 1.3926213 0.12952246 0
0.65271884 1.3968629 0.21406744 0
0.65085161 1.3872589 0.29784846 0
0.77761 2.0392485 0.60754728 0
0.71121609 1.8007668 -0.049746253 0
0.6359241 1.3856641 0.046684749 0
0.63502473 1.3807056 0.12792909 0
0.63628256 1.3876404 0.21188535 0
0.63412005 1.3757176 0.29416624 0
0.76476687 2.096005 0.62531644 0
0.69322884 1.8123478 -0.050042909 0
0.62222993 1.3907509 0.046779417 0
0.62114972 1.3843365 0.1280566 0
0.6225704 1.3927727 0.21237111 0
0.62049574 1.3804531 0.29475752 0
0.74716204 2.132607 0.63630289 0
0.67261517 1.8084191 -0.049786802 0
0.60693407 1.3859857 0.046524178 0
0.60707492 1.3868915 0.12808585 0
0.60690272 1.3857841 0.21067522 0
0.60704362 1.3866904 0.29577979 0
0.72653002 2.1551769 0.64261806 0
0.65321881 1.8117688 -0.049803004 0
0.59195316 1.3821704 0.046310615 0
0.59179032 1.3810284 0.12722048 0
0.59147149 1.3787926 0.20901781 0
0.59276396 1.3878556 0.29553676 0
0.7087779 2.2013531 0.65694237 0
0.6344443 1.8200231 -0.050004549 0
0.57807773 1.3857198 0.046369322 0
0.57734132 1.3800454 0.12690623 0
0.57795238 1.3847537 0.20975403 0
0.57806915 1.3856534 0.2944741 0
0.68807453 2.2332432 0.66652572 0
0.61478341 1.8219517 -0.049986929 0
0.56351751 1.3837917 0.046237346 0
0.56348097 1.3834796 0.12709013 0
0.56287688 1.3783164 0.20826882 0
0.56342149 1.3829712 0.29333726 0
0.66893792 2.2848001 0.68276995 0
0.59531558 1.8256426 -0.050041478 0
0.55257171 1.4156567 0.13039836 0
0.5517264 1.4075485 0.21328783 0
0.55203295 1.410489 0.29999599 0
0.64614981 2.3132291 0.69133729 0
0.57504314 1.8210006 -0.049806021 0
0.55133456 1.5620165 0.14604007 0
0.55272031 1.5771536 0.24374841 0
0.55152208 1.5640644 0.33897966 0
0.62091178 2.3220537 0.69344115 0
0.55481523 1.8148507 -0.049525943 0
0.60352081 2.4324603 0.23972632 0
0.59867555 2.3710198 0.38711077 0
0.59707671 2.3507464 0.53995347 0
0.53608233 1.8283384 -0.049957842 0
0.57363069 2.3955054 0.39118847 0
0.57317781 2.3886645 0.54916137 0
0.51645273 1.8308407 -0.050005127 0
0.54821169 2.4237285 0.39599544 0
0.54784906 2.4169598 0.55598134 0
0.49684754 1.834831 -0.05011439 0
0.52188438 2.44628 0.39983398 0
0.52173585 2.4426529 0.56221485 0
0.47696546 1.8318814 -0.049984574 0
0.4565247 1.1106094 0.35651338 0
0.45658934 1.1128902 0.43071821 0
0.45732293 1.8385311 -0.050206468 0
0.44586793 1.1108626 0.35652095 0
0.4459314 1.1148945 0.43160328 0
0.43747213 1.8297458 -0.049886134 0
0.43511376 1.0808638 0.41452566 0
0.43513051 1.0861894 0.49337947 0
0.41777426 1.828365 -0.04983905 0
0.42477039 1.0874548 0.41783977 0
0.42480811 1.0834594 0.49177971 0
0.39832032 1.8172804 -0.04945429 0
0.41387096 1.1116331 0.35688168 0
0.41400054 1.1057528 0.42707884 0
0.41447395 1.0842711 0.49235746 0
0.37856379 1.8226801 -0.049666975 0
0.35230729 2.5806787 0.42399344 0
0.35253376 2.5741405 0.5956493 0
0.40519533 1.0538549 0.474482 0
0.35855693 1.8301338 -0.049962081 0
0.32239002 2.5955372 0.42689168 0
0.32237303 2.595897 0.60151029 0
0.39541492 1.0501047 0.47249705 0
0.33854264 1.8341769 -0.050144441 0
0.29155296 2.6189086 0.43139821 0
0.29228947 2.6066093 0.60465008 0
0.3188985 1.8312953 -0.050088111 0
0.26096335 2.6301055 0.43377757 0
0.261356 2.6246915 0.60977477 0
0.2992363 1.8290564 -0.050063614 0
0.35606709 1.1620034 0.038162693 0
0.2302013 2.6393564 0.435877 0
0.22984898 2.6434917 0.61518848 0
0.2798436 1.8242097 -0.049954414 0
0.19746433 2.665724 0.4411509 0
0.19845192 2.6556358 0.61900425 0
0.25941974 1.8293564 -0.050212782 0
0.1658944 2.6748013 0.4433696 0
0.16668825 2.6676252 0.62288707 0
0.3467308 1.0400872 0.46884251 0
0.24033239 1.8221575 -0.050036699 0
0.13463907 2.6787596 0.44473371 0
0.13490938 2.6765687 0.62609565 0
0.22130087 1.8154459 -0.049886521 0
0.10157003 2.6945879 0.44833225 0
0.10271646 2.6861703 0.62958205 0
0.20118742 1.816691 -0.050031912 0
0.068345979 2.708015 0.45157552 0
0.071835831 2.6845992 0.63029754 0
0.18235032 1.809393 -0.049877774 0
0.037071899 2.7065365 0.45217857 0
0.03660728 2.7094057 0.63793236 0
0.1616414 1.8134112 -0.05014202 0
0.0015199052 2.7290022 0.45723885 0
0.0027080642 2.722208 0.64258969 0
0.14454789 1.7971611 -0.049680084 0
-0.029631449 2.7241931 0.45738813 0
-0.028784407 2.7196851 0.64339024 0
0.12220497 1.8086708 -0.050235681 0
-0.089841321 2.8638537 0.1006602 0
-0.087738112 2.8533878 0.28980228 0
-0.062005743 2.7253385 0.45870519 0
-0.062741593 2.7290003 0.6473766 0
0.10308839 1.8032237 -0.050183941 0
-0.11399277 2.8171909 0.099204198 0
-0.11421926 2.818249 0.2866829 0
-0.095168963 2.7292666 0.46061411 0
-0.094377473 2.7255697 0.64815962 0
0.084583685 1.795235 -0.0500478 0
-0.14166225 2.790616 0.098490588 0
-0.14590193 2.8092685 0.2864742 0
-0.13131954 2.7451127 0.46480983 0
-0.12775053 2.7294106 0.65095145 0
0.066653803 1.7852541 -0.049846638 0
-0.17566426 2.7924929 0.098832346 0
-0.17365278 2.7841318 0.28452307 0
-0.16129126 2.7327487 0.46386984 0
-0.16180696 2.7348926 0.65429252 0
0.046055064 1.7863469 -0.050061025 0
-0.2082832 2.7879229 0.098953471 0
-0.21049388 2.7966285 0.28677717 0
-0.19620962 2.7403774 0.46671703 0
-0.19575144 2.7385731 0.65728283 0
0.02608289 1.7844988 -0.050177027 0
-0.25455874 2.8340766 0.10096468 0
-0.25210142 2.8248863 0.29084376 0
-0.22539748 2.7250156 0.4653638 0
-0.22995956 2.7420776 0.66034937 0
0.0075116022 1.7773499 -0.050106179 0
-0.26144266 2.7347436 0.46877459 0
-0.26028895 2.7306368 0.65958017 0
-0.012182666 1.7741792 -0.050191812 0
-0.29171246 2.7231612 0.46827662 0
-0.29535598 2.7355306 0.6632539 0
-0.029633714 1.7635165 -0.050007131 0
-0.3272686 2.7289443 0.47112587 0
-0.32624859 2.7256358 0.66311145 0
-0.049653217 1.7612418 -0.050144535 0
-0.36088759 2.7273998 0.47268295 0
-0.36122233 2.7284391 0.66647607 0
-0.068588212 1.755426 -0.050158635 0
-0.39530849 2.7275429 0.47464806 0
-0.39182556 2.7171798 0.66618818 0
-0.083779827 1.7388804 -0.049775921 0
-0.42717105 2.7195339 0.4751468 0
-0.42437536 2.71155 0.66752476 0
-0.10224546 1.7320997 -0.049769737 0
-0.45750958 2.7071235 0.4748798 0
-0.45593369 2.7027986 0.66813087 0
-0.12246563 1.7299556 -0.049949385 0
-0.48776925 2.6945956 0.47466236 0
-0.48506701 2.6874599 0.66705102 0
-0.14289667 1.727993 -0.050146636 0
-0.52137685 2.6906519 0.47618103 0
-0.52040309 2.688175 0.67046708 0
-0.16258658 1.7238362 -0.050270192 0
-0.54644829 2.665199 0.47360048 0
-0.55081487 2.6759076 0.67044598 0
-0.17718126 1.7073886 -0.049927633 0
-0.57983589 2.6603405 0.47509992 0
-0.57871389 2.657685 0.66888118 0
-0.1968099 1.7030435 -0.050061934 0
-0.61236477 2.6529834 0.47619829 0
-0.61380875 2.6562843 0.67208976 0
-0.21365918 1.6923193 -0.049956683 0
-0.63861477 2.631367 0.47456113 0
-0.63835752 2.6307986 0.66869533 0
-0.23150815 1.6838999 -0.049949996 0
-0.67396176 2.6297243 0.47695678 0
-0.67104173 2.623482 0.67048532 0
-0.24993666 1.6766834 -0.049999848 0
-0.70204878 2.612277 0.47629029 0
-0.70217848 2.6125455 0.67137676 0
-0.2622655 1.6571542 -0.049567997 0
-0.72742689 2.5895965 0.47463593 0
-0.72367096 2.5820677 0.66681367 0
-0.29034019 1.6688766 -0.05039439 0
-0.75932693 2.5800812 0.47570574 0
-0.75929868 2.5800264 0.67045802 0
-0.3061775 1.6562909 -0.050258085 0
-0.78457212 2.5576968 0.47423697 0
-0.78506362 2.5586228 0.66866338 0
-0.31916678 1.6386921 -0.049924929 0
-0.81111836 2.5381074 0.47339773 0
-0.81208766 2.5398796 0.66772401 0
-0.33474839 1.6261663 -0.049803969 0
-0.61674368 2.1266539 0.082313083 0
-0.83475316 2.5135791 0.47159907 0
-0.83466136 2.5134161 0.66461647 0
-0.35478044 1.6214757 -0.050013576 0
-0.62230003 2.0825975 0.08104609 0
-0.85806477 2.4889839 0.46983513 0
-0.86265886 2.4969027 0.66450453 0
-0.37272173 1.6129891 -0.050077375 0
-0.61527181 2.0192001 0.078968197 0
-0.89013803 2.4795325 0.4713003 0
-0.8877126 2.4754705 0.66303456 0
-0.39145571 1.6057009 -0.050201312 0
-0.62282276 1.982327 0.077981837 0
-0.90718138 2.4452145 0.46759871 0
-0.91136146 2.452019 0.66104251 0
-0.40510416 1.5901936 -0.049989078 0
-0.61637759 1.9245958 0.076110788 0
-0.93554997 2.42978 0.46794158 0
-0.94222391 2.4403434 0.66267794 0
-0.41522568 1.5695258 -0.049562689 0
-0.6166364 1.8796011 0.074763134 0
-0.96068847 2.4092753 0.46727338 0
-0.96102583 2.4097948 0.65870285 0
-0.43780917 1.5680606 -0.04996245 0
-0.61638558 1.835548 0.073444672 0
-0.97451127 2.37198 0.46302691 0
-0.97791457 2.3770778 0.65410131 0
-0.44984269 1.5507119 -0.049690276 0
-0.615641 1.7924124 0.072154358 0
-1.0005749 2.3535686 0.46291146 0
-1.0024066 2.3562386 0.65320027 0
-0.47020727 1.5455139 -0.049952943 0
-0.62108839 1.7596376 0.071304642 0
-1.0241474 2.3316407 0.4620913 0
-1.0235792 2.3308344 0.65096229 0
-0.48809874 1.5365771 -0.050064504 0
-0.61526275 1.7123009 0.069808431 0
-0.61707389 1.7148037 0.19841045 0
-1.0393174 2.2982886 0.45878613 0
-1.0518599 2.3156207 0.65199661 0
-0.077395931 0.96903974 0.44120789 0
-0.50509685 1.5263007 -0.050127506 0
-0.61938334 1.6801139 0.068968743 0
-0.62119794 1.6825563 0.19587776 0
-1.0698978 2.286442 0.46032459 0
-1.0685586 2.2846398 0.64814174 0
-0.092490152 0.97099096 0.44646126 0
-0.52060658 1.5139946 -0.050109543 0
-0.61583126 1.6388385 0.067715183 0
-0.61946881 1.6436075 0.19242185 0
-1.0804942 2.248033 0.45593986 0
-1.0800511 2.2474523 0.64232534 0
-0.093670681 0.95426178 0.44012931 0
-0.53076178 1.4948642 -0.0497908 0
-0.61379111 1.6009231 0.066599533 0
-0.62380457 1.613714 0.19016464 0
-1.0977988 2.2191782 0.45373034 0
-1.099671 2.2215695 0.64016092 0
-0.11120261 0.95893347 0.44734269 0
-0.54904485 1.486205 -0.049954176 0
-0.61635709 1.5699922 0.065791227 0
-0.62135565 1.5762141 0.18684343 0
-1.1158288 2.1917105 0.45186952 0
-1.1148307 2.1904683 0.636347 0
-0.12306823 0.95596969 0.44986987 0
-0.55959433 1.4679779 -0.049687169 0
-0.62129402 1.5428286 0.065150283 0
-0.61388552 1.533841 0.18280457 0
-1.1253449 2.1543152 0.44772172 0
-1.1285218 2.1581693 0.63216013 0
-0.13709141 0.95542043 0.4540855 0
-0.57734191 1.4585491 -0.049834866 0
-0.62589085 1.5159577 0.064519055 0
-0.61718953 1.5056684 0.18070799 0
-1.145842 2.130794 0.44683465 0
-1.14117 2.1252694 0.62778503 0
-0.15718891 0.96172279 0.46295092 0
-0.5985992 1.4530023 -0.050178163 0
-0.61699903 1.4742125 0.063180618 0
-0.61562133 1.4726244 0.17790119 0
-1.161213 2.1015453 0.4446317 0
-1.1529237 2.09199 0.62328714 0
-0.60798478 1.433745 -0.04988284 0
-0.62389326 1.4516233 0.062737219 0
-0.64115655 1.4710243 0.17958334 0
-1.1774294 2.0737023 0.4427897 0
-1.1757135 2.0717738 0.62325013 0
-0.62006605 1.4177456 -0.049747255 0
-0.65988731 1.4613788 0.063856229 0
-0.65828156 1.4596195 0.17990489 0
-1.1738468 2.0245392 0.43577042 0
-1.1770937 2.0280969 0.61520767 0
-0.64239478 1.41283 -0.050159447 0
-0.50973123 1.2710929 0.055228524 0
-0.69490349 1.46893 0.18331112 0
-1.1964501 2.0047801 0.4359203 0
-1.1887639 1.9965682 0.61132121 0
-0.65286362 1.3951346 -0.049958054 0
-0.50627905 1.2424245 0.054400895 0
-0.72344279 1.468663 0.18540029 0
-1.1973019 1.9623234 0.43046862 0
-1.2148161 1.9805696 0.61293131 0
-0.66139376 1.3756676 -0.049671967 0
-0.51381844 1.2257504 0.054161653 0
-0.74342322 1.4589988 0.18615226 0
-1.2111174 1.9341147 0.42855734 0
-1.2068239 1.9297531 0.60221332 0
-0.68702912 1.3734248 -0.050261404 0
-0.5187636 1.2067403 0.053805627 0
-0.77207971 1.4576763 0.1882259 0
-1.225054 1.9063948 0.42679122 0
-1.2163825 1.8978047 0.59816217 0
-0.69650912 1.3549942 -0.050043225 0
-0.53220659 1.1962841 0.053887669 0
-0.80433846 1.4591533 0.19081521 0
-1.2278197 1.8682206 0.42233342 0
-1.220557 1.8612051 0.59239382 0
-0.7104497 1.3409722 -0.050057832 0
-0.55774075 1.1971335 0.054568253 0
-0.84050095 1.4634691 0.19394758 0
-1.2272195 1.8277247 0.41721404 0
-1.2278115 1.8282824 0.58793539 0
-0.72482264 1.3273289 -0.050101839 0
-0.87862575 1.4685861 0.06955725 0
-0.87256694 1.4630215 0.19643824 0
-1.2342975 1.7952452 0.41415933 0
-1.2309005 1.7921252 0.58222979 0
-0.23060919 0.8734293 0.37879813 0
-0.73386621 1.3088676 -0.04989823 0
-0.9053818 1.4624562 0.070117831 0
-0.89985096 1.4575036 0.19821192 0
-1.2331345 1.7559522 0.40924335 0
-1.2339721 1.7567023 0.57673889 0
-0.24042572 0.86700147 0.38002101 0
-0.7484622 1.2954401 -0.049971074 0
-0.94064927 1.4632277 0.071079351 0
-1.2278537 1.7139696 0.40351439 0
-1.2379408 1.7227761 0.57176387 0
-0.23077001 0.84347242 0.37057287 0
-0.760903 1.2801069 -0.049950074 0
-0.9815129 1.4678667 0.072292514 0
-1.2447368 1.6918951 0.40322134 0
-1.2405581 1.6883386 0.56653297 0
-0.23166211 0.82967281 0.36712211 0
-0.25555503 0.85000795 0.45809484 0
-0.77070343 1.2625983 -0.049815811 0
-1.0141333 1.4645504 0.073107965 0
-1.2487497 1.6591908 0.3999809 0
-1.2367444 1.6492311 0.55936909 0
-0.24991442 0.83054584 0.37314042 0
-0.77800202 1.2431844 -0.04957822 0
-1.0479989 1.4614964 0.073974252 0
-1.2604667 1.633292 0.39865607 0
-1.2391866 1.6160854 0.55449271 0
-0.25018883 0.81640947 0.36951965 0
-0.79121566 1.2286409 -0.049623001 0
-1.0867345 1.4614971 0.0750551 0
-1.2451372 1.5863117 0.39120948 0
-1.2445863 1.5858777 0.5507614 0
-0.26701474 0.81559306 0.37475356 0
-0.81903696 1.2252687 -0.05033312 0
-1.130205 1.4641671 0.076338679 0
-1.2458701 1.5529686 0.38762185 0
-1.2392863 1.5479139 0.54374731 0
-0.2604295 0.79639935 0.36772224 0
-0.25364083 0.79118735 0.43883964 0
-0.82490575 1.2048482 -0.050059792 0
-1.1713033 1.4639274 0.077502951 0
-1.2581229 1.5288619 0.38675722 0
-1.2327513 1.5098858 0.53655845 0
-0.2634083 0.78489053 0.36582726 0
-0.2695024 0.78944844 0.4446395 0
-0.83148599 1.1851807 -0.0498318 0
-1.2105855 1.4613438 0.07857652 0
-1.2521286 1.4916067 0.38189712 0
-1.2417995 1.4840822 0.53450602 0
-1.2397927 1.4826204 0.69435006 0
-0.26675147 0.77378762 0.36421078 0
-0.28558445 0.78750688 0.45053652 0
-0.84637582 1.1716009 -0.049980443 0
-1.2599947 1.4650106 0.080085248 0
-1.2545657 1.4611595 0.37904876 0
-1.2379891 1.4494004 0.5285517 0
-1.2375302 1.449075 0.68722439 0
-0.28304034 0.77198648 0.36925164 0
-0.27996671 0.76980615 0.4430846 0
-0.86169994 1.15819 -0.050154094 0
-1.3009307 1.4615276 0.081211276 0
-1.2531483 1.4285285 0.37546462 0
-1.2361885 1.416816 0.52340811 0
-1.2433163 1.4217385 0.68358618 0
-0.27954471 0.75614721 0.43899259 0
-0.87051368 1.1402515 -0.050053526 0
-1.2783511 1.414389 0.079597451 0
-1.2756954 1.412604 0.2272018 0
-1.2491767 1.3947787 0.37144533 0
-1.2419957 1.3899518 0.52077317 0
-1.2380958 1.3873304 0.67570496 0
-0.28997916 0.75003177 0.44158426 0
-0.87571979 1.1200346 -0.04980956 0
-1.276841 1.382386 0.078921109 0
-1.2782183 1.3832868 0.22568661 0
-1.2538928 1.3673768 0.36942312 0
-1.2439523 1.3608752 0.51708955 0
-1.2345564 1.35473 0.66872972 0
-0.30079299 0.74400651 0.4444277 0
-0.88489342 1.102542 -0.049746234 0
-1.2796664 1.3537019 0.078450739 0
-1.2805598 1.3542702 0.22420759 0
-1.249414 1.3344549 0.36552569 0
-1.2344705 1.3249477 0.51008773 0
-1.2429875 1.3303663 0.66669273 0
-0.30424589 0.73312652 0.44292846 0
-0.8984257 1.087795 -0.049875673 0
-1.2881209 1.3288857 0.078235552 0
-1.2818753 1.3250216 0.22265676 0
-1.2475581 1.3037909 0.36230302 0
-1.2458845 1.3027555 0.50954533 0
-1.2433335 1.3011771 0.66162908 0
-0.91762376 1.076345 -0.05024793 0
-1.3002199 1.3064334 0.078186885 0
-1.3083405 1.3113171 0.22431794 0
-1.2495108 1.2759377 0.35998768 0
-1.2388808 1.2695448 0.50360733 0
-1.2463379 1.2740296 0.65777898 0
-0.92157114 1.0556753 -0.04999283 0
-1.3313559 1.2951412 0.078937501 0
-1.3323931 1.2957472 0.22568816 0
-1.2479635 1.2464092 0.35703182 0
-1.2406871 1.242157 0.50044036 0
-1.2335397 1.2379802 0.64799994 0
-0.93785119 1.0422088 -0.050256543 0
-1.3790213 1.2926174 0.080367178 0
-1.3716158 1.288414 0.22894761 0
-1.2525409 1.220827 0.35544449 0
-1.2420219 1.2148564 0.49725908 0
-1.2405519 1.214022 0.64604342 0
-0.94062805 1.0210851 -0.04997493 0
-1.2560543 1.1949072 0.3537156 0
-1.2459549 1.1893417 0.49495718 0
-1.2391038 1.1855663 0.64100152 0
-0.94620287 1.0016795 -0.049819294 0
-1.2341194 1.1556479 0.34686068 0
-1.2389241 1.1582172 0.48959193 0
-1.2398911 1.1587343 0.63697249 0
-0.96348023 0.98846394 -0.050145183 0
-1.2709712 1.147954 0.35209453 0
-1.2432622 1.1335819 0.48764214 0
-1.2427225 1.1333019 0.63386285 0
-0.96415269 0.96663851 -0.049812149 0
-1.2723683 1.1216111 0.35015804 0
-1.2359552 1.1033025 0.4824681 0
-1.2342275 1.1024337 0.62667477 0
-0.98243451 0.95364892 -0.050191406 0
-1.2809043 1.0990423 0.34973222 0
-1.2362692 1.0772992 0.479597 0
-1.2270573 1.072812 0.62016517 0
-0.98720098 0.93398565 -0.050041404 0
-1.28929 1.0764642 0.34933582 0
-1.2424343 1.0543649 0.47848603 0
-1.2369834 1.0517941 0.62012047 0
-0.98976934 0.91343218 -0.04981574 0
-1.2945399 1.0525117 0.3483766 0
-1.2441505 1.0295169 0.476215 0
-1.2422251 1.0286382 0.61845994 0
-0.99564564 0.89450878 -0.049730543 0
-1.3181813 1.036816 0.35110763 0
-1.2399837 1.0023142 0.47240356 0
-1.2358923 1.000509 0.61270612 0
-1.0149817 0.88138449 -0.050177433 0
-1.3121032 1.0080336 0.34803647 0
-1.2447695 0.97933239 0.47119066 0
-1.2380537 0.97646976 0.61018348 0
-1.0278001 0.86523438 -0.050376799 0
-1.3397269 0.9935776 0.35162449 0
-1.237756 0.95162135 0.46680889 0
-1.2315416 0.94906437 0.60466272 0
-1.014573 0.8385945 -0.049582612 0
-1.3388184 0.96725672 0.34969398 0
-1.2323251 0.92499959 0.46297932 0
-1.2386205 0.92749768 0.60415792 0
-1.031446 0.82405841 -0.049955562 0
-1.3540565 0.94739324 0.35095447 0
-1.2543815 0.90928721 0.46676788 0
-1.2349955 0.90187585 0.59994006 0
-1.0320493 0.80325246 -0.049714845 0
-1.3446553 0.91827238 0.34752241 0
-1.2470883 0.88237363 0.462614 0
-1.2255815 0.87446052 0.59380412 0
-1.0462904 0.78744704 -0.050001588 0
-1.3661945 0.90059966 0.35009474 0
-1.2391897 0.85567707 0.45840672 0
-1.2481242 0.85883725 0.59909481 0
-1.0425819 0.765329 -0.04961786 0
-1.3694626 0.87633872 0.34921855 0
-1.2391543 0.83208561 0.45642683 0
-1.2463216 0.83451962 0.59587836 0
-1.0576371 0.74960214 -0.049950693 0
-1.3854364 0.85633963 0.35081393 0
-1.2448641 0.81056672 0.45607641 0
-1.2382427 0.80841064 0.59058642 0
-1.0606052 0.72985792 -0.049837627 0
-1.3881193 0.83195984 0.34993991 0
-1.2402123 0.78585011 0.45303091 0
-1.2337358 0.78383106 0.58667487 0
-1.0725675 0.71287388 -0.050069321 0
-1.3949778 0.80894768 0.34991285 0
-1.2375516 0.76203686 0.45060986 0
-1.2376933 0.76207912 0.58582395 0
-1.0873778 0.69652641 -0.050413854 0
-1.4103765 0.7883637 0.35154158 0
-1.2353176 0.7385897 0.44839036 0
-1.2385317 0.73950356 0.58399224 0
-1.0765946 0.67299408 -0.049818214 0
-1.4109739 0.76353246 0.35044777 0
-1.2413571 0.71760607 0.44844341 0
-1.2463815 0.71896654 0.58468151 0
-1.085791 0.65503305 -0.049971975 0
-1.4106289 0.73861253 0.34924033 0
-1.2408258 0.69492286 0.44683501 0
-1.2307625 0.69233358 0.57739526 0
-1.0877498 0.63519174 -0.049867623 0
-1.416733 0.71543521 0.3492921 0
-1.2493672 0.6746124 0.44768927 0
-1.2334285 0.67072475 0.5765081 0
-1.0942036 0.61645943 -0.049937427 0
-1.4207618 0.69176793 0.34901375 0
-1.237404 0.64948326 0.44323939 0
-1.2485685 0.65205795 0.57997549 0
-1.1047391 0.59856081 -0.050164796 0
-1.4312532 0.66954154 0.34998393 0
-1.239794 0.62792033 0.44263196 0
-1.2434375 0.62871236 0.57661194 0
-1.1031181 0.57801253 -0.049956843 0
-1.443622 0.64755636 0.35134885 0
-1.2353604 0.60502142 0.44031999 0
-1.2330499 0.60454953 0.57157212 0
-1.1174808 0.56066567 -0.050339777 0
-1.4386654 0.62206149 0.34958017 0
-1.2532313 0.58661497 0.4438822 0
-1.2446402 0.5849728 0.57409191 0
-1.1173602 0.54046136 -0.050204575 0
-1.450482 0.59980148 0.35094693 0
-1.2437882 0.56298244 0.44041821 0
-1.2228179 0.5592469 0.56539822 0
-1.1143258 0.51986927 -0.049973428 0
-1.4451246 0.57450753 0.34922293 0
-1.2402327 0.54066539 0.43856087 0
-1.2459471 0.54160923 0.57198972 0
-1.1239967 0.50137341 -0.050210927 0
-1.4541728 0.55164659 0.35018834 0
-1.2359848 0.51842493 0.43660101 0
-1.2411208 0.51920694 0.56923556 0
-1.1152072 0.48013186 -0.049790978 0
-1.4451548 0.52612728 0.34791481 0
-1.2453367 0.49827218 0.43822011 0
-1.2341697 0.49671549 0.5658673 0
-1.1237739 0.46138278 -0.050005913 0
-1.4544917 0.50324762 0.34904009 0
-1.2390555 0.47597602 0.43588164 0
-1.229069 0.47471184 0.56322002 0
-1.1206638 0.441149 -0.04980946 0
-0.50366837 0.37092614 0.039639719 0
-0.5163182 0.37236589 0.10863173 0
-0.51912856 0.37268573 0.17874068 0
-1.2377613 0.45447636 0.43489918 0
-1.2263354 0.45317593 0.56146204 0
-1.123889 0.42169169 -0.049849734 0
-0.51306593 0.35995144 0.039931454 0
-0.51045525 0.35968757 0.10785968 0
-0.51094514 0.3597371 0.17702375 0
-1.2417688 0.43360665 0.43534699 0
-1.2397165 0.4333992 0.56518555 0
-1.1204219 0.4016113 -0.049658902 0
-0.46715057 0.34388015 0.038245384 0
-0.51494139 0.34810352 0.10822225 0
-0.50920922 0.34759694 0.1765056 0
-1.2458545 0.41269609 0.43588164 0
-1.239538 0.4121379 0.56445938 0
-1.1165353 0.38163105 -0.049462289 0
-0.51687068 0.33623883 0.10832465 0
-0.50772768 0.33554676 0.17606162 0
-1.2322772 0.39039224 0.43196395 0
-1.2345339 0.39056307 0.56221324 0
-1.1354251 0.36322254 -0.050089598 0
-0.49875361 0.32308441 0.10628442 0
-0.5060724 0.32354581 0.17561401 0
-1.2398597 0.36980647 0.43353042 0
-1.2452043 0.37014344 0.56528473 0
-1.236932 0.3696219 0.69859469 0
-1.141995 0.34374681 -0.050284401 0
-0.51466513 0.3121222 0.107925 0
-0.50833571 0.3118031 0.17590162 0
-1.2319736 0.34828275 0.43121064 0
-1.2379211 0.3485826 0.56245923 0
-1.2385056 0.34861204 0.69875252 0
-0.34639996 0.30363971 0.46853679 0
-1.132903 0.32353848 -0.049928322 0
-0.52045465 0.30039084 0.10849106 0
-0.5205251 0.30039352 0.1780072 0
-1.2311343 0.32725117 0.43076029 0
-1.2346098 0.32738253 0.56104785 0
-1.2403284 0.32759866 0.69912314 0
-0.35522652 0.294146 0.47351834 0
-1.1279052 0.3036814 -0.049727667 0
-0.40597397 0.28549519 0.35328609 0
-0.41460741 0.28571269 0.42999759 0
-0.3844105 0.28495198 0.49064597 0
-1.1394156 0.28417066 -0.050125383 0
-0.39924186 0.27484828 0.42220816 0
-0.37240148 0.27451023 0.48340818 0
-1.1379493 0.26437622 -0.05006858 0
-0.38124341 0.26437423 0.4131698 0
-0.38148767 0.26437423 0.48875889 0
-0.90243548 -0.98929477 -0.091060184 0
-1.0189078 -0.98929507 -0.091125391 0
-1.1383619 -0.98929536 -0.086281054 0
-1.1371237 -0.98929536 -0.058971826 0
-1.1298211 -0.98929536 -0.031189388 0
-1.1223842 -0.9892953 -0.0038842761 0
-1.1298716 -0.98929536 0.021913605 0
-1.1194482 -0.9892953 0.048809521 0
-1.1396657 -0.98929536 0.074450009 0
-1.1224413 -0.9892953 0.10100247 0
-1.1349207 -0.98929536 0.12744536 0
-1.1284027 -0.98929536 0.15361278 0
-1.1262259 -0.98929536 0.179837 0
-1.135588 -0.98929536 0.20712298 0
-1.1321496 -0.98929536 0.23346792 0
-1.1226538 -0.9892953 0.25894454 0
-1.1321402 -0.98929536 0.28726575 0
-1.13867 -0.98929536 0.31569088 0
-0.89450282 -1.0118957 -0.089434631 0
-1.0152527 -1.0149436 -0.090497918 0
-1.1271436 -1.0177679 -0.084496357 0
-1.1280252 -1.0177902 -0.057743702 0
-1.1283321 -1.0177979 -0.031057423 0
-1.1323113 -1.0178983 -0.0048445743 0
-1.1268325 -1.01776 0.022100957 0
-1.1214452 -1.0176241 0.048699901 0
-1.133527 -1.0179291 0.074584335 0
-1.1210228 -1.0176134 0.10100244 0
-1.1304247 -1.0178508 0.12734896 0
-1.1287568 -1.0178087 0.15364605 0
-1.1333023 -1.0179234 0.18035738 0
-1.126263 -1.0177457 0.20628557 0
-1.1403116 -1.0181003 0.23446481 0
-1.124279 -1.0176957 0.2592234 0
-1.1250966 -1.0177163 0.28616667 0
-1.1286596 -1.0178062 0.31387264 0
-0.90311748 -1.0349606 -0.091450162 0
-1.007566 -1.0402366 -0.08923135 0
-1.1211114 -1.0459721 -0.08368104 0
-1.1237934 -1.0461075 -0.057299975 0
-1.2281041 -1.0513766 -0.0428592 0
-1.2516435 -1.0525657 -0.016098453 0
-1.2364405 -1.0517977 0.014353143 0
-1.246433 -1.0523025 0.042823739 0
-1.2477052 -1.0523667 0.071901023 0
-1.2458128 -1.0522711 0.10100604 0
-1.2485781 -1.0524108 0.13013156 0
-1.2322104 -1.051584 0.15852474 0
-1.2524829 -1.052608 0.1887826 0
-1.2400491 -1.05198 0.2170272 0
-0.90528601 -1.0580308 -0.09221942 0
-1.0111099 -1.0660574 -0.090204217 0
-1.1281824 -1.0749372 -0.085141085 0
-1.1262903 -1.0747938 -0.057904396 0
-1.2542609 -1.0845002 -0.046154473 0
-1.2484956 -1.0840628 -0.015990546 0
-1.24391 -1.0837151 0.013691263 0
-1.251143 -1.0842637 0.042511072 0
-1.2380377 -1.0832696 0.072080068 0
-1.2292106 -1.0826001 0.10100562 0
-1.2376128 -1.0832374 0.12992178 0
-1.2447432 -1.0837783 0.15920241 0
-1.245566 -1.0838406 0.18843736 0
-1.234816 -1.0830252 0.21672221 0
-0.8945123 -1.0799886 -0.090349801 0
-1.0103303 -1.0917188 -0.090484299 0
-1.1487557 -1.1057386 -0.088955976 0
-1.234302 -1.114403 -0.073516868 0
-1.2352266 -1.1144966 -0.044247631 0
-1.2405194 -1.1150327 -0.015503896 0
-1.2487313 -1.1158644 0.013157235 0
-1.2383597 -1.1148139 0.042978466 0
-1.2270831 -1.1136718 0.072271444 0
-1.2364792 -1.1146234 0.1010059 0
-1.2451111 -1.1154977 0.13016221 0
-1.2490156 -1.1158931 0.15953285 0
-1.2353479 -1.1145089 0.18791445 0
-1.9884956 -1.1907887 0.28773338 0
-1.999482 -1.1919014 0.33608279 0
-1.9235598 -1.184212 0.37293044 0
-1.4687635 -1.1381495 0.37930048 0
-0.89796585 -1.1033182 -0.09164118 0
-1.0086313 -1.1173555 -0.090713523 0
-1.150426 -1.1353414 -0.089780085 0
-1.1992376 -1.1415329 -0.069052495 0
-1.2438036 -1.1471858 -0.045676608 0
-1.2443192 -1.1472512 -0.016197084 0
-1.2347237 -1.1460341 0.013891267 0
-1.236299 -1.1462339 0.042908028 0
-1.2323017 -1.1457269 0.072066419 0
-1.2305721 -1.1455076 0.10100584 0
-1.23669 -1.1462835 0.1300485 0
-1.2522287 -1.1482545 0.15985259 0
-1.2294433 -1.1453643 0.18774858 0
-1.6008286 -1.1924726 0.36643296 0
-1.4639471 -1.1751099 0.37918794 0
-0.88930619 -1.1251243 -0.090459295 0
-1.0059434 -1.14292 -0.090878241 0
-1.1474272 -1.1645064 -0.089955084 0
-1.1849867 -1.1702371 -0.067626961 0
-1.6167458 -1.2361114 -0.090285845 0
-2.5588999 -1.3798579 -0.14073418 0
-3.4253519 -1.5120544 -0.14133401 0
-5.1322575 -1.7724807 -0.14077088 0
-10.287188 -2.5589797 -0.14100207 0
-1.3445079 -1.1945755 0.29232469 0
-1.3594635 -1.1968573 0.32722831 0
-1.3550524 -1.1961843 0.35941607 0
-0.89325255 -1.1489105 -0.092112608 0
-1.0068743 -1.1691918 -0.091859318 0
-1.1465689 -1.1941272 -0.090610899 0
-1.1976782 -1.2032501 -0.070144393 0
-1.6137357 -1.2775158 -0.090728946 0
-2.5535386 -1.4452692 -0.14123745 0
-3.4004445 -1.5964407 -0.14057936 0
-5.105649 -1.9008172 -0.14052433 0
-10.235124 -2.816421 -0.14078516 0
-1.3351166 -1.2277826 0.29178435 0
-1.323328 -1.2256784 0.32214034 0
-1.337621 -1.2282296 0.35716158 0
-0.88006157 -1.1696048 -0.090186156 0
-0.99597853 -1.1933283 -0.090698861 0
-1.1414527 -1.223101 -0.09068089 0
-1.1859747 -1.2322129 -0.069294669 0
-1.6089696 -1.3187828 -0.091089226 0
-2.5447793 -1.5103053 -0.14157651 0
-3.376272 -1.6804782 -0.14002484 0
-5.0912576 -2.0314665 -0.14101061 0
-10.194995 -3.0759952 -0.14100423 0
-1.2551695 -1.2463742 0.31177378 0
-1.2318432 -1.2416003 0.33806026 0
-0.87345028 -1.1913651 -0.089797534 0
-0.98167163 -1.2163743 -0.088989682 0
-1.1311878 -1.2509263 -0.090005822 0
-1.1915156 -1.2648675 -0.071032427 0
-1.600273 -1.3593283 -0.091104738 0
-2.531738 -1.5745826 -0.14166415 0
-3.3637934 -1.7668642 -0.14045793 0
-5.060483 -2.1589561 -0.14087403 0
-10.138371 -3.332417 -0.14098684 0
-0.86482519 -1.2125258 -0.089084499 0
-0.9742583 -1.2407416 -0.088723011 0
-1.1218146 -1.2787868 -0.089596547 0
-1.3259431 -1.3314183 -0.091606207 0
-1.5837996 -1.3979027 -0.090304844 0
-1.986861 -1.5018262 -0.090643026 0
-3.3509681 -1.8535408 -0.14102574 0
-5.0309963 -2.286711 -0.14095269 0
-10.060885 -3.5835934 -0.14062336 0
-0.87006325 -1.2374756 -0.091548033 0
-0.97079384 -1.2661766 -0.089347817 0
-1.1011367 -1.3033149 -0.087372147 0
-1.2982924 -1.3594903 -0.088888787 0
-1.5752063 -1.4383909 -0.090574749 0
-1.9735129 -1.5518796 -0.090664037 0
-3.3271587 -1.9375716 -0.14095767 0
-4.9972534 -2.413429 -0.14098147 0
-9.9904289 -3.8361263 -0.14057994 0
-0.86047214 -1.2584202 -0.090868376 0
-0.9688313 -1.2922732 -0.090400152 0
-1.1141764 -1.3376811 -0.091042049 0
-1.3005605 -1.39591 -0.090658851 0
-1.5628271 -1.4778458 -0.090507858 0
-1.959363 -1.6017292 -0.090729885 0
-3.2976172 -2.0198185 -0.14062397 0
-4.9557328 -2.537837 -0.1407865 0
-9.9278555 -4.091198 -0.14088285 0
-0.84951371 -1.2787445 -0.08999408 0
-0.96804744 -1.3190858 -0.09182658 0
-1.0934603 -1.3617685 -0.089033239 0
-1.291081 -1.429026 -0.09083613 0
-1.5623645 -1.5213537 -0.092034005 0
-1.9271281 -1.6454961 -0.089136682 0
-3.2675242 -2.1016819 -0.14039935 0
-4.91539 -2.6625109 -0.14080158 0
-9.8397217 -4.3384409 -0.14071807 0
-0.83417773 -1.2972487 -0.088235565 0
-0.9602322 -1.3437304 -0.091990031 0
-1.0867548 -1.3903848 -0.08956591 0
-1.2730881 -1.4590939 -0.08986453 0
