# .PCD v0.7 - Point Cloud Data file format
VERSION 0.7
FIELDS x y z intensity
SIZE 4 4 4 4
TYPE F F F F
COUNT 1 1 1 1
WIDTH 1329
HEIGHT 1
VIEWPOINT 0 0 0 1 0 0 0
POINTS 1329
DATA ascii
0.71134794 -1.9241935 -0.092005737 0
0.82226413 -2.0701668 -0.089805447 0
0.99154198 -2.2929482 -0.090385996 0
1.2399052 -2.6198115 -0.090173282 0
1.6644716 -3.1785705 -0.091250814 0
3.1420565 -5.1231747 -0.14073473 0
6.2930851 -9.2701473 -0.14083785 0
0.56332195 -1.6918515 -0.090314664 0
0.6306138 -1.7759213 -0.088809572 0
0.73425198 -1.9053999 -0.091885202 0
0.85218859 -2.0527418 -0.090460874 0
1.0198567 -2.2622151 -0.089588784 0
1.2849454 -2.5933988 -0.090814807 0
1.7106113 -3.1251972 -0.090292238 0
3.245033 -5.0421996 -0.14071049 0
6.4994712 -9.1080742 -0.14081757 0
0.57592571 -1.6715729 -0.088684 0
0.65547222 -1.7659688 -0.090332828 0
0.75387448 -1.8827404 -0.091054179 0
0.88017517 -2.0326183 -0.090771802 0
1.0514157 -2.2358251 -0.089546375 0
1.3279233 -2.5639498 -0.091236837 0
1.7650313 -3.082655 -0.090408675 0
3.345727 -4.9584274 -0.14067204 0
6.7020588 -8.9413033 -0.14081077 0
0.59721702 -1.6616527 -0.090048693 0
0.67612624 -1.7506356 -0.090692244 0
0.76984364 -1.8563172 -0.08948525 0
0.90554774 -2.0093455 -0.09062954 0
1.0774661 -2.2032113 -0.088653944 0
1.363663 -2.5259447 -0.090734877 0
1.8268013 -3.0482082 -0.091411136 0
3.4451332 -4.8731399 -0.1406949 0
6.8958054 -8.7643328 -0.14064407 0
0.61951596 -1.6523167 -0.091770135 0
0.69591463 -1.7342095 -0.090911441 0
0.79465103 -1.8400466 -0.090250529 0
0.93766165 -1.9933419 -0.092002623 0
1.1170601 -2.1856415 -0.090248726 0
1.3996249 -2.4885273 -0.090409838 0
1.8556054 -2.9772997 -0.089098789 0
3.5506876 -4.7942839 -0.14128575 0
7.089972 -8.5880966 -0.14065054 0
0.63509214 -1.6355252 -0.091480099 0
0.7148006 -1.7167566 -0.090995409 0
0.817559 -1.8214781 -0.090648331 0
0.96466547 -1.9713951 -0.092397682 0
1.1475707 -2.1577947 -0.090362348 0
1.4373058 -2.4530654 -0.090449683 0
1.9135786 -2.9384375 -0.089937679 0
3.6347353 -4.6924772 -0.14056617 0
7.2838149 -8.411274 -0.14079575 0
0.64999741 -1.6181594 -0.09112554 0
0.72998375 -1.6956617 -0.09022323 0
0.83707649 -1.7994285 -0.090369277 0
0.98151582 -1.9393821 -0.090906121 0
1.1741008 -2.1259861 -0.089941286 0
1.4837606 -2.426029 -0.091746725 0
1.9596721 -2.8871605 -0.089696608 0
3.7256775 -4.5983205 -0.14047955 0
7.4725089 -8.2287903 -0.14091712 0
0.65688372 -1.5935012 -0.08858981 0
0.75228643 -1.6813841 -0.091430016 0
0.86135113 -1.781852 -0.091285504 0
1.0116818 -1.9203331 -0.092149325 0
1.1955011 -2.0896633 -0.08884389 0
1.5063283 -2.3759902 -0.09007021 0
2.5511923 -3.3384953 -0.14142855 0
3.8271847 -4.5139103 -0.14121594 0
7.6507382 -8.0360813 -0.14085227 0
0.67503774 -1.5794898 -0.089470752 0
0.76051182 -1.6543293 -0.089177497 0
0.87590003 -1.7553611 -0.090155207 0
1.0317751 -1.8918424 -0.091574751 0
1.2295547 -2.0650144 -0.089880086 0
1.5260805 -2.3246469 -0.088239498 0
2.59975 -3.2647321 -0.14050835 0
3.9135957 -4.4151106 -0.14113547 0
7.8236294 -7.8386631 -0.1407759 0
0.69082683 -1.5632201 -0.089778356 0
0.78347749 -1.6403015 -0.09075243 0
0.89805895 -1.7356282 -0.090819843 0
1.0503361 -1.8623164 -0.090864889 0
1.2422765 -2.0220025 -0.087747298 0
1.5636488 -2.2893705 -0.088769071 0
2.6605132 -3.2019145 -0.14088838 0
3.9996252 -4.3159981 -0.14118624 0
7.9952459 -7.640183 -0.14081495 0
0.70958078 -1.5491816 -0.090995468 0
0.79858834 -1.6195089 -0.090496622 0
0.91391641 -1.7106327 -0.090256862 0
1.0706172 -1.8344463 -0.090611972 0
1.2765326 -1.9971457 -0.089027546 0
1.6022701 -2.2545197 -0.089520492 0
2.716253 -3.1347079 -0.1409561 0
4.0752716 -4.2085056 -0.14076993 0
8.1579599 -7.4343481 -0.14073938 0
0.72347867 -1.5311222 -0.090994664 0
0.81535447 -1.6000229 -0.090760089 0
0.93446589 -1.6893485 -0.090799205 0
1.1059692 -1.8179644 -0.09313596 0
1.3175048 -1.976602 -0.091357507 0
1.6273071 -2.2089329 -0.088776581 0
2.7680178 -3.0643895 -0.14082485 0
4.1637726 -4.1111121 -0.14126886 0
8.3141766 -7.2236362 -0.14062889 0
0.72851342 -1.5067415 -0.088801987 0
0.83164954 -1.5800953 -0.091024719 0
0.95267689 -1.6661738 -0.090969644 0
1.1054273 -1.7748147 -0.089497454 0
1.3331892 -1.9368063 -0.09009438 0
1.6809636 -2.1841545 -0.091457017 0
2.8198392 -2.9941595 -0.14085451 0
4.2315979 -3.9982474 -0.14071949 0
8.4777546 -7.0182495 -0.14088355 0
0.74771911 -1.4925208 -0.090437733 0
0.85575247 -1.5653241 -0.093173556 0
0.97268772 -1.6441262 -0.091610856 0
1.1299678 -1.7501167 -0.090357117 0
1.3443156 -1.8945647 -0.088352956 0
1.6919702 -2.1288478 -0.089362763 0
2.8689723 -2.922025 -0.14080778 0
4.3162227 -3.8973215 -0.14128385 0
8.6209259 -6.7982435 -0.14070843 0
0.76805454 -1.478543 -0.092423461 0
0.85716772 -1.5353801 -0.090303637 0
0.97962838 -1.6134866 -0.089803405 0
1.1594404 -1.7281723 -0.092129923 0
1.3747245 -1.8654824 -0.089461319 0
1.7380724 -2.097229 -0.091343187 0
2.9045234 -2.8412018 -0.13978784 0
4.3825479 -3.7838988 -0.14097057 0
8.7662115 -6.5798383 -0.14074881 0
0.77878344 -1.4582064 -0.092083134 0
0.87297595 -1.5149918 -0.090810023 0
0.99030995 -1.5857284 -0.088890709 0
1.1723151 -1.6954529 -0.091243945 0
1.4130199 -1.8405654 -0.091730215 0
1.7617185 -2.0507836 -0.090933912 0
2.9681442 -2.7780957 -0.14124246 0
4.4432673 -3.6673963 -0.14051415 0
8.8974619 -6.3526745 -0.14055839 0
0.78434008 -1.4350032 -0.0906092 0
0.87895137 -1.488834 -0.089290746 0
1.0222318 -1.5703561 -0.092140846 0
1.1824367 -1.6615077 -0.090059943 0
1.4158618 -1.7943193 -0.089284666 0
1.7912848 -2.0079234 -0.091293059 0
3.0037122 -2.6977568 -0.14054908 0
4.5130157 -3.5565038 -0.14070652 0
9.039525 -6.1319461 -0.14081444 0
0.79684031 -1.4159023 -0.090971895 0
0.90174049 -1.4721322 -0.091527082 0
1.0336664 -1.5428487 -0.091599859 0
1.204028 -1.634168 -0.090858273 0
1.4404837 -1.7609159 -0.089915954 0
1.8100306 -1.959005 -0.090616815 0
3.0564735 -2.6271386 -0.14139074 0
4.5746503 -3.4409306 -0.1406166 0
9.1657066 -5.9018846 -0.1407961 0
0.8131628 -1.3986151 -0.092355333 0
0.91517562 -1.4500271 -0.091851763 0
1.0460737 -1.5159965 -0.091373347 0
1.2091563 -1.598186 -0.089165024 0
1.4612615 -1.7252407 -0.090147249 0
1.8365179 -1.9143606 -0.090888225 0
3.0950022 -2.5486052 -0.14124802 0
4.6391912 -3.326838 -0.14083241 0
9.2800388 -5.665709 -0.14062166 0
0.8097257 -1.3716078 -0.089179836 0
0.91917723 -1.4233481 -0.090324216 0
1.0435818 -1.482157 -0.088564985 0
1.2303511 -1.5704472 -0.090131335 0
1.4766216 -1.686865 -0.089792572 0
1.8582958 -1.8672911 -0.090787224 0
3.1301098 -2.4685071 -0.14099669 0
4.6922688 -3.2069757 -0.14060459 0
9.4096489 -5.4369903 -0.14099646 0
0.82667905 -1.3544257 -0.09093798 0
0.92549855 -1.3981245 -0.089430831 0
1.0555906 -1.4556522 -0.088547967 0
1.2364337 -1.5356225 -0.088872992 0
1.5096434 -1.6564381 -0.091823302 0
1.8792176 -1.8198668 -0.090721942 0
3.1693037 -2.3903532 -0.14121591 0
4.7515063 -3.0900161 -0.14084774 0
9.5082283 -5.1934762 -0.14072582 0
0.84099656 -1.3356895 -0.092172168 0
0.93999332 -1.3765125 -0.090342306 0
1.067277 -1.429 -0.088593356 0
1.260496 -1.5086771 -0.090495147 0
1.5223664 -1.6166638 -0.091364466 0
1.903065 -1.7736512 -0.091074221 0
3.198699 -2.3079274 -0.14084187 0
4.7900472 -2.9641464 -0.14019559 0
9.6107454 -4.9520416 -0.14071245 0
0.84687197 -1.3133897 -0.09158098 0
0.95608807 -1.3552347 -0.091678344 0
1.0839623 -1.4042284 -0.089637138 0
1.2749664 -1.4774097 -0.090761043 0
1.5359428 -1.5774003 -0.091143124 0
1.9184021 -1.7239357 -0.090689622 0
3.2328999 -2.2275724 -0.14098775 0
4.8427038 -2.844353 -0.14041266 0
9.7062645 -4.7077775 -0.14067745 0
0.86138594 -1.2942853 -0.093070768 0
0.96367329 -1.3305434 -0.09140981 0
1.0901948 -1.3753918 -0.088958494 0
1.2850248 -1.444454 -0.090484954 0
1.547869 -1.5376252 -0.090842582 0
1.9416709 -1.6772174 -0.091218807 0
3.2575951 -2.1436772 -0.1405784 0
4.8985467 -2.7253509 -0.1409352 0
9.8092232 -4.466054 -0.14097908 0
0.85295868 -1.2673075 -0.089527138 0
0.9682647 -1.3049335 -0.090674318 0
1.1095402 -1.3510339 -0.090678744 0
1.2870102 -1.408945 -0.089141198 0
1.5630528 -1.4990218 -0.091068961 0
1.9661212 -1.630549 -0.091975905 0
3.2912002 -2.062942 -0.14098401 0
4.9395552 -2.6008248 -0.14087473 0
9.8985777 -4.2190275 -0.14109537 0
0.86644137 -1.247735 -0.091022156 0
0.98945785 -1.2844698 -0.093335323 0
1.1068325 -1.3195199 -0.088709347 0
1.2917876 -1.3747505 -0.088348992 0
1.5584159 -1.45437 -0.088995345 0
1.9646771 -1.5756863 -0.090320073 0
3.3039219 -1.9756069 -0.14001217 0
4.9759173 -2.4748924 -0.14074227 0
9.9596281 -3.9631102 -0.14067586 0
0.86646461 -1.224128 -0.089651786 0
0.98069781 -1.2551231 -0.090233617 0
1.1294115 -1.2954741 -0.091195472 0
1.3025621 -1.3424554 -0.088561587 0
1.5698594 -1.4149818 -0.08902017 0
1.9667276 -1.5226651 -0.089147933 0
3.3477485 -1.8973809 -0.14146037 0
5.0125914 -2.349107 -0.14077964 0
10.034822 -3.7118013 -0.14075616 0
0.8813439 -1.2044719 -0.091671415 0
0.97687954 -1.2278228 -0.088253252 0
1.1192828 -1.2626289 -0.08823555 0
1.3151877 -1.3105119 -0.089158975 0
1.5767114 -1.3744335 -0.088612415 0
1.9752244 -1.4718379 -0.088731401 0
3.3619945 -1.8107917 -0.14091338 0
5.0509815 -2.2236133 -0.14105166 0
10.103245 -3.4584858 -0.14082617 0
0.88366115 -1.1815741 -0.091055401 0
0.99628627 -1.206108 -0.090894006 0
1.1266149 -1.2344984 -0.088368706 0
1.3276343 -1.2782878 -0.089843668 0
1.6076715 -1.3392901 -0.091213323 0
1.9823939 -1.4209185 -0.088313244 0
3.3797262 -1.725309 -0.14077561 0
5.0720162 -2.0939519 -0.14064664 0
10.158907 -3.2020643 -0.14074475 0
0.8829518 -1.1582304 -0.089912705 0
0.99955559 -1.1805654 -0.090532638 0
1.1416878 -1.20779 -0.089915656 0
1.3408016 -1.2459291 -0.090744831 0
1.6090704 -1.2973146 -0.090389825 0
2.5437114 -1.4763402 -0.14068426 0
3.3931229 -1.6390405 -0.1404839 0
5.0886464 -1.963809 -0.14019032 0
10.221879 -2.9470525 -0.14099036 0
0.89424133 -1.137133 -0.091487207 0
1.00923 -1.1561643 -0.091518961 0
1.1471413 -1.1789894 -0.08996626 0
1.3425685 -1.2113336 -0.090134911 0
1.6333513 -1.2594599 -0.092406191 0
2.5611978 -1.4130236 -0.14125261 0
3.4119339 -1.5538253 -0.14073172 0
5.1270709 -1.8376899 -0.14091964 0
10.249969 -2.6855581 -0.14056495 0
0.88908553 -1.1133465 -0.089641072 0
1.000129 -1.1288574 -0.089048453 0
1.1515269 -1.1500051 -0.089960314 0
1.3446797 -1.1769853 -0.08970014 0
1.629382 -1.2167534 -0.091194697 0
2.5590689 -1.3466148 -0.14012118 0
3.4282985 -1.4680315 -0.14095807 0
5.1443038 -1.7077285 -0.14080021 0
10.293705 -2.4270127 -0.14066353 0
0.89251733 -1.0909657 -0.089766122 0
1.0147111 -1.104901 -0.091205545 0
1.1507847 -1.120419 -0.089227386 0
1.3354275 -1.141476 -0.087782122 0
1.6275829 -1.1747941 -0.090368949 0
2.5684304 -1.2820902 -0.14023018 0
3.4390812 -1.381381 -0.14094363 0
5.1724491 -1.5790578 -0.14134635 0
10.33947 -2.1683152 -0.14096229 0
0.90138757 -1.0690223 -0.091172136 0
1.0123373 -1.0788467 -0.090266161 0
1.1344513 -1.0896596 -0.086046971 0
1.1315806 -1.0894054 -0.058540676 0
1.635964 -1.1340677 -0.090863921 0
2.5814009 -1.2177843 -0.14082992 0
3.4525852 -1.294926 -0.14127389 0
5.1714807 -1.447131 -0.14068258 0
10.347756 -1.9054806 -0.14053817 0
0.90302569 -1.0462731 -0.091153614 0
1.0150269 -1.0533479 -0.090408094 0
1.1369612 -1.0610503 -0.086102702 0
1.1292906 -1.0605658 -0.057913188 0
1.640681 -1.0928693 -0.0910495 0
2.5919104 -1.1529565 -0.14135049 0
3.4565139 -1.2075717 -0.14108589 0
5.1939068 -1.3173193 -0.14126661 0
10.384535 -1.6452006 -0.14093319 0
0.89210767 -1.0230383 -0.088586472 0
1.0226694 -1.0279825 -0.091604821 0
1.132 -1.0321227 -0.08504843 0
1.1400135 -1.0324261 -0.059218813 0
1.6427442 -1.0514638 -0.091046207 0
2.5998051 -1.0877063 -0.14177923 0
3.464654 -1.1204569 -0.14134704 0
5.1958079 -1.1860132 -0.14104663 0
10.39314 -1.3828287 -0.14082526 0
0.90012586 -1.0006374 -0.090170287 0
1.0317506 -1.0022981 -0.093192779 0
1.1302323 -1.0035408 -0.084639467 0
1.1261907 -1.0034897 -0.05717409 0
1.1250097 -1.0034748 -0.030409789 0
1.1360846 -1.0036145 -0.0049896147 0
1.1338032 -1.0035858 0.021768669 0
1.13309 -1.0035769 0.04826095 0
1.1353227 -1.003605 0.074594192 0
1.1324733 -1.003569 0.1010027 0
1.1323183 -1.0035671 0.12734137 0
1.1351594 -1.003603 0.15384109 0
1.1352119 -1.0036036 0.1803357 0
1.1472125 -1.003755 0.20803522 0
1.1277076 -1.0035089 0.23273113 0
1.1281842 -1.0035149 0.25946072 0
1.1348253 -1.0035987 0.28740168 0
1.1382856 -1.0036423 0.3152684 0
0.9019447 -0.97792435 -0.090556927 0
1.0145035 -0.97650415 -0.089944027 0
1.1201023 -0.97517174 -0.082974441 0
1.1255183 -0.97510344 -0.057079602 0
1.643661 -0.96856576 -0.091031112 0
2.5948877 -0.95656365 -0.14116564 0
3.4593265 -0.9456566 -0.14082028 0
5.1948104 -0.92375916 -0.14084609 0
10.394538 -0.85815161 -0.14070383 0
0.89591914 -0.95540208 -0.089397229 0
1.0167034 -0.95082814 -0.09048029 0
1.1366423 -0.9462862 -0.08581195 0
1.1325923 -0.94643962 -0.05817515 0
1.642749 -0.92712069 -0.091046758 0
2.5918624 -0.89117914 -0.14103733 0
3.4619505 -0.85823011 -0.1411579 0
5.1970153 -0.79252571 -0.14110288 0
10.38917 -0.59590626 -0.14073288 0
0.89893752 -0.93256986 -0.090282895 0
1.0110462 -0.92548817 -0.089656822 0
1.137666 -0.91748989 -0.086218767 0
1.1319085 -0.91785353 -0.058281843 0
1.6355244 -0.88604116 -0.09044563 0
2.584897 -0.8260712 -0.14069454 0
3.4540098 -0.77117115 -0.14091048 0
5.1884432 -0.66161054 -0.14101176 0
10.383678 -0.33343819 -0.14091325 0
0.90201062 -0.90950727 -0.091305085 0
1.0220523 -0.8988778 -0.092103161 0
1.1514238 -0.8874222 -0.088847347 0
1.3509511 -0.86975443 -0.089490451 0
1.6300489 -0.8450408 -0.090169899 0
2.5809462 -0.76084065 -0.14078732 0
3.459404 -0.6830548 -0.14175245 0
5.1717181 -0.53143257 -0.14069368 0
10.364102 -0.071656734 -0.1409197 0
0.8945964 -0.88738185 -0.090210937 0
1.015274 -0.87361956 -0.091312267 0
1.1549989 -0.85768503 -0.089924477 0
1.3526138 -0.83514863 -0.090213038 0
1.6410794 -0.80225146 -0.091956563 0
2.5631101 -0.69710118 -0.13973036 0
3.4464092 -0.59636796 -0.14145924 0
5.1561761 -0.40138271 -0.14058387 0
10.345528 0.19042137 -0.14110404 0
0.89625812 -0.86423635 -0.091180511 0
1.0039364 -0.84919554 -0.08977253 0
1.1527568 -0.82840782 -0.090164416 0
1.3412952 -0.80207217 -0.089219891 0
1.6233896 -0.76266837 -0.090487547 0
2.5672305 -0.63082975 -0.14089037 0
3.4338589 -0.50977641 -0.14135057 0
5.1471429 -0.27045968 -0.14093366 0
10.31077 0.45081165 -0.14106415 0
0.87692267 -0.84431797 -0.087755837 0
1.0158483 -0.82132506 -0.092782475 0
1.1439483 -0.80012375 -0.089434348 0
1.3464267 -0.76661247 -0.090684496 0
1.619361 -0.72144032 -0.090748854 0
2.5520856 -0.56706917 -0.1403905 0
3.4041464 -0.42604837 -0.14017989 0
5.1325412 -0.13998941 -0.14117777 0
10.255974 0.70796722 -0.14070643 0
0.88912714 -0.81917137 -0.091249205 0
0.99571931 -0.79875422 -0.089796938 0
1.1503543 -0.7691347 -0.091365881 0
1.3231769 -0.73603141 -0.088222928 0
1.3474388 -0.73138422 -0.05925617 0
1.3513759 -0.73063004 -0.02736803 0
1.3408526 -0.73264575 0.0055973995 0
1.3425932 -0.73231232 0.037376333 0
1.3419433 -0.73243684 0.069225468 0
1.3464845 -0.73156697 0.10100951 0
0.88950616 -0.79573739 -0.092326961 0
1.0020525 -0.77122062 -0.092005558 0
1.1382269 -0.74155682 -0.090321891 0
1.2067653 -0.72662663 -0.072459005 0
1.20406 -0.72721595 -0.042935673 0
1.2126442 -0.72534603 -0.014779596 0
1.2004652 -0.72799903 0.015148127 0
1.1965901 -0.72884321 0.044003576 0
1.2025107 -0.72755349 0.072378993 0
1.2047534 -0.72706491 0.10100557 0
0.87181067 -0.77644283 -0.089585371 0
0.99011147 -0.74752778 -0.09081886 0
1.1326557 -0.71268713 -0.090498112 0
1.2161424 -0.69228137 -0.074829929 0
1.2109149 -0.69355911 -0.044602055 0
1.216109 -0.69228953 -0.0157895 0
1.2057294 -0.69482654 0.01426735 0
1.2001605 -0.69618767 0.043499291 0
1.2064629 -0.69464725 0.07211718 0
1.2056878 -0.69483668 0.1010058 0
0.86461544 -0.75495845 -0.089244507 0
0.98883784 -0.72125286 -0.091822229 0
1.1123179 -0.68774867 -0.088284545 0
1.2009466 -0.66370088 -0.073764749 0
1.2062716 -0.662256 -0.044990022 0
1.2025214 -0.66327351 -0.015237531 0
1.2031721 -0.66309702 0.013886625 0
1.2197369 -0.65860242 0.042179812 0
1.2080845 -0.66176414 0.071889773 0
1.2059684 -0.66233826 0.10100604 0
0.87266105 -0.72899228 -0.092401914 0
0.98405027 -0.69572961 -0.092272349 0
1.1100804 -0.658095 -0.089266412 0
1.2020333 -0.63063633 -0.075185023 0
1.1979998 -0.63184077 -0.045034323 0
1.2047728 -0.62981826 -0.016295416 0
1.209062 -0.62853748 0.012828501 0
1.2092028 -0.6284954 0.04226739 0
1.2133628 -0.62725312 0.071551844 0
1.2098382 -0.62830567 0.10100641 0
0.86134255 -0.70854139 -0.091401704 0
0.97831249 -0.67037237 -0.092665039 0
1.1036575 -0.62947047 -0.089661725 0
1.2192198 -0.59176069 -0.079119913 0
1.2135679 -0.59360504 -0.048103843 0
1.1996658 -0.59814149 -0.016722133 0
1.213019 -0.59378415 0.011839869 0
1.2125823 -0.59392667 0.041637264 0
1.2135955 -0.59359604 0.071313314 0
1.2040657 -0.59670573 0.10100652 0
0.85403013 -0.68690681 -0.091411866 0
0.95426804 -0.65137517 -0.089530312 0
1.1041143 -0.59825867 -0.09138567 0
1.2111247 -0.5603264 -0.079466261 0
1.2032609 -0.56311387 -0.048111621 0
1.2095304 -0.56089151 -0.018714165 0
1.2152762 -0.55885476 0.010903673 0
1.2049203 -0.56252569 0.041503944 0
1.2132235 -0.55958241 0.071066685 0
1.2073983 -0.5616473 0.10100694 0
0.84444022 -0.66612673 -0.091027446 0
0.95954728 -0.6220246 -0.092376076 0
1.102438 -0.56727749 -0.092888899 0
1.1935222 -0.53237945 -0.078503974 0
1.2041843 -0.52829438 -0.049620915 0
1.2076746 -0.52695709 -0.019647552 0
1.1985071 -0.53046954 0.011317091 0
1.2116082 -0.52544999 0.04061459 0
1.2069106 -0.52724987 0.070944309 0
1.2063689 -0.52745736 0.10100725 0
0.83556443 -0.64513516 -0.090923168 0
0.95139354 -0.59737104 -0.092664964 0
1.0831141 -0.54305393 -0.091408841 0
1.2104897 -0.49052849 -0.082893468 0
1.2054901 -0.49259016 -0.051304866 0
1.2077296 -0.49166667 -0.02086967 0
1.2066935 -0.49209389 0.0097937826 0
1.2040199 -0.49319646 0.040387966 0
1.2159392 -0.48828128 0.070414394 0
1.2229728 -0.48538092 0.10100813 0
0.83075923 -0.62235469 -0.091886289 0
0.92565936 -0.58038908 -0.089463942 0
1.0714701 -0.51591045 -0.091401555 0
1.2087555 -0.45520172 -0.084619887 0
1.1978337 -0.46003148 -0.051976953 0
1.2077408 -0.45565048 -0.022191426 0
1.2009714 -0.45864394 0.0092429239 0
1.2083281 -0.45539072 0.039512008 0
1.2053421 -0.4567112 0.070352599 0
1.1999238 -0.45910719 0.10100782 0
0.81740564 -0.60334635 -0.090985514 0
0.92510992 -0.55243206 -0.091560207 0
1.0534573 -0.49175936 -0.090360232 0
1.2253699 -0.41049221 -0.089357041 0
1.4765234 -0.2917662 -0.089779861 0
1.8534001 -0.11360791 -0.090281777 0
3.1290915 0.48944107 -0.14091794 0
4.6877575 1.2262585 -0.14037228 0
9.4043789 3.4559143 -0.14086093 0
0.80898398 -0.58207554 -0.091360651 0
0.91146111 -0.53042966 -0.091068305 0
1.0447507 -0.46325508 -0.091129862 0
1.211599 -0.37916765 -0.089549445 0
1.4580691 -0.25495288 -0.089729436 0
1.8338859 -0.065550596 -0.090613104 0
3.0885565 0.56677228 -0.14074342 0
4.632853 1.3450592 -0.14050199 0
9.2944088 3.6943667 -0.1409958 0
0.79778111 -0.56217808 -0.091198795 0
0.90258884 -0.50599778 -0.091708384 0
1.0291946 -0.43813303 -0.09076599 0
1.1991559 -0.34702829 -0.090081431 0
1.4414042 -0.21717533 -0.090038024 0
1.8164159 -0.016156938 -0.091293059 0
3.0511079 0.64567798 -0.14096515 0
4.5823693 1.4664836 -0.14102434 0
9.162096 3.9213645 -0.14070083 0
0.78519708 -0.54309398 -0.09081877 0
0.88811827 -0.48453501 -0.091277234 0
1.0135244 -0.41318282 -0.090494342 0
1.187663 -0.31410345 -0.090904973 0
1.2083987 -0.30230549 -0.061387811 0
1.2243963 -0.29320326 -0.030414259 0
3.0064137 0.72070926 -0.14076638 0
4.5102544 1.5763476 -0.14055862 0
9.046546 4.1573567 -0.14100225 0
0.77871531 -0.52041936 -0.092066221 0
0.87239635 -0.46394232 -0.090682544 0
0.99978089 -0.38714662 -0.090708263 0
1.1605538 -0.29022226 -0.089313947 0
1.1411815 -0.30190119 -0.054632653 0
1.2042906 -0.26385489 -0.030179581 0
2.9637091 0.79683727 -0.14088042 0
4.4426699 1.6884513 -0.14048167 0
8.9154663 4.3849444 -0.14104718 0
0.76331526 -0.50306445 -0.091228597 0
0.85507452 -0.44453958 -0.089836009 0
0.98646796 -0.36073568 -0.091136687 0
1.1376358 -0.26431951 -0.088495411 0
1.1373916 -0.26447532 -0.056561816 0
1.1811051 -0.23659435 -0.029681524 0
2.9106221 0.86650711 -0.14029354 0
4.3775001 1.8020947 -0.14069183 0
8.7595568 4.5970092 -0.14056528 0
0.74960572 -0.48479256 -0.09092132 0
0.84784824 -0.4185873 -0.091378264 0
0.97240818 -0.33464685 -0.091555454 0
1.1262819 -0.23095199 -0.089732461 0
1.1494057 -0.21536896 -0.060883392 0
1.1500192 -0.21495548 -0.028362473 0
2.8684525 0.94309014 -0.14076397 0
4.304738 1.9109969 -0.14063911 0
8.6235094 4.8214002 -0.14078087 0
0.73698986 -0.46581444 -0.091012992 0
0.83495688 -0.39613715 -0.091789149 0
0.95637882 -0.309778 -0.091716252 0
1.1086212 -0.20149836 -0.090048276 0
1.1400343 -0.17915633 -0.062392313 0
1.1380901 -0.1805391 -0.02927581 0
2.8286223 1.0218215 -0.141608 0
4.2397866 2.0254869 -0.14118733 0
8.465745 5.0311236 -0.1405409 0
0.73167092 -0.44131884 -0.093171291 0
0.80734187 -0.38457069 -0.088873662 0
0.93794864 -0.2866244 -0.091514669 0
1.0997866 -0.16525677 -0.092049919 0
1.0992757 -0.16563997 -0.05947708 0
1.103567 -0.16242179 -0.02767094 0
1.0935903 -0.16990367 0.0054932777 0
1.0980471 -0.16656128 0.037130143 0
1.0989621 -0.16587511 0.069060542 0
1.0918429 -0.17121407 0.10100932 0
1.0982143 -0.16643599 0.13293687 0
1.1010557 -0.164305 0.16506441 0
1.096014 -0.16808596 0.19673786 0
0.70390981 -0.43388388 -0.089459173 0
0.79555494 -0.36147258 -0.089768447 0
0.90613842 -0.27409759 -0.088627659 0
1.0588323 -0.15345004 -0.088501178 0
1.0890788 -0.12955144 -0.061105777 0
1.1055263 -0.11655584 -0.030427625 0
1.0967319 -0.12350455 0.0033403581 0
1.103444 -0.11820117 0.035557564 0
1.1080776 -0.11453989 0.068164438 0
1.0974039 -0.12297359 0.10101029 0
1.1075946 -0.1149216 0.13384262 0
1.0877694 -0.130586 0.16553247 0
1.1030394 -0.11852077 0.19924302 0
0.69025564 -0.41583982 -0.089620404 0
0.77523518 -0.34514049 -0.08873295 0
0.89085478 -0.24894997 -0.089279644 0
1.0230055 -0.13900635 -0.08586853 0
1.1031467 -0.072332293 -0.0665951 0
1.1031362 -0.072340935 -0.032853771 0
1.1022996 -0.073036999 0.00081574381 0
1.0995517 -0.075323135 0.034441013 0
1.1017816 -0.07346794 0.067676671 0
1.0934638 -0.080388039 0.10101097 0
1.0994213 -0.075431675 0.13427436 0
1.0991408 -0.075665027 0.16755664 0
1.1031272 -0.072348446 0.20128258 0
0.67507142 -0.39906546 -0.089480273 0
0.76599222 -0.31945691 -0.090549491 0
0.87350953 -0.22531673 -0.08963301 0
0.99083108 -0.12259218 -0.083926745 0
1.0982747 -0.028516617 -0.06948676 0
1.1020327 -0.025226202 -0.035630662 0
1.0965537 -0.030023482 -0.00083105057 0
1.0884914 -0.037082579 0.033676822 0
1.0973004 -0.029369678 0.067090243 0
1.1055094 -0.022182014 0.10101231 0
1.1055824 -0.022118118 0.13519037 0
1.1092374 -0.018917885 0.16963197 0
1.1023459 -0.024951901 0.20339406 0
1.0951732 -0.031232145 0.23680423 0
1.0988944 -0.027974095 0.37591755 0
0.65866977 -0.38343814 -0.089106001 0
0.74750996 -0.30160066 -0.090206824 0
0.85811222 -0.19971636 -0.090561755 0
0.95766002 -0.10801515 -0.081827186 0
1.0630281 -0.010952558 -0.067793481 0
1.0988058 0.022004995 -0.038352568 0
1.0991013 0.02227727 -0.0034068802 0
1.1080604 0.030530129 0.030895555 0
1.1033493 0.026190553 0.066122361 0
1.0951635 0.01864985 0.10101287 0
1.0983676 0.021601472 0.1357462 0
1.1043243 0.027088676 0.17089461 0
1.0976995 0.020985994 0.2053 0
1.1026529 0.025548968 0.24086788 0
1.0405551 -0.031654086 0.36727589 0
0.65738517 -0.35326704 -0.093312152 0
0.73490083 -0.27815875 -0.091512807 0
0.83531398 -0.18086401 -0.089965932 0
0.84393024 -0.1725153 -0.063982792 0
0.84007806 -0.17624786 -0.035583276 0
0.84267455 -0.17373207 -0.0084250402 0
0.84093559 -0.17541698 0.019205408 0
0.83620262 -0.18000296 0.046827599 0
0.8400408 -0.17628399 0.073806003 0
0.84490424 -0.17157152 0.10100394 0
0.83804959 -0.17821333 0.12813692 0
0.83781475 -0.1784409 0.15528437 0
0.84503746 -0.17144248 0.18320212 0
1.1127417 0.087947875 0.24555552 0
1.0085598 -0.012998607 0.29822066 0
1.001762 -0.019585218 0.33007959 0
0.98668808 -0.034190979 0.35956973 0
0.62490338 -0.35344288 -0.088387884 0
0.71491385 -0.26171276 -0.091025867 0
0.82494402 -0.14958045 -0.092381291 0
0.84155643 -0.13265064 -0.067695417 0
0.83808959 -0.13618371 -0.038719181 0
0.83881742 -0.13544193 -0.01068907 0
0.83822739 -0.13604328 0.017399335 0
0.84181964 -0.13238236 0.045079298 0
0.83682364 -0.13747385 0.073222972 0
0.83952355 -0.13472232 0.10100458 0
0.83740163 -0.13688478 0.12880524 0
0.84049743 -0.13372985 0.1568422 0
0.83710289 -0.13718924 0.18449771 0
0.83994704 -0.13429078 0.21284939 0
1.1005119 0.1312522 0.28454128 0
0.95395452 -0.018105116 0.29226851 0
0.95198184 -0.020115521 0.32421222 0
0.94803965 -0.024133053 0.35573995 0
0.6235925 -0.32189837 -0.093040414 0
0.69873458 -0.24135241 -0.091690071 0
0.79136443 -0.14206108 -0.089458682 0
0.84071571 -0.089160651 -0.072030164 0
0.84389371 -0.085754126 -0.043447111 0
0.84305447 -0.086653739 -0.01425316 0
0.84256119 -0.087182492 0.014721574 0
0.84814972 -0.081192046 0.043153483 0
0.83576465 -0.094467789 0.072517455 0
0.83781534 -0.092269629 0.10100542 0
0.8436085 -0.086059898 0.12976125 0
0.85182554 -0.077251881 0.15910955 0
0.84057575 -0.089310676 0.18708637 0
0.84074992 -0.089123994 0.21594954 0
1.1001053 0.18888286 0.2893779 0
0.93050015 0.007080588 0.29254735 0
0.92662179 0.0029234027 0.32406667 0
0.9266445 0.0029477214 0.35663989 0
0.60082519 -0.31286314 -0.091204651 0
0.67788553 -0.22596511 -0.091191672 0
0.77165091 -0.12022945 -0.089932941 0
0.85226279 -0.029326525 -0.079343118 0
0.84629893 -0.036051717 -0.047933776 0
0.84027719 -0.042842235 -0.01710411 0
0.84229493 -0.040566888 0.012323136 0
0.83243495 -0.051685657 0.042629536 0
0.84365189 -0.039036717 0.071440578 0
0.83789116 -0.045532908 0.10100641 0
0.8351813 -0.04858866 0.1302752 0
0.83581364 -0.047875609 0.15962033 0
0.83885223 -0.044449057 0.18932737 0
0.84067827 -0.042389955 0.21917424 0
1.1018653 0.25214067 0.29498869 0
1.098946 0.24884871 0.33363083 0
0.58683479 -0.29406616 -0.092282481 0
0.65413487 -0.21420285 -0.089941926 0
0.72356731 -0.13180909 -0.08332444 0
0.84646976 0.014036212 -0.083421089 0
0.8365947 0.0023177003 -0.050584678 0
0.84336555 0.010352466 -0.021049133 0
0.8377291 0.0036638712 0.010192508 0
0.84255987 0.0093964078 0.04016985 0
0.8440069 0.011113558 0.07055302 0
0.84268969 0.0095504858 0.10100769 0
0.84362561 0.010661099 0.13144872 0
0.83462238 -2.2795384e-05 0.16127153 0
0.84419161 0.011332784 0.19252448 0
0.84228355 0.0090685226 0.22290841 0
0.83664966 0.0023829078 0.25261047 0
1.0971574 0.31152084 0.34013259 0
0.56225759 -0.28806296 -0.089952596 0
0.63598508 -0.1959528 -0.090428539 0
0.72712749 -0.08208558 -0.09001144 0
0.85229659 0.074292213 -0.090485163 0
0.84521818 0.06544891 -0.056926552 0
0.8400771 0.059026036 -0.024365386 0
0.83885491 0.057499085 0.0072339643 0
0.83506978 0.052770171 0.038830664 0
0.84442115 0.064453155 0.069588475 0
0.84526712 0.065510064 0.10100897 0
0.83981711 0.058701191 0.1322577 0
0.83607703 0.054028545 0.16326164 0
0.84220254 0.061681423 0.19515859 0
0.84399867 0.063925296 0.22696964 0
0.83936828 0.058140431 0.25785092 0
1.1019721 0.38621977 0.34867856 0
1.0996755 0.38335052 0.39003724 0
0.54532504 -0.27288887 -0.090282463 0
0.62038869 -0.17409989 -0.091867618 0
0.70688146 -0.060269382 -0.09079241 0
0.72653228 -0.034407523 -0.067568086 0
0.72325516 -0.038720455 -0.03855874 0
0.72325492 -0.038720753 -0.010463892 0
0.72139108 -0.041173663 0.017724456 0
0.72579759 -0.035374369 0.045195505 0
0.72465831 -0.036873784 0.073158942 0
0.73321223 -0.025616195 0.10100495 0
0.7304641 -0.029233005 0.12907386 0
0.72783524 -0.032692757 0.15697083 0
0.72857052 -0.031725075 0.18511494 0
0.72676402 -0.034102526 0.21301517 0
0.72735035 -0.033330884 0.24136013 0
0.72590876 -0.035228159 0.2694338 0
0.73039401 -0.029325273 0.29919118 0
0.72720516 -0.033521917 0.32713383 0
0.52734709 -0.25900653 -0.090380944 0
0.59657955 -0.16295394 -0.090887137 0
0.68145001 -0.045205321 -0.090295859 0
0.73228317 0.025320325 -0.074796371 0
0.95672524 0.33670953 -0.090064414 0
0.85376549 0.1938639 -0.035162944 0
0.83731234 0.17103687 0.00097729475 0
0.83881217 0.17311779 0.034262765 0
0.83705068 0.17067388 0.067725137 0
0.835154 0.16804245 0.10101113 0
0.84498495 0.18168178 0.1346136 0
0.84131807 0.17659441 0.16795978 0
0.84096766 0.17610827 0.20148295 0
0.8427816 0.1786249 0.23543328 0
0.83359087 0.1658738 0.26747561 0
0.84226191 0.17790392 0.3032538 0
1.0972228 0.53163475 0.40921083 0
0.50833505 -0.24657103 -0.090223186 0
0.57143271 -0.15420285 -0.08951544 0
0.6594792 -0.025312331 -0.090897836 0
0.76886803 0.13482109 -0.090347402 0
0.92002565 0.35609952 -0.089455448 0
1.1498656 0.69256026 -0.089145802 0
0.85136026 0.25558081 -0.0044252407 0
0.83889562 0.2373338 0.031813245 0
0.83362323 0.22961572 0.066649072 0
0.8452118 0.24658015 0.10101312 0
0.83587259 0.23290852 0.13546899 0
0.84383518 0.24456492 0.17062074 0
0.83775383 0.23566249 0.20476478 0
0.84384298 0.24457636 0.24053267 0
0.84128159 0.24082676 0.27516684 0
0.84369624 0.24436143 0.31101835 0
1.1021546 0.62271649 0.42193517 0
1.0980787 0.61674982 0.46742728 0
0.49092707 -0.23169747 -0.090807624 0
0.55746967 -0.12880531 -0.092043422 0
0.62917006 -0.017937806 -0.089149363 0
0.74004227 0.15349963 -0.090290777 0
0.88555169 0.37849513 -0.089404695 0
1.1042914 0.71672374 -0.088669054 0
1.4811678 1.2994728 -0.089581467 0
0.84772974 0.32001248 0.028379852 0
0.84218276 0.31143537 0.064954527 0
0.83860135 0.30589762 0.10101443 0
0.84044439 0.30874744 0.13700014 0
0.83549297 0.30109122 0.17259984 0
0.84323698 0.31306556 0.2094876 0
0.83973545 0.30765119 0.24522662 0
0.84112215 0.30979553 0.28187308 0
0.84276432 0.31233469 0.31890494 0
0.84219885 0.31146029 0.3556529 0
1.1021843 0.71346551 0.48303187 0
0.47232425 -0.21848425 -0.091079794 0
0.53278339 -0.11961421 -0.091033183 0
0.60793352 0.0032803153 -0.090243064 0
0.71337974 0.17571858 -0.090939052 0
0.85753477 0.41145816 -0.090922542 0
1.0698861 0.75872046 -0.09027759 0
1.4236559 1.3372474 -0.089676224 0
0.85043591 0.39984933 0.025166327 0
0.85051137 0.39997271 0.063108772 0
0.84200144 0.38605621 0.10101642 0
0.83948779 0.38194564 0.13843255 0
0.83619016 0.37655297 0.17559482 0
0.84423786 0.38971344 0.21406476 0
0.83950752 0.38197795 0.25109202 0
0.83971924 0.38232413 0.28896523 0
0.84039819 0.38343444 0.32719004 0
0.8379367 0.3794091 0.364737 0
1.0935894 0.79748303 0.49557033 0
0.44993308 -0.21167436 -0.089892499 0
0.51325142 -0.10200408 -0.092005126 0
0.58422542 0.020926271 -0.090745561 0
0.67944711 0.1858547 -0.08972723 0
0.81504339 0.42071393 -0.089315228 0
1.029534 0.79222172 -0.091041543 0
1.3644619 1.3723326 -0.089670591 0
1.3724844 1.3862281 -0.026729768 0
0.8480916 0.47795489 0.061578747 0
0.84371907 0.47038153 0.10101852 0
0.84236676 0.4680393 0.14019197 0
0.83776951 0.4600766 0.17897947 0
0.83472717 0.45480719 0.21764028 0
0.83847815 0.46130398 0.25741243 0
0.83649915 0.45787624 0.29636791 0
0.83923453 0.46261409 0.3366769 0
0.83277124 0.45141938 0.37448144 0
0.83752024 0.45964482 0.41619736 0
0.43022311 -0.20049688 -0.089916058 0
0.488552 -0.093310624 -0.091158248 0
0.55568725 0.030058298 -0.089760907 0
0.65292019 0.20873538 -0.090708993 0
0.77959752 0.44151977 -0.089410357 0
0.9839195 0.81698567 -0.090975605 0
1.2901137 1.3796535 -0.087575011 0
1.2982067 1.3945253 -0.025375521 0
1.2908407 1.3809893 0.038228687 0
0.84676522 0.5649485 0.10102091 0
0.84527457 0.56220919 0.14213978 0
0.84001499 0.55254406 0.18279049 0
0.84221238 0.55658215 0.22410819 0
0.83970499 0.55197448 0.26485577 0
0.83808517 0.54899782 0.30575329 0
0.83935016 0.5513224 0.3475644 0
0.84218019 0.55652291 0.39031199 0
0.84081972 0.55402297 0.43201303 0
0.41457659 -0.18133762 -0.091964923 0
0.46300662 -0.086731583 -0.09000764 0
0.52999097 0.044119511 -0.08983288 0
0.62007719 0.22009912 -0.089966334 0
0.7502116 0.47431114 -0.091196187 0
0.93772262 0.84060615 -0.090912156 0
1.247375 1.4454989 -0.090251036 0
1.2435513 1.4380293 -0.025978675 0
1.2450902 1.4410355 0.03749064 0
1.2443426 1.4395752 0.1010483 0
0.8537485 0.67656618 0.14458925 0
0.84428853 0.6580866 0.18723431 0
0.83836716 0.64651936 0.22954774 0
0.8415966 0.65282792 0.27326882 0
0.83749616 0.64481801 0.31563023 0
0.83859003 0.64695472 0.3594054 0
0.83824724 0.64628512 0.40306184 0
0.84085423 0.65137774 0.44823822 0
0.39148334 -0.17652091 -0.090700515 0
0.44295764 -0.06938681 -0.091256119 0
0.50099778 0.051412854 -0.088788934 0
0.58951187 0.23563829 -0.09001366 0
0.71380633 0.49433389 -0.091401659 0
0.88919699 0.85937673 -0.090468727 0
1.1835432 1.472003 -0.089927725 0
1.7822212 2.7180388 -0.090511031 0
4.5034137 8.3816919 -0.14075296 0
0.84951866 0.77679378 0.1922998 0
0.84104228 0.75915176 0.23669106 0
0.84448588 0.76631898 0.2828851 0
0.84242719 0.76203424 0.32816583 0
0.84482485 0.76702446 0.37491852 0
0.84236479 0.7619043 0.42039272 0
0.84064877 0.75833279 0.46627453 0
0.37093562 -0.1667408 -0.090743847 0
0.41462278 -0.069609255 -0.088967554 0
0.47998315 0.075709373 -0.090953581 0
0.55776179 0.24863806 -0.089788742 0
0.67104119 0.50049728 -0.089947172 0
0.84028882 0.87679309 -0.090017803 0
1.1168637 1.491714 -0.089211546 0
1.6937402 2.7743092 -0.091149516 0
4.268147 8.4981031 -0.14090066 0
1.0633341 1.3726993 0.22169077 0
0.8500787 0.89855927 0.24580273 0
0.84117562 0.87876469 0.29227835 0
0.83661407 0.86862284 0.33918142 0
0.84111828 0.87863725 0.38892862 0
0.84123313 0.87889248 0.43775612 0
0.83851445 0.87284797 0.48567042 0
0.35128462 -0.15476045 -0.091414161 0
0.39557683 -0.049244728 -0.091055326 0
0.44577697 0.070345193 -0.087903656 0
0.52540839 0.2600483 -0.089446731 0
0.6368745 0.52559012 -0.091044925 0
0.79672813 0.9064036 -0.090931706 0
1.063316 1.5414863 -0.090910412 0
1.5953245 2.808871 -0.090798594 0
4.030592 8.610322 -0.14109164 0
0.99705011 1.3836234 0.220926 0
0.85228598 1.0387571 0.25486106 0
0.83976895 1.0089382 0.30337694 0
0.84118855 1.01232 0.35480568 0
0.83832228 1.0054917 0.40512958 0
0.83882713 1.0066946 0.45687002 0
0.84040666 1.0104574 0.50959218 0
0.33085889 -0.14428726 -0.091847755 0
0.36803684 -0.049055304 -0.089141034 0
0.42486018 0.096498638 -0.090597399 0
0.4946081 0.27515915 -0.089790188 0
0.59926718 0.54324514 -0.091307528 0
0.74876696 0.92619139 -0.090963133 0
0.99828637 1.5653396 -0.09074945 0
1.5030755 2.8583651 -0.091322176 0
3.7840931 8.701231 -0.14089933 0
0.92684543 1.3823423 0.21964215 0
0.85047102 1.186708 0.26440874 0
0.83777362 1.1541834 0.31588149 0
0.8400901 1.1601169 0.37077692 0
0.83982295 1.1594326 0.42527056 0
0.84233934 1.1658785 0.48134622 0
0.83745521 1.1533678 0.53434205 0
0.30824253 -0.13952681 -0.091103248 0
0.34778896 -0.030159201 -0.091130696 0
0.39592382 0.10296014 -0.089917921 0
0.43619162 0.21432272 -0.078897692 0
0.43428236 0.20904258 -0.047957677 0
0.43218693 0.20324746 -0.017395152 0
0.93476975 1.5931649 -0.091007821 0
1.4018351 2.8848569 -0.09081807 0
3.5369248 8.7895527 -0.14079931 0
0.85896224 1.3835156 0.21857984 0
0.84873927 1.3552434 0.27540472 0
0.83725947 1.3234954 0.33066782 0
0.83764899 1.3245728 0.38867804 0
0.83899146 1.3282855 0.44745243 0
0.83861643 1.3272481 0.50596678 0
0.84080529 1.3333015 0.56629986 0
0.28847474 -0.12673298 -0.092293374 0
0.32345739 -0.021778014 -0.091118 0
0.36788374 0.11151007 -0.089733027 0
0.40385145 0.21942046 -0.078082941 0
0.4042325 0.22056368 -0.04807714 0
0.40449882 0.22136262 -0.018144375 0
0.86815804 1.6124337 -0.090752132 0
1.3058847 2.9257016 -0.091148488 0
3.2920582 8.8846226 -0.14101908 0
0.79218787 1.3845077 0.21760209 0
0.8481096 1.5522842 0.28841418 0
0.83761305 1.5207925 0.34808677 0
0.83986074 1.5275359 0.41118321 0
0.84074098 1.5301769 0.47434801 0
0.84066862 1.5299597 0.53756231 0
0.83959055 1.5267255 0.60065246 0
0.26513031 -0.12462988 -0.091209583 0
0.29804039 -0.016905215 -0.090535872 0
0.3440749 0.13377956 -0.09202937 0
0.38329643 0.26216343 -0.082926713 0
0.37892541 0.24785593 -0.050216097 0
0.38065067 0.25350311 -0.020325197 0
0.7256645 1.3828375 -0.072430022 0
0.72524226 1.3814552 -0.014434537 0
0.72605145 1.384104 0.043270174 0
0.72752398 1.3889241 0.10104139 0
0.72906834 1.3939793 0.15905306 0
0.72712177 1.3876076 0.21681702 0
0.84046334 1.7586086 0.30200419 0
0.8366034 1.7459738 0.36809433 0
0.83423853 1.7382331 0.43445444 0
0.83722317 1.7480025 0.50337309 0
0.83484417 1.7402155 0.5702033 0
0.23999663 -0.12986591 -0.088644616 0
0.27428934 -0.0065633324 -0.091152914 0
0.31090662 0.12509742 -0.089132525 0
0.36507207 0.31985417 -0.089992993 0
0.43846175 0.58373338 -0.089852087 0
0.55181199 0.99129444 -0.090914883 0
0.65963823 1.3789933 -0.070879079 0
0.66127241 1.3848691 -0.013752935 0
0.66215312 1.3880358 0.043598555 0
0.66094387 1.3836877 0.10104071 0
0.66097194 1.3837888 0.15838046 0
0.66049057 1.3820579 0.21569872 0
0.81527191 1.9385881 0.31360003 0
0.81133056 1.9244168 0.38343358 0
0.81297004 1.9303117 0.45532057 0
0.81254804 1.9287944 0.52680403 0
0.81122756 1.9240463 0.59813201 0
0.22144568 -0.11132857 -0.091445543 0
0.24914299 -0.0010320212 -0.090948649 0
0.28324485 0.13476887 -0.08950638 0
0.33267844 0.33162382 -0.090427674 0
0.39858457 0.5940761 -0.089828603 0
0.4986681 0.99262971 -0.089766525 0
0.59581178 1.3794763 -0.069770373 0
0.59607202 1.3805127 -0.012780426 0
0.59711999 1.3846858 0.044060629 0
0.59643912 1.3819745 0.10104019 0
0.59732735 1.3855116 0.15803984 0
0.59596705 1.3800948 0.21484095 0
0.77048373 2.075057 0.32202986 0
0.76800507 2.0651863 0.39510977 0
0.76588017 2.0567245 0.46820319 0
0.77177811 2.0802114 0.54591954 0
0.20025355 -0.10145673 -0.092445172 0
0.22361463 0.0026223396 -0.090506084 0
0.25534505 0.14398876 -0.089920051 0
0.29755712 0.33205333 -0.089344658 0
0.35562399 0.59075481 -0.088289507 0
0.44816461 1.0030448 -0.089621954 0
0.55215621 1.4663515 -0.074973561 0
0.54923159 1.4533217 -0.015573947 0
0.55371642 1.4733026 0.042289395 0
0.55156642 1.4637239 0.10104217 0
0.55519867 1.4799066 0.15995333 0
0.55172777 1.4644427 0.21818925 0
0.71439749 2.1891742 0.32889065 0
0.71462667 2.1901953 0.40531644 0
0.71210235 2.1789486 0.48065397 0
0.71373725 2.1862326 0.55853468 0
0.17781082 -0.096601993 -0.09246888 0
0.1980619 0.0056276652 -0.090065174 0
0.22627661 0.14805868 -0.089587085 0
0.26633105 0.35025802 -0.09094096 0
0.31978756 0.62011236 -0.0907811 0
0.3989341 1.0196526 -0.090188988 0
0.41530687 1.1023042 -0.048093278 0
0.41624111 1.1070204 0.001480872 0
0.41453841 1.0984249 0.051486813 0
0.41591665 1.1053824 0.10103136 0
0.41630161 1.1073258 0.15078706 0
0.41437799 1.097615 0.20013529 0
0.41620526 1.1068394 0.25047991 0
0.41614938 1.1065574 0.30052218 0
0.41593972 1.1054988 0.35067657 0
0.40664661 1.0585861 0.39448231 0
0.27230534 0.3804169 0.36405215 0
0.15274484 -0.10687962 -0.08935114 0
0.17351417 0.013875876 -0.0907517 0
0.1968441 0.14951888 -0.088942982 0
0.23224814 0.35536221 -0.090774916 0
0.27771571 0.61971635 -0.089840971 0
0.35007942 1.0404477 -0.0912681 0
0.36945376 1.1530926 -0.051001672 0
0.88016266 4.1224165 -0.14049767 0
1.7648325 9.2659941 -0.14097068 0
0.58348536 2.3974984 0.26115304 0
0.58132076 2.384913 0.34051925 0
0.57861984 2.3692095 0.41925338 0
0.26166654 0.52640456 0.28080499 0
0.27296305 0.59208387 0.32656518 0
0.27425191 0.59957737 0.36603212 0
0.2363161 0.37901381 0.36255851 0
0.13199987 -0.092604071 -0.09165553 0
0.14987065 0.029696617 -0.092995323 0
0.16940145 0.16335788 -0.090480961 0
0.19715323 0.35328022 -0.089711227 0
0.23792499 0.6323064 -0.090563811 0
0.29758164 1.0405734 -0.090510003 0
0.39608634 1.7147009 -0.090071671 0
0.75153029 4.1472211 -0.1406976 0
1.5053742 9.3062353 -0.14094724 0
0.50705606 2.4741344 0.26412156 0
0.50557619 2.4640071 0.34515256 0
0.50524342 2.4617295 0.42671153 0
0.22247727 0.52658814 0.2801064 0
0.27786973 0.90567261 0.37021819 0
0.20195135 0.38611677 0.36286327 0
0.10956942 -0.087627381 -0.092074357 0
0.1225457 0.020114455 -0.09052632 0
0.13995551 0.16466787 -0.090055101 0
0.16393247 0.36374846 -0.090552874 0
0.19624624 0.6320495 -0.089890562 0
0.24614899 1.0463915 -0.090414174 0
0.32718071 1.7191975 -0.08974693 0
0.62245566 4.1708632 -0.14099489 0
1.2451427 9.3410282 -0.14094988 0
0.42568097 2.5370443 0.26652738 0
0.42512462 2.5324249 0.34915435 0
0.42626798 2.5419183 0.43316156 0
0.42551133 2.5356359 0.51612306 0
0.23071343 0.91823035 0.37109256 0
0.16504467 0.37298301 0.35949165 0
0.086558379 -0.087561876 -0.091564603 0
0.097630396 0.029094968 -0.091705866 0
0.11100878 0.17005208 -0.090425707 0
0.12977628 0.36779001 -0.090603791 0
0.15753752 0.66028756 -0.092687853 0
0.19485338 1.0534544 -0.090557151 0
0.25938183 1.7333386 -0.090222545 0
0.49245983 4.1890922 -0.14119089 0
0.9837935 9.3658762 -0.14087385 0
0.34074861 2.5906341 0.26858738 0
0.33907682 2.5730197 0.35133407 0
0.34079123 2.591083 0.43687284 0
0.33988422 2.5815268 0.52038693 0
0.33918634 2.5741737 0.60421985 0
0.17287278 0.82186276 0.40008056 0
0.13213493 0.3926411 0.36251071 0
0.063606225 -0.08818379 -0.091033153 0
0.071518943 0.025659237 -0.090657942 0
0.080639511 0.15688005 -0.087859057 0
0.094396777 0.35481074 -0.088378407 0
0.11464996 0.64620036 -0.090636201 0
0.14238882 1.045289 -0.08939632 0
0.19086875 1.7427871 -0.090488516 0
0.36045706 4.1827145 -0.14039148 0
0.72161251 9.3787861 -0.14067364 0
0.25272441 2.6327264 0.27020681 0
0.25271541 2.6325972 0.35499379 0
0.13262069 0.90475172 0.27829698 0
0.13318133 0.91281778 0.32392296 0
0.13410316 0.92608064 0.37090787 0
0.12426373 0.78451723 0.39330599 0
0.096132956 0.37978986 0.35954162 0
0.04132035 -0.076256424 -0.093295731 0
0.045887604 0.027100954 -0.090655111 0
0.052211545 0.1702123 -0.089781739 0
0.061369568 0.37745932 -0.091293029 0
0.073428474 0.65035361 -0.09084744 0
0.090437733 1.0352745 -0.088187791 0
0.12197553 1.7489777 -0.090647303 0
0.2307234 4.2099519 -0.1413148 0
0.4601776 9.4025221 -0.14087969 0
0.16342796 2.6870499 0.27249882 0
0.16277969 2.6723795 0.35741588 0
0.086484745 0.94581813 0.28188211 0
0.086032771 0.93558997 0.32626879 0
0.086564727 0.94762808 0.37355337 0
0.076896936 0.72884518 0.38372502 0
0.061476346 0.37987557 0.35918722 0
0.018128738 -0.083029777 -0.091701098 0
0.020107159 0.021489177 -0.089445405 0
0.023063418 0.17766681 -0.090855278 0
0.026732229 0.37148812 -0.090300687 0
0.032167692 0.6586408 -0.091663487 0
0.039450496 1.0433874 -0.088794626 0
0.0529783 1.7580543 -0.09112943 0
0.09922082 4.2010226 -0.1407062 0
0.19796491 9.4176207 -0.1410383 0
0.070963062 2.7081797 0.27334738 0
0.07076744 2.6978452 0.35899383 0
0.070718907 2.6952815 0.44516364 0
0.07075578 2.6972294 0.53211695 0
0.032840904 0.69420618 0.37780395 0
0.026944581 0.38270667 0.35951516 0
-0.0047005201 -0.089559525 -0.090282418 0
-0.0053834869 0.018724713 -0.088894375 0
-0.0063590729 0.17340353 -0.090124048 0
-0.0076299803 0.3749055 -0.090750508 0
-0.0093566887 0.64867467 -0.090468027 0
-0.011870552 1.0472467 -0.089124642 0
-0.016306754 1.7506056 -0.090578116 0
-0.031791274 4.2056718 -0.14088415 0
-0.06459178 9.4061804 -0.14073381 0
-0.022486998 2.7304811 0.27435946 0
-0.022470735 2.7279027 0.36105582 0
-0.022412019 2.7185934 0.44728616 0
-0.02247902 2.7292166 0.53578871 0
-0.00936832 0.65051872 0.37057707 0
-0.007629686 0.37485889 0.35799539 0
-0.027031366 -0.10166809 -0.087798677 0
-0.031168878 0.029468331 -0.091009669 0
-0.035270374 0.1594632 -0.087923087 0
-0.042256065 0.38087133 -0.091680922 0
-0.050951235 0.65646046 -0.091469876 0
-0.064004697 1.0701835 -0.091357447 0
-0.085544802 1.7528865 -0.090829156 0
-0.11913511 2.8175149 -0.076342396 0
-0.11852589 2.7982059 0.012865553 0
-0.11912107 2.8170698 0.10107911 0
-0.11911473 2.8168688 0.18972693 0
-0.11676753 2.7424757 0.27500167 0
-0.11615021 2.7229097 0.36083055 0
-0.11652335 2.7347362 0.44896007 0
-0.11640754 2.731066 0.53621274 0
-0.050478354 0.64147276 0.36921787 0
-0.042556003 0.39037767 0.36104351 0
-0.049921729 -0.093795687 -0.089685343 0
-0.057072904 0.032026682 -0.091706492 0
-0.065498523 0.18027249 -0.091559373 0
-0.076969184 0.38209453 -0.092068039 0
-0.09251304 0.6555832 -0.091581888 0
-0.11525092 1.0556481 -0.090213098 0
-0.15419766 1.7409022 -0.090203978 0
-0.2135869 2.7858348 -0.075062968 0
-0.21368632 2.7875841 0.013014616 0
-0.21355338 2.7852449 0.10107833 0
-0.21346167 2.7836313 0.18905002 0
-0.21182293 2.7547984 0.27577114 0
-0.210437 2.7304134 0.36164632 0
-0.21117032 2.7433159 0.45015091 0
-0.077827513 0.39719656 0.26335582 0
-0.076672018 0.37686613 0.29335254 0
-0.076539785 0.37453941 0.32555982 0
-0.07722833 0.38665417 0.36063099 0
-0.073044844 -0.088733464 -0.091099702 0
-0.083353035 0.036682043 -0.092924513 0
-0.093494274 0.16006616 -0.088565208 0
-0.11125109 0.37610582 -0.091562442 0
-0.13346966 0.64642984 -0.090846516 0
-0.16732503 1.0583339 -0.090800233 0
-0.2234993 1.7417824 -0.090601303 0
-0.42418689 4.1834631 -0.14065748 0
-0.85180986 9.3861704 -0.14107721 0
-0.3051866 2.7356369 0.27518183 0
-0.30529347 2.736937 0.36256191 0
-0.304093 2.7223315 0.44879737 0
-0.30455771 2.7279854 0.53710181 0
-0.11283293 0.39535132 0.29629791 0
-0.11356383 0.40424386 0.33085427 0
-0.11207187 0.38609198 0.36098051 0
-0.094995447 -0.09783414 -0.089614637 0
-0.10763046 0.019531999 -0.090140574 0
-0.1224602 0.15728477 -0.088559933 0
-0.14498763 0.36654106 -0.090672173 0
-0.17576979 0.6524753 -0.092017092 0
-0.21763259 1.041337 -0.089664422 0
-0.29122511 1.7249343 -0.089876033 0
-0.55520666 4.1770473 -0.14093648 0
-1.1124074 9.3528633 -0.14087869 0
-0.39917961 2.7277191 0.27522835 0
-0.39915577 2.7274976 0.3625249 0
-0.39881501 2.7243321 0.44981936 0
-0.39837712 2.7202647 0.53723961 0
-0.1486914 0.40094534 0.29755729 0
-0.14964849 0.40983561 0.33233017 0
-0.14771259 0.39185324 0.36269575 0
-0.11913002 -0.08798632 -0.092306517 0
-0.13271874 0.013988409 -0.089668922 0
-0.15384781 0.17254868 -0.09166766 0
-0.17873271 0.35929397 -0.090228029 0
-0.21667744 0.64404505 -0.091610543 0
-0.27114835 1.0528145 -0.091325454 0
-0.35977757 1.7179203 -0.089962251 0
-0.68468434 4.1561389 -0.1406908 0
-1.3736528 9.3264084 -0.14099436 0
-0.49108711 2.7033148 0.27461118 0
-0.48739055 2.6755743 0.35965601 0
-0.24157067 0.83085281 0.27247089 0
-0.24294724 0.84118313 0.31690204 0
-0.18512049 0.40723017 0.29904708 0
-0.18511452 0.40718547 0.33259478 0
-0.18131447 0.37866846 0.36098629 0
-0.14025053 -0.10125193 -0.09016531 0
-0.15901646 0.016750846 -0.090899996 0
-0.18147536 0.15797535 -0.089954041 0
-0.21306804 0.35663441 -0.090555869 0
-0.25841227 0.64176494 -0.092052124 0
-0.32096669 1.0351155 -0.090363033 0
-0.42883542 1.7134085 -0.090348206 0
-0.8148219 4.1405435 -0.14084837 0
-1.6314063 9.2753363 -0.14068583 0
-0.5810591 2.6706116 0.27370912 0
-0.58190811 2.6759501 0.36063826 0
-0.27812609 0.76572806 0.26694548 0
-0.27985346 0.77659005 0.31005186 0
-0.28069884 0.78190583 0.3531175 0
-0.21737464 0.38371482 0.36290956 0
-0.16259986 -0.10516188 -0.090151466 0
-0.18459968 0.013748918 -0.091159545 0
-0.20930475 0.14728156 -0.088997133 0
-0.24821018 0.35756841 -0.091522433 0
-0.29485315 0.60967714 -0.089077853 0
-0.37128472 1.0227954 -0.090025805 0
-0.49660659 1.7001698 -0.09023916 0
-0.94341832 4.115221 -0.14070132 0
-1.8896157 9.2294903 -0.14065291 0
-0.66937655 2.6340046 0.27272519 0
-0.66838765 2.6286595 0.35840279 0
-0.66736358 2.6231244 0.4440884 0
-0.66876811 2.6307158 0.53144574 0
-0.28800935 0.5726859 0.36213332 0
-0.25222981 0.37929478 0.36320201 0
-0.18508895 -0.10846421 -0.090391807 0
-0.21110663 0.014704261 -0.092306294 0
-0.23907901 0.14712623 -0.089923032 0
-0.27956831 0.33880368 -0.089791797 0
-0.33874786 0.61896127 -0.091139264 0
-0.42064273 1.0066538 -0.089443035 0
-0.56112015 1.6716776 -0.089161552 0
-0.61943907 1.9477608 -0.038780395 0
-0.61838228 1.9427578 0.031294581 0
-0.61918873 1.9465756 0.10105606 0
-0.75562161 2.5924525 0.27160636 0
-0.75220877 2.5762961 0.35594833 0
-0.75221723 2.5763361 0.44134155 0
-0.75377733 2.5837216 0.52798665 0
-0.28751329 0.37641528 0.36396164 0
-0.20614591 -0.11809948 -0.089373596 0
-0.23415856 -0.0002721216 -0.090504698 0
-0.27034581 0.1519393 -0.091820426 0
-0.31470543 0.33852568 -0.090835191 0
-0.37550443 0.59425968 -0.089263059 0
-0.4756096 1.0153239 -0.091356434 0
-0.52422613 1.2198157 -0.057771642 0
-0.61720872 1.6109209 -0.02345564 0
-0.61527801 1.6027999 0.039023295 0
