# .PCD v0.7 - Point Cloud Data file format
VERSION 0.7
FIELDS x y z intensity
SIZE 4 4 4 4
TYPE F F F F
COUNT 1 1 1 1
WIDTH 1365
HEIGHT 1
VIEWPOINT 0 0 0 1 0 0 0
POINTS 1365
DATA ascii
0.58863074 -1.0072048 0.46324366 0
-0.15561442 0.46144664 0.37402371 0
-0.1862344 0.52187037 0.49296924 0
0.17105223 -0.13937426 -0.05014351 0
0.608926 -0.97711921 0.46009424 0
-0.13903688 0.4538914 0.37994623 0
-0.18042676 0.53307897 0.48863503 0
0.18296619 -0.11974192 -0.049723789 0
0.64930469 -0.98522282 0.46479914 0
-0.12441901 0.45073622 0.38393751 0
-0.17651407 0.54741973 0.48221037 0
0.20141257 -0.11247946 -0.049812343 0
0.33387092 -0.35106599 0.071554855 0
0.67943543 -0.97350383 0.4655526 0
-0.11225746 0.45250928 0.38570982 0
-0.16428135 0.54621571 0.48631823 0
0.22314771 -0.11083675 -0.050142169 0
0.34574571 -0.32525551 0.070960149 0
0.72187775 -0.98309517 0.47081718 0
-0.08075849 0.42068279 0.40359256 0
-0.15950681 0.55841035 0.4814074 0
0.23953517 -0.099643715 -0.050090112 0
0.43871674 -0.43804324 0.076108836 0
0.35092804 -0.28889465 0.19844474 0
0.75739306 -0.97945857 0.47346416 0
-0.056907512 0.40399766 0.41452375 0
-0.14602862 0.55541003 0.4869577 0
0.25204304 -0.082110174 -0.049781587 0
0.51920241 -0.52320015 0.08019232 0
0.36324957 -0.2657162 0.19698487 0
0.80035049 -0.98738575 0.47866353 0
-0.061976321 0.43634731 0.40194774 0
-0.13777719 0.56149727 0.4863669 0
0.27577218 -0.082993276 -0.050251894 0
0.53667849 -0.5017674 0.079866923 0
0.38497719 -0.25827539 0.19752578 0
0.84145993 -0.99096417 0.4830943 0
-0.12569003 0.56138355 0.49017662 0
0.28855351 -0.066166766 -0.049987759 0
0.40157351 -0.24258351 0.069467701 0
0.88520974 -0.99750781 0.48830646 0
-0.12001909 0.57158792 0.48685673 0
0.301213 -0.04948831 -0.0497346 0
0.42928413 -0.2439636 0.07004793 0
0.91391832 -0.97987819 0.48846045 0
0.017237922 0.38172626 0.43859118 0
-0.11051879 0.57572418 0.4878687 0
0.32260087 -0.046020392 -0.050055604 0
0.4637824 -0.254637 0.071048729 0
0.95274895 -0.97715735 0.49194086 0
0.034237586 0.38007909 0.44306654 0
-0.10817815 0.59051943 0.48134187 0
0.33756933 -0.032917265 -0.049972136 0
0.54851383 -0.33631754 0.075164683 0
0.99582213 -0.97967815 0.49671009 0
0.040998779 0.39363831 0.44002053 0
-0.10887972 0.60920757 0.47196695 0
0.35273513 -0.02018643 -0.049912475 0
0.62691277 -0.40412819 0.078755938 0
0.060555719 0.38896394 0.4462668 0
-0.095714696 0.60779554 0.47714877 0
0.37084278 -0.011533266 -0.050041202 0
0.071404181 0.39681131 0.4462679 0
-0.088764973 0.61523408 0.47599125 0
0.38292715 0.0052766749 -0.049816787 0
1.1260448 -0.98180556 0.1059271 0
1.1284379 -0.98498416 0.30723175 0
0.10032912 0.38065135 0.45878133 0
-0.083373763 0.62466371 0.47340932 0
0.40663007 0.0067979046 -0.050286826 0
0.10685655 0.39472336 0.45578778 0
-0.074252225 0.6290893 0.47460321 0
0.41682193 0.02589404 -0.049974296 0
0.12326171 0.39605075 0.4595421 0
-0.069498189 0.63910615 0.47166353 0
0.43356803 0.036591884 -0.050050993 0
-0.059393831 0.64235312 0.4739154 0
0.44743201 0.050830957 -0.049973555 0
-0.057865895 0.65602368 0.46823579 0
0.46997795 0.054854866 -0.050383631 0
0.47621354 0.07788562 -0.049908414 0
-0.043320335 0.6692034 0.46791103 0
0.49504694 0.086440794 -0.050127208 0
1.2124444 -0.70963645 0.1003859 0
-0.034603812 0.67418045 0.46914235 0
0.49938056 0.11091625 -0.049586069 0
1.2118261 -0.65992355 0.099060051 0
-0.026052812 0.67941582 0.4702675 0
0.5177508 0.12003278 -0.049796622 0
0.37840739 0.26703978 0.054565225 0
-0.019835869 0.68718535 0.46942297 0
0.5334056 0.13216043 -0.049871299 0
0.38596913 0.28383404 0.054319616 0
0.83598155 -0.17911112 0.22083811 0
-0.015517035 0.69685835 0.46705806 0
0.54821903 0.1452111 -0.049910259 0
0.40056148 0.29333395 0.054443389 0
0.84224337 -0.14973986 0.21906069 0
-0.0061335354 0.70131069 0.46908024 0
0.56973821 0.15174496 -0.050291907 0
0.40955231 0.30843925 0.0542919 0
0.74851269 -0.023132807 0.20232838 0
0.74843961 -0.023061281 0.33544835 0
0.74176747 -0.016534572 0.46967602 0
-0.0016950158 0.71072257 0.46702212 0
0.57102865 0.17795062 -0.049675029 0
0.4232659 0.31889576 0.054384679 0
0.84935385 -0.087533005 0.21493177 0
0.18620665 0.54501736 0.34789467 0
0.0080546355 0.71494967 0.46943915 0
0.59277886 0.1845367 -0.050079074 0
0.45658371 0.31121147 0.055438671 0
0.83805043 -0.043589715 0.21080939 0
0.18627144 0.56262821 0.34389308 0
0.010373256 0.72623062 0.46585295 0
0.60992843 0.19568408 -0.050260808 0
0.84098905 -0.013861066 0.073396988 0
0.84057981 -0.013489967 0.20882146 0
0.19285734 0.573919 0.3429659 0
0.018605551 0.7319451 0.46715635 0
0.61749345 0.21548116 -0.049990512 0
0.82855314 0.028863424 0.072048672 0
0.84414607 0.015076274 0.20705895 0
0.84320098 0.015911931 0.34317786 0
0.21219082 0.57384753 0.34777358 0
0.61929017 0.24000323 -0.049463056 0
0.84001523 0.049737211 0.071866825 0
0.83881563 0.050771233 0.20410447 0
0.83360213 0.055265184 0.33720601 0
0.23185684 0.57397246 0.35267505 0
0.030953309 0.74715221 0.46666837 0
0.63935322 0.24869418 -0.049807429 0
0.83199984 0.086814873 0.070790939 0
0.84788436 0.073467247 0.20326579 0
0.84968287 0.071956031 0.33746356 0
0.9299137 0.0045387694 0.50164473 0
0.26732048 0.56131011 0.36439061 0
0.28051111 0.55022615 0.45914853 0
0.044220828 0.74877888 0.47203514 0
0.65951902 0.25761908 -0.050158083 0
0.83399862 0.1147145 0.070209876 0
0.83794814 0.11147975 0.19983551 0
0.83359975 0.11504125 0.33026975 0
0.94149774 0.026669139 0.5003143 0
0.28343913 0.56564093 0.36759791 0
0.24217422 0.59943819 0.43392223 0
0.049369954 0.75735128 0.47113934 0
0.66987306 0.27469629 -0.050062191 0
0.85500079 0.12692571 0.070518829 0
0.83904964 0.13965809 0.19802348 0
0.83904821 0.13965917 0.32824227 0
0.97900647 0.027943367 0.50755149 0
0.27015713 0.59375286 0.35828111 0
0.24999137 0.60984939 0.43372872 0
0.060282849 0.7612763 0.47470844 0
0.68904215 0.2848354 -0.050375704 0
0.84988517 0.15973198 0.069650479 0
0.8380459 0.16894054 0.19599104 0
0.84565252 0.16302407 0.32656983 0
0.25019547 0.62616962 0.42961296 0
0.057397209 0.77612782 0.467913 0
0.69227439 0.30733258 -0.049978118 0
0.85451204 0.1843915 0.069245376 0
0.83296531 0.20071924 0.19347814 0
0.83953434 0.1957413 0.32210129 0
0.26137832 0.63385892 0.4313468 0
0.069347642 0.77937669 0.47236127 0
0.70466489 0.32272506 -0.050003223 0
0.85930818 0.20857525 0.068865374 0
0.83573383 0.22597671 0.19209062 0
0.83960479 0.22311926 0.31915411 0
0.28375426 0.63341957 0.43887487 0
0.073820375 0.78838193 0.47128677 0
0.7187534 0.33692241 -0.050111331 0
0.84536141 0.24590719 0.067678139 0
0.8474564 0.2444011 0.19194303 0
0.84113365 0.24894643 0.31663436 0
0.088490032 0.79000264 0.4777528 0
0.71249586 0.36545783 -0.049339674 0
0.85090691 0.26857758 0.067371331 0
0.83659512 0.27859509 0.18886475 0
0.83825749 0.27743155 0.31323889 0
0.83942634 0.27661335 0.44100249 0
0.095614873 0.79724133 0.47871539 0
0.74195784 0.36900103 -0.050133303 0
0.8766107 0.27725548 0.067950383 0
0.84172279 0.30102634 0.18794829 0
0.83805853 0.30352294 0.31053534 0
0.84084004 0.30162781 0.43767256 0
0.11840942 0.79385489 0.49098033 0
0.74792236 0.38879997 -0.049915705 0
0.91667134 0.27690798 0.069144316 0
0.8443045 0.3248921 0.18674773 0
0.83593637 0.33044076 0.30750945 0
0.83669895 0.32993513 0.43276671 0
0.11030664 0.81158227 0.48112714 0
0.76022595 0.40433079 -0.049979817 0
0.95553786 0.27833718 0.070277669 0
0.83449727 0.35641915 0.18401103 0
0.84413856 0.3501997 0.30679691 0
0.8435989 0.35054779 0.43136138 0
0.11957248 0.81760943 0.48376951 0
0.76981646 0.42162085 -0.049937356 0
0.98983067 0.28358382 0.071210109 0
0.8417024 0.37651956 0.18350479 0
0.83380955 0.38147151 0.30219775 0
0.83273858 0.3821435 0.42469642 0
0.12440553 0.82655197 0.48334107 0
0.78258675 0.4369399 -0.050037336 0
1.0377781 0.28127587 0.07270921 0
0.83313328 0.40610701 0.18104868 0
0.84484845 0.39896083 0.30223134 0
0.83582693 0.40446389 0.4223704 0
0.13500036 0.83196056 0.48699692 0
0.7828607 0.4597528 -0.04962597 0
1.0768293 0.28547561 0.073826723 0
0.83836502 0.42684746 0.18038175 0
0.83381313 0.429546 0.29768294 0
0.83981186 0.42598969 0.42041126 0
0.13876177 0.84160256 0.48596159 0
0.79536253 0.47519195 -0.049733229 0
0.84670955 0.44561857 0.1801382 0
0.83609098 0.45173436 0.2960186 0
0.83985871 0.44956428 0.41738692 0
0.14911617 0.84739846 0.48952922 0
0.80462795 0.49253142 -0.049715329 0
0.8564561 0.46354383 0.18009822 0
0.83500797 0.4755398 0.29372942 0
0.83753496 0.47412646 0.41377789 0
0.15746279 0.85449278 0.4917573 0
0.8225922 0.50513756 -0.050059833 0
0.84795481 0.49136853 0.17785479 0
0.8335833 0.49917066 0.29144743 0
0.84175652 0.49473357 0.4121837 0
0.83136684 0.52286202 -0.050037675 0
0.85018986 0.51294804 0.17697294 0
0.83216292 0.52244276 0.2892423 0
0.84840602 0.51388758 0.41137525 0
0.84133524 0.53996283 -0.050072491 0
0.8558585 0.53254557 0.176544 0
0.83148938 0.54499125 0.28726205 0
0.83644682 0.54245937 0.40531027 0
0.84417337 0.53851336 0.52959013 0
0.84764439 0.55890554 -0.049969934 0
0.84417099 0.56062472 0.17406619 0
0.83847088 0.56344587 0.28689185 0
0.84762222 0.55891657 0.40597144 0
0.83587855 0.56472898 0.52320653 0
0.84993011 0.57970029 -0.049718171 0
0.87592024 0.56724167 0.1768223 0
0.83259493 0.58801001 0.28399903 0
0.83700091 0.58589798 0.40052056 0
0.84193045 0.58353502 0.52227658 0
0.86731964 0.59329498 -0.050072651 0
0.88933748 0.5830794 0.17740043 0
0.84035581 0.60580534 0.28389588 0
0.83015007 0.61054039 0.3962577 0
0.83951277 0.60619646 0.51833296 0
0.87759036 0.6103617 -0.050153282 0
0.93507999 0.58456302 0.18180658 0
0.84343237 0.62569022 0.28291184 0
0.84044641 0.62703019 0.39690095 0
0.84849089 0.62342018 0.51867139 0
0.87564057 0.63279402 -0.049766306 0
0.96706969 0.5931403 0.18457989 0
0.84426397 0.64640242 0.28154114 0
0.83235806 0.65156615 0.39248598 0
0.84168524 0.64752084 0.51336312 0
0.89307266 0.64681613 -0.050142523 0
0.98716086 0.60740912 0.1859649 0
0.84690326 0.66615331 0.28058228 0
0.83678311 0.67039198 0.39164114 0
0.83618754 0.67064142 0.50866425 0
0.90029615 0.66525316 -0.050130561 0
1.0361694 0.61034584 0.19071564 0
0.84271318 0.68852288 0.27834833 0
0.8361488 0.69117558 0.38947383 0
0.83926195 0.68991756 0.50716996 0
0.9063527 0.68413907 -0.050082859 0
1.0702126 0.62031025 0.1937214 0
0.85252267 0.70510769 0.27888957 0
0.8442139 0.70834416 0.38977087 0
0.84013993 0.70993114 0.50498563 0
0.28081915 0.92780495 0.45609385 0
0.90647858 0.705217 -0.049818337 0
0.8540073 0.72489899 0.27786505 0
0.83233279 0.73302913 0.38469043 0
0.84350592 0.72883809 0.50378543 0
0.29053232 0.93625891 0.45912293 0
0.92812365 0.71833569 -0.050381847 0
0.84579009 0.74804199 0.27503294 0
0.83324784 0.75256723 0.38318822 0
0.84109813 0.74973488 0.50063294 0
0.25723097 0.96039665 0.43931511 0
0.91816634 0.7428329 -0.049755052 0
0.85043293 0.76631182 0.27472362 0
0.83922273 0.77019769 0.38312542 0
0.83563024 0.77144295 0.49650955 0
0.83053368 0.77320963 0.61420292 0
0.26071063 0.9707315 0.43923217 0
0.93230146 0.75885451 -0.050048966 0
0.84683472 0.7872802 0.2728931 0
0.83755654 0.79036605 0.38106823 0
0.84841317 0.7867552 0.49889842 0
0.83805996 0.79019862 0.61489165 0
0.29184952 0.97186452 0.45380273 0
0.94132465 0.77672601 -0.050157733 0
0.84082288 0.80875254 0.27066311 0
0.83843035 0.809515 0.37976754 0
0.84491736 0.80744779 0.49566096 0
0.83905703 0.80931526 0.61283356 0
0.31397036 0.97664279 0.46358678 0
0.93598229 0.79906034 -0.049738329 0
0.84060305 0.8281368 0.26958477 0
0.83453101 0.82998788 0.37726316 0
0.84596759 0.82650143 0.49410787 0
0.84228939 0.82762277 0.61185527 0
0.31106129 0.98956817 0.46027243 0
0.94820911 0.81597471 -0.049984224 0
0.86501878 0.84019488 0.27318379 0
0.8272987 0.85117674 0.37395099 0
0.83316416 0.84946907 0.48784339 0
0.83938497 0.84765792 0.60833383 0
0.32724401 0.99676323 0.46700418 0
0.94898254 0.83625102 -0.049812805 0
0.90315932 0.84896839 0.27936754 0
0.83872479 0.86685103 0.37566137 0
0.83838636 0.86694497 0.48792449 0
0.84843749 0.86415541 0.610071 0
0.31780842 1.0114217 0.46045727 0
0.9629814 0.85291374 -0.050139744 0
0.91909164 0.86450136 0.28140897 0
0.8528927 0.88197899 0.37814173 0
0.83301681 0.88722658 0.48443657 0
0.8402248 0.88532352 0.60449815 0
0.32192186 1.0221641 0.46103913 0
0.97342831 0.87070757 -0.05034266 0
0.94816357 0.87703866 0.28592333 0
0.8349846 0.90540034 0.37222782 0
0.84302086 0.90338653 0.48632029 0
0.8371976 0.90484577 0.60127014 0
0.3280178 1.0324419 0.46271163 0
0.96787995 0.89244658 -0.049966302 0
0.98974687 0.88725859 0.29277262 0
0.84399551 0.92183816 0.37346759 0
0.84183854 0.92234993 0.48444307 0
0.84874147 0.92071217 0.604357 0
0.33300486 1.0430709 0.46387559 0
0.97394103 0.91131634 -0.050025772 0
1.0135559 0.90244305 0.29634142 0
0.83589321 0.94223756 0.37028369 0
0.84207731 0.94085234 0.48313722 0
0.84180313 0.9409138 0.5996781 0
0.35165033 1.0507027 0.47210819 0
0.98064095 0.93009752 -0.050117075 0
1.0388784 0.91782093 0.30021501 0
0.84708136 0.95825219 0.37220511 0
0.83419889 0.96096784 0.47915426 0
0.84085876 0.95956391 0.59765565 0
0.35097846 1.0628319 0.47049055 0
0.98249036 0.94990647 -0.050040253 0
1.0859067 0.92946255 0.30810499 0
0.85109037 0.97588229 0.37230715 0
0.84712416 0.97666633 0.48232239 0
0.84938163 0.97622007 0.59973311 0
0.36180195 1.0726074 0.47481778 0
0.9889347 0.96881509 -0.050139491 0
0.84428602 0.99552202 0.36966121 0
0.84120423 0.99609107 0.47917449 0
0.83728677 0.99681437 0.59321344 0
0.38699511 1.0799533 0.48650894 0
0.98579639 0.98944265 -0.049900029 0
0.84323603 1.0139121 0.36857465 0
0.84076947 1.0143354 0.47796759 0
0.83093435 1.0160235 0.58922923 0
0.3895314 1.091787 0.48671991 0
0.99587876 1.0078043 -0.050148353 0
0.42924312 1.0977333 0.041665543 0
0.43087152 1.0974748 0.11353888 0
0.42730507 1.0980408 0.1858142 0
0.42938295 1.0977111 0.26091269 0
0.42077771 1.0990767 0.33550945 0
0.4249011 1.0984224 0.41780114 0
0.3946549 1.1032227 0.48831674 0
0.98790807 1.0289785 -0.049753238 0
0.40522853 1.1139468 0.040730812 0
0.40296128 1.1142774 0.11030169 0
0.40419891 1.114097 0.18125856 0
0.40528813 1.1139381 0.25421205 0
0.40825763 1.1135051 0.3306689 0
0.41500923 1.1125206 0.41287348 0
0.40748236 1.1136181 0.49387893 0
0.99042994 1.0484794 -0.049746286 0
0.38509533 1.128981 0.039944794 0
0.4326596 1.1226556 0.11333853 0
0.43142459 1.1228199 0.18590455 0
0.43736681 1.1220297 0.26203313 0
0.43476167 1.1223761 0.33899486 0
0.43339244 1.1225581 0.41983825 0
0.42608795 1.1235296 0.50241441 0
0.99916416 1.0672319 -0.049971566 0
0.38527468 1.1410173 0.039897181 0
0.43270066 1.1353171 0.11317202 0
0.43122843 1.135494 0.1855824 0
0.43055895 1.1355745 0.25987595 0
0.43529752 1.135005 0.33864409 0
0.42471036 1.1362774 0.41555861 0
1.0026512 1.086711 -0.050016619 0
0.36054 1.1556985 0.038960494 0
0.85059446 1.1030477 0.36729363 0
0.83534271 1.1046864 0.47202635 0
0.85315984 1.1027721 0.59338647 0
1.006421 1.1061984 -0.05008056 0
0.35049811 1.1683264 0.038558461 0
0.8495279 1.1210591 0.36656076 0
0.84546655 1.1214437 0.47481683 0
0.82728273 1.1231661 0.58187735 0
1.0053883 1.1261282 -0.049981199 0
0.35672149 1.1793371 0.038745183 0
0.84357065 1.1394018 0.36463478 0
0.84155411 1.1395673 0.47298947 0
0.84055442 1.1396492 0.58675033 0
1.0016676 1.1461773 -0.049794715 0
0.3753784 1.1896194 0.039381664 0
0.85317713 1.1564772 0.36674994 0
0.84185463 1.1572626 0.47264484 0
0.83776683 1.1575462 0.58504015 0
1.0001541 1.1659726 -0.049696326 0
0.84585303 1.1747249 0.36459211 0
0.84330064 1.1748697 0.47275639 0
0.84398025 1.1748312 0.58715743 0
1.0083122 1.185275 -0.049952522 0
0.85523242 1.1920257 0.36675987 0
0.83988219 1.1927025 0.47132179 0
0.83841223 1.1927674 0.584481 0
1.007172 1.2050542 -0.049885176 0
0.83681279 1.2104186 0.36188647 0
0.83459932 1.2104883 0.46934199 0
0.8434059 1.210211 0.58627439 0
1.0022435 1.2248604 -0.049691468 0
0.85975438 1.2275521 0.36762777 0
0.8448686 1.2278332 0.47261217 0
0.84442395 1.2278416 0.58651197 0
1.012315 1.2444389 -0.050042212 0
0.85875183 1.2454057 0.36731467 0
0.84756309 1.2454761 0.47343469 0
0.83843476 1.2455336 0.58394015 0
1.005862 1.2641637 -0.049811825 0
0.84087712 1.2631249 0.36275414 0
0.83559781 1.2630917 0.46945381 0
0.83544093 1.2630907 0.58270055 0
1.0103384 1.2839355 -0.049980517 0
0.84817404 1.2808723 0.36467275 0
0.83896679 1.2806984 0.47064835 0
0.83884913 1.2806963 0.58420336 0
1.0025133 1.3034424 -0.049718767 0
0.85315615 1.2987392 0.36605823 0
0.83418113 1.2981416 0.46920279 0
0.84291679 1.2984167 0.58607179 0
1.0108566 1.3234804 -0.050043453 0
0.85142261 1.3164495 0.36578691 0
0.84688359 1.3162494 0.47365338 0
0.83730096 1.3158268 0.58402044 0
1.0020243 1.3427767 -0.049763199 0
0.85727018 1.3345659 0.36750966 0
0.84700757 1.3339837 0.47399163 0
0.84394699 1.3338101 0.5871436 0
1.0063667 1.3627918 -0.049962886 0
1.3080951 1.383721 0.072760858 0
1.299174 1.3831022 0.20600489 0
1.3013706 1.3832546 0.34203362 0
0.84232229 1.351413 0.36397386 0
0.8490811 1.3518817 0.47505477 0
0.84228224 1.3514102 0.58691418 0
1.0026709 1.382292 -0.049883861 0
1.2488353 1.4024845 0.070701763 0
1.2446905 1.4021446 0.20032063 0
1.0168515 1.3834553 0.29086909 0
0.85132545 1.3698775 0.36661994 0
0.84356779 1.3692411 0.47366163 0
0.84216517 1.3691261 0.58741945 0
1.0057149 1.4023778 -0.050055239 0
1.2396157 1.4245325 0.070443176 0
1.2515906 1.4256668 0.20128185 0
0.89684409 1.3920658 0.26944616 0
0.85633785 1.3882291 0.36830598 0
0.84309322 1.3869746 0.47402373 0
0.83456022 1.3861663 0.58490402 0
0.99852639 1.421489 -0.049868513 0
0.63553673 1.3824898 0.048834734 0
0.64123791 1.3831024 0.13555889 0
0.63795823 1.38275 0.22282323 0
0.64303428 1.3832954 0.31403363 0
0.8432588 1.4048072 0.47467515 0
0.83759516 1.4041988 0.586905 0
0.99866015 1.4413507 -0.049953446 0
0.55851871 1.3884486 0.046126731 0
0.55655569 1.3882127 0.12657845 0
0.55982691 1.3886058 0.20894189 0
0.55263299 1.3877411 0.2912451 0
0.83148199 1.421257 0.47140101 0
0.84168798 1.4224837 0.58944488 0
0.9951852 1.4607961 -0.049917549 0
0.55929738 1.4028287 0.046218786 0
0.55770272 1.4026166 0.12689514 0
0.54718953 1.4012185 0.20696643 0
0.55631489 1.4024321 0.29264778 0
0.83684593 1.4397391 0.47394371 0
0.84158295 1.440369 0.59033167 0
0.99663275 1.4809369 -0.05006801 0
0.54782003 1.4154896 0.045875356 0
0.55850047 1.4170469 0.12719417 0
0.5568983 1.4168134 0.20908897 0
0.5615707 1.4174947 0.29450646 0
0.84800881 1.459264 0.4785189 0
0.83588165 1.4574956 0.58897275 0
0.98583549 1.4992449 -0.049785309 0
0.56097728 1.4318171 0.046427488 0
0.5517177 1.4303474 0.12668869 0
0.55141491 1.4302994 0.20847739 0
0.5482679 1.4297999 0.29162368 0
0.82743174 1.4741052 0.47249413 0
0.83601612 1.4754676 0.59014785 0
0.9768216 1.51766 -0.049574934 0
0.55349034 1.4449985 0.046240453 0
0.55879062 1.4459082 0.12771119 0
0.55122238 1.4446092 0.20886371 0
0.56019443 1.4461492 0.29530564 0
0.83788186 1.4938121 0.47699285 0
0.8434518 1.4947681 0.59448767 0
0.97763032 1.5377409 -0.049729086 0
0.55752593 1.4601755 0.046477322 0
0.55009967 1.4588044 0.12703469 0
0.56504196 1.4615632 0.2118537 0
0.55843455 1.4603434 0.2954987 0
0.84157819 1.512621 0.47930098 0
0.83506161 1.511418 0.59227657 0
0.98273641 1.5587853 -0.050049208 0
0.55384272 1.4739994 0.046440825 0
0.54916972 1.4730755 0.12722449 0
0.55711383 1.474646 0.21089229 0
0.55902559 1.4750239 0.29635006 0
0.83732027 1.5300387 0.47899756 0
0.83796507 1.5301661 0.59491479 0
0.97630161 1.5776309 -0.049958754 0
0.54535669 1.4867867 0.046235338 0
0.56076401 1.4900346 0.12881005 0
0.54718786 1.4871727 0.20959041 0
0.5509606 1.487968 0.29499483 0
0.84471267 1.5498916 0.48272902 0
0.84217411 1.5493565 0.59821224 0
0.96458918 1.5952321 -0.049683627 0
0.55979306 1.5045621 0.046873793 0
0.55140597 1.5026835 0.12811607 0
0.55169779 1.502749 0.21098195 0
0.54663545 1.501615 0.29465616 0
0.84909946 1.5693636 0.48553133 0
0.84438461 1.5683075 0.60077345 0
0.96323639 1.6150949 -0.049795918 0
0.55168134 1.5174533 0.046695013 0
0.56102711 1.5196705 0.12953384 0
0.54327255 1.5154583 0.2100164 0
0.55407411 1.518021 0.29744607 0
0.83910125 1.5856438 0.48350713 0
0.83617693 1.58495 0.59901041 0
0.95944291 1.6344309 -0.049827922 0
0.56049699 1.5344585 0.047144651 0
0.54938382 1.5316737 0.12862386 0
0.54080051 1.5295228 0.21018432 0
0.5548262 1.5330375 0.29854038 0
0.83575648 1.6034362 0.48382875 0
0.84517854 1.6057973 0.60467672 0
0.96082312 1.6551596 -0.050060052 0
0.5519883 1.5472203 0.046963986 0
0.55124658 1.5470245 0.12922882 0
0.55261654 1.5473862 0.21305092 0
0.55152184 1.5470972 0.29861772 0
0.84425944 1.6243848 0.48830512 0
0.8297953 1.620566 0.60003197 0
0.95420974 1.6738428 -0.050006475 0
0.54929334 1.5614657 0.047004037 0
0.55989867 1.564409 0.13061464 0
0.55811328 1.5639136 0.21478684 0
0.54997939 1.5616561 0.29920867 0
0.83462411 1.6406541 0.48662549 0
0.84000522 1.6421474 0.60644776 0
0.94149452 1.6907135 -0.049734551 0
0.54364389 1.5748827 0.046941034 0
0.55827385 1.5791422 0.13087972 0
0.5526194 1.5774959 0.21450372 0
0.55664665 1.5786685 0.30203193 0
0.8304159 1.658374 0.48689112 0
0.83710009 1.6603199 0.60734856 0
0.94171959 1.7113317 -0.049952466 0
0.84216779 1.6809833 0.37930009 0
0.85077912 1.6836085 0.49578139 0
0.84018046 1.6803775 0.61094242 0
0.92862457 1.72787 -0.049681857 0
0.85776132 1.7052883 0.38494384 0
0.84335011 1.7006959 0.49511373 0
0.84151274 1.7001104 0.61390066 0
0.91798991 1.7450286 -0.049510509 0
0.84805399 1.7217685 0.38389072 0
0.83160418 1.7162974 0.49300495 0
0.8461886 1.721148 0.61843848 0
0.92149442 1.7669638 -0.049880806 0
0.84842211 1.7416342 0.38560948 0
0.84640318 1.7409345 0.50030285 0
0.8386094 1.7382329 0.6177417 0
0.92643672 1.7896988 -0.05031782 0
0.84122282 1.7589532 0.38535127 0
0.8448047 1.7602457 0.50194395 0
0.83337957 1.7561234 0.61817038 0
0.91314894 1.8059281 -0.050072677 0
0.83255416 1.775697 0.38475075 0
0.83203655 1.7755029 0.49971005 0
0.82810563 1.7740284 0.61868095 0
0.89525276 1.8201803 -0.049657576 0
0.83711678 1.7975343 0.38782763 0
0.83481306 1.7966369 0.50308371 0
0.83600909 1.7971029 0.62514925 0
0.8928737 1.8403904 -0.049844749 0
0.83853537 1.818432 0.39013055 0
0.82792276 1.8141434 0.50310111 0
0.82688862 1.8137255 0.62417763 0
0.89281589 1.8617195 -0.050132588 0
0.83562452 1.8377659 0.39132068 0
0.81694561 1.8299426 0.50172377 0
0.8191871 1.8308815 0.62393153 0
0.88083869 1.8781036 -0.049968589 0
0.84133571 1.8609707 0.39498261 0
0.8239575 1.8534336 0.50693434 0
0.82291919 1.8529832 0.6289413 0
0.87257034 1.8960286 -0.049956843 0
0.83418638 1.8788037 0.39515039 0
0.81974655 1.8723238 0.50818956 0
0.81043905 1.868147 0.62674809 0
0.86839205 1.9158458 -0.050114855 0
0.8316142 1.898782 0.39666948 0
0.82069129 1.8937142 0.51143003 0
0.81814486 1.8925327 0.63384241 0
0.85825664 1.9329343 -0.050047826 0
0.81778508 1.9135338 0.39508381 0
0.81718439 1.9132459 0.5131467 0
0.80800599 1.9088461 0.63292688 0
0.84383196 1.9478506 -0.049818069 0
0.81476992 1.9334667 0.39661935 0
0.81369048 1.9329324 0.51497 0
0.81391567 1.9330438 0.63951421 0
0.83352917 1.9646937 -0.049759567 0
0.81579584 1.955637 0.39939418 0
0.80696958 1.9511293 0.51569188 0
0.80561131 1.9504355 0.63967705 0
0.8431254 1.9919742 -0.050512139 0
1.0345951 2.0928202 0.46506405 0
0.80184764 1.9702334 0.51710564 0
0.79319423 1.9656757 0.63801861 0
0.81509906 1.9994376 -0.049755435 0
0.80620557 1.9946095 0.4018631 0
0.79424173 1.9881145 0.51767957 0
0.79666001 1.9894272 0.64392149 0
0.81479281 2.0217969 -0.050131138 0
0.78584343 2.0056055 0.39866713 0
0.78639454 2.0059137 0.51825112 0
0.78318089 2.0041163 0.64196891 0
0.79318148 2.0321951 -0.049643371 0
0.78840965 2.0294466 0.40223914 0
0.7884571 2.029474 0.52271718 0
0.77965218 2.0244029 0.64484447 0
0.78848356 2.0522237 -0.049859334 0
0.77078491 2.0417311 0.39993805 0
0.7713744 2.0420806 0.51992631 0
0.77787977 2.0459373 0.64870948 0
0.78311056 2.0720227 -0.05005924 0
0.76932675 2.0636148 0.4024967 0
0.76685768 2.0621088 0.52207261 0
0.77384204 2.0663691 0.6516366 0
0.76239806 2.0823679 -0.049624696 0
0.76922947 2.0866539 0.40556815 0
0.76547533 2.0842986 0.52556562 0
0.77005273 2.0871706 0.65483367 0
0.76951772 2.1103063 -0.050374579 0
0.75690228 2.1021683 0.40503931 0
0.75732321 2.1024399 0.52651703 0
0.75829822 2.1030688 0.65426081 0
0.7533856 2.1234655 -0.050149728 0
0.75342101 2.1234891 0.4072735 0
0.74442917 2.117527 0.5256744 0
0.73665541 2.1123724 0.64886981 0
0.74258381 2.1400685 -0.050160341 0
0.75042599 2.1454117 0.40975955 0
0.74320287 2.1404903 0.52959776 0
0.73708922 2.1363249 0.65455139 0
0.72593194 2.1525898 -0.049925189 0
0.73214942 2.1569417 0.40759429 0
0.73320287 2.1576791 0.53010988 0
0.73387808 2.1581516 0.65859288 0
0.72239214 2.1743364 -0.050271317 0
0.71753401 2.1708441 0.40660509 0
0.71858448 2.1715994 0.5288226 0
0.72018069 2.1727467 0.65746361 0
0.70406526 2.1854756 -0.049976617 0
0.70720249 2.1877911 0.40702039 0
0.71132582 2.190835 0.53063881 0
0.70841593 2.1886868 0.65741241 0
0.69772357 2.2054398 -0.050222207 0
0.6956175 2.2038438 0.40710643 0
0.70097893 2.2079067 0.53128397 0
0.71325642 2.2172103 0.66609079 0
0.67852002 2.2156236 -0.049899802 0
0.68498188 2.2206497 0.40756518 0
0.69206673 2.2261603 0.53263032 0
0.6938023 2.2275102 0.66229868 0
0.6610294 2.2268877 -0.049658209 0
0.6850397 2.246053 0.41158813 0
0.68616682 2.2469528 0.53536987 0
0.68608588 2.2468882 0.66475487 0
0.65202421 2.2448854 -0.049812216 0
0.67330247 2.2623131 0.41186792 0
0.67509013 2.2637773 0.53602368 0
0.67594343 2.2644761 0.66606802 0
0.64460355 2.2643607 -0.050052263 0
0.65891212 2.2763841 0.4113344 0
0.65924555 2.2766643 0.53470415 0
0.66756719 2.2836568 0.66846955 0
0.62736613 2.2756014 -0.049843714 0
0.71962613 2.35513 0.066192344 0
0.71898669 2.3545787 0.18710241 0
0.71784395 2.3535938 0.30964342 0
0.65306967 2.2977581 0.41373369 0
0.65490884 2.2993433 0.53849572 0
0.65705091 2.3011899 0.66985875 0
0.61433977 2.2903733 -0.049840219 0
0.68813401 2.3556218 0.065356925 0
0.68095797 2.3492768 0.1836489 0
0.68219298 2.3503687 0.30441731 0
0.63927811 2.3124237 0.41354382 0
0.63914615 2.3123071 0.53738171 0
0.6428588 2.3155899 0.66935337 0
0.60616928 2.30955 -0.050079633 0
0.66518277 2.3630683 0.064923845 0
0.65489155 2.3537354 0.18188161 0
0.65335029 2.3523376 0.30077899 0
0.6257295 2.3272889 0.41349873 0
0.62453932 2.3262095 0.536847 0
0.62362117 2.3253767 0.66612273 0
0.59448415 2.3256924 -0.050162215 0
0.63288766 2.3614116 0.064034633 0
0.64104325 2.3689971 0.18189493 0
0.63419944 2.3626316 0.29949096 0
0.6085338 2.3387601 0.41224721 0
0.61262077 2.3425612 0.53760642 0
0.60693353 2.3372717 0.66436529 0
0.56568569 2.3255961 -0.04941142 0
0.6262458 2.3833621 0.064399354 0
0.62339395 2.3806417 0.18137226 0
0.63602012 2.3926854 0.30344638 0
0.59332746 2.3519623 0.41173255 0
0.59996265 2.3582914 0.53812915 0
0.59337252 2.3520055 0.66446084 0
0.56431752 2.3515956 -0.050021186 0
0.60960776 2.3958986 0.064283073 0
0.62213761 2.4081554 0.18332951 0
0.60515529 2.3915431 0.2992996 0
0.5839991 2.3708482 0.4133684 0
0.59502715 2.3816359 0.54234409 0
0.58934957 2.3760819 0.67018867 0
0.55066723 2.3658879 -0.050034065 0
0.60759431 2.4229944 0.064912803 0
0.59980649 2.4151821 0.18215592 0
0.60554808 2.4209418 0.3030813 0
0.5774613 2.3927665 0.41611892 0
0.57171446 2.3870015 0.53809017 0
0.56744379 2.3827174 0.66567844 0
0.53140742 2.3744271 -0.049768951 0
0.59947771 2.4444535 0.0652555 0
0.59840685 2.443352 0.18420793 0
0.5978356 2.4427643 0.30491033 0
0.56093091 2.404799 0.41534805 0
0.55549103 2.3992028 0.53719652 0
0.55805415 2.4018395 0.66859353 0
0.51692921 2.3877435 -0.049753983 0
0.61034971 2.4863019 0.066602148 0
0.62004298 2.4965281 0.18994105 0
0.61353058 2.4896576 0.31297183 0
0.55014402 2.422785 0.41675279 0
0.54439276 2.4167175 0.53884345 0
0.54740316 2.4198935 0.67093241 0
0.50633186 2.4052479 -0.049951699 0
0.53382415 2.4349935 0.4161815 0
0.53496999 2.4362333 0.54144162 0
0.52998334 2.4308379 0.66931206 0
0.48657164 2.4127975 -0.049675219 0
0.52794307 2.4587064 0.41963881 0
0.51675493 2.446291 0.539828 0
0.51548272 2.4448793 0.669559 0
0.4798058 2.4348462 -0.050102722 0
0.50433606 2.4627659 0.41640875 0
0.50817364 2.4671338 0.54311055 0
0.50131029 2.459322 0.6701256 0
0.46274325 2.4453418 -0.049986586 0
0.48642752 2.4729931 0.41538563 0
0.4908751 2.4781857 0.5421167 0
0.48569736 2.4721406 0.66989857 0
0.44353589 2.4531457 -0.049756523 0
0.47857186 2.4951081 0.41839972 0
0.46915564 2.4838305 0.53888458 0
0.4750683 2.490912 0.67299134 0
0.43071863 2.4685497 -0.049889825 0
0.45468304 2.4979978 0.41509181 0
0.4555845 2.4991055 0.5399341 0
0.45548412 2.4989822 0.670412 0
0.41660246 2.4824724 -0.04996169 0
0.43795958 2.509402 0.4146879 0
0.44294533 2.5156887 0.54160166 0
0.43697634 2.5081623 0.66857588 0
0.40318903 2.4973922 -0.050085917 0
0.42548177 2.5262403 0.41610822 0
0.42536303 2.5260868 0.54071975 0
0.42856374 2.5302286 0.67362285 0
0.38215706 2.5023434 -0.049771074 0
0.41030309 2.5397298 0.41649604 0
0.40954676 2.5387251 0.54087168 0
0.41076365 2.5403416 0.67248237 0
0.36657277 2.5143533 -0.049783409 0
0.39143601 2.5482595 0.41537189 0
0.39278153 2.5500944 0.54058117 0
0.39523461 2.5534396 0.67300069 0
0.34664664 2.5203035 -0.049538445 0
0.38100126 2.5684118 0.41797647 0
0.38146356 2.5690591 0.54348522 0
0.37713119 2.5629923 0.67181057 0
0.32952341 2.5299881 -0.049468942 0
0.36446074 2.5802381 0.41801214 0
0.36486539 2.5808201 0.54350293 0
0.36294636 2.5780599 0.67352736 0
0.32446739 2.5574214 -0.050174505 0
0.33993813 2.5802817 0.41448215 0
0.33752248 2.5767124 0.53723001 0
0.34509376 2.5878999 0.67270571 0
0.30851063 2.5692129 -0.050208304 0
0.32940742 2.6009445 0.41737485 0
0.32975832 2.6014774 0.54264826 0
0.32178327 2.5893672 0.66785204 0
0.28760913 2.5733356 -0.049925257 0
0.30990764 2.6081421 0.41620481 0
0.30805102 2.6052442 0.53976524 0
0.30491105 2.600343 0.66785765 0
0.27449802 2.5895913 -0.050165869 0
0.28904584 2.6129415 0.41439703 0
0.28864506 2.6122983 0.53830075 0
0.2856988 2.6075695 0.66613835 0
0.2541801 2.5942817 -0.049928855 0
0.27784488 2.633353 0.41733846 0
0.26855764 2.6180193 0.53642446 0
0.27091816 2.6219168 0.66799664 0
0.24113919 2.611012 -0.050203007 0
0.25053939 2.6269825 0.41237137 0
0.25219229 2.6297905 0.53699553 0
0.25346765 2.6319573 0.66786182 0
0.22432448 2.6215379 -0.050226808 0
0.23639823 2.6426544 0.41401947 0
0.23454328 2.6394103 0.53681725 0
0.23478939 2.6398406 0.66680425 0
0.19867177 2.6161859 -0.049610756 0
0.22320332 2.6603725 0.41630527 0
0.21474005 2.6451283 0.53524047 0
0.22050954 2.6555204 0.66955799 0
0.1853589 2.6328256 -0.049903877 0
0.19568969 2.6519988 0.41106227 0
0.20543011 2.6700759 0.54103607 0
0.19747277 2.655308 0.66490364 0
0.17431147 2.654253 -0.050394706 0
0.18067224 2.6664226 0.41251671 0
0.17943318 2.664052 0.53521109 0
0.18018229 2.6654851 0.66526967 0
0.15328981 2.6567707 -0.050131164 0
0.15750839 2.6650953 0.40951103 0
0.16401406 2.6779332 0.53696978 0
0.15966208 2.6693454 0.66280252 0
0.13601835 2.6665111 -0.05016708 0
0.14198883 2.6786702 0.41084263 0
0.14324428 2.681227 0.53486562 0
0.13976111 2.6741333 0.66089815 0
0.11585226 2.6702302 -0.049973376 0
0.12466028 2.6887538 0.41123542 0
0.12055054 2.6801109 0.53124619 0
0.12229093 2.6837711 0.66134387 0
0.099882506 2.6827493 -0.050136633 0
0.10261043 2.6886775 0.40883404 0
0.10506769 2.6940179 0.53325444 0
0.10178789 2.6868901 0.65891653 0
0.080652438 2.6882327 -0.05003193 0
0.084126316 2.6960394 0.4086009 0
0.08517202 2.6983895 0.53185046 0
0.084426723 2.6967146 0.65965879 0
0.061317228 2.6932924 -0.049920768 0
0.063795649 2.6990564 0.40722719 0
0.063631259 2.6986742 0.52906495 0
0.065246724 2.7024312 0.65864462 0
0.048851989 2.7147045 -0.050451726 0
0.0462813 2.7085121 0.40771019 0
0.045939468 2.7076886 0.52953666 0
0.04514458 2.7057738 0.65667993 0
0.021821698 2.7007608 -0.049626373 0
0.028164824 2.7166009 0.4078759 0
0.024198135 2.7066953 0.52649939 0
0.024125656 2.7065141 0.65367764 0
0.0061814399 2.7147236 -0.049885988 0
0.0089766597 2.7219667 0.40735868 0
0.0059359283 2.7140872 0.52656502 0
0.0087132072 2.7212839 0.65703398 0
-0.011193373 2.7245522 -0.049994458 0
-0.008571961 2.7316079 0.40807346 0
-0.010116735 2.7274501 0.52883124 0
-0.014848986 2.7147124 0.6510343 0
-0.030158559 2.7301657 -0.049950957 0
-0.034708001 2.7174311 0.40239209 0
-0.030727426 2.7285733 0.52683479 0
-0.032397188 2.7238994 0.65212089 0
-0.049971856 2.7332225 -0.049820181 0
-0.051576473 2.7285459 0.40364617 0
-0.050419308 2.7319183 0.52571994 0
-0.051142015 2.7298121 0.65186644 0
-0.065295793 2.7496355 -0.050201334 0
-0.074028589 2.7231004 0.40050423 0
-0.07446555 2.7217727 0.51997161 0
-0.071308203 2.7313664 0.64981639 0
-0.08788956 2.7438893 -0.049758729 0
-0.09182585 2.7314014 0.40112782 0
-0.091048785 2.7338665 0.52210975 0
-0.093673952 2.725538 0.64468002 0
-0.10315097 2.7613988 -0.050195578 0
-0.10988293 2.7390642 0.40163887 0
-0.10699473 2.7486465 0.52524579 0
-0.11343924 2.7272656 0.64295244 0
-0.12498526 2.7571898 -0.049831178 0
-0.10338271 2.8322687 0.064620338 0
-0.10733587 2.8185298 0.18092461 0
-0.10455567 2.8281922 0.30136159 0
-0.13221262 2.7320714 0.39831766 0
-0.1319306 2.7330515 0.51792461 0
-0.1309848 2.7363389 0.64450341 0
-0.14430748 2.7611842 -0.049781892 0
-0.13563998 2.7928004 0.06295228 0
-0.13209943 2.8057153 0.17887898 0
-0.13386033 2.7992921 0.29491422 0
-0.14766617 2.7489326 0.40139288 0
-0.15107645 2.7364929 0.51730412 0
-0.15210341 2.7327468 0.64070678 0
-0.16285457 2.7680266 -0.049846843 0
-0.15816711 2.78601 0.062510327 0
-0.15617688 2.7936456 0.17695743 0
-0.15796475 2.7867863 0.29161236 0
-0.16893394 2.7447031 0.39894873 0
-0.16950919 2.742496 0.51764947 0
-0.17042609 2.7389784 0.64123964 0
-0.1818675 2.7731888 -0.049858402 0
-0.17947657 2.7828588 0.062214036 0
-0.17836036 2.7873733 0.17571728 0
-0.17883827 2.7854404 0.29045054 0
-0.1911671 2.7355766 0.39529571 0
-0.18934159 2.7429597 0.51617497 0
-0.18883647 2.7450027 0.64178115 0
-0.20054536 2.7798328 -0.049933054 0
-0.20005982 2.7819085 0.062009159 0
-0.1979977 2.7907236 0.17557369 0
-0.2014993 2.7757549 0.28779623 0
-0.21100993 2.7350991 0.39399308 0
-0.20947634 2.7416546 0.51418597 0
-0.20943348 2.741838 0.63851237 0
-0.22287889 2.7701709 -0.049419954 0
-0.2168137 2.7976542 0.062424753 0
-0.21730314 2.7954364 0.17560773 0
-0.21576698 2.8023973 0.29191133 0
-0.22886853 2.7430301 0.39495632 0
-0.22987534 2.7384677 0.51164776 0
-0.22960027 2.7397144 0.63580418 0
-0.24033095 2.7822661 -0.049711768 0
-0.23422723 2.8116791 0.062784217 0
-0.23629273 2.8017256 0.17584142 0
-0.23595466 2.803355 0.29131803 0
-0.24886821 2.7411263 0.39341316 0
-0.24940632 2.7385333 0.51030874 0
-0.25039527 2.7337675 0.631594 0
-0.25843385 2.7921085 -0.049928941 0
-0.2513279 2.8286586 0.063258253 0
-0.25266826 2.8217642 0.17760605 0
-0.25176477 2.8264115 0.29483303 0
-0.26795605 2.7431304 0.39295498 0
-0.27100062 2.7274706 0.50528479 0
-0.27078333 2.7285883 0.62782842 0
-0.27883631 2.7901487 -0.049725667 0
-0.26770231 2.8515332 0.063952923 0
-0.26761061 2.8520389 0.1805072 0
-0.26829091 2.8482881 0.29816031 0
-0.28641024 2.7483919 0.39340481 0
-0.28889319 2.7347028 0.50655031 0
-0.29099336 2.723124 0.62405968 0
-0.29685086 2.8015242 -0.050014917 0
-0.30544502 2.7504914 0.39309582 0
-0.30840296 2.7329268 0.50485009 0
-0.30844411 2.7326825 0.6267134 0
-0.31684703 2.8015027 -0.04990004 0
-0.32493895 2.7494588 0.3920407 0
-0.32825735 2.7281163 0.50221425 0
-0.32933414 2.7211907 0.6206339 0
-0.33522242 2.8122945 -0.05018441 0
-0.34417871 2.7494924 0.39132556 0
-0.34700513 2.7296734 0.50180715 0
-0.34711185 2.728925 0.62271607 0
-0.35541269 2.8106854 -0.050030213 0
-0.36540774 2.7336736 0.38659561 0
-0.36633998 2.7264907 0.49988994 0
-0.36704153 2.7210851 0.61838627 0
-0.37411916 2.8208492 -0.050308563 0
-0.38424417 2.7343125 0.38616887 0
-0.38575429 2.7214057 0.49741992 0
-0.38602123 2.7191243 0.61661816 0
-0.39381048 2.8234901 -0.05032498 0
-0.40381178 2.7275608 0.38390774 0
-0.40483239 2.7177713 0.49552014 0
-0.40417501 2.7240767 0.61782974 0
-0.4151237 2.8085756 -0.049720902 0
-0.4230549 2.7219379 0.38200161 0
-0.42434308 2.7078664 0.49160802 0
-0.42288437 2.7238009 0.6169613 0
-0.43349546 2.8255804 -0.050270133 0
-0.44091594 2.7314854 0.38404188 0
-0.44279927 2.7076035 0.49099961 0
-0.44306451 2.7042406 0.60818237 0
-0.45381981 2.8190033 -0.049983438 0
-0.46099976 2.7105503 0.37834391 0
-0.46195474 2.6961255 0.48672986 0
-0.46195987 2.696048 0.60423332 0
-0.47361302 2.81862 -0.04992754 0
-0.47920918 2.7141485 0.3789826 0
-0.47992918 2.7007074 0.48789409 0
-0.48007634 2.6979599 0.60457516 0
-0.49323338 2.8215706 -0.049999703 0
-0.49808413 2.7031054 0.37594095 0
-0.49850681 2.6927824 0.48496863 0
-0.49867967 2.6885612 0.60032433 0
-0.51295835 2.8227379 -0.050016969 0
-0.51632404 2.7039762 0.37600183 0
-0.51690739 2.6833911 0.48163405 0
-0.5169794 2.680851 0.59687161 0
-0.53271461 2.8228891 -0.050006818 0
-0.53476691 2.6925149 0.37297463 0
-0.53491521 2.6830955 0.48140371 0
-0.53492028 2.6827755 0.5975045 0
-0.55250871 2.8097329 -0.049530469 0
-0.55290365 2.6843319 0.37084326 0
-0.55293393 2.6747072 0.47855636 0
-0.55294442 2.6713884 0.5927195 0
-0.57222617 2.823709 -0.050031655 0
-0.57089388 2.6826184 0.37042052 0
-0.57076836 2.6693203 0.47678289 0
-0.57077223 2.6697321 0.59205693 0
-0.59192216 2.820524 -0.049929019 0
-0.58870155 2.6743808 0.36839056 0
-0.58853143 2.6666617 0.47599143 0
-0.58835965 2.6588678 0.58767378 0
-0.61180097 2.8246183 -0.050095249 0
-0.60626197 2.664712 0.36605161 0
-0.60596716 2.6562028 0.47267747 0
-0.60623217 2.6638522 0.58994639 0
-0.63189119 2.8306353 -0.050339229 0
-0.62352836 2.6536527 0.36341253 0
-0.62344676 2.651926 0.47149369 0
-0.62327158 2.6482189 0.58376753 0
-0.6507706 2.8135014 -0.049764439 0
-0.64123893 2.6543212 0.36382455 0
-0.64028615 2.6384094 0.4673028 0
-0.64013851 2.6359441 0.57906604 0
-0.63974917 2.6294425 0.69526064 0
-0.67141598 2.8262768 -0.05026824 0
-0.65822881 2.6444526 0.36159852 0
-0.65678227 2.624507 0.46305007 0
-0.65691644 2.6263573 0.57556421 0
-0.65680057 2.6247597 0.69348627 0
-0.68961781 2.806149 -0.049602944 0
-0.67332846 2.6149521 0.46031377 0
-0.67431331 2.6265118 0.57619423 0
-0.67418766 2.6250365 0.69430834 0
-0.71025717 2.8157043 -0.050009843 0
-0.69098103 2.6187961 0.46212277 0
-0.68997872 2.6085577 0.56938273 0
-0.68992591 2.6080182 0.6865465 0
-0.73064274 2.8203273 -0.050249472 0
-0.70613271 2.5987628 0.56604254 0
-0.70699942 2.6065977 0.68672538 0
-0.74920517 2.8087685 -0.04991661 0
-0.72429079 2.6068475 0.57024103 0
-0.72319478 2.5979648 0.68337685 0
-0.769252 2.8098259 -0.050046161 0
-0.73889393 2.5869169 0.67890608 0
-0.7891674 2.80936 -0.05013008 0
-0.75486642 2.5792115 0.6762175 0
-0.80788243 2.8010917 -0.049941037 0
-0.82796919 2.8014228 -0.050071787 0
-0.8474164 2.7978337 -0.050069615 0
-0.86598033 2.7898412 -0.049915995 0
-0.88730085 2.7952271 -0.050258934 0
-0.90435952 2.7807572 -0.049885713 0
-0.92205286 2.7700374 -0.049656935 0
-0.94359022 2.7750983 -0.050016895 0
-0.96089143 2.7633214 -0.049765825 0
-0.97735763 2.7492151 -0.049435552 0
-1.000172 2.7574742 -0.049944147 0
-1.0190423 2.7517111 -0.049941573 0
-1.0386959 2.7483761 -0.050038952 0
-1.0541773 2.7324016 -0.049669988 0
-1.0756276 2.7342508 -0.049980976 0
-1.0946044 2.7286618 -0.050021004 0
-1.1122208 2.7193916 -0.04992979 0
-1.1329687 2.7182541 -0.050158594 0
-1.1442877 2.6935577 -0.049490303 0
-1.1639036 2.6897004 -0.049631622 0
-1.187898 2.6955957 -0.050163362 0
-1.2001152 2.6745491 -0.049654178 0
-1.2203319 2.671443 -0.049855147 0
-1.239102 2.6650105 -0.049935512 0
-1.2561283 2.654948 -0.04988097 0
-1.2712239 2.6412117 -0.049687136 0
-1.2887739 2.6323853 -0.049698096 0
-1.3108712 2.6318498 -0.050055489 0
-1.3296576 2.6249182 -0.050164677 0
-1.341767 2.606318 -0.04980278 0
-1.3566995 2.5929372 -0.04966151 0
-1.3750252 2.5852647 -0.049766157 0
-1.3961402 2.5818629 -0.050061706 0
-1.4144747 2.5737922 -0.050172187 0
-1.4311644 2.5631113 -0.05018143 0
-1.4483936 2.5532002 -0.050233137 0
-1.4585063 2.5331211 -0.04985065 0
-1.47962 2.5286984 -0.050160214 0
-1.4939281 2.514745 -0.050060563 0
-1.5090793 2.502008 -0.05002261 0
-1.5284331 2.4946771 -0.050238013 0
-1.5349978 2.4711797 -0.049726356 0
-1.5533028 2.4624875 -0.049898155 0
-1.5698305 2.4515009 -0.04997525 0
-1.578521 2.4313927 -0.049631841 0
-1.5972919 2.4229724 -0.04984834 0
-1.6236731 2.4226601 -0.050470572 0
-1.6401454 2.411114 -0.050567016 0
-1.6427891 2.3850589 -0.049956821 0
-1.6555756 2.3699167 -0.049887363 0
-1.6676072 2.3540909 -0.049790468 0
-1.6819715 2.3406093 -0.049820501 0
-1.699329 2.3299136 -0.050005347 0
-1.7163489 2.3187265 -0.050178271 0
-1.7278457 2.3024256 -0.050091363 0
-1.7348125 2.2822473 -0.0498005 0
-1.756184 2.2745938 -0.050200019 0
-1.7756745 2.2650096 -0.050512627 0
-1.7745373 2.2384591 -0.04988059 0
-1.2266538 1.7954557 0.5164063 0
-1.7961824 2.2304235 -0.050305575 0
-1.2358602 1.7889135 0.51825309 0
-1.8026004 2.2103152 -0.050045688 0
-1.2401656 1.7785075 0.51647961 0
-1.8166312 2.196126 -0.050138969 0
-1.2353743 1.7613899 0.50808358 0
-1.8273191 2.1794162 -0.05009168 0
-1.2311851 1.7451495 0.50036472 0
-1.8385911 2.1631577 -0.050079618 0
-1.2411296 1.7393353 0.50314075 0
-1.856462 2.151463 -0.050362904 0
-1.2316848 1.7199851 0.49197128 0
-1.8535042 2.1255233 -0.049754173 0
-1.2336466 1.7088717 0.48922154 0
-1.8568425 2.1042111 -0.049433019 0
-1.2436217 1.7031369 0.49227247 0
-1.8783665 2.0947332 -0.049895335 0
-1.2357762 1.6859089 0.48282391 0
-1.8831167 2.0744913 -0.049654916 0
-1.2468463 1.6808532 0.48679176 0
-1.8983319 2.0607369 -0.049862936 0
-1.247552 1.669366 0.48360136 0
-1.9121151 2.0459721 -0.050017409 0
-1.2360837 1.6509198 0.47217193 0
-1.9201386 2.0278094 -0.049942002 0
-1.2466297 1.645525 0.47599486 0
-1.9265728 2.0088277 -0.049811684 0
-1.2448653 1.6331592 0.47150177 0
-1.9394529 1.993394 -0.049952917 0
-1.9548589 1.9791547 -0.050202664 0
-1.9568906 1.9579901 -0.049923576 0
-1.9639579 1.9394939 -0.049856793 0
-1.961422 1.9165169 -0.04942055 0
-1.9756908 1.9015436 -0.049657673 0
-1.9901133 1.8864517 -0.049906846 0
-1.9921026 1.8658658 -0.049679566 0
-1.9894418 1.8435365 -0.04928397 0
-1.9932947 1.8240888 -0.049151365 0
-2.0050254 1.8077495 -0.049329869 0
-2.0015521 1.7856787 -0.048937026 0
-2.0030968 1.7656735 -0.0487465 0
-1.9936309 1.7420678 -0.048151162 0
-1.9960285 1.7227634 -0.048014879 0
-1.9923362 1.7016579 -0.047660492 0
-1.9955187 1.6828588 -0.047573462 0
-1.9945009 1.6629261 -0.047339641 0
-1.9947573 1.6435063 -0.047163051 0
-1.9891121 1.6226934 -0.0467785 0
-2.0038307 1.6071237 -0.047153104 0
-2.0039082 1.5879034 -0.046997383 0
-2.0027456 1.5685228 -0.046805646 0
-1.9945555 1.547842 -0.046367232 0
-2.0031631 1.5306841 -0.046549909 0
-2.0047679 1.5121447 -0.046486065 0
-2.003787 1.493221 -0.046337262 0
-1.9949526 1.4732047 -0.045913737 0
-1.9931116 1.4544621 -0.045752142 0
-2.0051863 1.4375927 -0.046100073 0
-2.003098 1.4188617 -0.04594624 0
-2.0056014 1.4007009 -0.045965843 0
-2.004642 1.3822173 -0.045869511 0
-2.008723 1.3641803 -0.04596208 0
-1.9955429 1.3449869 -0.045445237 0
-2.003191 1.3272057 -0.045681898 0
-2.0010118 1.308883 -0.045575347 0
-2.0000906 1.2906643 -0.045521997 0
-2.000397 1.2724959 -0.045520689 0
-2.0013049 1.2543254 -0.045549009 0
-1.147117 0.26436788 -0.05039588 0
-0.3955698 0.26436988 0.42033786 0
-0.38307709 0.2643699 0.48970151 0
-1.1281743 0.24471505 -0.04972402 0
-0.40907592 0.25377199 0.42712891 0
-1.1394672 0.22477147 -0.050140575 0
-0.41222048 0.2430916 0.35587317 0
-0.40637296 0.2432389 0.42587629 0
-1.1464059 0.2046953 -0.05041074 0
-0.51368636 0.2286091 0.10776315 0
-0.51240695 0.22865745 0.17654206 0
-1.240132 0.20115289 0.43305752 0
-1.2392849 0.20118491 0.56260431 0
-1.2350647 0.20134442 0.69694227 0
-1.1298882 0.18560766 -0.049851622 0
-0.51282501 0.21671471 0.10772698 0
-0.51892757 0.21640708 0.17781428 0
-1.2348374 0.18031701 0.43194219 0
-1.2446119 0.17982426 0.56468797 0
-1.2385778 0.18012844 0.6987825 0
-1.1326859 0.1656943 -0.049991608 0
-0.50588393 0.20521021 0.10705224 0
-0.51117903 0.20487638 0.17653683 0
-1.2405937 0.15889139 0.43371806 0
-1.2372615 0.15910146 0.56263691 0
-1.1320844 0.14593609 -0.050019 0
-0.49992764 0.19378781 0.1064986 0
-0.52172214 0.19213806 0.17859271 0
-1.2395746 0.13779952 0.43383107 0
-1.2351422 0.13813502 0.56241626 0
-1.1447502 0.12498287 -0.050530843 0
-0.50443858 0.18156877 0.10708912 0
-0.51341885 0.18077517 0.17726776 0
-1.2383738 0.11670914 0.43396565 0
-1.2406868 0.11650472 0.56484312 0
-1.1299255 0.10644231 -0.050066344 0
-0.50794125 0.16931067 0.10758812 0
-0.51197195 0.16890328 0.17720988 0
-1.2391008 0.09540718 0.43466282 0
-1.2367636 0.095643423 0.56419814 0
-1.1205847 0.087604158 -0.049806617 0
-0.50990713 0.15710793 0.039863888 0
-0.49102479 0.15925701 0.10589591 0
-0.51576912 0.15644075 0.17813089 0
-1.2415226 0.073839717 0.43586498 0
-1.2431675 0.073652498 0.56709814 0
-1.1328474 0.066212781 -0.050332431 0
-0.51397234 0.14455482 0.040061474 0
-0.49970895 0.14636038 0.10698795 0
-0.51549202 0.14436245 0.17834124 0
-1.2474955 0.051699717 0.43805212 0
-1.2371212 0.053012971 0.56592035 0
-1.1200624 0.04793549 -0.049965985 0
-0.50817811 0.13323352 0.039909694 0
-0.5146324 0.13233377 0.10877652 0
-0.5116601 0.13274811 0.17793231 0
-1.241861 0.030956481 0.43732479 0
-1.2388523 0.031375904 0.56744027 0
-1.1177983 0.028314505 -0.049987085 0
-0.51204187 0.12054803 0.040111549 0
-0.51203465 0.12054913 0.10868302 0
-0.51200253 0.12055402 0.17831077 0
-1.2300682 0.011220117 0.43507412 0
-1.2362128 0.010284503 0.56758386 0
-1.1224816 0.0075277877 -0.050268549 0
-0.5045206 0.1095968 0.039907631 0
-0.50766492 0.10907745 0.10841244 0
-0.51194817 0.10836997 0.17864554 0
-1.236511 -0.011306505 0.43759847 0
-1.2438108 -0.012512247 0.57126933 0
-1.1094869 -0.010314743 -0.049919065 0
-0.50524157 0.097321488 0.040007137 0
-0.50648695 0.097099639 0.10850545 0
-0.51208395 0.096102633 0.17904395 0
-1.2296755 -0.031724345 0.43676093 0
-1.2414794 -0.033827018 0.57170451 0
-1.1099118 -0.030474704 -0.050064661 0
-0.52001798 0.082286038 0.040623382 0
-0.51330781 0.083568729 0.10949035 0
-0.50532442 0.085094772 0.17820558 0
-1.2398994 -0.05532239 0.4404192 0
-1.2433633 -0.055984538 0.57365936 0
-1.102896 -0.049223017 -0.049948752 0
-0.50882888 0.072108157 0.04030196 0
-0.51380175 0.071092494 0.10980245 0
-0.512573 0.071343459 0.17996903 0
-1.2420874 -0.07765118 0.44207168 0
-1.2451011 -0.078266717 0.57566422 0
-1.095068 -0.067714281 -0.04981146 0
-0.51081961 0.059295136 0.040465869 0
-0.51808369 0.057716001 0.11054928 0
-0.5144465 0.058506686 0.18077721 0
-1.2401049 -0.099243768 0.44271311 0
-1.2389148 -0.098985054 0.57507217 0
-1.0978099 -0.088546939 -0.050069556 0
-0.5163545 0.045544181 0.040766004 0
-0.51025409 0.046951015 0.10998104 0
-0.53048438 0.042285655 0.18423916 0
-1.244284 -0.12232576 0.44504079 0
-1.2369579 -0.12063626 0.5760113 0
-1.0784597 -0.10418165 -0.049526233 0
-0.50885719 0.03475206 0.040594507 0
-0.50581884 0.035493154 0.10980152 0
-0.51380551 0.033545095 0.18167624 0
-1.2469735 -0.14528443 0.44706064 0
-1.239675 -0.14350425 0.5786472 0
-1.0861491 -0.12638105 -0.049985178 0
-0.56823182 0.0068769646 0.042892631 0
-0.56972086 0.0064938259 0.11722074 0
-0.56645668 0.0073336852 0.19203629 0
-1.2481991 -0.16807584 0.44877747 0
-1.2396473 -0.16587548 0.58044744 0
-1.0874805 -0.1471975 -0.050220851 0
-0.62314188 -0.021470707 0.045046434 0
-0.62427974 -0.021778803 0.12366566 0
-1.2442677 -0.18965004 0.31929991 0
-1.2366439 -0.18758579 0.44719762 0
-1.2469527 -0.19037704 0.58487833 0
-1.0793802 -0.16550834 -0.050117008 0
-0.70224142 -0.058277588 0.048119005 0
-0.69526589 -0.056294274 0.13200878 0
-1.2478812 -0.21341775 0.32107422 0
-1.2376752 -0.2105159 0.44901571 0
-1.2421206 -0.21177985 0.58523351 0
-1.0730261 -0.1842664 -0.050086409 0
-0.77709782 -0.096083917 0.051062301 0
-0.7842555 -0.098216809 0.14245081 0
-1.2385963 -0.23360403 0.32048413 0
-1.2373803 -0.23324166 0.45056427 0
-1.2385314 -0.23358469 0.58611488 0
-1.0716965 -0.20457153 -0.050252397 0
-0.87449253 -0.14309357 0.054877773 0
-0.88176155 -0.14535965 0.1539519 0
-1.2435315 -0.25814071 0.32262594 0
-1.2517378 -0.26069906 0.45611101 0
-1.2546285 -0.26160023 0.5939557 0
-1.0591742 -0.22135849 -0.050008401 0
-0.98931777 -0.19861196 0.059385557 0
