# .PCD v0.7 - Point Cloud Data file format
VERSION 0.7
FIELDS x y z intensity
SIZE 4 4 4 4
TYPE F F F F
COUNT 1 1 1 1
WIDTH 1361
HEIGHT 1
VIEWPOINT 0 0 0 1 0 0 0
POINTS 1361
DATA ascii
-1.4622502 -0.029791122 -0.050082698 0
-1.1722354 0.38178492 0.044107411 0
-1.1645867 0.39263964 0.11928523 0
-1.1747773 0.37817752 0.19929934 0
-1.3312454 0.15612507 0.34875745 0
-1.2454889 0.27782673 0.40342668 0
-1.2449251 0.27862686 0.5001899 0
-1.2415402 0.28343064 0.60026163 0
-1.4437845 -0.037838105 -0.04994224 0
-1.1605635 0.37504107 0.044067219 0
-1.1542521 0.38424188 0.11939221 0
-1.1633185 0.37102473 0.1991788 0
-1.3141588 0.15112996 0.34731525 0
-1.23814 0.26195008 0.40636793 0
-1.242281 0.2559135 0.50728637 0
-1.2369195 0.26372933 0.60703546 0
-1.4244874 -0.044466857 -0.049752105 0
-1.1341712 0.39039391 0.043085169 0
-1.1389877 0.38317943 0.11856734 0
-1.1425906 0.37778252 0.19607422 0
-1.3025572 0.13817072 0.34839454 0
-1.2395639 0.23252749 0.41474038 0
-1.2409347 0.23047411 0.51569718 0
-1.2379835 0.23489487 0.61928219 0
-1.4154563 -0.066660173 -0.050236512 0
-1.1254236 0.37985027 0.043227781 0
-1.1258544 0.37918699 0.1181494 0
-1.122419 0.38447583 0.19306517 0
-1.2815402 0.1395061 0.34516078 0
-1.2384976 0.20577085 0.42197987 0
-1.2383778 0.20595527 0.52359343 0
-1.2432684 0.19842613 0.63597596 0
-1.3940655 -0.069936045 -0.049923029 0
-1.1070554 0.3843416 0.042739015 0
-1.1085454 0.3819834 0.11689287 0
-1.1059836 0.38603818 0.19122893 0
-1.2630283 0.13746881 0.34305069 0
-1.2455984 0.16505671 0.43466008 0
-1.2378539 0.17731476 0.53346157 0
-1.2367668 0.17903531 0.64239067 0
-1.3781018 -0.08162988 -0.049976002 0
-1.0921977 0.38377357 0.042475726 0
-1.0990113 0.37268203 0.11719949 0
-1.0872663 0.39180094 0.18856175 0
-1.255931 0.11724352 0.34647292 0
-1.2346609 0.15186763 0.4364602 0
-1.2391499 0.14456022 0.54525596 0
-1.2424945 0.13911593 0.66085881 0
-1.3609208 -0.091363914 -0.04995548 0
-1.0761753 0.38551396 0.042126235 0
-1.0772325 0.38374341 0.1149701 0
-1.0779536 0.38253576 0.18912092 0
-1.2516898 0.091570847 0.35151488 0
-1.2409289 0.10959267 0.44957086 0
-1.2421199 0.10759806 0.55898315 0
-1.2404596 0.11037862 0.67263007 0
-1.3487839 -0.10976983 -0.050301991 0
-1.0626953 0.38335943 0.041948404 0
-1.0694804 0.37166387 0.11566629 0
-1.0640062 0.38109982 0.18806814 0
-1.2507569 0.059198614 0.35851204 0
-1.2411916 0.075686209 0.45933691 0
-1.2432673 0.0721085 0.57188761 0
-1.2443478 0.070245974 0.69092214 0
-1.332512 -0.12134124 -0.050372276 0
-1.0487031 0.38236535 0.041731257 0
-1.044789 0.38931209 0.1127026 0
-1.0515026 0.37739664 0.18752861 0
-1.2526263 0.020440573 0.36733326 0
-1.2385396 0.045441743 0.46763426 0
-1.2481564 0.028373713 0.58861238 0
-1.3081945 -0.1183132 -0.04985635 0
-1.0279484 0.39404982 0.041006871 0
-1.0354903 0.38026106 0.11306798 0
-1.0330234 0.38477135 0.18474807 0
-1.2414731 0.0036710449 0.36969274 0
-1.239374 0.0075086304 0.47880295 0
-1.240449 0.0055433461 0.59532797 0
-1.2961994 -0.1377337 -0.050263602 0
-1.0161741 0.3898986 0.040937945 0
-1.0210646 0.38068378 0.11229259 0
-1.0226706 0.37765759 0.18499187 0
-1.2364117 -0.025079852 0.37553787 0
-1.2440107 -0.039397959 0.49327317 0
-1.2384286 -0.028880006 0.60747844 0
-1.2707887 -0.13172317 -0.049653184 0
-1.0075053 0.37981594 0.041113604 0
-1.0065492 0.38167334 0.11147571 0
-1.0023879 0.38975871 0.1813632 0
-1.2400893 -0.072076805 0.38659915 0
-1.2443612 -0.080376513 0.50540984 0
-1.2446153 -0.080870397 0.62774259 0
-1.2586187 -0.15129721 -0.050080147 0
-0.98822975 0.39071304 0.040455498 0
-0.99031258 0.38653779 0.1102206 0
-0.99167269 0.38381141 0.18144642 0
-1.2434125 -0.1208154 0.39807451 0
-1.2394282 -0.11282862 0.5142988 0
-1.2421739 -0.11833263 0.64112157 0
-1.2414067 -0.16113627 -0.050124612 0
-0.98106432 0.37761205 0.040762592 0
-0.97659564 0.38685942 0.10953983 0
-0.97752941 0.38492709 0.18014154 0
-1.2436914 -0.16586459 0.40842295 0
-1.2402679 -0.15877986 0.5281449 0
-1.2222034 -0.1668005 -0.050012831 0
-0.97073674 0.37075484 0.040825352 0
-0.96256465 0.38822418 0.10875984 0
-0.96404576 0.38505805 0.17907594 0
-1.2387211 -0.20211005 0.4162299 0
-1.2400781 -0.20501089 0.54200852 0
-1.2019341 -0.16992533 -0.049811684 0
-0.95279789 0.3806048 0.040238168 0
-0.94489932 0.39805865 0.10700608 0
-0.95190072 0.38258725 0.17856514 0
-1.2383382 -0.25036931 0.42737445 0
-1.2403154 -0.25473845 0.55707109 0
-1.1802397 -0.16944587 -0.049481161 0
-0.93896067 0.38210702 0.039988331 0
-0.93757695 0.38527012 0.10794184 0
-0.93588901 0.3891288 0.17631325 0
-1.2386835 -0.30304599 0.43968925 0
-1.2421199 -0.3109014 0.57438678 0
-1.1669966 -0.18837726 -0.049915325 0
-0.92609173 0.3817656 0.039818045 0
-0.92506897 0.38418609 0.10751788 0
-0.92849106 0.37608725 0.17794701 0
-1.2390759 -0.35896564 0.45283577 0
-1.1508648 -0.20104396 -0.050112173 0
-0.91281384 0.38274014 0.039604153 0
-0.91112196 0.38688922 0.10667488 0
-0.91177785 0.38528079 0.17525996 0
-1.2390121 -0.41721201 0.46655467 0
-1.1299444 -0.20191896 -0.049863514 0
-0.89839405 0.38702613 0.039270721 0
-0.90525216 0.36958265 0.10816703 0
-0.90118372 0.37993073 0.17544541 0
-1.2376968 -0.47598529 0.48035046 0
-1.1081088 -0.19989026 -0.049515266 0
-0.88688588 0.38428253 0.039214179 0
-0.88642466 0.38550049 0.10584255 0
-0.88689756 0.38425159 0.17379077 0
-1.2413163 -0.55164504 0.49869207 0
-1.0904438 -0.20859993 -0.049587119 0
-0.87990081 0.36923617 0.03963089 0
-0.87303877 0.38806903 0.10508278 0
-0.87361705 0.38648206 0.17257954 0
-1.0752769 -0.22460604 -0.049943089 0
-0.86340326 0.38046062 0.039055359 0
-0.86204249 0.38434654 0.10506193 0
-0.8659606 0.37315726 0.17437807 0
-1.0580003 -0.23513341 -0.050098412 0
-0.85154378 0.37915307 0.0389621 0
-0.85218245 0.377253 0.10543912 0
-0.84805834 0.38952368 0.17053826 0
-1.0362262 -0.23206615 -0.049751382 0
-0.83896095 0.38029999 0.038782775 0
-0.8394714 0.3787154 0.10486279 0
-0.83789688 0.38360298 0.17097966 0
-1.0221658 -0.25319982 -0.050320089 0
-0.82491529 0.38661456 0.038417011 0
-0.82793045 0.37683445 0.10468272 0
-0.82530081 0.385364 0.16999382 0
-0.99866676 -0.24372077 -0.049753949 0
-0.81282449 0.38719934 0.038272448 0
-0.81411207 0.38282806 0.1036374 0
-0.81244951 0.38847226 0.16878821 0
-0.9818539 -0.25657749 -0.050029088 0
-0.80142063 0.38570899 0.10296271 0
-0.80212528 0.38320071 0.16918702 0
-0.96498889 -0.27000237 -0.050332136 0
-0.79028553 0.38337445 0.10288829 0
-0.79145467 0.3790018 0.16940856 0
-0.94323504 -0.26505649 -0.049965374 0
-0.78021884 0.37689596 0.038319446 0
-0.77894133 0.38192672 0.10273134 0
-0.7799629 0.37790388 0.16907741 0
-0.92465115 -0.27219462 -0.050053526 0
-0.76778638 0.37984198 0.1026611 0
-0.7656287 0.38881087 0.16654731 0
-0.90424889 -0.27162755 -0.049867895 0
-0.7546522 0.38653123 0.16649672 0
-0.88614255 -0.28117359 -0.050061397 0
-0.74313748 0.38679057 0.16600353 0
-0.86508995 -0.27676749 -0.049754653 0
-0.7335341 0.37787968 0.16722518 0
-0.84649605 -0.28429222 -0.049891673 0
-0.8266778 -0.2853955 -0.049804159 0
-0.80823237 -0.29460943 -0.050019186 0
-0.78827924 -0.29475784 -0.049914978 0
-0.76958913 -0.30365801 -0.050135341 0
-0.74959213 -0.30326128 -0.050029412 0
-0.72951412 -0.30148184 -0.049883012 0
-0.7112062 -0.31675565 -0.050357603 0
-0.69063383 -0.3094312 -0.050030235 0
-0.67036009 -0.30307555 -0.049747128 0
-0.65123087 -0.31254458 -0.05003934 0
-0.63173252 -0.31863499 -0.050219234 0
-0.61178142 -0.31540966 -0.050075039 0
-0.59179819 -0.30625498 -0.049728122 0
-0.57222366 -0.3148011 -0.0500222 0
-0.55243713 -0.32382143 -0.05034202 0
-0.53269005 -0.31580603 -0.050062526 0
-0.51288587 -0.31665194 -0.050108299 0
-0.49267456 -0.32657504 -0.050487343 0
-0.47416604 -0.29965281 -0.049558427 0
-0.45383739 -0.31009448 -0.049973935 0
-0.49626568 0.33078307 0.039043695 0
-0.43420109 -0.30798984 -0.049949702 0
-0.4847059 0.33243555 0.039014705 0
-0.41424003 -0.30958557 -0.050066967 0
-0.3957611 -0.29613733 -0.0496534 0
-0.46138209 0.33327931 0.039060622 0
-0.37463742 -0.30777633 -0.05014934 0
-0.44822893 0.32119632 0.039541028 0
-0.4401924 0.25250959 0.11439846 0
-0.44072491 0.257061 0.18708153 0
-0.4416354 0.26484263 0.26016986 0
-0.44144794 0.26324052 0.33797616 0
-0.44142616 0.26305443 0.41921994 0
-0.35644829 -0.29406285 -0.049742948 0
-0.43340516 0.2988888 0.040396269 0
-0.42876568 0.26314163 0.11341481 0
-0.4291757 0.26630086 0.18568271 0
-0.42938137 0.26788533 0.25978225 0
-0.42920688 0.266541 0.33738509 0
-0.42811635 0.25813848 0.42191491 0
-0.43023869 0.27449101 0.50036037 0
-0.33486545 -0.30615425 -0.050274674 0
-0.41941416 0.28670669 0.040894624 0
-0.42004225 0.29111075 0.11056295 0
-0.42007414 0.29133427 0.1814307 0
-0.41972247 0.28886843 0.25481021 0
-0.4208225 0.29658192 0.3278583 0
-0.4192279 0.28540057 0.41122708 0
-0.41864049 0.28128153 0.49777696 0
-0.31719428 -0.29062605 -0.049819343 0
-0.40551788 0.27743417 0.041295189 0
-0.40530631 0.27607352 0.11239482 0
-0.40733603 0.28912777 0.18216296 0
-0.4068667 0.28610921 0.25599003 0
-0.40595141 0.28022254 0.33397096 0
-0.40732628 0.289065 0.41045284 0
-0.40938765 0.30232286 0.48804638 0
-0.29771063 -0.28777552 -0.049830079 0
-0.39031589 0.26212156 0.041921608 0
-0.39328575 0.27975672 0.11221058 0
-0.39108485 0.26668769 0.18662655 0
-0.39045501 0.26294762 0.26249275 0
-0.38984475 0.25932378 0.3416912 0
-0.39149573 0.26912749 0.41964948 0
-0.39840433 0.31015128 0.48505828 0
-0.27529296 -0.30104101 -0.050434481 0
0.068095408 -2.1942234 0.13112636 0
-0.38518676 0.30482984 0.48882037 0
-0.25840339 -0.28362226 -0.049934641 0
0.11482557 -2.2033484 0.13175461 0
-0.37446651 0.31335568 0.48561832 0
-0.23816393 -0.28406572 -0.050092526 0
0.16054709 -2.2053971 0.13214792 0
-0.36683103 0.33596283 0.47528127 0
-0.2198271 -0.27535641 -0.049925532 0
0.20387854 -2.195296 0.13211915 0
-0.35705709 0.34647459 0.47116202 0
-0.20046033 -0.2715534 -0.049946383 0
0.24983932 -2.1964931 0.13252452 0
-0.34854087 0.36146104 0.46479452 0
-0.18341775 -0.25827575 -0.049627818 0
0.29606262 -2.1975307 0.13294655 0
-0.0055915504 -0.97749257 0.25307411 0
-0.004847148 -0.98050332 0.42118469 0
-0.33678243 0.36200672 0.46590522 0
-0.16291781 -0.25914073 -0.049837891 0
0.34344313 -2.2018001 0.13351063 0
-0.32875523 0.37709635 0.45957592 0
-0.14551066 -0.24815214 -0.049619421 0
0.389577 -2.1999903 0.13387367 0
-0.31443599 0.36803651 0.46580589 0
-0.12430338 -0.25091672 -0.049919218 0
-0.30160484 0.36528903 0.46886569 0
-0.10516012 -0.24608982 -0.049947027 0
-0.30400237 0.41360551 0.44533673 0
-0.08460734 -0.24565935 -0.050148517 0
-0.29147941 0.41065276 0.44859457 0
-0.065373786 -0.24075544 -0.050192423 0
-0.28553846 0.42823017 0.44113481 0
-0.046969391 -0.23333001 -0.050150465 0
-0.26347563 0.39766943 0.45914602 0
-0.030542949 -0.22044659 -0.049910165 0
-0.014344373 -0.2074275 -0.049671434 0
0.0054497332 -0.20418441 -0.049813431 0
0.025833806 -0.20213687 -0.050011683 0
0.045429014 -0.19781601 -0.050132997 0
0.058824264 -0.17885149 -0.049695451 0
0.080713592 -0.17972708 -0.050037302 0
-0.18814261 0.42447358 0.38206774 0
0.097439133 -0.1687963 -0.049927957 0
0.11470046 -0.15916467 -0.049877614 0
-0.15868275 0.41577816 0.39043769 0
-0.19960959 0.50185001 0.50013119 0
0.13202025 -0.14972568 -0.049843237 0
0.5500223 -1.001004 0.45913461 0
-0.16250776 0.45009285 0.37695619 0
-0.19398032 0.51418799 0.49499553 0
0.15213223 -0.14584315 -0.050039738 0
0.58531028 -1.0006523 0.46191886 0
-0.15246575 0.45523322 0.37690774 0
-0.18744005 0.52424955 0.49138746 0
0.1707644 -0.13882375 -0.05012133 0
0.61114889 -0.98137188 0.4609597 0
-0.13607799 0.44823039 0.38259098 0
-0.1783417 0.52908975 0.49130449 0
0.18370147 -0.12110663 -0.049779132 0
0.64913315 -0.98490429 0.4647339 0
-0.12503876 0.45188642 0.38339657 0
-0.1706803 0.53659284 0.48950401 0
0.2045693 -0.11816538 -0.050044525 0
0.68322855 -0.98033619 0.46696195 0
-0.11457295 0.45667994 0.38373476 0
-0.16462086 0.54682726 0.48590338 0
0.22208108 -0.10897125 -0.05006545 0
0.72130686 -0.98209667 0.47060975 0
-0.080814846 0.42078131 0.40354556 0
-0.15793841 0.55566728 0.48328128 0
0.23317374 -0.088835962 -0.049642384 0
0.75107223 -0.96871996 0.47121686 0
-0.061454184 0.41172224 0.41081262 0
-0.14600433 0.55536878 0.4869861 0
0.2501367 -0.07896281 -0.049650215 0
0.80178159 -0.98974872 0.47916174 0
-0.055513896 0.4256776 0.40711251 0
-0.13596149 0.55849952 0.4884454 0
0.27853861 -0.087433584 -0.050438669 0
0.84419638 -0.99535656 0.48402762 0
-0.12468529 0.55977088 0.49130341 0
0.29200551 -0.071555145 -0.05021622 0
0.88627893 -0.9991765 0.48866391 0
-0.1149501 0.56367564 0.49242947 0
0.30635241 -0.057292465 -0.050068211 0
0.91247994 -0.9776938 0.4879888 0
0.019068917 0.37894595 0.43996954 0
-0.11273027 0.57908231 0.48548412 0
0.3181549 -0.039450768 -0.049772404 0
0.95106775 -0.97467303 0.49139985 0
0.032537781 0.38259077 0.44181085 0
-0.10642988 0.5879361 0.48319176 0
0.33479759 -0.02893067 -0.04979879 0
0.99366754 -0.97657919 0.49602935 0
0.040414833 0.39447814 0.43959701 0
-0.10118676 0.5981428 0.47995904 0
0.35812315 -0.027731543 -0.050243478 0
0.054900669 0.39688289 0.44223788 0
-0.096289136 0.60859996 0.47656256 0
0.3719115 -0.012990719 -0.050105724 0
0.073937021 0.39335722 0.44804132 0
-0.089265741 0.61591697 0.47548905 0
0.38881937 -0.0025498918 -0.05016654 0
1.1320556 -0.98978972 0.1062839 0
1.1277432 -0.98406172 0.30710763 0
0.090534292 0.39366186 0.45203859 0
-0.089884587 0.63331199 0.46698946 0
0.39459839 0.022367591 -0.049584337 0
0.10841932 0.39270103 0.45684594 0
-0.076573379 0.63209307 0.47235194 0
0.41495553 0.02824747 -0.049867064 0
0.11846926 0.40209371 0.45634878 0
-0.06418816 0.63241059 0.47673145 0
0.43289855 0.037414547 -0.050013125 0
-0.066655226 0.65127605 0.46709287 0
0.44999894 0.047756549 -0.050116546 0
-0.05173818 0.64868456 0.47390586 0
0.46847948 0.056604262 -0.050301395 0
-0.048360385 0.66001219 0.47006983 0
0.4701471 0.084790222 -0.04958028 0
-0.041948594 0.66764218 0.46914354 0
0.50189763 0.078838699 -0.050492555 0
1.2086476 -0.70542324 0.10018341 0
-0.030194024 0.66928703 0.4730489 0
0.50039881 0.10981452 -0.049639627 0
1.2003224 -0.64747703 0.098454967 0
-0.029753665 0.68342006 0.46703389 0
0.52878338 0.10839342 -0.05036917 0
0.38375965 0.26139313 0.054842986 0
-0.021488348 0.68892872 0.46799839 0
0.53375572 0.13180029 -0.049889229 0
0.38762 0.28213573 0.054404177 0
0.84419376 -0.18755937 0.22210433 0
-0.014824846 0.69614631 0.46764699 0
0.55559939 0.13780749 -0.050283477 0
0.39619389 0.29771537 0.054222524 0
0.84256488 -0.15006244 0.21910964 0
0.0025309536 0.69261891 0.47635859 0
0.5550881 0.16607571 -0.049560249 0
0.40755364 0.31039435 0.054192085 0
0.7442556 -0.018968469 0.20168838 0
0.74333483 -0.018067723 0.33416051 0
0.7432974 -0.018031126 0.47022206 0
0.0030480835 0.70608282 0.47095704 0
0.57017201 0.17876768 -0.049632765 0
0.42704663 0.3152895 0.054571211 0
0.83247238 -0.071430452 0.21242453 0
0.19252004 0.53899521 0.35079744 0
0.0038933966 0.71891886 0.46602875 0
0.59430236 0.18311965 -0.050153352 0
0.46239874 0.30580288 0.055722192 0
0.83830947 -0.043830637 0.21084742 0
0.20081635 0.54910004 0.3505016 0
0.015429459 0.72152781 0.46994805 0
0.59908146 0.20552099 -0.049738031 0
0.83641475 -0.0097127017 0.073176526 0
0.83606869 -0.0093989428 0.20816699 0
0.19056828 0.57599491 0.34193781 0
0.019689878 0.73096174 0.46802446 0
0.61926264 0.2139169 -0.050074819 0
0.84386331 0.015326256 0.072778285 0
0.83549231 0.022727961 0.20581752 0
0.84055227 0.018253917 0.3425402 0
0.2137946 0.57242942 0.34848583 0
0.025691709 0.73874897 0.46759525 0
0.61906487 0.2401973 -0.049452439 0
0.84432429 0.04602265 0.072069928 0
0.83446306 0.054523107 0.2034869 0
0.83838862 0.051139351 0.33834565 0
0.23057701 0.57507569 0.35211292 0
0.033291601 0.74513662 0.46849918 0
0.6402269 0.24796009 -0.049848165 0
0.84089667 0.07933902 0.07120581 0
0.83761042 0.082100384 0.20182359 0
0.83913058 0.080822937 0.33497781 0
0.92804462 0.0061092325 0.50102192 0
0.26924035 0.55969685 0.36522493 0
0.2820932 0.54889679 0.46000412 0
0.66194886 0.255629 -0.050270211 0
0.83896261 0.11064886 0.070438951 0
0.8347463 0.11410224 0.19939074 0
0.83373147 0.11493324 0.33030048 0
0.94412047 0.024521107 0.50117922 0
0.29464903 0.55645961 0.37241864 0
0.2505658 0.59256524 0.43841323 0
0.045417689 0.76058829 0.46810964 0
0.66219193 0.2808274 -0.049711317 0
0.84799749 0.13251579 0.070198916 0
0.84449965 0.13530791 0.19877291 0
0.83674663 0.1414963 0.32771119 0
0.98920411 0.019803518 0.51088047 0
0.27315173 0.5913626 0.35955587 0
0.2430063 0.61542487 0.43002832 0
0.050281964 0.7692591 0.46711966 0
0.68241602 0.28998917 -0.050076012 0
0.84863645 0.16070318 0.069594003 0
0.84217864 0.16572607 0.19655371 0
0.84896356 0.16044879 0.32732633 0
0.26236448 0.61670458 0.43599597 0
0.069355749 0.76682645 0.47689766 0
0.69407028 0.30597168 -0.050058562 0
0.85104519 0.18701851 0.069090083 0
0.84177667 0.19404209 0.19466625 0
0.83433992 0.19967759 0.32092589 0
0.26634976 0.63009161 0.43392941 0
0.070998631 0.77812564 0.47358972 0
0.7054221 0.32216603 -0.050036829 0
0.85050589 0.21507263 0.068474784 0
0.83982414 0.22295749 0.19263698 0
0.83534819 0.22626126 0.31819996 0
0.2890307 0.62952477 0.44159022 0
0.07720425 0.78588414 0.47378105 0
0.71043593 0.34290165 -0.049745619 0
0.85281175 0.24055123 0.068005726 0
0.83386403 0.25417233 0.190144 0
0.83956152 0.25007653 0.31628516 0
0.079513334 0.7964558 0.47119635 0
0.72839385 0.35433012 -0.050032474 0
0.85869187 0.26312852 0.067710586 0
0.84297079 0.27413243 0.18970113 0
0.84109634 0.27544445 0.31386384 0
0.8546477 0.2659592 0.44574276 0
0.10022446 0.79401487 0.48205221 0
0.73830074 0.37149274 -0.049975313 0
0.87444574 0.27873063 0.067856848 0
0.83771092 0.30375975 0.18742658 0
0.83750492 0.30390012 0.31041452 0
0.84078866 0.3016628 0.4376567 0
0.10858788 0.80054682 0.48393217 0
0.74998707 0.38743097 -0.050004147 0
0.91990453 0.27476424 0.069282807 0
0.84291857 0.32581109 0.18656901 0
0.84828311 0.322254 0.31018123 0
0.83851212 0.32873291 0.43332174 0
0.11676642 0.80729902 0.48572376 0
0.76801425 0.39930665 -0.050310701 0
0.9547047 0.27887464 0.070242271 0
0.83804768 0.35412878 0.1844651 0
0.84557515 0.34927291 0.30710521 0
0.83733994 0.35458541 0.42946109 0
0.12966712 0.81109744 0.49089369 0
0.7787233 0.41603267 -0.050312746 0
0.99574667 0.27987212 0.071459442 0
0.84766704 0.37277734 0.18426153 0
0.8428846 0.37577784 0.30412987 0
0.83974391 0.37774831 0.42680636 0
0.13315083 0.82106519 0.48946369 0
0.78124648 0.43775737 -0.049981289 0
1.0293381 0.28642416 0.072356254 0
0.83953708 0.40220076 0.18185481 0
0.8450312 0.39884937 0.30226994 0
0.84207827 0.40065068 0.42423862 0
0.12936784 0.83539629 0.48308417 0
0.78303415 0.45964998 -0.049633168 0
1.0786647 0.28438747 0.073902898 0
0.83990961 0.42593181 0.18057472 0
0.84764022 0.42134875 0.3005819 0
0.83861536 0.42669904 0.4200564 0
0.14368089 0.83868629 0.489353 0
0.80402488 0.47020286 -0.050090112 0
0.84696048 0.44547403 0.18016933 0
0.84136349 0.44869763 0.29711595 0
0.83389705 0.45299792 0.41563168 0
0.14298566 0.85092938 0.48533362 0
0.8125692 0.4880898 -0.050040178 0
0.84916419 0.46762222 0.17920032 0
0.83351427 0.47637522 0.29342076 0
0.83681017 0.47453177 0.41356605 0
0.14200021 0.863141 0.48125044 0
0.81733078 0.50799394 -0.049846098 0
0.84810096 0.4912892 0.17787264 0
0.83238345 0.49982202 0.29120123 0
0.84173566 0.4947449 0.41217765 0
0.83083922 0.52313989 -0.050016388 0
0.84907776 0.51353383 0.17683786 0
0.82767469 0.52480668 0.28832743 0
0.84127241 0.51764482 0.40931821 0
0.83457357 0.54341608 -0.049801432 0
0.85397524 0.53350741 0.17631674 0
0.83595806 0.54270899 0.288167 0
0.8362065 0.54258215 0.4052414 0
0.83738035 0.54198265 0.52705246 0
0.85503596 0.55524719 -0.050264377 0
0.84579617 0.55982035 0.17426106 0
0.83415705 0.56558096 0.28602377 0
0.85095268 0.55726814 0.40691957 0
0.83272773 0.56628847 0.52203685 0
0.8619507 0.57393807 -0.050194081 0
0.86460859 0.57266402 0.1754742 0
0.83853894 0.58516073 0.28518778 0
0.8392604 0.58481491 0.40115982 0
0.83622831 0.58626837 0.52017283 0
0.86623532 0.5937981 -0.050029974 0
0.91170102 0.57270348 0.1800499 0
0.84101194 0.60550088 0.28402635 0
0.84228939 0.60490817 0.39967194 0
0.842071 0.6050095 0.51927119 0
0.87517744 0.61144453 -0.05005886 0
0.92867714 0.58743638 0.18105236 0
0.84382564 0.62551373 0.28298956 0
0.83787292 0.62818503 0.39618132 0
0.84244841 0.62613183 0.51646799 0
0.87731987 0.63206577 -0.049831655 0
0.96367794 0.59461135 0.18418257 0
0.83917016 0.64861166 0.28053981 0
0.83449167 0.65064079 0.39307931 0
0.84294432 0.6469748 0.51381969 0
0.89672476 0.6452865 -0.050283886 0
0.99940675 0.60228014 0.18739173 0
0.84105104 0.66860437 0.27943802 0
0.83956045 0.66922867 0.39240938 0
0.84553701 0.66672552 0.51203662 0
0.8924132 0.66843873 -0.049827017 0
1.0365268 0.61020142 0.19075707 0
0.85543197 0.68338311 0.28082234 0
0.84340864 0.68824178 0.39147156 0
0.83201069 0.69284779 0.50456804 0
0.90655631 0.6840598 -0.050090659 0
1.0751444 0.61838919 0.19429021 0
0.85668558 0.70348603 0.2796953 0
0.83421141 0.71224046 0.38703215 0
0.84468836 0.70815939 0.50660962 0
0.28273132 0.92706007 0.45712063 0
0.90846854 0.70447057 -0.049894214 0
0.85213727 0.72560048 0.27750483 0
0.84328598 0.72892058 0.38767508 0
0.83667105 0.73140186 0.50135678 0
0.27699474 0.94133687 0.45188871 0
0.91789454 0.72202641 -0.049993612 0
0.85864919 0.74340236 0.27749839 0
0.84432763 0.74856967 0.38619339 0
0.8365795 0.75136518 0.49903479 0
0.25680962 0.9605487 0.439091 0
0.92556316 0.74026889 -0.050034545 0
0.85304683 0.76540577 0.27522254 0
0.85032314 0.76634985 0.38612279 0
0.83866316 0.77039164 0.49757752 0
0.83986729 0.76997429 0.61829293 0
0.26415834 0.96953642 0.44105789 0
0.9344973 0.75812417 -0.050131585 0
0.8441214 0.78818262 0.2723774 0
0.82518262 0.79448152 0.37774122 0
0.83711869 0.79051167 0.4949384 0
0.83624786 0.79080129 0.61410099 0
0.2929326 0.97150433 0.45437381 0
0.94220418 0.77644575 -0.050190691 0
0.84086174 0.8087402 0.27067047 0
0.8332687 0.81115979 0.37838542 0
0.85117692 0.80545312 0.49784663 0
0.83996445 0.80902612 0.6132279 0
0.31055728 0.97773045 0.46179447 0
0.94755119 0.7955336 -0.05017012 0
0.84412879 0.82706201 0.27024952 0
0.83977848 0.82838821 0.37866279 0
0.84826857 0.8258 0.49490818 0
0.84419602 0.82704151 0.61268055 0
0.30771723 0.99058759 0.45852324 0
0.95130414 0.81507367 -0.050099302 0
0.85967487 0.84175068 0.27218002 0
0.84271103 0.84668958 0.37804642 0
0.83936948 0.84766245 0.48999357 0
0.8404637 0.84734386 0.60879898 0
0.32850161 0.99639708 0.46765956 0
0.95863217 0.83357292 -0.050170332 0
0.89233071 0.85197371 0.2773408 0
0.84072834 0.86629498 0.37619185 0
0.8301366 0.8692345 0.4850761 0
0.84007937 0.86647505 0.60647964 0
0.33190528 1.0075094 0.46777707 0
0.9497568 0.85640526 -0.049651433 0
0.92599291 0.86267936 0.28269625 0
0.83086807 0.8877939 0.37233001 0
0.83885473 0.88568527 0.48644537 0
0.84532028 0.88397825 0.60668015 0
0.31358442 1.0243654 0.45672461 0
0.96355599 0.87318146 -0.049979307 0
0.95612687 0.87504315 0.28740391 0
0.84638196 0.90254426 0.37522557 0
0.84523195 0.90283245 0.48707864 0
0.83989877 0.9041689 0.60242313 0
0.32811692 1.0324169 0.46276274 0
0.96804136 0.89240825 -0.049972221 0
0.98842663 0.88757187 0.29252788 0
0.83725685 0.92343694 0.37170061 0
0.83074218 0.92498255 0.48064893 0
0.84049183 0.92266941 0.60084653 0
0.33556262 1.0424641 0.46519086 0
0.97582942 0.91089338 -0.050094862 0
1.0160028 0.90189499 0.29679364 0
0.84094948 0.94110501 0.37160569 0
0.84014446 0.94128531 0.48247826 0
0.83967561 0.94139034 0.59877545 0
0.3390446 1.0535262 0.46564475 0
0.98225826 0.92975664 -0.050176084 0
1.0463296 0.91625023 0.30158836 0
0.84191817 0.95934063 0.37085885 0
0.83622998 0.9605397 0.47984484 0
0.83972019 0.95980394 0.59717393 0
0.35194585 1.0626279 0.47098517 0
0.99301773 0.94782537 -0.050423365 0
1.0806375 0.9305042 0.3071363 0
0.84999663 0.97609848 0.37202275 0
0.8461594 0.97685707 0.48199522 0
0.84518546 0.97704959 0.59796214 0
0.35615686 1.0737234 0.47193864 0
0.98811752 0.96896595 -0.050109822 0
0.85934132 0.99274236 0.37356722 0
0.84179598 0.99598181 0.47937468 0
0.83351749 0.99751031 0.59162641 0
0.39077368 1.0792556 0.48843145 0
0.97598737 0.9911263 -0.049544714 0
0.8420139 1.0141219 0.36825827 0
0.84339327 1.013885 0.47885329 0
0.84829253 1.0130441 0.59652126 0
0.38297287 1.0929127 0.48339042 0
0.98336607 1.0097901 -0.049696039 0
0.41707972 1.0996637 0.041225858 0
0.42107823 1.0990291 0.11247323 0
0.42949417 1.0976934 0.18621396 0
0.43038061 1.0975528 0.26117042 0
0.41992119 1.0992128 0.3352209 0
0.43002495 1.0976092 0.41994914 0
0.38764432 1.1043353 0.4847652 0
1.0030555 1.0267696 -0.050299734 0
0.4114764 1.1130357 0.040956229 0
0.40663508 1.1137416 0.11070069 0
0.40372005 1.1141667 0.1811713 0
0.40179458 1.1144476 0.25331131 0
0.41233763 1.1129102 0.33204064 0
0.41127691 1.1130648 0.41131184 0
0.40575859 1.1138695 0.49300733 0
0.99346405 1.0480759 -0.04985556 0
0.38200167 1.1293925 0.039833374 0
0.43025503 1.1229753 0.11307783 0
0.42251477 1.1240047 0.18428352 0
0.42577043 1.1235718 0.25904846 0
0.4397094 1.121718 0.34065545 0
0.42647675 1.1234778 0.41694969 0
0.41806665 1.1245962 0.49836567 0
0.99268228 1.0680109 -0.049738489 0
0.37396416 1.1423768 0.039490476 0
0.43050066 1.1355815 0.11293389 0
0.42609182 1.1361114 0.18464933 0
0.42923328 1.1357338 0.25953528 0
0.42021862 1.1368173 0.33359131 0
0.41788438 1.137098 0.41271204 0
0.99496537 1.0875367 -0.04974065 0
0.36079714 1.1556709 0.038969729 0
0.8503924 1.1030694 0.36724177 0
0.82636291 1.1056511 0.46902165 0
0.83250886 1.1049908 0.58478701 0
1.000815 1.1067294 -0.049879525 0
0.34317979 1.1690195 0.038296018 0
0.85066634 1.1209512 0.36685252 0
0.83874577 1.1220803 0.4725709 0
0.84366924 1.121614 0.58869231 0
1.000262 1.1265486 -0.049797572 0
0.35279354 1.1796594 0.038604479 0
0.85374004 1.1385676 0.36723804 0
0.84657377 1.1391555 0.47466511 0
0.838669 1.1398039 0.58596706 0
1.0006353 1.1462489 -0.049757771 0
0.36696407 1.1902031 0.039080538 0
0.8462829 1.1569555 0.36498678 0
0.84544307 1.1570137 0.47384155 0
0.82566768 1.1583854 0.58001864 0
1.0125616 1.1652688 -0.050140001 0
0.85160977 1.1743984 0.36606318 0
0.83692271 1.1752315 0.47063106 0
0.82778031 1.17575 0.58043927 0
1.0101522 1.1851939 -0.050018273 0
0.84547132 1.1924561 0.36426705 0
0.8408553 1.1926596 0.47164586 0
0.84213763 1.1926031 0.586025 0
1.0054487 1.2051084 -0.049823623 0
0.8505742 1.2099853 0.36539915 0
0.82909364 1.2106616 0.46750936 0
0.8324433 1.2105563 0.58173323 0
1.0127022 1.2246629 -0.050064921 0
0.85706073 1.2276028 0.36694041 0
0.84076434 1.2279108 0.47124645 0
0.84084898 1.2279091 0.58503157 0
1.013454 1.2444316 -0.050082874 0
0.85268253 1.2454438 0.36576617 0
0.84405881 1.2454982 0.47226879 0
0.83860153 1.2455325 0.58400917 0
1.0085548 1.2641807 -0.049907967 0
0.85333842 1.2632034 0.36593348 0
0.84201199 1.2631321 0.47158784 0
0.84623271 1.2631587 0.58716881 0
1.0119606 1.2839662 -0.050038446 0
0.85088021 1.2809235 0.3653633 0
0.84126395 1.2807418 0.47141272 0
0.83182639 1.2805636 0.58129519 0
1.0033745 1.3034694 -0.049749531 0
0.84399945 1.2984508 0.36372089 0
0.83341748 1.2981176 0.4689486 0
0.83538884 1.2981796 0.58295339 0
1.0057949 1.3232571 -0.049862564 0
0.84879488 1.3163337 0.36511582 0
0.83582193 1.3157616 0.46996969 0
0.83911675 1.3159068 0.584773 0
1.0081769 1.3431257 -0.049983211 0
0.85336083 1.334344 0.36651063 0
0.84656161 1.3339584 0.47384304 0
0.84169489 1.3336823 0.58620965 0
1.0063027 1.3627874 -0.049960598 0
1.302119 1.3833065 0.072546989 0
1.3000603 1.3831637 0.20610036 0
1.2961915 1.3828954 0.34109733 0
0.84836274 1.3518319 0.36551869 0
0.8435865 1.3515006 0.47322237 0
0.83755702 1.3510824 0.58495307 0
1.0079511 1.3827252 -0.050073005 0
1.2462122 1.4022694 0.070607804 0
1.2394072 1.4017111 0.19975093 0
1.0187004 1.3836069 0.29120362 0
0.84162599 1.3690819 0.36413699 0
0.84508103 1.3693652 0.47416681 0
0.84204489 1.3691162 0.5873695 0
0.9946323 1.4013281 -0.049657807 0
1.2427317 1.4248277 0.070554912 0
1.2509162 1.4256029 0.20120905 0
0.90629226 1.3929607 0.27115777 0
0.85436183 1.388042 0.36779958 0
0.83702892 1.3864002 0.47199711 0
0.84493452 1.387149 0.5892185 0
1.0018308 1.421844 -0.049987163 0
0.63782889 1.3827361 0.04891704 0
0.63776416 1.3827292 0.13518341 0
0.63688296 1.3826345 0.22262819 0
0.65571767 1.3846581 0.31728819 0
0.83718342 1.4041545 0.47264227 0
0.84631139 1.4051352 0.59053463 0
1.0067233 1.4423199 -0.050243381 0
0.55069965 1.3875087 0.045845576 0
0.55141622 1.3875949 0.12602213 0
0.54244453 1.3865166 0.20578444 0
0.5462473 1.3869736 0.28960419 0
0.83671814 1.4218863 0.47315562 0
0.84611088 1.4230152 0.59128928 0
1.0029583 1.4618298 -0.050197497 0
0.55947345 1.4028522 0.046225131 0
0.5477975 1.4012994 0.12582126 0
0.55635244 1.4024371 0.20863348 0
0.55315012 1.4020112 0.29183322 0
0.84391791 1.4406796 0.47631723 0
0.83915955 1.4400468 0.58931953 0
0.98599583 1.4793857 -0.049684245 0
0.55619377 1.4167106 0.046177469 0
0.54973346 1.4157685 0.12624203 0
0.55827671 1.4170144 0.20934018 0
0.5473879 1.4154265 0.29084972 0
0.83544439 1.4574319 0.47429457 0
0.84033471 1.458145 0.59083599 0
0.98379856 1.4989218 -0.049711678 0
0.54419583 1.4291537 0.04582087 0
0.54551202 1.4293625 0.12601343 0
0.55661184 1.4311242 0.2094264 0
0.55876321 1.4314656 0.29433489 0
0.84441358 1.4768003 0.47821462 0
0.85299355 1.4781621 0.59726512 0
0.99880677 1.5214336 -0.050371308 0
0.54501814 1.4435443 0.045933556 0
0.55830711 1.4458252 0.12765847 0
0.55906409 1.4459552 0.21029864 0
0.56030899 1.4461689 0.29533529 0
0.83398539 1.4931433 0.47567755 0
0.83573526 1.4934436 0.59124601 0
0.98645812 1.5393708 -0.050049581 0
0.55336064 1.4594065 0.046326105 0
0.55426759 1.459574 0.12749021 0
0.55617529 1.4599261 0.21022759 0
0.54820436 1.4584545 0.29284453 0
0.8557995 1.5152469 0.48411232 0
0.84057885 1.5124366 0.59459955 0
0.97359759 1.5569787 -0.049716622 0
0.54715627 1.4726775 0.046197489 0
0.55098683 1.4734348 0.12742355 0
0.55228478 1.4736913 0.21000451 0
0.55202442 1.4736398 0.29452926 0
0.84832388 1.5322139 0.48272926 0
0.83361715 1.5293067 0.59307975 0
0.98055238 1.578527 -0.050113846 0
0.55226058 1.488242 0.046487231 0
0.55364627 1.4885341 0.1280283 0
0.55556887 1.4889394 0.21113513 0
0.56328291 1.4905655 0.29820776 0
0.84173208 1.5492632 0.48171559 0
0.8434878 1.5496334 0.59876812 0
0.97505099 1.5975754 -0.050066385 0
0.55860072 1.5042951 0.046830166 0
0.54910582 1.5021683 0.12786274 0
0.54212266 1.5006042 0.2092123 0
0.55903655 1.5043927 0.29789847 0
0.84438568 1.5683078 0.48392424 0
0.84761494 1.5690311 0.60214406 0
0.96773535 1.6161623 -0.049960997 0
0.55065197 1.5172091 0.046657246 0
0.54642218 1.5162055 0.1279207 0
0.5586887 1.5191158 0.21287385 0
0.56122583 1.5197177 0.29932135 0
0.84510046 1.5870671 0.48555842 0
0.83511728 1.5846986 0.5985595 0
0.96304971 1.6353347 -0.049960673 0
0.5492391 1.5316374 0.046730306 0
0.55355388 1.5327187 0.12908585 0
0.54899007 1.5315751 0.21170697 0
0.55491763 1.5330604 0.2985644 0
0.84124607 1.6048119 0.48571157 0
0.84177035 1.6049433 0.60322201 0
0.95895201 1.6546656 -0.049990963 0
0.55236977 1.5473211 0.046978071 0
0.54994112 1.5466799 0.12908372 0
0.56281644 1.5500791 0.2149535 0
0.54751962 1.5460405 0.29756165 0
0.84715527 1.6251494 0.48930156 0
0.83729535 1.6225462 0.60324371 0
0.938932 1.6696028 -0.049440425 0
0.55739635 1.5637146 0.047304258 0
0.56042081 1.564554 0.13067289 0
0.55658811 1.5634903 0.2145014 0
0.55214733 1.5622579 0.29978272 0
0.83737367 1.6414171 0.48757482 0
0.85055572 1.6450756 0.61098117 0
0.95991606 1.6960768 -0.050419524 0
0.5553934 1.5783036 0.047377925 0
0.55021805 1.5767968 0.12997802 0
0.55687064 1.5787337 0.21530226 0
0.55162615 1.5772067 0.30069789 0
0.84003037 1.6611731 0.49022257 0
0.84121591 1.6615182 0.60912341 0
0.94370836 1.711938 -0.050026692 0
0.84596843 1.6821419 0.38031381 0
0.84363335 1.6814301 0.493296 0
0.83490819 1.6787702 0.60866034 0
0.93670446 1.7304448 -0.049984615 0
0.85189694 1.7034194 0.38337353 0
0.83540303 1.6981634 0.49233878 0
0.83443099 1.6978537 0.61082333 0
0.92629629 1.7477913 -0.049823027 0
0.85343939 1.7235596 0.38533869 0
0.83766836 1.7183143 0.49513111 0
0.83767539 1.7183167 0.61472386 0
0.92708391 1.7689013 -0.050092008 0
0.85332984 1.7433355 0.3869347 0
0.8339619 1.7366219 0.49592212 0
0.83953387 1.7385533 0.61814684 0
0.9080922 1.78308 -0.049621575 0
0.84093779 1.7588505 0.38527396 0
0.83086318 1.7552154 0.497013 0
0.83570999 1.7569642 0.61919618 0
0.90724033 1.8037119 -0.049847379 0
0.84490663 1.7803304 0.38811666 0
0.83266681 1.7757393 0.49993399 0
0.8323949 1.7756373 0.62057769 0
0.9035328 1.8234056 -0.049974814 0
0.84771186 1.8016615 0.39072862 0
0.83094972 1.7951322 0.50170434 0
0.82946438 1.7945535 0.62224114 0
0.89628798 1.8417703 -0.049976222 0
0.83226174 1.8158967 0.38840422 0
0.82490593 1.8129243 0.50201857 0
0.82805318 1.814196 0.62469763 0
0.88215905 1.8572561 -0.049720101 0
0.84616894 1.8421823 0.39423734 0
0.83639306 1.8380878 0.5087384 0
0.82795495 1.8345537 0.62786722 0
0.88107258 1.8782049 -0.049977686 0
0.83279735 1.8572675 0.39260811 0
0.82086915 1.8520942 0.50581443 0
0.82307523 1.8530509 0.62901169 0
0.87340063 1.8964013 -0.049989335 0
0.83759552 1.8803335 0.39610374 0
0.82354015 1.8740262 0.50957292 0
0.82025582 1.8725523 0.63120306 0
0.86561996 1.9145596 -0.050005756 0
0.8284747 1.8973254 0.39578649 0
0.81992429 1.8933582 0.51114869 0
0.826765 1.8965322 0.63777691 0
0.84913605 1.9285622 -0.049686734 0
0.81860095 1.9139249 0.39531463 0
0.82042879 1.9148011 0.51434374 0
0.81022793 1.9099112 0.63394707 0
0.85436291 1.9530628 -0.050237563 0
0.8102867 1.9312477 0.39534312 0
0.8146494 1.9334071 0.51532596 0
0.81153172 1.9318639 0.63841289 0
0.83403546 1.9649522 -0.049779862 0
0.81238681 1.9538959 0.39841756 0
0.79654497 1.9458052 0.51179755 0
0.80585068 1.9505578 0.63978839 0
0.83437735 1.9873667 -0.050159149 0
0.80630308 1.9725801 0.39923459 0
0.79846936 1.9684541 0.51583534 0
0.80412835 1.9714347 0.64313525 0
0.81972045 2.0019464 -0.049943171 0
0.79167765 1.9867225 0.39764559 0
0.79109603 1.9864067 0.51648873 0
0.7953158 1.9886975 0.6432882 0
0.81679517 2.0229168 -0.050213043 0
0.78773636 2.0066643 0.39922047 0
0.7864117 2.0059233 0.51825762 0
0.79346627 2.0098689 0.64684826 0
0.80324847 2.0379932 -0.050058126 0
0.78563744 2.0278499 0.40142295 0
0.78516775 2.0275795 0.52145433 0
0.79078978 2.0308175 0.65016603 0
0.79604346 2.0567055 -0.0501731 0
0.77435428 2.0438473 0.40099671 0
0.78428811 2.0497365 0.52492088 0
0.78182846 2.0482783 0.65061009 0
0.77740592 2.068543 -0.04982068 0
0.76641458 2.0618384 0.40162638 0
0.76940638 2.0636635 0.52306587 0
0.76685816 2.062109 0.64824957 0
0.77054769 2.087481 -0.049968176 0
0.76271528 2.082567 0.40360618 0
0.76826757 2.0860505 0.52666223 0
0.76011151 2.0809333 0.64997458 0
0.75809187 2.1029356 -0.049889147 0
0.7640509 2.1067798 0.40720969 0
0.75053316 2.0980597 0.52382874 0
0.7597633 2.1040139 0.65498263 0
0.74803072 2.119915 -0.049920347 0
0.75579363 2.1250622 0.40799978 0
0.74306744 2.1166241 0.52513081 0
0.76006764 2.1278963 0.66050065 0
0.73807889 2.1369991 -0.049965728 0
0.74300331 2.1403544 0.40746802 0
0.73987967 2.138226 0.52825993 0
0.7371313 2.1363535 0.65457243 0
0.73076361 2.1559718 -0.050135743 0
0.73105913 2.1561785 0.40725473 0
0.72226816 2.1500254 0.52566934 0
0.73095948 2.1561089 0.6571179 0
0.71612161 2.1698289 -0.049995616 0
0.72286958 2.1746798 0.40828159 0
0.71903163 2.1719208 0.52900577 0
0.70756429 2.1636772 0.65103024 0
0.70510906 2.1862459 -0.050022937 0
0.70952123 2.1895027 0.40775567 0
0.70806772 2.1884298 0.52929151 0
0.70473808 2.1859722 0.65551972 0
0.70196301 2.2086525 -0.050412107 0
0.70017856 2.2073002 0.40856647 0
0.70058864 2.2076111 0.53112102 0
0.70129663 2.2081475 0.65987784 0
0.68285888 2.2189984 -0.050096042 0
0.69433898 2.2279277 0.41058958 0
0.69030207 2.2247877 0.53188652 0
0.69048721 2.2249317 0.66055977 0
0.66651767 2.2312686 -0.049908917 0
0.68299598 2.2444217 0.41092098 0
0.68596309 2.2467899 0.53528315 0
0.68893462 2.249162 0.666264 0
0.65570539 2.2479005 -0.049982093 0
0.66785294 2.2578497 0.41007075 0
0.67287701 2.2619646 0.53507197 0
0.68207818 2.2695007 0.66935122 0
0.63906246 2.2597046 -0.049793866 0
0.66447586 2.2810593 0.41318849 0
0.66352147 2.2802572 0.53656226 0
0.6675294 2.2836251 0.6684491 0
0.62736994 2.2756047 -0.049843896 0
0.73103136 2.3649614 0.066729918 0
0.71983868 2.3553133 0.1872233 0
0.72334999 2.35834 0.31095442 0
0.64376932 2.289741 0.41060099 0
0.64681071 2.2923627 0.53493875 0
0.65552455 2.2998741 0.66902441 0
0.61752492 2.2931898 -0.04999201 0
0.68875521 2.3561711 0.065386526 0
0.68224806 2.3504176 0.18383397 0
0.68731958 2.3549018 0.30565149 0
0.63576156 2.3093145 0.41234624 0
0.63232929 2.3062797 0.53435439 0
0.63151675 2.3055611 0.66308486 0
0.60145062 2.3052707 -0.049852211 0
0.6617716 2.3599749 0.064759441 0
0.65934616 2.3577752 0.1825279 0
0.66366094 2.3616881 0.30328929 0
0.62361008 2.3253667 0.41276872 0
0.6266697 2.3281415 0.53780377 0
0.61780876 2.3201056 0.66287398 0
0.58524698 2.317101 -0.049711846 0
0.64233166 2.3701954 0.064495094 0
0.63902169 2.3671167 0.18159823 0
0.63618416 2.3644776 0.29997981 0
0.60386723 2.3344197 0.41062123 0
0.60868567 2.3389013 0.53581852 0
0.61446553 2.3442771 0.66862416 0
0.57774955 2.3371034 -0.050006632 0
0.62279612 2.3800714 0.064229146 0
0.6240322 2.3812506 0.18146706 0
0.62622279 2.3833401 0.30100453 0
0.6068657 2.364876 0.41650596 0
0.59801716 2.3564358 0.53723466 0
0.5974974 2.3559401 0.66682106 0
0.56317621 2.3504791 -0.049964186 0
0.6104514 2.396724 0.064325206 0
0.60501939 2.3914104 0.18075599 0
0.61360282 2.3998065 0.30143076 0
0.58476001 2.3715925 0.41363996 0
0.58836454 2.3751185 0.53924328 0
0.58641773 2.373214 0.66849059 0
0.54669386 2.361902 -0.049833138 0
0.59995967 2.4153357 0.064526729 0
0.60942155 2.4248273 0.18361957 0
0.59729236 2.4126599 0.30097234 0
0.57919699 2.3945076 0.41674617 0
0.56964749 2.384928 0.53711611 0
0.57140714 2.3866932 0.66800278 0
0.52398235 2.3667886 -0.049388636 0
0.59353822 2.4383435 0.064951286 0
0.60083061 2.4458454 0.18458164 0
0.59863359 2.4435852 0.3051168 0
0.55966431 2.403496 0.41488442 0
0.56354219 2.4074855 0.54103947 0
0.56016964 2.4040158 0.66985011 0
0.51501209 2.385721 -0.049654495 0
0.60751873 2.4833152 0.066455238 0
0.61674482 2.4930487 0.1894258 0
0.61886364 2.4952841 0.31436995 0
0.54811293 2.4206424 0.41599953 0
0.54646319 2.4189019 0.53984475 0
0.55219859 2.4249525 0.67381847 0
0.51028079 2.4095206 -0.050159413 0
0.53421432 2.4354157 0.41632819 0
0.53509325 2.4363668 0.541502 0
0.53061539 2.4315219 0.66969758 0
0.48657176 2.4127975 -0.049675222 0
0.51855558 2.4482894 0.41606113 0
0.52796215 2.4587274 0.5453977 0
0.52338356 2.4536467 0.67444551 0
0.47294268 2.4270346 -0.049731493 0
0.50098592 2.4589529 0.41511378 0
0.50308865 2.4613461 0.54054743 0
0.50751859 2.466388 0.67402005 0
0.46236429 2.4448993 -0.049965788 0
0.48212406 2.4679687 0.41369784 0
0.48411414 2.4702923 0.53865898 0
0.48599586 2.4724891 0.67008859 0
0.44693884 2.4572215 -0.049946081 0
0.48010382 2.496943 0.41900957 0
0.47232172 2.4876223 0.54052806 0
0.47476384 2.4905472 0.67279464 0
0.43056437 2.4683602 -0.049881101 0
0.45457527 2.4978652 0.41504827 0
0.45657334 2.5003207 0.54045534 0
0.45781633 2.501848 0.67194188 0
0.41534773 2.4808903 -0.049889598 0
0.44149044 2.5138543 0.41613761 0
0.44334492 2.5161924 0.54181558 0
0.44245157 2.5150661 0.6722241 0
0.40302488 2.49718 -0.050076332 0
0.42774257 2.5291662 0.41705155 0
0.42508653 2.5257289 0.54056931 0
0.4243454 2.52477 0.67076653 0
0.3821145 2.5022869 -0.049768552 0
0.40519825 2.532949 0.4143306 0
0.4117814 2.5416934 0.54210776 0
0.40739408 2.5358658 0.6701628 0
0.36760667 2.5157633 -0.04984583 0
0.38354799 2.5375025 0.41196868 0
0.392288 2.5494213 0.54030353 0
0.39126357 2.5480242 0.67022032 0
0.34639862 2.5199564 -0.049523208 0
0.38226208 2.5701773 0.41852996 0
0.38112143 2.5685799 0.54328936 0
0.38281497 2.5709515 0.67585999 0
0.33802864 2.5422211 -0.050000861 0
0.3658165 2.5821881 0.41861808 0
0.35757861 2.5703397 0.53925616 0
0.35531703 2.5670867 0.66799384 0
0.31737223 2.5469372 -0.049722545 0
0.34856459 2.5930285 0.41840902 0
0.34313944 2.5850122 0.54056418 0
0.33947912 2.5796034 0.66855806 0
0.3002713 2.5567014 -0.049673475 0
0.32584885 2.5955408 0.4157241 0
0.31862226 2.5845673 0.53591204 0
0.32823822 2.599169 0.67271131 0
0.28667715 2.5718811 -0.049863577 0
0.3021057 2.595964 0.41251481 0
0.30352995 2.5981872 0.53697687 0
0.30770037 2.6046968 0.66999859 0
0.27220425 2.5859096 -0.050011009 0
0.28965762 2.6139235 0.41469222 0
0.2921153 2.6178682 0.54048413 0
0.28816059 2.6115208 0.66806591 0
0.25693145 2.5988243 -0.050118461 0
0.26978716 2.6200495 0.41337028 0
0.27228239 2.6241691 0.53881645 0
0.27255222 2.6246147 0.66930258 0
0.23505183 2.6006699 -0.049774565 0
0.25188956 2.6292763 0.41305047 0
0.25447688 2.633672 0.53849399 0
0.25251928 2.6303461 0.66708773 0
0.22485711 2.6224694 -0.050265118 0
0.24143083 2.6514561 0.41660622 0
0.23276658 2.6363027 0.53562641 0
0.23380651 2.6381216 0.66598439 0
0.2005284 2.61953 -0.049747311 0
0.21879794 2.6524374 0.41398969 0
0.21509917 2.6457751 0.53548664 0
0.21627142 2.6478865 0.66594285 0
0.18503036 2.632216 -0.049879149 0
0.20242359 2.6644962 0.41468418 0
0.19785215 2.6560121 0.53572106 0
0.20120616 2.6622367 0.66816235 0
0.16794814 2.6420786 -0.049904276 0
0.18046816 2.6660321 0.4124043 0
0.1779343 2.6611843 0.53413457 0
0.1834432 2.6717241 0.66818428 0
0.14858647 2.6474893 -0.04975969 0
0.16637738 2.6825969 0.41451684 0
0.16400124 2.6779079 0.5369603 0
0.15834369 2.6667438 0.66159499 0
0.13351174 2.6614063 -0.049964048 0
0.14437141 2.6835222 0.41222179 0
0.14347447 2.6816957 0.53503937 0
0.14422013 2.6832142 0.66508681 0
0.11963614 2.6781878 -0.050287958 0
0.12254181 2.6842985 0.40997681 0
0.12535061 2.6902058 0.53496504 0
0.1218644 2.682874 0.6609326 0
0.095678113 2.6736124 -0.049777552 0
0.10522684 2.6943636 0.41043094 0
0.095692299 2.6736431 0.52579272 0
0.099272929 2.6814246 0.65642548 0
0.077494763 2.6811364 -0.049754634 0
0.08422824 2.6962686 0.40866488 0
0.087608956 2.703866 0.53384471 0
0.082840763 2.6931505 0.65804362 0
0.063372038 2.6980712 -0.050106481 0
0.066443823 2.7052155 0.40893763 0
0.066890024 2.7062531 0.53180969 0
0.059478007 2.6890149 0.65259802 0
0.046375297 2.7087386 -0.050221108 0
0.04443755 2.7040708 0.40648332 0
0.050197802 2.7179463 0.53323168 0
0.045592211 2.7068522 0.65716326 0
0.02806743 2.7163577 -0.050226189 0
0.025636157 2.7102861 0.40614045 0
0.028105101 2.7164516 0.52999586 0
0.022277793 2.7018998 0.65161961 0
0.004712841 2.7109179 -0.049740359 0
0.0069105835 2.7166131 0.40589458 0
0.0054382891 2.7127979 0.52610517 0
0.0049587698 2.7115552 0.6527164 0
-0.0098061943 2.728286 -0.050136663 0
-0.010053315 2.7276208 0.40698823 0
-0.015555182 2.7128115 0.5236358 0
-0.014636436 2.7152843 0.65128702 0
-0.030673543 2.728724 -0.049896307 0
-0.03072832 2.7285707 0.40541011 0
-0.031419314 2.7266366 0.52615052 0
-0.032203652 2.7244411 0.65235907 0
-0.051262118 2.7294621 -0.049678247 0
-0.053027906 2.7243156 0.40250513 0
-0.051508762 2.7287433 0.52460313 0
-0.049753644 2.7338586 0.65363765 0
-0.064603336 2.7517395 -0.050280415 0
-0.073010184 2.7261949 0.40133542 0
-0.07109905 2.732002 0.52355438 0
-0.075308211 2.7192121 0.64451855 0
-0.085726626 2.7507515 -0.050015595 0
-0.091469564 2.7325315 0.40143019 0
-0.090442486 2.73579 0.52278072 0
-0.091223307 2.7333128 0.6480552 0
-0.10467506 2.7563422 -0.050007034 0
-0.11174745 2.7328782 0.3999905 0
-0.11296789 2.7288294 0.51835978 0
-0.11039145 2.7373772 0.6473251 0
-0.12369148 2.7616863 -0.04999822 0
-0.10670394 2.8207259 0.064191528 0
-0.10224781 2.8362131 0.18290214 0
-0.10753769 2.8178284 0.29941663 0
-0.12762798 2.7480052 0.40254781 0
-0.13063233 2.7375638 0.51948673 0
-0.13504885 2.7222142 0.63841808 0
-0.14031909 2.7757325 -0.050320454 0
-0.13318746 2.8017466 0.063283458 0
-0.13566412 2.7927125 0.17743 0
-0.13321938 2.80163 0.29535145 0
-0.14929442 2.7429934 0.39982167 0
-0.15199398 2.7331462 0.51614958 0
-0.15309097 2.7291446 0.63916028 0
-0.15886112 2.7833474 -0.050412096 0
-0.15542109 2.7965453 0.062899016 0
-0.15788727 2.7870836 0.17622864 0
-0.1579961 2.7866662 0.29158995 0
-0.16812612 2.747802 0.39976585 0
-0.17201443 2.7328846 0.51434499 0
-0.17055283 2.738492 0.64103156 0
-0.17869671 2.7860131 -0.050330032 0
-0.18044709 2.7789335 0.062069677 0
-0.17859028 2.7864435 0.17561433 0
-0.17773621 2.7898977 0.2912786 0
-0.18646328 2.7546012 0.40029564 0
-0.18759511 2.7500234 0.51859576 0
-0.19190879 2.7325768 0.6364814 0
-0.19924344 2.7853985 -0.050137114 0
-0.19898202 2.7865157 0.062178086 0
-0.19898032 2.7865231 0.17511009 0
-0.1973082 2.7936711 0.2911146 0
-0.2084427 2.7460732 0.39686856 0
-0.20995383 2.7396135 0.51348853 0
-0.20978822 2.7403216 0.63786751 0
-0.2187079 2.7890711 -0.050110947 0
-0.21686964 2.7974007 0.062415484 0
-0.21706925 2.7964962 0.17572434 0
-0.21677311 2.797838 0.29106933 0
-0.2276717 2.7484531 0.39637324 0
-0.22759701 2.7487917 0.51516509 0
-0.23014675 2.7372379 0.63475424 0
-0.23923685 2.7875385 -0.049904007 0
-0.2354276 2.8058949 0.062573314 0
-0.23610736 2.802619 0.17593947 0
-0.23509906 2.807478 0.29207745 0
-0.24858753 2.7424788 0.3937656 0
-0.24904428 2.7402778 0.51090151 0
-0.25076583 2.731982 0.63083893 0
-0.25763285 2.7962286 -0.050078783 0
-0.25124887 2.8290651 0.063273035 0
-0.25311807 2.8194506 0.17735274 0
-0.25449917 2.8123469 0.29224902 0
-0.26819104 2.7419219 0.39264083 0
-0.27165464 2.7241068 0.50414473 0
-0.2700308 2.7324591 0.62946105 0
-0.27887619 2.7899289 -0.049717687 0
-0.26541865 2.8641236 0.064409748 0
-0.26671386 2.8569827 0.18104719 0
-0.26587465 2.8616095 0.30060199 0
-0.28755668 2.7420714 0.39176592 0
-0.28816602 2.7387118 0.5079059 0
-0.289211 2.7329504 0.62819463 0
-0.29519185 2.8113754 -0.050371569 0
-0.30728948 2.7395387 0.3902621 0
-0.30922741 2.7280312 0.50319839 0
-0.30944166 2.726759 0.62422633 0
-0.31664819 2.8027816 -0.049946245 0
-0.32677364 2.7376587 0.38899398 0
-0.32716382 2.7351494 0.50458223 0
-0.32674915 2.7378163 0.62760013 0
-0.33703372 2.7995934 -0.049726378 0
-0.34675848 2.7314029 0.38666365 0
-0.34850678 2.7191436 0.49826857 0
-0.34754705 2.7258732 0.62143987 0
-0.3548446 2.8150623 -0.050187789 0
-0.36629421 2.7268434 0.3848384 0
-0.36658043 2.724638 0.49926838 0
-0.36641458 2.7259159 0.62040317 0
-0.37524399 2.8112354 -0.049963001 0
-0.38544041 2.7240884 0.3835426 0
-0.38545558 2.7239587 0.4982751 0
-0.3857258 2.7216492 0.61767066 0
-0.39473519 2.8146205 -0.050006609 0
-0.40344098 2.7311172 0.38482004 0
-0.40500787 2.7160883 0.49495721 0
-0.40356228 2.7299538 0.62027627 0
-0.41471979 2.8129878 -0.049879078 0
-0.42334276 2.7187934 0.38119599 0
-0.42383426 2.7134244 0.49346486 0
-0.42499352 2.7007611 0.60738218 0
-0.43364125 2.8237317 -0.050203927 0
-0.4426344 2.7096944 0.37846503 0
-0.44207358 2.7168057 0.49407059 0
-0.44260386 2.7100818 0.6106084 0
-0.45356762 2.8228128 -0.050119743 0
-0.46108243 2.7093017 0.37802467 0
-0.46149305 2.7030993 0.48905507 0
-0.46173158 2.6994965 0.60566419 0
-0.47364894 2.8179493 -0.04990356 0
-0.47969538 2.7050719 0.37666354 0
-0.47994271 2.7004552 0.48781002 0
-0.47982034 2.7027397 0.60655689 0
-0.49330908 2.8197215 -0.049933631 0
-0.49804112 2.7041557 0.37620911 0
-0.49870959 2.6878302 0.48331967 0
-0.498418 2.6949518 0.60297251 0
-0.51281977 2.8276262 -0.050191555 0
-0.51651615 2.697197 0.37427151 0
-0.51688248 2.6842704 0.48192668 0
-0.51689887 2.6836922 0.59804845 0
-0.53271616 2.822788 -0.050003216 0
-0.53489321 2.6844943 0.37092808 0
-0.53505594 2.6741548 0.47842878 0
-0.53486401 2.6863496 0.59898454 0
-0.55243778 2.8322601 -0.050334722 0
-0.55290967 2.6824076 0.3703523 0
-0.55292195 2.6785107 0.47982177 0
-0.55290943 2.6824844 0.5973137 0
-0.57214999 2.8156385 -0.049743518 0
-0.57092124 2.6855128 0.37115902 0
-0.5707866 2.6712554 0.47742665 0
-0.5707413 2.6664541 0.59069967 0
-0.59201199 2.8246009 -0.050074615 0
-0.58877349 2.6776452 0.36922365 0
-0.58856219 2.6680567 0.47645572 0
-0.58846498 2.6636457 0.5896526 0
-0.61165118 2.8202941 -0.049940772 0
-0.60610557 2.6601968 0.36489895 0
-0.60614532 2.6613448 0.47438917 0
-0.60575283 2.6500137 0.58421332 0
-0.63165003 2.8255324 -0.050156839 0
