# .PCD v0.7 - Point Cloud Data file format
VERSION 0.7
FIELDS x y z intensity
SIZE 4 4 4 4
TYPE F F F F
COUNT 1 1 1 1
WIDTH 1326
HEIGHT 1
VIEWPOINT 0 0 0 1 0 0 0
POINTS 1326
DATA ascii
-0.95784867 2.4049034 0.6572147 0
-0.43859202 1.5692333 -0.050012782 0
-0.61597323 1.8349303 0.073418155 0
-0.97942257 2.3793364 0.46462214 0
-0.97917211 2.3789613 0.65467912 0
-0.44924337 1.5498381 -0.04965245 0
-0.62597394 1.8074757 0.072806507 0
-1.0037751 2.3582337 0.46393177 0
-1.0033445 2.3576059 0.65362334 0
-0.4747498 1.5519605 -0.050234493 0
-0.61388421 1.7494137 0.070858121 0
-1.0270461 2.3357544 0.4629989 0
-1.0253065 2.3332856 0.65172726 0
-0.48813957 1.5366335 -0.050066989 0
-0.61932683 1.7179171 0.070055932 0
-0.61387229 1.7103795 0.19782355 0
-1.0413233 2.3010607 0.45940325 0
-1.0395178 2.2985656 0.64662546 0
-0.079382554 0.97178501 0.4429034 0
-0.50360262 1.5242897 -0.050038058 0
-0.62350738 1.6856644 0.069215611 0
-0.61649597 1.676228 0.19503048 0
-1.0626713 2.2767162 0.45813936 0
-1.062821 2.2769179 0.64568734 0
-0.088019624 0.96497428 0.44271085 0
-0.51675284 1.5089422 -0.049882684 0
-0.61803424 1.6417267 0.067844868 0
-0.61436272 1.6369132 0.19151703 0
-1.0756989 2.2417462 0.45451385 0
-1.0844812 2.2532601 0.644189 0
-0.0953383 0.95644814 0.4415051 0
-0.53001463 1.4939098 -0.049747527 0
-0.62101781 1.6101543 0.067018077 0
-0.62063169 1.609661 0.18961148 0
-1.0948579 2.2154214 0.45286992 0
-1.0981946 2.2196836 0.63954979 0
-0.11187293 0.95978975 0.44788679 0
-0.54684412 1.4834657 -0.049828727 0
-0.62098956 1.5757585 0.066055298 0
-0.61792314 1.5719415 0.18625441 0
-1.1188914 2.1955228 0.45275143 0
-1.1185217 2.1950626 0.63785058 0
-0.1299239 0.96450323 0.45534673 0
-0.56031311 1.4688498 -0.049727511 0
-0.62013853 1.5414267 0.065085426 0
-0.62100899 1.5424827 0.18400814 0
-1.1295068 2.1593642 0.4489018 0
-1.1283864 2.158005 0.63210583 0
-0.14063038 0.95971376 0.45686933 0
-0.57717967 1.4583572 -0.049825892 0
-0.62183297 1.5111592 0.064294703 0
-0.62103295 1.5102131 0.18134765 0
-1.1441418 2.1287837 0.44635981 0
-1.146759 2.1318784 0.62999326 0
-0.14511968 0.94745106 0.45359913 0
-0.59441602 1.4481802 -0.049950257 0
-0.61999714 1.4776684 0.063343957 0
-0.61904335 1.4765689 0.1784624 0
-1.1622832 2.1027789 0.44492623 0
-1.1605861 2.1008227 0.62627047 0
-0.60723364 1.4329008 -0.049842495 0
-0.63859606 1.4681468 0.063526854 0
-0.63034356 1.4588723 0.17783523 0
-1.1725417 2.0682094 0.44146368 0
-1.1663477 2.0612483 0.61965555 0
-0.62949657 1.4280789 -0.050246704 0
-0.6618166 1.4634929 0.063958399 0
-0.65319526 1.4540462 0.17909402 0
-1.1760362 2.0269382 0.43635616 0
-1.1764492 2.0273905 0.61496371 0
-0.63175941 1.4014671 -0.049603809 0
-0.50699276 1.2681671 0.055085454 0
-0.68973851 1.4634118 0.18249883 0
-1.1873813 1.995091 0.43352687 0
-1.1905562 1.9984831 0.61199033 0
-0.65125155 1.393455 -0.049874943 0
-0.51238936 1.2487901 0.054715913 0
-0.71648073 1.4614099 0.18431984 0
-1.1940092 1.9588932 0.42961109 0
-1.1987668 1.9638497 0.60701835 0
-0.66671145 1.3810697 -0.049942594 0
-0.51199722 1.2239003 0.054068968 0
-0.74308109 1.4586512 0.18609986 0
-1.2178885 1.9409931 0.43029806 0
-1.2045382 1.927431 0.60138202 0
-0.67743993 1.3639258 -0.049779527 0
-0.52740645 1.2153019 0.054239955 0
-0.76880538 1.4544328 0.18773058 0
-1.2143853 1.8958263 0.42408291 0
-1.2169418 1.8983588 0.59836304 0
-0.70095575 1.3592895 -0.050263945 0
-0.53916311 1.2030038 0.054232974 0
-0.79560387 1.4507161 0.18951011 0
-1.2227095 1.8632843 0.42105204 0
-1.2329111 1.8731387 0.59677607 0
-0.71023405 1.3407689 -0.050047252 0
-0.55801564 1.1973923 0.054581735 0
-0.83902562 1.4620796 0.19372977 0
-1.2327428 1.8329272 0.4185825 0
-1.2243645 1.8250357 0.58672726 0
-0.72765875 1.3299338 -0.050239317 0
-0.86754656 1.4584106 0.069020204 0
-0.87419689 1.4645185 0.19667608 0
-1.2272512 1.7887735 0.41243386 0
-1.2274433 1.7889501 0.58103216 0
-0.22448821 0.86780763 0.37535715 0
-0.73941433 1.3138357 -0.050164115 0
-0.89486575 1.4530394 0.069613874 0
-0.89780366 1.4556702 0.19791658 0
-1.2321217 1.7550453 0.40899816 0
-1.2323971 1.7552919 0.57619953 0
-0.23920436 0.86590779 0.37934223 0
-0.74336171 1.2909871 -0.049729347 0
-0.93641841 1.459534 0.070878834 0
-1.2310165 1.7167308 0.40427157 0
-1.2360624 1.7211361 0.57112771 0
-0.23016788 0.84294671 0.37024191 0
-0.76437247 1.2830597 -0.050112724 0
-0.97561538 1.4628474 0.072016031 0
-1.238773 1.6868193 0.40180898 0
-1.2351155 1.6837064 0.56470954 0
-0.24178679 0.83828986 0.37262681 0
-0.24999894 0.84527916 0.45444438 0
-0.77350628 1.2649236 -0.049945831 0
-1.0091733 1.4604355 0.072877884 0
-1.2402198 1.6521143 0.39798206 0
-1.2394967 1.6515144 0.56028152 0
-0.25450444 0.8343538 0.37560976 0
-0.79971361 1.2607398 -0.050575037 0
-1.0481247 1.4615982 0.073980026 0
-1.2506499 1.6253544 0.39637929 0
-1.2420845 1.6184286 0.55544353 0
-0.25648028 0.82149655 0.37286952 0
-0.80170262 1.2369043 -0.050099663 0
-1.0847746 1.4599528 0.074966021 0
-1.2501545 1.590265 0.39236152 0
-1.2424734 1.5842127 0.55007505 0
-0.27067429 0.81847662 0.37668258 0
-0.81024837 1.2185212 -0.049937546 0
-1.1242275 1.4595779 0.076069631 0
-1.2546775 1.5597305 0.38962439 0
-1.2373013 1.5463899 0.54310882 0
-0.26133829 0.79709703 0.36819664 0
-0.24749465 0.78646863 0.43496266 0
-0.82496786 1.2048945 -0.05006256 0
-1.1676023 1.4611592 0.07733795 0
-1.2497069 1.5225673 0.38486183 0
-1.2410501 1.5160927 0.53920251 0
-0.26367742 0.78509182 0.36596638 0
-0.28452152 0.80068159 0.45402348 0
-0.83689117 1.1891181 -0.050070543 0
-1.2072909 1.4589437 0.078430995 0
-1.2421423 1.484332 0.37966889 0
-1.2407092 1.483288 0.53416187 0
-1.2374831 1.4809378 0.69339943 0
-0.25675327 0.76650423 0.35908923 0
-0.2826795 0.78539079 0.44873831 0
-0.8473928 1.1723223 -0.050024956 0
-1.2499827 1.4579084 0.079647005 0
-1.2475543 1.4561857 0.37749839 0
-1.2383994 1.4496915 0.52868003 0
-1.2349521 1.4472461 0.68617278 0
-0.28565514 0.77384138 0.370579 0
-0.2841934 0.77280444 0.44567743 0
-0.86193883 1.158355 -0.050164461 0
-1.2988603 1.4600978 0.081121445 0
-1.257406 1.431469 0.37639779 0
-1.2398043 1.419313 0.52452916 0
-1.2351397 1.4160916 0.68028015 0
-0.29229409 0.76495206 0.44674501 0
-0.8709389 1.1405374 -0.050071821 0
-1.2780579 1.414192 0.079584844 0
-1.2679917 1.4074256 0.22620425 0
-1.2494725 1.3949776 0.37150958 0
-1.2404028 1.3888812 0.52028352 0
-1.2439358 1.391256 0.67804605 0
-0.29228616 0.75158244 0.44297507 0
-0.87993419 1.1227911 -0.049989346 0
-1.2744291 1.3808085 0.078818217 0
-1.2728021 1.3797444 0.22499108 0
-1.2537899 1.3673096 0.36940095 0
-1.2397164 1.3581048 0.51579827 0
-1.2386218 1.357389 0.67034584 0
-0.30682075 0.74794894 0.4480314 0
-0.89223516 1.107213 -0.050056897 0
-1.2802877 1.3540972 0.078477025 0
-1.2752551 1.3508953 0.2235319 0
-1.2491831 1.3343079 0.36547631 0
-1.2492473 1.3343488 0.51455605 0
-1.2399132 1.3284104 0.66548055 0
-0.29729581 0.72870475 0.43880695 0
-0.90811741 1.0937909 -0.050282542 0
-1.2824998 1.3254081 0.077999569 0
-1.2917162 1.3311099 0.22390039 0
-1.248863 1.3045981 0.36257973 0
-1.2424589 1.3006362 0.50851762 0
-1.2379267 1.2978323 0.65951395 0
-0.9097482 1.0716088 -0.049919836 0
-1.3077638 1.3109703 0.078501165 0
-1.3116468 1.3133055 0.22473256 0
-1.2605147 1.2825553 0.36230347 0
-1.2389083 1.2695614 0.50361556 0
-1.2440602 1.2726598 0.65689474 0
-0.92077029 1.0552073 -0.049959715 0
-1.3216723 1.2894824 0.078537084 0
-1.3339554 1.2966602 0.22588265 0
-1.2527797 1.2492235 0.35803783 0
-1.2387292 1.2410128 0.49986181 0
-1.2395245 1.2414776 0.65030611 0
-0.93014646 1.0378356 -0.049940251 0
-1.3748136 1.2902291 0.080194443 0
-1.3837422 1.295297 0.23044613 0
-1.2427028 1.2152429 0.35340431 0
-1.2392994 1.2133111 0.49646041 0
-1.2402629 1.213858 0.64593279 0
-0.93420744 1.017547 -0.049713209 0
-1.2445754 1.1885815 0.35135186 0
-1.2376022 1.1847388 0.492524 0
-1.2355253 1.1835942 0.63964218 0
-0.94314563 1.0000447 -0.049695522 0
-1.24832 1.1632419 0.34976494 0
-1.2460988 1.1620539 0.49166772 0
-1.2426798 1.1602256 0.63802463 0
-0.95216084 0.98259276 -0.049689937 0
-1.2586149 1.1415449 0.34958416 0
-1.2376428 1.1306671 0.48602706 0
-1.2447792 1.1343688 0.63463372 0
-0.96209764 0.9656052 -0.049730033 0
-1.2758465 1.1233599 0.35086015 0
-1.2435101 1.1071011 0.48462552 0
-1.2473925 1.1090531 0.63157719 0
-0.97001219 0.94759762 -0.049698092 0
-1.2900891 1.1035166 0.35157478 0
-1.2408566 1.0795339 0.48089889 0
-1.2327386 1.0755794 0.62226766 0
-0.98602009 0.9334287 -0.049994789 0
-1.2896972 1.0766562 0.34941703 0
-1.2300979 1.0485466 0.47500613 0
-1.237484 1.0520302 0.62030458 0
-0.99164844 0.91428965 -0.049889479 0
-1.301131 1.0555195 0.3496832 0
-1.2407116 1.0279475 0.4752506 0
-1.2360835 1.0258356 0.61621404 0
-1.0019993 0.89731205 -0.049978469 0
-1.3062854 1.0315675 0.34876269 0
-1.246044 1.0049881 0.47409353 0
-1.2342825 0.99979866 0.61212069 0
-1.0132339 0.88063949 -0.050109603 0
-1.3170147 1.0101272 0.34899938 0
-1.2450509 0.97945237 0.47126871 0
-1.2411783 0.97780162 0.61131346 0
-1.0187805 0.86152321 -0.050028596 0
-1.3286889 0.98903596 0.3494719 0
-1.2478046 0.95575589 0.46958113 0
-1.2445771 0.9544279 0.60935229 0
-1.0216991 0.8414222 -0.04985632 0
-1.3365098 0.96634066 0.34924605 0
-1.2401068 0.92808747 0.46511528 0
-1.227055 0.92290843 0.60001832 0
-1.0263578 0.82211316 -0.049761083 0
-1.3489622 0.94544566 0.34997088 0
-1.2330099 0.90111679 0.46093041 0
-1.2393053 0.9035235 0.60147512 0
-1.0448337 0.80795634 -0.050201178 0
-1.3643057 0.92550254 0.35129863 0
-1.2435453 0.88107008 0.46165082 0
-1.2443869 0.88137972 0.6004706 0
-1.0490388 0.78841919 -0.050105669 0
-1.374503 0.90353847 0.35168415 0
-1.2489629 0.8591339 0.46105152 0
-1.2484858 0.85896516 0.59922242 0
-1.0488652 0.76746279 -0.049854763 0
-1.3698213 0.87646049 0.34928688 0
-1.2376585 0.8315776 0.45602375 0
-1.2374982 0.83152318 0.59277821 0
-1.0654414 0.75214332 -0.050243709 0
-1.3705803 0.85150224 0.34799621 0
-1.2325128 0.8065449 0.45276237 0
-1.2337165 0.8069368 0.58900279 0
-1.0561361 0.72846472 -0.049670499 0
-1.3945346 0.83395976 0.35115182 0
-1.2430613 0.78673828 0.45379227 0
-1.2328616 0.78355855 0.58637017 0
-1.0678957 0.71148175 -0.049895283 0
-1.3881217 0.80690461 0.34862262 0
-1.2306678 0.75998557 0.44877729 0
-1.2401441 0.7628094 0.58667475 0
-1.0810231 0.69471961 -0.050177991 0
-1.4142963 0.78947818 0.35227653 0
-1.2474314 0.74203396 0.45160347 0
-1.2326961 0.73784435 0.58197379 0
-1.0775187 0.6732443 -0.049852394 0
-1.4174366 0.76528233 0.35165527 0
-1.2391557 0.71701002 0.44786152 0
-1.2396488 0.71714354 0.58236092 0
-1.0868648 0.65530932 -0.05001156 0
-1.4110836 0.73872948 0.349325 0
-1.2349424 0.69340909 0.44528508 0
-1.2369285 0.69392008 0.57951343 0
-1.0963554 0.63729078 -0.050183859 0
-1.4294165 0.71852887 0.35164663 0
-1.234872 0.67107683 0.44388264 0
-1.2351898 0.67115438 0.57711124 0
-1.0937787 0.61636144 -0.049921859 0
-1.4207634 0.69176835 0.34901404 0
-1.2450076 0.65123677 0.44523028 0
-1.2279727 0.64730835 0.57294357 0
-1.1034391 0.59827816 -0.050117299 0
-1.4255285 0.66829705 0.34892741 0
-1.2359865 0.6270926 0.44163781 0
-1.2378911 0.62750667 0.5747236 0
-1.108835 0.57918012 -0.050165154 0
-1.4414724 0.64711732 0.35095316 0
-1.2375084 0.60546011 0.44087932 0
-1.2437984 0.60674477 0.5752219 0
-1.1050941 0.55829793 -0.049889553 0
-1.4410037 0.62250847 0.3500095 0
-1.2307209 0.58231199 0.43803507 0
-1.23841 0.58378184 0.57198161 0
-1.1195456 0.54085064 -0.050283823 0
-1.4483786 0.59942681 0.35056165 0
-1.2420303 0.56266928 0.43996263 0
-1.2335149 0.5611524 0.56901306 0
-1.1244856 0.52154738 -0.050341062 0
-1.4484133 0.57505071 0.34982407 0
-1.23957 0.54055595 0.43838954 0
-1.241148 0.54081655 0.57037145 0
-1.1155468 0.50008684 -0.049905781 0
-1.4465864 0.55049145 0.34880438 0
-1.238757 0.51884699 0.43731648 0
-1.239206 0.51891536 0.56859112 0
-1.1126314 0.47977278 -0.049698126 0
-1.444261 0.52600265 0.34775206 0
-1.2276295 0.49580377 0.43365878 0
-1.2361751 0.49699503 0.56654096 0
-1.1157315 0.4603647 -0.049716491 0
-1.4569252 0.50355566 0.34948245 0
-1.2456306 0.47680834 0.43757254 0
-1.2373977 0.47576615 0.5660131 0
-1.1251158 0.4416557 -0.049969427 0
-0.50222731 0.37076214 0.039587937 0
-0.51137847 0.37180367 0.10809743 0
-0.50843579 0.37146875 0.17679979 0
-1.2373202 0.45442614 0.4347859 0
-1.2426506 0.45503283 0.56692505 0
-1.1371564 0.4230327 -0.050325815 0
-0.49907297 0.35853708 0.039429341 0
-0.51520962 0.36016813 0.10837322 0
-0.51004767 0.35964638 0.17686106 0
-1.2367188 0.4330962 0.43405202 0
-1.241001 0.43352905 0.56561512 0
-1.1211674 0.40167719 -0.049685623 0
-0.46799028 0.34395432 0.038275477 0
-0.52026552 0.34857404 0.10879666 0
-0.50751483 0.34744722 0.17619883 0
-1.2380644 0.41200766 0.43388641 0
-1.2393385 0.41212028 0.56439281 0
-1.1299462 0.3826462 -0.049942445 0
-0.51406145 0.33602619 0.1080219 0
-0.51158375 0.33583865 0.17675905 0
-1.2449408 0.39135084 0.43520406 0
-1.2400228 0.39097854 0.56404459 0
-1.1366303 0.36329851 -0.05013271 0
-0.50921959 0.32374424 0.10741144 0
-0.50420684 0.32342821 0.17527691 0
-1.2305174 0.36921749 0.43114218 0
-1.2337871 0.36942363 0.56147867 0
-1.2398897 0.36980838 0.69982171 0
-1.1401955 0.34365609 -0.050220072 0
-0.50795251 0.31178379 0.10720268 0
-0.50564241 0.31166735 0.17541526 0
-1.2366978 0.3485209 0.43241742 0
-1.24167 0.34877157 0.56370801 0
-1.2348602 0.34842828 0.69724125 0
-0.3471576 0.30367789 0.46898669 0
-1.1311646 0.3234728 -0.049866214 0
-0.51717257 0.3002668 0.10813808 0
-0.51513213 0.30018967 0.17703389 0
-1.2395289 0.32756844 0.43290353 0
-1.2365608 0.32745627 0.56169736 0
-1.2433429 0.3277126 0.70037216 0
-0.35761803 0.29423639 0.47493762 0
-1.1300536 0.30373552 -0.049804389 0
-0.4099676 0.2855958 0.4276754 0
-0.37894148 0.28481421 0.48740155 0
-1.1321231 0.28407881 -0.049865007 0
-0.39808697 0.27483374 0.42163026 0
-0.37803024 0.27458113 0.48674658 0
-1.1311409 0.26437622 -0.049825512 0
-0.38588256 0.26437426 0.41549093 0
-0.38061285 0.26437423 0.48824006 0
-0.89502954 -0.98929471 -0.089485966 0
-1.0107061 -0.98929501 -0.089580603 0
-1.1288328 -0.98929536 -0.084714927 0
-1.1257375 -0.98929536 -0.057371665 0
-1.1238016 -0.98929536 -0.030485874 0
-1.1248806 -0.98929536 -0.0041172858 0
-1.1310998 -0.98929536 0.021827744 0
-1.1397107 -0.98929536 0.047866203 0
-1.1332979 -0.98929536 0.074598059 0
-1.1368809 -0.98929536 0.10100288 0
-1.1366335 -0.98929536 0.12748528 0
-1.1381952 -0.98929536 0.15406922 0
-1.13866 -0.98929536 0.18070696 0
-1.1374325 -0.98929536 0.20729524 0
-1.1215924 -0.9892953 0.23223345 0
-1.137072 -0.98929536 0.26097161 0
-1.1312321 -0.98929536 0.28711644 0
-1.1233386 -0.9892953 0.31280231 0
-0.89940339 -1.0120194 -0.090476625 0
-1.0117007 -1.014854 -0.089828707 0
-1.1308236 -1.0178608 -0.085101373 0
-1.1286956 -1.0178071 -0.057837937 0
-1.1342411 -1.0179471 -0.031748239 0
-1.1280829 -1.0177916 -0.0044497531 0
-1.1357538 -1.0179852 0.021477075 0
-1.1209221 -1.0176109 0.048724264 0
-1.1265135 -1.0177521 0.074747451 0
-1.1383102 -1.0180498 0.10100293 0
-1.1309419 -1.0178638 0.12736101 0
-1.1394058 -1.0180775 0.15414259 0
-1.1215414 -1.0176265 0.17953424 0
-1.1337681 -1.0179352 0.20698676 0
-1.1323857 -1.0179002 0.23353773 0
-1.1258733 -1.0177358 0.25944763 0
-1.1347708 -1.0179604 0.28775769 0
-1.1265225 -1.0177523 0.31346986 0
-0.89690703 -1.0346469 -0.09012837 0
-1.0109012 -1.040405 -0.089860342 0
-1.1349972 -1.0466735 -0.085966088 0
-1.1249443 -1.0461657 -0.057461936 0
-1.2427585 -1.0521169 -0.044574101 0
-1.2396773 -1.0519612 -0.014980091 0
-1.2352676 -1.0517385 0.014435241 0
-1.24462 -1.0522109 0.042908255 0
-1.2431302 -1.0521356 0.072007537 0
-1.2380885 -1.051881 0.10100581 0
-1.2332902 -1.0516386 0.12977479 0
-1.2322695 -1.051587 0.15852749 0
-1.2419909 -1.0520781 0.18804759 0
-1.2387648 -1.0519152 0.2169071 0
-0.89223278 -1.0570408 -0.089436837 0
-1.0150563 -1.0663568 -0.090949647 0
-1.1201468 -1.0743278 -0.083816625 0
-1.132833 -1.07529 -0.05882651 0
-1.2460231 -1.0838753 -0.045188922 0
-1.2317115 -1.0827898 -0.014419412 0
-1.2343102 -1.082987 0.014364311 0
-1.2331858 -1.0829016 0.043349467 0
-1.2436589 -1.083696 0.071948998 0
-1.2430276 -1.0836481 0.10100602 0
-1.2346996 -1.0830164 0.12985368 0
-1.2476094 -1.0839956 0.15933639 0
-1.2308962 -1.082728 0.18740802 0
-1.2484025 -1.0840558 0.21799478 0
-0.8952297 -1.0800612 -0.090503074 0
-1.0127462 -1.0919634 -0.09094166 0
-1.1688657 -1.1077754 -0.092277996 0
-1.2373095 -1.1147076 -0.07394167 0
-1.2423584 -1.1152189 -0.045085404 0
-1.2474674 -1.1157364 -0.016155733 0
-1.236889 -1.1146649 0.013989361 0
-1.2460736 -1.1155952 0.042617504 0
-1.2394195 -1.1149212 0.071983151 0
-1.2342557 -1.1143982 0.10100584 0
-1.2392896 -1.1149081 0.13002583 0
-1.2384195 -1.11482 0.15903641 0
-1.23552 -1.1145263 0.18792655 0
-2.0025883 -1.192216 0.2890563 0
-1.9824952 -1.190181 0.33408636 0
-1.934417 -1.1853117 0.37446469 0
-1.4765072 -1.1389339 0.38076696 0
-0.89641702 -1.1031218 -0.091309316 0
-1.0118157 -1.1177595 -0.091318078 0
-1.1592157 -1.1364564 -0.091236256 0
-1.2020257 -1.1418866 -0.06944745 0
-1.2517709 -1.1481965 -0.046615232 0
-1.2365601 -1.1462671 -0.015467053 0
-1.2368034 -1.1462979 0.013744706 0
-1.2313126 -1.1456014 0.043142028 0
-1.2548147 -1.1485826 0.071538791 0
-1.237007 -1.1463238 0.10100602 0
-1.2297677 -1.1454055 0.12988585 0
-1.2378942 -1.1464363 0.15917908 0
-1.2481681 -1.1477394 0.1890692 0
-1.6000686 -1.1923761 0.36630699 0
-1.4745719 -1.1764576 0.3812058 0
-0.88415051 -1.1243378 -0.089350723 0
-1.00495 -1.1427684 -0.090688981 0
-1.1446139 -1.1640773 -0.089487381 0
-1.2031701 -1.1730113 -0.07021191 0
-1.6199389 -1.2365986 -0.090663336 0
-2.5575724 -1.3796554 -0.14060882 0
-3.4080644 -1.5094168 -0.14011146 0
-5.1244111 -1.7712836 -0.14040136 0
-10.276887 -2.5574083 -0.14075983 0
-1.3524964 -1.1957943 0.29346082 0
-1.3537488 -1.1959854 0.32627788 0
-1.3498251 -1.1953868 0.35841984 0
-0.88138831 -1.1467928 -0.08955086 0
-1.0076098 -1.1693232 -0.09200003 0
-1.139315 -1.1928324 -0.089399852 0
-1.1989738 -1.2034813 -0.070329331 0
-1.609665 -1.2767892 -0.090245672 0
-2.5517628 -1.4449522 -0.14106908 0
-3.4028964 -1.5968783 -0.14075346 0
-5.1166191 -1.9027754 -0.14104311 0
-10.235456 -2.8164804 -0.14079303 0
-1.3312525 -1.2270929 0.2912325 0
-1.3255377 -1.2260728 0.32250938 0
-1.3255296 -1.2260714 0.35484743 0
-0.88316631 -1.1702402 -0.090859793 0
-0.99545997 -1.1932222 -0.090599172 0
-1.1395402 -1.2227095 -0.090360053 0
-1.1857389 -1.2321646 -0.069260843 0
-1.6071552 -1.3184115 -0.090872787 0
-2.5326796 -1.5078288 -0.1404237 0
-3.3765533 -1.6805357 -0.14004491 0
-5.0873933 -2.0306754 -0.14082696 0
-10.187438 -3.0744488 -0.14082488 0
-1.2541498 -1.2461655 0.31160265 0
-1.2296726 -1.241156 0.33764282 0
-0.88138473 -1.1931987 -0.091528542 0
-0.99032211 -1.2183733 -0.09066195 0
-1.1238889 -1.2492396 -0.088774614 0
-1.1825786 -1.2628022 -0.069743372 0
-1.5995054 -1.3591509 -0.091012664 0
-2.5294533 -1.5740546 -0.14144526 0
-3.3703709 -1.7683842 -0.14092988 0
-5.0606251 -2.158989 -0.14088081 0
-10.129313 -3.3303239 -0.1407707 0
-0.87124461 -1.2141811 -0.090493657 0
-0.98814422 -1.2443218 -0.091423966 0
-1.1203324 -1.2784046 -0.089344956 0
-1.3153857 -1.3286961 -0.09007398 0
-1.5813453 -1.39727 -0.090008639 0
-1.9889594 -1.5023671 -0.090845309 0
-3.3494253 -1.853143 -0.14091434 0
-5.0279603 -2.2859282 -0.14080673 0
-10.074462 -3.5870938 -0.14094932 0
-0.85863578 -1.2342196 -0.089022316 0
-0.97747177 -1.2680793 -0.090655662 0
-1.1174843 -1.3079729 -0.090165831 0
-1.3007852 -1.3602005 -0.089253046 0
-1.5672393 -1.4361207 -0.089606546 0
-1.9753436 -1.5524013 -0.090841718 0
-3.3243427 -1.9367692 -0.14075296 0
-4.9871402 -2.4105475 -0.1404919 0
-10.001521 -3.8392868 -0.1408481 0
-0.86040676 -1.2583998 -0.090853833 0
-0.97611827 -1.2945497 -0.091838084 0
-1.1123798 -1.3371197 -0.090732701 0
-1.290652 -1.3928145 -0.089199997 0
-1.5569372 -1.4760057 -0.089786671 0
-1.9515424 -1.5992858 -0.089965098 0
-3.2962425 -2.0193889 -0.14052328 0
-4.9560571 -2.5379384 -0.14080232 0
-9.918047 -4.0881333 -0.14064392 0
-0.86045331 -1.2824676 -0.092450418 0
-0.95380574 -1.3142389 -0.088993035 0
-1.1045769 -1.3655518 -0.090963177 0
-1.2904594 -1.4288144 -0.090743847 0
-1.5487806 -1.5167305 -0.090356998 0
-1.9404889 -1.6500432 -0.090454049 0
-3.2745399 -2.1040695 -0.14091745 0
-4.917171 -2.6631169 -0.14088915 0
-9.8319187 -4.3357854 -0.14052643 0
-0.85618514 -1.3053639 -0.093221404 0
-0.95494795 -1.341782 -0.090929233 0
-1.0818486 -1.3885757 -0.088706486 0
-1.2736882 -1.4593152 -0.089954413 0
-1.5307218 -1.5540946 -0.089826636 0
-1.9097432 -1.693856 -0.089115359 0
-3.236299 -2.1830142 -0.14024153 0
-4.8645468 -2.7834191 -0.14045121 0
-9.7562227 -4.5871902 -0.14082056 0
-0.83812749 -1.322989 -0.090977348 0
-0.93511337 -1.3615586 -0.088773198 0
-1.0726285 -1.4162461 -0.088918529 0
-1.2714013 -1.4952947 -0.091463499 0
-1.5280885 -1.5973748 -0.091349132 0
-1.9169018 -1.7519993 -0.091681235 0
-3.2100141 -2.2662482 -0.14060751 0
-4.8214459 -2.9070876 -0.14063738 0
-9.6626749 -4.8323627 -0.140829 0
-0.82854366 -1.3436707 -0.090769939 0
-0.93649769 -1.3897898 -0.091041572 0
-1.0687405 -1.4462852 -0.090210028 0
-1.249733 -1.5236071 -0.090165071 0
-1.5138308 -1.6364324 -0.091548882 0
-1.8866224 -1.7956928 -0.090623088 0
-3.1775143 -2.3471746 -0.14066386 0
-4.778244 -3.0310228 -0.14097764 0
-9.5616217 -5.0745301 -0.14080341 0
-0.81961566 -1.3646144 -0.090834789 0
-0.93225485 -1.4161334 -0.092317529 0
-1.0501599 -1.4700609 -0.088997431 0
-1.2337688 -1.5540401 -0.089842908 0
-1.4934467 -1.6728117 -0.091089569 0
-1.8650126 -1.8427589 -0.090555079 0
-3.1364496 -2.4242895 -0.14021859 0
-4.7268081 -3.1516888 -0.14105955 0
-9.4490528 -5.311553 -0.1406385 0
-0.82669014 -1.3934045 -0.094810046 0
-0.91063297 -1.4343901 -0.090105124 0
-1.0404313 -1.4977649 -0.089497857 0
-1.2192049 -1.5850524 -0.089855157 0
-1.4736606 -1.7092918 -0.090821065 0
-1.8400333 -1.8881756 -0.090258889 0
-3.1132963 -2.5098538 -0.14131178 0
-4.6655364 -3.2677445 -0.14078978 0
-9.3537779 -5.5568075 -0.14107288 0
-0.80782586 -1.4097891 -0.092796512 0
-0.91288841 -1.4644113 -0.093029551 0
-1.0302699 -1.5254382 -0.090053447 0
-1.2105145 -1.6191478 -0.090921082 0
-1.4532852 -1.7453647 -0.0905919 0
-1.8225493 -1.9373459 -0.090867154 0
-3.0735376 -2.5877368 -0.14128011 0
-4.6094122 -3.3862412 -0.14093927 0
-9.2283487 -5.7876353 -0.14088398 0
-0.79317296 -1.4279708 -0.09187717 0
-0.88838691 -1.4805659 -0.090399481 0
-1.0072954 -1.5462497 -0.088341318 0
-1.1873125 -1.6456892 -0.089809351 0
-1.4323765 -1.78106 -0.090409078 0
-1.792084 -1.9797585 -0.090231113 0
-3.0257962 -2.661248 -0.1407664 0
-4.5468936 -3.5014858 -0.14090876 0
-9.0963697 -6.0145674 -0.14067218 0
-0.78561932 -1.4500751 -0.092805274 0
-0.87163967 -1.5004655 -0.089511313 0
-0.9903034 -1.5699781 -0.087842576 0
-1.1668779 -1.6734147 -0.089240156 0
-1.4122032 -1.8171251 -0.090444304 0
-1.7730671 -2.0285175 -0.090939067 0
-2.9699438 -2.7296422 -0.13973711 0
-4.4820938 -3.6154525 -0.14091055 0
-8.9712114 -6.2451568 -0.14079425 0
-0.76558143 -1.4647132 -0.090763889 0
-0.86597383 -1.5269769 -0.091175653 0
-0.98793167 -1.6026157 -0.090278409 0
-1.1568507 -1.7073801 -0.090497904 0
-1.387616 -1.8505017 -0.089997314 0
-1.7565222 -2.0792987 -0.092063837 0
-2.9408948 -2.8138511 -0.14103749 0
-4.4109869 -3.7256083 -0.14072326 0
-8.8344793 -6.4690757 -0.14075965 0
-0.75224811 -1.4831855 -0.090485834 0
-0.85140425 -1.5482029 -0.091011845 0
-0.9709332 -1.6265788 -0.090040825 0
-1.1373109 -1.7356739 -0.090320908 0
-1.3788127 -1.8940283 -0.091865577 0
-1.7265495 -2.1220417 -0.091850512 0
-2.8840749 -2.8810391 -0.14021423 0
-4.3453403 -3.8392012 -0.14099035 0
-8.689784 -6.6878834 -0.14065893 0
-0.74109685 -1.503106 -0.090886556 0
-0.83344018 -1.567045 -0.090189211 0
-0.95289618 -1.6497569 -0.089711331 0
-1.1172894 -1.7635835 -0.09017951 0
-1.3488954 -1.9239488 -0.090920158 0
-1.6867988 -2.1579146 -0.090644769 0
-2.8431344 -2.9585671 -0.14086972 0
-4.2725258 -3.9482849 -0.14101727 0
-8.5478144 -6.9085155 -0.14078841 0
-0.72307992 -1.5181475 -0.08961869 0
-0.82108653 -1.5897323 -0.09076979 0
-0.9453001 -1.6804589 -0.091618694 0
-1.0977495 -1.7918092 -0.090240799 0
-1.3209041 -1.9548032 -0.090344243 0
-1.6519655 -2.1966131 -0.090088733 0
-2.8006628 -3.0356312 -0.14157271 0
-4.1885028 -4.0493207 -0.1405558 0
-8.397563 -7.1236534 -0.14084074 0
-0.71556252 -1.5409104 -0.091243409 0
-0.80758649 -1.6117541 -0.091224127 0
-0.9357484 -1.710418 -0.093317054 0
-1.0904645 -1.8295245 -0.092601947 0
-1.2944841 -1.9865869 -0.090102591 0
-1.6254967 -2.2414134 -0.090621091 0
-2.7332656 -3.0942171 -0.14026044 0
-4.1131015 -4.1564684 -0.14074028 0
-8.2343225 -7.3291454 -0.14067084 0
-0.70445043 -1.5612736 -0.092073657 0
-0.78699517 -1.6282036 -0.090101756 0
-0.90911037 -1.7272185 -0.091593646 0
-1.0562334 -1.8465108 -0.090307124 0
-1.2619488 -2.0133114 -0.089055307 0
-1.5861782 -2.2762072 -0.089754842 0
-2.6864407 -3.1683359 -0.1409044 0
-4.0348558 -4.2616744 -0.1409186 0
-8.0750618 -7.5376053 -0.14077027 0
-0.6859687 -1.5756248 -0.091004558 0
-0.77521116 -1.6517968 -0.091237687 0
-0.88746452 -1.7476094 -0.091002129 0
-1.0386471 -1.8766496 -0.091116138 0
-1.2434391 -2.0514474 -0.090242974 0
-1.5583487 -2.320235 -0.090386339 0
-2.6296105 -3.2345989 -0.14081292 0
-3.9468789 -4.3589382 -0.14066601 0
-7.9114833 -7.7428823 -0.14089902 0
-0.66779381 -1.5899302 -0.090101026 0
-0.75970691 -1.6724796 -0.091606922 0
-0.86416239 -1.7662939 -0.090143628 0
-1.0115527 -1.898669 -0.090289839 0
-1.2188221 -2.0848229 -0.090648033 0
-1.5280677 -2.3625643 -0.090862639 0
-2.5714257 -3.2996309 -0.1407475 0
-3.8648918 -4.4613261 -0.14093439 0
-7.7319126 -7.9343972 -0.14069115 0
-0.65221071 -1.606409 -0.090038009 0
-0.7402643 -1.6896003 -0.091098286 0
-0.83856738 -1.7824752 -0.088851444 0
-0.99254364 -1.9279491 -0.091113009 0
-1.1878722 -2.1124916 -0.090178482 0
-1.4937218 -2.4014528 -0.090964071 0
-1.9795461 -2.86045 -0.089508004 0
-3.7779889 -4.5595841 -0.14105806 0
-7.5516939 -8.1249084 -0.14061037 0
-0.64331824 -1.6295357 -0.092101477 0
-0.71633446 -1.702093 -0.089498602 0
-0.83008283 -1.8151265 -0.091584451 0
-0.95954728 -1.9437773 -0.089330532 0
-1.1662027 -2.1491339 -0.091339804 0
-1.4515992 -2.4327369 -0.090172358 0
-1.9342272 -2.9123318 -0.089756645 0
-3.6771851 -4.6443357 -0.14043331 0
-7.3724046 -8.3163319 -0.14071374 0
-0.62254882 -1.6409785 -0.090745427 0
-0.70124811 -1.7232324 -0.090350457 0
-0.80221778 -1.8287625 -0.089976437 0
-0.94627655 -1.9793282 -0.091590561 0
-1.1346993 -2.1762617 -0.091024049 0
-1.4104501 -2.4644673 -0.089596204 0
-1.883381 -2.9587593 -0.089583717 0
-3.5916371 -4.744173 -0.1409615 0
-7.1870694 -8.5020027 -0.14077699 0
-0.60699248 -1.6576958 -0.091088124 0
-0.67739779 -1.7350999 -0.088920422 0
-0.77661282 -1.8441777 -0.088958241 0
-0.91794139 -1.9995555 -0.090952702 0
-1.1028941 -2.2028937 -0.090764306 0
-1.3775322 -2.5048332 -0.090255342 0
-1.8469713 -3.0209384 -0.091026001 0
-3.4971976 -4.8352098 -0.14106138 0
-6.9945993 -8.6802807 -0.14075525 0
-0.58402002 -1.6659811 -0.089165799 0
-0.66648233 -1.7613689 -0.091258414 0
-0.7578209 -1.8670243 -0.089718498 0
-0.89100873 -2.0210884 -0.090705536 0
-1.077427 -2.2367268 -0.091748066 0
-1.346881 -2.5484161 -0.091400884 0
-1.7945652 -3.0662723 -0.090966411 0
-3.3999839 -4.9233308 -0.14112802 0
-6.7937822 -8.8490877 -0.14059389 0
-0.56986892 -1.6843104 -0.090206884 0
-0.64002144 -1.7697232 -0.089249901 0
-0.7382586 -1.8893298 -0.090450086 0
-0.86338031 -2.0416691 -0.090415202 0
-1.034165 -2.2496045 -0.089640625 0
-1.2992183 -2.5723145 -0.090239756 0
-1.7393439 -3.1081803 -0.090719081 0
-3.2950959 -5.0023532 -0.14079458 0
-6.5967569 -9.0222216 -0.1407202 0
-0.55052888 -1.6964121 -0.089646168 0
-0.62443 -1.7911657 -0.090567969 0
-0.71946907 -1.9130218 -0.091560371 0
-0.83655113 -2.0631406 -0.090414844 0
-1.0084726 -2.2835729 -0.090863712 0
-1.2593777 -2.6052754 -0.090317853 0
-1.6834759 -3.1490407 -0.090508513 0
-3.1999066 -5.0933595 -0.14133307 0
-6.3937263 -9.1883736 -0.14078631 0
-0.53879756 -1.7185946 -0.091892026 0
-0.6028825 -1.8051816 -0.090214513 0
-0.69818997 -1.9339545 -0.092183851 0
-0.8179059 -2.0957062 -0.092473753 0
-0.97791201 -2.3118954 -0.091338478 0
-1.2162644 -2.6339407 -0.090013586 0
-1.6301993 -3.1932209 -0.090714432 0
-3.0839181 -5.1573844 -0.14043941 0
-6.1884332 -9.3519897 -0.14092752 0
-0.51790476 -1.7286755 -0.09103357 0
-0.58138216 -1.8191284 -0.089977629 0
-0.66928375 -1.9443848 -0.090796538 0
-0.78852201 -2.1142948 -0.092178382 0
-0.94177985 -2.3326817 -0.090840019 0
-1.1736557 -2.6630962 -0.089895777 0
-1.5693198 -3.2269027 -0.090135999 0
-2.9832292 -5.2416701 -0.14088176 0
-5.9739132 -9.5032825 -0.14086476 0
-0.49801522 -1.7399238 -0.090623103 0
-0.56126416 -1.8350694 -0.090319552 0
-0.64908272 -1.9671751 -0.092016779 0
-0.75727314 -2.1299262 -0.091515161 0
-0.90671271 -2.3547287 -0.09065593 0
-1.1373402 -2.7016625 -0.090956308 0
-1.5140477 -3.2683449 -0.090348758 0
-2.8746066 -5.3150377 -0.14084972 0
-5.754652 -9.6475 -0.14075799 0
-0.48619199 -1.7638412 -0.093527518 0
-0.54048061 -1.8501549 -0.090579651 0
-0.62488103 -1.9843436 -0.09222614 0
-0.71796954 -2.1323457 -0.0888009 0
-0.87288845 -2.3786523 -0.090857007 0
-1.0935025 -2.729408 -0.090908892 0
-1.4604502 -3.3128207 -0.090924881 0
-2.7560258 -5.372664 -0.14010449 0
-5.5318022 -9.7858896 -0.14064609 0
-0.45995784 -1.7648876 -0.090807922 0
-0.51626247 -1.8596295 -0.089722343 0
-0.59706533 -1.9955938 -0.091418572 0
-0.69191527 -2.1551948 -0.089630269 0
-0.83644569 -2.3983912 -0.090603165 0
-1.0359527 -2.7340951 -0.088479571 0
-1.4019825 -3.3500016 -0.091010056 0
-2.6509285 -5.451561 -0.14068562 0
-5.3121753 -9.929553 -0.1408318 0
-0.44232556 -1.7799866 -0.091713525 0
-0.49604782 -1.8758086 -0.09045779 0
-0.56830823 -2.0046964 -0.090350948 0
-0.6569984 -2.162889 -0.088113092 0
-0.80126989 -2.4202197 -0.090757005 0
-1.0040299 -2.7818739 -0.090852119 0
-1.3370479 -3.3758636 -0.090306021 0
-2.5415764 -5.5243273 -0.14107399 0
-5.0820322 -10.055626 -0.14069487 0
-0.41484049 -1.7769144 -0.0883471 0
-0.47348979 -1.888006 -0.090444826 0
-0.54408723 -2.0217292 -0.090907104 0
-0.63223499 -2.1886957 -0.08963535 0
-0.7592997 -2.4293771 -0.089352347 0
-0.95841169 -2.8065283 -0.090838186 0
-1.2786552 -3.4131227 -0.090642728 0
-1.9227303 -4.6331077 -0.090855293 0
-4.8525949 -10.182756 -0.14074135 0
-0.40541786 -1.8084865 -0.093408637 0
-0.45272383 -1.9038445 -0.091318108 0
-0.51952094 -2.0384922 -0.091519751 0
-0.60068345 -2.2020974 -0.089291342 0
-0.72167367 -2.4459863 -0.089076422 0
-0.90993679 -2.8254819 -0.090351142 0
-1.2209303 -3.4523745 -0.091246508 0
-1.830343 -4.6808119 -0.09087228 0
-4.6167312 -10.297536 -0.14061797 0
-0.37907633 -1.8065593 -0.090614341 0
-0.4305962 -1.9173485 -0.091805838 0
-0.48584363 -2.0361536 -0.088776074 0
-0.57285148 -2.2232566 -0.090277813 0
-0.68621099 -2.4670267 -0.089498036 0
-0.86319226 -2.8476102 -0.090323322 0
-1.1571268 -3.479692 -0.091036178 0
-1.7321101 -4.7161455 -0.090374433 0
-4.3794827 -10.409099 -0.14056712 0
-0.35666642 -1.8120499 -0.089724697 0
-0.40781376 -1.929715 -0.092169963 0
-0.46241373 -2.0553231 -0.090069942 0
-0.54204303 -2.2385113 -0.090457015 0
-0.64829046 -2.4829352 -0.089375772 0
-0.8157925 -2.8682759 -0.09026771 0
-1.0932851 -3.5066519 -0.09092433 0
-1.6401293 -4.7646751 -0.090678416 0
-4.1422491 -10.520838 -0.14067395 0
-0.34198865 -1.836108 -0.093232669 0
-0.37759003 -1.9240118 -0.088975899 0
-0.43369383 -2.0625386 -0.089336403 0
-0.50986284 -2.2506089 -0.090274207 0
-0.61643416 -2.513746 -0.091255181 0
-0.77197075 -2.897784 -0.091224246 0
-1.029339 -3.5332563 -0.090908997 0
-1.5484992 -4.815124 -0.091192968 0
-3.9013922 -10.624692 -0.14073294 0
-0.3167547 -1.8344927 -0.09096206 0
-0.35831431 -1.9450467 -0.091346435 0
-0.40437913 -2.067585 -0.088356845 0
-0.47836676 -2.2644019 -0.090470217 0
-0.57792002 -2.5292265 -0.091303639 0
-0.72270519 -2.9143739 -0.090994425 0
-0.96583986 -3.5611439 -0.091110773 0
-1.4472948 -4.841877 -0.090639718 0
-3.654017 -10.712045 -0.14053322 0
-0.29542378 -1.8425151 -0.0910239 0
-0.33115652 -1.9453768 -0.089665376 0
-0.38055104 -2.0875657 -0.090113468 0
-0.44702378 -2.2789166 -0.090890728 0
-0.53647262 -2.5364075 -0.090445615 0
-0.67295575 -2.9292932 -0.090724953 0
-0.8996104 -3.5817499 -0.090891041 0
-1.3494611 -4.8767076 -0.090615861 0
-3.4115808 -10.812804 -0.14081962 0
-0.27410063 -1.8506577 -0.091232724 0
-0.30446458 -1.9457389 -0.088140257 0
-0.35213524 -2.0950141 -0.089798041 0
-0.41053528 -2.2778871 -0.08913184 0
-0.49904108 -2.5550327 -0.091127463 0
-0.62432188 -2.9473352 -0.090887211 0
-0.83061671 -3.5933239 -0.090133436 0
-1.2514043 -4.9109721 -0.090685703 0
-3.1614931 -10.892195 -0.14073214 0
-0.25269869 -1.858759 -0.091550507 0
-0.28638193 -1.9742087 -0.092273854 0
-0.32511544 -2.1069682 -0.090379603 0
-0.37751359 -2.2865634 -0.088942088 0
-0.46100739 -2.5727394 -0.091807909 0
-0.57475722 -2.9626181 -0.090899788 0
-0.76446807 -3.612854 -0.090088092 0
-1.1539303 -4.9477406 -0.090996958 0
-2.9085734 -10.961798 -0.14056171 0
-0.22886184 -1.858009 -0.090039141 0
-0.25907791 -1.9722172 -0.090534337 0
-0.29701361 -2.1156037 -0.090509422 0
-0.34438744 -2.2946634 -0.088791408 0
-0.41826671 -2.5739067 -0.090600796 0
-0.52375847 -2.9726362 -0.090525158 0
-0.70147634 -3.6443603 -0.091030248 0
-1.0536413 -4.9754462 -0.090988599 0
-2.6566253 -11.03428 -0.14061573 0
-0.20750889 -1.8662182 -0.090626173 0
-0.23691384 -1.989902 -0.092748411 0
-0.26848355 -2.1226909 -0.090497173 0
-0.21396321 -1.8933666 -0.029624676 0
-0.37722197 -2.5800686 -0.090130918 0
-0.47463143 -2.9897943 -0.090961687 0
-0.63155144 -3.6498342 -0.090210758 0
-0.9480865 -4.9812503 -0.09005376 0
-2.4060626 -11.113817 -0.14099051 0
-0.18342687 -1.8622522 -0.088682406 0
-0.1869799 -1.8790723 -0.070318766 0
-0.18609905 -1.8749024 -0.047792692 0
-0.18490157 -1.8692334 -0.025420686 0
-0.33640906 -2.5864739 -0.089816697 0
-0.1872927 -1.8805531 0.015944043 0
-0.56764776 -3.681164 -0.091369532 0
-0.8456946 -4.9974451 -0.08974544 0
-2.1476488 -11.16093 -0.14074346 0
-0.16480409 -1.8853369 -0.092726909 0
-0.16212256 -1.8708431 -0.067888357 0
-0.1887978 -2.0150247 -0.02094478 0
-0.16341062 -1.877805 0.016628878 0
-0.49867481 -3.6899335 -0.091033928 0
-0.94490254 -6.1018281 -0.14108114 0
-1.8907082 -11.21398 -0.14079255 0
-0.14120892 -1.8833592 -0.091462396 0
-0.1403224 -1.8777847 -0.068480961 0
-0.1390283 -1.8696473 -0.0455353 0
-0.14502046 -1.9073267 0.035984647 0
-0.8141315 -6.1147866 -0.14064373 0
-1.6319344 -11.257241 -0.14076401 0
-0.11822847 -1.8838328 -0.090855695 0
-0.13382439 -2.0008702 -0.091245525 0
-0.12140939 -1.9077036 0.036197249 0
-0.12268729 -1.9172934 0.057385739 0
-1.3742441 -11.30943 -0.14109844 0
-0.095236935 -1.8829937 -0.090094201 0
-0.10778225 -1.9995267 -0.090407677 0
-0.096053034 -1.8905745 0.016358325 0
-0.096636206 -1.8959916 0.037217323 0
-0.096804731 -1.8975569 0.058442138 0
-0.099565186 -1.9231987 0.079131193 0
-0.07287129 -1.8877398 -0.090649359 0
-0.082794718 -2.0084739 -0.091640763 0
-0.073603198 -1.8966445 0.058586489 0
-0.074521832 -1.9078212 0.079542175 0
-0.074356809 -1.9058133 0.10099665 0
-0.050018854 -1.886498 -0.090049185 0
-0.057611622 -2.0200899 -0.044126172 0
-0.050252851 -1.890615 0.079980426 0
-0.050782822 -1.8999397 0.10099643 0
-0.030849844 -1.9979415 -0.016972413 0
-0.027738597 -1.8993319 0.10099639 0
-0.0067415531 -2.2126303 -0.07095442 0
-0.0054632518 -2.0099559 -0.018320313 0
-0.0067554871 -2.2148395 0.10100538 0
0.018179433 -1.8982332 -0.092270486 0
0.019331498 -1.9590961 -0.035345066 0
0.041140378 -1.8982555 -0.092429183 0
0.044286039 -1.9694421 -0.08382193 0
0.062938668 -1.8807964 -0.088986672 0
0.071734324 -2.0073426 -0.091242991 0
0.070035942 -1.9829074 -0.062725566 0
0.068861626 -1.9660121 0.03252374 0
0.064118244 -1.8977674 0.12219583 0
0.086796045 -1.8935269 -0.092099272 0
0.097313382 -2.0043395 -0.091073923 0
0.11019404 -2.1400526 -0.089008547 0
0.11625367 -2.203898 -0.070490904 0
0.085638627 -1.8813322 -0.0037537643 0
0.089364998 -1.920594 0.013651738 0
0.11573792 -2.1984639 0.016058015 0
0.11609744 -2.2022519 0.044247713 0
0.11571094 -2.1981797 0.072736911 0
0.1156491 -2.1975281 0.10100505 0
0.10919432 -1.8878428 -0.091407545 0
0.12174415 -1.992044 -0.08926373 0
0.13982502 -2.1421692 -0.08987575 0
0.14658776 -2.1983202 -0.070167802 0
0.14760982 -2.2068062 -0.042352784 0
0.14735511 -2.2046914 -0.013295202 0
0.14673595 -2.1995506 0.015750499 0
0.14569394 -2.1908987 0.044625767 0
0.14818594 -2.2115898 0.072346061 0
0.14648418 -2.1974602 0.10100514 0
0.13199307 -1.8859342 -0.091645546 0
0.14851594 -1.9990103 -0.091230579 0
0.16785336 -2.1313479 -0.088721238 0
0.17761253 -2.1981359 -0.070718102 0
0.17849174 -2.2041528 -0.042522166 0
0.17705889 -2.1943471 -0.012704296 0
0.17755954 -2.1977732 0.015589008 0
0.17936961 -2.2101607 0.043529715 0
0.17817388 -2.2019777 0.0724755 0
0.17751478 -2.1974669 0.10100526 0
0.15277067 -1.8718551 -0.089383505 0
0.1741031 -1.9958845 -0.091406085 0
0.19526742 -2.1189365 -0.087414242 0
0.209692 -2.2028027 -0.072073989 0
0.20785266 -2.1921086 -0.041670863 0
0.20960346 -2.2022879 -0.013913503 0
0.20807607 -2.1934075 0.015555354 0
0.21060583 -2.2081158 0.043395329 0
0.20955594 -2.2020118 0.072360113 0
0.20848845 -2.1958051 0.10100535 0
0.17834489 -1.8846787 -0.093053095 0
0.20066431 -1.9973497 -0.092587687 0
0.2251783 -2.121099 -0.088658147 0
0.23850748 -2.1883862 -0.070818387 0
0.24008444 -2.1963468 -0.042843346 0
0.24145894 -2.2032855 -0.014546042 0
0.24096829 -2.2008085 0.014628181 0
0.24363917 -2.2142916 0.042832803 0
0.24171361 -2.204571 0.072165564 0
0.24169828 -2.2044935 0.10100576 0
0.20039944 -1.8777779 -0.092586778 0
0.2229856 -1.9784045 -0.089965113 0
0.25452155 -2.1189046 -0.089302056 0
0.27339712 -2.2029996 -0.073841371 0
0.27350479 -2.2034793 -0.04446635 0
0.2734834 -2.2033842 -0.015172897 0
0.27320197 -2.2021301 0.014072003 0
0.27229685 -2.1980977 0.043294717 0
0.27396521 -2.2055306 0.071988739 0
0.27275512 -2.2001393 0.10100582 0
0.21928091 -1.8586357 -0.089556254 0
0.24608102 -1.9653593 -0.088580705 0
0.28473926 -2.1193044 -0.090514816 0
0.30615029 -2.2045679 -0.075120546 0
0.3044017 -2.1976044 -0.044633601 0
0.30455491 -2.1982148 -0.015374316 0
0.30415341 -2.1966157 0.013946565 0
0.3056455 -2.2025576 0.042733572 0
0.3030749 -2.1923208 0.072131008 0
0.30717447 -2.2086463 0.10100629 0
0.24373305 -1.8621534 -0.091608696 0
0.27373621 -1.9700326 -0.090764113 0
0.31227228 -2.1085925 -0.089970179 0
0.33700499 -2.197521 -0.075272255 0
0.33642536 -2.195437 -0.04534604 0
0.33762383 -2.1997461 -0.016302062 0
0.33848196 -2.2028317 0.012912558 0
0.33723304 -2.1983411 0.042547204 0
0.33514962 -2.19085 0.071973316 0
0.3389886 -2.2046533 0.10100641 0
0.26614454 -1.8572748 -0.091947474 0
0.29916659 -1.9653659 -0.091261886 0
0.33816093 -2.0930061 -0.088702671 0
0.3702246 -2.1979601 -0.076639168 0
0.37218124 -2.2043648 -0.047518302 0
0.37345812 -2.2085445 -0.018027371 0
0.37134644 -2.2016323 0.012349511 0
0.37338039 -2.2082901 0.04163117 0
0.37192646 -2.2035308 0.071450748 0
0.36938727 -2.1952193 0.1010064 0
0.28443649 -1.8397362 -0.089578785 0
0.32221869 -1.9530904 -0.090380169 0
0.36858055 -2.0921853 -0.0900952 0
0.4306972 -2.2785478 -0.090014152 0
0.52359104 -2.5572481 -0.092193045 0
0.65080786 -2.9389241 -0.090851329 0
0.86394417 -3.5783758 -0.089820497 0
1.3036664 -4.8976307 -0.09082187 0
3.2884045 -10.852245 -0.14075044 0
0.30544785 -1.8313291 -0.089356296 0
0.34624425 -1.9441535 -0.090275072 0
0.39694527 -2.0843697 -0.090411626 0
0.4642036 -2.2703757 -0.090474568 0
0.55727428 -2.5277674 -0.09023001 0
0.69430822 -2.9067416 -0.089346044 0
0.92899609 -3.5557823 -0.08982081 0
1.4048783 -4.8718576 -0.091234706 0
3.5353839 -10.763876 -0.14069395 0
0.32647854 -1.8230771 -0.089287437 0
0.36853334 -1.9308012 -0.089398183 0
0.42252818 -2.0691099 -0.089543499 0
0.49567848 -2.2564857 -0.090203814 0
0.59690136 -2.5157697 -0.090547197 0
0.74760407 -2.9017973 -0.090664662 0
0.99674273 -3.5399702 -0.090452708 0
1.5011576 -4.832037 -0.09107665 0
3.7849903 -10.682114 -0.14095668 0
0.35167649 -1.8247578 -0.091629378 0
0.39448017 -1.9267274 -0.090521656 0
0.45502546 -2.0709622 -0.091830797 0
0.52569246 -2.2393098 -0.089549877 0
0.63545901 -2.5008028 -0.090617515 0
0.79602009 -2.8833015 -0.090760969 0
1.0648309 -3.5236797 -0.091184027 0
1.5967426 -4.790834 -0.090969183 0
4.0272837 -10.581024 -0.14089291 0
0.37319118 -1.8168588 -0.091912679 0
0.41594207 -1.9119087 -0.089573346 0
0.47772792 -2.0492799 -0.090049975 0
0.56121647 -2.2349038 -0.090972342 0
0.66646069 -2.4688978 -0.088642083 0
0.83981919 -2.8543334 -0.089910932 0
1.1292917 -3.4979305 -0.091329657 0
1.6885533 -4.7413616 -0.090560831 0
4.2680378 -10.476444 -0.14089446 0
0.38792697 -1.7946619 -0.088954978 0
0.4422864 -1.9078008 -0.090964176 0
0.50844383 -2.045495 -0.091614731 0
0.59551561 -2.2267187 -0.091961928 0
0.70828098 -2.4614186 -0.089910544 0
0.88512981 -2.8294964 -0.089592136 0
1.187434 -3.4586856 -0.090555795 0
1.7864165 -4.7053556 -0.09096203 0
4.502389 -10.358143 -0.14069793 0
0.41480988 -1.7977028 -0.092073761 0
0.46452081 -1.894811 -0.090633519 0
0.53392625 -2.0303917 -0.091252245 0
0.62111205 -2.2007053 -0.090285473 0
0.7437849 -2.4403415 -0.08954785 0
0.9324913 -2.8089716 -0.089840569 0
1.2483783 -3.4260435 -0.090404965 0
1.8770777 -4.654181 -0.09070351 0
4.7364707 -10.239884 -0.14065352 0
0.43136188 -1.7801805 -0.090422474 0
0.48377684 -1.8764992 -0.089276619 0
0.55274856 -2.0032427 -0.088750474 0
0.65468204 -2.1905575 -0.091226988 0
0.78129107 -2.4232166 -0.089824446 0
0.99009895 -2.8069258 -0.092182316 0
1.3077772 -3.390697 -0.090158425 0
1.9696275 -4.606925 -0.090769581 0
4.9681015 -10.116975 -0.14064071 0
0.4489308 -1.7651743 -0.0894664 0
0.50477415 -1.8618976 -0.088811733 0
0.58300382 -1.9973952 -0.090344019 0
0.68032593 -2.1659615 -0.089974232 0
0.81691629 -2.4025426 -0.089752994 0
1.0340503 -2.7786288 -0.091884665 0
1.3665351 -3.3545082 -0.089960448 0
2.5936801 -5.4799814 -0.14043429 0
5.1953363 -9.9861736 -0.14057171 0
0.47132277 -1.7584627 -0.090671755 0
0.53039181 -1.8550595 -0.09016972 0
0.6084609 -1.9827274 -0.090409212 0
0.70886737 -2.1469243 -0.089723505 0
0.85110259 -2.3795242 -0.08948157 0
1.0756443 -2.7467215 -0.091307841 0
1.4265445 -3.3205559 -0.090063296 0
2.7123835 -5.4233141 -0.14098974 0
5.4292188 -9.866209 -0.14095213 0
0.49384516 -1.7513994 -0.091949828 0
0.55606133 -1.8476018 -0.091554962 0
0.63525796 -1.9700603 -0.090991832 0
0.73454589 -2.1235855 -0.088868372 0
0.88300651 -2.3531442 -0.088856928 0
1.1089169 -2.7024605 -0.089464091 0
1.4917606 -3.2944367 -0.090945117 0
2.8225787 -5.3522286 -0.14091974 0
5.6489139 -9.7224798 -0.14084294 0
0.5077911 -1.7312174 -0.090018205 0
0.57569742 -1.8306249 -0.090939499 0
0.65984821 -1.9538126 -0.091005377 0
0.76898998 -2.1135843 -0.090377785 0
0.9233945 -2.3396158 -0.090153463 0
1.1599627 -2.685926 -0.090816639 0
1.5480632 -3.2540631 -0.090773605 0
2.9274368 -5.2733169 -0.14056282 0
5.8658004 -9.5747633 -0.14077443 0
0.5238198 -1.7146844 -0.08909867 0
0.59653187 -1.8155646 -0.090871789 0
0.68391961 -1.9368056 -0.090989999 0
0.80040216 -2.0984128 -0.091168456 0
0.95697355 -2.3156388 -0.090114035 0
1.2006381 -2.6536968 -0.090535127 0
1.6041883 -3.2135797 -0.090710871 0
3.0387855 -5.2039289 -0.14089642 0
6.0781069 -9.420661 -0.14067715 0
0.55172688 -1.7141211 -0.092531689 0
0.62071681 -1.8049167 -0.091969781 0
0.69934231 -1.9083933 -0.088744365 0
0.82865846 -2.0785823 -0.091290779 0
0.98536128 -2.2848141 -0.089191996 0
1.2471439 -2.629338 -0.091290064 0
1.6634548 -3.1772323 -0.091133319 0
3.1391935 -5.1194067 -0.14051442 0
6.2884998 -9.2641134 -0.14066163 0
0.56804377 -1.6977506 -0.091920801 0
0.6351859 -1.7816335 -0.090187661 0
0.73057485 -1.900806 -0.090918101 0
0.85382819 -2.0547903 -0.090829603 0
1.0165328 -2.2580624 -0.088967122 0
1.2898965 -2.5995846 -0.091554351 0
1.7126874 -3.1277909 -0.090524502 0
3.2454443 -5.0427136 -0.14074112 0
6.5004921 -9.1093502 -0.14085555 0
0.57593596 -1.6715851 -0.088687368 0
0.66145831 -1.7730724 -0.092082508 0
0.74679595 -1.8743404 -0.089248814 0
0.88030589 -2.0327733 -0.090800308 0
1.0494975 -2.2335489 -0.089198492 0
1.3194091 -2.5538464 -0.090003572 0
1.7688143 -3.0871444 -0.090819098 0
3.3449552 -4.9575114 -0.14061628 0
6.7023129 -8.9416046 -0.14081994 0
0.60303247 -1.6682106 -0.0919118 0
0.68583339 -1.761582 -0.093447916 0
0.77066088 -1.8572388 -0.089687698 0
0.89922214 -2.0022125 -0.089289688 0
1.0921541 -2.2197745 -0.091241248 0
1.3682057 -2.5310674 -0.091373958 0
1.8199292 -3.0404589 -0.090687059 0
3.4511054 -4.8798747 -0.14111397 0
6.8924074 -8.7605 -0.140525 0
0.61938339 -1.6521746 -0.091728829 0
0.69486403 -1.7330834 -0.09062136 0
0.79350096 -1.8388138 -0.089973427 0
0.92855889 -1.9835845 -0.090127312 0
1.1138061 -2.1821537 -0.089691229 0
1.4008446 -2.4898345 -0.090576716 0
1.8530293 -2.9745383 -0.088834785 0
3.5470719 -4.7904081 -0.141039 0
7.0975313 -8.5962 -0.14090818 0
0.6286726 -1.628983 -0.089531817 0
0.71082169 -1.7127016 -0.089925371 0
0.82141256 -1.8254054 -0.091552608 0
0.95188195 -1.9583673 -0.089832611 0
1.1501613 -2.1604347 -0.090794645 0
1.4356087 -2.4513359 -0.090223514 0
1.9155029 -2.9403985 -0.090129755 0
3.6379681 -4.6957722 -0.14078104 0
7.2828465 -8.4102869 -0.14076361 0
0.65352416 -1.6215765 -0.092169382 0
0.73348379 -1.6990529 -0.091141187 0
0.83568007 -1.7980754 -0.090049706 0
0.97593266 -1.9339724 -0.089813583 0
1.1821121 -2.1337485 -0.091245033 0
1.4729525 -2.4155564 -0.090342008 0
1.962185 -2.8895955 -0.089941226 0
3.7225974 -4.595336 -0.14027989 0
7.4682789 -8.2246914 -0.14078018 0
0.66835588 -1.6040691 -0.091905318 0
0.74782264 -1.6772721 -0.090286888 0
0.86423469 -1.7845082 -0.09192986 0
0.99838233 -1.908082 -0.089608155 0
1.2077742 -2.1009688 -0.090794109 0
1.5076336 -2.3771927 -0.090235867 0
2.5417781 -3.329823 -0.14053372 0
3.8255835 -4.5124354 -0.14111458 0
7.6507788 -8.0361185 -0.14085354 0
0.68368375 -1.5870601 -0.091913484 0
0.76745707 -1.6604104 -0.090916224 0
0.87945431 -1.758473 -0.090931617 0
1.0316362 -1.8917207 -0.091548808 0
1.2239234 -2.0600839 -0.089005314 0
1.5240654 -2.3228824 -0.087989502 0
2.601965 -3.2666714 -0.14071417 0
3.9063129 -4.4087338 -0.14068481 0
7.8223653 -7.8375564 -0.14073683 0
0.6932987 -1.5652766 -0.090461828 0
0.7766968 -1.6346602 -0.08909107 0
0.89537013 -1.7333913 -0.090244986 0
1.0518401 -1.8635676 -0.091139816 0
1.2452359 -2.0244646 -0.088197224 0
1.5651327 -2.2906051 -0.088949256 0
2.6514261 -3.1943545 -0.140062 0
3.9898934 -4.3079019 -0.14059688 0
7.9934196 -7.6386638 -0.14075969 0
0.70639747 -1.5466664 -0.090133093 0
0.80264813 -1.6227167 -0.091471173 0
0.92369032 -1.7183553 -0.092304118 0
1.0693264 -1.8334264 -0.09038078 0
1.2744217 -1.9954778 -0.088713117 0
1.6044103 -2.2562106 -0.089775093 0
2.7270536 -3.1432419 -0.14191842 0
4.0743823 -4.2078028 -0.14071715 0
8.1524105 -7.4299631 -0.14057495 0
0.7225163 -1.5304005 -0.09073896 0
0.81430656 -1.5992371 -0.090513371 0
0.93254977 -1.6879115 -0.090405576 0
1.0967562 -1.8110553 -0.09151759 0
1.3160824 -1.9755352 -0.091149695 0
1.6308851 -2.2116163 -0.089194037 0
2.7643976 -3.0616746 -0.14050852 0
4.1543226 -4.1040254 -0.14071895 0
8.3207674 -7.228579 -0.14082044 0
0.73022687 -1.5079602 -0.089248933 0
0.83370858 -1.5815597 -0.091500632 0
0.95380002 -1.6669725 -0.091196157 0
1.1080191 -1.7766581 -0.08994443 0
1.3351643 -1.9382111 -0.090377651 0
1.674104 -2.1792758 -0.090671308 0
2.8240924 -2.9971845 -0.14121938 0
4.2359548 -4.0013461 -0.1409684 0
8.4678574 -7.0112104 -0.14060117 0
0.74476576 -1.4905305 -0.089680724 0
0.85237586 -1.5630486 -0.092406623 0
0.96083462 -1.6361384 -0.089261718 0
1.140413 -1.7571557 -0.092127241 0
1.3539876 -1.9010826 -0.089716069 0
1.7006326 -2.1346853 -0.090337761 0
2.8619368 -2.9172838 -0.14021467 0
4.3133912 -3.8954134 -0.1411249 0
8.6274595 -6.8026462 -0.1408916 0
0.75880677 -1.4726447 -0.090091936 0
0.85612643 -1.534716 -0.090071015 0
0.9805038 -1.614045 -0.089974053 0
1.1530724 -1.7241107 -0.091068469 0
1.3644198 -1.8589101 -0.088032879 0
1.7289155 -2.0913885 -0.090329416 0
2.9156311 -2.8482864 -0.14070886 0
4.3891501 -3.78811 -0.14133513 0
8.7641535 -6.5785255 -0.14069206 0
0.77237338 -1.454342 -0.090492137 0
