# .PCD v0.7 - Point Cloud Data file format
VERSION 0.7
FIELDS x y z intensity
SIZE 4 4 4 4
TYPE F F F F
COUNT 1 1 1 1
WIDTH 1350
HEIGHT 1
VIEWPOINT 0 0 0 1 0 0 0
POINTS 1350
DATA ascii
-1.3609936 2.6001289 -0.04996055 0
-1.3776436 2.5895269 -0.049944744 0
-1.3949139 2.579922 -0.049979739 0
-1.406458 2.5614502 -0.049646765 0
-1.4292194 2.5601981 -0.050056368 0
-1.4438291 2.5465462 -0.049945056 0
-1.4571652 2.5312178 -0.049767524 0
-1.4733647 2.5200543 -0.049779285 0
-1.4918152 2.5119014 -0.049934085 0
-1.5115148 2.5052009 -0.050165977 0
-1.5226674 2.4873123 -0.049904089 0
-1.5389808 2.4761376 -0.049953409 0
-1.5572292 2.4672506 -0.050118536 0
-1.5706762 2.4525011 -0.050022006 0
-1.5797957 2.432862 -0.049701292 0
-1.6007206 2.4268258 -0.050032485 0
-1.6141322 2.4122057 -0.049965277 0
-1.6338887 2.4044294 -0.050240144 0
-1.6402384 2.3824017 -0.049825318 0
-1.6520057 2.3662899 -0.04970568 0
-1.666013 2.3525116 -0.049710359 0
-1.685185 2.3437133 -0.049980003 0
-1.6888998 2.3200901 -0.049493842 0
-1.7085369 2.3115518 -0.049799595 0
-1.7254465 2.3002772 -0.049976386 0
-1.7354034 2.2827632 -0.049828503 0
-1.7567893 2.2751091 -0.050228402 0
-1.765437 2.2565167 -0.050037734 0
-1.7854182 2.247257 -0.050380152 0
-1.2287011 1.7971112 0.51796776 0
-1.7895865 2.2252262 -0.050005775 0
-1.2282197 1.7828932 0.51248431 0
-1.8128028 2.218148 -0.050504889 0
-1.2287515 1.7697444 0.50794566 0
-1.8162211 2.1958191 -0.050120685 0
-1.2391468 1.7642113 0.51087737 0
-1.8291218 2.1807294 -0.050171301 0
-1.2340121 1.747209 0.50243902 0
-1.8393861 2.1637218 -0.050114423 0
-1.2374012 1.7366904 0.50042981 0
-1.8492653 2.146493 -0.050050661 0
-1.2357432 1.7227879 0.49489623 0
-1.8579845 2.128535 -0.049946908 0
-1.2435627 1.7155371 0.49630731 0
-1.8640311 2.1089127 -0.049739677 0
-1.2437114 1.7031956 0.492336 0
-1.8837702 2.0981712 -0.050123993 0
-1.2403864 1.6888419 0.48606443 0
-1.8981389 2.0837848 -0.050285563 0
-1.2433872 1.6787132 0.48437953 0
-1.9027513 2.0633945 -0.050047051 0
-1.2348206 1.6617095 0.47479081 0
-1.9147028 2.0474842 -0.050124411 0
-1.2457299 1.6565567 0.47879776 0
-1.9120828 2.0232368 -0.0496113 0
-1.243027 1.6434801 0.47353813 0
-1.9338527 2.0128396 -0.050108436 0
-1.9430758 1.9953315 -0.050099596 0
-1.9462723 1.974701 -0.049857326 0
-1.963421 1.9612736 -0.050184533 0
-1.965771 1.940377 -0.049928792 0
-1.9716221 1.9213277 -0.04982318 0
-1.9823002 1.9045596 -0.049917042 0
-1.9906996 1.8867104 -0.049929731 0
-2.0047567 1.8712597 -0.05017066 0
-1.9959285 1.8462055 -0.049534392 0
-2.0027797 1.8278525 -0.049515672 0
-2.0008173 1.8061408 -0.049169034 0
-2.0088348 1.7883584 -0.049214073 0
-1.9938396 1.7623992 -0.048395943 0
-2.0042231 1.745665 -0.048550531 0
-1.9988334 1.7236767 -0.048120189 0
-1.9924449 1.7016919 -0.047664557 0
-2.0031264 1.6851258 -0.047856867 0
-1.9994135 1.6643229 -0.047521979 0
-2.0011158 1.6452279 -0.047398232 0
-2.0026011 1.6261641 -0.047275756 0
-2.0038371 1.6071253 -0.047153331 0
-1.9957459 1.5860211 -0.046698332 0
-2.0006435 1.5680659 -0.046728842 0
-2.0025022 1.5494651 -0.046656795 0
-2.0030639 1.530665 -0.046546299 0
-1.9935284 1.5101427 -0.046078492 0
-1.9977409 1.4922224 -0.046118483 0
-2.0056057 1.4748268 -0.046298448 0
-2.0002296 1.4554542 -0.046008717 0
-2.0027907 1.4372895 -0.046013858 0
-2.0018873 1.4187239 -0.045902736 0
-2.0007739 1.400213 -0.045792621 0
-1.987605 1.3807117 -0.045258902 0
-2.006412 1.3640054 -0.045879338 0
-1.9947515 1.3449371 -0.045416921 0
-1.9906385 1.3265729 -0.045233186 0
-2.0067465 1.3090998 -0.045780234 0
-2.0021567 1.2907164 -0.045595784 0
-1.9900292 1.2723652 -0.045150515 0
-2.0056353 1.2543254 -0.045703609 0
-1.1373395 0.26436791 -0.050046809 0
-0.38919115 0.26436988 0.41714638 0
-0.38474089 0.2643699 0.4906882 0
-1.1347971 0.24463165 -0.049960479 0
-0.40146059 0.25386792 0.42331836 0
-1.1311498 0.224981 -0.049843535 0
-0.40185803 0.24335264 0.35158139 0
-0.40497196 0.24327418 0.42517507 0
-1.130319 0.20530331 -0.049836006 0
-0.50862116 0.22880055 0.10721841 0
-0.51401776 0.22859658 0.17683278 0
-1.2340633 0.20138226 0.43150806 0
-1.2413082 0.20110844 0.56327796 0
-1.2441853 0.20099969 0.7007212 0
-1.1388361 0.18515657 -0.05017148 0
-0.51719809 0.21649426 0.10819755 0
-0.5157963 0.21656492 0.17724884 0
-1.2408483 0.18001398 0.4334777 0
-1.2404073 0.18003622 0.56328738 0
-1.2390349 0.1801054 0.69897199 0
-1.1326785 0.16569476 -0.049991343 0
-0.50991625 0.204956 0.10748646 0
-0.5076403 0.20509948 0.17589734 0
-1.2402189 0.15891501 0.43362224 0
-1.2384681 0.1590254 0.56303912 0
-1.1313715 0.14599004 -0.049993478 0
-0.52027398 0.19224767 0.10869145 0
-0.51617616 0.19255787 0.17758965 0
-1.2354629 0.13811074 0.43277904 0
-1.2467368 0.13725735 0.56628472 0
-1.1243783 0.12678318 -0.049800705 0
-0.49802995 0.18213512 0.10639772 0
-0.50525546 0.18149658 0.17578977 0
-1.2429538 0.11630439 0.4351387 0
-1.2341985 0.11707812 0.56267607 0
-1.1308948 0.10634433 -0.050101127 0
-0.51616943 0.16847901 0.1084769 0
-0.5086171 0.16924237 0.17660175 0
-1.2366108 0.095658876 0.43402427 0
-1.2407328 0.095242225 0.56552541 0
-1.1263078 0.086952783 -0.050012261 0
-0.51210064 0.15685828 0.039942708 0
-0.51032001 0.15706094 0.10798295 0
-0.51814342 0.15617053 0.17856187 0
-1.2397835 0.074037649 0.43541846 0
-1.2410821 0.073889844 0.56639987 0
-1.1319909 0.066321202 -0.050301611 0
-0.51613379 0.14428121 0.040139254 0
-0.51622462 0.1442697 0.10877704 0
-0.51133752 0.14488836 0.177586 0
-1.2436616 0.052185033 0.4370662 0
-1.2404619 0.052590076 0.56704068 0
-1.107211 0.049726982 -0.049502742 0
-0.51426387 0.13238515 0.040129066 0
-0.51198483 0.13270284 0.10848924 0
-0.51553851 0.13220745 0.17863855 0
-1.2387466 0.031390626 0.43652251 0
-1.2291071 0.032734383 0.56416678 0
-1.1161759 0.028561551 -0.049928494 0
-0.50887471 0.12103026 0.039997175 0
-0.50287879 0.12194321 0.1076877 0
-0.50555849 0.1215352 0.1771352 0
-1.2419125 0.0094166594 0.4381308 0
-1.2462224 0.008760442 0.57095236 0
-1.1154745 0.0086851614 -0.050014995 0
-0.51093447 0.10853741 0.040139716 0
-0.51114494 0.10850265 0.10879151 0
-0.51246792 0.10828412 0.17874053 0
-1.2437699 -0.012505482 0.43947557 0
-1.2416368 -0.012153129 0.5705362 0
-1.1137701 -0.011077742 -0.050074387 0
-0.51533544 0.095523439 0.040373176 0
-0.5105291 0.096379615 0.10894669 0
-0.51643348 0.095327832 0.17984073 0
-1.2408131 -0.033708315 0.4396472 0
-1.2446299 -0.034388196 0.57276917 0
-1.1070896 -0.029935222 -0.049962085 0
-0.51019555 0.084163643 0.040266357 0
-0.51180834 0.083855353 0.10932628 0
-0.50372237 0.085401021 0.17791142 0
-1.2430432 -0.055923354 0.44123581 0
-1.2299672 -0.053423833 0.5691219 0
-1.1054412 -0.049742829 -0.050041493 0
-0.51369685 0.071113922 0.040479343 0
-0.51270503 0.071316503 0.10968216 0
-0.50414062 0.073065691 0.17841686 0
-1.2348515 -0.076173343 0.44018745 0
-1.2402109 -0.077267952 0.5740037 0
-1.0965321 -0.06803257 -0.049864955 0
-0.50925756 0.059634704 0.040408798 0
-0.51269299 0.058887873 0.10995642 0
-0.50915211 0.059657637 0.17980006 0
-1.2383374 -0.098859526 0.44225162 0
-1.2349737 -0.098128296 0.57373035 0
-1.0992242 -0.088873096 -0.050121374 0
-0.5120163 0.04654463 0.040607058 0
-0.51803148 0.045157451 0.11083881 0
-0.51427358 0.046024058 0.18123884 0
-1.2308565 -0.1192292 0.4415251 0
-1.2426732 -0.12195427 0.57796264 0
-1.0900532 -0.10700945 -0.049952265 0
-0.51607013 0.032992739 0.040859565 0
-0.50244445 0.036316205 0.10942823 0
-0.51594812 0.033022482 0.182074 0
-1.2371553 -0.14288963 0.44448227 0
-1.2353683 -0.14245375 0.57717234 0
-1.0818119 -0.12526511 -0.049825292 0
-0.55722862 0.0097080367 0.042487007 0
-0.54263991 0.013461639 0.11421559 0
-0.56262648 0.0083191888 0.19132303 0
-1.243389 -0.16683821 0.44751024 0
-1.2412173 -0.16627945 0.5809868 0
-1.0836391 -0.1461574 -0.050078772 0
-0.61848354 -0.020209353 0.044874135 0
-0.6213336 -0.020981055 0.12333763 0
-1.236231 -0.187474 0.31779832 0
-1.2387813 -0.18816452 0.44776258 0
-1.2401019 -0.18852209 0.58251709 0
-1.0757967 -0.16448949 -0.049984008 0
-0.69737279 -0.05689333 0.047938306 0
-0.69665515 -0.056689274 0.13216399 0
-1.2318839 -0.20886926 0.31807476 0
-1.2432997 -0.21211509 0.45050755 0
-1.2312608 -0.20869212 0.58147734 0
-1.0651606 -0.1819226 -0.049793396 0
-0.77766049 -0.096251555 0.051083259 0
-0.7712611 -0.094344623 0.14099361 0
-1.2410985 -0.23434965 0.32095501 0
-1.2476817 -0.23631136 0.45330667 0
-1.233602 -0.23211582 0.58440369 0
-1.0643679 -0.20228685 -0.049978338 0
-0.88399529 -0.14605601 0.05523314 0
-0.86900055 -0.14138146 0.15251538 0
-1.2381506 -0.25646326 0.32160944 0
-1.2383364 -0.2565212 0.45252958 0
-1.2352878 -0.2555708 0.58721566 0
-1.0620165 -0.222284 -0.05011512 0
-0.9919107 -0.19945626 0.05948291 0
-0.97562373 -0.19415294 0.16515537 0
-1.2390312 -0.27992323 0.3230454 0
-1.2423527 -0.28100482 0.45540255 0
-1.2379321 -0.27956536 0.59047776 0
-1.0579363 -0.24179928 -0.050196782 0
-1.1234742 -0.26405618 0.064667813 0
-1.1300329 -0.26628348 0.18334834 0
-1.2496701 -0.30691269 0.32640231 0
-1.2431697 -0.30470511 0.45750871 0
-1.0594286 -0.26334998 -0.050499115 0
-1.2913343 -0.34537688 0.2025115 0
-1.2356855 -0.32569346 0.32512861 0
-1.243734 -0.3285403 0.45963648 0
-1.0390232 -0.27707425 -0.049980137 0
-1.247561 -0.35380343 0.1983937 0
-1.2413464 -0.35151687 0.32766965 0
-1.2379178 -0.35025534 0.46012095 0
-1.0303303 -0.29488775 -0.049912918 0
-1.2506047 -0.37909922 0.19965479 0
-1.2417585 -0.37571725 0.32927209 0
-1.2365769 -0.37373635 0.4619047 0
-1.0225195 -0.31300357 -0.049887832 0
-1.2555633 -0.40547654 0.20118028 0
-1.2401657 -0.39936671 0.33055258 0
-1.2318921 -0.39608368 0.46286049 0
-1.022275 -0.33421686 -0.0501635 0
-1.2481167 -0.42714015 0.2013106 0
-1.2437868 -0.42535862 0.33291444 0
-1.2424892 -0.42482468 0.46811467 0
-1.006238 -0.34891334 -0.049838096 0
-1.2404922 -0.44876507 0.20145263 0
-1.2437172 -0.45013973 0.33462945 0
-1.2325259 -0.44536939 0.46779501 0
-1.0076486 -0.37106046 -0.050198916 0
-1.2506913 -0.47829434 0.203721 0
-1.2493401 -0.47769818 0.33753747 0
-1.2460161 -0.4762316 0.47408575 0
-0.99993789 -0.38932833 -0.050214786 0
-1.2492744 -0.503111 0.20467402 0
-1.2361957 -0.49714264 0.33681044 0
-1.2340027 -0.49614188 0.47336915 0
-0.98898375 -0.40608236 -0.050111771 0
-1.2439001 -0.52631217 0.20519952 0
-1.2376095 -0.52334523 0.33903065 0
-1.2387938 -0.52390385 0.4774591 0
-0.97946692 -0.4234592 -0.050073557 0
-1.494259 -0.67422956 0.082516924 0
-1.2390205 -0.54989535 0.20582221 0
-1.2321708 -0.54655868 0.33995587 0
-1.2354529 -0.54815751 0.47936532 0
-0.96302211 -0.43732592 -0.049766976 0
-1.4467227 -0.68053341 0.081095725 0
-1.2412026 -0.57719672 0.20733394 0
-1.243425 -0.57831413 0.34431544 0
-1.2323951 -0.57276821 0.48145142 0
-0.95115125 -0.453325 -0.049649339 0
-1.3974836 -0.68482953 0.079599909 0
-1.2351149 -0.60061187 0.20789585 0
-1.2389362 -0.6025939 0.34558615 0
-0.94865608 -0.47424731 -0.049918614 0
-1.3476422 -0.68761194 0.078071795 0
-1.2368637 -0.6283713 0.20945241 0
-1.2381531 -0.6290608 0.34768564 0
-0.93202949 -0.48760268 -0.049624428 0
-1.2961131 -0.68823826 0.076465666 0
-1.233585 -0.65378094 0.21044564 0
-1.2490026 -0.66227704 0.35226348 0
-0.9367131 -0.51281869 -0.050209817 0
-1.2706053 -0.70233619 0.075916551 0
-1.2397999 -0.68485105 0.21265855 0
-1.2466576 -0.68874347 0.35422441 0
-0.92334843 -0.52796972 -0.050066318 0
-1.2471652 -0.71719843 0.075456195 0
-1.2359414 -0.71063966 0.21368247 0
-1.2292482 -0.70672828 0.35312247 0
-0.90294242 -0.53877169 -0.049636304 0
-1.2599012 -0.75344211 0.076507203 0
-1.2286528 -0.73464978 0.21432458 0
-1.2421168 -0.74274689 0.35843164 0
-0.91137326 -0.56706107 -0.050419226 0
-1.2470778 -0.77474958 0.076512508 0
-1.2428442 -0.77213031 0.21772428 0
-1.2472627 -0.7748639 0.36224034 0
-0.8868773 -0.57506007 -0.04983018 0
-1.2484686 -0.80510932 0.077130631 0
-1.2374163 -0.79807764 0.21871215 0
-1.2350475 -0.7965706 0.36245477 0
-0.8776772 -0.59257072 -0.049893059 0
-1.251152 -0.83684009 0.077825241 0
-1.2420447 -0.83088344 0.22104138 0
-1.2428895 -0.8314361 0.36705196 0
-0.87124133 -0.61199653 -0.050084826 0
-1.2301073 -0.85321659 0.077522151 0
-1.2430202 -0.86189634 0.22297066 0
-1.235728 -0.85699481 0.36852285 0
-0.85632801 -0.62573594 -0.049921025 0
-1.2375153 -0.88898808 0.078459829 0
-1.2478853 -0.89614969 0.22547558 0
-1.2454802 -0.89448863 0.37378392 0
-0.84555125 -0.64227188 -0.049944352 0
-1.2422673 -0.92369109 0.079309285 0
-1.2437048 -0.92471093 0.22686766 0
-1.6066674 -1.1821864 0.4569045 0
-0.82707739 -0.65322489 -0.049637068 0
-1.2460152 -0.95840913 0.08014144 0
-1.2470589 -0.95916945 0.22932199 0
-1.5666406 -1.1919755 0.45207351 0
-0.8212055 -0.67333657 -0.049894828 0
-1.2471358 -0.99190015 0.080883726 0
-1.2432333 -0.98898143 0.23089397 0
-0.81647491 -0.69455749 -0.0502178 0
-1.2353538 -1.0161506 0.081071384 0
-1.2381389 -1.0182889 0.23235992 0
-0.79608822 -0.70373619 -0.049844474 0
-1.165859 -0.99509972 0.078651518 0
-1.1562878 -0.98755795 0.22338864 0
-1.1493608 -0.98209983 0.36921844 0
-0.78688574 -0.72162348 -0.049986094 0
-1.13729 -1.0049505 0.078073762 0
-1.1478748 -1.013509 0.2244219 0
-1.1361262 -1.0040095 0.36981806 0
-0.78603232 -0.74657112 -0.050526883 0
-1.2436059 -1.1261791 0.083752662 0
-1.2339721 -1.1181868 0.23870863 0
-1.3341801 -1.2013205 0.41999999 0
-0.75400937 -0.7454955 -0.049626891 0
-1.2364328 -1.1560833 0.084243447 0
-1.2409201 -1.1599025 0.24216449 0
-1.3191675 -1.2264984 0.42084837 0
-1.0312858 -0.98148388 0.49642125 0
-0.74136472 -0.76049954 -0.049634703 0
-1.2805477 -1.2312294 0.41612983 0
-0.99230242 -0.97957891 0.48857039 0
-0.73128223 -0.77780956 -0.049774401 0
-1.1956547 -1.1936456 0.084028691 0
-1.1957855 -1.1937628 0.24090363 0
-1.1948199 -1.1928982 0.39996779 0
-0.97838783 -0.99908751 0.4892078 0
-0.71803689 -0.79235262 -0.049772911 0
-0.91581607 -0.97399861 0.47308204 0
-0.7080754 -0.80999166 -0.049941387 0
-0.8872838 -0.97879058 0.4685843 0
-0.69553578 -0.82530981 -0.049994908 0
-0.85065162 -0.975146 0.46117955 0
-0.68134856 -0.83905357 -0.049975947 0
-0.83761144 -0.99384815 0.46213788 0
-0.671893 -0.8575893 -0.050206292 0
-0.82344174 -1.0115429 0.46278292 0
-0.64962983 -0.86302143 -0.04979134 0
-0.64177108 -0.88341945 -0.050126869 0
-0.62093306 -0.88995153 -0.049793173 0
-0.60465813 -0.90126222 -0.049704175 0
-0.58955848 -0.91383666 -0.049685612 0
-0.58345461 -0.93703312 -0.050172824 0
-0.56517345 -0.94600195 -0.050000317 0
-0.55243826 -0.96168488 -0.050147612 0
-0.53059691 -0.96590954 -0.049781252 0
-0.51443338 -0.97715718 -0.049746141 0
-0.49601728 -0.98533672 -0.049583998 0
-0.48700333 -1.006319 -0.049997795 0
-0.4642238 -1.0082783 -0.049582087 0
-0.45541519 -1.0300912 -0.05004197 0
-0.43698829 -1.0380869 -0.04990967 0
-0.42611867 -1.0575516 -0.050276615 0
-0.38239729 -0.99024183 0.50372905 0
-0.40521938 -1.0616319 -0.049996782 0
-0.35295051 -0.97890109 0.49526718 0
-0.38931257 -1.073468 -0.050055135 0
-0.32936233 -0.97587925 0.49026403 0
-0.36868495 -1.0774843 -0.049796257 0
-0.31410319 -0.98607343 0.49053496 0
-0.35483909 -1.0928326 -0.050017748 0
-0.28779012 -0.97726077 0.48356754 0
-0.33167142 -1.0919611 -0.049580183 0
-0.27904212 -0.99855429 0.48827296 0
-0.31991416 -1.1113143 -0.049980532 0
-0.25725877 -0.996764 0.48423442 0
-0.30482811 -1.1250042 -0.050155323 0
-0.2276953 -0.97966808 0.47456166 0
-0.28647703 -1.1326265 -0.050093014 0
-0.20777239 -0.97970957 0.4715035 0
-0.26655722 -1.137013 -0.049911231 0
-0.19389333 -0.99135405 0.47287199 0
-0.24823351 -1.1444148 -0.049860101 0
-0.16818263 -0.97875887 0.46534035 0
-0.2354454 -1.1635722 -0.05028173 0
-0.1486031 -0.9779312 0.46229434 0
-0.21530987 -1.1672227 -0.050099626 0
-0.1329896 -0.98531514 0.46235463 0
-0.19417132 -1.1682676 -0.049826894 0
-0.11490352 -0.98706502 0.46044025 0
-0.17582132 -1.1754258 -0.049802892 0
-0.10473062 -1.0071774 0.46525058 0
-0.16215391 -1.1940309 -0.050229285 0
-0.07324101 -0.97598547 0.34775349 0
-0.084327415 -1.0031731 0.46141756 0
-0.14086182 -1.1940732 -0.049948093 0
-0.059843257 -0.98800367 0.34932929 0
-0.069156542 -1.0116919 0.4621723 0
-0.12417682 -1.20573 -0.050121885 0
-0.032887086 -0.96466559 0.14723764 0
-0.028335316 -0.95264596 0.2406988 0
-0.012061937 -0.90967363 0.32629552 0
-0.05288218 -1.0174657 0.462015 0
-0.10200532 -1.2026963 -0.049744692 0
-0.0061506466 -0.93962294 0.14371407 0
-0.010147376 -0.95059198 0.23920918 0
0.004307644 -0.91092008 0.32513914 0
-0.08310236 -1.2082014 -0.049702734 0
0.0059267743 -0.95395297 0.14472771 0
0.0094651151 -0.94384819 0.23687384 0
0.02215107 -0.90761977 0.32281458 0
-0.0067274706 -0.99009091 0.44819993 0
-0.065096632 -1.2162931 -0.049767356 0
0.017309384 -0.97110385 0.14607415 0
0.022322493 -0.95618802 0.23822632 0
0.024550902 -0.94955772 0.33273661 0
0.016178893 -0.97446746 0.44081005 0
-0.047649458 -1.2262772 -0.049911227 0
0.034229711 -0.97210163 0.14560755 0
0.035796985 -0.96723634 0.23935936 0
0.022091942 -1.0097805 0.3475278 0
0.021993445 -1.0100863 0.45146182 0
-0.03008963 -1.2362512 -0.050062381 0
0.025302308 -1.0565783 0.3586691 0
-0.008234961 -1.2320328 -0.049693011 0
0.066273406 -0.97908276 0.33672166 0
0.0089154709 -1.2436084 -0.049920857 0
0.084322616 -0.97518247 0.334492 0
0.027462916 -1.2505934 -0.049986292 0
0.098922297 -0.98334104 0.33551469 0
0.047503427 -1.2518991 -0.049850937 0
0.11695476 -0.97840208 0.33313489 0
0.065722659 -1.2603803 -0.049988758 0
0.086641386 -1.2574378 -0.049716353 0
0.10386251 -1.2708637 -0.050051924 0
0.12404473 -1.2707715 -0.049902298 0
0.14258249 -1.2788774 -0.050060071 0
-0.066221908 -2.3901937 0.10242974 0
0.16027807 -1.2924628 -0.050424561 0
0.00089828833 -2.2038124 0.095454715 0
0.18139325 -1.2865591 -0.050091524 0
0.032220438 -2.2077515 0.095407702 0
0.20080504 -1.2905124 -0.050124519 0
0.065338865 -2.1994476 0.094933093 0
0.22096851 -1.2891421 -0.049974453 0
0.096774533 -2.2010558 0.094831482 0
0.24204721 -1.2795155 -0.049536765 0
0.12754913 -2.2074766 0.094917409 0
0.25997731 -1.295572 -0.050031744 0
0.15922023 -2.2063899 0.094747469 0
0.27863106 -1.3078518 -0.050398737 0
0.19090526 -2.2039816 0.094544657 0
0.29938158 -1.2986069 -0.050002512 0
0.22228503 -2.2035296 0.094426453 0
0.31891951 -1.3022612 -0.050077736 0
0.25351283 -2.2040887 0.094358712 0
0.33905682 -1.2968462 -0.04983734 0
0.2846567 -2.2053328 0.094329573 0
0.35860673 -1.3003356 -0.049924411 0
0.3160367 -2.2012491 0.094124071 0
0.37842831 -1.2978469 -0.049806684 0
0.38111722 -1.2202213 0.059033688 0
0.39818868 -1.2945095 -0.049667597 0
0.39973348 -1.2244095 0.05916433 0
0.41770831 -1.3066051 -0.050088409 0
0.41875955 -1.1952733 0.058113549 0
0.43745312 -1.2949594 -0.049670421 0
0.43715751 -1.2010934 0.058319271 0
0.45728216 -1.3071966 -0.050113983 0
0.45800212 -1.3529316 0.063746981 0
0.47682896 -1.2983205 -0.04981254 0
0.47042641 -1.0724006 0.053743672 0
0.47376576 -1.1902329 0.16238813 0
0.49688688 -1.3070476 -0.050148718 0
0.48723003 -1.0712079 0.053721886 0
0.48934701 -1.1229092 0.15521508 0
0.51718873 -1.315836 -0.050496347 0
0.517582 -1.3231786 0.06275887 0
0.50506806 -1.089564 0.15171516 0
0.53535664 -1.2886328 -0.049565647 0
0.52156013 -1.0802373 0.054109376 0
0.52088922 -1.0701029 0.14972904 0
0.55609411 -1.3023232 -0.050106701 0
0.53813881 -1.0746408 0.053952906 0
0.53761828 -1.0680404 0.14963801 0
0.57501221 -1.291918 -0.049793892 0
0.57145029 -1.2530092 0.060398992 0
0.55486941 -1.0718852 0.15020713 0
0.59503716 -1.2942277 -0.049945615 0
0.5883832 -1.2304053 0.059654728 0
0.57238853 -1.0769889 0.15093645 0
0.61512363 -1.2961153 -0.050091449 0
0.60032785 -1.1696587 0.05754599 0
0.58954114 -1.0774666 0.15119018 0
0.63508129 -1.296187 -0.050181247 0
0.61876273 -1.1704526 0.05765472 0
0.6112985 -1.1129407 0.15526028 0
0.65445101 -1.2916648 -0.050114598 0
0.67408961 -1.2891577 -0.050129421 0
0.69289064 -1.2815953 -0.049970202 0
0.71177459 -1.2751018 -0.049857982 0
0.73223847 -1.277133 -0.050064161 0
0.75066787 -1.2686292 -0.049896143 0
0.76854146 -1.258142 -0.049663618 0
0.78719562 -1.2516984 -0.049586903 0
0.80966163 -1.2608838 -0.050093357 0
0.82750386 -1.2509018 -0.049904726 0
0.84785283 -1.2505548 -0.050080422 0
0.86518842 -1.2392753 -0.04986012 0
0.88594568 -1.2398756 -0.050090075 0
0.9053424 -1.2356097 -0.05014855 0
0.92302817 -1.2260026 -0.050015688 0
0.9410426 -1.2176327 -0.04993733 0
0.96023977 -1.2127284 -0.049998589 0
0.97842062 -1.2049553 -0.049960062 0
0.99700457 -1.1982937 -0.049972616 0
0.92709655 -1.0171442 0.46299973 0
1.0173742 -1.1960589 -0.050164457 0
0.94044554 -1.0039542 0.46054074 0
1.0354357 -1.1879033 -0.050138324 0
0.95652461 -0.99781877 0.46067053 0
1.0520589 -1.1764412 -0.049992368 0
0.97295952 -0.99247926 0.46116233 0
1.0680701 -1.1638492 -0.049809594 0
0.98854679 -0.98513657 0.46100265 0
1.086463 -1.1567342 -0.049848907 0
1.0054543 -0.98068553 0.46197268 0
1.1066037 -1.1532232 -0.050040055 0
1.0244887 -0.98052973 0.46460912 0
1.1232524 -1.1422873 -0.049947128 0
1.0433121 -0.97948557 0.46702117 0
1.1416323 -1.1349058 -0.05000424 0
1.0635804 -0.9808827 0.47044733 0
1.1616546 -1.1305728 -0.050193828 0
1.0814854 -0.97719234 0.47208175 0
1.1771369 -1.1175257 -0.0500415 0
1.1016743 -0.97747415 0.4753134 0
1.1937596 -1.1067473 -0.049988683 0
1.1324944 -0.99639553 0.057482544 0
1.1287466 -0.98964494 0.16014481 0
1.1343578 -0.99975187 0.26676166 0
1.1268724 -0.98626906 0.37095451 0
1.1297096 -0.99137944 0.48384821 0
1.2137263 -1.1018864 -0.050187416 0
1.1430744 -0.97831923 0.057105713 0
1.1463424 -0.98403472 0.16054779 0
1.1419328 -0.97632283 0.26375094 0
1.1454668 -0.98250347 0.37244633 0
1.1505049 -0.99131495 0.4872258 0
1.2242174 -1.0806444 -0.04971939 0
1.162594 -0.97594935 0.057382237 0
1.1626034 -0.97596532 0.16067465 0
1.1619464 -0.97484905 0.26533234 0
1.1669605 -0.98336774 0.37538892 0
1.1615911 -0.97424549 0.48416445 0
1.2425877 -1.0730423 -0.049822599 0
1.2614921 -1.0661541 -0.049966343 0
1.2775933 -1.0546963 -0.049927551 0
1.2916447 -1.0401701 -0.049765907 0
1.3089925 -1.0307125 -0.049828973 0
1.3224624 -1.0155942 -0.049655911 0
1.3467106 -1.0157735 -0.050159797 0
1.357577 -0.99709815 -0.049847089 0
1.3669688 -0.97682542 -0.049466107 0
1.3892938 -0.97372347 -0.049861435 0
1.3973372 -0.95215982 -0.049432259 0
1.2079552 -0.71336365 0.050551321 0
1.2117434 -0.71814018 0.14076515 0
1.4217871 -0.9512313 -0.049953118 0
1.2045883 -0.68433315 0.04966804 0
1.2076528 -0.68809891 0.13797288 0
1.4368522 -0.93848461 -0.049944069 0
1.204452 -0.66014022 0.048998456 0
1.204348 -0.66001552 0.13541803 0
1.4540752 -0.92826229 -0.050062463 0
1.2089553 -0.64208609 0.048610106 0
1.2098584 -0.64314044 0.13441566 0
1.4675522 -0.91364509 -0.049983554 0
1.2074958 -0.61765677 0.047917143 0
1.2033752 -0.61296678 0.13150954 0
1.4822463 -0.90045696 -0.04998054 0
1.2076648 -0.59576112 0.04733716 0
1.2105488 -0.59896135 0.13089757 0
1.4966476 -0.88695055 -0.049970962 0
1.5044069 -0.86644214 -0.049625702 0
1.5315981 -0.86626905 -0.050293501 0
1.5404905 -0.84706777 -0.050027683 0
1.5512441 -0.82994503 -0.049870219 0
1.5672402 -0.817972 -0.049983989 0
1.5826848 -0.80537218 -0.050076943 0
1.5880206 -0.78351229 -0.049689334 0
1.6127282 -0.77914149 -0.050242379 0
1.6216099 -0.76060957 -0.05004612 0
1.6278085 -0.73999971 -0.049737744 0
1.6471194 -0.7304064 -0.050049677 0
1.6591309 -0.71470118 -0.050030597 0
1.6711321 -0.69900101 -0.050020229 0
1.6843442 -0.68422359 -0.050073091 0
1.691799 -0.66514641 -0.049878299 0
1.7083303 -0.65275919 -0.050094943 0
1.7270517 -0.64171475 -0.050411962 0
1.7253271 -0.61646503 -0.04984903 0
1.7433358 -0.60477251 -0.050149761 0
1.7599719 -0.59193832 -0.050396021 0
1.7689903 -0.57411605 -0.050326124 0
1.7623107 -0.54677218 -0.049609713 0
1.7839488 -0.53680009 -0.05008826 0
1.7964877 -0.52119422 -0.05019366 0
1.8002776 -0.50060618 -0.049948499 0
1.8048656 -0.48064467 -0.049748003 0
1.8191361 -0.46593913 -0.049949702 0
1.8330051 -0.4508653 -0.050141457 0
1.8421655 -0.4333066 -0.050152041 0
1.846772 -0.41355309 -0.049991045 0
1.8568314 -0.39645144 -0.050055422 0
1.8671659 -0.37941995 -0.050138649 0
1.8733007 -0.36049959 -0.050066359 0
1.8737652 -0.33925626 -0.049784224 0
1.8875855 -0.32362136 -0.050028127 0
1.9001809 -0.30732128 -0.050231468 0
1.8979259 -0.28529432 -0.049875446 0
1.9096601 -0.26857832 -0.050062537 0
1.9176071 -0.25040659 -0.050113682 0
1.9238862 -0.2316388 -0.050110489 0
1.9271504 -0.21190934 -0.050003212 0
1.9347615 -0.19358088 -0.050067883 0
1.9406284 -0.17469381 -0.050076056 0
1.9484525 -0.15634067 -0.050165541 0
1.9476851 -0.13565074 -0.049946044 0
1.9549052 -0.11711875 -0.05003082 0
1.9520826 -0.096139498 -0.049755435 0
1.962564 -0.078336008 -0.049977239 0
1.9605161 -0.057728242 -0.049749505 0
1.9710375 -0.039765816 -0.049989216 0
1.9727135 -0.019995105 -0.049915459 0
1.9871 -0.0024556622 -0.050311312 0
1.9826087 0.018365715 -0.050031967 0
1.983866 0.038152833 -0.049970012 0
1.9837881 0.058076609 -0.049869053 0
1.9852655 0.077744879 -0.049833193 0
2.0017586 0.095777564 -0.050345454 0
1.9947096 0.11640622 -0.050021004 0
1.9966013 0.13607502 -0.050026465 0
1.9943074 0.15604116 -0.049890995 0
2.0026829 0.17530952 -0.050146148 0
2.0036919 0.19508602 -0.05014658 0
1.9987586 0.21505308 -0.049943648 0
2.0054855 0.23465987 -0.050166115 0
2.0040865 0.25447786 -0.050107267 0
2.0065067 0.27428153 -0.050193667 0
1.9947498 0.29388148 -0.049782768 0
2.0026298 0.31381297 -0.050081931 0
2.0057447 0.33374864 -0.050219938 0
1.9954165 0.35302246 -0.049886309 0
1.9903787 0.37243047 -0.049750399 0
1.9919146 0.39228466 -0.049858581 0
2.0003433 0.41287154 -0.050223038 0
1.9943781 0.43217361 -0.050080441 0
1.9920038 0.45180917 -0.05007549 0
1.990095 0.47150627 -0.050096199 0
1.980547 0.49010733 -0.049850263 0
1.9824694 0.51035637 -0.050026935 0
1.9828399 0.53046858 -0.050157003 0
1.971877 0.54858482 -0.049885094 0
1.9702014 0.56834465 -0.049958788 0
1.9721817 0.5889315 -0.050175134 0
1.9711434 0.60900182 -0.050291125 0
1.963235 0.62752956 -0.050164644 0
1.967098 0.64891833 -0.05047958 0
1.9391971 0.6621539 -0.049632628 0
1.9499362 0.68549657 -0.050220516 0
1.9458606 0.70496124 -0.050270606 0
1.9350855 0.72242379 -0.050079979 0
1.9243461 0.73975986 -0.049898136 0
1.9180722 0.75844926 -0.049891748 0
1.9098853 0.77647406 -0.049821913 0
1.896361 0.7925241 -0.049557783 0
1.8957293 0.81321454 -0.049791694 0
1.8911854 0.83256137 -0.049886812 0
1.8855014 0.85152322 -0.049947873 0
1.8849509 0.87268531 -0.050217178 0
1.8688989 0.88733459 -0.049895063 0
1.8706392 0.90972269 -0.050274558 0
1.8578942 0.92568862 -0.050097249 0
1.8427393 0.94036418 -0.049831394 0
1.8364186 0.95920634 -0.049923114 0
1.8263429 0.97620696 -0.049874388 0
1.8140216 0.99198943 -0.049743328 0
1.8049587 1.0094393 -0.049751785 0
1.7937853 1.0257192 -0.04968293 0
1.7874893 1.0447557 -0.04982293 0
1.7811931 1.0639106 -0.04997389 0
1.7630647 1.0759763 -0.049641248 0
1.7631453 1.099193 -0.050079782 0
1.7534243 1.1164587 -0.050117847 0
1.7351179 1.1280676 -0.049797732 0
1.7264004 1.1459404 -0.049895391 0
1.7262837 1.1699213 -0.05037849 0
1.7017093 1.1767437 -0.049803827 0
1.7005535 1.2003527 -0.050266769 0
1.687166 1.2151061 -0.050199494 0
1.6738204 1.2298361 -0.050141815 0
1.6602135 1.2443094 -0.050080046 0
1.6502743 1.2617345 -0.050195266 0
1.6290258 1.2697668 -0.049794514 0
1.6224557 1.2900828 -0.050085988 0
1.6109073 1.3062756 -0.050155602 0
1.5860542 1.3104732 -0.049594563 0
1.5872494 1.338362 -0.050299503 0
1.5614866 1.341228 -0.049700115 0
1.5550988 1.3624599 -0.050062727 0
1.5393379 1.3746556 -0.04996939 0
1.5287979 1.3921324 -0.050150074 0
1.5091201 1.4001586 -0.049870301 0
1.0281719 0.89275956 0.29405349 0
1.5003049 1.4196517 -0.050163336 0
1.0458527 0.92795122 0.30662131 0
1.479064 1.4256698 -0.049810831 0
1.4462944 1.3893063 0.060063235 0
1.4408554 1.3832706 0.16786991 0
1.4383453 1.3804853 0.27696443 0
1.0517461 0.95148623 0.31372666 0
1.4681928 1.4431183 -0.050018203 0
1.40748 1.3740169 0.05873426 0
1.4128678 1.3801491 0.16561981 0
1.4143711 1.3818601 0.27427542 0
1.0567191 0.97479129 0.32061896 0
1.4483709 1.4503467 -0.049749408 0
1.391631 1.3841032 0.058635477 0
1.3879814 1.3798423 0.16384226 0
1.3967354 1.3900625 0.2733086 0
1.0579772 0.994564 0.32586241 0
1.4382079 1.4688524 -0.050019588 0
1.3699409 1.3870894 0.058216844 0
1.3671389 1.3837334 0.16271517 0
1.3673719 1.3840126 0.26905581 0
1.0538504 1.0085094 0.32851848 0
1.4222019 1.4804851 -0.04997658 0
1.3381573 1.3772094 0.057222895 0
1.3494663 1.3911061 0.16211849 0
1.3466893 1.3876939 0.26719549 0
1.060549 1.0360789 0.33701378 0
1.4164327 1.5049819 -0.050529391 0
1.3253552 1.3901402 0.057296537 0
1.3272126 1.3924822 0.16073591 0
1.3159683 1.378304 0.26240522 0
1.055709 1.050137 0.3396515 0
1.394953 1.509791 -0.050191861 0
1.2971669 1.3832498 0.056482468 0
1.305476 1.3940022 0.1594245 0
1.3001932 1.3871659 0.2619099 0
1.050611 1.0641911 0.34228769 0
1.3732433 1.5139041 -0.049838554 0
1.2726005 1.3802203 0.055864554 0
1.2760208 1.3847634 0.15671518 0
1.2779313 1.3873012 0.25949433 0
1.0439823 1.076547 0.34421876 0
1.3597114 1.528753 -0.04997595 0
1.2564311 1.3879097 0.055740613 0
1.2538835 1.3844354 0.15526797 0
1.2465985 1.3745009 0.254271 0
1.0321902 1.0821121 0.34336504 0
1.3453097 1.5425562 -0.050073743 0
1.2503524 1.4095838 0.056240264 0
1.2439134 1.4005669 0.15604429 0
1.2516798 1.4114425 0.26020575 0
1.0278788 1.098045 0.34681848 0
1.3272383 1.5512075 -0.049954597 0
1.2475158 1.4365431 0.056968722 0
1.2494488 1.4393233 0.15979177 0
1.2433624 1.4305693 0.26216152 0
1.0179747 1.1063956 0.34719157 0
1.3115915 1.5632972 -0.049994528 0
1.2462602 1.4667605 0.05783299 0
1.2406013 1.4583987 0.16094445 0
1.2363935 1.452181 0.26466471 0
0.99828357 1.1003383 0.34182385 0
1.294132 1.5726912 -0.049927361 0
1.2470011 1.5011231 0.058868002 0
1.2441205 1.496749 0.1645823 0
1.2325441 1.4791702 0.26832753 0
1.1638629 1.3748784 0.34524444 0
0.99602389 1.1200156 0.3468512 0
1.2774469 1.583212 -0.049917866 0
1.2535591 1.5459248 0.060336918 0
1.2467818 1.5353458 0.16821671 0
1.2253972 1.501966 0.27107316 0
1.1493839 1.3833141 0.34503707 0
0.98396426 1.1251049 0.34608555 0
1.2586706 1.5903695 -0.049775843 0
1.2472965 1.5721132 0.061007921 0
1.2461916 1.5703398 0.17136227 0
1.2092633 1.5110672 0.27090663 0
1.1226836 1.3721002 0.33897969 0
0.96840727 1.1244751 0.34314388 0
1.2436517 1.6035433 -0.049895927 0
1.1920273 1.5183095 0.27039242 0
1.1093444 1.381797 0.33930624 0
0.96529615 1.143968 0.34812796 0
0.8401587 0.93736142 0.47261444 0
1.2273914 1.614781 -0.049942784 0
1.1757529 1.5270499 0.27024114 0
1.0926703 1.3858967 0.33802336 0
0.95891964 1.1586609 0.35123742 0
0.83652318 0.9507153 0.4783088 0
1.2117492 1.6271729 -0.050045218 0
1.1623089 1.5407039 0.27115443 0
1.0727242 1.3840238 0.33505628 0
0.95163548 1.1722445 0.35393035 0
0.85154366 0.99718803 0.35550651 0
0.83705223 0.97184306 0.41375226 0
0.83732808 0.97232556 0.48963398 0
1.1931427 1.6343803 -0.049943306 0
1.1413931 1.5411681 0.26937565 0
1.0535792 1.382996 0.33243003 0
0.93392855 1.1674787 0.34965709 0
0.85363591 1.0228541 0.36519015 0
0.84040111 0.99901521 0.42641956 0
0.8356396 0.9904387 0.49850127 0
1.1717036 1.6361862 -0.049632568 0
1.1282979 1.5556293 0.27053046 0
1.0338531 1.3803483 0.32942224 0
0.91816151 1.1656357 0.34660184 0
0.85043478 1.0399412 0.3707611 0
0.84134316 1.0230681 0.43720436 0
0.84278005 1.0257348 0.51889831 0
1.1603976 1.6569124 -0.050096959 0
1.1136785 1.5675286 0.27119008 0
1.0175785 1.3836693 0.32822409 0
0.91333455 1.1842285 0.35131299 0
0.84885114 1.0608582 0.37810367 0
0.83957464 1.0431104 0.44564751 0
0.83995223 1.0438328 0.5275929 0
1.1379856 1.6564538 -0.049716227 0
1.0941489 1.5699489 0.2699663 0
1.0079825 1.3999131 0.33078864 0
0.89881802 1.184494 0.34918132 0
0.85345465 1.0949765 0.39153636 0
0.84216452 1.0726973 0.45940316 0
0.84210598 1.0725818 0.54333711 0
1.1232891 1.6711061 -0.0499501 0
1.076853 1.5765373 0.26963708 0
0.97858846 1.3764174 0.32207665 0
0.88579583 1.1874413 0.34812474 0
0.84673792 1.1078984 0.39508244 0
0.83804023 1.0901852 0.46631181 0
0.83849132 1.0911038 0.55220962 0
1.105872 1.6804284 -0.049979214 0
0.96158338 1.3769799 0.32031813 0
0.8758595 1.196697 0.34945899 0
0.8409124 1.123201 0.39973778 0
0.84317124 1.1279514 0.48444277 0
0.83797944 1.1170328 0.56592309 0
1.0869422 1.6865197 -0.049889829 0
0.95030504 1.3895786 0.32201043 0
0.86186677 1.1973836 0.34769329 0
0.83810854 1.1457521 0.40770334 0
0.84522384 1.1612152 0.49995354 0
0.83938569 1.1485276 0.58319509 0
1.0668708 1.6898984 -0.049704283 0
0.93110526 1.3847924 0.31887826 0
0.85157365 1.2060609 0.34891152 0
0.84261572 1.1859298 0.42362845 0
0.83971679 1.179415 0.50711375 0
0.83936042 1.1786143 0.59944499 0
1.0434996 1.6852789 -0.049218766 0
0.912754 1.3812032 0.31616277 0
0.85263336 1.2413801 0.35981849 0
0.84003419 1.2120781 0.43311903 0
0.8381564 1.207711 0.51977193 0
0.84329087 1.2196522 0.62267697 0
1.0343068 1.7139281 -0.050033204 0
0.89954102 1.3892984 0.31675321 0
0.85025913 1.2705861 0.3684617 0
0.8399241 1.2456906 0.44592091 0
0.83841598 1.2420579 0.53565276 0
0.84170264 1.2499748 0.63887542 0
1.0174325 1.7249489 -0.050170064 0
0.88117969 1.3847009 0.31389815 0
0.85086375 1.3089964 0.38037083 0
0.8390004 1.2793715 0.45868954 0
0.83865088 1.2784986 0.5525806 0
0.84114403 1.2847246 0.6578334 0
0.99718171 1.727497 -0.049990181 0
0.86591685 1.387356 0.31310377 0
0.84620738 1.3362838 0.38825291 0
0.84121436 1.3233455 0.47596958 0
0.84049475 1.321481 0.57293296 0
0.84032547 1.3210423 0.67770076 0
0.97584331 1.7267623 -0.049695849 0
0.84925628 1.3860309 0.31128219 0
0.84568763 1.3764254 0.40068123 0
0.84033602 1.3620205 0.49081606 0
0.84127659 1.3645523 0.59322548 0
0.84151298 1.3651886 0.70243466 0
0.95869768 1.7371559 -0.049834941 0
0.83181542 1.3819945 0.30879119 0
0.83829588 1.4001342 0.40725061 0
0.8413946 1.408808 0.50916755 0
0.84292209 1.4130837 0.6163227 0
0.94017857 1.7438587 -0.049842283 0
0.81498069 1.3789742 0.30664435 0
0.84231818 1.4586483 0.42606667 0
0.83944273 1.4502679 0.52510214 0
0.83921033 1.4495906 0.63294876 0
0.92160618 1.7504262 -0.049853295 0
1.0300597 2.0799694 0.3507171 0
0.79807651 1.3750727 0.3043268 0
0.84379232 1.5139832 0.44367361 0
0.83756012 1.4950463 0.54242796 0
0.83670181 1.4924383 0.65287066 0
0.90399301 1.7600727 -0.049988296 0
1.0025301 2.0726867 0.34794456 0
0.78733391 1.389966 0.30710322 0
0.83782166 1.550141 0.4545148 0
0.84015787 1.5575527 0.56739157 0
0.8395288 1.5555569 0.68336451 0
0.88420963 1.7628602 -0.049875308 0
0.98206073 2.0874991 0.34940979 0
0.76851898 1.3790354 0.3030239 0
0.83961815 1.6149199 0.47528636 0
0.83706397 1.606446 0.58635962 0
0.86379957 1.7631927 -0.049680803 0
0.95934159 2.0952461 0.34959227 0
0.75370282 1.380555 0.30232772 0
0.83969927 1.6794329 0.49588284 0
0.84013051 1.6809318 0.61630207 0
0.84885943 1.7829709 -0.050216351 0
0.73688841 1.3745345 0.047096618 0
0.73858064 1.3807071 0.13039838 0
0.73795921 1.3784404 0.21433416 0
0.73997271 1.385785 0.30266494 0
0.83550501 1.7342578 0.51306593 0
0.8348 1.7316862 0.63593662 0
0.82878935 1.7845778 -0.050086685 0
0.72234094 1.3761873 0.047019467 0
0.72380102 1.3817888 0.13010037 0
0.72479302 1.3855947 0.21496728 0
0.72405195 1.3827516 0.300868 0
0.83110791 1.793473 0.53172034 0
0.82815093 1.7821286 0.65540195 0
0.80905163 1.7871611 -0.050002631 0
0.71097666 1.3904974 0.047414787 0
0.70813346 1.3789982 0.12939525 0
0.70792872 1.37817 0.21292083 0
0.70956397 1.3847839 0.30046076 0
0.82710463 1.8601762 0.55290204 0
0.82486403 1.8511143 0.68275148 0
0.78925663 1.7892529 -0.049909934 0
0.69443762 1.383921 0.047048394 0
0.69579399 1.3897191 0.13020527 0
0.69429493 1.383311 0.21324714 0
0.69300848 1.3778118 0.29774326 0
0.81896102 1.9162332 0.57040113 0
0.77318078 1.8079087 -0.050432205 0
0.68066519 1.388692 0.04710551 0
0.68042612 1.387609 0.12961806 0
0.67995292 1.3854647 0.21305259 0
0.67748827 1.3742965 0.29599103 0
0.80564564 1.9550167 0.58200163 0
0.7529301 1.8082747 -0.050293628 0
0.66531128 1.386052 0.046898585 0
0.6644001 1.3816611 0.12863244 0
0.6650548 1.3848161 0.2123757 0
0.66428453 1.3811042 0.29698423 0
0.79180646 1.9956144 0.59424531 0
0.73023385 1.7955663 -0.049689159 0
0.6497559 1.381623 0.046634141 0
0.65047127 1.3853024 0.12872118 0
0.65072936 1.3866299 0.21218741 0
0.65022206 1.3840208 0.29700688 0
0.77606219 2.0312872 0.60484904 0
0.7138533 1.8153064 -0.050273806 0
0.6343472 1.3769702 0.046369299 0
0.63599312 1.3860445 0.12851223 0
0.63498032 1.3804605 0.21056937 0
0.63805306 1.3974015 0.29978871 0
0.76405305 2.0920694 0.62398571 0
0.69223523 1.8064476 -0.0498293 0
0.6213491 1.3855203 0.046590049 0
0.6209901 1.3833888 0.12795331 0
0.6221444 1.3902432 0.21190849 0
0.62241298 1.3918377 0.297703 0
0.74607348 2.1261432 0.63412213 0
0.67307901 1.8114022 -0.049894582 0
0.60749614 1.3896009 0.046654798 0
0.60594749 1.3796408 0.12729727 0
0.60763025 1.3904632 0.21152923 0
0.60758114 1.3901474 0.29667237 0
0.72804242 2.1649039 0.6458931 0
0.65435368 1.8197265 -0.050089981 0
0.59238613 1.3852062 0.04642009 0
0.59190679 1.3818451 0.12730913 0
0.59365171 1.3940808 0.21180288 0
0.59372282 1.3945794 0.29726958 0
0.70765847 2.1935034 0.65430444 0
0.63399035 1.8165252 -0.049878627 0
0.57832927 1.3876578 0.046439093 0
0.57705885 1.377869 0.12667039 0
0.57660502 1.3743725 0.2078661 0
0.57612944 1.370708 0.29062906 0
0.68863291 2.2375457 0.66796917 0
0.61502254 1.8239957 -0.050060403 0
0.56329918 1.3819255 0.046170261 0
0.5631609 1.3807439 0.1267941 0
0.56430459 1.3905187 0.2104845 0
0.56311995 1.380394 0.29267523 0
0.6684289 2.2804499 0.68131274 0
0.59452224 1.8180329 -0.049768329 0
0.55221057 1.4121925 0.13002405 0
0.55258977 1.4158299 0.21478947 0
0.55220062 1.4120972 0.30040854 0
0.64462519 2.298605 0.68644559 0
0.57507449 1.8213428 -0.049818289 0
0.55216151 1.5710496 0.1470149 0
0.55312401 1.5815632 0.24454701 0
0.5513615 1.5623102 0.33853024 0
0.6216321 2.3299222 0.6960699 0
0.55577391 1.8270069 -0.049961284 0
0.60272318 2.4223461 0.23863599 0
0.59977192 2.384923 0.38962594 0
0.59749097 2.355999 0.54129779 0
0.53551859 1.8198236 -0.049653187 0
0.57365876 2.3959296 0.39126512 0
0.57341057 2.3921802 0.55006033 0
0.51680946 1.8375006 -0.050243232 0
0.54891491 2.4368565 0.39836645 0
0.5481649 2.4228556 0.55748779 0
0.49642226 1.8244447 -0.049743272 0
0.52169305 2.441607 0.39899051 0
0.52190351 2.4467483 0.56326056 0
0.47711995 1.8373327 -0.050179269 0
0.45625883 1.1012287 0.35262784 0
0.45648932 1.1093615 0.42895198 0
0.4572551 1.8342228 -0.050052635 0
0.4458243 1.1080911 0.35537329 0
0.44583979 1.1090758 0.42869157 0
0.43749058 1.8355989 -0.050095104 0
0.43513736 1.0883647 0.41827866 0
0.43511957 1.0827098 0.4913159 0
0.4177289 1.8331695 -0.050010584 0
0.4247179 1.0930129 0.42062083 0
0.42487499 1.0763757 0.48757854 0
0.39818835 1.8232683 -0.049668115 0
0.41398463 1.1064757 0.35474584 0
0.41421977 1.0958056 0.42210066 0
0.41463825 1.0768163 0.48793536 0
0.37799707 1.8390408 -0.050251417 0
0.35240629 2.5778208 0.42347768 0
0.35233128 2.5799856 0.59714144 0
0.40478045 1.0658323 0.48158938 0
0.35822359 1.8371884 -0.050214216 0
0.32206771 2.6023581 0.42812321 0
0.32228395 2.5977819 0.60199177 0
0.39558002 1.046611 0.47042271 0
0.33876351 1.8304887 -0.050012529 0
0.29232356 2.6060398 0.42907315 0
0.29292718 2.5959597 0.60192811 0
0.31924951 1.8264555 -0.04991487 0
0.26063362 2.6346517 0.43459964 0
0.26112986 2.6278095 0.6105724 0
0.29901019 1.8317103 -0.050158706 0
0.22958842 2.6465502 0.43717909 0
0.22970267 2.6452091 0.61562824 0
0.27932534 1.8295038 -0.050144322 0
0.19823533 2.6578481 0.43972373 0
0.19710851 2.6693587 0.62252218 0
0.25971577 1.8266805 -0.050116662 0
0.16683392 2.6663082 0.44182852 0
0.16645767 2.6697094 0.62342209 0
0.34629411 1.0440347 0.4711979 0
0.2411001 1.8159356 -0.049812879 0
0.13455735 2.6794221 0.44485405 0
0.13444395 2.680341 0.6270653 0
0.22071312 1.8197615 -0.050042018 0
0.10290809 2.6847632 0.44654399 0
0.10238285 2.6886196 0.63021278 0
0.20190854 1.8118525 -0.049857259 0
0.070393786 2.6942749 0.44907013 0
0.070496842 2.6935835 0.63261509 0
0.18147622 1.8147908 -0.050072994 0
0.034471199 2.7225966 0.45511276 0
0.036817953 2.7081046 0.63759613 0
0.16049738 1.8199531 -0.050379112 0
0.0014162527 2.7295947 0.45734733 0
0.0014930235 2.7291558 0.64438915 0
0.1402293 1.820146 -0.05051503 0
-0.028424961 2.717772 0.45620981 0
-0.028686566 2.7191641 0.643255 0
0.12578468 1.7908574 -0.049587008 0
-0.089506343 2.8621869 0.10059951 0
-0.089281514 2.861068 0.29064417 0
-0.061674431 2.7236898 0.45840189 0
-0.063078091 2.7306747 0.64781237 0
0.10237397 1.8065606 -0.050305773 0
-0.11447187 2.8194289 0.099285901 0
-0.11423577 2.8183262 0.2866914 0
-0.094420508 2.725771 0.45996937 0
-0.095363095 2.7301733 0.64936078 0
0.085741594 1.7901407 -0.04986129 0
-0.14066119 2.7862117 0.098329335 0
-0.14201273 2.7921579 0.28458843 0
-0.12880965 2.7340703 0.46276757 0
-0.12789018 2.7300251 0.65111226 0
0.064792618 1.7929906 -0.050130717 0
-0.17519714 2.7905509 0.098761037 0
-0.17344774 2.7832794 0.28442886 0
-0.16183539 2.7350106 0.4642894 0
-0.16406907 2.7442954 0.65675992 0
0.047331795 1.7813191 -0.049875829 0
-0.20911117 2.7911832 0.099073566 0
-0.21079905 2.7978301 0.28691041 0
-0.19639011 2.7410882 0.4668493 0
-0.1970063 2.7435148 0.65858358 0
0.030905562 1.7664624 -0.049510483 0
-0.25117153 2.8214087 0.10049654 0
-0.25217348 2.825156 0.29087374 0
-0.22868009 2.7372923 0.46765566 0
-0.22708596 2.7313306 0.65751112 0
0.0071646138 1.7785851 -0.050151981 0
-0.2635361 2.7421956 0.47017056 0
-0.25853884 2.724407 0.65792918 0
-0.0089326333 1.7631456 -0.049781162 0
-0.29664481 2.7399061 0.47142485 0
-0.29580289 2.7370479 0.66365749 0
-0.027861847 1.7577692 -0.049792413 0
-0.32558912 2.7234967 0.47009778 0
-0.3283388 2.7324159 0.66492158 0
-0.049885646 1.7619632 -0.050171599 0
-0.36068481 2.7267704 0.47256368 0
-0.36005002 2.7247999 0.66550058 0
-0.065143302 1.7451761 -0.049772583 0
-0.39442271 2.7249074 0.47414663 0
-0.39552832 2.7281969 0.66915351 0
-0.083441988 1.7379156 -0.049739424 0
-0.42841458 2.7230852 0.47582537 0
-0.42368287 2.7095723 0.66699016 0
-0.10556908 1.7412213 -0.050116334 0
-0.45579767 2.7024252 0.47397798 0
-0.45429128 2.6982908 0.66690689 0
-0.12389739 1.7337364 -0.050093722 0
-0.48723465 2.6931839 0.47439015 0
-0.48715127 2.6929638 0.66855252 0
-0.13791622 1.7153252 -0.049660683 0
-0.52258688 2.6937296 0.47677746 0
-0.51686382 2.679173 0.66799927 0
-0.16389115 1.7270355 -0.050393544 0
-0.54715604 2.6669347 0.47393855 0
-0.54659224 2.6655521 0.66759276 0
-0.17760856 1.7083999 -0.049966827 0
-0.578408 2.6569612 0.47443828 0
-0.58002341 2.660784 0.66973954 0
-0.20257814 1.7162294 -0.050575763 0
-0.61378837 2.6562376 0.47683889 0
-0.61350501 2.6555901 0.6718964 0
-0.20939966 1.6829067 -0.049587838 0
-0.64333129 2.6417894 0.47662431 0
-0.6430788 2.6412313 0.67161691 0
-0.23580439 1.6930839 -0.050311975 0
-0.66804302 2.6170719 0.47443762 0
-0.6716398 2.6247606 0.67084545 0
-0.2506305 1.6781193 -0.050056782 0
-0.69993246 2.6078978 0.47541311 0
-0.70082188 2.6097383 0.67058128 0
-0.26913315 1.6709208 -0.050117247 0
-0.72738397 2.5895107 0.47461861 0
-0.72657144 2.5878818 0.6684714 0
-0.28629917 1.6610252 -0.050079137 0
-0.75749266 2.5765173 0.47498289 0
-0.75497246 2.5716209 0.66804612 0
-0.30398822 1.6521658 -0.050091356 0
-0.78427923 2.5571449 0.47412431 0
-0.78463161 2.5578089 0.66842824 0
-0.32297444 1.6456534 -0.050208203 0
-0.81064808 2.5372477 0.473221 0
-0.80750608 2.5315032 0.66528821 0
-0.33492261 1.6264756 -0.049816642 0
-0.61604357 2.1254115 0.082262166 0
-0.83927882 2.5216112 0.4732618 0
-0.83813679 2.5195844 0.66642284 0
-0.35220236 1.6170319 -0.049830161 0
-0.62080574 2.0800219 0.08093977 0
-0.86432469 2.499774 0.47208488 0
-0.86350167 2.4983554 0.66493297 0
-0.36822522 1.6054586 -0.049764246 0
-0.61871541 2.0249672 0.079208001 0
-0.88802564 2.4759948 0.47055721 0
-0.8891207 2.4778287 0.66373521 0
-0.38926226 1.6021303 -0.050051704 0
-0.61409307 1.9681165 0.077386424 0
-0.91233277 2.4535999 0.46937361 0
-0.90830588 2.4470448 0.65955311 0
-0.40068007 1.5831913 -0.049693368 0
-0.61016762 1.9147668 0.075695708 0
-0.93810606 2.4338257 0.46880463 0
-0.94009435 2.4369726 0.66166073 0
-0.41814333 1.5740176 -0.049753912 0
-0.61826479 1.8821081 0.074869864 0
-0.96041358 2.4088521 0.46718237 0
-0.96062684 2.4091804 0.65851593 0
-0.44318783 1.5761173 -0.050308291 0
-0.61117136 1.8277378 0.073109411 0
-0.97793853 2.3771136 0.46414012 0
-0.9825412 2.3840079 0.65622717 0
-0.45725346 1.5615152 -0.05015799 0
-0.61647034 1.7936213 0.072206698 0
-1.0027585 2.3567517 0.46360764 0
-1.0024474 2.356298 0.65321863 0
-0.47022146 1.545534 -0.049953822 0
-0.61962461 1.7575603 0.071213916 0
-1.0253922 2.3334074 0.46248105 0
-1.0287164 2.338125 0.6532377 0
-0.48866093 1.5373539 -0.05009874 0
-0.6184293 1.7166767 0.070001267 0
-0.61762047 1.715559 0.19851065 0
-1.0444392 2.3053663 0.46036178 0
-1.0409435 2.3005357 0.64724594 0
-0.07500948 0.96574199 0.4391712 0
-0.49765682 1.5162874 -0.04968214 0
-0.62203002 1.6836761 0.06912718 0
-0.61743855 1.6774966 0.19520032 0
-1.0683507 2.2843599 0.45985675 0
-1.0696751 2.2861423 0.64861941 0
-0.090100601 0.96777493 0.44445658 0
-0.51747918 1.5098944 -0.049925439 0
-0.61637032 1.6395453 0.067746922 0
-0.62280416 1.6479805 0.19301291 0
-1.0851469 2.254133 0.45732346 0
-1.0855833 2.2547052 0.64465261 0
-0.097621635 0.95944166 0.44338882 0
-0.53268826 1.4973251 -0.049902376 0
-0.62065053 1.6096851 0.066996798 0
-0.61928487 1.6079406 0.18937667 0
-1.0941042 2.2144587 0.45264941 0
-1.1000426 2.2220442 0.6403147 0
-0.1114253 0.95921797 0.44752344 0
-0.54809201 1.485019 -0.049899857 0
-0.61822808 1.5723211 0.065897882 0
-0.61941493 1.5737983 0.1865104 0
-1.1119252 2.1868517 0.45074546 0
-1.1068933 2.1805882 0.63311356 0
-0.12047447 0.95274109 0.44779775 0
-0.5605222 1.4691035 -0.049739249 0
-0.61575341 1.5361069 0.064839296 0
-0.61941862 1.5405533 0.18373942 0
-1.1311067 2.1613052 0.44935542 0
-1.1329281 2.1635149 0.63392758 0
-0.13608558 0.95420027 0.45329431 0
-0.57995915 1.4616439 -0.049979568 0
-0.61585999 1.5040963 0.063964464 0
-0.62384343 1.5135366 0.1818154 0
-1.1442803 2.1289473 0.4463985 0
-1.1444653 2.1291661 0.62908703 0
-0.15051122 0.95382649 0.45777673 0
-0.58983612 1.4429009 -0.049700741 0
-0.61978233 1.4774208 0.063332252 0
-0.61700118 1.4742149 0.1781275 0
-1.1570351 2.0967293 0.44348186 0
-1.159539 2.0996156 0.62586272 0
-0.60173774 1.4267243 -0.04954733 0
-0.63510895 1.4642278 0.063339569 0
-0.63615346 1.4654016 0.17877451 0
-1.1681721 2.0632987 0.44027817 0
-1.1723675 2.0680134 0.62196594 0
-0.62450147 1.4226056 -0.049982157 0
-0.6631484 1.4649521 0.064028941 0
-0.65434778 1.4553092 0.17927775 0
-1.1815883 2.0330217 0.43784153 0
-1.1786391 2.0297902 0.61579257 0
-0.63975537 1.4100101 -0.050021559 0
-0.50745541 1.2686614 0.055109628 0
-0.6946069 1.4686133 0.18326449 0
-1.1923908 2.0004432 0.43484899 0
-1.1890707 1.9968959 0.61143571 0
-0.64446425 1.3863841 -0.049525026 0
-0.50111008 1.2370396 0.05413441 0
-0.71968627 1.4647495 0.18481731 0
-1.2029546 1.9682125 0.43194082 0
-1.2063545 1.9717543 0.60981387 0
-0.66785026 1.3822265 -0.050000548 0
-0.51488346 1.2268324 0.054215852 0
-0.74486828 1.4604667 0.18637364 0
-1.21334 1.9363725 0.42912874 0
-1.2088268 1.9317876 0.60294169 0
-0.68259466 1.369032 -0.050038565 0
-0.52131009 1.2092628 0.053933594 0
-0.76683724 1.4524831 0.18743286 0
-1.2241039 1.9054536 0.42655003 0
-1.2236698 1.9050235 0.60077918 0
-0.69086933 1.3495464 -0.049763281 0
-0.54390168 1.207581 0.054468185 0
-0.80249524 1.4573729 0.19053981 0
-1.2210377 1.8616695 0.42063287 0
-1.2260084 1.8664709 0.59432751 0
-0.7108587 1.3413575 -0.050077893 0
-0.57092452 1.2095515 0.055214848 0
-0.84364235 1.4664282 0.19441137 0
-1.2304305 1.8307493 0.41800961 0
-1.2208077 1.8216853 0.58548063 0
-0.72613215 1.3285316 -0.050165314 0
-0.87584198 1.4660294 0.069422312 0
-0.86734092 1.4582218 0.19567566 0
-1.2368437 1.7975836 0.41478282 0
-1.2290577 1.7904327 0.58159137 0
-0.2364182 0.87876439 0.38206372 0
-0.74027503 1.3146065 -0.050205365 0
-0.9051404 1.4622401 0.070106268 0
-0.90297091 1.4602973 0.198662 0
-1.2336153 1.7563828 0.40935975 0
-1.2282609 1.751588 0.57478297 0
-0.23065402 0.85825109 0.37459013 0
-0.74381781 1.2913853 -0.049750961 0
-0.94171762 1.4641604 0.071129978 0
-1.2422426 1.7265316 0.40695924 0
