# .PCD v0.7 - Point Cloud Data file format
VERSION 0.7
FIELDS x y z intensity
SIZE 4 4 4 4
TYPE F F F F
COUNT 1 1 1 1
WIDTH 1362
HEIGHT 1
VIEWPOINT 0 0 0 1 0 0 0
POINTS 1362
DATA ascii
-1.7831038 0.2885251 -0.049711119 0
-1.3661695 0.61705154 0.34856352 0
-1.2531008 0.70614481 0.37271702 0
-1.2435101 0.71370178 0.4430486 0
-1.2457277 0.71195453 0.52570331 0
-1.7809553 0.26499462 -0.050175253 0
-1.3642149 0.60195935 0.35118771 0
-1.246887 0.69682741 0.37311295 0
-1.2347112 0.70667243 0.44180191 0
-1.2401749 0.70225459 0.52671826 0
-1.7631241 0.25404537 -0.049930446 0
-1.3429494 0.60262692 0.34557348 0
-1.2436631 0.68499601 0.37518427 0
-1.2475678 0.68175656 0.45467785 0
-1.2428079 0.68570548 0.53414518 0
-1.7546403 0.23536301 -0.050127652 0
-1.3409967 0.58741277 0.34833249 0
-1.248878 0.66581452 0.38194662 0
-1.2394553 0.67383415 0.45412037 0
-1.2426151 0.67114484 0.53961301 0
-1.7380855 0.2235384 -0.049955614 0
-1.3385133 0.57238221 0.35097167 0
-1.2417202 0.65688664 0.38211539 0
-1.2390971 0.65917671 0.45877299 0
-1.2377338 0.66036695 0.54159373 0
-1.729733 0.20452726 -0.05018181 0
-1.3254094 0.56659091 0.34898192 0
-1.2540374 0.63050318 0.39317191 0
-1.2398778 0.64318275 0.46436653 0
-1.2397497 0.64329755 0.54919493 0
-1.7146081 0.19151545 -0.050093886 0
-1.3194343 0.55445415 0.35022193 0
-1.2434521 0.62423843 0.39166787 0
-1.2405661 0.62688899 0.47009838 0
-1.2370579 0.63011098 0.55326605 0
-1.7023765 0.17585909 -0.050154805 0
-1.3073046 0.54798275 0.34873328 0
-1.2504895 0.60149771 0.40021402 0
-1.239773 0.6115917 0.47502056 0
-1.2420167 0.60947835 0.56375301 0
-1.6845084 0.16558313 -0.049946427 0
-1.3004473 0.53657204 0.34970278 0
-1.235818 0.59900165 0.39653176 0
-1.2396903 0.59526122 0.48063037 0
-1.2454495 0.58969796 0.57332307 0
-1.6826164 0.13968408 -0.05054472 0
-1.2930608 0.52557957 0.35050341 0
-1.2475951 0.57061821 0.4082354 0
-1.2455242 0.57266957 0.49062145 0
-1.2422009 0.57596165 0.57764244 0
-1.6531857 0.14115429 -0.049765736 0
-1.275165 0.52517378 0.34639558 0
-1.249457 0.55128974 0.41444746 0
-1.2457062 0.55510002 0.49691167 0
-1.2347565 0.5662235 0.57861573 0
-1.643892 0.12243509 -0.050013684 0
-1.3994424 0.37709975 0.049411092 0
-1.3997167 0.37681395 0.13672018 0
-1.3979815 0.3786217 0.22491506 0
-1.4004711 0.37602806 0.31660753 0
-1.2737318 0.50806338 0.35014516 0
-1.2366441 0.54670089 0.41211209 0
-1.2371347 0.54618984 0.4971191 0
-1.242812 0.54027528 0.59298027 0
-1.6306007 0.10772657 -0.050068356 0
-1.3756574 0.38010669 0.048749004 0
-1.3763149 0.37940437 0.13478796 0
-1.3732162 0.38271499 0.22130661 0
-1.3736019 0.38230288 0.31072962 0
-1.2628268 0.50065446 0.34943825 0
-1.2344757 0.53094453 0.41622928 0
-1.2358816 0.52944261 0.50276935 0
-1.2348307 0.53056532 0.59390342 0
-1.6133664 0.097276442 -0.04992472 0
-1.3507804 0.38499951 0.048017886 0
-1.3515639 0.38414103 0.13260865 0
-1.3577838 0.37732577 0.22013128 0
-1.3645946 0.36986291 0.31150064 0
-1.2505361 0.49484015 0.34808338 0
-1.2405062 0.50583011 0.42556041 0
-1.2394935 0.50693983 0.51226449 0
-1.2396939 0.50672019 0.60624629 0
-1.5983032 0.084534042 -0.049902651 0
-1.3272145 0.38919103 0.047343489 0
-1.3375936 0.37752676 0.13213161 0
-1.3351834 0.38023537 0.21701279 0
-1.3309 0.38504922 0.30286732 0
-1.2483476 0.47782373 0.3518016 0
-1.2405288 0.48661077 0.43147814 0
-1.2489288 0.47717071 0.52648985 0
-1.2405497 0.48658729 0.61545587 0
-1.5884306 0.065827362 -0.050171737 0
-1.3201491 0.37508416 0.04755535 0
-1.3320514 0.36136401 0.13304339 0
-1.3293465 0.36448205 0.21845235 0
-1.320068 0.37517774 0.30293527 0
-1.2493306 0.45671892 0.35729232 0
-1.2398502 0.46764737 0.43719113 0
-1.2475041 0.4588244 0.53291541 0
-1.2413266 0.46594542 0.62495649 0
-1.5706992 0.056114789 -0.05002328 0
-1.3134054 0.36036193 0.047797926 0
-1.3061643 0.36892456 0.13061644 0
-1.3115263 0.36258399 0.21662162 0
-1.3055867 0.36960745 0.30161116 0
-1.2439209 0.44252658 0.35970765 0
-1.2401725 0.44695908 0.44378361 0
-1.241338 0.4455809 0.53594106 0
-1.2364036 0.45141578 0.62960166 0
-1.5486597 0.051788565 -0.049637541 0
-1.3009353 0.35231405 0.047733143 0
-1.3043205 0.34820741 0.13219854 0
-1.2999117 0.3535558 0.21652897 0
-1.3017085 0.35137618 0.30454752 0
-1.2500654 0.41402656 0.36829638 0
-1.2283736 0.44034183 0.44275576 0
-1.2310896 0.437047 0.53593224 0
-1.2397135 0.42658496 0.64216381 0
-1.5401609 0.031036491 -0.050020676 0
-1.2926791 0.33909005 0.047913279 0
-1.2865648 0.34670079 0.13111967 0
-1.2859193 0.34750438 0.21578263 0
-1.2934567 0.33812219 0.30584151 0
-1.2476534 0.395136 0.37266457 0
-1.2408956 0.40354759 0.45784453 0
-1.2427908 0.40118861 0.55354381 0
-1.2404157 0.40414506 0.65274882 0
-1.525131 0.018183822 -0.050046772 0
-1.2771273 0.33497542 0.047683373 0
-1.2836213 0.32668006 0.13260897 0
-1.2796165 0.33179569 0.21729605 0
-1.284013 0.32617968 0.3067317 0
-1.254864 0.36341381 0.38242444 0
-1.2456329 0.37520522 0.46825781 0
-1.2357794 0.38779175 0.55661589 0
-1.2403568 0.38194472 0.66304296 0
-1.502597 0.015133852 -0.049641006 0
-1.2736626 0.3152774 0.048164207 0
-1.2779541 0.30965102 0.13368468 0
-1.2750913 0.31340426 0.21942164 0
-1.2758862 0.31236213 0.30825338 0
-1.2524126 0.3431372 0.38726369 0
-1.2363653 0.36417586 0.46952498 0
-1.2374289 0.36278141 0.5670225 0
-1.2391813 0.36048394 0.67268765 0
-1.4930243 -0.0048856786 -0.050006468 0
-1.2726982 0.29164189 0.048817646 0
-1.2768719 0.28602463 0.13564329 0
-1.2653898 0.30147785 0.22008771 0
-1.2635956 0.30389255 0.30809373 0
-1.2504013 0.32165039 0.3925724 0
-1.2429657 0.33165753 0.48192522 0
-1.2411848 0.33405423 0.57963604 0
-1.2390196 0.33696842 0.68377161 0
-1.4768019 -0.016160971 -0.049988598 0
-1.2774458 0.25932282 0.04984837 0
-1.2782428 0.25822145 0.13814002 0
-1.268471 0.27172488 0.22474357 0
-1.2759291 0.2614187 0.3186934 0
-1.2506325 0.29637516 0.39939913 0
-1.2393149 0.31201458 0.48758999 0
-1.2430434 0.30686235 0.59115767 0
-1.2361742 0.31635463 0.69263244 0
-1.4599102 -0.02647019 -0.049937658 0
-1.1725807 0.38129485 0.044128817 0
-1.1740977 0.37914205 0.12105975 0
-1.1706656 0.38401264 0.19801196 0
-1.3358846 0.14954138 0.35081229 0
-1.2385314 0.28770071 0.39940804 0
-1.2416161 0.28332287 0.49781138 0
-1.2399688 0.28566068 0.59889668 0
-1.4485281 -0.044753317 -0.050241627 0
-1.1556692 0.38217592 0.043758325 0
-1.1577195 0.37918699 0.12005097 0
-1.1552708 0.38275671 0.19661298 0
-1.315961 0.14850283 0.34812808 0
-1.2378221 0.26241368 0.40618089 0
-1.2423882 0.25575703 0.50736493 0
-1.2399012 0.25938261 0.60967278 0
-1.4323411 -0.056230906 -0.05025709 0
-1.1393889 0.38257837 0.043420661 0
-1.1392573 0.38277543 0.11861955 0
-1.1421417 0.37845504 0.19592838 0
-1.2980675 0.14489591 0.34633151 0
-1.2379459 0.23495114 0.41377088 0
-1.2429333 0.22748053 0.51718748 0
-1.2406453 0.2309078 0.6216808 0
-1.4098274 -0.057994369 -0.049867593 0
-1.126462 0.37825155 0.043295842 0
-1.1298814 0.37298745 0.11894388 0
-1.1253738 0.3799268 0.19404346 0
-1.285112 0.13400722 0.34683374 0
-1.2376794 0.20703053 0.42148018 0
-1.2351826 0.21087432 0.52116483 0
-1.2374203 0.20742929 0.63060445 0
-1.3980057 -0.076172478 -0.050186396 0
-1.1073657 0.38385051 0.04275975 0
-1.1079723 0.38289046 0.11677755 0
-1.1048555 0.38782358 0.19084805 0
-1.2709885 0.12486958 0.34685299 0
-1.239696 0.1743989 0.4309836 0
-1.2384181 0.17642176 0.53389889 0
-1.2367105 0.17912447 0.64233792 0
-1.3708655 -0.069850333 -0.049482442 0
-1.093608 0.38147771 0.042571921 0
-1.0936104 0.38147384 0.1160906 0
-1.0894878 0.38818467 0.18932718 0
-1.2576656 0.11441981 0.34731841 0
-1.237064 0.14795566 0.43798763 0
-1.2372903 0.14758754 0.54378492 0
-1.2431387 0.13806713 0.66147465 0
-1.3612757 -0.091958173 -0.04998019 0
-1.0786042 0.38144612 0.042295381 0
-1.079103 0.38061088 0.1153622 0
-1.0794293 0.38006425 0.18964006 0
-1.2514505 0.091971509 0.35139582 0
-1.2389538 0.11290049 0.4482891 0
-1.2375027 0.11533069 0.55525428 0
-1.2364211 0.11714219 0.66868865 0
-1.3469857 -0.10667039 -0.050174065 0
-1.0623051 0.38403183 0.041920651 0
-1.0606349 0.38691097 0.1137719 0
-1.056312 0.39436227 0.1853029 0
-1.2530125 0.055310603 0.35965884 0
-1.244352 0.070238821 0.46143213 0
-1.2369789 0.082947724 0.56669921 0
-1.2471464 0.065422051 0.69371253 0
-1.3255713 -0.10902286 -0.049867488 0
-1.0476809 0.38417947 0.041656915 0
-1.051157 0.37801009 0.11409674 0
-1.0477802 0.38400316 0.18616103 0
-1.2513977 0.02262103 0.36669472 0
-1.2375112 0.047267076 0.46693718 0
-1.2386305 0.045280453 0.58057773 0
-1.3107796 -0.12303925 -0.050048668 0
-1.0366373 0.37816405 0.041653305 0
-1.0359108 0.37949228 0.11316215 0
-1.0366852 0.37807655 0.18612428 0
-1.2497076 -0.011383777 0.3740707 0
-1.2401036 0.0061746784 0.47930881 0
-1.2379735 0.010069126 0.5931921 0
-1.2924572 -0.13068259 -0.049978614 0
-1.0232176 0.37662721 0.041474342 0
-1.0236491 0.37581396 0.11288508 0
-1.0222557 0.37843966 0.1848322 0
-1.2394855 -0.030871635 0.37721077 0
-1.2422454 -0.0360719 0.49202043 0
-1.2428663 -0.037241701 0.61139786 0
-1.2730306 -0.13607919 -0.04982809 0
-1.0114256 0.37219894 0.041419443 0
-1.0060564 0.38263088 0.11135998 0
-1.0029241 0.38871688 0.18157451 0
-1.2391219 -0.070197113 0.38605979 0
-1.2430964 -0.077919252 0.50449038 0
-1.237258 -0.066575535 0.62108606 0
-1.2571177 -0.14828837 -0.049960103 0
-0.9992137 0.36869496 0.041333955 0
-0.98711532 0.3929469 0.10945088 0
-0.98832625 0.39051956 0.18009444 0
-1.2419536 -0.11789096 0.39724073 0
-1.2369965 -0.10795427 0.51248652 0
-1.2410672 -0.11611403 0.64009506 0
-1.2414925 -0.16131401 -0.050131656 0
-0.9808659 0.37802261 0.040746313 0
-0.97831756 0.38329607 0.10996515 0
-0.97873807 0.38242596 0.18064252 0
-1.237819 -0.15371203 0.40497944 0
-1.241248 -0.16080809 0.52889431 0
-1.2184858 -0.15885365 -0.049699608 0
-0.96138537 0.39074516 0.040037446 0
-0.96636158 0.38010764 0.10972284 0
-0.96601528 0.38084787 0.17991422 0
-1.2408133 -0.20658231 0.41748959 0
-1.2427403 -0.2107017 0.54409873 0
-1.2073497 -0.18189216 -0.050280627 0
-0.95274901 0.38071281 0.040233936 0
-0.94965094 0.38755882 0.10824465 0
-0.95812076 0.36884248 0.18128599 0
-1.242628 -0.25984883 0.43002909 0
-1.2387776 -0.25134051 0.55583024 0
-1.1838913 -0.17779338 -0.049806446 0
-0.93969834 0.3804208 0.040054038 0
-0.9400726 0.37956524 0.10861104 0
-0.93946028 0.38096499 0.1779203 0
-1.2441425 -0.31552494 0.44316438 0
-1.2425612 -0.31191039 0.57475317 0
-1.1663342 -0.18680966 -0.049854565 0
-0.92617929 0.3815583 0.039826076 0
-0.92498255 0.38439071 0.107494 0
-0.9261297 0.38167572 0.17685287 0
-1.2406551 -0.36270308 0.45387092 0
-1.1490084 -0.19649148 -0.049936648 0
-0.91078544 0.38771445 0.039412368 0
-0.91130179 0.38644826 0.10672606 0
-0.91391951 0.38002861 0.17628291 0
-1.2412094 -0.42260039 0.4680393 0
-1.1341752 -0.21267974 -0.050276313 0
-0.90416819 0.37233979 0.039834112 0
-0.9007507 0.38103211 0.10684488 0
-0.90114284 0.38003469 0.17542528 0
-1.2378929 -0.4764843 0.48048726 0
-1.1165379 -0.2221489 -0.050365001 0
-0.88919765 0.378178 0.039447226 0
-0.88840199 0.380279 0.10644259 0
-0.88516062 0.38883835 0.17290622 0
-1.239531 -0.54693103 0.49740601 0
-1.0914869 -0.21146297 -0.049695905 0
-0.87238437 0.38986504 0.038847048 0
-0.87887806 0.37204307 0.10691584 0
-0.87566966 0.38084865 0.17366086 0
-1.0764102 -0.22784257 -0.050065517 0
-0.86637336 0.37197858 0.039376207 0
-0.86029953 0.38932401 0.10449516 0
-0.86302519 0.38154018 0.17277621 0
-1.0574597 -0.23352492 -0.050037831 0
-0.8498919 0.38406813 0.038776983 0
-0.84703833 0.39255857 0.10370382 0
-0.8520304 0.3777054 0.17278685 0
-1.0366403 -0.23335171 -0.049799599 0
-0.84234047 0.36980897 0.03917627 0
-0.83864349 0.38128537 0.10457262 0
-0.83736128 0.38526571 0.17066461 0
-1.0209938 -0.24939847 -0.05017807 0
-0.82674873 0.38066757 0.038639188 0
-0.82677579 0.38057971 0.10426152 0
-0.82669288 0.38084877 0.17084596 0
-1.0056722 -0.26750386 -0.050639104 0
-0.81436348 0.38197458 0.038466901 0
-0.81514686 0.3793149 0.104031 0
-0.81644994 0.37489116 0.1713416 0
-0.9823212 -0.25824094 -0.050090775 0
-0.80221176 0.38289279 0.038315438 0
-0.80108184 0.38691497 0.10282809 0
-0.8040421 0.37637728 0.17046526 0
-0.96229517 -0.25992811 -0.049959835 0
-0.7907303 0.38171101 0.038247753 0
-0.78971845 0.38549531 0.10265235 0
-0.7883333 0.3906756 0.16722924 0
-0.94504833 -0.27219737 -0.050228406 0
-0.77965063 0.37913358 0.10304105 0
-0.78087705 0.37430388 0.16974728 0
-0.92705041 -0.28216767 -0.050419733 0
-0.76681137 0.3838948 0.16745922 0
-0.90329432 -0.2674278 -0.049714137 0
-0.756782 0.37716109 0.16822971 0
-0.886922 -0.2848146 -0.050194331 0
-0.74490416 0.37853867 0.16752547 0
-0.86623251 -0.28245318 -0.049961697 0
-0.73336715 0.37871039 0.16707237 0
-0.84558779 -0.27945828 -0.049716078 0
-0.7220189 0.3782106 0.16677025 0
-0.82827985 -0.29455626 -0.050136171 0
-0.80964887 -0.30335701 -0.050335553 0
-0.78963143 -0.3038305 -0.050242461 0
-0.76886922 -0.29837191 -0.049944881 0
-0.7495892 -0.30323803 -0.050028574 0
-0.73017156 -0.30742502 -0.050096486 0
-0.7097044 -0.30141485 -0.049807299 0
-0.69088489 -0.31237817 -0.050135829 0
-0.67113805 -0.31380188 -0.050131079 0
-0.65078336 -0.30507147 -0.049772061 0
-0.63079274 -0.29874635 -0.049508393 0
-0.61200523 -0.32187223 -0.050305899 0
-0.59193778 -0.31258905 -0.049954314 0
-0.57225102 -0.31769907 -0.050125666 0
-0.55243844 -0.32340026 -0.050326981 0
-0.53270322 -0.3149668 -0.05003256 0
-0.51302755 -0.31165183 -0.049929716 0
-0.49345168 -0.30759573 -0.049809188 0
-0.4737978 -0.30652714 -0.049804203 0
-0.454193 -0.3047235 -0.049781762 0
-0.49576071 0.32315552 0.039316602 0
-0.43379739 -0.31310892 -0.050133027 0
-0.484081 0.32451171 0.039298475 0
-0.41548246 -0.29601347 -0.049580399 0
-0.47407016 0.34397805 0.038636338 0
-0.395062 -0.30284274 -0.049894091 0
-0.4613829 0.33328712 0.039060343 0
-0.37593257 -0.29670691 -0.049751453 0
-0.4479945 0.31919289 0.039613042 0
-0.44149813 0.26366955 0.11319093 0
-0.4427729 0.27456456 0.18390325 0
-0.4418169 0.26639384 0.25977141 0
-0.44186413 0.26679772 0.33678463 0
-0.44170797 0.26546305 0.41821587 0
-0.35549781 -0.30138636 -0.050006602 0
-0.43537495 0.31406593 0.039849877 0
-0.4283455 0.25990415 0.11376566 0
-0.42860612 0.26191211 0.18648085 0
-0.42827401 0.25935322 0.26197734 0
-0.42963618 0.2698487 0.3362754 0
-0.43072772 0.27825898 0.41351444 0
-0.42994255 0.27220935 0.50151151 0
-0.33648473 -0.2947998 -0.049865205 0
-0.42109802 0.29851395 0.040468819 0
-0.41865292 0.28136867 0.11162051 0
-0.42095 0.29747587 0.18031186 0
-0.41945285 0.28697777 0.25529745 0
-0.42015699 0.29191536 0.32942653 0
-0.42143363 0.30086714 0.40475857 0
-0.4190309 0.28401911 0.49639335 0
-0.31603506 -0.29808176 -0.050088722 0
-0.40547982 0.27718931 0.041304033 0
-0.40742305 0.28968745 0.11091416 0
-0.40794414 0.29303896 0.1814491 0
-0.40645975 0.28349191 0.2566658 0
-0.40637955 0.28297609 0.33304384 0
-0.40511423 0.27483809 0.41641408 0
-0.40691352 0.28641039 0.4961037 0
-0.29840231 -0.28366828 -0.04968138 0
-0.39140481 0.26858753 0.041687515 0
-0.39247638 0.27495056 0.11273437 0
-0.38989893 0.25964552 0.18791448 0
-0.39067742 0.26426828 0.26215106 0
-0.3925592 0.27544242 0.33625311 0
-0.39057586 0.2636652 0.42194292 0
-0.39729047 0.30353719 0.4884142 0
-0.27589446 -0.29772484 -0.050314154 0
0.066671215 -2.1863713 0.13084145 0
-0.38454521 0.30129278 0.49061897 0
-0.25866258 -0.28228891 -0.049886148 0
0.11427834 -2.2005336 0.13165224 0
-0.37475601 0.31484461 0.48485941 0
-0.23805715 -0.28458023 -0.050111286 0
0.1614076 -2.2095442 0.13229914 0
-0.36939865 0.3483358 0.46895865 0
-0.21946357 -0.27700377 -0.049985755 0
0.20634241 -2.2064607 0.13252734 0
-0.3588897 0.35477871 0.4669072 0
-0.1985916 -0.27954173 -0.05023928 0
0.25122246 -2.2024055 0.1327413 0
-0.34994727 0.36747307 0.46170527 0
-0.18306993 -0.25968242 -0.049679551 0
0.29770294 -2.204165 0.13319053 0
-0.0045234351 -0.98181272 0.25355238 0
-0.0070292144 -0.97167802 0.41954511 0
-0.33715737 0.36352313 0.46512365 0
-0.16325851 -0.25783372 -0.049789667 0
0.34451929 -2.2059288 0.13366295 0
-0.32977903 0.38102412 0.45754504 0
-0.14475022 -0.2509259 -0.049722105 0
0.39026299 -2.2024925 0.1339663 0
-0.31510252 0.37046784 0.46454453 0
-0.12146548 -0.26077974 -0.050285626 0
-0.30304539 0.37029564 0.46625909 0
-0.10588539 -0.2436837 -0.049857307 0
-0.30408254 0.41387141 0.44519776 0
-0.085648693 -0.24235547 -0.050024848 0
-0.29130495 0.41009933 0.4488849 0
-0.067861356 -0.23319685 -0.049908333 0
-0.28550225 0.42812008 0.44119278 0
-0.052705802 -0.21661139 -0.049519431 0
-0.26511574 0.40244943 0.4566175 0
-0.030997017 -0.21917558 -0.049861979 0
-0.0095219994 -0.22040784 -0.050165799 0
0.0074579329 -0.20938814 -0.050012566 0
0.026599547 -0.20404887 -0.050085217 0
0.044549428 -0.19569719 -0.050051093 0
0.06258627 -0.18760073 -0.050035466 0
0.0817044 -0.18195355 -0.05012431 0
-0.18981816 0.42823899 0.38036132 0
0.095206402 -0.16394413 -0.049737271 0
0.11713185 -0.16427803 -0.050079755 0
-0.16340704 0.42571372 0.38588268 0
-0.20039867 0.50350946 0.49904144 0
0.13379009 -0.15332997 -0.04998659 0
0.55770761 -1.0166554 0.46227926 0
-0.16103332 0.44709009 0.37834123 0
-0.19723748 0.52082133 0.49061298 0
0.1558301 -0.15314043 -0.050331797 0
0.58707732 -1.0041394 0.46262389 0
-0.15203379 0.45438081 0.37730339 0
-0.18600555 0.52141881 0.49326947 0
0.17153795 -0.14030361 -0.050180949 0
0.61102921 -0.981143 0.46091309 0
-0.13916539 0.45413721 0.3798314 0
-0.17960988 0.53151608 0.48968089 0
0.1822129 -0.11834396 -0.049667098 0
0.64427906 -0.97589564 0.46288836 0
-0.1253901 0.45253849 0.3830899 0
-0.17047934 0.53621989 0.48975524 0
0.20862271 -0.12546647 -0.05034266 0
0.68483084 -0.98322225 0.46755728 0
-0.11125768 0.45070839 0.38656265 0
-0.16071589 0.53979355 0.49067447 0
0.22646268 -0.1166345 -0.050380599 0
0.72451788 -0.98771262 0.47177643 0
-0.081630804 0.42220843 0.40286493 0
-0.15490921 0.55036932 0.48690057 0
0.23388322 -0.090041287 -0.049692318 0
0.758802 -0.98185229 0.47396508 0
-0.062069334 0.41276735 0.41031051 0
-0.14940564 0.56114745 0.48300949 0
0.25376144 -0.084947355 -0.049900007 0
0.8096115 -1.0026762 0.48188752 0
-0.059870251 0.43287009 0.40363091 0
-0.13630335 0.55906391 0.48805407 0
0.26931325 -0.072626241 -0.049815822 0
0.84050471 -0.98943114 0.48276854 0
-0.12552546 0.56111938 0.49036115 0
0.28418925 -0.059354428 -0.049698919 0
0.87605137 -0.98321199 0.48524454 0
-0.12213195 0.57488596 0.48453388 0
0.30583093 -0.056500677 -0.050034363 0
0.9154219 -0.98216128 0.4889535 0
0.021487495 0.37527335 0.44179022 0
-0.11071599 0.57602358 0.48765609 0
0.32194564 -0.045052174 -0.05001387 0
0.95597178 -0.98191977 0.49297792 0
0.034456454 0.37975568 0.44322821 0
-0.10528768 0.58624834 0.48440036 0
0.33562395 -0.030119305 -0.049850471 0
0.9995783 -0.98508048 0.49789673 0
0.048996352 0.38213539 0.44582114 0
-0.10820819 0.60824168 0.47266459 0
0.35109606 -0.017891174 -0.049811784 0
0.050995611 0.40235126 0.43945575 0
-0.099933721 0.61370361 0.47284335 0
0.37443712 -0.016434914 -0.050258204 0
0.070894085 0.39750689 0.44591075 0
-0.091022857 0.61831313 0.47372684 0
0.38315269 0.0049771019 -0.049830176 0
1.1298003 -0.98679399 0.10615002 0
1.1306421 -0.98791194 0.30762559 0
0.091930293 0.3918075 0.45299962 0
-0.086405285 0.62869048 0.47042012 0
0.40648928 0.0069800564 -0.050278608 0
0.10745808 0.39394498 0.45619506 0
-0.080831207 0.63760293 0.46822235 0
0.41485503 0.02837407 -0.04986129 0
0.12514336 0.39367813 0.46079588 0
-0.064365663 0.6326344 0.47656205 0
0.43178406 0.038784143 -0.049950086 0
-0.064662881 0.64882785 0.46896479 0
0.44455633 0.054275151 -0.049813367 0
-0.055440165 0.65311843 0.47048035 0
0.46187887 0.064310424 -0.049939148 0
-0.051537015 0.66372085 0.4671739 0
0.47939035 0.074269764 -0.050080247 0
0.48972532 0.092346065 -0.049843404 0
1.2071173 -0.7037251 0.1001018 0
-0.034728624 0.67431891 0.46903178 0
0.50556868 0.10422098 -0.049911555 0
1.202608 -0.64994991 0.09857519 0
0.52028722 0.11735689 -0.049928252 0
0.38488606 0.26020479 0.054901443 0
-0.024051288 0.69163263 0.46578899 0
0.53266746 0.13291979 -0.049833488 0
0.37706402 0.29299504 0.053863499 0
0.834611 -0.17770123 0.2206268 0
-0.012123504 0.6933673 0.46994543 0
0.54777831 0.14565325 -0.049887974 0
0.39810482 0.29579836 0.054319158 0
0.84017676 -0.14766669 0.21874611 0
-0.0046743541 0.69984692 0.47030601 0
0.56034106 0.16093731 -0.049822595 0
0.41269264 0.30536735 0.054448735 0
0.74126083 -0.016039019 0.20123816 0
0.74755496 -0.022195941 0.33522519 0
0.74645346 -0.021118408 0.47134846 0
0.0037087414 0.70543653 0.47150514 0
0.57822591 0.17108536 -0.050030135 0
0.4201847 0.3218348 0.054232657 0
0.83644396 -0.075218804 0.21301438 0
0.19318171 0.53836411 0.35110164 0
0.0063407631 0.71658444 0.46803451 0
0.59219426 0.18508041 -0.050050568 0
0.45205936 0.31541961 0.055218074 0
0.84202617 -0.047287587 0.21139292 0
0.18911661 0.55998188 0.34518579 0
0.016348382 0.72067314 0.47069231 0
0.6062066 0.19905937 -0.050081432 0
0.84213835 -0.014903432 0.073452383 0
0.84149092 -0.014316207 0.20895365 0
0.20373954 0.56405014 0.34785339 0
0.61944693 0.21375394 -0.050083604 0
0.84412295 0.015096659 0.07279066 0
0.84376723 0.015411133 0.20700461 0
0.83513802 0.023041124 0.3412368 0
0.20405377 0.58104223 0.34415999 0
0.036207996 0.72945052 0.4759202 0
0.63264531 0.22849095 -0.050092544 0
0.83957869 0.050113436 0.071846247 0
0.83156019 0.057025429 0.20307502 0
0.84265631 0.047460552 0.33936182 0
0.23113282 0.57459658 0.35235706 0
0.034969293 0.74369043 0.46981272 0
0.63991839 0.24821937 -0.049833778 0
0.83621174 0.083275668 0.070987344 0
0.83575732 0.083657496 0.20156345 0
0.83318013 0.085823171 0.33357605 0
0.92384177 0.0096409265 0.49962133 0
0.2648969 0.56334662 0.36333743 0
0.28022411 0.55046731 0.45899335 0
0.043326996 0.7495299 0.4713428 0
0.65826601 0.2586453 -0.050100259 0
0.84201747 0.1081469 0.070579924 0
0.82732552 0.12018 0.19835989 0
0.84338385 0.10702776 0.33255059 0
0.94637281 0.022676343 0.50192207 0
0.28660777 0.56304568 0.36896056 0
0.25138459 0.59189463 0.43885145 0
0.04722967 0.75910419 0.46949866 0
0.67057985 0.27413201 -0.050094482 0
0.84750515 0.13290882 0.07017643 0
0.84347874 0.1361227 0.19863252 0
0.8369754 0.14131379 0.32776394 0
0.98580092 0.022519941 0.5097695 0
0.26931885 0.59442198 0.35792428 0
0.24057646 0.61736441 0.4287411 0
0.056989871 0.76390475 0.47220972 0
0.68818706 0.28550047 -0.050337031 0
0.84950036 0.1600312 0.069633082 0
0.84290951 0.16515756 0.19665323 0
0.83418101 0.17194653 0.32394883 0
0.25502345 0.62241441 0.43214539 0
0.061406516 0.77300936 0.47092524 0
0.68924743 0.3096264 -0.049842529 0
0.84796065 0.18935597 0.068951912 0
0.84293753 0.19316244 0.19482279 0
0.83813256 0.19680357 0.32178408 0
0.26082298 0.63427973 0.43105832 0
0.067813717 0.78053904 0.4712199 0
0.70093101 0.32548112 -0.049837541 0
0.85205597 0.21392846 0.068543561 0
0.84251148 0.22097373 0.19299595 0
0.84251541 0.22097087 0.31980655 0
0.27883253 0.6370526 0.43634206 0
0.071766816 0.7898978 0.46977302 0
0.71940809 0.33645177 -0.050140113 0
0.85735208 0.2372874 0.068205357 0
0.8455357 0.2457819 0.19168881 0
0.84010404 0.24968648 0.31640568 0
0.081003748 0.79538435 0.47228494 0
0.72805244 0.35456914 -0.050017592 0
0.84711283 0.27123326 0.067205995 0
0.83517474 0.2795893 0.18867843 0
0.8340655 0.28036571 0.31231609 0
0.85091692 0.2685706 0.44458088 0
0.094008945 0.79836541 0.47755286 0
0.73435897 0.37417853 -0.049805023 0
0.89128071 0.26726007 0.068584129 0
0.84300286 0.30015415 0.18811476 0
0.84317511 0.30003679 0.31165195 0
0.83668453 0.30445915 0.43638965 0
0.10203268 0.80501318 0.47922802 0
0.74582726 0.39018923 -0.049825951 0
0.91309732 0.27927786 0.068991207 0
0.84298843 0.32576478 0.18657801 0
0.83002156 0.33436269 0.30622956 0
0.83505303 0.33102649 0.43226284 0
0.1232449 0.80300331 0.49033368 0
0.75018007 0.41081125 -0.049553018 0
0.95921773 0.27596337 0.070434004 0
0.84414321 0.35019666 0.18524465 0
0.83016974 0.35921079 0.30379894 0
0.84182101 0.35169464 0.43082163 0
0.1195878 0.81759953 0.48378032 0
0.76859111 0.42238963 -0.049885713 0
0.99437612 0.28073198 0.071401678 0
0.84310454 0.37563986 0.18368268 0
0.84458464 0.37471128 0.30449182 0
0.84645134 0.37354004 0.42882657 0
0.13484623 0.82000148 0.49065065 0
0.78015321 0.43842429 -0.049935568 0
1.026298 0.28827864 0.072229117 0
0.83881623 0.40264046 0.18176407 0
0.83380753 0.40569574 0.29989886 0
0.83968729 0.40210915 0.42352405 0
0.13415571 0.83247578 0.48641017 0
0.79119319 0.454813 -0.049971793 0
1.069572 0.28977799 0.073525526 0
0.83762807 0.42728442 0.18028967 0
0.84608299 0.42227191 0.30025542 0
0.84520191 0.42279428 0.42200992 0
0.13612939 0.84316313 0.48414674 0
0.79994971 0.47254997 -0.049922217 0
0.84978896 0.44384497 0.18052012 0
0.83767277 0.45082325 0.29634783 0
0.83847409 0.45036179 0.41697925 0
0.1479928 0.84804547 0.48876041 0
0.80360109 0.49310571 -0.049673326 0
0.84791273 0.4683221 0.17904623 0
0.83923894 0.47317338 0.29460374 0
0.8334977 0.47638446 0.41259772 0
0.14745547 0.8600899 0.48495728 0
0.81144291 0.51119035 -0.049606916 0
0.86146206 0.48403561 0.17950651 0
0.83240873 0.49980831 0.29120642 0
0.83700246 0.49731445 0.41080359 0
0.83373898 0.52161264 -0.050133392 0
0.84771496 0.51425159 0.17667232 0
0.83569282 0.52058357 0.28996181 0
0.84370714 0.51636249 0.41002026 0
0.84108394 0.54009116 -0.050062418 0
0.85345358 0.53377384 0.17625378 0
0.84321135 0.53900462 0.28963584 0
0.83531266 0.54303861 0.40498537 0
0.84001487 0.54063714 0.52803665 0
0.85349387 0.55601043 -0.050202947 0
0.84656984 0.55943745 0.17435384 0
0.84609121 0.55967426 0.2884253 0
0.8375259 0.56391358 0.40309733 0
0.85093981 0.55727458 0.52879745 0
0.85590154 0.57683778 -0.049954586 0
0.86555058 0.5722124 0.17558646 0
0.84438819 0.58235687 0.28635764 0
0.84358829 0.58274031 0.40238431 0
0.83610672 0.58632666 0.52012801 0
0.85915989 0.59708083 -0.049751505 0
0.90663904 0.57505208 0.17945018 0
0.83841091 0.60670769 0.28350922 0
0.84198362 0.60505003 0.39958593 0
0.8377412 0.60701841 0.51768321 0
0.87208277 0.61283326 -0.049937762 0
0.93730706 0.58356369 0.18206891 0
0.83469278 0.62961215 0.2811842 0
0.84151489 0.62655073 0.39719975 0
0.84307915 0.62584877 0.51669794 0
0.88045472 0.63070613 -0.049953647 0
0.9698357 0.5919407 0.1849039 0
0.83814961 0.64905423 0.28033918 0
0.84334821 0.64679962 0.39554226 0
0.84348255 0.64674133 0.5140149 0
0.89141744 0.6475094 -0.050078459 0
1.0029889 0.60077989 0.18780909 0
0.83596927 0.6707328 0.27844435 0
0.83135539 0.67266524 0.39013982 0
0.84084934 0.66868883 0.51034582 0
0.89395076 0.66781735 -0.049886227 0
1.0415213 0.60818309 0.19133599 0
0.8370077 0.69082844 0.27723852 0
0.83678442 0.69091868 0.38964874 0
0.8387174 0.69013757 0.50697458 0
0.90016001 0.68655133 -0.049845595 0
1.0745527 0.61861968 0.19422194 0
0.85339504 0.70476782 0.2790584 0
0.84205395 0.70918554 0.38917947 0
0.83690649 0.71119064 0.50383115 0
0.28189424 0.92738616 0.45667112 0
0.91969067 0.70026112 -0.050322119 0
0.85156697 0.72581434 0.27739501 0
0.84645623 0.72773141 0.38853893 0
0.8441903 0.72858137 0.50402862 0
0.28335664 0.93895048 0.45528838 0
0.91454369 0.72323537 -0.04986643 0
0.84952945 0.74669284 0.27574989 0
0.83876866 0.75057536 0.38468564 0
0.83904535 0.75047547 0.49990693 0
0.25821909 0.96004015 0.4398407 0
0.92053443 0.74201202 -0.049844533 0
0.8544659 0.7649138 0.27549341 0
0.83631092 0.77120703 0.38233915 0
0.83117908 0.77298588 0.49494225 0
0.83702916 0.77095807 0.61704922 0
0.26751086 0.96837431 0.44283321 0
0.9261958 0.76088524 -0.04981925 0
0.86399609 0.78157246 0.27615482 0
0.83607739 0.79085797 0.38067052 0
0.83713382 0.79050666 0.49494371 0
0.83344561 0.79173332 0.61287826 0
0.29288623 0.97151971 0.45434937 0
0.93839866 0.7776584 -0.050048098 0
0.84919614 0.80608428 0.27224803 0
0.83302146 0.81123865 0.3783192 0
0.83772308 0.80974036 0.49314889 0
0.84909254 0.8061173 0.61719447 0
0.3119466 0.97728771 0.46252406 0
0.94957155 0.79491764 -0.050245523 0
0.84805661 0.82586455 0.2709901 0
0.84471411 0.82688355 0.37997928 0
0.84644729 0.82635522 0.49427474 0
0.83622009 0.82947296 0.60922819 0
0.30298582 0.99202996 0.45604837 0
0.96162051 0.81207013 -0.050482906 0
0.86836892 0.83921951 0.2738131 0
0.84345275 0.84647363 0.37824351 0
0.84212345 0.84686065 0.49094787 0
0.83694774 0.84836751 0.60728282 0
0.33252504 0.99522573 0.46975622 0
0.95481259 0.83463299 -0.050028812 0
0.8953312 0.85114098 0.27790239 0
0.83203405 0.86870795 0.3738898 0
0.83812994 0.86701614 0.48783594 0
0.83790082 0.86707973 0.60554349 0
0.32900986 1.0083129 0.46627364 0
0.955257 0.85495311 -0.049854524 0
0.91672343 0.86512667 0.28096721 0
0.83924168 0.8855831 0.37453961 0
0.8406176 0.88521987 0.48705196 0
0.84893519 0.88302386 0.60822815 0
0.31594977 1.0237409 0.45794865 0
0.96492273 0.87283897 -0.050029613 0
0.95166892 0.87616026 0.28657508 0
0.83716172 0.90485477 0.37280047 0
0.84624654 0.90257818 0.48742661 0
0.83845407 0.90453088 0.60180646 0
0.33295742 1.031204 0.46525952 0
0.96595258 0.8929038 -0.049895585 0
0.98215634 0.88905948 0.29136568 0
0.84394294 0.92185068 0.37345377 0
0.84451467 0.92171502 0.48535812 0
0.84593552 0.9213779 0.60316294 0
0.33879593 1.041697 0.46685353 0
0.96416622 0.91350579 -0.049668152 0
1.0159043 0.90191704 0.29677543 0
0.83767623 0.94183815 0.37074989 0
0.83932966 0.94146782 0.48220044 0
0.83893865 0.94155538 0.5984627 0
0.34185186 1.0528975 0.46708414 0
0.97351259 0.93160021 -0.049856994 0
1.0545995 0.91450691 0.3031126 0
0.83747452 0.96027732 0.36970022 0
0.83072621 0.9616999 0.47797349 0
0.84843117 0.95796764 0.60085982 0
0.34116897 1.0648997 0.46547458 0
0.97939879 0.95051759 -0.049927745 0
1.0863752 0.92936993 0.30819109 0
0.8492617 0.97624379 0.3718316 0
0.83641702 0.97878301 0.47869125 0
0.8416149 0.97775549 0.59645522 0
0.3516629 1.0746118 0.4696466 0
0.9914158 0.96835697 -0.050229564 0
0.85353297 0.99381477 0.37206027 0
0.8367334 0.99691653 0.47766191 0
0.84725016 0.99497473 0.59740841 0
0.38669488 1.0800087 0.48635617 0
0.97794312 0.99079061 -0.049615562 0
0.84158164 1.014196 0.36814639 0
0.82885259 1.0163809 0.47394493 0
0.84465867 1.0136678 0.59499466 0
0.37940165 1.0935256 0.48157752 0
0.99156588 1.0084887 -0.04999245 0
0.42698792 1.0980912 0.041584022 0
0.42168781 1.0989324 0.11253956 0
0.44442376 1.095324 0.18894018 0
0.43442211 1.0969113 0.26221445 0
0.43163583 1.0973536 0.33916706 0
0.43408433 1.096965 0.42165092 0
0.40300426 1.1018976 0.49254656 0
0.99016148 1.0286499 -0.049834535 0
0.4061065 1.1138188 0.040762488 0
0.40757456 1.1136047 0.11080272 0
0.39716724 1.1151223 0.179977 0
0.40353099 1.1141944 0.253759 0
0.41273108 1.1128528 0.3321729 0
0.4099333 1.1132607 0.41074964 0
0.40455619 1.1140449 0.49239936 0
0.99899453 1.0473404 -0.050054744 0
0.39770243 1.1273044 0.040398847 0
0.42847499 1.1232121 0.11288485 0
0.42892358 1.1231525 0.18544953 0
0.4303591 1.1229615 0.2602295 0
0.43594024 1.1222193 0.33939043 0
0.43597594 1.1222146 0.42091733 0
0.41557935 1.124927 0.49711022 0
1.0048214 1.0665519 -0.050174993 0
0.36120471 1.1439104 0.039031666 0
0.42461827 1.1362885 0.11229717 0
0.4275662 1.1359342 0.18491717 0
0.43289265 1.135294 0.26047564 0
0.42857227 1.1358132 0.33639053 0
0.41695103 1.1372101 0.41232282 0
1.0083442 1.0860994 -0.050221033 0
0.36987349 1.1546957 0.039295632 0
0.85783178 1.1022702 0.36915073 0
0.84519583 1.1036278 0.47532332 0
0.83492607 1.1047312 0.58579355 0
1.003863 1.1064407 -0.049988829 0
0.34965399 1.1684062 0.038528189 0
0.85305482 1.120725 0.3674646 0
0.8264721 1.1232429 0.46846923 0
0.85089046 1.12093 0.59169555 0
1.0115819 1.1256201 -0.050203063 0
0.36595967 1.1785794 0.039076105 0
0.85150689 1.1387508 0.36666641 0
0.85362798 1.1385769 0.47701985 0
0.8438167 1.1393816 0.58810556 0
0.99948853 1.1463284 -0.049716737 0
0.37885132 1.1893785 0.039505951 0
0.84478945 1.1570591 0.36460483 0
0.85109931 1.1566213 0.47572783 0
0.83628684 1.1576488 0.58442587 0
1.001938 1.1658714 -0.049760114 0
0.85126013 1.1744182 0.36597383 0
0.84804553 1.1746006 0.47433752 0
0.82865959 1.1757002 0.58080393 0
1.0135472 1.1850442 -0.050139599 0
0.84394163 1.1925236 0.3638764 0
0.84514624 1.1924704 0.47307482 0
0.83921713 1.1927319 0.58481461 0
1.0072905 1.2050503 -0.049889404 0
0.8591457 1.2097154 0.36758712 0
0.83791226 1.210384 0.47044471 0
0.84519869 1.2101545 0.58701706 0
1.0115309 1.2246851 -0.050023098 0
0.84771901 1.2277794 0.36455661 0
0.84176403 1.2278918 0.4715791 0
0.83572727 1.2280059 0.5829106 0
1.0085468 1.2444626 -0.049907681 0
0.85237676 1.2454457 0.36568815 0
0.84127074 1.2455157 0.47134119 0
0.84683412 1.2454807 0.58741784 0
1.0064552 1.2641674 -0.049833003 0
0.84596306 1.263157 0.36405176 0
0.84606689 1.2631576 0.47293687 0
0.83858258 1.2631105 0.58400136 0
1.0135204 1.2839957 -0.050094135 0
0.84096867 1.2807363 0.3628341 0
0.83772224 1.2806749 0.47023419 0
0.83642954 1.2806505 0.58320141 0
1.0134412 1.3037864 -0.050109103 0
0.8461625 1.2985189 0.36427304 0
0.82388443 1.2978175 0.46577543 0
0.83502895 1.2981683 0.58280432 0
1.0108298 1.3234792 -0.050042491 0
0.85936028 1.3167995 0.36781403 0
0.8274017 1.3153902 0.46716559 0
0.83822435 1.3158674 0.58440316 0
0.9988907 1.3425989 -0.04965115 0
0.84007329 1.3335904 0.36311513 0
0.84735936 1.3340037 0.47410884 0
0.84050971 1.3336152 0.58571815 0
1.0041739 1.3626397 -0.049884412 0
1.3041673 1.3834486 0.072620295 0
1.2989395 1.383086 0.20597962 0
1.2929043 1.3826673 0.34050304 0
0.84607476 1.3516732 0.36493355 0
0.83497578 1.3509034 0.47035074 0
0.83854753 1.3511511 0.58536416 0
1.002856 1.3823073 -0.049890492 0
1.2512419 1.4026819 0.070787974 0
1.2479427 1.4024112 0.20067132 0
1.0069374 1.382642 0.28907505 0
0.84763879 1.369575 0.36567619 0
0.8377673 1.3687654 0.4717254 0
0.83798116 1.3687829 0.58568132 0
1.0013567 1.401965 -0.049898952 0
1.2436634 1.4249159 0.070588328 0
1.2508315 1.4255949 0.2011999 0
0.89420682 1.391816 0.2689684 0
0.85646564 1.3882412 0.36833873 0
0.84128982 1.3868037 0.47342107 0
0.83154827 1.3858811 0.58365136 0
1.0103811 1.4227626 -0.050294176 0
0.64166158 1.383148 0.04905466 0
0.64820832 1.3838513 0.13631229 0
0.64795798 1.3838243 0.22463706 0
0.6521644 1.3842763 0.31637639 0
0.84022623 1.4044814 0.47366044 0
0.83546513 1.4039699 0.58601803 0
1.0074415 1.4424062 -0.050269205 0
0.55665034 1.388224 0.046059549 0
0.55773383 1.3883542 0.12670597 0
0.55571848 1.3881119 0.2081956 0
0.54714555 1.3870816 0.28983501 0
0.83287793 1.4214247 0.47186881 0
0.83659488 1.4218715 0.58732098 0
0.98878545 1.4599451 -0.049687058 0
0.55107993 1.4017359 0.045922831 0
0.5525561 1.4019322 0.12633717 0
0.55395561 1.4021183 0.20819741 0
0.54948097 1.4015232 0.29088885 0
0.85158676 1.4416994 0.47889104 0
0.83721465 1.4397881 0.58850712 0
0.99865049 1.4812311 -0.050140809 0
0.56168967 1.4175121 0.046375755 0
0.56290001 1.4176885 0.127672 0
0.54538685 1.4151347 0.20699094 0
0.55583531 1.4166583 0.29302773 0
0.84228712 1.4584297 0.47659516 0
0.83224815 1.4569658 0.58745247 0
0.98878342 1.4997128 -0.04989187 0
0.55321056 1.4305843 0.046146736 0
0.55368882 1.4306602 0.12690318 0
0.55169946 1.4303446 0.20852937 0
0.55380589 1.4306788 0.29305428 0
0.83443004 1.4752159 0.47485158 0
0.83230633 1.4748788 0.58859265 0
0.97878271 1.5179967 -0.049645972 0
0.56524342 1.4470158 0.046666186 0
0.55354851 1.4450085 0.12713958 0
0.54149634 1.4429398 0.20708399 0
0.55510694 1.445276 0.2939887 0
0.84195727 1.4945116 0.47836858 0
0.84022552 1.4942143 0.59313238 0
0.99106914 1.5402222 -0.05021698 0
0.5557825 1.4598536 0.046414025 0
0.54971236 1.4587328 0.12699236 0
0.55284363 1.459311 0.20961657 0
0.55757385 1.4601845 0.29527539 0
0.84534556 1.5133168 0.48057556 0
0.84039682 1.512403 0.59452289 0
0.98771709 1.5597699 -0.050230462 0
0.5534969 1.473931 0.046428241 0
0.55299705 1.4738321 0.12764376 0
0.55526143 1.4742798 0.21055174 0
0.55873436 1.4749663 0.2962743 0
0.83497566 1.5295752 0.47820243 0
0.83031851 1.5286546 0.59168756 0
0.98012036 1.5784359 -0.050098084 0
0.55665904 1.4891692 0.046647716 0
0.542669 1.4862201 0.12682267 0
0.54751831 1.4872423 0.20965129 0
0.55119783 1.488018 0.2950567 0
0.83915681 1.5487204 0.48083997 0
0.83267313 1.5473536 0.59419203 0
0.97275728 1.5970616 -0.049982466 0
0.55310947 1.5030651 0.046629269 0
0.54571468 1.5014088 0.12748925 0
0.56055957 1.5047338 0.21261977 0
0.55408734 1.5032841 0.29660445 0
0.8423633 1.5678548 0.48323473 0
0.8362487 1.5664852 0.59732139 0
0.97283655 1.6173725 -0.05014817 0
0.55681509 1.5186713 0.046883382 0
0.56014603 1.5194615 0.12943654 0
0.54914588 1.5168517 0.21110502 0
0.55707079 1.518732 0.29823184 0
0.83934981 1.5857028 0.48359212 0
0.84653372 1.5874071 0.60341752 0
0.96428853 1.6356453 -0.050006267 0
0.55912679 1.5341152 0.047094222 0
0.53309232 1.5275912 0.12681888 0
0.55005687 1.5318424 0.2119053 0
0.55294675 1.5325665 0.29804605 0
0.82874447 1.6016791 0.48142377 0
0.8414529 1.6048636 0.60308647 0
0.95677334 1.6540903 -0.049910516 0
0.55601925 1.5482845 0.04711283 0
0.55105048 1.5469728 0.12920702 0
0.54602975 1.5456471 0.2118223 0
0.54639989 1.5457449 0.29726622 0
0.84149951 1.6236562 0.48735544 0
0.84464806 1.6244874 0.60639226 0
0.96185523 1.6759647 -0.05028975 0
0.54870802 1.5613033 0.046982352 0
0.55284828 1.5624523 0.1298283 0
0.55302471 1.5625013 0.21383445 0
0.54842108 1.5612237 0.29879609 0
0.84102172 1.6424296 0.48883441 0
0.84269208 1.6428931 0.60760224 0
0.94293743 1.6911336 -0.049788203 0
0.56052285 1.5797969 0.047568653 0
0.55173558 1.5772386 0.13014787 0
0.56693333 1.5816634 0.2171924 0
0.54831105 1.5762416 0.29981697 0
0.84549981 1.6627655 0.49211779 0
0.83626229 1.660076 0.60698724 0
0.94030029 1.7108991 -0.049899492 0
0.85120612 1.6837387 0.38171086 0
0.83940333 1.6801406 0.49182481 0
0.84267646 1.6811384 0.61202282 0
0.94244581 1.7322744 -0.050199743 0
0.84921378 1.7025645 0.38265505 0
0.84527212 1.7013084 0.49578485 0
0.83555847 1.698213 0.61131328 0
0.92274612 1.7466105 -0.049689453 0
0.84742242 1.7215583 0.38372087 0
0.83405501 1.7171124 0.49386424 0
0.83592862 1.7177356 0.6139617 0
0.9148683 1.764667 -0.049630437 0
0.84956497 1.7420304 0.38591808 0
0.83147126 1.7357584 0.4950451 0
0.8298375 1.7351922 0.6138978 0
0.9185558 1.7868553 -0.050018709 0
0.84668249 1.7609231 0.38683209 0
0.82774681 1.754091 0.49591079 0
0.8266719 1.7537032 0.61521792 0
0.91172618 1.8053945 -0.05001843 0
0.84494907 1.7803464 0.38812825 0
0.83953983 1.7783173 0.50237614 0
0.82964426 1.7746055 0.61936134 0
0.90070027 1.8223022 -0.049866289 0
0.83412236 1.7963679 0.38700774 0
0.82685035 1.7935352 0.50024068 0
0.83381563 1.7962484 0.62417459 0
0.8876887 1.8382952 -0.049645096 0
0.83522922 1.8170959 0.38922077 0
0.83060652 1.8152279 0.50406414 0
0.81729871 1.8098501 0.61989504 0
0.88828737 1.8598228 -0.049957305 0
0.83998114 1.8395907 0.39252576 0
0.83936805 1.8393338 0.50981146 0
0.8215304 1.8318629 0.62498337 0
0.87275785 1.8745987 -0.049654122 0
0.82811791 1.855238 0.39130679 0
0.82899839 1.8556199 0.50876236 0
0.82080394 1.8520659 0.62798673 0
0.86842126 1.8941667 -0.049794484 0
0.83140689 1.8775564 0.39437312 0
0.8232103 1.8738781 0.50945264 0
0.8272987 1.8757129 0.63439929 0
0.85487455 1.909574 -0.049582854 0
0.83334655 1.8995857 0.39715672 0
0.82119578 1.8939482 0.51161504 0
0.81550497 1.8913078 0.6326375 0
0.8592518 1.9334114 -0.050087228 0
0.82199687 1.9155527 0.39627546 0
0.82046372 1.9148178 0.51435661 0
0.80433875 1.9070882 0.63124311 0
0.8421542 1.9470202 -0.04975123 0
0.82373506 1.9379039 0.3991715 0
0.80386156 1.9280677 0.51132137 0
0.80478591 1.9285252 0.63529652 0
0.83590525 1.9659071 -0.049854815 0
0.81648201 1.9559875 0.39959076 0
0.8121087 1.9537538 0.51761168 0
0.80365974 1.9494388 0.63876975 0
0.82164484 1.9806606 -0.04964539 0
1.0413915 2.0963998 0.46702382 0
0.80082899 1.969697 0.51672262 0
0.79990476 1.9692101 0.64115876 0
0.82166988 2.0030048 -0.050022364 0
0.80590147 1.9944444 0.40177479 0
0.79235142 1.9870882 0.51696396 0
0.7988891 1.9906374 0.64497167 0
0.809524 2.0188501 -0.049915612 0
0.79272455 2.009454 0.40067863 0
0.78926569 2.0075195 0.51934558 0
0.78616434 2.005785 0.64338428 0
0.80319923 2.0379648 -0.050056096 0
0.78584164 2.0279677 0.40148306 0
0.78203827 2.0257771 0.52025282 0
0.79130036 2.0311117 0.65041 0
0.78753883 2.0516636 -0.049820129 0
0.7783671 2.0462263 0.40218693 0
0.76908129 2.0407212 0.51903945 0
0.77787894 2.0459368 0.64870906 0
0.78541821 2.0734303 -0.050155744 0
0.7762199 2.0678196 0.40455675 0
0.77358478 2.0662122 0.52469414 0
0.77245384 2.0655224 0.65096337 0
0.76104409 2.0815184 -0.049567636 0
0.77229208 2.0885754 0.40649059 0
0.76800603 2.0858865 0.52655953 0
0.76132578 2.0816953 0.65056813 0
0.76344258 2.1063874 -0.050116479 0
0.75063568 2.0981257 0.40313667 0
0.7518695 2.0989218 0.52435786 0
0.76200217 2.105458 0.65608573 0
0.74743408 2.1195192 -0.049894784 0
0.75323266 2.1233642 0.40721583 0
0.75157923 2.122268 0.52852857 0
0.74323767 2.1167369 0.65213978 0
0.73292464 2.1334872 -0.04974306 0
0.7318483 2.1327538 0.40402418 0
0.74478394 2.1415677 0.53023428 0
0.73619026 2.1357124 0.65410101 0
0.73157018 2.1565363 -0.050170887 0
0.72590369 2.15257 0.40564921 0
0.73100311 2.1561394 0.52921659 0
0.72794777 2.1540008 0.65559584 0
0.72313601 2.1748712 -0.050304029 0
0.71187419 2.1667755 0.40482667 0
0.71504837 2.1690571 0.52737373 0
0.71804637 2.1712124 0.65637523 0
0.70592231 2.1868463 -0.050059024 0
0.71107775 2.1906519 0.40824929 0
0.71240288 2.1916299 0.53108418 0
0.71915144 2.1966114 0.66293705 0
0.68740875 2.1976235 -0.04976017 0
0.70639664 2.2120121 0.41055694 0
0.70271534 2.2092226 0.53200877 0
0.70459622 2.2106478 0.66159195 0
0.6813702 2.2178404 -0.050028712 0
0.69668466 2.2297521 0.41134778 0
0.68932134 2.2240248 0.53147316 0
0.69048566 2.2249305 0.660559 0
0.66833955 2.2327228 -0.04999214 0
0.6869716 2.2475951 0.41221878 0
0.68982834 2.2498753 0.53692853 0
0.68631893 2.2470741 0.66487837 0
0.65566045 2.2478638 -0.049980018 0
0.67482764 2.2635622 0.41237086 0
0.67642087 2.2648671 0.53659594 0
0.67296773 2.2620389 0.66447556 0
0.63762707 2.2584984 -0.049726933 0
0.66944498 2.2852347 0.41484442 0
0.66616923 2.2824821 0.53771281 0
0.67149717 2.2869592 0.67059493 0
0.62556416 2.2740481 -0.049758777 0
0.71355289 2.3498948 0.065906085 0
0.71981543 2.355293 0.18721999 0
0.71549946 2.3515728 0.30908516 0
0.64631027 2.2919314 0.41145685 0
0.65258175 2.2973375 0.53747362 0
0.64645904 2.2920597 0.66406894 0
0.61599749 2.2918391 -0.049919218 0
0.68897969 2.3563695 0.065397225 0
0.68834406 2.3558075 0.18470846 0
0.6820609 2.3502519 0.30438551 0
0.63053888 2.3046966 0.41056758 0
0.62940365 2.3036928 0.53305519 0
0.64022976 2.3132651 0.66790032 0
0.60001606 2.3039699 -0.049783077 0
0.66079026 2.3590848 0.064712144 0
0.66365939 2.3616869 0.18315366 0
0.65986294 2.3582439 0.30236462 0
0.62706083 2.3284962 0.41395727 0
0.62726492 2.3286812 0.53807116 0
0.62594122 2.3274808 0.66741955 0
0.59166402 2.3230693 -0.050024714 0
0.64608806 2.3736892 0.064678244 0
0.63561958 2.3639524 0.18109889 0
0.64055854 2.3685462 0.30105722 0
0.61186773 2.341861 0.41340882 0
0.6103192 2.3404207 0.53656071 0
0.61321753 2.3431163 0.66791856 0
0.57288736 2.3324654 -0.049766738 0
0.62723941 2.3843098 0.064448372 0
0.61772817 2.3752375 0.18053077 0
0.62084275 2.3782084 0.29966363 0
0.59858257 2.3569751 0.41358545 0
0.60213894 2.3603673 0.53912973 0
0.59843034 2.3568299 0.66735482 0
0.55344671 2.3409617 -0.049478278 0
0.62260169 2.4086094 0.064932019 0
0.61128837 2.3975427 0.18169846 0
0.61181265 2.3980556 0.30097914 0
0.58605546 2.3728597 0.41410235 0
0.58845538 2.3752074 0.53928554 0
0.58836132 2.3751154 0.66961628 0
0.54820627 2.3634193 -0.049909618 0
0.60492176 2.4203136 0.064777657 0
0.59835881 2.4137299 0.18193556 0
0.60373288 2.4191208 0.30261761 0
0.57355028 2.3888431 0.41470557 0
0.57274133 2.3880315 0.53857404 0
0.57171398 2.387001 0.66818279 0
0.54114097 2.3844404 -0.050267503 0
0.60124856 2.4462755 0.065346211 0
0.60478181 2.4499102 0.18519084 0
0.59969956 2.4446819 0.30539259 0
0.56371576 2.4076638 0.41636738 0
0.56440634 2.4083743 0.54145193 0
0.56242651 2.4063377 0.67119074 0
0.51620871 2.3869834 -0.049716592 0
0.620251 2.4967477 0.067115992 0
0.61883324 2.4952521 0.18975207 0
0.60978538 2.4857066 0.31198999 0
0.54824668 2.4207833 0.41604912 0
0.54773587 2.4202445 0.54046017 0
0.54872781 2.4212909 0.67172962 0
0.51931089 2.4192908 -0.050634384 0
0.53626996 2.43764 0.41710091 0
0.53190964 2.4329221 0.53994155 0
0.53507537 2.4363475 0.67241824 0
0.48983178 2.4164152 -0.049849086 0
0.52809769 2.4588778 0.41969773 0
0.51706237 2.4466324 0.53998083 0
0.51655155 2.4460654 0.67022008 0
0.47426626 2.4285412 -0.049803089 0
0.50967675 2.4688444 0.41847309 0
0.50650722 2.4652369 0.5422706 0
0.50298303 2.4612257 0.67117488 0
0.46425411 2.4471056 -0.050069503 0
0.48681733 2.4734483 0.41553852 0
0.49139926 2.4787977 0.54238474 0
0.48345789 2.4695261 0.66847324 0
0.44835731 2.4589202 -0.050025094 0
0.4749653 2.4907885 0.41696402 0
0.47358045 2.48913 0.5411815 0
0.46974048 2.4845309 0.66954952 0
0.43318543 2.471581 -0.050029349 0
0.45312843 2.4960873 0.41446343 0
0.45673749 2.5005224 0.54054183 0
0.46151516 2.5063932 0.67436814 0
0.41334364 2.4783633 -0.049774453 0
0.44033721 2.5123999 0.41566411 0
0.44527349 2.5186243 0.54284817 0
0.44513354 2.5184479 0.67401117 0
0.39944783 2.4925511 -0.049867481 0
0.42125723 2.5207736 0.41434556 0
0.4273825 2.5287001 0.5418185 0
0.42522886 2.5259132 0.67136472 0
0.38512114 2.5062807 -0.04994702 0
0.41049573 2.5399857 0.41657776 0
0.41148379 2.5412982 0.54194319 0
0.4057292 2.5336542 0.66901672 0
0.37155947 2.5211537 -0.050084472 0
0.39289883 2.5502543 0.41600305 0
0.39141634 2.5482326 0.5398131 0
0.39731702 2.5562794 0.67445868 0
0.35259458 2.5286326 -0.049903844 0
0.37927768 2.5659981 0.41721979 0
0.38303569 2.5712607 0.54438519 0
0.38132003 2.5688581 0.67479491 0
0.33273563 2.5346081 -0.049669836 0
0.35883257 2.5721431 0.41549674 0
0.35569385 2.5676286 0.5381577 0
0.3597447 2.5734551 0.67120522 0
0.32355317 2.5560706 -0.050116267 0
0.34831962 2.5926666 0.4182975 0
0.33716354 2.5761819 0.53701693 0
0.34476253 2.5874107 0.67246109 0
0.3078098 2.5681486 -0.050162811 0
0.32808271 2.598933 0.41676033 0
0.32225314 2.5900807 0.53810841 0
0.32479158 2.5939353 0.67011666 0
0.28774104 2.5735416 -0.049933989 0
0.30430874 2.5994027 0.41355672 0
0.30373099 2.598501 0.53710085 0
0.30920044 2.6070383 0.67114991 0
0.27257046 2.5864973 -0.05003573 0
0.28765467 2.6107087 0.41372582 0
0.28557172 2.6073654 0.53636718 0
0.29008439 2.6146085 0.66957217 0
0.2538875 2.5937986 -0.049908694 0
0.27181461 2.6233969 0.41436875 0
0.266525 2.6146636 0.53511912 0
0.26986453 2.6201773 0.66715455 0
0.23746206 2.6047647 -0.049944203 0
0.25366417 2.6322913 0.41394302 0
0.25238517 2.6301184 0.53712201 0
0.25469574 2.6340439 0.66886425 0
0.22571297 2.6239665 -0.050326679 0
0.23353554 2.6376476 0.41254801 0
0.23503013 2.6402617 0.53714359 0
0.23293413 2.6365957 0.66525668 0
0.20472689 2.6270924 -0.050056119 0
0.21602745 2.6474471 0.41253349 0
0.2164761 2.6482553 0.53643036 0
0.21561499 2.6467042 0.66538292 0
0.19172706 2.6446445 -0.050383173 0
0.20258196 2.6647902 0.41476935 0
0.20123829 2.6622963 0.53809601 0
0.20026024 2.6604812 0.6673367 0
0.16736467 2.6409624 -0.049859304 0
0.17576207 2.6570284 0.4098123 0
0.18103428 2.6671152 0.53636098 0
0.18397023 2.6727324 0.66865534 0
0.14997424 2.6502278 -0.049869299 0
0.15971549 2.6694508 0.41075674 0
0.15847667 2.667006 0.53289419 0
0.16271926 2.6753781 0.66560274 0
0.13037165 2.6550112 -0.0497097 0
0.14385392 2.6824684 0.41192225 0
0.14042433 2.6754839 0.53273702 0
0.1433356 2.6814129 0.66425592 0
0.11463424 2.6676686 -0.049872112 0
0.11368944 2.6656816 0.40471736 0
0.12162127 2.6823626 0.5320757 0
0.122902 2.6850562 0.661933 0
0.097745858 2.6781058 -0.049954154 0
0.10537394 2.6946833 0.41052073 0
0.10417654 2.6920812 0.53254521 0
0.096501969 2.6754026 0.65368098 0
0.080786191 2.6885333 -0.050043676 0
0.082659982 2.6927443 0.40768069 0
0.08025714 2.6873443 0.5278284 0
0.082523488 2.6924374 0.65772051 0
0.066581629 2.7055359 -0.050396565 0
0.066148959 2.7045295 0.4087472 0
0.06496229 2.7017698 0.53018606 0
0.063418888 2.6981802 0.65672868 0
0.043682598 2.7022521 -0.049970377 0
0.045259319 2.7060504 0.40703017 0
0.043169878 2.7010171 0.52713341 0
0.044757627 2.7048419 0.65626204 0
0.021998843 2.7012031 -0.049643386 0
0.027853807 2.7158241 0.40766245 0
