# .PCD v0.7 - Point Cloud Data file format
VERSION 0.7
FIELDS x y z intensity
SIZE 4 4 4 4
TYPE F F F F
COUNT 1 1 1 1
WIDTH 1315
HEIGHT 1
VIEWPOINT 0 0 0 1 0 0 0
POINTS 1315
DATA ascii
0.72776419 0.019050632 -0.07371024 0
0.83453923 0.16718951 0.16741939 0
0.83667964 0.17015913 0.20096986 0
0.83886504 0.1731911 0.23480769 0
0.84167635 0.17709151 0.26909253 0
0.8398217 0.17451838 0.30266708 0
1.0995979 0.53492993 0.40987867 0
0.83526063 0.23201266 0.16991217 0
0.83225763 0.2276167 0.20408304 0
0.84106904 0.2405155 0.24007335 0
0.84332472 0.2438176 0.27559036 0
0.84434885 0.24531689 0.31118101 0
1.0989524 0.61802894 0.42100182 0
1.1058145 0.62807423 0.4700112 0
0.55516315 -0.13237175 -0.091243453 0
0.62734753 -0.020755854 -0.088597797 0
0.83986115 0.30784562 0.17297478 0
0.83956498 0.30738762 0.20901451 0
0.83533889 0.30085304 0.24447048 0
0.83789819 0.30481043 0.28117889 0
0.8404451 0.30874851 0.31830451 0
0.83925337 0.30690578 0.35476112 0
1.1021723 0.71344703 0.48302773 0
0.46615994 -0.22856489 -0.088568173 0
0.53142369 -0.12183776 -0.090542279 0
0.83857548 0.38045374 0.10101623 0
0.83967942 0.38225904 0.13844112 0
0.84471464 0.39049318 0.17635646 0
0.83613676 0.37646559 0.21297829 0
0.84643441 0.39330557 0.25233212 0
0.83514279 0.37484017 0.28793946 0
0.83686954 0.37766388 0.32623911 0
0.83558989 0.37557128 0.3639974 0
1.0946326 0.79918903 0.49594709 0
0.45517752 -0.20259079 -0.092122026 0
0.51159579 -0.10487166 -0.091381453 0
0.57979327 0.01324955 -0.089288704 0
0.68125236 0.18898156 -0.09023463 0
0.81873679 0.42711106 -0.090178527 0
1.0256379 0.78547353 -0.090314217 0
1.3682539 1.3789008 -0.090200789 0
1.3695108 1.3810773 -0.02645289 0
0.85204846 0.48480847 0.061394747 0
0.84124959 0.4661043 0.10101838 0
0.83663481 0.4581112 0.13992478 0
0.84179568 0.46705011 0.1793548 0
0.84431195 0.47140852 0.2189815 0
0.83806425 0.46058717 0.25733513 0
0.83698362 0.45871547 0.29648122 0
0.83827055 0.46094444 0.33640584 0
0.83541298 0.45599499 0.37535009 0
0.8419165 0.46725932 0.41785392 0
0.4282729 -0.20408061 -0.08904881 0
0.49561259 -0.080336004 -0.093940459 0
0.55450076 0.02787796 -0.089352943 0
0.65253526 0.20802799 -0.090595819 0
0.77959657 0.4415181 -0.089410134 0
0.97844589 0.80692726 -0.089906745 0
1.2910098 1.3813 -0.087706082 0
1.2945087 1.3877299 -0.02501536 0
1.2966986 1.3917539 0.037943754 0
0.84990042 0.57070976 0.1010211 0
0.841335 0.55496985 0.14194769 0
0.84074867 0.55389231 0.18286203 0
0.8394534 0.55151218 0.22370434 0
0.84013629 0.55276698 0.26494005 0
0.83832777 0.54944366 0.30581263 0
0.84248507 0.55708319 0.34848645 0
0.83932203 0.55127078 0.3893289 0
0.84139496 0.55508 0.43223977 0
0.40958205 -0.19109425 -0.089635082 0
0.46964172 -0.073770195 -0.092750214 0
0.52307886 0.030616913 -0.087339841 0
0.61680382 0.21370474 -0.088956781 0
0.7490719 0.47208479 -0.090903871 0
0.93555039 0.83636266 -0.090467177 0
1.245671 1.4421701 -0.08998961 0
1.247812 1.4463525 -0.026413983 0
1.2471017 1.4449646 0.037388008 0
1.2483041 1.4473138 0.10104854 0
0.85347843 0.67603868 0.14457545 0
0.83947659 0.64868659 0.1867421 0
0.83968973 0.64910299 0.22975081 0
0.83635807 0.64259475 0.27219513 0
0.83902901 0.64781231 0.31602359 0
0.83947581 0.64868516 0.35967869 0
0.84104073 0.65174216 0.40406972 0
0.84340918 0.65636879 0.4492946 0
0.39596587 -0.1671913 -0.092900656 0
0.4412252 -0.072992593 -0.090502642 0
0.50826764 0.066543728 -0.091547869 0
0.58740813 0.23125985 -0.089330994 0
0.71325618 0.49318901 -0.091253199 0
0.88678712 0.854361 -0.089949332 0
1.1789641 1.4624724 -0.089188524 0
1.785787 2.7254605 -0.090894349 0
4.5060658 8.3872108 -0.14089532 0
0.85565418 0.78956372 0.19296016 0
0.83617282 0.74901682 0.23590435 0
0.84148377 0.76007062 0.28223765 0
0.84106892 0.75920719 0.32779908 0
0.84278697 0.76278299 0.37425694 0
0.84053409 0.75809401 0.4196977 0
0.84033841 0.75768679 0.4661395 0
0.36925572 -0.17047581 -0.089873321 0
0.42166272 -0.053957012 -0.092200138 0
0.48012456 0.076023847 -0.09101025 0
0.55488199 0.24223533 -0.088802107 0
0.67011708 0.49844256 -0.089683868 0
0.83867216 0.87319857 -0.089649923 0
1.1148522 1.4872417 -0.08886873 0
1.6874002 2.7602131 -0.090429969 0
4.262589 8.4857445 -0.1405856 0
1.0672988 1.3815141 0.2221413 0
0.85116285 0.90096968 0.24598765 0
0.83949119 0.87501961 0.29189482 0
0.83801538 0.87173837 0.33958086 0
0.84177005 0.88008624 0.38915199 0
0.83601451 0.86728972 0.43566445 0
0.84359419 0.88414198 0.48800364 0
0.34570569 -0.16805103 -0.088350303 0
0.3937698 -0.053549554 -0.090175964 0
0.45235384 0.086013108 -0.090696357 0
0.52543873 0.26012054 -0.089457743 0
0.63555115 0.52243751 -0.090645336 0
0.79653752 0.90594953 -0.090885736 0
1.0611039 1.5362163 -0.090510868 0
1.5958977 2.8102365 -0.090867542 0
4.0250239 8.5970573 -0.14075717 0
0.99726689 1.3841398 0.22095211 0
0.85104209 1.0357938 0.25463617 0
0.83873081 1.006465 0.30312642 0
0.84380567 1.0185547 0.3555963 0
0.83976156 1.0089206 0.40565237 0
0.83883119 1.0067041 0.45687175 0
0.84127706 1.0125308 0.51001585 0
0.33284736 -0.13919374 -0.093010031 0
0.37128195 -0.0407429 -0.090821765 0
0.41853827 0.08030501 -0.087740324 0
0.49506173 0.27632108 -0.08996547 0
0.59735054 0.53833574 -0.090691559 0
0.74606508 0.91927046 -0.090269648 0
1.0012783 1.5730031 -0.09132459 0
1.4985856 2.8468642 -0.090747394 0
3.7812564 8.693965 -0.14071795 0
0.93192768 1.3953605 0.22029355 0
0.8478725 1.1800518 0.2639088 0
0.83746576 1.1533949 0.31580243 0
0.84028858 1.1606255 0.37084076 0
0.83909714 1.1575737 0.42499 0
0.84274089 1.1669071 0.48152778 0
0.8374089 1.1532493 0.53431803 0
0.30285904 -0.1544151 -0.08773803 0
0.34918892 -0.026287582 -0.091906138 0
0.39826825 0.10944369 -0.091051035 0
0.43649688 0.21516684 -0.079023845 0
0.43364856 0.20728973 -0.047739837 0
0.43697956 0.21650174 -0.018710716 0
0.93252856 1.5869668 -0.090547048 0
1.4019266 2.8851101 -0.090830617 0
3.5374355 8.7909651 -0.14083423 0
0.85537028 1.3735816 0.21808746 0
0.84873253 1.3552248 0.27540335 0
0.83589906 1.3197331 0.33029416 0
0.84301013 1.3393991 0.39052159 0
0.84002882 1.3311543 0.44788131 0
0.84425122 1.3428316 0.50869119 0
0.84247321 1.3379142 0.56722403 0
0.28652132 -0.1325936 -0.090980254 0
0.32276165 -0.023865249 -0.090703599 0
0.36954597 0.11649707 -0.090596966 0
0.40511349 0.22320679 -0.078643836 0
0.40535587 0.22393396 -0.048492346 0
0.40785658 0.23143652 -0.019135533 0
0.86971986 1.6171193 -0.091097422 0
1.299298 2.9059403 -0.09017875 0
3.286773 8.8687658 -0.14063047 0
0.79454029 1.3915656 0.21794885 0
0.85044646 1.5592954 0.28893128 0
0.840303 1.528863 0.3488813 0
0.83665037 1.5179043 0.40999606 0
0.84010071 1.5282559 0.47406331 0
0.83883935 1.5244715 0.5366112 0
0.83917493 1.5254784 0.60040474 0
0.26120403 -0.13748172 -0.088353135 0
0.29880506 -0.014402177 -0.091028832 0
0.33957541 0.11905137 -0.089498334 0
0.38201866 0.25798097 -0.0823121 0
0.38242778 0.25932017 -0.05161709 0
0.3812722 0.25553754 -0.02052374 0
0.72900236 1.3937633 -0.07322868 0
0.72490895 1.3803642 -0.014381422 0
0.72783005 1.389926 0.043128636 0
0.72523546 1.381433 0.10104117 0
0.72528058 1.3815808 0.15875089 0
0.72561175 1.3826647 0.21657611 0
0.84188443 1.7632604 0.3023445 0
0.83364493 1.73629 0.36714861 0
0.83577359 1.7432578 0.43506879 0
0.83701867 1.7473333 0.50327468 0
0.83668518 1.7462416 0.57123929 0
0.24312332 -0.11862358 -0.091125019 0
0.27333578 -0.0099918507 -0.09048263 0
0.31150594 0.12725237 -0.089500137 0
0.36574867 0.32228699 -0.090347864 0
0.44097817 0.59278136 -0.090949692 0
0.55114031 0.98887926 -0.09068089 0
0.65905708 1.3769038 -0.07072746 0
0.66203016 1.3875937 -0.013884595 0
0.65991092 1.3799736 0.043793116 0
0.66206193 1.3877079 0.10104083 0
0.66148126 1.3856201 0.15842476 0
0.6597665 1.3794544 0.21557277 0
0.8103866 1.9210227 0.31232437 0
0.81327772 1.9314179 0.3841123 0
0.81118405 1.9238899 0.45454118 0
0.81038475 1.921016 0.52566892 0
0.80939716 1.917465 0.59700888 0
0.22413163 -0.10063258 -0.093789689 0
0.24876361 -0.0025428201 -0.090655245 0
0.28344172 0.13555279 -0.089639239 0
0.33310509 0.33332279 -0.090673856 0
0.39683092 0.58709258 -0.08898709 0
0.49978057 0.99705988 -0.090192877 0
0.59804386 1.388365 -0.070411064 0
0.59709704 1.3845947 -0.012976361 0
0.59458941 1.3746088 0.044302199 0
0.59716475 1.3848643 0.10104028 0
0.59712344 1.3846996 0.15802033 0
0.59836912 1.3896601 0.21530065 0
0.77092612 2.0768187 0.32215697 0
0.76733381 2.0625134 0.3948524 0
0.76694942 2.0609825 0.46871653 0
0.76929319 2.0703161 0.54448509 0
0.19898954 -0.10708818 -0.09121836 0
0.22354291 0.0023027991 -0.090444408 0
0.25494406 0.14220229 -0.089619137 0
0.29776099 0.33296171 -0.089475505 0
0.35571441 0.59115773 -0.088337772 0
0.44939706 1.0085356 -0.090147234 0
0.55324566 1.4712052 -0.075321339 0
0.55216581 1.4663942 -0.016197672 0
0.5506717 1.4597375 0.042612635 0
0.55288166 1.4695835 0.10104234 0
0.55331165 1.4714992 0.1597525 0
0.55536407 1.4806433 0.21896319 0
0.71351731 2.1852527 0.32860947 0
0.71538234 2.193562 0.40563869 0
0.71356589 2.1854694 0.48143539 0
0.71376842 2.1863716 0.55855471 0
0.17609017 -0.105288 -0.090586685 0
0.19791812 0.0049018594 -0.089925818 0
0.22599995 0.14666203 -0.089353092 0
0.26793617 0.3583608 -0.09210182 0
0.31972671 0.61980516 -0.090744503 0
0.39728105 1.011308 -0.089394949 0
0.41463724 1.0989239 -0.047852371 0
0.41690406 1.1103671 0.0013220406 0
0.41568363 1.1042061 0.051349785 0
0.41430536 1.0972486 0.10103112 0
0.41519639 1.1017466 0.15065449 0
0.41397929 1.0956023 0.20003965 0
0.41475549 1.0995207 0.24995789 0
0.41504005 1.1009574 0.29998899 0
0.41574475 1.1045148 0.35055923 0
0.40812209 1.0660346 0.39554986 0
0.29571787 0.49860576 0.35034925 0
0.27281636 0.38299647 0.36454761 0
0.1536447 -0.10164776 -0.09047956 0
0.1736344 0.0145748 -0.090885274 0
0.1959689 0.14443019 -0.088094376 0
0.232669 0.3578091 -0.091123827 0
0.28131559 0.6406464 -0.092323057 0
0.34799409 1.0283234 -0.090119787 0
0.36825493 1.1461222 -0.050507236 0
0.87915325 4.1165481 -0.14022045 0
1.7624416 9.2520943 -0.14064275 0
0.58087349 2.3823125 0.26043481 0
0.58103442 2.3832483 0.34040105 0
0.58134651 2.3850627 0.42075577 0
0.26254961 0.5315389 0.28141415 0
0.27385852 0.59729022 0.32730791 0
0.27077711 0.57937449 0.36266178 0
0.2390105 0.39467946 0.36555341 0
0.1325262 -0.089001983 -0.092429318 0
0.14833131 0.019162092 -0.090990074 0
0.1683245 0.15598765 -0.089256801 0
0.19804738 0.35939947 -0.090580337 0
0.23830716 0.63492173 -0.090872727 0
0.29534608 1.0252738 -0.089066781 0
0.39490622 1.7066247 -0.089501075 0
0.75151396 4.1471095 -0.14069234 0
1.5062339 9.3121185 -0.14108548 0
0.50737125 2.4762917 0.26422319 0
0.50470978 2.4580777 0.34473327 0
0.50408512 2.4538026 0.42596331 0
0.22193144 0.52285272 0.27966499 0
0.27604756 0.89320248 0.36844635 0
0.2011963 0.38094941 0.36187938 0
0.10918485 -0.090820521 -0.091390707 0
0.12217714 0.017054353 -0.089945771 0
0.13911352 0.15767696 -0.088897817 0
0.16518599 0.3741565 -0.092026122 0
0.1976354 0.6435836 -0.091248326 0
0.24695456 1.0530801 -0.091043003 0
0.32798588 1.7258828 -0.090217687 0
0.62147081 4.1626863 -0.14061145 0
1.2442821 9.3338823 -0.14078254 0
0.42479756 2.5297093 0.26618302 0
0.42432153 2.5257568 0.34868446 0
0.42533344 2.5341587 0.43243161 0
0.42460144 2.5280809 0.51523322 0
0.22997849 0.91212803 0.37022844 0
0.16543643 0.37623587 0.36010897 0
0.085456692 -0.099169403 -0.089086197 0
0.097790226 0.030779038 -0.092024468 0
0.11103345 0.17031208 -0.090468638 0
0.13046558 0.3750526 -0.091629021 0
0.15674263 0.65191251 -0.091704629 0
0.19400573 1.0445235 -0.089719795 0
0.25781363 1.7168157 -0.089062251 0
0.4922933 4.1873379 -0.14110884 0
0.9833861 9.3615837 -0.14077359 0
0.34108025 2.5941284 0.268751 0
0.34005475 2.5833235 0.35205823 0
0.33981952 2.5808451 0.43591234 0
0.34003195 2.5830834 0.52056974 0
0.33974707 2.5800817 0.6050542 0
0.17243555 0.81725615 0.39931977 0
0.13080962 0.37867752 0.35986799 0
0.063631766 -0.087816387 -0.091111444 0
0.071927391 0.031535778 -0.091767453 0
0.081194796 0.1648691 -0.089175247 0
0.095940217 0.37701669 -0.091506653 0
0.1146019 0.64550894 -0.090555184 0
0.14252499 1.0472484 -0.089579619 0
0.19124311 1.7481732 -0.090865962 0
0.36103913 4.1910892 -0.1407823 0
0.72185558 9.3822832 -0.14075513 0
0.25262502 2.6312964 0.27013999 0
0.25307405 2.6377571 0.35535571 0
0.13261163 0.90462142 0.27828479 0
0.13382804 0.9221223 0.32501358 0
0.13414758 0.92671961 0.37099794 0
0.12470371 0.79084736 0.39434925 0
0.096544944 0.38571718 0.36066109 0
0.040936522 -0.08494249 -0.091447614 0
0.045851525 0.02628449 -0.090501167 0
0.051968522 0.1647127 -0.088876985 0
0.061320037 0.37633839 -0.091135345 0
0.073376067 0.64916748 -0.09070868 0
0.090644732 1.039959 -0.088625453 0
0.12218034 1.7536125 -0.090971641 0
0.22975175 4.1879635 -0.14029016 0
0.45965627 9.3907242 -0.14060512 0
0.16396002 2.6990907 0.27306062 0
0.162975 2.6767991 0.35772541 0
0.086885288 0.95488244 0.28272951 0
0.086416014 0.94426268 0.32728389 0
0.08665178 0.94959825 0.37383062 0
0.076884396 0.72856134 0.38367832 0
0.061711784 0.38520363 0.36019203 0
0.017903736 -0.094916493 -0.08917398 0
0.020132815 0.022844587 -0.089700736 0
0.023156948 0.18260792 -0.091667511 0
0.026930705 0.38197353 -0.091774516 0
0.0321915 0.65989858 -0.091810517 0
0.039465547 1.0441825 -0.088868849 0
0.052863192 1.7519729 -0.090704225 0
0.099092782 4.1942582 -0.14039123 0
0.19759189 9.3979139 -0.14058003 0
0.070875071 2.7035313 0.27313066 0
0.070974685 2.7087941 0.35976002 0
0.070866384 2.7030723 0.44589141 0
0.071058601 2.713227 0.53398794 0
0.032620396 0.68255705 0.37588835 0
0.026753258 0.37259915 0.35761046 0
-0.0046842201 -0.092143923 -0.089733057 0
-0.0054260804 0.025477801 -0.090166368 0
-0.0062739006 0.1598995 -0.087904595 0
-0.0075890096 0.36840966 -0.089837588 0
-0.0093541881 0.64827818 -0.090421684 0
-0.011831786 1.0411005 -0.088550933 0
-0.016316539 1.752157 -0.090686567 0
-0.0317741 4.2029486 -0.14075738 0
-0.064615972 9.410018 -0.14082301 0
-0.022523401 2.736253 0.27462849 0
-0.022447046 2.7241471 0.36079305 0
-0.022479372 2.7292721 0.44828355 0
-0.02246842 2.7275357 0.53559214 0
-0.0093485024 0.6473766 0.37006047 0
-0.0076793758 0.38273719 0.35947976 0
-0.027372925 -0.090842515 -0.090100922 0
-0.031169854 0.029499207 -0.09101548 0
-0.035575442 0.16913214 -0.089512981 0
-0.042262916 0.38108853 -0.091711454 0
-0.050675604 0.64772457 -0.090448387 0
-0.063984253 1.0695355 -0.091296919 0
-0.08568389 1.7572947 -0.091137491 0
-0.11864364 2.8019383 -0.075616859 0
-0.1190369 2.8144019 0.012488799 0
-0.11880043 2.8069072 0.10107882 0
-0.11890396 2.8101883 0.18957114 0
-0.11687934 2.7460191 0.2751669 0
-0.11644069 2.7321167 0.36147505 0
-0.1167168 2.7408679 0.44953302 0
-0.1166298 2.7381105 0.5370369 0
-0.050407279 0.63922006 0.36884734 0
-0.042428631 0.38634065 0.36028251 0
-0.050626289 -0.081399232 -0.092324622 0
-0.056793563 0.027111802 -0.090779267 0
-0.065091886 0.17311767 -0.090381585 0
-0.075887315 0.36305955 -0.089388631 0
-0.092004575 0.6466369 -0.09053462 0
-0.11573047 1.0640857 -0.091001935 0
-0.15497892 1.7546482 -0.091166504 0
-0.2143693 2.7996008 -0.07570488 0
-0.21408391 2.7945795 0.012851702 0
-0.21372682 2.7882967 0.10107841 0
-0.2139869 2.7928727 0.18926576 0
-0.21125177 2.7447491 0.27530196 0
-0.21045193 2.7306762 0.36166474 0
-0.21036264 2.729105 0.44882151 0
-0.077699177 0.3949385 0.26309136 0
-0.077015616 0.38291147 0.29420385 0
-0.076906689 0.38099495 0.3266229 0
-0.077113353 0.38463119 0.36024922 0
-0.073263511 -0.086073011 -0.091667123 0
-0.08243832 0.025553022 -0.090821303 0
-0.094100453 0.16744128 -0.089781411 0
-0.11160588 0.38042238 -0.09217111 0
-0.13338159 0.64535826 -0.090720855 0
-0.16754653 1.0610285 -0.091052614 0
-0.22398598 1.7477036 -0.091016658 0
-0.42397761 4.1809168 -0.14053856 0
-0.85003638 9.3645935 -0.14057383 0
-0.30622774 2.7483041 0.27577424 0
-0.30479243 2.7308412 0.36213395 0
-0.30488136 2.7319231 0.44969621 0
-0.30515337 2.7352324 0.53795207 0
-0.11331721 0.40124336 0.29712906 0
-0.11349432 0.40339819 0.33071476 0
-0.11110815 0.37436679 0.35876393 0
-0.095939741 -0.089062661 -0.091489889 0
-0.10829248 0.02568141 -0.091305502 0
-0.1228737 0.16112581 -0.089194857 0
-0.14520279 0.36853972 -0.090954669 0
-0.17506282 0.64590818 -0.091245152 0
-0.21864773 1.0507665 -0.09054967 0
-0.29090813 1.7219901 -0.089669012 0
-0.55418658 4.1675725 -0.14049281 0
-1.1121669 9.3506269 -0.14082642 0
-0.3990888 2.7268755 0.2751888 0
-0.39936608 2.7294512 0.36266237 0
-0.39718002 2.7091448 0.44839269 0
-0.39856032 2.7219665 0.53743976 0
-0.15034348 0.41629139 0.29972732 0
-0.14857166 0.39983299 0.33067611 0
-0.1472372 0.38743725 0.36185893 0
-0.11725812 -0.10203364 -0.089294188 0
-0.13475402 0.02926198 -0.092571132 0
-0.15383428 0.17244712 -0.091650806 0
-0.1805228 0.37272754 -0.092132591 0
-0.21535034 0.63408607 -0.090436317 0
-0.27208623 1.0598526 -0.091988198 0
-0.35761127 1.7016635 -0.088815711 0
-0.68481684 4.1571336 -0.14073752 0
-1.3725801 9.3183603 -0.14080554 0
-0.49193084 2.7096465 0.27490893 0
-0.48958838 2.6920679 0.3608202 0
-0.24241027 0.83715361 0.27306458 0
-0.24055485 0.82322985 0.3147842 0
-0.18550278 0.41009906 0.299454 0
-0.1849359 0.40584496 0.33237246 0
-0.18182948 0.38253334 0.36172092 0
-0.14112552 -0.095749885 -0.09134952 0
-0.16063647 0.026937637 -0.092842795 0
-0.17953892 0.14579871 -0.087927647 0
-0.21304584 0.35649469 -0.090536006 0
-0.25754458 0.63630873 -0.091406427 0
-0.31928393 1.0245342 -0.089362957 0
-0.42847484 1.7111413 -0.090187706 0
-0.81435245 4.1375918 -0.14070922 0
-1.6303333 9.26859 -0.14052698 0
-0.58248323 2.6795666 0.27413177 0
-0.58009648 2.6645584 0.35983118 0
-0.27884254 0.77023321 0.26737154 0
-0.27995735 0.77724332 0.31012923 0
-0.28044173 0.78028923 0.35288733 0
-0.21818395 0.38880387 0.36388043 0
-0.16457973 -0.094460458 -0.092464782 0
-0.18339109 0.0072163674 -0.089908265 0
-0.20863724 0.14367369 -0.088394113 0
-0.24707106 0.35141137 -0.090642475 0
-0.29587483 0.61519951 -0.089734219 0
-0.36997211 1.0157008 -0.089352347 0
-0.49551663 1.6942785 -0.089820303 0
-0.94465083 4.1218834 -0.14101674 0
-1.8897067 9.2299833 -0.14066455 0
-0.66869956 2.6303453 0.27255175 0
-0.6677655 2.6252966 0.35816351 0
-0.66869175 2.6303031 0.44477028 0
-0.66607386 2.6161532 0.52971405 0
-0.28854555 0.57558411 0.36261791 0
-0.25350907 0.38620928 0.36452687 0
-0.18566935 -0.10571656 -0.090988748 0
-0.21026245 0.010707889 -0.091536976 0
-0.23608759 0.13296476 -0.08754421 0
-0.27998599 0.34078088 -0.090075798 0
-0.3367818 0.60965377 -0.090027474 0
-0.42390203 1.0220833 -0.090915002 0
-0.5656532 1.6931369 -0.090694867 0
-0.61611587 1.9320288 -0.038031835 0
-0.61830729 1.9424031 0.031303015 0
-0.61791909 1.9405653 0.10105588 0
-0.75627536 2.5955474 0.27175382 0
-0.75246036 2.577487 0.3560335 0
-0.75296032 2.579854 0.44167733 0
-0.75169671 2.5738719 0.52680951 0
-0.28837997 0.38051823 0.36475173 0
-0.20839402 -0.10864338 -0.091439627 0
-0.23344333 -0.0032804871 -0.089922287 0
-0.26818433 0.14284769 -0.090284549 0
-0.3140274 0.33567372 -0.090423219 0
-0.37332726 0.58510202 -0.088162936 0
-0.47118336 0.99670619 -0.089570217 0
-0.52157897 1.2086811 -0.056971539 0
-0.61767066 1.612864 -0.023548631 0
-0.61848211 1.616277 0.038701214 0
-0.61955398 1.6207857 0.10104699 0
-0.83502614 2.5271089 0.26944491 0
-0.83070028 2.5089133 0.35255069 0
-0.834463 2.5247402 0.43832162 0
-0.83286226 2.518007 0.52251393 0
-0.83383399 2.5220942 0.60840636 0
-0.22856851 -0.12168452 -0.089795358 0
-0.25957447 -0.0044906405 -0.090899996 0
-0.29615897 0.13378862 -0.089960255 0
-0.34938705 0.33497599 -0.091538481 0
-0.41095045 0.5676685 -0.087257646 0
-0.51960957 0.97836977 -0.089011066 0
-0.57972455 1.2055876 -0.057751868 0
-0.64805651 1.4638636 -0.017164877 0
-0.64809817 1.464021 0.041967191 0
-0.64691168 1.4595363 0.10104271 0
-0.91417068 2.4697013 0.26774797 0
-0.91183794 2.4608841 0.35067391 0
-0.91146034 2.4594567 0.43415904 0
-0.91276783 2.4643986 0.51870948 0
-0.91205955 2.4617217 0.60285211 0
-0.25230375 -0.12117931 -0.09125077 0
-0.28537765 -0.0078181289 -0.091598473 0
-0.32409698 0.12489274 -0.089781977 0
-0.34137392 0.1841096 -0.070808418 0
-0.46170619 0.59654981 -0.09209951 0
-0.57128525 0.97213322 -0.089742698 0
-0.71363097 1.4600246 -0.077398889 0
-0.71198285 1.4543757 -0.017536772 0
-0.71174806 1.4535711 0.041804727 0
-0.71383536 1.4607253 0.10104325 0
-0.98763371 2.3991721 0.26549801 0
-0.97889709 2.3692272 0.34575224 0
-0.98155963 2.3783531 0.42861494 0
-0.97918284 2.3702066 0.51017845 0
-0.98280036 2.3826058 0.5948 0
-0.27155378 -0.1359022 -0.089453168 0
-0.31334397 -0.0050410298 -0.093637876 0
-0.3495965 0.10847965 -0.088426493 0
-0.37653521 0.19283512 -0.073425062 0
-0.39366248 0.24646726 -0.050642703 0
-0.39794579 0.25987986 -0.021428963 0
-0.3977446 0.25924984 0.0093427766 0
-0.39925289 0.26397291 0.039722171 0
-0.39361617 0.24632218 0.070812456 0
-0.39411384 0.24788049 0.10100748 0
-0.39538944 0.25187495 0.1313383 0
-0.39860135 0.26193264 0.16219407 0
-0.39666104 0.2558569 0.19242401 0
-0.39709073 0.2572023 0.22318275 0
-0.39433783 0.24858192 0.25291815 0
-0.39814371 0.26049963 0.28542459 0
-0.39733368 0.25796321 0.31623423 0
-0.39710379 0.25724319 0.34751543 0
-0.29714584 -0.13111243 -0.092139386 0
-0.33137184 -0.032588091 -0.089788981 0
-0.38257191 0.11479834 -0.091125615 0
-0.43097651 0.25413767 -0.084018268 0
-0.4290953 0.24872234 -0.052202318 0
-0.43316656 0.26044205 -0.02251835 0
-0.43059787 0.25304773 0.009027848 0
-0.42984688 0.25088587 0.03984981 0
-0.43221349 0.25769857 0.070277713 0
-0.43004075 0.25144389 0.10100789 0
-0.43087718 0.25385168 0.13164358 0
-0.43182012 0.2565662 0.16244639 0
-0.4326165 0.25885859 0.19341882 0
-0.43088108 0.25386301 0.22388487 0
-0.43224269 0.25778261 0.25534049 0
-0.42983341 0.25084713 0.28554595 0
-0.43099922 0.25420311 0.31739801 0
-0.43136102 0.25524452 0.34919927 0
-0.31694034 -0.14359811 -0.091074206 0
-0.35856041 -0.032883313 -0.091478176 0
-0.40568346 0.09247008 -0.088966064 0
-0.47372487 0.27346924 -0.088616334 0
-0.48743218 0.30993238 -0.061248977 0
-0.50754374 0.36343172 -0.033920217 0
-0.51075077 0.37196293 -0.00069623976 0
-0.51547492 0.38452974 0.032642711 0
-0.51704431 0.38870457 0.066742308 0
-0.51132917 0.37350145 0.10101196 0
-1.2028112 2.2129343 0.18070599 0
-1.1968291 2.1970208 0.25963795 0
-1.1608981 2.1014397 0.33199409 0
-1.1600056 2.0990655 0.40912455 0
-1.1569289 2.0908811 0.48574698 0
-1.1595494 2.0978518 0.56465578 0
-0.33683974 -0.15519008 -0.090317078 0
-0.38044122 -0.047532942 -0.090406485 0
-0.43597001 0.089574128 -0.090332977 0
-0.50724351 0.26555684 -0.089293592 0
-0.51619232 0.28765252 -0.060045619 0
-0.51323867 0.28035954 -0.026889896 0
-0.51125926 0.27547219 0.0055750776 0
-0.51023096 0.27293316 0.037571508 0
-0.50927877 0.27058211 0.06936653 0
-0.51151109 0.27609399 0.10100937 0
-1.2730641 2.1564577 0.25916889 0
-1.1949569 1.9636018 0.32387629 0
-1.1985431 1.9724565 0.39941734 0
-1.2023922 1.9819605 0.47581527 0
-1.2009904 1.9784992 0.55114228 0
-0.36067951 -0.15730271 -0.091864489 0
-0.40254518 -0.060990121 -0.089680709 0
-0.46215674 0.076147109 -0.08996398 0
-0.51393718 0.19526878 -0.080548979 0
-0.5104937 0.18734708 -0.048977632 0
-0.51551527 0.19889918 -0.01996067 0
-0.51111257 0.18877068 0.011168325 0
-0.516357 0.20083573 0.040556222 0
-0.50848246 0.18272009 0.071257465 0
-0.5127781 0.19260243 0.10100719 0
-1.3542511 2.1284235 0.25942874 0
-1.229108 1.8405297 0.31686074 0
-1.2259643 1.8332977 0.38842359 0
-1.2248331 1.8306954 0.46052065 0
-1.2290726 1.8404484 0.53477287 0
-1.2285377 1.8392177 0.60804045 0
-0.37974781 -0.17058143 -0.090952821 0
-0.43135446 -0.059605565 -0.092144541 0
-0.49146625 0.06965974 -0.090967588 0
-0.51242906 0.11473849 -0.070139848 0
-0.51270735 0.11533704 -0.041407708 0
-0.50692087 0.10289362 -0.011458321 0
-0.51196724 0.11374536 0.015927615 0
-0.51165843 0.11308137 0.044372115 0
-0.51295233 0.11586371 0.072632588 0
-0.50721753 0.10353163 0.1010048 0
-1.4290495 2.0858543 0.25904924 0
-1.2519251 1.7049632 0.3088645 0
-1.241281 1.6820741 0.37612832 0
-1.2402524 1.6798618 0.44517392 0
-1.2385046 1.6761036 0.51424277 0
-1.2373184 1.6735528 0.5837906 0
-0.39873496 -0.18356952 -0.090212174 0
-0.4525966 -0.07499668 -0.091264196 0
-0.51345861 0.047687206 -0.089277767 0
-0.51320642 0.047179017 -0.061628554 0
-0.50536114 0.031364713 -0.03218909 0
-0.51411951 0.049019609 -0.0072163846 0
-0.51395208 0.048682008 0.019967729 0
-0.5086453 0.037984762 0.047584362 0
-0.51182455 0.044393454 0.074141875 0
-0.51044244 0.041607413 0.10100325 0
-1.2516145 1.5356417 0.2981759 0
-1.2393916 1.5110033 0.36164913 0
-1.2323506 1.4968102 0.42547911 0
-1.2405944 1.513428 0.49375334 0
-1.2435523 1.5193903 0.56138694 0
-0.42051595 -0.19092003 -0.09093111 0
-0.47500345 -0.087711722 -0.091055475 0
-0.53187376 0.020010028 -0.086607598 0
-0.52984947 0.01617578 -0.058815721 0
-0.53490174 0.025745664 -0.033177812 0
-0.53358322 0.02324811 -0.0059028622 0
-0.52573436 0.0083810426 0.022100473 0
-0.53377259 0.023606811 0.047647152 0
-0.53423637 0.024485264 0.074316464 0
-0.52956992 0.015646253 0.10100284 0
-1.2497202 1.3797305 0.28840446 0
-1.2373399 1.3562799 0.34869742 0
-1.2394459 1.3602691 0.41164404 0
-1.2443837 1.3696222 0.47599766 0
-1.2419155 1.3649468 0.53865987 0
-1.2466788 1.3739696 0.60447484 0
-0.44092685 -0.20109293 -0.091105558 0
-0.50024295 -0.095293432 -0.092073537 0
-0.56001246 0.011314783 -0.087562941 0
-0.56186974 0.014627609 -0.060775686 0
-0.56306028 0.016751084 -0.033827562 0
-0.55353492 -0.00023886222 -0.0048673134 0
-0.55925602 0.0099655725 0.020882921 0
-0.55815619 0.0080038644 0.047742594 0
-0.56319278 0.016987476 0.074147768 0
-0.56038457 0.011978541 0.10100317 0
-1.2901776 1.3136783 0.16250746 0
-1.2943711 1.3211582 0.22443558 0
-1.2472268 1.2370689 0.27955291 0
-1.2346698 1.2146714 0.33696008 0
-1.2406871 1.2254043 0.39786056 0
-1.2400351 1.2242413 0.45775059 0
-1.235842 1.2167621 0.51678115 0
-1.2392805 1.2228951 0.57880479 0
-0.46018499 -0.21331498 -0.090902425 0
-0.52146369 -0.1102033 -0.091639914 0
-0.58614862 -0.0013600256 -0.087906681 0
-0.58617741 -0.0013116862 -0.060543794 0
-0.5876627 0.0011875961 -0.033689965 0
-0.58364046 -0.0055804518 -0.00584062 0
-0.58232462 -0.0077946451 0.02115185 0
-0.58250803 -0.0074860123 0.047800269 0
-0.58415174 -0.0047202376 0.07434123 0
-0.58670086 -0.00043084877 0.10100324 0
-1.3552164 1.2927248 0.16284248 0
-1.3564646 1.2948253 0.22481978 0
-1.2568883 1.1272714 0.27323744 0
-1.2426468 1.1033077 0.32832423 0
-1.241441 1.1012788 0.38533401 0
-1.2358565 1.091882 0.44133985 0
-1.2389718 1.0971241 0.50000262 0
-1.2388669 1.0969477 0.55821353 0
-0.47989228 -0.22475955 -0.091012396 0
-0.54264182 -0.12499365 -0.091344215 0
-0.60877258 -0.019851889 -0.087253593 0
-0.60881549 -0.019783702 -0.059988771 0
-0.60819489 -0.020770397 -0.032752369 0
-0.61062402 -0.016908374 -0.0062525552 0
-0.61069387 -0.016797271 0.020654092 0
-0.61229169 -0.014256861 0.047345795 0
-0.6117146 -0.015174355 0.074214257 0
-0.60941589 -0.018829133 0.10100313 0
-1.2510632 1.0013303 0.26550663 0
-1.2386272 0.98155814 0.31842646 0
-1.2427948 0.98818427 0.37413362 0
-1.2394755 0.98290676 0.42853326 0
-1.2371734 0.9792468 0.48331311 0
-1.2395785 0.98307067 0.53997755 0
-0.49995452 -0.23574355 -0.091367729 0
-0.56659645 -0.13549396 -0.092133753 0
-0.6397121 -0.025505807 -0.089234851 0
-0.6391955 -0.026282933 -0.061540458 0
-0.63494182 -0.032681789 -0.033281017 0
-0.63223392 -0.03675523 -0.0057923328 0
-0.633744 -0.034483638 0.020817267 0
-0.6415841 -0.022689786 0.046934869 0
-0.64100021 -0.02356806 0.074008353 0
-0.63978046 -0.025402989 0.10100344 0
-1.2480952 0.88968688 0.25883412 0
-1.2364613 0.87218601 0.30973825 0
-1.2383823 0.875076 0.36274675 0
-1.2418499 0.88029212 0.41659933 0
-1.2392569 0.87639135 0.46929827 0
-1.2360816 0.87161499 0.52198511 0
-0.5203675 -0.24639985 -0.091944866 0
-0.5831145 -0.15698782 -0.090545647 0
-0.66713786 -0.037257638 -0.09018258 0
-0.66471601 -0.040708687 -0.061889488 0
-0.66530269 -0.039872732 -0.034588654 0
-0.66920614 -0.034310427 -0.0079275202 0
-0.66001272 -0.047410693 0.020527611 0
-0.66472501 -0.040695872 0.047019385 0
-0.65968901 -0.047871973 0.074229874 0
-0.66381741 -0.041989174 0.10100344 0
-1.2959764 0.85881394 0.25894016 0
-1.2498292 0.79305571 0.30433941 0
-1.2389572 0.77756351 0.3533687 0
-1.236437 0.77397245 0.40382618 0
-1.2435865 0.7841602 0.45717767 0
-1.2456052 0.78703684 0.50983793 0
-0.53536284 -0.26463088 -0.090664797 0
-0.60722739 -0.16753253 -0.091590129 0
-0.69040388 -0.055150237 -0.090032823 0
-0.68908483 -0.056932416 -0.062042344 0
-0.69090879 -0.054468062 -0.03495473 0
-0.68798947 -0.058412399 -0.0071275663 0
-0.68861926 -0.057561543 0.019933896 0
-0.69590044 -0.047723677 0.04643612 0
-0.68813795 -0.05821183 0.074038126 0
-0.69509745 -0.048808601 0.1010038 0
-1.342271 0.82560736 0.25894931 0
-1.2452875 0.69457024 0.29662874 0
-1.2362339 0.68233758 0.34414876 0
-1.2338103 0.6790629 0.39278454 0
-1.2379352 0.68463618 0.4433592 0
-1.2375045 0.6840542 0.49320376 0
-0.56237108 -0.26698896 -0.093739189 0
-0.63147444 -0.17838684 -0.092725404 0
-0.71764654 -0.067899734 -0.091073312 0
-0.71969235 -0.065276653 -0.063711129 0
-0.71640629 -0.069489986 -0.035359759 0
-0.71685201 -0.068918437 -0.0079767238 0
-0.72776413 -0.054927256 0.018131474 0
-0.72046119 -0.064290851 0.046358459 0
-0.71655339 -0.069301337 0.073843703 0
-0.72452992 -0.059074011 0.10100407 0
-1.3834864 0.78581899 0.25847733 0
-1.2497991 0.61440951 0.29092199 0
-1.2448652 0.60808331 0.33784553 0
-1.2382009 0.59953862 0.38425508 0
-1.244935 0.60817283 0.43404511 0
-1.239964 0.60179919 0.4811435 0
-0.57457274 -0.28854719 -0.091782205 0
-0.64438808 -0.203545 -0.090545736 0
-0.74128056 -0.08557561 -0.091232605 0
-0.74820834 -0.077140778 -0.064913802 0
-0.75159347 -0.073019296 -0.037607748 0
-0.74678642 -0.078871995 -0.0089974906 0
-0.74452174 -0.081629366 0.018856833 0
-0.74595219 -0.079887718 0.046183743 0
-0.73763496 -0.090014189 0.073913381 0
-0.74476004 -0.08133921 0.10100394 0
-1.4350115 0.75906211 0.25926861 0
-1.2538558 0.53849977 0.28562328 0
-1.2399244 0.52153784 0.3295832 0
-1.2429878 0.52526754 0.3765229 0
-1.2382154 0.51945716 0.42196658 0
-1.2335387 0.51376313 0.4674364 0
-0.58728737 -0.30882415 -0.09022776 0
-0.66764182 -0.21587464 -0.091592334 0
-0.76057208 -0.10837808 -0.090409882 0
-0.77019954 -0.09724161 -0.064745151 0
-0.77914667 -0.086892039 -0.038443092 0
-0.77355117 -0.093364626 -0.0095729511 0
-0.77719212 -0.089152902 0.017787168 0
-0.76796752 -0.099823445 0.046233006 0
-0.77182472 -0.09536168 0.073496178 0
-0.77092725 -0.096399754 0.10100409 0
-1.4785485 0.72213715 0.25925595 0
-1.2475967 0.45498493 0.27928138 0
-1.2355616 0.44106331 0.32205811 0
-1.2433994 0.45012966 0.36848143 0
-1.2331829 0.43831185 0.41123071 0
-1.2456195 0.45269778 0.46010455 0
-0.61548513 -0.31155208 -0.093770958 0
-0.68372416 -0.23652956 -0.090691306 0
-0.78095055 -0.12963811 -0.090017743 0
-0.7983315 -0.11052939 -0.065971188 0
-0.79769605 -0.1112279 -0.037753407 0
-0.80381846 -0.10449693 -0.010670042 0
-0.80296236 -0.10543814 0.017443629 0
-0.79888546 -0.10992029 0.045629647 0
-0.80111468 -0.10746947 0.073254943 0
-0.79985911 -0.10884985 0.10100438 0
-1.2484688 0.38435522 0.27439946 0
-1.2419702 0.37721053 0.31696862 0
-1.241207 0.37637153 0.36051768 0
-1.2393275 0.37430516 0.40402696 0
-1.2417946 0.37701753 0.44895712 0
-0.6253866 -0.33464029 -0.091617964 0
-0.70128709 -0.25531158 -0.090361081 0
-0.79342568 -0.15901133 -0.087886237 0
-0.83882946 -0.11155674 -0.06974829 0
-0.82932705 -0.12148842 -0.039398465 0
-0.82823581 -0.1226289 -0.010987243 0
-0.83061707 -0.12014011 0.016876305 0
-0.82780802 -0.12307599 0.045158945 0
-0.82855552 -0.12229469 0.073071755 0
-0.8253051 -0.12569198 0.10100452 0
-1.256905 0.32540217 0.27091056 0
-1.2471139 0.31516901 0.31207389 0
-1.2399095 0.30763915 0.35332677 0
-1.2416936 0.30950394 0.39650142 0
-1.2433546 0.31123987 0.44009489 0
-0.64034545 -0.35200313 -0.091210626 0
-0.72229034 -0.27057323 -0.091080077 0
-0.82945031 -0.16408673 -0.091437899 0
-0.85828912 -0.13542911 -0.069269009 0
-0.85087067 -0.14280102 -0.039384041 0
-0.84719098 -0.14645758 -0.010638846 0
-0.86261147 -0.131134 0.015858257 0
-0.85890716 -0.13481501 0.044534951 0
-0.8619172 -0.13182387 0.072686598 0
-0.85895628 -0.13476619 0.101005 0
-1.2751321 0.27879408 0.1429013 0
-1.2727808 0.2764577 0.18467182 0
-1.2783087 0.28195086 0.22715577 0
-1.2398202 0.24370423 0.26434609 0
-1.2474915 0.25132731 0.30677605 0
-1.2369059 0.24080828 0.34632394 0
-1.2356831 0.23959306 0.3876045 0
-1.2394189 0.24330547 0.43043888 0
-0.65169978 -0.3726584 -0.089888595 0
-0.73857194 -0.29058328 -0.09065976 0
-0.85443515 -0.18111792 -0.092439182 0
-0.88208187 -0.15499786 -0.069756694 0
-0.88936728 -0.14811471 -0.042183314 0
-0.89092976 -0.14663848 -0.01355931 0
-0.87740785 -0.15941378 0.016491177 0
-0.8869459 -0.1504024 0.044102438 0
-0.88981622 -0.14769056 0.072477445 0
-0.8929165 -0.14476147 0.1010055 0
-1.2893676 0.22979799 0.14234488 0
-1.2879114 0.22842219 0.18362017 0
-1.3000144 0.23985687 0.2261969 0
-1.2417698 0.18482843 0.26065007 0
-1.2507761 0.19333747 0.30233297 0
-1.237777 0.18105617 0.34056562 0
-1.2369844 0.1803073 0.38097489 0
-1.2403399 0.18347755 0.42271891 0
-0.67361933 -0.38342246 -0.091765411 0
-0.75851268 -0.30717763 -0.091304578 0
-0.86765879 -0.20915064 -0.090916015 0
-0.92313093 -0.15932968 -0.073587485 0
-0.91759634 -0.16430047 -0.043328304 0
-0.91488421 -0.16673633 -0.01393286 0
-0.92196655 -0.16037551 0.014245423 0
-0.92122763 -0.16103908 0.043264035 0
-0.9192698 -0.16279748 0.07221172 0
-0.91658509 -0.16520873 0.10100561 0
-1.3296494 0.20577505 0.14265607 0
-1.3248179 0.20143583 0.18403322 0
-1.3265909 0.20302811 0.22581866 0
-1.2500167 0.13425484 0.25801611 0
-1.2603302 0.14351776 0.29920748 0
-1.2379076 0.12337938 0.33508465 0
-1.2510722 0.1352028 0.37765387 0
-1.2443461 0.12916198 0.41634002 0
-0.6872052 -0.40190443 -0.091350116 0
-0.78028303 -0.32245889 -0.092493631 0
-0.89295453 -0.22628942 -0.092188396 0
-0.95250362 -0.17546192 -0.07519976 0
-0.94375026 -0.18293324 -0.044193555 0
-0.94842422 -0.17894384 -0.015537722 0
-0.94831413 -0.17903784 0.013719039 0
-0.94401449 -0.18270776 0.043130435 0
-0.95120811 -0.1765677 0.071863919 0
-0.94794512 -0.17935279 0.10100602 0
-1.4078026 0.21315351 0.14413996 0
-1.4014347 0.20771816 0.18691321 0
-1.4024338 0.20857099 0.23006685 0
-1.2509339 0.079260021 0.25469667 0
-1.246219 0.075235635 0.29270583 0
-1.2380086 0.068227679 0.32998699 0
-1.2472322 0.076100379 0.37077722 0
-1.2425612 0.072113544 0.40900582 0
-0.700809 -0.42026368 -0.091077156 0
-0.79205102 -0.34628168 -0.091327719 0
-0.89858031 -0.25990424 -0.089365609 0
-0.98057646 -0.19341913 -0.076618724 0
-0.97473949 -0.19815192 -0.045840356 0
-0.98540753 -0.18950191 -0.017561315 0
-0.97754675 -0.19587573 0.012900794 0
-0.98199987 -0.192265 0.042055476 0
-0.97255975 -0.19991937 0.071829528 0
-0.98580509 -0.18917957 0.10100666 0
-1.2499256 0.024977956 0.25138152 0
-1.250111 0.025128279 0.28930816 0
-1.2379864 0.015297327 0.32522482 0
-1.239711 0.016695652 0.36357963 0
-1.2406135 0.017427359 0.40213346 0
-0.71505678 -0.43806371 -0.091107734 0
-0.80593228 -0.36810419 -0.09083093 0
-0.90877265 -0.28893366 -0.087721981 0
-1.0169426 -0.20566013 -0.079562463 0
-1.0175664 -0.20517996 -0.049258742 0
-1.0077467 -0.21273956 -0.017852714 0
-1.0145162 -0.20752802 0.011377798 0
-1.0133927 -0.20839307 0.041374184 0
-1.0149038 -0.20722976 0.071162365 0
-1.0168525 -0.20572951 0.10100707 0
-1.2408822 -0.033262756 0.24734616 0
-1.2445711 -0.030422892 0.28477246 0
-1.2437254 -0.031073894 0.32181582 0
-1.2351606 -0.03766742 0.35745099 0
-1.2381729 -0.035348441 0.39560756 0
-0.72364342 -0.46002564 -0.089767016 0
-0.81560177 -0.39285854 -0.089490511 0
-0.9372493 -0.30400613 -0.089980178 0
-1.0385389 -0.23002335 -0.079936378 0
-1.0386406 -0.22994903 -0.049492422 0
-1.0430815 -0.2267054 -0.019709377 0
-1.0341551 -0.23322532 0.01135725 0
-1.0497005 -0.22187081 0.040398277 0
-1.0471225 -0.22375384 0.070793539 0
-1.0555385 -0.21760669 0.10100774 0
-1.2554922 -0.071558863 0.24629179 0
-1.2344793 -0.08690688 0.27986535 0
-1.2403212 -0.082639903 0.31708288 0
-1.2342333 -0.087086588 0.35245389 0
-1.2435514 -0.080280572 0.3913388 0
-0.7409147 -0.4756048 -0.090839468 0
-0.84031492 -0.40677962 -0.09176416 0
-0.95099908 -0.3301414 -0.089332081 0
-1.0863659 -0.23641261 -0.084893636 0
-1.0755987 -0.24386796 -0.052069698 0
-1.0778252 -0.24232629 -0.021507164 0
-1.0741321 -0.24488345 0.0095519964 0
-1.0773561 -0.24265108 0.039909754 0
-1.0706266 -0.24731067 0.070665643 0
-1.0775082 -0.24254581 0.10100785 0
-1.2550153 -0.11963907 0.2078573 0
-1.2563173 -0.11873755 0.24380048 0
-1.2356826 -0.13302502 0.27685425 0
-1.2479662 -0.12451991 0.31454593 0
-1.239876 -0.13012156 0.34910882 0
-1.2434578 -0.12764153 0.38615218 0
-0.75436229 -0.49401289 -0.091023214 0
-0.85246593 -0.42968568 -0.091250964 0
-0.9761126 -0.34860966 -0.091058739 0
-1.1139177 -0.25824985 -0.086389638 0
-1.1172799 -0.25604525 -0.055314336 0
-1.1100984 -0.26075426 -0.023044122 0
-1.1086693 -0.2616913 0.0082062948 0
-1.1113161 -0.25995573 0.039048824 0
-1.1146388 -0.25777707 0.069952987 0
-1.1039958 -0.26475576 0.10100812 0
-1.2420791 -0.1742135 0.20497259 0
-1.2449502 -0.17233095 0.24012248 0
-1.2374766 -0.1772314 0.27413926 0
-1.2407432 -0.17508957 0.30973017 0
-1.2436285 -0.1731976 0.34566233 0
-1.2407221 -0.17510334 0.38072696 0
-0.75457436 -0.52069813 -0.088010751 0
-0.85348028 -0.45935628 -0.088406645 0
-0.98986644 -0.374769 -0.090652592 0
-1.1532135 -0.27346054 -0.089896403 0
-1.1559324 -0.27177414 -0.058134723 0
-1.1450177 -0.2785435 -0.024899384 0
-1.1544052 -0.27272138 0.0059250463 0
-1.1422127 -0.28028318 0.038344946 0
-1.1519746 -0.27422884 0.069426753 0
-1.1451851 -0.27843973 0.1010089 0
-1.2538878 -0.21102193 0.16979806 0
-1.2426625 -0.21798381 0.20336007 0
-1.2381854 -0.22076061 0.23715721 0
-1.2443955 -0.21690908 0.27232632 0
-1.2459738 -0.21593019 0.3072623 0
-1.229654 -0.22605184 0.33905184 0
-1.2428228 -0.21788445 0.37672588 0
-0.78928125 -0.52636439 -0.09370739 0
-0.87566382 -0.47576186 -0.090389736 0
-1.0095003 -0.39736113 -0.091499098 0
-1.17173 -0.3023276 -0.090030439 0
-1.1810259 -0.29688218 -0.059131358 0
-1.1861449 -0.29388341 -0.02744793 0
-1.1884947 -0.29250696 0.0045981128 0
-1.1845586 -0.29481277 0.037005756 0
-1.181721 -0.29647502 0.069101475 0
-1.1904993 -0.29133269 0.10100982 0
-1.2488807 -0.25713316 0.16848838 0
-1.2313727 -0.26738927 0.20089865 0
-1.2387645 -0.26305917 0.23516367 0
-1.2417896 -0.26128712 0.26938596 0
-1.2478057 -0.25776288 0.3044461 0
-1.2363315 -0.26448444 0.33672953 0
-1.2301052 -0.26813182 0.3697854 0
-0.79038 -0.55215675 -0.091198944 0
-0.89591879 -0.49385825 -0.092020176 0
-1.0252919 -0.42239389 -0.09172035 0
-1.1942909 -0.32904062 -0.090929739 0
-1.4285816 -0.19962099 -0.089902394 0
-1.7999353 0.0055108401 -0.09106835 0
-3.0244401 0.68191415 -0.1406581 0
-4.5378528 1.5179071 -0.14042795 0
-9.0946541 4.0350356 -0.14062659 0
-1.2528883 -0.29667208 0.13435718 0
-1.2504158 -0.29803786 0.16760762 0
-1.2346494 -0.30674705 0.19973601 0
-1.2513653 -0.2975134 0.23459516 0
-1.2354797 -0.30628839 0.26614216 0
-1.2339212 -0.30714932 0.2993153 0
-1.2392819 -0.30418816 0.33392277 0
-1.2384472 -0.3046492 0.36774886 0
-0.80761832 -0.56890351 -0.092746802 0
-0.89770478 -0.52206737 -0.089806296 0
-1.0287398 -0.45394203 -0.089770027 0
-1.2065854 -0.36147979 -0.090298735 0
-1.4374939 -0.24142995 -0.088511802 0
-1.8177119 -0.043753888 -0.090358235 0
-3.0641196 0.60425586 -0.14053805 0
-4.6062603 1.4060175 -0.14077388 0
-9.2323942 3.8111541 -0.14098999 0
-1.2497619 -0.33903214 0.13382646 0
-1.2336599 -0.34740368 0.165832 0
-1.2445613 -0.34173599 0.19919063 0
-1.2408755 -0.34365228 0.23169555 0
-1.2413999 -0.34337965 0.26470315 0
-1.2309327 -0.34882155 0.29617682 0
-1.2321361 -0.34819588 0.3294687 0
-1.2329917 -0.34775105 0.36300591 0
-0.80909932 -0.59376895 -0.090649016 0
-0.9159739 -0.54158682 -0.091224603 0
-1.0483426 -0.47695693 -0.090944819 0
-1.2246611 -0.39086834 -0.090708457 0
-1.4575688 -0.27714983 -0.088728137 0
-1.8469028 -0.087055057 -0.090972446 0
-3.1009779 0.52525479 -0.14035346 0
-4.6692805 1.290988 -0.14098376 0
-9.3305635 3.5668881 -0.14047223 0
-1.2492946 -0.37884089 0.10101011 0
-1.2458969 -0.38049987 0.133311 0
-1.2454474 -0.38071933 0.16562374 0
-1.2395073 -0.38361964 0.19755587 0
-1.2388939 -0.38391909 0.22983755 0
-1.2428393 -0.38199273 0.26282129 0
-1.242076 -0.38236544 0.29545334 0
-1.2329743 -0.38680938 0.32673439 0
-1.2397866 -0.38348326 0.36111912 0
-0.8137424 -0.6166566 -0.089461975 0
-0.92963707 -0.56364864 -0.091775335 0
-1.0534018 -0.50704104 -0.0895833 0
-1.2363549 -0.42336181 -0.090242542 0
-1.4850235 -0.3096256 -0.090007029 0
-1.8781997 -0.12979433 -0.091908611 0
-3.1400571 0.44735494 -0.14049593 0
-4.7240076 1.1718235 -0.1409162 0
-9.4551382 3.3357513 -0.14079407 0
-1.2583678 -0.41329351 0.10100993 0
-1.2487818 -0.41767797 0.13300143 0
-1.2488556 -0.41764417 0.16503175 0
-1.2471575 -0.41842088 0.1969991 0
-1.2307152 -0.42594132 0.2274694 0
-1.2413036 -0.42109838 0.26070449 0
-1.2409593 -0.4212558 0.29297441 0
-1.2448334 -0.41948393 0.32620117 0
-1.2307039 -0.42594644 0.35615236 0
-0.83465552 -0.63230288 -0.092182688 0
-0.93677878 -0.58867478 -0.091099136 0
-1.0722965 -0.5307802 -0.090845563 0
-1.2605696 -0.45034811 -0.091821127 0
-1.5036795 -0.34648904 -0.09025874 0
-1.8985089 -0.17781392 -0.09182959 0
-3.1774669 0.36856976 -0.14066026 0
-4.7752552 1.0511611 -0.14082631 0
-9.5611191 3.0957305 -0.1407907 0
-1.2481101 -0.45567092 0.10100918 0
-1.2476718 -0.45585814 0.13261783 0
-1.2414774 -0.45850447 0.16394685 0
-1.2339346 -0.46172681 0.19492739 0
-1.2538483 -0.45321944 0.22841509 0
-1.2448105 -0.45708051 0.25937781 0
-1.2453413 -0.45685378 0.29151362 0
-1.2302674 -0.46329346 0.32109758 0
-1.2299671 -0.46342179 0.35316956 0
-0.83876961 -0.65534037 -0.091124214 0
-0.93983501 -0.61514837 -0.08973027 0
-1.075839 -0.56106186 -0.089486398 0
-1.261061 -0.48740223 -0.089899622 0
-1.5228748 -0.38328329 -0.090693377 0
-1.9136082 -0.22789523 -0.091350384 0
-3.2079973 0.28686145 -0.14045578 0
-4.8302979 0.93202311 -0.14108087 0
-1.2515512 -0.49118412 0.06963028 0
-1.2544435 -0.49003389 0.10100897 0
-1.2400398 -0.49576199 0.13209878 0
-1.238441 -0.49639779 0.16314259 0
-1.2369792 -0.49697915 0.19418396 0
-1.2473747 -0.49284503 0.22644508 0
-1.2269651 -0.5009616 0.2554923 0
-1.2357907 -0.49745181 0.28809604 0
-1.2435392 -0.49437034 0.32116699 0
-1.2394668 -0.49598989 0.35248491 0
-0.8412329 -0.67873436 -0.089833938 0
-0.94794834 -0.63938379 -0.089524068 0
-1.0973551 -0.58429104 -0.091422759 0
-1.2786862 -0.51742649 -0.090703048 0
-1.5425664 -0.42012253 -0.091302074 0
-1.9280748 -0.27796897 -0.090939067 0
-3.2308683 0.20242694 -0.13983689 0
-4.879714 0.81042725 -0.14120379 0
-1.257412 -0.52527124 0.069786601 0
-1.246308 -0.52936578 0.10100835 0
-1.2387434 -0.53215516 0.13176705 0
-1.2360824 -0.53313637 0.16242719 0
-1.2340121 -0.53389978 0.19306579 0
-1.2517729 -0.5273506 0.22567555 0
-1.2457384 -0.52957577 0.25634512 0
-1.2419794 -0.53096187 0.28722283 0
-1.2406738 -0.5314433 0.31854612 0
-1.2424843 -0.53077567 0.35067078 0
-0.85331774 -0.69854552 -0.09084823 0
-0.96511513 -0.66049683 -0.091243155 0
-1.0887753 -0.61841071 -0.088219874 0
-1.2905042 -0.54975498 -0.090750508 0
-1.5572425 -0.45897421 -0.091401674 0
-1.9324433 -0.33127967 -0.089660756 0
-3.266511 0.12275234 -0.14032452 0
-1.2557586 -0.56158018 0.039168056 0
-1.2450675 -0.56521875 0.070367485 0
-1.2363248 -0.56819421 0.10100771 0
-1.2364023 -0.56816787 0.13143516 0
-1.2459219 -0.564928 0.16236436 0
-1.2408115 -0.56666726 0.19274817 0
-1.2334133 -0.56918508 0.22275367 0
-1.2422889 -0.56616443 0.25453538 0
-1.2391782 -0.56722307 0.2851482 0
-1.2534658 -0.56236053 0.31883013 0
-1.2431004 -0.56588823 0.34856972 0
-0.85581982 -0.72161788 -0.089832358 0
-0.96906906 -0.68623722 -0.090447061 0
-1.103839 -0.64413321 -0.08926212 0
-1.3050297 -0.58127844 -0.091316871 0
-1.5636139 -0.50049311 -0.090604208 0
-1.9718394 -0.37295774 -0.091949947 0
-3.2944996 0.040259752 -0.14039563 0
-1.2462119 -0.5996539 0.040140521 0
-1.2461497 -0.59967333 0.070592098 0
-1.2458342 -0.59977192 0.10100769 0
-1.2386565 -0.60201436 0.13124037 0
-1.2350305 -0.60314715 0.16132902 0
-1.2330847 -0.60375506 0.19142912 0
-1.2275451 -0.60548568 0.22118074 0
-1.2368574 -0.60257638 0.25261065 0
-1.2444959 -0.60019004 0.28442103 0
-1.2488641 -0.59882534 0.31625086 0
-1.2433515 -0.60054755 0.34658876 0
-0.87333143 -0.74017793 -0.092270367 0
-0.98166275 -0.70931125 -0.091476463 0
-1.1184521 -0.67033607 -0.090331219 0
-1.3180256 -0.61347193 -0.091772355 0
-1.5762779 -0.53988856 -0.09070497 0
-1.9790467 -0.42512831 -0.091201134 0
-1.2499564 -0.63286674 0.01003796 0
-1.2576449 -0.63067609 0.040043753 0
-1.2376568 -0.63637125 0.071025483 0
-1.2323725 -0.63787687 0.10100701 0
-1.2338376 -0.63745946 0.13089633 0
-1.2373823 -0.63644952 0.16098987 0
-1.2389144 -0.63601297 0.19117413 0
-1.2393866 -0.63587844 0.22142828 0
-1.2361079 -0.63681257 0.2513811 0
-1.248229 -0.63335896 0.28358954 0
-1.2310566 -0.63825184 0.3115904 0
-1.2479537 -0.6334374 0.34564641 0
-0.87190062 -0.76423454 -0.090637647 0
-0.98210347 -0.73582035 -0.090248965 0
-1.1170452 -0.70102763 -0.088787042 0
-1.3075216 -0.65191615 -0.088932671 0
-1.586597 -0.5799607 -0.090642475 0
-1.9865189 -0.47684678 -0.09061005 0
-1.2411724 -0.66902328 0.011292631 0
-1.2557073 -0.66527569 0.040552657 0
-1.2425874 -0.66865844 0.071111433 0
-1.2437786 -0.66835129 0.1010071 0
-1.2396655 -0.66941184 0.1308324 0
-1.2455841 -0.66788578 0.16097511 0
-1.234375 -0.67077589 0.19023062 0
-1.2491806 -0.66695851 0.22155094 0
-1.2250464 -0.67318112 0.24901898 0
-1.238234 -0.66978091 0.28089222 0
-1.2379928 -0.66984308 0.31133085 0
-1.2412181 -0.66901153 0.34266624 0
-0.87491006 -0.78688222 -0.090116002 0
-0.99537462 -0.75904381 -0.091638662 0
-1.1350054 -0.72677618 -0.090649776 0
-1.317328 -0.68464285 -0.089179404 0
-1.599538 -0.61942631 -0.091016568 0
-2.5198982 -0.40673819 -0.1405299 0
-1.2467234 -0.70095903 0.011445763 0
-1.2351258 -0.70363915 0.041907582 0
-1.2377751 -0.70302689 0.071409874 0
-1.2380874 -0.70295477 0.1010067 0
-1.2389255 -0.70276105 0.13063107 0
-1.244061 -0.70157433 0.16053326 0
-1.2515527 -0.69984305 0.1909153 0
-1.241116 -0.70225483 0.22003643 0
-1.244764 -0.70141184 0.25047499 0
-1.2534523 -0.699404 0.28198183 0
-1.2414031 -0.70218849 0.31061283 0
-1.2417542 -0.70210737 0.34128371 0
-0.8818298 -0.80861801 -0.090569802 0
-0.99416727 -0.78562713 -0.090350635 0
-1.1314063 -0.75753981 -0.088995524 0
-1.3272772 -0.71745294 -0.089564167 0
-1.6091621 -0.6597625 -0.091112189 0
-1.2448832 -0.73431569 -0.017728796 0
-1.2514114 -0.7329796 0.011602024 0
-1.2390646 -0.73550647 0.042044204 0
-1.2418587 -0.73493463 0.071475014 0
-1.2423323 -0.73483771 0.10100663 0
-1.2400165 -0.73531169 0.13049443 0
-1.2392938 -0.73545957 0.15997992 0
-1.2440555 -0.73448503 0.18988678 0
-1.2350609 -0.73632586 0.21880645 0
-1.2359623 -0.73614138 0.24860488 0
-1.2363081 -0.73607063 0.2785292 0
-1.2462733 -0.73403114 0.31028083 0
-1.2384148 -0.73563951 0.33932406 0
-0.88374996 -0.83137035 -0.090060793 0
-0.99591029 -0.81134993 -0.089761578 0
-1.138437 -0.78590906 -0.089253284 0
-1.3395933 -0.75000298 -0.090403609 0
-1.6115021 -0.70146763 -0.090463765 0
-1.2520758 -0.7656247 -0.017838402 0
-1.2366846 -0.768372 0.013078781 0
-1.2375208 -0.76822275 0.042401351 0
-1.2424819 -0.7673372 0.071602523 0
-1.2449967 -0.76688832 0.10100653 0
-1.2423184 -0.76736641 0.13040656 0
-1.2343094 -0.76879597 0.15945937 0
-1.2461793 -0.7666772 0.18960898 0
-1.2337437 -0.768897 0.21811326 0
-1.2306204 -0.76945448 0.24725847 0
-1.2399963 -0.7677809 0.27819973 0
-1.2307431 -0.7694326 0.30667785 0
-0.88117701 -0.85470062 -0.088711359 0
-1.0095334 -0.83511698 -0.091562249 0
-1.1511991 -0.81350273 -0.09058217 0
-1.3322618 -0.78587759 -0.088563733 0
-1.2509596 -0.79828203 -0.047040466 0
-1.2450897 -0.79917765 -0.016683577 0
-1.2311379 -0.80130631 0.013837354 0
-1.2331601 -0.80099773 0.042850822 0
-1.2410318 -0.79979676 0.07175903 0
-1.2350395 -0.80071104 0.10100609 0
