# .PCD v0.7 - Point Cloud Data file format
VERSION 0.7
FIELDS x y z intensity
SIZE 4 4 4 4
TYPE F F F F
COUNT 1 1 1 1
WIDTH 1361
HEIGHT 1
VIEWPOINT 0 0 0 1 0 0 0
POINTS 1361
DATA ascii
0.4375307 -1.3195966 -0.050550006 0
0.45720586 -1.3023509 -0.049940959 0
0.47716829 -1.310294 -0.050240181 0
0.49682173 -1.3054566 -0.050091874 0
0.51644701 -1.3019899 -0.050001316 0
0.53627723 -1.3025385 -0.050063185 0
0.55644745 -1.3068037 -0.050267156 0
0.57450694 -1.2863991 -0.049596038 0
0.59519887 -1.2957786 -0.050001286 0
0.61547369 -1.2991074 -0.050199002 0
0.6331957 -1.2816582 -0.049658202 0
0.65456122 -1.2924379 -0.050142474 0
0.67391151 -1.2880125 -0.050088041 0
0.6942687 -1.2897784 -0.050266456 0
0.71193999 -1.2760137 -0.04989107 0
0.73123276 -1.2719599 -0.049876019 0
0.75220895 -1.2760552 -0.050166912 0
0.77313858 -1.2789731 -0.050425205 0
0.78958452 -1.2619103 -0.049961325 0
0.80729097 -1.2512958 -0.049740743 0
0.82836396 -1.2542015 -0.050026465 0
0.8491959 -1.2554541 -0.050261784 0
0.86147302 -1.2263627 -0.049380418 0
0.88400918 -1.2334509 -0.049850509 0
0.9034602 -1.2296381 -0.049925018 0
0.92391038 -1.2286834 -0.050116442 0
0.93775141 -1.2080406 -0.049575284 0
0.9619143 -1.2174156 -0.050176289 0
0.97909135 -1.2067608 -0.05002882 0
0.99721938 -1.1988503 -0.049993917 0
0.9250983 -1.0119661 0.46115318 0
1.014951 -1.1900079 -0.04993175 0
0.94253159 -1.0091634 0.46240762 0
1.032547 -1.1809449 -0.049869344 0
0.9606576 -1.0077745 0.46425679 0
1.0494823 -1.1704488 -0.049759492 0
0.9721576 -0.99061424 0.46048692 0
1.0710379 -1.1705188 -0.050070215 0
0.99097621 -0.99059612 0.46299073 0
1.0911562 -1.1669335 -0.050249737 0
1.0052986 -0.9803471 0.46184877 0
1.1064522 -1.1529045 -0.050027456 0
1.0260388 -0.98378974 0.46581006 0
1.1236422 -1.1430812 -0.049978711 0
1.040084 -0.97291142 0.46458453 0
1.1432281 -1.1380548 -0.050130278 0
1.0580935 -0.9700554 0.466409 0
1.1608855 -1.1291014 -0.050134551 0
1.0795633 -0.97351485 0.47070125 0
1.1784674 -1.1199949 -0.050141636 0
1.1044596 -0.98264366 0.47726703 0
1.1945255 -1.108127 -0.050045021 0
1.1285803 -0.98934537 0.057194658 0
1.1304585 -0.99272829 0.16052382 0
1.1277555 -0.98785967 0.26430857 0
1.1299061 -0.99173325 0.37254903 0
1.1297226 -0.9914028 0.4838571 0
1.2061952 -1.088715 -0.049645741 0
1.1455637 -0.98267299 0.057284761 0
1.1459439 -0.98333782 0.16046153 0
1.1448014 -0.98133963 0.26479319 0
1.1385645 -0.97043163 0.36889851 0
1.1529288 -0.99555427 0.48885041 0
1.2311093 -1.0923533 -0.050204456 0
1.1688005 -0.98649377 0.057819057 0
1.1649997 -0.98003656 0.16118233 0
1.1665398 -0.98265308 0.26696551 0
1.1642325 -0.978733 0.37401682 0
1.168371 -0.98576421 0.48861122 0
1.2512532 -1.0873495 -0.050419774 0
1.2635421 -1.0694443 -0.050104741 0
1.2811558 -1.0602571 -0.050163329 0
1.2915407 -1.0400122 -0.049759157 0
1.3095101 -1.0314773 -0.049861945 0
1.3259506 -1.0206112 -0.049874064 0
1.3442935 -1.0123889 -0.050011314 0
1.3570193 -0.99633771 -0.049813423 0
1.377959 -0.99142367 -0.050118469 0
1.3902411 -0.9749493 -0.049916748 0
1.4124838 -0.97125834 -0.050302502 0
1.203419 -0.70764375 0.050290689 0
1.2035167 -0.70776701 0.13934232 0
1.4202583 -0.94935256 -0.049866643 0
1.2089564 -0.68970066 0.049915101 0
1.208645 -0.68931812 0.1381418 0
1.439777 -0.94198757 -0.050106995 0
1.2095428 -0.66623724 0.049282029 0
1.207666 -0.66398954 0.13597442 0
1.4544955 -0.92875308 -0.05008553 0
1.2106661 -0.64408332 0.048703991 0
1.2142671 -0.64828759 0.135144 0
1.4660109 -0.91189092 -0.049900189 0
1.2104534 -0.62102294 0.048077114 0
1.2075125 -0.61767566 0.13218318 0
1.4843413 -0.90278178 -0.050092269 0
1.199684 -0.58690506 0.046911545 0
1.2084328 -0.59661335 0.13055788 0
1.4971174 -0.88745886 -0.049995676 0
1.509654 -0.87197787 -0.049898013 0
1.5312002 -0.86585957 -0.050273117 0
1.5443389 -0.85092837 -0.050222293 0
1.5560193 -0.83461612 -0.050108697 0
1.5610398 -0.81205779 -0.049678076 0
1.5781313 -0.80113715 -0.049854934 0
1.6022559 -0.79642206 -0.050375421 0
1.6054227 -0.77268201 -0.049894236 0
1.6196536 -0.75892323 -0.049953911 0
1.6325245 -0.74396259 -0.049957663 0
1.6487507 -0.7317425 -0.050124954 0
1.6597322 -0.71518111 -0.050058063 0
1.6711535 -0.6990177 -0.050021198 0
1.6797522 -0.68074393 -0.049867399 0
1.6905297 -0.66420937 -0.049821969 0
1.7058409 -0.65096974 -0.049985494 0
1.7255343 -0.64065266 -0.050345838 0
1.7267196 -0.61741382 -0.049909189 0
1.7288014 -0.59513515 -0.049527153 0
1.7509441 -0.58611459 -0.050012473 0
1.7596759 -0.56827211 -0.049933556 0
1.7734945 -0.55359423 -0.050077412 0
1.7740285 -0.53091896 -0.04967653 0
1.7883617 -0.516514 -0.049858872 0
1.7997934 -0.50033534 -0.049928691 0
1.8089198 -0.48284563 -0.049912699 0
1.8169491 -0.46478721 -0.049861453 0
1.8300258 -0.44934371 -0.050022025 0
1.8411304 -0.43279424 -0.050110806 0
1.8450594 -0.41273221 -0.049923245 0
1.8560073 -0.39606908 -0.05002299 0
1.8649254 -0.37841448 -0.050050974 0
1.8741795 -0.3608807 -0.050100558 0
1.8849399 -0.34393659 -0.050216753 0
1.8806138 -0.32080403 -0.049759671 0
1.8848591 -0.30135295 -0.049644426 0
1.9048718 -0.28789976 -0.050140295 0
1.9130912 -0.26981631 -0.050192758 0
1.9193256 -0.25100228 -0.050178617 0
1.9129758 -0.2280101 -0.049699996 0
1.9220927 -0.21029763 -0.049813699 0
1.9301218 -0.19216646 -0.049894713 0
1.9231378 -0.16960154 -0.049425691 0
1.9407731 -0.15420942 -0.049881019 0
1.9459229 -0.1351855 -0.049880974 0
1.9535214 -0.116772 -0.049979892 0
1.9516037 -0.096025862 -0.04973786 0
1.9579976 -0.077313192 -0.049810175 0
1.9608555 -0.057799798 -0.049761888 0
1.9803729 -0.041611295 -0.050328955 0
1.9737434 -0.020185273 -0.049952853 0
1.9777348 -0.00084821443 -0.049972076 0
1.9881628 0.017484237 -0.050232738 0
1.9875858 0.037610415 -0.050104216 0
1.9866568 0.057695109 -0.049972367 0
1.9934158 0.076765262 -0.050126266 0
1.9869149 0.097372375 -0.049812458 0
1.990182 0.11683508 -0.049858637 0
1.9920847 0.13644551 -0.049864672 0
1.9869794 0.15654947 -0.049628746 0
1.9988462 0.17552716 -0.050008949 0
1.9957016 0.19543839 -0.049861033 0
2.0009816 0.21498309 -0.050023053 0
1.9986475 0.23478903 -0.049921945 0
2.0038519 0.25447932 -0.050098889 0
1.9949659 0.27420887 -0.049781639 0
2.002532 0.29402849 -0.050060652 0
2.0125856 0.31412646 -0.050437544 0
2.0032983 0.33364075 -0.050132513 0
1.9964294 0.35307992 -0.04992253 0
1.9867461 0.37217849 -0.049620397 0
1.9965791 0.39266729 -0.050025664 0
1.9900579 0.41189733 -0.049854189 0
1.9888866 0.43158361 -0.049883258 0
1.9884958 0.45138752 -0.049949352 0
1.9947672 0.47212759 -0.050264467 0
1.9862456 0.49093831 -0.050055865 0
1.9805893 0.51005793 -0.04995897 0
1.9755433 0.52921617 -0.04989269 0
1.9850529 0.55101752 -0.050363444 0
1.9673381 0.56777865 -0.049854588 0
1.9604596 0.58646047 -0.049747445 0
1.9536917 0.60509288 -0.04965264 0
1.9659646 0.62817717 -0.050264798 0
1.949093 0.64440644 -0.049816906 0
1.946385 0.66405165 -0.04989804 0
1.9416358 0.68319297 -0.049912982 0
1.9331141 0.7012502 -0.049796645 0
1.9358227 0.7226485 -0.05010749 0
1.9246089 0.73984361 -0.049907986 0
1.9145131 0.75726551 -0.049757838 0
1.9105698 0.77671134 -0.049847774 0
1.9009773 0.79418969 -0.049732991 0
1.9046046 0.81654364 -0.050130107 0
1.8889511 0.83169103 -0.049801204 0
1.8938614 0.85490155 -0.050269786 0
1.8783307 0.86991251 -0.049960934 0
1.8768584 0.89078671 -0.050204802 0
1.8698204 0.90935528 -0.050242517 0
1.8571584 0.92534733 -0.050068293 0
1.8424025 0.94020265 -0.04981805 0
1.8439326 0.96292537 -0.050222434 0
1.8290049 0.97756648 -0.049981099 0
1.8202586 0.99527448 -0.049994994 0
1.8131788 1.0139019 -0.050085712 0
1.7947204 1.0262421 -0.049721178 0
1.7885922 1.045391 -0.049868371 0
1.7820307 1.0644071 -0.050008651 0
1.7712212 1.0809516 -0.049982339 0
1.7671995 1.1017365 -0.050250649 0
1.7454441 1.1113107 -0.049778804 0
1.7337976 1.1271921 -0.049741171 0
1.7263514 1.145907 -0.049893279 0
1.7110765 1.1592771 -0.049715798 0
1.7007662 1.1760658 -0.049762361 0
1.6996678 1.1996988 -0.050227467 0
1.6789277 1.2088633 -0.049830467 0
1.6708083 1.2274933 -0.050005578 0
1.6543252 1.2396094 -0.049811076 0
1.6440603 1.256645 -0.049908504 0
1.6285151 1.2693377 -0.049770698 0
1.6204852 1.2883842 -0.049993109 0
1.610351 1.3057836 -0.05012909 0
1.588034 1.3122686 -0.049689982 0
1.5831482 1.3345475 -0.050099541 0
1.5675213 1.3469844 -0.049997859 0
1.5575333 1.3648412 -0.050184306 0
1.5395718 1.3748902 -0.049981218 0
1.5222867 1.3854342 -0.049816571 0
1.5065583 1.397456 -0.049737353 0
1.4961305 1.4151351 -0.04994376 0
1.0499357 0.93236887 0.30862269 0
1.48204 1.4289722 -0.049969543 0
1.4381572 1.3802766 0.059629276 0
1.4373057 1.3793317 0.16730008 0
1.440518 1.3828963 0.27754977 0
1.0490116 0.94845182 0.31236771 0
1.460677 1.4345641 -0.049611676 0
1.4092484 1.3760296 0.058829915 0
1.4185858 1.3866571 0.16655083 0
1.4129221 1.380211 0.2738795 0
1.0486042 0.96555513 0.31652862 0
1.4556234 1.4588139 -0.050147425 0
1.3907473 1.3830714 0.058586981 0
1.3982288 1.391806 0.16553518 0
1.3882455 1.3801507 0.27095491 0
1.0564346 0.99276304 0.32507348 0
1.436452 1.4667494 -0.049921777 0
1.3662617 1.3826829 0.058011901 0
1.3682004 1.3850049 0.16289316 0
1.3703744 1.3876086 0.26990071 0
1.0659409 1.0229902 0.33479461 0
1.4211099 1.4791434 -0.049914818 0
1.3449994 1.3856171 0.057609897 0
1.3426161 1.3826885 0.16095217 0
1.344793 1.3853635 0.26665366 0
1.0621037 1.0379894 0.33783326 0
1.4035534 1.488742 -0.049789406 0
1.319227 1.3824129 0.056944437 0
1.3212672 1.3849856 0.15970764 0
1.3145671 1.3765371 0.2619985 0
1.0519135 1.0453513 0.33761933 0
1.3938079 1.5083091 -0.050125003 0
1.3001386 1.3870953 0.056655977 0
1.2906849 1.3748617 0.15682487 0
1.2959224 1.3816392 0.26065025 0
1.0461317 1.0583947 0.33985057 0
1.3780192 1.5202479 -0.050122045 0
1.2743839 1.3825892 0.055970415 0
1.2740228 1.3821096 0.15635821 0
1.2728273 1.3805214 0.25796384 0
1.0415733 1.0733471 0.34288618 0
1.3630241 1.5332705 -0.050175946 0
1.2512397 1.38083 0.05542719 0
1.2520318 1.3819103 0.15493146 0
1.2487396 1.3774208 0.254924 0
1.0274506 1.0756488 0.34069857 0
1.3388202 1.5334687 -0.049675077 0
1.2409143 1.3963673 0.05566046 0
1.2408412 1.3962647 0.15547614 0
1.2468228 1.404641 0.25869846 0
1.0239638 1.0925629 0.34457731 0
1.3301201 1.5553523 -0.050134819 0
1.2429106 1.4299196 0.056680717 0
1.2496673 1.4396375 0.15983291 0
1.2483895 1.4377997 0.26374972 0
1.0163851 1.1041093 0.34626511 0
1.3137894 1.5665448 -0.050134528 0
1.2496384 1.4717523 0.058048181 0
1.2418921 1.4603059 0.16119194 0
1.2477231 1.4689221 0.26831037 0
1.0102212 1.117978 0.34891003 0
1.2959576 1.5754633 -0.050045859 0
1.2487907 1.5038407 0.058984175 0
1.2480128 1.5026594 0.16534284 0
1.233797 1.4810727 0.26873836 0
1.1688745 1.3824884 0.34756917 0
0.995341 1.1189786 0.34643811 0
1.2795486 1.5864927 -0.05005696 0
1.2488998 1.5386519 0.060028553 0
1.2467479 1.5352927 0.16820993 0
1.2214069 1.4957373 0.26973909 0
1.1501558 1.384519 0.34540212 0
0.98843515 1.1320838 0.34884295 0
1.262983 1.5972912 -0.050066996 0
1.2418759 1.5634128 0.060641959 0
1.2361917 1.5542892 0.16932994 0
1.2017071 1.4989389 0.26832953 0
1.1301666 1.3841112 0.34259015 0
0.97306269 1.1319474 0.34607288 0
1.2470864 1.6092142 -0.050132625 0
1.1911855 1.5169195 0.27009937 0
1.1079001 1.3794124 0.338595 0
0.96276152 1.1397833 0.34650028 0
0.84359783 0.9430396 0.47655138 0
1.2300924 1.61937 -0.050132889 0
1.1739724 1.5240247 0.26960805 0
1.0935552 1.3874 0.33846843 0
0.95997185 1.1604484 0.35192749 0
0.84035069 0.95721805 0.48278368 0
1.2050507 1.6154574 -0.049563415 0
1.1608393 1.5381334 0.27062041 0
1.072594 1.3837961 0.33498937 0
0.9453221 1.1612027 0.34969872 0
0.85121101 0.99660623 0.35522902 0
0.83494616 0.96815968 0.41162929 0
0.84477997 0.98535866 0.49853745 0
1.1975561 1.6423301 -0.050267927 0
1.1434157 1.5448112 0.27012712 0
1.056872 1.388927 0.3341608 0
0.93546271 1.1702421 0.35070863 0
0.84876221 1.0140754 0.36103287 0
0.83569229 0.99053365 0.42156574 0
0.83807784 0.99483049 0.50148028 0
1.1730503 1.6386855 -0.049733922 0
1.1258132 1.551018 0.26958579 0
1.0350049 1.3824861 0.33004177 0
0.92472357 1.1778144 0.35120434 0
0.84582537 1.0313866 0.36673775 0
0.8420862 1.0244471 0.4379881 0
0.84068894 1.0218539 0.51628393 0
1.1601886 1.6565124 -0.050080847 0
1.1088586 1.5583072 0.26931351 0
1.0169495 1.382466 0.3278777 0
0.91496903 1.1873556 0.35248691 0
0.85243762 1.0677199 0.38130933 0
0.8402887 1.0444765 0.44641876 0
0.8405956 1.0450637 0.52841657 0
1.1390018 1.6584593 -0.049796492 0
1.0942655 1.570179 0.27001283 0
0.99306524 1.3704762 0.32236907 0
0.9010849 1.1889673 0.35084975 0
0.84984225 1.0878479 0.38822755 0
0.83999133 1.0684087 0.45699769 0
0.83810127 1.064679 0.53808302 0
1.1260804 1.6767908 -0.0501762 0
1.0750041 1.5727718 0.26888055 0
0.98206502 1.3834976 0.32408905 0
0.88533694 1.1865067 0.34777835 0
0.84421349 1.1027571 0.39271104 0
0.83874941 1.0916293 0.4671168 0
0.83905375 1.0922492 0.55296636 0
1.1047124 1.6779896 -0.049882803 0
0.96222472 1.3783287 0.32069919 0
0.8755849 1.1961194 0.34924623 0
0.84112257 1.1236429 0.3999404 0
0.84000844 1.1212999 0.48075765 0
0.84224522 1.126004 0.57181424 0
1.0905932 1.6944543 -0.050201654 0
0.94409275 1.376078 0.31821883 0
0.86429322 1.202657 0.34962451 0
0.84027106 1.1504518 0.40984529 0
0.8407048 1.1513944 0.49454451 0
0.84245473 1.1551974 0.58754927 0
1.0727448 1.703099 -0.050220113 0
0.93247861 1.3878788 0.31974012 0
0.85221457 1.2075013 0.34943604 0
0.83653635 1.1722677 0.41743708 0
0.84001088 1.180076 0.50747567 0
0.84386468 1.1887366 0.6060155 0
1.0580633 1.7191498 -0.050535046 0
0.91765809 1.3926086 0.31933025 0
0.85084647 1.2372243 0.35831353 0
0.84023935 1.2125553 0.43333408 0
0.84098661 1.2142932 0.5233568 0
0.84104478 1.2144285 0.6193049 0
1.0302036 1.7040441 -0.049651135 0
0.90067297 1.3920252 0.31750646 0
0.84939396 1.2685021 0.36771101 0
0.84571147 1.2596315 0.45217058 0
0.83876461 1.2428976 0.53610766 0
0.83949971 1.2446685 0.63546813 0
1.0156821 1.7205778 -0.050001964 0
0.88091129 1.3840305 0.31371394 0
0.85062385 1.3083973 0.3801561 0
0.84139758 1.2853576 0.46135935 0
0.84234691 1.2877284 0.55755508 0
0.8408379 1.28396 0.657345 0
0.9908542 1.7111008 -0.049362741 0
0.86417341 1.3828384 0.31186831 0
0.85293573 1.3537188 0.39447036 0
0.83692086 1.3122201 0.47103214 0
0.83724558 1.3130616 0.56841755 0
0.84171444 1.3246415 0.67998868 0
0.97510177 1.7247664 -0.049619835 0
0.84902781 1.385416 0.31111482 0
0.84677571 1.379354 0.40172067 0
0.84309858 1.3694565 0.49410045 0
0.8400197 1.3611691 0.5914197 0
0.84107941 1.3640214 0.70169634 0
0.95737213 1.7334456 -0.049694277 0
0.83145654 1.3809898 0.30851898 0
0.84004861 1.4050403 0.40898389 0
0.83727133 1.3972664 0.50409311 0
0.8375656 1.3980901 0.60835648 0
0.9405905 1.7450593 -0.049887598 0
0.81883246 1.3901999 0.3096723 0
0.84073704 1.4540401 0.42444581 0
0.83779854 1.4454759 0.52300453 0
0.83922714 1.4496396 0.63297462 0
0.92213672 1.7520381 -0.049913883 0
1.0306736 2.081835 0.35107133 0
0.80229759 1.3878987 0.30777177 0
0.83707005 1.4935571 0.43651944 0
0.84191531 1.5082798 0.54819626 0
0.83839673 1.4975884 0.65558344 0
0.90474755 1.7624665 -0.050077904 0
1.0067371 2.0860336 0.3504684 0
0.78572744 1.3848693 0.30573982 0
0.83989251 1.5567107 0.45680654 0
0.84194833 1.5632329 0.56985748 0
0.84053379 1.5587453 0.6850372 0
0.88529718 1.7664684 -0.050009854 0
0.98162144 2.0860417 0.34913528 0
0.7686922 1.3796102 0.30317709 0
0.8366946 1.6052206 0.47191602 0
0.83970487 1.6152076 0.59014845 0
0.86618257 1.7714748 -0.049988482 0
0.95838583 2.0919242 0.34896889 0
0.7530517 1.3782921 0.30172694 0
0.84140748 1.6853698 0.49793819 0
0.84026277 1.6813912 0.61650008 0
0.84620798 1.773299 -0.049858309 0
0.7405926 1.3880461 0.047596801 0
0.7403205 1.3870536 0.13110557 0
0.73854208 1.3805665 0.21473175 0
0.74095887 1.3893821 0.30361655 0
0.83897066 1.7468995 0.51742691 0
0.83849066 1.7451488 0.64171624 0
0.828686 1.7841812 -0.050072048 0
0.72186387 1.3743571 0.046951938 0
0.72533548 1.3876758 0.13075419 0
0.72641057 1.3918005 0.21612389 0
0.72459185 1.3848228 0.3014141 0
0.83250761 1.798843 0.53356665 0
0.83266795 1.799458 0.66281676 0
0.80845469 1.7847468 -0.049913839 0
0.70999789 1.3865389 0.047269206 0
0.70558333 1.3686843 0.12825343 0
0.70948488 1.3844639 0.21409009 0
0.71020114 1.3873609 0.30113807 0
0.82225829 1.8405753 0.5461846 0
0.82398844 1.8475728 0.68124098 0
0.78815281 1.7845345 -0.049736928 0
0.69641918 1.3923917 0.047358975 0
0.69236618 1.3750659 0.12858801 0
0.69405359 1.3822793 0.21305604 0
0.69431412 1.3833929 0.29920563 0
0.81871068 1.9151632 0.57003552 0
0.77099961 1.798025 -0.050070856 0
0.6821872 1.3955888 0.047357656 0
0.68159628 1.3929112 0.13020161 0
0.68102181 1.3903081 0.21394713 0
0.67927068 1.3823732 0.29810125 0
0.80440575 1.9493984 0.58008748 0
0.75223356 1.8049183 -0.050171245 0
0.66475999 1.3833956 0.046801724 0
0.66563714 1.3876222 0.12928672 0
0.66533989 1.3861899 0.21262875 0
0.66517675 1.3854038 0.29810449 0
0.79249775 1.9989457 0.59537721 0
0.73121828 1.8006296 -0.049873311 0
0.65073693 1.3866689 0.046817664 0
0.64734757 1.3692356 0.12696216 0
0.64816928 1.3734621 0.20976812 0
0.65054166 1.3856647 0.29743412 0
0.77822983 2.0424366 0.6086278 0
0.71257836 1.8082774 -0.050018765 0
0.63611263 1.3867034 0.046722453 0
0.63808244 1.3975636 0.12977037 0
0.63606668 1.3864501 0.21166718 0
0.63497406 1.3804262 0.29538712 0
0.7642563 2.0931902 0.62436467 0
0.69394726 1.8166137 -0.050197348 0
0.62092602 1.3830081 0.046499096 0
0.62107801 1.3839108 0.12801018 0
0.62163061 1.3871921 0.2113505 0
0.62155026 1.3867151 0.29637763 0
0.74706942 2.1320572 0.6361174 0
0.67305475 1.8112462 -0.049888946 0
0.60605764 1.3803492 0.046320532 0
0.60638839 1.3824763 0.12760566 0
0.60478073 1.3721366 0.20818432 0
0.60709757 1.3870372 0.29586932 0
0.72838199 2.1670878 0.64662838 0
0.65443391 1.820289 -0.050110269 0
0.5911411 1.3764759 0.046105254 0
0.59134328 1.3778937 0.12688018 0
0.59260643 1.3867512 0.21046764 0
0.59228635 1.3845066 0.29467365 0
0.70683908 2.1877577 0.65237361 0
0.63363695 1.8138026 -0.049780611 0
0.57729638 1.379699 0.046152569 0
0.57790339 1.384376 0.12737556 0
0.57722926 1.3791821 0.20874077 0
0.57624996 1.3716365 0.29086795 0
0.68784016 2.2314374 0.66591996 0
0.61518019 1.8253433 -0.050108835 0
0.56409967 1.3887674 0.046416193 0
0.56301606 1.379506 0.12666017 0
0.56317395 1.3808553 0.20872983 0
0.56384766 1.3866137 0.2942729 0
0.66862381 2.2821155 0.68187064 0
0.59552491 1.8276503 -0.050113544 0
0.55173212 1.4076035 0.12952819 0
0.55235982 1.4136243 0.21438952 0
0.55178356 1.4080967 0.29938233 0
0.64449549 2.2973614 0.68602955 0
0.57380998 1.8075302 -0.049323101 0
0.55231708 1.5727488 0.14719827 0
0.55192673 1.568485 0.24217851 0
0.55232787 1.5728668 0.34123483 0
0.62174296 2.3311331 0.69647449 0
0.55599612 1.8298244 -0.050062187 0
0.60281318 2.4234872 0.23875901 0
0.59914851 2.3770175 0.38819578 0
0.59747201 2.3557591 0.5412364 0
0.53562975 1.8215023 -0.049713247 0
0.57434648 2.4063177 0.3931427 0
0.57363492 2.3955691 0.55092686 0
0.51680636 1.8374424 -0.05024115 0
0.54896986 2.4378827 0.39855176 0
0.54832399 2.4258254 0.55824649 0
0.49640703 1.8240728 -0.049729984 0
0.52195042 2.4478934 0.40012521 0
0.52164966 2.4405484 0.56167746 0
0.47670779 1.8227894 -0.049659844 0
0.45670649 1.1170241 0.35917035 0
0.45657456 1.1123686 0.43045712 0
0.45721701 1.8318028 -0.049966231 0
0.4459762 1.1177393 0.3593685 0
0.44583979 1.1090755 0.42869151 0
0.4374674 1.8282359 -0.049832229 0
0.4351325 1.0868168 0.41750422 0
0.43512607 1.0847738 0.49253994 0
0.41772979 1.8330743 -0.050007191 0
0.42468655 1.0963336 0.42228234 0
0.42484969 1.079056 0.4891682 0
0.39808708 1.8278638 -0.049832225 0
0.41394159 1.108428 0.35555437 0
0.41418424 1.0974175 0.42290729 0
0.41460788 1.0781935 0.48875234 0
0.37842986 1.8265468 -0.049805101 0
0.35212335 2.5859883 0.42495158 0
0.3525207 2.5745177 0.59574556 0
0.40500596 1.059322 0.47772619 0
0.35881805 1.8246076 -0.04976457 0
0.32234854 2.596415 0.42705017 0
0.32216197 2.6003635 0.60265118 0
0.39573315 1.0433701 0.46849865 0
0.33814439 1.8408281 -0.05038232 0
0.2924498 2.6039317 0.42869228 0
0.29212546 2.6093483 0.60535008 0
0.31893077 1.8308499 -0.050072171 0
0.26091963 2.6307082 0.43388656 0
0.26103893 2.6290634 0.61089307 0
0.2992655 1.8287137 -0.050051335 0
0.23012139 2.6402943 0.43604675 0
0.23041673 2.6368277 0.61348218 0
0.27966979 1.8259851 -0.050018102 0
0.19922391 2.6477499 0.43789378 0
0.19776593 2.6626432 0.62080061 0
0.25925061 1.8308853 -0.050267696 0
0.16674416 2.6671197 0.44197577 0
0.16679962 2.6666183 0.62262857 0
0.34599644 1.0467255 0.47280335 0
0.24120773 1.8150632 -0.049781501 0
0.13476859 2.6777101 0.44454297 0
0.13385426 2.6851203 0.62829393 0
0.21959747 1.8279533 -0.050337173 0
0.10300697 2.6840372 0.44641185 0
0.1020426 2.6911182 0.6308561 0
0.20172648 1.813074 -0.049901351 0
0.069153413 2.7025974 0.45058769 0
0.07094489 2.690577 0.63183957 0
0.18197004 1.8117414 -0.049962703 0
0.036763296 2.7084422 0.45252675 0
0.037142679 2.7060993 0.63707781 0
0.16284634 1.8065214 -0.04989231 0
0.0035374628 2.7174654 0.45512664 0
0.002079861 2.7258003 0.64352006 0
0.14242123 1.8084798 -0.050091248 0
-0.03020267 2.7272334 0.457946 0
-0.030753626 2.7301657 0.64611095 0
0.12374504 1.801007 -0.049956605 0
-0.08903195 2.8598261 0.10051353 0
-0.087811485 2.8537531 0.28984231 0
-0.063509241 2.7328203 0.46008146 0
-0.06209664 2.725791 0.64654142 0
0.10666485 1.7865183 -0.049574021 0
-0.11450644 2.8195903 0.099291794 0
-0.11283667 2.8117912 0.28597316 0
-0.095931903 2.7328305 0.46127141 0
-0.09525378 2.7296629 0.64922756 0
0.084121898 1.7972667 -0.050122187 0
-0.14331271 2.7978773 0.09875644 0
-0.14235301 2.7936549 0.28475344 0
-0.12680973 2.7252715 0.46114025 0
-0.12776078 2.7294557 0.65096325 0
0.064791337 1.7929958 -0.050130915 0
-0.17339219 2.7830484 0.098485544 0
-0.17321725 2.7823215 0.28432295 0
-0.16599835 2.7523148 0.46749926 0
-0.16208018 2.7360282 0.65459049 0
0.049032256 1.7746228 -0.049629174 0
-0.21083714 2.7979801 0.099323921 0
-0.20845576 2.7886024 0.28588724 0
-0.19643374 2.7412601 0.46688128 0
-0.1946394 2.734194 0.65613008 0
0.02566831 1.7860494 -0.050234325 0
-0.25118625 2.8214638 0.10049857 0
-0.25169194 2.823355 0.29067338 0
-0.22869034 2.7373307 0.46766281 0
-0.22887762 2.7380309 0.65928066 0
0.0080194939 1.775542 -0.050039131 0
-0.26103455 2.7332909 0.46850243 0
-0.25935346 2.7273068 0.65869766 0
-0.0092008542 1.7640562 -0.049815055 0
-0.29597414 2.7376292 0.47099677 0
-0.29365391 2.7297523 0.66171712 0
-0.028211994 1.7589051 -0.049834844 0
-0.32812232 2.7317135 0.47164848 0
-0.32647884 2.7263827 0.66331083 0
-0.048296675 1.7570306 -0.049986586 0
-0.35987091 2.7242439 0.47208497 0
-0.35861117 2.7203333 0.66430336 0
-0.066998765 1.7506968 -0.049980514 0
-0.39224201 2.7184188 0.47291213 0
-0.39340615 2.7218826 0.667454 0
-0.08327879 1.7374496 -0.049721796 0
-0.42262518 2.7065518 0.47266608 0
-0.42420644 2.7110674 0.66739434 0
-0.10293271 1.7339858 -0.049841404 0
-0.45659864 2.7046235 0.47439992 0
-0.45602703 2.7030547 0.66820043 0
-0.12327607 1.7320956 -0.050031085 0
-0.48464757 2.6863523 0.47307268 0
-0.48888016 2.6975291 0.66979802 0
-0.14040501 1.7216555 -0.049903516 0
-0.52114147 2.6900532 0.47606501 0
-0.51884937 2.6842232 0.66938376 0
-0.16045894 1.7186185 -0.050069019 0
-0.54982477 2.6734793 0.47521323 0
-0.55159622 2.6778235 0.6709739 0
-0.17715164 1.7073185 -0.049924918 0
-0.58287275 2.6675277 0.47650707 0
-0.58295238 2.667716 0.67165947 0
-0.19452579 1.6978222 -0.04985847 0
-0.61464894 2.658205 0.47722617 0
-0.61389256 2.6564758 0.6721431 0
-0.21355201 1.6920824 -0.049947403 0
-0.64132822 2.637363 0.47574806 0
-0.64230645 2.6395247 0.671139 0
-0.23082222 1.6824336 -0.049892202 0
-0.66821694 2.6174436 0.47451165 0
-0.67067277 2.6226933 0.67026317 0
-0.24964751 1.6760851 -0.049976122 0
-0.69899905 2.6059661 0.47502619 0
-0.69987774 2.6077845 0.67002767 0
-0.27017975 1.6730187 -0.050200947 0
-0.72886598 2.5924814 0.47521737 0
-0.73351347 2.6017976 0.67243904 0
-0.28581697 1.6600884 -0.050041519 0
-0.75389957 2.5695362 0.47356686 0
-0.75716221 2.5758753 0.66926688 0
-0.2998721 1.6444101 -0.049777891 0
-0.78499901 2.558501 0.47440118 0
-0.78271747 2.5542021 0.66738647 0
-0.32044977 1.6410377 -0.050020378 0
-0.80828893 2.5329344 0.47233438 0
-0.81117666 2.538214 0.66723967 0
-0.33642995 1.6291509 -0.049926266 0
-0.617396 2.1278117 0.082360521 0
-0.8391999 2.5214713 0.47323281 0
-0.84197545 2.5263975 0.66841793 0
-0.35324699 1.6188326 -0.049904481 0
-0.62048769 2.0794735 0.080917142 0
-0.85949981 2.4914575 0.47035089 0
-0.86188293 2.4955652 0.66411 0
-0.3721559 1.6120415 -0.050037969 0
-0.61855268 2.0246947 0.079196669 0
-0.89163423 2.4820383 0.47182664 0
-0.88552678 2.4718099 0.66194671 0
-0.38335758 1.5925186 -0.049648974 0
-0.62186432 1.9807669 0.077916473 0
-0.92193329 2.469228 0.47268146 0
-0.91186309 2.4528356 0.66128701 0
-0.40422601 1.5888038 -0.049930379 0
-0.61997163 1.9302845 0.076351017 0
-0.93656039 2.4313793 0.46828273 0
-0.93532598 2.4294255 0.65938306 0
-0.41279435 1.5657828 -0.049403343 0
-0.61699748 1.880157 0.074786805 0
-0.95612979 2.4022572 0.46576408 0
-0.95349002 2.3981931 0.65517324 0
-0.44482648 1.5785718 -0.050413653 0
-0.61259949 1.8298769 0.073201232 0
-0.98028541 2.3806291 0.46490243 0
-0.97790718 2.3770666 0.65409791 0
-0.44992757 1.5508355 -0.04969563 0
-0.61961734 1.798209 0.072405316 0
-1.0050265 2.3600578 0.46433067 0
-1.0022837 2.3560596 0.65314484 0
-0.47288752 1.5493175 -0.050119068 0
-0.61538327 1.751541 0.07095103 0
-1.0205632 2.3265543 0.46096909 0
-1.0228891 2.3298552 0.65065664 0
-0.48534572 1.5327728 -0.049896851 0
-0.62507224 1.7258564 0.070405811 0
-0.61998403 1.7188252 0.19894393 0
-1.0452001 2.3064179 0.46059585 0
-1.0392785 2.2982349 0.64652133 0
-0.07949914 0.97194612 0.44300291 0
-0.49883276 1.5178702 -0.049752533 0
-0.61460102 1.6736777 0.068682469 0
-0.61911392 1.6797514 0.19550222 0
-1.0618925 2.2756681 0.45790386 0
-1.0631661 2.2773821 0.64583498 0
-0.086889103 0.96345276 0.44176242 0
-0.5231449 1.5173224 -0.050258964 0
-0.61919951 1.6432544 0.067913465 0
-0.62111449 1.6457652 0.19271348 0
-1.0805131 2.2480578 0.45594549 0
-1.0859963 2.2552466 0.64482635 0
-0.099535897 0.96195138 0.44496816 0
-0.53475106 1.4999601 -0.050021842 0
-0.61596096 1.6036948 0.066725202 0
-0.62318373 1.6129209 0.1900564 0
-1.0975465 2.2188556 0.45365649 0
-1.1008906 2.2231274 0.64066565 0
-0.10455044 0.95043623 0.44194332 0
-0.55052513 1.4880476 -0.050038557 0
-0.61765897 1.5716127 0.065865442 0
-0.61616397 1.5697516 0.18595254 0
-1.1176486 2.1939759 0.45239356 0
-1.118457 2.1949821 0.63782418 0
-0.12207676 0.95473552 0.44907781 0
-0.56696534 1.4769199 -0.050100893 0
-0.61982989 1.5410523 0.065068103 0
-0.61846626 1.539398 0.18357851 0
-1.1285011 2.158144 0.44861659 0
-1.1284586 2.1580927 0.6321348 0
-0.1349168 0.95278233 0.45237491 0
-0.57898211 1.4604886 -0.049925551 0
-0.62124753 1.5104671 0.064262338 0
-0.61363316 1.5014631 0.1801161 0
-1.1447887 2.1295485 0.4465405 0
-1.1415621 2.1257331 0.62793994 0
-0.15251912 0.95620078 0.45933253 0
-0.59645319 1.4505285 -0.050061245 0
-0.62221336 1.4802232 0.063464701 0
-0.61991692 1.477576 0.17860568 0
-1.1596099 2.0996976 0.4441905 0
-1.1602049 2.1003833 0.62612206 0
-0.61177444 1.4380039 -0.050086368 0
-0.6349721 1.464074 0.063332222 0
-0.63769722 1.4671366 0.17902409 0
-1.1742303 2.070107 0.44192177 0
-1.1689385 2.0641599 0.62064987 0
-0.62154353 1.4193646 -0.049825504 0
-0.66042054 1.4619632 0.063884467 0
-0.66575015 1.467803 0.18109557 0
-1.1936462 2.0462339 0.44106749 0
-1.1827431 2.034287 0.61734581 0
-0.6312803 1.4009553 -0.049578782 0
-0.50834209 1.2696087 0.055155952 0
-0.68577945 1.459182 0.18187621 0
-1.1848716 1.9924096 0.43286452 0
-1.1878009 1.9955392 0.61096162 0
-0.65555286 1.3979361 -0.050096698 0
-0.50526214 1.2413651 0.054348469 0
-0.71676958 1.4617109 0.18436468 0
-1.1947684 1.9596841 0.42980883 0
-1.2011579 1.9663405 0.60789925 0
-0.66592193 1.3802676 -0.049902413 0
-0.51294065 1.2248588 0.054116979 0
-0.74253428 1.4580957 0.18601608 0
-1.2152182 1.9382805 0.42961159 0
-1.2142792 1.9373266 0.60492468 0
-0.68213201 1.3685738 -0.050015315 0
-0.52423358 1.2121588 0.054080509 0
-0.77768362 1.4632276 0.18907362 0
-1.2155478 1.8969779 0.42437801 0
-1.2203652 1.90175 0.59959245 0
-0.69821846 1.3566455 -0.050128073 0
-0.54197711 1.205722 0.054372653 0
-0.8117342 1.4662974 0.1919203 0
-1.2198352 1.8605078 0.4203313 0
-1.2292624 1.8696142 0.59548181 0
-0.709535 1.3401107 -0.050012972 0
-0.57008147 1.2087573 0.055173498 0
-0.83367264 1.4570376 0.19293948 0
-1.2302846 1.8306118 0.41797343 0
-1.2260416 1.8266152 0.58731502 0
-0.719733 1.3226546 -0.049855128 0
-0.86471581 1.4558109 0.068882987 0
-0.8707813 1.4613816 0.19617769 0
-1.2265387 1.7881191 0.4122594 0
-1.2287899 1.7901869 0.58149862 0
-0.23069216 0.87350547 0.37884477 0
-0.73536408 1.3102089 -0.049970016 0
-0.9040432 1.4612576 0.070053682 0
-0.89717388 1.4551063 0.19782573 0
-1.2296878 1.7528658 0.40840894 0
-1.2383362 1.7606102 0.57823354 0
-0.23708935 0.86401385 0.37816674 0
-0.74722552 1.2943604 -0.049912464 0
-0.93144107 1.4551885 0.070642948 0
-1.2416317 1.7259984 0.40681297 0
-1.2408155 1.7252859 0.57273751 0
-0.24055965 0.85201919 0.3759535 0
-0.75544226 1.2754592 -0.049694065 0
-0.98236811 1.4685946 0.072332606 0
-1.2431301 1.6905277 0.40284082 0
-1.2370903 1.6853871 0.56537116 0
-0.23450579 0.83209306 0.3686682 0
-0.25433981 0.84897363 0.4572964 0
-0.77394831 1.2652903 -0.049966335 0
-1.0163879 1.4664209 0.073212549 0
-1.2543223 1.6638138 0.40128672 0
-1.2413961 1.6530901 0.56091112 0
-0.25015652 0.83074671 0.37327069 0
-0.79116571 1.2538283 -0.050182592 0
-1.0438641 1.4581531 0.073784418 0
-1.2515631 1.6260928 0.3965911 0
-1.2403548 1.61703 0.55487597 0
-0.25453973 0.81992751 0.37183627 0
-0.80274475 1.2377254 -0.050147027 0
-1.0856295 1.4606265 0.075004876 0
-1.246765 1.5875944 0.39158326 0
-1.2500961 1.590219 0.55255103 0
-0.26400918 0.81322479 0.37316924 0
-0.81101191 1.2191075 -0.049971916 0
-1.1328007 1.4661599 0.076455504 0
-1.2493106 1.5556101 0.3884041 0
-1.2380594 1.546972 0.54335266 0
-0.25822002 0.79470301 0.36656892 0
-0.24558248 0.78500056 0.43375647 0
-0.82020259 1.2013305 -0.049850114 0
-1.1660215 1.459977 0.077267475 0
-1.25141 1.5238411 0.38524538 0
-1.2405924 1.5157503 0.5390566 0
-0.26617831 0.78696233 0.36725944 0
-0.28403187 0.80031538 0.45371756 0
-0.84069777 1.1918911 -0.05023868 0
-1.2057056 1.4577889 0.078360975 0
-1.2518072 1.4913726 0.38182542 0
-1.2310524 1.4762534 0.53111374 0
-1.2356805 1.4796246 0.69265741 0
-0.26026863 0.76906508 0.36088997 0
-0.27078414 0.77672529 0.44137481 0
-0.84815073 1.17286 -0.050058134 0
-1.2607549 1.4655499 0.080118522 0
-1.2558767 1.4620894 0.37933862 0
-1.2347815 1.4471251 0.52754831 0
-1.2428813 1.4528708 0.68940711 0
-0.27723676 0.76786953 0.36630556 0
-0.28155959 0.77093607 0.44406173 0
-0.85893738 1.1562821 -0.050034236 0
-1.301029 1.4615954 0.081215538 0
-1.2592397 1.4327353 0.3767997 0
-1.2475344 1.4246515 0.52692598 0
-1.2384821 1.4183999 0.68163157 0
-0.27959484 0.75618184 0.43902311 0
-0.86977303 1.1397537 -0.050021667 0
-1.27827 1.4143345 0.079593964 0
-1.2760658 1.4128529 0.22724977 0
-1.2537038 1.3978218 0.37242907 0
-1.2388256 1.387821 0.51979864 0
-1.2371489 1.386694 0.67532539 0
-0.28071493 0.74380463 0.43599916 0
-0.87198603 1.1175926 -0.049650278 0
-1.2654021 1.3749045 0.078433134 0
-1.2673749 1.3761947 0.22429416 0
-1.2547327 1.3679262 0.36960414 0
-1.2396686 1.3580736 0.51578367 0
-1.2289194 1.3510431 0.66648877 0
-0.2995016 0.74316192 0.44365561 0
-0.88818944 1.1046391 -0.049885709 0
-1.277378 1.3522459 0.078353904 0
-1.273615 1.3498518 0.223323 0
-1.2501799 1.3349421 0.3656894 0
-1.2493988 1.3344452 0.51460189 0
-1.2513517 1.3356878 0.66999096 0
-0.30306566 0.73237562 0.44222856 0
-0.90676844 1.0929563 -0.050225906 0
-1.2872154 1.3283254 0.078197531 0
-1.2820314 1.3251183 0.2226765 0
-1.2595152 1.3111882 0.36483875 0
-1.2322022 1.2942907 0.50544053 0
-1.2370912 1.2973154 0.65918702 0
-0.91221273 1.0730909 -0.050022509 0
-1.3081206 1.3111849 0.078516029 0
-1.3050638 1.3093466 0.22390701 0
-1.2474414 1.2746933 0.3595522 0
-1.2419387 1.271384 0.50451779 0
-1.2321367 1.2654892 0.65226579 0
-0.9258076 1.0581509 -0.050168004 0
-1.3269106 1.2925434 0.078753687 0
-1.3393729 1.299826 0.22655697 0
-1.2426221 1.2432878 0.35591608 0
-1.236396 1.2396494 0.49917233 0
-1.2316297 1.2368641 0.647264 0
-0.92827749 1.0367748 -0.049863525 0
-1.3802106 1.2932925 0.080416001 0
-1.3794537 1.2928628 0.22991617 0
-1.2467973 1.217567 0.35425341 0
-1.2389683 1.2131232 0.49636325 0
-1.2438327 1.2158842 0.64729846 0
-0.94798136 1.0251374 -0.050274678 0
-1.2467396 1.1897742 0.35179752 0
-1.2429752 1.1876997 0.49408919 0
-1.2403744 1.1862665 0.6414842 0
-0.94912195 1.0032406 -0.049937475 0
-1.2580066 1.1684219 0.35174599 0
-1.2356199 1.1564503 0.48863596 0
-1.2352259 1.1562395 0.63521242 0
-0.96098316 0.98716879 -0.050044756 0
-1.2479814 1.1360296 0.34742382 0
-1.2314606 1.1274606 0.48425025 0
-1.243619 1.1337669 0.63419884 0
-0.96570802 0.96742052 -0.049874302 0
-1.2693954 1.1201164 0.34955791 0
-1.2440149 1.1073549 0.48476964 0
-1.2396308 1.1051506 0.62868685 0
-0.97960067 0.95226842 -0.050078865 0
-1.2756301 1.0964731 0.34867418 0
-1.2432072 1.0806789 0.48156595 0
-1.2494391 1.0837147 0.62844795 0
-0.9798311 0.93050969 -0.049750492 0
-1.3070054 1.0848196 0.35286829 0
-1.229419 1.0482264 0.47481462 0
-1.2360849 1.0513704 0.61978996 0
-0.98983777 0.91346335 -0.049818426 0
-1.3005712 1.055264 0.34957224 0
-1.2367386 1.0261346 0.47413641 0
-1.2356038 1.0256168 0.61603856 0
-1.002413 0.89749461 -0.049994618 0
-1.311213 1.0337416 0.34973407 0
-1.2378033 1.0013522 0.47179553 0
-1.2431681 1.0037192 0.61535186 0
-1.0077487 0.87830144 -0.049896728 0
-1.3142495 1.0089486 0.34845725 0
-1.238151 0.97651124 0.46935505 0
-1.2347124 0.9750455 0.60897505 0
-1.0146282 0.85981476 -0.049868297 0
-1.3368522 0.9923948 0.35106388 0
-1.248143 0.95589513 0.46967447 0
-1.2320639 0.94927931 0.60485065 0
-1.0255291 0.842942 -0.050003432 0
-1.3411654 0.96818799 0.35014939 0
-1.2376714 0.9271211 0.46444681 0
-1.2437449 0.92953104 0.60599208 0
-1.0249834 0.8215878 -0.049708553 0
-1.354129 0.9474209 0.35096848 0
-1.2417588 0.9044615 0.46332008 0
-1.2377454 0.90292722 0.60091954 0
-1.0424817 0.80709088 -0.050111704 0
-1.3460025 0.91876805 0.3477813 0
-1.2370294 0.8786726 0.45987946 0
-1.2395371 0.87959528 0.59875137 0
-1.0364068 0.7839511 -0.049627308 0
-1.3575078 0.8975271 0.34843299 0
-1.2349343 0.85417187 0.4572551 0
-1.2392637 0.85570323 0.59596801 0
-1.0557359 0.76979613 -0.05011382 0
-1.3713877 0.87699246 0.34958524 0
-1.2466705 0.83463812 0.45845199 0
-1.2398791 0.83233172 0.59361476 0
-1.0613848 0.75082242 -0.050091401 0
-1.3783326 0.8540265 0.34946656 0
-1.2400854 0.80901062 0.4547942 0
-1.2381123 0.80836821 0.59054083 0
-1.065111 0.73126262 -0.050006125 0
-1.3805778 0.82960874 0.34851524 0
-1.2398676 0.78574264 0.45293877 0
-1.2425625 0.78658283 0.58975083 0
-1.0742899 0.71338713 -0.050133489 0
-1.3929814 0.80835277 0.34953716 0
-1.2348038 0.76121801 0.44987833 0
-1.235469 0.76141626 0.58505177 0
-1.082134 0.69503546 -0.050219223 0
-1.4118786 0.78879076 0.35182321 0
-1.2392 0.73969358 0.44942012 0
-1.2405232 0.74006981 0.58468103 0
-1.0780482 0.67338771 -0.049871981 0
-1.4165184 0.76503372 0.35148373 0
-1.2308656 0.71476537 0.44567031 0
-1.2430418 0.71806222 0.58353037 0
-1.0909816 0.65636855 -0.050163321 0
-1.408599 0.73809022 0.34886229 0
-1.2355951 0.69357699 0.44545701 0
-1.2447003 0.69591975 0.5821833 0
-1.0909637 0.63597566 -0.049985725 0
-1.4296639 0.71858919 0.35169256 0
-1.2436254 0.67321193 0.44618139 0
-1.2389648 0.67207515 0.57840395 0
-1.0942599 0.61647242 -0.049939487 0
-1.4348534 0.6950177 0.35162187 0
-1.2451514 0.65126991 0.44526789 0
-1.2407861 0.65026319 0.57731831 0
-1.1010549 0.5977599 -0.050030194 0
-1.4228876 0.66772294 0.34843999 0
-1.2437441 0.62877905 0.44366327 0
-1.2372309 0.62736315 0.57449883 0
-1.1029118 0.57797039 -0.049949329 0
-1.4384773 0.64650565 0.35040182 0
-1.2351321 0.60497481 0.44026053 0
-1.2540898 0.60884672 0.57871646 0
-1.1060525 0.5584811 -0.049924389 0
-1.4262255 0.61968356 0.34729603 0
-1.230965 0.58235866 0.43809849 0
-1.2403619 0.58415496 0.57264274 0
-1.1250875 0.54183787 -0.050484791 0
-1.440093 0.59795088 0.34904382 0
-1.240986 0.56248325 0.43969202 0
-1.2388717 0.56210661 0.57082325 0
-1.1141981 0.51984817 -0.049968809 0
-1.4517615 0.57560372 0.35043609 0
-1.2361057 0.53998369 0.43749368 0
-1.2329136 0.53945649 0.56759477 0
-1.1159455 0.50014752 -0.049920175 0
-1.4469522 0.55054718 0.34887111 0
-1.2384564 0.51880121 0.43723887 0
-1.2408135 0.51916015 0.56913215 0
-1.1180762 0.48053178 -0.049894392 0
-1.4602187 0.52822721 0.35065785 0
-1.2398647 0.49750939 0.43681055 0
-1.2475837 0.49858543 0.57037324 0
-1.1215726 0.46110412 -0.049926694 0
-1.4589033 0.50380605 0.34984204 0
-1.2421734 0.47637072 0.43668348 0
-1.2380493 0.47584864 0.56623155 0
-1.1203566 0.44111404 -0.049798422 0
-0.50991452 0.37163705 0.039864156 0
-0.51934266 0.37271011 0.10895887 0
-0.51576447 0.37230286 0.17813006 0
-1.2341287 0.45406291 0.4339664 0
-1.2444757 0.45524055 0.56753618 0
-1.1292372 0.42223227 -0.050041646 0
-0.51365125 0.36001059 0.039952457 0
-0.51015365 0.35965708 0.1078271 0
-0.4977386 0.35840219 0.17462984 0
-1.2338476 0.43280599 0.43331572 0
-1.2452353 0.43395704 0.56703103 0
-1.1344795 0.40285364 -0.050162736 0
-0.4777621 0.34481791 0.038625706 0
-0.51019412 0.347684 0.10771009 0
-0.50565791 0.34728312 0.17586264 0
-1.2421452 0.4123683 0.43493161 0
-1.2421416 0.41236797 0.56532896 0
-1.1254516 0.38230598 -0.049781524 0
-0.51625609 0.33619231 0.10825842 0
-0.50891554 0.33563668 0.17627646 0
-1.2399327 0.39097175 0.43392268 0
-1.2433375 0.39122948 0.56515056 0
-1.1357087 0.36324042 -0.050099742 0
-0.50706238 0.32360822 0.10717915 0
-0.50965482 0.32377166 0.1762614 0
-1.2483903 0.37034428 0.43571121 0
-1.2369379 0.36962226 0.56252903 0
-1.2398098 0.36980334 0.69978851 0
-1.1300346 0.34314385 -0.049856853 0
-0.5147211 0.31212503 0.10793103 0
-0.49876916 0.31132084 0.17417412 0
-1.2392912 0.34865165 0.43307993 0
-1.2410245 0.34873903 0.56349301 0
-1.2478017 0.34908068 0.70260632 0
-0.36181843 0.30441695 0.47769231 0
-1.1411088 0.32384863 -0.050221488 0
-0.51464778 0.30017138 0.10786655 0
-0.50987864 0.29999113 0.17608576 0
-1.2489024 0.32792273 0.43529671 0
-1.2545737 0.32813707 0.56769443 0
-1.2424572 0.32767913 0.70000517 0
-0.35834783 0.29426399 0.47537073 0
-1.1419326 0.30403477 -0.050228622 0
-0.40997189 0.28559589 0.3549419 0
-0.40488076 0.28546765 0.42512944 0
-0.381374 0.28487548 0.4888446 0
-1.1345189 0.284109 -0.049950548 0
-0.39653558 0.27481419 0.42085397 0
-0.37395418 0.27452978 0.4843291 0
-1.1300427 0.26437622 -0.049786303 0
-0.39380372 0.26437426 0.41945419 0
-0.38564259 0.26437423 0.49122295 0
-0.89405227 -0.98929471 -0.089278229 0
-1.0120724 -0.98929507 -0.089837946 0
-1.1246008 -0.98929536 -0.084019385 0
-1.1360396 -0.98929536 -0.058819477 0
-1.1255338 -0.98929536 -0.030688336 0
-1.1239959 -0.98929536 -0.0040347036 0
-1.1294004 -0.98929536 0.021946544 0
-1.1312802 -0.98929536 0.048258685 0
-1.1345756 -0.98929536 0.074568354 0
-1.1276225 -0.98929536 0.10100262 0
-1.1214614 -0.9892953 0.12713166 0
-1.1362312 -0.98929536 0.15397768 0
-1.1417794 -0.98929536 0.18092522 0
-1.1252452 -0.98929536 0.20615698 0
-1.143854 -0.98929536 0.23483652 0
-1.1285808 -0.98929536 0.25977781 0
-1.1231716 -0.9892953 0.28579122 0
-1.1294832 -0.98929536 0.31396002 0
-0.89530617 -1.0119159 -0.089605443 0
-1.0199974 -1.0150634 -0.091391869 0
-1.1316241 -1.017881 -0.085232981 0
-1.1221131 -1.0176409 -0.056912575 0
-1.1282798 -1.0177966 -0.031051299 0
-1.1357201 -1.0179844 -0.0051628407 0
-1.1264904 -1.0177515 0.022124881 0
-1.1361617 -1.0179956 0.048014566 0
-1.1444856 -1.0182056 0.074329458 0
-1.1317157 -1.0178833 0.10100275 0
-1.1269183 -1.0177622 0.12726721 0
-1.1335617 -1.0179299 0.15387009 0
-1.1286131 -1.017805 0.1800292 0
-1.139376 -1.0180767 0.20751069 0
-1.1392148 -1.0180726 0.23433651 0
-1.1262046 -1.0177442 0.25949422 0
-1.1224661 -1.0176499 0.28573406 0
-1.1295966 -1.0178299 0.31404924 0
-0.90367889 -1.034989 -0.09156964 0
-1.0178987 -1.0407585 -0.091180004 0
-1.1270713 -1.0462731 -0.084661804 0
-1.1254582 -1.0461917 -0.057534251 0
-1.2391114 -1.0519326 -0.044147301 0
-1.2452643 -1.0522435 -0.01550225 0
-1.2335299 -1.0516506 0.014556879 0
-1.253873 -1.0526782 0.042476933 0
-1.2426509 -1.0521114 0.07201869 0
-1.2378656 -1.0518698 0.10100581 0
-1.2459406 -1.0522776 0.13007002 0
-1.2430425 -1.0521312 0.15903029 0
-1.24818 -1.0523907 0.18848117 0
-1.2321614 -1.0515815 0.21628956 0
-0.9025839 -1.0578259 -0.0916434 0
-1.0174367 -1.0665374 -0.091399305 0
-1.1198325 -1.074304 -0.083764829 0
-1.1301104 -1.0750835 -0.058442805 0
-1.2388595 -1.0833319 -0.044349287 0
-1.2416027 -1.0835401 -0.015345303 0
-1.2253288 -1.0823057 0.014993997 0
-1.2397097 -1.0833964 0.043044873 0
-1.2462986 -1.0838962 0.071887448 0
-1.2445265 -1.0837618 0.10100605 0
-1.2401619 -1.0834308 0.12998137 0
-1.2437644 -1.083704 0.15915665 0
-1.2426231 -1.0836174 0.18823086 0
-1.2376161 -1.0832376 0.21698447 0
-0.8920306 -1.0797372 -0.089819588 0
-1.0134631 -1.0920361 -0.09107738 0
-1.153789 -1.1062485 -0.089787461 0
-1.2421557 -1.1151984 -0.074626215 0
-1.2498635 -1.1159791 -0.045967031 0
-1.2416757 -1.1151497 -0.015612377 0
-1.2386936 -1.1148478 0.01386256 0
-1.2391182 -1.1148907 0.042942971 0
-1.2354546 -1.1145197 0.072075807 0
-1.2402951 -1.1150099 0.10100602 0
-1.2388153 -1.1148601 0.13001472 0
-1.2458767 -1.1155752 0.15938579 0
-1.2447671 -1.1154629 0.18857685 0
-2.001019 -1.1920571 0.28890899 0
-1.9999028 -1.1919441 0.33613226 0
-1.9272258 -1.1845833 0.37344849 0
-1.4734635 -1.1386256 0.38019055 0
-0.89983362 -1.1035551 -0.092041381 0
-0.99931914 -1.1161743 -0.088945486 0
-1.1498259 -1.1352652 -0.089680664 0
-1.2019571 -1.1418779 -0.06943775 0
-1.2384851 -1.1465112 -0.045050044 0
-1.2386478 -1.1465318 -0.01566348 0
-1.2387058 -1.1465392 0.013610655 0
-1.2414911 -1.1468925 0.042664379 0
-1.2356002 -1.1461453 0.071989119 0
-1.2463989 -1.1475151 0.10100629 0
-1.2393764 -1.1466243 0.1301116 0
-1.2442231 -1.1472391 0.15947644 0
-1.2350932 -1.146081 0.18814707 0
-1.6013362 -1.192537 0.36651707 0
-1.4661232 -1.175386 0.37960121 0
-0.89726907 -1.1263393 -0.092171498 0
-1.0058912 -1.142912 -0.090868317 0
-1.1510646 -1.1650615 -0.090559818 0
-1.2071818 -1.1736233 -0.070782237 0
-1.6241249 -1.2372373 -0.091158219 0
-2.562016 -1.3803334 -0.1410284 0
-3.4105983 -1.5098034 -0.14029065 0
-5.135767 -1.7730162 -0.14093617 0
-10.269591 -2.5562949 -0.14058821 0
-1.3457553 -1.1947658 0.29250211 0
-1.354284 -1.1960671 0.3263669 0
-1.3673618 -1.1980624 0.36176214 0
-0.89470875 -1.1491705 -0.092427023 0
-1.0081606 -1.1694214 -0.092105411 0
-1.1422658 -1.193359 -0.089892484 0
-1.208581 -1.2051963 -0.071700819 0
-1.6176666 -1.2782174 -0.091195621 0
-2.5566285 -1.4458207 -0.14153041 0
-3.4032018 -1.5969329 -0.14077516 0
-5.1142249 -1.902348 -0.14092989 0
-10.231469 -2.8157687 -0.14069885 0
-1.3360076 -1.2279416 0.2919116 0
-1.3231398 -1.2256448 0.32210889 0
-1.3232884 -1.2256713 0.35441852 0
-0.87302107 -1.1681639 -0.088658594 0
-0.99919444 -1.1939864 -0.091317154 0
-1.1408622 -1.2229801 -0.090581842 0
-1.1899083 -1.2330179 -0.069858916 0
-1.6062441 -1.318225 -0.090764083 0
-2.5325272 -1.5077977 -0.1404092 0
-3.3923194 -1.6837624 -0.14116995 0
-5.0829153 -2.0297592 -0.14061418 0
-10.18513 -3.0739763 -0.14077011 0
-1.2577897 -1.2469105 0.31221348 0
-1.2427497 -1.2438323 0.34015775 0
-0.88134176 -1.1931888 -0.09151917 0
-0.99353069 -1.2191148 -0.091282211 0
-1.1269976 -1.2499579 -0.089299001 0
-1.1891285 -1.264316 -0.070688121 0
-1.5982546 -1.3588618 -0.090862624 0
-2.5142705 -1.570546 -0.13999076 0
-3.3740129 -1.7692258 -0.14119118 0
-5.0539236 -2.1574402 -0.1405606 0
-10.127999 -3.33002 -0.14073934 0
-0.8675012 -1.2132158 -0.089671917 0
-0.98427808 -1.243325 -0.090671964 0
-1.1184659 -1.2779233 -0.089028172 0
-1.3210163 -1.330148 -0.09089116 0
-1.5954551 -1.4009079 -0.091711618 0
-1.9866179 -1.5017635 -0.090619601 0
-3.3381214 -1.8502285 -0.14009826 0
-5.026413 -2.2855294 -0.14073235 0
-10.062398 -3.5839834 -0.14065968 0
-0.87571293 -1.2390853 -0.092796735 0
-0.98524684 -1.2702947 -0.092178397 0
-1.112765 -1.3066282 -0.089359351 0
-1.3010834 -1.3602855 -0.089296646 0
-1.5783273 -1.43928 -0.090954013 0
-1.9709338 -1.5511448 -0.090413727 0
-3.3200223 -1.9355383 -0.14043891 0
-4.9918494 -2.4118891 -0.14071986 0
-9.9956827 -3.8376231 -0.14070694 0
-0.84664154 -1.2540994 -0.08778841 0
-0.97127467 -1.2930365 -0.090882294 0
-1.1074888 -1.3355917 -0.089890547 0
-1.293484 -1.3936992 -0.089616947 0
-1.5633161 -1.4779985 -0.09056773 0
-1.959268 -1.6016995 -0.090720586 0
-3.2938395 -2.0186381 -0.14034729 0
-4.9477696 -2.5353491 -0.14039811 0
-9.9296732 -4.0917659 -0.14092714 0
-0.8462308 -1.2776272 -0.089256965 0
-0.96977603 -1.3196741 -0.092170499 0
-1.1025161 -1.3648504 -0.090605401 0
-1.2871757 -1.4276968 -0.090256371 0
-1.5494238 -1.5169495 -0.090436406 0
-1.9403285 -1.6499887 -0.090438209 0
-3.2740228 -2.1038935 -0.14087926 0
-4.8992033 -2.657002 -0.14000556 0
-9.8266621 -4.3339963 -0.14039734 0
-0.8494581 -1.3028833 -0.091697387 0
-0.94535547 -1.3382448 -0.089003555 0
-1.0832978 -1.3891101 -0.088960357 0
-1.2738519 -1.4593755 -0.089978926 0
-1.5472819 -1.5602009 -0.091889463 0
-1.9342418 -1.7028897 -0.091552563 0
-3.2350705 -2.1825612 -0.14015001 0
-4.8646626 -2.7834618 -0.14045696 0
-9.7620087 -4.589324 -0.14096396 0
-0.84277451 -1.324837 -0.092040367 0
-0.95603102 -1.3698772 -0.09301319 0
-1.084277 -1.4208784 -0.090978824 0
-1.2603735 -1.4909091 -0.089795642 0
-1.5197629 -1.5940639 -0.090301968 0
-1.9054192 -1.7474328 -0.090527795 0
-3.2028661 -2.2634056 -0.14006972 0
-4.8193779 -2.906265 -0.14053376 0
-9.6629934 -4.832489 -0.14083697 0
-0.83588916 -1.3468088 -0.092467837 0
-0.93545157 -1.3893429 -0.090827294 0
-1.0652739 -1.4448043 -0.089590453 0
-1.2558964 -1.5262402 -0.091106988 0
-1.5066968 -1.6333847 -0.090642206 0
-1.8802706 -1.7929792 -0.089978375 0
-3.181947 -2.3490684 -0.14100085 0
-4.7704568 -3.0276957 -0.1405834 0
-9.5606441 -5.0741124 -0.14077869 0
-0.81424683 -1.3621588 -0.089579873 0
-0.92605811 -1.4132991 -0.091034077 0
-1.0456605 -1.4680029 -0.088184245 0
-1.2344623 -1.5543573 -0.089950062 0
-1.4829525 -1.6680119 -0.089740865 0
-1.8724519 -1.8461615 -0.091318659 0
-3.1388526 -2.4253886 -0.14040333 0
-4.7189784 -3.1481078 -0.14065874 0
-9.456315 -5.3148742 -0.14082417 0
-0.81353939 -1.3869836 -0.091699295 0
-0.91244382 -1.4352742 -0.090484686 0
-1.0471592 -1.5010499 -0.090728365 0
-1.2239683 -1.587378 -0.090600096 0
-1.471523 -1.7082483 -0.090543054 0
-1.8432986 -1.8897698 -0.090598054 0
-3.10166 -2.5041723 -0.14040652 0
-4.6673059 -3.2686088 -0.14088146 0
-9.349225 -5.554584 -0.14095506 0
-0.79815686 -1.4047621 -0.090480082 0
-0.90990633 -1.4628609 -0.092396505 0
-1.0328401 -1.5267744 -0.090529554 0
-1.2101065 -1.6189356 -0.090856455 0
-1.4516588 -1.7445191 -0.090377681 0
-1.8178724 -1.9349142 -0.090375133 0
-3.0648201 -2.5832047 -0.14059323 0
-4.6043057 -3.3835864 -0.14067134 0
-9.2378826 -5.792592 -0.14113383 0
-0.7891798 -1.4257649 -0.090907492 0
-0.89663798 -1.4851238 -0.092174925 0
-1.0173529 -1.5518054 -0.090229742 0
-1.1885548 -1.6463755 -0.090008803 0
-1.4312601 -1.7804433 -0.090260021 0
-1.8039962 -1.9863387 -0.091501378 0
-3.0255456 -2.6611094 -0.14074638 0
-4.5449085 -3.5003893 -0.14080319 0
-9.1112242 -6.0227733 -0.14106674 0
-0.77853215 -1.4459236 -0.091059364 0
-0.87423706 -1.501987 -0.090078287 0
-1.0014492 -1.5765073 -0.089965589 0
-1.1697295 -1.6750852 -0.089704596 0
-1.3966515 -1.808015 -0.088337831 0
-1.7816231 -2.0335295 -0.091864638 0
-2.9803271 -2.7357247 -0.14057839 0
-4.4857297 -3.6175826 -0.14110672 0
-8.9727621 -6.2460651 -0.14083605 0
-0.76597881 -1.4649597 -0.090863295 0
-0.85900134 -1.5226526 -0.089630298 0
-0.99885446 -1.60939 -0.092390813 0
-1.1599243 -1.7092862 -0.091006152 0
-1.3796026 -1.8455316 -0.088895239 0
-1.7385551 -2.0681553 -0.090090416 0
-2.9340231 -2.8095894 -0.14047222 0
-4.4127774 -3.7267187 -0.14082134 0
-8.8354616 -6.4696851 -0.14078651 0
