# .PCD v0.7 - Point Cloud Data file format
VERSION 0.7
FIELDS x y z intensity
SIZE 4 4 4 4
TYPE F F F F
COUNT 1 1 1 1
WIDTH 1359
HEIGHT 1
VIEWPOINT 0 0 0 1 0 0 0
POINTS 1359
DATA ascii
-1.2378179 -0.067663558 0.6215927 0
-1.2540187 -0.14207602 -0.049712244 0
-0.99376482 0.37961769 0.04089817 0
-0.98951274 0.38814116 0.11002805 0
-0.99168932 0.3837781 0.18145314 0
-1.2417741 -0.11753107 0.39713812 0
-1.2415773 -0.11713649 0.51590043 0
-1.2415969 -0.11717606 0.64058644 0
-1.2377697 -0.15361023 -0.049826194 0
-0.97893625 0.38201576 0.04058798 0
-0.98161626 0.37646979 0.11077993 0
-0.98036593 0.37905729 0.18131727 0
-1.2403831 -0.1590184 0.40648302 0
-1.2386352 -0.15540123 0.52689642 0
-1.2205951 -0.1633625 -0.049877327 0
-0.96328217 0.38669044 0.040197261 0
-0.96604145 0.38079196 0.10964163 0
-0.96611118 0.38064283 0.17995504 0
-1.2428156 -0.21086264 0.41869524 0
-1.2409145 -0.20679867 0.54266512 0
-1.2027203 -0.17166245 -0.049879756 0
-0.95287657 0.38043088 0.040244985 0
-0.95236963 0.38155115 0.10895332 0
-0.95726913 0.37072444 0.18091346 0
-1.2440377 -0.26296389 0.43090147 0
-1.2381653 -0.24998736 0.55533612 0
-1.1916417 -0.19551039 -0.050496839 0
-0.93910646 0.38177383 0.040001314 0
-0.93538147 0.39028889 0.10735313 0
-0.94227445 0.37453192 0.17918664 0
-1.2402682 -0.30666864 0.44069812 0
-1.2415732 -0.30965173 0.57393301 0
-1.1668237 -0.18796849 -0.049899481 0
-0.92605597 0.38185018 0.039814766 0
-0.92486864 0.38466018 0.10746257 0
-0.93043053 0.37149709 0.17884572 0
-1.2406427 -0.36267376 0.45386279 0
-1.1459996 -0.18911278 -0.049652163 0
-0.91299111 0.38230532 0.039620917 0
-0.9157905 0.3754403 0.10800365 0
-0.91256702 0.38334548 0.1756369 0
-1.2383374 -0.41555727 0.46609873 0
-1.1301793 -0.20251608 -0.04988642 0
-0.90385002 0.37314898 0.039803069 0
-0.9003402 0.3820762 0.10672431 0
-0.90120822 0.37986833 0.17545751 0
-1.242951 -0.48934937 0.48401412 0
-1.1146412 -0.2171402 -0.050173793 0
-0.88546592 0.38803208 0.039071038 0
-0.89070553 0.37419617 0.10714161 0
-0.88694435 0.38412809 0.17381458 0
-1.2411202 -0.55112755 0.49855086 0
-1.0923252 -0.21376371 -0.049783327 0
-0.87684423 0.37762493 0.039312139 0
-0.87726408 0.37647265 0.10640918 0
-0.88041282 0.36783087 0.17615959 0
-1.0745783 -0.22261119 -0.04986763 0
-0.86021614 0.38956225 0.038711075 0
-0.86275506 0.38231164 0.10529365 0
-0.86418408 0.37823063 0.17340861 0
-1.0580539 -0.23529255 -0.050104406 0
-0.85136455 0.37968642 0.038942013 0
-0.85005146 0.38359344 0.10472026 0
-0.8513158 0.37983161 0.1723823 0
-1.0390222 -0.2407459 -0.050076939 0
-0.84022379 0.37637967 0.038929816 0
-0.83562189 0.39066529 0.10351355 0
-0.83644754 0.38810229 0.17012715 0
-1.0204161 -0.24752462 -0.050108064 0
-0.82504267 0.38620132 0.038432449 0
-0.82642817 0.38170719 0.10413472 0
-0.82581937 0.38368207 0.17031126 0
-1.0012228 -0.25239861 -0.050076921 0
-0.81219459 0.38933772 0.038192861 0
-0.81654775 0.37455904 0.10456382 0
-0.81683779 0.37357455 0.17158914 0
-0.98247325 -0.25878227 -0.050110847 0
-0.80174065 0.38456982 0.038253248 0
-0.80124789 0.38632387 0.10289407 0
-0.80330622 0.37899679 0.16997454 0
-0.96381652 -0.26561797 -0.050170109 0
-0.79302162 0.37314159 0.038564436 0
-0.78949356 0.38633627 0.1025588 0
-0.79053962 0.382424 0.16876967 0
-0.94291031 -0.26377773 -0.049918275 0
-0.78098971 0.3738603 0.10362574 0
-0.77668685 0.39080471 0.16667692 0
-0.92375088 -0.26845264 -0.049916118 0
-0.76726055 0.38202775 0.10241949 0
-0.76857358 0.37656981 0.16881797 0
-0.90517408 -0.27569771 -0.050016914 0
-0.75633055 0.37914723 0.16786239 0
-0.88544255 -0.27790415 -0.049942028 0
-0.74361229 0.38457286 0.16641256 0
-0.86495382 -0.27609015 -0.049729988 0
-0.73260558 0.38250005 0.16637525 0
-0.8479073 -0.29180348 -0.050164528 0
-0.72259718 0.37513256 0.16733509 0
-0.82953346 -0.3017242 -0.050395962 0
-0.80892587 -0.29889214 -0.050174076 0
-0.78761971 -0.29033256 -0.049755242 0
-0.769988 -0.30658686 -0.050240874 0
-0.74973053 -0.30438328 -0.050069772 0
-0.72994959 -0.30541849 -0.050024416 0
-0.7103675 -0.30818844 -0.050050281 0
-0.69029272 -0.30542731 -0.049886774 0
-0.67205274 -0.32641375 -0.050582521 0
-0.65118927 -0.31184971 -0.050014488 0
-0.63117087 -0.30674815 -0.049794383 0
-0.61154014 -0.3084451 -0.049826249 0
-0.59188533 -0.31021082 -0.049869388 0
-0.57221329 -0.31370389 -0.049983028 0
-0.55246323 -0.31552935 -0.050045978 0
-0.532731 -0.31320477 -0.049969647 0
-0.51297176 -0.31362021 -0.050000019 0
-0.4933542 -0.30997658 -0.049894258 0
-0.47374642 -0.30748677 -0.049838509 0
-0.45445892 -0.30070651 -0.049638033 0
-0.4963527 0.33209777 0.038996655 0
-0.43394244 -0.31126976 -0.050067164 0
-0.48435596 0.32799822 0.039173618 0
-0.41455281 -0.30616868 -0.049944468 0
-0.47367263 0.33963543 0.038792022 0
-0.3962442 -0.29150367 -0.049487077 0
-0.46196926 0.33891129 0.038858462 0
-0.37377107 -0.31518102 -0.050415497 0
-0.45053574 0.3409124 0.038832337 0
-0.44223592 0.26997524 0.11250864 0
-0.44262135 0.27326941 0.18413842 0
-0.44103867 0.2597425 0.26147994 0
-0.44145194 0.26327461 0.33796474 0
-0.44264042 0.27343243 0.41489378 0
-0.35638627 -0.29454076 -0.049760155 0
-0.43342811 0.29906553 0.040389907 0
-0.43102828 0.28057492 0.11152555 0
-0.42918372 0.26636249 0.18567151 0
-0.42907786 0.26554686 0.26038387 0
-0.4283098 0.25962907 0.33970392 0
-0.42982101 0.2712729 0.41643119 0
-0.42993677 0.27216476 0.50153404 0
-0.3363272 -0.29590452 -0.049905039 0
-0.41866517 0.28145468 0.041084021 0
-0.41817641 0.27802747 0.11198322 0
-0.42059416 0.29498076 0.1807664 0
-0.41913307 0.28473562 0.25587529 0
-0.42023566 0.29246706 0.32924116 0
-0.41918743 0.28511661 0.41134584 0
-0.41989326 0.290066 0.49333724 0
-0.31547248 -0.3017 -0.050219446 0
-0.40745559 0.28989673 0.040844914 0
-0.40689152 0.28626889 0.11128595 0
-0.40637791 0.28296548 0.18328767 0
-0.40727884 0.28875995 0.25530559 0
-0.40498531 0.27400893 0.33606303 0
-0.40757194 0.290645 0.40979081 0
-0.40715101 0.28793788 0.49533024 0
-0.29690084 -0.29258418 -0.050004169 0
-0.39143032 0.26873899 0.041682031 0
-0.39315781 0.27899706 0.11229337 0
-0.39166999 0.27016234 0.18599108 0
-0.39167067 0.27016634 0.26062509 0
-0.38913539 0.25511169 0.34311226 0
-0.39019498 0.26140344 0.42289251 0
-0.39789966 0.30715454 0.48657879 0
-0.27724975 -0.2902528 -0.050043043 0
0.068264268 -2.1951544 0.13116013 0
-0.38571072 0.30771852 0.48735148 0
-0.25823966 -0.28446436 -0.049965266 0
0.11456635 -2.2020149 0.1317061 0
-0.37490323 0.31560194 0.48447338 0
-0.23867439 -0.28160584 -0.050002836 0
0.15901442 -2.1980116 0.13187863 0
-0.36912709 0.34702718 0.46962735 0
-0.21933861 -0.27757001 -0.05000646 0
0.20445712 -2.1979177 0.13221501 0
-0.35868484 0.35385042 0.46738279 0
-0.19795783 -0.282251 -0.050338611 0
0.25039491 -2.1988678 0.1326116 0
-0.34730074 0.35615969 0.46751863 0
-0.18364583 -0.25735319 -0.049593892 0
0.29581645 -2.1965351 0.13290994 0
-0.0046809702 -0.98117542 0.25348184 0
-0.0062106638 -0.97498846 0.42016014 0
-0.33933204 0.37231863 0.46059039 0
-0.16373663 -0.25599945 -0.049721994 0
0.34423819 -2.2048502 0.13362317 0
-0.32552955 0.36472088 0.46597475 0
-0.14201425 -0.26090598 -0.05009155 0
0.38817987 -2.1948938 0.13368501 0
-0.3159968 0.37372988 0.46285215 0
-0.12227771 -0.25795674 -0.050180756 0
-0.30090773 0.36286622 0.47012714 0
-0.10098002 -0.25995815 -0.050464142 0
-0.30369473 0.41258478 0.44587013 0
-0.086842485 -0.23856819 -0.049883075 0
-0.29307508 0.41571516 0.44593883 0
-0.068028577 -0.23268867 -0.049889237 0
-0.28526026 0.42738479 0.44158009 0
-0.049623765 -0.22559381 -0.04985847 0
-0.2613427 0.39145303 0.46243429 0
-0.030971328 -0.21924746 -0.049864706 0
-0.0053240447 -0.23170722 -0.050596144 0
0.0043835253 -0.20142162 -0.049707703 0
0.028587481 -0.20901322 -0.05027613 0
0.043774568 -0.19383073 -0.049978945 0
0.062239729 -0.18679488 -0.050004147 0
-0.012538531 -0.012882596 0.05524563 0
-0.022949973 0.011331433 0.15140834 0
0.084352694 -0.18790519 -0.050356872 0
0.006662807 -0.013312584 0.055534445 0
0.0015759679 -0.0018810085 0.15376568 0
-0.19077249 0.43038368 0.37938941 0
0.093347512 -0.15990424 -0.049578506 0
0.022440752 -0.0058090738 0.055522628 0
0.02047207 -0.0015306524 0.15456864 0
0.11330833 -0.15623689 -0.049761876 0
0.042188786 -0.0066678575 0.055849146 0
0.038950942 0.00014149626 0.15524736 0
-0.15887238 0.41617692 0.39025488 0
-0.20380442 0.51067197 0.49433801 0
0.13038196 -0.14638913 -0.049710535 0
-0.0022393849 0.12369966 0.050968282 0
-0.0047982722 0.12891102 0.14074118 0
0.5554896 -1.0121386 0.46137172 0
-0.1617931 0.44863743 0.37762752 0
-0.19511358 0.51649594 0.4934707 0
0.14542587 -0.13260925 -0.049510069 0
0.094483159 -0.032081846 0.05748659 0
0.0097375726 0.13515043 0.14083852 0
0.58750242 -1.0049782 0.46279347 0
-0.1459593 0.44239378 0.38286734 0
-0.18398459 0.51743072 0.49592093 0
0.1723503 -0.14185786 -0.05024356 0
0.023654362 0.14262879 0.050783325 0
0.033107661 0.12454271 0.14300157 0
0.60766953 -0.97471523 0.45960504 0
-0.13712935 0.45024186 0.38165125 0
-0.18062602 0.53346014 0.48837996 0
0.18214531 -0.11821855 -0.049662009 0
0.034671329 0.15547943 0.05056246 0
0.051138185 0.12491845 0.1438743 0
0.65113407 -0.9886179 0.46549469 0
-0.12572645 0.45316267 0.38279632 0
-0.17752512 0.5492962 0.4809463 0
0.20610501 -0.12093151 -0.05015748 0
0.05480995 0.15158415 0.0510295 0
0.075539254 0.114246 0.14613903 0
0.68308467 -0.98007703 0.46690848 0
-0.11385075 0.45537907 0.38435078 0
-0.16266806 0.54330981 0.48828933 0
0.22088112 -0.10687257 -0.049979143 0
0.069360457 0.15813088 0.051080871 0
0.1087931 0.089164726 0.15024178 0
0.7188012 -0.9777143 0.46969935 0
-0.079379357 0.41827071 0.40474296 0
-0.16075082 0.56058609 0.47992104 0
0.23985131 -0.10018087 -0.050112359 0
0.083550535 0.16536653 0.051111653 0
0.12962784 0.087083332 0.15155891 0
0.76011652 -0.98408556 0.47443244 0
-0.06138847 0.4116106 0.41086623 0
-0.14854281 0.55968153 0.48401827 0
0.25603816 -0.088706262 -0.050056901 0
0.13311537 0.11424374 0.053585932 0
0.15647556 0.075675242 0.15409081 0
0.8046152 -0.9944272 0.4801482 0
-0.055598117 0.42581666 0.40704519 0
-0.13251533 0.55280977 0.49239036 0
0.27018562 -0.074026473 -0.049874719 0
0.15339567 0.11343013 0.053989679 0
0.84483129 -0.9963758 0.48424417 0
-0.12957789 0.56762385 0.48581633 0
0.28375593 -0.058678035 -0.049670242 0
0.16595586 0.12520003 0.053873945 0
0.88132447 -0.99144292 0.48700747 0
-0.12033547 0.5720818 0.48650891 0
0.30391076 -0.053584818 -0.049909718 0
0.19319184 0.11454117 0.054722752 0
0.91197449 -0.97692633 0.48782304 0
0.020450076 0.37684864 0.44100928 0
-0.11126239 0.57685333 0.48706692 0
0.3195338 -0.041488294 -0.049860239 0
0.21086432 0.11908697 0.054938104 0
0.95623106 -0.98230267 0.4930613 0
0.030984541 0.38488591 0.44066343 0
-0.10328437 0.58328813 0.48652011 0
0.34041879 -0.037015561 -0.050150342 0
0.24006428 0.10732364 0.055874139 0
0.99832898 -0.98328376 0.49750206 0
0.039470457 0.39583647 0.43891206 0
-0.10580433 0.60478425 0.47516194 0
0.35368636 -0.021518474 -0.049970914 0
0.049173974 0.40490222 0.43815792 0
-0.10264022 0.61749363 0.47008142 0
0.36882308 -0.0087790545 -0.04991927 0
0.072717749 0.39502001 0.4471876 0
-0.088110991 0.61434221 0.47664711 0
0.38143435 0.0072596022 -0.049728177 0
1.1311066 -0.98852921 0.10622755 0
1.1344178 -0.99292731 0.30830026 0
0.093544506 0.38966334 0.45411083 0
-0.084774502 0.62652427 0.47202814 0
0.39588723 0.020699853 -0.049659587 0
0.10991951 0.39075965 0.45786178 0
-0.074118651 0.6289165 0.47473273 0
0.41318652 0.030477995 -0.049765427 0
0.11994376 0.40023446 0.45733127 0
-0.072225697 0.64254534 0.46906039 0
0.44283149 0.025208825 -0.050574947 0
-0.056452967 0.63873929 0.47667855 0
0.44432303 0.054554578 -0.049800374 0
-0.053159334 0.65038663 0.47259086 0
0.46798334 0.0571835 -0.050274167 0
-0.046903051 0.65831077 0.47139841 0
0.48338398 0.069724433 -0.050296262 0
-0.041677453 0.66733354 0.46938717 0
0.48605224 0.096422069 -0.049647518 0
1.2046454 -0.70098209 0.099969976 0
0.5060783 0.10366952 -0.049938366 0
1.2109792 -0.65900731 0.099015512 0
-0.020864943 0.67380273 0.47480038 0
0.52446836 0.11294579 -0.050145235 0
0.37621644 0.26935124 0.054451525 0
-0.022806445 0.69031936 0.46686208 0
0.5323624 0.13323367 -0.049817864 0
0.38597468 0.28382838 0.0543199 0
0.83953923 -0.18277109 0.22138666 0
-0.0062894612 0.68736565 0.47490919 0
0.54068631 0.15276754 -0.04952934 0
0.39486679 0.29904664 0.054155413 0
0.84141618 -0.14891005 0.21893477 0
0.56001729 0.16125405 -0.049806423 0
0.41164514 0.30639207 0.054396421 0
0.73695141 -0.011823421 0.20059028 0
0.7397241 -0.014535671 0.33324957 0
0.73849469 -0.013333088 0.46850798 0
0.006204328 0.70299536 0.47357547 0
0.5853197 0.16431892 -0.050380126 0
0.4227967 0.31934327 0.05436153 0
0.83548242 -0.074301608 0.21287158 0
0.1921192 0.53937763 0.35061312 0
0.0065922351 0.71634454 0.46824065 0
0.59392935 0.18346667 -0.050135165 0
0.45840582 0.30951673 0.055527508 0
0.84190923 -0.047178749 0.21137574 0
0.19273014 0.55662096 0.34682763 0
0.010588369 0.72603053 0.46602717 0
0.59962195 0.20503068 -0.049764082 0
0.84065551 -0.013558632 0.07338091 0
0.8507424 -0.022706276 0.21029586 0
0.1867037 0.5794996 0.34020212 0
0.019372961 0.73124915 0.46777073 0
0.62099868 0.21238184 -0.050157554 0
0.83782524 0.020665044 0.072490536 0
0.83725399 0.021170253 0.20607024 0
0.8415851 0.017340655 0.34278888 0
0.2146221 0.57169777 0.34885332 0
0.02885594 0.73595119 0.47010013 0
0.63272828 0.22841942 -0.050096456 0
0.83832961 0.051190134 0.071787372 0
0.84169203 0.048291799 0.20451258 0
0.84132785 0.048605677 0.33904549 0
0.23138763 0.57437694 0.35246897 0
0.034516357 0.7440809 0.4694581 0
0.6395995 0.24848723 -0.049818911 0
0.84211594 0.078314416 0.071262673 0
0.8460688 0.074992888 0.20301092 0
0.84464198 0.076191895 0.33627608 0
0.93689483 -0.0013274006 0.50397122 0
0.25829634 0.56889307 0.3604691 0
0.27849069 0.55192393 0.45805588 0
0.046311341 0.74702221 0.47365454 0
0.65555733 0.26086378 -0.049975265 0
0.84221596 0.1079843 0.070589088 0
0.84564167 0.10517847 0.20090427 0
0.84638184 0.10457217 0.33324951 0
0.94659084 0.022497887 0.50199389 0
0.28635135 0.56325567 0.36885032 0
0.25188544 0.59148443 0.43911949 0
0.046844326 0.7594198 0.46920329 0
0.6734038 0.271878 -0.050223473 0
0.8498283 0.1310544 0.070282549 0
0.84767252 0.13277519 0.1992092 0
0.84244055 0.13695145 0.32902506 0
0.98478645 0.023329729 0.50943834 0
0.26675281 0.59647024 0.35683197 0
0.25056389 0.60939234 0.43403202 0
0.05794283 0.76314408 0.47293285 0
0.68052632 0.29145902 -0.049990542 0
0.84953862 0.1600014 0.06963481 0
0.83901769 0.16818464 0.19612335 0
0.84255248 0.16543531 0.32586151 0
0.25832996 0.61984265 0.43387976 0
0.058987223 0.77489108 0.4691076 0
0.6967842 0.30391508 -0.050180133 0
0.86181706 0.17885578 0.069572598 0
0.83880061 0.19629729 0.19426496 0
0.84159201 0.19418204 0.3225669 0
0.26037416 0.63461983 0.43082517 0
0.066397987 0.78161186 0.47016647 0
0.70585757 0.32184458 -0.050056152 0
0.85550004 0.21138632 0.068696387 0
0.84009844 0.22275496 0.19267362 0
0.82824057 0.23150778 0.31660673 0
0.29458442 0.62542534 0.44444823 0
0.070202313 0.79105264 0.46861982 0
0.71773726 0.33765292 -0.05006665 0
0.84662849 0.24499631 0.067733854 0
0.83509046 0.25329065 0.19030632 0
0.84236342 0.24806225 0.31690753 0
0.081966721 0.7946921 0.47298828 0
0.72024149 0.36003637 -0.049677208 0
0.84992534 0.26926464 0.067328557 0
0.83465904 0.27995026 0.18861078 0
0.83956033 0.2765196 0.31352571 0
0.83410281 0.28033954 0.43934464 0
0.087031566 0.80324918 0.47250202 0
0.73246974 0.37546575 -0.049723409 0
0.87406653 0.27898902 0.067840472 0
0.83999223 0.30220544 0.18772325 0
0.84334844 0.29991871 0.31168976 0
0.84644622 0.29780805 0.43940333 0
0.10760774 0.80121464 0.4832288 0
0.74402505 0.39138424 -0.049748752 0
0.91912037 0.27528411 0.06924922 0
0.83623844 0.33024049 0.18570761 0
0.84838384 0.32218724 0.31020302 0
0.84198803 0.32642812 0.43438581 0
0.11098977 0.81112933 0.48161325 0
0.76050526 0.40415061 -0.049991682 0
0.96195942 0.27419472 0.070550486 0
0.83818287 0.35404164 0.18448238 0
0.83546871 0.35579252 0.3049362 0
0.83061713 0.35892224 0.42741996 0
0.12506928 0.81406349 0.48764881 0
0.76347941 0.42559665 -0.049670275 0
0.98528379 0.2864365 0.071018472 0
0.84130973 0.37676597 0.18345496 0
0.84159285 0.37658828 0.30385485 0
0.84199888 0.37633353 0.42748553 0
0.12716497 0.8248207 0.48527297 0
0.78877717 0.43316376 -0.050296213 0
1.0347691 0.28311139 0.07258337 0
0.84523469 0.39872527 0.18257207 0
0.8378225 0.40324658 0.30074707 0
0.83440036 0.40533412 0.42194405 0
0.14137967 0.82806921 0.49142846 0
0.79624587 0.45181751 -0.050181501 0
1.0643073 0.29289913 0.073307015 0
0.84420997 0.42338234 0.18111199 0
0.83696049 0.42768019 0.29834279 0
0.84395677 0.42353243 0.4216406 0
0.14434899 0.83829021 0.48981363 0
0.8119188 0.46565634 -0.050415337 0
0.85256857 0.44224405 0.18086484 0
0.83667678 0.45139694 0.29614052 0
0.8464914 0.44574422 0.41933972 0
0.14633287 0.84900153 0.48762438 0
0.80287927 0.49350947 -0.0496438 0
0.85199839 0.46603703 0.17954932 0
0.83766788 0.47405213 0.29427907 0
0.83734506 0.47423261 0.4137224 0
0.15128948 0.8579455 0.48756251 0
0.82533997 0.50364584 -0.050171454 0
0.8573758 0.48625404 0.17900683 0
0.84788257 0.49140775 0.29438183 0
0.83609587 0.49780661 0.4105404 0
0.827434 0.5249334 -0.049878985 0
0.85367292 0.51111358 0.17739601 0
0.84077853 0.517905 0.29099846 0
0.83636695 0.52022856 0.40790367 0
0.84343165 0.53889215 -0.05015653 0
0.85514694 0.53290892 0.17645814 0
0.83997327 0.54065841 0.2889801 0
0.83444887 0.54347974 0.40473792 0
0.83739322 0.54197603 0.52705729 0
0.85610074 0.55472022 -0.05030679 0
0.85586149 0.5548386 0.17546803 0
0.84215969 0.56162018 0.28763413 0
0.84273142 0.56133717 0.40457919 0
0.841793 0.56180167 0.52540207 0
0.85563987 0.57696325 -0.049944229 0
0.86894292 0.57058632 0.17599076 0
0.85682446 0.57639539 0.28884488 0
0.83578354 0.58648157 0.40017611 0
0.83883125 0.5850206 0.52113318 0
0.87519079 0.589643 -0.050382435 0
0.8936246 0.58109033 0.17790833 0
0.8405003 0.60573828 0.28392461 0
0.8315044 0.60991204 0.3966386 0
0.84217197 0.60496265 0.51930821 0
0.88306552 0.60790473 -0.050367534 0
0.93165714 0.58609909 0.18140338 0
0.84007996 0.62719464 0.28224912 0
0.83594102 0.62905198 0.39564106 0
0.84074837 0.62689465 0.51584804 0
0.88450021 0.62895155 -0.05011107 0
0.9729628 0.59058446 0.18527022 0
0.83459109 0.65059769 0.27963963 0
0.84178621 0.64747703 0.39510787 0
0.84808689 0.6447444 0.5156846 0
0.890755 0.64778686 -0.050052818 0
1.0010866 0.60157657 0.18758745 0
0.84399098 0.66737306 0.28001285 0
0.84278435 0.66787845 0.39330113 0
0.83464223 0.67128861 0.50810689 0
0.89411312 0.66775179 -0.049892478 0
1.0364857 0.61021799 0.1907523 0
0.83021492 0.69357347 0.2759172 0
0.83434314 0.69190526 0.38897696 0
0.83282083 0.69252044 0.50485873 0
0.90025502 0.68651432 -0.049849231 0
1.0677063 0.62128657 0.19343233 0
0.84989864 0.70612979 0.27838171 0
0.83783609 0.71082854 0.3880246 0
0.84240335 0.70904946 0.50579381 0
0.27735284 0.92915517 0.45423257 0
0.90194923 0.70691597 -0.049645629 0
0.85205787 0.72563022 0.27748957 0
0.84230858 0.72928721 0.38740873 0
0.85073358 0.72612697 0.50635362 0
0.28663442 0.93772101 0.45703998 0
0.92376477 0.71990842 -0.050216407 0
0.84811515 0.74720311 0.27547872 0
0.84567779 0.74808252 0.38655958 0
0.83151776 0.75319147 0.49724454 0
0.26622185 0.95715266 0.44409749 0
0.91763228 0.74301803 -0.049734876 0
0.84577268 0.76792723 0.27383408 0
0.83687752 0.77101064 0.38249215 0
0.83885199 0.7703262 0.49764398 0
0.83546335 0.77150083 0.61636311 0
0.26289275 0.96997511 0.44038773 0
0.91990966 0.76297593 -0.049582738 0
0.84631771 0.78745216 0.27279481 0
0.84233123 0.78877801 0.38235202 0
0.83595139 0.79089993 0.49452913 0
0.84474736 0.78797442 0.61780959 0
0.29416415 0.97109473 0.4550232 0
0.9409948 0.77683115 -0.050145373 0
0.85767752 0.80338156 0.27385342 0
0.84309286 0.80802923 0.38101605 0
0.83596629 0.81030017 0.49253544 0
0.83432776 0.81082237 0.61077845 0
0.31507584 0.97629052 0.4641673 0
0.93813866 0.79840302 -0.04981881 0
0.85524672 0.82367265 0.27234575 0
0.83484894 0.82989097 0.37734798 0
0.84023386 0.82824934 0.49211365 0
0.83308607 0.83042836 0.60787165 0
0.31201699 0.98927683 0.46077234 0
0.94614297 0.8165763 -0.049907394 0
0.88522416 0.83431226 0.27697912 0
0.83410066 0.84919643 0.37575841 0
0.84762937 0.84525764 0.4928557 0
0.84011811 0.84744447 0.60864997 0
0.32982638 0.99601138 0.46834993 0
0.95920199 0.83341479 -0.050191443 0
0.89838892 0.85029233 0.27847469 0
0.83579057 0.86766535 0.37488446 0
0.8502658 0.863648 0.49202609 0
0.84163922 0.8660422 0.6071499 0
0.32507041 1.0094063 0.46422803 0
0.95911616 0.85393423 -0.049997021 0
0.9373489 0.85968119 0.28481445 0
0.84293503 0.88460797 0.37551415 0
0.83774942 0.88597709 0.48606503 0
0.83555728 0.88655585 0.60249937 0
0.31486246 1.0240279 0.45738596 0
0.96358711 0.87317365 -0.049980454 0
0.95195526 0.8760885 0.28662831 0
0.83364433 0.90573621 0.37187532 0
0.84149021 0.90377009 0.48579532 0
0.84597772 0.90264559 0.60501784 0
0.33286968 1.0312259 0.46521428 0
0.97037035 0.89185572 -0.050057679 0
0.99919015 0.88501817 0.29452297 0
0.83475763 0.92402989 0.37104526 0
0.84010309 0.92276168 0.4838497 0
0.84420186 0.92178923 0.60242522 0
0.32559851 1.0448281 0.46006703 0
0.95928782 0.91459852 -0.049489673 0
1.0152023 0.90207428 0.2966457 0
0.8420015 0.94086939 0.37188071 0
0.8415764 0.94096458 0.48296645 0
0.8383798 0.94168055 0.59822559 0
0.33828571 1.0536962 0.46525565 0
0.97360927 0.93157983 -0.049860522 0
1.0472219 0.91606212 0.30175281 0
0.83986551 0.9597733 0.37032366 0
0.8320412 0.96142268 0.47842062 0
0.84056014 0.95962685 0.59752935 0
0.35112467 1.062801 0.47056529 0
0.97747999 0.95089692 -0.049857914 0
1.0854831 0.9295463 0.30802712 0
0.8509025 0.97591943 0.37225834 0
0.84327358 0.97742754 0.48101652 0
0.83560055 0.97894442 0.59391683 0
0.36749575 1.0714818 0.47772175 0
0.99156553 0.96832931 -0.050235 0
0.83842427 0.99660432 0.36814043 0
0.83209664 0.99777263 0.4760932 0
0.84100407 0.99612802 0.59477854 0
0.38722542 1.0799108 0.48662612 0
0.98654121 0.98931479 -0.049927011 0
0.84283108 1.0139816 0.3684698 0
0.84253901 1.0140316 0.47856492 0
0.83730501 1.0149301 0.59190547 0
0.3802304 1.0933834 0.48199823 0
1.0006403 1.0070485 -0.050320473 0
0.43766066 1.0963974 0.041969821 0
0.43399438 1.0969793 0.1138787 0
0.4340001 1.0969783 0.18703677 0
0.43800613 1.0963426 0.26314029 0
0.44035831 1.0959692 0.3421053 0
0.42906579 1.0977614 0.41954705 0
0.38796863 1.1042838 0.4849295 0
0.99667317 1.0277003 -0.05006947 0
0.40837392 1.1134881 0.040844295 0
0.4116917 1.1130043 0.11124986 0
0.40569344 1.113879 0.18153095 0
0.40948752 1.1133257 0.2552948 0
0.40204933 1.1144104 0.32858157 0
0.41292068 1.1128252 0.41199961 0
0.40336832 1.1142181 0.49179873 0
0.99503452 1.0478671 -0.049912121 0
0.39063612 1.1282442 0.04014435 0
0.42832693 1.1232318 0.1128688 0
0.43232015 1.1227007 0.18606748 0
0.43631592 1.1221694 0.26176265 0
0.42957953 1.1230652 0.33725563 0
0.42293701 1.1239486 0.4154712 0
0.42559114 1.1235956 0.50216359 0
0.99932009 1.0672131 -0.049977172 0
0.37989751 1.1416637 0.039703827 0
0.42825827 1.135851 0.11269116 0
0.42403433 1.1363587 0.18427561 0
0.42609009 1.1361116 0.25872758 0
0.43206593 1.1353934 0.33756122 0
0.42578617 1.1361481 0.41600722 0
1.0019181 1.0867897 -0.049990296 0
0.36111763 1.1556365 0.038981237 0
0.8479566 1.1033312 0.36661676 0
0.8369872 1.1045097 0.47257665 0
0.84374183 1.103784 0.5894646 0
1.0081178 1.1060377 -0.050141409 0
0.35446832 1.1679503 0.038700838 0
0.85351425 1.1206815 0.36758235 0
0.84734267 1.121266 0.47544381 0
0.84504217 1.1214839 0.58926326 0
0.9959349 1.1269037 -0.04964257 0
0.36225882 1.178883 0.038943533 0
0.83933026 1.1397496 0.36354929 0
0.83464199 1.1401342 0.47068214 0
0.83427471 1.1401644 0.58414155 0
1.0009497 1.146227 -0.049769029 0
0.36553749 1.190302 0.039029483 0
0.84457332 1.157074 0.36454958 0
0.8279925 1.1582241 0.46802187 0
0.84436518 1.1570885 0.58777863 0
1.0146835 1.1651484 -0.050215878 0
0.85311252 1.1743132 0.36644718 0
0.83672279 1.1752428 0.47056445 0
0.84009892 1.1750513 0.5855478 0
1.0012106 1.1855881 -0.04969874 0
0.8473677 1.1923724 0.36475137 0
0.84105188 1.192651 0.47171134 0
0.84452587 1.1924978 0.58701473 0
1.0180693 1.204711 -0.050274417 0
0.85536152 1.2098346 0.3666212 0
0.84695846 1.2100991 0.47345585 0
0.84209377 1.2102523 0.58573085 0
1.0033356 1.2248398 -0.049730465 0
0.84733957 1.2277865 0.36445978 0
0.83996934 1.2279258 0.47098196 0
0.83860022 1.2279516 0.58410031 0
1.011955 1.2444412 -0.05002936 0
0.84201962 1.2455109 0.36304563 0
0.83783466 1.2455373 0.47019801 0
0.84438807 1.245496 0.5864051 0
1.0130491 1.2642089 -0.050068419 0
0.85131139 1.2631906 0.36541632 0
0.83773237 1.2631052 0.47016397 0
0.84291142 1.2631378 0.58579367 0
1.009359 1.2839171 -0.049945544 0
0.84970218 1.2809012 0.36506268 0
0.83883184 1.2806959 0.47060344 0
0.8406952 1.2807311 0.58496785 0
1.0115963 1.3037283 -0.050043207 0
0.84404093 1.2984521 0.3637315 0
0.84258312 1.2984062 0.47199947 0
0.83780247 1.2982557 0.5839532 0
1.0055838 1.3232478 -0.04985502 0
0.84714085 1.3162607 0.36469343 0
0.83508152 1.3157289 0.46972311 0
0.83455318 1.3157055 0.58288169 0
1.0126257 1.3433779 -0.050142292 0
0.85103971 1.3342124 0.3659175 0
0.84666902 1.3339645 0.47387883 0
0.83996397 1.3335842 0.58549184 0
1.0080806 1.3629107 -0.050024219 0
1.2937918 1.3827289 0.07224898 0
1.2936286 1.3827176 0.2054075 0
1.3007026 1.3832083 0.34191287 0
0.85171241 1.3520644 0.36637533 0
0.83888453 1.3511745 0.47165433 0
0.84004217 1.3512548 0.58598447 0
1.0006552 1.3821267 -0.049811658 0
1.2324034 1.4011366 0.070113152 0
1.2344807 1.401307 0.19921972 0
1.0030801 1.3823256 0.28837708 0
0.84093648 1.3690252 0.36396047 0
0.84174508 1.3690916 0.47305322 0
0.84118992 1.3690461 0.58701432 0
1.0064303 1.4024456 -0.050080892 0
1.2426215 1.4248172 0.070550971 0
1.2388731 1.4244622 0.19990899 0
0.91012305 1.3933235 0.27185175 0
0.84637815 1.3872857 0.36575359 0
0.850555 1.3876814 0.47651732 0
0.84833163 1.3874707 0.59063137 0
1.0076414 1.4224683 -0.050195802 0
0.64557558 1.3835684 0.0491952 0
0.64302748 1.3832947 0.13575231 0
0.63649756 1.382593 0.22255829 0
0.64751476 1.3837768 0.31518331 0
0.83009988 1.4033935 0.47027209 0
0.8405394 1.404515 0.58813107 0
0.99310631 1.4406831 -0.049753737 0
0.55287379 1.3877701 0.045923755 0
0.55517346 1.3880465 0.12642883 0
0.55913323 1.3885224 0.20881589 0
0.54237515 1.3865082 0.28860918 0
0.85565966 1.424163 0.47950271 0
0.84744006 1.4231751 0.59184361 0
0.98925084 1.460007 -0.049703818 0
0.54125637 1.4004295 0.045569029 0
0.56099004 1.4030538 0.12725154 0
0.54879469 1.401432 0.20725846 0
0.55326599 1.4020267 0.29186305 0
0.84869736 1.4413152 0.47792134 0
0.83884305 1.4400046 0.58918726 0
0.98957103 1.4799072 -0.049813233 0
0.56665844 1.4182366 0.046555024 0
0.56406742 1.4178587 0.12779878 0
0.55247813 1.4161688 0.20828336 0
0.55258518 1.4161844 0.29218975 0
0.84280592 1.4585054 0.47676963 0
0.84326702 1.4585726 0.59206295 0
0.99032587 1.4999577 -0.049947627 0
0.55479294 1.4308355 0.046203934 0
0.55506366 1.4308785 0.12705278 0
0.54980832 1.4300444 0.20818403 0
0.55551153 1.4309496 0.29349491 0
0.84043854 1.4761695 0.47687554 0
0.84311515 1.4765942 0.59312391 0
0.9854452 1.5191401 -0.049887311 0
0.54577094 1.4436735 0.045960829 0
0.54059845 1.4427857 0.1257275 0
0.55175525 1.4447007 0.20896122 0
0.54811758 1.4440763 0.29217941 0
0.83985716 1.4941511 0.47765964 0
0.84466082 1.4949757 0.59499562 0
0.98284262 1.5387032 -0.04991832 0
0.54820007 1.4584537 0.046138749 0
0.55900282 1.4604483 0.12800768 0
0.55619818 1.4599304 0.21023178 0
0.54533833 1.4579253 0.29210097 0
0.84370536 1.5130138 0.48002067 0
0.83462554 1.5113374 0.59209293 0
0.99866468 1.5619341 -0.050628871 0
0.55741876 1.4747063 0.046570964 0
0.55932862 1.4750838 0.1283374 0
0.54441839 1.4721363 0.20855837 0
0.55406505 1.4740433 0.29505995 0
0.84325451 1.5312119 0.48101008 0
0.84700876 1.5319539 0.5987317 0
0.97356099 1.5770531 -0.04985876 0
0.54767555 1.4872755 0.046319943 0
0.55080324 1.4879348 0.12771606 0
0.55388588 1.4885846 0.21082492 0
0.54528826 1.4867723 0.29351583 0
0.83117384 1.5470376 0.47812572 0
0.83783263 1.5484413 0.59637523 0
0.96640199 1.5956382 -0.049749952 0
0.55019301 1.5024118 0.046522565 0
0.5441801 1.501065 0.12732026 0
0.5544309 1.5033611 0.21148707 0
0.55445319 1.5033661 0.29670012 0
0.84608918 1.5686893 0.48450503 0
0.84114641 1.5675822 0.59939945 0
0.96877712 1.6164094 -0.049999218 0
0.55062336 1.5172023 0.046656195 0
0.55574208 1.5184166 0.1289501 0
0.54828924 1.5166485 0.21094625 0
0.55118257 1.5173349 0.2966879 0
0.83883053 1.5855795 0.48341456 0
0.8322193 1.584011 0.59732628 0
0.96317607 1.6353664 -0.049965326 0
0.54454392 1.5304608 0.046557497 0
0.55690318 1.533558 0.12945694 0
0.56115562 1.5346236 0.21396884 0
0.54980487 1.5317792 0.29721966 0
0.84165007 1.6049131 0.48585016 0
0.83956486 1.6043905 0.60228056 0
0.9649654 1.6562532 -0.050213005 0
0.54919595 1.5464832 0.046860881 0
0.54935759 1.5465258 0.12901886 0
0.54849893 1.5462991 0.21228288 0
0.54683024 1.5458585 0.29737976 0
0.84027654 1.6233332 0.4869346 0
0.84174615 1.6237212 0.60514963 0
0.94689208 1.6718119 -0.049735352 0
0.5484696 1.5612372 0.046973519 0
0.55454975 1.5629246 0.13001809 0
0.54513615 1.560312 0.21235797 0
0.54895824 1.5613728 0.2989383 0
0.83400267 1.6404816 0.48641095 0
0.83510381 1.6407871 0.60434169 0
0.94443756 1.6915703 -0.049843982 0
0.554591 1.5780699 0.047348086 0
0.55564362 1.5783764 0.1305853 0
0.54687804 1.5758244 0.21342528 0
0.55093592 1.5770059 0.30051446 0
0.85478169 1.6654679 0.49533403 0
0.84474021 1.6625444 0.61064315 0
0.94377261 1.7119577 -0.050029088 0
0.84937805 1.6831814 0.38122323 0
0.84184426 1.6808847 0.49267375 0
0.83903128 1.6800271 0.61044502 0
0.94067281 1.7317094 -0.05013331 0
0.84485906 1.7011768 0.38148901 0
0.84400994 1.7009062 0.4953441 0
0.83934516 1.6994196 0.61295873 0
0.92314059 1.7467418 -0.049704298 0
0.85525733 1.7241642 0.38582748 0
0.84320432 1.7201555 0.4970721 0
0.82804984 1.7151152 0.61052388 0
0.92340654 1.7676266 -0.049953055 0
0.85187656 1.7428317 0.38654226 0
0.83655864 1.737522 0.49683645 0
0.83159071 1.7357999 0.6146661 0
0.91522354 1.785653 -0.049892236 0
0.84750611 1.7612203 0.38705549 0
0.82990581 1.7548701 0.49667439 0
0.83878022 1.7580719 0.62054753 0
0.91491479 1.8065906 -0.050140008 0
0.84090894 1.7788309 0.38702732 0
0.82297069 1.7721022 0.49648869 0
0.83173746 1.7753907 0.620287 0
0.89563245 1.8203281 -0.049672119 0
0.83719486 1.7975649 0.38784903 0
0.83166689 1.7954115 0.5019604 0
0.82925838 1.7944733 0.62214965 0
0.90184253 1.8440149 -0.050190106 0
0.83773273 1.8181076 0.38990968 0
0.83316904 1.8162634 0.50498366 0
0.82553929 1.8131802 0.62357503 0
0.88243908 1.8573734 -0.049730942 0
0.84044677 1.8397857 0.39265457 0
0.83698744 1.8383368 0.5089528 0
0.83305186 1.8366884 0.63015521 0
0.88954669 1.8818803 -0.050307456 0
0.83840185 1.8596983 0.39416674 0
0.83000189 1.8560551 0.50912631 0
0.82166225 1.8524381 0.62837404 0
0.86634034 1.8932329 -0.049713053 0
0.83501142 1.879174 0.39538112 0
0.81417233 1.8698224 0.50615686 0
0.82211345 1.8733859 0.6320461 0
0.85878044 1.9113863 -0.049736574 0
0.82852691 1.8973496 0.39580116 0
0.82054991 1.8936485 0.51137811 0
0.82193321 1.8942903 0.63557154 0
0.86147887 1.9344789 -0.050175399 0
0.8240698 1.9165465 0.39686194 0
0.81997031 1.9145813 0.51417458 0
0.82158071 1.9153533 0.63915968 0
0.84472507 1.9482926 -0.049853642 0
0.8218835 1.9369875 0.39864442 0
0.81337339 1.9327755 0.51485229 0
0.8156715 1.9339129 0.64032537 0
0.83064586 1.9632211 -0.049643978 0
0.81360167 1.9545164 0.39876562 0
0.80582565 1.9505451 0.51526451 0
0.7978707 1.9464823 0.63607842 0
0.83085448 1.9855112 -0.050016999 0
0.81762892 1.9785454 0.40250045 0
0.79970163 1.9691032 0.51629871 0
0.80054408 1.9695469 0.64145797 0
0.81000417 1.9966717 -0.049548466 0
0.80429059 1.9935699 0.4013072 0
0.80003113 1.9912574 0.51987123 0
0.79321164 1.9875551 0.64229691 0
0.81454974 2.021661 -0.050121192 0
0.7953797 2.0109391 0.40145484 0
0.78944248 2.0076184 0.51941293 0
0.7898348 2.0078378 0.64512551 0
0.80499679 2.039 -0.050130159 0
0.77790266 2.0233951 0.39914563 0
0.77586931 2.0222239 0.51788431 0
0.78332549 2.0265183 0.64659959 0
0.7933405 2.0551033 -0.05006092 0
0.77823681 2.046149 0.40214828 0
0.77560061 2.0445862 0.52156085 0
0.76394635 2.037677 0.64200294 0
0.77910358 2.0695786 -0.049891673 0
0.77326852 2.0660193 0.40367469 0
0.76997513 2.0640104 0.52328748 0
0.77662605 2.0680673 0.65298688 0
0.78081626 2.0939236 -0.050400957 0
0.76527578 2.0841734 0.40437737 0
0.77044767 2.0874183 0.52751845 0
0.76837319 2.0861168 0.65401274 0
0.76306301 2.1061425 -0.050100349 0
0.76253372 2.1058011 0.40674907 0
0.75478691 2.1008036 0.52551287 0
0.75418133 2.1004131 0.65223241 0
0.74809366 2.1199567 -0.049923044 0
0.75485486 2.1244397 0.4077124 0
0.74505323 2.1179407 0.52592349 0
0.74739259 2.1194918 0.65420383 0
0.74892563 2.1443896 -0.050434314 0
0.73701364 2.1362734 0.40561885 0
0.74625927 2.1425729 0.53082824 0
0.73550433 2.1352451 0.65375733 0
0.71368164 2.1440153 -0.049391348 0
0.73014432 2.1555383 0.40696985 0
0.73499936 2.1589365 0.53083944 0
0.73113579 2.1562321 0.65720701 0
0.7152018 2.1691675 -0.049955171 0
0.71835047 2.1714311 0.40686163 0
0.72207075 2.1741054 0.53025109 0
0.72762233 2.1780963 0.66125822 0
0.69618005 2.1796551 -0.049626719 0
0.70320374 2.1848397 0.40575236 0
0.70192677 2.183897 0.52675217 0
0.71270674 2.1918542 0.65962058 0
0.68836516 2.1983483 -0.049803011 0
0.70515698 2.2110727 0.41016012 0
0.69620675 2.2042904 0.52929193 0
0.6975053 2.2052746 0.65790832 0
0.67830259 2.2154546 -0.049889963 0
0.68802005 2.2230127 0.40854719 0
0.69351298 2.2272851 0.53323984 0
0.68986851 2.2244503 0.66023529 0
0.67093104 2.2347915 -0.050110523 0
0.68157226 2.2432854 0.41045621 0
0.67946094 2.2416 0.53251535 0
0.68125826 2.2430346 0.66219735 0
0.65337557 2.2459924 -0.049874578 0
0.67261118 2.2617469 0.41163993 0
0.67277879 2.2618842 0.53502971 0
0.67934793 2.2672646 0.66789013 0
0.64610475 2.2656221 -0.050122261 0
0.67247993 2.2877848 0.4158558 0
0.65837234 2.2759304 0.53432465 0
0.65811652 2.2757156 0.66335863 0
0.63487548 2.2820745 -0.050197661 0
0.7302689 2.3643041 0.066693984 0
0.71973091 2.3552203 0.18720801 0
0.71588355 2.3519039 0.30917662 0
0.65397757 2.2985406 0.41403949 0
0.65230554 2.2970994 0.53735232 0
0.65163034 2.2965174 0.66689575 0
0.61714774 2.2928562 -0.049974035 0
0.68429047 2.3522234 0.06517376 0
0.68990749 2.3571899 0.18493275 0
0.68003958 2.3484647 0.30389893 0
0.63878518 2.3119879 0.41337594 0
0.64222652 2.3150308 0.53874969 0
0.64451581 2.317055 0.67026913 0
0.60275346 2.3064523 -0.049915008 0
0.65913838 2.3575869 0.064632528 0
0.65650696 2.3552003 0.18211597 0
0.65951723 2.3579304 0.30228043 0
0.6252268 2.326833 0.41332558 0
0.63122612 2.3322735 0.53985023 0
0.62258953 2.3244412 0.66554612 0
0.58551282 2.3173482 -0.049724806 0
0.64912254 2.3765116 0.064826198 0
0.6347068 2.3631034 0.18096493 0
0.63263053 2.3611722 0.29910454 0
0.6112991 2.341332 0.41321069 0
0.61132485 2.341356 0.53701764 0
0.6118018 2.3417995 0.66711807 0
0.58204538 2.3412008 -0.050218578 0
0.62121588 2.3785641 0.064151183 0
0.62443048 2.3816304 0.1815262 0
0.62241489 2.3797078 0.30005544 0
0.60357767 2.3617396 0.41534665 0
0.59612685 2.3546326 0.53636557 0
0.59598583 2.3544981 0.66595614 0
0.55847543 2.345881 -0.049729425 0
0.61138111 2.3976333 0.064371638 0
0.62000352 2.4060678 0.18300867 0
0.60901171 2.3953156 0.30027249 0
0.58997542 2.3766942 0.41550139 0
0.59610325 2.3826885 0.54284489 0
0.58861178 2.3753603 0.66976136 0
0.54339677 2.3585947 -0.049666405 0
0.59593672 2.4112999 0.064323291 0
0.60148281 2.4168637 0.1824111 0
0.59715599 2.4125233 0.3009375 0
0.57067341 2.385957 0.41366589 0
0.56675559 2.3820269 0.53575331 0
0.57294673 2.3882377 0.66890579 0
0.53859454 2.3818207 -0.050137073 0
0.59813398 2.4430714 0.065186679 0
0.59986633 2.4448533 0.18443295 0
0.60514373 2.4502823 0.30680123 0
0.56661755 2.4106491 0.41742954 0
0.56560808 2.4096105 0.54202551 0
0.55919367 2.4030118 0.66927046 0
0.51125783 2.3817601 -0.049459659 0
0.61054808 2.4865112 0.066612445 0
0.60664719 2.4823959 0.18784837 0
0.61529237 2.4915164 0.31343371 0
0.54874712 2.4213111 0.4162347 0
0.55357355 2.4264033 0.5432834 0
0.54595739 2.4183681 0.67006224 0
0.50484961 2.4036441 -0.049873736 0
0.52904814 2.4298263 0.4143863 0
0.53338093 2.434514 0.54066265 0
0.52908164 2.4298623 0.66876197 0
0.49070117 2.4173799 -0.04989545 0
0.51801425 2.4476886 0.41585481 0
0.52215105 2.4522791 0.54250979 0
0.51288706 2.4419992 0.66795367 0
0.47618803 2.4307284 -0.049907032 0
0.50219828 2.4603326 0.41558236 0
0.50443691 2.4628806 0.54122698 0
0.49791285 2.4554551 0.66799438 0
0.46241257 2.4449558 -0.049968444 0
0.4864665 2.4730387 0.41540092 0
0.48123035 2.4669254 0.53718412 0
0.48601744 2.4725144 0.6701023 0
0.45037088 2.4613318 -0.050137263 0
0.47314939 2.4886136 0.41624114 0
0.47156939 2.4867213 0.54013753 0
0.47172186 2.4869039 0.67082953 0
0.4320986 2.4702456 -0.049967878 0
0.44622049 2.4875989 0.41167125 0
0.45598206 2.499594 0.54014367 0
0.45506582 2.4984682 0.6701377 0
0.4207724 2.4877303 -0.050201271 0
0.44269606 2.5153744 0.41663265 0
0.43489429 2.505537 0.53729099 0
0.4415417 2.5139189 0.67161781 0
0.39709988 2.4895124 -0.04973039 0
0.42120555 2.5207069 0.41432399 0
0.42003235 2.5191886 0.53781933 0
0.4241474 2.5245137 0.67063248 0
0.38919106 2.5116866 -0.050188601 0
0.40812424 2.5368357 0.41557178 0
0.40551963 2.533376 0.53864408 0
0.41511801 2.5461254 0.67547989 0
0.37115899 2.5206075 -0.050060291 0
0.39767531 2.5567679 0.41806382 0
0.38911697 2.5450969 0.53851944 0
0.39674816 2.5555036 0.6740604 0
0.35417715 2.5308487 -0.050001062 0
0.37427047 2.5589862 0.41502154 0
0.3825579 2.5705914 0.54411167 0
0.3774595 2.563452 0.67204452 0
0.33415249 2.5366459 -0.049758445 0
0.35804692 2.5710132 0.41514561 0
0.36192468 2.5765905 0.54178905 0
0.35654971 2.5688596 0.66888791 0
0.32742539 2.5617924 -0.050362922 0
0.34082767 2.5815961 0.41488707 0
0.3433598 2.5853379 0.54069501 0
0.33892956 2.5787916 0.66815209 0
0.30619046 2.5656896 -0.050057698 0
0.32420287 2.5930414 0.41496053 0
0.32732776 2.5977864 0.54117805 0
0.32961872 2.6012652 0.67375052 0
0.28828159 2.5743854 -0.049969763 0
0.3091481 2.6069567 0.41584557 0
0.30063143 2.5936627 0.53518927 0
0.30474702 2.6000869 0.66773176 0
0.27328613 2.587646 -0.050084051 0
0.28565469 2.6074984 0.41276088 0
0.28180411 2.6013181 0.53399676 0
0.29425386 2.6213007 0.67283678 0
0.25483564 2.5953639 -0.049974032 0
0.26836106 2.6176949 0.41266799 0
0.27373466 2.6265669 0.53974909 0
0.2700282 2.6204474 0.66728538 0
0.23665936 2.6034009 -0.049887706 0
0.25132504 2.6283174 0.41276655 0
0.2551941 2.6348906 0.53896439 0
0.24901201 2.6243875 0.66422504 0
0.22553255 2.6236508 -0.050313704 0
0.23518534 2.6405332 0.41339603 0
0.23171379 2.6344614 0.53492075 0
0.23600204 2.6419616 0.6678158 0
0.20617665 2.6297038 -0.050162748 0
0.21612455 2.6476221 0.41258451 0
0.219009 2.6528175 0.53816646 0
0.21587069 2.6471648 0.66560107 0
0.18895747 2.6395044 -0.050174721 0
0.20078285 2.6614511 0.4138017 0
0.19955643 2.6591749 0.53691638 0
0.20173712 2.6632223 0.66862583 0
0.16458143 2.6356375 -0.049644798 0
0.18359627 2.6720169 0.41412717 0
0.1773261 2.6600206 0.53369772 0
0.17738082 2.6601255 0.66276562 0
0.15408839 2.6583464 -0.050194237 0
0.16238977 2.6747279 0.41226617 0
0.15810736 2.6662774 0.5326224 0
0.16500463 2.679888 0.66769606 0
0.1350307 2.6644998 -0.050087083 0
0.13855936 2.6716857 0.40885749 0
0.14252348 2.679759 0.53432155 0
0.1407723 2.6761925 0.66184807 0
0.11427739 2.666918 -0.04984244 0
0.12322452 2.6857345 0.41038245 0
0.12438842 2.6881821 0.53421956 0
0.12102463 2.681108 0.66012293 0
0.1003907 2.6838536 -0.050180037 0
0.10639437 2.6969008 0.41114354 0
0.10169949 2.686698 0.53057373 0
0.10588422 2.6957924 0.66297388 0
0.081781171 2.6907692 -0.050131053 0
0.084083341 2.6959429 0.40857396 0
0.086226605 2.7007594 0.53271347 0
0.082863651 2.693202 0.65806699 0
0.061095916 2.6927776 -0.049900763 0
0.062864803 2.6968915 0.40662599 0
0.061252795 2.6931427 0.52706176 0
0.065780364 2.7036724 0.65920389 0
0.042556785 2.6995404 -0.049865551 0
0.047147773 2.7105994 0.40828678 0
0.043407284 2.7015891 0.5273394 0
0.047033571 2.7103243 0.65871978 0
0.023037037 2.7037959 -0.04974309 0
0.031144222 2.724041 0.40992063 0
0.023575207 2.7051396 0.52594191 0
0.030515572 2.722471 0.66079438 0
0.0090644574 2.7221942 -0.050171871 0
0.011393151 2.7282283 0.40907106 0
0.0081642484 2.7198615 0.52862412 0
0.010476789 2.7258539 0.65906209 0
-0.0092852497 2.7296882 -0.050190069 0
-0.01265774 2.7206104 0.40508023 0
-0.01462219 2.7153227 0.52452707 0
-0.012366273 2.721395 0.65398598 0
-0.031307973 2.7269483 -0.049828984 0
-0.03516797 2.7161436 0.40204325 0
-0.036610998 2.7121043 0.52101654 0
-0.034489609 2.7180424 0.64954579 0
-0.05068431 2.7311461 -0.049741808 0
-0.054480352 2.7200828 0.40136337 0
-0.05316738 2.7239094 0.52290291 0
-0.054996945 2.7185769 0.64694852 0
-0.0683823 2.740257 -0.04984884 0
-0.070881583 2.7326627 0.40307263 0
-0.071591713 2.730505 0.5230301 0
-0.073221482 2.7255528 0.64728236 0
-0.086793102 2.7473679 -0.049888942 0
-0.093805142 2.725122 0.39944804 0
-0.091906317 2.7311461 0.52116072 0
-0.093689866 2.7254877 0.64465809 0
-0.10407365 2.7583375 -0.050081436 0
-0.11528639 2.7211373 0.39686185 0
-0.1139291 2.7256403 0.51725167 0
-0.11277402 2.7294724 0.64390683 0
-0.12665136 2.7513995 -0.049616065 0
-0.10766921 2.8173714 0.064066902 0
-0.10856677 2.8142519 0.18044622 0
-0.10484929 2.8271718 0.30117008 0
-0.13439618 2.7244825 0.39630294 0
-0.1316445 2.734046 0.51826888 0
-0.13060535 2.7376575 0.64507157 0
-0.14333387 2.7647355 -0.049913358 0
-0.13491552 2.7954431 0.063050114 0
-0.13224994 2.8051665 0.17881779 0
-0.13192143 2.8063645 0.29623681 0
-0.15048032 2.7386672 0.39867729 0
-0.15152918 2.7348416 0.51673448 0
-0.1518801 2.7335615 0.64105648 0
-0.16123669 2.7742336 -0.050075848 0
-0.15735395 2.7891297 0.062625431 0
-0.15475987 2.7990818 0.17756118 0
-0.15777914 2.7874985 0.2917451 0
-0.16890712 2.7448058 0.39897585 0
-0.1725492 2.7308331 0.51363957 0
-0.173373 2.7276723 0.63640219 0
-0.18306448 2.7683475 -0.049680363 0
-0.18030648 2.7795024 0.062090594 0
-0.1791613 2.7841339 0.17535865 0
-0.17896594 2.784924 0.29035458 0
-0.18773256 2.7494676 0.39894646 0
-0.19087858 2.7367435 0.51404458 0
-0.19173013 2.7332995 0.63678962 0
-0.20399348 2.7650928 -0.049392611 0
-0.19866614 2.7878661 0.062227599 0
-0.19675158 2.7960505 0.17616165 0
-0.19884922 2.7870836 0.28989449 0
-0.20863037 2.7452712 0.39665836 0
-0.21287589 2.7271225 0.5092206 0
-0.21136086 2.7335989 0.63500899 0
-0.21948369 2.7855556 -0.049982421 0
-0.2178541 2.7929399 0.062252395 0
-0.21833579 2.7907569 0.17509274 0
-0.21694286 2.7970688 0.29092726 0
-0.22860609 2.7442193 0.39526704 0
-0.23135917 2.7317441 0.50935704 0
-0.2297567 2.7390056 0.63550365 0
-0.23929946 2.7872369 -0.04989301 0
-0.23436697 2.8110058 0.062759668 0
-0.23589228 2.8036554 0.17605323 0
-0.23352592 2.8150587 0.29347378 0
-0.24732532 2.7485614 0.39535049 0
-0.25079837 2.7318251 0.5080294 0
-0.25025153 2.7344604 0.63188696 0
-0.25907061 2.7888334 -0.049809817 0
-0.2529915 2.8201017 0.062947042 0
-0.25207743 2.8248034 0.17793876 0
-0.25224766 2.8239276 0.2943767 0
-0.26732826 2.7463596 0.39379424 0
-0.2704643 2.7302291 0.50621974 0
-0.27103001 2.7273195 0.62729329 0
-0.27907482 2.7888339 -0.049677953 0
-0.26610667 2.8603303 0.064272121 0
-0.26740217 2.8531878 0.1806327 0
-0.26768839 2.8516099 0.29876918 0
-0.28668866 2.7468569 0.3930068 0
-0.28999642 2.7286205 0.50449377 0
-0.28976035 2.7299221 0.62692022 0
-0.29675353 2.8021021 -0.050035842 0
-0.30678481 2.7425356 0.39103746 0
-0.30866897 2.7313473 0.50431716 0
-0.30729425 2.7395103 0.6295802 0
-0.31550193 2.8101537 -0.050212607 0
-0.32562697 2.7450337 0.39089817 0
-0.32867745 2.7254143 0.50130457 0
-0.32925856 2.7216768 0.62083757 0
-0.33745044 2.7966714 -0.049621005 0
-0.34608734 2.736109 0.38787648 0
-0.34846759 2.7194185 0.49836096 0
-0.34917903 2.7144296 0.61665386 0
-0.35374719 2.823518 -0.050492201 0
-0.3661488 2.7279637 0.38512659 0
-0.36718401 2.7199874 0.49770817 0
-0.36643669 2.7257454 0.62033194 0
-0.37500745 2.8132572 -0.05003567 0
-0.38569093 2.7219474 0.38299263 0
-0.38742003 2.7071688 0.4926511 0
-0.38626841 2.7170117 0.6157375 0
-0.39544749 2.8077886 -0.049761374 0
-0.40488377 2.7172785 0.38127017 0
-0.40322492 2.7331896 0.50067753 0
-0.40450579 2.7209041 0.61650902 0
-0.4146722 2.8135078 -0.049897723 0
-0.4231247 2.7211754 0.38180628 0
-0.42296901 2.7228763 0.49662262 0
-0.42370021 2.7148886 0.61325592 0
-0.43392462 2.8201387 -0.050075252 0
-0.44192782 2.7186542 0.38075805 0
-0.44272467 2.7085495 0.49131531 0
-0.44358194 2.697679 0.60545725 0
-0.45419371 2.8133557 -0.049781371 0
-0.46120226 2.7074916 0.37756184 0
-0.46143365 2.7039967 0.48935425 0
-0.46229148 2.6910393 0.60215497 0
-0.47394967 2.8123353 -0.049702846 0
-0.4795844 2.707144 0.37719294 0
-0.47993442 2.7006094 0.48786142 0
-0.48013464 2.696872 0.60412407 0
-0.49349505 2.8151798 -0.04977135 0
-0.49799684 2.7052372 0.37648526 0
-0.4982408 2.6992798 0.48713201 0
-0.49856645 2.6913261 0.60147011 0
-0.51278663 2.8287969 -0.050233372 0
-0.516307 2.7045777 0.37615535 0
-0.51693106 2.6825569 0.48135635 0
-0.51685625 2.6851962 0.59867144 0
-0.53276849 2.8194642 -0.049884535 0
-0.53475624 2.693193 0.37314767 0
-0.53487515 2.6856413 0.48225078 0
-0.53484386 2.687629 0.59951431 0
-0.55246168 2.8246784 -0.050064046 0
-0.55290276 2.6846147 0.37091541 0
-0.5529229 2.6782136 0.47972295 0
-0.55294961 2.6697407 0.59203732 0
-0.57230389 2.8319411 -0.050325569 0
-0.57077682 2.6702149 0.36725587 0
-0.57075745 2.6681674 0.47639924 0
-0.57080525 2.6732299 0.59350532 0
-0.59216946 2.8317461 -0.050329763 0
-0.58864021 2.6715975 0.36768025 0
-0.58838266 2.6599107 0.47374487 0
-0.58865601 2.6723146 0.5932427 0
-0.61168873 2.821378 -0.049979489 0
-0.60605562 2.6587548 0.36453083 0
-0.60641992 2.6692719 0.47702807 0
-0.60596782 2.6562214 0.58678508 0
-0.63126957 2.817481 -0.049869075 0
-0.62378573 2.6590998 0.36480382 0
-0.62292176 2.6408155 0.46779317 0
-0.62318659 2.6464193 0.58302158 0
-0.65121311 2.8208907 -0.050028719 0
-0.64023471 2.6375506 0.35953817 0
-0.64062631 2.6440907 0.46919629 0
-0.64040196 2.6403434 0.58089083 0
-0.63944453 2.6243548 0.69271052 0
-0.67052352 2.8139715 -0.049827773 0
-0.65782118 2.6388316 0.36016065 0
-0.65701866 2.6277664 0.46413729 0
-0.65703207 2.6279516 0.57622606 0
-0.65747029 2.6339934 0.69811845 0
-0.69035417 2.8147917 -0.049912617 0
-0.67329443 2.6145527 0.4601804 0
-0.6732986 2.6146014 0.57124507 0
-0.67416358 2.6247542 0.69416654 0
-0.70894706 2.8023214 -0.049529772 0
-0.68987149 2.6074622 0.45833397 0
-0.69062799 2.6151898 0.57214171 0
-0.68995708 2.6083364 0.68670648 0
-0.72945088 2.8095531 -0.049862474 0
-0.70754391 2.6115196 0.57135659 0
-0.70656437 2.6026652 0.68474579 0
-0.74883527 2.8057706 -0.049808767 0
-0.7226488 2.5935397 0.56468934 0
-0.72282332 2.5949543 0.6818592 0
-0.76794881 2.8002567 -0.049701374 0
-0.73782998 2.5791049 0.67496127 0
-0.78784287 2.8004727 -0.049809285 0
-0.75482523 2.5789351 0.67607766 0
-0.80641115 2.792006 -0.04961244 0
-0.8268736 2.7951581 -0.049844734 0
-0.8467145 2.7940981 -0.049933918 0
-0.86488008 2.7843661 -0.049716618 0
-0.88728279 2.7951427 -0.05025585 0
-0.90489262 2.7831025 -0.049971577 0
-0.92521781 2.7831931 -0.05014002 0
-0.94050634 2.762954 -0.04956957 0
-0.96184164 2.766875 -0.049897153 0
-0.98071426 2.7611637 -0.049878646 0
-0.99841797 2.7515192 -0.049722519 0
-1.0208399 2.7575424 -0.050159421 0
-1.0358444 2.7395244 -0.04970694 0
-1.0566354 2.7397153 -0.049945455 0
-1.0753754 2.733531 -0.049953748 0
-1.091913 2.7212753 -0.049740337 0
-1.1115241 2.7175522 -0.049859568 0
-1.1308659 2.7129056 -0.049953416 0
-1.1506344 2.7091219 -0.050090384 0
-1.1697578 2.7035553 -0.050168607 0
-1.1852332 2.6895041 -0.049925983 0
-1.2008954 2.6762731 -0.04972174 0
-1.2191336 2.6688814 -0.049754184 0
-1.2375262 2.6617491 -0.049806204 0
-1.2550627 2.652812 -0.049795751 0
-1.2756063 2.6497266 -0.050029024 0
-1.2959725 2.6459491 -0.050246313 0
