# .PCD v0.7 - Point Cloud Data file format
VERSION 0.7
FIELDS x y z intensity
SIZE 4 4 4 4
TYPE F F F F
COUNT 1 1 1 1
WIDTH 1355
HEIGHT 1
VIEWPOINT 0 0 0 1 0 0 0
POINTS 1355
DATA ascii
0.30300084 0.99202538 0.45605624 0
0.96559805 0.81091213 -0.050630804 0
0.88070053 0.83562928 0.27612942 0
0.84338707 0.84649277 0.37822604 0
0.83932453 0.8476755 0.48997802 0
0.84762532 0.84525883 0.61188728 0
0.32850346 0.99639654 0.46766052 0
0.95263737 0.83523667 -0.049948219 0
0.9033888 0.84890473 0.27941051 0
0.83035105 0.86917502 0.3734442 0
0.84475213 0.86517829 0.49012238 0
0.83783978 0.86709666 0.60551727 0
0.31935295 1.0109931 0.46125925 0
0.95261234 0.85565138 -0.049756873 0
0.92631191 0.86259514 0.28275573 0
0.83926612 0.88557667 0.37454605 0
0.84284621 0.88463145 0.48781884 0
0.84503287 0.88405412 0.60655707 0
0.32112619 1.0223743 0.46062735 0
0.96332091 0.87324041 -0.049970653 0
0.96480423 0.87286866 0.28901726 0
0.84005207 0.90413046 0.37356067 0
0.84087795 0.90392351 0.4855853 0
0.83552974 0.90526372 0.60055828 0
0.32748941 1.0325742 0.46243909 0
0.97170669 0.89153868 -0.050106712 0
0.98077136 0.88938808 0.29110897 0
0.83825332 0.92320055 0.37196189 0
0.83888084 0.92305166 0.48343179 0
0.84285837 0.92210793 0.60185355 0
0.33331242 1.042998 0.46403375 0
0.96963638 0.9122805 -0.049868286 0
1.0120463 0.90278119 0.29606244 0
0.83576733 0.94226575 0.37025079 0
0.83853561 0.94164568 0.48192969 0
0.84544438 0.94009817 0.60122305 0
0.35053489 1.0509526 0.47153625 0
0.97736436 0.93078822 -0.049997527 0
1.0519145 0.91507292 0.3026177 0
0.83343953 0.96112794 0.36864817 0
0.83851832 0.96005732 0.48062289 0
0.83450884 0.96090251 0.5949688 0
0.35328743 1.0623451 0.47167119 0
0.97803479 0.95078725 -0.049878102 0
1.0758613 0.9314484 0.30625826 0
0.85626251 0.97485983 0.37365231 0
0.83849901 0.97837138 0.47939733 0
0.84630471 0.97682834 0.59843451 0
0.36588934 1.0717994 0.47690246 0
0.9806934 0.97033668 -0.049840294 0
0.86020261 0.99258333 0.37379068 0
0.83738631 0.99679595 0.4778828 0
0.8394478 0.99641538 0.5941233 0
0.38861611 1.079654 0.48733369 0
0.98314792 0.98989725 -0.049804095 0
0.84292501 1.0139655 0.36849412 0
0.84288448 1.0139724 0.47868153 0
0.82837003 1.0164636 0.58815199 0
0.39280835 1.0912244 0.4883835 0
0.98975033 1.0087769 -0.049926821 0
0.42537901 1.0983466 0.041525863 0
0.42917827 1.0977435 0.11335464 0
0.4331114 1.0971193 0.18687448 0
0.42708567 1.0980756 0.26031926 0
0.43496457 1.0968252 0.34028837 0
0.43229058 1.0972496 0.42089894 0
0.39695844 1.1028571 0.48948374 0
0.99508625 1.0279318 -0.050012216 0
0.40909609 1.1133828 0.04087035 0
0.40776923 1.1135763 0.11082385 0
0.40848061 1.1134726 0.18203893 0
0.40624836 1.1137981 0.25445962 0
0.39708528 1.1151342 0.32691258 0
0.40995041 1.1132582 0.4107568 0
0.40673754 1.1137267 0.49350232 0
0.99927145 1.0473036 -0.050064716 0
0.38673827 1.1287625 0.040003967 0
0.43101814 1.1228739 0.11316058 0
0.43348667 1.1225456 0.18627971 0
0.43347368 1.1225474 0.26103109 0
0.42753854 1.1233367 0.33657062 0
0.41955402 1.1243985 0.41405821 0
0.42264292 1.1239877 0.5006755 0
1.0024135 1.0668414 -0.050088406 0
0.37660506 1.1420594 0.039585438 0
0.4280726 1.1358733 0.11267107 0
0.42609015 1.1361116 0.18464904 0
0.433781 1.1351873 0.26070392 0
0.42762145 1.1359276 0.33607191 0
0.41747907 1.1371466 0.41254303 0
1.0157233 1.0853065 -0.050485995 0
0.35777333 1.1559958 0.038861156 0
0.85470444 1.1026062 0.36834824 0
0.83797294 1.1044039 0.47290647 0
0.82779843 1.1054969 0.58282548 0
0.99357051 1.1074156 -0.049619731 0
0.34852859 1.1685128 0.038487833 0
0.84277707 1.1216985 0.3648307 0
0.84234399 1.1217395 0.47377336 0
0.84413928 1.1215695 0.58888781 0
1.0002683 1.1265482 -0.049797799 0
0.35214564 1.1797125 0.038581271 0
0.85174793 1.138731 0.3667281 0
0.83945483 1.1397394 0.47228873 0
0.83326799 1.1402469 0.58372331 0
1.0162375 1.1451666 -0.050316129 0
0.36551741 1.1903034 0.039028767 0
0.84759647 1.1568643 0.36532274 0
0.8348667 1.1577473 0.47031438 0
0.83575886 1.1576854 0.58420676 0
1.0185136 1.1649312 -0.050352838 0
0.84920818 1.1745346 0.36544949 0
0.85009152 1.1744845 0.47501928 0
0.82900327 1.1756806 0.58094639 0
1.0058115 1.1853852 -0.049863152 0
0.8467862 1.1923981 0.36460286 0
0.84060222 1.1926708 0.47156158 0
0.83965677 1.1927125 0.58499682 0
1.0088087 1.2050025 -0.049943637 0
0.85454065 1.2098603 0.36641166 0
0.83918411 1.210344 0.47086805 0
0.83442491 1.2104938 0.5825541 0
1.0189646 1.2245446 -0.050288539 0
0.84982616 1.2277396 0.3650943 0
0.83878273 1.2279482 0.47058707 0
0.8374843 1.2279726 0.58363819 0
1.0106406 1.2444494 -0.049982429 0
0.858679 1.2454062 0.36729607 0
0.8459422 1.2454863 0.47289538 0
0.84874314 1.2454686 0.58820826 0
1.006153 1.2641655 -0.049822215 0
0.85019213 1.2631836 0.36513075 0
0.84515887 1.2631519 0.47263476 0
0.83476692 1.2630864 0.58242148 0
1.0182792 1.2840856 -0.050264064 0
0.84828001 1.2808744 0.36469975 0
0.8450802 1.2808139 0.4726826 0
0.84114164 1.2807395 0.58515269 0
1.012562 1.3037587 -0.050077699 0
0.84502524 1.2984831 0.36398274 0
0.8435424 1.2984364 0.47231877 0
0.83422142 1.2981429 0.58246982 0
1.0120507 1.3235331 -0.050086122 0
0.84345382 1.3160981 0.36375186 0
0.83187014 1.3155873 0.46865368 0
0.84578079 1.3162007 0.58753479 0
1.0057272 1.3429867 -0.049895607 0
0.8468985 1.3339776 0.36485925 0
0.83795196 1.3334701 0.47097406 0
0.84233314 1.3337185 0.58647436 0
1.0125734 1.3632224 -0.050185006 0
1.3062797 1.3835951 0.072695889 0
1.2959185 1.3828764 0.20565417 0
1.2985793 1.3830609 0.34152901 0
0.84277123 1.3514441 0.36408868 0
0.84836787 1.3518323 0.47481692 0
0.84082824 1.3513093 0.58631074 0
0.9978537 1.381897 -0.049711306 0
1.2410872 1.4018489 0.070424214 0
1.2460395 1.4022552 0.2004661 0
1.0155679 1.38335 0.29063678 0
0.8512457 1.3698709 0.36659953 0
0.84027189 1.3689708 0.47256145 0
0.8410762 1.3690368 0.58696705 0
1.0074098 1.4025384 -0.050116021 0
1.2258533 1.423229 0.069949642 0
1.2398133 1.4245512 0.20001049 0
0.89210922 1.3916173 0.26858842 0
0.84766096 1.3874073 0.36608231 0
0.82956976 1.3856937 0.46950442 0
0.83893842 1.3865811 0.58672482 0
1.0061779 1.4223111 -0.050143249 0
0.64771312 1.3837981 0.049271952 0
0.64775962 1.3838031 0.1362638 0
0.63800734 1.3827553 0.22283216 0
0.64456218 1.3834596 0.31442568 0
0.8371765 1.4041538 0.47263998 0
0.82677346 1.4030361 0.58239865 0
0.9980461 1.4412769 -0.049931362 0
0.54396278 1.3866991 0.045603327 0
0.54855269 1.3872508 0.12571217 0
0.5573073 1.3883029 0.2084842 0
0.5492695 1.3873369 0.29038081 0
0.84397 1.422758 0.47558561 0
0.84309226 1.4226525 0.59003049 0
0.98879248 1.4599459 -0.049687311 0
0.56341809 1.4033767 0.046367198 0
0.54931539 1.4015012 0.12598583 0
0.56219608 1.4032142 0.20969665 0
0.55342919 1.4020483 0.29190505 0
0.83448964 1.4394257 0.47315288 0
0.84374946 1.4406571 0.59123659 0
0.99049395 1.4800417 -0.04984653 0
0.54662865 1.4153157 0.045832373 0
0.55960613 1.4172082 0.12731425 0
0.5647549 1.417959 0.21052089 0
0.55900592 1.4171207 0.29384521 0
0.84323543 1.458568 0.47691402 0
0.84375256 1.4586434 0.59226608 0
0.99289292 1.500365 -0.05004042 0
0.5472191 1.4296335 0.045930155 0
0.55570263 1.4309798 0.1271223 0
0.55286628 1.4305297 0.20874244 0
0.54593343 1.4294294 0.2910206 0
0.84224397 1.476456 0.47748375 0
0.84516138 1.4769191 0.59398174 0
0.99356848 1.5205345 -0.050181564 0
0.55148464 1.4446542 0.046167795 0
0.54867536 1.444172 0.12660822 0
0.5587402 1.4458996 0.21023938 0
0.55066389 1.4445133 0.29283854 0
0.85153168 1.496155 0.48160046 0
0.83902568 1.4940084 0.5926283 0
0.99383825 1.5407335 -0.050317511 0
0.55122226 1.4590117 0.04624847 0
0.55843276 1.460343 0.12794538 0
0.55375141 1.4594786 0.20978306 0
0.55295128 1.4593309 0.29407609 0
0.83771187 1.5119072 0.47799295 0
0.83675104 1.5117298 0.5929879 0
0.98685724 1.5596 -0.050199173 0
0.56003207 1.4752228 0.046666067 0
0.55416173 1.4740624 0.12777138 0
0.5525282 1.4737395 0.21004927 0
0.55516464 1.4742607 0.29534593 0
0.83755845 1.5300858 0.47907832 0
0.84863859 1.5322762 0.59941953 0
0.97289711 1.5769131 -0.049834538 0
0.54453093 1.4866126 0.046205211 0
0.54692215 1.4871167 0.1272898 0
0.55129856 1.4880393 0.21034805 0
0.5445388 1.4866142 0.29332042 0
0.8461625 1.5501972 0.48322195 0
0.83696359 1.5482581 0.59600747 0
0.96362525 1.5950161 -0.049648359 0
0.55176705 1.5027645 0.046580151 0
0.55302781 1.5030469 0.12829468 0
0.55134088 1.502669 0.21091598 0
0.54637045 1.5015557 0.29458687 0
0.83790523 1.5668563 0.48171479 0
0.83558458 1.5663365 0.59703964 0
0.97095281 1.6169256 -0.050079051 0
0.55304712 1.5177773 0.046745129 0
0.54982418 1.5170126 0.12829646 0
0.55445331 1.5181109 0.21208878 0
0.547759 1.5165226 0.29579017 0
0.83809632 1.5854053 0.48316354 0
0.83431643 1.5845085 0.59821874 0
0.96963936 1.6369861 -0.050203208 0
0.55011958 1.5318581 0.046762709 0
0.5561282 1.5333638 0.12937108 0
0.5467822 1.5310217 0.21129647 0
0.56098503 1.5345808 0.30016029 0
0.8284809 1.601613 0.48133337 0
0.83589536 1.603471 0.60071427 0
0.95718628 1.6541994 -0.049925759 0
0.5510971 1.546985 0.046931081 0
0.54481465 1.5453264 0.1285139 0
0.5519008 1.5471972 0.21291742 0
0.54937381 1.5465301 0.29805091 0
0.84145862 1.6236453 0.4873414 0
0.83827919 1.622806 0.60366499 0
0.95155984 1.6731074 -0.049908295 0
0.55835623 1.5639811 0.047339823 0
0.555453 1.5631753 0.13011882 0
0.54433304 1.5600891 0.21220765 0
0.55104023 1.5619506 0.29948959 0
0.84263903 1.6428784 0.48939279 0
0.84351891 1.6431226 0.60795754 0
0.94226545 1.6909379 -0.049763214 0
0.5452674 1.5753554 0.047001399 0
0.54838651 1.5762635 0.12977301 0
0.56283921 1.5804714 0.21642336 0
0.55520517 1.5782487 0.30164891 0
0.84335905 1.6621422 0.49137598 0
0.83718342 1.6603442 0.60738444 0
0.94811016 1.71328 -0.050190981 0
0.84280735 1.6811783 0.37947068 0
0.83772427 1.6796287 0.49124077 0
0.83864123 1.6799083 0.61027616 0
0.93874711 1.7310957 -0.050061151 0
0.84368783 1.7008035 0.38117537 0
0.84466749 1.7011157 0.4955737 0
0.83947021 1.6994594 0.61301309 0
0.94272166 1.7532543 -0.050441019 0
0.84404939 1.7204366 0.38281399 0
0.83282655 1.7167039 0.49343354 0
0.83491343 1.7173979 0.61351871 0
0.92796165 1.7692057 -0.050125174 0
0.84385139 1.74005 0.38437527 0
0.83249503 1.7361134 0.49540561 0
0.83723289 1.7377557 0.6171385 0
0.91636664 1.7860655 -0.04993562 0
0.83758003 1.7576389 0.38436323 0
0.83674246 1.7573367 0.49909243 0
0.8400926 1.7585454 0.62112516 0
0.90540749 1.8030244 -0.049777497 0
0.84650415 1.7809297 0.38855198 0
0.83647531 1.7771678 0.50128728 0
0.83245999 1.7756617 0.62060648 0
0.90443808 1.8237582 -0.0500095 0
0.83149272 1.7953436 0.38628775 0
0.82785851 1.7939279 0.50060064 0
0.82880384 1.7942961 0.62194759 0
0.90551049 1.8454971 -0.050331343 0
0.84296376 1.8202215 0.39134914 0
0.82290131 1.8121141 0.50129926 0
0.82960194 1.814822 0.62538928 0
0.8882907 1.8598242 -0.049957436 0
0.83190149 1.8362067 0.39029089 0
0.83606762 1.8379515 0.50862104 0
0.8263436 1.8338789 0.62714398 0
0.88406473 1.8795028 -0.050094128 0
0.83196002 1.8569044 0.39237526 0
0.8263045 1.8544515 0.5077855 0
0.83627981 1.8587779 0.63497096 0
0.8665809 1.8933408 -0.049722467 0
0.83675748 1.8799576 0.39586937 0
0.82244843 1.8735363 0.50917482 0
0.83010453 1.876972 0.63567257 0
0.86907989 1.9161649 -0.050141927 0
0.82936245 1.8977373 0.39603615 0
0.82395309 1.8952274 0.51262629 0
0.81668681 1.8918562 0.63317692 0
0.859469 1.9335154 -0.050095826 0
0.82792884 1.9183964 0.39795381 0
0.80919904 1.909418 0.51020062 0
0.81872016 1.913982 0.63784623 0
0.84860092 1.950211 -0.05000804 0
0.81987268 1.9359922 0.39807197 0
0.80146044 1.9268793 0.51043004 0
0.80830032 1.9302646 0.63692009 0
0.83885545 1.9674138 -0.049973082 0
0.80873042 1.9520285 0.3973701 0
0.80609792 1.9506841 0.51536626 0
0.80336589 1.9492887 0.63863313 0
0.82602257 1.9829663 -0.049822029 0
1.0331515 2.0920599 0.46464777 0
0.79716974 1.9677696 0.51534665 0
0.79578048 1.9670379 0.63922882 0
0.81470376 1.999223 -0.049739376 0
0.80178374 1.9922088 0.40057942 0
0.78470844 1.9829389 0.51407063 0
0.7947666 1.9883994 0.64302951 0
0.81769925 2.0234225 -0.050250024 0
0.78608876 2.0057428 0.39873883 0
0.78906077 2.007405 0.51926744 0
0.78960961 2.0077119 0.6450187 0
0.80185515 2.0371907 -0.05000072 0
0.77874559 2.0238807 0.39939383 0
0.78324026 2.0264695 0.52071428 0
0.78805238 2.0292408 0.64885813 0
0.79484588 2.0559957 -0.050123397 0
0.78438562 2.0497942 0.40397197 0
0.7806049 2.0475528 0.52349633 0
0.78022236 2.0473261 0.64983708 0
0.78305 2.071986 -0.050056711 0
0.76662284 2.0619655 0.40168861 0
0.76764828 2.0625911 0.52238071 0
0.77574652 2.0675309 0.65256029 0
0.77161664 2.0881517 -0.050013226 0
0.77036053 2.0873637 0.40590885 0
0.76192623 2.082072 0.52417165 0
0.7557736 2.0782118 0.64785433 0
0.7637257 2.10657 -0.050128501 0
0.75671583 2.1020479 0.40498269 0
0.76678938 2.1085463 0.53026479 0
0.76212031 2.1055343 0.65614402 0
0.7401244 2.1146727 -0.049581666 0
0.74754244 2.1195912 0.40547392 0
0.74259871 2.1163132 0.52494365 0
0.75168508 2.1223381 0.65633631 0
0.74210781 2.1397443 -0.050139777 0
0.73221618 2.1330047 0.40413776 0
0.73475891 2.134737 0.52619839 0
0.74382788 2.1409161 0.65792745 0
0.73065752 2.1558974 -0.05013112 0
0.72877198 2.1545777 0.40654245 0
0.73533875 2.159174 0.53097725 0
0.7322734 2.1570284 0.6577819 0
0.71628267 2.1699445 -0.050002694 0
0.72578269 2.1767738 0.40919691 0
0.72244424 2.1743739 0.53040409 0
0.72257787 2.1744699 0.65868598 0
0.7076748 2.1881399 -0.050136786 0
0.71620232 2.1944344 0.40987432 0
0.71508938 2.1936131 0.53219509 0
0.71384984 2.192698 0.66020882 0
0.69421059 2.2027779 -0.050064851 0
0.69903046 2.2064302 0.40819895 0
0.70203561 2.2087073 0.53172499 0
0.70793897 2.213181 0.66332847 0
0.67875415 2.2158058 -0.049910393 0
0.6953941 2.2287483 0.41093066 0
0.68937713 2.2240684 0.5314967 0
0.69132441 2.2255828 0.66099894 0
0.66365165 2.2289808 -0.049777996 0
0.68854135 2.2488482 0.41273123 0
0.68232566 2.2438867 0.53373474 0
0.68477982 2.2458456 0.66406298 0
0.64937812 2.2427185 -0.049690109 0
0.66952235 2.259217 0.41062129 0
0.66790158 2.2578897 0.53293234 0
0.67029172 2.2598472 0.66304338 0
0.64334112 2.2632999 -0.049993388 0
0.66351074 2.2802482 0.41286689 0
0.66800362 2.2840235 0.53851002 0
0.66759497 2.2836802 0.66848457 0
0.62857884 2.2766469 -0.049900874 0
0.71857482 2.3542237 0.06614279 0
0.70830065 2.3453674 0.18558623 0
0.72497112 2.3597374 0.31134042 0
0.64870399 2.2939947 0.41226313 0
0.65599936 2.3002834 0.53897476 0
0.64701277 2.292537 0.66437161 0
0.61683255 2.2925775 -0.049959015 0
0.67452985 2.3435931 0.064708613 0
0.67631406 2.3451707 0.18298271 0
0.69094497 2.3581073 0.30652425 0
0.63636249 2.3098457 0.4125509 0
0.63101047 2.3051136 0.53376871 0
0.63578409 2.3093343 0.6654433 0
0.60597569 2.3093743 -0.050070304 0
0.66437525 2.3623359 0.064884923 0
0.66004223 2.3584065 0.18262887 0
0.66190344 2.3600943 0.30286142 0
0.62410277 2.3258135 0.41293845 0
0.61595005 2.3184199 0.53298926 0
0.61780864 2.3201056 0.66287392 0
0.58858544 2.3202062 -0.049874611 0
0.63642365 2.3647003 0.06420704 0
0.64169353 2.3696017 0.18199037 0
0.63566381 2.3639936 0.29985166 0
0.61460227 2.3444042 0.4143616 0
0.61234647 2.3423061 0.53748184 0
0.61117822 2.3412197 0.66676545 0
0.57631439 2.3357344 -0.049935821 0
0.6173057 2.3748343 0.063958265 0
0.623936 2.3811588 0.18145277 0
0.62376827 2.3809988 0.30039278 0
0.59900671 2.3573797 0.413735 0
0.59585088 2.3543694 0.53623867 0
0.59929031 2.3576503 0.66784686 0
0.57224101 2.3593464 -0.050416902 0
0.6080367 2.3943617 0.064204611 0
0.61506683 2.4012387 0.1822665 0
0.6162532 2.4023993 0.30209944 0
0.58664423 2.3734357 0.41431248 0
0.58845586 2.3752077 0.53928578 0
0.58180231 2.3686993 0.66581744 0
0.54917103 2.364387 -0.0499584 0
0.60814244 2.4235442 0.06494052 0
0.60308379 2.4184697 0.18265481 0
0.6057176 2.4211118 0.30312461 0
0.57338852 2.3886809 0.4146471 0
0.57762128 2.3929269 0.54087371 0
0.57425696 2.3895521 0.6696741 0
0.53119117 2.3742046 -0.049757876 0
0.60095996 2.4459784 0.065331422 0
0.60395736 2.4490621 0.18506373 0
0.59861308 2.4435642 0.3051115 0
0.5512529 2.3948429 0.4118056 0
0.56224483 2.4061506 0.54042017 0
0.55916256 2.4029799 0.66925198 0
0.5219329 2.3930223 -0.050013654 0
0.61580616 2.4920585 0.066885322 0
0.61873943 2.495153 0.18973741 0
0.61040848 2.4863639 0.31215334 0
0.55346376 2.4262874 0.41798395 0
0.54174608 2.4139252 0.5375635 0
0.54934865 2.4219458 0.67210329 0
0.50954372 2.4087229 -0.050120641 0
0.54370695 2.4456863 0.41989636 0
0.54018086 2.4418714 0.54399574 0
0.53709096 2.4385281 0.6736477 0
0.49611995 2.423393 -0.050184432 0
0.5204708 2.4504144 0.41679099 0
0.51907676 2.4488676 0.54098189 0
0.50941819 2.4381497 0.6658082 0
0.48421332 2.4398627 -0.050341122 0
0.50569266 2.4643097 0.41693309 0
0.51130468 2.4706972 0.54468876 0
0.50054187 2.4584475 0.66964358 0
0.4674283 2.4508116 -0.050243706 0
0.485221 2.4715846 0.41491243 0
0.49104342 2.4783821 0.54220271 0
0.49165103 2.4790916 0.67368793 0
0.44426987 2.4540248 -0.049797408 0
0.48161218 2.4987495 0.41961002 0
0.47363493 2.4891951 0.5412097 0
0.46533689 2.4792566 0.66670471 0
0.43176094 2.4698305 -0.049948778 0
0.45509502 2.4985039 0.41525835 0
0.46170887 2.5066311 0.54316217 0
0.46159419 2.5064902 0.67441994 0
0.41542307 2.4809852 -0.049893927 0
0.44108638 2.5133448 0.41597173 0
0.44034258 2.5124068 0.5402081 0
0.4442521 2.5173364 0.67342383 0
0.40293953 2.4970694 -0.050071348 0
0.42630538 2.5273063 0.41645187 0
0.42560044 2.5263941 0.54084891 0
0.41794404 2.5164862 0.66643202 0
0.38797131 2.5100665 -0.050116204 0
0.41160074 2.5414534 0.41704649 0
0.40816554 2.5368905 0.54010767 0
0.41114727 2.5408511 0.67274642 0
0.36818716 2.5165548 -0.049880877 0
0.3973588 2.5563362 0.41792724 0
0.39033195 2.5467539 0.53920305 0
0.39554384 2.5538611 0.67321718 0
0.35890195 2.5374651 -0.050291318 0
0.38605747 2.5754921 0.42019621 0
0.37645915 2.5620513 0.54062027 0
0.37150547 2.5551143 0.66780251 0
0.3421075 2.5480876 -0.050255954 0
0.36303213 2.5781834 0.41737366 0
0.36130658 2.5757015 0.5414288 0
0.36176792 2.576365 0.67267263 0
0.32289198 2.5550935 -0.050074149 0
0.34239712 2.5839152 0.41560152 0
0.34227219 2.5837307 0.54004943 0
0.33961961 2.5798111 0.66866183 0
0.30717191 2.5671799 -0.050121404 0
0.32657912 2.5966496 0.41606283 0
0.32230243 2.5901556 0.53813821 0
0.33189067 2.6047153 0.67546088 0
0.29127893 2.5790641 -0.050168134 0
0.30643484 2.6027215 0.41456231 0
0.30922964 2.6070838 0.54049212 0
0.30618212 2.6023269 0.66883326 0
0.26282212 2.5708506 -0.049377572 0
0.29031369 2.6149766 0.41500875 0
0.2922006 2.618005 0.54053777 0
0.28939769 2.6135063 0.66903448 0
0.26050016 2.6047163 -0.05036439 0
0.27013984 2.6206317 0.41354397 0
0.26831904 2.6176255 0.53627127 0
0.27685502 2.6317186 0.67274135 0
0.23521759 2.6009514 -0.049786232 0
0.25165185 2.6288724 0.41293091 0
0.2543889 2.6335225 0.53843623 0
0.2510685 2.6278813 0.66590357 0
0.21259351 2.6010211 -0.049383052 0
0.23246695 2.6357787 0.41199875 0
0.23340054 2.6374116 0.53605133 0
0.23165567 2.6343598 0.66419029 0
0.20512141 2.6278031 -0.050085135 0
0.21965964 2.6539896 0.41444266 0
0.21563955 2.6467485 0.53585696 0
0.22004004 2.6546748 0.66915751 0
0.18880595 2.6392231 -0.050163317 0
0.19940312 2.6588905 0.41305956 0
0.20255823 2.664746 0.53902185 0
0.19953115 2.6591282 0.6667003 0
0.1696824 2.6453967 -0.050037939 0
0.18014772 2.6654191 0.41222781 0
0.18286635 2.6706204 0.53767681 0
0.1820419 2.6690428 0.66693175 0
0.15147938 2.653198 -0.049988177 0
0.16126861 2.6725156 0.41163337 0
0.1630183 2.6759684 0.53623688 0
0.15972556 2.6694705 0.66286069 0
0.13207145 2.658473 -0.049847383 0
0.14396293 2.6826904 0.41198534 0
0.13906236 2.6727102 0.53170902 0
0.14656474 2.6879892 0.66728932 0
0.11752781 2.6737537 -0.050112672 0
0.12219235 2.6835637 0.40976918 0
0.12091591 2.6808794 0.53152931 0
0.12252607 2.6842656 0.66157061 0
0.098076962 2.6788254 -0.049982432 0
0.10509624 2.6940799 0.41035122 0
0.10504898 2.6939771 0.5332396 0
0.1089467 2.7024477 0.66600716 0
0.078381322 2.6831288 -0.049832489 0
0.087513886 2.7036524 0.41072679 0
0.085560165 2.6992617 0.53216809 0
0.081521593 2.690186 0.65670019 0
0.063098691 2.6974356 -0.050081778 0
0.068445705 2.7098711 0.41023061 0
0.063483082 2.6983294 0.52894014 0
0.065104268 2.7020998 0.65849525 0
0.046493731 2.709024 -0.050232138 0
0.048285507 2.7133398 0.40904385 0
0.04757484 2.7116282 0.53095573 0
0.042743288 2.6999896 0.65408683 0
0.026955744 2.7135816 -0.050119426 0
0.023967823 2.7061203 0.4049955 0
0.026348015 2.712064 0.52842337 0
0.025742432 2.7105517 0.65547842 0
0.013233206 2.7329965 -0.050585251 0
0.0047756643 2.7110808 0.40438172 0
0.0059931488 2.7142355 0.52661788 0
0.0078149652 2.7189565 0.65600103 0
-0.011297562 2.7242715 -0.049983773 0
-0.011061111 2.7249081 0.40624991 0
-0.012935855 2.719862 0.52613813 0
-0.011486747 2.7237625 0.65503162 0
-0.030460099 2.7293215 -0.049918957 0
-0.033622839 2.7204685 0.40321502 0
-0.0315874 2.7261662 0.52598435 0
-0.032071091 2.7248123 0.65252221 0
-0.048597671 2.7372274 -0.049971346 0
-0.050457634 2.7318068 0.4045257 0
-0.051070489 2.7300205 0.52505243 0
-0.05535648 2.7175293 0.64648986 0
-0.071514823 2.7307386 -0.049491089 0
-0.070224173 2.7346604 0.40360919 0
-0.070198603 2.7347379 0.52451271 0
-0.072337426 2.7282391 0.64845324 0
-0.086629309 2.7478876 -0.049908396 0
-0.091740437 2.7316723 0.40120029 0
-0.090971686 2.7341111 0.52219504 0
-0.092439033 2.7294559 0.64638078 0
-0.1060384 2.7518191 -0.049838379 0
-0.11303798 2.7285967 0.39884958 0
-0.11297417 2.7288084 0.51835251 0
-0.11318297 2.7281158 0.64332014 0
-0.1237391 2.7615209 -0.049992073 0
-0.10719494 2.8190196 0.064128138 0
-0.10519249 2.825979 0.18175767 0
-0.10547657 2.8249917 0.30076095 0
-0.12891881 2.7435191 0.40135679 0
-0.13305123 2.729157 0.51657635 0
-0.12924336 2.7423911 0.64711094 0
-0.1447046 2.7597356 -0.049728267 0
-0.13469939 2.7962315 0.063079298 0
-0.1329148 2.8027411 0.17854753 0
-0.13272233 2.8034432 0.29569048 0
-0.15031685 2.7392638 0.39883503 0
-0.15077107 2.7376068 0.51768839 0
-0.15212388 2.7326722 0.64067471 0
-0.16165762 2.7726188 -0.050016265 0
-0.15823327 2.7857561 0.062500961 0
-0.15721716 2.7896545 0.17651416 0
-0.15487964 2.7986224 0.2938183 0
-0.16787176 2.7487781 0.40002316 0
-0.17006995 2.7403445 0.51690978 0
-0.16868509 2.7456577 0.64409751 0
-0.18232442 2.7713408 -0.049790442 0
-0.17830785 2.7875857 0.062387872 0
-0.17917036 2.7840972 0.1753546 0
-0.17979853 2.7815568 0.289729 0
-0.18854843 2.7461679 0.39807925 0
-0.19089504 2.7366769 0.51402181 0
-0.19093724 2.7365062 0.63815731 0
-0.20101802 2.7778125 -0.049858972 0
-0.19870286 2.7877092 0.062221844 0
-0.19782673 2.7914546 0.17565437 0
-0.20287983 2.7698536 0.28670317 0
-0.20777212 2.74894 0.39761966 0
-0.20842801 2.7461362 0.51571715 0
-0.20946242 2.7417142 0.63845974 0
-0.22242303 2.7722366 -0.049495474 0
-0.21653329 2.7989247 0.062471207 0
-0.21685247 2.7974784 0.17583247 0
-0.21346672 2.8128202 0.29383639 0
-0.22919317 2.741559 0.39457202 0
-0.23040111 2.7360854 0.51083606 0
-0.229257 2.7412698 0.6364637 0
-0.23798312 2.7935801 -0.050124291 0
-0.23692997 2.798655 0.06230934 0
-0.23391165 2.8132 0.17710081 0
-0.23451228 2.8103056 0.29259828 0
-0.24784668 2.7460489 0.39469582 0
-0.25098523 2.7309246 0.50772345 0
-0.24996816 2.7358258 0.63246435 0
-0.25790343 2.7948368 -0.050028168 0
-0.25484887 2.8105481 0.062599577 0
-0.25180691 2.8261945 0.17809108 0
-0.25341126 2.8179426 0.29327708 0
-0.26843023 2.7406914 0.39232105 0
-0.26918662 2.7368011 0.50844711 0
-0.26948556 2.7352633 0.6306439 0
-0.27797765 2.7948828 -0.049897432 0
-0.26402187 2.8718243 0.064689167 0
-0.26743037 2.8530326 0.18061572 0
-0.2679351 2.8502498 0.29851988 0
-0.28766698 2.7414632 0.39160821 0
-0.28973988 2.7300348 0.50497198 0
-0.28817782 2.7386467 0.63059157 0
-0.29644942 2.8039076 -0.050101213 0
-0.30578473 2.7484739 0.39257386 0
-0.30871356 2.7310824 0.50422788 0
-0.30806795 2.7349162 0.62765127 0
-0.31645915 2.8039973 -0.049990173 0
-0.32654265 2.7391446 0.38937756 0
-0.32791126 2.7303421 0.50296372 0
-0.32761747 2.7322316 0.62526011 0
-0.33675337 2.8015592 -0.04979727 0
-0.34578601 2.7382216 0.38842097 0
-0.34853861 2.7189205 0.49819359 0
-0.34782746 2.723907 0.62061745 0
-0.35557905 2.8094037 -0.049984071 0
-0.36707476 2.7208292 0.38329113 0
-0.36614728 2.7279756 0.50038809 0
-0.36600548 2.729068 0.62171912 0
-0.37418479 2.8202879 -0.050288398 0
-0.38511899 2.7268355 0.38424823 0
-0.38619933 2.7176023 0.49614587 0
-0.38571128 2.7217731 0.61772239 0
-0.39524516 2.8097289 -0.049831025 0
-0.40545642 2.7117858 0.37986127 0
-0.4053233 2.7130628 0.49394518 0
-0.40480009 2.718081 0.61533386 0
-0.41486156 2.811439 -0.04982356 0
-0.42297047 2.7228601 0.38223791 0
-0.4247472 2.7034519 0.49013317 0
-0.42352277 2.7168272 0.61406189 0
-0.43404034 2.818671 -0.050022688 0
-0.4426004 2.7101257 0.37857541 0
-0.44278514 2.707783 0.49105948 0
-0.44282949 2.7072208 0.60942012 0
-0.45405161 2.8155019 -0.049858164 0
-0.46105456 2.7097228 0.37813231 0
-0.46173206 2.6994889 0.48785129 0
-0.46142837 2.7040763 0.60756451 0
-0.47359037 2.8190427 -0.04994265 0
-0.47972468 2.7045255 0.37652388 0
-0.48036563 2.6925597 0.48517945 0
-0.48064858 2.6872776 0.60014588 0
-0.4932498 2.8211696 -0.049985372 0
-0.49786419 2.7084768 0.37731245 0
-0.49882579 2.6849928 0.48237488 0
-0.49844107 2.6943884 0.6027391 0
-0.5130946 2.8179286 -0.049845204 0
-0.51628959 2.7051909 0.37631184 0
-0.51674795 2.6890173 0.48350659 0
-0.51673144 2.6895998 0.60049534 0
-0.53281629 2.8164282 -0.049776133 0
-0.53465742 2.699472 0.37474987 0
-0.53493941 2.6815586 0.4808923 0
-0.5348835 2.6851113 0.59847176 0
-0.55243576 2.8328962 -0.050357431 0
-0.55287176 2.694459 0.37342697 0
-0.55295229 2.6688917 0.47662163 0
-0.55295366 2.6684525 0.59150392 0
-0.57224327 2.8255179 -0.05009624 0
-0.57089037 2.682245 0.37032527 0
-0.57080501 2.6732023 0.47807443 0
-0.57076865 2.6693504 0.59189892 0
-0.59205741 2.8266625 -0.050148226 0
-0.58866382 2.6726689 0.36795375 0
-0.58844769 2.6628618 0.47472695 0
-0.58864588 2.6718557 0.59305257 0
-0.6117366 2.8227589 -0.050028823 0
-0.60580736 2.651588 0.36270124 0
-0.6058563 2.6530013 0.47161171 0
-0.60611647 2.6605129 0.58856297 0
-0.63126743 2.8174345 -0.049867414 0
-0.62375879 2.6585288 0.36465794 0
-0.62305361 2.6436055 0.4687224 0
-0.62296408 2.641711 0.58107007 0
-0.65133017 2.8228459 -0.050098646 0
-0.64119959 2.6536646 0.36365673 0
-0.64065844 2.6446273 0.46937519 0
-0.64009964 2.6352952 0.57879686 0
-0.64012557 2.6357284 0.69841146 0
-0.6709199 2.8194373 -0.050023414 0
-0.65805459 2.64205 0.36098394 0
-0.65678686 2.6245708 0.46307141 0
-0.65673053 2.6237943 0.57450026 0
-0.65708274 2.62865 0.69543791 0
-0.69026309 2.8137228 -0.049874321 0
-0.67384255 2.620986 0.46232849 0
-0.67428595 2.6261904 0.57606065 0
-0.67301124 2.6112289 0.68737477 0
-0.70992661 2.8123279 -0.049888719 0
-0.68941063 2.6027541 0.45676014 0
-0.69000071 2.6087818 0.56947601 0
-0.69065905 2.6155069 0.69031137 0
-0.72919148 2.8072085 -0.049778257 0
-0.70726103 2.6089625 0.5702914 0
-0.70730197 2.609333 0.6881023 0
-0.74972278 2.8129635 -0.05006751 0
-0.72243345 2.5917943 0.56396115 0
-0.72237676 2.5913351 0.68003464 0
-0.76919258 2.8093896 -0.050030436 0
-0.73872524 2.5856783 0.67828059 0
-0.78888863 2.8074894 -0.050062556 0
-0.75464362 2.5777161 0.67546111 0
-0.80820054 2.803056 -0.050012078 0
-0.82842541 2.8040314 -0.050166331 0
-0.84644204 2.7926481 -0.049881242 0
-0.8666842 2.7933438 -0.050043538 0
-0.88569272 2.7877154 -0.049984682 0
-0.90486091 2.7829633 -0.049966477 0
-0.92410386 2.7785628 -0.04996999 0
-0.94426823 2.7777684 -0.050115246 0
-0.96397805 2.7748652 -0.050192434 0
-0.9806295 2.7608621 -0.049867462 0
-1.0027001 2.7660568 -0.050263569 0
-1.0188212 2.7509944 -0.049914792 0
-1.0340688 2.7340124 -0.049500197 0
-1.0587629 2.7460456 -0.050183877 0
-1.0781052 2.7413266 -0.05024863 0
-1.0948589 2.7293603 -0.050047547 0
-1.1096976 2.712729 -0.049675439 0
-1.1340421 2.7209845 -0.05026333 0
-1.1486303 2.7042072 -0.049900893 0
-1.1679909 2.6993737 -0.050006531 0
-1.1851826 2.6893885 -0.049921479 0
-1.201943 2.6785882 -0.049812458 0
-1.2207578 2.6723535 -0.049891036 0
-1.2380509 2.6628351 -0.049849264 0
-1.2540116 2.6507051 -0.049711689 0
-1.2747616 2.6480854 -0.04996312 0
-1.2901217 2.6349249 -0.049800742 0
-1.3065646 2.6239762 -0.049735092 0
-1.3279129 2.6218219 -0.050037794 0
-1.3432072 2.6088004 -0.049905248 0
-1.3566791 2.5929031 -0.049660087 0
-1.3744642 2.5843515 -0.049727894 0
-1.3928094 2.576591 -0.049839072 0
-1.4108577 2.5682237 -0.049935125 0
-1.4269824 2.5568473 -0.049912535 0
-1.4445683 2.5476239 -0.049991708 0
-1.4546237 2.527611 -0.04961 0
-1.4781331 2.5266435 -0.050069667 0
-1.4943883 2.5153646 -0.050088119 0
-1.5050122 2.4966757 -0.049783185 0
-1.5274507 2.4934223 -0.050181121 0
-1.5464408 2.4854236 -0.05037865 0
-1.5563232 2.4661517 -0.050067686 0
-1.5664707 2.4475281 -0.049789492 0
-1.5888276 2.4432733 -0.050193366 0
-1.5963657 2.4219315 -0.049798593 0
-1.6180332 2.4164803 -0.050171878 0
-1.6280048 2.3981431 -0.049932741 0
-1.6388754 2.3809817 -0.049755048 0
-1.645609 2.3597918 -0.04938015 0
-1.6712012 2.3576512 -0.049971081 0
-1.6867971 2.3452706 -0.05006003 0
-1.6920017 2.3230119 -0.049645979 0
-1.7107562 2.31359 -0.04990717 0
-1.7310441 2.3052897 -0.050244637 0
-1.7371246 2.2842658 -0.049910076 0
-1.7544035 2.2730784 -0.050116546 0
-1.7598743 2.2519019 -0.049779695 0
-1.7761292 2.2397463 -0.049953677 0
-1.2302138 1.7983342 0.51912135 0
-1.7855119 2.2220154 -0.049820576 0
-1.2347391 1.7880301 0.51740664 0
-1.7973454 2.2062807 -0.049809162 0
-1.2327578 1.7728201 0.51094103 0
-1.8127913 2.193254 -0.049967781 0
-1.236699 1.7623805 0.50906456 0
-1.8384782 2.1875453 -0.05058457 0
-1.2330127 1.7464809 0.50170571 0
-1.8303854 2.157337 -0.049720448 0
-1.2391207 1.7379102 0.50168002 0
-1.8478521 2.1455169 -0.049989343 0
-1.2330946 1.7209587 0.49298733 0
-1.861221 2.1307104 -0.050086129 0
-1.2505515 1.7202348 0.50130129 0
-1.875159 2.1161907 -0.050214384 0
-1.2462904 1.7048824 0.4941636 0
-1.8846947 2.0987594 -0.050163109 0
-1.2381127 1.6873955 0.48446622 0
-1.8954149 2.0820997 -0.050171208 0
-1.2362113 1.6742737 0.47937527 0
-1.8956228 2.0591075 -0.049750075 0
-1.2359946 1.6624155 0.47560322 0
-1.9037522 2.041085 -0.049671605 0
-1.2423818 1.6546001 0.47649804 0
-1.9210948 2.028352 -0.049981251 0
-1.2373534 1.6402597 0.46966919 0
-1.9301559 2.0108023 -0.049957745 0
-1.2373928 1.6290413 0.46644187 0
-1.9442067 1.9959363 -0.05014538 0
-1.9552418 1.9793533 -0.050218064 0
-1.9584273 1.9587626 -0.049984984 0
-1.9644724 1.9397445 -0.049877226 0
-1.9762002 1.9234869 -0.050003894 0
-1.9835597 1.9051344 -0.049966469 0
-1.9891518 1.8860276 -0.049869332 0
-2.0002222 1.8693268 -0.049994685 0
-2.0019934 1.8487009 -0.04976853 0
-1.9994674 1.8265382 -0.049388453 0
-2.0009429 1.8061889 -0.049173839 0
-1.9897317 1.7813296 -0.048487365 0
-2.0026772 1.7655251 -0.048730608 0
-2.0031786 1.7453102 -0.048511151 0
-1.991351 1.7212403 -0.047839254 0
-1.9923729 1.7016693 -0.047661863 0
-2.0051568 1.6857308 -0.047932506 0
-1.9957961 1.6632944 -0.047387715 0
-1.9952104 1.643629 -0.047179811 0
-1.9973435 1.6248113 -0.047081947 0
-2.0012162 1.606486 -0.047057025 0
-2.0042825 1.5879897 -0.0470111 0
-1.9945247 1.5667357 -0.046505298 0
-1.999118 1.5487739 -0.04653348 0
-2.0067885 1.5313771 -0.04668168 0
-2.0044444 1.5120871 -0.046474341 0
-1.992615 1.4913758 -0.045933001 0
-1.9918993 1.4727398 -0.045803472 0
-2.0066373 1.4563475 -0.046239696 0
-1.9929166 1.4360396 -0.045658536 0
-2.0035195 1.4189097 -0.045961387 0
-2.0027847 1.4004161 -0.045864776 0
-1.9961321 1.3814652 -0.045564517 0
-1.9943461 1.3630921 -0.045447342 0
-1.9827652 1.3441814 -0.044988152 0
-2.0005252 1.3270713 -0.045586601 0
-1.9894096 1.3084445 -0.045160837 0
-1.9913403 1.2904439 -0.045209505 0
-1.9981312 1.2724673 -0.045439787 0
-1.9999775 1.2543254 -0.045501623 0
-1.132064 0.26436791 -0.04985847 0
-0.38643712 0.2643699 0.41576841 0
-0.38685834 0.2643699 0.49194393 0
-1.126657 0.24473417 -0.049669847 0
-0.39912802 0.25389731 0.42215118 0
-1.1356115 0.2248686 -0.05000288 0
-0.41402173 0.24304621 0.35661921 0
-0.40266311 0.24333236 0.42401949 0
-1.140505 0.20491832 -0.050199918 0
-0.50883293 0.22879253 0.10724119 0
-0.50867844 0.22879837 0.17586915 0
-1.2376524 0.20124662 0.43242443 0
-1.246254 0.20092152 0.56492454 0
-1.2498699 0.20078485 0.70307654 0
-1.1374168 0.18522812 -0.050120745 0
-0.50542617 0.2170877 0.10693084 0
-0.50415665 0.2171517 0.17514697 0
-1.2353953 0.18028888 0.43208471 0
-1.237748 0.18017028 0.56240153 0
-1.238851 0.18011469 0.69889569 0
-1.1280015 0.16598962 -0.049824037 0
-0.51306015 0.20475779 0.107825 0
-0.51559281 0.20459813 0.17733443 0
-1.2375752 0.15908168 0.43294641 0
-1.2427076 0.15875812 0.56445241 0
-1.1298277 0.14610691 -0.049938202 0
-0.51028365 0.19300391 0.10761474 0
-0.5132947 0.19277598 0.1770685 0
-1.2422349 0.13759813 0.43451178 0
-1.2390935 0.13783592 0.56373459 0
-1.128831 0.12638968 -0.049960293 0
-0.4959684 0.1823173 0.1061753 0
-0.51615262 0.18053357 0.17776272 0
-1.2356396 0.11695077 0.43326533 0
-1.2327952 0.11720213 0.5622074 0
-1.1237247 0.10706907 -0.04984384 0
-0.51091671 0.16900992 0.10790953 0
-0.51794785 0.16829924 0.17829312 0
-1.2294927 0.096378334 0.432199 0
-1.2503343 0.094271742 0.56873602 0
-1.1310983 0.086407565 -0.050184388 0
-0.50732982 0.15740126 0.039771281 0
-0.51020837 0.15707365 0.10797086 0
-0.50393647 0.15778747 0.17598312 0
-1.2416112 0.073829629 0.43588775 0
-1.2312106 0.075013362 0.56309444 0
-1.1219049 0.067597978 -0.049938649 0
-0.52749008 0.14284363 0.040547922 0
-0.51173425 0.14483814 0.10829061 0
-0.51372486 0.14458615 0.17801999 0
-1.2320749 0.053651784 0.43408644 0
-1.2330896 0.053523336 0.56456834 0
-1.1200668 0.047934864 -0.049966145 0
-0.51548451 0.13221498 0.040173065 0
-0.50252682 0.13402131 0.10746296 0
-0.5142318 0.13238962 0.17840059 0
-1.2416449 0.030986611 0.43726909 0
-1.2380949 0.031481463 0.56718588 0
-1.1108035 0.02937955 -0.049734484 0
-0.51445377 0.12018079 0.04019865 0
-0.5148527 0.12012004 0.10898936 0
-0.51500911 0.12009624 0.17885925 0
-1.2323892 0.010866691 0.43567312 0
-1.2416081 0.009463002 0.56939954 0
-1.1235069 0.0073584211 -0.05030565 0
-0.50558913 0.10942029 0.039946295 0
-0.52022576 0.10700276 0.10978065 0
-0.5140925 0.10801578 0.1790375 0
-1.2407984 -0.012014668 0.43870714 0
-1.2435641 -0.012471507 0.57118613 0
-1.1089134 -0.010212581 -0.049898267 0
-0.51208037 0.096103273 0.040255133 0
-0.51371932 0.09581133 0.10929494 0
-0.5062747 0.097137459 0.17797975 0
-1.2355292 -0.032767069 0.43827787 0
-1.2372499 -0.033073585 0.57027525 0
-1.1114323 -0.030765336 -0.050119929 0
-0.51852435 0.082571559 0.040569093 0
-0.51347464 0.083536826 0.1095086 0
-0.50806618 0.084570684 0.178709 0
-1.2380673 -0.054972183 0.43994331 0
-1.2512209 -0.057486545 0.57632089 0
-1.112946 -0.051275592 -0.050314955 0
-0.52581519 0.068638913 0.040920913 0
-0.51853901 0.070124976 0.11032208 0
-0.52965343 0.067854993 0.18311305 0
-1.245092 -0.07826484 0.44285408 0
-1.2304021 -0.07526461 0.57067299 0
-1.0926741 -0.067193873 -0.049724001 0
-0.50932091 0.059620935 0.040411111 0
-0.51779979 0.057777707 0.11051806 0
-0.51006311 0.059459601 0.17996819 0
-1.2266643 -0.096321918 0.43920389 0
-1.2356999 -0.098286159 0.57397759 0
-1.093244 -0.087493964 -0.049902268 0
-0.51264298 0.046400104 0.040630016 0
-0.51674712 0.045453627 0.11069716 0
-0.51271451 0.046383608 0.18095028 0
-1.2518764 -0.12407664 0.44702867 0
-1.2384977 -0.12099136 0.57653707 0
-1.0929426 -0.10771421 -0.050058443 0
-0.50293654 0.036196191 0.040376935 0
-0.50793254 0.034977589 0.11003533 0
-0.51299077 0.033743832 0.18152499 0
-1.2372496 -0.14291264 0.44450703 0
-1.2421219 -0.14410107 0.57948518 0
-1.0837166 -0.12575518 -0.049895506 0
-0.5611611 0.008696218 0.042631976 0
-0.55564123 0.010116448 0.11565835 0
-0.5669471 0.0072075021 0.19212763 0
-1.2394161 -0.16581602 0.44646364 0
-1.2401317 -0.16600014 0.58061385 0
-1.0879101 -0.14731382 -0.050236739 0
-0.60958982 -0.017801266 0.044545185 0
-0.62290609 -0.021406811 0.12351271 0
-1.2419263 -0.18901606 0.31886244 0
-1.2419659 -0.18902679 0.44860432 0
-1.2381772 -0.18800093 0.58185369 0
-1.0789555 -0.16538762 -0.05010125 0
-0.68973601 -0.054721992 0.047654852 0
-0.69563293 -0.056398641 0.13204978 0
-1.2402385 -0.21124472 0.31964123 0
-1.2366573 -0.21022646 0.4487457 0
-1.2409143 -0.21143688 0.58481634 0
-1.0847224 -0.18775176 -0.050522126 0
-0.77112055 -0.094302751 0.050839629 0
-0.78082073 -0.097193249 0.14206563 0
-1.2378398 -0.2333786 0.32034177 0
-1.25243 -0.23772626 0.45457077 0
-1.2543591 -0.23830114 0.59160954 0
-1.0710088 -0.20435713 -0.050226677 0
-0.87627852 -0.14365034 0.054944564 0
-0.87458169 -0.14312138 0.15314366 0
-1.2353899 -0.25560263 0.32108793 0
-1.2403697 -0.25715503 0.45307297 0
-1.2456763 -0.25880936 0.59083593 0
-1.0679972 -0.22423147 -0.050339676 0
-0.98662019 -0.1977336 0.059284274 0
-0.98391712 -0.19685338 0.16609269 0
-1.2394145 -0.28004804 0.32311809 0
-1.2447482 -0.28178486 0.45604533 0
-1.2414705 -0.28071752 0.59171581 0
-1.0493361 -0.23887865 -0.049872521 0
-1.1222231 -0.26363125 0.064620644 0
-1.1201284 -0.26291993 0.18222421 0
-1.2330705 -0.3012754 0.32324067 0
-1.2443017 -0.3050895 0.45781371 0
-1.0506728 -0.26025298 -0.050167542 0
-1.3016076 -0.34901062 0.2036826 0
-1.235116 -0.32549199 0.32501969 0
-1.2393503 -0.32698974 0.45845017 0
-1.0353631 -0.2757276 -0.049840908 0
-1.2526972 -0.35569325 0.19898188 0
-1.2314438 -0.3478733 0.32576665 0
-1.246928 -0.35357055 0.46257043 0
-1.0370541 -0.29745826 -0.050169911 0
-1.2404745 -0.37522635 0.19848923 0
-1.2345226 -0.37295094 0.32787502 0
-1.2431203 -0.3762379 0.46369198 0
-1.0264025 -0.31454441 -0.050036978 0
-1.254414 -0.40502051 0.20104741 0
-1.2350181 -0.39732412 0.32955381 0
-1.2479973 -0.40247431 0.46728107 0
-1.0144551 -0.3309994 -0.049861614 0
-1.2449057 -0.42581895 0.20093746 0
-1.2314464 -0.42028108 0.33050784 0
-1.2524147 -0.42890856 0.47085297 0
-1.0153198 -0.35278448 -0.050190557 0
-1.2501545 -0.45288363 0.20258144 0
-1.2472397 -0.45164117 0.33532003 0
-1.2342814 -0.44611767 0.46828187 0
-0.99798608 -0.36679724 -0.049821869 0
-1.2490299 -0.47756132 0.20352584 0
-1.2410822 -0.47405466 0.33590966 0
-1.2453943 -0.47595724 0.47391239 0
-0.99289513 -0.38611445 -0.049938407 0
-1.2250998 -0.49207911 0.20181827 0
-1.2344658 -0.49635324 0.3364675 0
-1.2454466 -0.50136423 0.4765785 0
-0.98487473 -0.40414432 -0.049949575 0
-1.2433487 -0.52605212 0.20513402 0
-1.2352294 -0.5222227 0.33855608 0
-1.2499182 -0.52915061 0.48059714 0
-0.97849536 -0.42298588 -0.050034974 0
-1.4945073 -0.6743505 0.082526781 0
-1.2369877 -0.54890513 0.20557922 0
-1.2369286 -0.54887635 0.34091032 0
-1.2343464 -0.54761851 0.47905132 0
-0.96840036 -0.44003013 -0.049981892 0
-1.4546418 -0.68451518 0.081412166 0
-1.2331458 -0.57314575 0.20636478 0
-1.2434778 -0.57834071 0.34432611 0
-1.2413788 -0.57728529 0.48401687 0
-0.95370054 -0.45464727 -0.049751863 0
-1.3943015 -0.68317908 0.079471931 0
-1.2532176 -0.61000139 0.21008745 0
-1.2443235 -0.60538822 0.34668067 0
-0.95228851 -0.47618976 -0.050065674 0
-1.3400956 -0.68357629 0.077766269 0
-1.235123 -0.62744039 0.20924026 0
-1.2406533 -0.6303978 0.34819695 0
-0.92837799 -0.48559043 -0.049475577 0
-1.3038242 -0.69248754 0.076779991 0
-1.2369312 -0.65562487 0.21085623 0
-1.2345303 -0.65430182 0.34928337 0
-0.92557883 -0.50649887 -0.049752742 0
-1.2620258 -0.69746649 0.075564347 0
-1.2415209 -0.68582785 0.21287122 0
-1.2402217 -0.68509048 0.35288981 0
-0.91290307 -0.52186579 -0.049634404 0
-1.2491797 -0.71837568 0.0755395 0
-1.2368559 -0.71117401 0.2137963 0
-1.2461469 -0.7166034 0.35665235 0
-0.90117371 -0.53770804 -0.049562622 0
-1.2477103 -0.74611074 0.075999334 0
-1.2415378 -0.74239868 0.21594043 0
-1.2419683 -0.7426576 0.35840037 0
-0.89630139 -0.55773664 -0.049786493 0
-1.2529273 -0.77836841 0.076758079 0
-1.2397916 -0.77024192 0.21733852 0
-1.245599 -0.77383465 0.36188751 0
-0.88894975 -0.57637864 -0.049917877 0
-1.2595679 -0.8121708 0.077600285 0
-1.2422428 -0.80114836 0.21932696 0
-1.2362182 -0.79731542 0.36270502 0
-0.88661277 -0.59841502 -0.050274249 0
-1.2538886 -0.8386299 0.077941976 0
-1.2465211 -0.83381134 0.22161624 0
-1.2369581 -0.82755667 0.36577377 0
-0.87229693 -0.61270607 -0.050130237 0
-1.2350769 -0.85655707 0.077735931 0
-1.2432986 -0.86208349 0.22300671 0
-1.2471114 -0.86464638 0.37099653 0
-0.85368598 -0.62391132 -0.04980639 0
-1.2362852 -0.88813847 0.078406461 0
-1.2459027 -0.89478046 0.22521663 0
-1.2369546 -0.88860077 0.37191531 0
-0.84244657 -0.64006948 -0.049808454 0
-1.2364534 -0.91956693 0.079054803 0
-1.2440386 -0.92494768 0.22691165 0
-1.6037964 -1.1801497 0.45626965 0
-0.82661664 -0.65288931 -0.049616721 0
-1.2369033 -0.95177132 0.079738967 0
-1.2340899 -0.94972187 0.22759761 0
-1.5753487 -1.1983191 0.45401654 0
-0.8187319 -0.6714865 -0.049784549 0
-1.2467338 -0.99159938 0.080865808 0
-1.2356843 -0.98333532 0.22988085 0
-0.81009281 -0.68965769 -0.049930546 0
-1.2317741 -1.0134022 0.080910258 0
-1.2383058 -1.0184169 0.23238252 0
-0.79547203 -0.70325065 -0.049816467 0
-1.1582103 -0.98907274 0.078303866 0
-1.158596 -0.98937672 0.22370446 0
-1.1535262 -0.98538202 0.37017485 0
-0.78478289 -0.7199232 -0.049889546 0
-1.1452281 -1.0113691 0.078438222 0
-1.1413004 -1.0081933 0.22351329 0
-1.1371756 -1.004858 0.37006143 0
-0.78002572 -0.74158794 -0.050248254 0
-1.2473963 -1.1293237 0.083928503 0
-1.2336738 -1.1179394 0.23866698 0
-1.3377751 -1.204303 0.42084244 0
-0.76335859 -0.7534526 -0.050065193 0
-1.2432078 -1.1618495 0.084561065 0
-1.242955 -1.1616343 0.24245165 0
-1.322163 -1.2290479 0.42155778 0
-1.0245569 -0.97575694 0.49416688 0
-0.74894023 -0.76711339 -0.049993731 0
-1.2862982 -1.2362499 0.41750655 0
-0.99465871 -0.98163611 0.48936844 0
-0.7301513 -0.77679676 -0.049720198 0
-1.1934563 -1.191677 0.083923332 0
-1.1991446 -1.1967708 0.24138822 0
-1.1981177 -1.1958512 0.40076613 0
-0.97093391 -0.99241275 0.48665506 0
-0.72157097 -0.79559845 -0.049944218 0
-0.92518008 -0.98259872 0.47632581 0
-0.70280576 -0.80502802 -0.049682934 0
-0.88609922 -0.97767466 0.46816909 0
-0.69890118 -0.82856077 -0.050161961 0
-0.85603881 -0.98034984 0.46309051 0
-0.67302513 -0.83080834 -0.049557671 0
-0.83225739 -0.98854452 0.46021515 0
-0.67442501 -0.86016148 -0.050335146 0
-0.81172001 -0.99963528 0.45851991 0
-0.64683723 -0.86011213 -0.049647361 0
-0.63092244 -0.87182885 -0.049560085 0
-0.62341499 -0.89267105 -0.049924619 0
-0.60565555 -0.90238303 -0.049757738 0
-0.59122813 -0.91576129 -0.049776576 0
-0.57515216 -0.92721564 -0.049713802 0
-0.56610954 -0.94713753 -0.050052859 0
-0.55015135 -0.95883816 -0.050017249 0
-0.53887087 -0.97647828 -0.050260447 0
-0.51980841 -0.98420399 -0.050062556 0
-0.50341529 -0.99529344 -0.050026845 0
-0.4877972 -1.0074161 -0.050046138 0
-0.47570914 -1.0245776 -0.050293952 0
-0.4510566 -1.0237372 -0.049766887 0
-0.4411456 -1.044314 -0.050176978 0
-0.41713965 -1.0437282 -0.049688131 0
-0.3786006 -0.98439676 0.50141019 0
-0.40534788 -1.0618353 -0.050005369 0
-0.35160452 -0.9767707 0.49442878 0
-0.38585281 -1.067836 -0.04981916 0
-0.33208221 -0.98030668 0.49199277 0
-0.37148994 -1.0821819 -0.049991593 0
-0.30945355 -0.97828645 0.48751757 0
-0.34998196 -1.0844604 -0.04967219 0
-0.29353297 -0.98715967 0.48737493 0
-0.33386153 -1.0958482 -0.049739469 0
-0.27560127 -0.99244744 0.48594093 0
-0.32203007 -1.1151826 -0.050137948 0
-0.25343633 -0.9897756 0.48158434 0
-0.30590427 -1.1270318 -0.050237276 0
-0.22284593 -0.97053081 0.47112012 0
-0.28155249 -1.1230586 -0.049708832 0
-0.20822842 -0.98059565 0.47183502 0
-0.26589143 -1.1356783 -0.049857985 0
-0.18541922 -0.9743672 0.4665564 0
-0.2432297 -1.13406 -0.049449518 0
-0.17081054 -0.98419696 0.46734971 0
-0.22931297 -1.1504631 -0.049765039 0
-0.14645167 -0.97333211 0.46060511 0
-0.21456768 -1.1655825 -0.050035354 0
-0.12919725 -0.97693497 0.45929438 0
-0.19612427 -1.172732 -0.050000861 0
-0.11563684 -0.98874134 0.46104896 0
-0.18126543 -1.1883101 -0.050302256 0
-0.10317792 -1.0035027 0.46392342 0
-0.1614687 -1.1923505 -0.050164495 0
-0.06999363 -0.96802181 0.34555927 0
-0.087350145 -1.0105859 0.4640809 0
-0.142074 -1.1971563 -0.050066363 0
-0.055002853 -0.97569221 0.34595418 0
-0.066421822 -1.0047361 0.45968571 0
-0.12215675 -1.2003957 -0.049918249 0
-0.032035545 -0.96241707 0.14697924 0
-0.032647356 -0.96403259 0.24289466 0
-0.013875974 -0.91446394 0.32760236 0
-0.05182828 -1.0146827 0.46102497 0
-0.10174038 -1.2019693 -0.049717065 0
-0.0067200498 -0.94118565 0.14389282 0
-0.0088756215 -0.94710153 0.23853922 0
0.0045385822 -0.91028625 0.32496703 0
-0.084753469 -1.2129166 -0.049881097 0
0.0074223741 -0.94968182 0.14424136 0
0.012520539 -0.93512255 0.23520648 0
0.021443205 -0.90964133 0.32336107 0
-0.0018171205 -0.97606784 0.4432568 0
-0.066533342 -1.2205678 -0.04992836 0
0.02344604 -0.95284504 0.14400403 0
0.0246913 -0.94913989 0.23688532 0
0.025449054 -0.94688529 0.33201733 0
0.01497023 -0.97806376 0.44207227 0
-0.04655157 -1.2228692 -0.049783394 0
0.03598465 -0.96665376 0.14499244 0
0.03652586 -0.96497363 0.23893064 0
0.022382217 -1.0088794 0.34728625 0
0.017602043 -1.0237185 0.45622668 0
-0.029016061 -1.2327689 -0.049932282 0
0.023396092 -1.0627615 0.36031991 0
-0.010921193 -1.2411524 -0.050032422 0
0.067031667 -0.97650856 0.33603701 0
0.0070475503 -1.2502576 -0.050167434 0
0.085441783 -0.9711985 0.33343622 0
0.028978394 -1.2449257 -0.049776837 0
0.10002647 -0.97921151 0.33442408 0
0.044091508 -1.2653351 -0.050345846 0
0.11717393 -0.97753888 0.33290768 0
0.066398039 -1.257573 -0.049885675 0
0.085233197 -1.2636333 -0.049943183 0
0.10607411 -1.2605333 -0.049674764 0
0.12519608 -1.2650422 -0.049693666 0
0.14383529 -1.2722095 -0.049817853 0
-0.066252306 -2.3903556 0.10243562 0
0.16253932 -1.2795327 -0.049955934 0
0.0016282664 -2.1996381 0.095303431 0
0.18388598 -1.2711656 -0.049534801 0
0.034422204 -2.194155 0.094915964 0
0.20097767 -1.2893542 -0.05008271 0
0.064984128 -2.2018275 0.095019005 0
0.22034027 -1.2937551 -0.05014066 0
0.095686212 -2.2090468 0.095119402 0
0.23936249 -1.3012741 -0.050319463 0
0.12813039 -2.2027657 0.094747946 0
0.25992724 -1.2960246 -0.050047997 0
0.16004555 -2.1989293 0.094479494 0
0.27976349 -1.2962838 -0.04998377 0
0.19160487 -2.196835 0.094288297 0
0.29818553 -1.3126456 -0.050505526 0
0.2221396 -2.2052367 0.094487622 0
0.31940398 -1.2955816 -0.04983864 0
0.25431269 -2.1930602 0.093963943 0
0.33818442 -1.3114152 -0.050358407 0
0.28497905 -2.1999497 0.09413705 0
0.35806361 -1.31183 -0.050335236 0
0.3159835 -2.2023749 0.094164304 0
0.37819472 -1.3045903 -0.05004758 0
0.39791036 -1.307138 -0.050118558 0
0.41779935 -1.296962 -0.049744125 0
0.43748146 -1.3039581 -0.049991686 0
0.43543044 -0.65268373 0.038740236 0
0.45711467 -1.2965581 -0.049734127 0
0.44775334 -0.7018882 0.040501013 0
0.47692439 -1.301688 -0.049932811 0
0.45995852 -0.70303142 0.04055142 0
0.49702638 -1.3104546 -0.050270457 0
0.47414061 -0.7515381 0.042299695 0
0.51621705 -1.2976967 -0.049847826 0
0.48700297 -0.75231773 0.042349175 0
0.53577137 -1.2948977 -0.049789801 0
0.49974465 -0.7507152 0.042319253 0
0.55582589 -1.2989218 -0.049984891 0
0.5132395 -0.75890595 0.042645767 0
0.57496089 -1.2913575 -0.049773797 0
0.5287627 -0.78670472 0.043681707 0
0.59540838 -1.2977886 -0.050073437 0
0.54622269 -0.82601422 0.045139194 0
0.61537164 -1.2982352 -0.050167646 0
0.55839217 -0.8112424 0.044662777 0
0.63275629 -1.2782727 -0.049536321 0
0.54671186 -0.61530173 0.1659786 0
0.65404481 -1.2888168 -0.050011888 0
0.67363352 -1.2862245 -0.050023444 0
0.69167364 -1.2743689 -0.049708575 0
0.58679855 -0.65161246 0.10582634 0
0.71403664 -1.2875729 -0.050310478 0
0.59425718 -0.62720025 0.03834964 0
0.59853619 -0.65079129 0.10595672 0
0.73160332 -1.2738659 -0.04994534 0
0.61056817 -0.65131408 0.039303284 0
0.61178279 -0.65756184 0.10693473 0
0.75173426 -1.2737678 -0.050083507 0
0.62265497 -0.65175325 0.039403673 0
0.62656099 -0.6705758 0.10861887 0
0.77191162 -1.2734134 -0.050221946 0
0.63566101 -0.65602016 0.039649844 0
0.64366966 -0.69231004 0.11128785 0
0.78806382 -1.2554096 -0.049722977 0
0.65902567 -0.70379794 0.041498069 0
0.80910909 -1.2586492 -0.050011177 0
0.6747067 -0.71505964 0.04201993 0
0.82805163 -1.2530034 -0.049982261 0
