# .PCD v0.7 - Point Cloud Data file format
VERSION 0.7
FIELDS x y z intensity
SIZE 4 4 4 4
TYPE F F F F
COUNT 1 1 1 1
WIDTH 1328
HEIGHT 1
VIEWPOINT 0 0 0 1 0 0 0
POINTS 1328
DATA ascii
-0.040769424 -2.3123376 -0.053735215 0
-0.041074526 -2.3220077 -0.023487611 0
-0.041096047 -2.3226898 0.0077069569 0
-0.040701643 -2.3101892 0.039445896 0
-0.04071673 -2.3106675 0.070232548 0
-0.040740725 -2.3114281 0.10100816 0
-0.004757979 -1.8981353 -0.092218913 0
-0.005474343 -2.0117145 -0.091607653 0
-0.0063567618 -2.1516218 -0.090063818 0
-0.0067879348 -2.2199841 -0.071987905 0
-0.0067609758 -2.2157099 -0.042367909 0
-0.0066891089 -2.2043152 -0.01244252 0
-0.006707713 -2.2072649 0.01582093 0
-0.0066817757 -2.2031527 0.044458427 0
-0.0067412257 -2.2125783 0.072527885 0
-0.0066980436 -2.2057319 0.10100512 0
0.018339464 -1.9066875 -0.094067879 0
0.020307152 -2.0106394 -0.091435783 0
0.022917423 -2.1485386 -0.089587428 0
0.02399216 -2.2053165 -0.069953762 0
0.023866626 -2.1986845 -0.040400568 0
0.02377964 -2.1940892 -0.011505893 0
0.023993881 -2.2054074 0.015937263 0
0.023848658 -2.1977353 0.044701677 0
0.023623966 -2.1858649 0.07314457 0
0.023742562 -2.1921303 0.10100474 0
0.040520277 -1.8842225 -0.089443393 0
0.045564841 -1.9983816 -0.08927802 0
0.052537955 -2.1561837 -0.090996929 0
0.05444812 -2.1994109 -0.069259174 0
0.054301199 -2.1960862 -0.040209208 0
0.054356467 -2.1973369 -0.011898926 0
0.054730222 -2.205795 0.015842402 0
0.054328803 -2.1967108 0.044704594 0
0.054156359 -2.1928084 0.072960809 0
0.054309424 -2.1962721 0.10100489 0
0.063395955 -1.8873756 -0.090388529 0
0.071980387 -2.0108829 -0.091911398 0
0.081462257 -2.1473019 -0.089809202 0
0.084687874 -2.1937101 -0.06870041 0
0.085193686 -2.2009873 -0.040986065 0
0.085581362 -2.2065649 -0.012924364 0
0.08460056 -2.1924536 0.016655141 0
0.084737375 -2.1944222 0.044730641 0
0.084491678 -2.1908872 0.072965376 0
0.08590965 -2.211288 0.10100537 0
0.084897421 -1.8735228 -0.087828033 0
0.096738912 -1.998287 -0.089928769 0
0.10988163 -2.1367612 -0.088465147 0
0.11671302 -2.2087379 -0.071174107 0
0.11437856 -2.1841414 -0.039303128 0
0.1160579 -2.2018354 -0.012717417 0
0.11495689 -2.1902349 0.016635889 0
0.1158943 -2.2001116 0.044347804 0
0.11550587 -2.1960189 0.072787374 0
0.11506922 -2.1914184 0.10100487 0
0.10770805 -1.8755023 -0.08876548 0
0.12221601 -1.9959618 -0.090006985 0
0.13986549 -2.1425052 -0.089931376 0
0.14737274 -2.2048378 -0.071090378 0
0.14714786 -2.2029707 -0.041901279 0
0.14618064 -2.1949399 -0.0123784 0
0.14696525 -2.2014544 0.015616441 0
0.14794998 -2.2096307 0.043747406 0
0.14605828 -2.193924 0.07275977 0
0.14665437 -2.1988733 0.10100518 0
0.13113174 -1.8800396 -0.090379275 0
0.14918654 -2.0035994 -0.092104144 0
0.16899768 -2.1391792 -0.090021975 0
0.17790686 -2.2001503 -0.071004175 0
0.17770502 -2.1987689 -0.041886244 0
0.17856584 -2.2046602 -0.013677141 0
0.17829604 -2.2028136 0.0152329 0
0.17785519 -2.1997967 0.044017337 0
0.17590758 -2.1864679 0.072839946 0
0.17778865 -2.1993413 0.10100531 0
0.15470894 -1.8831246 -0.091814123 0
0.17345954 -1.9921429 -0.090690993 0
0.19742069 -2.1314559 -0.089502029 0
0.20991462 -2.204097 -0.072258554 0
0.21097982 -2.2102902 -0.043827016 0
0.21030436 -2.2063632 -0.01429945 0
0.20833966 -2.1949401 0.01544665 0
0.20704804 -2.1874304 0.044372473 0
0.21007212 -2.2050128 0.072289318 0
0.20903395 -2.1989768 0.10100543 0
0.17459922 -1.8657702 -0.088955738 0
0.20082323 -1.9981519 -0.09274172 0
0.22507349 -2.1205699 -0.0885695 0
0.24014454 -2.1966503 -0.072002344 0
0.24178867 -2.2049499 -0.043868352 0
0.23945321 -2.1931603 -0.013582593 0
0.24027388 -2.1973031 0.014878014 0
0.24085985 -2.2002611 0.043498673 0
0.24171956 -2.204601 0.072164856 0
0.24091013 -2.200515 0.10100565 0
0.19683255 -1.8618866 -0.089124851 0
0.22617754 -1.9926255 -0.092710264 0
0.2557036 -2.124171 -0.090189137 0
0.27248558 -2.1989386 -0.073256455 0
0.27288935 -2.2007372 -0.044137914 0
0.2725915 -2.1994104 -0.014792776 0
0.27441853 -2.2075503 0.013683656 0
0.27259782 -2.1994386 0.043230738 0
0.27145678 -2.194355 0.072255045 0
0.27121246 -2.1932664 0.10100562 0
0.21877822 -1.8566338 -0.08911752 0
0.25009388 -1.9813393 -0.091684006 0
0.28383881 -2.1157188 -0.089907207 0
0.30523306 -2.2009153 -0.074591286 0
0.30651128 -2.2060053 -0.045645911 0
0.30427197 -2.197088 -0.015265865 0
0.30281103 -2.1912701 0.014331872 0
0.30419356 -2.1967757 0.043011107 0
0.30601552 -2.2040312 0.071850285 0
0.30837321 -2.2134199 0.10100643 0
0.24235851 -1.8572111 -0.090518273 0
0.274959 -1.9744292 -0.091623656 0
0.31325275 -2.1121178 -0.09057156 0
0.33786097 -2.200599 -0.075721212 0
0.33886692 -2.2042158 -0.046410996 0
0.33974889 -2.207387 -0.01704233 0
0.33699745 -2.197494 0.013299877 0
0.33445814 -2.1883636 0.043029327 0
0.3384954 -2.2028799 0.071682997 0
0.33798474 -2.2010438 0.10100631 0
0.26377517 -1.8495191 -0.090223707 0
0.2984513 -1.9630245 -0.090800785 0
0.33849365 -2.0940952 -0.08888983 0
0.36998454 -2.1971743 -0.076523699 0
0.36993405 -2.1970091 -0.046619404 0
0.36869788 -2.1929626 -0.01650661 0
0.37178153 -2.2030563 0.012245404 0
0.37231126 -2.2047904 0.041801527 0
0.36725977 -2.1882553 0.071822114 0
0.37061599 -2.1992414 0.10100652 0
0.28807858 -1.8506632 -0.092027076 0
0.3245534 -1.960095 -0.091770865 0
0.37048763 -2.0979068 -0.091086395 0
0.42877901 -2.2727928 -0.089161657 0
0.52037448 -2.5475976 -0.09100417 0
0.65110546 -2.939817 -0.090939187 0
0.86544222 -3.5828705 -0.090151705 0
1.3045831 -4.9003811 -0.090956844 0
3.2883987 -10.852228 -0.14075001 0
0.31032392 -1.8448141 -0.092404328 0
0.34440482 -1.9390665 -0.08925622 0
0.40080225 -2.0950363 -0.092275776 0
0.4635531 -2.2685769 -0.090205722 0
0.55853015 -2.5312407 -0.090661667 0
0.69698083 -2.9141328 -0.090079658 0
0.93277651 -3.5662374 -0.090598039 0
1.4020773 -4.8641114 -0.09085124 0
3.5362053 -10.766148 -0.14075013 0
0.32949561 -1.8308054 -0.09105093 0
0.36681461 -1.9263986 -0.088508017 0
0.42825213 -2.0837719 -0.092130326 0
0.49174345 -2.2464058 -0.088683166 0
0.59661913 -2.5150468 -0.090456508 0
0.75121689 -2.9110515 -0.091591947 0
0.99274105 -3.5297198 -0.089683436 0
1.4983073 -4.8247361 -0.09071178 0
3.7840402 -10.67968 -0.14089593 0
0.35013774 -1.8210921 -0.090784319 0
0.39441773 -1.9265786 -0.090491273 0
0.45415634 -2.0688918 -0.09146174 0
0.52633667 -2.2408445 -0.08978378 0
0.63230509 -2.4932892 -0.089665167 0
0.79369926 -2.8777728 -0.090201266 0
1.0666007 -3.5278959 -0.091503702 0
1.5951939 -4.7871442 -0.090782888 0
4.0280094 -10.582753 -0.14093651 0
0.3732546 -1.8169998 -0.091945536 0
0.42040679 -1.9218354 -0.091623448 0
0.48270482 -2.0603454 -0.092044078 0
0.5579229 -2.227581 -0.089843951 0
0.67164248 -2.4804187 -0.09011849 0
0.84138393 -2.8578124 -0.090266995 0
1.1270641 -3.4929779 -0.09095002 0
1.6918157 -4.7486148 -0.090931095 0
4.2643666 -10.468282 -0.14068638 0
0.39154845 -1.8021994 -0.090732478 0
0.44464883 -1.9127178 -0.091991656 0
0.50211769 -2.0323284 -0.089213945 0
0.58923775 -2.2136524 -0.089924715 0
0.70864695 -2.4621804 -0.090009309 0
0.89064318 -2.8409712 -0.09078043 0
1.1887858 -3.4614992 -0.090774007 0
1.7892969 -4.7113504 -0.091271661 0
4.5047412 -10.363038 -0.14082421 0
0.40981305 -1.7879417 -0.089742847 0
0.46679768 -1.8992587 -0.091574647 0
0.53521663 -2.0329123 -0.091717653 0
0.61623794 -2.191184 -0.088782273 0
0.74600184 -2.4446723 -0.090116449 0
0.93300754 -2.8099799 -0.089946307 0
1.2502544 -3.4297082 -0.090692781 0
1.8783525 -4.6566715 -0.090833746 0
4.7456346 -10.257786 -0.14112109 0
0.42858893 -1.7750849 -0.089189343 0
0.49172461 -1.8911041 -0.092408411 0
0.55791318 -2.0127335 -0.090526275 0
0.65315938 -2.1877596 -0.090779312 0
0.77763611 -2.4165001 -0.088930778 0
0.98650712 -2.8003254 -0.091480903 0
1.3102226 -3.3951907 -0.090516083 0
1.969691 -4.6070418 -0.090775765 0
4.9714866 -10.123195 -0.14080536 0
0.45099422 -1.7687482 -0.090343602 0
0.50770456 -1.8669733 -0.089915626 0
0.5855971 -2.0018868 -0.091196425 0
0.67099077 -2.1497927 -0.087350406 0
0.82054001 -2.408819 -0.090600036 0
1.0240494 -2.7613068 -0.090017669 0
1.3725275 -3.3648875 -0.090798311 0
2.6071365 -5.5032883 -0.14168718 0
5.2013555 -9.9965982 -0.1408516 0
0.47222549 -1.759939 -0.091039576 0
0.53057158 -1.8553535 -0.09023463 0
0.61233765 -1.9890671 -0.091630511 0
0.70459962 -2.139945 -0.088573836 0
0.85594982 -2.3874509 -0.090567462 0
1.0735322 -2.7432678 -0.090929963 0
1.1550169 -2.8765213 -0.05367722 0
1.1856 -2.9265347 -0.0047429707 0
5.424252 -9.8580866 -0.14073078 0
0.48559585 -1.7386438 -0.08872088 0
0.55341083 -1.8435035 -0.09063568 0
0.63290501 -1.9664221 -0.090279721 0
0.73741925 -2.1280284 -0.08961197 0
0.8931371 -2.3688087 -0.091037191 0
1.1208555 -2.7209208 -0.091516115 0
1.1786375 -2.8102667 -0.050635386 0
1.1761668 -2.8064466 0.00022364617 0
5.6512876 -9.7261505 -0.14094457 0
0.50621063 -1.7289038 -0.089422621 0
0.58089244 -1.8382299 -0.092674203 0
0.66279179 -1.9581217 -0.091863029 0
0.76832283 -2.1126077 -0.090211578 0
0.91898209 -2.3331566 -0.089239217 0
1.1593463 -2.6850238 -0.090714641 0
1.1840061 -2.721123 -0.045652885 0
1.2029121 -2.7487991 0.0017694479 0
1.2248557 -2.7809222 0.050522696 0
0.52264196 -1.7130502 -0.088670485 0
0.60246748 -1.8237996 -0.092783771 0
0.67809522 -1.928725 -0.089352898 0
0.8060236 -2.1062119 -0.092519544 0
0.95779175 -2.3167739 -0.090277575 0
1.200187 -2.6530712 -0.090463139 0
1.224308 -2.6865366 -0.045292143 0
1.2245415 -2.6868603 0.0035514703 0
1.2326266 -2.6980774 0.051995695 0
1.2714853 -2.7519898 0.10103243 0
0.54777545 -1.7089208 -0.091143392 0
0.61679047 -1.7997494 -0.090747423 0
0.70662498 -1.9179778 -0.090722732 0
0.82934564 -2.0794866 -0.091450401 0
0.9930144 -2.2948861 -0.090670429 0
1.2421966 -2.6228271 -0.090526782 0
1.3499607 -2.7646523 -0.054908294 0
1.2671953 -2.6557271 0.0035351536 0
1.263195 -2.6504626 0.052462768 0
1.2776667 -2.6695082 0.10103064 0
0.56705999 -1.6965216 -0.091586165 0
0.63638765 -1.7831349 -0.090549879 0
0.72921956 -1.8991127 -0.090561651 0
0.85298306 -2.0537345 -0.090639539 0
1.0256814 -2.2694919 -0.090678148 0
1.2894242 -2.5989945 -0.091483809 0
1.7115442 -3.1263626 -0.090396605 0
1.3483067 -2.6725583 0.00059475959 0
1.3774703 -2.7089932 0.04975545 0
0.57633924 -1.6720637 -0.088820405 0
0.66290027 -1.7747835 -0.092503972 0
0.75228363 -1.8808526 -0.090648435 0
0.87280071 -2.0238671 -0.089163534 0
1.0447968 -2.2279706 -0.088345937 0
1.3209511 -2.555676 -0.090226926 0
1.7732489 -3.0924067 -0.091300197 0
3.3513787 -4.9651341 -0.14108035 0
6.7010541 -8.9401102 -0.14077452 0
0.59583712 -1.6600966 -0.08960662 0
0.68858933 -1.7646898 -0.094230272 0
0.7726295 -1.8594588 -0.090175353 0
0.90812951 -2.0122569 -0.091176383 0
1.0831332 -2.2096019 -0.089652203 0
1.3674057 -2.5301652 -0.091261394 0
1.8174626 -3.0376773 -0.090427138 0
3.4447746 -4.8727355 -0.14066975 0
6.8999572 -8.7690134 -0.14078955 0
0.61407435 -1.6464837 -0.090074502 0
0.69694954 -1.7353189 -0.091197185 0
0.80555516 -1.8517349 -0.092877664 0
0.92734456 -1.9822828 -0.089877121 0
1.1159016 -2.1843998 -0.090050243 0
1.3971047 -2.4858258 -0.09006498 0
1.8678652 -2.9904413 -0.090355225 0
3.5356081 -4.77812 -0.14025663 0
7.0953994 -8.593915 -0.14083552 0
0.63428187 -1.6346995 -0.0912342 0
0.71014589 -1.7120129 -0.089743637 0
0.8153336 -1.8192103 -0.090126134 0
0.9515537 -1.9580328 -0.089766748 0
1.1382886 -2.1483355 -0.088813446 0
1.4367034 -2.4524515 -0.090369396 0
1.9111431 -2.9359555 -0.089694567 0
3.6423621 -4.7002497 -0.14107311 0
7.2853785 -8.4128675 -0.14084765 0
0.65041822 -1.6185671 -0.091250084 0
0.73259598 -1.6981927 -0.090908341 0
0.84024251 -1.8024962 -0.091093816 0
0.97673422 -1.934749 -0.089970447 0
1.165778 -2.1179216 -0.088586859 0
1.4793309 -2.421737 -0.091171004 0
1.9533371 -2.8810222 -0.089079924 0
3.7306342 -4.6031237 -0.14080088 0
7.4790683 -8.2351456 -0.14112948 0
0.65913123 -1.5955716 -0.089239351 0
0.74430168 -1.6740286 -0.089385234 0
0.86522555 -1.785421 -0.092151277 0
1.0191565 -1.9272186 -0.093577527 0
1.2093484 -2.1024191 -0.091044284 0
1.5140647 -2.3831167 -0.091052018 0
2.5440168 -3.3318853 -0.14074652 0
3.8232272 -4.5102649 -0.14096543 0
7.6498437 -8.0352573 -0.14082399 0
0.68304813 -1.5865035 -0.091733895 0
0.76438117 -1.6577172 -0.090146177 0
0.88500738 -1.7633352 -0.09214469 0
1.0249016 -1.885824 -0.090290837 0
1.2271776 -2.0629332 -0.089510836 0
1.5221934 -2.3212435 -0.087757252 0
2.5950608 -3.2606263 -0.14007264 0
3.9020422 -4.4049945 -0.14042054 0
7.82653 -7.8412027 -0.14086555 0
0.69744229 -1.5687239 -0.091607563 0
0.77786535 -1.6356324 -0.089377366 0
0.90455025 -1.7410288 -0.092207633 0
1.0432974 -1.8564603 -0.089578114 0
1.2509298 -2.0292017 -0.089062862 0
1.5603616 -2.2866356 -0.088369943 0
2.660032 -3.2015142 -0.14084463 0
4.0013261 -4.3174133 -0.14128923 0
7.9871297 -7.6334305 -0.14056946 0
0.70648038 -1.5467319 -0.090155564 0
0.79811615 -1.6191359 -0.090383269 0
0.91759866 -1.7135422 -0.091028146 0
1.0728155 -1.8361832 -0.091005705 0
1.2827539 -2.0020611 -0.089954235 0
1.6019948 -2.254302 -0.089487739 0
2.7116642 -3.1310821 -0.14054723 0
4.0674748 -4.2023449 -0.14030731 0
8.1624947 -7.4379306 -0.14087375 0
0.72777283 -1.5343425 -0.092135601 0
0.81165874 -1.5972514 -0.089889981 0
0.9336105 -1.688707 -0.090623476 0
1.0955944 -1.810184 -0.091313504 0
1.3247294 -1.9820199 -0.092412926 0
1.6285729 -2.209882 -0.088924251 0
2.7688363 -3.0650034 -0.14089638 0
4.1574979 -4.1064062 -0.14090371 0
8.3232489 -7.2304397 -0.14089254 0
0.73681527 -1.5126461 -0.090967454 0
0.83080363 -1.5794936 -0.090829201 0
0.94321942 -1.6594473 -0.089062251 0
1.1129168 -1.7801415 -0.090789057 0
1.3222331 -1.9290138 -0.088523053 0
1.6717559 -2.1776056 -0.090402342 0
2.8191371 -2.9936602 -0.14079428 0
4.2287536 -3.9962244 -0.14055701 0
8.4760799 -7.0170588 -0.14083579 0
0.74516225 -1.4907978 -0.08978235 0
0.84575462 -1.5585865 -0.090902753 0
0.96656454 -1.6399999 -0.090397321 0
1.1346904 -1.7532991 -0.091157429 0
1.3415035 -1.8926697 -0.08795663 0
1.6886917 -2.1266384 -0.088993736 0
2.8695393 -2.9224072 -0.14085558 0
4.3093004 -3.8926566 -0.14089525 0
8.6243382 -6.8005428 -0.1408041 0
0.7670877 -1.4779264 -0.092179693 0
0.85899526 -1.5365458 -0.090711899 0
0.98126036 -1.6145276 -0.090121545 0
1.1518309 -1.7233189 -0.090861537 0
1.3676945 -1.8609986 -0.088486813 0
1.7293743 -2.0916812 -0.090380214 0
2.9106271 -2.8450949 -0.14029394 0
4.3903847 -3.7888975 -0.14140332 0
8.7643833 -6.5786724 -0.14069839 0
0.77761346 -1.4575011 -0.09179274 0
0.87509859 -1.5162715 -0.091276847 0
1.0051013 -1.5946455 -0.091729261 0
1.1694325 -1.6937151 -0.090770908 0
1.397649 -1.8312989 -0.089632578 0
1.750614 -2.0440891 -0.089723624 0
2.952384 -2.7685945 -0.13995595 0
4.4535465 -3.673593 -0.14107291 0
8.9110384 -6.3608589 -0.14092696 0
0.78375304 -1.4346691 -0.090465628 0
0.88075274 -1.489859 -0.089681096 0
1.0210296 -1.5696721 -0.091913514 0
1.1784412 -1.6592344 -0.089413904 0
1.4072862 -1.78944 -0.088131525 0
1.7821572 -2.0027299 -0.090312831 0
3.0123293 -2.7026598 -0.14124219 0
4.513238 -3.5566299 -0.14071842 0
9.047595 -6.1365376 -0.14103031 0
0.79995954 -1.4175743 -0.09172418 0
0.89868522 -1.4704945 -0.090874158 0
1.0270711 -1.5393134 -0.090369992 0
1.1994104 -1.6316929 -0.090122007 0
1.4494252 -1.7657089 -0.091101654 0
1.8082477 -1.9580493 -0.090428002 0
3.0454655 -2.621238 -0.14051759 0
4.5871115 -3.4476101 -0.14127481 0
9.1573315 -5.8973956 -0.14057516 0
0.80426127 -1.394129 -0.090236507 0
0.91169512 -1.4482729 -0.091117673 0
1.039484 -1.5126754 -0.090160571 0
1.2207149 -1.6040112 -0.090984039 0
1.4634645 -1.726351 -0.090435572 0
1.8420999 -1.9171737 -0.091471665 0
3.0906582 -2.546416 -0.14090796 0
4.6435156 -3.3290176 -0.14105786 0
9.2857065 -5.6685658 -0.14076923 0
0.81797081 -1.3755056 -0.091118403 0
0.91979134 -1.4236385 -0.090452172 0
1.0681914 -1.4937905 -0.09303876 0
1.2306048 -1.5705671 -0.090170763 0
1.4893606 -1.6928869 -0.091439374 0
1.8579504 -1.8671279 -0.090751566 0
3.127614 -2.4673271 -0.14080369 0
4.6853323 -3.2036967 -0.14024739 0
9.4052992 -5.4349337 -0.14088459 0
0.82489747 -1.3536378 -0.090523921 0
0.9275825 -1.3990459 -0.089860015 0
1.0674155 -1.4608812 -0.090672933 0
1.2438443 -1.5388995 -0.090011708 0
1.4948509 -1.6498966 -0.089932956 0
1.8852224 -1.8225222 -0.091334797 0
3.1713443 -2.3912556 -0.14137189 0
4.7427917 -3.0861623 -0.14040412 0
9.5034552 -5.1913662 -0.1406045 0
0.84128875 -1.3358101 -0.092239328 0
0.95036548 -1.3807896 -0.092455499 0
1.0784858 -1.4336222 -0.090586044 0
1.2543731 -1.5061523 -0.089564376 0
1.5194756 -1.6154717 -0.090999015 0
1.9039321 -1.7740088 -0.091161765 0
3.2008312 -2.3088067 -0.14100312 0
4.7919521 -2.964932 -0.14029151 0
9.6103706 -4.9518871 -0.14070302 0
0.8457104 -1.3129447 -0.091316573 0
0.95537573 -1.3549618 -0.091534652 0
1.0884389 -1.4059436 -0.090425037 0
1.2867551 -1.4819264 -0.092535205 0
1.5243756 -1.5729684 -0.089695401 0
1.9237247 -1.725975 -0.091221668 0
3.2343214 -2.2281172 -0.14109418 0
4.8605437 -2.8511882 -0.14130205 0
9.7084532 -4.7086158 -0.14073195 0
0.85556966 -1.2922236 -0.091759078 0
0.96113819 -1.3296448 -0.0909032 0
1.0974743 -1.3779722 -0.09022785 0
1.2797669 -1.4425901 -0.089700989 0
1.5529321 -1.5394199 -0.091470413 0
1.9388638 -1.6762223 -0.090940811 0
3.2553666 -2.1428874 -0.14041312 0
4.8956127 -2.7243109 -0.14079028 0
9.8087025 -4.4658694 -0.14096624 0
0.85044795 -1.2664882 -0.088965751 0
0.96857506 -1.3050349 -0.090735801 0
1.1012992 -1.3483447 -0.089254029 0
1.2848365 -1.4082357 -0.088819869 0
1.5546731 -1.4962873 -0.090038769 0
1.948786 -1.6248922 -0.090273865 0
3.2904916 -2.0627108 -0.1409319 0
4.9436078 -2.6021471 -0.1410732 0
9.9005203 -4.2196612 -0.14114287 0
0.88059968 -1.251963 -0.094163008 0
0.97494918 -1.2801373 -0.090483345 0
1.1030757 -1.318398 -0.088064961 0
1.3043566 -1.3785038 -0.090192445 0
1.5498661 -1.4518169 -0.087952502 0
1.9460548 -1.5701255 -0.088506021 0
3.3083274 -1.9769225 -0.14033359 0
4.9844069 -2.4774275 -0.14115475 0
9.9679127 -3.9655843 -0.14087689 0
0.87704098 -1.2269977 -0.09198121 0
0.9912048 -1.257974 -0.09228418 0
1.1265266 -1.2946912 -0.09070418 0
1.3046861 -1.3430318 -0.088870876 0
1.5694751 -1.4148775 -0.088973619 0
1.9709092 -1.5237997 -0.08955235 0
3.3359425 -1.8941777 -0.14060518 0
4.997334 -2.3449671 -0.14004366 0
10.038606 -3.7128277 -0.14084728 0
0.87939692 -1.2039961 -0.091245376 0
0.99042159 -1.2311327 -0.090879001 0
1.1375099 -1.267084 -0.09131939 0
1.3136477 -1.3101355 -0.088936187 0
1.571698 -1.373208 -0.088009231 0
1.9806587 -1.4731661 -0.089253552 0
3.357549 -1.8097053 -0.14059345 0
5.0504022 -2.2234716 -0.14102389 0
10.102973 -3.4584193 -0.14081967 0
0.88470465 -1.1818013 -0.091282405 0
0.99519002 -1.2058692 -0.090682678 0
1.1327497 -1.2358347 -0.089400597 0
1.3228761 -1.2772512 -0.089159273 0
1.6003369 -1.3376924 -0.090336002 0
1.9877219 -1.4220791 -0.088822223 0
3.3820376 -1.7258126 -0.14094099 0
5.0794668 -2.0955751 -0.14100164 0
10.163938 -3.2031598 -0.14086443 0
0.88527054 -1.1586746 -0.090414532 0
0.99656451 -1.1799924 -0.089959033 0
1.1456158 -1.2085423 -0.090572976 0
1.326483 -1.2431865 -0.088695996 0
1.6057515 -1.2966789 -0.089994885 0
2.5495832 -1.4774649 -0.14124231 0
3.4033029 -1.6409904 -0.14120851 0
5.0969038 -1.9653907 -0.14058171 0
10.211889 -2.9451389 -0.14075387 0
0.88223916 -1.1351466 -0.088901289 0
1.0050406 -1.155471 -0.090719126 0
1.1549121 -1.1802754 -0.091260768 0
1.3456331 -1.2118409 -0.090571456 0
1.6200358 -1.257256 -0.090828784 0
2.558162 -1.4125212 -0.1409654 0
3.4173431 -1.5547204 -0.14111501 0
5.1270289 -1.837683 -0.14091767 0
10.255594 -2.6864891 -0.14069749 0
0.89756477 -1.1145309 -0.091460951 0
1.012177 -1.1305403 -0.091339715 0
1.1559139 -1.1506178 -0.090688325 0
1.3418725 -1.1765932 -0.089301787 0
1.6174948 -1.2150929 -0.089791916 0
2.5716109 -1.3483667 -0.14130321 0
3.4231541 -1.4673129 -0.14059493 0
5.1455731 -1.7079058 -0.14085987 0
10.304865 -2.4285715 -0.14092551 0
0.89740896 -1.0915235 -0.090812661 0
1.0036966 -1.1036448 -0.089117505 0
1.1520673 -1.1205653 -0.089439549 0
1.3508979 -1.1432403 -0.089970343 0
1.6252505 -1.1745281 -0.090094589 0
2.5743139 -1.2827612 -0.14078291 0
3.4375939 -1.3812114 -0.14083898 0
5.1634269 -1.5780289 -0.1409236 0
10.336341 -2.1679583 -0.14088906 0
0.89810395 -1.0687315 -0.090471424 0
1.0151321 -1.0790942 -0.090794615 0
1.1297754 -1.0892456 -0.085275479 0
1.1311129 -1.0893641 -0.058474679 0
1.642611 -1.1346562 -0.091643833 0
2.5805304 -1.2177073 -0.14074835 0
3.44345 -1.2941172 -0.14063276 0
5.168098 -1.4468315 -0.14052448 0
10.362272 -1.9067659 -0.14087699 0
0.90220582 -1.0462213 -0.090979017 0
1.026742 -1.054088 -0.092619039 0
1.1292367 -1.0605624 -0.084830634 0
1.1327603 -1.0607849 -0.058401782 0
1.6340843 -1.0924525 -0.090276994 0
2.5861201 -1.1525908 -0.14080893 0
3.4445329 -1.2068149 -0.14024663 0
5.1841078 -1.3167003 -0.14080954 0
10.37681 -1.6447127 -0.14075322 0
0.90117514 -1.0233817 -0.090515263 0
1.010538 -1.027523 -0.089318193 0
1.1380394 -1.0323514 -0.086041741 0
1.1242988 -1.031831 -0.057008792 0
1.6378576 -1.0512788 -0.090474688 0
2.601598 -1.0877743 -0.1419467 0
3.4567227 -1.1201566 -0.14079216 0
5.1986442 -1.1861206 -0.14117876 0
10.393962 -1.3828599 -0.14084439 0
0.89839745 -1.0006156 -0.089802854 0
1.0196767 -1.0021458 -0.090918459 0
1.1299819 -1.0035377 -0.08459831 0
1.1323147 -1.003567 -0.058034796 0
1.1406808 -1.0036726 -0.032241467 0
1.1323707 -1.0035677 -0.0046429466 0
1.127372 -1.0035046 0.022218311 0
1.1379905 -1.0036386 0.048032794 0
1.132814 -1.0035733 0.074652523 0
1.1434262 -1.0037073 0.10100301 0
1.1300604 -1.0035386 0.12728876 0
1.1274916 -1.0035062 0.15348366 0
1.1230959 -1.0034508 0.17948791 0
1.1280601 -1.0035133 0.20624627 0
1.1386245 -1.0036466 0.23400778 0
1.1346688 -1.0035968 0.26037246 0
1.1347394 -1.0035976 0.28738755 0
1.1234469 -1.0034552 0.3124724 0
0.8963021 -0.97799557 -0.089357428 0
1.0187062 -0.9764511 -0.090735652 0
1.134648 -0.97498822 -0.085365243 0
1.1311963 -0.97503179 -0.057877604 0
1.6444799 -0.96855545 -0.091126822 0
2.5968182 -0.95653927 -0.14134584 0
3.4459927 -0.94582486 -0.13988805 0
5.1834221 -0.92390281 -0.14031588 0
10.403658 -0.85803652 -0.14091589 0
0.90290815 -0.95513743 -0.090883903 0
1.0182459 -0.95076972 -0.090771057 0
1.1353607 -0.94633478 -0.085601173 0
1.1240945 -0.94676137 -0.056980062 0
1.6414226 -0.92717093 -0.090891637 0
2.5947216 -0.89107084 -0.14130439 0
3.4623859 -0.85821366 -0.14118835 0
5.1842365 -0.79300964 -0.14050753 0
10.395796 -0.59565532 -0.14088707 0
0.89258909 -0.93297088 -0.088930778 0
1.0093585 -0.92559481 -0.089338325 0
1.1294565 -0.91800845 -0.084866844 0
1.1310227 -0.9179095 -0.05815709 0
1.649938 -0.8851307 -0.092133544 0
2.5878577 -0.82588422 -0.14097147 0
3.4524188 -0.77127165 -0.14079903 0
5.1802344 -0.66212904 -0.14062884 0
10.372435 -0.33414844 -0.14065129 0
0.90249294 -0.90946454 -0.091408007 0
1.0053319 -0.90035838 -0.088941522 0
1.1552281 -0.88708532 -0.089475043 0
1.347846 -0.87002939 -0.089052372 0
1.6392124 -0.8442294 -0.091245063 0
2.5799203 -0.76093149 -0.14069118 0
3.4486709 -0.6840052 -0.14099917 0
5.1708498 -0.53150946 -0.1406531 0
10.354422 -0.072513908 -0.14069375 0
0.88853931 -0.88807261 -0.088915087 0
1.0053631 -0.87474984 -0.089433424 0
1.1464907 -0.85865533 -0.088517092 0
1.3439764 -0.83613366 -0.088991322 0
1.6354419 -0.80289435 -0.091293417 0
2.5737092 -0.69589245 -0.14072609 0
3.4361169 -0.59754175 -0.14073505 0
5.1647325 -0.40040693 -0.14098479 0
10.335733 0.18930438 -0.14087485 0
0.89346528 -0.86462647 -0.090581097 0
1.0171316 -0.84735239 -0.09228199 0
1.1539936 -0.82823503 -0.090369664 0
1.3412479 -0.80207878 -0.08921317 0
1.6274712 -0.76209825 -0.090969212 0
2.5719285 -0.6301735 -0.14133316 0
3.4219737 -0.51143658 -0.14051162 0
5.1494255 -0.2701408 -0.14104097 0
10.300763 0.44941381 -0.14082922 0
0.8949374 -0.84133643 -0.091637172 0
0.99869871 -0.82416338 -0.089508392 0
1.1522225 -0.79875433 -0.09081272 0
1.3402802 -0.76762974 -0.089808948 0
1.6208014 -0.7212019 -0.090919502 0
2.5601819 -0.5657292 -0.14115649 0
3.4182034 -0.42372188 -0.14117597 0
5.1317286 -0.14012387 -0.14113945 0
10.265675 0.70957273 -0.14093505 0
0.87542599 -0.82179576 -0.088283919 0
0.99415821 -0.79905319 -0.089497559 0
1.1412668 -0.77087533 -0.089845203 0
1.3289335 -0.73492879 -0.089046635 0
1.3454764 -0.73176008 -0.059022654 0
1.3459089 -0.73167723 -0.026848441 0
1.3506103 -0.73077673 0.004902849 0
1.3407308 -0.73266906 0.037464615 0
1.3408958 -0.73263747 0.069250263 0
1.3465385 -0.73155659 0.10100951 0
0.884817 -0.79675883 -0.091306843 0
1.0052099 -0.77053285 -0.092614196 0
1.1317139 -0.74297559 -0.089226373 0
1.2071131 -0.72655088 -0.072509043 0
1.2120967 -0.7254653 -0.043896992 0
1.2069243 -0.726592 -0.01423317 0
1.2120254 -0.72548079 0.014321016 0
1.2089069 -0.72616011 0.043416724 0
1.209386 -0.7260558 0.072215393 0
1.2085609 -0.72623551 0.10100568 0
0.87549478 -0.77554232 -0.090391509 0
0.98295659 -0.74927658 -0.089431576 0
1.1330698 -0.71258593 -0.090568148 0
1.2188468 -0.69162035 -0.075221188 0
1.2116066 -0.69339001 -0.044685293 0
1.2044429 -0.69514096 -0.014668515 0
1.2004601 -0.69611442 0.014646562 0
1.2009696 -0.69598991 0.043460511 0
1.1897148 -0.69874078 0.072518043 0
1.1998888 -0.69625407 0.10100563 0
0.87492347 -0.7521615 -0.091514818 0
0.98974437 -0.72100687 -0.091999151 0
1.120189 -0.68561304 -0.089624934 0
1.2100602 -0.66122806 -0.075091831 0
1.2088985 -0.66154325 -0.045308132 0
1.2069073 -0.66208357 -0.0156617 0
1.1951373 -0.66527712 0.014468642 0
1.1978238 -0.66454822 0.043236859 0
1.2008438 -0.66372871 0.072064206 0
1.2047955 -0.66265655 0.10100601 0
0.87336695 -0.72878152 -0.092558511 0
0.97461021 -0.69854861 -0.090416722 0
1.1229515 -0.65425146 -0.091474093 0
1.2070822 -0.62912863 -0.075925522 0
1.2133875 -0.62724578 -0.046911214 0
1.2079629 -0.62886566 -0.016606165 0
1.206056 -0.62943506 0.013047809 0
1.2045147 -0.62989533 0.042495161 0
1.2075335 -0.62899387 0.071693294 0
1.1996744 -0.63134074 0.10100611 0
0.849199 -0.71250403 -0.088686489 0
0.96824181 -0.67365855 -0.090669788 0
1.1022414 -0.62993252 -0.089416914 0
1.2105312 -0.59459591 -0.077835508 0
1.2079062 -0.59545249 -0.047407825 0
1.2078494 -0.59547108 -0.017525626 0
1.2056066 -0.59620297 0.012384968 0
1.2135159 -0.59362203 0.041591544 0
1.2098979 -0.59480262 0.071403742 0
1.202636 -0.59717226 0.10100649 0
0.85514331 -0.68651223 -0.091662921 0
0.96500009 -0.64757097 -0.091674946 0
1.1009721 -0.59937257 -0.090837739 0
1.2037008 -0.562958 -0.078359328 0
1.2199697 -0.55719101 -0.050183494 0
1.2055635 -0.56229764 -0.018321326 0
1.2092944 -0.56097519 0.011347355 0
1.2021077 -0.5635227 0.041642867 0
1.2060399 -0.56212878 0.07124389 0
1.2061589 -0.56208664 0.1010069 0
0.83902663 -0.66820091 -0.08979515 0
0.94979423 -0.62576139 -0.090408854 0
1.0870551 -0.57317126 -0.090181492 0
1.2135479 -0.52470678 -0.081517793 0
1.2043601 -0.52822703 -0.049642924 0
1.2049061 -0.52801788 -0.019370822 0
1.2085855 -0.52660811 0.010562571 0
1.2083905 -0.52668285 0.040775008 0
1.212558 -0.52508605 0.070803694 0
1.2006472 -0.52964956 0.10100707 0
0.82675242 -0.6487689 -0.088897072 0
0.93337095 -0.60480297 -0.088993095 0
1.0745683 -0.54657799 -0.089889579 0
1.2054942 -0.49258849 -0.082134075 0
1.1981103 -0.49563333 -0.050371904 0
1.2172775 -0.4877294 -0.021833686 0
1.2092488 -0.4910402 0.0096005518 0
1.1996294 -0.49500692 0.040609062 0
1.2079642 -0.49156991 0.070614964 0
1.2125593 -0.48967502 0.10100781 0
0.8281725 -0.62349856 -0.091285087 0
0.93136519 -0.57786596 -0.090639032 0
1.0685723 -0.51719189 -0.090880804 0
1.2062398 -0.45631418 -0.084233336 0
1.2144518 -0.45268282 -0.054100592 0
1.1966226 -0.46056703 -0.02105671 0
1.2032145 -0.457652 0.0090714488 0
1.2187889 -0.45076492 0.038979519 0
1.2090883 -0.45505455 0.070257366 0
1.2091101 -0.4550449 0.10100811 0
0.81134552 -0.60621113 -0.08956068 0
0.91302484 -0.55814493 -0.089042448 0
1.0490599 -0.49383807 -0.089560844 0
1.2287806 -0.40887997 -0.089887209 0
1.4679481 -0.29581991 -0.088671304 0
1.8577778 -0.11153844 -0.090733744 0
3.1232908 0.4866989 -0.14046939 0
4.6961851 1.2302423 -0.14080624 0
9.3964348 3.4521587 -0.14065662 0
0.8095364 -0.58179718 -0.091492139 0
0.9165951 -0.52784222 -0.092151172 0
1.0470001 -0.46212146 -0.091543831 0
1.2076581 -0.38115379 -0.088929243 0
1.4589704 -0.25449863 -0.089847408 0
1.8386141 -0.063167721 -0.091107316 0
3.093287 0.56915623 -0.14111374 0
4.6329365 1.3451014 -0.14050636 0
9.2914886 3.6928947 -0.14091976 0
0.78272593 -0.57024813 -0.087567873 0
0.89774239 -0.50859559 -0.090672679 0
1.0203054 -0.44289795 -0.08910837 0
1.1975235 -0.34790334 -0.089821123 0
1.450899 -0.21208581 -0.091297083 0
1.813084 -0.017942932 -0.0909402 0
3.047122 0.6435414 -0.14064899 0
4.5800643 1.4652479 -0.14090258 0
9.1604214 3.9204671 -0.14065668 0
0.78821218 -0.54137844 -0.091556139 0
0.87913471 -0.48964638 -0.089330457 0
1.0135485 -0.41316918 -0.090498887 0
1.1803889 -0.3182421 -0.08972884 0
1.2088697 -0.30203745 -0.061451141 0
1.2105089 -0.30110475 -0.028922891 0
3.0036333 0.71912724 -0.14054273 0
4.5151925 1.5791576 -0.14082313 0
9.0428391 4.1552472 -0.14090307 0
0.77094942 -0.52510113 -0.090138711 0
0.87594259 -0.46180442 -0.091462485 0
0.99720603 -0.38869891 -0.090214126 0
1.167353 -0.28612325 -0.090429686 0
1.1378415 -0.30391476 -0.054176856 0
1.2148143 -0.25751051 -0.031326566 0
2.9678123 0.79931098 -0.14121537 0
4.4545765 1.6956291 -0.14112891 0
8.89956 4.3753548 -0.14061533 0
0.76117849 -0.50442731 -0.09068989 0
0.85374564 -0.44538715 -0.089539148 0
0.98060501 -0.3644751 -0.089993782 0
1.1553879 -0.25299713 -0.091454424 0
1.1464257 -0.25871322 -0.05781414 0
1.1755373 -0.24014559 -0.029065108 0
2.9285398 0.87793511 -0.14177924 0
4.3799043 1.8036282 -0.14082462 0
8.7643785 4.6000848 -0.14069825 0
0.74509805 -0.48783025 -0.089765884 0
0.84757435 -0.41877189 -0.091316067 0
0.96232808 -0.34143981 -0.089557715 0
1.1257229 -0.2313287 -0.089637734 0
1.1493491 -0.2154071 -0.060875405 0
1.1666179 -0.20376977 -0.030230751 0
2.8656838 0.94122416 -0.14053056 0
4.2992568 1.9073033 -0.1403314 0
8.6284266 4.8247142 -0.14091873 0
0.74004382 -0.46364239 -0.091809593 0
0.83093894 -0.39899483 -0.090860479 0
0.95933098 -0.30767837 -0.092311643 0
1.1014831 -0.20657524 -0.088817276 0
1.1545616 -0.16882405 -0.064475812 0
1.1512156 -0.17120394 -0.030779218 0
2.8169315 1.0135067 -0.14060506 0
4.2337456 2.0211904 -0.1408422 0
8.475543 5.0380921 -0.14082046 0
0.72025543 -0.44987968 -0.090138264 0
0.81532735 -0.37858209 -0.090753697 0
0.92993277 -0.29263571 -0.089867957 0
1.0948856 -0.16893223 -0.09118899 0
1.099156 -0.16572967 -0.059459601 0
1.1058451 -0.1607134 -0.027936717 0
1.09105 -0.17180863 0.0057152454 0
1.1083329 -0.15884766 0.036531601 0
1.0919727 -0.17111668 0.069263667 0
1.0925564 -0.17067906 0.10100935 0
1.1023455 -0.16333786 0.13305722 0
1.1061246 -0.16050372 0.16535974 0
1.1127473 -0.15553716 0.19820127 0
0.70556468 -0.43257633 -0.08990749 0
0.8016156 -0.35668388 -0.091223307 0
0.92212522 -0.26146594 -0.091976292 0
1.0530705 -0.15800253 -0.087469213 0
1.1061853 -0.11603513 -0.063653834 0
1.0909107 -0.12810406 -0.028688943 0
1.1010441 -0.12009737 0.0029561466 0
1.0973555 -0.1230118 0.035918806 0
1.1099093 -0.11309269 0.068110161 0
1.0991092 -0.12162617 0.10101035 0
1.106755 -0.115585 0.13381767 0
1.1026171 -0.11885443 0.16641451 0
1.0975219 -0.12288037 0.19875102 0
0.7028439 -0.40536693 -0.093101136 0
0.785236 -0.33682027 -0.091183268 0
0.89760107 -0.24333736 -0.090721942 0
1.0270282 -0.13565955 -0.086603932 0
1.1022315 -0.073093623 -0.066455968 0
1.0998969 -0.0750359 -0.032460455 0
1.097887 -0.076707989 0.0012170172 0
1.1042811 -0.071388513 0.034154605 0
1.0976814 -0.076879174 0.067800686 0
1.1013888 -0.073794752 0.10101126 0
1.103394 -0.072126418 0.13439481 0
1.0993885 -0.075458914 0.16757166 0
1.1063066 -0.06970337 0.20157194 0
0.68037152 -0.39442477 -0.090977691 0
0.7614423 -0.3234407 -0.089410447 0
0.87922823 -0.22030953 -0.090882249 0
0.99081671 -0.12260476 -0.083924077 0
1.0985076 -0.02831265 -0.06952294 0
1.1068364 -0.021020081 -0.036226634 0
1.0964527 -0.030111935 -0.00082166283 0
1.1043202 -0.023223307 0.032697376 0
1.1021966 -0.025082674 0.066938929 0
1.1014411 -0.025744107 0.10101216 0
1.0990176 -0.027866092 0.134987 0
1.1034451 -0.023989465 0.16927312 0
1.1007165 -0.026378598 0.20324253 0
1.0987108 -0.028134789 0.23724337 0
1.0903054 -0.035494354 0.37376666 0
0.66279233 -0.37964061 -0.090297423 0
0.74772149 -0.30140576 -0.090261005 0
0.84418029 -0.21255013 -0.08744859 0
0.9654845 -0.1008074 -0.083322234 0
1.0547785 -0.018551912 -0.066482581 0
1.1043565 0.02711824 -0.039057005 0
1.103184 0.026038084 -0.0037949437 0
1.1021125 0.02505115 0.031272028 0
1.0867609 0.010909591 0.066646747 0
1.0978631 0.021136675 0.10101297 0
1.1009263 0.023958359 0.13582727 0
1.1014591 0.024449263 0.17071302 0
1.1022491 0.025177035 0.20573279 0
1.0950736 0.018567119 0.23990542 0
1.03522 -0.036568727 0.36590919 0
0.65069288 -0.35975149 -0.09133137 0
0.73181963 -0.28114423 -0.090704717 0
0.84217644 -0.17421463 -0.09153638 0
0.83864945 -0.17763212 -0.062949426 0
0.84411597 -0.17233536 -0.036240388 0
0.84099787 -0.17535666 -0.0082071256 0
0.83789408 -0.17836401 0.019501479 0
0.83063358 -0.18539903 0.047188606 0
0.84544957 -0.17104319 0.073630892 0
0.84461612 -0.17185077 0.10100393 0
0.84040785 -0.17592832 0.12821345 0
0.84049779 -0.17584118 0.15545851 0
0.83949721 -0.17681071 0.18266237 0
1.0965594 0.072268039 0.243451 0
1.0128905 -0.0088024996 0.29906845 0
1.0096976 -0.011896159 0.33189628 0
0.98844767 -0.032486048 0.36003134 0
0.63745314 -0.34065339 -0.092196651 0
0.71192688 -0.26475677 -0.090222605 0
0.82165682 -0.15293041 -0.091609932 0
0.83417928 -0.1401687 -0.066215165 0
0.84817207 -0.12590864 -0.040401641 0
0.84728938 -0.12680814 -0.011818124 0
0.83764452 -0.1366373 0.017457509 0
0.83689338 -0.13740274 0.045406748 0
0.8428269 -0.13135591 0.073023684 0
0.83465952 -0.13967928 0.10100438 0
0.83666271 -0.13763782 0.12878065 0
0.83468693 -0.13965133 0.1564555 0
0.83883935 -0.13541958 0.18467119 0
0.83606094 -0.13825116 0.21233118 0
1.098682 0.12938729 0.28423578 0
0.9516865 -0.020416524 0.29181322 0
0.94879246 -0.023365822 0.32346356 0
0.95322275 -0.018850889 0.35713428 0
0.60976809 -0.33671692 -0.088732652 0
0.69596267 -0.24432364 -0.090924717 0
0.80034614 -0.13243344 -0.091622658 0
0.83723843 -0.092888027 -0.071313791 0
0.83413547 -0.096214145 -0.04177523 0
0.84699494 -0.082429916 -0.014792344 0
0.83477277 -0.095531017 0.015519762 0
0.84504402 -0.084521145 0.043365438 0
0.83799487 -0.092077225 0.072441444 0
0.83985144 -0.090087086 0.1010055 0
0.84250373 -0.087244064 0.1297235 0
0.84027708 -0.089630872 0.15832043 0
0.83860719 -0.091420859 0.18688446 0
0.83633816 -0.093853027 0.21534547 0
1.097239 0.18581048 0.28888658 0
0.93486494 0.011759315 0.29344696 0
0.92290944 -0.0010559227 0.32317191 0
0.92945176 0.0059568617 0.35741526 0
0.59502184 -0.31940737 -0.089345418 0
0.67944163 -0.22421041 -0.091633417 0
0.78149414 -0.10912964 -0.092371188 0
0.84638286 -0.035957124 -0.078097664 0
0.84412152 -0.03850713 -0.04755022 0
0.83586913 -0.047813024 -0.016483983 0
0.84488791 -0.037642863 0.012049923 0
0.83889937 -0.04439595 0.042175949 0
0.83888352 -0.044413771 0.071607679 0
0.83647865 -0.047125664 0.10100634 0
0.83878469 -0.044525232 0.13040179 0
0.84132487 -0.041660752 0.16000751 0
0.83435196 -0.049523856 0.1888528 0
0.83980614 -0.043373372 0.21905147 0
1.1036021 0.25409916 0.29529476 0
1.0947137 0.24407604 0.33273399 0
0.58164859 -0.30022052 -0.090571754 0
0.65731806 -0.21042547 -0.09087234 0
0.73396909 -0.11946556 -0.085977383 0
0.85654491 0.025992189 -0.085618354 0
0.84248716 0.0093101598 -0.051653374 0
0.83537316 0.00086811522 -0.019891446 0
0.83876014 0.0048873755 0.010080652 0
0.84021735 0.0066166255 0.040339086 0
0.83655745 0.0022735333 0.070821799 0
0.83464408 2.9538216e-06 0.10100733 0
0.83617002 0.0018137429 0.13117906 0
0.83819979 0.0042224261 0.1615303 0
0.83824724 0.0042787525 0.19187905 0
0.84331501 0.010292564 0.2230579 0
0.84375685 0.010816846 0.25390014 0
1.0975853 0.3120288 0.34022596 0
0.57107389 -0.27704844 -0.092951499 0
0.63005692 -0.20335904 -0.088641725 0
0.72198987 -0.088504225 -0.088660203 0
0.84932595 0.07058087 -0.089817084 0
0.85719705 0.080414444 -0.059166927 0
0.84247679 0.062024031 -0.024723819 0
0.83741915 0.055705342 0.0073945913 0
0.84233081 0.061841521 0.038289722 0
0.84098655 0.060162101 0.069716267 0
0.84530324 0.065555125 0.10100897 0
0.84348369 0.063281924 0.13239446 0
0.83756429 0.05588666 0.16337258 0
0.84521049 0.065439254 0.19549537 0
0.84504718 0.065235287 0.22712636 0
0.8421334 0.061594997 0.25836831 0
1.1047904 0.38974085 0.34931263 0
1.0923795 0.3742353 0.38811764 0
0.54654211 -0.27128711 -0.090710066 0
0.61838108 -0.17674199 -0.091242619 0
0.70703965 -0.060061183 -0.09083537 0
0.72656602 -0.034363177 -0.067575909 0
0.72794175 -0.032552566 -0.03946409 0
0.72939962 -0.030633893 -0.011411903 0
0.73160899 -0.027726259 0.016543755 0
0.7313019 -0.028130379 0.044771954 0
0.72896528 -0.031205561 0.07299342 0
0.73007476 -0.029745366 0.1010048 0
0.72955102 -0.030434635 0.12903868 0
0.73557395 -0.022508051 0.15756705 0
0.73477 -0.023566093 0.18583189 0
0.72916007 -0.030949142 0.21338508 0
0.73914498 -0.017808285 0.24363974 0
0.72382981 -0.037964191 0.26895067 0
0.73107958 -0.028422978 0.29937747 0
0.73064458 -0.028995421 0.32820493 0
0.52581012 -0.26113895 -0.08982221 0
0.59416592 -0.16630259 -0.090109654 0
0.68436414 -0.041162338 -0.091114946 0
0.7375834 0.03267375 -0.076070257 0
0.95691651 0.33697477 -0.090102635 0
0.85049224 0.18932262 -0.034640435 0
0.84409791 0.18045118 0.00016600848 0
0.84034127 0.17523924 0.034141023 0
0.84497088 0.18166235 0.067410208 0
0.83780682 0.17172292 0.10101125 0
0.83777183 0.1716744 0.13432609 0
0.84248149 0.17820862 0.16805252 0
0.83764178 0.17149392 0.20108497 0
0.84266263 0.17845991 0.23541428 0
0.83807111 0.17208961 0.26837155 0
0.84146243 0.1767948 0.3030616 0
1.1098372 0.54913574 0.41275772 0
0.50471884 -0.2518647 -0.08886046 0
0.57535493 -0.14846119 -0.090825133 0
0.65885895 -0.026220348 -0.090717115 0
0.76091707 0.12318173 -0.088366456 0
0.91984606 0.35583654 -0.08941824 0
1.1491575 0.69152373 -0.089028619 0
0.84489268 0.24611297 -0.0036236548 0
0.84216034 0.24211314 0.031543788 0
0.84173173 0.24148563 0.066314846 0
0.84308356 0.24346462 0.10101302 0
0.83673972 0.23417798 0.13550483 0
0.8419686 0.24183241 0.1704665 0
0.84460044 0.24568513 0.20561405 0
0.84192133 0.24176326 0.24021447 0
0.84096748 0.24036685 0.27510172 0
0.84639227 0.24830821 0.31169033 0
1.1020678 0.62258941 0.42190987 0
1.1055894 0.62774462 0.46993601 0
0.48402581 -0.24236867 -0.088106312 0
0.55162472 -0.1378431 -0.090016179 0
0.63088417 -0.015287306 -0.089668132 0
0.74248141 0.15727106 -0.090921991 0
0.89381921 0.39127889 -0.091183998 0
1.1127727 0.72983807 -0.090126835 0
1.4815869 1.3001208 -0.089635409 0
0.85169071 0.32613721 0.028040284 0
0.84153378 0.31043199 0.06498231 0
0.84253561 0.31198099 0.10101464 0
0.84501314 0.3158119 0.13719624 0
0.84499484 0.31578365 0.17341542 0
0.83337778 0.2978206 0.20821734 0
0.83924848 0.30689827 0.24514286 0
0.84139651 0.31021968 0.28193215 0
0.83734059 0.30394807 0.31750077 0
0.8430196 0.31272939 0.35590136 0
1.0974468 0.70614022 0.48138824 0
0.46959519 -0.22294709 -0.089967869 0
0.53649771 -0.11354014 -0.092374183 0
0.61064833 0.0077198478 -0.091098316 0
0.70926005 0.16898158 -0.089829274 0
0.84946525 0.39826193 -0.089114748 0
1.0728887 0.76363069 -0.090814821 0
1.42616 1.3413422 -0.090011768 0
0.85507953 0.40744308 0.024751941 0
0.84858048 0.39681509 0.063194826 0
0.84063399 0.38381997 0.10101634 0
0.84022087 0.38314441 0.1384653 0
0.83835465 0.38009253 0.17578821 0
0.84088957 0.38423803 0.21361573 0
0.83858597 0.3804709 0.25092703 0
0.84396774 0.38927177 0.28991747 0
0.8415764 0.38536122 0.32750759 0
0.842695 0.38719037 0.36623657 0
1.1018074 0.81092197 0.49853826 0
0.44791541 -0.2151691 -0.089034729 0
0.50547642 -0.11547074 -0.089076273 0
0.57714981 0.0086710192 -0.088419788 0
0.68300259 0.19201294 -0.090726562 0
0.81382614 0.4186056 -0.08903069 0
1.029345 0.7918945 -0.091006272 0
1.3654939 1.37412 -0.089814879 0
1.3705516 1.3828802 -0.026549807 0
0.84935021 0.48013499 0.061520219 0
0.83283633 0.45153216 0.10101789 0
0.84411412 0.47106579 0.14027342 0
0.83036256 0.44724742 0.17828897 0
0.84435725 0.47148696 0.21898785 0
0.83877206 0.46181312 0.25746733 0
0.83981985 0.46362785 0.2971445 0
0.8423543 0.46801761 0.33755413 0
0.84121931 0.46605185 0.37725934 0
0.84145862 0.46646634 0.4176814 0
0.43597063 -0.18993512 -0.09247198 0
0.48623204 -0.097573847 -0.090244077 0
0.55722553 0.032885108 -0.090289839 0
0.64812887 0.1999307 -0.089300282 0
0.78026354 0.44274369 -0.089573212 0
0.97910237 0.80813354 -0.090034924 0
1.2908111 1.380935 -0.087677009 0
1.2921902 1.3834691 -0.024789533 0
1.295761 1.3900311 0.037989352 0
0.84790033 0.5670343 0.10102098 0
0.84095085 0.55426389 0.14192896 0
0.83957857 0.55174214 0.18274793 0
0.84224319 0.55663878 0.2241127 0
0.83861297 0.54996771 0.26464239 0
0.83996266 0.55244797 0.30621257 0
0.83982211 0.55218977 0.34770322 0
0.84081167 0.55400807 0.38984126 0
0.84059805 0.55361563 0.43192565 0
0.41184175 -0.18667999 -0.09068919 0
0.46708322 -0.078768164 -0.091692664 0
0.53199363 0.048031602 -0.090555198 0
0.62175351 0.22337368 -0.090483315 0
0.74911034 0.47215989 -0.090913735 0
0.93384635 0.83303398 -0.090118133 0
1.2484086 1.4475179 -0.090409599 0
1.2532183 1.4569135 -0.026966309 0
1.2477638 1.4462583 0.037354227 0
1.2447485 1.4403679 0.10104832 0
0.8498143 0.66888088 0.14438802 0
0.84332478 0.65620393 0.18713573 0
0.83865088 0.64707357 0.22959131 0
0.84571165 0.66086656 0.27411228 0
0.84325778 0.65607303 0.31710872 0
0.8390075 0.64777023 0.3595342 0
0.83884764 0.64745802 0.40327844 0
0.84423202 0.65797621 0.44963485 0
0.38721326 -0.18540826 -0.088604666 0
0.43823585 -0.079214364 -0.089202516 0
0.50230557 0.05413476 -0.089285262 0
0.58936995 0.23534301 -0.089967616 0
0.71368003 0.49407104 -0.09136758 0
0.89194018 0.86508626 -0.091059975 0
1.178558 1.4616272 -0.089122973 0
1.7860748 2.7260594 -0.090925284 0
4.5062251 8.3875427 -0.14090389 0
0.85011202 0.77802867 0.19236366 0
0.84277302 0.76275402 0.23697068 0
0.8416189 0.76035184 0.2822668 0
0.83615863 0.74898726 0.3264733 0
0.84354413 0.76435882 0.37450275 0
0.83931392 0.7555545 0.41923448 0
0.84033799 0.75768596 0.46613935 0
0.37285084 -0.16248259 -0.091736324 0
0.41996783 -0.057725277 -0.091421895 0
0.4755922 0.065946728 -0.089194261 0
0.55615258 0.24506035 -0.089237429 0
0.67297018 0.50478607 -0.090496786 0
0.84220523 0.88105386 -0.090453885 0
1.119632 1.4978688 -0.089683346 0
1.6894268 2.764719 -0.090659969 0
4.2652669 8.4916992 -0.1407374 0
1.0639509 1.3740706 0.22176085 0
0.85109782 0.90082508 0.24597657 0
0.84281838 0.88241714 0.2926524 0
0.84050179 0.87726659 0.34028965 0
0.83883107 0.87355191 0.38814467 0
0.84246731 0.88163656 0.43825081 0
0.83876503 0.87340516 0.48578551 0
0.35305801 -0.15053579 -0.092388071 0
0.3980476 -0.04335871 -0.092257671 0
0.45213056 0.085481197 -0.090601541 0
0.52702981 0.26391104 -0.090035461 0
0.63817382 0.52868539 -0.091437273 0
0.79729825 0.90776175 -0.091069199 0
1.0604022 1.5345445 -0.090384103 0
1.5929832 2.8032935 -0.090516992 0
4.022151 8.5902138 -0.1405846 0
0.99694729 1.3833785 0.22091362 0
0.84647071 1.0249035 0.25380984 0
0.84049916 1.0106778 0.30355313 0
0.8434329 1.0176666 0.35548371 0
0.83605218 1.0000839 0.40430498 0
0.84038746 1.0104116 0.45753282 0
0.84132564 1.0126467 0.51003951 0
0.32932377 -0.1482195 -0.090950482 0
0.37084514 -0.041861799 -0.090595536 0
0.42299682 0.091725618 -0.089755289 0
0.49389318 0.27332786 -0.089513905 0
0.59832126 0.54082209 -0.091003515 0
0.74577081 0.91851658 -0.090194114 0
0.9993732 1.5681236 -0.090958379 0
1.4994309 2.8490293 -0.090855606 0
3.7815416 8.6946955 -0.14073619 0
0.9220317 1.370012 0.21902516 0
0.84988111 1.1851969 0.26429525 0
0.83667958 1.151381 0.31560051 0
0.8369056 1.1519599 0.369753 0
0.83983558 1.1594651 0.42527547 0
0.84064996 1.1615512 0.48058248 0
0.83919072 1.1578133 0.53524119 0
0.30844802 -0.13895848 -0.091231711 0
0.34724048 -0.03167608 -0.090826891 0
0.39758745 0.1075609 -0.090721987 0
0.43450168 0.209649 -0.07819926 0
0.437085 0.21679333 -0.048920933 0
0.43910331 0.22237507 -0.019293664 0
0.93550795 1.5952065 -0.091159575 0
1.4021107 2.8856192 -0.090855815 0
3.5376122 8.7914543 -0.14084633 0
0.86132252 1.390043 0.21890338 0
0.84679717 1.3498724 0.2750051 0
0.83719128 1.3233068 0.33064908 0
0.83935738 1.3292973 0.38926551 0
0.83945221 1.3295596 0.44764289 0
0.84333044 1.3402851 0.508246 0
0.84111792 1.3341663 0.56647307 0
0.28385249 -0.14060065 -0.089186214 0
0.32292932 -0.023362245 -0.090803467 0
0.37027788 0.1186929 -0.090977393 0
0.40602648 0.22594598 -0.079049595 0
0.40350708 0.21838728 -0.047809023 0
0.40124905 0.21161261 -0.017185083 0
0.86987948 1.6175983 -0.091132723 0
1.3035146 2.9185908 -0.090799533 0
3.2882321 8.8731432 -0.14073776 0
0.79026634 1.3787429 0.21731883 0
0.84718573 1.5495124 0.28820977 0
0.83939713 1.526145 0.34861371 0
0.83969021 1.5270245 0.41112018 0
0.84047228 1.5293708 0.47422853 0
0.839688 1.5270176 0.53705245 0
0.84106934 1.531162 0.60153353 0
0.26458496 -0.12641498 -0.09081284 0
0.29793024 -0.017265704 -0.090464883 0
0.3387202 0.11625209 -0.089017265 0
0.38333526 0.26229063 -0.082945399 0
0.38140005 0.25595608 -0.051205982 0
0.3799879 0.25133374 -0.020113444 0
0.72672623 1.3863127 -0.072684057 0
0.7272023 1.3878713 -0.01474685 0
0.72626162 1.3847921 0.043253448 0
0.72788519 1.3901064 0.10104142 0
0.72763592 1.3892906 0.1589388 0
0.72781831 1.3898876 0.21692815 0
0.84354752 1.7687042 0.30274275 0
0.835379 1.741966 0.36770293 0
0.8335669 1.7360346 0.43418562 0
0.83519036 1.7413487 0.50239491 0
0.8355974 1.742681 0.57062715 0
0.24397968 -0.11554447 -0.091804348 0
0.27486342 -0.0044991639 -0.091556452 0
0.31605843 0.14362124 -0.09229248 0
0.36437646 0.31735304 -0.089628153 0
0.44092867 0.59260339 -0.090928085 0
0.55268776 0.99444336 -0.091219954 0
0.65946931 1.3783858 -0.070835002 0
0.6615082 1.3857169 -0.013793906 0
0.66129714 1.384958 0.04367283 0
0.66374564 1.3937619 0.10104101 0
0.6633203 1.3922327 0.15858474 0
0.66315067 1.3916225 0.21616147 0
0.81183666 1.9262364 0.31270301 0
0.81067181 1.9220481 0.38320395 0
0.81125909 1.9241598 0.45457393 0
0.81218374 1.9274843 0.52661282 0
0.8121261 1.9272771 0.5986833 0
0.22063361 -0.11456242 -0.090736814 0
0.25061139 0.0048155519 -0.092084236 0
0.2833491 0.13518396 -0.089576729 0
0.33071598 0.32380894 -0.089295305 0
0.39597908 0.58370036 -0.088578321 0
0.49661955 0.9844721 -0.088981442 0
0.59671003 1.3830535 -0.070028208 0
0.59592938 1.3799448 -0.012753164 0
0.59754872 1.3863931 0.044019699 0
0.59857619 1.3904848 0.10104045 0
0.59963363 1.3946958 0.15826055 0
0.59640628 1.3818436 0.21492501 0
0.76991332 2.0727856 0.32186601 0
0.76917571 2.0698481 0.39555871 0
0.76939046 2.0707033 0.46988848 0
0.76871002 2.0679936 0.54414845 0
0.19936426 -0.10541871 -0.091582052 0
0.22220561 -0.0036551619 -0.089294307 0
0.25740895 0.15318397 -0.091468893 0
0.29542679 0.32256225 -0.087977655 0
0.35691938 0.59652609 -0.088980787 0
0.44722357 0.99885219 -0.089220889 0
0.55229825 1.4669843 -0.075018905 0
0.5530591 1.4703741 -0.016387573 0
0.54727566 1.4446075 0.042973168 0
0.55241919 1.4675231 0.10104228 0
0.55108213 1.4615662 0.15951523 0
0.55258769 1.4682739 0.21837229 0
0.71450239 2.1896415 0.32892418 0
0.7151382 2.1924741 0.40553457 0
0.71071696 2.1727765 0.47991428 0
0.71240598 2.1803014 0.55768007 0
0.17702694 -0.10055903 -0.091611408 0
0.19610944 -0.0042284993 -0.088172682 0
0.22579871 0.14564613 -0.089182876 0
0.2662442 0.34981945 -0.090878151 0
0.32134596 0.62797922 -0.091718398 0
0.3978934 1.0143991 -0.089689083 0
0.41851917 1.1185203 -0.049248967 0
0.41770491 1.1144097 0.0011301732 0
0.41695464 1.1106222 0.051197708 0
0.41615108 1.106566 0.10103139 0
0.41638428 1.107743 0.15079696 0
0.41597569 1.1056805 0.20051853 0
0.41537949 1.1026709 0.25018257 0
0.41708702 1.1112907 0.30097285 0
0.41488799 1.1001897 0.35004368 0
0.40594402 1.0550396 0.39397398 0
0.27025065 0.3700445 0.36205992 0
0.15335844 -0.10331205 -0.090120606 0
0.17351003 0.013851676 -0.090747081 0
0.19769207 0.15444902 -0.089765154 0
