# .PCD v0.7 - Point Cloud Data file format
VERSION 0.7
FIELDS x y z intensity
SIZE 4 4 4 4
TYPE F F F F
COUNT 1 1 1 1
WIDTH 1365
HEIGHT 1
VIEWPOINT 0 0 0 1 0 0 0
POINTS 1365
DATA ascii
-0.09135697 0.61876875 0.4733918 0
0.3848829 0.0026789852 -0.049932875 0
1.1266757 -0.9826436 0.10596455 0
1.1330332 -0.99108815 0.30805284 0
0.097624801 0.38424349 0.45691967 0
-0.082350351 0.62330425 0.47441843 0
0.39858571 0.017207736 -0.049817145 0
0.10580506 0.39608407 0.45507574 0
-0.077311106 0.6330477 0.47163644 0
0.41616759 0.026719088 -0.049936701 0
0.12373986 0.39544791 0.45986068 0
-0.074876852 0.64588821 0.46653011 0
0.43289176 0.037422892 -0.050012741 0
-0.063645191 0.64757729 0.46992099 0
0.44497606 0.053772446 -0.049836747 0
0.46575937 0.059779998 -0.050152116 0
-0.042808332 0.65353018 0.47513133 0
0.47418103 0.080198877 -0.049798481 0
-0.036665119 0.66162866 0.47389081 0
0.49549648 0.085941903 -0.05015118 0
1.2089957 -0.70580947 0.10020198 0
-0.034195162 0.67372698 0.46950436 0
0.50065607 0.10953616 -0.049653158 0
1.2055246 -0.6531055 0.098728597 0
-0.023818592 0.6769985 0.47221962 0
0.51982898 0.11784028 -0.049904473 0
0.37458232 0.27107525 0.054366719 0
-0.023603478 0.69116014 0.46617505 0
0.5306291 0.1350168 -0.049729083 0
0.38346335 0.28641182 0.054191273 0
0.83220917 -0.17523026 0.22025648 0
-0.0095692659 0.69073969 0.47211862 0
0.55254978 0.14086664 -0.050129265 0
0.39602128 0.29788852 0.054213792 0
0.84134954 -0.14884329 0.21892463 0
-0.007557848 0.70273948 0.46788383 0
0.56147188 0.15983117 -0.04987907 0
0.40916786 0.30881536 0.0542727 0
0.73611397 -0.011004215 0.20046438 0
0.74730176 -0.021948224 0.3351613 0
0.74695939 -0.021613365 0.47152904 0
0.57361692 0.17548168 -0.049802732 0
0.42709973 0.31523883 0.054573834 0
0.83281487 -0.071757086 0.21247539 0
0.1895342 0.5418433 0.34942463 0
0.0057924599 0.71710747 0.46758515 0
0.58608669 0.19076109 -0.049752783 0
0.4662374 0.30223262 0.055909347 0
0.84778982 -0.05264831 0.21223885 0
0.19329716 0.55609357 0.34708524 0
0.011376164 0.72529781 0.46666524 0
0.60055512 0.20418453 -0.049809057 0
0.84101862 -0.013888007 0.073398419 0
0.839791 -0.012774592 0.20870702 0
0.19477464 0.57218027 0.34382701 0
0.016333541 0.73400557 0.46533737 0
0.61874324 0.21437621 -0.050050069 0
0.82635969 0.03080284 0.07194414 0
0.83983225 0.018890494 0.20644011 0
0.83501285 0.023151869 0.34120667 0
0.21641029 0.57011664 0.34964743 0
0.036155425 0.72949702 0.4758786 0
0.6270203 0.23333979 -0.049827412 0
0.83748108 0.051921602 0.071747378 0
0.83473092 0.054292198 0.20352492 0
0.84413999 0.046181556 0.33971509 0
0.22666718 0.57844597 0.35039559 0
0.039768778 0.73955327 0.47357059 0
0.6375919 0.25017416 -0.049725294 0
0.84512836 0.075783126 0.071403146 0
0.83467227 0.084569328 0.20141114 0
0.84374827 0.076942794 0.33606556 0
0.92101663 0.01201486 0.49867988 0
0.2695249 0.55945778 0.36534855 0
0.27460387 0.55518997 0.45595387 0
0.040263794 0.75210392 0.46896994 0
0.65423769 0.26194465 -0.049914364 0
0.84504956 0.10566341 0.070719853 0
0.84857184 0.10277855 0.20131132 0
0.83501559 0.11388158 0.33059981 0
0.94895846 0.020558709 0.50277472 0
0.29923913 0.55270016 0.37439257 0
0.25300983 0.59056348 0.43972126 0
0.047747992 0.75867969 0.46989602 0
0.67017633 0.27445412 -0.050076049 0
0.84689027 0.13339961 0.070148341 0
0.84050781 0.13849413 0.19822401 0
0.84223944 0.13711202 0.32897866 0
0.98139578 0.026036138 0.50833148 0
0.26029018 0.60162878 0.35408089 0
0.24233808 0.61595827 0.42967433 0
0.054634713 0.76578462 0.4704226 0
0.68465239 0.28824973 -0.050177161 0
0.84531611 0.16328573 0.069443822 0
0.84542793 0.16319871 0.19699611 0
0.84308463 0.1650213 0.32598314 0
0.25741372 0.62055528 0.43339914 0
0.062644862 0.77204621 0.47185564 0
0.69934338 0.30197579 -0.050294768 0
0.84955996 0.18814409 0.06902355 0
0.83003527 0.20293951 0.19308305 0
0.84039932 0.19508588 0.32229701 0
0.26287279 0.63272643 0.43212318 0
0.06862732 0.77992254 0.47182527 0
0.71211988 0.31722212 -0.050334033 0
0.84533244 0.21889138 0.068245217 0
0.84437376 0.21959913 0.19324471 0
0.84128708 0.22187757 0.3195312 0
0.28023621 0.63601643 0.43706444 0
0.073822938 0.78838003 0.47128865 0
0.71621019 0.33875072 -0.049999505 0
0.85065311 0.2421031 0.067910813 0
0.83965153 0.2500118 0.19091001 0
0.83460146 0.2536422 0.31518349 0
0.077453099 0.7979368 0.46969163 0
0.72880465 0.35404265 -0.05005037 0
0.84990054 0.26928198 0.067327477 0
0.84009224 0.27614731 0.18932351 0
0.84467632 0.27293867 0.31465194 0
0.84129292 0.27530682 0.44158378 0
0.089637779 0.80142498 0.47438863 0
0.72814089 0.37841523 -0.0495364 0
0.88875264 0.26898259 0.068474919 0
0.83474702 0.30577928 0.18704113 0
0.84545571 0.29848289 0.31214964 0
0.84187979 0.30091935 0.43799356 0
0.11107191 0.79885435 0.48571476 0
0.74445528 0.39109892 -0.049767185 0
0.9141646 0.27857018 0.069036931 0
0.83142549 0.33343184 0.185087 0
0.85096127 0.32047826 0.31076074 0
0.8436715 0.3253119 0.43490115 0
0.11612787 0.80772245 0.48526937 0
0.76160389 0.40344185 -0.05003836 0
0.95847863 0.27644014 0.070402607 0
0.83871537 0.35369813 0.18455048 0
0.84501106 0.34963685 0.30698416 0
0.84997255 0.34643626 0.4332965 0
0.11888196 0.81805485 0.48328221 0
0.76763481 0.42298961 -0.049845409 0
0.99129552 0.28266478 0.071271844 0
0.84459871 0.37470245 0.18387224 0
0.83683258 0.37957489 0.30284134 0
0.84505481 0.37441623 0.42840594 0
0.12969775 0.82323164 0.48704618 0
0.7784701 0.43945092 -0.049865182 0
1.0306282 0.28563726 0.072410204 0
0.83811516 0.40306807 0.18167582 0
0.85024661 0.39566809 0.3033717 0
0.83789963 0.40319961 0.42298979 0
0.13001443 0.83500189 0.48353335 0
0.79151648 0.45462132 -0.049985211 0
1.0694298 0.28986233 0.073519617 0
0.83725482 0.42750567 0.18024305 0
0.84049326 0.42558575 0.29908347 0
0.83554238 0.42852086 0.41914496 0
0.14113213 0.84019732 0.4875958 0
0.80653101 0.46875942 -0.050193366 0
0.85397035 0.44143665 0.18103869 0
0.84088701 0.44897205 0.29701677 0
0.83739763 0.45098174 0.41666234 0
0.13418098 0.85600042 0.47930789 0
0.80706114 0.49117053 -0.049814861 0
0.85064858 0.46679199 0.1793831 0
0.83931845 0.47312891 0.29462016 0
0.84170407 0.47179461 0.41499665 0
0.14923789 0.85909295 0.48616844 0
0.82173187 0.50560468 -0.050024882 0
0.85073799 0.48985761 0.17819512 0
0.8427642 0.49418646 0.29333147 0
0.84335309 0.4938668 0.41264719 0
0.83155042 0.52276534 -0.05004508 0
0.85037047 0.51285297 0.17699488 0
0.83623356 0.52029878 0.29007202 0
0.83612078 0.5203582 0.40783271 0
0.8393119 0.54099619 -0.04999138 0
0.8388502 0.54123193 0.17449154 0
0.84244746 0.5393948 0.28948113 0
0.8390463 0.54113185 0.40605494 0
0.83552903 0.54292816 0.52636087 0
0.85052377 0.55748045 -0.050084636 0
0.8424024 0.56150001 0.17385413 0
0.84272283 0.56134146 0.28774744 0
0.84282666 0.56129003 0.40460631 0
0.83189386 0.56670111 0.52172738 0
0.85416132 0.577672 -0.04988569 0
0.86747366 0.57129055 0.17581566 0
0.84263355 0.58319795 0.28600672 0
0.84262902 0.5832001 0.40211293 0
0.84107214 0.58394641 0.52195996 0
0.86402017 0.5948258 -0.049942795 0
0.90583533 0.57542491 0.17935498 0
0.84191698 0.60508096 0.28420627 0
0.84118229 0.60542184 0.39936054 0
0.83798009 0.60690755 0.51777083 0
0.86951166 0.61398709 -0.04983715 0
0.93904001 0.58278602 0.18227303 0
0.83861881 0.62785035 0.28196028 0
0.84709984 0.62404448 0.39876154 0
0.84457189 0.62517887 0.51724231 0
0.88772672 0.62755215 -0.050236631 0
0.96866316 0.59244925 0.18476656 0
0.84489888 0.64612705 0.28166595 0
0.82400531 0.6551888 0.39016309 0
0.83274037 0.65140033 0.51011938 0
0.89130431 0.64755678 -0.050074078 0
1.0054501 0.59974903 0.18809587 0
0.83838624 0.66972047 0.27891695 0
0.83419615 0.67147541 0.39092559 0
0.84269327 0.6679166 0.51101083 0
0.89539343 0.66723442 -0.049941774 0
1.0386631 0.6093381 0.19100469 0
0.8440637 0.68797714 0.27861103 0
0.83370143 0.69216454 0.38880038 0
0.83619171 0.69115824 0.50606823 0
0.90771776 0.68360734 -0.050135158 0
1.0714947 0.61981088 0.19386926 0
0.84703773 0.70724422 0.27782795 0
0.83609861 0.71150535 0.38754886 0
0.83675629 0.71124917 0.5037775 0
0.27303508 0.93083709 0.4519141 0
0.91214198 0.70309263 -0.050034285 0
0.85424715 0.72480905 0.27791125 0
0.84637719 0.72776103 0.38851738 0
0.83410352 0.73236489 0.50044453 0
0.28662905 0.93772298 0.45703709 0
0.91983873 0.72132492 -0.050067399 0
0.84786361 0.74729383 0.2754305 0
0.84038907 0.7499907 0.38512513 0
0.83673245 0.75130999 0.49908888 0
0.25631496 0.96072716 0.4388279 0
0.92849201 0.73925364 -0.050145213 0
0.85487193 0.76477307 0.2755709 0
0.84809953 0.76712066 0.3855224 0
0.84444886 0.76838613 0.49961472 0
0.84594804 0.76786643 0.62095755 0
0.26405719 0.96957147 0.44100434 0
0.92734295 0.76050371 -0.049862407 0
0.85394114 0.78491664 0.27424374 0
0.84350663 0.78838712 0.38266802 0
0.84559935 0.78769106 0.49791184 0
0.83280212 0.79194731 0.61259747 0
0.28407046 0.97445178 0.44970092 0
0.94104356 0.77681559 -0.050147202 0
0.84282607 0.80811423 0.27104229 0
0.84048539 0.80886012 0.38031784 0
0.83911258 0.80929762 0.49363405 0
0.83657259 0.81010699 0.61175394 0
0.31430867 0.97653502 0.46376443 0
0.9403761 0.79772091 -0.04990232 0
0.85749048 0.82298869 0.27276877 0
0.84388226 0.82713717 0.37975737 0
0.83649617 0.8293888 0.49081364 0
0.83428246 0.8300637 0.6083895 0
0.31960306 0.98696417 0.4647404 0
0.95327705 0.81449926 -0.050172664 0
0.87067503 0.83854812 0.27424625 0
0.84638375 0.84562027 0.37902236 0
0.84163731 0.84700221 0.4907794 0
0.84081131 0.84724265 0.60894895 0
0.32536623 0.99730992 0.46602565 0
0.94775993 0.83659035 -0.049767505 0
0.89497763 0.85123909 0.2778362 0
0.84212142 0.86590832 0.37656072 0
0.83653015 0.86746007 0.48728362 0
0.8405475 0.86634517 0.60668075 0
0.31166986 1.0131254 0.45726979 0
0.96210319 0.8531456 -0.050107319 0
0.93182391 0.86113983 0.28378388 0
0.84169072 0.88493651 0.37518585 0
0.84566051 0.88388842 0.4887872 0
0.84214503 0.88481659 0.60532039 0
0.31840619 1.0230924 0.45921981 0
0.97447139 0.87044615 -0.05038105 0
0.96153456 0.87368798 0.28840935 0
0.84006959 0.90412605 0.37356532 0
0.83350319 0.90577155 0.48305592 0
0.83931547 0.90431505 0.60217416 0
0.32400784 1.0334467 0.46064326 0
0.96354645 0.8934747 -0.049807295 0
0.9867087 0.88797939 0.29220948 0
0.84654373 0.92123365 0.37413573 0
0.84255844 0.9221791 0.48468927 0
0.85293788 0.9197166 0.6061427 0
0.32572487 1.0447981 0.460132 0
0.97402757 0.91129696 -0.050028939 0
1.0118774 0.90281904 0.29603121 0
0.84557563 0.94006878 0.37281522 0
0.83021146 0.94351017 0.4790917 0
0.83893007 0.94155735 0.59845906 0
0.34818831 1.0514781 0.47033307 0
0.97875708 0.93049467 -0.050048344 0
1.0413208 0.91730607 0.30066517 0
0.84466332 0.95876193 0.37157464 0
0.829256 0.96200985 0.47747362 0
0.84581918 0.95851827 0.59975457 0
0.35114059 1.0627977 0.47057343 0
0.97036427 0.95230359 -0.049598958 0
1.081435 0.93034655 0.30728289 0
0.84384674 0.97731423 0.37042332 0
0.83732194 0.97860408 0.47899815 0
0.84167808 0.97774297 0.59648186 0
0.36381868 1.0722088 0.47584635 0
0.989384 0.96873212 -0.050155804 0
0.84445411 0.99549103 0.36970481 0
0.84113365 0.99610406 0.47915062 0
0.83426613 0.99737209 0.59194165 0
0.38994285 1.079409 0.48800874 0
0.99243563 0.98830307 -0.050140526 0
0.8497166 1.0127997 0.37025222 0
0.83190125 1.0158576 0.47497407 0
0.84684283 1.013293 0.59591222 0
0.37698796 1.0939399 0.48035216 0
0.98842388 1.0089874 -0.049878873 0
0.43360552 1.0970409 0.041823238 0
0.42175475 1.0989218 0.11254685 0
0.43804011 1.0963371 0.18777449 0
0.42194393 1.0988917 0.258991 0
0.43249825 1.0972166 0.3394576 0
0.42682311 1.0981174 0.41860688 0
0.39572957 1.1030521 0.48886117 0
1.0051281 1.0264674 -0.050374515 0
0.41146711 1.1130371 0.040955894 0
0.40978369 1.1132826 0.11104265 0
0.40849367 1.1134707 0.18204132 0
0.41567639 1.1124233 0.25689048 0
0.40004233 1.1147031 0.32790679 0
0.3940244 1.1155807 0.40409312 0
0.40163746 1.1144705 0.49092355 0
1.0079514 1.0461493 -0.050377328 0
0.38926569 1.1284264 0.040094994 0
0.42851791 1.1232064 0.11288951 0
0.42833999 1.1232301 0.18534335 0
0.42996761 1.1230136 0.26012874 0
0.42928812 1.123104 0.33715782 0
0.43370011 1.1225172 0.41996676 0
0.42017618 1.1243157 0.49943045 0
0.99381429 1.0678749 -0.049779195 0
0.38234928 1.141369 0.03979199 0
0.42260489 1.1365305 0.11207923 0
0.42404303 1.1363577 0.18427718 0
0.43156967 1.135453 0.26013568 0
0.41817269 1.1370633 0.33290574 0
0.42433879 1.1363221 0.41540363 0
1.0074025 1.0862005 -0.050187226 0
0.37100747 1.1545739 0.03933635 0
0.85260612 1.1028316 0.36780983 0
0.83098525 1.1051545 0.47056833 0
0.84644347 1.1034937 0.59058964 0
1.0060954 1.1062293 -0.050068885 0
0.34105793 1.1692204 0.038219925 0
0.85670274 1.1203794 0.3683995 0
0.83242387 1.1226791 0.47045821 0
0.84868103 1.1211393 0.59077662 0
0.99794739 1.1267385 -0.049714662 0
0.35422274 1.1795422 0.038655672 0
0.84953696 1.1389124 0.36616212 0
0.84053284 1.1396509 0.47264853 0
0.84647578 1.1391635 0.58921021 0
1.0059702 1.1458788 -0.049948696 0
0.37131688 1.1899012 0.039236315 0
0.85395342 1.1564233 0.36694846 0
0.83564848 1.1576931 0.47057509 0
0.84090763 1.1573282 0.58634365 0
1.0017939 1.1658795 -0.049754962 0
0.85495359 1.1742088 0.36691767 0
0.83035141 1.1756042 0.46844134 0
0.83555812 1.1753088 0.58366472 0
1.021962 1.1846731 -0.050440311 0
0.84418577 1.1925128 0.36393878 0
0.84728998 1.1923759 0.47378871 0
0.83694297 1.1928322 0.58387208 0
1.0070264 1.2050587 -0.049879972 0
0.85367471 1.2098876 0.36619058 0
0.83675069 1.2104206 0.47005808 0
0.82985133 1.2106378 0.58065951 0
1.0031275 1.2248437 -0.049723029 0
0.85540229 1.2276342 0.36651722 0
0.8374961 1.2279725 0.47015896 0
0.83505231 1.2280186 0.58263111 0
1.0088543 1.2444606 -0.049918655 0
0.85911566 1.2454033 0.3674075 0
0.84943002 1.2454643 0.4740558 0
0.8419897 1.2455112 0.58541203 0
1.0117506 1.2642008 -0.050022062 0
0.84918183 1.2631773 0.36487299 0
0.83116394 1.2630638 0.46797869 0
0.84343678 1.263141 0.58601117 0
1.0079306 1.2838901 -0.049894545 0
0.84678143 1.2808461 0.36431736 0
0.84323138 1.280779 0.47206742 0
0.84198004 1.2807554 0.58549988 0
1.0013744 1.3034065 -0.049678087 0
0.85306948 1.2987365 0.36603609 0
0.83876771 1.2982861 0.47072947 0
0.84459883 1.2984697 0.58676851 0
1.008375 1.3233709 -0.049954765 0
0.85132247 1.3164451 0.36576134 0
0.83511347 1.3157302 0.46973374 0
0.83030206 1.3155181 0.58111989 0
1.0119369 1.343339 -0.05011766 0
0.85413045 1.3343878 0.3667073 0
0.83367282 1.3332273 0.46954811 0
0.83708292 1.3334208 0.58429706 0
1.0009977 1.3624194 -0.049770743 0
1.3020573 1.3833022 0.072544783 0
1.3004243 1.383189 0.20613958 0
1.3150941 1.3842065 0.34451458 0
0.85556 1.3523312 0.36735934 0
0.8412897 1.3513414 0.4724564 0
0.84223336 1.3514068 0.58689392 0
0.99733764 1.3818545 -0.049692821 0
1.2507688 1.4026431 0.070771024 0
1.2495586 1.4025438 0.20084555 0
1.0081251 1.3827394 0.28928998 0
0.84508079 1.3693652 0.36502138 0
0.83530325 1.3685632 0.47090283 0
0.84768277 1.3695787 0.58971167 0
1.0037726 1.4021939 -0.049985588 0
1.2518057 1.4256872 0.070880324 0
1.2431382 1.4248662 0.2003694 0
0.89730233 1.3921092 0.26952919 0
0.85803014 1.3883893 0.36873966 0
0.8348065 1.3861897 0.47125444 0
0.85273808 1.3878882 0.59246391 0
0.99630219 1.42125 -0.04978865 0
0.64334077 1.3833283 0.049114954 0
0.64177936 1.3831606 0.13561739 0
0.64194816 1.3831787 0.22354695 0
0.63420683 1.382347 0.3117685 0
0.84374887 1.4048599 0.47483912 0
0.83961636 1.404416 0.58774668 0
0.99474794 1.4408805 -0.049812768 0
0.54893357 1.3872966 0.045782067 0
0.55528837 1.3880603 0.12644126 0
0.54247445 1.3865201 0.20578986 0
0.55934626 1.388548 0.29297021 0
0.83067435 1.4211599 0.4711304 0
0.83992976 1.4222723 0.58871162 0
1.0000716 1.4614459 -0.050093535 0
0.54645652 1.401121 0.045756318 0
0.54850608 1.4013937 0.12589809 0
0.54592603 1.4010504 0.20673655 0
0.55210727 1.4018725 0.29156482 0
0.84559196 1.4409021 0.47687906 0
0.83705121 1.4397663 0.58843887 0
0.99930555 1.4813267 -0.050164443 0
0.54796177 1.4155102 0.045880467 0
0.56345791 1.4177699 0.12773259 0
0.55038053 1.4158629 0.20790108 0
0.55480212 1.4165077 0.29276133 0
0.84821433 1.4592941 0.47858799 0
0.83975893 1.458061 0.59059507 0
0.99700242 1.5010172 -0.05018897 0
0.55133206 1.4302862 0.046078827 0
0.54197103 1.4288006 0.12562811 0
0.54988366 1.4300563 0.20819779 0
0.55231649 1.4304425 0.29266953 0
0.82106084 1.4730941 0.47034803 0
0.83475894 1.4752681 0.58962083 0
0.98648626 1.5193188 -0.049925022 0
0.53389031 1.4416343 0.045530468 0
0.54909092 1.4442433 0.12665352 0
0.55303413 1.4449202 0.20919524 0
0.54858071 1.4441558 0.29229927 0
0.83836097 1.4938943 0.47715461 0
0.84533221 1.4950908 0.59527761 0
0.98195487 1.5385393 -0.049886089 0
0.55248803 1.4592454 0.046294421 0
0.55086941 1.4589466 0.12711881 0
0.55582315 1.4598612 0.210163 0
0.54940993 1.4586771 0.29315731 0
0.84323448 1.5129269 0.47986135 0
0.83518022 1.5114398 0.59232652 0
0.98573512 1.5593781 -0.050158337 0
0.55807048 1.4748352 0.046594683 0
0.55811602 1.4748441 0.12820454 0
0.54321975 1.4718993 0.20833801 0
0.55302578 1.4738379 0.29478967 0
0.83573681 1.5297257 0.47846058 0
0.83669883 1.5299158 0.59438038 0
0.96957082 1.5762119 -0.049713172 0
0.55763263 1.4893745 0.046683237 0
0.56620687 1.491182 0.12940785 0
0.554241 1.4886595 0.21089038 0
0.55511791 1.4888444 0.2960788 0
0.8436082 1.5496588 0.48235348 0
0.84629864 1.550226 0.59995747 0
0.97394115 1.5973268 -0.050025776 0
0.55019349 1.502412 0.046522584 0
0.54847723 1.5020275 0.12779352 0
0.54034668 1.5002064 0.20888409 0
0.54854089 1.5020418 0.29515433 0
0.83941501 1.5671945 0.48222956 0
0.83752006 1.56677 0.59786081 0
0.95816141 1.6138909 -0.049609706 0
0.54269248 1.5153207 0.046365194 0
0.55434114 1.5180843 0.12879537 0
0.55679983 1.5186676 0.21252373 0
0.54997987 1.5170496 0.2963725 0
0.84496135 1.5870341 0.48551089 0
0.83829874 1.5854534 0.5999133 0
0.96066767 1.6347378 -0.049873002 0
0.55718189 1.5336279 0.047022641 0
0.55739278 1.5336807 0.12951118 0
0.5501799 1.5318732 0.21192819 0
0.54794282 1.5313126 0.29672992 0
0.83068806 1.6021661 0.48209035 0
0.84544581 1.6058643 0.60479081 0
0.95231849 1.6529142 -0.049746022 0
0.5496313 1.5465981 0.04687696 0
0.56187981 1.5498319 0.13041073 0
0.55516618 1.5480593 0.21352652 0
0.551902 1.5471976 0.29871804 0
0.84049088 1.6233898 0.48700836 0
0.83793682 1.6227155 0.60351837 0
0.95055944 1.6728297 -0.049871229 0
0.55656785 1.5634847 0.047273565 0
0.55952555 1.5643055 0.13057303 0
0.55025572 1.5617329 0.21331619 0
0.54224366 1.5595093 0.29716045 0
0.84615296 1.6438537 0.49060604 0
0.8332966 1.6402856 0.60356516 0
0.95286626 1.6940242 -0.050157391 0
0.54993004 1.576713 0.047174778 0
0.55101699 1.5770293 0.13006744 0
0.56322008 1.5805823 0.21649492 0
0.55435544 1.5780014 0.30142313 0
0.84050411 1.661311 0.49038675 0
0.83164889 1.6587329 0.60499781 0
0.9482879 1.7133341 -0.050197616 0
0.84134752 1.6807332 0.37908131 0
0.84144229 1.6807622 0.49253395 0
0.83232754 1.6779835 0.60754335 0
0.93415874 1.7296336 -0.049889226 0
0.85696799 1.7050354 0.38473141 0
0.83304971 1.6974134 0.49151704 0
0.84860998 1.7023721 0.61698478 0
0.92155403 1.746214 -0.049644604 0
0.85244113 1.7232276 0.38507029 0
0.84841472 1.7218884 0.49889895 0
0.83948594 1.7189188 0.61551386 0
0.92297226 1.7674761 -0.049936645 0
0.84592336 1.7407682 0.38493475 0
0.84003109 1.7387257 0.49805915 0
0.84376639 1.7400204 0.62000155 0
0.90851945 1.7832341 -0.049637791 0
0.83791262 1.757759 0.38445345 0
0.83207577 1.7556529 0.49744186 0
0.84184223 1.7591767 0.62189531 0
0.90387851 1.8024509 -0.049719196 0
0.84392685 1.7799629 0.38784969 0
0.83106345 1.7751379 0.49936429 0
0.82829386 1.774099 0.61876416 0
0.90046221 1.8222095 -0.049857173 0
0.84477884 1.800519 0.38992554 0
0.82719785 1.7936707 0.50036478 0
0.82142907 1.7914236 0.61867076 0
0.90632957 1.8458281 -0.050362885 0
0.82994741 1.8149616 0.38776734 0
0.82729357 1.813889 0.50287533 0
0.82301944 1.8121619 0.62244976 0
0.89662546 1.863315 -0.050280042 0
0.82939249 1.8351558 0.38959688 0
0.82835323 1.8347205 0.50583845 0
0.82777137 1.8344768 0.62778485 0
0.87899691 1.8773048 -0.049896915 0
0.83267552 1.8572147 0.39257425 0
0.82410783 1.8534988 0.50698888 0
0.82460731 1.8537154 0.62970316 0
0.87151581 1.8955554 -0.049915574 0
0.8281036 1.8760741 0.3934494 0
0.8219499 1.8733126 0.50899303 0
0.82938951 1.8766512 0.63534808 0
0.86191267 1.9128395 -0.049859848 0
0.83554906 1.9006077 0.39777619 0
0.82784015 1.8970309 0.51405191 0
0.81537741 1.8912486 0.63257921 0
0.85356647 1.930686 -0.049862139 0
0.82427067 1.9166428 0.39691877 0
0.81657499 1.9129537 0.51292187 0
0.81020886 1.9099021 0.63393831 0
0.84833008 1.9500769 -0.049997248 0
0.82228869 1.937188 0.39875972 0
0.81627518 1.9342116 0.51592946 0
0.80683035 1.9295371 0.63624096 0
0.83672565 1.9663261 -0.049887706 0
0.81962436 1.9575922 0.40049097 0
0.80525666 1.9502544 0.51505196 0
0.80935067 1.9523454 0.64141554 0
0.82827455 1.9841523 -0.049912896 0
0.8081525 1.9735541 0.39976788 0
0.794213 1.9662124 0.5142349 0
0.80056065 1.9695556 0.64146572 0
0.80736262 1.9952376 -0.049441159 0
0.80250782 1.992602 0.40078962 0
0.79504734 1.9885519 0.51798457 0
0.79716772 1.9897028 0.64416069 0
0.81137723 2.0198865 -0.049991418 0
0.78666931 2.0060673 0.39890853 0
0.77961677 2.0021229 0.51566744 0
0.78670686 2.0060885 0.64364165 0
0.80532748 2.0391905 -0.050143782 0
0.78078049 2.0250525 0.39999291 0
0.78056222 2.0249269 0.51968604 0
0.77872998 2.0238717 0.64440387 0
0.78465277 2.0499527 -0.049700346 0
0.77302808 2.043061 0.40060335 0
0.77359706 2.0433984 0.52078593 0
0.77777773 2.045877 0.64866042 0
0.76717013 2.0622993 -0.049392629 0
0.77380878 2.0663488 0.40383616 0
0.77606136 2.0677228 0.52565932 0
0.77256864 2.0655923 0.65101904 0
0.76008314 2.0809155 -0.049527131 0
0.7680915 2.0859401 0.40522546 0
0.76229876 2.0823057 0.52431798 0
0.76018423 2.0809791 0.65001017 0
0.76108819 2.1048687 -0.050016448 0
0.76702291 2.1086969 0.40811202 0
0.7572152 2.1023703 0.5264743 0
0.76348048 2.1064117 0.65681416 0
0.76061147 2.1282568 -0.050459262 0
0.75061959 2.1216316 0.40641591 0
0.74329942 2.1167779 0.52522337 0
0.74433988 2.1174676 0.65268737 0
0.73799366 2.136941 -0.049962044 0
0.74336177 2.1405985 0.40757868 0
0.74908525 2.1444983 0.53196591 0
0.74329406 2.1405525 0.65766001 0
0.73321933 2.1576905 -0.050242756 0
0.73075348 2.1559646 0.40715954 0
0.73345262 2.1578538 0.53021133 0
0.73111397 2.1562169 0.65719599 0
0.72479898 2.1760666 -0.050377149 0
0.72873288 2.1788948 0.41012394 0
0.71744436 2.1707797 0.52835548 0
0.71380681 2.1681647 0.65421343 0
0.7042082 2.185581 -0.049982958 0
0.71292561 2.1920156 0.40883523 0
0.71811563 2.1958468 0.53344649 0
0.71280104 2.1919239 0.65966904 0
0.69791192 2.2055826 -0.050230645 0
0.69536036 2.203649 0.40702412 0
0.69744748 2.2052307 0.52980983 0
0.69758934 2.205338 0.65795195 0
0.6831252 2.2192056 -0.05010809 0
0.69239753 2.2264175 0.40996209 0
0.68891424 2.2237082 0.53130156 0
0.69504637 2.228478 0.66295123 0
0.66519517 2.2302129 -0.049848504 0
0.68543869 2.2463715 0.4117184 0
0.68845695 2.2487807 0.53634477 0
0.68662471 2.2473183 0.66504031 0
0.65851003 2.2501976 -0.050111517 0
0.68027967 2.2680278 0.41416889 0
0.68059951 2.2682896 0.53839296 0
0.66407961 2.2547593 0.65971875 0
0.63146299 2.2533188 -0.04943949 0
0.66384488 2.280529 0.41297823 0
0.65419596 2.2724211 0.5325098 0
0.66363496 2.2803526 0.66634297 0
0.62401468 2.2727125 -0.049685743 0
0.72568542 2.3603532 0.066477947 0
0.70887202 2.3458598 0.18566728 0
0.70547396 2.3429308 0.30669805 0
0.65460676 2.299083 0.41425145 0
0.64558452 2.2913058 0.53440011 0
0.65156156 2.296458 0.66685814 0
0.61210638 2.2883987 -0.049733784 0
0.68042582 2.3488064 0.064989582 0
0.67711836 2.3458819 0.18309809 0
0.6792689 2.3477833 0.30371338 0
0.63702422 2.310431 0.41277623 0
0.63929898 2.3124421 0.5374496 0
0.6402995 2.3133268 0.66793889 0
0.59836072 2.3024685 -0.049703296 0
0.66113669 2.3593991 0.064728841 0
0.66303962 2.3611248 0.18306373 0
0.667615 2.3652742 0.30425197 0
0.63114911 2.3322039 0.41536537 0
0.62091583 2.3229234 0.53521955 0
0.62628216 2.32779 0.66761005 0
0.58903378 2.3206232 -0.049896471 0
0.63565081 2.3639815 0.064169362 0
0.63081557 2.3594842 0.18039383 0
0.62945396 2.3582177 0.29832214 0
0.60549766 2.3359361 0.41118929 0
0.61412317 2.3439586 0.53828907 0
0.61287183 2.3427949 0.66772306 0
0.57777125 2.3371241 -0.050007701 0
0.62124389 2.3785908 0.064152561 0
0.62019998 2.3775952 0.18089789 0
0.62021226 2.3776069 0.29950649 0
0.59497768 2.3535366 0.41231441 0
0.59761328 2.3560505 0.53704894 0
0.59691375 2.3553834 0.6664871 0
0.55810708 2.3455205 -0.049711026 0
0.61757725 2.4036944 0.06468109 0
0.61203307 2.3982711 0.18181041 0
0.61834663 2.4044471 0.30262756 0
0.58313853 2.3700063 0.41306126 0
0.58247429 2.3693566 0.536502 0
0.58601683 2.372822 0.66825843 0
0.54924709 2.3644633 -0.049962249 0
0.59613961 2.4115036 0.064333551 0
0.60845095 2.4238539 0.18347183 0
0.6061992 2.4215949 0.30324763 0
0.57591635 2.3912165 0.4155606 0
0.57576591 2.3910656 0.53999931 0
0.57163852 2.3869252 0.6681385 0
0.54012626 2.3833964 -0.050215527 0
0.59792143 2.4428525 0.065175787 0
0.60639983 2.4515746 0.1854403 0
0.59920138 2.4441693 0.30526373 0
0.56257361 2.4064889 0.41594934 0
0.56439835 2.4083662 0.54144812 0
0.56332558 2.4072626 0.67172486 0
0.52272838 2.3938615 -0.050054941 0
0.62289947 2.499542 0.067253441 0
0.61566311 2.4919074 0.18925682 0
0.61571461 2.491962 0.31354439 0
0.54909641 2.42168 0.41636425 0
0.54471999 2.4170628 0.5390017 0
0.5463019 2.4187317 0.67026961 0
0.51195437 2.4113312 -0.050247442 0
0.53774756 2.4392385 0.4176563 0
0.53455156 2.4357805 0.54123646 0
0.53331822 2.4344461 0.67134637 0
0.49745771 2.4248774 -0.050255768 0
0.52083725 2.4508212 0.41693068 0
0.52046472 2.4504077 0.54167169 0
0.52245265 2.4526138 0.67386979 0
0.47855756 2.4334254 -0.050035205 0
0.50854748 2.4675591 0.41803658 0
0.50381655 2.4621747 0.54091436 0
0.50678235 2.4655502 0.67355818 0
0.4620479 2.44453 -0.049948424 0
0.48730943 2.4740229 0.41573152 0
0.48838815 2.4752822 0.5408448 0
0.4888148 2.4757802 0.67188275 0
0.44849321 2.4590831 -0.050032668 0
0.47010371 2.4849658 0.41502875 0
0.468178 2.4826593 0.53837705 0
0.47598001 2.4920039 0.67358029 0
0.42963228 2.4672148 -0.04982838 0
0.45578095 2.4993467 0.4155356 0
0.45564863 2.4991844 0.53996795 0
0.45397553 2.4971282 0.66942245 0
0.42387012 2.4916363 -0.05037925 0
0.44528279 2.518636 0.41769472 0
0.43868843 2.5103211 0.53932244 0
0.43501869 2.5056937 0.66727144 0
0.39849594 2.4913192 -0.049811903 0
0.42233589 2.5221696 0.41479561 0
0.42665365 2.5277569 0.54142195 0
0.42746839 2.5288112 0.67288119 0
0.38923886 2.5117502 -0.05019144 0
0.41099814 2.540653 0.41679087 0
0.40936801 2.5384877 0.5407728 0
0.41178998 2.5417049 0.67318892 0
0.36614802 2.5137742 -0.049757764 0
0.39680669 2.5555832 0.41768903 0
0.39265689 2.5499244 0.54051107 0
0.39810368 2.5573521 0.67500949 0
0.35398683 2.5305824 -0.049989372 0
0.37782046 2.5639575 0.41658005 0
0.38336429 2.5717208 0.54457331 0
0.38082626 2.5681667 0.67444313 0
0.33544561 2.5385058 -0.049839318 0
0.36078086 2.5749454 0.4163675 0
0.356989 2.5694914 0.53891253 0
0.36209753 2.5768392 0.6729117 0
0.31619874 2.5452032 -0.049647793 0
0.34291801 2.5846848 0.4158386 0
0.33783332 2.5771716 0.53741449 0
0.34154299 2.5826533 0.67008269 0
0.29827926 2.5536766 -0.049544167 0
0.32723066 2.5976391 0.41636509 0
0.3327609 2.6060367 0.54446453 0
0.32413039 2.5929313 0.66961896 0
0.29002997 2.5771146 -0.050085474 0
0.30822626 2.6055179 0.41540959 0
0.30582818 2.6017745 0.53839427 0
0.30080071 2.5939269 0.66470283 0
0.27208266 2.5857143 -0.050002795 0
0.28609821 2.6082103 0.41297486 0
0.29351047 2.6201077 0.54136193 0
0.28401706 2.6048701 0.66482157 0
0.2577481 2.6001725 -0.050174735 0
0.27420315 2.6273403 0.41554502 0
0.27102277 2.6220894 0.5380075 0
0.26770279 2.6166081 0.66542691 0
0.23832895 2.6062374 -0.050005216 0
0.25548068 2.6353774 0.4148567 0
0.24854346 2.6235914 0.53460234 0
0.25654241 2.6371813 0.67037159 0
0.22363479 2.6203318 -0.050177202 0
0.23164125 2.6343346 0.41157433 0
0.23345144 2.6375005 0.53608543 0
0.23430969 2.6390016 0.66640413 0
0.20752974 2.6321409 -0.050262272 0
0.21597286 2.6473489 0.41250479 0
0.22263862 2.6593554 0.54065424 0
0.2178867 2.6507962 0.66732073 0
0.18663575 2.6351955 -0.049999978 0
0.19750299 2.655364 0.41203758 0
0.2007248 2.6613433 0.53773588 0
0.1995144 2.659097 0.6666857 0
0.1654212 2.637244 -0.049709521 0
0.17806073 2.6614261 0.41107833 0
0.1792217 2.6636474 0.53505915 0
0.18010624 2.6653397 0.66520166 0
0.15360482 2.6573923 -0.050156046 0
0.16131748 2.672612 0.41166094 0
0.15722086 2.6645279 0.5319699 0
0.15852876 2.6671088 0.66176444 0
0.13253881 2.6594248 -0.049885239 0
0.14230932 2.6793227 0.41102815 0
0.1420777 2.6788511 0.53398508 0
0.14096405 2.6765831 0.66202819 0
0.11408081 2.6665046 -0.049826097 0
0.12042286 2.6798425 0.4087179 0
0.12161567 2.6823509 0.53207141 0
0.12346002 2.6862297 0.66247106 0
0.1028225 2.6891384 -0.050387729 0
0.10564765 2.6952782 0.4106878 0
0.10192289 2.6871836 0.53075159 0
0.10391685 2.6915169 0.66102517 0
0.083614849 2.69489 -0.050292078 0
0.081567071 2.6902881 0.40699482 0
0.086525939 2.7014322 0.53295845 0
0.087174915 2.7028906 0.66245764 0
0.065016173 2.701895 -0.050255083 0
0.064351521 2.7003493 0.40758622 0
0.063126706 2.6975007 0.52863997 0
0.064641021 2.7010226 0.65800971 0
0.043169402 2.7010159 -0.049922589 0
0.04333844 2.7014232 0.40575194 0
0.048433803 2.7136972 0.53170103 0
0.042238377 2.6987734 0.65354156 0
0.02723678 2.7142835 -0.050146416 0
0.025112351 2.7089784 0.405781 0
0.029194256 2.7191715 0.53097057 0
0.025606355 2.7102118 0.65532678 0
0.0066119046 2.7158391 -0.049928676 0
0.0059240074 2.7140565 0.40519544 0
0.0097705936 2.7240238 0.53010851 0
0.0068009109 2.7163286 0.65483481 0
-0.015217521 2.7137203 -0.049581926 0
-0.011417546 2.7239487 0.40598881 0
-0.012421408 2.7212467 0.52662957 0
-0.011240103 2.7244263 0.65532488 0
-0.030038992 2.7305002 -0.049963646 0
-0.035215236 2.7160113 0.4020074 0
-0.033693649 2.7202704 0.52390146 0
-0.031984307 2.725055 0.65262896 0
-0.051895417 2.7276163 -0.049608581 0
-0.054218568 2.7208457 0.40156916 0
-0.054504968 2.720011 0.5215317 0
-0.051900186 2.7276025 0.65089917 0
-0.066509403 2.7459478 -0.050062731 0
-0.070291884 2.7344546 0.4035539 0
-0.072242327 2.728528 0.52233768 0
-0.071162589 2.7318089 0.65000921 0
-0.083343454 2.7583122 -0.050298613 0
-0.092437781 2.72946 0.40060848 0
-0.094242461 2.7237344 0.51857537 0
-0.093496241 2.7261019 0.64492476 0
-0.10539938 2.7539394 -0.049917433 0
-0.11035309 2.7375045 0.40122321 0
-0.11331079 2.7276917 0.51796448 0
-0.11123861 2.7345665 0.64610964 0
-0.12592016 2.7539408 -0.049710471 0
-0.10781074 2.8168793 0.064048626 0
-0.1048233 2.8272622 0.18190116 0
-0.10691202 2.8200028 0.29982471 0
-0.12996306 2.7398896 0.40039328 0
-0.12980752 2.7404304 0.52047908 0
-0.13114481 2.7357826 0.6442638 0
-0.14278613 2.7667334 -0.04998732 0
-0.13232343 2.8048983 0.063400127 0
-0.1355461 2.7931428 0.17747796 0
-0.13662945 2.7891912 0.29302531 0
-0.14958499 2.7419333 0.39954126 0
-0.15224873 2.7322168 0.51582897 0
-0.15378495 2.726613 0.6380735 0
-0.16176929 2.7721903 -0.050000459 0
-0.15523757 2.7972493 0.062924989 0
-0.15726115 2.7894857 0.17649543 0
-0.15569799 2.7954829 0.29323316 0
-0.16830672 2.7471094 0.39958319 0
-0.16991608 2.7409351 0.51711279 0
-0.1690024 2.7444403 0.64357668 0
-0.18029131 2.7795637 -0.050092846 0
-0.17835723 2.7873862 0.06238053 0
-0.17516251 2.800307 0.1771491 0
-0.17986767 2.7812772 0.28967705 0
-0.18882193 2.7450616 0.39778852 0
-0.19000773 2.7402656 0.51525164 0
-0.19086494 2.7367988 0.63828206 0
-0.20115377 2.7772319 -0.049837694 0
-0.20070718 2.7791412 0.06190769 0
-0.19994067 2.7824178 0.17465697 0
-0.19791533 2.7910757 0.29063392 0
-0.20688699 2.7527237 0.3986111 0
-0.20989113 2.7398815 0.51358008 0
-0.21280204 2.727438 0.63238931 0
-0.21644129 2.7993417 -0.050486445 0
-0.21625055 2.8002059 0.062518045 0
-0.21692739 2.7971389 0.17579511 0
-0.21592303 2.8016901 0.29178074 0
-0.22701637 2.7514226 0.39714912 0
-0.23157348 2.730773 0.50902617 0
-0.23067649 2.7348375 0.63373649 0
-0.23757307 2.7955561 -0.050196342 0
-0.23303948 2.8174026 0.062992916 0
-0.23651589 2.8006504 0.1757234 0
-0.2354831 2.8056273 0.2917366 0
-0.24789445 2.7458186 0.39463583 0
-0.25038025 2.73384 0.50871402 0
-0.25045401 2.7334845 0.63147438 0
-0.2569204 2.7998931 -0.050212059 0
-0.25291115 2.8205149 0.06296207 0
-0.25200143 2.8251941 0.17798156 0
-0.25051719 2.8328283 0.29601198 0
-0.26570103 2.7547293 0.39596963 0
-0.26983362 2.7334731 0.50731921 0
-0.27236554 2.7204502 0.62439585 0
-0.27665496 2.802175 -0.050162025 0
-0.26701209 2.8553386 0.064090997 0
-0.26701504 2.8553224 0.18086582 0
-0.26786843 2.8506174 0.29858726 0
-0.28772655 2.7411346 0.39152306 0
-0.29205 2.7172985 0.50066555 0
-0.29043737 2.7261894 0.62534952 0
-0.29767692 2.7966187 -0.049837325 0
-0.30655774 2.7438838 0.3913863 0
-0.30904478 2.7291157 0.5035643 0
-0.30963111 2.7256339 0.62375402 0
-0.31610906 2.8062489 -0.050071519 0
-0.32571438 2.7444713 0.39075297 0
-0.33047047 2.7138822 0.49742186 0
-0.32656077 2.739028 0.62810785 0
-0.33621821 2.8053119 -0.049932607 0
-0.34434646 2.7483158 0.39102238 0
-0.34723452 2.7280648 0.5012666 0
-0.34619981 2.7353201 0.62539077 0
-0.35586777 2.807179 -0.049903981 0
-0.36614424 2.727999 0.38513565 0
-0.36748007 2.7177062 0.49694288 0
-0.36459291 2.7399518 0.6262632 0
-0.37498194 2.8134751 -0.050043505 0
-0.38588592 2.7202809 0.38256451 0
-0.3853974 2.7244561 0.49844164 0
-0.38587838 2.7203453 0.61712706 0
-0.39578074 2.8045919 -0.049646638 0
-0.40462437 2.7197666 0.38190845 0
-0.40476036 2.7184622 0.49575123 0
-0.4041712 2.7241132 0.61784488 0
-0.4146198 2.81408 -0.049918234 0
-0.42304841 2.7220087 0.38201979 0
-0.42333335 2.7188962 0.49529293 0
-0.42359418 2.716047 0.61373758 0
-0.43445373 2.8134291 -0.049834967 0
-0.44164413 2.7222517 0.38167873 0
-0.44284216 2.7070599 0.49081817 0
-0.4427281 2.7085063 0.60995406 0
-0.45411813 2.8144972 -0.049822211 0
-0.46070632 2.714983 0.37947732 0
-0.46177778 2.6987984 0.48762104 0
-0.4615021 2.7029624 0.60710239 0
-0.47334507 2.8236222 -0.05010638 0
-0.47983658 2.7024364 0.37599015 0
-0.48062712 2.6876783 0.48355314 0
-0.48012191 2.6971097 0.6042226 0
-0.49360588 2.8124733 -0.049674641 0
-0.49808797 2.7030118 0.37591699 0
-0.49823391 2.6994476 0.48718795 0
-0.49842349 2.6948178 0.60291702 0
-0.51304632 2.819633 -0.049906071 0
-0.51647884 2.6985133 0.37460753 0
-0.51675385 2.6888087 0.48343718 0
-0.51688486 2.6841855 0.59825277 0
-0.5326249 2.8285866 -0.050210252 0
-0.53473967 2.6942458 0.3734163 0
-0.53485233 2.6870925 0.48273364 0
-0.53486669 2.6861792 0.59891403 0
-0.55250007 2.8124835 -0.049628668 0
-0.55290645 2.6834385 0.37061536 0
-0.55292338 2.6780553 0.47967026 0
-0.55293792 2.6734457 0.59357131 0
-0.57216728 2.8174698 -0.049808901 0
-0.57096148 2.6897767 0.37224692 0
-0.57078296 2.6708689 0.47729805 0
-0.57077205 2.6697159 0.59205025 0
-0.59204388 2.8260465 -0.050126232 0
-0.58867222 2.6730494 0.36805081 0
-0.58842522 2.6618433 0.47438797 0
-0.58869392 2.6740355 0.59395534 0
-0.61145383 2.8145962 -0.049737226 0
-0.60605049 2.6586082 0.3644934 0
-0.60595262 2.6557825 0.47253755 0
-0.60612774 2.6608381 0.58869767 0
-0.63150835 2.8225334 -0.050049655 0
-0.62399298 2.6634853 0.36592394 0
-0.62319332 2.6465623 0.46970719 0
-0.62332565 2.6493623 0.58424145 0
-0.65071958 2.8126485 -0.049733941 0
-0.64110214 2.6520364 0.36324057 0
-0.63967144 2.628144 0.46388143 0
-0.6401602 2.636306 0.57921618 0
-0.6407426 2.6460328 0.70357633 0
-0.67150795 2.8275447 -0.050313625 0
-0.65746903 2.6339767 0.35891879 0
-0.65619707 2.6164382 0.46035859 0
-0.65775102 2.6378641 0.58034098 0
-0.65715367 2.6296282 0.69592863 0
-0.69005817 2.8113172 -0.049788125 0
-0.67424929 2.6257603 0.46392268 0
-0.6739859 2.6226683 0.57459718 0
-0.67301893 2.6113188 0.68741995 0
-0.7094745 2.8077097 -0.049723055 0
-0.69090563 2.6180263 0.46186537 0
-0.69052666 2.6141551 0.5717113 0
-0.69049734 2.6138551 0.68948096 0
-0.73032749 2.8174775 -0.050147105 0
-0.7074011 2.6102288 0.5708189 0
-0.70531553 2.5913761 0.67906296 0
-0.74752259 2.7951319 -0.049426071 0
-0.72301507 2.596508 0.56592762 0
-0.72289342 2.5955222 0.68214548 0
-0.76915067 2.8090816 -0.050019342 0
-0.73936206 2.590354 0.68064165 0
-0.7881031 2.8022192 -0.04987232 0
-0.75270635 2.564718 0.66888571 0
-0.80897349 2.8078294 -0.050184716 0
-0.82593197 2.7897739 -0.049649592 0
-0.84587187 2.7896135 -0.049771003 0
-0.86494523 2.7846904 -0.049728427 0
-0.88441807 2.7817616 -0.049767308 0
-0.90543735 2.7854993 -0.050059326 0
-0.92561793 2.7848563 -0.050201084 0
-0.94078493 2.7640512 -0.049609981 0
-0.96358639 2.7734003 -0.050138298 0
-0.97868097 2.753926 -0.049610246 0
-1.0031809 2.767689 -0.050324317 0
-1.0210104 2.7580953 -0.050180074 0
-1.0389222 2.7490785 -0.05006529 0
-1.0603123 2.7506554 -0.050357498 0
-1.0757958 2.7347312 -0.049999155 0
-1.0938021 2.72646 -0.049937338 0
-1.1114436 2.7173395 -0.049851451 0
-1.1319309 2.7156146 -0.050057333 0
-1.145864 2.6974232 -0.049639337 0
-1.1681567 2.6997662 -0.050021742 0
-1.1859142 2.6910608 -0.049986646 0
-1.2033433 2.6816823 -0.049933709 0
-1.2257081 2.6829355 -0.050308127 0
-1.2389492 2.6646941 -0.049922969 0
-1.2617812 2.6662796 -0.050333064 0
-1.266759 2.6325369 -0.049338818 0
-1.2922982 2.6390259 -0.049966495 0
-1.3101053 2.6304495 -0.049998507 0
-1.3276066 2.621278 -0.050015513 0
-1.3431134 2.6086388 -0.049898569 0
-1.3557144 2.5912876 -0.04959292 0
-1.3751667 2.585495 -0.049775805 0
-1.3860923 2.565959 -0.049390089 0
-1.4115688 2.5693183 -0.049981724 0
-1.4290919 2.5600073 -0.05004818 0
-1.4427415 2.5449607 -0.049876414 0
-1.4655656 2.5431392 -0.050288185 0
-1.4682516 2.5129888 -0.049467914 0
-1.5001692 2.5231447 -0.050434161 0
-1.5057348 2.497623 -0.049825724 0
-1.5240055 2.4890215 -0.04998159 0
-1.5417947 2.4796402 -0.050113808 0
-1.5518683 2.4607472 -0.04981764 0
-1.5664926 2.4475539 -0.049790703 0
-1.576262 2.4287884 -0.049508765 0
-1.6011722 2.4273331 -0.050056733 0
-1.6118238 2.4096763 -0.049843017 0
-1.6316074 2.4019921 -0.050120957 0
-1.644599 2.3869445 -0.050050128 0
-1.6606704 2.3750923 -0.050146643 0
-1.6771961 2.3635898 -0.050272342 0
-1.6807034 2.3393843 -0.049757548 0
-1.6917067 2.3227339 -0.049631506 0
-1.7122658 2.3149765 -0.04998035 0
-1.7292899 2.303719 -0.050160572 0
-1.7344198 2.2819045 -0.049781892 0
-1.7500719 2.269392 -0.049913477 0
-1.7598771 2.251904 -0.049779825 0
-1.7763245 2.2399042 -0.049962644 0
-1.2283083 1.7967936 0.51766819 0
-1.7922959 2.227361 -0.050128926 0
-1.2293476 1.7837819 0.51333588 0
-1.7976272 2.2064972 -0.049821846 0
-1.2292567 1.7701323 0.50832337 0
-1.8059864 2.1881645 -0.049664401 0
-1.2268927 1.7550461 0.50180233 0
-1.8237755 2.1768346 -0.049935155 0
-1.2361137 1.74874 0.50398093 0
-1.8371645 2.1621456 -0.050017178 0
-1.2468721 1.7434088 0.50731611 0
-1.8445655 2.1432471 -0.049846742 0
-1.2419933 1.7271043 0.49940085 0
-1.8607161 2.1303711 -0.050064407 0
-1.2350636 1.7098242 0.49023408 0
-1.8710556 2.113507 -0.050039336 0
-1.246309 1.7048945 0.49417681 0
-1.883486 2.0979905 -0.050111964 0
-1.240392 1.6888455 0.4860684 0
-1.8955665 2.0821934 -0.05017757 0
-1.2374305 1.675028 0.48022541 0
-1.9018681 2.0628633 -0.050010256 0
-1.2340329 1.6612358 0.47424567 0
-1.9167174 2.0486615 -0.050207715 0
-1.2445959 1.6558939 0.47801879 0
-1.9218949 2.0288062 -0.050014101 0
-1.2372493 1.6402006 0.4695982 0
-1.9278896 2.0095534 -0.049865361 0
-1.2364179 1.6285042 0.46578175 0
-1.9394846 1.9934111 -0.049954202 0
-1.9561734 1.9798366 -0.05025553 0
-1.9625225 1.9608217 -0.050148629 0
-1.9675881 1.9412622 -0.050000954 0
-1.9691739 1.920173 -0.049726546 0
-1.9711252 1.8994601 -0.049478505 0
-1.9898522 1.8863364 -0.049896657 0
-1.9884106 1.864292 -0.04953628 0
-2.0013831 1.8484498 -0.049744967 0
-2.0033579 1.8280818 -0.049537882 0
-2.0103869 1.8097993 -0.049534801 0
-2.0031524 1.7862675 -0.048997898 0
-1.9920487 1.7617658 -0.048328128 0
-2.0067122 1.7465101 -0.048644375 0
-2.0011685 1.724437 -0.04820786 0
-1.9943005 1.7022703 -0.047733948 0
-1.9938247 1.6823541 -0.047510356 0
-1.9926436 1.6623981 -0.047270708 0
-2.0002468 1.6449926 -0.047366086 0
-2.0097811 1.6280115 -0.047540445 0
-1.9991323 1.6059777 -0.046980444 0
-1.9967135 1.5862442 -0.046733785 0
-1.9986573 1.5676341 -0.046656284 0
-1.9897319 1.5468569 -0.046191469 0
-2.0040605 1.5308557 -0.046582524 0
-2.007844 1.5126927 -0.046597619 0
-2.0004098 1.4926633 -0.046215054 0
-2.0014 1.4741864 -0.046146572 0
-1.9974922 1.4550726 -0.045910046 0
-2.0021415 1.4372073 -0.045990497 0
-1.9983728 1.4183239 -0.04577646 0
-2.003794 1.4005182 -0.045900989 0
-1.9911437 1.3810244 -0.045385737 0
-2.0066245 1.3640215 -0.045886949 0
-1.9957637 1.3450009 -0.045453135 0
-1.9920431 1.3266437 -0.045283396 0
-1.995699 1.3086822 -0.045385543 0
-1.9977922 1.2906064 -0.045439921 0
-1.9881099 1.2723411 -0.045081992 0
-2.0101016 1.2543254 -0.045863066 0
-1.1278799 0.26436794 -0.049709089 0
-0.38734621 0.2643699 0.41622326 0
-0.38774145 0.2643699 0.4924677 0
-1.1293209 0.24470061 -0.049764954 0
-0.39656419 0.25392959 0.42086831 0
-1.1267992 0.22509059 -0.049688168 0
-0.40212911 0.2433458 0.35169366 0
-0.40999496 0.24314766 0.42768908 0
-1.1222681 0.20560759 -0.049548373 0
-0.51258248 0.22865082 0.10764442 0
-0.52682406 0.22811256 0.17914402 0
-1.2411128 0.20111583 0.43330795 0
-1.2405422 0.20113739 0.56302291 0
-1.2386913 0.20120735 0.69844484 0
-1.1260492 0.18580118 -0.049714386 0
-0.50885981 0.21691461 0.1073003 0
-0.50023651 0.21734932 0.17443909 0
-1.2498438 0.17956051 0.43577567 0
-1.2351459 0.18030146 0.56153476 0
-1.2351817 0.18029965 0.69737458 0
-1.1323816 0.16571347 -0.049980722 0
-0.51274472 0.20477767 0.10779103 0
-0.50785643 0.20508586 0.1759364 0
-1.2364153 0.1591548 0.43264991 0
-1.2375357 0.15908419 0.56272835 0
-1.1415621 0.14521867 -0.050358333 0
-0.50677657 0.19326939 0.10723675 0
-0.51460284 0.19267696 0.17730509 0
-1.2424847 0.13757922 0.43457565 0
-1.2376049 0.1379486 0.56323791 0
-1.1256359 0.12667206 -0.049845774 0
-0.5211001 0.18009636 0.10888672 0
-0.51131797 0.18096082 0.17688739 0
-1.2400423 0.11656167 0.43439302 0
-1.2361211 0.11690821 0.56331819 0
-1.1225442 0.10718838 -0.049801484 0
-0.49739563 0.1703766 0.10644902 0
-0.50651282 0.16945507 0.17622031 0
-1.2417814 0.095136233 0.43535021 0
-1.2408733 0.095228024 0.56557238 0
-1.1306813 0.086455025 -0.050169405 0
-0.51598674 0.15641598 0.040082339 0
-0.50500607 0.15766574 0.10740818 0
-0.5195505 0.15601037 0.17881727 0
-1.2450683 0.073436163 0.43677548 0
-1.2331642 0.074791022 0.5637486 0
-1.1221608 0.067565568 -0.049947862 0
-0.50481421 0.14571413 0.039731905 0
-0.50823343 0.1452813 0.10791138 0
-0.51579678 0.14432387 0.17839663 0
-1.2386119 0.052824263 0.43576756 0
-1.2352856 0.05324534 0.56530482 0
-1.1206253 0.047857005 -0.049986277 0
-0.51123971 0.13280672 0.040020056 0
-0.50826943 0.13322078 0.10808609 0
-0.51861852 0.13177809 0.17919938 0
-1.2417459 0.030972514 0.43729514 0
-1.2425184 0.030864824 0.56867176 0
-1.1231143 0.027505074 -0.050179064 0
-0.51104254 0.1207002 0.040075459 0
-0.51108855 0.12069318 0.10858016 0
-0.50918704 0.12098271 0.17779715 0
-1.2479984 0.0084900158 0.43970138 0
-1.2432379 0.0092148678 0.56994802 0
-1.1076771 0.0099730389 -0.049732849 0
-0.52177054 0.1067476 0.040531818 0
-0.51095134 0.10853463 0.10877043 0
-0.50682914 0.10921549 0.17770982 0
-1.2349876 -0.011054884 0.43720454 0
-1.2476213 -0.013141642 0.57255423 0
-1.111928 -0.010749589 -0.050007585 0
-0.51452982 0.095666938 0.040343959 0
-0.51309574 0.095922403 0.10922687 0
-0.5084576 0.096748613 0.17837964 0
-1.2384596 -0.033289086 0.43903729 0
-1.2417089 -0.033867877 0.57178205 0
-1.1055562 -0.029642116 -0.049906347 0
-0.52030528 0.082231127 0.040633824 0
-0.515567 0.083136864 0.10973753 0
-0.51110595 0.083989613 0.17926715 0
-1.2415147 -0.055631142 0.44083878 0
-1.2458321 -0.056456458 0.57449555 0
-1.1057088 -0.049797487 -0.050051246 0
-0.50722021 0.072436698 0.040243346 0
-0.51769108 0.070298158 0.11022907 0
-0.51569045 0.070706762 0.18054286 0
-1.236165 -0.076441623 0.4405295 0
-1.238554 -0.076929547 0.57344109 0
-1.094542 -0.06759993 -0.049792245 0
-0.50283051 0.061031882 0.040173985 0
-0.51176566 0.059089471 0.10985443 0
-0.51770294 0.057798777 0.1813782 0
-1.2369176 -0.098550893 0.44188094 0
-1.237397 -0.098655082 0.57455534 0
-1.0971004 -0.088383324 -0.050043561 0
-0.51433933 0.046008904 0.040692169 0
-0.51871115 0.045000706 0.11091377 0
-0.5242154 0.04373135 0.1830789 0
-1.2416856 -0.12172655 0.44436046 0
-1.2387203 -0.12104271 0.57661307 0
-1.0943967 -0.10806889 -0.050111879 0
-0.50560027 0.03554647 0.040474821 0
-0.51327693 0.03367402 0.11062653 0
-0.52180237 0.031594548 0.18316075 0
-1.2344387 -0.14222701 0.44376883 0
-1.2353971 -0.14246081 0.57718223 0
-1.0900681 -0.12738939 -0.050129648 0
-0.55146211 0.011191715 0.04227443 0
-0.55663955 0.0098596113 0.11576912 0
-0.5683006 0.006859262 0.19237967 0
-1.2514207 -0.16890477 0.44962618 0
-1.2414249 -0.16633289 0.58105814 0
-1.0902767 -0.1479546 -0.050324272 0
-0.6083647 -0.017469537 0.04449987 0
-0.61750925 -0.019945573 0.12291184 0
-1.2291243 -0.18554975 0.3164705 0
-1.2376655 -0.18786241 0.44746768 0
-1.2441211 -0.18961035 0.58390236 0
-1.0760908 -0.16457312 -0.049994923 0
-0.68933344 -0.054607522 0.04763991 0
-0.68928659 -0.05459423 0.13134071 0
-1.2293708 -0.20815472 0.31760359 0
-1.2345538 -0.20962842 0.44818777 0
-1.2429149 -0.21200569 0.58550829 0
-1.0709323 -0.18364249 -0.050008409 0
-0.77966833 -0.096849866 0.051158056 0
-0.77575076 -0.095682479 0.14149709 0
-1.2275048 -0.23029892 0.31839687 0
-1.2430117 -0.23491974 0.45206344 0
-1.2384608 -0.23356365 0.58609039 0
-1.0702301 -0.20411439 -0.05019756 0
-0.87891841 -0.14447333 0.055043284 0
-0.87458241 -0.14312159 0.15314375 0
-1.238368 -0.25653103 0.32165051 0
-1.2326255 -0.2547408 0.45100337 0
-1.2459519 -0.25889531 0.59093201 0
-1.0561581 -0.22037639 -0.04989516 0
-0.99108624 -0.1991878 0.059451956 0
-0.97553611 -0.19412439 0.16514546 0
-1.2419112 -0.28086105 0.32359165 0
-1.2395359 -0.28008762 0.45464677 0
-1.2416874 -0.28078815 0.59179169 0
-1.0590974 -0.24219356 -0.050240558 0
-1.1260439 -0.26492885 0.064764701 0
-1.1158751 -0.26147547 0.18174146 0
-1.2381147 -0.30298844 0.32420141 0
-1.245183 -0.30538884 0.45805117 0
-1.0397903 -0.25640371 -0.049755435 0
-1.3017899 -0.34907511 0.20370337 0
-1.2299564 -0.32366702 0.32403266 0
-1.2365119 -0.32598576 0.45768204 0
-1.0346141 -0.27545199 -0.049812414 0
-1.2532222 -0.35588643 0.19904199 0
-1.240543 -0.35122123 0.32751524 0
-1.2377844 -0.35020629 0.46008471 0
-1.0310372 -0.295158 -0.049939938 0
-1.2448869 -0.37691328 0.19899692 0
-1.2404199 -0.37520549 0.32901365 0
-1.2358452 -0.37345663 0.46170485 0
-1.0284014 -0.31533757 -0.050113752 0
-1.2508873 -0.40362105 0.20063964 0
-1.2347806 -0.39722982 0.32950771 0
-1.2424932 -0.40029022 0.46577027 0
-1.0309939 -0.33780435 -0.050500099 0
-1.2568898 -0.43074986 0.20233014 0
-1.2369553 -0.42254779 0.33158219 0
-1.2366494 -0.42242184 0.46650356 0
-1.0089339 -0.35006252 -0.049942724 0
-1.2495432 -0.45262304 0.20251001 0
-1.2266576 -0.44286802 0.33128494 0
-1.239612 -0.44838986 0.46976027 0
-0.994398 -0.36521414 -0.049681857 0
-1.2568839 -0.48102662 0.20444842 0
-1.2473152 -0.47680476 0.33713832 0
-1.2352737 -0.4714919 0.47109011 0
-0.991027 -0.38526192 -0.049865093 0
-1.2382529 -0.49808148 0.20337206 0
-1.2482804 -0.50265741 0.3392061 0
-1.2473142 -0.50221652 0.47710225 0
-0.98525977 -0.40432593 -0.049964774 0
-1.2430781 -0.5259245 0.20510186 0
-1.2406559 -0.52478206 0.33963811 0
-1.2501268 -0.52924895 0.48065597 0
-0.98116386 -0.4242858 -0.050140947 0
-1.5024357 -0.6782127 0.082841635 0
-1.2472248 -0.5538919 0.20680298 0
-1.237837 -0.54931885 0.34109256 0
-1.2407252 -0.55072576 0.48086154 0
-0.9729867 -0.44233617 -0.050165161 0
-1.4516798 -0.6830259 0.081293814 0
-1.2451746 -0.57919389 0.20781171 0
-1.2363235 -0.57474345 0.34288192 0
-1.2372215 -0.57519501 0.48282969 0
-0.95654404 -0.45612213 -0.049866222 0
-1.4013181 -0.68681848 0.079754129 0
-1.2425086 -0.60444689 0.20879097 0
-1.2408739 -0.60359901 0.34597984 0
-0.95258975 -0.47635087 -0.050077867 0
-1.3532836 -0.69062883 0.078300193 0
-1.2359649 -0.62789059 0.20934285 0
-1.2546479 -0.63788164 0.35105908 0
