# .PCD v0.7 - Point Cloud Data file format
VERSION 0.7
FIELDS x y z intensity
SIZE 4 4 4 4
TYPE F F F F
COUNT 1 1 1 1
WIDTH 1315
HEIGHT 1
VIEWPOINT 0 0 0 1 0 0 0
POINTS 1315
DATA ascii
2.8195226 1.0153496 -0.14082734 0
4.2356224 2.0225251 -0.14094941 0
8.4726715 5.0360498 -0.14073852 0
0.71992862 -0.45012477 -0.090051435 0
0.81385618 -0.37968543 -0.090407334 0
0.93282896 -0.29046384 -0.090462916 0
1.0846311 -0.17662242 -0.089387663 0
1.0993618 -0.16557536 -0.059489656 0
1.1014951 -0.16397551 -0.027429214 0
1.1042956 -0.1618754 0.0045577977 0
1.1029389 -0.16289285 0.036845487 0
1.0950335 -0.16882131 0.069174714 0
1.0950058 -0.16884217 0.10100944 0
1.1039729 -0.16211739 0.13310464 0
1.0965854 -0.16765746 0.16480395 0
1.1019398 -0.16364202 0.1972561 0
0.71422464 -0.42573383 -0.092253529 0
0.79923642 -0.35856375 -0.09065219 0
0.91398889 -0.26789466 -0.090272047 0
1.053407 -0.15773681 -0.087529458 0
1.1067237 -0.11560979 -0.063734017 0
1.1016586 -0.11961183 -0.029967507 0
1.0985808 -0.12204364 0.0031756184 0
1.0965134 -0.12367722 0.035968777 0
1.1056508 -0.11645749 0.068236351 0
1.1051888 -0.11682251 0.10101058 0
1.1081516 -0.11448154 0.13385916 0
1.101577 -0.1196762 0.16635273 0
1.104745 -0.11717317 0.19939511 0
0.69361562 -0.41304448 -0.090549462 0
0.78320551 -0.33850953 -0.090685792 0
0.90042734 -0.24098602 -0.091326185 0
1.0253134 -0.13708624 -0.086290441 0
1.0921634 -0.081469804 -0.064925306 0
1.1046733 -0.071062237 -0.033040393 0
1.1021292 -0.073178679 0.00083123357 0
1.099023 -0.075763017 0.034473035 0
1.0989007 -0.075864762 0.067763805 0
1.097945 -0.076659828 0.10101113 0
1.1049495 -0.070832461 0.13444197 0
1.1023827 -0.072967857 0.16775322 0
1.1033987 -0.072122604 0.20130728 0
0.67715609 -0.39724019 -0.090069242 0
0.76379502 -0.3213807 -0.08999943 0
0.87450266 -0.22444716 -0.089849956 0
1.0066298 -0.10875914 -0.086877815 0
1.1049455 -0.022675719 -0.070523016 0
1.1022087 -0.025072064 -0.035652507 0
1.1049838 -0.022642221 -0.0016143823 0
1.0940753 -0.032193508 0.033331309 0
1.1004628 -0.026600745 0.066992514 0
1.1017389 -0.025483336 0.10101216 0
1.0972883 -0.029380288 0.13493343 0
1.0987263 -0.02812114 0.16898078 0
1.1014457 -0.025740113 0.20331034 0
1.0978965 -0.02884772 0.23714229 0
1.0955991 -0.030859318 0.37509236 0
0.65921563 -0.38293537 -0.089263745 0
0.75514001 -0.29457197 -0.092160769 0
0.85733145 -0.20043555 -0.090387292 0
0.97039419 -0.096284717 -0.084260352 0
1.0515357 -0.021538999 -0.065967314 0
1.1022654 0.025191937 -0.03879163 0
1.0995932 0.022730384 -0.0034536326 0
1.1017019 0.02467278 0.03129803 0
1.0999755 0.023082528 0.066229016 0
1.0911224 0.014927302 0.10101271 0
1.1043925 0.027151499 0.13593712 0
1.1107903 0.033044849 0.17130437 0
1.1038054 0.026610646 0.20588084 0
1.0971671 0.020495567 0.24017125 0
1.0338911 -0.037792947 0.36556876 0
0.6537056 -0.3568323 -0.092223085 0
0.73440415 -0.27864 -0.091382556 0
0.83427829 -0.18186751 -0.089728914 0
0.83944613 -0.17686018 -0.063105322 0
0.84465021 -0.17181769 -0.036327336 0
0.83797199 -0.17828849 -0.0078138616 0
0.83960938 -0.17670205 0.019334504 0
0.84061462 -0.17572799 0.046541598 0
0.83690137 -0.17932591 0.073907644 0
0.84024942 -0.17608187 0.10100376 0
0.84198129 -0.17440376 0.12826452 0
0.84300679 -0.17341009 0.15562136 0
0.83470058 -0.18145832 0.18219507 0
1.1011353 0.076701909 0.24404611 0
1.0062085 -0.015276756 0.2977604 0
1.0047259 -0.016713407 0.33075812 0
0.98999208 -0.030989613 0.3604365 0
0.63345164 -0.3447313 -0.090982221 0
0.71426177 -0.26237729 -0.090850495 0
0.81234342 -0.16242173 -0.089424454 0
0.83320332 -0.14116332 -0.066019334 0
0.84249258 -0.13169661 -0.039453913 0
0.83878458 -0.13547543 -0.01068469 0
0.84081602 -0.13340518 0.017140942 0
0.83679235 -0.13750574 0.045413464 0
0.83562803 -0.13869229 0.073262662 0
0.83926278 -0.13498804 0.10100456 0
0.83614099 -0.1381695 0.12876329 0
0.83685839 -0.13743839 0.15660001 0
0.83557254 -0.13874885 0.18434484 0
0.85124743 -0.12277445 0.21435633 0
1.0990744 0.12978724 0.28430131 0
0.95388228 -0.018178787 0.292254 0
0.95092154 -0.021196093 0.32396334 0
0.95553517 -0.016494241 0.35775635 0
0.61135697 -0.33501384 -0.089227758 0
0.69919282 -0.24086121 -0.091816597 0
0.79380161 -0.13944867 -0.090045862 0
0.834876 -0.095420331 -0.070827089 0
0.84577805 -0.083734244 -0.043769959 0
0.84040266 -0.089496225 -0.013890317 0
0.83639777 -0.09378913 0.01535322 0
0.8489508 -0.080333382 0.043098811 0
0.83672065 -0.093443066 0.072484873 0
0.83628684 -0.093908042 0.10100535 0
0.83267379 -0.097780913 0.12938765 0
0.84440267 -0.085208565 0.15860234 0
0.83664 -0.093529493 0.18668269 0
0.83042651 -0.10018978 0.21453609 0
1.0992383 0.1879535 0.2892293 0
0.93500215 0.011906419 0.29347524 0
0.92886686 0.0053298804 0.32460776 0
0.92136925 -0.0027069116 0.35518289 0
0.59953082 -0.31432274 -0.090789966 0
0.67673361 -0.22726414 -0.090864666 0
0.77721614 -0.1139538 -0.091311492 0
0.83795184 -0.045464482 -0.076311879 0
0.84517121 -0.037323382 -0.047735143 0
0.83627665 -0.047353473 -0.0165413 0
0.84274864 -0.040055241 0.012275325 0
0.85030693 -0.031532075 0.041375518 0
0.8351872 -0.048581984 0.071737207 0
0.83844566 -0.044907536 0.10100643 0
0.84586394 -0.036542263 0.13065048 0
0.84692669 -0.035343852 0.16040105 0
0.83321708 -0.050803628 0.18873313 0
0.84903109 -0.032970753 0.22035004 0
1.0946327 0.24398485 0.29371405 0
1.103537 0.25402585 0.33460364 0
0.57484418 -0.30829516 -0.088327236 0
0.66218418 -0.20465091 -0.092294671 0
0.7266354 -0.12816826 -0.084106945 0
0.84817827 0.016063605 -0.083793692 0
0.8439486 0.011044417 -0.051918436 0
0.84341723 0.010413859 -0.02105662 0
0.84167451 0.0083457567 0.0097644795 0
0.8399055 0.0062465998 0.040361613 0
0.84322119 0.010181163 0.070581369 0
0.84229809 0.0090857483 0.10100767 0
0.84099114 0.007534835 0.13135344 0
0.84088558 0.0074096057 0.16172457 0
0.84414226 0.011274133 0.19251911 0
0.83625919 0.0019196008 0.22203524 0
0.83857036 0.0046621892 0.25295901 0
1.0976601 0.31211737 0.34024227 0
0.57076722 -0.27743158 -0.092847191 0
0.63223195 -0.20064166 -0.089297302 0
0.72580546 -0.083737344 -0.089663722 0
0.85429555 0.076789528 -0.090934716 0
0.85045189 0.07198754 -0.057905395 0
0.83112937 0.047847304 -0.023028886 0
0.84228057 0.061778817 0.0068507288 0
0.84298307 0.062656432 0.038241129 0
0.83365345 0.051000748 0.069989108 0
0.84031898 0.059328113 0.10100874 0
0.84251648 0.062073622 0.13235839 0
0.84503967 0.065225869 0.16393018 0
0.83768177 0.056033406 0.19465241 0
0.84225714 0.061749492 0.22670935 0
0.83346051 0.050759707 0.25674546 0
1.0986059 0.38201419 0.34792119 0
1.1028663 0.38733688 0.39087671 0
0.54932439 -0.26762542 -0.091687612 0
0.61958873 -0.17515263 -0.09161859 0
0.7033298 -0.064943582 -0.089827575 0
0.73676473 -0.020940926 -0.069944955 0
0.72639996 -0.034581687 -0.039166246 0
0.72321725 -0.038770344 -0.01045808 0
0.72600555 -0.035100725 0.017191248 0
0.72824043 -0.032159474 0.045007534 0
0.72559744 -0.035637822 0.073122852 0
0.73458308 -0.023812141 0.10100501 0
0.73240513 -0.026678469 0.12914863 0
0.72977811 -0.030135836 0.15712051 0
0.72831976 -0.032055106 0.18508594 0
0.72974509 -0.030179229 0.21347536 0
0.72464418 -0.036892381 0.2408371 0
0.72985232 -0.030038085 0.27035022 0
0.72846758 -0.031860497 0.29866767 0
0.72785491 -0.032666888 0.32733616 0
0.5291118 -0.25655821 -0.091022469 0
0.59719044 -0.16210642 -0.091083907 0
0.6739018 -0.055677619 -0.088174231 0
0.7288816 0.020600948 -0.073978819 0
0.95388246 0.33276549 -0.089496188 0
0.84405506 0.1803917 -0.033612851 0
0.83206964 0.1637632 0.0016041195 0
0.83612281 0.16938654 0.034476895 0
0.84284014 0.17870608 0.067494936 0
0.84134972 0.17663839 0.10101143 0
0.83683628 0.17037645 0.13428879 0
0.83820003 0.17226842 0.16771123 0
0.83954549 0.17413512 0.20131278 0
0.83917022 0.17361453 0.23485644 0
0.84304136 0.17898539 0.26936549 0
0.84296763 0.17888299 0.30342349 0
1.1015481 0.53763551 0.410427 0
0.51388204 -0.2384508 -0.092313506 0
0.57976437 -0.14200619 -0.092297532 0
0.6558075 -0.030687239 -0.089828037 0
0.77022499 0.13680747 -0.090685479 0
0.91982037 0.35579899 -0.089412905 0
1.1570605 0.70309287 -0.09033639 0
0.85311145 0.25814441 -0.0046422761 0
0.8404299 0.23957995 0.031686608 0
0.83303696 0.22875753 0.066673242 0
0.83807749 0.23613623 0.10101277 0
0.83462226 0.23107818 0.13541733 0
0.8397609 0.23860052 0.17028406 0
0.83769566 0.23557737 0.20475757 0
0.8382898 0.23644701 0.23961316 0
0.83861375 0.23692134 0.2746138 0
0.84442276 0.24542502 0.31119943 0
1.0991216 0.61827654 0.42105114 0
1.098747 0.61772817 0.46765053 0
0.48981783 -0.23341265 -0.090373449 0
0.5517146 -0.13770416 -0.090047352 0
0.63435107 -0.0099265836 -0.090717368 0
0.73710173 0.14895275 -0.089529805 0
0.88571924 0.37875417 -0.089440756 0
1.1080182 0.7224862 -0.08930961 0
1.4877249 1.3096118 -0.090425588 0
0.84170836 0.31070188 0.028896051 0
0.84355843 0.31356254 0.06489563 0
0.83816004 0.30521527 0.10101441 0
0.84285653 0.31247726 0.13710368 0
0.84248716 0.31190601 0.17320018 0
0.84212077 0.31133953 0.20934378 0
0.83946699 0.30723622 0.24518046 0
0.84167153 0.31064489 0.28199136 0
0.83612376 0.30206659 0.31718576 0
0.84330416 0.31316939 0.35598752 0
1.0964347 0.70457524 0.48103711 0
0.47890961 -0.20771506 -0.093762986 0
0.53010964 -0.12398669 -0.090067856 0
0.60921252 0.0053719017 -0.090645991 0
0.71145791 0.17257574 -0.090421341 0
0.85268247 0.40352312 -0.089835502 0
1.0643336 0.74964041 -0.089284144 0
1.426224 1.3414469 -0.090020351 0
0.85068661 0.40025929 0.02514396 0
0.8496455 0.39855674 0.063147359 0
0.841555 0.38532606 0.10101639 0
0.84062713 0.38380876 0.13848345 0
0.83832288 0.38004056 0.17578536 0
0.83442885 0.37367263 0.21274924 0
0.83931184 0.38165787 0.25105697 0
0.84134412 0.3849813 0.28932941 0
0.83754969 0.3787761 0.32642239 0
0.83489412 0.37443343 0.36377811 0
1.1003318 0.80850893 0.49800536 0
0.44994539 -0.21165308 -0.089897715 0
0.50789422 -0.11128303 -0.089987062 0
0.58012331 0.013821159 -0.08939717 0
0.68436837 0.19437853 -0.091110446 0
0.82264328 0.43387726 -0.091091655 0
1.030905 0.79459637 -0.091297485 0
1.3624878 1.3689134 -0.089394577 0
1.3706681 1.3830819 -0.02656064 0
0.84867507 0.47896555 0.061551616 0
0.84105855 0.46577337 0.10101836 0
0.83907169 0.46233204 0.14003837 0
0.83494902 0.4551914 0.17871654 0
0.84197652 0.46736339 0.21865469 0
0.84060609 0.46498969 0.25780994 0
0.8426097 0.46845999 0.29779693 0
0.84045082 0.46472076 0.33701891 0
0.83736104 0.45936909 0.37599066 0
0.84356093 0.47010759 0.4184736 0
0.42990083 -0.20108911 -0.089772753 0
0.49311265 -0.084929913 -0.092955358 0
0.55511951 0.029015098 -0.089565702 0
0.65634912 0.2150363 -0.091717131 0
0.78303623 0.44783893 -0.09025117 0
0.97908801 0.8081072 -0.090032138 0
1.2962075 1.3908517 -0.088466294 0
1.2918738 1.3828878 -0.024758717 0
1.2884443 1.3765857 0.038345251 0
0.8512463 0.573183 0.10102118 0
0.83718365 0.54734129 0.14174525 0
0.83745021 0.547831 0.18254039 0
0.83803821 0.54891151 0.22349718 0
0.84338945 0.55874509 0.26557571 0
0.84192264 0.55604964 0.30669206 0
0.83977425 0.55210179 0.34768915 0
0.84312868 0.55826586 0.39063823 0
0.83961487 0.55180877 0.43153808 0
0.40755159 -0.19506064 -0.088687934 0
0.46635783 -0.080185145 -0.091392837 0
0.53023392 0.044594083 -0.089920498 0
0.62136352 0.22261193 -0.090363048 0
0.75044709 0.47477117 -0.091256581 0
0.93350506 0.83236724 -0.090048216 0
1.2450764 1.4410086 -0.089898385 0
1.2445147 1.4399111 -0.026077097 0
1.2467834 1.4443431 0.03740425 0
1.2475026 1.4457481 0.10104849 0
0.85236239 0.67385846 0.14451836 0
0.83835477 0.64649516 0.18662733 0
0.83909643 0.64794403 0.22965972 0
0.8438825 0.65729338 0.27373737 0
0.84143233 0.65250701 0.31664029 0
0.83922964 0.64820415 0.35960272 0
0.83641583 0.64270753 0.40240103 0
0.84241128 0.65441936 0.44888201 0
0.3931714 -0.17300752 -0.091529064 0
0.44338202 -0.068503469 -0.091440685 0
0.50445628 0.058611069 -0.090101443 0
0.58911246 0.23480704 -0.089884065 0
0.71003884 0.48649266 -0.090384938 0
0.89153612 0.86424512 -0.090972878 0
1.180128 1.464895 -0.089376412 0
1.784268 2.7222991 -0.090731062 0
4.5036149 8.3821096 -0.14076374 0
0.85354722 0.78517836 0.19273339 0
0.83686912 0.75046605 0.23601684 0
0.84170216 0.76052517 0.28228477 0
0.83614832 0.74896592 0.32647052 0
0.83938694 0.75570649 0.37315315 0
0.83946085 0.75586027 0.41929027 0
0.83895105 0.75479919 0.46553591 0
0.3682504 -0.17271098 -0.089352362 0
0.41655549 -0.065312117 -0.089855023 0
0.47931358 0.074220687 -0.090685301 0
0.56007588 0.25378302 -0.090581559 0
0.67153728 0.50160033 -0.090088524 0
0.84216273 0.88095945 -0.090444215 0
1.1212157 1.5013902 -0.089953266 0
1.6925899 2.7717516 -0.091018967 0
4.2638254 8.4884949 -0.14065571 0
1.0676686 1.3823364 0.2221833 0
0.8530525 0.90517098 0.24630998 0
0.83793133 0.87155157 0.29153967 0
0.8438673 0.88474911 0.34124905 0
0.84083492 0.87800723 0.3888315 0
0.83886153 0.87361962 0.43680555 0
0.84046692 0.87718898 0.48656723 0
0.34577712 -0.1678808 -0.088389538 0
0.39112845 -0.059841957 -0.088890605 0
0.45172176 0.084507257 -0.090427957 0
0.52801245 0.26625195 -0.090392239 0
0.63387686 0.51844889 -0.090139769 0
0.79525167 0.90288633 -0.090575643 0
1.0629044 1.5405054 -0.09083607 0
1.5925514 2.8022645 -0.090465046 0
4.0232115 8.5927391 -0.14064829 0
0.99813771 1.3862145 0.22105698 0
0.8532244 1.0409927 0.25503069 0
0.83769172 1.0039896 0.30287567 0
0.84002072 1.0095379 0.35445285 0
0.83961225 1.0085649 0.40559813 0
0.84018654 1.009933 0.45744747 0
0.84383541 1.0186255 0.51126122 0
0.32703516 -0.15408179 -0.089612804 0
0.37312013 -0.036034372 -0.091773815 0
0.42583212 0.098988324 -0.091036655 0
0.49207196 0.26866272 -0.088810109 0
0.59908146 0.54276937 -0.091247834 0
0.74392098 0.91377825 -0.089719318 0
0.99429023 1.5551033 -0.08998125 0
1.5000401 2.85059 -0.090933599 0
3.7767897 8.6825228 -0.14043239 0
0.92583269 1.3797481 0.21951234 0
0.85246664 1.1918199 0.26479271 0
0.83548492 1.1483209 0.3152937 0
0.8435114 1.1688807 0.37187701 0
0.84035581 1.1607978 0.42547661 0
0.84127909 1.1631627 0.48086688 0
0.84303343 1.1676564 0.53723204 0
0.31045291 -0.13341394 -0.092484958 0
0.34678218 -0.032943513 -0.090573035 0
0.40102673 0.11707249 -0.092384271 0
0.43593255 0.21360615 -0.078790613 0
0.4359372 0.21361902 -0.04852644 0
0.43922192 0.22270313 -0.019326231 0
0.93528396 1.5945871 -0.09111353 0
1.4036837 2.8899693 -0.091071166 0
3.5372987 8.7905865 -0.14082487 0
0.86202627 1.3919895 0.21899985 0
0.84920561 1.3565331 0.27550068 0
0.84147769 1.3351612 0.33182642 0
0.83906704 1.3284945 0.38916567 0
0.84151316 1.3352592 0.44849503 0
0.83810997 1.3258476 0.50572193 0
0.83657491 1.3216023 0.5639559 0
0.28681222 -0.13172087 -0.091175787 0
0.32250208 -0.024644043 -0.090548985 0
0.37038407 0.11901155 -0.091032587 0
0.40554485 0.22450092 -0.07883554 0
0.40150174 0.21237078 -0.04706784 0
0.40745676 0.23023704 -0.019017516 0
0.86780876 1.6113856 -0.0906749 0
1.3044008 2.9212494 -0.090929992 0
3.2908947 8.8811321 -0.14093353 0
0.7968027 1.3983531 0.21828234 0
0.84788132 1.5515995 0.2883637 0
0.84279692 1.5363452 0.34961793 0
0.83892214 1.52472 0.41083616 0
0.84423828 1.5406694 0.47590294 0
0.8394146 1.5261974 0.5369103 0
0.83964342 1.5268841 0.60068393 0
0.26250404 -0.13322642 -0.089298926 0
0.29800627 -0.017016914 -0.090513878 0
0.33922493 0.11790422 -0.089301176 0
0.3822476 0.25873044 -0.082422234 0
0.38332769 0.26226583 -0.051977072 0
0.38121057 0.25533584 -0.020504056 0
0.7265811 1.3858378 -0.072649337 0
0.72424865 1.3782029 -0.014276212 0
0.72536445 1.3818552 0.043324847 0
0.72406518 1.3776026 0.10104105 0
0.72532672 1.3817317 0.15875459 0
0.72828847 1.3914266 0.21700315 0
0.84085423 1.7598882 0.3020978 0
0.8329922 1.7341535 0.36693996 0
0.83480948 1.7401021 0.43468294 0
0.83823723 1.751322 0.50386107 0
0.83286864 1.7337489 0.56909162 0
0.24290293 -0.11941603 -0.090950169 0
0.27398822 -0.0076460508 -0.090941243 0
0.31212574 0.12948087 -0.089880295 0
0.36438948 0.31739989 -0.089634977 0
0.44005287 0.58945447 -0.090546094 0
0.54953241 0.98309797 -0.090120785 0
0.6603291 1.3814774 -0.071059339 0
0.65760618 1.3716869 -0.013115941 0
0.66037792 1.3816531 0.043752588 0
0.66195858 1.3873363 0.10104082 0
0.65852839 1.3750029 0.15816791 0
0.65906197 1.3769212 0.21545021 0
0.8126176 1.9290442 0.31290692 0
0.815579 1.9396925 0.38491446 0
0.8118459 1.9262695 0.45482999 0
0.81319588 1.9311237 0.52714396 0
0.80875224 1.9151461 0.59661317 0
0.22079265 -0.11392906 -0.090875618 0
0.24975905 0.0014213059 -0.091425069 0
0.28201666 0.12987795 -0.088677622 0
0.3338027 0.33610097 -0.091076396 0
0.39822793 0.59265584 -0.089657463 0
0.49960726 0.99636966 -0.090126462 0
0.59716976 1.3848841 -0.070160158 0
0.59838057 1.3897059 -0.013221694 0
0.59819281 1.3889582 0.043958209 0
0.59836179 1.389631 0.10104042 0
0.59592921 1.3799441 0.15790604 0
0.59377509 1.3713658 0.21442145 0
0.76704448 2.0613611 0.32104185 0
0.76878142 2.0682781 0.3954075 0
0.76990533 2.0727537 0.47013569 0
0.76686203 2.0606346 0.5430817 0
0.19932142 -0.10560957 -0.091540478 0
0.22549616 0.011004958 -0.092124261 0
0.25587425 0.14634648 -0.090317167 0
0.29799533 0.33400574 -0.089625873 0
0.35629049 0.59372431 -0.088645197 0
0.44747636 0.99997848 -0.089328624 0
0.55281037 1.4692659 -0.075182401 0
0.55305475 1.4703548 -0.016386656 0
0.55534965 1.4805791 0.042116005 0
0.55133533 1.4626944 0.10104214 0
0.55380934 1.4737165 0.15980548 0
0.55136138 1.4628105 0.21811129 0
0.71238083 2.1801896 0.32824638 0
0.7158792 2.1957757 0.40585062 0
0.71240067 2.1802781 0.48081326 0
0.71494436 2.1916106 0.5593096 0
0.17804959 -0.095396608 -0.092730068 0
0.19757792 0.0031845307 -0.08959607 0
0.22610502 0.14719239 -0.089441948 0
0.26442379 0.34062985 -0.089561589 0
0.3201775 0.62208074 -0.091015615 0
0.39987707 1.0244129 -0.090641953 0
0.41528147 1.102176 -0.048084158 0
0.41615829 1.1066022 0.0015007129 0
0.41448641 1.0981624 0.051493034 0
0.41698673 1.1107843 0.10103152 0
0.41550839 1.1033216 0.15069191 0
0.4162263 1.1069455 0.20057864 0
0.41560918 1.1038303 0.25026527 0
0.4151772 1.1016495 0.30005488 0
0.41330674 1.0922074 0.34909216 0
0.40524703 1.0515211 0.39346969 0
0.29480648 0.49400499 0.34957811 0
0.27059001 0.37175754 0.36238897 0
0.15386012 -0.10039523 -0.090749703 0
0.17390934 0.016173277 -0.091190778 0
0.19852608 0.15929809 -0.09057381 0
0.23286074 0.35892394 -0.091282807 0
0.2786952 0.62541121 -0.090516321 0
0.34718817 1.0236375 -0.089676 0
0.36800712 1.1446817 -0.050405044 0
0.88084072 4.126359 -0.1406839 0
1.7639555 9.2608948 -0.14085038 0
0.58151174 2.3860233 0.26061031 0
0.58010292 2.3778322 0.34001654 0
0.58112323 2.3837647 0.42063275 0
0.26264125 0.53207165 0.28147736 0
0.27069172 0.57887799 0.32468128 0
0.27141285 0.58307081 0.36327842 0
0.23722459 0.38429597 0.36356834 0
0.13147576 -0.09619084 -0.090885021 0
0.15055735 0.034396205 -0.0938899 0
0.16818105 0.15500584 -0.089093722 0
0.19827147 0.36093298 -0.090798147 0
0.23921447 0.64113098 -0.091606118 0
0.29609889 1.0304258 -0.089552768 0
0.39604673 1.7144299 -0.090052523 0
0.75264466 4.1548481 -0.14105643 0
1.5043873 9.2994804 -0.14078851 0
0.50778162 2.4791 0.26435548 0
0.50602174 2.4670563 0.34536815 0
0.5047546 2.4583843 0.42639577 0
0.22037688 0.51221389 0.27840775 0
0.27643946 0.89588457 0.36882743 0
0.20208298 0.38701752 0.36303478 0
0.10907649 -0.091720253 -0.091198079 0
0.12288195 0.022906337 -0.091055952 0
0.13775583 0.14640394 -0.0870317 0
0.16445239 0.36806539 -0.091163941 0
0.19784018 0.645284 -0.091448493 0
0.24533968 1.0396719 -0.089782424 0
0.32686153 1.7165473 -0.089560322 0
0.62172204 4.1647725 -0.14070928 0
1.2436906 9.3289719 -0.14066753 0
0.42509347 2.5321662 0.26629838 0
0.424375 2.5262008 0.34871572 0
0.42491719 2.5307026 0.43210647 0
0.42534629 2.5342655 0.51596165 0
0.23081613 0.91908294 0.37121332 0
0.16635056 0.38382581 0.36154932 0
0.085490093 -0.098817497 -0.089161344 0
0.097129643 0.023819003 -0.090707652 0
0.11179391 0.17832437 -0.091791384 0
0.13006058 0.3707855 -0.091026656 0
0.15520604 0.6357227 -0.089803971 0
0.19486897 1.0536187 -0.090572558 0
0.259083 1.73019 -0.090001442 0
0.49141723 4.1781073 -0.14067718 0
0.9828555 9.3559933 -0.14064303 0
0.34118187 2.5951991 0.26880112 0
0.34026676 2.5855575 0.35221523 0
0.33986789 2.5813549 0.43596017 0
0.34016848 2.5845215 0.52073866 0
0.33962151 2.578759 0.6048674 0
0.173594 0.82946163 0.40133551 0
0.13022083 0.37247375 0.3586939 0
0.063418604 -0.090883225 -0.090457968 0
0.070922226 0.017074022 -0.089037009 0
0.080831759 0.15964606 -0.088314749 0
0.095750816 0.37429169 -0.091122769 0
0.11464997 0.64620048 -0.090636216 0
0.14241603 1.0456808 -0.089432947 0
0.19137855 1.7501216 -0.091002516 0
0.3614856 4.1975126 -0.14108208 0
0.72221607 9.3874693 -0.14087601 0
0.25280577 2.6338971 0.2702615 0
0.25234869 2.627321 0.35462376 0
0.13238645 0.90138143 0.27798146 0
0.13361193 0.91901296 0.32464913 0
0.13391636 0.92339295 0.37052912 0
0.12480014 0.7922346 0.39457786 0
0.095978118 0.37756196 0.35912088 0
0.0409365 -0.084942967 -0.091447495 0
0.046177059 0.033651385 -0.091890074 0
0.051563665 0.15555075 -0.087369733 0
0.061252911 0.37481919 -0.090921648 0
0.073390514 0.64949435 -0.090746932 0
0.090797566 1.0434175 -0.0889486 0
0.12238058 1.7581439 -0.091288753 0
0.23030768 4.2005444 -0.14087643 0
0.45980465 9.3940821 -0.14068328 0
0.16301413 2.6776848 0.27206188 0
0.16266815 2.6698554 0.3572391 0
0.086532652 0.94690233 0.28198344 0
0.085436396 0.92209381 0.32468915 0
0.086633429 0.94918281 0.37377217 0
0.076872125 0.7282837 0.38363263 0
0.061461292 0.37953499 0.35912296 0
0.018063471 -0.086477727 -0.09096805 0
0.020240976 0.028558645 -0.090777181 0
0.023191299 0.18442264 -0.091965817 0
0.026862232 0.37835613 -0.091266058 0
0.031803489 0.6394003 -0.089414395 0
0.039363965 1.038816 -0.088367842 0
0.052751303 1.746062 -0.090290926 0
0.099179447 4.1988368 -0.14060442 0
0.19774999 9.4062662 -0.14077426 0
0.071213908 2.7214317 0.27396518 0
0.07074149 2.6964746 0.35889792 0
0.070902795 2.7049961 0.44607112 0
0.070729509 2.6958413 0.53195465 0
0.032676175 0.68550378 0.37637293 0
0.027016157 0.38648787 0.36022773 0
-0.0046990225 -0.08979699 -0.090231948 0
-0.0054088887 0.02275208 -0.089652963 0
-0.0063415426 0.17062405 -0.089667238 0
-0.0076386863 0.37628582 -0.090944491 0
-0.0093719065 0.65108746 -0.090750016 0
-0.011824041 1.0398724 -0.088436313 0
-0.016337732 1.755517 -0.090921469 0
-0.031706356 4.1922078 -0.14025734 0
-0.064622693 9.4110832 -0.14084777 0
-0.022438727 2.7228281 0.27400273 0
-0.022439992 2.7230284 0.36071479 0
-0.022414586 2.7190003 0.44732416 0
-0.022400299 2.7167354 0.53432924 0
-0.009312829 0.64172059 0.36913055 0
-0.0076512657 0.37828031 0.35864002 0
-0.027548589 -0.085274965 -0.091284968 0
-0.031181522 0.029869113 -0.091085188 0
-0.035228256 0.15812829 -0.087703593 0
-0.042005241 0.37292162 -0.090563141 0
-0.05082047 0.65231591 -0.090985261 0
-0.063654877 1.0590961 -0.090322025 0
-0.085291132 1.7448466 -0.090266816 0
-0.11879689 2.8067951 -0.075843088 0
-0.11890802 2.8103173 0.012583816 0
-0.11876013 2.8056304 0.10107879 0
-0.11889853 2.8100164 0.18956713 0
-0.11665175 2.7388062 0.27483052 0
-0.11667155 2.7394335 0.36198723 0
-0.11613765 2.7225115 0.44781774 0
-0.11624161 2.725807 0.5355975 0
-0.050538983 0.64339429 0.36953396 0
-0.042384326 0.38493648 0.36001784 0
-0.049679607 -0.09805575 -0.088778369 0
-0.057197731 0.034222994 -0.092120834 0
-0.0651583 0.17428628 -0.090573944 0
-0.0763015 0.37034693 -0.090414427 0
-0.092062131 0.64764959 -0.090653174 0
-0.11511523 1.0532606 -0.089989893 0
-0.15473133 1.7502921 -0.090861462 0
-0.21407057 2.7943449 -0.075459801 0
-0.21372081 2.7881911 0.013000483 0
-0.21413203 2.7954261 0.10107862 0
-0.21410616 2.7949712 0.18931474 0
-0.21177073 2.75388 0.27572826 0
-0.21074516 2.7358353 0.3620263 0
-0.2111723 2.743351 0.45015419 0
-0.078410797 0.40745929 0.26455778 0
-0.076692246 0.37722197 0.29340264 0
-0.076849401 0.37998703 0.32645693 0
-0.076490939 0.37368003 0.35818258 0
-0.073088005 -0.088208348 -0.091211699 0
-0.081485257 0.013957534 -0.088629894 0
-0.093703553 0.16261235 -0.088985093 0
-0.10979203 0.35835412 -0.089059301 0
-0.13411483 0.65427941 -0.091767006 0
-0.16786322 1.0648818 -0.091413476 0
-0.22375163 1.7448523 -0.090816654 0
-0.42364079 4.1768188 -0.14034714 0
-0.85063601 9.3718891 -0.14074403 0
-0.30588058 2.7440803 0.27557671 0
-0.30481887 2.7311625 0.36215651 0
-0.30513829 2.7350492 0.4499892 0
-0.30410719 2.7225041 0.53645873 0
-0.11397439 0.40923896 0.29825699 0
-0.11320212 0.39984313 0.33012831 0
-0.11220808 0.38774911 0.36129379 0
-0.095254771 -0.095425278 -0.090129621 0
-0.10751276 0.01843873 -0.089933462 0
-0.12243176 0.1570206 -0.088516258 0
-0.14532685 0.36969224 -0.091117568 0
-0.17496084 0.64496094 -0.091133796 0
-0.21794483 1.0442374 -0.089936711 0
-0.2913157 1.7257762 -0.089935221 0
-0.55392593 4.1651511 -0.14037944 0
-1.1123564 9.3523874 -0.14086761 0
-0.3990556 2.726567 0.27517435 0
-0.39847153 2.7211418 0.36207765 0
-0.39881229 2.7243071 0.449817 0
-0.39750236 2.7121394 0.53628403 0
-0.14955248 0.4089438 0.29868832 0
-0.14796476 0.39419547 0.32974389 0
-0.14686275 0.38395908 0.36119983 0
-0.11614919 -0.11035553 -0.08750964 0
-0.13391082 0.022934351 -0.091368772 0
-0.1522186 0.16032246 -0.089640506 0
-0.17928968 0.36347368 -0.090820603 0
-0.21634534 0.64155287 -0.091316693 0
-0.26985201 1.0430863 -0.090409391 0
-0.35961404 1.7166932 -0.089875706 0
-0.6849519 4.1581469 -0.14078511 0
-1.3732116 9.3230982 -0.14091669 0
-0.49240491 2.7132039 0.27507621 0
-0.48940492 2.690691 0.36072302 0
-0.24126117 0.82853025 0.27225205 0
-0.24185008 0.8329497 0.31593078 0
-0.18343998 0.39461902 0.29725838 0
-0.18578145 0.41219035 0.33342493 0
-0.18151213 0.38015178 0.36126825 0
-0.1417827 -0.091617435 -0.09223897 0
-0.15817304 0.011447225 -0.089888506 0
-0.17924663 0.14396086 -0.087621801 0
-0.2145462 0.36592928 -0.091878541 0
-0.2575683 0.63645786 -0.09142407 0
-0.32025185 1.0306206 -0.089938201 0
-0.42686796 1.7010369 -0.08947245 0
-0.81394809 4.1350493 -0.14058937 0
-1.6324939 9.2821751 -0.14084683 0
-0.58015573 2.6649308 0.27344102 0
-0.5794093 2.6602373 0.35952505 0
-0.27931431 0.77319986 0.26765209 0
-0.27952665 0.774535 0.30980855 0
-0.27777427 0.76351589 0.35049951 0
-0.21734376 0.38352075 0.36287254 0
-0.16142336 -0.11152098 -0.088776834 0
-0.18322484 0.0063177082 -0.089736126 0
-0.20620224 0.13051227 -0.086194299 0
-0.24539456 0.3423498 -0.0893474 0
-0.29485667 0.60969621 -0.089080133 0
-0.37154409 1.0241976 -0.090158887 0
-0.49613568 1.6976244 -0.0900582 0
-0.94553161 4.1266437 -0.14124213 0
-1.8894619 9.2286596 -0.14063326 0
-0.6690011 2.6319752 0.27262899 0
-0.66565841 2.6139078 0.35735315 0
-0.66970915 2.6358023 0.44529259 0
-0.66797286 2.6264176 0.53093463 0
-0.29138497 0.59093136 0.36518398 0
-0.25428647 0.39041117 0.36533198 0
-0.18513066 -0.10826674 -0.090434708 0
-0.21113877 0.014856372 -0.092335589 0
-0.23543249 0.12986353 -0.087023281 0
-0.28020713 0.34182778 -0.090226166 0
-0.33896685 0.6199978 -0.091263093 0
-0.42063904 1.0066361 -0.089441352 0
-0.5631566 1.6813183 -0.089850388 0
-0.62034345 1.9520421 -0.038984109 0
-0.61656898 1.9341738 0.03149857 0
-0.61866003 1.9440727 0.10105599 0
-0.75503027 2.5896533 0.27147302 0
-0.75359958 2.5828803 0.35641918 0
-0.7541557 2.5855131 0.44221756 0
-0.75326163 2.5812805 0.52769488 0
-0.29023302 0.3892906 0.36644101 0
-0.21090885 -0.098065525 -0.093750753 0
-0.23301692 -0.0050741103 -0.08957503 0
-0.26283929 0.12036517 -0.086486541 0
-0.31217873 0.3278977 -0.089299969 0
-0.37365296 0.58647197 -0.088327505 0
-0.47162485 0.99856323 -0.08974839 0
-0.52286154 1.2140758 -0.057359178 0
-0.61905831 1.6187005 -0.023827923 0
-0.6180672 1.614532 0.038742922 0
-0.61822838 1.6152098 0.10104682 0
-0.83494037 2.5267479 0.26942763 0
-0.83171731 2.5131912 0.35285833 0
-0.83256418 2.5167532 0.43755487 0
-0.83251053 2.5165274 0.52233607 0
-0.8341285 2.5233333 0.60858542 0
-0.22791 -0.12417349 -0.089248084 0
-0.26020741 -0.002098229 -0.09136612 0
-0.29616117 0.13379696 -0.089961685 0
-0.34551096 0.32032552 -0.089408733 0
-0.41678405 0.58971792 -0.089923285 0
-0.52397394 0.99486595 -0.090603791 0
-0.58021194 1.2074299 -0.057885084 0
-0.64812732 1.4641311 -0.017177766 0
-0.64901531 1.4674873 0.041883823 0
-0.64898092 1.4673576 0.10104294 0
-0.91098034 2.4576426 0.26716655 0
-0.90909737 2.4505255 0.34992421 0
-0.9124406 2.4631619 0.434517 0
-0.91143858 2.4593747 0.51810181 0
-0.91150832 2.4596381 0.60254914 0
-0.25297534 -0.11887738 -0.091760464 0
-0.28260249 -0.017330017 -0.089732207 0
-0.32319501 0.12180117 -0.089252688 0
-0.34475869 0.19571093 -0.072506778 0
-0.45768657 0.58277255 -0.090422176 0
-0.56898779 0.96425873 -0.088977061 0
-0.71337324 1.4591413 -0.07733456 0
-0.71516031 1.4652665 -0.018064937 0
-0.71460158 1.4633515 0.041567847 0
-0.7143954 1.4626448 0.10104331 0
-0.98649359 2.3952644 0.26530826 0
-0.98269361 2.3822398 0.34670067 0
-0.98021221 2.3737347 0.42816561 0
-0.98160881 2.3785214 0.51119125 0
-0.97972918 2.3720791 0.59325832 0
-0.2739037 -0.12854365 -0.091095127 0
-0.31075487 -0.013148453 -0.092034869 0
-0.35154271 0.11457399 -0.089477934 0
-0.38024291 0.20444527 -0.075137891 0
-0.39431146 0.24849942 -0.050892029 0
-0.3976151 0.25884441 -0.021327501 0
-0.39365062 0.24643007 0.010283599 0
-0.39836779 0.26120141 0.039857619 0
-0.39821285 0.26071611 0.070461139 0
-0.39333859 0.24545291 0.1010074 0
-0.39338103 0.24558583 0.13118443 0
-0.39539951 0.25190654 0.16170348 0
-0.39810529 0.26037934 0.19275618 0
-0.39681092 0.25632611 0.22309685 0
-0.39609247 0.25407651 0.25359261 0
-0.39781383 0.25946668 0.28527212 0
-0.39669162 0.25595251 0.31588721 0
-0.39427829 0.24839559 0.3457655 0
-0.29312235 -0.14269456 -0.089533143 0
-0.33412477 -0.024663415 -0.0913691 0
-0.37742543 0.099983484 -0.088548027 0
-0.42459697 0.23577324 -0.08128614 0
-0.4265905 0.24151197 -0.051310215 0
-0.42911586 0.24878159 -0.021366162 0
-0.43107605 0.25442424 0.0089259762 0
-0.43154702 0.25577989 0.039608616 0
-0.42792755 0.24536076 0.070581384 0
-0.42939749 0.24959233 0.10100784 0
-0.43153095 0.25573376 0.13169001 0
-0.43163478 0.25603262 0.16242006 0
-0.42941242 0.24963525 0.19273566 0
-0.42773044 0.24479344 0.22298813 0
-0.43240887 0.258261 0.2553997 0
-0.43356302 0.26158336 0.28714389 0
-0.43263611 0.2589151 0.31821814 0
-0.43434042 0.26382115 0.35090989 0
-0.31570557 -0.1468828 -0.090328313 0
-0.3552117 -0.041791346 -0.089685701 0
-0.4079577 0.098519951 -0.090028279 0
-0.4752754 0.27759376 -0.089235581 0
-0.48708954 0.30902091 -0.061135177 0
-0.51376283 0.37997535 -0.03556991 0
-0.5127849 0.37737396 -0.0011003667 0
-0.50973964 0.3692731 0.033401508 0
-0.51234198 0.37619558 0.06705302 0
-0.50969023 0.36914161 0.10101183 0
-1.2021797 2.2112541 0.18066417 0
-1.1944153 2.1905997 0.2593182 0
-1.161152 2.1021152 0.33204457 0
-1.1571811 2.0915523 0.40837488 0
-1.1592219 2.0969808 0.48650894 0
-1.158329 2.0946054 0.56416821 0
-0.33809924 -0.15208021 -0.091030277 0
-0.38124657 -0.045544412 -0.090810589 0
-0.43800333 0.094594628 -0.091223203 0
-0.5096401 0.27147427 -0.09019082 0
-0.51628327 0.28787699 -0.060073931 0
-0.51074219 0.27419546 -0.026269129 0
-0.50906479 0.27005377 0.0059837643 0
-0.51433474 0.28306583 0.037062567 0
-0.5108639 0.27449587 0.069268353 0
-0.51257348 0.27871707 0.10100945 0
-1.2703297 2.1497061 0.25882939 0
-1.1976403 1.9702275 0.32437643 0
-1.1959628 1.9660854 0.39877534 0
-1.198022 1.9711699 0.47445396 0
-1.1919142 1.956089 0.54774302 0
-0.3593154 -0.16044083 -0.091137148 0
-0.40500146 -0.055339362 -0.090841241 0
-0.46410838 0.080636889 -0.090768583 0
-0.51330251 0.1938087 -0.080325238 0
-0.51434863 0.19621542 -0.050107781 0
-0.50665122 0.17850736 -0.017885251 0
-0.5107618 0.18796375 0.011229837 0
-0.50904679 0.1840184 0.041409917 0
-0.51255238 0.19208315 0.071020089 0
-0.51487887 0.19743517 0.10100733 0
-1.3522385 2.1237934 0.25919342 0
-1.2266175 1.8348002 0.31642362 0
-1.232349 1.8479857 0.3899194 0
-1.2283946 1.8388886 0.46156529 0
-1.2271075 1.8359277 0.53407991 0
-1.2282711 1.8386047 0.60793054 0
-0.38016373 -0.169687 -0.091162495 0
-0.42897177 -0.064729422 -0.091080211 0
-0.48724553 0.060583506 -0.089322485 0
-0.50700361 0.1030716 -0.068331622 0
-0.51149577 0.11273149 -0.041071881 0
-0.51206958 0.11396554 -0.012598066 0
-0.51420778 0.11856356 0.015556144 0
-0.51323682 0.11647561 0.04419785 0
-0.51244318 0.11476901 0.072660662 0
-0.5143947 0.11896542 0.10100529 0
-1.4296467 2.0871387 0.25911525 0
-1.2554272 1.7124941 0.30944559 0
-1.2414445 1.6824253 0.37616453 0
-1.2409079 1.6812716 0.44535571 0
-1.2378943 1.6747911 0.51403928 0
-1.2414322 1.682399 0.58539456 0
-0.40235043 -0.17628154 -0.091941454 0
-0.45434982 -0.071462542 -0.092007257 0
-0.50975758 0.040226851 -0.08790905 0
-0.50996983 0.040654812 -0.060605053 0
-0.51046723 0.041657481 -0.033531923 0
-0.50965136 0.040012751 -0.006277917 0
-0.51072437 0.042175684 0.020475471 0
-0.51128221 0.043300185 0.047308125 0
-0.50833213 0.03735343 0.074324593 0
-0.50764805 0.035974536 0.10100307 0
-1.2518828 1.5361826 0.29821816 0
-1.2403462 1.5129273 0.36184973 0
-1.2382861 1.5087748 0.42704082 0
-1.2389524 1.510118 0.49323386 0
-1.2417483 1.515754 0.56071955 0
-0.4195635 -0.19272414 -0.090497471 0
-0.47454745 -0.088575453 -0.090871505 0
-0.53174061 0.0197579 -0.086560734 0
-0.53111011 0.018563662 -0.059195194 0
-0.52598119 0.0088485815 -0.030944696 0
-0.53212833 0.020492349 -0.0056119915 0
-0.53170621 0.019692693 0.021206239 0
-0.5323258 0.020866308 0.047791421 0
-0.53240728 0.021020684 0.074407555 0
-0.53288901 0.021933112 0.10100304 0
-1.2523909 1.384789 0.28880471 0
-1.2408646 1.3629565 0.34940255 0
-1.2423534 1.3657765 0.41237226 0
-1.2358627 1.3534822 0.47343168 0
-1.2425306 1.366112 0.53887647 0
-1.2360351 1.3538086 0.60017949 0
-0.43882504 -0.20484182 -0.090191998 0
-0.49477232 -0.10505113 -0.089966513 0
-0.5507102 -0.0052771834 -0.084436692 0
-0.56400263 0.018431935 -0.06138863 0
-0.56485194 0.019946847 -0.034255747 0
-0.56127763 0.013571415 -0.0063451435 0
-0.5559597 0.0040861699 0.021354141 0
-0.56130236 0.013615523 0.047443088 0
-0.5613572 0.013713393 0.074235044 0
-0.55827844 0.0082219578 0.10100304 0
-1.2955151 1.3231983 0.16276184 0
-1.2914987 1.3160346 0.22416179 0
-1.248924 1.2400961 0.27979574 0
-1.2335156 1.2126126 0.33673963 0
-1.2374935 1.219708 0.39709693 0
-1.2464626 1.2357056 0.45959842 0
-1.2407346 1.2254889 0.518426 0
-1.2398645 1.2239368 0.5790298 0
-0.45662701 -0.21930185 -0.089422069 0
-0.51856416 -0.11508223 -0.090570934 0
-0.58302134 -0.0066222814 -0.086900629 0
-0.58459884 -0.0039679077 -0.060109559 0
-0.58322692 -0.006276336 -0.03267521 0
-0.58093339 -0.010135558 -0.0053460356 0
-0.5821892 -0.0080225132 0.02117038 0
-0.58405709 -0.004879382 0.04765911 0
-0.58827972 0.0022258495 0.074153364 0
-0.58562827 -0.0022356773 0.10100318 0
-1.3571262 1.2959385 0.16292961 0
-1.3528961 1.2888207 0.22449419 0
-1.2494107 1.1146894 0.27221337 0
-1.2425119 1.1030807 0.32829958 0
-1.2410375 1.1005998 0.38524166 0
-1.2405332 1.0997512 0.44262686 0
-1.2390584 1.0972698 0.50003052 0
-1.2429612 1.1038368 0.55972344 0
-0.47639972 -0.23031238 -0.08961802 0
-0.54463452 -0.12182549 -0.092049174 0
-0.61268294 -0.013634827 -0.088460691 0
-0.61417502 -0.011262562 -0.061403457 0
-0.61259693 -0.01377156 -0.033718694 0
-0.60710829 -0.022497978 -0.0056362059 0
-0.60767633 -0.021594908 0.021050313 0
-0.613783 -0.011885848 0.047215395 0
-0.61082232 -0.016593006 0.074253224 0
-0.61296725 -0.013182785 0.10100332 0
-1.2501236 0.99983627 0.26538312 0
-1.2394968 0.98294073 0.31857902 0
-1.242524 0.98775357 0.37407413 0
-1.2447193 0.99124402 0.42991799 0
-1.2370248 0.9790104 0.48326719 0
-1.2386283 0.98155969 0.53964126 0
-0.49669659 -0.24064448 -0.090116791 0
-0.55954093 -0.14610752 -0.089733265 0
-0.64142972 -0.022921946 -0.089744784 0
-0.63631564 -0.030615117 -0.060809378 0
-0.64270985 -0.020996239 -0.034920964 0
-0.63176739 -0.037457075 -0.0057136696 0
-0.63755989 -0.028743412 0.020335393 0
-0.63897687 -0.026611771 0.047154117 0
-0.64379525 -0.019363489 0.073890969 0
-0.6404677 -0.024369147 0.10100348 0
-1.2501518 0.89278072 0.25909406 0
-1.2361891 0.87177664 0.30969232 0
-1.2419616 0.8804602 0.36350274 0
-1.2423415 0.88103169 0.41672418 0
-1.2385286 0.87529582 0.469082 0
-1.2417372 0.88012272 0.52390993 0
-0.51221406 -0.25801823 -0.088927798 0
-0.58479482 -0.15459338 -0.091096617 0
-0.66597909 -0.038908865 -0.089851044 0
-0.66372699 -0.042118039 -0.061647508 0
-0.66024107 -0.047085311 -0.033558834 0
-0.66141456 -0.045413103 -0.0066614505 0
-0.66866863 -0.035076406 0.01947418 0
-0.66064167 -0.046514478 0.047350314 0
-0.66759753 -0.036602642 0.073909774 0
-0.66847885 -0.035346773 0.10100367 0
-1.299944 0.86446756 0.2594234 0
-1.2476372 0.78993219 0.303983 0
-1.2422671 0.78228003 0.35404247 0
-1.2438627 0.78455383 0.40564361 0
-1.2385099 0.77692622 0.45572469 0
-1.2460938 0.7877329 0.5099982 0
-0.53445327 -0.26585981 -0.090339802 0
-0.60376549 -0.17221001 -0.090494074 0
-0.68807566 -0.058295991 -0.08938963 0
-0.69844025 -0.044292059 -0.064252369 0
-0.68124551 -0.067524344 -0.033056322 0
-0.688407 -0.057848301 -0.0071930867 0
-0.69214535 -0.052797284 0.019519532 0
-0.68842298 -0.057826664 0.047021274 0
-0.69201958 -0.052967157 0.073886417 0
-0.69225955 -0.052642968 0.10100366 0
-1.3505092 0.83673829 0.25991821 0
-1.2530119 0.7050069 0.29784143 0
-1.2464709 0.69616908 0.34616089 0
-1.2412049 0.68905395 0.39453208 0
-1.2446564 0.69371742 0.44521672 0
-1.2403462 0.68789369 0.49410373 0
-0.55667174 -0.27429649 -0.09176933 0
-0.62151432 -0.19115737 -0.089674987 0
-0.71021789 -0.077424496 -0.08908809 0
-0.71696788 -0.068769902 -0.063088559 0
-0.71952325 -0.065493435 -0.03595211 0
-0.71475935 -0.071601599 -0.007659113 0
-0.71301007 -0.073844463 0.019808644 0
-0.71817893 -0.067217141 0.046531226 0
-0.71469522 -0.071683794 0.073913947 0
-0.71808594 -0.067336291 0.10100377 0
-1.3858473 0.78884608 0.25874594 0
-1.2493129 0.61378604 0.29084817 0
-1.2377055 0.59890336 0.33648422 0
-1.2433827 0.60618252 0.38543966 0
-1.2386605 0.60012776 0.43236768 0
-1.2365496 0.59742135 0.48009747 0
-0.57333511 -0.29005399 -0.091367729 0
-0.64692736 -0.20045337 -0.091299288 0
-0.73347211 -0.095082551 -0.089210652 0
-0.7384969 -0.08896479 -0.06276349 0
-0.74723619 -0.078324407 -0.036805395 0
-0.75635064 -0.067227334 -0.010404026 0
-0.75058168 -0.074251205 0.01818935 0
-0.7478556 -0.07757023 0.046044126 0
-0.74536353 -0.080604464 0.073630266 0
-0.74740535 -0.078118473 0.10100406 0
-1.4285682 0.75121731 0.25855833 0
-1.2523164 0.53662544 0.28539675 0
-1.2364271 0.5172798 0.32893887 0
-1.2413639 0.52329057 0.37616318 0
-1.2486596 0.53217334 0.42467201 0
-1.2350695 0.51562697 0.46789083 0
-0.59060103 -0.30499116 -0.091304757 0
-0.66092712 -0.22364178 -0.089658491 0
-0.7549212 -0.11491475 -0.088989772 0
-0.77341539 -0.093521684 -0.065436207 0
-0.77747506 -0.088825673 -0.038144354 0
-0.77335858 -0.093587369 -0.0095454659 0
-0.77216142 -0.094972163 0.018324936 0
-0.77115023 -0.096141905 0.046006445 0
-0.7696144 -0.097918421 0.073574759 0
-0.77174735 -0.095451146 0.10100413 0
-1.485028 0.7296322 0.25994915 0
-1.2471063 0.45441774 0.27921134 0
-1.2345939 0.43994382 0.32188508 0
-1.2353301 0.44079557 0.36674675 0
-1.2359637 0.44152859 0.41192982 0
-1.2395564 0.44568446 0.45835784 0
-0.60141236 -0.32702377 -0.089325346 0
-0.68532789 -0.23476639 -0.091140233 0
-0.78584939 -0.12425229 -0.091214307 0
-0.7987597 -0.11005858 -0.066060625 0
-0.79997581 -0.10872152 -0.03814939 0
-0.8029629 -0.10543749 -0.010551376 0
-0.80150431 -0.10704115 0.017595114 0
-0.80254561 -0.10589626 0.045376405 0
-0.79873496 -0.11008576 0.073337175 0
-0.80516315 -0.10301855 0.1010046 0
-1.2535698 0.3899633 0.2751075 0
-1.2440021 0.37944451 0.31732175 0
-1.2383817 0.37326542 0.35992733 0
-1.2446566 0.38016406 0.40532908 0
-1.2393456 0.37432507 0.44827139 0
-0.62005258 -0.34021524 -0.089977883 0
-0.69982004 -0.25684491 -0.089961387 0
-0.80506617 -0.14684507 -0.090653591 0
-0.82823771 -0.12262693 -0.067595147 0
-0.82942176 -0.12138936 -0.039414499 0
-0.83027732 -0.12049517 -0.011262877 0
-0.82516867 -0.12583455 0.017427268 0
-0.82981569 -0.12097767 0.045023743 0
-0.83795828 -0.11246732 0.072755523 0
-0.82692337 -0.12400064 0.10100459 0
-1.2479454 0.31603804 0.26970011 0
-1.2367057 0.30429056 0.3103134 0
-1.2384378 0.30610099 0.35302746 0
-1.2332114 0.30063847 0.39448416 0
-1.2364382 0.30401102 0.43820989 0
-0.64243096 -0.34993073 -0.091835581 0
-0.72102427 -0.27183136 -0.090743892 0
-0.81744987 -0.17601177 -0.088657402 0
-0.86243677 -0.13130757 -0.070090733 0
-0.85985392 -0.13387421 -0.040864173 0
-0.85740423 -0.13630846 -0.011982804 0
-0.85959971 -0.13412675 0.016155081 0
-0.86689413 -0.12687823 0.044010755 0
-0.86120552 -0.13253114 0.072709925 0
-0.85896993 -0.13475266 0.10100501 0
-1.2757387 0.27939704 0.14292124 0
-1.2673969 0.27110758 0.18431802 0
-1.2696296 0.27332619 0.22629967 0
-1.2503417 0.25415948 0.26573145 0
-1.2539672 0.25776222 0.30784354 0
-1.2423407 0.24620882 0.34740111 0
-1.2453247 0.24917415 0.38983929 0
-1.2371476 0.24104837 0.42983559 0
-0.65143245 -0.37291101 -0.089810409 0
-0.73544019 -0.29354212 -0.089848258 0
-0.84005654 -0.1947026 -0.089188136 0
-0.8904472 -0.14709446 -0.071374021 0
-0.88864535 -0.14879677 -0.042067233 0
-0.88701534 -0.15033677 -0.013056664 0
-0.8937459 -0.14397785 0.014919849 0
-0.89174712 -0.1458663 0.043794937 0
-0.89522648 -0.14257905 0.07230439 0
-0.88448286 -0.15272942 0.10100517 0
-1.2887545 0.22921875 0.14232522 0
-1.2877789 0.22829691 0.18361166 0
-1.2880862 0.2285873 0.22504874 0
-1.250289 0.1928772 0.26174471 0
-1.2475879 0.19032529 0.3018201 0
-1.2393695 0.18256083 0.34087363 0
-1.2472093 0.18996766 0.38328761 0
-1.2384068 0.18165115 0.42221785 0
-0.67137802 -0.38543549 -0.091125049 0
-0.75433987 -0.31092533 -0.090248175 0
-0.86350679 -0.21287969 -0.089998819 0
-0.91617471 -0.16557726 -0.0722735 0
-0.92153096 -0.16076669 -0.043946404 0
-0.9222104 -0.16015646 -0.014852 0
-0.92689306 -0.15595081 0.013782496 0
-0.9147051 -0.16689715 0.043672182 0
-0.92210019 -0.1602554 0.072123267 0
-0.92558992 -0.15712121 0.10100595 0
-1.3264791 0.20292774 0.14255676 0
-1.3298235 0.20593134 0.18434681 0
-1.331236 0.20719996 0.22625549 0
-1.2450511 0.1297951 0.25739273 0
-1.2524508 0.13644102 0.29796907 0
-1.2460822 0.13072124 0.33662942 0
-1.2404798 0.12568954 0.37531313 0
-1.2459841 0.13063303 0.41675484 0
-0.69195318 -0.39785185 -0.092677005 0
-0.77973616 -0.32292566 -0.092358224 0
-0.88191313 -0.23571369 -0.089802586 0
-0.94073969 -0.18550286 -0.073026203 0
-0.9505778 -0.1771057 -0.045242656 0
-0.94682217 -0.18031123 -0.015341124 0
-0.94839913 -0.17896524 0.013711223 0
-0.94305807 -0.18352404 0.043188974 0
-0.95086318 -0.17686209 0.071874462 0
-0.95047861 -0.17719039 0.10100611 0
-1.3977044 0.20453432 0.14383051 0
-1.3987682 0.20544234 0.1867498 0
-1.4024333 0.20857051 0.23006681 0
-1.24534 0.074485332 0.25400975 0
-1.2509676 0.079288751 0.29343587 0
-1.2410692 0.070840031 0.33055273 0
-1.2411283 0.070890456 0.36945781 0
-1.2393451 0.069368511 0.40820915 0
-0.70409316 -0.41760072 -0.09197589 0
-0.78637886 -0.35088083 -0.089952298 0
-0.9005754 -0.25828657 -0.089787744 0
-0.98291582 -0.19152233 -0.077041961 0
-0.98093009 -0.19313237 -0.046771828 0
-0.98041528 -0.19354978 -0.016961416 0
-0.97100151 -0.20118281 0.013489889 0
-0.97718084 -0.19617245 0.042344306 0
-0.97790116 -0.19558838 0.071669638 0
-0.97813708 -0.19539705 0.10100638 0
-1.2432764 0.019586597 0.25058201 0
-1.2539417 0.028234396 0.28988484 0
-1.234615 0.01256362 0.32461458 0
-1.2438565 0.020056996 0.36445707 0
-1.2350801 0.012940798 0.40079132 0
-0.71707392 -0.43651083 -0.091648854 0
-0.81023729 -0.36479005 -0.091854222 0
-0.91500521 -0.28413561 -0.089014687 0
-1.0103755 -0.2107158 -0.078397743 0
-1.0144287 -0.20759544 -0.048795957 0
-1.0159974 -0.20638779 -0.01882462 0
-1.0070575 -0.21327004 0.012035849 0
-1.0053252 -0.21460369 0.041848168 0
-1.01372 -0.208141 0.071197093 0
-1.0129713 -0.20871744 0.10100693 0
-1.2523477 -0.024436142 0.24869758 0
-1.2336792 -0.038807895 0.28316516 0
-1.238295 -0.035254445 0.32085231 0
-1.2408856 -0.033260074 0.35863885 0
-1.242209 -0.032241311 0.39656723 0
-0.72878665 -0.456269 -0.091120847 0
-0.82176208 -0.38835898 -0.09092737 0
-0.93460572 -0.30593708 -0.089442141 0
-1.04474 -0.225494 -0.081015565 0
-1.0461394 -0.22447196 -0.050577689 0
-1.043728 -0.22623321 -0.019784091 0
-1.0467935 -0.22399417 0.010263117 0
-1.0484294 -0.22279933 0.040471565 0
-1.04031 -0.2287297 0.070989683 0
-1.0402699 -0.22875902 0.10100721 0
-1.2480358 -0.077005059 0.2454294 0
-1.2314041 -0.089153081 0.27942005 0
-1.241662 -0.081660539 0.31731635 0
-1.2380253 -0.08431682 0.35322595 0
-1.2371238 -0.084975272 0.38983917 0
-0.73894364 -0.47696963 -0.090329848 0
-0.82798874 -0.41531435 -0.0889403 0
-0.95590496 -0.32674453 -0.090312786 0
-1.0774858 -0.24256131 -0.0833757 0
-1.0816395 -0.23968527 -0.052928422 0
-1.0761852 -0.24346182 -0.021320982 0
-1.0858076 -0.23679927 0.008559214 0
-1.0838069 -0.2381846 0.039544482 0
-1.0884538 -0.23496702 0.070161492 0
-1.077895 -0.24227795 0.10100786 0
-1.256173 -0.11883745 0.20795582 0
-1.2487303 -0.12399074 0.24293859 0
-1.2383562 -0.13117388 0.27723449 0
-1.2353144 -0.13328001 0.3123824 0
-1.2394071 -0.13044623 0.34901503 0
-1.2384471 -0.13111094 0.38500389 0
-0.75342333 -0.49462858 -0.090784557 0
-0.85337859 -0.42908725 -0.091456525 0
-0.967682 -0.35413769 -0.089401864 0
-1.1062787 -0.26325884 -0.085105874 0
-1.1104555 -0.26052007 -0.054360557 0
-1.1134489 -0.25855729 -0.023418097 0
-1.1146159 -0.25779203 0.0077091698 0
-1.1166329 -0.25646946 0.038752835 0
-1.1169796 -0.25624219 0.069887906 0
-1.1037354 -0.2649264 0.10100811 0
-1.2579633 -0.16379818 0.20630158 0
-1.2272441 -0.18394098 0.23814496 0
-1.2382444 -0.17672804 0.2742466 0
-1.2392528 -0.17606679 0.30947959 0
-1.2351773 -0.1787391 0.34400082 0
-1.2357337 -0.17837426 0.37960306 0
-0.76308388 -0.51542044 -0.090139188 0
-0.87057543 -0.44875374 -0.092195533 0
-0.98560631 -0.37741116 -0.089828692 0
-1.1426337 -0.28002211 -0.088146843 0
-1.1530411 -0.27356741 -0.057737086 0
-1.1522359 -0.27406684 -0.025692185 0
-1.1565093 -0.2714164 0.0057519544 0
-1.1377426 -0.28305557 0.038589824 0
-1.1506523 -0.27504894 0.069462933 0
-1.1489877 -0.27608141 0.10100903 0
-1.2562611 -0.20954993 0.16992824 0
-1.2501726 -0.21332607 0.20397836 0
-1.2395313 -0.21992585 0.23730513 0
-1.2514905 -0.21250871 0.27330256 0
-1.2367734 -0.22163633 0.30574021 0
-1.2349585 -0.22276196 0.34007809 0
-1.2408093 -0.21913323 0.3762795 0
-0.78295958 -0.53006756 -0.092150055 0
-0.88116825 -0.47253743 -0.091591291 0
-1.0030193 -0.40115759 -0.090264641 0
-1.1742678 -0.30084106 -0.090443753 0
-1.1794375 -0.29781261 -0.05891623 0
-1.1827809 -0.29585412 -0.027084013 0
-1.1872302 -0.29324767 0.0047005657 0
-1.1906058 -0.29127035 0.036679488 0
-1.1954802 -0.28841487 0.068730712 0
-1.1964245 -0.28786173 0.10101002 0
-1.2462773 -0.2586582 0.16834775 0
-1.2420229 -0.26115045 0.20176224 0
-1.245895 -0.25888214 0.23593549 0
-1.2457339 -0.25897655 0.26992047 0
-1.2349501 -0.26529369 0.30235139 0
-1.2476013 -0.25788262 0.33887687 0
-1.2416053 -0.26139507 0.37229654 0
-0.79952252 -0.5471065 -0.093419068 0
-0.89063686 -0.49677593 -0.09088362 0
-1.0130515 -0.42915538 -0.089422099 0
-1.1827382 -0.33542231 -0.089074947 0
-1.4251119 -0.20153764 -0.089439102 0
-1.7916232 0.00091931561 -0.090181984 0
-3.0245109 0.68195313 -0.14066374 0
-4.5462904 1.5225677 -0.14087668 0
-9.100358 4.0381866 -0.14077811 0
-1.2421982 -0.30257717 0.13407253 0
-1.2539382 -0.29609212 0.16779518 0
-1.23484 -0.30664179 0.19975126 0
-1.2421409 -0.30260888 0.23361091 0
-1.2477161 -0.29952917 0.26777676 0
-1.2323241 -0.30803153 0.29905882 0
-1.2364161 -0.3057712 0.33338448 0
-1.2361749 -0.30590436 0.36725974 0
-0.79765189 -0.57408506 -0.090359099 0
-0.90258151 -0.51953197 -0.090841554 0
-1.0292305 -0.45368692 -0.089860924 0
-1.2013197 -0.36421737 -0.089464687 0
-1.4380838 -0.24112329 -0.088589482 0
-1.8166491 -0.044306424 -0.090246432 0
-3.0690069 0.6067968 -0.14092313 0
-4.6045771 1.4051428 -0.14068557 0
-9.2325773 3.811249 -0.14099479 0
-1.2506012 -0.33859584 0.13384852 0
-1.2400621 -0.34407511 0.16616835 0
-1.2386 -0.34483525 0.19872054 0
-1.244907 -0.34155628 0.23211993 0
