# .PCD v0.7 - Point Cloud Data file format
VERSION 0.7
FIELDS x y z intensity
SIZE 4 4 4 4
TYPE F F F F
COUNT 1 1 1 1
WIDTH 1329
HEIGHT 1
VIEWPOINT 0 0 0 1 0 0 0
POINTS 1329
DATA ascii
0.60680604 1.3851624 0.12789778 0
0.60541826 1.3762368 0.20893268 0
0.60618061 1.3811401 0.29434669 0
0.72922009 2.1724782 0.64844322 0
0.65321207 1.8117214 -0.049801301 0
0.59171706 1.3805149 0.04625091 0
0.59287369 1.3886251 0.12804516 0
0.59046388 1.3717272 0.20773067 0
0.59247249 1.3858119 0.29501006 0
0.70731884 2.1911216 0.65350407 0
0.63413978 1.8176768 -0.049920082 0
0.57672668 1.3753095 0.045994543 0
0.57786578 1.3840863 0.12734415 0
0.57700843 1.3774806 0.20843135 0
0.57744223 1.3808228 0.29323131 0
0.6883831 2.2356207 0.66732341 0
0.61552918 1.828326 -0.050216053 0
0.56296885 1.3791025 0.046068795 0
0.56255293 1.3755475 0.12623186 0
0.5640766 1.3885702 0.21013069 0
0.56267095 1.3765563 0.29168943 0
0.66725695 2.2704337 0.67795765 0
0.59457356 1.8185251 -0.049785998 0
0.5508939 1.3995632 0.12865944 0
0.55199218 1.410098 0.21375009 0
0.55160069 1.4063425 0.29893237 0
0.64349902 2.2878034 0.68283248 0
0.57509875 1.8216077 -0.049827788 0
0.55164057 1.5653588 0.14640075 0
0.55092651 1.5575587 0.24019971 0
0.55193633 1.5685896 0.340139 0
0.62196064 2.3335109 0.6972689 0
0.5559606 1.829374 -0.050046053 0
0.60340142 2.4309468 0.23956318 0
0.59934044 2.3794518 0.38863617 0
0.59703249 2.3501856 0.53981 0
0.53580993 1.8242238 -0.049810622 0
0.57444662 2.4078302 0.39341611 0
0.57291591 2.3847086 0.54814994 0
0.51642996 1.8304155 -0.049989924 0
0.54847568 2.4286575 0.39688566 0
0.54854792 2.430006 0.55931467 0
0.49691337 1.8364385 -0.050171826 0
0.5221374 2.4524598 0.40094942 0
0.5218789 2.4461472 0.56310707 0
0.47713351 1.8378117 -0.050196376 0
0.45664492 1.1148512 0.35827035 0
0.45668209 1.1161633 0.43235651 0
0.45721236 1.8315079 -0.0499557 0
0.44602305 1.1207166 0.36060134 0
0.44582817 1.1083372 0.42832199 0
0.43749219 1.8361083 -0.050113291 0
0.43513325 1.0870538 0.4176228 0
0.43513966 1.0890925 0.49510118 0
0.41772449 1.8336344 -0.05002718 0
0.42471328 1.093503 0.42086601 0
0.42483073 1.0810627 0.49035823 0
0.39776027 1.8426932 -0.050361779 0
0.41403106 1.104369 0.3538734 0
0.41402692 1.1045563 0.42648005 0
0.41468391 1.0747436 0.4867059 0
0.3778978 1.8419065 -0.050353795 0
0.35261175 2.5718892 0.42240727 0
0.35214534 2.5853536 0.59851182 0
0.40516096 1.0548471 0.47507074 0
0.35855821 1.8301067 -0.049961116 0
0.32245493 2.5941639 0.42664373 0
0.32252395 2.5927029 0.60069448 0
0.39543229 1.0497372 0.47227886 0
0.33894601 1.8274405 -0.049903512 0
0.29169384 2.6165562 0.43097317 0
0.29171127 2.6162651 0.60711801 0
0.3190968 1.8285609 -0.049990237 0
0.26124868 2.6261711 0.43306616 0
0.26102632 2.6292372 0.61093754 0
0.29870254 1.8353214 -0.050288096 0
0.2293568 2.6492689 0.43767115 0
0.23008814 2.6406846 0.61446971 0
0.27903137 1.8325067 -0.050252039 0
0.19719325 2.6684933 0.44165272 0
0.19800755 2.6601751 0.62016791 0
0.25972989 1.8265527 -0.050112072 0
0.16709618 2.6639373 0.44139832 0
0.16689356 2.6657691 0.6224106 0
0.34630433 1.0439422 0.47114268 0
0.2408089 1.8182956 -0.049897779 0
0.13502319 2.6756465 0.44416797 0
0.13491614 2.6765141 0.62608153 0
0.21913412 1.8313556 -0.050459761 0
0.102284 2.6893458 0.44737807 0
0.10357107 2.6798952 0.62796628 0
0.2018813 1.8120352 -0.049863856 0
0.070162579 2.6958263 0.44935301 0
0.068461105 2.7072425 0.63613844 0
0.18283346 1.8064096 -0.049769871 0
0.036918506 2.7074838 0.45235163 0
0.036143407 2.7122703 0.63867271 0
0.16315629 1.804749 -0.049828071 0
0.0025053786 2.7233672 0.45620716 0
0.0029349492 2.7209108 0.64225364 0
0.14408143 1.7996436 -0.049770266 0
-0.031509563 2.734189 0.45922238 0
-0.029491825 2.7234502 0.64436764 0
0.12289773 1.8052235 -0.050110146 0
-0.088109151 2.8552341 0.10034632 0
-0.088345125 2.8564086 0.29013342 0
-0.06259872 2.7282894 0.45924801 0
-0.061940774 2.7250154 0.6463396 0
0.10333546 1.8020697 -0.050141808 0
-0.11387511 2.8166416 0.099184133 0
-0.11456569 2.8198671 0.28686073 0
-0.093759075 2.7226813 0.45939955 0
-0.095654085 2.7315328 0.64971548 0
0.08534728 1.7918755 -0.049924802 0
-0.14318825 2.7973297 0.09873639 0
-0.14149483 2.7898793 0.28433731 0
-0.12741704 2.7279434 0.46163443 0
-0.12976702 2.7382822 0.65327263 0
0.064425364 1.794517 -0.050186772 0
-0.17591359 2.7935293 0.098870404 0
-0.17513861 2.790308 0.28520575 0
-0.16098411 2.731472 0.46363303 0
-0.1645043 2.7461042 0.65723461 0
0.046557292 1.7843692 -0.049988177 0
-0.20986898 2.7941675 0.099183492 0
-0.21091218 2.7982755 0.2869598 0
-0.19487591 2.7351253 0.46573976 0
-0.19415058 2.732269 0.65562338 0
0.026766287 1.781943 -0.050082572 0
-0.25271213 2.8271704 0.10070946 0
-0.25570136 2.8383501 0.2923415 0
-0.2273577 2.7323468 0.46673241 0
-0.22741075 2.7325451 0.65783185 0
0.006609486 1.7805612 -0.050225262 0
-0.25980979 2.7289312 0.46768576 0
-0.26217979 2.7373676 0.66136384 0
-0.011716528 1.7725967 -0.050132912 0
-0.29616117 2.7382641 0.47111613 0
-0.29372704 2.7300005 0.6617831 0
-0.030434145 1.7661129 -0.050104126 0
-0.32732213 2.7291181 0.47115865 0
-0.32724059 2.7288535 0.66397053 0
-0.048900142 1.758904 -0.050056849 0
-0.35762638 2.7172763 0.47076476 0
-0.35908061 2.7217906 0.66469395 0
-0.065021172 1.7448127 -0.0497589 0
-0.39494181 2.7264519 0.47444049 0
-0.39350098 2.7221649 0.66752994 0
-0.085407212 1.7435278 -0.049951714 0
-0.42549771 2.7147551 0.47423363 0
-0.42406857 2.7106738 0.66728789 0
-0.10060574 1.7275994 -0.049598739 0
-0.45443755 2.6986923 0.47326145 0
-0.45387357 2.6971445 0.66659558 0
-0.12288393 1.7310601 -0.049991552 0
-0.48965412 2.6995728 0.47562224 0
-0.48725694 2.6932428 0.66862863 0
-0.14129217 1.723912 -0.049990084 0
-0.51897329 2.6845384 0.47499633 0
-0.52011335 2.6874382 0.67026508 0
-0.15814103 1.7129341 -0.04984986 0
-0.55278051 2.680728 0.47662497 0
-0.5486896 2.6706955 0.66900992 0
-0.1773649 1.7078233 -0.049944479 0
-0.57981324 2.6602867 0.47508937 0
-0.58138752 2.6640124 0.67063373 0
-0.1987557 1.7074914 -0.05023526 0
-0.61243069 2.6531339 0.47622794 0
-0.61150885 2.6510267 0.67062569 0
-0.21113963 1.6867517 -0.049738511 0
-0.64386749 2.6429741 0.47685885 0
-0.63921249 2.6326878 0.66922438 0
-0.22847874 1.6774241 -0.049694754 0
-0.6714375 2.6243281 0.47588241 0
-0.66856539 2.6181884 0.66899431 0
-0.24797697 1.6726282 -0.04983905 0
-0.70008731 2.6082182 0.47547731 0
-0.70309806 2.6144485 0.67191601 0
-0.27231771 1.6773045 -0.050371937 0
-0.72834229 2.5914319 0.47500581 0
-0.72752452 2.5897923 0.66901612 0
-0.28345132 1.6554921 -0.049856964 0
-0.7586658 2.5787966 0.47544521 0
-0.75401068 2.5697522 0.66750991 0
-0.30253732 1.6494319 -0.049980864 0
-0.78897083 2.565985 0.4759292 0
-0.78628731 2.5609286 0.66932935 0
-0.32255507 1.6448866 -0.050177004 0
-0.81331658 2.5421264 0.47422391 0
-0.81478417 2.5448096 0.66915768 0
-0.3346554 1.6260014 -0.049797207 0
-0.61441541 2.1225216 0.082143746 0
-0.83399022 2.5122249 0.47131878 0
-0.83394921 2.5121522 0.66424638 0
-0.35170817 1.6161802 -0.049795005 0
-0.62059057 2.0796509 0.080924466 0
-0.85595751 2.4853516 0.4690778 0
-0.86343098 2.4982336 0.66489708 0
-0.36938632 1.607403 -0.049845099 0
-0.62022996 2.0275035 0.079313464 0
-0.8858043 2.4722745 0.46977577 0
-0.88762999 2.475332 0.66299337 0
-0.39031589 1.6038455 -0.050123569 0
-0.61936986 1.9767063 0.077746332 0
-0.91488504 2.4577549 0.47025302 0
-0.91360343 2.4556684 0.6621353 0
-0.40354568 1.587727 -0.049884908 0
-0.62057424 1.9312384 0.076391302 0
-0.93799114 2.4336438 0.46876583 0
-0.9355396 2.4297636 0.6594851 0
-0.42484462 1.5843344 -0.050193116 0
-0.61697447 1.8801216 0.074785292 0
-0.95678437 2.403265 0.46598083 0
-0.96202552 2.4113338 0.65917104 0
-0.43836659 1.5688957 -0.049998291 0
-0.6199497 1.8408866 0.073673837 0
-0.97884285 2.3784683 0.46443385 0
-0.97869682 2.3782494 0.65446073 0
-0.45388323 1.5566021 -0.049945284 0
-0.62371624 1.8041843 0.072664008 0
-1.0017325 2.3552558 0.4632805 0
-1.0011603 2.3544219 0.6526382 0
-0.46676099 1.5406231 -0.049739342 0
-0.61600912 1.7524292 0.070989825 0
-1.0191094 2.324491 0.46051389 0
-1.0267273 2.3353019 0.65235662 0
-0.4897266 1.5388265 -0.050163634 0
-0.62016761 1.7190788 0.070107125 0
-0.61516035 1.7121595 0.19805968 0
-1.0366844 2.2946501 0.45797616 0
-1.0470217 2.3089349 0.64989108 0
-0.074652448 0.96524864 0.43886647 0
-0.49921507 1.5183847 -0.049775418 0
-0.61703002 1.6769468 0.068827868 0
-0.62392056 1.6862204 0.19636835 0
-1.068648 2.28476 0.45994666 0
-1.0606542 2.2740016 0.64476037 0
-0.093425885 0.97225028 0.44724625 0
-0.51622504 1.5082502 -0.049851611 0
-0.61359906 1.6359121 0.067583784 0
-0.6065346 1.6266501 0.19012983 0
-1.0774224 2.2440057 0.45502636 0
-1.0771328 2.2436264 0.64109766 0
-0.097815469 0.95969576 0.44354877 0
-0.53508919 1.500392 -0.050041426 0
-0.61579502 1.6034828 0.066715591 0
-0.61939037 1.6080754 0.18939507 0
-1.094265 2.214664 0.45269644 0
-1.0938146 2.2140887 0.63773698 0
-0.10866381 0.95569056 0.44528204 0
-0.55069524 1.4882593 -0.050048254 0
-0.6206491 1.5753347 0.066035889 0
-0.61426914 1.5673932 0.18562742 0
-1.1113278 2.1861079 0.45057341 0
-1.1094514 2.1837723 0.63415563 0
-0.12932463 0.96375728 0.45486802 0
-0.56255031 1.4715638 -0.049853083 0
-0.61659551 1.5371286 0.064886563 0
-0.61783469 1.5386318 0.1834718 0
-1.1260842 2.1552122 0.44793135 0
-1.1352224 2.1662982 0.63484782 0
-0.14621569 0.96648955 0.46126285 0
-0.58301878 1.4652619 -0.050148729 0
-0.61648583 1.5048363 0.063999072 0
-0.61880958 1.5075842 0.18097763 0
-1.1481031 2.1334679 0.44746619 0
-1.1433029 2.1277916 0.62862778 0
-0.15882714 0.96366 0.46422032 0
-0.59735405 1.4515671 -0.050110329 0
-0.62089503 1.4787035 0.06339287 0
-0.61930251 1.4768677 0.17850491 0
-1.1609859 2.1012838 0.4445692 0
-1.1567711 2.0964251 0.62478513 0
-0.60521221 1.430629 -0.049733929 0
-0.63401949 1.4630034 0.063281059 0
-0.6364783 1.4657668 0.17882702 0
-1.1701759 2.0655506 0.4408218 0
-1.1719077 2.0674968 0.62178946 0
-0.62408018 1.4221441 -0.049959846 0
-0.65514052 1.4561777 0.063604832 0
-0.6644454 1.4663733 0.18088757 0
-1.184164 2.0358438 0.43853062 0
-1.1791853 2.0303886 0.61599928 0
-0.64072156 1.4110423 -0.050072033 0
-0.50860566 1.2698903 0.05516972 0
-0.68937004 1.4630181 0.18244089 0
-1.1909348 1.9988874 0.43446469 0
-1.195498 2.0037627 0.61383539 0
-0.64943433 1.391562 -0.049781259 0
-0.51010358 1.2464088 0.054598071 0
-0.72067547 1.46578 0.18497084 0
-1.2005439 1.9657009 0.43131295 0
-1.1952544 1.9601904 0.60572428 0
-0.66492569 1.3792555 -0.049851712 0
-0.51282734 1.2247436 0.054111216 0
-0.74381697 1.4593987 0.18621258 0
-1.2078847 1.9308306 0.42772624 0
-1.216503 1.9395857 0.60573345 0
-0.68828154 1.3746655 -0.050324347 0
-0.5257982 1.2137088 0.054159135 0
-0.78068948 1.4662052 0.18952832 0
-1.2207237 1.9021052 0.42569196 0
-1.2239472 1.9052984 0.60087883 0
-0.69603348 1.3545347 -0.050019614 0
-0.53888351 1.2027336 0.054219093 0
-0.80768692 1.4623878 0.19131555 0
-1.219568 1.8602498 0.4202643 0
-1.2249753 1.8654732 0.59396112 0
-0.70089686 1.3319743 -0.049589314 0
-0.5739423 1.2123939 0.055362854 0
-0.84295821 1.4657838 0.19431038 0
-1.2310933 1.8313735 0.41817379 0
-1.2220621 1.8228669 0.58592027 0
-0.72068024 1.3235244 -0.049901038 0
-0.87082267 1.4614195 0.069179006 0
-0.87857115 1.4685359 0.19731435 0
-1.2345896 1.7955134 0.41423085 0
-1.2298421 1.7911531 0.58186311 0
-0.2353601 0.87779266 0.38146889 0
-0.72926009 1.3047429 -0.049677491 0
-0.90944707 1.4660966 0.070312656 0
-0.90685344 1.4637741 0.1992221 0
-1.2345229 1.7571956 0.40957949 0
-1.2326021 1.7554755 0.57626975 0
-0.23671199 0.86367589 0.37795702 0
-0.75251174 1.2989756 -0.050162993 0
-0.94185591 1.4642812 0.071136534 0
-1.240013 1.7245852 0.40642545 0
-1.2351471 1.720337 0.57081771 0
-0.230226 0.84299743 0.37027386 0
-0.75630903 1.276197 -0.0497347 0
-0.97873044 1.4654984 0.072162062 0
-1.2377259 1.6859281 0.40156096 0
-1.2382534 1.686377 0.56576079 0
-0.22672416 0.82547015 0.3644374 0
-0.25324881 0.84804517 0.45657963 0
-0.77289462 1.2644161 -0.049917459 0
-1.0154549 1.4656467 0.073169269 0
-1.2487876 1.6592222 0.39998978 0
-1.2404171 1.6522779 0.56058657 0
-0.24663319 0.8278237 0.37137526 0
-0.78824294 1.251465 -0.0500484 0
-1.043799 1.4581006 0.073781431 0
-1.2531503 1.6273761 0.39695922 0
-1.2464323 1.6219442 0.55686998 0
-0.25135815 0.81735492 0.37014222 0
-0.80207264 1.2371957 -0.050116479 0
-1.0877193 1.4622731 0.075099863 0
-1.2543199 1.5935472 0.39331794 0
-1.2406569 1.5827813 0.54948497 0
-0.27192706 0.81946379 0.37734297 0
-0.81084752 1.2189811 -0.049964514 0
-1.126506 1.4613272 0.07617218 0
-1.2480587 1.554649 0.38811946 0
-1.2449358 1.5522513 0.54556447 0
-0.25512719 0.79232848 0.3649545 0
-0.24969728 0.78815967 0.43635207 0
-0.81891847 1.2003701 -0.049792863 0
-1.1675328 1.4611073 0.077334851 0
-1.2511466 1.5236441 0.38518608 0
-1.2468616 1.5204393 0.54105401 0
-0.26731026 0.7878089 0.36784467 0
-0.27716064 0.79517627 0.44942439 0
-0.83939874 1.1909448 -0.050181299 0
-1.2099445 1.4608768 0.078548208 0
-1.2434855 1.4853104 0.37996858 0
-1.2434241 1.4852656 0.5350188 0
-1.2373791 1.4808621 0.69335657 0
-0.26814932 0.7748059 0.36492682 0
-0.27828497 0.78218949 0.44601801 0
-0.84245801 1.1688217 -0.049808953 0
-1.2515668 1.4590321 0.07971634 0
-1.2507621 1.4584613 0.37820771 0
-1.2410246 1.4515538 0.52950126 0
-1.2316782 1.4449238 0.68483734 0
-0.27219486 0.76429302 0.36374614 0
-0.28494161 0.77333522 0.44613644 0
-0.84871602 1.1492231 -0.049590752 0
-1.3020793 1.4623208 0.081261113 0
-1.2446264 1.4226432 0.37359679 0
-1.2418102 1.4206983 0.52515113 0
-1.2362565 1.4168628 0.68073171 0
-0.28655344 0.76098752 0.44325435 0
-0.87146449 1.1408907 -0.050094426 0
-1.2868932 1.4201308 0.079964913 0
-1.2782972 1.4143528 0.22753872 0
-1.2511913 1.3961328 0.37188309 0
-1.2383761 1.3875189 0.51966047 0
-1.2301675 1.3820013 0.67252678 0
-0.29216754 0.75150275 0.44290358 0
-0.87947536 1.1224909 -0.04996977 0
-1.2677888 1.3764654 0.078534946 0
-1.2713298 1.3787814 0.22480202 0
-1.246132 1.362301 0.3677507 0
-1.2378527 1.3568859 0.51523006 0
-1.2423077 1.3597996 0.67181104 0
-0.30157989 0.7445212 0.44489816 0
-0.88797188 1.1045007 -0.0498765 0
-1.2769221 1.3519559 0.078334615 0
-1.2837719 1.3563138 0.22461674 0
-1.2529624 1.3367125 0.36628416 0
-1.2502109 1.3349619 0.5148474 0
-1.2336786 1.3244438 0.6630221 0
-0.29790848 0.72909456 0.43917027 0
-0.89999378 1.0887651 -0.049941503 0
-1.294234 1.3326676 0.078492187 0
-1.2896111 1.3298075 0.22363436 0
-1.2465996 1.3031979 0.36209971 0
-1.2395781 1.2988539 0.50765336 0
-1.2387768 1.2983582 0.65984648 0
-0.91245151 1.0732346 -0.050032459 0
-1.3118463 1.3134254 0.078671239 0
-1.3105849 1.3126669 0.22459939 0
-1.2432894 1.2721962 0.3586784 0
-1.2314652 1.2650853 0.5013997 0
-1.2351977 1.2673299 0.65345407 0
-0.91960239 1.0545248 -0.049911421 0
-1.3373928 1.2986689 0.079187125 0
-1.3343049 1.2968645 0.22592616 0
-1.2521362 1.2488475 0.35790345 0
-1.2436332 1.2438786 0.50131094 0
-1.230757 1.2363541 0.64692771 0
-0.92918837 1.0372918 -0.049900919 0
-1.3882259 1.2978419 0.080745034 0
-1.383745 1.2952986 0.23044647 0
-1.2538667 1.2215796 0.35571942 0
-1.2419317 1.2148051 0.49723262 0
-1.2377945 1.2124569 0.64498854 0
-0.94304168 1.0224153 -0.050073322 0
-1.2580121 1.195986 0.3541187 0
-1.2434289 1.1879497 0.49422136 0
-1.2383918 1.1851739 0.64073104 0
-0.95590258 1.0068667 -0.050211992 0
-1.2509112 1.1646276 0.35029489 0
-1.2487144 1.1634527 0.49242449 0
-1.24045 1.1590333 0.63718343 0
-0.96793222 0.99077308 -0.050324231 0
-1.2553247 1.1398385 0.34891573 0
-1.2367949 1.1302273 0.4857834 0
-1.239779 1.1317751 0.63275969 0
-0.97222447 0.97069705 -0.050134704 0
-1.2635323 1.1171683 0.34837437 0
-1.2416383 1.1061599 0.48409098 0
-1.2416434 1.1061624 0.62943631 0
-0.97366655 0.94937778 -0.049843214 0
-1.2803626 1.0987785 0.34962356 0
-1.2364213 1.0773734 0.47964019 0
-1.2442213 1.0811729 0.626517 0
-0.992329 0.93640429 -0.050243821 0
-1.2884449 1.0760657 0.34916732 0
-1.2336007 1.0501987 0.47599423 0
-1.2396978 1.0530744 0.62111896 0
-0.99276912 0.91480112 -0.049933463 0
-1.2979871 1.0540848 0.34905994 0
-1.2475729 1.0310787 0.47717482 0
-1.2431799 1.029074 0.61880916 0
-1.01928 0.90493649 -0.050652795 0
-1.3171579 1.0363644 0.3509059 0
-1.2418548 1.0031397 0.47292531 0
-1.2363886 1.0007279 0.61288655 0
-1.0019506 0.87582994 -0.049671706 0
-1.3222255 1.0123483 0.35002095 0
-1.2375607 0.97625965 0.46919137 0
-1.2423807 0.97831416 0.61174834 0
-1.0141715 0.85962683 -0.049850665 0
-1.333104 0.99085259 0.35033292 0
-1.2530754 0.95792454 0.47103524 0
-1.2413172 0.95308661 0.60817957 0
-1.023605 0.84217846 -0.049929526 0
-1.3484405 0.97107482 0.35156095 0
-1.2425563 0.92905945 0.46578765 0
-1.2401549 0.92810655 0.60470712 0
-1.0192019 0.81937748 -0.049487572 0
-1.3517272 0.94650275 0.35050476 0
-1.2355286 0.9020797 0.46161836 0
-1.2402967 0.90390259 0.60182822 0
-1.0363171 0.80482274 -0.049877197 0
-1.355567 0.92228723 0.3496193 0
-1.2462542 0.88206679 0.46238726 0
-1.2394094 0.87954831 0.59870613 0
-1.040291 0.78532493 -0.049774397 0
-1.360236 0.8984921 0.34895489 0
-1.2358478 0.85449499 0.45750231 0
-1.2326009 0.85334653 0.59361678 0
-1.0476609 0.76705384 -0.049809359 0
-1.3795445 0.87976253 0.3511388 0
-1.2363377 0.83112907 0.45566788 0
-1.2417465 0.83296591 0.59427088 0
-1.0441866 0.74522239 -0.049445674 0
-1.3768524 0.85354453 0.34918579 0
-1.241776 0.80956113 0.45524782 0
-1.240064 0.80900371 0.59122366 0
-1.0621305 0.73033345 -0.049894664 0
-1.381796 0.82998854 0.34874538 0
-1.2389417 0.78545398 0.45269132 0
-1.2319449 0.78327274 0.58605075 0
-1.0708811 0.71237141 -0.050006505 0
-1.3799496 0.80446947 0.34708476 0
-1.2351605 0.76132435 0.44997332 0
-1.2327721 0.76061267 0.58411556 0
-1.0600916 0.68876827 -0.049401093 0
-1.4041476 0.7865926 0.35037369 0
-1.2391192 0.73967057 0.4493987 0
-1.2448145 0.74128991 0.58616531 0
-1.0735605 0.67217255 -0.049705993 0
-1.4154549 0.76474571 0.35128501 0
-1.2353971 0.71599233 0.44686806 0
-1.2434794 0.71818072 0.58368123 0
-1.0854508 0.65494549 -0.049959436 0
-1.4165227 0.74012893 0.35033789 0
-1.2439035 0.69571477 0.44764581 0
-1.234895 0.69339687 0.57881492 0
-1.0876282 0.63516212 -0.049863156 0
-1.4357179 0.72006583 0.3528164 0
-1.2568549 0.67643875 0.44965562 0
-1.2441465 0.67333901 0.58017844 0
-1.0885518 0.61515605 -0.049730353 0
-1.4230541 0.69229656 0.34943798 0
-1.2290155 0.64754879 0.44104305 0
-1.2380052 0.6496219 0.57636887 0
-1.1020255 0.5979709 -0.050065655 0
-1.424544 0.66808301 0.34874567 0
-1.2429823 0.62861341 0.44346437 0
-1.2456523 0.62919384 0.57736605 0
-1.1111662 0.57965624 -0.050250106 0
-1.4488107 0.64861608 0.35230392 0
-1.2397636 0.60592073 0.44146657 0
-1.2335359 0.60464877 0.57173711 0
-1.0994463 0.55721831 -0.049684264 0
-1.4364538 0.62163877 0.34917408 0
-1.2357676 0.58327675 0.43934599 0
-1.2471697 0.58545631 0.57494867 0
-1.1101216 0.53917193 -0.04994208 0
-1.4521405 0.60009688 0.35125077 0
-1.2433646 0.56290692 0.44030839 0
-1.2398698 0.56228441 0.57116061 0
-1.1134838 0.51973021 -0.049942963 0
-1.438408 0.57339811 0.34799519 0
-1.2370648 0.54014212 0.4377417 0
-1.2400351 0.54063272 0.56999612 0
-1.1119225 0.49953496 -0.049774893 0
-1.4435568 0.55003017 0.3482517 0
-1.2372968 0.51862466 0.43693963 0
-1.2327869 0.51793802 0.56643093 0
-1.1172988 0.48042342 -0.049866371 0
-1.4508889 0.52692664 0.34895894 0
-1.2265432 0.49565235 0.43337893 0
-1.2442834 0.49812537 0.56926465 0
-1.124014 0.46141317 -0.050014552 0
-1.4582202 0.50371963 0.34971786 0
-1.2413865 0.47627109 0.43648112 0
-1.2432878 0.47651178 0.56798834 0
-1.1224285 0.44134983 -0.049872868 0
-0.51043129 0.37169588 0.039882723 0
-0.51912528 0.37268537 0.10893535 0
-0.51169109 0.37183926 0.17739068 0
-1.2415183 0.45490393 0.43586388 0
-1.2483559 0.45568216 0.56883538 0
-1.1256554 0.42187023 -0.04991312 0
-0.51689458 0.36033842 0.040068839 0
-0.50287819 0.35892171 0.10704122 0
-0.51444143 0.36009046 0.17765751 0
-1.2282801 0.43224323 0.43188801 0
-1.2509 0.4345296 0.5689252 0
-1.1345191 0.40285712 -0.050164152 0
-0.47359145 0.34444934 0.038476225 0
-0.51994222 0.34854546 0.10876179 0
-0.52179497 0.3487092 0.17878427 0
-1.2425723 0.41240606 0.43504101 0
-1.23651 0.4118703 0.56344813 0
-1.1312218 0.38274276 -0.049988113 0
-0.50506431 0.33534515 0.10705221 0
-0.51051682 0.33575788 0.17656606 0
-1.2445782 0.39132339 0.43511134 0
-1.2411369 0.39106289 0.56441635 0
-1.1337793 0.36311877 -0.050030719 0
-0.51148099 0.32388678 0.10765494 0
-0.52137554 0.32451057 0.1783794 0
-1.2420812 0.36994651 0.4340983 0
-1.2429487 0.37000123 0.56453276 0
-1.2346491 0.36947799 0.69764757 0
-1.1298546 0.34313479 -0.049850419 0
-0.51971519 0.31237677 0.10846842 0
-0.50826371 0.3117995 0.17588861 0
-1.2369813 0.34853521 0.43248984 0
-1.234188 0.34839439 0.56121564 0
-1.2288141 0.34812349 0.69473481 0
-0.35483336 0.30406484 0.47354457 0
-1.1415873 0.32386672 -0.050238583 0
-0.51261485 0.30009454 0.10764791 0
-0.51245397 0.30008847 0.17655055 0
-1.2428857 0.32769531 0.43376058 0
-1.241996 0.32766169 0.56350696 0
-1.2441204 0.32774198 0.70069426 0
-0.35084283 0.29398033 0.47091675 0
-1.1319957 0.30378446 -0.049873747 0
-0.40665084 0.28551224 0.35356644 0
-0.42028314 0.28585565 0.43283832 0
-0.37662029 0.28475574 0.48602453 0
-1.1360253 0.28412795 -0.05000433 0
-0.39998084 0.27485758 0.42257792 0
-0.37988937 0.27460453 0.48784924 0
-1.1396931 0.26437625 -0.050130837 0
-0.37988603 0.26437423 0.41249064 0
-0.38801122 0.26437426 0.49262768 0
-0.90769523 -0.98929477 -0.092178203 0
-1.0064265 -0.98929501 -0.088774525 0
-1.1308999 -0.98929536 -0.085054673 0
-1.1247643 -0.98929536 -0.057234902 0
-1.1316289 -0.98929536 -0.031400669 0
-1.1274359 -0.98929536 -0.0043558013 0
-1.1306173 -0.98929536 0.021861481 0
-1.1330824 -0.98929536 0.04817478 0
-1.1281946 -0.98929536 0.074716717 0
-1.124192 -0.98929536 0.10100252 0
-1.1278479 -0.98929536 0.1272805 0
-1.1309992 -0.98929536 0.1537338 0
-1.1364695 -0.98929536 0.1805537 0
-1.1274787 -0.98929536 0.20636559 0
-1.1348352 -0.98929536 0.23378195 0
-1.1320199 -0.98929536 0.26026133 0
-1.1304607 -0.98929536 0.28698963 0
-1.1274766 -0.98929536 0.31358194 0
-0.89597362 -1.0119328 -0.089747362 0
-1.0068122 -1.0147306 -0.088907637 0
-1.1333607 -1.0179249 -0.085518487 0
-1.1280459 -1.0177907 -0.057746623 0
-1.1317556 -1.0178844 -0.031457651 0
-1.1351129 -1.0179691 -0.0051061418 0
-1.1276696 -1.0177813 0.02204241 0
-1.1320189 -1.0178909 0.048207492 0
-1.1325222 -1.0179037 0.074607708 0
-1.1274847 -1.0177765 0.10100263 0
-1.1190364 -1.0175633 0.12708345 0
-1.1301545 -1.017844 0.15371123 0
-1.1263574 -1.0177481 0.17987132 0
-1.1275766 -1.0177789 0.20640829 0
-1.1244473 -1.0176998 0.2326092 0
-1.1340158 -1.0179414 0.26059276 0
-1.1275253 -1.0177776 0.28656611 0
-1.127728 -1.0177827 0.31369704 0
-0.89370972 -1.0344853 -0.089447893 0
-1.0100039 -1.0403597 -0.089691125 0
-1.1287823 -1.0463595 -0.084943347 0
-1.1202979 -1.045931 -0.056808118 0
-1.2374313 -1.0518478 -0.043950681 0
-1.2413375 -1.0520451 -0.015135257 0
-1.2451317 -1.0522367 0.013744773 0
-1.2461767 -1.0522895 0.042835686 0
-1.2466806 -1.052315 0.07192488 0
-1.2463062 -1.052296 0.10100605 0
-1.2350874 -1.0517293 0.12981673 0
-1.2430151 -1.0521299 0.15902899 0
-1.2250148 -1.0512205 0.1868583 0
-1.2476419 -1.0523635 0.21773726 0
-0.90174425 -1.0577623 -0.091464408 0
-1.0138172 -1.0662628 -0.09071558 0
-1.1305619 -1.0751177 -0.085533284 0
-1.1248225 -1.0746825 -0.057697523 0
-1.2380449 -1.0832702 -0.0442538 0
-1.240783 -1.0834779 -0.01526857 0
-1.2333243 -1.0829121 0.014433438 0
-1.2451593 -1.0838099 0.042790446 0
-1.2417895 -1.0835541 0.071992591 0
-1.2427549 -1.0836275 0.10100601 0
-1.2364188 -1.0831468 0.12989387 0
-1.2379564 -1.0832635 0.15888515 0
-1.2373248 -1.0832156 0.18785909 0
-1.2438179 -1.083708 0.21756537 0
-0.89749241 -1.0802903 -0.090986498 0
-1.0134537 -1.0920351 -0.091075592 0
-1.1464226 -1.1055024 -0.088570587 0
-1.2334831 -1.11432 -0.07340119 0
-1.2383476 -1.1148127 -0.044614259 0
-1.2242192 -1.1133817 -0.013974642 0
-1.2475611 -1.1157459 0.01323946 0
-1.241689 -1.1151512 0.042822678 0
-1.2468337 -1.1156722 0.07180988 0
-1.2407438 -1.1150553 0.10100603 0
-1.238644 -1.1148427 0.13001071 0
-1.2375802 -1.114735 0.15899709 0
-1.2315056 -1.1141198 0.18764424 0
-2.0058649 -1.1925479 0.28936392 0
-1.9980141 -1.1917528 0.33591026 0
-1.9353796 -1.1854091 0.37460071 0
-1.4755511 -1.138837 0.38058588 0
-0.89607537 -1.1030784 -0.091236107 0
-1.0167117 -1.1183804 -0.092247657 0
-1.155636 -1.1360023 -0.090643205 0
-1.2001774 -1.1416521 -0.069185622 0
-1.2439826 -1.1472086 -0.045697678 0
-1.2420853 -1.1469679 -0.01598691 0
-1.241851 -1.1469382 0.013389008 0
-1.2403113 -1.1467428 0.042719744 0
-1.2404029 -1.1467545 0.071876556 0
-1.232769 -1.1457862 0.1010059 0
-1.2327167 -1.1457795 0.12995514 0
-1.2282155 -1.1452086 0.15872432 0
-1.2450244 -1.1473408 0.18884748 0
-1.5951627 -1.1917539 0.36549395 0
-1.4796712 -1.1771045 0.38217425 0
-0.90285009 -1.1271908 -0.093371548 0
-0.99219078 -1.1408217 -0.088257946 0
-1.1336087 -1.1623981 -0.087657727 0
-1.2023816 -1.172891 -0.070099823 0
-1.6266112 -1.2376167 -0.091452174 0
-2.5591438 -1.3798951 -0.1407572 0
-3.4217842 -1.5115101 -0.14108171 0
-5.1276317 -1.771775 -0.14055306 0
-10.272553 -2.556747 -0.14065789 0
-1.3593107 -1.196834 0.29442993 0
-1.3523887 -1.1957779 0.32605168 0
-1.3646103 -1.1976426 0.36123773 0
-0.89211023 -1.1487067 -0.091865964 0
-0.9950037 -1.167073 -0.089588113 0
-1.1414649 -1.1932161 -0.089758791 0
-1.1989187 -1.2034715 -0.070321463 0
-1.622108 -1.2790102 -0.091722898 0
-2.5442626 -1.4436134 -0.14035796 0
-3.3976886 -1.5959488 -0.14038365 0
-5.1023707 -1.9002321 -0.14036931 0
-10.242678 -2.8177695 -0.14096357 0
-1.3437815 -1.2293293 0.29302183 0
-1.3259903 -1.2261536 0.32258496 0
-1.3174521 -1.2246295 0.35330153 0
-0.88758302 -1.1711441 -0.091818072 0
-0.99171251 -1.1924552 -0.089878716 0
-1.135293 -1.2218404 -0.089647554 0
-1.1958249 -1.2342287 -0.070707642 0
-1.5992244 -1.3167883 -0.089926668 0
-2.5425239 -1.5098436 -0.14136161 0
-3.383604 -1.6819787 -0.14054805 0
-5.0922256 -2.0316646 -0.14105661 0
-10.184429 -3.073833 -0.14075348 0
-1.2561411 -1.2465731 0.31193683 0
-1.2269856 -1.2406061 0.33712608 0
-0.8784222 -1.1925141 -0.090882219 0
-0.99269098 -1.2189207 -0.091119893 0
-1.1275635 -1.2500887 -0.089394473 0
-1.1856503 -1.2635121 -0.070186444 0
-1.5963317 -1.3584174 -0.090631969 0
-2.5135791 -1.5703862 -0.13992451 0
-3.3712981 -1.7685984 -0.1409964 0
-5.0602031 -2.1588914 -0.14086065 0
-10.129772 -3.3304298 -0.14078164 0
-0.87058252 -1.2140104 -0.090348311 0
-0.97454506 -1.2408155 -0.088778786 0
-1.1230789 -1.2791127 -0.089811124 0
-1.3263813 -1.3315313 -0.09166979 0
-1.5947334 -1.4007218 -0.091624506 0
-1.9898404 -1.5025944 -0.090930216 0
-3.3465898 -1.852412 -0.14070964 0
-5.0326023 -2.2871251 -0.14102991 0
-10.057092 -3.5826154 -0.14053227 0
-0.87399727 -1.2385966 -0.092417546 0
-0.980039 -1.2688107 -0.091158457 0
-1.1243777 -1.309937 -0.091343872 0
-1.3092968 -1.3626257 -0.090496846 0
-1.5749236 -1.4383103 -0.090540402 0
-1.9713273 -1.5512569 -0.090451919 0
-3.3281875 -1.9378648 -0.14103244 0
-5.0091228 -2.4168108 -0.14155604 0
-9.9983912 -3.8383949 -0.14077242 0
-0.86476958 -1.2597628 -0.091825403 0
-0.97236723 -1.2933779 -0.091097884 0
-1.1054609 -1.3349582 -0.089541368 0
-1.294608 -1.3940504 -0.089782454 0
-1.5628442 -1.4778512 -0.090509959 0
-1.969179 -1.6047958 -0.091689788 0
-3.2980034 -2.0199392 -0.14065227 0
-4.9553065 -2.5377038 -0.14076571 0
-9.9274082 -4.0910578 -0.14087194 0
-0.84980899 -1.278845 -0.090060391 0
-0.96033657 -1.3164616 -0.090292402 0
-1.0973918 -1.3631065 -0.089715801 0
-1.2824613 -1.4260924 -0.089556538 0
-1.5434097 -1.5149027 -0.089693926 0
-1.9399858 -1.6498721 -0.090404429 0
-3.2648861 -2.1007841 -0.14020453 0
-4.9208012 -2.6643524 -0.14106767 0
-9.8360271 -4.337184 -0.14062734 0
-0.84032184 -1.2995144 -0.089627542 0
-0.9512583 -1.3404214 -0.090188541 0
-1.0966663 -1.3940396 -0.091302089 0
-1.2789971 -1.4612728 -0.090749599 0
-1.5375713 -1.5566202 -0.090679862 0
-1.9247057 -1.6993734 -0.090603895 0
-3.2373676 -2.183408 -0.14032115 0
-4.8671412 -2.7843757 -0.14057994 0
-9.7521534 -4.58569 -0.14071974 0
-0.83681935 -1.3224688 -0.090678088 0
-0.95226085 -1.3683778 -0.092248984 0
-1.0865149 -1.4217684 -0.091374643 0
-1.2579627 -1.4899503 -0.08943104 0
-1.5280603 -1.5973636 -0.091345586 0
-1.9167273 -1.7519299 -0.091663711 0
-3.2155714 -2.2684581 -0.1410256 0
-4.8188787 -2.9060664 -0.14050876 0
-9.6605949 -4.8315353 -0.14077695 0
-0.8289606 -1.3438488 -0.09086632 0
-0.93553138 -1.389377 -0.090843655 0
-1.0585046 -1.4419124 -0.088380657 0
-1.2425522 -1.5205394 -0.089067675 0
-1.5024222 -1.6315585 -0.09009894 0
-1.8861952 -1.7955102 -0.090579726 0
-3.1733327 -2.3453882 -0.14034596 0
-4.765851 -3.0257282 -0.14035024 0
-9.5554771 -5.0719051 -0.14064805 0
-0.82043141 -1.3649875 -0.091025464 0
-0.92856008 -1.4144435 -0.091552265 0
-1.0619618 -1.4754589 -0.091130309 0
-1.2449459 -1.5591522 -0.091570176 0
-1.4909071 -1.6716502 -0.090763174 0
-1.8683287 -1.8442756 -0.090895437 0
-3.1493444 -2.4301875 -0.14120989 0
-4.7209935 -3.1490295 -0.14076188 0
-9.4621935 -5.3175631 -0.14097448 0
-0.81094921 -1.3857189 -0.091086604 0
-0.9150452 -1.4365444 -0.091029949 0
-1.0375704 -1.4963682 -0.088974617 0
-1.2169307 -1.5839419 -0.089499496 0
-1.4859297 -1.7152823 -0.092416786 0
-1.8437086 -1.8899701 -0.090640657 0
-3.1014915 -2.5040901 -0.14039341 0
-4.6641655 -3.2670753 -0.14071876 0
-9.3418446 -5.5509806 -0.14076412 0
-0.79316568 -1.4021672 -0.089284338 0
-0.90109605 -1.4582804 -0.090526201 0
-1.0288377 -1.5246936 -0.089788176 0
-1.2049714 -1.6162659 -0.090043105 0
-1.4442185 -1.7406509 -0.089397602 0
-1.8272928 -1.9398119 -0.091366164 0
-3.0726891 -2.5872958 -0.14121325 0
-4.6175008 -3.3904464 -0.14136368 0
-9.2181187 -5.7823162 -0.1406159 0
-0.79525977 -1.4291235 -0.092383929 0
-0.8886416 -1.4807066 -0.090454288 0
-1.0062662 -1.5456812 -0.08814811 0
-1.1873378 -1.6457032 -0.089813404 0
-1.4288805 -1.7791288 -0.089942284 0
-1.7866566 -1.9767605 -0.089652382 0
-3.0158241 -2.6557393 -0.13996997 0
-4.5334344 -3.4940512 -0.14019296 0
-9.0979977 -6.0154672 -0.14071542 0
-0.77873427 -1.4460419 -0.091109164 0
-0.88797748 -1.5100361 -0.093077667 0
-1.0013998 -1.5764784 -0.089956172 0
-1.1711518 -1.6759182 -0.089936234 0
-1.4081835 -1.8147703 -0.089899831 0
-1.7641233 -2.0232782 -0.089971565 0
-2.9777229 -2.734199 -0.14036739 0
-4.4775443 -3.6127875 -0.14066508 0
-8.9728174 -6.2460976 -0.14083754 0
-0.76638258 -1.4652101 -0.09096428 0
-0.86683822 -1.5275131 -0.091367222 0
-0.99000847 -1.6039038 -0.090680055 0
-1.1545545 -1.7059559 -0.090118162 0
-1.3836254 -1.8480266 -0.089448489 0
-1.7529274 -2.077069 -0.091669001 0
-2.9362357 -2.8109615 -0.14065422 0
-4.4111357 -3.7257004 -0.14073141 0
-8.83986 -6.4724131 -0.14090686 0
-0.75227982 -1.4832063 -0.090493895 0
-0.85042959 -1.5475638 -0.090792321 0
-0.97365284 -1.6283622 -0.090575315 0
-1.1340889 -1.7335612 -0.089779429 0
-1.3678888 -1.8868655 -0.090338878 0
-1.7129327 -2.1131132 -0.090330638 0
-2.8845229 -2.8813329 -0.14025168 0
-4.34762 -3.8406961 -0.14111727 0
-8.7009926 -6.6952329 -0.14097057 0
-0.73805851 -1.5010023 -0.090101026 0
-0.83909726 -1.570962 -0.09148521 0
-0.96086508 -1.6552746 -0.091304339 0
-1.1144394 -1.7616103 -0.089692362 0
-1.3556043 -1.928594 -0.091873847 0
-1.6807339 -2.1537154 -0.089956217 0
-2.8429329 -2.9584274 -0.14085259 0
-4.2691774 -3.9459665 -0.14082767 0
-8.5426846 -6.9049635 -0.14064334 0
-0.72570944 -1.520068 -0.090310849 0
-0.82337683 -1.5914052 -0.091303997 0
-0.93840677 -1.675424 -0.09021575 0
-1.1007497 -1.7940006 -0.09076295 0
-1.3256699 -1.9582841 -0.091033988 0
-1.6580257 -2.2010396 -0.090789206 0
-2.7982371 -3.0338595 -0.14136273 0
-4.1947207 -4.0538621 -0.14091426 0
-8.3927698 -7.1201525 -0.14070275 0
-0.71599823 -1.5412457 -0.091360278 0
-0.80806273 -1.6121206 -0.091337331 0
-0.91256565 -1.692571 -0.088508688 0
-1.0834122 -1.8240954 -0.091351189 0
-1.2995684 -1.9905009 -0.090852492 0
-1.628759 -2.2439246 -0.091005363 0
-2.7416017 -3.1006343 -0.14099589 0
-4.1122584 -4.1558194 -0.14069074 0
-8.2393208 -7.3329935 -0.14081749 0
-0.70251042 -1.5597006 -0.091542758 0
-0.78863221 -1.629531 -0.090498723 0
-0.90603238 -1.7247229 -0.090942375 0
-1.0601979 -1.8497254 -0.091024421 0
-1.2740859 -2.0231526 -0.090881519 0
-1.5966432 -2.2846925 -0.091012411 0
-2.6873419 -3.1690664 -0.1409855 0
-4.0317364 -4.2591453 -0.14073162 0
-8.0819139 -7.5431614 -0.14097537 0
-0.68796962 -1.5773327 -0.091563754 0
-0.77881849 -1.6548758 -0.092130966 0
-0.89071685 -1.7503854 -0.091704883 0
-1.0386066 -1.8766152 -0.091108687 0
-1.2437758 -2.0517349 -0.090294726 0
-1.5547425 -2.317157 -0.089943789 0
-2.6343966 -3.2386837 -0.1412528 0
-3.955389 -4.3662019 -0.14118689 0
-7.906467 -7.7386007 -0.14074568 0
-0.66921932 -1.5912105 -0.090508305 0
-0.7570858 -1.6701256 -0.090943344 0
-0.86691254 -1.7687638 -0.090751164 0
-1.0168434 -1.9034207 -0.091289215 0
-1.2322897 -2.0969186 -0.092763655 0
-1.5308765 -2.365087 -0.091215022 0
-2.5807178 -3.3079765 -0.14162065 0
-3.8632915 -4.4598889 -0.14083427 0
-7.7314577 -7.9339881 -0.14067692 0
-0.65340841 -1.6075405 -0.090388231 0
-0.73470044 -1.6843437 -0.089656584 0
-0.83571994 -1.779785 -0.088207625 0
-0.98845458 -1.9240857 -0.090322427 0
-1.1942092 -2.1184788 -0.091197394 0
-1.49001 -2.3979456 -0.090487428 0
-1.9785129 -2.8594739 -0.089408644 0
-3.7700191 -4.5520544 -0.14054762 0
-7.5476031 -8.1210442 -0.14047952 0
-0.6409685 -1.6272007 -0.091397338 0
-0.7251243 -1.7108276 -0.091832586 0
-0.82309014 -1.8081777 -0.089964248 0
-0.96838373 -1.9525583 -0.091081224 0
-1.1647655 -2.1477058 -0.09110301 0
-1.4636571 -2.4447191 -0.091759048 0
-1.927938 -2.9060822 -0.089136787 0
-3.6794055 -4.6465421 -0.14057903 0
-7.374351 -8.3182659 -0.14077753 0
-0.61699766 -1.6351765 -0.089038588 0
-0.70446563 -1.7265953 -0.091227077 0
-0.80534375 -1.8320298 -0.090719588 0
-0.94549906 -1.9785155 -0.091432504 0
-1.1368587 -2.1785185 -0.091389097 0
-1.4177334 -2.4720795 -0.090579577 0
-1.8860754 -2.9615755 -0.089856185 0
-3.5895944 -4.7420382 -0.14082393 0
-7.1849022 -8.4997377 -0.1407041 0
-0.60315138 -1.6534728 -0.089874707 0
-0.68475217 -1.7431853 -0.090979062 0
-0.77741659 -1.8450614 -0.089154564 0
-0.91534042 -1.996696 -0.090409465 0
-1.1026248 -2.2025979 -0.090717532 0
-1.3831524 -2.5110121 -0.091034971 0
-1.8407127 -3.0140574 -0.090375744 0
-3.4907703 -4.8281436 -0.14061667 0
-6.9985337 -8.6846066 -0.14089119 0
-0.58817273 -1.6707847 -0.090515532 0
-0.66888261 -1.7641454 -0.091949679 0
-0.76138258 -1.8711442 -0.090613566 0
-0.89547825 -2.0262585 -0.091665976 0
-1.0677354 -2.2255161 -0.090016089 0
-1.34159 -2.5422959 -0.090645738 0
-1.8063302 -3.0798814 -0.092224054 0
-3.3915658 -4.9135933 -0.14052877 0
-6.7988992 -8.8550062 -0.1407758 0
-0.57030517 -1.6848416 -0.09035299 0
-0.64970505 -1.7815133 -0.09212359 0
-0.73951656 -1.8908614 -0.090775825 0
-0.8636241 -2.041966 -0.090469189 0
-1.0414286 -2.2584481 -0.090978138 0
-1.311682 -2.5874894 -0.092072703 0
-1.7351145 -3.1030309 -0.090253241 0
-3.2911077 -4.9974976 -0.14050205 0
-6.6002536 -9.0264788 -0.14084831 0
-0.55418205 -1.7010961 -0.090908803 0
-0.62574732 -1.7928548 -0.090971403 0
-0.71398669 -1.9059924 -0.090095259 0
-0.83481425 -2.0609138 -0.090017967 0
-1.0142367 -2.2909634 -0.091959111 0
-1.264535 -2.6118879 -0.091100581 0
-1.6856264 -3.151798 -0.090752967 0
-3.1957524 -5.0880332 -0.1410186 0
-6.390842 -9.1846752 -0.14067726 0
-0.53399485 -1.7121055 -0.090176009 0
-0.60365385 -1.8062239 -0.090458728 0
-0.69172341 -1.9252174 -0.09039738 0
-0.81065345 -2.0859072 -0.090760507 0
-0.97699529 -2.3106568 -0.091158383 0
-1.2225138 -2.6423845 -0.090994112 0
-1.6319276 -3.1955559 -0.09091752 0
-3.0919342 -5.1682153 -0.1410667 0
-6.191164 -9.3556795 -0.14103426 0
-0.51696342 -1.7273341 -0.090685226 0
-0.58081412 -1.818319 -0.08979138 0
-0.66885573 -1.9437749 -0.09067408 0
-0.77919942 -2.1010106 -0.08989764 0
-0.94820362 -2.3418353 -0.092146985 0
-1.0911095 -2.545471 -0.076482795 0
-1.0900543 -2.5439672 -0.031808887 0
-1.0412951 -2.4744871 0.016500587 0
-1.0261347 -2.4528842 0.059397887 0
-1.0398188 -2.4723833 0.10102212 0
-0.50276786 -1.7470732 -0.092447929 0
-0.55511695 -1.8258221 -0.088228084 0
-0.64768678 -1.9650753 -0.091602363 0
-0.75069898 -2.1200368 -0.089846276 0
-0.91432625 -2.3661819 -0.092263259 0
-1.1311166 -2.6923006 -0.089906998 0
-0.98433673 -2.4714987 -0.02345608 0
-0.98243046 -2.4686313 0.018271612 0
-0.98877537 -2.4781759 0.059402276 0
-1.0075847 -2.5064709 0.10102241 0
-0.47583443 -1.7473736 -0.089392327 0
-0.53984028 -1.8491369 -0.090353139 0
-0.61980546 -1.976274 -0.090659358 0
-0.7224614 -2.1394873 -0.08998657 0
-0.87583995 -2.3833449 -0.091504924 0
-0.93567419 -2.4784758 -0.06323906 0
-0.94241244 -2.4891889 -0.022902882 0
-0.95476872 -2.5088344 0.017399253 0
-0.96835208 -2.5304306 0.058639895 0
-0.99207425 -2.5681467 0.10102364 0
-0.46038234 -1.7656019 -0.090984546 0
-0.51413882 -1.8560561 -0.088939406 0
-0.59223306 -1.9874626 -0.089864023 0
-0.693838 -2.1584299 -0.09015917 0
-0.83291286 -2.3924468 -0.089794971 0
-1.0284467 -2.7214651 -0.087108187 0
-0.93025327 -2.5562382 -0.026458671 0
-0.95665973 -2.6006713 0.013705494 0
-0.95388675 -2.5960054 0.057514537 0
-0.43810579 -1.77246 -0.089879371 0
-0.49606797 -1.8758446 -0.090465538 0
-0.56984299 -2.0074339 -0.090866737 0
-0.66382086 -2.1750579 -0.090073682 0
-0.7950291 -2.4090884 -0.089265533 0
-1.002749 -2.7795892 -0.090607621 0
-0.90934438 -2.6129875 -0.029163813 0
-0.91550165 -2.6239698 0.01372421 0
-5.080246 -10.05244 -0.14060995 0
-0.42059684 -1.787818 -0.090967931 0
-0.4765394 -1.8937824 -0.09167514 0
-0.53980607 -2.0136199 -0.089400001 0
-0.63670892 -2.19717 -0.090982072 0
-0.75911033 -2.4290185 -0.089304946 0
-0.87252867 -2.6438518 -0.073667713 0
-0.88016146 -2.6583095 -0.030971831 0
-0.88287342 -2.6634464 0.012835922 0
-4.8580785 -10.193144 -0.14101446 0
-0.40301469 -1.8036422 -0.092259191 0
-0.45630339 -1.9110601 -0.092835225 0
-0.51692182 -2.033253 -0.090558551 0
-0.60521531 -2.2112327 -0.090724431 0
-0.72450101 -2.4516854 -0.089819975 0
-0.91375774 -2.833184 -0.091153674 0
-1.2171173 -3.4446881 -0.090646692 0
-1.8252045 -4.6704535 -0.090333991 0
-4.619956 -10.304036 -0.14078668 0
-0.38120633 -1.8111397 -0.091688074 0
-0.4301433 -1.9163746 -0.09160351 0
-0.48633033 -2.0372002 -0.088965766 0
-0.57356787 -2.2247972 -0.090516575 0
-0.68830884 -2.4715381 -0.090079509 0
-0.86693704 -2.8556631 -0.091152273 0
-1.1557026 -3.4766295 -0.090800069 0
-1.7407038 -4.7346258 -0.091323234 0
-4.3824744 -10.415533 -0.14073208 0
-0.36045349 -1.8207622 -0.091743983 0
-0.40663487 -1.927003 -0.091612972 0
-0.45652953 -2.0417864 -0.087644063 0
-0.54469907 -2.2446218 -0.091393344 0
-0.64487439 -2.4750764 -0.088374279 0
-0.81561565 -2.8678691 -0.090226315 0
-1.0904059 -3.5000286 -0.090419449 0
-1.6438873 -4.7733202 -0.09111727 0
-4.1410928 -10.518177 -0.14060651 0
-0.33664754 -1.8229201 -0.090208255 0
-0.38031927 -1.9307506 -0.090345301 0
-0.43519258 -2.0662394 -0.089992605 0
-0.51141298 -2.2544365 -0.090854548 0
-0.61230958 -2.503562 -0.089971028 0
-0.77029425 -2.8936446 -0.090807386 0
-1.0309055 -3.5371244 -0.091200747 0
-1.547366 -4.812326 -0.09105242 0
-3.8982944 -10.617043 -0.14054108 0
-0.31594905 -1.8323497 -0.090475403 0
-0.35526592 -1.9369376 -0.089714713 0
-0.4091731 -2.0803378 -0.090595953 0
-0.47411174 -2.253083 -0.088770844 0
-0.57383168 -2.5183511 -0.089945726 0
-0.72521818 -2.9210589 -0.091661043 0
-0.95921618 -3.543524 -0.089794807 0
-1.4452307 -4.8363862 -0.090366624 0
-3.6563351 -10.718211 -0.14068641 0
-0.29478046 -1.8406632 -0.090607204 0
-0.33292547 -1.9504689 -0.090680726 0
-0.37930238 -2.0839713 -0.089488097 0
-0.44960451 -2.2863457 -0.091995962 0
-0.53530961 -2.5330596 -0.090031393 0
-0.67055929 -2.9223945 -0.090043299 0
-0.89641637 -3.5725555 -0.090210594 0
-1.3504391 -4.8795228 -0.090754591 0
-3.4081211 -10.802845 -0.14057449 0
-0.27265957 -1.8461452 -0.090225808 0
-0.30882853 -1.9594042 -0.090842195 0
-0.35189933 -2.0942752 -0.089670591 0
-0.41521069 -2.2925277 -0.091291718 0
-0.49722037 -2.5493314 -0.090427972 0
-0.62377578 -2.9456251 -0.090719648 0
-0.82878739 -3.5875957 -0.089713059 0
-1.2524422 -4.9142222 -0.090844534 0
-3.1626768 -10.895902 -0.14082262 0
-0.25014246 -1.8499975 -0.08961048 0
-0.28479078 -1.968755 -0.091203801 0
-0.32716945 -2.1140084 -0.091584899 0
-0.37870353 -2.290642 -0.089539163 0
-0.45742473 -2.5604596 -0.090312921 0
-0.57734388 -2.9714839 -0.091761835 0
-0.76780868 -3.6243041 -0.090921931 0
-1.1528965 -4.9441972 -0.090825118 0
-2.9111953 -10.970784 -0.14077938 0
-0.23111956 -1.8665425 -0.091915451 0
-0.25682405 -1.9636981 -0.088874571 0
-0.2946066 -2.1065056 -0.088962741 0
-0.34310994 -2.289835 -0.088089474 0
-0.41922465 -2.5775273 -0.091038533 0
-0.52337807 -2.9711986 -0.090386353 0
-0.70044076 -3.6404462 -0.0907472 0
-1.0560873 -4.9846911 -0.091433801 0
-2.659389 -11.044726 -0.14086697 0
-0.20801204 -1.8683347 -0.091088586 0
-0.23366065 -1.9762183 -0.090099253 0
-0.2661795 -2.1129997 -0.088859998 0
-0.31391349 -2.3137791 -0.090354003 0
-0.37875021 -2.5864968 -0.090903126 0
-0.47476247 -2.9903455 -0.091014571 0
-0.63290566 -3.6555305 -0.090620078 0
-0.94865853 -4.9836564 -0.090168901 0
-2.4036558 -11.103694 -0.14074856 0
-0.18646266 -1.8766237 -0.091804646 0
-0.20796615 -1.9784218 -0.089444272 0
-0.24020067 -2.1310208 -0.090814985 0
-0.27968577 -2.3179443 -0.089871638 0
-0.33945417 -2.6008897 -0.091538675 0
-0.42417383 -3.0019548 -0.091037758 0
-0.56829214 -3.6842146 -0.091587506 0
-0.84494555 -4.9938989 -0.089576714 0
-2.1468375 -11.15709 -0.14065219 0
-0.16200936 -1.8702312 -0.089461528 0
-0.18368997 -1.9874165 -0.090217702 0
-0.20868251 -2.122503 -0.088434987 0
-0.24718857 -2.3306313 -0.090733252 0
-0.29773226 -2.6038237 -0.090927474 0
-0.37140015 -3.0020044 -0.090085037 0
-0.49724644 -3.6822131 -0.090485044 0
-0.94430453 -6.0985956 -0.1409281 0
-1.8901243 -11.210824 -0.14071792 0
-0.14134817 -1.8842349 -0.091650866 0
-0.15918067 -1.9963682 -0.09109693 0
-0.18106799 -2.1339984 -0.089527749 0
-0.21239372 -2.3309789 -0.089952476 0
-0.25628471 -2.6069713 -0.090468891 0
-0.3186675 -2.9992425 -0.088996597 0
-0.42963144 -3.6969988 -0.090702526 0
-0.81496227 -6.1200109 -0.14088999 0
-1.6326989 -11.262049 -0.14087719 0
-0.11890647 -1.8889208 -0.091946773 0
-0.13324915 -1.9965535 -0.090425245 0
-0.15244827 -2.1406307 -0.089926265 0
-0.17847784 -2.3359661 -0.089956857 0
-0.21469581 -2.6077588 -0.089857168 0
-0.26895696 -3.0149541 -0.089776911 0
-0.36104476 -3.7060146 -0.090632938 0
-0.68400174 -6.1296005 -0.14045022 0
-1.3731903 -11.301523 -0.14091295 0
-0.094991185 -1.880711 -0.089606173 0
-0.10830609 -2.0043924 -0.091329463 0
-0.12449353 -2.154757 -0.091682069 0
-0.14494503 -2.3447301 -0.090616249 0
-0.17449437 -2.6192126 -0.090624459 0
-0.21784791 -3.0219219 -0.089852177 0
-0.29169172 -3.7078536 -0.090180807 0
-0.55498654 -6.1535869 -0.14084074 0
-1.1121167 -11.328746 -0.14081554 0
-0.072952099 -1.8887229 -0.090859048 0
-0.082175784 -2.0009437 -0.090217642 0
-0.093832247 -2.1427629 -0.0892433 0
-0.10984644 -2.3376007 -0.089152627 0
-0.1334563 -2.6248519 -0.090827458 0
-0.16675998 -3.0300438 -0.090156369 0
-0.22381052 -3.7241535 -0.090866901 0
-0.42438549 -6.164464 -0.14077036 0
-0.85092139 -11.353946 -0.14082503 0
-0.050864492 -1.9013765 -0.093216918 0
-0.05664536 -2.003089 -0.09028735 0
-0.064701311 -2.1448302 -0.089250334 0
-0.075395748 -2.3329952 -0.088171192 0
-0.081719249 -2.4442549 -0.069350325 0
-0.081292108 -2.4367394 -0.034352858 0
-0.080979005 -2.4312305 2.6395962e-06 0
-0.08050926 -2.4229658 0.034118522 0
-0.081030101 -2.4321296 0.067369647 0
-0.080700628 -2.4263327 0.10101148 0
-0.027467033 -1.8907249 -0.090735249 0
-0.031298384 -2.0121577 -0.091783158 0
-0.035897002 -2.1579087 -0.091188841 0
-0.040853139 -2.314991 -0.085428916 0
-0.040703595 -2.3102512 -0.053491253 0
-0.040712748 -2.3105414 -0.022416806 0
-0.040679272 -2.3094804 0.0086308811 0
-0.040619548 -2.3075874 0.039567091 0
-0.040966164 -2.3185732 0.070048645 0
-0.040315595 -2.2979538 0.10100777 0
-0.0047155963 -1.8914155 -0.090790518 0
-0.0054954789 -2.0150657 -0.092238866 0
-0.0062954384 -2.1418989 -0.088465832 0
-0.0066927243 -2.2048886 -0.069866396 0
-0.0067644268 -2.2162569 -0.04243185 0
-0.0066925474 -2.2048604 -0.0124934 0
-0.0066484744 -2.1978726 0.016477549 0
-0.0066498173 -2.1980855 0.044694323 0
-0.0067374636 -2.211982 0.072541751 0
-0.0067198486 -2.2091889 0.10100523 0
0.017835047 -1.8800395 -0.088402487 0
0.020111803 -2.0003192 -0.089491628 0
0.023111066 -2.1587687 -0.091269054 0
0.023882251 -2.1995099 -0.069137596 0
0.023945216 -2.2028365 -0.040885914 0
0.024037706 -2.2077227 -0.012778675 0
0.023827983 -2.1966431 0.016550081 0
0.023939656 -2.2025428 0.044477828 0
0.023680676 -2.1888609 0.0730749 0
0.023867441 -2.1987276 0.10100493 0
0.04039127 -1.8813031 -0.088822223 0
0.045715094 -2.0017817 -0.089919068 0
0.052209042 -2.1487403 -0.089772411 0
0.054341622 -2.1970007 -0.068920143 0
0.054196429 -2.1937151 -0.039931837 0
0.05410438 -2.191632 -0.011365926 0
0.054071065 -2.1908782 0.016886244 0
0.054442745 -2.1992893 0.044584438 0
0.054812361 -2.2076538 0.072615311 0
0.054644804 -2.203862 0.10100511 0
0.063509725 -1.8890125 -0.090737306 0
0.071140982 -1.9988061 -0.089631237 0
0.081636041 -2.1498022 -0.090221129 0
0.085403129 -2.2040007 -0.070150085 0
0.084945284 -2.1974134 -0.040567357 0
0.084611885 -2.1926167 -0.01161929 0
0.085265398 -2.202019 0.015984828 0
0.085128628 -2.2000513 0.044467945 0
0.08538197 -2.2036963 0.072666846 0
0.085703872 -2.2083275 0.10100529 0
0.085624494 -1.8811833 -0.089463688 0
0.096955366 -2.0005674 -0.090360247 0
0.11051828 -2.1434689 -0.089572527 0
0.11636704 -2.2050927 -0.070659526 0
0.11582211 -2.1993511 -0.041088704 0
0.11495577 -2.190223 -0.011628633 0
0.11497571 -2.1904333 0.016621964 0
0.1166928 -2.2085247 0.043954376 0
0.11681938 -2.2098584 0.072464153 0
0.11565273 -2.1975665 0.10100505 0
0.10946927 -1.8901258 -0.091896333 0
0.12365845 -2.0079381 -0.092279084 0
0.13979469 -2.1419175 -0.089834072 0
0.1464821 -2.1974428 -0.070043616 0
0.14821978 -2.2118707 -0.042948965 0
0.14641495 -2.1968853 -0.012561312 0
0.14607903 -2.1940961 0.016134569 0
0.14702114 -2.2019186 0.044109039 0
0.14580326 -2.1918066 0.072809361 0
0.14648093 -2.1974332 0.10100514 0
0.12960666 -1.8696026 -0.088137202 0
0.14936015 -2.0047877 -0.092330314 0
0.16827805 -2.1342545 -0.089203991 0
0.1779539 -2.2004721 -0.071049921 0
0.17870203 -2.2055919 -0.042692143 0
0.17783381 -2.1996503 -0.013204565 0
0.179272 -2.2094927 0.014761018 0
0.1783554 -2.2032199 0.043856282 0
0.17788734 -2.2000165 0.072521582 0
0.17853999 -2.204483 0.10100546 0
0.1538146 -1.8779248 -0.090692617 0
0.1730978 -1.9900397 -0.090289034 0
0.19825751 -2.1363213 -0.090313397 0
0.20939234 -2.2010605 -0.071825542 0
0.20905103 -2.1990762 -0.042497132 0
0.20824528 -2.1943913 -0.013165606 0
0.20894819 -2.1984782 0.01519567 0
0.21006164 -2.204952 0.043544788 0
0.20861757 -2.1965559 0.072488829 0
0.20742595 -2.1896276 0.10100517 0
0.17604138 -1.8730503 -0.090533309 0
0.19764712 -1.9821186 -0.089663155 0
0.2268233 -2.1294031 -0.090049453 0
0.24011725 -2.1965125 -0.071982615 0
0.24078967 -2.1999068 -0.043267492 0
0.2411193 -2.2015707 -0.014382897 0
0.24106935 -2.2013187 0.01459183 0
0.24140856 -2.2030311 0.043367215 0
0.23961505 -2.1939774 0.072416663 0
0.24095874 -2.2007604 0.10100565 0
0.19674015 -1.861475 -0.089035161 0
0.22248538 -1.9761759 -0.089534901 0
0.25608289 -2.1258607 -0.090473764 0
0.2717627 -2.1957178 -0.072792582 0
0.2722443 -2.1978636 -0.043793697 0
0.27249736 -2.1989911 -0.014752647 0
0.27167055 -2.1953075 0.01456085 0
0.27507621 -2.2104802 0.042703904 0
0.27273744 -2.2000606 0.072119087 0
0.27127302 -2.1935363 0.10100563 0
0.21958384 -1.8598419 -0.089820616 0
0.2468943 -1.9685979 -0.089209639 0
0.28212732 -2.1089032 -0.088752277 0
0.30578756 -2.2031233 -0.074911259 0
0.30478856 -2.1991451 -0.04481924 0
0.30407837 -2.196317 -0.01519168 0
0.30510283 -2.2003965 0.013674038 0
0.30466747 -2.198663 0.042920519 0
0.30311707 -2.1924889 0.072126985 0
0.304555 -2.198215 0.10100598 0
0.24161702 -1.8545451 -0.089930065 0
