# .PCD v0.7 - Point Cloud Data file format
VERSION 0.7
FIELDS x y z intensity
SIZE 4 4 4 4
TYPE F F F F
COUNT 1 1 1 1
WIDTH 1363
HEIGHT 1
VIEWPOINT 0 0 0 1 0 0 0
POINTS 1363
DATA ascii
-0.82821202 -0.29416835 -0.050122112 0
-0.80766749 -0.29112113 -0.049893029 0
-0.7887488 -0.29790819 -0.050028693 0
-0.76918441 -0.30068636 -0.050028268 0
-0.74907106 -0.29903853 -0.049877509 0
-0.73030639 -0.30864334 -0.050140247 0
-0.70969439 -0.30131257 -0.049803626 0
-0.69002128 -0.30224121 -0.049772616 0
-0.67049259 -0.30490243 -0.049812522 0
-0.65131652 -0.31397438 -0.050090477 0
-0.63161236 -0.31609201 -0.050128348 0
-0.61143297 -0.30535102 -0.049715716 0
-0.5922429 -0.32643437 -0.050448731 0
-0.57217175 -0.30930483 -0.049825966 0
-0.55240798 -0.33307827 -0.050672501 0
-0.53274065 -0.3125906 -0.049947716 0
-0.5129565 -0.31415892 -0.050019257 0
-0.49357617 -0.30455589 -0.049700569 0
-0.47353867 -0.31136489 -0.049977161 0
-0.45363373 -0.31317103 -0.05008401 0
-0.49647015 0.33387178 0.03893318 0
-0.43340623 -0.31806886 -0.050310656 0
-0.48439401 0.32848084 0.039156333 0
-0.41472682 -0.304268 -0.049876329 0
-0.47449395 0.34860748 0.038470373 0
-0.39512795 -0.30221033 -0.049871389 0
-0.46101344 0.32974333 0.039187547 0
-0.37569091 -0.29877257 -0.049825702 0
-0.44859245 0.32430333 0.039429348 0
-0.44159368 0.26448613 0.11310258 0
-0.44109243 0.26020217 0.18651116 0
-0.44195637 0.26758599 0.25946516 0
-0.44129661 0.2619471 0.33840939 0
-0.44190738 0.26716727 0.41750547 0
-0.35581559 -0.2989378 -0.049918454 0
-0.43419132 0.30494583 0.04017821 0
-0.4277322 0.25517863 0.11427778 0
-0.42834148 0.25987309 0.18685167 0
-0.42864081 0.26217955 0.2612502 0
-0.42954296 0.26913047 0.33651635 0
-0.42999944 0.27264762 0.41585723 0
-0.43024439 0.274535 0.5003382 0
-0.33663657 -0.29373515 -0.049826808 0
-0.42136645 0.30039614 0.040400945 0
-0.42046842 0.29409909 0.11023854 0
-0.42050439 0.29435146 0.18088105 0
-0.41888079 0.28296655 0.25633121 0
-0.41938201 0.28648102 0.33125281 0
-0.41944531 0.2869249 0.41058958 0
-0.41990441 0.29014426 0.49329767 0
-0.3175593 -0.28827846 -0.049734525 0
-0.40667072 0.28484875 0.041027296 0
-0.40564102 0.27822614 0.1121607 0
-0.40589407 0.2798537 0.18385561 0
-0.4067356 0.2852661 0.2562077 0
-0.40579981 0.27924746 0.33429924 0
-0.40780178 0.29212332 0.40917137 0
-0.40987101 0.30543166 0.48647225 0
-0.29872304 -0.28176367 -0.049612425 0
-0.39082071 0.26511925 0.041813079 0
-0.39157024 0.26956999 0.11332076 0
-0.39072165 0.2645309 0.187021 0
-0.39145166 0.26886582 0.26096156 0
-0.39085299 0.26531094 0.33967125 0
-0.39241305 0.27457458 0.41736242 0
-0.39749935 0.30477738 0.48778492 0
-0.27780199 -0.28720808 -0.049932569 0
0.068270944 -2.1951911 0.13116147 0
-0.38715002 0.31565362 0.48331642 0
-0.25673562 -0.29220033 -0.050246622 0
0.11629584 -2.2109106 0.13202965 0
-0.37626082 0.32258481 0.48091418 0
-0.23751824 -0.28717721 -0.050205979 0
0.15638532 -2.1853423 0.13141669 0
-0.36773759 0.34033138 0.47304893 0
-0.21907489 -0.27876496 -0.050050147 0
0.20444669 -2.1978705 0.13221328 0
-0.3575483 0.3487004 0.47002158 0
-0.19773956 -0.28318417 -0.050372828 0
0.25012264 -2.1977041 0.13256893 0
-0.34908065 0.36376852 0.46360883 0
-0.18235259 -0.26258373 -0.049786251 0
0.29649201 -2.1992676 0.13301042 0
-0.0043965965 -0.98232555 0.25360915 0
-0.0054982691 -0.97786975 0.42069542 0
-0.3379159 0.3665911 0.4635424 0
-0.15956189 -0.27201593 -0.050312907 0
0.34214345 -2.1968138 0.13332666 0
-0.32940531 0.37959033 0.4582864 0
-0.1449445 -0.25021732 -0.049695872 0
0.39033952 -2.2027719 0.13397664 0
-0.31787306 0.38057393 0.45930147 0
-0.12140483 -0.2609905 -0.050293457 0
0.28834876 -1.6850762 0.11519787 0
-0.30092135 0.36291355 0.47010249 0
-0.10793693 -0.23687732 -0.049603511 0
0.32735047 -1.6810224 0.11545249 0
-0.30283335 0.40972704 0.44736353 0
-0.085680701 -0.24225402 -0.050021049 0
0.36871395 -1.6838439 0.11598381 0
-0.28871575 0.40188485 0.45319426 0
-0.06800089 -0.23277283 -0.049892399 0
0.40408978 -1.667253 0.11580729 0
-0.28307408 0.42074198 0.44507912 0
-0.047836579 -0.23080254 -0.050055068 0
0.4300234 -1.6235077 0.11462184 0
-0.26634794 0.40604061 0.45471787 0
-0.031102637 -0.21887982 -0.049850773 0
0.46523878 -1.6082106 0.11452191 0
-0.012560108 -0.21223021 -0.049854349 0
0.50651652 -1.6094165 0.11506688 0
0.0076999278 -0.21001518 -0.050036561 0
0.026148638 -0.20292294 -0.050041914 0
0.046738885 -0.20097125 -0.050254967 0
0.062090181 -0.18644691 -0.049990628 0
0.078954719 -0.17577434 -0.049882844 0
-0.1927741 0.43488193 0.37735093 0
0.099543355 -0.17336917 -0.050107673 0
0.11822476 -0.1665765 -0.050170619 0
-0.15782087 0.41396558 0.39126873 0
-0.19942866 0.50146949 0.50038105 0
0.13180555 -0.14928842 -0.049825847 0
0.55276603 -1.0065918 0.46025729 0
-0.16039003 0.44578004 0.3789455 0
-0.19718491 0.52071428 0.4906837 0
0.15204324 -0.14566767 -0.050032709 0
0.58513683 -1.0003102 0.46184969 0
-0.15213381 0.45457822 0.37721178 0
-0.18912311 0.52757078 0.48917931 0
0.17372699 -0.14449167 -0.05034966 0
0.61325008 -0.98539186 0.46177775 0
-0.13681938 0.44964886 0.38192827 0
-0.17906488 0.53047341 0.49037859 0
0.19109173 -0.13482225 -0.050335355 0
0.64470154 -0.9766798 0.46304899 0
-0.12125725 0.44486827 0.38669729 0
-0.17053588 0.5363248 0.48968458 0
0.19997366 -0.10988761 -0.049706507 0
0.68458086 -0.98277187 0.46746442 0
-0.11232731 0.45263505 0.38565025 0
-0.16638573 0.55000615 0.48374712 0
0.22488846 -0.11388124 -0.050267372 0
0.71902007 -0.9780972 0.46977887 0
-0.085361041 0.42873245 0.39975339 0
-0.15943693 0.5582881 0.48149088 0
0.24056382 -0.10139132 -0.050162509 0
0.75370902 -0.97319961 0.47215429 0
-0.061333545 0.41151726 0.41091108 0
-0.14828376 0.55924141 0.48432112 0
0.25689784 -0.090125568 -0.050116144 0
0.80430001 -0.99390674 0.48003846 0
-0.057902612 0.42962146 0.40520346 0
-0.13935386 0.56410038 0.48456204 0
0.27213803 -0.077160127 -0.050006535 0
0.84000093 -0.98862267 0.48259673 0
-0.12397537 0.55863136 0.49209961 0
0.28178737 -0.055605296 -0.049539957 0
0.8816995 -0.99202824 0.48713285 0
-0.11566753 0.56479543 0.49164075 0
0.30292973 -0.052095059 -0.049846038 0
0.90970749 -0.9734838 0.48707968 0
0.021497926 0.37525755 0.44179809 0
-0.11370374 0.58056051 0.48443446 0
0.32524678 -0.049930099 -0.050224148 0
0.95365423 -0.97849488 0.49223211 0
0.032427393 0.38275391 0.44172931 0
-0.10065509 0.57940298 0.48930225 0
0.3362402 -0.031005507 -0.049889009 0
0.99532205 -0.97895885 0.49655208 0
0.038790666 0.39681417 0.43841901 0
-0.10487703 0.60345054 0.47612527 0
0.35766742 -0.027093297 -0.050215479 0
0.054739974 0.39710796 0.44212338 0
-0.093125619 0.60416996 0.4797909 0
0.37364265 -0.015351539 -0.050210241 0
0.075885199 0.39070058 0.44940531 0
-0.087584235 0.61362392 0.47717535 0
0.38279852 0.005447621 -0.04980915 0
1.1312479 -0.98871684 0.10623594 0
1.1266389 -0.98259473 0.30691031 0
0.09058895 0.3935892 0.45207626 0
-0.084265687 0.62584841 0.47252986 0
0.39604393 0.020496959 -0.04966874 0
0.098427318 0.4056313 0.45008013 0
-0.075918116 0.63124508 0.47298747 0
0.4130874 0.030603046 -0.049759727 0
0.12346794 0.39579076 0.45967948 0
-0.069402583 0.63898557 0.47175479 0
0.44100335 0.027455205 -0.050471544 0
-0.068142779 0.65310401 0.4656952 0
0.44410238 0.054818984 -0.049788076 0
-0.05764664 0.65576112 0.46843866 0
0.46515593 0.060484525 -0.050118998 0
-0.050382353 0.66237277 0.46822655 0
0.4729571 0.081591956 -0.049732275 0
-0.039600827 0.66497004 0.47125304 0
0.49257597 0.089182727 -0.04999543 0
1.205173 -0.70156765 0.099998116 0
-0.03740374 0.67728746 0.46666193 0
0.50839072 0.10116755 -0.050059997 0
1.2081568 -0.65595353 0.098867051 0
-0.029005447 0.68261045 0.46768767 0
0.51913148 0.11857628 -0.049868271 0
0.38484982 0.260243 0.054899562 0
-0.019144515 0.68645602 0.47001892 0
0.53005284 0.13560951 -0.049699571 0
0.38718751 0.28258061 0.054382026 0
0.8432712 -0.18661034 0.22196208 0
-0.014300444 0.69560677 0.46809322 0
0.54853898 0.14489007 -0.049926441 0
0.39470616 0.29920775 0.054147288 0
0.84705216 -0.1545639 0.21979271 0
-0.0050076633 0.70018131 0.47002602 0
0.55705231 0.16415429 -0.049658351 0
0.41197398 0.30607039 0.054412846 0
0.74305564 -0.017794734 0.20150799 0
0.73764569 -0.012502676 0.33272523 0
0.74280018 -0.017544752 0.47004461 0
0.00057610002 0.70850092 0.46890625 0
0.57224077 0.17679441 -0.049734835 0
0.41476956 0.32700008 0.053965487 0
0.83752769 -0.076252587 0.21317534 0
0.19771565 0.53403932 0.35318625 0
0.0078167534 0.71517652 0.46924424 0
0.59407693 0.18332934 -0.050142363 0
0.4585385 0.30939329 0.055533979 0
0.83716375 -0.042765025 0.21067926 0
0.18505503 0.56375951 0.3433404 0
0.0096389269 0.72691363 0.46525824 0
0.61093062 0.1947751 -0.05030911 0
0.84260291 -0.015324717 0.073474772 0
0.84391469 -0.016514307 0.20930529 0
0.19682606 0.57031983 0.34474838 0
0.021677634 0.72915912 0.46961585 0
0.62850243 0.20574713 -0.050515149 0
0.84490746 0.014403099 0.07282804 0
0.83692616 0.021460051 0.20602322 0
0.84008628 0.018665904 0.34242803 0
0.21208484 0.57394117 0.34772652 0
0.028021773 0.73668873 0.4694398 0
0.62431949 0.23566782 -0.049700111 0
0.84445578 0.045909401 0.072076127 0
0.83950716 0.050175067 0.20420259 0
0.8351348 0.053944107 0.33757091 0
0.22874917 0.57665133 0.35131004 0
0.033964418 0.74455667 0.46902594 0
0.64091927 0.24737823 -0.049880456 0
0.83593458 0.083508603 0.070974417 0
0.84477502 0.076080076 0.2028293 0
0.83761376 0.082097642 0.33462048 0
0.92153257 0.011581415 0.49885178 0
0.26143762 0.56625342 0.3618342 0
0.27767631 0.55260819 0.45761549 0
0.047655903 0.74589241 0.47469604 0
0.65549272 0.26091677 -0.049972277 0
0.84198815 0.10817086 0.070578568 0
0.84237772 0.10785174 0.20045085 0
0.84263808 0.10763859 0.33237675 0
0.95355421 0.016794557 0.50429034 0
0.29624763 0.55515033 0.37310609 0
0.25317869 0.59042519 0.43981165 0
0.057115458 0.75100738 0.47707689 0
0.6685006 0.27579182 -0.049999494 0
0.84956902 0.13126147 0.07027071 0
0.83328515 0.14425933 0.19723083 0
0.83772951 0.1407119 0.32793796 0
0.98310012 0.024675841 0.50888783 0
0.26906219 0.59462684 0.35781503 0
0.24885084 0.61075974 0.43312451 0
0.059615038 0.76180935 0.47420168 0
0.67414874 0.29641944 -0.049702089 0
0.85123771 0.15867996 0.069711655 0
0.83399004 0.17209518 0.19543883 0
0.82724053 0.17734492 0.32236308 0
0.25267068 0.62424445 0.43091127 0
0.061401986 0.77301288 0.47092187 0
0.68729073 0.31110907 -0.049754884 0
0.85516411 0.18389726 0.069274582 0
0.84435529 0.19208813 0.19501396 0
0.84669191 0.19031739 0.3237209 0
0.26613125 0.63025719 0.43381593 0
0.063762031 0.78360939 0.46820509 0
0.70624691 0.32155722 -0.050073426 0
0.86035568 0.20780206 0.06891185 0
0.84050483 0.22245491 0.19272792 0
0.84374589 0.22006261 0.3200824 0
0.29656765 0.62396139 0.44546884 0
0.076153718 0.7866596 0.4730067 0
0.72120529 0.33515978 -0.050219137 0
0.85501236 0.23896933 0.068102479 0
0.83664435 0.25217366 0.19051197 0
0.84511203 0.24608648 0.31751803 0
0.085285448 0.79230636 0.47541222 0
0.71749192 0.36196095 -0.049557388 0
0.84832078 0.27038777 0.067258634 0
0.83324569 0.28093946 0.18842539 0
0.83555621 0.27932227 0.31264427 0
0.84087676 0.27559817 0.44145417 0
0.094016694 0.79835999 0.47755846 0
0.73931056 0.37080479 -0.050018936 0
0.88519734 0.27140498 0.068321325 0
0.84045368 0.30189109 0.18778324 0
0.84276015 0.30031949 0.31156138 0
0.83709782 0.30417758 0.43651724 0
0.10839429 0.80067873 0.48379323 0
0.74519318 0.39060962 -0.049798794 0
0.93105835 0.2673685 0.069760598 0
0.84171706 0.32660782 0.18641406 0
0.83822817 0.32892114 0.30800539 0
0.83465439 0.33129078 0.43214083 0
0.11263921 0.81003565 0.48278692 0
0.76929206 0.39848232 -0.05036499 0
0.9646942 0.27243054 0.070666678 0
0.84172469 0.35175681 0.18493535 0
0.84305197 0.35090065 0.30656371 0
0.8469258 0.34840167 0.43237147 0
0.12588246 0.81353891 0.48822269 0
0.76888806 0.4222033 -0.049898226 0
0.98289055 0.28793806 0.070917606 0
0.84241849 0.37607032 0.18359564 0
0.83258945 0.38223702 0.30193797 0
0.83813339 0.37875873 0.42632127 0
0.12933584 0.82345873 0.4867928 0
0.78088754 0.43797636 -0.049966279 0
1.0312313 0.28526944 0.072435424 0
0.84001201 0.40191102 0.1819146 0
0.84368593 0.39967 0.30198574 0
0.84231812 0.40050441 0.42431027 0
0.13994987 0.8289414 0.49043521 0
0.79361397 0.45337784 -0.050072268 0
1.0777409 0.28493512 0.073864557 0
0.83986539 0.42595798 0.1805692 0
0.84818476 0.42102593 0.30069607 0
0.83963889 0.42609227 0.42035997 0
0.13549109 0.84354156 0.48370668 0
0.8009364 0.4719817 -0.049962867 0
0.84696919 0.44546902 0.1801704 0
0.82792848 0.45643556 0.29431981 0
0.84481496 0.44670975 0.41884613 0
0.14015235 0.85256118 0.48339456 0
0.80957705 0.48976338 -0.04991778 0
0.85550719 0.46407449 0.17998138 0
0.84377545 0.47063613 0.29554114 0
0.83859545 0.47353333 0.41408789 0
0.15203406 0.85752904 0.48806846 0
0.81754822 0.50787592 -0.049854927 0
0.85080475 0.48982137 0.17820328 0
0.84359127 0.49373752 0.2935012 0
0.83591956 0.49790233 0.41048923 0
0.83191067 0.52257562 -0.05005962 0
0.84444469 0.51597404 0.1762751 0
0.83924431 0.518713 0.29068574 0
0.84740096 0.51441699 0.4110854 0
0.83933073 0.54098654 -0.049992137 0
0.84662431 0.53726155 0.17542969 0
0.83129305 0.54509151 0.2872223 0
0.8332141 0.54411036 0.40438417 0
0.84336275 0.53892732 0.52928734 0
0.84530312 0.56006438 -0.049876668 0
0.84738916 0.55903184 0.1744521 0
0.83804685 0.56365573 0.28680652 0
0.83724636 0.56405193 0.40301776 0
0.8348698 0.56522822 0.52283204 0
0.85717744 0.57622617 -0.050005104 0
0.88154823 0.56454378 0.17749305 0
0.83759493 0.58561325 0.28499898 0
0.83602959 0.58636361 0.40024573 0
0.84473866 0.58218884 0.52331269 0
0.85729903 0.5979442 -0.04967827 0
0.89759773 0.57924694 0.17837903 0
0.84928161 0.60166401 0.28567046 0
0.83920485 0.60633934 0.3988044 0
0.83498639 0.60829651 0.51667285 0
0.87702376 0.61061597 -0.050131109 0
0.92807442 0.5877068 0.18098135 0
0.84467536 0.62513244 0.28315753 0
0.83666664 0.62872642 0.39584395 0
0.84317833 0.62580425 0.51673412 0
0.88348514 0.62939179 -0.050071571 0
0.98070794 0.58722526 0.18617751 0
0.83792287 0.64915258 0.28029463 0
0.83201855 0.65171337 0.39239153 0
0.84255356 0.64714426 0.51367801 0
0.88888615 0.64856958 -0.04998048 0
1.0030379 0.60075933 0.1878148 0
0.83814293 0.66982239 0.27886936 0
0.8373068 0.67017257 0.39178604 0
0.83585912 0.67077893 0.50854582 0
0.90366668 0.66389108 -0.050260346 0
1.0330437 0.61160892 0.19035333 0
0.8429907 0.6884107 0.2784023 0
0.84656459 0.68696648 0.39234 0
0.84373242 0.68811101 0.5087741 0
0.90155607 0.6860075 -0.049899079 0
1.0762732 0.61794949 0.19442038 0
0.84994322 0.70611238 0.27839032 0
0.8365851 0.71131581 0.38768208 0
0.83950633 0.71017796 0.50475943 0
0.27763322 0.92904598 0.45438313 0
0.91637653 0.70150423 -0.05019575 0
0.85007018 0.72637582 0.2771067 0
0.84162515 0.72954357 0.3872225 0
0.84163028 0.72954166 0.50311899 0
0.28175929 0.93954968 0.45443478 0
0.90681058 0.72602552 -0.04957293 0
0.85206968 0.7457763 0.27623692 0
0.83795208 0.75086993 0.38446414 0
0.84183723 0.74946815 0.50089437 0
0.25962129 0.95953417 0.44058657 0
0.9308148 0.73844844 -0.05023298 0
0.85295814 0.76543647 0.27520561 0
0.84428376 0.76844335 0.38449204 0
0.84614176 0.76779926 0.50021082 0
0.84544677 0.76804018 0.62073785 0
0.26488414 0.96928483 0.44144225 0
0.93141145 0.75915051 -0.050015483 0
0.86479932 0.78130525 0.27630749 0
0.84171146 0.78898418 0.38218537 0
0.84403628 0.78821093 0.49736381 0
0.84264714 0.78867292 0.61689323 0
0.30167767 0.96859574 0.458985 0
0.94973272 0.77404666 -0.050472785 0
0.85738212 0.80347574 0.27379748 0
0.82954568 0.81234628 0.37738845 0
0.83642834 0.81015295 0.49269679 0
0.83714157 0.80992568 0.61200118 0
0.30794552 0.97856271 0.46042299 0
0.95046431 0.79464555 -0.050278846 0
0.84423047 0.82703096 0.27026871 0
0.8505469 0.82510543 0.38153499 0
0.83680373 0.82929504 0.4909206 0
0.83697897 0.82924163 0.60955667 0
0.31605533 0.98804569 0.46288469 0
0.94379503 0.81725985 -0.049820092 0
0.86636418 0.83980316 0.27343652 0
0.84541172 0.84590328 0.37876403 0
0.83669716 0.84844047 0.48906761 0
0.84150177 0.84704167 0.60924667 0
0.33528009 0.99442363 0.47119191 0
0.95288807 0.83516711 -0.049957506 0
0.89842314 0.85028285 0.2784811 0
0.84421462 0.86532742 0.37711492 0
0.84613794 0.86479366 0.49060088 0
0.84306639 0.86564606 0.60776311 0
0.32047668 1.0106812 0.46184275 0
0.96164173 0.85326743 -0.050090279 0
0.92431134 0.8631233 0.28238258 0
0.84295982 0.88460147 0.37552071 0
0.84518689 0.88401347 0.48862424 0
0.84893733 0.88302326 0.60822904 0
0.32039163 1.0225681 0.46024722 0
0.96051139 0.8739444 -0.04986725 0
0.96335977 0.87323064 0.28874868 0
0.84603435 0.90263134 0.37513414 0
0.84096533 0.90390164 0.48561525 0
0.83362132 0.90574193 0.59974366 0
0.32693759 1.0327125 0.46215445 0
0.96958786 0.89204133 -0.050028969 0
0.98870999 0.88750464 0.29258043 0
0.83839208 0.92316759 0.37199828 0
0.82688397 0.9258979 0.47932971 0
0.83265156 0.92452955 0.59751022 0
0.3363553 1.042276 0.46559846 0
0.96804136 0.91263777 -0.049809929 0
1.0121894 0.90274912 0.29608884 0
0.84079117 0.94114041 0.3715643 0
0.83921832 0.9414928 0.48216248 0
0.83463591 0.94251919 0.59663707 0
0.34745023 1.0516435 0.46995464 0
0.97237378 0.9318403 -0.049815442 0
1.0480112 0.91589576 0.3018983 0
0.83885843 0.95998561 0.37006107 0
0.84718221 0.95823091 0.48356867 0
0.84965831 0.95770895 0.6013791 0
0.35252431 1.062506 0.47128096 0
0.98826092 0.9487657 -0.050250255 0
1.0791934 0.93078971 0.30687079 0
0.84804839 0.97648364 0.37151605 0
0.84585541 0.97691715 0.48189211 0
0.84080738 0.97791511 0.5961144 0
0.3611823 1.0727299 0.47450173 0
0.98440903 0.96965069 -0.049975187 0
0.85563976 0.99342579 0.37260687 0
0.84698266 0.99502414 0.48112941 0
0.8418718 0.99596781 0.59514391 0
0.38802323 1.0797634 0.48703203 0
0.99499673 0.98786348 -0.050233297 0
0.86205083 1.0106826 0.37344509 0
0.85105127 1.0125706 0.48143831 0
0.84103662 1.0142896 0.59347308 0
0.38341013 1.0928376 0.48361242 0
0.99297684 1.0082648 -0.050043453 0
0.41919443 1.099328 0.041302305 0
0.42235848 1.0988259 0.11261255 0
0.43615481 1.0966363 0.18743023 0
0.43386826 1.0969993 0.26207137 0
0.43327609 1.0970932 0.33971959 0
0.43090716 1.0974692 0.42031899 0
0.40738007 1.1012031 0.49476337 0
0.9972952 1.0276096 -0.050091911 0
0.4133524 1.1127621 0.041023914 0
0.40627417 1.1137943 0.11066148 0
0.39480636 1.1154666 0.17954671 0
0.41200933 1.112958 0.255945 0
0.41034451 1.1132008 0.3313705 0
0.39681819 1.1151732 0.40526208 0
0.41120341 1.1130755 0.49576041 0
0.98897403 1.048673 -0.049693849 0
0.38508072 1.128983 0.039944265 0
0.43922916 1.1217819 0.11405078 0
0.43621424 1.1221828 0.18677595 0
0.42674699 1.1234419 0.25929981 0
0.42533389 1.1236298 0.33583069 0
0.43422225 1.1224478 0.42018485 0
0.42305681 1.1239326 0.50088441 0
1.0012785 1.0669777 -0.050047591 0
0.36648962 1.1432753 0.039221704 0
0.4247835 1.1362686 0.11231504 0
0.41476288 1.1374731 0.18259148 0
0.42553779 1.136178 0.25858566 0
0.42220023 1.1365792 0.33425531 0
0.43840393 1.1346316 0.42126903 0
0.99637431 1.0873854 -0.049791239 0
0.36598042 1.1551141 0.039155845 0
0.85035509 1.1030735 0.3672322 0
0.82938856 1.1053261 0.47003403 0
0.84060448 1.1041211 0.58815813 0
1.0074747 1.1060987 -0.050118346 0
0.35876486 1.1675433 0.038854916 0
0.84838837 1.1211669 0.36626872 0
0.84046656 1.1219174 0.47314596 0
0.8428151 1.1216949 0.58833706 0
1.0038884 1.1262512 -0.049927469 0
0.35148999 1.1797663 0.038557783 0
0.86056024 1.1380081 0.36898395 0
0.83522254 1.1400865 0.47087592 0
0.84020704 1.1396776 0.58660603 0
1.0080495 1.1457345 -0.050023109 0
0.36806735 1.1901265 0.039120022 0
0.84476584 1.1570606 0.36459881 0
0.82934457 1.1581304 0.46847278 0
0.84335142 1.1571587 0.58735788 0
1.0003506 1.1659614 -0.049703352 0
0.84864849 1.1745664 0.36530644 0
0.8308149 1.1755779 0.46859577 0
0.84026712 1.1750418 0.58561754 0
1.0156951 1.1849494 -0.050216358 0
0.85017902 1.1922485 0.36546934 0
0.84303182 1.1925637 0.47237071 0
0.85036558 1.1922402 0.58943492 0
1.0089899 1.2049969 -0.049950112 0
0.84571391 1.2101383 0.36415854 0
0.83599347 1.2104445 0.46980605 0
0.84138054 1.2102748 0.58543539 0
1.0154246 1.2246115 -0.050162133 0
0.85022348 1.2277321 0.36519572 0
0.84621686 1.2278078 0.47306082 0
0.83476382 1.2280241 0.5825116 0
1.0133456 1.2444323 -0.050079007 0
0.84948605 1.245464 0.36495063 0
0.83547217 1.2455522 0.469412 0
0.84104556 1.2455171 0.58502114 0
1.005741 1.2641629 -0.049807504 0
0.8472808 1.2631652 0.36438796 0
0.84854931 1.2631732 0.47376278 0
0.84426647 1.2631463 0.58635467 0
1.0186392 1.2840924 -0.050276916 0
0.85351354 1.2809732 0.36603525 0
0.84439224 1.2808009 0.47245365 0
0.85181957 1.2809412 0.58957458 0
1.0196172 1.3039809 -0.050329704 0
0.84656996 1.2985318 0.36437705 0
0.82487637 1.2978487 0.46610561 0
0.82787234 1.297943 0.57983971 0
1.0146886 1.3236493 -0.050180387 0
0.84590405 1.3162061 0.36437759 0
0.84329623 1.3160911 0.47245875 0
0.8458876 1.3162054 0.58757907 0
1.0052572 1.34296 -0.049878806 0
0.85434622 1.3343999 0.36676243 0
0.84742469 1.3340074 0.47413063 0
0.83289617 1.3331833 0.58256084 0
1.0056901 1.3627449 -0.049938671 0
1.2942327 1.3827595 0.072264761 0
1.2953545 1.3828373 0.20559341 0
1.3037655 1.3834207 0.34246659 0
0.84722883 1.3517534 0.36522868 0
0.83192855 1.350692 0.46933454 0
0.83579081 1.3509599 0.58422005 0
1.0044506 1.3824381 -0.049947612 0
1.2490125 1.4024991 0.070708111 0
1.2490783 1.4025044 0.20079377 0
1.020825 1.3837812 0.2915881 0
0.85116595 1.3698643 0.36657909 0
0.83217198 1.3683063 0.4698576 0
0.83979517 1.3689317 0.5864349 0
1.0051761 1.4023268 -0.050035916 0
1.2381912 1.4243976 0.070392087 0
1.252849 1.425786 0.20141768 0
0.90324908 1.3926724 0.27060649 0
0.84840971 1.3874781 0.36627421 0
0.84225208 1.3868949 0.47374263 0
0.83888108 1.3865756 0.58670098 0
0.99800831 1.4214333 -0.049849909 0
0.63735574 1.3826853 0.048900053 0
0.6454522 1.3835552 0.13601439 0
0.64073294 1.3830482 0.22332655 0
0.65923721 1.3850362 0.31819129 0
0.84818131 1.4053361 0.47632226 0
0.83954591 1.4044083 0.58771729 0
0.99336284 1.440714 -0.049762964 0
0.55802029 1.3883886 0.046108808 0
0.55814236 1.3884033 0.12675019 0
0.55186945 1.3876494 0.20749645 0
0.5544309 1.3879572 0.29170713 0
0.8383581 1.4220835 0.47370514 0
0.8398965 1.4222684 0.58869779 0
1.0056933 1.4621936 -0.050296005 0
0.55399686 1.4021238 0.046027884 0
0.55252105 1.4019276 0.12633337 0
0.56256181 1.4032629 0.2097632 0
0.55266935 1.4019473 0.29170951 0
0.84715945 1.4411106 0.47740516 0
0.83645898 1.4396876 0.58819151 0
0.99093395 1.4801059 -0.049862403 0
0.54736668 1.4154234 0.045858998 0
0.55561107 1.4166256 0.12688038 0
0.5426529 1.414736 0.20649265 0
0.54740196 1.4154285 0.29085332 0
0.83125287 1.4568206 0.47288534 0
0.8433494 1.4585847 0.5920974 0
0.99359852 1.5004771 -0.050065927 0
0.55390877 1.4306952 0.046171974 0
0.56150979 1.4319016 0.12775421 0
0.54955953 1.430005 0.20813859 0
0.55602354 1.4310308 0.29362714 0
0.83345491 1.4750611 0.47452307 0
0.83980328 1.4760686 0.59173554 0
0.982171 1.5185782 -0.049768709 0
0.54912502 1.4442492 0.046082322 0
0.54688996 1.4438655 0.12641352 0
0.54925412 1.4442713 0.20850354 0
0.55721647 1.4456381 0.29453477 0
0.84144682 1.494424 0.47819626 0
0.84285337 1.4946654 0.59423631 0
0.98760277 1.5395821 -0.050091136 0
0.54293972 1.4574825 0.045947772 0
0.55631882 1.4599527 0.12771437 0
0.5477733 1.4583749 0.20868668 0
0.54029709 1.4569945 0.29079303 0
0.83977848 1.5122888 0.47869211 0
0.83700174 1.5117762 0.59309345 0
0.97237796 1.5567377 -0.049672242 0
0.54993659 1.4732271 0.046298672 0
0.5422886 1.4717152 0.12647069 0
0.54124957 1.4715098 0.20797582 0
0.54622561 1.4724935 0.29302117 0
0.83597785 1.5297734 0.47854233 0
0.83500916 1.5295818 0.59366727 0
0.98109061 1.5786403 -0.050133482 0
0.54831153 1.4874096 0.046343148 0
0.56219536 1.4903363 0.12896727 0
0.55023605 1.4878153 0.21015222 0
0.54387778 1.486475 0.29314807 0
0.83813304 1.5485046 0.48049188 0
0.83520979 1.5478884 0.59526539 0
0.97929364 1.5985258 -0.050221603 0
0.54265028 1.5007224 0.046246607 0
0.55737072 1.5040196 0.12877297 0
0.54208952 1.5005968 0.20920619 0
0.55676001 1.5038828 0.29730326 0
0.83954352 1.5672232 0.48227337 0
0.83857805 1.5670069 0.5983097 0
0.96333665 1.6151186 -0.049799599 0
0.56130737 1.519737 0.047048219 0
0.56018025 1.5194696 0.12944032 0
0.54462463 1.515779 0.21026701 0
0.54498726 1.5158651 0.29506338 0
0.8377828 1.585331 0.48305634 0
0.83898348 1.5856159 0.60020465 0
0.96723849 1.6363845 -0.050114844 0
0.55395335 1.5328188 0.046903815 0
0.55050606 1.531955 0.12874819 0
0.54576045 1.5307658 0.21110649 0
0.5532797 1.53265 0.29813361 0
0.84156436 1.6048917 0.48582071 0
0.84746259 1.6063696 0.60565162 0
0.96202046 1.6554756 -0.050104264 0
0.55758435 1.5486978 0.04717062 0
0.55826193 1.5488766 0.13000859 0
0.55202311 1.5472295 0.21294025 0
0.55058473 1.5468498 0.29837048 0
0.84788138 1.6253411 0.48955142 0
0.84303552 1.6240617 0.60570174 0
0.95188779 1.6731983 -0.049920447 0
0.5534696 1.5626248 0.04715877 0
0.55503243 1.5630585 0.13007191 0
0.55194813 1.5622026 0.21363294 0
0.55702192 1.5636107 0.30107337 0
0.85178107 1.6454157 0.49254927 0
0.84759396 1.6442536 0.60970855 0
0.93970901 1.6901937 -0.049668159 0
0.55202609 1.5773232 0.047252715 0
0.54875606 1.5763712 0.12981437 0
0.55329448 1.5776925 0.21463053 0
0.55179983 1.5772573 0.30074403 0
0.8385517 1.6607426 0.48971021 0
0.84320647 1.6620978 0.60998178 0
0.94797915 1.71324 -0.05018609 0
0.8583023 1.6859019 0.38360354 0
0.84451574 1.681699 0.4936029 0
0.83106738 1.6775993 0.60699791 0
0.93841869 1.730991 -0.050048847 0
0.84284037 1.7005335 0.38094842 0
0.83700782 1.6986748 0.49289915 0
0.83769077 1.6988925 0.61223984 0
0.92353088 1.7468716 -0.049718983 0
0.84387499 1.7203785 0.38276708 0
0.84396285 1.7204077 0.49733806 0
0.83972162 1.7189971 0.61561674 0
0.91564363 1.7649357 -0.049659733 0
0.845056 1.7404674 0.38470054 0
0.83838266 1.7381543 0.49747875 0
0.82998437 1.7352431 0.61396217 0
0.91753238 1.786486 -0.049979866 0
0.83969611 1.7584023 0.38493717 0
0.83499342 1.7567056 0.49847382 0
0.84519774 1.7603874 0.62337232 0
0.91019279 1.8048193 -0.049959958 0
0.83890897 1.7780807 0.38648239 0
0.83394104 1.7762172 0.50038677 0
0.84716719 1.7811784 0.62711006 0
0.90090495 1.822382 -0.049874134 0
0.84400719 1.8002185 0.38971427 0
0.82968777 1.7946405 0.50125378 0
0.83337635 1.7960774 0.62397939 0
0.89964694 1.8431276 -0.050105561 0
0.83081192 1.8153108 0.38800526 0
0.81874806 1.8104358 0.49980894 0
0.8374539 1.817995 0.62889564 0
0.88559598 1.8586955 -0.049853131 0
0.83712047 1.8383925 0.39173448 0
0.83011132 1.8354568 0.50647259 0
0.81770951 1.8302625 0.62326825 0
0.88478082 1.8798133 -0.050121993 0
0.83527678 1.8583429 0.39329764 0
0.83134264 1.8566366 0.5096125 0
0.82614201 1.854381 0.63039577 0
0.8770228 1.8980267 -0.050131075 0
0.83083767 1.877301 0.39421394 0
0.82339388 1.8739606 0.50951958 0
0.82547528 1.8748946 0.63357174 0
0.85721773 1.9106612 -0.049675073 0
0.82617599 1.8962588 0.39513996 0
0.83136553 1.8986666 0.51534486 0
0.81538647 1.8912529 0.63258338 0
0.85607785 1.9318899 -0.049961571 0
0.83004338 1.91941 0.39855203 0
0.82388502 1.9164579 0.51561886 0
0.81624621 1.9127961 0.63671041 0
0.84350449 1.9476886 -0.049805023 0
0.81689578 1.9345188 0.39722452 0
0.8195979 1.9358562 0.51716292 0
0.80618244 1.9292164 0.63594168 0
0.82804602 1.9618933 -0.049539756 0
0.80552953 1.9503938 0.39645311 0
0.80190629 1.9485433 0.51380038 0
0.80884916 1.9520892 0.64118236 0
0.82117003 1.9804105 -0.049626231 0
1.0340148 2.0925145 0.46489671 0
0.80467743 1.9717239 0.5181697 0
0.79950935 1.9690019 0.64097381 0
0.8140561 1.9988714 -0.049713071 0
0.79406029 1.9880159 0.39833727 0
0.80246586 1.9925792 0.5207929 0
0.79792565 1.9901143 0.64451778 0
0.81240314 2.0204604 -0.050033383 0
0.78772575 2.0066583 0.3992174 0
0.7912913 2.0086524 0.5201177 0
0.79608077 2.0113313 0.64808857 0
0.80335337 2.0380535 -0.050062448 0
0.77955991 2.0243497 0.39963356 0
0.78295416 2.0263045 0.52060443 0
0.78711766 2.0287025 0.64841151 0
0.79374021 2.0553401 -0.050077509 0
0.76744395 2.0397506 0.39894715 0
0.7773332 2.0456133 0.52223098 0
0.77552992 2.0445442 0.64757842 0
0.78753167 2.0747197 -0.05024413 0
0.76685518 2.0621073 0.40175807 0
0.76335722 2.0599735 0.52070844 0
0.76504809 2.0610049 0.64737171 0
0.77986795 2.0933287 -0.050360989 0
0.77259177 2.0887635 0.40658087 0
0.76214606 2.0822098 0.52425802 0
0.76492983 2.0839565 0.65232968 0
0.75953418 2.1038661 -0.049950428 0
0.76025301 2.1043298 0.40605664 0
0.75258273 2.0993817 0.5246402 0
0.75270563 2.0994611 0.65150529 0
0.75060827 2.121624 -0.050030757 0
0.74628609 2.1187582 0.40508932 0
0.73792046 2.1132112 0.52307618 0
0.74730712 2.1194353 0.65416145 0
0.7340712 2.1342685 -0.049792591 0
0.73871797 2.1374347 0.40614504 0
0.74006134 2.1383498 0.52833307 0
0.74671394 2.1428826 0.6593734 0
0.71867079 2.1475074 -0.049608763 0
0.72832698 2.1542661 0.40640387 0
0.7285946 2.1544535 0.52823848 0
0.72969455 2.1552234 0.65647858 0
0.71601623 2.1697531 -0.049990978 0
0.71547335 2.1693628 0.40595758 0
0.71694142 2.170418 0.52814937 0
0.72362262 2.175221 0.65921867 0
0.70058376 2.1829057 -0.049822129 0
0.71466762 2.1933017 0.40938765 0
0.71965104 2.19698 0.5340814 0
0.70452935 2.1858182 0.65541232 0
0.69728738 2.2051094 -0.050202671 0
0.69909662 2.2064803 0.40822014 0
0.69458419 2.2030609 0.52861458 0
0.6952799 2.203588 0.65675223 0
0.68633395 2.2217014 -0.050253216 0
0.69391757 2.2275999 0.41045338 0
0.69481188 2.2282953 0.53378731 0
0.69291526 2.2268202 0.66183341 0
0.65955633 2.2257121 -0.049590923 0
0.68575615 2.2466249 0.41182202 0
0.6911754 2.2509506 0.53750199 0
0.6846661 2.2457547 0.66400272 0
0.65266532 2.2454107 -0.049841799 0
0.6699577 2.2595737 0.41076487 0
0.6781196 2.2662585 0.53732646 0
0.68168288 2.269177 0.66913974 0
0.64079767 2.2611625 -0.049874783 0
0.66867822 2.2845905 0.4145889 0
0.65321022 2.2715929 0.53208143 0
0.66694111 2.2831309 0.66813099 0
0.62802154 2.2761664 -0.049874604 0
0.71831626 2.3540008 0.066130601 0
0.72663897 2.3611751 0.18818817 0
0.7139371 2.3502259 0.30871317 0
0.64606541 2.2917204 0.41137439 0
0.65140384 2.2963221 0.53695625 0
0.65429837 2.2988172 0.66835415 0
0.62072808 2.2960219 -0.050144661 0
0.67780107 2.3464856 0.064864501 0
0.68782514 2.3553488 0.18463403 0
0.68009061 2.3485098 0.30391118 0
0.6366809 2.3101273 0.41265935 0
0.63958114 2.3126917 0.53757489 0
0.64114088 2.3140707 0.66840386 0
0.60662931 2.3099673 -0.050101809 0
0.65145713 2.3506207 0.064262323 0
0.66180724 2.360007 0.18288495 0
0.65016693 2.3494508 0.30000395 0
0.61837465 2.3206189 0.41096556 0
0.62529165 2.3268917 0.53718483 0
0.62520283 2.3268113 0.66700685 0
0.58685583 2.3185976 -0.049790286 0
0.63626999 2.3645575 0.064199552 0
0.63969165 2.3677399 0.18169655 0
0.64190143 2.3697953 0.30138797 0
0.61252052 2.342468 0.41363624 0
0.60796684 2.3382328 0.53549188 0
0.6097905 2.3399289 0.66598076 0
0.57990593 2.3391602 -0.050113022 0
0.62151664 2.3788509 0.064166024 0
0.62575823 2.3828969 0.1817234 0
0.6263445 2.383456 0.30103484 0
0.60130495 2.3595719 0.4145453 0
0.59646994 2.35496 0.53652328 0
0.59943014 2.3577836 0.66792691 0
0.55692869 2.344368 -0.049652178 0
0.61315602 2.3993695 0.064460278 0
0.6119203 2.3981607 0.18179345 0
0.60762781 2.3939619 0.29992339 0
0.59611613 2.3827012 0.41769299 0
0.58435267 2.3711941 0.53737617 0
0.58968014 2.3764055 0.67038018 0
0.55348176 2.3687115 -0.050176393 0
0.60873276 2.4241364 0.064970374 0
0.60312456 2.4185104 0.18266101 0
0.60396904 2.4193578 0.30267793 0
0.57316977 2.3884614 0.41456804 0
0.57247275 2.3877623 0.5384475 0
0.57343215 2.3887246 0.66919041 0
0.52316338 2.3659461 -0.049346693 0
0.59938973 2.4443631 0.065250993 0
0.59290189 2.4376888 0.18335915 0
0.60716933 2.4523664 0.30732536 0
0.55753452 2.401305 0.41410485 0
0.56142884 2.4053113 0.54003078 0
0.56001335 2.4038551 0.66975737 0
0.52433401 2.3955555 -0.050138265 0
0.61454326 2.490726 0.066819787 0
0.61790687 2.4942746 0.18960735 0
0.61217231 2.4882247 0.31261578 0
0.54291302 2.4151564 0.41407105 0
0.54645747 2.4188957 0.53984201 0
0.5477069 2.4202139 0.67111516 0
0.5118677 2.4112375 -0.050242882 0
0.5345636 2.4357936 0.4164595 0
0.53126734 2.4322271 0.53962672 0
0.53555435 2.4368656 0.67271036 0
0.49269935 2.4195974 -0.050002012 0
0.51802438 2.4476998 0.41585866 0
0.51666516 2.4461915 0.53978342 0
0.52262527 2.4528053 0.67397648 0
0.48580763 2.4416773 -0.050427359 0
0.50106245 2.4590399 0.41514334 0
0.49996158 2.4577868 0.53897119 0
0.50032824 2.4582043 0.66950959 0
0.47311088 2.4574461 -0.050555572 0
0.48693451 2.4735849 0.41558444 0
0.49048576 2.477731 0.54191756 0
0.4915112 2.4789283 0.67359889 0
0.43958619 2.4484153 -0.049536511 0
0.47305855 2.4885049 0.41620499 0
0.480499 2.4974163 0.54477286 0
0.47574207 2.491719 0.67342663 0
0.42932221 2.4668338 -0.049810842 0
0.45981917 2.5043092 0.41716787 0
0.45897004 2.5032656 0.5417186 0
0.4567686 2.5005605 0.67125458 0
0.41636404 2.4821718 -0.049947988 0
0.43742183 2.508724 0.4144671 0
0.44701359 2.5208185 0.54377979 0
0.44419536 2.5172648 0.67338604 0
0.40804902 2.5036814 -0.050369672 0
0.42792878 2.529407 0.41712922 0
0.42634413 2.5273564 0.54125357 0
0.42668822 2.5278018 0.67235291 0
0.38625589 2.5077879 -0.050014377 0
0.40800187 2.5366731 0.41551986 0
0.40406719 2.5314467 0.53784066 0
0.41163954 2.5415051 0.67308533 0
0.37024942 2.5193672 -0.05000538 0
0.39250252 2.5497139 0.41583204 0
0.39709833 2.5559812 0.54300982 0
0.39414832 2.5519581 0.67224008 0
0.35378709 2.5303025 -0.049977101 0
0.37768152 2.5637629 0.41651905 0
0.38007155 2.5671098 0.54268831 0
0.37958124 2.5664232 0.67355609 0
0.33609292 2.5394368 -0.049879801 0
0.36094978 2.5751884 0.41644299 0
0.35860625 2.5718176 0.53985506 0
0.36194888 2.5766253 0.67280388 0
0.32051966 2.5515881 -0.049923033 0
0.34520409 2.588063 0.41687927 0
0.34273961 2.5844214 0.54032689 0
0.34355327 2.5856237 0.67156774 0
0.30558512 2.5647705 -0.050018404 0
0.32321361 2.5915391 0.41450164 0
0.32586959 2.5955722 0.54029596 0
0.32483938 2.594008 0.67015266 0
0.28943732 2.5761893 -0.05004625 0
0.30515817 2.6007285 0.41395849 0
0.30681011 2.6033072 0.53899992 0
0.30321142 2.5976899 0.66655314 0
0.27556285 2.5913002 -0.05023776 0
0.28517088 2.6067219 0.41252744 0
0.28845033 2.6119857 0.53817827 0
0.28820512 2.6115921 0.66810071 0
0.25448379 2.5947831 -0.049949784 0
0.27318481 2.625659 0.41504353 0
0.2683852 2.6177347 0.53631371 0
0.27202657 2.6237469 0.66888249 0
0.23455234 2.5998211 -0.049739409 0
0.25573835 2.6358151 0.41498628 0
0.24922056 2.6247418 0.53504652 0
0.25513521 2.6347904 0.66922295 0
0.22398652 2.6209469 -0.050202504 0
0.23778684 2.645083 0.4147332 0
0.23399194 2.6384459 0.5364477 0
0.23729827 2.6442285 0.66889703 0
0.20422496 2.6261883 -0.050019201 0
0.21481939 2.6452711 0.41189849 0
0.21837743 2.65168 0.53773355 0
0.21373983 2.6433268 0.66378349 0
0.1895072 2.6405246 -0.050216101 0
0.20337804 2.6662676 0.41519755 0
0.19812407 2.6565168 0.5359118 0
0.20040144 2.6607432 0.66745996 0
0.16746111 2.6411469 -0.04986674 0
0.18719245 2.6788971 0.41610789 0
0.18050982 2.6661119 0.53598434 0
0.17972209 2.6646047 0.66485828 0
0.15508445 2.6603119 -0.050272904 0
0.16151209 2.672996 0.41177079 0
0.15919562 2.6684248 0.53342336 0
0.15928157 2.6685944 0.66245395 0
0.13403966 2.6624813 -0.050006807 0
0.14124788 2.6771612 0.41041374 0
0.14719082 2.6892643 0.53784454 0
0.13962938 2.6738651 0.66077447 0
0.11868259 2.6761825 -0.05020868 0
0.12184473 2.6828327 0.40956268 0
0.11954983 2.6780064 0.53047091 0
0.12193211 2.6830163 0.66099787 0
0.09880849 2.6804152 -0.050044909 0
0.099577509 2.6820865 0.40698293 0
0.10885038 2.7022383 0.53626502 0
0.099532627 2.681989 0.65668273 0
0.084806405 2.6975679 -0.050396718 0
0.082946442 2.693388 0.40786046 0
0.084358893 2.6965621 0.53118503 0
0.078441225 2.6832633 0.65356302 0
0.063275479 2.6978467 -0.050097756 0
0.063108884 2.6974592 0.40678364 0
0.064266764 2.7001522 0.5296002 0
0.068855546 2.7108243 0.66242719 0
0.042167269 2.6986022 -0.049829282 0
0.047047637 2.7103581 0.40822017 0
0.041654132 2.697366 0.52581817 0
0.044070087 2.7031856 0.65551955 0
0.022772869 2.703136 -0.049717721 0
0.025737366 2.7105389 0.40620992 0
0.027749082 2.7155626 0.52967727 0
0.026762566 2.7130992 0.65661454 0
0.0065773935 2.7157495 -0.049925249 0
0.0062160105 2.714813 0.40540236 0
0.0031472656 2.7068613 0.52398813 0
0.0067773671 2.7162678 0.65480781 0
-0.014058569 2.7168398 -0.049700733 0
-0.012747684 2.7203684 0.40501437 0
-0.013312497 2.7188482 0.52577829 0
-0.013649442 2.717941 0.6524604 0
-0.026449064 2.7405491 -0.050344605 0
-0.031779744 2.7256277 0.40461275 0
-0.032537259 2.7235074 0.52504504 0
-0.03049604 2.7292211 0.65446061 0
-0.049502648 2.7345901 -0.049871799 0
-0.049859203 2.7335508 0.40499616 0
-0.049109496 2.7357359 0.52706265 0
-0.051529445 2.728683 0.65137219 0
-0.067384847 2.7432878 -0.049962752 0
-0.07495717 2.7202787 0.39974639 0
-0.071106471 2.7319794 0.52354652 0
-0.068446465 2.740062 0.65360665 0
-0.087143488 2.7462564 -0.049847331 0
-0.091245957 2.7332411 0.40161994 0
-0.093497641 2.7260973 0.51939964 0
-0.092776127 2.7283864 0.64591652 0
-0.10397062 2.7586794 -0.05009418 0
-0.11230124 2.731041 0.39950091 0
-0.11369211 2.7264266 0.51752484 0
-0.11002482 2.7385933 0.64785105 0
-0.12426878 2.75968 -0.049923684 0
-0.1023095 2.8359988 0.064758904 0
-0.10494886 2.8268256 0.18185236 0
-0.10488484 2.8270483 0.30114689 0
-0.12790237 2.7470515 0.40229464 0
-0.13114317 2.7357883 0.51887208 0
-0.1349728 2.7224786 0.63853198 0
-0.14395012 2.7624876 -0.049830146 0
-0.13308646 2.802115 0.063297093 0
-0.13511415 2.7947185 0.17765355 0
-0.13339008 2.8010073 0.29523498 0
-0.15162624 2.7344875 0.39757147 0
-0.15018903 2.7397299 0.51842082 0
-0.15141104 2.7352724 0.64179099 0
-0.16244124 2.7696123 -0.049905349 0
-0.15808164 2.7863379 0.062522426 0
-0.15489183 2.7985756 0.17750496 0
-0.15705372 2.7902815 0.29226378 0
-0.16853593 2.7462299 0.3993513 0
-0.17069136 2.7379606 0.51609015 0
-0.17163126 2.7343547 0.63926131 0
-0.18244977 2.7708337 -0.049771797 0
-0.17915995 2.7841394 0.062261127 0
-0.1786138 2.7863483 0.17560379 0
-0.17951106 2.7827194 0.28994501 0
-0.18932743 2.7430172 0.39725119 0
-0.19115616 2.7356207 0.51365983 0
-0.18943794 2.7425702 0.64074361 0
-0.20098297 2.7779622 -0.049864464 0
-0.19883879 2.7871282 0.062200539 0
-0.1986676 2.7878599 0.17525762 0
-0.19729967 2.7937076 0.29112136 0
-0.20701708 2.7521675 0.39846537 0
-0.20908995 2.7433066 0.5147503 0
-0.21203203 2.7307296 0.63378894 0
-0.22050057 2.7809479 -0.04981396 0
-0.21762796 2.7939646 0.062289856 0
-0.21728189 2.7955327 0.17561832 0
-0.21640472 2.7995074 0.29137763 0
-0.2292123 2.7414722 0.39454934 0
-0.23131831 2.7319293 0.5094201 0
-0.23105951 2.7331021 0.63300055 0
-0.24035688 2.7821412 -0.049707212 0
-0.23539869 2.8060341 0.062578395 0
-0.23095621 2.8274417 0.17866398 0
-0.23239101 2.8205276 0.2944811 0
-0.24773557 2.7465844 0.39483532 0
-0.25029138 2.7342682 0.50885952 0
-0.25043458 2.7335782 0.63151395 0
-0.25761908 2.7962995 -0.050081357 0
-0.25366345 2.8166454 0.062821336 0
-0.25127712 2.8289196 0.17838942 0
-0.2523312 2.823498 0.29429775 0
-0.2685549 2.7400503 0.39215443 0
-0.26922596 2.7365987 0.50837857 0
-0.26963747 2.734482 0.63031435 0
-0.2783083 2.7930598 -0.04983129 0
-0.2667349 2.8568668 0.064146452 0
-0.26655874 2.8578379 0.1811406 0
-0.26724008 2.8540816 0.29922223 0
-0.28772411 2.7411482 0.39152655 0
-0.28943604 2.73171 0.5055384 0
-0.29050052 2.725841 0.62520301 0
-0.29714254 2.7997921 -0.049952209 0
-0.30791587 2.7358191 0.38929978 0
-0.3102676 2.7218544 0.50111449 0
-0.30882874 2.7303984 0.62575448 0
-0.31696516 2.8007426 -0.049872585 0
-0.32652593 2.7392519 0.38940534 0
-0.32995465 2.7171998 0.49853882 0
-0.32731375 2.734185 0.62607867 0
-0.33581465 2.8081415 -0.050034646 0
-0.34587696 2.7375841 0.38825664 0
-0.34750074 2.726198 0.50063926 0
-0.34935382 2.7132041 0.61614126 0
-0.35529697 2.8115768 -0.050062314 0
-0.36713707 2.7203491 0.38316759 0
-0.36818415 2.7122815 0.49512294 0
-0.36542434 2.7335458 0.62358868 0
-0.37573633 2.8070276 -0.049811751 0
-0.38463485 2.7309735 0.38531116 0
-0.38594088 2.719811 0.49688575 0
-0.3867068 2.7132649 0.61417556 0
-0.39428347 2.8189533 -0.050162137 0
-0.40452167 2.7207515 0.38216108 0
-0.40475795 2.7184854 0.49575898 0
-0.4049148 2.7169809 0.61487597 0
-0.41413632 2.8193612 -0.050107572 0
-0.42378512 2.7139614 0.37995803 0
-0.42391789 2.7125108 0.49315965 0
-0.42376524 2.7141786 0.6129607 0
-0.43368208 2.8232141 -0.050185386 0
-0.44252008 2.711144 0.37883601 0
-0.44325975 2.7017648 0.48905104 0
-0.4429054 2.7062581 0.60902035 0
-0.45391306 2.8175948 -0.049933039 0
-0.46055454 2.7172756 0.38006347 0
-0.46150711 2.7028868 0.48898423 0
-0.46121442 2.7073081 0.60890549 0
-0.47352454 2.8202717 -0.049986593 0
-0.47981364 2.7028646 0.37609956 0
-0.4797855 2.7033901 0.48878783 0
-0.48001453 2.6991143 0.60505378 0
-0.4933908 2.8177259 -0.049862321 0
-0.4978734 2.708252 0.37725505 0
-0.49896428 2.6816108 0.48124874 0
-0.49877733 2.6861761 0.59933603 0
-0.51278305 2.8289225 -0.050237857 0
-0.51613843 2.7105248 0.37767327 0
-0.51668364 2.6912858 0.48426163 0
-0.51707494 2.67748 0.59547538 0
-0.53270829 2.8232887 -0.050021086 0
-0.5346387 2.7006593 0.37505278 0
-0.5349974 2.6778738 0.47966623 0
-0.5351097 2.6707428 0.59252197 0
-0.55246621 2.8232315 -0.05001238 0
-0.55292571 2.6773176 0.36905366 0
-0.55292493 2.6775763 0.4795109 0
-0.55293709 2.6737094 0.5936805 0
-0.57218778 2.8196421 -0.04988645 0
-0.57079524 2.6721685 0.36775428 0
-0.57079506 2.672148 0.47772363 0
-0.57059944 2.6514318 0.58447963 0
-0.5919897 2.8235896 -0.050038494 0
-0.58854938 2.6674752 0.36662832 0
-0.58852911 2.6665559 0.47595623 0
-0.58830428 2.6563537 0.58663261 0
-0.61146373 2.8148816 -0.049747419 0
-0.60634518 2.6671147 0.36666495 0
-0.60592681 2.6550364 0.4722892 0
-0.6061604 2.6617804 0.58908802 0
-0.63133264 2.8188145 -0.049916741 0
-0.62323904 2.6475296 0.36184859 0
-0.62316859 2.646039 0.46953294 0
-0.62365144 2.6562574 0.58709943 0
-0.65103042 2.8178399 -0.049919609 0
-0.64040369 2.6403725 0.36025938 0
-0.64015931 2.636292 0.46659705 0
-0.64030075 2.6386533 0.58018976 0
-0.64004022 2.6343031 0.69769698 0
-0.67100626 2.8206277 -0.050066028 0
-0.65849382 2.6481063 0.36253315 0
-0.65749657 2.6343563 0.46633548 0
-0.65707541 2.6285486 0.57647389 0
-0.65703285 2.6279624 0.69509292 0
-0.68997091 2.810293 -0.049751423 0
-0.67429835 2.6263361 0.4641149 0
-0.67447156 2.6283691 0.57696605 0
-0.67436403 2.6271067 0.69534791 0
-0.70970213 2.8100348 -0.049806464 0
-0.69129145 2.6219671 0.46318275 0
-0.68977559 2.6064823 0.56851929 0
-0.69021469 2.6109679 0.68802941 0
-0.72864312 2.8022511 -0.049600188 0
-0.70736229 2.6098781 0.57067281 0
-0.70677108 2.6045337 0.68568641 0
-0.74916625 2.8084531 -0.049905259 0
-0.72373158 2.6023152 0.5683502 0
-0.7216298 2.5852814 0.6769827 0
-0.76924497 2.8097744 -0.050044302 0
-0.7382375 2.5820971 0.67647219 0
-0.78816855 2.8026581 -0.04988816 0
-0.75564837 2.5844579 0.67887151 0
-0.80808818 2.8023622 -0.049986985 0
-0.82670152 2.7941742 -0.049809076 0
-0.84744841 2.7980042 -0.050075803 0
-0.86570162 2.7884543 -0.049865484 0
-0.88628083 2.7904625 -0.050084978 0
-0.9051972 2.7844427 -0.050020639 0
-0.92297697 2.7738788 -0.049797993 0
-0.94289678 2.7723675 -0.049916316 0
-0.96296966 2.7710938 -0.05005306 0
-0.98147625 2.7638762 -0.049979232 0
-1.0009677 2.7601755 -0.050044686 0
-1.0193416 2.752682 -0.049977843 0
-1.0347781 2.7362144 -0.049582787 0
-1.0609522 2.7525597 -0.050429218 0
-1.0725329 2.7254131 -0.049646676 0
-1.0940483 2.7271357 -0.049963012 0
-1.1161445 2.729753 -0.050325338 0
-1.1260717 2.7007117 -0.049485639 0
-1.1457238 2.6970797 -0.04962609 0
-1.1707504 2.7059045 -0.050259653 0
-1.1869416 2.6934097 -0.050078172 0
-1.2081432 2.6922889 -0.050349344 0
-1.2238675 2.6790011 -0.050153047 0
-1.2413863 2.6697373 -0.050122939 0
-1.2563932 2.655479 -0.049902156 0
-1.2753533 2.649235 -0.050009288 0
-1.2917398 2.6379738 -0.049923971 0
-1.307454 2.6256022 -0.049801257 0
-1.3256017 2.6177199 -0.049869705 0
-1.3464137 2.6143274 -0.050133366 0
-1.3536181 2.5877769 -0.049446933 0
-1.3789276 2.5916171 -0.050032325 0
-1.3944001 2.5791087 -0.049945399 0
-1.4134541 2.5722208 -0.050105289 0
-1.4333277 2.5663519 -0.050320532 0
-1.4352502 2.5340397 -0.049403608 0
-1.465209 2.5426331 -0.050266083 0
-1.4745115 2.5216391 -0.049849126 0
-1.4984258 2.5207984 -0.050329801 0
-1.5094979 2.5025568 -0.050047252 0
-1.5231744 2.4879599 -0.049933452 0
-1.53942 2.4766843 -0.049978439 0
-1.5437545 2.4509039 -0.04936222 0
-1.5694345 2.4510326 -0.049953353 0
-1.5912495 2.4460649 -0.050325308 0
-1.5988538 2.4247279 -0.049932227 0
-1.6132561 2.4112458 -0.049918875 0
-1.6312817 2.4016442 -0.050103936 0
-1.6477032 2.3901784 -0.050210167 0
-1.6593668 2.3737679 -0.050080303 0
-1.6790819 2.3654578 -0.050367106 0
-1.6849852 2.3435204 -0.049970087 0
-1.6937174 2.3246279 -0.049730126 0
-1.7103037 2.3131745 -0.049885236 0
-1.724396 2.2993367 -0.049926043 0
-1.7384944 2.2854617 -0.049974993 0
-1.7458397 2.26579 -0.049715068 0
-1.7590686 2.2512333 -0.049742322 0
-1.7857283 2.2475078 -0.05039439 0
-1.2254714 1.7944998 0.5155046 0
-1.789266 2.2249737 -0.049991209 0
-1.2277795 1.7825463 0.51215196 0
-1.8083349 2.2147179 -0.050303794 0
-1.2353183 1.774786 0.51285541 0
-1.8116865 2.1924276 -0.049918525 0
-1.2287767 1.7564553 0.50319755 0
-1.8261203 2.1785429 -0.050038721 0
-1.2390261 1.7508615 0.50611782 0
-1.8310869 2.1578343 -0.049751148 0
-1.2408034 1.7391038 0.50290352 0
-1.8548424 2.1503446 -0.050292633 0
-1.2381362 1.7244405 0.49662089 0
-1.8596447 2.1296508 -0.050018318 0
-1.2352797 1.7099694 0.49038848 0
-1.860907 2.1068695 -0.049606405 0
-1.2443652 1.7036232 0.49279931 0
-1.8768473 2.0937667 -0.049831051 0
-1.2369207 1.686637 0.48362845 0
-1.888484 2.0778117 -0.04988024 0
-1.2440783 1.6791407 0.4848614 0
-1.9092342 2.0672934 -0.050317127 0
-1.2435499 1.6669592 0.48083177 0
-1.9165167 2.0485442 -0.050199419 0
-1.2377715 1.651906 0.47333127 0
-1.9202408 2.0278673 -0.049946196 0
-1.24515 1.6446851 0.47498587 0
-1.9372209 2.0146956 -0.05024574 0
-1.2406255 1.6308228 0.46863085 0
-1.9469335 1.9973944 -0.050255775 0
-1.9424834 1.9727359 -0.049704947 0
-1.9519086 1.9554851 -0.049724497 0
-1.9683937 1.9416547 -0.050032947 0
-1.9670447 1.9191688 -0.0496425 0
-1.9930979 1.9094871 -0.050340779 0
-1.9916083 1.8871113 -0.049965184 0
-2.006031 1.8718028 -0.050220113 0
-1.9953976 1.8459871 -0.049513895 0
-1.9978606 1.8259006 -0.049326733 0
-1.9962548 1.8043965 -0.048994649 0
-1.9905865 1.7816441 -0.048519883 0
-1.9989741 1.7642154 -0.048590381 0
-2.0049551 1.7459135 -0.048578124 0
-1.9967425 1.7229959 -0.048041683 0
-2.0020103 1.7046739 -0.048022263 0
-1.9965417 1.6831636 -0.047611572 0
-2.0052128 1.6659719 -0.047737233 0
-1.9974658 1.6442395 -0.047263227 0
-2.0035613 1.6264111 -0.04731115 0
-2.0039625 1.6071558 -0.047157943 0
-1.9991412 1.586804 -0.046822734 0
-2.0037587 1.5687431 -0.046842661 0
-1.9929067 1.5475053 -0.04630715 0
-2.004812 1.5309993 -0.046609841 0
-1.989036 1.5093424 -0.045915581 0
-1.9973618 1.4921598 -0.046104766 0
-1.9977371 1.4736288 -0.046014294 0
-1.9843307 1.4532379 -0.045435619 0
-2.0032439 1.4373469 -0.046030179 0
-1.9978542 1.4182649 -0.045757826 0
-1.9986138 1.3999946 -0.045715112 0
-1.9971626 1.3815563 -0.045601454 0
-1.9944706 1.3631015 -0.045451801 0
-1.9976128 1.3451174 -0.045519281 0
-2.0013118 1.3271109 -0.045614716 0
-1.9933593 1.3085938 -0.045301951 0
-2.007339 1.2908469 -0.045780856 0
-1.9982613 1.2724689 -0.045444436 0
-1.9967574 1.2543254 -0.045386665 0
-1.132237 0.26436791 -0.049864642 0
-0.38597488 0.2643699 0.41553715 0
-0.38671446 0.2643699 0.4918586 0
-1.1380137 0.24459113 -0.050075326 0
-0.3882314 0.25403455 0.41669872 0
-1.138234 0.22480254 -0.050096534 0
-0.4090572 0.24317127 0.35456306 0
-0.40847582 0.24318592 0.42692876 0
-1.1426646 0.20483671 -0.050277073 0
-0.50484097 0.22894342 0.10681187 0
-0.52150756 0.22831351 0.17818451 0
-1.2300609 0.20153354 0.4304862 0
-1.2343837 0.20137015 0.56097257 0
-1.2385885 0.20121123 0.69840229 0
-1.1387691 0.18515995 -0.050169084 0
-0.51744258 0.21648194 0.10822387 0
-0.50898308 0.2169084 0.17601852 0
-1.2376961 0.18017291 0.43267244 0
-1.2333498 0.180392 0.56093639 0
-1.2413862 0.17998688 0.6999467 0
-1.1288152 0.16593832 -0.049853142 0
