# .PCD v0.7 - Point Cloud Data file format
VERSION 0.7
FIELDS x y z intensity
SIZE 4 4 4 4
TYPE F F F F
COUNT 1 1 1 1
WIDTH 1327
HEIGHT 1
VIEWPOINT 0 0 0 1 0 0 0
POINTS 1327
DATA ascii
-0.4301739 -3.7004099 -0.090944 0
-0.8148846 -6.1195226 -0.14086698 0
-1.633 -11.263943 -0.14092176 0
-0.11804753 -1.8824749 -0.090564512 0
-0.13391282 -2.001534 -0.091371618 0
-0.1523221 -2.139684 -0.089769281 0
-0.17898864 -2.3397992 -0.090500318 0
-0.21694629 -2.6246474 -0.091848426 0
-0.26992118 -3.0221901 -0.090458281 0
-0.36045295 -3.7015734 -0.090319701 0
-0.68489546 -6.1363072 -0.14076521 0
-1.372493 -11.296289 -0.14079021 0
-0.095489457 -1.8853394 -0.090595685 0
-0.10779466 -1.999642 -0.090429507 0
-0.12276174 -2.1386704 -0.089022942 0
-0.14526729 -2.3477235 -0.091039352 0
-0.1750094 -2.6239967 -0.091186829 0
-0.21791293 -3.0225258 -0.08990889 0
-0.29273674 -3.7175608 -0.090863355 0
-0.55447119 -6.1488004 -0.14061661 0
-1.1120721 -11.328331 -0.14080584 0
-0.072881497 -1.8878639 -0.090675838 0
-0.082055062 -1.9994748 -0.089940049 0
-0.094381496 -2.1494453 -0.090345271 0
-0.1105694 -2.3463967 -0.09039294 0
-0.1330151 -2.6194839 -0.090197958 0
-0.16562539 -3.0162399 -0.088863559 0
-0.22419065 -3.7287786 -0.091191329 0
-0.42459869 -6.1670575 -0.14089152 0
-0.85027009 -11.346023 -0.14064018 0
-0.050570976 -1.8962122 -0.092117421 0
-0.05687698 -2.0071642 -0.091056161 0
-0.064677171 -2.1444056 -0.089180417 0
-0.075798281 -2.3400776 -0.089168124 0
-0.081115723 -2.4336362 -0.068107255 0
-0.0816008 -2.4421709 -0.034860644 0
-0.080230892 -2.4180679 0.00092431367 0
-0.081198737 -2.4350967 0.033552852 0
-0.080447696 -2.4218824 0.067608282 0
-0.080992818 -2.4314737 0.10101163 0
-0.027334867 -1.886536 -0.089844398 0
-0.030925464 -2.0003381 -0.089555837 0
-0.035624567 -2.1492739 -0.089769013 0
-0.040883407 -2.3159502 -0.085563801 0
-0.040719252 -2.3107474 -0.053549279 0
-0.040839732 -2.3145659 -0.02279265 0
-0.040479042 -2.3031342 0.0090747643 0
-0.041012242 -2.3200336 0.038987368 0
-0.040728036 -2.3110259 0.070224211 0
-0.040667571 -2.3091094 0.10100809 0
-0.0047236602 -1.892694 -0.091062285 0
-0.0055002263 -2.0158184 -0.092380635 0
-0.0063189431 -2.1456256 -0.08907833 0
-0.0067001753 -2.2060699 -0.070032425 0
-0.0067366106 -2.2118466 -0.041916419 0
-0.0067593697 -2.2154551 -0.01348233 0
-0.0067425864 -2.2127941 0.015434379 0
-0.0066952626 -2.205291 0.044358876 0
-0.006734774 -2.2115555 0.072551668 0
-0.0066982093 -2.2057581 0.10100513 0
0.017881919 -1.8825157 -0.08892893 0
0.020154849 -2.0025933 -0.089920022 0
0.022993803 -2.1525738 -0.090250723 0
0.023939544 -2.2025368 -0.069563039 0
0.023944445 -2.2027957 -0.040881146 0
0.023893522 -2.2001054 -0.012067562 0
0.023874884 -2.1991208 0.016376833 0
0.023836268 -2.1970806 0.044732153 0
0.023686778 -2.1891832 0.073067397 0
0.02381474 -2.1959434 0.10100485 0
0.040862359 -1.8919638 -0.091090508 0
0.046031971 -2.0089526 -0.09127105 0
0.052187353 -2.1482496 -0.089691661 0
0.054709233 -2.2053199 -0.070090406 0
0.054506715 -2.200737 -0.040753294 0
0.054762729 -2.2065306 -0.01275791 0
0.054532606 -2.2013228 0.016155349 0
0.054224852 -2.1943583 0.044814218 0
0.054860942 -2.2087531 0.072589725 0
0.054786377 -2.2070656 0.1010052 0
0.062783413 -1.8785628 -0.088510744 0
0.071675867 -2.0065017 -0.091084205 0
0.081393935 -2.1463189 -0.089647271 0
0.085442953 -2.2045736 -0.070230789 0
0.084836133 -2.195843 -0.040383387 0
0.084690891 -2.1937535 -0.01172564 0
0.085486919 -2.2052062 0.015761474 0
0.085736811 -2.2088013 0.044059604 0
0.085180402 -2.2007961 0.072734438 0
0.085110709 -2.1997936 0.10100504 0
0.08616282 -1.8868551 -0.090674736 0
0.096909083 -2.0000799 -0.090267994 0
0.11113452 -2.1499617 -0.090644442 0
0.11655366 -2.2070587 -0.013207151 0
0.11581278 -2.1992526 0.016002627 0
0.11595432 -2.2007439 0.044318236 0
0.11629414 -2.2043242 0.072593406 0
0.11643278 -2.205785 0.10100528 0
0.10953931 -1.8907073 -0.092020817 0
0.14574902 -2.1913562 -0.012041485 0
0.14743334 -2.2053409 0.015342774 0
0.1465167 -2.1977301 0.044305436 0
0.14621153 -2.1951964 0.072729975 0
0.14738108 -2.2049069 0.10100535 0
0.13307305 -1.8933251 -0.049186427 0
0.17839156 -2.2034674 0.015186721 0
0.1779276 -2.2002921 0.043994024 0
0.17798172 -2.2006626 0.072506405 0
0.17835934 -2.2032468 0.10100542 0
0.15440647 -1.881366 -0.026237687 0
0.20983951 -2.2036605 0.014828065 0
0.20981957 -2.2035444 0.043611277 0
0.20949452 -2.2016547 0.07236854 0
0.20867762 -2.1969051 0.10100538 0
0.17685717 -1.8771687 -0.026231652 0
0.2408822 -2.2003739 0.043493319 0
0.24292101 -2.2106662 0.072021097 0
0.24140196 -2.2029977 0.10100572 0
0.2085994 -1.9143107 -0.054840166 0
0.27248436 -2.1989331 0.072145954 0
0.270172 -2.1886311 0.10100549 0
0.30451539 -2.1980574 0.10100598 0
0.23917085 -1.8457496 -0.087989531 0
0.26358929 -1.8489107 -0.090088464 0
0.39922726 -2.0906806 -0.09151455 0
0.31411806 -1.855307 -0.028446725 0
0.33953497 -1.8565214 -0.029863482 0
0.3702952 -1.8691124 -0.033126581 0
0.37927026 -1.8303746 -0.028636342 0
0.3872695 -1.7932935 -0.088632263 0
0.44278637 -1.9088414 -0.091181614 0
0.41381627 -1.7957618 -0.09161026 0
0.46538612 -1.8965013 -0.090991192 0
0.53166157 -2.0259676 -0.090435408 0
0.62461072 -2.2075398 -0.09136451 0
0.7450242 -2.4427626 -0.089865707 0
0.93647289 -2.8167493 -0.090656154 0
1.2490516 -3.4273586 -0.09050826 0
1.8763982 -4.6528535 -0.090634085 0
4.7417889 -10.250274 -0.14092487 0
0.43264708 -1.7825421 -0.090994008 0
0.48759463 -1.8835148 -0.090781011 0
0.56249779 -2.0211582 -0.092102639 0
0.64738774 -2.1771533 -0.089082383 0
0.78303283 -2.4264174 -0.090250321 0
0.97847992 -2.7855744 -0.089913391 0
1.312042 -3.3985341 -0.090782188 0
1.9717095 -4.6107507 -0.090972356 0
4.9651952 -10.111634 -0.14049935 0
0.45536545 -1.7763194 -0.092201911 0
0.50702405 -1.8657945 -0.089659281 0
0.58787376 -2.00583 -0.091944776 0
0.68520576 -2.1744137 -0.091345809 0
0.81262505 -2.3951099 -0.088749938 0
1.0263126 -2.7652266 -0.090440162 0
1.3701309 -3.3607361 -0.090463214 0
2.5968995 -5.4855576 -0.14073405 0
5.1931863 -9.9824495 -0.14047173 0
0.4733299 -1.761745 -0.091489546 0
0.53495443 -1.8625208 -0.091816999 0
0.61201602 -1.9885412 -0.091529198 0
0.7086435 -2.146558 -0.0896632 0
0.85053772 -2.3786006 -0.089355014 0
1.0737485 -2.7436213 -0.090968646 0
1.4288219 -3.3242803 -0.090368487 0
2.7099371 -5.419313 -0.1407714 0
5.4270992 -9.8627434 -0.14085768 0
0.4925999 -1.7494738 -0.091462396 0
0.5605219 -1.854499 -0.093102075 0
0.63546503 -1.9703805 -0.091054492 0
0.74152851 -2.1343825 -0.090675406 0
0.89327335 -2.3690195 -0.091066517 0
1.1147938 -2.7115476 -0.090474211 0
1.4880272 -3.2886641 -0.090464495 0
2.814363 -5.3395252 -0.14021544 0
5.6480117 -9.7210846 -0.14080432 0
0.50644147 -1.7292417 -0.089509614 0
0.57346636 -1.827359 -0.090194516 0
0.65636444 -1.9487127 -0.089990295 0
0.76494694 -2.1076658 -0.089370482 0
0.92527097 -2.3423629 -0.090542279 0
1.1627491 -2.6900048 -0.091277711 0
1.5444196 -3.2487295 -0.090322025 0
2.9319141 -5.279871 -0.14093234 0
5.8625588 -9.5700178 -0.14064083 0
0.52868396 -1.7214329 -0.090866931 0
0.59886909 -1.8188072 -0.09162464 0
0.67751414 -1.9279188 -0.089189582 0
0.79487586 -2.0907454 -0.089840226 0
0.95040482 -2.3065252 -0.088801078 0
1.211426 -2.668664 -0.092257254 0
1.6003664 -3.208277 -0.090253897 0
3.0406673 -5.2065396 -0.14104626 0
6.0795813 -9.4227066 -0.14073579 0
0.55215251 -1.7146813 -0.092681237 0
0.62256289 -1.8073462 -0.092544504 0
0.7145915 -1.9284623 -0.092886873 0
0.82907128 -2.0791256 -0.091386668 0
0.99121273 -2.292515 -0.090322383 0
1.2421128 -2.6227169 -0.090513863 0
1.6564575 -3.1680233 -0.090324767 0
3.144345 -5.1261868 -0.14091083 0
6.2876735 -9.2630253 -0.14062987 0
0.56940526 -1.6994516 -0.092383929 0
0.63378692 -1.7798856 -0.089765988 0
0.73160017 -1.902087 -0.091187768 0
0.85649192 -2.0581181 -0.09142866 0
1.0195609 -2.2618456 -0.089533471 0
1.277292 -2.5838373 -0.089671649 0
1.7087445 -3.122865 -0.090083398 0
3.2493336 -5.0475726 -0.14103088 0
6.4955239 -9.1031437 -0.14067072 0
0.58348936 -1.6805485 -0.091178946 0
0.6577096 -1.7686239 -0.090986796 0
0.7501024 -1.8782642 -0.09009213 0
0.87983263 -2.0322118 -0.090697102 0
1.0502917 -2.2344911 -0.089342527 0
1.3230662 -2.5581861 -0.090533279 0
1.7754424 -3.0950096 -0.091538168 0
3.3440599 -4.956449 -0.1405516 0
6.7040749 -8.943696 -0.14088352 0
0.59679627 -1.6611782 -0.089913897 0
0.67683816 -1.7514385 -0.090894334 0
0.77774972 -1.8652326 -0.091443665 0
0.90591967 -2.0097649 -0.090708323 0
1.0792682 -2.2052433 -0.088971369 0
1.3627534 -2.524919 -0.090606906 0
1.8262148 -3.0475469 -0.091349341 0
3.4479129 -4.8762746 -0.14088994 0
6.9001899 -8.7692766 -0.14079772 0
0.61843485 -1.6511579 -0.091433264 0
0.69655073 -1.7348914 -0.091087081 0
0.79148275 -1.8366505 -0.089487188 0
0.92745572 -1.982402 -0.089900024 0
1.1161406 -2.1846561 -0.090091206 0
1.4035181 -2.4927003 -0.090942554 0
1.8596179 -2.9816008 -0.089510016 0
3.546206 -4.7894802 -0.14097992 0
7.0950265 -8.5935154 -0.14082281 0
0.63177782 -1.6321476 -0.090474226 0
0.71206474 -1.7139684 -0.090259679 0
0.81801957 -1.8219476 -0.090756409 0
0.96160346 -1.9682746 -0.091783278 0
1.1488698 -2.1591187 -0.090579115 0
1.4417422 -2.4575865 -0.091040917 0
1.905959 -2.9306722 -0.089177109 0
3.6451511 -4.7030921 -0.14125849 0
7.2796192 -8.4069977 -0.14065647 0
0.65086693 -1.6190019 -0.091382883 0
0.74209881 -1.7074004 -0.09340059 0
0.83984655 -1.8021125 -0.091003187 0
0.98203117 -1.9398814 -0.091006972 0
1.1708764 -2.1228619 -0.089416556 0
1.4795643 -2.421963 -0.091201328 0
1.9583958 -2.8859239 -0.089572363 0
3.7292416 -4.6017742 -0.14071061 0
7.4608636 -8.2175064 -0.14054011 0
0.66814929 -1.6038789 -0.091845609 0
0.75190699 -1.6810346 -0.091332845 0
0.86731422 -1.7873451 -0.092617996 0
0.99745691 -1.9072295 -0.089431323 0
1.2101369 -2.1031454 -0.091169558 0
1.5094986 -2.3789105 -0.090472557 0
2.5469825 -3.3346174 -0.14102842 0
3.8152208 -4.5028896 -0.14045864 0
7.6406174 -8.0267582 -0.14053231 0
0.67453045 -1.5790457 -0.089327432 0
0.77296883 -1.6652364 -0.092296071 0
0.88487762 -1.7632216 -0.092116348 0
1.0409729 -1.8998958 -0.09329284 0
1.2231888 -2.0594406 -0.088891201 0
1.5267763 -2.3252561 -0.088325821 0
2.6089699 -3.2728047 -0.14136507 0
3.9109478 -4.4127922 -0.14097162 0
7.8237224 -7.8387442 -0.14077877 0
0.70349115 -1.5737562 -0.093280114 0
0.78297102 -1.6398801 -0.090628318 0
0.89685053 -1.734623 -0.090561487 0
1.0448536 -1.8577551 -0.089862607 0
1.2471781 -2.0260804 -0.08849249 0
1.5683359 -2.2932699 -0.089338176 0
2.6562152 -3.1983387 -0.14049752 0
3.9915569 -4.3092856 -0.14069761 0
7.9946895 -7.63972 -0.14079811 0
0.70247173 -1.5435646 -0.089069583 0
0.79782945 -1.6189092 -0.09031444 0
0.90907413 -1.7068068 -0.089242585 0
1.063853 -1.8291017 -0.089400448 0
1.2762239 -1.9969018 -0.088981561 0
1.5960767 -2.2496259 -0.088783719 0
2.7164981 -3.1349015 -0.14097793 0
4.0774508 -4.210227 -0.14089921 0
8.1567183 -7.4333668 -0.14070259 0
0.71932995 -1.528011 -0.089892365 0
0.8092261 -1.595427 -0.08931727 0
0.92682457 -1.6836181 -0.089229427 0
1.0925242 -1.8078816 -0.090774171 0
1.314734 -1.974524 -0.090952717 0
1.6312634 -2.2118998 -0.089238159 0
2.7653329 -3.062376 -0.14059025 0
4.1575165 -4.10642 -0.14090478 0
8.3199682 -7.2279797 -0.14079721 0
0.72889388 -1.5070121 -0.088901229 0
0.83564824 -1.5829393 -0.091948949 0
0.95859057 -1.6703798 -0.092162319 0
1.1184748 -1.7840946 -0.091747575 0
1.326179 -1.9318204 -0.089088984 0
1.6713141 -2.1772916 -0.090351753 0
2.8183954 -2.9931326 -0.14073065 0
4.2429795 -4.0063424 -0.14136973 0
8.472064 -7.0142021 -0.14072119 0
0.74738443 -1.4922953 -0.090351932 0
0.84774607 -1.5599285 -0.091355063 0
0.97277796 -1.6441871 -0.091628753 0
1.1286848 -1.749252 -0.09013968 0
1.3482122 -1.8971907 -0.088902123 0
1.6979347 -2.1328673 -0.090034105 0
2.8683224 -2.921587 -0.140753 0
4.3046231 -3.8895044 -0.14063266 0
8.628232 -6.8031669 -0.14091326 0
0.76780528 -1.478384 -0.092360608 0
0.85832876 -1.5361207 -0.090563022 0
0.98313224 -1.6157215 -0.09048643 0
1.1480871 -1.7209312 -0.090237506 0
1.3717506 -1.8635856 -0.089049079 0
1.7285488 -2.0911546 -0.090288825 0
2.924907 -2.8542027 -0.141478 0
4.3792968 -3.7818253 -0.14079104 0
8.7644386 -6.5787072 -0.14069991 0
0.77150244 -1.4538169 -0.090275966 0
0.87282312 -1.5148997 -0.090776406 0
0.99807078 -1.5904071 -0.09038008 0
1.1700963 -1.6941153 -0.090879835 0
1.396906 -1.830851 -0.089531161 0
1.7524371 -2.0451882 -0.089922316 0
2.958035 -2.7720013 -0.14041723 0
4.4426894 -3.6670477 -0.14048274 0
8.9028635 -6.3559308 -0.14070503 0
0.7820496 -1.4336998 -0.090049021 0
0.88689816 -1.4933555 -0.091012843 0
1.0099272 -1.5633551 -0.089814119 0
1.1884975 -1.6649561 -0.091039918 0
1.4072521 -1.7894206 -0.088126935 0
1.7817049 -2.0024726 -0.090264253 0
2.993269 -2.6918149 -0.1397091 0
4.5287805 -3.5654733 -0.14155091 0
9.0420456 -6.1333799 -0.14088185 0
0.80226827 -1.4188118 -0.092280976 0
0.89371836 -1.4678321 -0.089812733 0
1.0295272 -1.54063 -0.090827994 0
1.1970125 -1.6304076 -0.089739658 0
1.440508 -1.760929 -0.089919187 0
1.8120134 -1.9600679 -0.090826802 0
3.0618157 -2.6300023 -0.14181449 0
4.5796938 -3.4436343 -0.14088301 0
9.1529207 -5.895031 -0.14045879 0
0.80661488 -1.3953152 -0.090796746 0
0.91762698 -1.4512625 -0.092368804 0
1.0493561 -1.5176506 -0.091977455 0
1.2154081 -1.6013367 -0.090148874 0
1.4509051 -1.7200212 -0.088791825 0
1.8282852 -1.9102114 -0.090027697 0
3.08989 -2.5460289 -0.1408478 0
4.6430039 -3.3287597 -0.14103118 0
9.281805 -5.6665993 -0.14066763 0
0.81740981 -1.3752403 -0.090986483 0
0.92642903 -1.4267762 -0.091835029 0
1.0524188 -1.4863344 -0.090171449 0
1.2338644 -1.572108 -0.090677477 0
1.4870423 -1.6917911 -0.091139697 0
1.8561946 -1.8662978 -0.090570293 0
3.1238608 -2.465553 -0.14051346 0
4.7032919 -3.2121866 -0.1411722 0
9.3980465 -5.4315047 -0.14069806 0
0.82770574 -1.3548797 -0.091176607 0
0.92837816 -1.3993979 -0.090023868 0
1.0561172 -1.4558851 -0.08864259 0
1.2420623 -1.5381114 -0.089737885 0
1.4927906 -1.6489856 -0.089669667 0
1.8762095 -1.8185365 -0.090414934 0
3.1612418 -2.3867881 -0.14059967 0
4.7460804 -3.0876167 -0.14057153 0
9.5031557 -5.1912336 -0.14059688 0
0.83297712 -1.3323826 -0.090328284 0
0.93485987 -1.3743956 -0.089296453 0
1.0760646 -1.4326237 -0.090155594 0
1.2395214 -1.5000279 -0.087306716 0
1.5139843 -1.6132073 -0.090304799 0
1.9064895 -1.7750634 -0.091419972 0
3.1844003 -2.3020313 -0.13976063 0
4.8036923 -2.9697733 -0.14088275 0
9.6112919 -4.9522672 -0.14072619 0
0.83805686 -1.3100122 -0.089574389 0
0.94835615 -1.3522723 -0.090118788 0
1.0816572 -1.4033452 -0.089231439 0
1.2687449 -1.475026 -0.089824744 0
1.5212004 -1.5717518 -0.089297988 0
1.9095355 -1.7205386 -0.08980336 0
3.2415459 -2.2308853 -0.14163503 0
4.8384371 -2.8427181 -0.14019994 0
9.7132177 -4.7104416 -0.14085059 0
0.84566826 -1.2887138 -0.089526094 0
0.96705711 -1.3317429 -0.09208601 0
1.097113 -1.3778442 -0.090164833 0
1.2878101 -1.4454412 -0.09090025 0
1.5558977 -1.5404711 -0.091838144 0
1.9389514 -1.6762534 -0.090949483 0
3.2523527 -2.141819 -0.14018957 0
4.8914251 -2.7228265 -0.14058346 0
9.7971172 -4.4617629 -0.14068046 0
0.85752255 -1.2687968 -0.090547569 0
0.97176057 -1.3060744 -0.091366939 0
1.1031671 -1.3489542 -0.089576937 0
1.296273 -1.4119675 -0.09051051 0
1.5573632 -1.4971652 -0.090369485 0
1.9606895 -1.6287766 -0.091442607 0
3.2952845 -2.0642748 -0.14128436 0
4.9389596 -2.6006303 -0.14084557 0
9.8818951 -4.2135835 -0.14068736 0
0.86503369 -1.2473147 -0.090709887 0
0.98687345 -1.2836981 -0.092827298 0
1.1202511 -1.3235269 -0.091010921 0
1.2915355 -1.3746752 -0.088312022 0
1.5558087 -1.4535915 -0.088677339 0
1.9586889 -1.5738982 -0.089736737 0
3.3192258 -1.980177 -0.14112875 0
4.9878635 -2.4784596 -0.14132269 0
9.9722652 -3.9668841 -0.14098252 0
0.87841308 -1.22737 -0.092283405 0
0.99644661 -1.2593963 -0.093307175 0
1.1155293 -1.2917073 -0.088831417 0
1.3230276 -1.3480084 -0.091541685 0
1.5629314 -1.413102 -0.08818119 0
1.9629971 -1.5216529 -0.088787131 0
3.335731 -1.8941202 -0.14058986 0
5.0300822 -2.3538527 -0.14162336 0
10.033938 -3.7115614 -0.14073485 0
0.86686599 -1.2009333 -0.088503368 0
0.98966235 -1.2309471 -0.090731792 0
1.1383885 -1.2672987 -0.091468029 0
1.3136573 -1.3101379 -0.088937573 0
1.5653452 -1.3716553 -0.087244891 0
1.9697753 -1.470506 -0.088207804 0
3.3658507 -1.8117343 -0.1411909 0
5.0369954 -2.2201948 -0.14038138 0
10.103185 -3.4584711 -0.14082472 0
0.89577085 -1.184212 -0.093689822 0
0.99510998 -1.2058517 -0.090667255 0
1.1371226 -1.2367873 -0.090136148 0
1.3194424 -1.2765032 -0.088665403 0
1.5963885 -1.3368323 -0.08986371 0
1.9844443 -1.4213651 -0.08850912 0
3.3784838 -1.7250383 -0.14068672 0
5.0653229 -2.092494 -0.14032772 0
10.158105 -3.2018893 -0.14072564 0
0.89231259 -1.1600235 -0.091938622 0
0.99888241 -1.1804364 -0.090403534 0
1.1367011 -1.2068348 -0.089081191 0
1.3424879 -1.2462522 -0.090986125 0
1.6055562 -1.2966415 -0.089971639 0
2.5490332 -1.4773595 -0.14119004 0
3.3895116 -1.6383488 -0.14022686 0
5.0991893 -1.9658284 -0.14069004 0
10.218044 -2.9463179 -0.14089958 0
0.87857455 -1.1345401 -0.088111736 0
1.0002278 -1.1546744 -0.089800321 0
1.1481258 -1.1791523 -0.090130247 0
1.3251431 -1.2084497 -0.087652721 0
1.6236535 -1.2578548 -0.091257356 0
2.567539 -1.4140731 -0.14185254 0
3.4103727 -1.5535668 -0.14062108 0
5.1228824 -1.8369967 -0.14072201 0
10.257481 -2.6868012 -0.14074194 0
0.89170164 -1.1137118 -0.090202563 0
1.0192382 -1.1315266 -0.092682637 0
1.1458204 -1.1492079 -0.089013346 0
1.3589196 -1.1789743 -0.091720752 0
1.6257709 -1.216249 -0.090768568 0
2.5750756 -1.3488507 -0.14162976 0
3.4158952 -1.4662991 -0.14008255 0
5.1381736 -1.7068722 -0.14051203 0
10.297603 -2.427557 -0.14075503 0
0.89766872 -1.0915532 -0.090868227 0
1.013813 -1.1047986 -0.091035299 0
1.1569506 -1.1211222 -0.090247311 0
1.3475575 -1.1428595 -0.089497857 0
1.6299372 -1.1750625 -0.090645887 0
2.5795228 -1.2833552 -0.14127226 0
3.4363112 -1.3810651 -0.14074872 0
5.1671433 -1.5784527 -0.14109775 0
10.340425 -2.1684241 -0.14098465 0
0.89691043 -1.0686258 -0.090216734 0
1.0028077 -1.0780028 -0.088464223 0
1.1262246 -1.0889312 -0.084689625 0
1.1270242 -1.089002 -0.057897825 0
1.6379037 -1.1342394 -0.091091506 0
2.5664611 -1.2164614 -0.13942997 0
3.4423196 -1.2940171 -0.14055343 0
5.1834612 -1.4481919 -0.14124252 0
10.364761 -1.9069864 -0.14093509 0
0.91660255 -1.0471307 -0.094045304 0
1.0160178 -1.0534105 -0.090595104 0
1.1331674 -1.0608107 -0.085477941 0
1.1274877 -1.0604519 -0.057659317 0
1.6432297 -1.0930302 -0.09134797 0
2.5872617 -1.1526629 -0.14091571 0
3.4496245 -1.2071365 -0.1406033 0
5.1792064 -1.3163906 -0.14058089 0
10.377131 -1.644733 -0.14076072 0
0.90449905 -1.0235076 -0.091222294 0
1.0101931 -1.02751 -0.089253195 0
1.117359 -1.0315683 -0.082640462 0
1.1312938 -1.0320959 -0.057992537 0
1.6403962 -1.0513749 -0.090771593 0
2.5943487 -1.0874997 -0.14126956 0
3.4599571 -1.1202791 -0.14101844 0
5.1945705 -1.1859664 -0.14098898 0
10.389895 -1.3827059 -0.14074978 0
0.89667797 -1.0005939 -0.089437343 0
1.0182601 -1.002128 -0.090651654 0
1.1291848 -1.0035275 -0.084467299 0
1.1384077 -1.0036439 -0.058891136 0
1.1301403 -1.0035396 -0.031009471 0
1.1301657 -1.0035399 -0.0044371169 0
1.1409729 -1.0036763 0.021267401 0
1.1300322 -1.0035383 0.048403315 0
1.1382304 -1.0036417 0.074526578 0
1.1180179 -1.0033866 0.10100229 0
1.1350806 -1.0036019 0.12740576 0
1.1302199 -1.0035406 0.15361084 0
1.1343986 -1.0035933 0.18027878 0
1.1267439 -1.0034968 0.20612332 0
1.122131 -1.0034386 0.23207901 0
1.1322407 -1.0035661 0.26003107 0
1.1257633 -1.0034844 0.28591168 0
1.1328105 -1.0035733 0.31423676 0
0.89847088 -0.97796822 -0.08981847 0
1.0171914 -0.97647023 -0.090450324 0
1.1326807 -0.97501308 -0.085041888 0
1.1351279 -0.97498214 -0.058430184 0
1.6535052 -0.96844155 -0.092181735 0
2.5885131 -0.95664406 -0.1405706 0
3.4611602 -0.94563347 -0.14094847 0
5.2058907 -0.92361933 -0.14136197 0
10.401024 -0.85806978 -0.14085464 0
0.89716941 -0.95535475 -0.08966317 0
1.024843 -0.95051992 -0.092014499 0
1.1345841 -0.94636416 -0.085473441 0
1.1209296 -0.94688123 -0.056534965 0
1.6416411 -0.92716265 -0.090917192 0
2.5910032 -0.89121169 -0.14095706 0
3.4424989 -0.85896671 -0.13979708 0
5.1949935 -0.7926023 -0.14100868 0
10.388081 -0.5959475 -0.14070755 0
0.91563195 -0.93151528 -0.09383858 0
1.020313 -0.9249028 -0.091405712 0
1.1279463 -0.91810381 -0.084618129 0
1.1319202 -0.91785282 -0.058283482 0
1.6435292 -0.88553554 -0.091383047 0
2.5866599 -0.82595986 -0.14085943 0
3.4548612 -0.77111739 -0.14097011 0
5.1830316 -0.66195238 -0.14075932 0
10.378185 -0.33378521 -0.14078526 0
0.90139461 -0.90956181 -0.091173641 0
1.0169892 -0.89932615 -0.091145791 0
1.1623981 -0.88645041 -0.090658046 0
1.3456103 -0.87022734 -0.088736959 0
1.643959 -0.84380913 -0.091801979 0
2.5845113 -0.76052493 -0.14112139 0
3.4416497 -0.68462694 -0.1405064 0
5.1807399 -0.53063375 -0.14111532 0
10.36546 -0.071536392 -0.14095141 0
0.89734703 -0.88706821 -0.090799399 0
1.0140572 -0.87375832 -0.091081582 0
1.1428671 -0.85906857 -0.087917678 0
1.3539333 -0.83499819 -0.090399675 0
1.6361452 -0.80281419 -0.091376148 0
2.5720212 -0.69608498 -0.14056751 0
3.4287059 -0.59838688 -0.14021361 0
5.1639986 -0.40049061 -0.1409504 0
10.332433 0.18892792 -0.1407976 0
0.89741546 -0.86407465 -0.091428898 0
1.0097812 -0.84837908 -0.090884097 0
1.1704812 -0.82593203 -0.093105726 0
1.3377774 -0.80256355 -0.088720702 0
1.6179513 -0.76342803 -0.089845784 0
2.5700607 -0.63043439 -0.14115714 0
3.4212863 -0.5115326 -0.1404631 0
5.1504941 -0.26999155 -0.1410912 0
10.299634 0.44925609 -0.14080273 0
0.89574558 -0.84120268 -0.091811292 0
0.99379826 -0.82497442 -0.088572823 0
1.1453347 -0.79989433 -0.089665301 0
1.3401375 -0.76765341 -0.089788623 0
1.6329221 -0.7191959 -0.092355348 0
2.5524504 -0.56700879 -0.14042501 0
3.4187379 -0.42363343 -0.14121383 0
5.1288424 -0.14060161 -0.14100324 0
10.257569 0.70823127 -0.14074403 0
0.88763964 -0.81945628 -0.09092728 0
0.9945944 -0.79896969 -0.089581199 0
1.1448295 -0.77019292 -0.090441383 0
1.3338342 -0.73399007 -0.089747868 0
1.3405453 -0.73270458 -0.058435861 0
1.3464074 -0.73158175 -0.026895812 0
1.3424028 -0.7323488 0.0054870564 0
1.3445234 -0.73194259 0.03728484 0
1.3397101 -0.73286456 0.069278337 0
1.3509098 -0.73071933 0.10100964 0
0.88052601 -0.79769355 -0.090373345 0
0.99996817 -0.77167469 -0.091603763 0
1.1271462 -0.74397063 -0.088458054 0
1.2089778 -0.72614467 -0.072777249 0
1.2055215 -0.7268976 -0.043110479 0
1.2066127 -0.72665989 -0.014203412 0
1.2037632 -0.72728062 0.014912168 0
1.209981 -0.72592616 0.043365553 0
1.2096516 -0.72599792 0.072209068 0
1.2037795 -0.72727704 0.10100554 0
0.86664832 -0.7777046 -0.088455744 0
0.99053407 -0.74742448 -0.090900816 0
1.1379193 -0.71140063 -0.091388635 0
1.2100337 -0.69377446 -0.073946171 0
1.2070807 -0.69449621 -0.04414076 0
1.203594 -0.69534844 -0.014586953 0
1.195863 -0.69723809 0.014977405 0
1.2061179 -0.69473153 0.043213781 0
1.2070552 -0.69450247 0.072103001 0
1.2158421 -0.69235474 0.1010061 0
0.87022519 -0.75343633 -0.090480052 0
0.97569269 -0.72481954 -0.089256816 0
1.1306977 -0.68276167 -0.091414504 0
1.2064288 -0.66221339 -0.074563034 0
1.2101252 -0.66121042 -0.045456681 0
1.2140304 -0.66015083 -0.01635061 0
1.2098658 -0.66128075 0.013401749 0
1.2022871 -0.66333711 0.043021556 0
1.2076837 -0.66187286 0.071899429 0
1.2051961 -0.66254783 0.10100602 0
0.86729002 -0.73059618 -0.091210417 0
0.98230618 -0.69625044 -0.091929518 0
1.1121482 -0.6574775 -0.089621089 0
1.200145 -0.63120019 -0.074908085 0
1.2000803 -0.63121951 -0.04528809 0
1.2003049 -0.63115245 -0.015860176 0
1.2192351 -0.62549961 0.012086274 0
1.2062637 -0.62937307 0.042410191 0
1.2054816 -0.6296066 0.071743079 0
1.2009107 -0.63097155 0.10100615 0
0.84542161 -0.71373659 -0.087841891 0
0.96708709 -0.67403537 -0.090441011 0
1.0974699 -0.63148952 -0.08859203 0
1.2094032 -0.59496403 -0.077668749 0
1.2126383 -0.59390837 -0.047989566 0
1.2040046 -0.59672564 -0.017148135 0
1.2025207 -0.59720987 0.012611883 0
1.2022947 -0.59728366 0.042141058 0
1.2125564 -0.59393507 0.071338721 0
1.2206842 -0.5912829 0.10100702 0
0.84042543 -0.69172937 -0.088343717 0
0.95454681 -0.65127635 -0.089586012 0
1.0930719 -0.60217291 -0.089460172 0
1.2042726 -0.56275523 -0.078444593 0
1.2078638 -0.56148225 -0.04868238 0
1.2192402 -0.55744964 -0.01967573 0
1.2036659 -0.56297034 0.011764826 0
1.2025615 -0.56336182 0.041620452 0
1.2188858 -0.55757529 0.070927009 0
1.2039229 -0.56287926 0.10100684 0
0.84321177 -0.66659743 -0.090747811 0
0.96207488 -0.6210562 -0.092885904 0
1.0906743 -0.57178462 -0.090818457 0
1.2015682 -0.5292967 -0.079714872 0
1.2048669 -0.52803284 -0.049706344 0
1.207482 -0.52703089 -0.019628307 0
1.2127048 -0.52502984 0.010254184 0
1.2050217 -0.52797353 0.040942956 0
1.2013707 -0.52937239 0.071082242 0
1.1927114 -0.53269011 0.10100683 0
0.84222984 -0.64238656 -0.092455722 0
0.93700278 -0.60330534 -0.089733027 0
1.0780798 -0.5451299 -0.090513863 0
1.2145795 -0.48884204 -0.083515175 0
1.211071 -0.49028879 -0.052010391 0
1.20332 -0.49348503 -0.020424454 0
1.2030935 -0.49357843 0.010066012 0
1.1999651 -0.49486846 0.040592153 0
1.2135066 -0.48928443 0.070475571 0
1.2075386 -0.49174544 0.10100766 0
0.82194173 -0.62625384 -0.089836963 0
0.93934357 -0.57433784 -0.092282139 0
1.0716982 -0.5158096 -0.091442548 0
1.2047808 -0.4569594 -0.084009133 0
1.2051224 -0.45680836 -0.052908365 0
1.2101558 -0.45458254 -0.022437906 0
1.2046311 -0.45702562 0.008963177 0
1.2008832 -0.45868298 0.039890982 0
1.2031111 -0.45769772 0.07040932 0
1.2135887 -0.45306447 0.10100825 0
0.82295072 -0.60072505 -0.092289247 0
0.92910331 -0.55054426 -0.092392184 0
1.0549178 -0.49106887 -0.090625755 0
1.235594 -0.40565905 -0.090946339 0
1.4756031 -0.29220125 -0.08966089 0
1.8491222 -0.11563018 -0.089840092 0
3.1250033 0.48750845 -0.14060181 0
4.6895318 1.227097 -0.14046365 0
9.4052238 3.4563134 -0.14088264 0
0.80418956 -0.58449185 -0.090219431 0
0.90744299 -0.53245467 -0.090220802 0
1.037491 -0.46691379 -0.089793764 0
1.2144493 -0.37773117 -0.089997999 0
1.4498723 -0.2590839 -0.088656656 0
1.8315827 -0.066711396 -0.090372361 0
3.0945785 0.56980723 -0.14121486 0
4.6427636 1.3500538 -0.14101866 0
9.2877903 3.6910312 -0.14082348 0
0.79576963 -0.56325632 -0.090713672 0
0.89223433 -0.5115481 -0.089495592 0
1.0238475 -0.44099924 -0.089768879 0
1.1955826 -0.34894368 -0.089511655 0
1.4325461 -0.22192356 -0.088863395 0
1.8134903 -0.017725196 -0.090983219 0
3.0451858 0.64250356 -0.1404954 0
4.5732703 1.4616063 -0.14054371 0
9.1572495 3.9187667 -0.14057298 0
0.78609651 -0.54258221 -0.091038741 0
0.88963008 -0.48367485 -0.091604851 0
1.0171884 -0.41109809 -0.091187187 0
1.1810436 -0.31786963 -0.089834698 0
1.2075795 -0.3027716 -0.061277647 0
1.2114265 -0.30058274 -0.029021418 0
3.0065553 0.72078985 -0.14077777 0
4.5165954 1.5799556 -0.14089824 0
9.0289822 4.1473632 -0.1405324 0
0.78061247 -0.51927561 -0.092537098 0
0.87015599 -0.46529296 -0.090189822 0
0.99862576 -0.38784298 -0.090486579 0
1.1685575 -0.28539708 -0.090627335 0
1.135913 -0.30507734 -0.053913672 0
1.1914154 -0.27161691 -0.028776309 0
2.9686079 0.79979068 -0.14128032 0
4.4447317 1.6896944 -0.14059377 0
8.9014187 4.3764753 -0.1406658 0
0.76687688 -0.50079286 -0.092126541 0
0.85978764 -0.44153354 -0.090888925 0
0.98502135 -0.36165836 -0.090854682 0
1.147482 -0.2580395 -0.09013664 0
1.1376845 -0.26428846 -0.056602422 0
1.1727101 -0.24194887 -0.028752094 0
2.9045353 0.86262482 -0.13978884 0
4.3834763 1.8059063 -0.14102183 0
8.7703981 4.6039238 -0.14086424 0
0.74856037 -0.48549697 -0.090653367 0
0.84767431 -0.41870454 -0.091338761 0
0.97166407 -0.3351483 -0.091407977 0
1.13046 -0.22813639 -0.090440519 0
1.1437067 -0.21920946 -0.060080204 0
1.15444 -0.21197632 -0.028860068 0
2.8641322 0.94017845 -0.14039974 0
4.3079138 1.9131374 -0.1408174 0
8.6247883 4.8222618 -0.14081672 0
0.73631239 -0.46629629 -0.090836279 0
0.82449973 -0.40357468 -0.089372166 0
0.94840598 -0.31544855 -0.090108283 0
1.1112167 -0.19965246 -0.090495862 0
1.1429801 -0.17706123 -0.062814809 0
1.1465076 -0.17455229 -0.03023996 0
2.8174591 1.0138819 -0.14065032 0
4.2255769 2.0153804 -0.14037552 0
8.4831419 5.0434971 -0.14103727 0
0.72505194 -0.4462826 -0.091412671 0
0.81737298 -0.37704805 -0.091235302 0
0.9406597 -0.28459123 -0.092071615 0
1.085742 -0.17578933 -0.089582808 0
1.1026344 -0.16312113 -0.059967745 0
1.1002082 -0.16494063 -0.027279055 0
1.1059591 -0.16062787 0.0044124369 0
1.102756 -0.16302994 0.036856126 0
1.1019737 -0.16361663 0.06897302 0
1.0931401 -0.17024121 0.10100937 0
1.0951368 -0.16874382 0.13284722 0
1.098912 -0.16591266 0.16493951 0
1.1082356 -0.15892068 0.1978067 0
0.69944686 -0.43741015 -0.088250138 0
0.79726076 -0.36012474 -0.090177931 0
0.91624814 -0.26610962 -0.090745278 0
1.0564865 -0.15530351 -0.088081025 0
1.0995096 -0.12130985 -0.062659465 0
1.0944012 -0.12534603 -0.029104179 0
1.1011459 -0.12001696 0.0029470793 0
1.1029137 -0.11862013 0.035589021 0
1.1056066 -0.11649236 0.068237662 0
1.1004246 -0.12058684 0.1010104 0
1.1000955 -0.12084684 0.13361984 0
1.0999622 -0.12095216 0.1662568 0
1.1032583 -0.11834791 0.19926253 0
0.69896549 -0.40859357 -0.092028745 0
0.78452224 -0.33741406 -0.091008402 0
0.89894277 -0.24222109 -0.09100879 0
1.0243205 -0.13791224 -0.08610893 0
1.0922217 -0.081421345 -0.064934157 0
1.0996075 -0.075276703 -0.032425318 0
1.1020919 -0.073209733 0.00083462358 0
1.0987976 -0.075950533 0.034486677 0
1.0957714 -0.078468174 0.06785845 0
1.095894 -0.07836619 0.10101106 0
1.0997102 -0.07519123 0.13428313 0
1.1016576 -0.073571116 0.16770925 0
1.0960377 -0.078246564 0.20063733 0
0.67418283 -0.39984348 -0.089229219 0
0.76757336 -0.31807247 -0.090945326 0
0.88055831 -0.21914497 -0.091172792 0
0.99945921 -0.11503753 -0.085538425 0
1.0994287 -0.027506258 -0.069666006 0
1.1006202 -0.026462998 -0.035455424 0
1.109352 -0.01881757 -0.0020202601 0
1.1030862 -0.024303641 0.032773729 0
1.0960943 -0.030425753 0.067127511 0
1.1077373 -0.020231333 0.10101239 0
1.1003357 -0.026712026 0.13502783 0
1.0969239 -0.029699352 0.16886911 0
1.1028371 -0.024521794 0.20343974 0
1.0921808 -0.033852305 0.23643275 0
1.0793188 -0.045114007 0.37101534 0
0.66412717 -0.37841097 -0.090683199 0
0.74338937 -0.30539641 -0.089151613 0
0.85113907 -0.20613983 -0.08900357 0
0.9689182 -0.097644359 -0.083978333 0
1.0611373 -0.012694266 -0.067493029 0
1.0974569 0.020762596 -0.038181398 0
1.0851197 0.0093978383 -0.002077935 0
1.1006747 0.023726616 0.031363044 0
1.1043254 0.027089629 0.066091508 0
1.0956051 0.019056711 0.10101289 0
1.0909214 0.01474217 0.13551022 0
1.0946968 0.018219981 0.17028446 0
1.0964092 0.019797359 0.20517725 0
1.101391 0.024386439 0.24070762 0
1.0383881 -0.033650305 0.36672077 0
0.65256518 -0.35793737 -0.091885529 0
0.72866517 -0.2842007 -0.089877419 0
0.83710086 -0.17913261 -0.09037485 0
0.82960677 -0.18639401 -0.06117991 0
0.8396312 -0.17668089 -0.035510544 0
0.83836216 -0.17791048 -0.0078645628 0
0.83480662 -0.18135563 0.019802021 0
0.84418893 -0.17226467 0.046309896 0
0.83499402 -0.18117407 0.073969387 0
0.83579117 -0.18040165 0.10100358 0
0.83895338 -0.17733762 0.12816624 0
0.83182377 -0.1842458 0.15489554 0
0.8391608 -0.17713663 0.18262959 0
1.1069313 0.082317978 0.24479988 0
1.0055155 -0.015948441 0.29762468 0
1.0125642 -0.0091186427 0.33255249 0
0.99146819 -0.02955934 0.36082378 0
0.6327135 -0.34548351 -0.090758212 0
0.71071225 -0.26599464 -0.089895941 0
0.81609052 -0.1586031 -0.090303741 0
0.83677214 -0.1375263 -0.066735439 0
0.83283961 -0.141534 -0.037843112 0
0.837681 -0.13660011 -0.010537615 0
0.84372449 -0.1304411 0.01685063 0
0.85112154 -0.12290278 0.044461001 0
0.83984393 -0.13439581 0.073122703 0
0.8344394 -0.13990363 0.10100437 0
0.84151918 -0.13268861 0.12894227 0
0.84554958 -0.12858114 0.15717843 0
0.84124714 -0.13296577 0.18491173 0
0.845406 -0.12872747 0.21357737 0
1.1026337 0.13341454 0.28489554 0
0.94867128 -0.023489323 0.29120797 0
0.95391977 -0.018140521 0.32466716 0
0.96144646 -0.010470059 0.35934651 0
0.61261648 -0.33366373 -0.089620225 0
0.69457477 -0.24581143 -0.090541489 0
0.79886031 -0.13402614 -0.091264658 0
0.83166665 -0.098860532 -0.070165895 0
0.84961587 -0.079620451 -0.044427488 0
0.83622098 -0.093978673 -0.01331812 0
0.8369146 -0.093235165 0.015300253 0
0.83942372 -0.090545565 0.043749005 0
0.83591586 -0.094305724 0.072512299 0
0.8362323 -0.093966514 0.10100535 0
0.83977908 -0.090164691 0.12963042 0
0.84539539 -0.084144443 0.15867017 0
0.84325266 -0.086441308 0.18736093 0
0.84057701 -0.089309365 0.21592586 0
1.0915209 0.17968121 0.28790644 0
0.92839301 0.0048219296 0.29211307 0
0.93335968 0.010145817 0.3256906 0
0.92595416 0.0022077297 0.35644922 0
0.59343141 -0.32120082 -0.088835903 0
0.68096316 -0.22249463 -0.092065357 0
0.77450955 -0.11700591 -0.090641044 0
0.85208189 -0.029530492 -0.079304807 0
0.84540737 -0.037057128 -0.047776733 0
0.8473081 -0.034913745 -0.018093234 0
0.83569938 -0.048004415 0.013018081 0
0.84577096 -0.036647107 0.041693792 0
0.83452755 -0.04932585 0.071760319 0
0.84592581 -0.036472525 0.10100675 0
0.84250677 -0.040328052 0.13053255 0
0.84051329 -0.042575981 0.15995049 0
0.837089 -0.046437409 0.18914144 0
0.83599538 -0.047670688 0.21851502 0
1.0963662 0.24593964 0.29401955 0
1.0918512 0.24084821 0.33212745 0
0.57611763 -0.306784 -0.0887473 0
0.65384871 -0.21454242 -0.089858301 0
0.72157806 -0.13416967 -0.0828171 0
0.84491044 0.012185846 -0.083081029 0
0.83492631 0.00033781273 -0.05028208 0
0.84508145 0.01238874 -0.021297684 0
0.83980799 0.006130788 0.0099669714 0
0.84047544 0.0069228741 0.040320441 0
0.84528154 0.012626205 0.070507027 0
0.84952211 0.017658386 0.10100799 0
0.83401102 -0.00074824353 0.13110097 0
0.83749014 0.0033803319 0.16147897 0
0.84911132 0.01717082 0.19305864 0
0.83876795 0.0048966142 0.22239885 0
0.84491754 0.01219419 0.25411075 0
1.0990174 0.31372812 0.34053841 0
0.56320465 -0.28687969 -0.090274759 0
0.6314826 -0.20157793 -0.08907143 0
0.72158289 -0.089012712 -0.088553168 0
0.84771746 0.068571359 -0.089455359 0
0.84794426 0.0688546 -0.057436395 0
0.84256339 0.062132154 -0.024736753 0
0.83942664 0.058213387 0.0071700085 0
0.83918774 0.057914887 0.038523879 0
0.83528543 0.053039584 0.069928385 0
0.83639723 0.054428611 0.10100856 0
0.84881985 0.069948584 0.13259348 0
0.84132499 0.060585056 0.16365309 0
0.84520572 0.065433294 0.19549483 0
0.84266347 0.062257204 0.22677007 0
0.83835095 0.056869421 0.25766054 0
1.0993261 0.3829141 0.34808323 0
1.1036479 0.38831344 0.39108238 0
0.54493397 -0.27340356 -0.090145059 0
0.614039 -0.18245652 -0.089890815 0
0.70231622 -0.066277593 -0.089552231 0
0.72809917 -0.03234544 -0.067932047 0
0.7313695 -0.028041389 -0.040126253 0
0.73066813 -0.028964426 -0.0116076 0
0.73382986 -0.024803426 0.016287128 0
0.72557825 -0.035663094 0.045212384 0
0.72597444 -0.035141673 0.07310836 0
0.72563142 -0.035593178 0.10100459 0
0.72699374 -0.033800211 0.12894017 0
0.73103136 -0.028486457 0.15721707 0
0.73106635 -0.028440382 0.18540357 0
0.73187745 -0.027372923 0.21380456 0
0.73369479 -0.024981227 0.24258634 0
0.72988045 -0.03000113 0.27035674 0
0.72500712 -0.036414769 0.29772729 0
0.72938615 -0.030651655 0.32781303 0
0.52814955 -0.25789323 -0.090672649 0
0.59796929 -0.16102591 -0.091334797 0
0.6765694 -0.051976647 -0.088924028 0
0.72959417 0.021589551 -0.074150063 0
0.95214075 0.330349 -0.089148067 0
0.8547014 0.19516245 -0.035312358 0
0.84077662 0.17584315 0.00056310953 0
0.84213334 0.17772558 0.033998337 0
0.84094691 0.17607954 0.06757021 0
0.8459428 0.18301073 0.10101165 0
0.84013176 0.17494848 0.13442016 0
0.83885068 0.17317119 0.1677631 0
0.84163755 0.17703763 0.20156312 0
0.84306133 0.17901304 0.23547797 0
0.83469141 0.16740063 0.2676957 0
0.83846837 0.17264071 0.30234167 0
1.1063665 0.54432064 0.41178185 0
0.51307267 -0.23963568 -0.092008509 0
0.57836962 -0.14404801 -0.091831781 0
0.65859371 -0.026608612 -0.090639837 0
0.76958632 0.13587263 -0.090526365 0
0.92456043 0.36273792 -0.090395056 0
1.1522889 0.69610769 -0.089546792 0
0.85250032 0.25724974 -0.0045665335 0
0.83848882 0.23673835 0.031846818 0
0.83929801 0.23792294 0.066415161 0
0.84341675 0.24395242 0.10101303 0
0.84055483 0.23976281 0.13566247 0
0.83762777 0.23547783 0.17010778 0
0.84536678 0.24680701 0.2057091 0
0.83862066 0.23693147 0.23966795 0
0.84482849 0.24601904 0.27590209 0
0.83674622 0.23418751 0.30928606 0
1.1016001 0.62190467 0.42177355 0
1.0965843 0.61456221 0.46692812 0
0.49208185 -0.22991189 -0.091259621 0
0.55418611 -0.13388249 -0.090904571 0
0.63359177 -0.011100616 -0.090487577 0
0.73771358 0.14989892 -0.089688145 0
0.88550061 0.37841609 -0.089393698 0
1.1103849 0.72614592 -0.089716427 0
1.4848173 1.3051157 -0.090051256 0
0.84406924 0.31435242 0.028693656 0
0.84684449 0.31864372 0.064754941 0
0.83960205 0.30744496 0.10101449 0
0.84071833 0.30917099 0.1370119 0
0.84002334 0.30809632 0.1729887 0
0.83866006 0.30598846 0.2088979 0
0.84092337 0.30948809 0.24543093 0
0.84008521 0.30819204 0.2816498 0
0.83731407 0.30390719 0.31749392 0
0.84221596 0.31148675 0.35565808 0
1.0984699 0.70772201 0.48174316 0
0.47296271 -0.21744022 -0.091339938 0
0.52881688 -0.12610075 -0.089601122 0
0.60127699 -0.0076052812 -0.088146023 0
0.71018672 0.17049697 -0.090078913 0
0.85388494 0.40548959 -0.090104885 0
1.0628644 0.74723774 -0.089021288 0
1.4238117 1.337502 -0.0896971 0
0.84928793 0.39797202 0.025268773 0
0.85294193 0.4039475 0.063000448 0
0.84107584 0.38454261 0.10101637 0
0.83651304 0.37708095 0.13829964 0
0.84132338 0.38494745 0.17605346 0
0.84005779 0.38287774 0.21350417 0
0.83855385 0.38041833 0.25092128 0
0.83330727 0.37183848 0.28752804 0
0.84118372 0.38471904 0.32740176 0
0.84493434 0.39085248 0.36694229 0
1.0980806 0.80482763 0.49719235 0
0.45400476 -0.20462206 -0.091623463 0
0.51431072 -0.10016927 -0.092404179 0
0.58026922 0.014073882 -0.089445136 0
0.67835271 0.18395916 -0.089419626 0
0.81524777 0.42106786 -0.089362986 0
1.0326896 0.79768723 -0.091630615 0
1.3653909 1.3739417 -0.089800484 0
1.3700942 1.3820879 -0.026507219 0
0.85154259 0.48393229 0.061418273 0
0.83945531 0.46299651 0.10101827 0
0.84042066 0.46466854 0.14010125 0
0.83828402 0.46096769 0.17902744 0
0.84179103 0.46704212 0.21862875 0
0.84372091 0.47038475 0.25839177 0
0.84103328 0.46572962 0.29742828 0
0.83591217 0.45685962 0.33574271 0
0.83337379 0.45246294 0.37467957 0
0.84245437 0.46819106 0.41805664 0
0.43147767 -0.19819149 -0.090473957 0
0.4869414 -0.096270353 -0.090523593 0
0.55715114 0.032748375 -0.090264253 0
0.64956313 0.20256642 -0.089721985 0
0.78077972 0.44369224 -0.08969941 0
0.99039841 0.82889134 -0.092240773 0
1.2907833 1.3808839 -0.087672956 0
1.2933507 1.3856018 -0.024902573 0
1.2928224 1.3846309 0.038132291 0
0.84585887 0.56328291 0.10102086 0
0.83814836 0.54911393 0.1417923 0
0.83839959 0.54957563 0.18263297 0
0.84196913 0.55613512 0.22407258 0
0.8355993 0.54442984 0.26405352 0
0.84426004 0.56034487 0.30726385 0
0.84109509 0.55452901 0.34807763 0
0.84180886 0.55584055 0.39018425 0
0.84040225 0.55325574 0.43184844 0
0.40751958 -0.19512323 -0.088673003 0
0.46234655 -0.08802101 -0.0897348 0
0.52583873 0.036008272 -0.088335268 0
0.62279743 0.22541299 -0.09080527 0
0.7466346 0.46732369 -0.090278752 0
0.93862689 0.84237248 -0.091097377 0
1.2495368 1.4497218 -0.090582691 0
1.2471309 1.4450219 -0.026344379 0
1.2454343 1.4417076 0.037473086 0
1.2466081 1.4440007 0.10104844 0
0.85255057 0.67422599 0.14452797 0
0.83859313 0.64696079 0.18665172 0
0.83981282 0.64934331 0.22976971 0
0.84271014 0.65500313 0.27349707 0
0.8367067 0.6432758 0.31542763 0
0.83654749 0.64296466 0.3587752 0
0.83938229 0.64850241 0.40347135 0
0.83529365 0.64051539 0.44593906 0
0.38725051 -0.18533072 -0.08862295 0
0.43951249 -0.076557189 -0.089757763 0
0.5041979 0.058073316 -0.090003394 0
0.59233081 0.24150541 -0.090928443 0
0.71553183 0.49792531 -0.091867335 0
0.8917498 0.86469001 -0.091018952 0
1.1789693 1.4624832 -0.089189358 0
1.7807512 2.7149796 -0.09035302 0
4.5053558 8.3857336 -0.1408572 0
0.8519237 0.78179938 0.19255865 0
0.83835799 0.75356489 0.23625739 0
0.8347165 0.74598581 0.2807782 0
0.83849967 0.7538597 0.32710537 0
0.84060991 0.75825185 0.37355018 0
0.84449899 0.76634628 0.42120293 0
0.83718622 0.75112611 0.46476814 0
0.36884087 -0.17139813 -0.089658357 0
0.4169932 -0.064338952 -0.090055995 0
0.47898722 0.07349506 -0.090554543 0
0.56020755 0.2540758 -0.090626664 0
0.673141 0.50516587 -0.090545468 0
0.84203953 0.88068551 -0.090416186 0
1.1211016 1.5011363 -0.08993382 0
1.6924047 2.7713401 -0.090997957 0
4.2647533 8.4905577 -0.1407083 0
1.0637702 1.3736689 0.22174034 0
0.85023499 0.89890677 0.24582939 0
0.83584994 0.86692375 0.29106572 0
0.84127688 0.87898988 0.34051061 0
0.83952397 0.87509245 0.38838217 0
0.83597869 0.86721009 0.43565008 0
0.84287351 0.88253969 0.48767263 0
0.35024533 -0.15723637 -0.090843402 0
0.39128029 -0.059480216 -0.0889645 0
0.4493674 0.078898579 -0.089428239 0
0.52939093 0.26953581 -0.090892754 0
0.63664359 0.52503997 -0.090975203 0
0.79485303 0.90193671 -0.090479515 0
1.0625062 1.539557 -0.090764143 0
1.5938545 2.8053691 -0.090621792 0
4.0265875 8.6007814 -0.1408511 0
0.99903774 1.3883586 0.22116537 0
0.8512035 1.0361784 0.25466537 0
0.8380391 1.0048171 0.3029595 0
0.84147882 1.0130115 0.35489336 0
0.83776897 1.0041738 0.40492859 0
0.83687013 1.0020325 0.45603874 0
0.84058672 1.0108864 0.50967985 0
0.32781917 -0.15207353 -0.090071045 0
0.37281144 -0.036825027 -0.091613941 0
0.42485204 0.096477777 -0.090593733 0
0.49565241 0.27783409 -0.090193741 0
0.5952844 0.53304321 -0.090027548 0
0.74786592 0.92388338 -0.090731867 0
0.99834871 1.5654991 -0.090761431 0
1.5005341 2.8518555 -0.090996839 0
3.7860904 8.7063465 -0.141027 0
0.92576581 1.3795769 0.21950378 0
0.85097426 1.1879971 0.26450557 0
0.83546215 1.1482625 0.31528786 0
0.83520776 1.1476109 0.36920708 0
0.83788222 1.1544616 0.42452031 0
0.83946675 1.1585205 0.48004755 0
0.84228164 1.1657307 0.53684253 0
0.30669618 -0.14380333 -0.090136625 0
0.34563488 -0.036116388 -0.089937545 0
0.39699358 0.10591856 -0.090434961 0
0.43596771 0.21370354 -0.078805156 0
0.43600103 0.21379557 -0.048548374 0
0.43579242 0.21321872 -0.01838485 0
0.93666708 1.598412 -0.091397889 0
1.402159 2.8857527 -0.090862416 0
3.5367725 8.7891321 -0.1407889 0
0.86121202 1.3897374 0.21888824 0
0.85021985 1.359338 0.27570936 0
0.83951753 1.3297403 0.33128801 0
0.84177518 1.335984 0.39009693 0
0.83502132 1.3173058 0.44581094 0
0.83847624 1.3268604 0.50589901 0
0.84233814 1.3375409 0.56714916 0
0.28561026 -0.13532695 -0.090367831 0
0.32168442 -0.027097251 -0.090061925 0
0.36691502 0.10860363 -0.089229517 0
0.40107557 0.21109214 -0.07684923 0
0.40342918 0.21815351 -0.047780234 0
0.40470394 0.2219781 -0.018204926 0
0.87150705 1.6224813 -0.091492556 0
1.3044605 2.9214287 -0.090938799 0
3.2888601 8.8750277 -0.14078394 0
0.7941379 1.3903582 0.21788953 0
0.85062933 1.559844 0.28897172 0
0.83884168 1.5244787 0.34844965 0
0.84266454 1.535948 0.41222006 0
0.837138 1.5193672 0.47274604 0
0.83782268 1.5214214 0.53608257 0
0.83888149 1.5245981 0.60022992 0
0.26283193 -0.13215312 -0.089537479 0
0.29945195 -0.012284782 -0.091445856 0
0.34070051 0.12273422 -0.090131231 0
0.38028219 0.25229695 -0.08147686 0
0.38020656 0.25204948 -0.050728563 0
0.37796548 0.24471369 -0.019467345 0
0.72461325 1.3793964 -0.072178476 0
0.72705185 1.3873787 -0.014722874 0
0.72796828 1.3903785 0.043117635 0
0.72534388 1.381788 0.10104118 0
0.72861069 1.3924813 0.15901655 0
0.72622412 1.3846693 0.21667382 0
0.84412086 1.7705808 0.30288005 0
0.83622903 1.7447486 0.36797467 0
0.83373857 1.7365963 0.43425432 0
0.83441091 1.7387974 0.50201982 0
0.83540565 1.7420533 0.57051927 0
0.24255572 -0.12066445 -0.090674736 0
0.27607033 -0.00015958805 -0.09240485 0
0.30847898 0.11636868 -0.087643497 0
0.365421 0.32110885 -0.090176009 0
0.44143364 0.59441906 -0.091148354 0
0.55194014 0.99175531 -0.090959527 0
0.66236645 1.388803 -0.071590893 0
0.66021359 1.381062 -0.013568973 0
0.66278481 1.3903072 0.043543737 0
0.66058075 1.3823822 0.10104068 0
0.66343826 1.3926566 0.158595 0
0.6636939 1.3935757 0.21625598 0
0.81080598 1.9225304 0.31243387 0
0.81253433 1.9287448 0.38385317 0
0.81187445 1.9263723 0.45484248 0
0.8134988 1.9322128 0.52730286 0
0.81048322 1.92137 0.59767526 0
0.22170398 -0.11029992 -0.091670968 0
0.24869652 -0.0028099085 -0.090603374 0
0.28570265 0.14455631 -0.091164924 0
0.33304024 0.33306459 -0.09063644 0
0.39692211 0.58745581 -0.089030854 0
0.49705091 0.98618978 -0.089146756 0
0.59511924 1.3767185 -0.069571592 0
0.59546214 1.3780842 -0.012663854 0
0.59726053 1.3852458 0.044047207 0
0.59815323 1.3888006 0.10104039 0
0.59672469 1.3831117 0.15798217 0
0.59567368 1.3789265 0.2147848 0
0.77092987 2.0768335 0.32215804 0
0.76821625 2.0660274 0.39519078 0
0.76920509 2.0699651 0.46979949 0
0.76858824 2.0675087 0.54407817 0
0.19850788 -0.10923412 -0.090750866 0
0.22457339 0.0068938467 -0.091330655 0
0.25574884 0.14578786 -0.090223081 0
0.29659843 0.32778218 -0.088729493 0
0.3543691 0.58516401 -0.087619834 0
0.44624582 0.99449605 -0.088804163 0
0.55073553 1.4600222 -0.074520089 0
0.5528667 1.4695168 -0.016346676 0
0.55137843 1.4628863 0.042537607 0
0.54908949 1.4526887 0.10104185 0
0.55315787 1.4708142 0.15973614 0
0.55181479 1.4648306 0.21820779 0
0.71352434 2.1852839 0.3286117 0
0.71240073 2.1802783 0.40436718 0
0.71528608 2.1931329 0.48235381 0
0.71327454 2.1841712 0.55823767 0
0.17705606 -0.10041204 -0.091643266 0
0.1973681 0.0021253561 -0.089392699 0
0.22399049 0.13651803 -0.08765351 0
0.26547426 0.34593275 -0.09032131 0
0.31989479 0.62065357 -0.090845577 0
0.39870414 1.018492 -0.09007854 0
0.41482145 1.0998538 -0.047918651 0
0.41775873 1.1146815 0.0011172763 0
0.41777629 1.1147702 0.051099397 0
0.41629955 1.1073153 0.10103142 0
0.41503498 1.1009316 0.15063512 0
0.41550848 1.103322 0.20040648 0
0.41623783 1.1070039 0.25049162 0
0.41559657 1.1037667 0.30025646 0
0.41498047 1.1006565 0.35009933 0
0.40555531 1.0530772 0.39369276 0
0.29497302 0.49484578 0.34971902 0
0.27351829 0.38653997 0.36522824 0
0.15649275 -0.08508876 -0.094051056 0
0.17449301 0.019566808 -0.091839351 0
0.19595705 0.14436141 -0.088082887 0
0.23248056 0.35671356 -0.090967603 0
0.28032175 0.6348682 -0.091637813 0
0.34757856 1.0259075 -0.089890979 0
0.3706584 1.1600964 -0.051498491 0
0.88186091 4.1322904 -0.14096411 0
1.7649485 9.2666693 -0.14098659 0
0.58268124 2.392823 0.26093191 0
0.58004427 2.3774915 0.33999234 0
0.58038777 2.3794887 0.4202275 0
0.26216158 0.52928287 0.2811465 0
0.27150545 0.58360916 0.32535622 0
0.26987484 0.57412857 0.36178663 0
0.23697446 0.38284162 0.36329028 0
0.13034452 -0.10393253 -0.089221962 0
0.14891677 0.023168597 -0.091752715 0
0.16746505 0.15010586 -0.088279836 0
0.19842997 0.36201778 -0.09095221 0
0.23813412 0.63373739 -0.090732835 0
0.29598293 1.0296321 -0.089477904 0
0.39580417 1.71277 -0.089935236 0
0.75185841 4.149467 -0.14080326 0
1.5049641 9.3034286 -0.14088129 0
0.50610936 2.4676559 0.26381639 0
0.50580198 2.4655523 0.34526181 0
0.50488919 2.4593055 0.42648274 0
0.22207674 0.52384704 0.2797825 0
0.27655259 0.8966586 0.36893743 0
0.20182396 0.38524488 0.36269727 0
0.10875963 -0.094351143 -0.090634815 0
0.12350458 0.028075967 -0.092036717 0
0.13895395 0.15635207 -0.088678502 0
0.16403559 0.36460462 -0.090674065 0
0.19752698 0.64268345 -0.091142364 0
0.24898486 1.0699377 -0.092627876 0
0.32703984 1.7180278 -0.089664571 0
0.62173241 4.1648583 -0.1407133 0
1.2443929 9.3348026 -0.14080408 0
0.42659074 2.5445981 0.26688203 0
0.42345166 2.5185344 0.34817547 0
0.42421421 2.5248659 0.43155739 0
0.42376196 2.521111 0.51441234 0
0.22991444 0.91159636 0.37015313 0
0.16508846 0.37334672 0.35956067 0
0.086464629 -0.088549584 -0.091353707 0
0.097181514 0.024365459 -0.090811051 0
0.11178617 0.17824295 -0.091777943 0
0.12972037 0.36720088 -0.090520628 0
0.15533498 0.63708121 -0.089963458 0
0.19459538 1.0507362 -0.090302296 0
0.25946295 1.7341931 -0.090282552 0
0.49104139 4.1741476 -0.14049201 0
0.98439401 9.3722038 -0.14102162 0
0.34117359 2.5951118 0.26879701 0
0.34083498 2.5915442 0.35263598 0
0.34035158 2.5864508 0.43643826 0
0.3397871 2.5805035 0.52026671 0
0.34068322 2.5899451 0.60644716 0
0.17405936 0.83436483 0.40214527 0
0.13088113 0.37943092 0.36001056 0
