# .PCD v0.7 - Point Cloud Data file format
VERSION 0.7
FIELDS x y z intensity
SIZE 4 4 4 4
TYPE F F F F
COUNT 1 1 1 1
WIDTH 1357
HEIGHT 1
VIEWPOINT 0 0 0 1 0 0 0
POINTS 1357
DATA ascii
-1.23961 -0.85960406 0.36936644 0
-0.85690629 -0.62613529 -0.049946111 0
-1.2434351 -0.89307636 0.07871668 0
-1.2432289 -0.89293391 0.22486742 0
-1.2434711 -0.89310127 0.37334362 0
-0.85347414 -0.64789218 -0.050291151 0
-1.2418946 -0.92342669 0.079292975 0
-1.2385563 -0.9210586 0.22618927 0
-1.6028117 -1.1794512 0.45605195 0
-0.83451068 -0.65863985 -0.049965393 0
-1.2333834 -0.94920725 0.079583496 0
-1.2420809 -0.9555431 0.22866011 0
-1.5661553 -1.191622 0.45196524 0
-0.82226729 -0.67413068 -0.049942166 0
-1.2423168 -0.98829597 0.080668889 0
-1.2361845 -0.98370939 0.22994798 0
-0.81117654 -0.69048971 -0.049979325 0
-1.2478992 -1.0257822 0.081636041 0
-1.2376742 -1.0179321 0.23229696 0
-0.79957843 -0.70648634 -0.050003115 0
-1.1605495 -0.99091595 0.078410186 0
-1.1532618 -0.98517364 0.22297461 0
-1.1597902 -0.99031764 0.37161309 0
-0.7943821 -0.7276848 -0.050330259 0
-1.1392323 -1.006521 0.078162938 0
-1.1440581 -1.0104229 0.22389442 0
-1.1365985 -1.0043913 0.36992759 0
-0.7821449 -0.74334604 -0.050346553 0
-1.2423104 -1.1251044 0.083692573 0
-1.2348763 -1.118937 0.23883489 0
-1.3477806 -1.2126037 0.42318702 0
-0.76996565 -0.75907594 -0.05037494 0
-1.2423108 -1.1610861 0.084519014 0
-1.2401551 -1.1592513 0.24205653 0
-1.3199435 -1.2271589 0.42103216 0
-1.027813 -0.9785282 0.49525777 0
-0.75888121 -0.77579218 -0.050464857 0
-1.288919 -1.2385379 0.41813397 0
-0.99030972 -0.97783929 0.48789552 0
-0.73638511 -0.78237909 -0.050018948 0
-1.1899844 -1.188568 0.083756953 0
-1.1929357 -1.1912109 0.24049252 0
-1.1959262 -1.1938888 0.40023559 0
-0.96970832 -0.99131531 0.48623532 0
-0.72354853 -0.7974146 -0.050040077 0
-0.92568171 -0.98305947 0.47649956 0
-0.70751798 -0.80946654 -0.049914043 0
-0.88815975 -0.97961551 0.46889129 0
-0.69375527 -0.82358986 -0.049906529 0
-0.84190118 -0.96669334 0.45807555 0
-0.6858381 -0.84350079 -0.050201554 0
-0.83411336 -0.99038297 0.46088165 0
-0.66955233 -0.85521144 -0.050087169 0
-0.81997573 -1.0080218 0.46152237 0
-0.64999282 -0.86339957 -0.049810052 0
-0.63965881 -0.8811627 -0.050016508 0
-0.62582064 -0.89530689 -0.050052021 0
-0.60904777 -0.90619546 -0.049939927 0
-0.59621727 -0.92151254 -0.050048396 0
-0.57695961 -0.92935282 -0.049813725 0
-0.56609845 -0.94712406 -0.050052237 0
-0.5454064 -0.95293194 -0.04974677 0
-0.53442985 -0.97080559 -0.050003242 0
-0.5184741 -0.98245472 -0.049984008 0
-0.50300241 -0.9947378 -0.050002132 0
-0.48053676 -0.99738318 -0.049603999 0
-0.47138929 -1.018447 -0.050026204 0
-0.45810997 -1.0340197 -0.050212052 0
-0.43662995 -1.0375501 -0.049886625 0
-0.42888987 -1.061818 -0.050458241 0
-0.3838743 -0.99251562 0.5046311 0
-0.40556526 -1.0621793 -0.050019901 0
-0.35223031 -0.97776109 0.49481857 0
-0.38617593 -1.0683621 -0.049841203 0
-0.33675534 -0.98791379 0.49496299 0
-0.37353027 -1.0855989 -0.050133683 0
-0.31040281 -0.97987634 0.48813364 0
-0.3583259 -1.0988427 -0.050265815 0
-0.29362285 -0.98731452 0.48743451 0
-0.33910108 -1.1051474 -0.050120533 0
-0.27584642 -0.99288255 0.48610708 0
-0.31971443 -1.1109492 -0.049965672 0
-0.25100291 -0.98532659 0.47989726 0
-0.30045682 -1.1167676 -0.04982242 0
-0.22450675 -0.97366017 0.4722988 0
-0.28274226 -1.1253703 -0.049801651 0
-0.20508547 -0.97448915 0.46955016 0
-0.26293588 -1.1297538 -0.049621616 0
-0.18858279 -0.98070878 0.46891412 0
-0.25496662 -1.1583482 -0.050412577 0
-0.16739239 -0.97712356 0.46473604 0
-0.23181237 -1.1558061 -0.04997563 0
-0.1504568 -0.98189384 0.46374983 0
-0.21423711 -1.1648521 -0.050006729 0
-0.12892218 -0.97632712 0.45907244 0
-0.19311298 -1.1658483 -0.049732618 0
-0.11441346 -0.98594469 0.46003345 0
-0.1792133 -1.1834534 -0.050114024 0
-0.10168566 -0.99997109 0.46264783 0
-0.15731324 -1.1821599 -0.049771588 0
-0.076097503 -0.98299056 0.34968358 0
-0.091262713 -1.0201809 0.46752831 0
-0.14126934 -1.1951097 -0.049987856 0
-0.053829744 -0.9727084 0.34513623 0
-0.063306287 -0.99681193 0.45685288 0
-0.12588991 -1.2102537 -0.050294582 0
-0.032277748 -0.96305662 0.14705275 0
-0.032901153 -0.96470279 0.24302393 0
-0.0096797775 -0.9033832 0.32457939 0
-0.051890627 -1.0148473 0.46108353 0
-0.099969402 -1.1971089 -0.049532384 0
-0.0070561902 -0.94210809 0.14399834 0
-0.0098989438 -0.9499101 0.23907831 0
0.0066729053 -0.90442866 0.32337645 0
-0.086370721 -1.2175353 -0.050055806 0
-0.86268187 -3.4345174 0.14591713 0
0.0075970753 -0.94918293 0.14418454 0
0.0095697809 -0.94354934 0.23681672 0
0.023431974 -0.90396172 0.32182574 0
-0.0012689962 -0.97450262 0.44270504 0
-0.070503786 -1.2323815 -0.050373305 0
-0.8462745 -3.5405939 0.14930917 0
0.020205246 -0.96248764 0.14509727 0
0.0263467 -0.9442144 0.2359482 0
0.026631789 -0.94336623 0.33107015 0
0.015782641 -0.97564656 0.44122386 0
-0.047122672 -1.224642 -0.04984989 0
0.038421258 -0.95908993 0.14413843 0
0.035448387 -0.9683184 0.2395644 0
0.021584438 -1.011356 0.3479501 0
0.019661592 -1.017325 0.45399198 0
-0.027748121 -1.2286561 -0.049778629 0
0.025153028 -1.0570625 0.35879838 0
-0.0097953212 -1.2373302 -0.049890164 0
0.069959119 -0.9665702 0.33339366 0
0.011215525 -1.2354209 -0.049617242 0
0.086537674 -0.96729749 0.33240244 0
0.029316949 -1.2436595 -0.049730048 0
0.10183112 -0.97246224 0.33264163 0
0.046573922 -1.2555594 -0.049985766 0
0.11538677 -0.98457676 0.33476025 0
0.066248819 -1.2581934 -0.049908452 0
0.085480943 -1.2625432 -0.049903274 0
0.10374533 -1.2714109 -0.05007191 0
0.12376894 -1.272144 -0.04995228 0
0.14222921 -1.2807575 -0.050128371 0
-0.065742776 -2.3876436 0.10233711 0
0.16100226 -1.2883217 -0.050274476 0
0.0014692114 -2.2005479 0.0953364 0
0.18113641 -1.2881452 -0.050148889 0
0.033620253 -2.1991074 0.095095068 0
0.20015283 -1.2948886 -0.050282478 0
0.065323785 -2.1995487 0.094936743 0
0.22036675 -1.2935606 -0.050133653 0
0.097668096 -2.1944945 0.094595075 0
0.24124224 -1.2860394 -0.049771443 0
0.12752472 -2.2076743 0.094924517 0
0.25991744 -1.2961134 -0.050051186 0
0.15906213 -2.207819 0.094798803 0
0.28027424 -1.2910663 -0.049796607 0
0.19081964 -2.2048564 0.094576031 0
0.30026039 -1.2882919 -0.049632922 0
0.22280988 -2.1973691 0.094205722 0
0.31958881 -1.2930328 -0.049747404 0
0.25365537 -2.2021236 0.094288372 0
0.33930549 -1.2926931 -0.049688809 0
0.28510693 -2.1978142 0.094060682 0
0.35829884 -1.3068514 -0.050157294 0
0.31584179 -2.2053738 0.094271488 0
0.37824252 -1.303211 -0.049998302 0
0.34694436 -2.2067564 0.094275385 0
0.39784646 -1.3100376 -0.050222106 0
0.37851605 -2.1872005 0.093545556 0
0.41777259 -1.2997974 -0.049845356 0
0.43746677 -1.2993001 -0.049825389 0
0.45726109 -1.3058578 -0.050066177 0
0.47720626 -1.3116338 -0.050288033 0
0.49690238 -1.307426 -0.050162241 0
0.51663083 -1.3054219 -0.050124019 0
0.53571236 -1.2940063 -0.049757913 0
0.55633593 -1.3053892 -0.0502165 0
0.57640529 -1.3071359 -0.05033946 0
0.59518856 -1.2956798 -0.049997739 0
0.61569059 -1.3009609 -0.050265621 0
0.63461798 -1.2926173 -0.050052736 0
0.65327209 -1.2833983 -0.049816482 0
0.67465073 -1.2927668 -0.050259817 0
0.69319785 -1.2834195 -0.050036244 0
0.71324319 -1.2831986 -0.050151758 0
0.73228228 -1.2773583 -0.050072357 0
0.74967897 -1.2638637 -0.049722385 0
0.76963151 -1.2630816 -0.049844209 0
0.7911396 -1.268558 -0.050205067 0
0.80926472 -1.2592787 -0.050034322 0
0.8270871 -1.249303 -0.049845736 0
0.84707409 -1.2477143 -0.049975269 0
0.86879659 -1.2518156 -0.050325986 0
0.88368559 -1.2323775 -0.049810484 0
0.90239769 -1.2262673 -0.049798843 0
0.92083532 -1.2193395 -0.049765255 0
0.94210678 -1.2207341 -0.050054394 0
0.96030402 -1.2129081 -0.050005402 0
0.97739792 -1.2022026 -0.049855221 0
1.0028964 -1.2135612 -0.050556865 0
0.92297739 -1.0064703 0.45919335 0
1.0162097 -1.1931512 -0.050052635 0
0.93595541 -0.99274141 0.45652235 0
1.0311534 -1.177588 -0.049739584 0
0.95924419 -1.0043699 0.46303037 0
1.0502917 -1.1723312 -0.049832642 0
0.97019362 -0.98604661 0.4588328 0
1.0691808 -1.1663454 -0.049907137 0
0.99096346 -0.99056762 0.46298033 0
1.0911808 -1.1669869 -0.050251834 0
1.0069528 -0.98394197 0.46316528 0
1.1055124 -1.1509278 -0.049949311 0
1.0200051 -0.97110063 0.46113554 0
1.1196644 -1.1349803 -0.04965651 0
1.0438113 -0.98050231 0.46739799 0
1.1397805 -1.1312517 -0.049857989 0
1.0612034 -0.97619182 0.46869776 0
1.161185 -1.1296744 -0.05015764 0
1.0775483 -0.96965986 0.46925408 0
1.1727926 -1.109463 -0.049714524 0
1.1041824 -0.98212892 0.47707254 0
1.1913996 -1.1024966 -0.049815107 0
1.1314845 -0.99457651 0.057408266 0
1.1315298 -0.99465793 0.160761 0
1.1305835 -0.99295348 0.26535931 0
1.1259158 -0.98454589 0.37045166 0
1.1333116 -0.99786752 0.4863171 0
1.2117176 -1.0983733 -0.050042938 0
1.1461401 -0.9836809 0.057326213 0
1.140637 -0.97405642 0.15931252 0
1.144029 -0.97998887 0.26451257 0
1.1434968 -0.97905797 0.37143368 0
1.1525941 -0.99496871 0.48862603 0
1.2266957 -1.0848547 -0.049893815 0
1.1680349 -0.98519319 0.057765178 0
1.1656656 -0.98116785 0.16132341 0
1.162425 -0.97566241 0.26550254 0
1.1639519 -0.97825629 0.37387568 0
1.1580739 -0.96827 0.48185763 0
1.2468398 -1.0800626 -0.050115623 0
1.2640076 -1.0701914 -0.050136164 0
1.28207 -1.0616841 -0.050223831 0
1.2950597 -1.0453557 -0.049987577 0
1.3064308 -1.0269274 -0.049665798 0
1.3246148 -1.0186898 -0.049790513 0
1.3455228 -1.0141103 -0.05008683 0
1.3570842 -0.99642605 -0.049817335 0
1.3763891 -0.98933858 -0.050025288 0
1.3876803 -0.9716354 -0.04976723 0
1.4084426 -0.96616286 -0.050070319 0
1.2102168 -0.71621525 0.050681256 0
1.2008795 -0.70444173 0.13888621 0
1.418905 -0.94768959 -0.049790099 0
1.1984836 -0.67683148 0.049322747 0
1.2135572 -0.69535434 0.13897818 0
1.4413338 -0.94385213 -0.050193712 0
1.2077103 -0.66404253 0.049179953 0
1.2077537 -0.66409451 0.13598911 0
1.4592508 -0.93430477 -0.050346501 0
1.2042452 -0.63658708 0.048351612 0
1.210368 -0.64373547 0.13449985 0
1.4678367 -0.91396898 -0.049998946 0
1.2059664 -0.61591595 0.047834415 0
1.2108341 -0.62145638 0.13272403 0
1.4807844 -0.89883476 -0.049902581 0
1.207333 -0.59539282 0.047319461 0
1.2107813 -0.59921938 0.13093489 0
1.5013682 -0.89205807 -0.050219264 0
1.5079763 -0.87020785 -0.049810942 0
1.528172 -0.86274439 -0.050118018 0
1.5436949 -0.85028213 -0.050189719 0
1.5513933 -0.83009094 -0.04987767 0
1.5645089 -0.81536669 -0.049849231 0
1.588802 -0.8110618 -0.050375197 0
1.5897974 -0.78512365 -0.049774967 0
1.6136209 -0.77993077 -0.050284922 0
1.6188692 -0.75824708 -0.049916938 0
1.6396389 -0.74994069 -0.050289426 0
1.6457688 -0.7293002 -0.049987346 0
1.6534821 -0.71019226 -0.049772557 0
1.6777192 -0.70412439 -0.050318152 0
1.6782639 -0.67961609 -0.049800735 0
1.7021112 -0.67275828 -0.050335888 0
1.7114869 -0.65502852 -0.05023374 0
1.7203046 -0.63699216 -0.05011794 0
1.7319986 -0.6210106 -0.05013724 0
1.7354813 -0.59956431 -0.049813293 0
1.7426722 -0.58077848 -0.04966104 0
1.746047 -0.55972135 -0.049359154 0
1.7653831 -0.54864633 -0.049738199 0
1.7822391 -0.53578651 -0.050017297 0
1.7888551 -0.5167982 -0.049879201 0
1.8054612 -0.50350541 -0.050160542 0
1.80334 -0.47981635 -0.049686026 0
1.8149955 -0.46375832 -0.049782626 0
1.8271228 -0.44786111 -0.04990565 0
1.8404995 -0.43248203 -0.050085679 0
1.8526032 -0.41634837 -0.050221913 0
1.8541902 -0.39522603 -0.049951475 0
1.8598224 -0.37612453 -0.049851287 0
1.8654569 -0.35709772 -0.049761124 0
1.8781074 -0.34107491 -0.049952295 0
1.8815433 -0.3211796 -0.049795464 0
1.8973202 -0.30620697 -0.050121862 0
1.8971432 -0.28500071 -0.049845602 0
1.9129575 -0.26976809 -0.050187688 0
1.924261 -0.25271311 -0.050365102 0
1.9151182 -0.22872268 -0.049780603 0
1.9269952 -0.2118599 -0.0499974 0
1.9230171 -0.19000058 -0.049629543 0
1.9359289 -0.17332558 -0.049901314 0
1.952071 -0.15734492 -0.050299607 0
1.9384037 -0.1332003 -0.049603332 0
1.9569455 -0.11763004 -0.050105918 0
1.9523648 -0.096206464 -0.049765792 0
1.9660964 -0.07912723 -0.050106477 0
1.9726592 -0.060288053 -0.050192561 0
1.9725512 -0.040065061 -0.050044302 0
1.9795045 -0.021248948 -0.050162006 0
1.9768827 -0.00070194463 -0.049941208 0
1.9846555 0.018040854 -0.050105959 0
1.9828585 0.038299743 -0.049933665 0
1.9871759 0.057626072 -0.049991067 0
1.9907174 0.0770896 -0.050029233 0
2.0066628 0.095250659 -0.050521553 0
1.9893128 0.11691741 -0.049827464 0
1.9966691 0.13606946 -0.050028887 0
1.9878623 0.15648821 -0.049660347 0
2.0026278 0.17531264 -0.050144181 0
1.9944663 0.19549286 -0.049816888 0
2.0035262 0.21490295 -0.05011395 0
2.007391 0.23462388 -0.05023415 0
1.9961822 0.25452763 -0.049825065 0
1.9951276 0.27420989 -0.04978741 0
1.9924165 0.2938374 -0.049699448 0
1.9909714 0.31344584 -0.049665503 0
2.0057347 0.33374819 -0.050219577 0
1.9986645 0.35320669 -0.050002452 0
2.0059249 0.37350884 -0.050306756 0
2.0047259 0.39333558 -0.0503175 0
1.9913518 0.41201988 -0.049900588 0
1.9900534 0.43170896 -0.049925156 0
1.9924228 0.45185953 -0.050090559 0
1.9838358 0.47067386 -0.049870767 0
1.9840987 0.49062523 -0.049978405 0
1.9819227 0.51026958 -0.050007176 0
1.9773527 0.52952677 -0.049958237 0
1.9787364 0.54985124 -0.050134122 0
1.9797434 0.57023096 -0.050306041 0
1.9669106 0.58782035 -0.049982816 0
1.9576843 0.60598713 -0.049798712 0
1.9599894 0.62675953 -0.050045554 0
1.9478456 0.64409381 -0.049770992 0
1.9477364 0.66440839 -0.04994794 0
1.9531138 0.68637848 -0.05033825 0
1.9413112 0.70363671 -0.050101444 0
1.9387605 0.72354412 -0.050217137 0
1.9288414 0.74119234 -0.050066575 0
1.9214047 0.75955766 -0.050017126 0
1.9142084 0.77797264 -0.049985263 0
1.9057484 0.79591113 -0.049914073 0
1.8965943 0.81353897 -0.049824674 0
1.8921342 0.83293098 -0.049923167 0
1.8865298 0.85193884 -0.049987476 0
1.8870355 0.8735584 -0.050297868 0
1.8711001 0.88828927 -0.049980722 0
1.8700316 0.90945005 -0.050250784 0
1.8492179 0.92166311 -0.049755774 0
1.8375367 0.93787026 -0.049625412 0
1.8356172 0.95880967 -0.049891192 0
1.8235213 0.9747659 -0.049761273 0
1.8240688 0.99728125 -0.050148737 0
1.8159608 1.0154122 -0.050198719 0
1.8015044 1.0300364 -0.049998682 0
1.7877327 1.0448959 -0.049832959 0
1.7812463 1.0639421 -0.049976096 0
1.7577294 1.0727218 -0.049418129 0
1.7537783 1.0933162 -0.049685001 0
1.7536019 1.1165732 -0.05012539 0
1.7473142 1.1361545 -0.050320178 0
1.7282896 1.1472276 -0.049977012 0
1.7162974 1.1629314 -0.049943313 0
1.7033933 1.1779543 -0.049877875 0
1.6964622 1.1973325 -0.050085217 0
1.6824728 1.2115496 -0.049989268 0
1.6649233 1.222916 -0.049739409 0
1.6653786 1.2484323 -0.050315991 0
1.6414342 1.2544942 -0.04978732 0
1.6272773 1.2682974 -0.049712971 0
1.6173385 1.2856718 -0.049844794 0
1.6083748 1.3040364 -0.050034918 0
1.5923146 1.3161507 -0.049896289 0
1.5762089 1.3280933 -0.049761206 0
1.5741218 1.3532803 -0.050323516 0
1.549601 1.3570819 -0.049788155 0
1.5337305 1.3690306 -0.049685836 0
1.5309064 1.3943017 -0.050258074 0
1.5123215 1.4035361 -0.050036438 0
1.0256968 0.89014834 0.29285648 0
1.4989042 1.4181364 -0.050089661 0
1.0451386 0.92717856 0.30627131 0
1.4819667 1.4288909 -0.049965635 0
1.4466926 1.3897481 0.06008447 0
1.4351206 1.3769069 0.16694927 0
1.4423382 1.3849162 0.27804014 0
1.0538733 0.95384669 0.31478381 0
1.4703826 1.4456106 -0.050136648 0
1.4144378 1.3819361 0.059110608 0
1.4175209 1.3854451 0.16637744 0
1.4100208 1.3769088 0.27308673 0
1.0495893 0.96667629 0.31702513 0
1.4465839 1.4482603 -0.049651325 0
1.3954964 1.388616 0.058847614 0
1.3867215 1.3783712 0.16363412 0
1.3899342 1.3821222 0.27142304 0
1.0533168 0.98912311 0.323479 0
1.4400727 1.4710858 -0.050123461 0
1.3717439 1.389249 0.058317285 0
1.3584881 1.3733724 0.16126458 0
1.3618339 1.3773798 0.26749745 0
1.0561548 1.0112695 0.32971469 0
1.4218246 1.4800215 -0.049955238 0
1.3453715 1.3860744 0.057630941 0
1.3359243 1.3744655 0.15981278 0
1.3359772 1.3745304 0.26413476 0
1.0570471 1.0317758 0.335168 0
1.408421 1.4948797 -0.050069075 0
1.3209391 1.3845717 0.057042804 0
1.313537 1.3752383 0.15837067 0
1.3221691 1.3861226 0.26420492 0
1.0553958 1.0497421 0.33948383 0
1.3866904 1.4990985 -0.049709428 0
1.2939563 1.379095 0.056295007 0
1.2950823 1.3805522 0.15759774 0
1.2938087 1.378904 0.26002684 0
1.052814 1.0670419 0.34348634 0
1.3640174 1.5016493 -0.049290918 0
1.2711928 1.3783504 0.055780992 0
1.2727598 1.3804319 0.15613252 0
1.2750887 1.3835254 0.25864196 0
1.0443901 1.0770886 0.3444443 0
1.364728 1.5355941 -0.050278813 0
1.2521658 1.382093 0.055483099 0
1.2590258 1.3914481 0.15620252 0
1.2544103 1.3851538 0.25665346 0
1.0334718 1.0838599 0.34408614 0
1.3391963 1.5339954 -0.049698185 0
1.2508456 1.4102743 0.056270558 0
1.238814 1.3934261 0.15510128 0
1.2448339 1.4018561 0.25808126 0
1.0244523 1.0932469 0.34485698 0
1.3274539 1.5515176 -0.049968075 0
1.2433788 1.4305929 0.05670999 0
1.2472509 1.4361622 0.15937801 0
1.2439145 1.4313633 0.26233593 0
1.0121038 1.0979515 0.34376997 0
1.3143375 1.5673548 -0.050169446 0
1.2399386 1.4574195 0.057430316 0
1.2409523 1.4589173 0.16101174 0
1.2433077 1.4623978 0.26688957 0
1.0016013 1.1052408 0.3437933 0
1.2968329 1.5767926 -0.050102685 0
1.2408856 1.4918369 0.058471043 0
1.2438689 1.4963671 0.16453315 0
1.2365779 1.4852955 0.26965025 0
1.1705421 1.3850206 0.34834275 0
0.99361408 1.1163564 0.34539351 0
1.2758461 1.5807133 -0.049811922 0
1.2456284 1.5335453 0.059812032 0
1.2447239 1.5321336 0.16780671 0
1.2211848 1.4953907 0.26966482 0
1.1426244 1.3727629 0.34184006 0
0.98301816 1.1236283 0.34550208 0
1.2625446 1.5965875 -0.050037395 0
1.2431344 1.5654327 0.060726922 0
1.2457162 1.5695767 0.17126566 0
1.200345 1.4967526 0.267865 0
1.1257989 1.3771005 0.34048277 0
0.97644484 1.137376 0.3482008 0
1.245761 1.6070259 -0.050041284 0
1.190618 1.5159826 0.26990181 0
1.109987 1.382858 0.33962277 0
0.96520543 1.1438181 0.3480697 0
0.83701962 0.93217874 0.46902102 0
1.2305024 1.6200665 -0.050161742 0
1.1701146 1.5174706 0.26823649 0
1.0919089 1.3846031 0.3376404 0
0.96000338 1.1605021 0.3519482 0
0.84252363 0.96090972 0.48532411 0
1.2055756 1.6163754 -0.049601171 0
1.156064 1.5297817 0.26888537 0
1.0707471 1.3805659 0.33404005 0
0.94325119 1.1575807 0.34831065 0
0.8505038 0.99536937 0.35463914 0
0.83806527 0.97361481 0.41477337 0
0.84104264 0.97882217 0.49407214 0
1.1933146 1.6346902 -0.049955957 0
1.1456237 1.5487883 0.27094752 0
1.0530014 1.3819551 0.33212632 0
0.93654555 1.1721925 0.3514508 0
0.84870809 1.013978 0.36098674 0
0.84066898 0.99949765 0.42669567 0
0.8373282 0.99348027 0.5005644 0
1.1783139 1.6484542 -0.05013008 0
1.1240709 1.5477843 0.26892331 0
1.03763 1.3873581 0.33145371 0
0.92224646 1.1732171 0.34946695 0
0.85125351 1.0414608 0.37147573 0
0.83990747 1.0204035 0.43568996 0
0.83428586 1.0099703 0.50827849 0
1.159765 1.655702 -0.050048199 0
1.1100608 1.5606073 0.26978159 0
1.0176754 1.3838545 0.32827744 0
0.90934485 1.1765954 0.34844756 0
0.84767669 1.0586113 0.37705392 0
0.84077829 1.0454133 0.4469476 0
0.84172499 1.0472244 0.52986246 0
1.14022 1.6608632 -0.049892701 0
1.0949024 1.5714359 0.27026695 0
1.0026904 1.3894701 0.32780173 0
0.90355068 1.1938331 0.35266456 0
0.84579372 1.0798588 0.38451928 0
0.84265077 1.0736567 0.45994133 0
0.83932078 1.0670855 0.53968292 0
1.1215062 1.6674752 -0.04980569 0
1.0796673 1.5822687 0.27078861 0
0.98489392 1.3892587 0.32572654 0
0.89192641 1.1999266 0.35275224 0
0.84585458 1.1060992 0.39425263 0
0.83857751 1.0912793 0.46692172 0
0.84120709 1.0966345 0.55586368 0
1.1030188 1.6744279 -0.049742002 0
0.9706555 1.3960593 0.32570815 0
0.87503135 1.1949553 0.34881738 0
0.8396799 1.1206089 0.39854944 0
0.84222972 1.1259714 0.48334584 0
0.83854359 1.1182193 0.56670219 0
1.0864636 1.6854796 -0.049848951 0
0.94990659 1.3887128 0.32176724 0
0.86507493 1.2043558 0.35024667 0
0.83979464 1.1494163 0.4093734 0
0.84419185 1.1589724 0.49871826 0
0.83886528 1.1473968 0.58245683 0
1.069579 1.6959846 -0.049942106 0
0.92895883 1.3799686 0.31753123 0
0.84762275 1.1971821 0.34567833 0
0.83825707 1.1761347 0.41918951 0
0.8392995 1.1784773 0.5066002 0
0.84212404 1.1848248 0.60347635 0
1.0499382 1.7002532 -0.049800694 0
0.91435617 1.3849292 0.31719756 0
0.84724289 1.2288435 0.35527846 0
0.8421281 1.216948 0.43531385 0
0.8435691 1.2202994 0.52662796 0
0.84022671 1.2125258 0.61807662 0
1.0297779 1.7030185 -0.049611494 0
0.89658636 1.3821812 0.31478709 0
0.85009044 1.2701797 0.36831534 0
0.83855605 1.2423952 0.44444358 0
0.83741903 1.2396563 0.53435177 0
0.83636039 1.2371063 0.63061231 0
1.0174112 1.7248957 -0.050168019 0
0.87993652 1.3815963 0.31304494 0
0.84805065 1.3019716 0.37785327 0
0.84086943 1.2840388 0.46077117 0
0.83922458 1.2799312 0.55335265 0
0.83910996 1.2796451 0.65458846 0
1.0036986 1.7443841 -0.050636407 0
0.86437905 1.3833714 0.31201407 0
0.85331398 1.3546989 0.39481989 0
0.84038377 1.3211933 0.47501442 0
0.83876306 1.3169937 0.57052642 0
0.83912039 1.3179197 0.6757158 0
0.9772892 1.7306542 -0.049844079 0
0.84735906 1.3809243 0.3098923 0
0.84606791 1.377449 0.40104455 0
0.84541905 1.3757025 0.49685919 0
0.84090358 1.3635482 0.59268957 0
0.83727199 1.3537732 0.69521272 0
0.95808119 1.7354305 -0.049769524 0
0.82900077 1.3741158 0.30665666 0
0.84022361 1.4055301 0.40915695 0
0.84083027 1.4072282 0.50847298 0
0.84097606 1.4076364 0.61342853 0
0.94373864 1.7542343 -0.050233904 0
0.8138864 1.375785 0.30578411 0
0.84372848 1.4627587 0.42751241 0
0.83995485 1.4517605 0.52575547 0
0.84175181 1.4569976 0.63686687 0
0.92296129 1.7545437 -0.050008051 0
1.0292222 2.077425 0.35023403 0
0.80046624 1.382334 0.30627716 0
0.84106338 1.5056913 0.44076937 0
0.84120017 1.506107 0.54724908 0
0.83835793 1.4974704 0.65552127 0
0.90382129 1.7595279 -0.0499679 0
1.005637 2.0825436 0.34980845 0
0.78621489 1.3864158 0.30615351 0
0.8383193 1.5517197 0.45506552 0
0.83936042 1.5550226 0.56629324 0
0.84162223 1.5621984 0.6868487 0
0.88353455 1.7606205 -0.049791798 0
0.98640418 2.1019092 0.35212415 0
0.76948321 1.3822346 0.3038764 0
0.84231293 1.6238602 0.47839293 0
0.84175575 1.6220117 0.59309077 0
0.86569011 1.7697634 -0.049924903 0
0.95861095 2.0927064 0.3491157 0
0.75341988 1.3795716 0.30206662 0
0.83907133 1.6772505 0.49512735 0
0.84078324 1.6832001 0.61727935 0
0.84898323 1.7834225 -0.050233066 0
0.73766029 1.3773499 0.04720084 0
0.73871577 1.3812 0.13045327 0
0.73902714 1.3823357 0.2150626 0
0.74005097 1.3860705 0.30274045 0
0.83644611 1.7376908 0.51425022 0
0.83727992 1.7407322 0.63982016 0
0.82567823 1.7726419 -0.049646314 0
0.72143596 1.3727154 0.046891373 0
0.72331715 1.3799326 0.12989421 0
0.72583783 1.3896031 0.21571437 0
0.72531176 1.3875848 0.30214232 0
0.83136344 1.7944533 0.5320574 0
0.8322652 1.797913 0.66215563 0
0.80721813 1.7797455 -0.04972991 0
0.70901692 1.3825713 0.047123294 0
0.70770746 1.3772753 0.12920453 0
0.71154922 1.3928131 0.21564122 0
0.70973814 1.3854883 0.30064589 0
0.82536399 1.8531362 0.55048937 0
0.82377368 1.8467042 0.68087053 0
0.79126447 1.7978361 -0.050224636 0
0.69432992 1.3834605 0.047031511 0
0.69272166 1.3765856 0.12875575 0
0.69476902 1.3853376 0.2136225 0
0.69445783 1.3840072 0.29936662 0
0.81692201 1.9075167 0.56742293 0
0.76999277 1.7934628 -0.04990406 0
0.6783523 1.3782117 0.046722345 0
0.67964894 1.3840872 0.12923048 0
0.67663509 1.3704305 0.21027595 0
0.67905575 1.3813992 0.29784673 0
0.8058458 1.9559239 0.58231068 0
0.75165629 1.8021365 -0.050069816 0
0.66654783 1.3920109 0.047115859 0
0.66438794 1.3816028 0.12862603 0
0.66302925 1.3750554 0.21057788 0
0.66379291 1.3787351 0.29636687 0
0.79351097 2.003828 0.59703618 0
0.73157507 1.8024648 -0.049940057 0
0.65052962 1.3856027 0.046778884 0
0.64988536 1.3822887 0.12839124 0
0.6505717 1.385819 0.2120384 0
0.64960843 1.3808645 0.29618654 0
0.77709937 2.036622 0.60665709 0
0.71201098 1.8051493 -0.049905267 0
0.63511908 1.3812257 0.046523705 0
0.63357878 1.3727336 0.12705837 0
0.63438582 1.3771831 0.20996863 0
0.63546705 1.383144 0.29609185 0
0.76218873 2.0817912 0.62051046 0
0.69267619 1.8090663 -0.049924105 0
0.6211791 1.3845109 0.046553504 0
0.62210554 1.3900121 0.12867515 0
0.62052482 1.3806257 0.21014959 0
0.62151903 1.3865296 0.29632968 0
0.74696392 2.1314309 0.6359061 0
0.67384559 1.8163326 -0.050072718 0
0.60869646 1.3973206 0.046933714 0
0.60654956 1.3835127 0.12771837 0
0.60653287 1.3834053 0.21024105 0
0.60575289 1.378389 0.29363638 0
0.72555608 2.1489127 0.64050895 0
0.65375447 1.8155249 -0.049938459 0
0.59177691 1.3809344 0.046266038 0
0.59184361 1.381402 0.12726103 0
0.59221655 1.384017 0.20996955 0
0.59215063 1.3835552 0.29442847 0
0.70802826 2.1960962 0.65517586 0
0.63438898 1.819597 -0.049989212 0
0.57696205 1.3771234 0.046059847 0
0.57881695 1.3914154 0.12813841 0
0.57773393 1.3830706 0.20944794 0
0.57751501 1.3813839 0.29337567 0
0.68864042 2.2376034 0.66798848 0
0.61460608 1.8204362 -0.049932458 0
0.56329072 1.3818531 0.046167664 0
0.56482738 1.3949871 0.12833527 0
0.56455803 1.3926846 0.21087779 0
0.5640521 1.3883607 0.29472169 0
0.66819203 2.2784252 0.68063462 0
0.59453088 1.8181161 -0.049771313 0
0.551709 1.4073815 0.1295042 0
0.55141824 1.4045925 0.21275182 0
0.5525552 1.4154983 0.30128095 0
0.64496714 2.3018849 0.68754274 0
0.57539958 1.8248937 -0.049945593 0
0.55244023 1.5740943 0.14734349 0
0.55230492 1.5726165 0.24292672 0
0.55205715 1.5699096 0.3404772 0
0.62099969 2.3230143 0.69376206 0
0.55562019 1.8250579 -0.049891483 0
0.60200793 2.4132764 0.23765826 0
0.59898353 2.3749254 0.38781732 0
0.59814727 2.3643217 0.54342777 0
0.53632337 1.83198 -0.050088134 0
0.57386816 2.3990922 0.39183676 0
0.57289374 2.3843739 0.54806435 0
0.51636463 1.8291957 -0.049946316 0
0.54817283 2.4230037 0.39586452 0
0.5481391 2.422374 0.5573647 0
0.49677658 1.8330979 -0.050052468 0
0.52216834 2.4532151 0.40108576 0
0.52197659 2.4485323 0.56371617 0
0.47706532 1.8354052 -0.050110426 0
0.45638084 1.105533 0.35441071 0
0.45650172 1.1097984 0.42917061 0
0.45720169 1.83083 -0.049931493 0
0.44586709 1.110809 0.35649872 0
0.44584104 1.1091549 0.42873117 0
0.4374927 1.836269 -0.050119027 0
0.43514279 1.0900885 0.4191412 0
0.43513429 1.087391 0.49409208 0
0.41772941 1.8331139 -0.050008602 0
0.4247016 1.0947372 0.42148358 0
0.42493057 1.0704904 0.48408806 0
0.39808172 1.8281066 -0.049840894 0
0.41411579 1.1005243 0.35228112 0
0.41419187 1.0970706 0.42273372 0
0.41460618 1.0782706 0.48879796 0
0.37835157 1.8288071 -0.049885847 0
0.35260922 2.5719619 0.42242041 0
0.35240451 2.5778718 0.59660184 0
0.40533876 1.0497141 0.47202477 0
0.35825783 1.8364638 -0.050188322 0
0.32239062 2.5955248 0.42688945 0
0.32298315 2.5829849 0.59821236 0
0.39547312 1.0488729 0.4717657 0
0.33887297 1.8286607 -0.049947154 0
0.29214948 2.6089473 0.42959845 0
0.29190588 2.6130152 0.60628736 0
0.38568267 1.046934 0.47092807 0
0.3187044 1.8339715 -0.050183911 0
0.26091781 2.630733 0.43389109 0
0.26129183 2.6255763 0.61000109 0
0.29949093 1.8260677 -0.049956527 0
0.35571083 1.1661851 0.038312525 0
0.22960769 2.6463239 0.43713814 0
0.23019184 2.6394672 0.61415803 0
0.27999625 1.8226503 -0.049898475 0
0.19838105 2.6563597 0.43945399 0
0.19792056 2.6610637 0.62039572 0
0.26039165 1.8205707 -0.049897205 0
0.16643248 2.6699374 0.442487 0
0.16736187 2.6615357 0.62132394 0
0.34589964 1.0476005 0.4733254 0
0.24093208 1.8172973 -0.049861867 0
0.13430445 2.6814716 0.44522649 0
0.13497834 2.6760101 0.62595201 0
0.22062847 1.8203831 -0.050064415 0
0.10252853 2.6875503 0.44705126 0
0.10336114 2.6814365 0.62836319 0
0.20021887 1.8231896 -0.050266482 0
0.070282087 2.6950243 0.4492068 0
0.069598362 2.6996119 0.63417011 0
0.18216668 1.8105271 -0.049918786 0
0.036733761 2.7086246 0.4525601 0
0.038606301 2.6970611 0.63474184 0
0.16287343 1.8063666 -0.049886696 0
0.0043186112 2.7129989 0.45430884 0
0.0029658542 2.7207341 0.64220786 0
0.14355771 1.8024311 -0.049871519 0
-0.028629763 2.7188618 0.45640981 0
-0.030316664 2.7278399 0.64550722 0
0.12385474 1.8004612 -0.049936727 0
-0.091450766 2.8718626 0.10095185 0
-0.087217763 2.8507984 0.28951842 0
-0.060957834 2.720124 0.45774594 0
-0.063157186 2.7310684 0.64791483 0
0.10381515 1.799829 -0.05006 0
-0.11477388 2.8208396 0.099337414 0
-0.11543287 2.8239179 0.28730592 0
-0.095170513 2.729274 0.46061549 0
-0.096356526 2.7348137 0.65057153 0
0.084838077 1.7941158 -0.050006825 0
-0.14391018 2.8005059 0.098852679 0
-0.14287569 2.7959545 0.28500688 0
-0.12888433 2.7343988 0.46282834 0
-0.12606229 2.7219832 0.64900815 0
0.064032897 1.7961483 -0.050246675 0
-0.17443837 2.7873971 0.098645233 0
-0.17553307 2.7919476 0.28538701 0
-0.16085245 2.7309248 0.46353152 0
-0.1634378 2.7416713 0.65607131 0
0.048110202 1.7782538 -0.049762923 0
-0.21010543 2.7950985 0.099217787 0
-0.21018429 2.7954092 0.28664199 0
-0.19293989 2.7275014 0.46432114 0
-0.19609423 2.739923 0.65763813 0
0.029274629 1.772562 -0.049735896 0
-0.25294757 2.8280509 0.100742 0
-0.2502799 2.818074 0.29008591 0
-0.22782148 2.7340813 0.46705621 0
-0.22935177 2.7398043 0.65974903 0
0.007992791 1.7756371 -0.050042659 0
-0.26164144 2.7354515 0.46890715 0
-0.26437515 2.7451825 0.66343486 0
-0.010693265 1.7691228 -0.050003622 0
-0.29528427 2.7352872 0.47055644 0
-0.29512268 2.7347386 0.66304332 0
-0.028099967 1.7585416 -0.049821269 0
-0.33047515 2.7393456 0.4730888 0
-0.32713306 2.7285047 0.66387737 0
-0.047589019 1.7548338 -0.04990419 0
-0.36040634 2.7259059 0.47239989 0
-0.35947704 2.7230213 0.6650238 0
-0.06678693 1.7500665 -0.049956772 0
-0.39023685 2.7124529 0.47177699 0
-0.39451152 2.7251718 0.66833925 0
-0.083006278 1.7366713 -0.049692359 0
-0.42390549 2.7102079 0.47336474 0
-0.42672181 2.718251 0.6693362 0
-0.10499753 1.7396528 -0.050056733 0
-0.45715988 2.7061639 0.47469559 0
-0.45481205 2.6997201 0.66729498 0
-0.12360175 1.7329558 -0.050063919 0
-0.49249947 2.7070866 0.47707123 0
-0.49167681 2.7049141 0.67181277 0
-0.13751097 1.7142946 -0.049621142 0
-0.52115732 2.6900935 0.47607285 0
-0.52114141 2.690053 0.67098194 0
-0.1582761 1.7132653 -0.049862627 0
-0.55416715 2.6841285 0.47728729 0
-0.55323285 2.6818373 0.6720798 0
-0.17706229 1.7071071 -0.049916722 0
-0.58189726 2.6652188 0.47605503 0
-0.58316612 2.668222 0.6717996 0
-0.19618864 1.7016232 -0.050006591 0
-0.61157572 2.6511798 0.47584328 0
-0.60887885 2.6450148 0.66895145 0
-0.21569808 1.6968248 -0.050133239 0
-0.64225411 2.6394091 0.47615314 0
-0.64068031 2.6359313 0.6701327 0
-0.23297222 1.6870296 -0.050073348 0
-0.67563629 2.6333039 0.47766951 0
-0.66727114 2.615422 0.66821504 0
-0.2502839 1.6774021 -0.050028343 0
-0.70601821 2.6204915 0.47793567 0
-0.70333171 2.6149321 0.67205298 0
-0.26762873 1.667905 -0.049996927 0
-0.72925067 2.5932527 0.47537276 0
-0.72779489 2.5903344 0.66917062 0
-0.28017586 1.6491281 -0.049601439 0
-0.75796521 2.5774353 0.47516909 0
-0.75629866 2.5741975 0.66878545 0
-0.29902351 1.6428111 -0.049713261 0
-0.78231442 2.5534425 0.47336838 0
-0.78159726 2.5520914 0.6667769 0
-0.32474327 1.6488873 -0.050339799 0
-0.81313956 2.5418029 0.47415736 0
-0.81771994 2.5501769 0.67071849 0
-0.33892286 1.6335753 -0.050107572 0
-0.61648893 2.1262019 0.082294554 0
-0.83542085 2.5147641 0.47184438 0
-0.83652198 2.5167186 0.66558355 0
-0.35409528 1.6202947 -0.049964834 0
-0.61746979 2.0742717 0.080702439 0
-0.86479676 2.5005877 0.47225454 0
-0.86485648 2.5006905 0.66562182 0
-0.37267387 1.612909 -0.050074045 0
-0.62053514 2.0280147 0.079334721 0
-0.88610899 2.472785 0.46988297 0
-0.88894498 2.4775345 0.66364783 0
-0.38652045 1.5976671 -0.049864698 0
-0.61349547 1.9671438 0.077345669 0
-0.91101468 2.4514544 0.46891949 0
-0.9108789 2.4512334 0.66080731 0
-0.40106148 1.583795 -0.049718861 0
-0.62430882 1.9371494 0.076640919 0
-0.93895602 2.4351709 0.46909159 0
-0.93646193 2.4312234 0.6599257 0
-0.42586178 1.5859003 -0.05025978 0
-0.61429346 1.8759942 0.074609585 0
-0.95792937 2.4050276 0.46635988 0
-0.95877182 2.4063246 0.65764707 0
-0.43409133 1.5624919 -0.049723398 0
-0.61933362 1.8399639 0.07363423 0
-0.97988915 2.3800354 0.46477371 0
-0.9802072 2.3805118 0.65515476 0
-0.45334017 1.5558105 -0.049911011 0
-0.61294854 1.7884872 0.071984425 0
-1.0007188 2.3537781 0.46295732 0
-1.0017096 2.3552225 0.65288591 0
-0.47440499 1.5514711 -0.050213121 0
-0.61437309 1.7501075 0.070888422 0
-1.0226746 2.3295505 0.46163014 0
-1.0201954 2.3260322 0.64946342 0
-0.48748451 1.5357282 -0.050027099 0
-0.6233747 1.7235106 0.070302434 0
-0.62080634 1.7199615 0.19909468 0
-1.0461266 2.307698 0.46088088 0
-1.0406643 2.3001499 0.64712447 0
-0.072943106 0.96288651 0.43740761 0
-0.50010091 1.5195769 -0.049828447 0
-0.61430442 1.6732786 0.068664722 0
-0.61344683 1.6721243 0.19448103 0
-1.0639192 2.2783959 0.45851675 0
-1.0691217 2.2853975 0.64838266 0
-0.090429023 0.96821696 0.44473213 0
-0.51898533 1.5118691 -0.050014105 0
-0.6121304 1.6339866 0.067497328 0
-0.62376487 1.6492399 0.19318314 0
-1.083746 2.2522962 0.45690686 0
-1.0775805 2.2442131 0.64128596 0
-0.10167684 0.96475822 0.4467344 0
-0.53485149 1.5000883 -0.050027661 0
-0.60789025 1.5933856 0.066257782 0
-0.61814761 1.606488 0.18917841 0
-1.1052707 2.2287223 0.45591637 0
-1.0951002 2.2157309 0.63826907 0
-0.11126055 0.95900756 0.44738972 0
-0.54930949 1.4865345 -0.049969263 0
-0.61572003 1.5691992 0.065754913 0
-0.61968267 1.5741317 0.18655635 0
-1.1093435 2.1836381 0.45000201 0
-1.1148791 2.1905284 0.63636672 0
-0.12736483 0.96131784 0.45330235 0
-0.5597837 1.4682076 -0.049697798 0
-0.6171993 1.537861 0.064920455 0
-0.62462091 1.5468645 0.18461841 0
-1.1323267 2.1627853 0.44970134 0
-1.1269071 2.1562104 0.63151246 0
-0.14120986 0.96041673 0.45732513 0
-0.57791376 1.4592253 -0.049866479 0
-0.61660898 1.504982 0.064005874 0
-0.61750996 1.5060474 0.18076132 0
-1.1465719 2.1316571 0.4470385 0
-1.1468319 2.1319644 0.63002205 0
-0.15566535 0.95992118 0.46177039 0
-0.58938551 1.4423815 -0.049676191 0
-0.61716926 1.4744086 0.063189887 0
-0.62202168 1.4800022 0.17895085 0
-1.1590832 2.0990903 0.44404554 0
-1.1586084 2.0985429 0.62550044 0
-0.61517954 1.4418306 -0.050269239 0
-0.63822544 1.4677302 0.063506946 0
-0.6324178 1.4612035 0.17817056 0
-1.1665163 2.0614378 0.43982893 0
-1.1639053 2.0585034 0.61871815 0
-0.6242249 1.4223026 -0.049967512 0
-0.66705585 1.4692336 0.064235881 0
-0.66171432 1.4633808 0.18045215 0
-1.1808835 2.0322495 0.43765301 0
-1.1814269 2.0328448 0.61684763 0
-0.64129007 1.4116496 -0.050101731 0
-0.50967556 1.2710334 0.055225614 0
-0.68990219 1.4635867 0.18252458 0
-1.1902418 1.9981471 0.43428183 0
-1.1939929 2.0021546 0.61327344 0
-0.65660191 1.399029 -0.050150786 0
-0.50733483 1.2435244 0.054455325 0
-0.72565389 1.4709665 0.18574344 0
-1.1955973 1.9605476 0.43002468 0
-1.2005779 1.9657363 0.60768557 0
-0.65899527 1.3732311 -0.049549904 0
-0.51233536 1.2242439 0.054086179 0
-0.74202847 1.4575819 0.1859386 0
-1.2044038 1.9272945 0.42683139 0
-1.2067292 1.9296567 0.60217881 0
-0.68457413 1.370993 -0.050138041 0
-0.5247367 1.2126572 0.054105788 0
-0.76782 1.4534568 0.18758152 0
-1.2136357 1.8950838 0.42389262 0
-1.2229295 1.9042902 0.60051334 0
-0.69164586 1.3502965 -0.049801826 0
-0.53282392 1.1968803 0.053918313 0
-0.80827117 1.4629523 0.19140285 0
-1.2216402 1.8622514 0.42078391 0
-1.2260349 1.8664966 0.59433693 0
-0.71323764 1.3435981 -0.050194565 0
-0.56824648 1.207029 0.055083502 0
-0.84387207 1.4666445 0.1944453 0
-1.2236769 1.824388 0.41633639 0
-1.23092 1.8312103 0.58902484 0
-0.71826398 1.3213054 -0.049783919 0
-0.8728435 1.4632756 0.069276966 0
-0.86967134 1.4603622 0.19601572 0
-1.2364715 1.7972418 0.41469169 0
-1.2334102 1.7944301 0.58309913 0
-0.2348233 0.87729961 0.38116711 0
-0.74031544 1.3146428 -0.050207302 0
-0.90381157 1.4610502 0.07004258 0
-0.90216613 1.4595767 0.19854592 0
-1.2405905 1.7626288 0.41104835 0
-1.230302 1.7534157 0.57548195 0
-0.23828711 0.86508638 0.37883243 0
-0.74518228 1.2925766 -0.049815629 0
-0.93864393 1.4614769 0.070984311 0
-1.2276448 1.7137872 0.40346438 0
-1.2403128 1.7248468 0.57256722 0
-0.23260982 0.84507865 0.37158406 0
-0.76055527 1.2798109 -0.049933769 0
-0.97262657 1.4603035 0.071875907 0
-1.2332921 1.6821545 0.40051094 0
-1.2399575 1.6878275 0.56633174 0
-0.2372321 0.83441341 0.37015048 0
-0.24893828 0.84437644 0.45374748 0
-0.77039194 1.2623397 -0.049801361 0
-1.0087496 1.460084 0.072858229 0
-1.2517306 1.6616637 0.40067941 0
-1.2450504 1.6561217 0.56212252 0
-0.25263512 0.83280301 0.37460411 0
-0.78904009 1.2521095 -0.050085001 0
-1.0415069 1.4562472 0.073676191 0
-1.2444017 1.6203022 0.39493015 0
-1.2441332 1.6200851 0.55611569 0
-0.24279387 0.81043005 0.36558217 0
-0.79811943 1.2340808 -0.049936797 0
-1.0869206 1.4616437 0.075063564 0
-1.2500877 1.5902125 0.3923462 0
-1.250644 1.5906508 0.55272901 0
-0.26259983 0.8121143 0.37242636 0
-0.81012225 1.2184243 -0.049931869 0
-1.1259189 1.4608763 0.076145753 0
-1.2485808 1.5550498 0.38823816 0
-1.2393917 1.5479949 0.54378116 0
-0.25736481 0.7940464 0.36612248 0
-0.25266874 0.79044104 0.43822646 0
-0.83125198 1.2095946 -0.05034272 0
-1.1619256 1.4569136 0.077084877 0
-1.2535317 1.5254281 0.38572323 0
-1.2394696 1.5149106 0.53869897 0
-0.27183473 0.79119289 0.37018394 0
-0.27500999 0.79356772 0.44808066 0
-0.83261609 1.1860038 -0.049881712 0
-1.2113162 1.461876 0.078608796 0
-1.2488108 1.4891897 0.3811568 0
-1.248366 1.4888657 0.53657877 0
-1.2443984 1.4859754 0.69624579 0
-0.26614779 0.77334791 0.36390159 0
-0.27806556 0.78202963 0.4458822 0
-0.84153318 1.1681657 -0.049768474 0
-1.2458166 1.4549531 0.079464644 0
-1.2534027 1.4603345 0.3787916 0
-1.2382572 1.4495906 0.52863556 0
-1.2420926 1.4523114 0.68908536 0
-0.28503788 0.77340347 0.37026563 0
-0.28210175 0.77132064 0.44439432 0
-0.85687447 1.1548574 -0.049944729 0
-1.2993969 1.4604683 0.081144728 0
-1.2614272 1.4342459 0.37727913 0
-1.2362808 1.4168797 0.52343667 0
-1.2382083 1.4182107 0.68152088 0
-0.28470814 0.75971311 0.44213229 0
-0.87196136 1.1412246 -0.050115801 0
-1.2667348 1.4065809 0.079097763 0
-1.2738838 1.4113863 0.22696723 0
-1.2577847 1.4005648 0.37331587 0
-1.2280302 1.3805646 0.51648003 0
-1.2271588 1.3799789 0.67132068 0
-0.28092426 0.7439453 0.43612534 0
-0.87905824 1.1222181 -0.049951978 0
-1.2672797 1.3761325 0.078513235 0
-1.2692904 1.3774476 0.22454013 0
-1.2494081 1.3644437 0.36845672 0
-1.2472506 1.3630326 0.51809508 0
-1.2434835 1.3605688 0.67227852 0
-0.29881877 0.7427153 0.44324741 0
-0.88729739 1.1040715 -0.049847957 0
-1.2756724 1.3511609 0.07828173 0
-1.2705381 1.3478943 0.22293107 0
-1.2508786 1.3353866 0.36583874 0
-1.2502714 1.3350004 0.5148657 0
-1.2506496 1.335241 0.66971403 0
-0.30705869 0.73491603 0.4445965 0
-0.89574564 1.0861368 -0.049763154 0
-1.2897605 1.3298999 0.07830438 0
-1.2871269 1.3282707 0.22332042 0
-1.2532777 1.3073293 0.36351597 0
-1.2402929 1.2992961 0.50786781 0
-1.2415975 1.3001033 0.66095001 0
-0.91044199 1.0720259 -0.049948737 0
-1.2968469 1.304405 0.078046367 0
-1.3046383 1.3090906 0.22385365 0
-1.2496343 1.2760119 0.36001366 0
-1.2421945 1.2715378 0.50459391 0
-1.2389684 1.2695976 0.65491796 0
-0.92130339 1.0555187 -0.049981758 0
-1.330436 1.2946036 0.078899458 0
-1.3368084 1.2983274 0.22623776 0
-1.2452234 1.2448078 0.35645944 0
-1.2455999 1.2450279 0.50189209 0
-1.2353103 1.239015 0.64868224 0
-0.92484176 1.0348246 -0.049722485 0
-1.3791649 1.292699 0.080373079 0
-1.3876051 1.2974895 0.23092347 0
-1.2558976 1.2227322 0.35614058 0
-1.2352257 1.2109989 0.49526531 0
-1.2328601 1.2096561 0.64310086 0
-0.95070791 1.0266399 -0.050385818 0
-1.2530812 1.1932688 0.35310337 0
-1.2310615 1.1811343 0.49061865 0
-1.2351848 1.1834066 0.63951284 0
-0.94982719 1.0036178 -0.049966026 0
-1.2523962 1.1654217 0.3505986 0
-1.2358137 1.1565539 0.48869205 0
-1.234725 1.1559716 0.63502347 0
-0.96597958 0.98976034 -0.050245702 0
-1.264293 1.1444901 0.35073775 0
-1.2386297 1.1311791 0.48631072 0
-1.2318734 1.1276747 0.6297968 0
-0.96322894 0.96617407 -0.049775239 0
-1.2717136 1.121282 0.35002589 0
-1.2503036 1.1105169 0.4865655 0
-1.2418642 1.1062735 0.62951851 0
-0.96085596 0.94313735 -0.049334481 0
-1.2849931 1.101034 0.35055247 0
-1.2355027 1.0769259 0.47937948 0
-1.2399093 1.0790725 0.62492126 0
-0.98430121 0.93261802 -0.04992694 0
-1.2969552 1.0800794 0.35086429 0
-1.2399193 1.0531788 0.47777662 0
-1.2372824 1.0519351 0.62023044 0
-0.9970808 0.91676867 -0.050102662 0
-1.3041766 1.0569093 0.35028696 0
-1.2398534 1.0275559 0.47500995 0
-1.2400256 1.0276345 0.61765563 0
-0.99863565 0.89582801 -0.049847219 0
-1.317493 1.0365124 0.35097197 0
-1.2393602 1.0020391 0.47222969 0
-1.2319279 0.99875981 0.61126447 0
-1.0121864 0.880193 -0.050068948 0
-1.3250861 1.0135677 0.35058177 0
-1.2387664 0.97677356 0.46952575 0
-1.2423635 0.97830683 0.61174214 0
-1.0157896 0.86029261 -0.049913134 0
-1.3328594 0.99075192 0.35028523 0
-1.2372217 0.95140147 0.46666145 0
-1.2474831 0.95562363 0.61039776 0
-1.0196344 0.84060293 -0.04977702 0
-1.3406013 0.96796417 0.35003993 0
-1.2445476 0.92984957 0.46633419 0
-1.2337452 0.92556316 0.60241294 0
-1.0392258 0.82703269 -0.050252918 0
-1.3507563 0.94613153 0.35031727 0
-1.231544 0.90055639 0.46053001 0
-1.2495276 0.90743154 0.60511607 0
-1.0377423 0.80534708 -0.049931411 0
-1.3555219 0.9222706 0.34961063 0
-1.2543918 0.88506091 0.46459949 0
-1.2495034 0.88326228 0.60228443 0
-1.0506709 0.7889964 -0.050167471 0
-1.3626792 0.89935631 0.34942228 0
-1.2423515 0.85679543 0.45926234 0
-1.2332973 0.85359287 0.59386253 0
-1.0468941 0.76679343 -0.049780447 0
-1.3731792 0.87760091 0.34992644 0
-1.2413905 0.83284503 0.45702934 0
-1.243843 0.83367789 0.59500748 0
-1.0633911 0.75147575 -0.05016673 0
-1.3776015 0.85378844 0.34932789 0
-1.2451528 0.81066072 0.4561539 0
-1.242185 0.80969435 0.59196579 0
-1.059579 0.72953802 -0.049799252 0
-1.3865906 0.83148324 0.34965113 0
-1.2418667 0.78636587 0.45347303 0
-1.2417637 0.7863338 0.58947247 0
-1.0678542 0.71146935 -0.049893741 0
-1.3967893 0.80948746 0.35025376 0
-1.2407711 0.7629962 0.45146695 0
-1.2430371 0.76367146 0.58767909 0
-1.0834626 0.69541323 -0.050268538 0
-1.408933 0.78795326 0.35127094 0
-1.2409658 0.74019563 0.44988853 0
-1.2390634 0.73965472 0.58417612 0
-1.0818895 0.67442781 -0.05001406 0
-1.4121045 0.76383853 0.35065901 0
-1.2370511 0.71644014 0.44730526 0
-1.2328174 0.71529382 0.5800063 0
-1.0872886 0.65541834 -0.050027184 0
-1.4174762 0.74037427 0.35051543 0
-1.2395861 0.69460386 0.44650841 0
-1.2252189 0.69090724 0.57549089 0
-1.0847294 0.63445508 -0.049756631 0
-1.4273058 0.71801406 0.35125482 0
-1.2289497 0.66963232 0.44232738 0
-1.2276554 0.66931659 0.57453108 0
-1.0886048 0.61516827 -0.049732294 0
-1.4221424 0.69208634 0.34926927 0
-1.236647 0.64930868 0.44304121 0
-1.2461528 0.65150088 0.57915068 0
-1.1063951 0.59892082 -0.050225299 0
-1.4396932 0.67137629 0.35154164 0
-1.231824 0.62618774 0.44055107 0
-1.2488626 0.62989175 0.57845902 0
-1.0972935 0.57682288 -0.049744606 0
-1.4400237 0.64682144 0.35068649 0
-1.239626 0.60589266 0.44143075 0
-1.2352774 0.60500449 0.57232845 0
-1.1037171 0.55803466 -0.049839497 0
-1.440425 0.6223979 0.34990326 0
-1.2357956 0.58328205 0.43935326 0
-1.2355574 0.58323658 0.57101536 0
-1.1095332 0.53906715 -0.049920741 0
-1.4398826 0.59791338 0.34900528 0
-1.2318927 0.56086344 0.43733549 0
-1.2397912 0.5622704 0.57113397 0
-1.1246936 0.52158171 -0.050348591 0
-1.4391221 0.57351607 0.34812573 0
-1.2331145 0.53948963 0.43672019 0
-1.2353603 0.53986061 0.56841975 0
-1.1157705 0.50012088 -0.049913853 0
-1.4587405 0.55234206 0.35102162 0
-1.2404515 0.51910502 0.43775377 0
-1.2307544 0.51762849 0.56574696 0
-1.112771 0.47979224 -0.049703162 0
-1.4492195 0.52669388 0.34865496 0
-1.2359555 0.49696442 0.43580356 0
-1.2341886 0.49671811 0.56587362 0
-1.114413 0.46019781 -0.04966905 0
-1.4588645 0.50380117 0.34983498 0
-1.2412449 0.47625318 0.43644467 0
-1.2427013 0.47643754 0.56779164 0
-1.1203038 0.44110802 -0.049796522 0
-0.50607371 0.37119991 0.039726146 0
-0.52293044 0.37311846 0.10934693 0
-0.52070308 0.37286493 0.17902647 0
-1.2369846 0.45438796 0.43469977 0
-1.2383163 0.45453951 0.56547374 0
-1.1352768 0.42284274 -0.050258368 0
-0.51707751 0.36035693 0.040075403 0
-0.50457925 0.35909364 0.10722496 0
-0.51084787 0.35972726 0.17700611 0
-1.2364002 0.43306398 0.4339703 0
-1.2405998 0.43348846 0.56548089 0
-1.1328335 0.40270814 -0.050103739 0
-0.46643054 0.34381649 0.038219575 0
-0.52104515 0.34864292 0.10888079 0
-0.50550604 0.34726968 0.17583513 0
-1.2443937 0.41256702 0.43550751 0
-1.2405471 0.41222706 0.56479645 0
-1.1382817 0.38327718 -0.050240885 0
-0.51546776 0.33613265 0.10817346 0
-0.50745845 0.33552638 0.17601292 0
-1.2423131 0.39115193 0.43453178 0
-1.2416655 0.39110291 0.56459272 0
-1.1483828 0.36403945 -0.050553121 0
-0.50266397 0.32333094 0.10670551 0
-0.5074299 0.32363141 0.17585933 0
-1.2440099 0.3700681 0.43459138 0
-1.2336584 0.36941552 0.56143582 0
-1.2477099 0.3703014 0.70306599 0
-1.1312659 0.34320593 -0.049900867 0
-0.51216322 0.31199607 0.10765578 0
-0.50790906 0.31178162 0.17582458 0
-1.2485065 0.34911621 0.43543407 0
-1.2334877 0.34835908 0.56098235 0
-1.2419671 0.34878653 0.7001875 0
-0.35530579 0.30408865 0.4738251 0
-1.1386817 0.3237569 -0.050134774 0
-0.51171476 0.30006051 0.10755112 0
-0.51412892 0.30015177 0.17685284 0
-1.2493788 0.32794073 0.43541834 0
-1.2347564 0.32738808 0.56109661 0
-1.2428328 0.32769331 0.70016086 0
-0.36084002 0.29435816 0.47684979 0
-1.1419781 0.30403593 -0.050230246 0
-0.41109842 0.2856243 0.35540846 0
-0.41220868 0.28565225 0.42879704 0
-0.38623977 0.28499806 0.49173117 0
-1.1320885 0.28407839 -0.049863774 0
-0.39999121 0.27485773 0.4225831 0
-0.38722187 0.27469689 0.49219808 0
-1.1267475 0.26437619 -0.049668662 0
-0.40468585 0.26437429 0.42489898 0
-0.39182729 0.26437426 0.49489075 0
-0.90668762 -0.98929477 -0.091964029 0
-1.0094864 -0.98929501 -0.089350872 0
-1.1393929 -0.98929536 -0.08645048 0
-1.1171407 -0.9892953 -0.056163508 0
-1.1321299 -0.98929536 -0.031459231 0
-1.1367182 -0.98929536 -0.0052222144 0
-1.1286794 -0.98929536 0.021996947 0
-1.129537 -0.98929536 0.048339836 0
-1.1187122 -0.9892953 0.074937187 0
-1.1321013 -0.98929536 0.10100275 0
-1.116814 -0.9892953 0.12702332 0
-1.1289819 -0.98929536 0.15363978 0
-1.1264317 -0.98929536 0.1798514 0
-1.1247616 -0.98929536 0.2061118 0
-1.1330683 -0.98929536 0.23357534 0
-1.1277429 -0.98929536 0.25966001 0
-1.1380153 -0.98929536 0.28823167 0
-1.1198752 -0.9892953 0.31214976 0
-0.89933354 -1.0120176 -0.090461768 0
-1.0167273 -1.0149808 -0.090775751 0
-1.1217471 -1.0176318 -0.083609171 0
-1.1282617 -1.0177962 -0.057776947 0
-1.1342832 -1.0179482 -0.031753156 0
-1.1433648 -1.0181774 -0.0058766361 0
-1.1249992 -1.0177138 0.022229167 0
-1.125852 -1.0177354 0.048494682 0
-1.127284 -1.0177715 0.074729532 0
-1.1285284 -1.0178028 0.10100266 0
-1.1140924 -1.0174385 0.12696818 0
-1.1219327 -1.0176364 0.15332787 0
-1.1357204 -1.0179844 0.18052663 0
-1.142381 -1.0181526 0.20779143 0
-1.1290243 -1.0178154 0.23314455 0
-1.1369871 -1.0180163 0.26101062 0
-1.1272248 -1.0177699 0.28651667 0
-1.1342635 -1.0179477 0.3149288 0
-0.89778191 -1.0346911 -0.090314575 0
-1.0081779 -1.0402675 -0.089346744 0
-1.1196966 -1.0459007 -0.083448209 0
-1.1228154 -1.0460582 -0.057162363 0
-1.2462779 -1.0522946 -0.044985939 0
-1.2423863 -1.052098 -0.015233284 0
-1.2411709 -1.0520366 0.014022024 0
-1.2421695 -1.0520871 0.043022484 0
-1.2456053 -1.0522606 0.071949914 0
-1.2484826 -1.052406 0.10100611 0
-1.2282965 -1.0513864 0.12965825 0
-1.2425923 -1.0521084 0.15900926 0
-1.2381562 -1.0518844 0.18777893 0
-1.2394171 -1.0519481 0.21696809 0
-0.89508116 -1.0572568 -0.090044029 0
-1.0113403 -1.066075 -0.090247728 0
-1.1292586 -1.0750189 -0.085318483 0
-1.132964 -1.0753 -0.058844987 0
-1.2350484 -1.0830429 -0.043902595 0
-1.240398 -1.0834486 -0.015232546 0
-1.2434659 -1.0836813 0.013722399 0
-1.2392385 -1.0833607 0.043066878 0
-1.2440176 -1.0837232 0.071940638 0
-1.2469683 -1.0839471 0.10100613 0
-1.2459469 -1.0838696 0.13011658 0
-1.2415724 -1.0835377 0.15905419 0
-1.2442422 -1.0837402 0.18834446 0
-1.2492566 -1.0841206 0.2180748 0
-0.90217155 -1.0807643 -0.091986202 0
-1.0159276 -1.0922856 -0.09154392 0
-1.1501522 -1.1058801 -0.089186676 0
-1.2381095 -1.1147885 -0.074054666 0
-1.2379513 -1.1147726 -0.044567693 0
-1.2372898 -1.1147056 -0.015200896 0
-1.2367392 -1.1146498 0.013999889 0
-1.249047 -1.1158963 0.042478375 0
-1.2401757 -1.1149979 0.071965478 0
-1.2391872 -1.1148977 0.10100599 0
-1.2514484 -1.1161395 0.13031067 0
-1.2442331 -1.1154088 0.15930878 0
