# .PCD v0.7 - Point Cloud Data file format
VERSION 0.7
FIELDS x y z intensity
SIZE 4 4 4 4
TYPE F F F F
COUNT 1 1 1 1
WIDTH 1317
HEIGHT 1
VIEWPOINT 0 0 0 1 0 0 0
POINTS 1317
DATA ascii
-0.97831458 -1.2417874 -0.089511998 0
-1.1276826 -1.2802997 -0.090592481 0
-1.3313781 -1.3328196 -0.09239497 0
-1.5808954 -1.397154 -0.089954324 0
-1.9861088 -1.5016322 -0.090570517 0
-3.3341448 -1.8492032 -0.13981116 0
-5.0253592 -2.2852576 -0.14068168 0
-10.069421 -3.585794 -0.14082828 0
-0.87440854 -1.2387137 -0.092508443 0
-0.98234457 -1.2694677 -0.091609992 0
-1.1099159 -1.3058164 -0.08887244 0
-1.3022316 -1.3606125 -0.089464404 0
-1.582134 -1.4403647 -0.091416635 0
-1.9765021 -1.5527314 -0.090954147 0
-3.3197556 -1.9354622 -0.14041951 0
-4.9952297 -2.4128523 -0.14088349 0
-9.9995346 -3.8387206 -0.14080006 0
-0.86267692 -1.259109 -0.091359384 0
-0.97293198 -1.2935543 -0.09120933 0
-1.1032877 -1.3342793 -0.089167185 0
-1.292809 -1.3934883 -0.089517571 0
-1.5756539 -1.481853 -0.092078425 0
-1.9677958 -1.6043637 -0.09155453 0
-3.295645 -2.0192022 -0.14047952 0
-4.953548 -2.5371544 -0.14067996 0
-9.9191713 -4.0884848 -0.1406713 0
-0.85318238 -1.2799931 -0.090817831 0
-0.97078151 -1.3200164 -0.092370532 0
-1.1011441 -1.3643835 -0.090367205 0
-1.2843821 -1.4267461 -0.089841686 0
-1.5553461 -1.5189651 -0.091167547 0
-1.943152 -1.6509496 -0.090716608 0
-3.275074 -2.1042514 -0.14095688 0
-4.9112859 -2.661114 -0.14059976 0
-9.8346319 -4.336709 -0.14059308 0
-0.83862585 -1.2988889 -0.0892433 0
-0.95490533 -1.3417662 -0.090920664 0
-1.0818094 -1.3885612 -0.088699631 0
-1.2731332 -1.4591105 -0.089871265 0
-1.5397518 -1.5574243 -0.090951465 0
-1.9218117 -1.6983062 -0.090315975 0
-3.240335 -2.1845024 -0.14054225 0
-4.8773594 -2.7881436 -0.14108695 0
-9.7591 -4.5882516 -0.14089188 0
-0.83442426 -1.3215163 -0.090130217 0
-0.94319469 -1.3647723 -0.090411268 0
-1.0805006 -1.4193766 -0.090310894 0
-1.2587209 -1.4902519 -0.089545704 0
-1.5262746 -1.5966535 -0.091120996 0
-1.916121 -1.7516888 -0.091602795 0
-3.2050035 -2.2642555 -0.14023054 0
-4.8192844 -2.9062278 -0.14052908 0
-9.6662474 -4.8337831 -0.14091839 0
-0.83115959 -1.3447883 -0.091374613 0
-0.93992841 -1.3912554 -0.091744237 0
-1.0766238 -1.4496531 -0.091618933 0
-1.2501855 -1.5238005 -0.090234213 0
-1.5048728 -1.6326054 -0.090410389 0
-1.8857702 -1.7953286 -0.090536587 0
-3.1767795 -2.3468609 -0.140608 0
-4.7636161 -3.0247736 -0.14023709 0
-9.5689945 -5.0776796 -0.14098981 0
-0.81964886 -1.3646295 -0.090842552 0
-0.91992754 -1.410495 -0.089764319 0
-1.0581096 -1.4736969 -0.090434141 0
-1.2365329 -1.5553043 -0.090270065 0
-1.498001 -1.6748948 -0.091674872 0
-1.8688424 -1.8445104 -0.090948157 0
-3.1320291 -2.4222677 -0.13987878 0
-4.7147732 -3.1461844 -0.14044346 0
-9.4501858 -5.3120713 -0.14066747 0
-0.80866724 -1.3846048 -0.090546824 0
-0.92321318 -1.4405324 -0.092741989 0
-1.0472479 -1.5010933 -0.090744592 0
-1.2253307 -1.5880432 -0.090813167 0
-1.4694916 -1.7072563 -0.090278842 0
-1.8516953 -1.8938696 -0.091470249 0
-3.1135919 -2.5099983 -0.14133479 0
-4.6700339 -3.2699406 -0.14102279 0
-9.3389854 -5.5495849 -0.14069013 0
-0.80171722 -1.4066132 -0.091333054 0
-0.89980984 -1.4576117 -0.090253167 0
-1.0254145 -1.5229138 -0.089154057 0
-1.2057564 -1.6166739 -0.090167426 0
-1.448038 -1.7426367 -0.089900725 0
-1.8245873 -1.9384054 -0.091081537 0
-3.0765872 -2.5893226 -0.14152041 0
-4.6052022 -3.3840525 -0.14071839 0
-9.2257423 -5.7862802 -0.14081569 0
-0.79053885 -1.4265157 -0.091237523 0
-0.89381129 -1.4835624 -0.091566689 0
-1.0120888 -1.5488975 -0.089241348 0
-1.1900913 -1.6472242 -0.090255491 0
-1.423975 -1.776419 -0.089287318 0
-1.7952675 -1.9815171 -0.090570591 0
-3.0230758 -2.6597452 -0.14054912 0
-4.5424747 -3.4990449 -0.14067374 0
-9.0907154 -6.0114446 -0.140522 0
-0.77683109 -1.4449271 -0.090640314 0
-0.87876797 -1.5046412 -0.091067336 0
-0.99812073 -1.5745575 -0.089331575 0
-1.1692567 -1.6748081 -0.089627601 0
-1.4136311 -1.8179616 -0.090637706 0
-1.772743 -2.0283277 -0.090904005 0
-2.9852421 -2.7386038 -0.14097661 0
-4.4766059 -3.6122379 -0.14061446 0
-8.9858494 -6.2537313 -0.14118868 0
-0.76595455 -1.4649446 -0.09085723 0
-0.86416471 -1.5258549 -0.090774693 0
-0.98705882 -1.6020744 -0.090109594 0
-1.1493194 -1.7027091 -0.089252464 0
-1.3800768 -1.8458258 -0.088960461 0
-1.7441777 -2.0716426 -0.09070798 0
-2.9482899 -2.8184376 -0.14164583 0
-4.4200125 -3.7312059 -0.14121769 0
-8.8334742 -6.468452 -0.14073214 0
-0.75318408 -1.4837992 -0.090723731 0
-0.84066421 -1.5411606 -0.08859285 0
-0.9795509 -1.6322296 -0.091734476 0
-1.1350389 -1.7341841 -0.08993908 0
-1.3786129 -1.8938973 -0.091837652 0
-1.7158298 -2.1150129 -0.090654008 0
-2.8933105 -2.8870952 -0.14098632 0
-4.3397393 -3.8355286 -0.14067854 0
-8.6940346 -6.6906705 -0.14077713 0
-0.74718684 -1.5073227 -0.092461072 0
-0.83708185 -1.5695665 -0.091023482 0
-0.95539266 -1.6514854 -0.090210386 0
-1.1125087 -1.7602733 -0.089362316 0
-1.3458104 -1.9218127 -0.090481602 0
-1.6836978 -2.1557674 -0.0902927 0
-2.8413393 -2.957324 -0.14071707 0
-4.2761321 -3.9507818 -0.14122146 0
-8.5505362 -6.9103999 -0.14086536 0
-0.72650528 -1.5206494 -0.09052033 0
-0.82417971 -1.5919915 -0.09149126 0
-0.93836606 -1.6753942 -0.09020745 0
-1.0948787 -1.7897124 -0.089741208 0
-1.3204627 -1.9544808 -0.090280347 0
-1.6506442 -2.1956482 -0.089936011 0
-2.7895191 -3.0274918 -0.140608 0
-4.187973 -4.048934 -0.14052527 0
-8.4033337 -7.1278682 -0.1410069 0
-0.70719469 -1.5344684 -0.088998698 0
-0.80757725 -1.6117469 -0.091221921 0
-0.92331064 -1.700843 -0.09073732 0
-1.0802152 -1.8216343 -0.090784185 0
-1.2984021 -1.989603 -0.090680443 0
-1.6311415 -2.2457588 -0.091286026 0
-2.7305717 -3.0921431 -0.14002275 0
-4.1130681 -4.1564426 -0.14073832 0
-8.2382116 -7.33214 -0.14078495 0
-0.70458037 -1.561379 -0.092109211 0
-0.79256588 -1.6327205 -0.091452576 0
-0.9096458 -1.7276527 -0.091706924 0
-1.0548979 -1.8454279 -0.090065502 0
-1.2740314 -2.0231085 -0.090873323 0
-1.6031178 -2.2899425 -0.09179046 0
-2.6857352 -3.1677637 -0.14084089 0
-4.0381975 -4.2643843 -0.14111888 0
-8.0687313 -7.5324721 -0.14058076 0
-0.68274677 -1.5728748 -0.090104155 0
-0.76953155 -1.6469491 -0.089831226 0
-0.88669604 -1.7469535 -0.09083607 0
-1.0403475 -1.878101 -0.091430329 0
-1.2515391 -2.0583613 -0.091487624 0
-1.5668223 -2.3274677 -0.091426201 0
-2.633656 -3.2380517 -0.14118475 0
-3.9497683 -4.3614044 -0.14084285 0
-7.909698 -7.7413583 -0.14084445 0
-0.66565543 -1.5880096 -0.089490078 0
-0.75508046 -1.6683246 -0.090435676 0
-0.86441475 -1.7665205 -0.090199374 0
-1.0151963 -1.9019413 -0.090978079 0
-1.2244154 -2.0898464 -0.091526695 0
-1.5225347 -2.357595 -0.090168469 0
-2.5688365 -3.2973056 -0.14050421 0
-3.8617823 -4.4585333 -0.14073983 0
-7.7360091 -7.938076 -0.14081915 0
-0.65079415 -1.6050706 -0.089623757 0
-0.73820525 -1.687655 -0.090564735 0
-0.84928674 -1.7926027 -0.091275118 0
-0.99414283 -1.9294599 -0.091422178 0
-1.1934501 -2.1177616 -0.091075324 0
-1.4971501 -2.4046917 -0.091404296 0
-1.9793028 -2.8602202 -0.089484595 0
-3.7787223 -4.5602775 -0.14110503 0
-7.5520759 -8.1252699 -0.14062259 0
-0.63755512 -1.6238087 -0.090374462 0
-0.7214886 -1.7072148 -0.090867199 0
-0.82598186 -1.8110514 -0.090634264 0
-0.96724367 -1.9514254 -0.090855353 0
-1.1612817 -2.144244 -0.090529017 0
-1.4541037 -2.4352257 -0.090501927 0
-1.9347407 -2.912842 -0.089807235 0
-3.6814103 -4.6485343 -0.14071061 0
-7.375598 -8.3195057 -0.1408184 0
-0.62173647 -1.6401294 -0.090495639 0
-0.70099443 -1.7229673 -0.090281345 0
-0.79936796 -1.8257841 -0.089298941 0
-0.94137007 -1.9742001 -0.090593152 0
-1.1253935 -2.1665354 -0.089450814 0
-1.42457 -2.4792249 -0.091502644 0
-1.8772795 -2.9523823 -0.08896672 0
-3.588331 -4.7407174 -0.14073884 0
-7.1836967 -8.4984779 -0.14066356 0
-0.60204309 -1.6522543 -0.089524575 0
-0.68562698 -1.7441472 -0.091223948 0
-0.78169608 -1.8497663 -0.09019985 0
-0.91821474 -1.999856 -0.091009788 0
-1.1023375 -2.202282 -0.090667643 0
-1.3883792 -2.5167584 -0.091760032 0
-1.8439498 -3.0176165 -0.090712078 0
-3.4921103 -4.8296165 -0.14070937 0
-6.9968972 -8.682807 -0.14083466 0
-0.5904398 -1.6734071 -0.091252364 0
-0.66847646 -1.7636756 -0.09183272 0
-0.76111925 -1.8708396 -0.09054739 0
-0.89448494 -2.0251095 -0.091452532 0
-1.0781672 -2.2375829 -0.091880329 0
-1.3406675 -2.5412288 -0.090514071 0
-1.7974555 -3.0696156 -0.091275372 0
-3.3940399 -4.9164553 -0.14070489 0
-6.7997069 -8.8559408 -0.14080451 0
-0.57385314 -1.6891614 -0.091541223 0
-0.64873075 -1.7803271 -0.091834448 0
-0.73868865 -1.8898534 -0.090561442 0
-0.8629424 -2.041136 -0.09031824 0
-1.0396504 -2.2562833 -0.090650715 0
-1.3025324 -2.5763497 -0.090727143 0
-1.7288556 -3.0954106 -0.089563839 0
-3.290488 -4.9967427 -0.1404566 0
-6.6041279 -9.0311956 -0.14099023 0
-0.54835242 -1.6936214 -0.088893913 0
-0.62360388 -1.7901065 -0.090314947 0
-0.7131139 -1.9048734 -0.089862011 0
-0.84033334 -2.0679901 -0.091279142 0
-1.0053045 -2.2795107 -0.090261646 0
-1.2572733 -2.6025772 -0.089998461 0
-1.681586 -3.1466177 -0.090293683 0
-3.1973643 -5.0900998 -0.14114061 0
-6.3938913 -9.1885853 -0.14079255 0
-0.6900326 -1.9229329 -0.089930274 0
-0.81150013 -2.0870514 -0.09096051 0
-0.97055888 -2.3019605 -0.089893915 0
-1.2192844 -2.6380212 -0.090487428 0
-1.6249738 -3.1861606 -0.090100355 0
-3.0870845 -5.1616631 -0.1406872 0
-6.1877222 -9.3510284 -0.14089973 0
-0.66270435 -1.9350095 -0.088914119 0
-0.77996546 -2.102102 -0.090085037 0
-0.94100088 -2.3315716 -0.090681531 0
-1.1755204 -2.6657531 -0.090198763 0
-1.5698526 -3.2276618 -0.090200834 0
-2.9813461 -5.238987 -0.14072916 0
-5.9715042 -9.4998503 -0.14076728 0
-0.74627912 -2.1133881 -0.088724263 0
-0.90804487 -2.3567328 -0.090937175 0
-1.1427364 -2.70978 -0.091866158 0
-1.5165329 -3.2720835 -0.090662606 0
-2.8760188 -5.317162 -0.14096847 0
-5.755693 -9.649065 -0.14080168 0
-0.87100327 -2.3756549 -0.090443172 0
-1.0875603 -2.7199605 -0.089867108 0
-1.4592489 -3.3109107 -0.090767138 0
-2.7574615 -5.3749471 -0.14023004 0
-5.539063 -9.7974329 -0.14096315 0
-1.0447543 -2.7489052 -0.090087645 0
-1.4042716 -3.3538532 -0.091323294 0
-2.6504993 -5.450839 -0.14064652 0
-5.3123846 -9.9299059 -0.14084134 0
-1.0039251 -2.781687 -0.090832122 0
-1.3380522 -3.3776548 -0.090449564 0
-2.5366697 -5.5155754 -0.1406069 0
-5.0838099 -10.058797 -0.14077941 0
-1.2803708 -3.4163725 -0.090899639 0
-1.9213432 -4.6304803 -0.09071698 0
-4.8535376 -10.184543 -0.14078832 0
-1.8336425 -4.6874623 -0.091217913 0
-4.626677 -10.317585 -0.14113832 0
-4.3870082 -10.425282 -0.14098206 0
-4.1480117 -10.534095 -0.14101005 0
-0.205685 -1.8585465 -0.088950016 0
-0.13946728 -1.8724076 -0.089105241 0
-0.15903322 -1.995441 -0.090920098 0
-0.11844288 -1.8854418 -0.091200717 0
-0.095349021 -1.8840349 -0.090316795 0
-0.10829929 -2.0043294 -0.091317512 0
-0.12325917 -2.143291 -0.089786731 0
-0.14530072 -2.3480341 -0.091083236 0
-0.1747604 -2.6216838 -0.090914942 0
-0.21767642 -3.0203288 -0.089702643 0
-0.29300895 -3.7200892 -0.09104114 0
-0.55559903 -6.159277 -0.14110716 0
-1.1110058 -11.318425 -0.1405742 0
-0.072327673 -1.8811258 -0.089238741 0
-0.082412973 -2.0038292 -0.09076301 0
-0.094108105 -2.1461191 -0.089796759 0
-0.10927264 -2.3306196 -0.088168226 0
-0.13278194 -2.6166472 -0.089865305 0
-0.16575198 -3.0177798 -0.089007802 0
-0.22383045 -3.724396 -0.090883918 0
-0.42485219 -6.1701422 -0.1410356 0
-0.85055989 -11.349547 -0.14072242 0
-0.050763808 -1.8996052 -0.09283977 0
-0.057217654 -2.0131583 -0.092186965 0
-0.064181089 -2.1356773 -0.087743573 0
-0.076297425 -2.3488598 -0.090404324 0
-0.08140365 -2.4387021 -0.068700306 0
-0.080313511 -2.4195216 -0.03274313 0
-0.080985725 -2.431349 -5.6529002e-06 0
-0.081139237 -2.4340498 0.033601668 0
-0.080339327 -2.4199758 0.067652687 0
-0.081172675 -2.4346383 0.10101172 0
-0.027542401 -1.8931136 -0.09124326 0
-0.031232715 -2.0100763 -0.091390945 0
-0.035827551 -2.1557074 -0.090826891 0
-0.0406988 -2.3100991 -0.084741123 0
-0.040602323 -2.3070414 -0.053115923 0
-0.040914133 -2.3169241 -0.023012875 0
-0.040502083 -2.3038645 0.0090236831 0
-0.040620286 -2.3076108 0.039565999 0
-0.040368713 -2.2996373 0.070489131 0
-0.040638216 -2.3081791 0.10100807 0
-0.0046806666 -1.8858774 -0.089613311 0
-0.0055050766 -2.0165873 -0.092525475 0
-0.0063516512 -2.1508114 -0.089930646 0
-0.006715497 -2.2084992 -0.070373841 0
-0.0067006042 -2.2061379 -0.04124919 0
-0.0066998587 -2.2060196 -0.012601605 0
-0.006695115 -2.2052677 0.015960569 0
-0.0067019695 -2.2063544 0.04430937 0
-0.0066769444 -2.2023866 0.072764851 0
-0.0067069195 -2.2071393 0.10100517 0
0.018231485 -1.900983 -0.092855103 0
0.020042114 -1.9966376 -0.088798054 0
0.023010245 -2.1534424 -0.090393506 0
0.023934968 -2.2022951 -0.069529064 0
0.023945348 -2.2028434 -0.040886719 0
0.023993341 -2.2053788 -0.012559874 0
0.023941793 -2.2026556 0.016129674 0
0.023881199 -2.1994543 0.044621632 0
0.023971114 -2.2042046 0.072718084 0
0.023873579 -2.1990519 0.10100494 0
0.040946141 -1.8938599 -0.091493927 0
0.045937762 -2.0068207 -0.090869106 0
0.052203059 -2.1486049 -0.089750148 0
0.054645538 -2.2038784 -0.069887646 0
0.054107558 -2.191704 -0.039696563 0
0.05425949 -2.1951423 -0.011693871 0
0.054517746 -2.2009866 0.016178885 0
0.054276202 -2.1955204 0.044760067 0
0.053949989 -2.1881382 0.073069498 0
0.054065373 -2.1907494 0.10100473 0
0.063713968 -1.8919511 -0.091363437 0
0.071224295 -2.0000048 -0.089857556 0
0.081451692 -2.1471498 -0.089784168 0
0.085058242 -2.1990385 -0.069451056 0
0.084293574 -2.1880372 -0.039468873 0
0.08453992 -2.1915812 -0.01152241 0
0.084581412 -2.1921782 0.016674446 0
0.08519049 -2.2009413 0.044426408 0
0.084791504 -2.1952009 0.072864838 0
0.084734783 -2.1943848 0.10100488 0
0.086237356 -1.8876405 -0.090842418 0
0.096940979 -2.0004158 -0.090331562 0
0.11054158 -2.1437144 -0.089613073 0
0.11700498 -2.2118139 -0.071608357 0
0.11509205 -2.191659 -0.040185664 0
0.11628093 -2.204185 -0.012937715 0
0.11683469 -2.2100198 0.01524652 0
0.11667093 -2.2082942 0.043965153 0
0.11648305 -2.2063148 0.072546922 0
0.11585701 -2.1997187 0.10100511 0
0.10973246 -1.892311 -0.09236417 0
0.12307948 -2.0031312 -0.091367103 0
0.13890783 -2.1345539 -0.088615112 0
0.14665398 -2.1988699 -0.070245631 0
0.14666574 -2.1989675 -0.04143003 0
0.14678223 -2.199935 -0.01284801 0
0.14833476 -2.2128255 0.014815757 0
0.14775158 -2.2079833 0.043824654 0
0.1461273 -2.1944969 0.072746351 0
0.14660597 -2.1984713 0.10100517 0
0.13124241 -1.8807969 -0.090541981 0
0.14902866 -2.0025191 -0.091898479 0
0.16910855 -2.1399381 -0.090148009 0
0.17810622 -2.2015145 -0.071197964 0
0.17715126 -2.1949792 -0.041438628 0
0.17917082 -2.2088003 -0.014067693 0
0.17862311 -2.2050519 0.015074762 0
0.1779872 -2.2007 0.043974832 0
0.17719635 -2.1952879 0.0726327 0
0.17792259 -2.2002578 0.10100534 0
0.15421548 -1.8802556 -0.091195337 0
0.17369151 -1.9934915 -0.090948753 0
0.19596291 -2.1229801 -0.088088579 0
0.20783335 -2.1919963 -0.070533015 0
0.20947623 -2.2015483 -0.042790297 0
0.20823416 -2.1943266 -0.013159482 0
0.20971483 -2.2029355 0.014879482 0
0.20831549 -2.1947997 0.044024367 0
0.20863441 -2.1966538 0.07248652 0
0.20788777 -2.1923127 0.10100525 0
0.174095 -1.863225 -0.088404201 0
0.19833364 -1.9855841 -0.090328582 0
0.2251814 -2.1211145 -0.088660769 0
0.24126266 -2.2022946 -0.072810985 0
0.23894469 -2.1905932 -0.042157833 0
0.24205375 -2.2062881 -0.01483175 0
0.24225226 -2.2072902 0.014166253 0
0.23877588 -2.1897409 0.043997951 0
0.24093926 -2.2006619 0.072258219 0
0.24092208 -2.2005754 0.10100565 0
0.1968624 -1.8620197 -0.089153804 0
0.22373536 -1.9817449 -0.090609916 0
0.25360206 -2.1148081 -0.088612042 0
0.27266851 -2.1997535 -0.073373832 0
0.27270785 -2.1999288 -0.044041056 0
0.27260974 -2.1994917 -0.014800547 0
0.27240571 -2.1985826 0.014326179 0
0.27281466 -2.2004046 0.043184645 0
0.27235785 -2.1983695 0.072159387 0
0.27529386 -2.2114501 0.10100616 0
0.22305623 -1.8736697 -0.092851155 0
0.24665681 -1.9676522 -0.089025982 0
0.28102577 -2.1045167 -0.088008963 0
0.30465168 -2.1986001 -0.074255832 0
0.30614632 -2.2045519 -0.045470778 0
0.30562907 -2.2024922 -0.01578596 0
0.30462268 -2.1984847 0.013811866 0
0.30692226 -2.2076421 0.042489525 0
0.30484083 -2.1993532 0.071962424 0
0.30342996 -2.1937349 0.10100585 0
0.24326657 -1.8604761 -0.09123864 0
0.27331442 -1.968516 -0.090467595 0
0.30987945 -2.0999889 -0.088502489 0
0.33839548 -2.2025208 -0.076001562 0
0.33517355 -2.1909361 -0.044800017 0
0.33637938 -2.1952717 -0.01586855 0
0.33642 -2.1954176 0.013450542 0
0.33819106 -2.2017858 0.042380754 0
0.33901882 -2.204762 0.071637578 0
0.33757797 -2.1995814 0.10100626 0
0.26300356 -1.8469933 -0.089662321 0
0.29765117 -1.9604055 -0.090284966 0
0.34025931 -2.0998747 -0.089883037 0
0.37105006 -2.2006621 -0.077036209 0
0.37015158 -2.197721 -0.046706412 0
0.37251347 -2.2054522 -0.017725585 0
0.37097818 -2.2004268 0.012437629 0
0.37337938 -2.2082868 0.041631334 0
0.37157816 -2.2023907 0.071478464 0
0.37383509 -2.2097783 0.10100683 0
0.28378034 -1.8377676 -0.089137696 0
0.32502422 -1.9615076 -0.092051305 0
0.36998901 -2.096411 -0.090827249 0
0.43082121 -2.2789199 -0.090069287 0
0.51667434 -2.5364966 -0.089636587 0
0.6516282 -2.941385 -0.091093473 0
0.86457962 -3.5802824 -0.089960985 0
1.3018243 -4.8921041 -0.090550683 0
3.2898719 -10.856647 -0.14085832 0
0.306748 -1.8349247 -0.09016902 0
0.34458229 -1.9395573 -0.089354523 0
0.3993184 -2.0909326 -0.091558598 0
0.46402428 -2.2698798 -0.090400465 0
0.55485803 -2.521085 -0.089399554 0
0.6992563 -2.9204257 -0.090704255 0
0.93434882 -3.5705857 -0.09092129 0
1.4032415 -4.867331 -0.091010623 0
3.539263 -10.774604 -0.14095919 0
0.32948187 -1.8307701 -0.091042899 0
0.37094194 -1.9369708 -0.090645663 0
0.42537367 -2.0763986 -0.090829469 0
0.49456865 -2.2536428 -0.089774929 0
0.59504586 -2.5110168 -0.089950897 0
0.74726647 -2.9009326 -0.090577997 0
0.99924815 -3.5463879 -0.090934329 0
1.4988326 -4.8260818 -0.090779014 0
3.7799156 -10.669114 -0.14063223 0
0.35159904 -1.8245733 -0.091586821 0
0.3976998 -1.9343975 -0.092088424 0
0.45317006 -2.0665421 -0.091042943 0
0.52919531 -2.2476544 -0.090821721 0
0.63581449 -2.5016496 -0.090724848 0
0.79534519 -2.8816936 -0.090598188 0
1.0616562 -3.5161171 -0.090610631 0
1.5953581 -4.7875357 -0.090802647 0
4.0248189 -10.575153 -0.14074486 0
0.37336999 -1.8172563 -0.092005335 0
0.42009521 -1.9211426 -0.091480367 0
0.47870415 -2.0514505 -0.09044113 0
0.55687082 -2.2252419 -0.089483492 0
0.66936135 -2.475347 -0.089468546 0
0.84370875 -2.8629813 -0.090796016 0
1.1265382 -3.4918084 -0.090860374 0
1.6906643 -4.7460546 -0.090800412 0
4.2673216 -10.474852 -0.14085385 0
0.38959423 -1.7981319 -0.089773305 0
0.444646 -1.912712 -0.091990419 0
0.50261152 -2.0333562 -0.089401357 0
0.59003913 -2.2153203 -0.090184756 0
0.70679009 -2.4583156 -0.089508183 0
0.88982373 -2.8392658 -0.090603821 0
1.1845113 -3.4526029 -0.090084009 0
1.7877328 -4.7080951 -0.091103531 0
4.5086694 -10.371214 -0.14103511 0
0.4116706 -1.7915703 -0.090609349 0
0.46691501 -1.899488 -0.09162315 0
0.53932315 -2.0409341 -0.093198754 0
0.62059623 -2.1996977 -0.090126403 0
0.74091762 -2.4347405 -0.088812448 0
0.93287605 -2.8097231 -0.089919381 0
1.2496852 -3.4285963 -0.09060546 0
1.8785138 -4.6569867 -0.090850241 0
4.7428794 -10.252403 -0.14098051 0
0.43401363 -1.7850534 -0.091601707 0
0.48454538 -1.8779114 -0.089579456 0
0.55939662 -2.0154593 -0.091036327 0
0.65060204 -2.1830602 -0.090027429 0
0.78031301 -2.4214194 -0.089585297 0
0.98544931 -2.7983816 -0.091274343 0
1.3110511 -3.3967133 -0.090637259 0
1.9701122 -4.6078157 -0.090816788 0
4.972106 -10.124333 -0.14083551 0
0.45101991 -1.7687927 -0.090354525 0
0.50709403 -1.8659158 -0.089685641 0
0.58414882 -1.9993783 -0.090720378 0
0.67943138 -2.1644123 -0.08972282 0
0.81515622 -2.3994939 -0.089341588 0
1.0287219 -2.7693996 -0.090889938 0
1.3715076 -3.3631208 -0.090655707 0
2.5990043 -5.489203 -0.14093 0
5.1971254 -9.9892721 -0.14065491 0
0.46682552 -1.7511083 -0.08883936 0
0.53306979 -1.8594389 -0.091136597 0
0.61512333 -1.9936227 -0.092508115 0
0.70982289 -2.1484866 -0.089980893 0
0.84839386 -2.3750947 -0.088874735 0
1.0744293 -2.7447348 -0.091090463 0
1.425114 -3.3182166 -0.089871608 0
2.7161627 -5.4294939 -0.14132696 0
5.4286485 -9.8652763 -0.1409267 0
0.49134341 -1.7475309 -0.090970583 0
0.55664945 -1.8485111 -0.091758944 0
0.63102221 -1.9635109 -0.0897099 0
0.73829097 -2.1293764 -0.089837573 0
0.88458449 -2.3555841 -0.089196526 0
1.1119664 -2.7071757 -0.089988239 0
1.4867069 -3.2866225 -0.090294532 0
2.8133979 -5.3380327 -0.14013268 0
5.649951 -9.7240829 -0.14088735 0
0.50724918 -1.730424 -0.08981397 0
0.58391607 -1.8426561 -0.093683846 0
0.65999371 -1.9540256 -0.091047771 0
0.76679724 -2.1103745 -0.089831479 0
0.92358887 -2.3399003 -0.090193741 0
1.1587816 -2.6841972 -0.090621211 0
1.5484411 -3.2546163 -0.090820439 0
2.9236279 -5.2677407 -0.14024843 0
5.8648295 -9.5733423 -0.1407344 0
0.52799171 -1.7204725 -0.09061528 0
0.59668458 -1.8157765 -0.090920962 0
0.68969661 -1.9448206 -0.092613779 0
0.79739732 -2.0942438 -0.090446256 0
0.95585293 -2.3140838 -0.08989004 0
1.202619 -2.6564453 -0.090851359 0
1.6044635 -3.2139614 -0.090743773 0
3.0413091 -5.2074304 -0.14109735 0
6.078743 -9.4215431 -0.14070246 0
0.54690778 -1.7077788 -0.090838544 0
0.61468267 -1.7969754 -0.090091221 0
0.71483344 -1.9287807 -0.092952587 0
0.82768136 -2.0772963 -0.091063805 0
0.99034196 -2.291369 -0.090154164 0
1.2389499 -2.6185544 -0.090025894 0
1.6615108 -3.1746738 -0.090908684 0
3.1448956 -5.1269112 -0.14095318 0
6.2979321 -9.2765265 -0.14102413 0
0.56686014 -1.6962719 -0.091518186 0
0.64067411 -1.7884901 -0.091841854 0
0.73014796 -1.9002726 -0.090805836 0
0.86186296 -2.0648284 -0.092636563 0
1.0201099 -2.2625313 -0.089636125 0
1.2847991 -2.5932162 -0.090792961 0
1.7206099 -3.1376886 -0.091410808 0
3.2503314 -5.0488191 -0.1411052 0
6.4970856 -9.105094 -0.1407288 0
0.57401621 -1.669307 -0.088054128 0
0.65656608 -1.7672669 -0.090652563 0
0.74901897 -1.8769785 -0.089815803 0
0.87434852 -2.0257039 -0.08950109 0
1.0548946 -2.2399533 -0.09017735 0
1.3235781 -2.5587935 -0.090607442 0
1.7693452 -3.087774 -0.090876676 0
3.346729 -4.9596162 -0.14074443 0
6.6999598 -8.9388123 -0.14073505 0
0.60079789 -1.6656908 -0.091195889 0
0.67483276 -1.7491771 -0.09032505 0
0.77089804 -1.8575063 -0.089746453 0
0.9064703 -2.010386 -0.090824939 0
1.0878377 -2.2149069 -0.090480901 0
1.3660522 -2.5286388 -0.091070987 0
1.8232973 -3.0442569 -0.09104193 0
3.4508021 -4.8795323 -0.14109267 0
6.9021001 -8.771431 -0.14086466 0
0.61605728 -1.6486093 -0.090692393 0
0.69107568 -1.7290226 -0.089575358 0
0.79979372 -1.8455591 -0.091489546 0
0.93137127 -1.9865991 -0.090706699 0
1.113062 -2.1813562 -0.08956375 0
1.4021807 -2.4912667 -0.090759538 0
1.8611288 -2.9832203 -0.089664854 0
3.5398021 -4.7826157 -0.14054286 0
7.0980582 -8.5967646 -0.14092614 0
0.63076305 -1.6311134 -0.090166263 0
0.71234494 -1.714254 -0.090335019 0
0.81330055 -1.8171384 -0.089649059 0
0.95917732 -1.9658022 -0.091296472 0
1.1498393 -2.1601067 -0.090740912 0
1.4467169 -2.4626563 -0.091703899 0
1.9156647 -2.9405634 -0.090145893 0
3.6414201 -4.6992898 -0.14101051 0
7.2814579 -8.4088717 -0.14071752 0
0.64115727 -1.6095937 -0.08850906 0
0.73893374 -1.7043337 -0.092570506 0
0.83949786 -1.8017746 -0.090923406 0
0.98387176 -1.9416648 -0.091367148 0
1.1745032 -2.1263759 -0.090006776 0
1.470219 -2.4129081 -0.089986734 0
1.9662483 -2.8935325 -0.090336747 0
3.732013 -4.6044593 -0.14089024 0
7.4668913 -8.2233467 -0.14073525 0
0.66984445 -1.6054404 -0.092335515 0
0.74906904 -1.6784203 -0.090606086 0
0.85987371 -1.780491 -0.090955369 0
1.0015336 -1.9109849 -0.090210281 0
1.2043332 -2.0977991 -0.090247326 0
1.5089377 -2.3783939 -0.090401374 0
2.546355 -3.3340394 -0.14096877 0
3.8223619 -4.5094676 -0.14091066 0
7.6515388 -8.0368185 -0.14087757 0
0.67772186 -1.5818399 -0.090229087 0
0.76673114 -1.6597748 -0.090734489 0
0.8796916 -1.7586809 -0.090983473 0
1.035223 -1.8948612 -0.092218794 0
1.2323848 -2.0674922 -0.090319715 0
1.5311555 -2.3290904 -0.088869102 0
2.6037536 -3.2682376 -0.14088036 0
3.9121811 -4.4138722 -0.14104792 0
7.8244796 -7.8394074 -0.14080217 0
0.69258821 -1.5646855 -0.090265371 0
0.77541202 -1.6335913 -0.088776283 0
0.90369183 -1.7403146 -0.09202411 0
1.0509403 -1.862819 -0.090975322 0
1.2526158 -2.0306044 -0.089319192 0
1.5626477 -2.2885375 -0.088647522 0
2.6622462 -3.2033565 -0.14104599 0
3.9915111 -4.3092475 -0.14069484 0
7.9950094 -7.6399865 -0.14080779 0
0.71073163 -1.5500909 -0.091307245 0
0.80250347 -1.6226023 -0.091436438 0
0.91664535 -1.7127889 -0.090828471 0
1.0708826 -1.8346559 -0.090659492 0
1.2720995 -1.9936429 -0.088367216 0
1.5939698 -2.2479613 -0.088533081 0
2.7214429 -3.1388087 -0.1414185 0
4.0684037 -4.2030787 -0.14036243 0
8.1643524 -7.4393983 -0.14092879 0
0.71664006 -1.5259937 -0.089177676 0
0.82654989 -1.6084187 -0.093395822 0
0.93849868 -1.6923728 -0.091627665 0
1.0891074 -1.8053192 -0.090173967 0
1.3163414 -1.9757295 -0.091187559 0
1.617087 -2.2012684 -0.087584175 0
2.7755237 -3.0700185 -0.14148074 0
4.1507101 -4.101316 -0.14050873 0
8.3140116 -7.2235126 -0.14062409 0
0.73858136 -1.5139022 -0.091428123 0
0.8299619 -1.578895 -0.090634651 0
0.95466185 -1.6675856 -0.091369964 0
1.1171213 -1.7831318 -0.091514148 0
1.3253938 -1.9312619 -0.088976361 0
1.6789911 -2.1827517 -0.09123107 0
2.8173475 -2.9923873 -0.14064075 0
4.2386537 -4.0032659 -0.14112258 0
8.4818926 -7.0211926 -0.14100161 0
0.75206673 -1.4954506 -0.091552131 0
0.84140331 -1.5556542 -0.089914449 0
0.95398062 -1.6315196 -0.087903343 0
1.1329232 -1.7521083 -0.09085796 0
1.3428322 -1.8935651 -0.088143893 0
1.6929742 -2.1295245 -0.089475758 0
2.8606813 -2.9164376 -0.14010882 0
4.3087835 -3.8923082 -0.14086622 0
8.6239901 -6.8003082 -0.14079432 0
0.75994843 -1.4733728 -0.090379767 0
0.8655777 -1.5407442 -0.092182435 0
0.98481417 -1.6167942 -0.0908143 0
1.1507995 -1.722661 -0.090689607 0
1.3649924 -1.8592752 -0.088112243 0
1.7372217 -2.0966864 -0.091249011 0
2.9239154 -2.8535702 -0.14139579 0
4.3793406 -3.7818532 -0.14079347 0
8.7726946 -6.5839734 -0.1409276 0
0.78063685 -1.4593238 -0.092543148 0
0.86357927 -1.5093269 -0.088743411 0
1.0060301 -1.5952054 -0.091907509 0
1.1584713 -1.687107 -0.088972218 0
1.4050319 -1.8357497 -0.090640105 0
1.7532026 -2.0456498 -0.090005748 0
2.9671743 -2.7775109 -0.14116329 0
4.4394889 -3.6651182 -0.14030875 0
8.9005804 -6.3545542 -0.14064303 0
0.78942436 -1.4378959 -0.091852613 0
0.88380957 -1.4915981 -0.090343527 0
1.0191797 -1.5686195 -0.091563709 0
1.1925521 -1.667263 -0.091695495 0
1.4101765 -1.7910845 -0.088520192 0
1.7896802 -2.0070105 -0.091120742 0
3.0091276 -2.7008381 -0.14098467 0
4.5133286 -3.5566814 -0.14072326 0
9.0406284 -6.1325736 -0.14084394 0
0.78872854 -1.4115541 -0.089015551 0
0.90155971 -1.4720353 -0.091488458 0
1.0387725 -1.5455858 -0.092551999 0
1.2040346 -1.6341716 -0.090859331 0
1.4425669 -1.7620325 -0.090192191 0
1.8076749 -1.9577422 -0.09036734 0
3.0576355 -2.6277616 -0.14148292 0
4.580894 -3.4442775 -0.1409464 0
9.1683588 -5.9033065 -0.14086607 0
0.81432956 -1.3992032 -0.092633076 0
0.89968699 -1.4422212 -0.088584922 0
1.0413274 -1.5136043 -0.090499811 0
1.2127931 -1.6000189 -0.089737348 0
1.4648321 -1.7270402 -0.090614565 0
1.8384187 -1.9153185 -0.091086887 0
3.0981638 -2.5501988 -0.14149554 0
4.647202 -3.3308754 -0.14125004 0
9.2859297 -5.6686778 -0.14077502 0
0.80791193 -1.3707504 -0.08875338 0
0.91881174 -1.4231753 -0.090248086 0
1.0452398 -1.4829408 -0.08886639 0
1.2273097 -1.5690094 -0.089658566 0
1.4769598 -1.6870248 -0.089836277 0
1.8640932 -1.8700317 -0.091385759 0
3.1275153 -2.4672806 -0.14079605 0
4.6980176 -3.2096932 -0.14090061 0
9.4120216 -5.4381113 -0.14105746 0
0.82040662 -1.351652 -0.089480169 0
0.9380843 -1.40369 -0.092022799 0
1.0649865 -1.4598072 -0.090236418 0
1.2425691 -1.5383356 -0.089815758 0
1.5040107 -1.6539471 -0.091103487 0
1.8830954 -1.8215815 -0.091117702 0
3.1673419 -2.3894856 -0.14106596 0
4.7485862 -3.0887246 -0.14069909 0
9.5026236 -5.1909981 -0.14058335 0
0.83929366 -1.3349874 -0.091780625 0
0.94518811 -1.3786547 -0.091400675 0
1.0722966 -1.43107 -0.089485742 0
1.2553706 -1.5065637 -0.089716025 0
1.5234901 -1.6171271 -0.091506504 0
1.9015132 -1.7730113 -0.09091755 0
3.1979547 -2.3076205 -0.14078559 0
4.7994552 -2.9680259 -0.14066935 0
9.6160946 -4.9542475 -0.14084698 0
0.84290755 -1.3118707 -0.090678565 0
0.95158833 -1.3535107 -0.090770744 0
1.084699 -1.4045107 -0.089766808 0
1.2658823 -1.4739293 -0.089393921 0
1.5222992 -1.5721729 -0.08943551 0
1.9204994 -1.7247393 -0.090899281 0
3.2280436 -2.2257118 -0.14062418 0
4.8500161 -2.8471546 -0.14077722 0
9.7071285 -4.7081084 -0.14069895 0
0.84038663 -1.2868416 -0.08833497 0
0.964261 -1.3307518 -0.091527246 0
1.1017501 -1.379488 -0.090973429 0
1.2763836 -1.4413909 -0.089196526 0
1.5525048 -1.5392684 -0.091417424 0
1.9326198 -1.6740091 -0.090322472 0
3.2622566 -2.1453297 -0.14092416 0
4.9004865 -2.7260385 -0.141031 0
9.8034763 -4.4640169 -0.14083731 0
0.85948181 -1.2694361 -0.090985648 0
0.9647631 -1.3037909 -0.089980565 0
1.0980262 -1.3472767 -0.088688172 0
1.3001292 -1.4132259 -0.091080554 0
1.5654613 -1.4998077 -0.091365047 0
1.9578236 -1.6278414 -0.091161229 0
3.2888827 -2.0621858 -0.14081357 0
4.9329662 -2.5986745 -0.14055207 0
9.8907871 -4.216485 -0.14090483 0
0.87163818 -1.2492869 -0.092175014 0
0.98518246 -1.2831931 -0.092494898 0
1.1247814 -1.3248796 -0.091787972 0
1.2984648 -1.3767444 -0.089328311 0
1.5567639 -1.4538767 -0.088793851 0
1.9628514 -1.5751412 -0.090142228 0
3.3127964 -1.9782571 -0.14065965 0
4.9766564 -2.4751132 -0.14077818 0
9.9672098 -3.9653745 -0.14085984 0
0.87290996 -1.2258768 -0.09107136 0
0.97353584 -1.2531799 -0.088835888 0
1.1264755 -1.2946774 -0.090695478 0
1.3180403 -1.3466551 -0.090815462 0
1.5737177 -1.4160287 -0.089487396 0
1.9561789 -1.5198029 -0.08812771 0
3.3387978 -1.8949523 -0.14081199 0
5.0120854 -2.3489697 -0.14075524 0
10.03542 -3.7119637 -0.14077057 0
0.87346607 -1.2025465 -0.089947604 0
0.97252572 -1.2267586 -0.087409072 0
1.1151886 -1.2616282 -0.087542839 0
1.3252486 -1.312971 -0.090614505 0
1.5765158 -1.3743856 -0.088588871 0
1.9789866 -1.4727575 -0.089092888 0
3.365267 -1.8115916 -0.1411489 0
5.0529251 -2.2240884 -0.14114481 0
10.096787 -3.4569075 -0.14067161 0
0.88682646 -1.1822636 -0.091743998 0
0.99247926 -1.2052786 -0.090160139 0
1.1463258 -1.2387921 -0.091684185 0
1.3313814 -1.279104 -0.090382613 0
1.6020476 -1.338065 -0.09054064 0
1.978974 -1.4201735 -0.087986551 0
3.3795917 -1.7252797 -0.14076598 0
5.0792937 -2.0955374 -0.1409934 0
10.170883 -3.2046731 -0.14102972 0
0.88405776 -1.1584424 -0.090152062 0
0.99784136 -1.1802369 -0.090203889 0
1.1317141 -1.2058796 -0.088246666 0
1.3433325 -1.2464139 -0.091106974 0
1.6082289 -1.2971535 -0.090289675 0
2.5475585 -1.4770771 -0.14104988 0
3.3941247 -1.6392324 -0.14055522 0
5.0964627 -1.9653062 -0.14056081 0
10.213875 -2.9455192 -0.14080088 0
0.88422996 -1.1354761 -0.089330219 0
1.0131556 -1.156814 -0.092268385 0
1.1450073 -1.1786362 -0.089610748 0
1.3477961 -1.2121989 -0.090879567 0
1.6237018 -1.2578628 -0.091263093 0
2.5560474 -1.4121712 -0.14076532 0
3.3987098 -1.5516366 -0.13979465 0
5.126019 -1.8375158 -0.14087 0
10.260661 -2.6873276 -0.1408169 0
0.89676982 -1.1144198 -0.091290332 0
1.0193559 -1.131543 -0.092705019 0
1.1567452 -1.1507339 -0.09082628 0
1.334471 -1.1755593 -0.088251524 0
1.6251817 -1.2161666 -0.090699024 0
2.5624006 -1.3470802 -0.14043517 0
3.4325552 -1.4686261 -0.14125854 0
5.1541238 -1.7091002 -0.14126182 0
10.302551 -2.4282482 -0.1408712 0
0.8957063 -1.0913295 -0.090448372 0
1.0123931 -1.1046365 -0.090766124 0
1.1592559 -1.1213851 -0.090628646 0
1.332985 -1.1411976 -0.087436639 0
1.6399173 -1.1762007 -0.09181986 0
2.5746832 -1.2828033 -0.14081761 0
3.4429259 -1.3818195 -0.14121416 0
5.1546841 -1.5770319 -0.14051394 0
10.336696 -2.1679988 -0.14089736 0
0.90519148 -1.0693591 -0.091983862 0
1.0227737 -1.0797708 -0.092239551 0
1.1373152 -1.0899132 -0.086519502 0
1.1280258 -1.0890907 -0.058039147 0
1.6253766 -1.1331302 -0.0896217 0
2.5874581 -1.2183207 -0.14139751 0
3.4534545 -1.2950031 -0.14133491 0
5.1701322 -1.4470117 -0.14061956 0
10.360194 -1.906582 -0.14082849 0
0.90520108 -1.0464106 -0.091616951 0
1.008373 -1.0529276 -0.089152314 0
1.1307226 -1.0606562 -0.085075341 0
1.1351532 -1.0609361 -0.058738742 0
1.6396755 -1.0928057 -0.090931751 0
2.5798717 -1.152196 -0.14022455 0
3.4553998 -1.2075013 -0.14100786 0
5.178659 -1.3163561 -0.14055534 0
10.375185 -1.6446099 -0.14071536 0
0.90474206 -1.0235168 -0.091273986 0
1.0304127 -1.0282757 -0.093064316 0
1.1273413 -1.0319463 -0.084282227 0
1.1321284 -1.0321275 -0.058109898 0
1.6392908 -1.0513331 -0.090642311 0
2.5796804 -1.0869442 -0.13989945 0
3.4439876 -1.1196743 -0.13990124 0
5.1827426 -1.1855185 -0.14043793 0
10.392475 -1.3828036 -0.14080977 0
0.90461546 -1.000694 -0.091124676 0
1.0175974 -1.0021195 -0.090526812 0
1.1303755 -1.0035425 -0.084662996 0
1.1322877 -1.0035667 -0.058031011 0
1.1243942 -1.0034671 -0.030337846 0
1.1342986 -1.003592 -0.0048229005 0
1.1304958 -1.0035441 0.021999912 0
1.1402349 -1.003667 0.047928292 0
1.1303169 -1.0035418 0.074710585 0
1.1273444 -1.0035043 0.10100256 0
1.1314844 -1.0035566 0.12732194 0
1.1334444 -1.0035813 0.15376116 0
1.1359105 -1.0036124 0.18038458 0
1.1388564 -1.0036496 0.20725469 0
1.1251526 -1.0034766 0.23243237 0
1.1217617 -1.0034338 0.25855768 0
1.1338328 -1.0035862 0.28723848 0
1.1357067 -1.0036098 0.31478244 0
0.89811283 -0.97797269 -0.089742355 0
1.025257 -0.97636849 -0.091969617 0
1.1298425 -0.97504884 -0.084575407 0
1.1287202 -0.97506303 -0.057529602 0
1.6587528 -0.96837533 -0.092795081 0
2.587616 -0.95665538 -0.14048685 0
3.4632528 -0.94560707 -0.14109477 0
5.1852832 -0.92387933 -0.14040253 0
10.398017 -0.85810769 -0.14078471 0
0.91055673 -0.95484775 -0.092510857 0
1.0209185 -0.95066851 -0.09127479 0
1.1293133 -0.94656378 -0.084606566 0
1.1317883 -0.94647002 -0.05806208 0
1.6343535 -0.92743862 -0.090064861 0
2.5846581 -0.89145195 -0.14036439 0
3.4618804 -0.8582328 -0.14115299 0
5.2031288 -0.7922942 -0.14138769 0
10.40976 -0.59512657 -0.14121197 0
0.90931016 -0.93191463 -0.092492126 0
1.0167875 -0.92512548 -0.090740375 0
1.1327333 -0.91780144 -0.08540646 0
1.1306448 -0.9179334 -0.058103893 0
1.6386355 -0.88584465 -0.090809964 0
2.5846684 -0.82608569 -0.14067316 0
3.4457474 -0.77169305 -0.14033172 0
5.1864419 -0.66173697 -0.1409184 0
10.372134 -0.33416745 -0.14064428 0
0.89327312 -0.91028094 -0.089440562 0
1.0184654 -0.89919543 -0.091424905 0
1.1594296 -0.88671327 -0.090168245 0
1.3463285 -0.87016374 -0.088838272 0
1.6256381 -0.84543139 -0.089652382 0
2.5843978 -0.760535 -0.14111075 0
3.4418783 -0.68460667 -0.14052247 0
5.1867881 -0.53009814 -0.141398 0
10.360956 -0.071935326 -0.14084627 0
0.89869303 -0.88691467 -0.091087364 0
1.0164564 -0.87348473 -0.091536395 0
1.1656547 -0.85646987 -0.091687106 0
1.3413991 -0.83642757 -0.088626765 0
1.624173 -0.80417949 -0.089967854 0
2.5779955 -0.69540364 -0.14112878 0
3.4398239 -0.59711897 -0.14099589 0
5.1522355 -0.40183207 -0.14039922 0
10.331147 0.18878141 -0.14076753 0
0.89390641 -0.86456484 -0.090675779 0
1.0088987 -0.84850234 -0.09071628 0
1.1524148 -0.82845557 -0.090107672 0
1.3445891 -0.80161208 -0.08968728 0
1.6297863 -0.7617749 -0.091242395 0
2.565814 -0.63102758 -0.14075689 0
3.4315255 -0.51010239 -0.14118585 0
5.1456428 -0.27066919 -0.14086314 0
10.294791 0.44857958 -0.14068903 0
0.88928252 -0.8422724 -0.090418808 0
1.0083587 -0.8225646 -0.091352619 0
1.14508 -0.79993647 -0.089622863 0
1.332065 -0.76898944 -0.088638715 0
1.6155905 -0.72206438 -0.090302192 0
2.5467284 -0.56795585 -0.13988365 0
3.4112535 -0.42487207 -0.1406835 0
5.1197224 -0.14211097 -0.14057289 0
10.251717 0.70726258 -0.14060611 0
0.88359237 -0.8202315 -0.090051346 0
0.99790996 -0.7983346 -0.090217046 0
1.1484996 -0.76948994 -0.09105552 0
1.3264652 -0.73540157 -0.088693447 0
1.3464441 -0.73157471 -0.05913781 0
1.33804 -0.73318446 -0.026100611 0
1.3522249 -0.73046744 0.0047879089 0
1.3464742 -0.73156893 0.037192371 0
1.3334439 -0.73406482 0.069426678 0
1.3527834 -0.73036045 0.10100969 0
0.89202958 -0.79518765 -0.09287592 0
0.99301887 -0.77318847 -0.090264149 0
1.1388797 -0.74141467 -0.090431683 0
1.2153358 -0.7247597 -0.073691718 0
1.2007338 -0.72794056 -0.042537812 0
1.2092654 -0.72608203 -0.014456822 0
1.2027199 -0.72750789 0.014986815 0
1.2103323 -0.72584963 0.043348812 0
1.2054445 -0.72691441 0.072309181 0
1.2102005 -0.72587836 0.10100573 0
0.87429768 -0.77583492 -0.090129562 0
0.99818689 -0.74555397 -0.092384659 0
1.1342804 -0.71229005 -0.090772994 0
1.2030381 -0.69548434 -0.072934113 0
1.2127481 -0.693111 -0.044822622 0
1.2030002 -0.69549358 -0.014529897 0
1.2083151 -0.6941945 0.014081256 0
1.205319 -0.6949268 0.043252062 0
1.2141041 -0.6927796 0.07193429 0
1.2101575 -0.69374418 0.10100593 0
0.86403137 -0.75511688 -0.089115866 0
0.98705506 -0.72173655 -0.091474302 0
1.1208833 -0.68542463 -0.08974319 0
1.1985859 -0.66434139 -0.073420979 0
1.2115799 -0.66081572 -0.045632828 0
1.2125826 -0.66054368 -0.016210606 0
1.201869 -0.6634506 0.013981009 0
1.209754 -0.66131115 0.042661365 0
1.2007101 -0.66376507 0.072067432 0
1.2110926 -0.66094792 0.10100619 0
0.85926765 -0.73299176 -0.089430772 0
0.97508621 -0.69840646 -0.090510286 0
1.1084567 -0.65857983 -0.088987924 0
1.2135909 -0.62718505 -0.07688012 0
1.2092974 -0.62846714 -0.046412338 0
1.2156701 -0.62656415 -0.017356953 0
1.2088631 -0.62859684 0.012843007 0
1.1990188 -0.63153648 0.042762186 0
1.2040402 -0.63003707 0.071778059 0
1.2037222 -0.63013196 0.10100623 0
0.84660172 -0.71335155 -0.088105761 0
0.97329742 -0.67200887 -0.09167143 0
1.1143652 -0.62597632 -0.091512881 0
1.2067171 -0.59584051 -0.077271678 0
1.2023735 -0.59725791 -0.046727631 0
1.2106361 -0.5945617 -0.017799241 0
1.1998163 -0.59809238 0.012810769 0
1.2089586 -0.59510911 0.041814718 0
1.2095413 -0.59491897 0.071412466 0
1.2053071 -0.5963006 0.10100656 0
0.85626435 -0.68611485 -0.091915749 0
0.96833646 -0.64638829 -0.092341669 0
1.0994774 -0.59990239 -0.090577118 0
1.2127495 -0.55975044 -0.079708524 0
1.2064198 -0.56199414 -0.048503328 0
1.214819 -0.55901688 -0.019237896 0
1.1982824 -0.56487864 0.012164133 0
1.2025564 -0.56336361 0.041620705 0
1.2036874 -0.56296265 0.071301915 0
1.2124453 -0.55985832 0.10100709 0
0.85110182 -0.6635744 -0.092543818 0
0.94832671 -0.62632364 -0.090112858 0
1.0832709 -0.57462114 -0.089515455 0
1.2053708 -0.52783978 -0.080287151 0
1.2085857 -0.52660805 -0.050171781 0
1.2050411 -0.52796614 -0.019384315 0
1.2098975 -0.5261054 0.010464342 0
1.2054002 -0.52782851 0.040924087 0
1.21525 -0.52405465 0.070736669 0
1.2052296 -0.5278939 0.10100722 0
0.83272016 -0.646308 -0.090269201 0
0.943295 -0.60071063 -0.091014989 0
1.0678916 -0.54933119 -0.088702627 0
1.2024839 -0.49382982 -0.081676476 0
1.2172204 -0.487753 -0.052787814 0
1.1991624 -0.4951995 -0.02000468 0
1.2103807 -0.49057347 0.0095149595 0
1.2044072 -0.49303672 0.040368464 0
1.2075027 -0.49176019 0.070626572 0
1.2085729 -0.49131894 0.10100769 0
0.82072765 -0.62679076 -0.089554764 0
0.92964542 -0.57862645 -0.090284847 0
1.058531 -0.52163219 -0.089076377 0
1.2066593 -0.45612869 -0.084297784 0
1.2099866 -0.45465735 -0.053529982 0
1.2052512 -0.45675138 -0.021937354 0
1.2038231 -0.45738289 0.0090249348 0
1.2076782 -0.45567814 0.039545096 0
1.194585 -0.46146807 0.070626073 0
1.2093843 -0.45492372 0.10100812 0
0.81421882 -0.60485286 -0.090236239 0
0.91800678 -0.55578989 -0.090080373 0
1.0535839 -0.49169952 -0.090383254 0
1.2180544 -0.41395047 -0.088219874 0
1.4798696 -0.29018441 -0.090212442 0
1.8593061 -0.11081597 -0.090891533 0
3.1201847 0.48523059 -0.14022921 0
4.6920562 1.2282906 -0.14059365 0
9.3931007 3.4505827 -0.14057088 0
0.8042419 -0.58446544 -0.090231888 0
0.90934396 -0.53149664 -0.090621762 0
1.0325119 -0.46942309 -0.088877402 0
1.2171446 -0.37637284 -0.090422161 0
1.4513494 -0.25833949 -0.088849984 0
1.8294916 -0.067765206 -0.090153791 0
3.0909333 0.5679701 -0.14092949 0
4.6366701 1.346983 -0.140701 0
9.2884722 3.691375 -0.14084123 0
0.79356754 -0.56443667 -0.090182595 0
0.89621323 -0.50941527 -0.090345897 0
1.0234963 -0.44118753 -0.089703389 0
1.1980768 -0.34760669 -0.089909367 0
1.4336456 -0.22133425 -0.089009188 0
1.8192741 -0.01462492 -0.091595747 0
3.0566139 0.64862937 -0.14140189 0
4.5806751 1.4655755 -0.14093484 0
9.1671562 3.9240773 -0.14083433 0
0.78926194 -0.54078114 -0.091812886 0
0.89022732 -0.48333499 -0.091734283 0
1.0211352 -0.40885255 -0.091933481 0
1.1844271 -0.31594452 -0.090381779 0
1.2133131 -0.29950932 -0.062048633 0
1.2185311 -0.29654041 -0.029784387 0
3.0045948 0.71967429 -0.14062007 0
4.5153079 1.5792229 -0.14082929 0
9.037322 4.1521082 -0.14075549 0
0.777318 -0.52126169 -0.091719411 0
0.87169677 -0.46436408 -0.090528689 0
0.99698424 -0.3888326 -0.090171568 0
1.1672251 -0.28620037 -0.09040869 0
1.1496104 -0.29681966 -0.055782948 0
1.2008067 -0.26595518 -0.029799884 0
2.9610317 0.79522318 -0.14066187 0
4.4412675 1.6876059 -0.14040545 0
8.9029064 4.3773723 -0.1407062 0
0.76445937 -0.50233471 -0.091517054 0
0.85243785 -0.44622132 -0.089246981 0
0.98554069 -0.36132714 -0.090955921 0
1.1495787 -0.25670227 -0.090486117 0
1.1380227 -0.26407275 -0.056649301 0
1.1785768 -0.23820695 -0.029401606 0
2.9196806 0.87228459 -0.14104465 0
4.3792644 1.80322 -0.14078927 0
8.7677479 4.6022334 -0.14079116 0
0.74798769 -0.48588297 -0.090506576 0
0.84025252 -0.42370602 -0.089653082 0
0.9656803 -0.33918074 -0.090222068 0
1.1260653 -0.23109797 -0.089695759 0
1.1421909 -0.22023091 -0.059866581 0
1.1618632 -0.20697388 -0.029695591 0
2.8749933 0.9474979 -0.14131537 0
4.3072214 1.9126709 -0.14077854 0
8.6293135 4.8253112 -0.14094357 0
0.74191517 -0.46231142 -0.09229771 0
0.84329325 -0.39020804 -0.093715958 0
0.95747024 -0.30900171 -0.091936372 0
1.1121067 -0.19901946 -0.090649344 0
1.1421974 -0.17761794 -0.062702529 0
1.1406002 -0.17875388 -0.029563328 0
2.8243704 1.0187974 -0.14124322 0
4.2393346 2.0251653 -0.1411615 0
8.4795904 5.0409713 -0.14093594 0
0.7267608 -0.4450011 -0.091866709 0
0.81837833 -0.37629411 -0.091471992 0
0.93834168 -0.2863296 -0.091595419 0
1.0910262 -0.17182651 -0.090511046 0
1.0823314 -0.17834702 -0.057001743 0
1.0956517 -0.16835764 -0.026747456 0
1.1039842 -0.16210881 0.0045849998 0
1.0930947 -0.1702753 0.037418332 0
1.1001766 -0.16496429 0.069025241 0
1.0966429 -0.16761443 0.1010095 0
1.097454 -0.16700611 0.13291472 0
1.0976244 -0.16687831 0.1648645 0
1.0980451 -0.16656283 0.19691548 0
0.71289563 -0.42678395 -0.091893487 0
0.80319518 -0.35543582 -0.091602482 0
0.90245944 -0.27700445 -0.087857045 0
1.0532395 -0.15786907 -0.087499477 0
1.1005055 -0.12052289 -0.062807821 0
1.1030787 -0.11848977 -0.030136442 0
1.099728 -0.12113729 0.0030734113 0
1.0991673 -0.12158015 0.035811301 0
1.1088568 -0.11392429 0.068141356 0
1.0911944 -0.12787989 0.10101006 0
1.1061152 -0.11609057 0.13379866 0
1.1048622 -0.11708054 0.16654789 0
1.1060873 -0.11611256 0.19951481 0
0.68818861 -0.41755953 -0.089048855 0
0.78476012 -0.33721617 -0.091066681 0
0.8866058 -0.25248495 -0.08837124 0
1.0269125 -0.13575587 -0.086582772 0
1.1002977 -0.074702471 -0.066161968 0
1.0923916 -0.081280023 -0.031549159 0
1.0983959 -0.076284617 0.0011707416 0
1.0964165 -0.077931494 0.034630883 0
1.100507 -0.074528366 0.067715228 0
1.1012168 -0.073937863 0.10101125 0
1.094674 -0.079381198 0.13413043 0
1.0977384 -0.076831728 0.1674716 0
1.101235 -0.073922664 0.20111036 0
0.6822651 -0.3927668 -0.091512673 0
0.76808506 -0.31762442 -0.091073446 0
0.87733901 -0.22196367 -0.090469547 0
1.0021409 -0.11268958 -0.086039312 0
1.0945572 -0.031771626 -0.06890925 0
1.0988585 -0.028005507 -0.035236854 0
1.1074846 -0.020452645 -0.001846751 0
1.0989307 -0.027942207 0.033030864 0
1.1036997 -0.023766603 0.066892482 0
1.1022806 -0.025009122 0.10101219 0
1.1021677 -0.025108006 0.13508458 0
1.1081909 -0.019834187 0.16956714 0
1.0992924 -0.027625527 0.20311008 0
1.0967242 -0.029874232 0.23699676 0
1.0869931 -0.038394477 0.3729372 0
0.66760516 -0.3752071 -0.091688357 0
0.74986798 -0.29942849 -0.090810679 0
0.85162175 -0.20569518 -0.089111425 0
0.95496273 -0.11049989 -0.0813118 0
1.0560082 -0.017419066 -0.06667801 0
1.1005679 0.023628268 -0.038576204 0
1.1014582 0.024448309 -0.0036309042 0
1.1033974 0.02623478 0.031190703 0
1.0986896 0.021898065 0.066269659 0
1.0903239 0.01419178 0.10101268 0
1.09692 0.020267997 0.13570032 0
1.1002845 0.0233672 0.17063858 0
1.0961114 0.019523058 0.20514892 0
1.1057801 0.028429661 0.24126498 0
1.0364374 -0.035447266 0.36622104 0
0.65494192 -0.35563436 -0.092588998 0
0.73427862 -0.2787616 -0.091349639 0
0.83850628 -0.17777082 -0.090696476 0
0.84170145 -0.1746749 -0.063546665 0
0.83903247 -0.17726102 -0.035413105 0
0.84302485 -0.17339256 -0.0084705707 0
0.83465219 -0.18150523 0.019817049 0
0.83454686 -0.18160728 0.046934932 0
0.8433603 -0.17306754 0.073698536 0
0.84269202 -0.17371508 0.10100386 0
0.84372151 -0.17271754 0.12832099 0
0.84431529 -0.17214224 0.15570629 0
0.8440941 -0.17235658 0.18311021 0
1.1033931 0.078889519 0.24433972 0
1.0083424 -0.01320919 0.29817811 0
1.0053741 -0.016085412 0.33090648 0
0.98821312 -0.03271332 0.35996979 0
0.63335937 -0.34482536 -0.090954207 0
0.71447933 -0.26215556 -0.090909012 0
0.81440091 -0.16032496 -0.089907266 0
0.84864211 -0.1254296 -0.069117181 0
0.83591181 -0.13840309 -0.038355786 0
0.84533221 -0.12880269 -0.011557294 0
0.84532809 -0.12880686 0.016690569 0
0.83995342 -0.13428429 0.045203347 0
0.83940083 -0.13484737 0.073137417 0
0.83268821 -0.14168826 0.1010043 0
0.84104913 -0.13316759 0.12892662 0
0.8390063 -0.13524947 0.15674296 0
0.83780187 -0.13647696 0.18456754 0
0.83509499 -0.13923553 0.21220237 0
1.1006794 0.13142291 0.28456926 0
0.95405221 -0.018005576 0.29228812 0
0.94520807 -0.027018692 0.32262215 0
0.95217758 -0.019916024 0.3568531 0
0.61654991 -0.32944742 -0.090845905 0
0.69213074 -0.24843118 -0.089866661 0
0.80208647 -0.13056794 -0.092041947 0
0.84086895 -0.08899644 -0.072061725 0
0.83431786 -0.096018642 -0.041806478 0
0.84458768 -0.08501026 -0.014462961 0
0.83858645 -0.091443092 0.01512892 0
0.83604348 -0.094168931 0.043979693 0
0.84425414 -0.085367829 0.072228104 0
0.83909893 -0.090893716 0.10100547 0
0.84505498 -0.084509343 0.12981068 0
0.8413285 -0.088503867 0.15839228 0
0.84803551 -0.081314474 0.1878515 0
0.84775329 -0.081617028 0.21690841 0
1.1017773 0.19067505 0.28966451 0
0.93297726 0.0097359158 0.29305789 0
0.93503284 0.011939321 0.32609385 0
0.92784196 0.0042313072 0.35697064 0
0.60053456 -0.31319091 -0.091111533 0
0.67694098 -0.22703031 -0.090923525 0
0.76850349 -0.12377873 -0.089153297 0
0.85925245 -0.021444526 -0.080823608 0
0.83245641 -0.051661398 -0.045495424 0
0.83600974 -0.047654416 -0.016503764 0
0.84382915 -0.038836803 0.01216148 0
0.84001201 -0.043141212 0.042097878 0
0.84423655 -0.03837743 0.071420088 0
0.84137267 -0.041606929 0.10100656 0
0.84195691 -0.040948059 0.13051324 0
0.83953589 -0.043678131 0.15988183 0
0.84221429 -0.040657785 0.18968192 0
0.83872336 -0.044594433 0.21889903 0
1.1012664 0.25146523 0.29488313 0
1.1075159 0.25851265 0.33544677 0
0.58440357 -0.29695126 -0.091480516 0
0.6586082 -0.20889446 -0.091249444 0
0.73352337 -0.11999449 -0.085863702 0
0.84818411 0.016070519 -0.083794959 0
0.83584917 0.001433048 -0.050449464 0
0.84443581 0.011622582 -0.021204164 0
0.84078985 0.0072959396 0.0098604504 0
0.83941352 0.0056627127 0.04039716 0
0.82951903 -0.0060788062 0.071075752 0
0.84155971 0.0082095601 0.10100764 0
0.84398806 0.011091266 0.13146183 0
0.8442623 0.011416707 0.16196883 0
0.83932912 0.0055625173 0.19199651 0
0.84441411 0.011596832 0.2232172 0
0.83768255 0.0036086177 0.25279793 0
1.0981163 0.31265882 0.34034181 0
0.56422281 -0.28560773 -0.090621091 0
0.64069253 -0.19007161 -0.091847412 0
0.72392964 -0.08608076 -0.089170389 0
0.850743 0.072351247 -0.090135776 0
0.8543281 0.076830178 -0.058630351 0
0.84781945 0.068698674 -0.02552185 0
0.83733958 0.055605922 0.0074034948 0
0.83740944 0.055693183 0.038656361 0
0.83286589 0.050016794 0.070018411 0
0.83471525 0.052327309 0.10100849 0
0.83676076 0.054882798 0.13214371 0
0.83740437 0.055686865 0.16336064 0
0.84021223 0.059194837 0.19493574 0
0.83573472 0.053600941 0.2257345 0
0.83845955 0.057005081 0.25768086 0
