# .PCD v0.7 - Point Cloud Data file format
VERSION 0.7
FIELDS x y z intensity
SIZE 4 4 4 4
TYPE F F F F
COUNT 1 1 1 1
WIDTH 1354
HEIGHT 1
VIEWPOINT 0 0 0 1 0 0 0
POINTS 1354
DATA ascii
1.0775694 0.93111074 0.30657223 0
0.83961064 0.97815168 0.36932167 0
0.84045058 0.97798562 0.48005915 0
0.84464735 0.97715598 0.59773505 0
0.3696771 1.0710506 0.47883427 0
0.98673171 0.96922183 -0.050059509 0
0.84054226 0.99621326 0.36868992 0
0.83708102 0.99685234 0.47777954 0
0.84691626 0.99503642 0.59726781 0
0.39714757 1.0780787 0.49167445 0
0.99635798 0.98762983 -0.050282609 0
0.85040051 1.0126823 0.37042925 0
0.83768028 1.0148656 0.47692481 0
0.83904952 1.0146307 0.59263837 0
0.3892211 1.0918401 0.4865624 0
0.99502403 1.0079398 -0.050117459 0
0.44185355 1.0957319 0.042121388 0
0.4378905 1.0963609 0.11430265 0
0.43364933 1.097034 0.18697271 0
0.42224959 1.0988432 0.25906995 0
0.43994829 1.0960343 0.3419672 0
0.42814973 1.0979068 0.41916302 0
0.38861051 1.104182 0.48525468 0
0.99157208 1.0284442 -0.049885429 0
0.40873185 1.113436 0.040857207 0
0.40633193 1.1137859 0.11066776 0
0.40416363 1.1141021 0.18125214 0
0.40002826 1.1147051 0.2528559 0
0.40584776 1.1138566 0.32985866 0
0.4027178 1.1143129 0.40773058 0
0.39848706 1.1149299 0.48933062 0
0.99002415 1.0485334 -0.049731668 0
0.39825585 1.1272309 0.040418778 0
0.43145588 1.1228157 0.11320803 0
0.42145589 1.1241455 0.18409087 0
0.42346403 1.1238785 0.25845486 0
0.43680111 1.1221049 0.33967936 0
0.43245921 1.1226822 0.41944847 0
0.42210475 1.1240593 0.50040388 0
1.0054557 1.0664756 -0.050197799 0
0.37513414 1.1422362 0.039532546 0
0.42237428 1.1365583 0.11205427 0
0.42728528 1.135968 0.18486613 0
0.44331428 1.1340414 0.26315367 0
0.42970601 1.135677 0.33677042 0
0.43359515 1.1352096 0.41926369 0
1.0090066 1.0860282 -0.050244823 0
0.37108472 1.1545657 0.039339121 0
0.85037118 1.1030717 0.36723635 0
0.84052938 1.1041292 0.47376186 0
0.84467894 1.1036834 0.58985484 0
1.0062755 1.1062121 -0.050075345 0
0.3432382 1.169014 0.038298111 0
0.84978431 1.1210347 0.3666265 0
0.84096009 1.1218706 0.47331089 0
0.83994633 1.1219666 0.58714396 0
0.99957901 1.1266047 -0.049773108 0
0.34780136 1.1800689 0.038425654 0
0.8488192 1.1389712 0.36597836 0
0.83614928 1.1400106 0.47118527 0
0.8512947 1.1387682 0.59121209 0
0.99788314 1.1464398 -0.049659286 0
0.36933228 1.1900388 0.039165288 0
0.85586864 1.1562905 0.36743829 0
0.83747286 1.1575665 0.47118351 0
0.84945709 1.1567353 0.58989197 0
1.0144542 1.1651614 -0.050207678 0
0.84904975 1.1745436 0.36540899 0
0.83402532 1.1753958 0.46966556 0
0.8448903 1.1747795 0.58753479 0
1.0119029 1.1851166 -0.05008084 0
0.8509292 1.1922154 0.36566091 0
0.84403366 1.1925195 0.47270432 0
0.8414126 1.1926351 0.58572447 0
1.0128723 1.2048746 -0.050088786 0
0.8438254 1.2101978 0.36367649 0
0.84605497 1.2101276 0.47315511 0
0.84943444 1.2100211 0.58877164 0
1.0064057 1.2247819 -0.049840089 0
0.86209005 1.2275079 0.36822379 0
0.84020799 1.2279212 0.47106138 0
0.82591861 1.2281911 0.57884872 0
1.014941 1.2444223 -0.050135963 0
0.84725016 1.245478 0.36438015 0
0.83277541 1.2455692 0.4685148 0
0.84327883 1.2455031 0.58594579 0
1.0092474 1.264185 -0.049932692 0
0.84677798 1.2631621 0.36425966 0
0.84231418 1.263134 0.47168833 0
0.83905727 1.2631135 0.58419788 0
1.023806 1.2841899 -0.050461415 0
0.85083681 1.2809227 0.36535221 0
0.84232944 1.280762 0.47176725 0
0.83254331 1.2805771 0.58159208 0
1.0052392 1.3035282 -0.049816139 0
0.84351104 1.2984354 0.36359623 0
0.83433861 1.2981466 0.46925521 0
0.83993608 1.2983229 0.58483708 0
1.0149907 1.3236626 -0.050191183 0
0.84509712 1.3161706 0.3641715 0
0.83888859 1.3158967 0.47099096 0
0.83455557 1.3157057 0.58288264 0
1.0141785 1.343466 -0.050197817 0
0.85240513 1.3342899 0.36626643 0
0.83912474 1.3335366 0.47136486 0
0.83816999 1.3334824 0.58474785 0
1.0148804 1.3633823 -0.050267566 0
1.3001566 1.3831704 0.072476767 0
1.2994823 1.3831236 0.2060381 0
1.2948384 1.3828015 0.34085274 0
0.85324258 1.3521705 0.36676669 0
0.84029955 1.3512727 0.47212622 0
0.84437245 1.3515552 0.58778167 0
1.0067035 1.3826228 -0.050028313 0
1.2327083 1.4011617 0.070124075 0
1.2462113 1.4022692 0.20048462 0
1.0119858 1.3830562 0.28998858 0
0.84739596 1.3695551 0.36561403 0
0.8525632 1.369979 0.47666442 0
0.83955055 1.3689116 0.58633327 0
0.99939173 1.4017789 -0.049828485 0
1.2404395 1.4246106 0.070472717 0
1.2402654 1.424594 0.20005928 0
0.89685887 1.3920672 0.26944885 0
0.84470898 1.3871276 0.36532581 0
0.8393442 1.3866194 0.47277087 0
0.84248811 1.3869172 0.58820111 0
0.99786013 1.4214174 -0.049844589 0
0.63724905 1.3826739 0.04889622 0
0.6451748 1.3835254 0.13598441 0
0.6443215 1.3834337 0.22397745 0
0.63671082 1.382616 0.31241101 0
0.84592158 1.4050933 0.47556615 0
0.83328646 1.4037359 0.58511078 0
1.0006645 1.4415916 -0.050025515 0
0.55314976 1.3878033 0.045933675 0
0.54644912 1.3869979 0.12548448 0
0.55384904 1.3878874 0.20785603 0
0.5519473 1.3876587 0.29106891 0
0.83673066 1.4218879 0.47315979 0
0.83067614 1.4211601 0.58485276 0
0.99821359 1.4611988 -0.050026618 0
0.54341513 1.4007165 0.045646779 0
0.56131226 1.4030967 0.12728646 0
0.5499168 1.4015812 0.20746262 0
0.55292231 1.4019809 0.29177457 0
0.83453959 1.4394324 0.47316965 0
0.84706491 1.4410981 0.59262139 0
0.99115139 1.4801376 -0.049870253 0
0.54993314 1.4157977 0.045951594 0
0.54563504 1.4151709 0.12579691 0
0.55785197 1.4169524 0.20926279 0
0.54105836 1.4145035 0.28921777 0
0.84908813 1.4594214 0.47888175 0
0.84507674 1.4588364 0.59282011 0
0.98761994 1.4995282 -0.049849812 0
0.54664356 1.4295422 0.045909349 0
0.54465443 1.4292264 0.12592012 0
0.53968889 1.4284384 0.20633616 0
0.55695075 1.431178 0.29386666 0
0.82804304 1.4742022 0.47270006 0
0.83845657 1.4758549 0.59117097 0
0.99055916 1.520018 -0.050072554 0
0.54647666 1.4437946 0.045986392 0
0.55447417 1.4451673 0.12724051 0
0.54767472 1.4440002 0.20821454 0
0.55117768 1.4446015 0.29297155 0
0.83376437 1.4931053 0.47560295 0
0.84036857 1.494239 0.59319246 0
0.98650271 1.539379 -0.050051194 0
0.55109102 1.4589875 0.046243705 0
0.56062084 1.460747 0.12818451 0
0.54993123 1.4587734 0.20908245 0
0.5585832 1.4603708 0.29553726 0
0.84085768 1.5124881 0.47905725 0
0.85328084 1.5147818 0.59994745 0
0.9830386 1.558845 -0.050060205 0
0.55577391 1.4743811 0.046511106 0
0.55259949 1.4737536 0.12760024 0
0.56066734 1.4753485 0.21154554 0
0.56127423 1.4754684 0.29693487 0
0.83561558 1.5297017 0.47841942 0
0.84799045 1.532148 0.59914601 0
0.98808318 1.5801144 -0.050388612 0
0.55087334 1.4879496 0.046436619 0
0.55019087 1.4878057 0.12764879 0
0.55303389 1.4884051 0.21066789 0
0.56024462 1.489925 0.29741552 0
0.83927017 1.5487443 0.4808785 0
0.83928186 1.5487468 0.59698844 0
0.97454172 1.5974613 -0.050047752 0
0.54972953 1.502308 0.046505608 0
0.55450517 1.5033778 0.1284574 0
0.55643064 1.503809 0.21185668 0
0.56149298 1.5049429 0.29854071 0
0.83873922 1.5670431 0.48199913 0
0.83954459 1.5672234 0.59871984 0
0.96753472 1.6161146 -0.049953632 0
0.55917841 1.5192319 0.046970103 0
0.56099647 1.5196633 0.12953046 0
0.55483431 1.5182014 0.21215941 0
0.55478948 1.5181907 0.29763368 0
0.829099 1.5832708 0.48008707 0
0.83556741 1.5848054 0.59875107 0
0.9576264 1.6339757 -0.049761068 0
0.55230325 1.5324053 0.046843082 0
0.55740887 1.5336847 0.12951297 0
0.55041593 1.5319324 0.21197207 0
0.5498392 1.5317879 0.29722869 0
0.84838229 1.6066002 0.48815915 0
0.84393042 1.6054845 0.60414398 0
0.95214862 1.6528693 -0.049739748 0
0.54901546 1.5464355 0.046854217 0
0.55141157 1.5470681 0.12924714 0
0.55934983 1.5491639 0.21430688 0
0.55203205 1.5472319 0.29875237 0
0.85018939 1.6259505 0.4903456 0
0.84588224 1.6248132 0.60692078 0
0.95376176 1.6737185 -0.049989879 0
0.55696779 1.5635957 0.047288381 0
0.54430753 1.5600821 0.12887575 0
0.56207174 1.5650122 0.21552773 0
0.55534238 1.5631446 0.30062866 0
0.83287746 1.6401693 0.48602241 0
0.83920687 1.6419259 0.60610473 0
0.95299608 1.6940621 -0.050162219 0
0.5540598 1.5779153 0.047328338 0
0.54857713 1.5763191 0.12979434 0
0.55708259 1.5787953 0.21534206 0
0.54245287 1.5745361 0.2982603 0
0.84418398 1.6623824 0.49166185 0
0.84044343 1.6612934 0.60879028 0
0.94438797 1.7121452 -0.050052058 0
0.84326953 1.6813192 0.37959394 0
0.84408838 1.6815689 0.49345431 0
0.84479886 1.6817855 0.6129415 0
0.93635505 1.7303334 -0.049971525 0
0.85757035 1.7052274 0.38489273 0
0.83768302 1.69889 0.49313489 0
0.83564967 1.6982421 0.61135286 0
0.93636459 1.75114 -0.050201841 0
0.85081142 1.7226856 0.38463211 0
0.84446579 1.720575 0.4975144 0
0.84014446 1.7191378 0.61580122 0
0.91585892 1.7650104 -0.049667869 0
0.84226531 1.7395 0.38394699 0
0.83337098 1.7364171 0.49571407 0
0.8361693 1.7373871 0.61667246 0
0.92122918 1.7878199 -0.050120175 0
0.84267825 1.7594783 0.38574603 0
0.8277629 1.7540969 0.49591646 0
0.83589882 1.7570324 0.61927927 0
0.89898092 1.8006138 -0.049532451 0
0.84391147 1.7799572 0.38784552 0
0.81916159 1.7706734 0.49513519 0
0.83117408 1.7751794 0.62003785 0
0.90109462 1.8224559 -0.049881399 0
0.83651382 1.7972995 0.38766253 0
0.83555526 1.7969261 0.50334871 0
0.8324253 1.7957069 0.62355679 0
0.89377052 1.8407528 -0.049879283 0
0.83894008 1.8185955 0.39024192 0
0.83484668 1.8169414 0.50558567 0
0.84210986 1.8198764 0.63097489 0
0.8948949 1.8625902 -0.050213058 0
0.82818931 1.8346518 0.38926405 0
0.82372671 1.8327827 0.5041697 0
0.82089931 1.8315985 0.62470007 0
0.88805431 1.881233 -0.050249379 0
0.83409077 1.8578285 0.39296782 0
0.8296352 1.8558961 0.50899333 0
0.82245189 1.8527806 0.62873042 0
0.8805477 1.8996085 -0.050269004 0
0.83166593 1.8776727 0.39444557 0
0.82490414 1.8746383 0.51007032 0
0.8219313 1.8733042 0.63196343 0
0.86941963 1.9163225 -0.050155297 0
0.84107369 1.9031708 0.39932999 0
0.8285709 1.89737 0.5143199 0
0.81967455 1.8932424 0.63454062 0
0.85621136 1.9319538 -0.049966853 0
0.82811028 1.9184834 0.39800513 0
0.81859261 1.9139209 0.51366627 0
0.82021064 1.9146966 0.63853061 0
0.85777992 1.954754 -0.050373681 0
0.82319051 1.9376343 0.39901644 0
0.812123 1.9321566 0.51438814 0
0.80640322 1.9293256 0.63604367 0
0.84089154 1.9684536 -0.050054707 0
0.81362969 1.9545307 0.39877361 0
0.80639595 1.9508363 0.5154776 0
0.79202932 1.9434991 0.63336271 0
0.84355432 1.9922001 -0.050529443 0
0.81090802 1.9750055 0.40056244 0
0.79077667 1.9644024 0.51294279 0
0.80297893 1.9708292 0.64259738 0
0.8165831 2.0002432 -0.049815726 0
0.79614681 1.9891487 0.39894301 0
0.79944533 1.9909394 0.51964945 0
0.79150671 1.9866296 0.64149374 0
0.8118009 2.0201235 -0.050008751 0
0.79436904 2.0103738 0.40115938 0
0.77780861 2.0011115 0.51497817 0
0.79736513 2.0120497 0.64869785 0
0.7977758 2.0348411 -0.049832653 0
0.77909154 2.0240798 0.39949569 0
0.78074545 2.0250325 0.51975644 0
0.78052825 2.0249074 0.64526314 0
0.78921348 2.0526564 -0.049889632 0
0.78276116 2.0488312 0.40349016 0
0.78548294 2.0504448 0.525383 0
0.78254324 2.048702 0.65095413 0
0.77506286 2.0671139 -0.049722694 0
0.77633041 2.0678871 0.40458974 0
0.76777107 2.0626659 0.52242857 0
0.77169472 2.0650592 0.65059519 0
0.77560216 2.0906522 -0.050181199 0
0.75683671 2.0788789 0.40183562 0
0.76537746 2.0842373 0.52552718 0
0.76978213 2.0870008 0.65470141 0
0.75866753 2.103307 -0.049913608 0
0.76153749 2.1051583 0.40644661 0
0.76085001 2.1047149 0.52791333 0
0.76056331 2.1045299 0.65537685 0
0.74517542 2.1180217 -0.049798034 0
0.74558002 2.1182899 0.40487319 0
0.7516498 2.1223147 0.52855676 0
0.74974138 2.1210492 0.65537071 0
0.74460226 2.1414437 -0.050247539 0
0.73715621 2.1363704 0.40566289 0
0.73726088 2.1364417 0.52720565 0
0.7397055 2.1381075 0.65586215 0
0.73164803 2.1565907 -0.050174281 0
0.73636454 2.1598921 0.40890694 0
0.73782665 2.1609154 0.53198761 0
0.73623282 2.1597998 0.65978295 0
0.71301335 2.1675944 -0.049858946 0
0.72007519 2.1726708 0.40740359 0
0.72502381 2.1762283 0.531461 0
0.72945112 2.1794109 0.66219074 0
0.70660049 2.1873469 -0.050089113 0
0.71083468 2.1904724 0.40817222 0
0.71404976 2.1928456 0.53176516 0
0.71617526 2.1944146 0.6614055 0
0.69033271 2.1998391 -0.04989114 0
0.70480341 2.2108049 0.41004694 0
0.70007461 2.2072215 0.5309065 0
0.70435911 2.2104681 0.66146874 0
0.68039101 2.2170789 -0.049984422 0
0.70418137 2.2355831 0.41377085 0
0.69850868 2.2311707 0.53534544 0
0.68946177 2.2241342 0.6600219 0
0.66476935 2.2298729 -0.049829055 0
0.6821478 2.2437446 0.41064408 0
0.68570775 2.2465863 0.53517449 0
0.69047695 2.2503932 0.66708106 0
0.65313905 2.2457986 -0.049863663 0
0.66706127 2.2572014 0.40980965 0
0.67209119 2.2613211 0.53473401 0
0.66966158 2.259331 0.66270614 0
0.64368027 2.2635849 -0.050009206 0
0.6625815 2.2794673 0.41255721 0
0.66285461 2.2796969 0.53627247 0
0.66103142 2.2781649 0.66493499 0
0.63001734 2.2778869 -0.049968675 0
0.71887618 2.3544836 0.066156998 0
0.71742576 2.3532331 0.18688093 0
0.71538919 2.3514779 0.30905893 0
0.65128165 2.2962167 0.41313139 0
0.64896065 2.2942159 0.53588307 0
0.65223926 2.2970421 0.66722858 0
0.61069328 2.2871492 -0.049666442 0
0.68101329 2.3493257 0.065017581 0
0.68249732 2.3506379 0.18386973 0
0.67994231 2.3483787 0.30387551 0
0.63632566 2.3098133 0.41253835 0
0.64098638 2.3139343 0.53819901 0
0.63219386 2.30616 0.66345912 0
0.60716659 2.3104544 -0.050127704 0
0.66526085 2.3631392 0.064927608 0
0.65906578 2.3575208 0.1824872 0
0.6592645 2.3577011 0.30221891 0
0.62786216 2.3292229 0.41423327 0
0.62734181 2.3287511 0.53810567 0
0.62308472 2.3248904 0.66582292 0
0.58699495 2.3187268 -0.049797069 0
0.64468092 2.3723803 0.064609632 0
0.63921458 2.3672962 0.18162653 0
0.64413112 2.3718691 0.30193713 0
0.61536676 2.3451154 0.414628 0
0.61137158 2.3413994 0.53703886 0
0.61539108 2.3451378 0.66914749 0
0.58290273 2.3420186 -0.050260879 0
0.62450963 2.381706 0.064313687 0
0.61640435 2.3739746 0.18033415 0
0.62748116 2.3845403 0.30131817 0
0.59930581 2.3576651 0.41384047 0
0.59690124 2.3553715 0.53672159 0
0.59790093 2.3563249 0.66705191 0
0.56551439 2.3527665 -0.050080966 0
0.61154431 2.3977931 0.064379789 0
0.61629516 2.4024403 0.18245116 0
0.60575992 2.3921347 0.29945213 0
0.58806401 2.3748245 0.41481921 0
0.5904358 2.3771446 0.54020727 0
0.5892083 2.3759439 0.67010683 0
0.54866999 2.3638844 -0.049933065 0
0.60156733 2.4169486 0.064608023 0
0.60631174 2.4217079 0.18314619 0
0.59818655 2.4135571 0.30120078 0
0.5767197 2.3920226 0.41585094 0
0.57767326 2.3929791 0.54089814 0
0.56841332 2.3836899 0.66624707 0
0.53372699 2.3768132 -0.049887758 0
0.60066432 2.4456742 0.065316282 0
0.59899229 2.4439542 0.18429819 0
0.59817547 2.443114 0.30499828 0
0.56154209 2.4054277 0.41557175 0
0.56096846 2.4048376 0.53981096 0
0.56152231 2.4054074 0.67065364 0
0.52099985 2.3920381 -0.049965236 0
0.61781794 2.4941809 0.066989727 0
0.61017555 2.4861181 0.18839955 0
0.6162017 2.4924757 0.3136721 0
0.54966837 2.4222832 0.41657636 0
0.54216141 2.4143634 0.53776437 0
0.54840618 2.4209516 0.67153603 0
0.51095945 2.4102547 -0.050195109 0
0.54145509 2.4432499 0.41904989 0
0.53793532 2.4394417 0.54289508 0
0.52933532 2.4301367 0.6689167 0
0.49745163 2.4248707 -0.050255448 0
0.51214308 2.4411736 0.41361722 0
0.51617616 2.4456489 0.53954041 0
0.5202505 2.45017 0.67250782 0
0.48457453 2.4402738 -0.050360657 0
0.50642246 2.4651403 0.4172152 0
0.50508732 2.4636209 0.54155481 0
0.49925217 2.4569793 0.66883451 0
0.46513721 2.4481368 -0.05011797 0
0.49416479 2.4820263 0.41842017 0
0.49222943 2.4797668 0.54280931 0
0.48959407 2.4766901 0.67237872 0
0.45492634 2.4667881 -0.050391018 0
0.47103831 2.4860852 0.4154008 0
0.47159323 2.4867499 0.54014993 0
0.48034737 2.4972346 0.67640167 0
0.432017 2.4701452 -0.049963266 0
0.4578788 2.5019248 0.41638359 0
0.45842478 2.5025957 0.54143113 0
0.46099553 2.5057547 0.67402726 0
0.41450551 2.4798281 -0.049841207 0
0.44074121 2.5129094 0.41582999 0
0.44511017 2.5184183 0.54276073 0
0.44122478 2.5135193 0.67140669 0
0.3950195 2.4868205 -0.049608927 0
0.41955569 2.5185719 0.41363558 0
0.42914912 2.5309863 0.54277974 0
0.42066786 2.5200109 0.66827637 0
0.38186541 2.501956 -0.049753763 0
0.41695222 2.5485618 0.41931656 0
0.41159573 2.5414467 0.54200506 0
0.40967569 2.5388963 0.67173344 0
0.36473355 2.5118451 -0.049672369 0
0.39729264 2.556246 0.41789871 0
0.39000157 2.5463033 0.53901714 0
0.39439985 2.5523012 0.67241621 0
0.34658143 2.5202122 -0.04953444 0
0.37709418 2.5629404 0.41626117 0
0.38115022 2.5686204 0.54330581 0
0.37665668 2.5623279 0.67147255 0
0.34143785 2.5471244 -0.050214075 0
0.36493441 2.5809195 0.41822386 0
0.35419574 2.565474 0.53728461 0
0.36054668 2.5746086 0.6717869 0
0.31874439 2.548965 -0.049809955 0
0.33775249 2.5770521 0.41348723 0
0.34427384 2.5866885 0.54123759 0
0.34804735 2.5922644 0.67488766 0
0.30455258 2.5632026 -0.049951382 0
0.33146927 2.6040754 0.4183313 0
0.32874313 2.5999358 0.54203421 0
0.31911501 2.5853155 0.66584337 0
0.29081699 2.5783429 -0.050137561 0
0.3149012 2.6159368 0.41856655 0
0.30838332 2.605763 0.53997016 0
0.30503377 2.6005344 0.66795182 0
0.2722061 2.5859125 -0.050011132 0
0.29224369 2.6180744 0.41593993 0
0.29300812 2.6193013 0.54104584 0
0.29332802 2.6198149 0.67211193 0
0.25086668 2.5888112 -0.049700517 0
0.27449533 2.6278229 0.4156889 0
0.26822326 2.6174674 0.5362097 0
0.27247837 2.6244926 0.66924357 0
0.239522 2.6082644 -0.05008918 0
0.25058922 2.6270671 0.41239643 0
0.24913813 2.6246018 0.53499246 0
0.24990709 2.6259081 0.66495562 0
0.22330101 2.6197479 -0.050153196 0
0.23472185 2.6397226 0.41315779 0
0.23421825 2.6388416 0.5365994 0
0.23645814 2.6427593 0.66819626 0
0.20598246 2.629354 -0.050148468 0
0.21610571 2.6475883 0.41257465 0
0.21939869 2.6535196 0.53843355 0
0.21853991 2.6519728 0.66787791 0
0.1891975 2.6399498 -0.050192788 0
0.20367594 2.6668205 0.41535777 0
0.19826712 2.6567822 0.53601217 0
0.20389129 2.6672201 0.67050612 0
0.16566356 2.6377077 -0.049728196 0
0.17954941 2.6642745 0.41189829 0
0.1805463 2.6661816 0.53601056 0
0.17807658 2.6614566 0.66338754 0
0.15226497 2.6547482 -0.050050221 0
0.16251238 2.6749699 0.41233537 0
0.15889998 2.6678414 0.53320581 0
0.16338916 2.6767001 0.66621637 0
0.12997772 2.6542089 -0.049677789 0
0.14452352 2.6838322 0.41230983 0
0.14342518 2.6815953 0.53500217 0
0.14589013 2.6866152 0.6666556 0
0.11121639 2.6604805 -0.049587958 0
0.12554921 2.6906233 0.41176358 0
0.12117722 2.6814287 0.53173172 0
0.12118556 2.6814463 0.66027808 0
0.09663447 2.6756907 -0.049859233 0
0.10298952 2.6895015 0.40906543 0
0.09943112 2.6817684 0.52876836 0
0.10728361 2.6988335 0.66435993 0
0.081117474 2.6892776 -0.050072767 0
0.084668718 2.6972585 0.4089413 0
0.081562243 2.6902773 0.52889645 0
0.086530589 2.7014427 0.66180146 0
0.060639523 2.6917162 -0.049859513 0
0.064159237 2.6999021 0.40746206 0
0.066288374 2.7048538 0.53130293 0
0.067853831 2.7084947 0.66137725 0
0.04150971 2.6970181 -0.049768053 0
0.044519745 2.7042689 0.40653804 0
0.044565044 2.7043779 0.52834404 0
0.045005523 2.7054389 0.65652972 0
0.028080245 2.7163897 -0.050227415 0
0.025967261 2.7111132 0.40636772 0
0.023262402 2.7043586 0.52566195 0
0.027286371 2.7144072 0.65719789 0
0.0070679993 2.717021 -0.049973901 0
0.0074302764 2.7179596 0.40626284 0
0.0094206547 2.7231171 0.5297851 0
0.0037851545 2.7085142 0.65136671 0
-0.0093321586 2.7295618 -0.050185256 0
-0.012776651 2.7202904 0.40499315 0
-0.010608592 2.7261262 0.52836138 0
-0.014610567 2.715354 0.65131778 0
-0.028146544 2.7357976 -0.050164469 0
-0.037249483 2.7103171 0.40046474 0
-0.032225825 2.7243791 0.52535301 0
-0.032493688 2.7236292 0.6520021 0
-0.050576665 2.7314599 -0.049753647 0
-0.049166478 2.7355697 0.40554073 0
-0.056635596 2.7138014 0.51934755 0
-0.052619852 2.7255051 0.64998108 0
-0.068865515 2.7387886 -0.049793653 0
-0.07506711 2.7199447 0.39965665 0
-0.071777947 2.729939 0.52283186 0
-0.072152115 2.7288022 0.64869863 0
-0.086071946 2.749656 -0.049974587 0
-0.092274167 2.729979 0.40074733 0
-0.092465647 2.7293715 0.52054173 0
-0.093353368 2.7265551 0.64512151 0
-0.10428689 2.7576301 -0.050055057 0
-0.11231861 2.7309835 0.39948556 0
-0.11067063 2.7364509 0.52100807 0
-0.11248473 2.7304323 0.64432186 0
-0.12429399 2.7595923 -0.049920429 0
-0.10888005 2.813163 0.063910566 0
-0.10520557 2.8259337 0.18175258 0
-0.10706485 2.8194716 0.29972506 0
-0.13148947 2.7345848 0.39898491 0
-0.13049226 2.7380505 0.51965523 0
-0.13348566 2.7276471 0.64075869 0
-0.14426138 2.7613523 -0.049788117 0
-0.13550214 2.7933033 0.062970899 0
-0.13385062 2.7993276 0.17816715 0
-0.13344271 2.8008156 0.2951991 0
-0.14863493 2.7453988 0.40045804 0
-0.15154631 2.7347789 0.5167129 0
-0.15172635 2.7341223 0.64129728 0
-0.16109069 2.7747936 -0.050096508 0
-0.15705381 2.7902813 0.062667906 0
-0.1580262 2.7865508 0.17616946 0
-0.1564347 2.7926564 0.2927064 0
-0.16753237 2.7500801 0.40036646 0
-0.16878749 2.7452648 0.51860142 0
-0.16954495 2.7423589 0.64268607 0
-0.1805252 2.7786176 -0.050058059 0
-0.17658301 2.7945619 0.06264443 0
-0.1782486 2.7878253 0.17576732 0
-0.17968912 2.7819993 0.28981122 0
-0.1853479 2.7591124 0.40148124 0
-0.18925484 2.7433107 0.51629525 0
-0.1880572 2.7481546 0.64312541 0
-0.19942169 2.7846363 -0.050109174 0
-0.19919036 2.7856252 0.062145434 0
-0.19810392 2.7902696 0.17552358 0
-0.19696058 2.7951572 0.29138982 0
-0.20972539 2.7405901 0.39543185 0
-0.20924102 2.7426608 0.51452965 0
-0.2084236 2.746155 0.64034802 0
-0.21931498 2.78632 -0.050010372 0
-0.21712352 2.7962501 0.062373422 0
-0.21769576 2.7936573 0.17541192 0
-0.21778725 2.7932427 0.29022062 0
-0.23116229 2.7326362 0.39224073 0
-0.22978817 2.7388628 0.51178235 0
-0.22972171 2.7391641 0.63557088 0
-0.2390814 2.7882876 -0.049931321 0
-0.23756312 2.795604 0.062198095 0
-0.23617323 2.8023016 0.17590465 0
-0.23537947 2.8061266 0.29182857 0
-0.25003067 2.7355247 0.39195353 0
-0.25140178 2.7289174 0.50704139 0
-0.24926449 2.7392168 0.63389826 0
-0.25761497 2.7963207 -0.050082128 0
-0.2550427 2.8095512 0.062563322 0
-0.25191185 2.8256547 0.178032 0
-0.25228503 2.8237352 0.29434139 0
-0.2662105 2.7521091 0.39528856 0
-0.27127895 2.7260389 0.5047996 0
-0.26873416 2.7391284 0.63227415 0
-0.27635434 2.8038325 -0.050222162 0
-0.26886529 2.8451214 0.063720286 0
-0.26754811 2.8523834 0.18054482 0
-0.26698756 2.8554738 0.29947737 0
-0.28684705 2.7459836 0.39278039 0
-0.28871596 2.7356799 0.50688076 0
-0.28986248 2.7293589 0.62668329 0
-0.29600841 2.8065267 -0.050196029 0
-0.30601048 2.7471335 0.39222705 0
-0.3085348 2.7321439 0.50458598 0
-0.30826178 2.7337651 0.627168 0
-0.31585962 2.8078532 -0.050129488 0
-0.32573095 2.744365 0.39072552 0
-0.32651249 2.7393384 0.50599271 0
-0.32950529 2.7200899 0.62017268 0
-0.3360056 2.8068027 -0.049986366 0
-0.34532768 2.7414358 0.38924927 0
-0.34773901 2.7245274 0.50007784 0
-0.34726664 2.7278395 0.62226212 0
-0.35504371 2.8135283 -0.050132561 0
-0.36325091 2.7502921 0.39087108 0
-0.36617154 2.7277884 0.50032532 0
-0.36734533 2.7187443 0.61740893 0
-0.37646252 2.8008208 -0.04958865 0
-0.38495511 2.7282364 0.38460806 0
-0.38607204 2.7186902 0.49651027 0
-0.3848519 2.7291183 0.62078428 0
-0.39417255 2.8200171 -0.050200321 0
-0.40423012 2.7235482 0.38287842 0
-0.40422878 2.7235608 0.49745676 0
-0.40436676 2.7222373 0.61706412 0
-0.41456693 2.8146577 -0.049938943 0
-0.42298186 2.7227359 0.38220608 0
-0.42422056 2.7092049 0.49205518 0
-0.42357296 2.716279 0.61383396 0
-0.43459088 2.8116899 -0.049772684 0
-0.44280285 2.7075586 0.37791848 0
-0.44257426 2.7104568 0.49195185 0
-0.44254735 2.710798 0.61090589 0
-0.45376468 2.8198364 -0.050013248 0
-0.46185175 2.6976814 0.37505344 0
-0.4621298 2.6934814 0.48584825 0
-0.4617573 2.6991076 0.60550284 0
-0.47366422 2.8176641 -0.049893364 0
-0.4798297 2.702565 0.37602299 0
-0.4805052 2.6899545 0.48431146 0
-0.48050383 2.6899796 0.60126621 0
-0.49336648 2.8183203 -0.049883559 0
-0.49814582 2.7015991 0.37555632 0
-0.49857491 2.6911197 0.48441491 0
-0.49868211 2.6885016 0.60029972 0
-0.5128172 2.8277185 -0.050194852 0
-0.51632053 2.7040985 0.37603304 0
-0.51690578 2.6834486 0.48165315 0
-0.51682228 2.6863949 0.59916794 0
-0.53254169 2.8338702 -0.050398905 0
-0.53470808 2.6962552 0.37392908 0
-0.53484482 2.6875694 0.48289227 0
-0.53488642 2.6849256 0.59839487 0
-0.55244738 2.8292053 -0.05022566 0
-0.55289769 2.6862192 0.37132478 0
-0.55291808 2.6797459 0.48023275 0
-0.55296355 2.6653099 0.59020281 0
-0.57227635 2.8290255 -0.050221466 0
-0.57075179 2.6675673 0.36658031 0
-0.5708822 2.6813788 0.48079488 0
-0.57069004 2.6610284 0.58845317 0
-0.59186929 2.8181243 -0.04984333 0
-0.58865315 2.6721845 0.3678301 0
-0.58851326 2.6658361 0.47571668 0
-0.58846623 2.6637044 0.5896768 0
-0.61154735 2.8172956 -0.049833652 0
-0.60618687 2.6625447 0.3654983 0
-0.60574639 2.6498284 0.47055545 0
-0.60590929 2.6545308 0.58608466 0
-0.63110685 2.8140366 -0.049745969 0
-0.62375408 2.6584299 0.36463273 0
-0.62317836 2.646245 0.46960151 0
-0.62344241 2.6518338 0.58526593 0
-0.65129358 2.8222349 -0.05007679 0
-0.64086431 2.6480649 0.3622255 0
-0.64011264 2.6355124 0.4663372 0
-0.64064485 2.6444004 0.58257353 0
-0.64027274 2.6381862 0.69964337 0
-0.67058146 2.8147707 -0.04985638 0
-0.65756285 2.6352699 0.35924956 0
-0.65781677 2.6387708 0.46780804 0
-0.65779501 2.6384711 0.58059293 0
-0.65672576 2.623728 0.69296879 0
-0.69050348 2.8165441 -0.049975406 0
-0.67437643 2.6272523 0.46442086 0
-0.67399752 2.6228051 0.57465404 0
-0.67368048 2.6190836 0.69131905 0
-0.7106306 2.8195193 -0.050146695 0
-0.69011635 2.6099632 0.45917004 0
-0.68994558 2.6082191 0.56924182 0
-0.68950009 2.6036682 0.68435967 0
-0.72819632 2.7982125 -0.049455129 0
-0.70675105 2.6043522 0.568371 0
-0.70636898 2.6008985 0.68385649 0
-0.74967217 2.8125532 -0.050052747 0
-0.7224232 2.591711 0.56392646 0
-0.72280592 2.5948133 0.68178809 0
-0.7693854 2.8108056 -0.050081454 0
-0.73890579 2.5870039 0.67894995 0
-0.78805804 2.8019168 -0.049861405 0
-0.75474405 2.5783904 0.67580211 0
-0.80907834 2.8084769 -0.050208136 0
-0.82725376 2.7973318 -0.049923517 0
-0.84566641 2.7885201 -0.049731284 0
-0.86781341 2.7989631 -0.050248165 0
-0.88602489 2.7892673 -0.05004134 0
-0.90645069 2.7899575 -0.050222553 0
-0.92561024 2.7848244 -0.050199918 0
-0.94321746 2.7736304 -0.049962826 0
-0.96434236 2.7762275 -0.050242782 0
-0.97835112 2.7527518 -0.049566705 0
-0.99976999 2.7561092 -0.049893342 0
-1.0174968 2.7466984 -0.049754299 0
-1.035975 2.7399294 -0.049722131 0
-1.0545104 2.7333925 -0.049707312 0
-1.0750123 2.7324939 -0.049914524 0
-1.0964154 2.7336321 -0.050209858 0
-1.1099958 2.7135165 -0.049705502 0
-1.128969 2.7080808 -0.049768325 0
-1.1487285 2.704448 -0.04991018 0
-1.1685382 2.7006691 -0.050056733 0
-1.1862842 2.6919065 -0.050019599 0
-1.2035606 2.6821625 -0.049952526 0
-1.2201419 2.6710367 -0.049839139 0
-1.2406477 2.6682088 -0.050062336 0
-1.2540276 2.6507373 -0.049712967 0
-1.2735589 2.6457486 -0.049869295 0
-1.2945807 2.6433265 -0.050140321 0
-1.3111279 2.6323192 -0.050074585 0
-1.3247887 2.616277 -0.049810577 0
-1.3401409 2.6035151 -0.049687091 0
-1.3615737 2.6011004 -0.050000943 0
-1.3751023 2.5853901 -0.049771417 0
-1.3991599 2.5866425 -0.050263546 0
-1.4114232 2.5690942 -0.049972188 0
-1.4285929 2.5592597 -0.05001609 0
-1.4361976 2.5354211 -0.049463406 0
-1.4644058 2.5414932 -0.050216299 0
-1.4780335 2.5265062 -0.05006361 0
-1.4938507 2.5146408 -0.050055932 0
-1.5130899 2.507266 -0.050258704 0
-1.521289 2.4855516 -0.049824256 0
-1.5434637 2.4817176 -0.050208945 0
-1.5543245 2.463727 -0.049955502 0
-1.5674869 2.4487298 -0.049845673 0
-1.5865511 2.440649 -0.050069336 0
-1.5993918 2.4253323 -0.049961116 0
-1.6162963 2.414577 -0.050079886 0
-1.6257651 2.3957503 -0.049815726 0
-1.6360533 2.3780417 -0.049609553 0
-1.6610368 2.3754644 -0.050165288 0
-1.668877 2.3553488 -0.049854279 0
-1.6828307 2.3414392 -0.049863141 0
-1.7034522 2.3337972 -0.05020757 0
-1.7140063 2.3165751 -0.05006472 0
-1.7185208 2.2940755 -0.049644481 0
-1.7424397 2.2889061 -0.050161973 0
-1.755428 2.2739503 -0.050164573 0
-1.7737503 2.2634134 -0.050423369 0
-1.7774814 2.2408397 -0.050015762 0
-1.2299352 1.7981089 0.51890886 0
-1.7945656 2.2291493 -0.050232086 0
-1.2360436 1.789058 0.51839149 0
-1.8053503 2.2124264 -0.050169457 0
-1.2293818 1.7702283 0.50841689 0
-1.8174068 2.1967061 -0.050173547 0
-1.2327789 1.7594486 0.50616151 0
-1.8286059 2.1803536 -0.050148513 0
-1.2355757 1.748348 0.50358623 0
-1.8234029 2.1523836 -0.04941481 0
-1.2360656 1.7357429 0.49945861 0
-1.8391454 2.139504 -0.049611576 0
-1.2381214 1.7244303 0.49661028 0
-1.856407 2.1274745 -0.049879048 0
-1.2360179 1.7104657 0.49091604 0
-1.8606514 2.1067021 -0.049595501 0
-1.240099 1.7008328 0.48977613 0
-1.8751942 2.092715 -0.049761102 0
-1.2469646 1.6930271 0.49068823 0
-1.8888959 2.0780666 -0.049897529 0
-1.2409883 1.677229 0.48270655 0
-1.9011364 2.0624235 -0.049979772 0
-1.2355775 1.6621647 0.47531465 0
-1.9016355 2.0398481 -0.049584083 0
-1.2404754 1.6534861 0.47518852 0
-1.907048 2.0203791 -0.049404614 0
-1.2436485 1.6438329 0.47396201 0
-1.9369564 2.01455 -0.050234959 0
-1.2456197 1.633575 0.47201258 0
-1.9304247 1.9885662 -0.04958741 0
-1.944796 1.9739352 -0.049797952 0
-1.9563944 1.9577405 -0.04990375 0
-1.9620054 1.9385427 -0.049779255 0
-1.9864566 1.9283243 -0.050408743 0
-1.9800359 1.9035264 -0.049828187 0
-1.9923453 1.8874365 -0.049993947 0
-1.9979783 1.8683704 -0.049907599 0
-1.9955677 1.8460571 -0.049520463 0
-1.9979717 1.8259447 -0.049331002 0
-1.9989527 1.805428 -0.049097769 0
-2.0019836 1.7858375 -0.048953444 0
-1.99672 1.763418 -0.048505016 0
-2.0159042 1.7496319 -0.048990954 0
-1.9938397 1.7220507 -0.047932699 0
-1.9970247 1.7031196 -0.047835823 0
-1.9969438 1.6832834 -0.047626551 0
-2.0010173 1.6647789 -0.047581512 0
-1.9865026 1.6412711 -0.046857737 0
-2.0064452 1.627153 -0.047417462 0
-2.0073037 1.6079708 -0.047280725 0
-2.0043728 1.5880105 -0.047014415 0
-1.9913278 1.5660408 -0.046388496 0
-1.9955853 1.5480524 -0.046404757 0
-2.0012262 1.5303138 -0.046479501 0
-2.0039973 1.5120075 -0.046458121 0
-2.0006742 1.4927069 -0.046224624 0
-2.000041 1.4739795 -0.046097491 0
-1.9994853 1.4553505 -0.045981891 0
-2.0104728 1.438262 -0.046290308 0
-2.0110974 1.4197721 -0.046233676 0
-2.0071156 1.4008539 -0.046020176 0
-1.9952239 1.381385 -0.045531966 0
-1.9971029 1.3633008 -0.045546044 0
-2.0012183 1.3453448 -0.045648258 0
-1.9972179 1.3269045 -0.045468375 0
-1.9880701 1.3083938 -0.045112986 0
-1.9963623 1.2905704 -0.045388855 0
-2.0003078 1.2724947 -0.045517504 0
-2.0010867 1.2543254 -0.045541223 0
-1.1341957 0.26436791 -0.049934573 0
-0.38888067 0.2643699 0.416991 0
-0.38273376 0.2643699 0.4894979 0
-1.1362078 0.24461387 -0.050010849 0
-0.3981353 0.2539098 0.42165443 0
-1.12561 0.22512054 -0.0496457 0
-0.40757525 0.24320862 0.35394928 0
-0.40311497 0.24332097 0.42424566 0
-1.1400816 0.20493433 -0.050184794 0
-0.5282014 0.2280605 0.10932418 0
-0.51165819 0.22868577 0.17640692 0
-1.2314808 0.20147987 0.43084875 0
-1.2381942 0.20122613 0.5622412 0
-1.2389606 0.20119718 0.69855642 0
-1.1351231 0.18534376 -0.050038751 0
-0.50665236 0.21702589 0.10706278 0
-0.5165025 0.21652932 0.17737636 0
-1.2368164 0.18021724 0.43244776 0
-1.2416335 0.17997441 0.56369585 0
-1.2424687 0.1799323 0.70039546 0
-1.1342345 0.16559666 -0.050047006 0
-0.5122593 0.20480828 0.10773876 0
-0.51497591 0.20463702 0.17722295 0
-1.2461065 0.15854384 0.43512738 0
-1.2456256 0.15857415 0.56542516 0
-1.1277363 0.14626522 -0.049863324 0
-0.51283908 0.19281048 0.10789014 0
-0.51320076 0.1927831 0.1770515 0
-1.2392604 0.13782328 0.43375069 0
-1.2354013 0.13811541 0.56250268 0
-1.130554 0.12623742 -0.050022043 0
-0.50758779 0.18129046 0.1074289 0
-0.51076782 0.18100944 0.17678779 0
-1.2388076 0.11667079 0.43407676 0
-1.2444586 0.11617141 0.5661028 0
-1.1237059 0.10707098 -0.049843166 0
-0.50800228 0.16930452 0.10759471 0
-0.52166456 0.16792357 0.17896684 0
-1.2320191 0.096122988 0.43284684 0
-1.2395363 0.095363162 0.56512529 0
-1.1217804 0.087468065 -0.049849581 0
-0.5065906 0.1574854 0.03974472 0
-0.50862974 0.15725331 0.10780012 0
-0.51013923 0.15708151 0.177109 0
-1.2473049 0.073181607 0.4373498 0
-1.2442591 0.073528253 0.56746364 0
-1.1234585 0.067401312 -0.049994558 0
-0.51588333 0.14431292 0.040130243 0
-0.50416088 0.14579684 0.10747021 0
-0.50804919 0.14530462 0.17698821 0
-1.2370293 0.053024624 0.43536055 0
-1.2515737 0.051183466 0.57076699 0
-1.1173996 0.048306677 -0.049870003 0
-0.51287383 0.13257891 0.04007896 0
-0.51274228 0.13259725 0.10857143 0
-0.50767231 0.13330401 0.17720616 0
-1.244236 0.030625392 0.4379366 0
-1.2397937 0.031244669 0.56775647 0
-1.1104152 0.029438663 -0.049720462 0
-0.51171631 0.12059761 0.040099792 0
-0.51804096 0.11963461 0.10933594 0
-0.5061118 0.12145095 0.17723614 0
-1.2436881 0.0091463225 0.43858904 0
-1.2480357 0.0084843533 0.57156259 0
-1.117269 0.0083887475 -0.050079931 0
-0.50738692 0.10912336 0.040011346 0
-0.50765651 0.10907883 0.10841154 0
-0.51803893 0.10736396 0.17975888 0
-1.2341937 -0.010923783 0.43699926 0
-1.2407001 -0.011998455 0.57022041 0
-1.1222792 -0.012593488 -0.050382953 0
-0.49902982 0.098428003 0.03978188 0
-0.51494259 0.095593415 0.10942848 0
-0.51252097 0.096024789 0.179124 0
-1.2407624 -0.033699285 0.43963405 0
-1.2410842 -0.033756595 0.57157093 0
-1.1036334 -0.029274564 -0.049836461 0
-0.50413007 0.085323088 0.040045891 0
-0.50522703 0.085113399 0.10860617 0
-0.51764321 0.082739986 0.18046749 0
-1.246879 -0.05665658 0.44223216 0
-1.2341945 -0.054231863 0.57055372 0
-1.1050487 -0.049662661 -0.050027192 0
-0.51398867 0.071054332 0.040489979 0
-0.51152241 0.071558021 0.10955245 0
-0.51300681 0.071254872 0.18004888 0
-1.2345906 -0.076120056 0.44011953 0
-1.2438869 -0.078018732 0.57525194 0
-1.0937589 -0.067429699 -0.049763635 0
-0.5206126 0.057166252 0.040823653 0
-0.51785094 0.057766605 0.11052368 0
-0.51468259 0.058455367 0.18082076 0
-1.2443362 -0.10016362 0.44381788 0
-1.2431891 -0.09991423 0.57652736 0
-1.0965086 -0.08824686 -0.050021879 0
-0.52131975 0.044399131 0.040947918 0
-0.50645423 0.047827307 0.10956196 0
-0.51658952 0.045489971 0.18166748 0
-1.2444897 -0.1223732 0.44509465 0
-1.2372054 -0.12069333 0.57609582 0
-1.0834138 -0.10539002 -0.049708284 0
-0.50791228 0.034982536 0.040559784 0
-0.49972111 0.036980469 0.10912699 0
-0.50815535 0.034923244 0.18062738 0
-1.2337925 -0.14206941 0.44359916 0
-1.2348366 -0.14232408 0.57699031 0
-1.0838696 -0.12579452 -0.049901143 0
-0.55180091 0.011104573 0.042286921 0
-0.55846375 0.0093902545 0.11597155 0
-0.56271446 0.0082965689 0.1913394 0
-1.2412111 -0.16627784 0.44693652 0
-1.2398361 -0.16592409 0.58051234 0
-1.0843035 -0.14633729 -0.050103344 0
-0.6235534 -0.021582108 0.045061652 0
-0.619995 -0.020618599 0.12318859 0
-1.2354311 -0.18725739 0.31764886 0
-1.2420688 -0.18905465 0.44863153 0
-1.2404549 -0.18861766 0.58263874 0
-1.0717831 -0.1633483 -0.049835037 0
-0.69440567 -0.056049686 0.047828175 0
-0.68139219 -0.052349608 0.1304587 0
-1.2471997 -0.21322398 0.32094643 0
-1.2411444 -0.21150227 0.44993588 0
-1.2417691 -0.21167989 0.58511192 0
-1.0825642 -0.18710862 -0.050441727 0
-0.76708281 -0.093099542 0.050689213 0
-0.77078044 -0.094201423 0.14093971 0
-1.2472988 -0.23619728 0.3221218 0
-1.2482886 -0.2364922 0.45346826 0
-1.239925 -0.23399995 0.58659869 0
-1.0600744 -0.20094837 -0.049817778 0
-0.87516153 -0.14330213 0.054902792 0
-0.86794138 -0.14105125 0.15239616 0
-1.227349 -0.2530959 0.31956893 0
-1.2407475 -0.25727281 0.45317394 0
-1.2475231 -0.25938508 0.59147948 0
-1.0503371 -0.21848099 -0.049676601 0
-0.98873234 -0.19842134 0.059363578 0
-0.98458934 -0.19707231 0.16616869 0
-1.2346148 -0.27848521 0.32220778 0
-1.2346969 -0.27851191 0.45334837 0
-1.2425071 -0.28105506 0.59207851 0
-1.0618397 -0.24312489 -0.050343957 0
-1.110975 -0.25981137 0.064196542 0
-1.1378503 -0.26893833 0.1842356 0
-1.2424312 -0.3044543 0.32502353 0
-1.2361921 -0.30233553 0.45562866 0
-1.0498527 -0.25996295 -0.050136492 0
-1.2934536 -0.34612647 0.2027531 0
-1.2446852 -0.3288767 0.32685027 0
-1.2413216 -0.327687 0.45898363 0
-1.0403973 -0.27757987 -0.050032414 0
-1.2628194 -0.35941765 0.20014101 0
-1.2325225 -0.34827021 0.32597396 0
-1.2323866 -0.3482202 0.4586173 0
-1.0155832 -0.28924993 -0.049349263 0
-1.2583979 -0.38207856 0.20055142 0
-1.2418756 -0.37576208 0.32929474 0
-1.2386026 -0.37451079 0.46245801 0
-1.0294647 -0.31575951 -0.050154593 0
-1.2449502 -0.40126517 0.19995318 0
-1.2413839 -0.3998501 0.33078894 0
-1.2360458 -0.39773193 0.46400061 0
-1.0163606 -0.33178344 -0.049935177 0
-1.2411056 -0.4242554 0.20049584 0
-1.2445718 -0.42568156 0.33306754 0
-1.2316258 -0.42035493 0.46511766 0
-1.0071007 -0.3492811 -0.049871579 0
-1.2559165 -0.4553397 0.20325458 0
-1.2357162 -0.44672933 0.33306089 0
-1.2398009 -0.44847044 0.46981269 0
-0.99427772 -0.36516109 -0.049677163 0
-1.2390954 -0.47317812 0.2023589 0
-1.2450174 -0.47579095 0.33668539 0
-1.240018 -0.47358516 0.47241309 0
-0.98764861 -0.38372025 -0.049732517 0
-1.2448392 -0.50108707 0.2041501 0
-1.2354851 -0.49681839 0.33666956 0
-1.2424065 -0.4999769 0.47572592 0
-0.98744082 -0.40535465 -0.05005087 0
-1.2356021 -0.52239847 0.20421354 0
-1.2432867 -0.52602285 0.34016269 0
-1.2379693 -0.52351493 0.4772265 0
-0.97572219 -0.42163506 -0.04992485 0
-1.4994264 -0.67674673 0.082722127 0
-1.2406734 -0.55070055 0.20601982 0
-1.2515906 -0.55601865 0.34385166 0
-1.2463332 -0.55345762 0.48245308 0
-0.96992111 -0.44079474 -0.050042659 0
-1.4397607 -0.67703283 0.080817521 0
-1.2323849 -0.57276309 0.20627326 0
-1.2391795 -0.5761795 0.34345844 0
-1.2436037 -0.57840395 0.48465222 0
-0.96000504 -0.4579173 -0.050005417 0
-1.4050395 -0.68874872 0.079903796 0
-1.2411451 -0.60373962 0.20862588 0
-1.2406716 -0.60349405 0.34593874 0
-0.95054996 -0.47526005 -0.049995288 0
-1.3436451 -0.68547446 0.077909969 0
-1.244565 -0.63248968 0.21039097 0
-1.2305282 -0.62498325 0.3461262 0
-0.94221663 -0.49321648 -0.050039686 0
-1.3089885 -0.69533342 0.076990508 0
-1.2397779 -0.6571936 0.21120554 0
-1.2358292 -0.65501761 0.34955084 0
-0.93142867 -0.50981921 -0.049992885 0
-1.2611494 -0.69696909 0.075528376 0
-1.2381684 -0.68392497 0.21245694 0
-1.2389382 -0.68436193 0.35262361 0
-0.91887343 -0.52535468 -0.049881279 0
-1.2462754 -0.7166785 0.075419404 0
-1.2374525 -0.7115227 0.21387057 0
-1.243619 -0.71512616 0.35612431 0
-0.90934765 -0.54262376 -0.049903151 0
-1.2452719 -0.74464434 0.075897753 0
-1.2426306 -0.74305588 0.21607749 0
-1.2418013 -0.74255711 0.35836524 0
-0.88516867 -0.5508492 -0.049319126 0
-1.2495315 -0.77626759 0.07661552 0
-1.2388654 -0.76966888 0.21722147 0
-1.2381824 -0.76924628 0.36031467 0
-0.89020455 -0.57717699 -0.049970973 0
-1.2549416 -0.80922741 0.077404521 0
-1.2287729 -0.79257852 0.21761119 0
-1.2340742 -0.79595143 0.36224675 0
-0.87762296 -0.59253526 -0.049890749 0
-1.2540249 -0.83871907 0.077947788 0
-1.2430829 -0.83156246 0.2211747 0
-1.2379277 -0.82819086 0.36598268 0
-0.87256908 -0.61288905 -0.050141945 0
-1.2377571 -0.85835868 0.077851228 0
-1.2375058 -0.85818976 0.2222566 0
-1.2375481 -0.85821813 0.36891839 0
-0.85530221 -0.62502748 -0.049876511 0
-1.2409453 -0.89135689 0.078608654 0
-1.2437387 -0.89328593 0.22493398 0
-1.2433269 -0.89300162 0.373312 0
-0.85139275 -0.64641565 -0.050200041 0
-1.2373873 -0.92022949 0.079095684 0
-1.2456323 -0.92607814 0.22712164 0
-1.6103991 -1.1848335 0.45772967 0
-0.8346951 -0.65877426 -0.049973544 0
-1.247786 -0.95969909 0.080219656 0
-1.2361329 -0.95121008 0.22786924 0
-1.5724381 -1.1961988 0.45336711 0
-0.82986796 -0.67981535 -0.050281014 0
-1.2432377 -0.98898476 0.080709949 0
-1.2404751 -0.98691839 0.23052379 0
-0.81669021 -0.69472283 -0.050227493 0
-1.2382692 -1.0183887 0.081202604 0
-1.2389014 -1.0188742 0.23246323 0
-0.79205418 -0.70055753 -0.049661115 0
-1.1648043 -0.99426872 0.078603581 0
-1.162923 -0.99278623 0.2242965 0
-1.1630455 -0.99288279 0.37236056 0
-0.77478719 -0.71184087 -0.049430624 0
-1.1397603 -1.0069479 0.078187175 0
-1.1359568 -1.0038725 0.22277477 0
-1.1412748 -1.0081725 0.37101215 0
-0.77539277 -0.73774439 -0.050033342 0
-1.2435379 -1.1261227 0.083749518 0
-1.241896 -1.1247606 0.23981512 0
-1.3387465 -1.2051089 0.42107007 0
-0.76087999 -0.75134319 -0.049948994 0
-1.2317637 -1.1521095 0.084024556 0
-1.2432363 -1.1618737 0.24249135 0
-1.3216727 -1.2286305 0.42144167 0
-1.0335811 -0.98343748 0.49719027 0
-0.74990034 -0.76795155 -0.050039232 0
-1.2793829 -1.2302127 0.415851 0
-0.99300873 -0.9801957 0.48880965 0
-0.74407077 -0.78926128 -0.050387267 0
-1.192395 -1.1907266 0.083872475 0
-1.1887612 -1.1874727 0.23989031 0
-1.1983241 -1.196036 0.40081611 0
-0.97263455 -0.99393564 0.48723748 0
-0.7318871 -0.80507308 -0.050444283 0
-0.92859054 -0.98573107 0.47750723 0
-0.69924569 -0.8016749 -0.049508337 0
-0.89414513 -0.98525327 0.47098908 0
-0.69704354 -0.82676631 -0.050069753 0
-0.84714329 -0.97175711 0.45993507 0
-0.68027127 -0.83798629 -0.049921807 0
-0.83862305 -0.99485034 0.46250117 0
-0.66377962 -0.84934717 -0.049793392 0
-0.8137449 -1.0016921 0.45925629 0
-0.64692843 -0.86020714 -0.049652066 0
-0.64322829 -0.88497633 -0.050202996 0
-0.62731564 -0.89694494 -0.050131194 0
-0.61508441 -0.91297942 -0.050264128 0
-0.60103536 -0.9270665 -0.050310891 0
-0.58000457 -0.93295342 -0.049982078 0
-0.57199311 -0.95427531 -0.050383098 0
-0.55236614 -0.96159512 -0.050143503 0
-0.53307509 -0.96907502 -0.049924776 0
-0.51616085 -0.97942191 -0.049847834 0
-0.49886805 -0.98917347 -0.049754646 0
-0.48782885 -1.0074599 -0.050048068 0
-0.46898901 -1.0150408 -0.049877439 0
-0.45219541 -1.0253974 -0.049838763 0
-0.43593836 -1.0365142 -0.04984216 0
-0.42410725 -1.054455 -0.050144788 0
-0.37665999 -0.98140913 0.50022495 0
-0.40440518 -1.0603431 -0.049942356 0
-0.34872246 -0.97220892 0.49263361 0
-0.38629836 -1.0685613 -0.049849551 0
-0.32823253 -0.97404009 0.48954591 0
-0.36949545 -1.0788416 -0.049852699 0
-0.31077617 -0.98050159 0.48837593 0
-0.35597616 -1.0947926 -0.050098646 0
-0.29476917 -0.98929054 0.4881945 0
-0.33732581 -1.1019965 -0.049991418 0
-0.52736163 -1.4392737 0.075812452 0
-0.27370292 -0.98907822 0.48465434 0
-0.3170467 -1.1060717 -0.0497672 0
-0.58694804 -1.5995216 0.081847057 0
-0.25395662 -0.99072677 0.48194507 0
-0.30524945 -1.125798 -0.050187409 0
-0.225091 -0.97476095 0.47271341 0
-0.28614038 -1.1319724 -0.050066747 0
-0.45342475 -1.456993 0.075117141 0
-0.2047226 -0.97378415 0.46928632 0
-0.26833171 -1.14057 -0.050053149 0
-0.43602908 -1.4767289 0.075464919 0
-0.18876137 -0.98106688 0.46904725 0
-0.24842413 -1.1448092 -0.04987574 0
-0.4197824 -1.4994153 0.075936295 0
-0.16776915 -0.97790319 0.46502414 0
-0.23070778 -1.1534448 -0.049882561 0
-0.39522624 -1.5051327 0.075744167 0
-0.14883591 -0.9784289 0.46247715 0
-0.2131681 -1.1624899 -0.049914163 0
-0.43934661 -1.662289 0.081499688 0
-0.13211174 -0.98337525 0.46164623 0
-0.19729318 -1.1754041 -0.050104987 0
-0.1189359 -0.99628288 0.46378756 0
-0.17811485 -1.180854 -0.05001327 0
-0.10119756 -0.99881595 0.46223062 0
-0.15455176 -1.1753879 -0.04951049 0
-0.3004052 -1.5330713 0.075301111 0
-0.076137438 -0.98308855 0.34971058 0
-0.084672764 -1.00402 0.46172184 0
-0.13949354 -1.1905929 -0.049814582 0
-0.29217035 -1.5789242 0.076711535 0
-0.053548679 -0.97199351 0.34494022 0
-0.064215645 -0.99912483 0.45767975 0
-0.12235631 -1.2009226 -0.049938366 0
-0.030118747 -0.95735544 0.14639758 0
-0.031902924 -0.96206671 0.24251558 0
-0.01469533 -0.91662747 0.32819262 0
-0.051128075 -1.0128337 0.46036717 0
-0.10006674 -1.1973759 -0.049542528 0
-0.0080833863 -0.94492728 0.1443208 0
-0.010091288 -0.95043796 0.23917964 0
0.0082069505 -0.90021843 0.3222332 0
-0.084151044 -1.2111963 -0.04981602 0
0.0061034127 -0.95344847 0.14467026 0
0.0064186021 -0.95254833 0.23853631 0
0.021384673 -0.90980846 0.32340625 0
-0.0073467032 -0.99185926 0.44882327 0
-0.067026719 -1.2220358 -0.049983647 0
0.024200158 -0.95060128 0.14374962 0
0.023513483 -0.95264441 0.23755211 0
0.026682692 -0.94321471 0.33102939 0
0.013642 -0.98201567 0.44345933 0
-0.046585068 -1.2229731 -0.049787294 0
0.037409559 -0.96223038 0.14449301 0
0.037278935 -0.96263593 0.23848771 0
0.022078918 -1.0098209 0.34753862 0
0.021735447 -1.0108871 0.45174176 0
-0.032079265 -1.2427049 -0.050303485 0
0.024446862 -1.0593531 0.35940993 0
-0.008564515 -1.2331517 -0.049734652 0
0.06856288 -0.9713102 0.33465439 0
0.0076433583 -1.2481368 -0.050088782 0
0.08435528 -0.97506613 0.33446118 0
0.024557309 -1.2614602 -0.050387878 0
0.099570796 -0.98091573 0.33487415 0
0.046266124 -1.2567716 -0.05003041 0
0.11778064 -0.97514969 0.33227876 0
0.064472452 -1.2655771 -0.050179582 0
0.084232792 -1.2680346 -0.05010432 0
0.10517438 -1.2647359 -0.049828202 0
0.12263753 -1.2777741 -0.050157297 0
0.1421846 -1.280995 -0.050136998 0
-0.063413426 -2.3752463 0.10188676 0
0.16070499 -1.2900215 -0.050336085 0
0.0025676952 -2.1942666 0.095108747 0
0.18051009 -1.2920129 -0.05028877 0
0.032938167 -2.2033195 0.095247403 0
0.20167179 -1.2846967 -0.049914598 0
0.063655958 -2.2107394 0.095340677 0
0.22091083 -1.2895657 -0.049989711 0
0.097328201 -2.19699 0.094684996 0
0.24064243 -1.2909006 -0.049946312 0
0.12889184 -2.1965945 0.094525956 0
0.26002741 -1.295119 -0.050015472 0
0.16070996 -2.1929231 0.094263755 0
0.27961868 -1.297763 -0.050036829 0
0.19060618 -2.2070367 0.094654247 0
0.29939517 -1.2984473 -0.049996793 0
0.22297749 -2.1954019 0.094135232 0
0.31915271 -1.2990458 -0.04996264 0
0.2537958 -2.2001872 0.094219051 0
0.33868533 -1.3030497 -0.050059211 0
0.28500733 -2.1994772 0.094120152 0
0.35826695 -1.3075266 -0.050181422 0
0.3162069 -2.1976471 0.093995333 0
0.37829155 -1.301795 -0.04994772 0
0.34713751 -2.2011807 0.094076209 0
0.39819109 -1.2943997 -0.049663678 0
0.37803805 -2.2088902 0.094320096 0
0.41775128 -1.3020523 -0.049925864 0
0.4374629 -1.2980688 -0.049781431 0
0.45726234 -1.305938 -0.050069042 0
0.47693002 -1.3018872 -0.049939927 0
0.49681139 -1.3052034 -0.050082825 0
0.5163213 -1.2996428 -0.0499174 0
0.53648204 -1.3056322 -0.050173875 0
0.55545199 -1.2941804 -0.049815089 0
0.57519805 -1.2939488 -0.049866695 0
0.5964812 -1.3080785 -0.050442789 0
0.61478108 -1.2931875 -0.04998621 0
0.63413727 -1.2889132 -0.049919385 0
0.65305167 -1.2818525 -0.04976074 0
0.67339641 -1.2846994 -0.049968343 0
0.6932137 -1.2835135 -0.050039649 0
0.7127685 -1.2805815 -0.050056804 0
0.73047698 -1.2680726 -0.049734637 0
0.75011438 -1.265962 -0.049798891 0
0.77064025 -1.2676525 -0.050011322 0
0.78861558 -1.2577684 -0.04980946 0
0.80772686 -1.2530587 -0.049805578 0
0.82698184 -1.2488991 -0.049830835 0
0.84595412 -1.2436289 -0.049824033 0
0.86635083 -1.2433153 -0.050010204 0
0.88586318 -1.239602 -0.050079871 0
0.9072001 -1.2415031 -0.050369158 0
0.92383307 -1.2284485 -0.050107617 0
0.94301373 -1.2233773 -0.050154161 0
0.95951509 -1.2106999 -0.049921688 0
0.97697455 -1.2010629 -0.049811818 0
0.99205106 -1.1854579 -0.049481422 0
0.92203778 -1.0040356 0.45832509 0
1.015359 -1.1910269 -0.049970943 0
0.93978673 -1.002309 0.45995116 0
1.0309567 -1.1771142 -0.049721267 0
0.95935655 -1.0046405 0.46312785 0
1.057672 -1.1894957 -0.050499685 0
0.96974689 -0.98500758 0.45845652 0
1.0720183 -1.172722 -0.05015631 0
0.98951364 -0.98730928 0.46179384 0
1.0891685 -1.162614 -0.050079979 0
1.0044967 -0.9786045 0.46121055 0
1.1045617 -1.1489285 -0.049870279 0
1.0248348 -0.9812575 0.46487722 0
1.1247715 -1.145381 -0.050070178 0
1.045032 -0.98298842 0.46831945 0
1.1432413 -1.1380808 -0.050131321 0
1.0601459 -0.97410518 0.46791947 0
1.1581365 -1.1238421 -0.04992269 0
1.081525 -0.97726804 0.47211018 0
1.1780242 -1.1191725 -0.050108284 0
1.1053694 -0.98433214 0.47790515 0
1.1968488 -1.1123117 -0.0502159 0
1.1280768 -0.98843819 0.057157613 0
1.1316913 -0.9949488 0.16079676 0
1.1325791 -0.99654788 0.26610073 0
1.127259 -0.98696536 0.37115771 0
1.1328611 -0.99705595 0.48600829 0
1.2105172 -1.0962738 -0.049956597 0
1.1478018 -0.98658723 0.057445735 0
1.1447101 -0.98118001 0.16019438 0
1.1422328 -0.97684735 0.26385993 0
1.1434916 -0.97904891 0.37143102 0
1.1506456 -0.991561 0.48732007 0
1.2304735 -1.0912732 -0.050159708 0
1.1581175 -0.96834403 0.057067174 0
1.1589811 -0.96981114 0.15990719 0
1.1660752 -0.98186368 0.26680031 0
1.1628015 -0.97630185 0.3732971 0
1.1650335 -0.9800939 0.48642224 0
1.2445277 -1.0762453 -0.049956292 0
1.2690235 -1.0782424 -0.050474819 0
1.2775644 -1.0546513 -0.049925644 0
1.2932154 -1.0425551 -0.049867857 0
1.3120811 -1.0352763 -0.050025713 0
1.3271085 -1.0222765 -0.049946472 0
