# .PCD v0.7 - Point Cloud Data file format
VERSION 0.7
FIELDS x y z intensity
SIZE 4 4 4 4
TYPE F F F F
COUNT 1 1 1 1
WIDTH 1316
HEIGHT 1
VIEWPOINT 0 0 0 1 0 0 0
POINTS 1316
DATA ascii
1.815558 -0.016616847 -0.091202207 0
3.0437212 0.64171845 -0.14037924 0
4.5763164 1.463239 -0.1407046 0
9.1651239 3.9229882 -0.14078073 0
0.78086138 -0.54556084 -0.089758448 0
0.88143557 -0.48833725 -0.089829065 0
1.0105685 -0.41486469 -0.089935385 0
1.1768843 -0.32023612 -0.089162193 0
1.2153027 -0.29837731 -0.062316168 0
1.2165258 -0.29768136 -0.029569035 0
3.0049374 0.71986932 -0.14064763 0
4.5163374 1.5798087 -0.14088443 0
9.0363655 4.1515641 -0.14072992 0
0.78379852 -0.51735485 -0.093327887 0
0.87256128 -0.4638429 -0.090718828 0
0.99749333 -0.38852569 -0.09026926 0
1.1606306 -0.29017594 -0.089326538 0
1.1389315 -0.30325761 -0.054325599 0
1.201707 -0.26541242 -0.029897993 0
2.9575725 0.79313785 -0.14037949 0
4.4529524 1.6946502 -0.14104064 0
8.9132366 4.3836002 -0.14098664 0
0.76266539 -0.50347894 -0.091064759 0
0.85794437 -0.44270918 -0.090477146 0
0.98509389 -0.36161211 -0.090868823 0
1.151554 -0.25544241 -0.090815373 0
1.1497861 -0.25656995 -0.058279965 0
1.1800921 -0.23724052 -0.029569363 0
2.9187129 0.87166733 -0.14096439 0
4.3832941 1.8057904 -0.14101179 0
8.7670689 4.6018004 -0.14077243 0
0.74353409 -0.48888418 -0.089365013 0
0.84020394 -0.42373875 -0.08964204 0
0.95907474 -0.34363219 -0.088912942 0
1.1230056 -0.23315981 -0.089177258 0
1.1443603 -0.21876898 -0.060172323 0
1.1665695 -0.20380238 -0.030225312 0
2.8760643 0.9482196 -0.14140566 0
4.3147521 1.9177456 -0.1412013 0
8.6203718 4.8192854 -0.14069287 0
0.73732936 -0.46557298 -0.09110155 0
0.83517653 -0.39598098 -0.091839917 0
0.94569951 -0.31737348 -0.089562438 0
1.1094617 -0.20090064 -0.090193205 0
1.144284 -0.17613384 -0.063001804 0
1.1340408 -0.18341914 -0.028812012 0
2.8063276 1.0059648 -0.13969536 0
4.2308021 2.0190966 -0.14067402 0
8.485218 5.0449734 -0.14109649 0
0.71454972 -0.45415857 -0.088622294 0
0.81918091 -0.37569222 -0.091660939 0
0.93573177 -0.28828683 -0.09105926 0
1.0981939 -0.16645125 -0.091770135 0
1.0992752 -0.16564026 -0.05947702 0
1.1119411 -0.15614179 -0.02864795 0
1.1027247 -0.16305342 0.0046950672 0
1.0944794 -0.16923681 0.037337754 0
1.0971535 -0.16723141 0.069113098 0
1.1006607 -0.1646013 0.10100964 0
1.0975302 -0.16694888 0.13291694 0
1.1003407 -0.16484126 0.16502275 0
1.1127883 -0.15550634 0.19820486 0
0.71342796 -0.42636332 -0.0920377 0
0.79674238 -0.36053434 -0.090053491 0
0.91778362 -0.26489636 -0.091066904 0
1.055786 -0.15585706 -0.087955557 0
1.0987015 -0.12194833 -0.062539093 0
1.1042699 -0.11754856 -0.030278152 0
1.1014634 -0.11976603 0.0029187819 0
1.0938274 -0.12579951 0.036128145 0
1.1028545 -0.11866686 0.068319216 0
1.1054305 -0.11663148 0.10101058 0
1.0973806 -0.12299195 0.1335392 0
1.0974435 -0.12294236 0.16610716 0
1.0974388 -0.12294599 0.19874361 0
0.69350588 -0.41313574 -0.090519123 0
0.79287297 -0.3304666 -0.093054421 0
0.89263934 -0.24746528 -0.089661159 0
1.0286461 -0.13431349 -0.08689972 0
1.0993092 -0.075524837 -0.06601169 0
1.1002587 -0.074734956 -0.032504383 0
1.1066885 -0.069385618 0.00041661621 0
1.102899 -0.072538406 0.034238305 0
1.102107 -0.073197216 0.067666836 0
1.1023918 -0.072960287 0.1010113 0
1.0952438 -0.078907162 0.1341477 0
1.1081164 -0.068197697 0.16810086 0
1.0950994 -0.079027206 0.20055193 0
0.68528503 -0.39012256 -0.092365898 0
0.76822865 -0.31749871 -0.091109388 0
0.88331854 -0.21672818 -0.091775768 0
0.99011427 -0.12321976 -0.083792858 0
1.1008198 -0.026288178 -0.069882102 0
1.0999993 -0.027006593 -0.0353784 0
1.1008456 -0.026265588 -0.0012298503 0
1.1044788 -0.023084369 0.032687556 0
1.0968643 -0.029751446 0.067103714 0
1.1031233 -0.024271216 0.10101222 0
1.0975473 -0.029153552 0.13494144 0
1.1009513 -0.026172962 0.16911863 0
1.0973855 -0.029295113 0.20293278 0
1.105039 -0.022593942 0.23802896 0
1.0958717 -0.030620601 0.37516063 0
0.66862905 -0.37426391 -0.091984265 0
0.74057043 -0.30799314 -0.088429712 0
0.85179931 -0.20553163 -0.089151107 0
0.97046733 -0.096217364 -0.084274329 0
1.0579596 -0.015621569 -0.066988073 0
1.1015362 0.024520192 -0.038699079 0
1.1086411 0.031065259 -0.0043136533 0
1.0977824 0.021062288 0.03154612 0
1.0968392 0.020193491 0.06632816 0
1.0912853 0.015077386 0.10101271 0
1.0952357 0.018716369 0.13564694 0
1.0925558 0.016247664 0.17014877 0
1.1037328 0.02654377 0.20587392 0
1.106945 0.029502783 0.24141292 0
1.0295867 -0.041758027 0.36446613 0
0.64645225 -0.3638604 -0.09007626 0
0.73140705 -0.281544 -0.090596519 0
0.83537304 -0.18080679 -0.089979447 0
0.83755845 -0.17868921 -0.062735938 0
0.84247667 -0.17392376 -0.035973612 0
0.83823234 -0.1780363 -0.0078476947 0
0.84181976 -0.17456028 0.019119339 0
0.83981687 -0.17650095 0.046593312 0
0.84578657 -0.17071667 0.073619984 0
0.83281922 -0.18328127 0.10100346 0
0.84027797 -0.17605415 0.12820923 0
0.84596318 -0.17054555 0.15581323 0
0.83653343 -0.1796824 0.18237363 0
1.0998317 0.075438768 0.24387656 0
1.0105934 -0.011028077 0.29861879 0
1.0093858 -0.012198236 0.3318249 0
0.98638415 -0.034485485 0.35948998 0
0.63876337 -0.33931813 -0.092594288 0
0.71717763 -0.2594057 -0.091634654 0
0.82030118 -0.15431198 -0.091291808 0
0.83841294 -0.13585415 -0.067064665 0
0.84016871 -0.13406488 -0.039066125 0
0.84360242 -0.13056555 -0.011326751 0
0.83753145 -0.13675252 0.017468797 0
0.83996361 -0.13427386 0.045202669 0
0.83181864 -0.14257446 0.07338912 0
0.84185076 -0.13235065 0.10100468 0
0.84019965 -0.13403329 0.12889835 0
0.83998311 -0.13425401 0.15680797 0
0.83529425 -0.13903245 0.18431704 0
0.84490401 -0.12923905 0.21351042 0
1.1036165 0.13441601 0.2850596 0
0.95233846 -0.019752052 0.29194412 0
0.94746202 -0.024721708 0.32315123 0
0.94505864 -0.027170923 0.35493806 0
0.62302446 -0.32250723 -0.092863403 0
0.69540519 -0.24492124 -0.090770788 0
0.79943377 -0.13341144 -0.091402821 0
0.84185338 -0.0879412 -0.072264545 0
0.83729202 -0.092830569 -0.042316038 0
0.84151363 -0.088305324 -0.014042331 0
0.83893967 -0.091064423 0.015092717 0
0.83786285 -0.092218727 0.043855529 0
0.8474775 -0.081912607 0.072118238 0
0.84119529 -0.088646621 0.10100556 0
0.84145701 -0.088366121 0.12968774 0
0.83421034 -0.096133858 0.15790589 0
0.83832622 -0.091721982 0.18685564 0
0.83918047 -0.090806335 0.21573465 0
1.0963539 0.18486169 0.28873485 0
0.92358661 -0.00033011692 0.29112247 0
0.93759322 0.014683757 0.32671097 0
0.93359321 0.010396156 0.35855913 0
0.60396266 -0.30932513 -0.092209809 0
0.68376362 -0.2193366 -0.092860349 0
0.78080773 -0.10990366 -0.092201166 0
0.84967673 -0.032242741 -0.078795351 0
0.84474748 -0.037801232 -0.047660504 0
0.83802366 -0.04538342 -0.01678708 0
0.84015542 -0.042979505 0.012548568 0
0.83906239 -0.044212069 0.042164508 0
0.84152669 -0.041433241 0.071515054 0
0.83900619 -0.044275489 0.10100646 0
0.83618826 -0.047453132 0.13031058 0
0.83778507 -0.045652475 0.15975882 0
0.83786184 -0.045565929 0.18922293 0
0.84714019 -0.035103049 0.22008386 0
1.0964261 0.24600711 0.2940301 0
1.1002886 0.25036278 0.33391532 0
0.58760566 -0.29315141 -0.092536755 0
0.65483475 -0.21337232 -0.090146504 0
0.72315514 -0.1322982 -0.083219327 0
0.84862351 0.01659194 -0.083890788 0
0.8362447 0.001902375 -0.050521199 0
0.83510339 0.00054797868 -0.019852361 0
0.8421011 0.0088519789 0.0097181965 0
0.83379292 -0.0010070469 0.040803216 0
0.83720332 0.0030399298 0.070798501 0
0.83366388 -0.0011602308 0.10100729 0
0.83887017 0.0050179693 0.13127673 0
0.83415276 -0.00058009883 0.16123755 0
0.83729833 0.0031527018 0.19177602 0
0.84532124 0.012673292 0.22334868 0
0.8407228 0.007216427 0.2533496 0
1.1023654 0.31770101 0.34126887 0
0.55981141 -0.29111907 -0.089120515 0
0.63422167 -0.19815585 -0.089897029 0
0.71974623 -0.091307312 -0.088070117 0
0.8460235 0.066454917 -0.089074396 0
0.84257758 0.062149916 -0.056432683 0
0.836281 0.054283295 -0.02379836 0
0.83632708 0.054340873 0.007516766 0
0.83815145 0.056620155 0.038601082 0
0.83856022 0.057130966 0.069806539 0
0.83303636 0.050229821 0.10100841 0
0.83750296 0.055810008 0.13217139 0
0.83871615 0.057325635 0.1634585 0
0.83897144 0.057644639 0.1947968 0
0.83559793 0.053429995 0.22571406 0
0.84221166 0.061692748 0.25838295 0
1.1043361 0.3891733 0.34921041 0
1.100854 0.38482299 0.3903473 0
0.54565537 -0.27245417 -0.090398513 0
0.61583322 -0.18009523 -0.0904494 0
0.70709759 -0.059984948 -0.090851106 0
0.72506589 -0.036337461 -0.067227446 0
0.72713745 -0.033611085 -0.039308716 0
0.72645742 -0.034506109 -0.010957977 0
0.73377806 -0.024871554 0.01629311 0
0.72067642 -0.042114224 0.045589577 0
0.73187202 -0.027380016 0.072881714 0
0.72715563 -0.033587124 0.10100466 0
0.72537023 -0.035936859 0.12887761 0
0.73122185 -0.0282357 0.15723175 0
0.72751296 -0.033116903 0.18499264 0
0.72332162 -0.038633015 0.21248373 0
0.72756904 -0.033043053 0.2414024 0
0.73301345 -0.025877859 0.27108482 0
0.72517186 -0.036197927 0.29777205 0
0.72973824 -0.030188229 0.32792267 0
0.52799183 -0.25811204 -0.090615325 0
0.59857142 -0.16019043 -0.091528766 0
0.67691314 -0.05149975 -0.089020647 0
0.72963566 0.021647129 -0.074160047 0
0.95283741 0.33131555 -0.089287303 0
0.84695959 0.18442145 -0.034076516 0
0.84210342 0.1776841 0.00040446431 0
0.84041822 0.17534605 0.034134891 0
0.83895135 0.17331091 0.067649566 0
0.83313459 0.16524068 0.10101102 0
0.8427217 0.17854181 0.13452339 0
0.83830172 0.17240956 0.16771933 0
0.83841562 0.17256752 0.20117758 0
0.83975375 0.17442408 0.23494965 0
0.84001786 0.17479053 0.26876086 0
0.84642822 0.18368426 0.30425557 0
1.09937 0.53461379 0.4098146 0
0.50921422 -0.24528399 -0.090554498 0
0.56849194 -0.15850785 -0.088533454 0
0.65942788 -0.025387492 -0.09088289 0
0.75845695 0.11958042 -0.087753527 0
0.92024535 0.35642114 -0.089500971 0
1.157106 0.70315951 -0.09034393 0
0.85077739 0.25472751 -0.0043529999 0
0.84233499 0.24236873 0.031529378 0
0.84292489 0.2432324 0.066265665 0
0.83472812 0.23123315 0.10101259 0
0.84301716 0.24336746 0.13576421 0
0.84143561 0.24105218 0.17042245 0
0.83785754 0.23581424 0.20477764 0
0.83613092 0.23328665 0.2392557 0
0.83871591 0.23707083 0.27463496 0
0.84012842 0.23913851 0.31012908 0
1.1026595 0.62345558 0.42208233 0
1.1036958 0.62497252 0.46930349 0
0.49082628 -0.23185334 -0.090768166 0
0.55887288 -0.12663552 -0.092530124 0
0.63184619 -0.013799813 -0.089959271 0
0.74398947 0.15960303 -0.091312267 0
0.89254433 0.38930753 -0.090909623 0
1.110063 0.72564799 -0.089661069 0
1.4837885 1.303525 -0.08991883 0
0.84857041 0.32131246 0.028307782 0
0.84424561 0.31462517 0.064866208 0
0.83756292 0.30429187 0.10101438 0
0.84021139 0.30838719 0.13699014 0
0.83424032 0.29915431 0.17249233 0
0.84603935 0.3173987 0.20984864 0
0.84310675 0.31286409 0.24580644 0
0.83894759 0.30643311 0.28140485 0
0.83947051 0.30724159 0.3180522 0
0.84307474 0.31281462 0.35591805 0
1.0979676 0.70694548 0.4815689 0
0.47222435 -0.21864763 -0.091039099 0
0.53461248 -0.11662307 -0.091693558 0
0.60382056 -0.0034456516 -0.088947348 0
0.70611858 0.16384438 -0.088983022 0
0.84962755 0.39852741 -0.089151122 0
1.0695453 0.75816315 -0.090216614 0
1.4279943 1.3443418 -0.090257578 0
0.8532421 0.40443829 0.024915913 0
0.84872919 0.39705828 0.063188195 0
0.84391785 0.38919023 0.10101652 0
0.83679634 0.37754419 0.13831231 0
0.83787996 0.37931636 0.1757458 0
0.83883172 0.38087264 0.21333973 0
0.83456326 0.37389246 0.25020683 0
0.84310883 0.38786712 0.28972495 0
0.83769745 0.37901786 0.32646221 0
0.83865088 0.380577 0.36496207 0
1.0967717 0.80268711 0.49671963 0
0.44915149 -0.21302816 -0.089560203 0
0.50984985 -0.10789576 -0.090723746 0
0.57664198 0.0077913734 -0.08825285 0
0.67828506 0.18384209 -0.089400627 0
0.81768519 0.42528966 -0.089932732 0
1.0267617 0.78741986 -0.090523995 0
1.3666338 1.3760943 -0.089974247 0
1.3667859 1.376358 -0.026199182 0
0.85249811 0.48558727 0.061373841 0
0.83859026 0.46149817 0.10101822 0
0.84331656 0.46968439 0.14023624 0
0.84580731 0.47399846 0.17972879 0
0.83950824 0.46308818 0.21830931 0
0.83674258 0.45829788 0.25708824 0
0.83941054 0.46291891 0.29704878 0
0.84061718 0.465009 0.3370657 0
0.83893734 0.46209934 0.37650898 0
0.83868706 0.46166578 0.416637 0
0.42685691 -0.20668265 -0.088419117 0
0.48383036 -0.10198721 -0.089297704 0
0.55554986 0.029805813 -0.089713655 0
0.64126503 0.18731752 -0.087282233 0
0.78069383 0.44353452 -0.089678429 0
0.98215234 0.81373829 -0.090630524 0
1.2935845 1.3860314 -0.088082634 0
1.2970465 1.3923934 -0.025262525 0
1.2920971 1.3832982 0.03816757 0
0.85009545 0.57106811 0.10102111 0
0.84096348 0.55428702 0.14192957 0
0.83616459 0.54546851 0.18241501 0
0.83848041 0.54972416 0.22356191 0
0.84164494 0.55553931 0.26523483 0
0.8338306 0.54117948 0.3047125 0
0.84070164 0.55380589 0.3479619 0
0.83987242 0.55228204 0.3895182 0
0.83900565 0.55068928 0.43129796 0
0.42001534 -0.17071328 -0.094501965 0
0.46758753 -0.077783018 -0.091901131 0
0.53325909 0.050503645 -0.091011606 0
0.61577344 0.21169201 -0.088639013 0
0.74783725 0.46967295 -0.090587191 0
0.93783325 0.84082228 -0.090934806 0
1.2430078 1.4369676 -0.089581005 0
1.2454695 1.4417765 -0.026174655 0
1.2477467 1.4462249 0.037355099 0
1.2452464 1.4413407 0.10104835 0
0.84658921 0.66258079 0.14422306 0
0.83613873 0.6421662 0.18640065 0
0.83939397 0.64852518 0.22970541 0
0.84034854 0.65038997 0.27301303 0
0.83720726 0.64425355 0.31555608 0
0.83676916 0.64339775 0.35884359 0
0.83649361 0.64285952 0.4024291 0
0.83669436 0.6432516 0.44651821 0
0.39179716 -0.17586771 -0.090854548 0
0.43848866 -0.078688115 -0.089312471 0
0.49930713 0.047894035 -0.088147335 0
0.59085006 0.23842362 -0.090447925 0
0.71269172 0.49201408 -0.091100864 0
0.88515615 0.85096651 -0.089597814 0
1.1833564 1.4716141 -0.089897566 0
1.7856836 2.7252455 -0.090883248 0
4.5034838 8.3818369 -0.14075671 0
0.85252482 0.7830506 0.19262335 0
0.84421939 0.7657643 0.23720434 0
0.8391977 0.75531262 0.28174463 0
0.84011286 0.75721735 0.32754096 0
0.84423918 0.76580542 0.37472838 0
0.8390969 0.75510281 0.41915211 0
0.83708894 0.75092357 0.46472582 0
0.3689349 -0.1711891 -0.089707069 0
0.41473597 -0.069357544 -0.08901953 0
0.47307196 0.060343418 -0.088184483 0
0.56026894 0.25421241 -0.090647705 0
0.67129761 0.50106734 -0.090020217 0
0.84135985 0.87917417 -0.090261512 0
1.1206703 1.5001774 -0.089860313 0
1.6884429 2.7625315 -0.090548314 0
4.265389 8.4919701 -0.14074431 0
1.0699447 1.3873971 0.22244197 0
0.84604955 0.88960105 0.24511547 0
0.84113896 0.87868327 0.29227 0
0.84168345 0.87989384 0.34062651 0
0.8386746 0.87320393 0.38809103 0
0.83880514 0.87349433 0.43678296 0
0.84507298 0.88742977 0.4886829 0
0.35023871 -0.15725216 -0.090839751 0
0.39614663 -0.047887351 -0.091332592 0
0.45154074 0.084076077 -0.090351082 0
0.52469414 0.25834671 -0.089187376 0
0.63699394 0.52587456 -0.091080986 0
0.79792833 0.90926284 -0.091221146 0
1.0596005 1.5326347 -0.090239324 0
1.5974026 2.8138216 -0.091048561 0
4.0241466 8.5949669 -0.14070448 0
0.99603492 1.3812051 0.22080375 0
0.8508243 1.035275 0.2545968 0
0.83800358 1.0047326 0.30295095 0
0.83888102 1.0068228 0.35410854 0
0.83607084 1.0001283 0.40431178 0
0.83965802 1.0086739 0.45722297 0
0.83899492 1.0070941 0.50890493 0
0.33077833 -0.14449361 -0.091800682 0
0.37079445 -0.041991618 -0.09056928 0
0.42577091 0.098831564 -0.091008998 0
0.49572054 0.27800861 -0.090220071 0
0.59713078 0.53777283 -0.090620942 0
0.74945486 0.92795342 -0.091139697 0
0.99696094 1.5619445 -0.090494655 0
1.500886 2.8527567 -0.091041885 0
3.7826233 8.6974659 -0.14080533 0
0.92622519 1.3807535 0.21956265 0
0.84971118 1.1847618 0.26426256 0
0.8415404 1.1638322 0.3168489 0
0.83969837 1.1591136 0.37065098 0
0.83698118 1.1521535 0.42417195 0
0.83973873 1.1592171 0.48017052 0
0.84291357 1.1673493 0.53716993 0
0.30847409 -0.13888642 -0.091247998 0
0.34956816 -0.025238778 -0.092116199 0
0.39889657 0.11118141 -0.09135472 0
0.43589857 0.21351221 -0.078776576 0
0.43557316 0.2126123 -0.04840133 0
0.43808261 0.21955231 -0.019013485 0
0.93427461 1.5917957 -0.090906031 0
1.4033166 2.8889542 -0.091020919 0
3.5361516 8.7874146 -0.14074646 0
0.85690677 1.377831 0.21829809 0
0.84840423 1.3543167 0.27533579 0
0.83684629 1.3223529 0.33055434 0
0.83870673 1.327498 0.38904178 0
0.83820564 1.326112 0.44712749 0
0.83610928 1.3203146 0.5047546 0
0.84264773 1.338397 0.5673207 0
0.28701079 -0.13112512 -0.091309287 0
0.32582325 -0.014679875 -0.092527248 0
0.36907765 0.11509195 -0.090353556 0
0.40394509 0.21970132 -0.078124546 0
0.40421703 0.22051719 -0.048071418 0
0.40658715 0.22762802 -0.018760813 0
0.86802167 1.6120245 -0.090721987 0
1.3042834 2.9208972 -0.090912722 0
3.2884977 8.8739405 -0.14075728 0
0.79059142 1.3797181 0.21736676 0
0.84839678 1.5531459 0.28847772 0
0.83827192 1.5227692 0.34828138 0
0.8388195 1.5244122 0.41079819 0
0.84161127 1.532788 0.47473493 0
0.84048897 1.5294209 0.53746891 0
0.83958465 1.5267076 0.60064888 0
0.26526013 -0.1242049 -0.091304041 0
0.29866281 -0.014867868 -0.09093713 0
0.3361308 0.10777619 -0.087560691 0
0.38354006 0.26296106 -0.083043911 0
0.38044491 0.25282958 -0.050823916 0
0.38124663 0.25545385 -0.020515574 0
0.7224381 1.3722765 -0.071658023 0
0.72800648 1.3905034 -0.014874971 0
0.72442144 1.3787687 0.043399885 0
0.7259993 1.3839333 0.10104124 0
0.72663999 1.3860304 0.15885934 0
0.72435516 1.3785517 0.21637565 0
0.84306687 1.7671309 0.30262765 0
0.83399576 1.7374382 0.36726075 0
0.8333233 1.7352371 0.43408814 0
0.83569914 1.7430141 0.50263977 0
0.83409381 1.7377591 0.56978106 0
0.24083114 -0.12686536 -0.08930663 0
0.27739006 0.0045855972 -0.093332522 0
0.31304336 0.13278022 -0.090443127 0
0.36485451 0.31907192 -0.089878894 0
0.43875042 0.58477134 -0.089977987 0
0.55116546 0.98896974 -0.090689652 0
0.66007423 1.3805611 -0.07099285 0
0.65970826 1.379245 -0.013481161 0
0.65911251 1.3771031 0.043862395 0
0.66163081 1.3861578 0.10104079 0
0.65934658 1.3779445 0.15823908 0
0.65978688 1.3795278 0.21557632 0
0.81218451 1.9274871 0.31279382 0
0.81505412 1.9378052 0.3847315 0
0.81257546 1.9288929 0.4551484 0
0.814206 1.9347556 0.5276739 0
0.81070673 1.9221737 0.59781241 0
0.22436088 -0.099719614 -0.093989782 0
0.24705927 -0.0093298219 -0.089337222 0
0.28140327 0.12743524 -0.088263683 0
0.3343046 0.33809963 -0.091366 0
0.39752418 0.58985323 -0.089319758 0
0.49665964 0.9846316 -0.088996805 0
0.59814942 1.3887854 -0.070441373 0
0.59667701 1.3829219 -0.012896074 0
0.59962261 1.3946519 0.043821722 0
0.5953517 1.3776441 0.10104007 0
0.59566897 1.3789077 0.15788114 0
0.59948784 1.3941152 0.21551476 0
0.77049023 2.0750828 0.32203174 0
0.77010381 2.073544 0.39591461 0
0.76749665 2.0631618 0.46897927 0
0.7701683 2.0738008 0.54499024 0
0.20017244 -0.10181805 -0.092366464 0
0.22322048 0.00086632709 -0.090167113 0
0.25748506 0.153523 -0.091526009 0
0.29790506 0.33360353 -0.089567952 0
0.35742316 0.59877056 -0.089249648 0
0.44795531 1.0021123 -0.089532755 0
0.55215681 1.4663541 -0.074973769 0
0.55317914 1.4709091 -0.016413091 0
0.5518831 1.4651349 0.042484026 0
0.5509885 1.461149 0.10104209 0
0.55124974 1.4623132 0.15953307 0
0.55246782 1.4677401 0.21834677 0
0.7127431 2.1818037 0.32836214 0
0.71553403 2.1942377 0.4057034 0
0.71323222 2.1839826 0.4812572 0
0.71491963 2.1915004 0.55929375 0
0.17601091 -0.10568812 -0.090499975 0
0.19949979 0.012886319 -0.091458924 0
0.22415033 0.13732496 -0.087788694 0
0.26493904 0.34323099 -0.089934237 0
0.320676 0.62459725 -0.091315456 0
0.39744902 1.0121558 -0.089475624 0
0.41501245 1.1008179 -0.047987361 0
0.41614124 1.1065161 0.0015047959 0
0.4158217 1.1049032 0.051333264 0
0.4139975 1.0956943 0.10103108 0
0.41647202 1.108186 0.1508075 0
0.41573554 1.1044683 0.20046094 0
0.41555369 1.1035502 0.2502453 0
0.41318002 1.0915678 0.29909497 0
0.41658774 1.1087701 0.3510665 0
0.40803945 1.0656176 0.39549008 0
0.29534084 0.49670258 0.35003024 0
0.26951927 0.36635247 0.3613508 0
0.15353599 -0.10227981 -0.090343229 0
0.17314413 0.011724386 -0.090340517 0
0.19557536 0.14214221 -0.087712802 0
0.2314814 0.35090438 -0.090139218 0
0.27941623 0.62960345 -0.091013469 0
0.34628332 1.0183766 -0.089177735 0
0.36912984 1.1512091 -0.050868068 0
0.87939072 4.1179285 -0.14028567 0
1.762969 9.2551603 -0.14071509 0
0.58140695 2.3854141 0.26058149 0
0.57977933 2.3759511 0.339883 0
0.58098096 2.3829374 0.42055434 0
0.26167244 0.52643889 0.28080904 0
0.27132446 0.58255678 0.32520607 0
0.27222207 0.58777565 0.36406332 0
0.23680021 0.38182858 0.36309662 0
0.13083465 -0.10057834 -0.089942507 0
0.14951944 0.02729312 -0.092537828 0
0.16884327 0.15953782 -0.089846469 0
0.19929382 0.36792961 -0.091791846 0
0.23810756 0.63355571 -0.090711378 0
0.2970424 1.0368829 -0.090161882 0
0.39572343 1.7122176 -0.08989621 0
0.75074661 4.1418581 -0.14044528 0
1.5046707 9.3014212 -0.14083411 0
0.50767821 2.4783926 0.26432216 0
0.50499451 2.4600263 0.34487104 0
0.50505769 2.4604588 0.42659158 0
0.22275165 0.52846593 0.2803283 0
0.27697724 0.8995648 0.36935037 0
0.2011359 0.38053611 0.36180067 0
0.10907228 -0.091755241 -0.091190599 0
0.12370249 0.029719386 -0.092348464 0
0.13726817 0.142355 -0.086361445 0
0.16381672 0.3627874 -0.090416841 0
0.19741085 0.64171928 -0.091028862 0
0.24565659 1.0423033 -0.090029813 0
0.32668063 1.7150452 -0.089454554 0
0.62328011 4.1777086 -0.14131588 0
1.2438277 9.3301096 -0.14069419 0
0.4256894 2.5371144 0.26653069 0
0.42399612 2.5230548 0.34849402 0
0.42362186 2.5199475 0.43109471 0
0.42441267 2.5265138 0.51504868 0
0.22978212 0.91049761 0.36999756 0
0.16630916 0.38348213 0.36148411 0
0.086176284 -0.091587692 -0.09070503 0
0.09631788 0.015266094 -0.089089461 0
0.11104009 0.17038205 -0.090480171 0
0.12862012 0.35560837 -0.088884167 0
0.15576822 0.64164585 -0.090499349 0
0.19532639 1.0584381 -0.091024421 0
0.26004177 1.7402918 -0.090710826 0
0.49205184 4.1847935 -0.14098985 0
0.98296195 9.3571148 -0.14066923 0
0.34175944 2.6012845 0.26908603 0
0.33908212 2.5730758 0.351338 0
0.3395147 2.5776334 0.43561104 0
0.34034482 2.5863795 0.52095693 0
0.33995613 2.5822842 0.60536528 0
0.17337418 0.82714564 0.40095299 0
0.13062778 0.37676159 0.35950539 0
0.063523047 -0.089380592 -0.090778135 0
0.071509778 0.025527392 -0.090633057 0
0.081614807 0.17091206 -0.090170808 0
0.095698021 0.37353221 -0.091015778 0
0.11462828 0.64588851 -0.090599664 0
0.14176863 1.0363665 -0.088561453 0
0.19139749 1.7503943 -0.09102162 0
0.36132959 4.1952682 -0.14097732 0
0.72105384 9.3707485 -0.1404863 0
0.25326887 2.6405602 0.27057281 0
0.25274551 2.6330302 0.35502416 0
0.13287513 0.9084124 0.2786397 0
0.13356271 0.91830498 0.32456616 0
0.13353036 0.91783935 0.36974645 0
0.12450387 0.78797215 0.39387539 0
0.095933154 0.37691513 0.35899872 0
0.040411424 -0.09682551 -0.08891926 0
0.045574434 0.020013962 -0.089318953 0
0.051599275 0.1563566 -0.087502308 0
0.061593793 0.38253346 -0.092006825 0
0.073321193 0.64792567 -0.090563409 0
0.091108114 1.0504453 -0.08960522 0
0.122268 1.7555964 -0.09111046 0
0.23027827 4.1998787 -0.1408454 0
0.45992774 9.3968678 -0.1407481 0
0.16268183 2.6701651 0.27171102 0
0.16283205 2.6735644 0.35749885 0
0.087044157 0.95847756 0.28306562 0
0.085428745 0.92192072 0.32466888 0
0.086697243 0.95062703 0.3739754 0
0.076935403 0.72971565 0.38386828 0
0.061393689 0.37800506 0.35883442 0
0.017986564 -0.090540677 -0.090104274 0
0.020327695 0.033139978 -0.091640227 0
0.023089256 0.17903176 -0.091079645 0
0.026871307 0.37883559 -0.091333441 0
0.032065809 0.6532585 -0.09103433 0
0.039466701 1.0442436 -0.088874556 0
0.052964017 1.7572997 -0.09107668 0
0.099412531 4.2111506 -0.14117777 0
0.1977485 9.4061871 -0.14077243 0
0.070826732 2.7009778 0.27301162 0
0.070637271 2.6909683 0.35851261 0
0.070672773 2.6928442 0.44493595 0
0.071022853 2.7113385 0.53376704 0
0.032837555 0.69402927 0.37777486 0
0.026866822 0.3785986 0.35874102 0
-0.0046360078 -0.09978798 -0.088108204 0
-0.0054371292 0.027229581 -0.090496324 0
-0.006264146 0.15835288 -0.087650396 0
-0.0076503186 0.37813023 -0.091203697 0
-0.0093540009 0.64824849 -0.090418227 0
-0.011792779 1.0349159 -0.087973662 0
-0.016293252 1.7484648 -0.090428449 0
-0.031721935 4.1946783 -0.14037235 0
-0.064625114 9.4114676 -0.14085671 0
-0.022487804 2.7306092 0.27436543 0
-0.022486281 2.7303674 0.36122829 0
-0.022487344 2.7305362 0.44840163 0
-0.022406476 2.7177145 0.53444374 0
-0.0093679894 0.6504665 0.37056848 0
-0.0076550869 0.37888613 0.35875416 0
-0.027369373 -0.090955168 -0.090076976 0
-0.031374786 0.035994444 -0.092239492 0
-0.035276946 0.15967157 -0.087957345 0
-0.041920088 0.37022272 -0.090183668 0
-0.050720807 0.64915723 -0.090615906 0
-0.063919954 1.0674975 -0.091106616 0
-0.085472547 1.7505965 -0.090668984 0
-0.11910568 2.816582 -0.076298945 0
-0.11899135 2.8129585 0.012522371 0
-0.11886101 2.8088276 0.10107888 0
-0.11881696 2.807431 0.18950684 0
-0.11693016 2.7476304 0.27524203 0
-0.11647914 2.733335 0.36156034 0
-0.11658885 2.7368124 0.44915405 0
-0.11679292 2.7432804 0.5376417 0
-0.050576322 0.6445778 0.36972862 0
-0.042453088 0.38711587 0.36042863 0
-0.05022081 -0.088533491 -0.090805702 0
-0.056745965 0.026274357 -0.090621285 0
-0.065511093 0.18049362 -0.091595776 0
-0.076093763 0.36669186 -0.08989992 0
-0.092059508 0.64760345 -0.090647765 0
-0.11543395 1.0588684 -0.090514161 0
-0.15449123 1.7460675 -0.090565659 0
-0.21394372 2.7921131 -0.075355731 0
-0.21438529 2.7998822 0.012728216 0
-0.21439177 2.7999964 0.10107875 0
-0.21459317 2.8035398 0.18951479 0
-0.21140639 2.7474697 0.27542898 0
-0.21062297 2.7336855 0.36187562 0
-0.21113092 2.7426229 0.45008606 0
-0.077682704 0.3946487 0.26305741 0
-0.07677792 0.37872937 0.29361492 0
-0.076833516 0.3797076 0.32641089 0
-0.076940052 0.38158205 0.3596738 0
-0.073794886 -0.079607934 -0.093045987 0
-0.082790203 0.029834304 -0.091630392 0
-0.092951149 0.15345815 -0.087475516 0
-0.11071035 0.36952677 -0.090634726 0
-0.13370925 0.64934474 -0.091188334 0
-0.16616786 1.044255 -0.089481674 0
-0.22363447 1.7434268 -0.090716653 0
-0.4244343 4.1864734 -0.14079809 0
-0.85090911 9.3752117 -0.14082155 0
-0.30538428 2.7380419 0.2752943 0
-0.30461895 2.7287304 0.36198577 0
-0.3050631 2.7341342 0.44990343 0
-0.30371249 2.7177019 0.53589529 0
-0.11258528 0.39233831 0.29587287 0
-0.11310902 0.3987104 0.32994145 0
-0.11173088 0.38194314 0.36019623 0
-0.095035106 -0.097465724 -0.08969339 0
-0.10841583 0.02682713 -0.091522552 0
-0.12271422 0.1596444 -0.088949986 0
-0.14478603 0.36466852 -0.090407483 0
-0.17449863 0.64066762 -0.090629123 0
-0.21799327 1.0446873 -0.089978956 0
-0.29026881 1.7160513 -0.089251436 0
-0.55591649 4.183641 -0.1412452 0
-1.1117159 9.3464384 -0.14072847 0
-0.39848807 2.7212954 0.2749272 0
-0.3983815 2.7203054 0.36201879 0
-0.39917442 2.7276709 0.450133 0
-0.39786854 2.7155406 0.53668404 0
-0.14900051 0.40381661 0.29796332 0
-0.14798759 0.39440766 0.32977897 0
-0.1468378 0.38372734 0.3611559 0
-0.11829645 -0.094241709 -0.0909651 0
-0.1340235 0.023779903 -0.091529451 0
-0.15138169 0.15404204 -0.088599168 0
-0.18004636 0.3691521 -0.091625683 0
-0.21485941 0.63040191 -0.090001933 0
-0.26909727 1.0374224 -0.089876063 0
-0.35929778 1.7143197 -0.089708306 0
-0.68450063 4.1547604 -0.14062607 0
-1.3717085 9.3118191 -0.14065212 0
-0.49112874 2.7036273 0.27462587 0
-0.48913205 2.6886432 0.36057848 0
-0.24153328 0.83057231 0.27244446 0
-0.24173746 0.83210462 0.31583109 0
-0.18571523 0.41169325 0.29968011 0
-0.18430756 0.40112975 0.33159038 0
-0.18134201 0.37887517 0.36102557 0
-0.14001952 -0.1027045 -0.089852668 0
-0.15805909 0.010730658 -0.089751847 0
-0.18219997 0.16253176 -0.090712301 0
-0.21282965 0.35513535 -0.090342559 0
-0.25611565 0.62732357 -0.090343095 0
-0.31988394 1.028307 -0.089719541 0
-0.4274582 1.7047484 -0.089735173 0
-0.81372607 4.1336532 -0.14052355 0
-1.6313604 9.2750483 -0.14067905 0
-0.57956469 2.6612146 0.2732656 0
-0.58033639 2.6660669 0.35993806 0
-0.27948734 0.77428776 0.26775497 0
-0.27862149 0.76884335 0.30913466 0
-0.2771275 0.75944883 0.34992051 0
-0.21750247 0.38451877 0.36306292 0
-0.16314407 -0.10222039 -0.090787329 0
-0.18336172 0.0070576402 -0.089877866 0
-0.2092907 0.14720562 -0.088984437 0
-0.24706782 0.35139385 -0.090639971 0
-0.29819182 0.6277228 -0.091222711 0
-0.37114391 1.0220346 -0.089953564 0
-0.49695602 1.7020583 -0.090373434 0
-0.94466275 4.1219473 -0.14101978 0
-1.8890319 9.2263346 -0.1405783 0
-0.66855621 2.6295705 0.272515 0
-0.66521573 2.6115148 0.35718289 0
-0.66871303 2.6304181 0.44478118 0
-0.66804206 2.6267915 0.5309791 0
-0.28804398 0.57287306 0.36216465 0
-0.2534667 0.38598028 0.364483 0
-0.18439285 -0.11175951 -0.089675896 0
-0.20895037 0.0044964883 -0.090341233 0
-0.24003416 0.15164796 -0.090682574 0
-0.27906686 0.33642974 -0.089450814 0
-0.33864096 0.61845511 -0.09107881 0
-0.42115155 1.0090623 -0.089672811 0
-0.56485945 1.6893795 -0.090426378 0
-0.62018633 1.9512982 -0.038948718 0
-0.61810637 1.9414518 0.03132562 0
-0.61701876 1.9363031 0.10105576 0
-0.75303727 2.5802186 0.27102354 0
-0.75158888 2.5733616 0.35573849 0
-0.75186443 2.574666 0.44118211 0
-0.75226843 2.5765786 0.52713299 0
-0.28556252 0.36718038 0.36218327 0
-0.20866442 -0.10750607 -0.091688119 0
-0.2346742 0.0018967722 -0.090924598 0
-0.26978248 0.1495699 -0.091420151 0
-0.31180742 0.32633606 -0.089074381 0
-0.37372598 0.58677906 -0.0883644 0
-0.47026047 0.99282438 -0.089197777 0
-0.52355075 1.2169747 -0.057567496 0
-0.61969525 1.6213799 -0.023956141 0
-0.61753261 1.6122832 0.03879666 0
-0.61859572 1.6167548 0.10104687 0
-0.8370384 2.5355728 0.26985043 0
-0.83265924 2.517153 0.35314324 0
-0.83326507 2.5197012 0.43783787 0
-0.83127481 2.5113299 0.52171135 0
-0.83291799 2.5182414 0.60784954 0
-0.22810258 -0.1234456 -0.089408137 0
-0.26129606 0.0020165776 -0.092167817 0
-0.29480135 0.12865725 -0.089087881 0
-0.34863216 0.33212271 -0.091123708 0
-0.4158276 0.5861029 -0.089486249 0
-0.52048814 0.98169059 -0.089331694 0
-0.58042818 1.2082472 -0.057944197 0
-0.64834183 1.464942 -0.0172168 0
-0.64923871 1.4683318 0.041863512 0
-0.64823169 1.4645257 0.10104286 0
-0.91697097 2.4802854 0.26825827 0
-0.91245246 2.4632068 0.350842 0
-0.91266519 2.464011 0.43459901 0
-0.90851992 2.4483428 0.5167675 0
-0.91174752 2.4605422 0.60268062 0
-0.25248784 -0.12054834 -0.091390483 0
-0.2855472 -0.0072370437 -0.091712482 0
-0.32366341 0.12340668 -0.089527555 0
-0.34583747 0.19940844 -0.073048078 0
-0.45834574 0.58503181 -0.090697236 0
-0.57241225 0.97599608 -0.090118296 0
-0.71450728 1.4630282 -0.077617608 0
-0.71512371 1.4651411 -0.018058857 0
-0.71391529 1.4609993 0.041624818 0
-0.71450818 1.4630313 0.10104333 0
-0.98529154 2.3911443 0.26510823 0
-0.9809283 2.3761892 0.34625968 0
-0.98238826 2.3811932 0.42889124 0
-0.98202139 2.3799357 0.51136351 0
-0.98058701 2.3750193 0.59368896 0
-0.27385145 -0.12870726 -0.091058619 0
-0.30563247 -0.029188659 -0.088863365 0
-0.3543734 0.12343791 -0.091007225 0
-0.37784395 0.1969333 -0.074029647 0
-0.39435932 0.24864927 -0.050910402 0
-0.39548269 0.2521669 -0.020673206 0
-0.39222175 0.24195579 0.010611953 0
-0.39872321 0.26231423 0.039803229 0
-0.39504972 0.25081125 0.070702888 0
-0.39878818 0.26251772 0.10100791 0
-0.39845595 0.26147738 0.13157324 0
-0.39793977 0.25986102 0.1620927 0
-0.39458063 0.24934223 0.19194552 0
-0.39952254 0.26481727 0.22392938 0
-0.39524561 0.25142458 0.25326708 0
-0.39883834 0.26267484 0.28574559 0
-0.3959825 0.253732 0.31550398 0
-0.39883429 0.26266208 0.34858721 0
-0.29448548 -0.13877067 -0.090416111 0
-0.33476967 -0.022807028 -0.091739245 0
-0.37808144 0.10187188 -0.088876583 0
-0.4279857 0.24552825 -0.082737409 0
-0.43062896 0.25313726 -0.05274855 0
-0.43215078 0.25751796 -0.022229424 0
-0.43287307 0.25959721 0.0085431356 0
-0.42735189 0.24370375 0.040203776 0
-0.43552351 0.26722685 0.070043191 0
-0.42876235 0.2477639 0.10100778 0
-0.42828998 0.24640408 0.13145982 0
-0.42915374 0.24889067 0.16206765 0
-0.43449822 0.26427546 0.19382003 0
-0.43286678 0.25957909 0.22445002 0
-0.43258893 0.25877932 0.25546387 0
-0.42817149 0.24606302 0.28483391 0
-0.43131983 0.25512603 0.31755865 0
-0.43153265 0.25573865 0.34929779 0
-0.31919217 -0.13760796 -0.092434488 0
-0.35984141 -0.029475715 -0.092163853 0
-0.41093579 0.106442 -0.091419257 0
-0.47410542 0.27448145 -0.088768311 0
-0.48436776 0.30178061 -0.060231168 0
-0.5114463 0.37381318 -0.034955431 0
-0.51212817 0.37562695 -0.00096988468 0
-0.51012409 0.37029579 0.033350643 0
-0.51152271 0.37401631 0.067107148 0
-0.51264572 0.3770037 0.10101207 0
-1.2007554 2.2074649 0.18056981 0
-1.1964298 2.1959589 0.25958508 0
-1.1579145 2.0935028 0.33140084 0
-1.1573877 2.0921016 0.40842971 0
-1.1609992 2.1017087 0.48709956 0
-1.1592793 2.0971334 0.5645479 0
-0.33681396 -0.15525368 -0.09030249 0
-0.3844046 -0.037746873 -0.092395134 0
-0.43307129 0.082416803 -0.089063846 0
-0.51162928 0.27638569 -0.090935521 0
-0.51204652 0.2774159 -0.058754835 0
-0.51489425 0.28444734 -0.027301555 0
-0.51455647 0.28361335 0.0049610306 0
-0.51221764 0.2778385 0.037325125 0
-0.50830185 0.26816991 0.069427043 0
-0.50803006 0.26749876 0.10100911 0
-1.2718298 2.1534102 0.25901565 0
-1.201805 1.9805107 0.3251527 0
-1.1977993 1.9706202 0.3992323 0
-1.2014296 1.9795837 0.4755154 0
-1.1958457 1.9657965 0.5492155 0
-0.35668042 -0.16650262 -0.089732178 0
-0.39990476 -0.067064434 -0.088433184 0
-0.46205792 0.075919777 -0.08992324 0
-0.50989676 0.18597379 -0.079124637 0
-0.51353413 0.19434157 -0.049869005 0
-0.51285166 0.19277158 -0.019337026 0
-0.51037592 0.187076 0.011297511 0
-0.51114959 0.18885592 0.04116435 0
-0.51341128 0.19405904 0.070969999 0
-0.51250452 0.19197288 0.10100717 0
-1.3535476 2.1268046 0.25934649 0
-1.230787 1.8443923 0.31715542 0
-1.228374 1.8388412 0.38898814 0
-1.2283449 1.8387744 0.46155071 0
-1.2275541 1.8369551 0.53423738 0
-1.228305 1.8386824 0.60794449 0
-0.37900057 -0.17218825 -0.09057615 0
-0.4275493 -0.067788333 -0.090444811 0
-0.48933595 0.065078765 -0.090137266 0
-0.51252264 0.11493984 -0.070171036 0
-0.51161754 0.11299339 -0.041105632 0
-0.51640785 0.12329462 -0.013558393 0
-0.51410896 0.11835101 0.015572527 0
-0.51390558 0.11791375 0.044124011 0
-0.51082689 0.11129323 0.072749786 0
-0.51253468 0.11496571 0.10100517 0
-1.4331579 2.0946891 0.25950339 0
-1.2492527 1.6992164 0.30842105 0
-1.2347555 1.6680412 0.37468293 0
-1.2431548 1.6861033 0.44597879 0
-1.2425021 1.6846995 0.51557565 0
-1.2432228 1.6862495 0.58609277 0
-0.40060565 -0.17979857 -0.091106929 0
-0.4504346 -0.079354733 -0.090347879 0
-0.51409322 0.048966561 -0.089512475 0
-0.50882685 0.038350735 -0.060243595 0
-0.50982666 0.040366206 -0.033363465 0
-0.51152593 0.043791447 -0.0066716429 0
-0.51348138 0.047733221 0.020041766 0
-0.51343399 0.047637615 0.047082715 0
-0.51046491 0.041652713 0.074213006 0
-0.51092905 0.042588267 0.10100328 0
-1.2487929 1.529954 0.29773167 0
-1.2406367 1.5135131 0.36191079 0
-1.2446096 1.5215216 0.42870465 0
-1.2386507 1.5095098 0.49313843 0
-1.2446765 1.5216565 0.56180286 0
-0.42362988 -0.18502173 -0.092348851 0
-0.47634286 -0.08517459 -0.091595851 0
-0.52969664 0.01588634 -0.085841186 0
-0.53319621 0.022515092 -0.059823144 0
-0.53374994 0.023563895 -0.032889474 0
-0.53270191 0.021578703 -0.0057266634 0
-0.53239632 0.020999942 0.021102907 0
-0.53136742 0.019050989 0.047886986 0
-0.53646684 0.02871016 0.074205384 0
-0.53591824 0.027671013 0.10100323 0
-1.2535846 1.3870504 0.28898361 0
-1.2418247 1.3647749 0.34959462 0
-1.2412546 1.3636951 0.41209704 0
-1.2367102 1.3550873 0.47368687 0
-1.2380422 1.3576105 0.53729588 0
-1.2426301 1.3663006 0.60284096 0
-0.43731624 -0.20753303 -0.089536183 0
-0.49663535 -0.10172811 -0.090684079 0
-0.5607354 0.01260427 -0.087805904 0
-0.55590624 0.0039907428 -0.059061948 0
-0.56506443 0.020325813 -0.03430653 0
-0.56049109 0.01216856 -0.0061950143 0
-0.56126511 0.013549123 0.020595701 0
-0.55684966 0.0056734416 0.047866974 0
-0.56368434 0.017864261 0.074124403 0
-0.55761141 0.0070322487 0.10100301 0
-1.2872818 1.3085132 0.16236944 0
-1.2962153 1.3244474 0.22461134 0
-1.2532728 1.2478528 0.28041792 0
-1.2422316 1.2281592 0.33840427 0
-1.2436075 1.2306132 0.39855886 0
-1.2385327 1.2215612 0.45731863 0
-1.2407862 1.2255809 0.51844335 0
-1.2400296 1.2242315 0.5790934 0
-0.460657 -0.21252069 -0.091098823 0
-0.51973093 -0.11311898 -0.091001086 0
-0.5840475 -0.004895654 -0.08723072 0
-0.58583289 -0.001891401 -0.060449023 0
-0.58310813 -0.00647625 -0.032648031 0
-0.58673894 -0.00036671417 -0.00640673 0
-0.58107102 -0.0099040531 0.021323392 0
-0.58249223 -0.007512596 0.047801711 0
-0.57675546 -0.017165687 0.074677832 0
-0.58122206 -0.0096498989 0.10100293 0
-1.3579339 1.2972975 0.16296646 0
-1.3512651 1.2860761 0.22434539 0
-1.2502685 1.1161325 0.27233082 0
-1.2347566 1.0900311 0.3268818 0
-1.2384292 1.096211 0.38464469 0
-1.2380085 1.0955031 0.44193205 0
-1.2357748 1.0917444 0.49897376 0
-1.2425908 1.1032135 0.55958688 0
-0.48217124 -0.22113624 -0.091922261 0
-0.54542536 -0.12056813 -0.092328958 0
-0.61344576 -0.012421992 -0.088696159 0
-0.61700177 -0.0067683128 -0.062149603 0
-0.61322981 -0.012765374 -0.033857603 0
-0.60941029 -0.018838014 -0.006039774 0
-0.61505318 -0.0098663233 0.020081678 0
-0.60983175 -0.018167939 0.047560897 0
-0.6097917 -0.018231597 0.074298233 0
-0.61214978 -0.014482584 0.10100327 0
-1.2463025 0.993761 0.26488099 0
-1.2379456 0.98047429 0.31830686 0
-1.247191 0.99517375 0.37509912 0
-1.2389951 0.98214298 0.42840642 0
-1.2390504 0.98223084 0.48389268 0
-1.241606 0.98629409 0.54069501 0
-0.50069863 -0.23462424 -0.091653414 0
-0.5641349 -0.13919678 -0.091296278 0
-0.63840675 -0.027469423 -0.088847332 0
-0.63196582 -0.037158515 -0.059705172 0
-0.63673961 -0.029977348 -0.03366055 0
-0.63719338 -0.029294696 -0.0066285264 0
-0.63546395 -0.031896319 0.020600067 0
-0.63699716 -0.029589918 0.047320604 0
-0.6362195 -0.030759718 0.074209139 0
-0.64151162 -0.022798743 0.10100353 0
-1.2494769 0.89176553 0.25900877 0
-1.2440624 0.88362044 0.31102064 0
-1.2372369 0.87335283 0.36250478 0
-1.2447429 0.88464397 0.41733402 0
-1.2420032 0.88052291 0.4701139 0
-1.2413943 0.87960678 0.52379322 0
-0.51708788 -0.25107327 -0.090731271 0
-0.58074021 -0.16037104 -0.089767151 0
-0.66328549 -0.042747166 -0.089080386 0
-0.66157061 -0.045190778 -0.061119962 0
-0.66311342 -0.04299232 -0.034143243 0
-0.66280812 -0.043427374 -0.006887896 0
-0.66548145 -0.039617982 0.019862065 0
-0.66277468 -0.043475058 0.047177449 0
-0.66919893 -0.034320738 0.073844962 0
-0.66589069 -0.03903481 0.10100354 0
-1.2997183 0.86414582 0.25939593 0
-1.2569953 0.8032673 0.30550459 0
-1.2364393 0.77397567 0.35285619 0
-1.2402331 0.77938169 0.40475526 0
-1.2421055 0.78204972 0.45675376 0
-1.2450501 0.78624576 0.50965583 0
-0.5319773 -0.26920524 -0.089455105 0
-0.60338861 -0.17271921 -0.090374745 0
-0.69182849 -0.053225424 -0.090426393 0
-0.69194788 -0.053064074 -0.062718682 0
-0.69469321 -0.049354758 -0.035698224 0
-0.68697476 -0.059783425 -0.0069683697 0
-0.69106966 -0.054250684 0.019645939 0
-0.69166362 -0.053448167 0.046767674 0
-0.68849349 -0.057731416 0.07402423 0
-0.69305456 -0.051568832 0.1010037 0
-1.3434802 0.82724124 0.25909153 0
-1.2477949 0.69795793 0.2970224 0
-1.23967 0.68698019 0.34482414 0
-1.2430617 0.69156271 0.39497089 0
-1.2435498 0.69222218 0.44491088 0
-1.2460443 0.69559258 0.49590838 0
-0.55501401 -0.27642193 -0.091196366 0
-0.62558943 -0.18593237 -0.090923049 0
-0.71038288 -0.07721296 -0.089132167 0
-0.71936935 -0.065690786 -0.063637324 0
-0.71583873 -0.070217639 -0.035251904 0
-0.71858931 -0.066690952 -0.0082403999 0
-0.71401042 -0.07256183 0.019694926 0
-0.7208699 -0.063766807 0.04632752 0
-0.71170652 -0.075515836 0.074026942 0
-0.72049016 -0.064253777 0.10100389 0
-1.3879883 0.79159123 0.25898951 0
-1.2468755 0.61066085 0.29047799 0
-1.2451302 0.60842305 0.3378959 0
-1.23878 0.60028118 0.38438746 0
-1.2427131 0.60532397 0.43345112 0
-1.2374852 0.59862083 0.48038408 0
-0.57259953 -0.29094961 -0.091121383 0
-0.64382821 -0.20422664 -0.090379588 0
-0.7354551 -0.092668265 -0.089724131 0
-0.74917549 -0.075963289 -0.065127946 0
-0.74982548 -0.075171918 -0.037282187 0
-0.73943907 -0.087817699 -0.0079169627 0
-0.74212903 -0.084542543 0.019120375 0
-0.75000656 -0.07495138 0.045886353 0
-0.75328624 -0.070958287 0.073340043 0
-0.75219482 -0.072287172 0.10100427 0
-1.430468 0.7535302 0.25876775 0
-1.2469752 0.53012246 0.28461078 0
-1.240575 0.52232999 0.32970303 0
-1.2409387 0.52277273 0.37606898 0
-1.2485019 0.53198117 0.42463115 0
-1.2353693 0.51599199 0.46797985 0
-0.5949499 -0.29996052 -0.092718251 0
-0.66617298 -0.21757367 -0.09116932 0
-0.75518507 -0.11460945 -0.089056097 0
-0.77311087 -0.093873888 -0.065370761 0
-0.77458888 -0.092164189 -0.03762858 0
-0.76841956 -0.099300593 -0.0088405441 0
-0.77391255 -0.092946619 0.018137747 0
-0.77241212 -0.094682187 0.045916613 0
-0.77093101 -0.096395463 0.073527955 0
-0.77026665 -0.097163945 0.10100406 0
-1.4831482 0.7274577 0.25974804 0
-1.2500049 0.45777062 0.2796253 0
-1.2380569 0.44394985 0.32250428 0
-1.2363733 0.44200233 0.36697102 0
-1.2416528 0.44810942 0.41336 0
-1.2376846 0.44351915 0.45781857 0
-0.60859132 -0.31913123 -0.091593184 0
-0.68073303 -0.23981807 -0.089854009 0
-0.77627194 -0.13478181 -0.088874973 0
-0.80478561 -0.10343364 -0.067319177 0
-0.80028188 -0.10838506 -0.038202543 0
-0.79642248 -0.11262813 -0.0096440818 0
-0.80448323 -0.10376605 0.01728561 0
-0.79482055 -0.11438927 0.045910887 0
-0.8040573 -0.10423437 0.073153265 0
-0.79872811 -0.11009327 0.10100432 0
-1.2517244 0.38793448 0.27485135 0
-1.2337922 0.36821964 0.31554747 0
-1.2351975 0.36976472 0.35926202 0
-1.2373055 0.37208214 0.40353289 0
-1.2418098 0.37703434 0.44896141 0
-0.62181836 -0.33836976 -0.090520822 0
-0.70491648 -0.25151828 -0.091349907 0
-0.80184311 -0.15021369 -0.089887358 0
-0.83179927 -0.1189045 -0.068319149 0
-0.82922703 -0.12159291 -0.039381567 0
-0.83084023 -0.11990681 -0.01133888 0
-0.82640648 -0.12454084 0.017302098 0
-0.83172578 -0.11898127 0.044895116 0
-0.83109862 -0.1196368 0.07298623 0
-0.82665479 -0.12428132 0.10100457 0
-1.250315 0.31851462 0.27002025 0
-1.2362748 0.30384031 0.31024054 0
-1.2325306 0.29992691 0.3518261 0
-1.2459599 0.31396285 0.39751601 0
-1.2401258 0.30786529 0.43921492 0
-0.64110768 -0.35124567 -0.091439046 0
-0.71046346 -0.28232577 -0.087939672 0
-0.82244033 -0.17105266 -0.089813687 0
-0.85504436 -0.13865355 -0.068626143 0
-0.86718732 -0.12658688 -0.042072464 0
-0.86103177 -0.13270375 -0.012460141 0
-0.85804951 -0.13566729 0.01630787 0
-0.85964251 -0.13408425 0.044486687 0
-0.86232597 -0.13141766 0.072673202 0
-0.85960108 -0.13412544 0.10100503 0
-1.2696859 0.2733821 0.14272235 0
-1.2746751 0.27834013 0.1847963 0
-1.2825897 0.28620484 0.22757803 0
-1.2468028 0.25064293 0.26526549 0
-1.2488832 0.25271025 0.30700547 0
-1.2382542 0.24214807 0.34659114 0
-1.242262 0.24613062 0.3891294 0
-1.2339789 0.23789957 0.42899394 0
-0.6668424 -0.35835198 -0.094316684 0
-0.74881214 -0.28090855 -0.09331318 0
-0.8453505 -0.18970093 -0.090385117 0
-0.8887946 -0.14865574 -0.071054511 0
-0.88687557 -0.1504688 -0.041782681 0
-0.88582647 -0.15146002 -0.012904001 0
-0.88944471 -0.14804158 0.01533352 0
-0.89030367 -0.14723006 0.043887384 0
-0.8807382 -0.15626732 0.072767809 0
-0.88580322 -0.15148196 0.10100523 0
-1.2922151 0.23248819 0.14243618 0
-1.2888134 0.2292743 0.183678 0
-1.2943039 0.23446169 0.22564724 0
-1.2512573 0.19379213 0.26186913 0
-1.2485541 0.19123819 0.30197552 0
-1.2459682 0.188795 0.34214991 0
-1.2353289 0.17874327 0.38060045 0
-1.2284042 0.17220083 0.41962519 0
-0.67749697 -0.37993994 -0.092873268 0
-0.75286293 -0.31225178 -0.089874275 0
-0.85576373 -0.21983388 -0.08828833 0
-0.90991116 -0.17120269 -0.071090348 0
-0.91762567 -0.16427413 -0.043332908 0
-0.91484809 -0.16676876 -0.01392833 0
-0.9241538 -0.15841106 0.014039898 0
-0.91945916 -0.16262743 0.043374699 0
-0.91391808 -0.16760406 0.072378971 0
-0.92175347 -0.16056684 0.10100581 0
-1.328456 0.20470336 0.1426187 0
-1.3297085 0.2058281 0.18433961 0
-1.3379033 0.21318808 0.2268825 0
-1.2478384 0.13229838 0.25774264 0
-1.2504404 0.13463536 0.29765311 0
-1.2371216 0.12267342 0.33493611 0
-1.2479502 0.13239887 0.37696397 0
-1.232587 0.11860076 0.41336212 0
-0.68688864 -0.40217462 -0.091261648 0
-0.7838099 -0.31944856 -0.093367018 0
-0.88222581 -0.23544678 -0.089870147 0
-0.94803303 -0.17927775 -0.074373759 0
-0.94538605 -0.18153706 -0.044444907 0
-0.94063056 -0.18559608 -0.014581306 0
-0.94705743 -0.18011048 0.013834545 0
-0.94776207 -0.17950901 0.042901054 0
-0.95500165 -0.17332974 0.071747951 0
-0.94323623 -0.18337199 0.10100584 0
-1.4038293 0.20976213 0.1440182 0
-1.3966305 0.2036176 0.18661879 0
-1.4035208 0.20949891 0.23016685 0
-1.2534401 0.081399113 0.25500441 0
-1.2497306 0.078232914 0.29324567 0
-1.2441986 0.073511034 0.33113116 0
-1.236426 0.066876918 0.36844137 0
-1.2394221 0.069434196 0.40822822 0
-0.69385165 -0.4259049 -0.08917322 0
-0.79224688 -0.34612289 -0.091375209 0
-0.90144831 -0.25757882 -0.089972429 0
-0.98257786 -0.19179633 -0.076980822 0
-0.9840067 -0.1906378 -0.047234748 0
-0.97843379 -0.19515648 -0.016723296 0
-0.97792226 -0.19557121 0.012866998 0
-0.98240751 -0.19193444 0.042031042 0
-0.97343308 -0.19921121 0.071803384 0
-0.97315603 -0.19943586 0.1010062 0
-1.2411158 0.017834697 0.25032222 0
-1.2453036 0.021230374 0.28858444 0
-1.241394 0.01806036 0.32584161 0
-1.2444242 0.020517264 0.36457723 0
-1.2375139 0.014914189 0.40138164 0
-0.71343857 -0.43930945 -0.090673648 0
-0.81358564 -0.36221233 -0.092650123 0
-0.92496574 -0.27646759 -0.091080613 0
-1.0134405 -0.20835617 -0.078941353 0
-1.0100113 -0.21099618 -0.048144404 0
-1.014092 -0.20785472 -0.018600157 0
-1.008711 -0.21199724 0.011889981 0
-1.0091804 -0.2116358 0.041621666 0
-1.017242 -0.2054297 0.071093753 0
-1.0117838 -0.20963159 0.10100689 0
-1.253054 -0.023892369 0.24878083 0
-1.2499889 -0.026251998 0.28557196 0
-1.2386755 -0.034961548 0.32091981 0
-1.2472972 -0.028324213 0.35996917 0
-1.2431184 -0.031541195 0.39678347 0
-0.72758442 -0.45714709 -0.090804391 0
-0.81430972 -0.39380226 -0.089189149 0
-0.93549967 -0.30528411 -0.089624085 0
-1.0426706 -0.22700557 -0.080655403 0
-1.0420767 -0.22743931 -0.049989719 0
-1.0410962 -0.22815552 -0.019479884 0
-1.0445797 -0.22561106 0.010454761 0
-1.0510398 -0.22089264 0.040321071 0
-1.04883 -0.22250661 0.070744373 0
-1.0463786 -0.22429714 0.10100742 0
-1.2477746 -0.077195913 0.24539918 0
-1.2382592 -0.084146053 0.2804127 0
-1.2462475 -0.078311235 0.3181147 0
-1.2335443 -0.087589711 0.35231364 0
-1.247592 -0.077329308 0.39228156 0
-0.7357226 -0.47919986 -0.089497097 0
-0.84072798 -0.40649363 -0.091858797 0
-0.95741802 -0.32569686 -0.090615265 0
-1.0739647 -0.24499932 -0.082773827 0
-1.0733178 -0.24544731 -0.051745433 0
-1.0787556 -0.24168208 -0.021612806 0
-1.0784991 -0.2418597 0.0091806669 0
-1.0790244 -0.241496 0.039815292 0
-1.0712118 -0.24690548 0.070649095 0
-1.0893397 -0.23435357 0.10100826 0
-1.2457606 -0.1260471 0.20706969 0
-1.2495499 -0.12342331 0.2430317 0
-1.2384624 -0.13110027 0.2772496 0
-1.2369174 -0.13217011 0.31265652 0
-1.235395 -0.13322428 0.34821272 0
-1.2410684 -0.12929597 0.38560459 0
-0.75286406 -0.4949953 -0.0906424 0
-0.85315496 -0.42923388 -0.091406159 0
-0.96622825 -0.35509095 -0.089116134 0
-1.1153845 -0.25728807 -0.086636133 0
-1.1104307 -0.26053634 -0.0543571 0
-1.1121653 -0.25939891 -0.02327483 0
-1.1081704 -0.26201841 0.0082480032 0
-1.1133903 -0.25859562 0.038933352 0
-1.1194259 -0.25463811 0.06981989 0
-1.1111237 -0.26008198 0.10100836 0
-1.2509501 -0.16839674 0.20571479 0
-1.2399971 -0.17557868 0.23956929 0
-1.2401865 -0.17545459 0.27451816 0
-1.242458 -0.17396513 0.31001848 0
-1.2388561 -0.1763269 0.34472406 0
-1.2260358 -0.18473324 0.3774181 0
-0.76403326 -0.51483166 -0.090376653 0
-0.85976762 -0.45545682 -0.089800127 0
-0.98540753 -0.37753442 -0.089790262 0
-1.1472151 -0.2771807 -0.088904478 0
-1.1550748 -0.27230605 -0.058016781 0
-1.1430173 -0.27978423 -0.024679651 0
-1.1567688 -0.27125552 0.0057306085 0
-1.1428139 -0.27991036 0.038312014 0
-1.1496344 -0.27568033 0.069490783 0
-1.144258 -0.27901468 0.10100887 0
-1.2560831 -0.20966038 0.16991848 0
-1.2408307 -0.21911994 0.20320924 0
-1.230561 -0.22548923 0.23631927 0
-1.2401587 -0.21953669 0.27174336 0
-1.2368772 -0.22157195 0.30575737 0
-1.2343795 -0.22312096 0.33996609 0
-1.2329202 -0.22402605 0.37453046 0
-0.7748031 -0.53484559 -0.090140723 0
-0.88436735 -0.4706634 -0.092289619 0
