# .PCD v0.7 - Point Cloud Data file format
VERSION 0.7
FIELDS x y z intensity
SIZE 4 4 4 4
TYPE F F F F
COUNT 1 1 1 1
WIDTH 1333
HEIGHT 1
VIEWPOINT 0 0 0 1 0 0 0
POINTS 1333
DATA ascii
0.7835632 1.3780031 0.30390307 0
0.8379007 1.5503916 0.45460221 0
0.83945614 1.5553262 0.56642503 0
0.83731937 1.5485473 0.6796872 0
0.88249868 1.7571838 -0.049663652 0
0.98562467 2.099323 0.35163698 0
0.76867324 1.3795472 0.30316031 0
0.84232366 1.6238959 0.4784053 0
0.84012961 1.6166168 0.59075785 0
0.86711615 1.7747194 -0.050109018 0
0.95938659 2.0954022 0.34962162 0
0.75574791 1.3876625 0.30421466 0
0.84114712 1.6844648 0.49762487 0
0.83975017 1.6796099 0.61573255 0
0.84639174 1.7739694 -0.049883123 0
0.73873103 1.3812557 0.04734543 0
0.74080896 1.3888353 0.13130413 0
0.7405293 1.3878151 0.21608727 0
0.74168092 1.3920159 0.3043133 0
0.83504272 1.7325716 0.51248425 0
0.83528668 1.7334615 0.63669872 0
0.82802004 1.7816263 -0.049977787 0
0.72354716 1.3808149 0.047190197 0
0.72399312 1.3825259 0.13018222 0
0.72453934 1.3846214 0.21478589 0
0.72355211 1.3808341 0.30036244 0
0.82990986 1.7888767 0.5301401 0
0.83230448 1.7980636 0.66222012 0
0.80931962 1.7882448 -0.050042488 0
0.70827138 1.3795562 0.047012407 0
0.70913517 1.3830496 0.12984376 0
0.70907247 1.382796 0.21378024 0
0.70697761 1.3743234 0.29771158 0
0.82490921 1.8512968 0.54985899 0
0.82639724 1.8573153 0.68539619 0
0.79091382 1.7963371 -0.050169677 0
0.69529396 1.3875816 0.047182608 0
0.69513351 1.3868958 0.12989366 0
0.69328517 1.3789945 0.21244764 0
0.69403052 1.3821807 0.29888803 0
0.81709182 1.9082428 0.56767106 0
0.77253324 1.8049744 -0.050324928 0
0.67938089 1.3828725 0.046892744 0
0.67985249 1.3850096 0.12933201 0
0.67815799 1.3773311 0.21155043 0
0.68028277 1.3869593 0.29929945 0
0.80480891 1.9512252 0.58070987 0
0.75176007 1.8026364 -0.050088041 0
0.66295594 1.3747021 0.046484746 0
0.66606998 1.389708 0.12951568 0
0.66504651 1.3847762 0.21236835 0
0.66472679 1.3832355 0.29753953 0
0.79156828 1.9944667 0.59385532 0
0.73036748 1.7962534 -0.049714152 0
0.65203291 1.3933347 0.047060098 0
0.64835215 1.3744028 0.12752788 0
0.64927316 1.37914 0.2108113 0
0.65109652 1.3885183 0.29817581 0
0.77701372 2.0361812 0.60650772 0
0.71355426 1.8136575 -0.050213978 0
0.63597608 1.3859506 0.046695139 0
0.63529581 1.3822002 0.12809233 0
0.63525051 1.3819501 0.2108424 0
0.63648963 1.388782 0.29755375 0
0.76342541 2.0886092 0.62281573 0
0.69271594 1.8093021 -0.04993264 0
0.62124872 1.3849243 0.046568468 0
0.62067717 1.3815305 0.12775078 0
0.62112284 1.3841769 0.21079904 0
0.62087113 1.3826823 0.29533428 0
0.7453981 2.1221328 0.63276905 0
0.67500764 1.8238064 -0.05034275 0
0.60611707 1.3807312 0.046334334 0
0.60747933 1.3894929 0.12836878 0
0.60627234 1.3817298 0.20993525 0
0.60803139 1.3930432 0.29742005 0
0.72840714 2.1672497 0.64668286 0
0.65422916 1.8188537 -0.050058506 0
0.59266323 1.3871493 0.046490166 0
0.59269333 1.3873602 0.12790783 0
0.5923686 1.3850836 0.21016385 0
0.59134585 1.3779118 0.29297411 0
0.70784086 2.194782 0.65473413 0
0.63383687 1.8153427 -0.049836054 0
0.57781506 1.3836958 0.046296459 0
0.57962006 1.397603 0.12880898 0
0.57834989 1.3878165 0.21031106 0
0.57951093 1.396762 0.29733205 0
0.68823022 2.2344429 0.66692823 0
0.61495519 1.8234199 -0.050039701 0
0.56390721 1.3871223 0.046357062 0
0.56391358 1.3871768 0.12749018 0
0.56420684 1.3896832 0.21033283 0
0.56326926 1.3816701 0.29300305 0
0.66652596 2.2641859 0.67586493 0
0.59551334 1.8275397 -0.050109576 0
0.55249745 1.4149441 0.13032135 0
0.55157012 1.4060493 0.21301597 0
0.55172288 1.4075147 0.29923305 0
0.64571244 2.3090341 0.68993407 0
0.57644916 1.8363589 -0.050356627 0
0.55255991 1.5754014 0.14748456 0
0.55239266 1.5735745 0.24310023 0
0.5529021 1.5791396 0.34284192 0
0.62184858 2.3322868 0.69685996 0
0.55601287 1.8300368 -0.05006979 0
0.60219997 2.4157119 0.23792081 0
0.59820771 2.3650882 0.38603768 0
0.59735405 2.3542631 0.5408535 0
0.5369066 1.8407892 -0.050403319 0
0.57348198 2.393259 0.39078245 0
0.57325947 2.3898983 0.54947686 0
0.51624626 1.8269858 -0.049867306 0
0.54863459 2.4316235 0.39742133 0
0.54793549 2.4185727 0.55639344 0
0.49701297 1.8388709 -0.050258737 0
0.521667 2.4409721 0.39887592 0
0.52212811 2.4522331 0.56466115 0
0.47688383 1.8290015 -0.049881712 0
0.45651349 1.1102139 0.3563495 0
0.45653847 1.1110955 0.42981991 0
0.45733491 1.8392918 -0.050233629 0
0.44581881 1.1077423 0.35522884 0
0.44602218 1.1206611 0.43448895 0
0.43747202 1.8297031 -0.04988461 0
0.43513796 1.0885477 0.41837028 0
0.43517393 1.0999792 0.50155753 0
0.41774705 1.8312448 -0.049941871 0
0.42468497 1.0964999 0.42236558 0
0.42487538 1.0763338 0.48755366 0
0.39804792 1.82964 -0.049895648 0
0.41397098 1.1070952 0.35500237 0
0.41398075 1.1066508 0.42752826 0
0.41461855 1.0777098 0.48846534 0
0.37808788 1.8364197 -0.050157785 0
0.3522954 2.5810218 0.42405534 0
0.3524771 2.5757766 0.59606695 0
0.40489909 1.0624067 0.47955662 0
0.35853937 1.8305056 -0.049975369 0
0.32242948 2.5947022 0.42674091 0
0.32202899 2.6031775 0.60336989 0
0.39559746 1.0462416 0.47020346 0
0.33947027 1.8186859 -0.049590398 0
0.29195595 2.6121788 0.43018234 0
0.29160476 2.6180441 0.60757267 0
0.38587353 1.0437468 0.46903449 0
0.31897759 1.8302045 -0.05004907 0
0.26108158 2.628475 0.43348277 0
0.26065782 2.6343179 0.61223722 0
0.30003083 1.8197305 -0.049729463 0
0.35569113 1.166416 0.038320798 0
0.23039037 2.6371372 0.43547532 0
0.22943747 2.6483216 0.61642528 0
0.27998567 1.8227586 -0.049902361 0
0.19812649 2.6589599 0.43992516 0
0.19759582 2.664381 0.6212461 0
0.26028746 1.8215125 -0.049931034 0
0.16684066 2.6662476 0.44181749 0
0.16698487 2.6649437 0.62219876 0
0.3455101 1.0511221 0.47542661 0
0.2413764 1.8136964 -0.049732331 0
0.13451482 2.6797667 0.44491667 0
0.13402794 2.6837127 0.62793207 0
0.22041477 1.8219522 -0.05012095 0
0.1023102 2.6891532 0.44734302 0
0.10323395 2.6823704 0.62860364 0
0.201851 1.8122386 -0.049871199 0
0.069163576 2.7025292 0.45057523 0
0.069587514 2.6996849 0.63418889 0
0.18265204 1.8075299 -0.049810391 0
0.036851719 2.7078962 0.452427 0
0.035828337 2.714216 0.63917559 0
0.16177486 1.8126482 -0.050114363 0
0.0026835965 2.722348 0.45602056 0
0.0038027333 2.7159486 0.64096844 0
0.14149202 1.8134252 -0.050270893 0
-0.029484702 2.723412 0.45724478 0
-0.0294473 2.723213 0.64430606 0
0.12572981 1.7911305 -0.04959695 0
-0.090157345 2.8654265 0.10071747 0
-0.089640811 2.8628559 0.29084015 0
-0.062887952 2.7297287 0.45951277 0
-0.061766401 2.7241476 0.64611381 0
0.10655589 1.7870272 -0.049592603 0
-0.11469795 2.8204849 0.099324457 0
-0.11393632 2.8169274 0.28653768 0
-0.094602838 2.7266223 0.4601264 0
-0.096581414 2.7358642 0.65084553 0
0.085762933 1.7900468 -0.049857851 0
-0.13946451 2.7809467 0.098136581 0
-0.14224429 2.7931767 0.28470072 0
-0.12858947 2.7331016 0.4625884 0
-0.12773146 2.7293265 0.65092951 0
0.066257522 1.7869014 -0.049907122 0
-0.17460807 2.7881026 0.098671131 0
-0.17458715 2.7880156 0.28495237 0
-0.16320409 2.7406998 0.46534473 0
-0.16227718 2.7368472 0.65480542 0
0.045678332 1.7878305 -0.050115671 0
-0.21031238 2.7959137 0.099247813 0
-0.20893802 2.7905016 0.28609782 0
-0.19446762 2.7335176 0.4654406 0
-0.19414409 2.7322433 0.65561664 0
0.027563261 1.7789624 -0.049972426 0
-0.25185674 2.8239713 0.10059124 0
-0.25190675 2.8241584 0.29076278 0
-0.22852094 2.7366972 0.46754459 0
-0.22971673 2.7411695 0.66010952 0
0.0069446727 1.779368 -0.050181016 0
-0.26035208 2.7308614 0.46804732 0
-0.25855964 2.7244811 0.65794885 0
-0.0081063341 1.7603405 -0.049676757 0
-0.29420477 2.7316225 0.46986741 0
-0.29413807 2.731396 0.66215426 0
-0.0268241 1.7544031 -0.049666654 0
-0.32439572 2.7196257 0.46936724 0
-0.32689559 2.7277346 0.66367179 0
-0.04743059 1.7543421 -0.049885742 0
-0.36214823 2.7313132 0.47342443 0
-0.35998636 2.7246025 0.66544765 0
-0.064595804 1.7435471 -0.049711231 0
-0.39354426 2.7222936 0.47364932 0
-0.39203799 2.7178118 0.66635829 0
-0.081801549 1.7332308 -0.049562216 0
-0.42739666 2.7201781 0.47526988 0
-0.42484915 2.712903 0.66789049 0
-0.10388274 1.7365932 -0.049940478 0
-0.45673734 2.7050042 0.474473 0
-0.45850432 2.7098536 0.67004663 0
-0.12432767 1.7348726 -0.050137099 0
-0.48868757 2.6970205 0.47513002 0
-0.48772687 2.6944838 0.66896719 0
-0.14163549 1.7247852 -0.050023578 0
-0.52104056 2.6897964 0.47601527 0
-0.51933527 2.6854591 0.66972256 0
-0.15806289 1.7127424 -0.049842469 0
-0.5518381 2.6784167 0.47617483 0
-0.54952437 2.6727428 0.66957402 0
-0.17903186 1.7117684 -0.050097384 0
-0.58688283 2.6770184 0.47836521 0
-0.58319831 2.668298 0.6718207 0
-0.1943325 1.6973802 -0.049841247 0
-0.61569846 2.6606042 0.47769848 0
-0.61383712 2.6563492 0.67210782 0
-0.2201999 1.7067726 -0.050523065 0
-0.63963234 2.6336155 0.47500622 0
-0.64260888 2.640193 0.67132616 0
-0.22809292 1.6765993 -0.049662244 0
-0.66908991 2.6193097 0.4748832 0
-0.66708446 2.6150229 0.66810262 0
-0.24875505 1.6742383 -0.049902894 0
-0.69934952 2.6066914 0.47517148 0
-0.70239115 2.6129856 0.67150146 0
-0.27085799 1.6743783 -0.050255191 0
-0.72659099 2.5879211 0.47429824 0
-0.72403908 2.5828056 0.66702408 0
-0.2840932 1.6567392 -0.04990704 0
-0.76417291 2.5894966 0.47761551 0
-0.75548434 2.5726154 0.6683315 0
-0.30174631 1.6479415 -0.049920622 0
-0.78277993 2.5543199 0.47354749 0
-0.78097069 2.5509107 0.66643584 0
-0.3172642 1.6352136 -0.049783383 0
-0.81567276 2.5464339 0.4751094 0
-0.80865264 2.5335994 0.66589773 0
-0.33770698 1.6314173 -0.050019141 0
-0.61774218 2.1284261 0.082385704 0
-0.8365767 2.5168157 0.47226906 0
-0.83463573 2.5133708 0.66460317 0
-0.34901732 1.6115419 -0.049603563 0
-0.61840415 2.0758822 0.080768913 0
-0.85638201 2.4860833 0.46923035 0
-0.862252 2.4962013 0.66429764 0
-0.36836064 1.6056854 -0.049773674 0
-0.6174494 2.0228469 0.079119831 0
-0.88263392 2.4669652 0.4686605 0
-0.8858602 2.4723682 0.66211265 0
-0.38115311 1.58893 -0.049498618 0
-0.62349904 1.9834279 0.078027971 0
-0.90828049 2.4470036 0.4679774 0
-0.9122808 2.4535153 0.66149056 0
-0.40628624 1.5920647 -0.050068092 0
-0.61553097 1.9232559 0.076054201 0
-0.9404012 2.4374585 0.46957961 0
-0.93052804 2.4218311 0.6570912 0
-0.42407537 1.5831501 -0.050142698 0
-0.61900139 1.8832421 0.074918143 0
-0.96034122 2.4087408 0.46715841 0
-0.96776509 2.4201698 0.66185921 0
-0.44029772 1.5717883 -0.050122462 0
-0.61694324 1.8363833 0.073480532 0
-0.98358476 2.385571 0.46597409 0
-0.97556841 2.3735635 0.65302324 0
-0.45125365 1.5527687 -0.049779322 0
-0.62144387 1.8008717 0.072520599 0
-1.0032456 2.3574617 0.46376291 0
-0.99833417 2.350302 0.65136349 0
-0.47686702 1.5549651 -0.05036572 0
-0.61146164 1.7459757 0.070707969 0
-1.0260481 2.3343382 0.46268642 0
-1.0267043 2.3352695 0.65234643 0
-0.49471974 1.5457264 -0.050467703 0
-0.61515594 1.7121533 0.069801934 0
-0.61717391 1.714942 0.19842879 0
-1.045069 2.3062367 0.46055552 0
-1.0417142 2.3016007 0.64758128 0
-0.078371122 0.97038734 0.44204018 0
-0.50365478 1.5243599 -0.05004118 0
-0.61387122 1.6726954 0.068638779 0
-0.61985338 1.6807466 0.19563545 0
-1.0590513 2.2718441 0.45704469 0
-1.0663853 2.2817149 0.64721209 0
-0.092266157 0.97068948 0.44627333 0
-0.52806681 1.5237753 -0.050548706 0
-0.61928833 1.6433709 0.067918696 0
-0.61214674 1.634008 0.19112435 0
-1.0785507 2.2454851 0.4553619 0
-1.0802318 2.247689 0.64240134 0
-0.095322922 0.95642793 0.44149238 0
-0.53513795 1.5004542 -0.050044253 0
-0.62264264 1.6122298 0.067112178 0
-0.61761713 1.6058104 0.18908592 0
-1.0960044 2.216886 0.45320535 0
-1.1004776 2.2226 0.6404947 0
-0.11502327 0.9638139 0.4504438 0
-0.5479967 1.4849004 -0.049894426 0
-0.61605275 1.5696132 0.065773875 0
-0.61316252 1.5660157 0.18543753 0
-1.1106948 2.1853199 0.45039111 0
-1.1162372 2.1922188 0.63691992 0
-0.12740357 0.96136612 0.45333332 0
-0.56101316 1.4696991 -0.049766805 0
-0.62390471 1.5459956 0.065296814 0
-0.62058246 1.5419652 0.18393606 0
-1.1299957 2.1599574 0.44904041 0
-1.1186721 2.1462202 0.62820929 0
-0.14002456 0.95897883 0.45639279 0
-0.57732308 1.4585268 -0.049833823 0
-0.61726713 1.5057602 0.06404227 0
-0.61752057 1.5060599 0.1807631 0
-1.1388791 2.1225605 0.44488993 0
-1.1490775 2.1346202 0.63090938 0
-0.14553441 0.94794142 0.45392045 0
-0.59207761 1.4454848 -0.049822859 0
-0.61935675 1.4769304 0.063309073 0
-0.6164825 1.473617 0.17804241 0
-1.1639456 2.1046953 0.44538376 0
-1.1587967 2.0987601 0.62557375 0
-0.60855615 1.434387 -0.049913522 0
-0.63653445 1.4658298 0.063416131 0
-0.62449837 1.4523033 0.17689024 0
-1.1720203 2.0676234 0.44132221 0
-1.1721357 2.0677531 0.62187701 0
-0.63060379 1.4292921 -0.050305344 0
-0.66259408 1.4643447 0.063999578 0
-0.66183412 1.4635121 0.18047126 0
-1.1826117 2.034143 0.43811533 0
-1.1776183 2.0286715 0.61540622 0
-0.64574134 1.4164053 -0.050334286 0
-0.51596081 1.2777486 0.055553988 0
-0.68733287 1.4608415 0.1821205 0
-1.1869102 1.9945877 0.43340254 0
-1.1901355 1.9980335 0.61183327 0
-0.65185225 1.3940809 -0.049905915 0
-0.50439191 1.2404585 0.054303605 0
-0.71456563 1.459415 0.18402264 0
-1.2018272 1.9670379 0.43164718 0
-1.2038515 1.9691467 0.60889167 0
-0.6695329 1.3839359 -0.050086182 0
-0.50539547 1.2171937 0.053732995 0
-0.74670386 1.4623314 0.18665485 0
-1.216417 1.9394983 0.42991978 0
-1.2142863 1.9373338 0.60492724 0
-0.68403757 1.3704615 -0.050111078 0
-0.51788813 1.205873 0.053761631 0
-0.77754319 1.4630885 0.18905239 0
-1.2229055 1.9042665 0.42624581 0
-1.2267038 1.9080291 0.60186881 0
-0.6960777 1.3545774 -0.050021809 0
-0.54567915 1.209298 0.054556414 0
-0.81079018 1.4653856 0.19177924 0
-1.2217214 1.86233 0.42080429 0
-1.2234571 1.8640065 0.59342253 0
-0.70994556 1.3404974 -0.050033107 0
-0.55647141 1.1959379 0.054505996 0
-0.8352139 1.4584893 0.19316703 0
-1.2246273 1.8252832 0.41657183 0
-1.2312934 1.8315622 0.58915579 0
-0.72493577 1.3274329 -0.050107323 0
-0.87174559 1.4622672 0.069223747 0
-0.86930943 1.4600297 0.19596291 0
-1.2343152 1.7952614 0.41416365 0
-1.2331148 1.7941589 0.58299685 0
-0.22968335 0.87257892 0.37827763 0
-0.72943914 1.3049033 -0.049686071 0
-0.90570223 1.4627432 0.070133187 0
-0.90567958 1.462723 0.19905277 0
-1.2289532 1.752208 0.40823111 0
-1.2321397 1.7550615 0.57611138 0
-0.22709282 0.85506213 0.37261087 0
-0.74182785 1.2896481 -0.049656652 0
-0.93713462 1.4601593 0.070912778 0
-1.2424425 1.7267063 0.4070071 0
-1.240059 1.7246253 0.57248127 0
-0.23382349 0.84613824 0.37225115 0
-0.7585417 1.2780972 -0.04983937 0
-0.96702039 1.4555322 0.071613081 0
-1.2417457 1.6893493 0.40251297 0
-1.2378124 1.6860018 0.56561309 0
-0.23260887 0.83047855 0.36763683 0
-0.26085091 0.85451519 0.46157432 0
-0.7782824 1.2688859 -0.050167382 0
-1.0036721 1.4558716 0.072622694 0
-1.2422463 1.6537955 0.39845693 0
-1.2345343 1.6473974 0.55863643 0
-0.24413748 0.82575321 0.37003264 0
-0.78629458 1.2498896 -0.049958952 0
-1.0541804 1.4664946 0.074258052 0
-1.2578893 1.6312079 0.39805833 0
-1.2425737 1.6188241 0.55560398 0
-0.24983718 0.81612509 0.3693324 0
-0.80327177 1.2381407 -0.050170988 0
-1.0861298 1.4610207 0.075027622 0
-1.2423164 1.5840889 0.39056179 0
-1.2397969 1.5821037 0.54920566 0
-0.26767945 0.81611687 0.37510395 0
-0.80701113 1.2160358 -0.049791843 0
-1.1282043 1.4626311 0.076248623 0
-1.2433784 1.5510556 0.38705528 0
-1.2334553 1.5434371 0.54187173 0
-0.25605685 0.79304218 0.36543974 0
-0.2448072 0.78440529 0.43326741 0
-0.81902695 1.2004513 -0.049797703 0
-1.1694571 1.4625465 0.077420644 0
-1.2452333 1.5192213 0.38385433 0
-1.2393172 1.5147966 0.53865039 0
-0.25377202 0.77768332 0.360845 0
-0.28473079 0.80083817 0.45415425 0
-0.83124959 1.1850084 -0.049821354 0
-1.2101879 1.4610541 0.078558959 0
-1.2419841 1.4842167 0.37963358 0
-1.2501143 1.4901394 0.53713059 0
-1.245159 1.4865296 0.69655889 0
-0.26148427 0.76995063 0.36151269 0
-0.28272969 0.78542733 0.44876936 0
-0.84437716 1.1701832 -0.049892958 0
-1.2600344 1.4650389 0.080086991 0
-1.2502481 1.4580966 0.37809402 0
-1.2351524 1.4473882 0.52766436 0
-1.2546959 1.4612517 0.69422626 0
-0.28715777 0.77490723 0.37134176 0
-0.28666103 0.77455485 0.44719118 0
-0.85182083 1.1513673 -0.049725465 0
-1.3077205 1.4662167 0.081505865 0
-1.2398387 1.4193368 0.37254745 0
-1.2388837 1.4186772 0.52424377 0
-1.2484354 1.4252738 0.68565589 0
-0.28749776 0.76163971 0.44382855 0
-0.87708902 1.1446713 -0.05033638 0
-1.2714139 1.409726 0.07929904 0
-1.2757596 1.412647 0.22721012 0
-1.2489289 1.3946122 0.37139148 0
-1.2479719 1.3939689 0.52261031 0
-1.2368015 1.3864604 0.6751861 0
-0.28473288 0.74650538 0.43842146 0
-0.87623286 1.1203703 -0.04983145 0
-1.2776444 1.3829114 0.078955382 0
-1.2724104 1.3794882 0.22494079 0
-1.2515937 1.3658731 0.36892769 0
-1.2388021 1.3575069 0.5155195 0
-1.241909 1.3595389 0.67165262 0
-0.29582232 0.7407555 0.44145593 0
-0.89200437 1.1070662 -0.050047129 0
-1.2765005 1.3516877 0.07831677 0
-1.2883737 1.3592416 0.2252029 0
-1.257023 1.3392959 0.36715215 0
-1.2373637 1.3267883 0.51096255 0
-1.2331481 1.3241063 0.66281289 0
-0.30745351 0.73516721 0.44483063 0
-0.90421176 1.0913746 -0.050118577 0
-1.2915722 1.3310208 0.078380443 0
-1.2948314 1.3330371 0.22429408 0
-1.2523093 1.3067303 0.36331061 0
-1.2384214 1.2981384 0.50730634 0
-1.2387809 1.2983607 0.65984803 0
-0.91088319 1.0722913 -0.049967118 0
-1.3133219 1.3143129 0.078732714 0
-1.3106618 1.3127131 0.22460903 0
-1.2508349 1.276734 0.36026636 0
-1.2411499 1.2709095 0.50428295 0
-1.2426029 1.2717835 0.65632898 0
-0.91274142 1.0505154 -0.049627718 0
-1.3276616 1.2929823 0.078784741 0
-1.3342494 1.296832 0.22591923 0
-1.2478073 1.2463179 0.35699919 0
-1.2443711 1.2443098 0.50152898 0
-1.2500743 1.2476425 0.65437132 0
-0.93340051 1.0396826 -0.050073832 0
-1.3696729 1.2873112 0.079983413 0
-1.3877788 1.2975881 0.23094495 0
-1.255015 1.2222313 0.35595757 0
-1.2335466 1.2100458 0.49477276 0
-1.2504587 1.2196451 0.6498332 0
-0.9411509 1.0213733 -0.049996242 0
-1.2415403 1.186909 0.35072687 0
-1.233371 1.182407 0.4912914 0
-1.2363118 1.1840277 0.63994092 0
-0.95159233 1.0045617 -0.050037488 0
-1.2497497 1.1640064 0.35005733 0
-1.2391218 1.1583229 0.48964915 0
-1.2348423 1.1560345 0.6350677 0
-0.95593202 0.98454881 -0.049841605 0
-1.2625853 1.1436044 0.35039082 0
-1.2381445 1.1309274 0.48617128 0
-1.2403995 1.132097 0.63299227 0
-0.97123587 0.97019994 -0.050095193 0
-1.2730778 1.1219679 0.35030127 0
-1.2461718 1.1084394 0.48538563 0
-1.2454969 1.1081001 0.6308713 0
-0.97009206 0.94763654 -0.049701262 0
-1.2804286 1.0988107 0.34963682 0
-1.2382474 1.0782629 0.48015839 0
-1.2481745 1.0830988 0.62797999 0
-0.98373401 0.93235046 -0.049904548 0
-1.2866734 1.0752301 0.34881407 0
-1.2423345 1.054318 0.4784579 0
-1.2459953 1.0560445 0.62343538 0
-0.99284685 0.91483659 -0.049936514 0
-1.309203 1.059203 0.35128337 0
-1.2461735 1.0304401 0.47678235 0
-1.2409056 1.0280361 0.61797744 0
-1.0022645 0.89742905 -0.049988821 0
-1.3049473 1.030977 0.34849891 0
-1.2368536 1.0009332 0.47153071 0
-1.2442321 1.0041885 0.61573875 0
-1.0089598 0.87881768 -0.049943727 0
-1.3229547 1.0126592 0.35016391 0
-1.24444 0.97919196 0.47109929 0
-1.2383587 0.97659981 0.61029381 0
-1.0229994 0.86325908 -0.050191466 0
-1.3327688 0.99071461 0.35026753 0
-1.2406164 0.95279825 0.46759802 0
-1.2313175 0.94897217 0.60458207 0
-1.0221494 0.84160089 -0.049873617 0
-1.3397346 0.96762025 0.34987175 0
-1.2351739 0.92613006 0.46376127 0
-1.235924 0.92642772 0.60319275 0
-1.0343271 0.82515991 -0.050065681 0
-1.3582997 0.94901544 0.35177377 0
-1.2371346 0.90269369 0.46205702 0
-1.2469791 0.9064573 0.60420835 0
-1.0396808 0.80606037 -0.050005157 0
-1.3566916 0.922701 0.34983543 0
-1.2378112 0.87896031 0.46009201 0
-1.2310191 0.87646121 0.59573174 0
-1.0487165 0.78830516 -0.050093461 0
-1.3695993 0.90180397 0.3507461 0
-1.2375103 0.85508305 0.45795223 0
-1.2474043 0.85858268 0.59884077 0
-1.060738 0.77149487 -0.050302416 0
-1.3830823 0.88096404 0.35181263 0
-1.2380188 0.83169997 0.45612085 0
-1.2400506 0.83238995 0.59367502 0
-1.0566263 0.749273 -0.04991274 0
-1.3812861 0.85498828 0.35002676 0
-1.2465177 0.81110513 0.45652008 0
-1.2376963 0.80823272 0.59039527 0
-1.0656624 0.73143452 -0.050026745 0
-1.398738 0.83527017 0.35194588 0
-1.2449377 0.78732324 0.4542937 0
-1.2359694 0.78452742 0.58745325 0
-1.080822 0.71533364 -0.050376825 0
-1.398307 0.80993968 0.35053936 0
-1.2350129 0.76128036 0.44993401 0
-1.249598 0.76562649 0.5899567 0
-1.0703959 0.69169801 -0.04978355 0
-1.40459 0.78671843 0.35045663 0
-1.2283887 0.73661959 0.44655249 0
-1.2367251 0.73898989 0.58336735 0
-1.074159 0.67233461 -0.049728129 0
-1.4039992 0.76164395 0.34914461 0
-1.2408346 0.71746463 0.44830531 0
-1.2424715 0.71790785 0.58333379 0
-1.0864692 0.65520751 -0.049996976 0
-1.4118519 0.73892713 0.34946805 0
-1.2356333 0.69358683 0.44546708 0
-1.2379537 0.69418389 0.57986563 0
-1.1003522 0.63826561 -0.050330732 0
-1.4250544 0.71746486 0.35083687 0
-1.2391944 0.67213112 0.44501776 0
-1.2424855 0.67293388 0.57960963 0
-1.0941417 0.61644512 -0.049935158 0
-1.4274489 0.69331008 0.35025138 0
-1.2473702 0.65178162 0.44584885 0
-1.2366443 0.64930809 0.57590425 0
-1.1022813 0.59802651 -0.050075002 0
-1.4324794 0.66980809 0.35021025 0
-1.241232 0.6282329 0.44300738 0
-1.2272931 0.62520278 0.57111537 0
-1.1100546 0.57942921 -0.050209597 0
-1.434226 0.64563739 0.3496193 0
-1.2372665 0.60541075 0.44081634 0
-1.2388675 0.60573769 0.57354754 0
-1.102972 0.55789226 -0.049812417 0
-1.4376929 0.62187558 0.34940156 0
-1.2450652 0.58505398 0.44176105 0
-1.2342962 0.58299547 0.57058817 0
-1.1085737 0.5388962 -0.049885944 0
-1.4482733 0.59940803 0.35054234 0
-1.2332262 0.56110096 0.43768105 0
-1.2449172 0.56318349 0.5728662 0
-1.1177465 0.52043426 -0.050097208 0
-1.4589189 0.57678592 0.35174441 0
-1.2400868 0.54064125 0.43852314 0
-1.2332709 0.5395155 0.56771523 0
-1.1128817 0.49968103 -0.04980953 0
-1.444826 0.55022341 0.34848323 0
-1.2554356 0.5213865 0.44162074 0
-1.2400237 0.51903987 0.56886637 0
-1.1237334 0.48132041 -0.050098311 0
-1.4647923 0.52886474 0.35149065 0
-1.2312652 0.49631059 0.43459532 0
-1.2423896 0.49786136 0.56862843 0
-1.1325185 0.46248972 -0.050320596 0
-1.4520261 0.50293553 0.34859186 0
-1.2480556 0.47711533 0.43819618 0
-1.2460973 0.47686744 0.56893045 0
-1.1259508 0.44175074 -0.049999431 0
-0.52774543 0.37366644 0.04050485 0
-0.49673998 0.3701376 0.10651407 0
-0.51521128 0.37223989 0.17802964 0
-1.2359321 0.45426816 0.43442947 0
-1.241962 0.45495445 0.5666945 0
-1.1236069 0.42166317 -0.049839616 0
-0.51646978 0.3602955 0.040053595 0
-0.50650418 0.35928822 0.10743289 0
-0.5123173 0.35987577 0.17727248 0
-1.2424554 0.43367603 0.43552306 0
-1.2448626 0.43391934 0.56690633 0
-1.1185713 0.40144777 -0.049592573 0
-0.46386647 0.3435899 0.038127679 0
-0.5093776 0.34761184 0.107622 0
-0.50652486 0.34735975 0.17601959 0
-1.228416 0.41115502 0.43141517 0
-1.2459425 0.41270387 0.56659847 0
-1.1312518 0.38274503 -0.04998919 0
-0.50746524 0.33552688 0.10731098 0
-0.51614773 0.33618411 0.17758451 0
-1.2418569 0.39111739 0.43441504 0
-1.2504793 0.39177006 0.56753337 0
-1.1312047 0.36295646 -0.049938623 0
-0.51577801 0.32415769 0.10811767 0
-0.51213914 0.3239283 0.17671032 0
-1.2277584 0.36904356 0.43043688 0
-1.240615 0.36985409 0.5637548 0
-1.2394592 0.36978123 0.69964308 0
-1.1287621 0.34307972 -0.049811367 0
-0.53053427 0.31292218 0.1096326 0
-0.51533324 0.31215587 0.17716521 0
-1.2458345 0.3489815 0.43475145 0
-1.2342643 0.34839824 0.56124103 0
-1.2370965 0.34854102 0.6981684 0
-0.3581419 0.30423161 0.47550917 0
-1.1254835 0.32325807 -0.049663253 0
-0.50926393 0.29996789 0.10728753 0
-0.51497197 0.30018362 0.17700499 0
-1.245405 0.32779053 0.43440378 0
-1.2384033 0.32752591 0.56231081 0
-1.2407972 0.32761639 0.6993174 0
-0.36439013 0.29449233 0.47895667 0
-1.135036 0.30386105 -0.049982324 0
-0.40465909 0.28546208 0.35274151 0
-0.40413254 0.28544882 0.42475495 0
-0.37958598 0.28483045 0.48778388 0
-1.13966 0.28417376 -0.050134107 0
-0.40393043 0.27490732 0.4245542 0
-0.3756476 0.27455112 0.48533347 0
-1.127713 0.26437622 -0.049703129 0
-0.38989103 0.26437426 0.41749653 0
-0.38686401 0.26437426 0.49194729 0
-0.89177144 -0.98929471 -0.088793404 0
-1.0066075 -0.98929501 -0.088808633 0
-1.1332439 -0.98929536 -0.085439898 0
-1.1186595 -0.9892953 -0.056376953 0
-1.1252939 -0.98929536 -0.030660292 0
-1.1265615 -0.98929536 -0.0042741802 0
-1.1353498 -0.98929536 0.021530638 0
-1.1360192 -0.98929536 0.048038058 0
-1.1344675 -0.98929536 0.074570872 0
-1.1254984 -0.98929536 0.10100256 0
-1.1383362 -0.98929536 0.12752496 0
-1.1187814 -0.9892953 0.15316431 0
-1.1218221 -0.9892953 0.17952888 0
-1.1272322 -0.98929536 0.20634255 0
-1.135684 -0.98929536 0.23388119 0
-1.127775 -0.98929536 0.25966454 0
-1.1357576 -0.98929536 0.28786048 0
-1.14086 -0.98929536 0.31610352 0
-0.90079641 -1.0120546 -0.09077283 0
-1.014432 -1.0149229 -0.090343274 0
-1.1340902 -1.0179433 -0.085638396 0
-1.1312426 -1.0178714 -0.058195997 0
-1.1258581 -1.0177355 -0.030768162 0
-1.1297259 -1.0178331 -0.0046031605 0
-1.1304506 -1.0178514 0.021847935 0
-1.1250899 -1.0177161 0.048530173 0
-1.1289248 -1.0178128 0.07469137 0
-1.1310514 -1.0178666 0.10100272 0
-1.1320924 -1.0178928 0.12738785 0
-1.1260803 -1.0177411 0.15352125 0
-1.1300282 -1.0178407 0.18012823 0
-1.1299807 -1.0178396 0.2066329 0
-1.1367971 -1.0180116 0.23405373 0
-1.1266013 -1.0177542 0.25955001 0
-1.1382521 -1.0180483 0.28833026 0
-1.146561 -1.0182581 0.3172465 0
-0.89020324 -1.0343083 -0.088701583 0
-1.0190283 -1.0408156 -0.091393031 0
-1.1174316 -1.0457863 -0.083075486 0
-1.1287452 -1.0463578 -0.057996769 0
-1.2488861 -1.0524263 -0.045291159 0
-1.2472364 -1.052343 -0.015686562 0
-1.231999 -1.0515734 0.014664041 0
-1.2408658 -1.0520213 0.043083254 0
-1.2449393 -1.052227 0.071965419 0
-1.2389399 -1.051924 0.10100584 0
-1.2309357 -1.0515196 0.12971984 0
-1.2317897 -1.0515628 0.1585051 0
-1.2350986 -1.0517299 0.18756473 0
-1.2414622 -1.0520514 0.21715935 0
-0.9044745 -1.0579693 -0.092046432 0
-1.0109318 -1.066044 -0.090170585 0
-1.1231432 -1.074555 -0.084310494 0
-1.1264436 -1.0748054 -0.057926003 0
-1.2409744 -1.0834924 -0.044597168 0
-1.2378659 -1.0832566 -0.014995513 0
-1.2371995 -1.0832061 0.014161738 0
-1.2473562 -1.0839764 0.042687874 0
-1.2491373 -1.0841116 0.071821257 0
-1.2469879 -1.0839485 0.10100613 0
-1.2417639 -1.0835522 0.13001882 0
-1.2411199 -1.0835034 0.15903303 0
-1.2400944 -1.0834256 0.18805343 0
-1.242432 -1.0836029 0.21743555 0
-0.90021569 -1.0805662 -0.091568328 0
-1.0216591 -1.0928662 -0.092628993 0
-1.1526483 -1.106133 -0.089599021 0
-1.2427208 -1.1152556 -0.074706055 0
-1.2348919 -1.1144627 -0.044208307 0
-1.2361147 -1.1145866 -0.01509065 0
-1.2434579 -1.1153302 0.013527783 0
-1.2406237 -1.1150432 0.042872526 0
-1.245393 -1.1155262 0.07184355 0
-1.2335094 -1.1143227 0.10100582 0
-1.2339795 -1.1143702 0.12990142 0
-1.2467735 -1.115666 0.15942781 0
-1.243911 -1.1153761 0.18851665 0
-2.0047052 -1.1924305 0.28925505 0
-1.9970676 -1.1916569 0.33579904 0
-1.9346248 -1.1853327 0.37449405 0
-1.4732734 -1.1386063 0.38015455 0
-0.88775623 -1.1020231 -0.0894536 0
-1.0097165 -1.1174932 -0.090919547 0
-1.1488552 -1.1351422 -0.089519851 0
-1.1957762 -1.1410939 -0.068562143 0
-1.2392523 -1.1466086 -0.045140419 0
-1.2466978 -1.147553 -0.016420884 0
-1.2390947 -1.1465886 0.013583237 0
-1.2434877 -1.1471457 0.04257068 0
-1.2486922 -1.1478059 0.071682282 0
-1.2413375 -1.146873 0.10100615 0
-1.2232009 -1.1445725 0.12973158 0
-1.2402982 -1.1467413 0.15929203 0
-1.2444263 -1.1472648 0.1888053 0
-1.5972606 -1.1920201 0.36584163 0
-1.4846848 -1.1777403 0.38312644 0
-0.89411777 -1.1258585 -0.091493897 0
-1.0045158 -1.1427022 -0.09060625 0
-1.1456553 -1.1642362 -0.089660503 0
-1.1988519 -1.1723524 -0.069598041 0
-1.6348445 -1.2388728 -0.092425562 0
-2.5586145 -1.3798144 -0.14070722 0
-3.4194841 -1.5111592 -0.14091904 0
-5.1436095 -1.7742127 -0.14130551 0
-10.269915 -2.5563445 -0.14059584 0
-1.3539778 -1.1960204 0.29367149 0
-1.3625709 -1.1973314 0.32774511 0
-1.3625159 -1.1973231 0.36083856 0
-0.89839494 -1.1498284 -0.093222968 0
-0.98873949 -1.1659548 -0.088389598 0
-1.1453449 -1.1939087 -0.09040653 0
-1.2020359 -1.2040279 -0.070766471 0
-1.6108651 -1.2770033 -0.090388142 0
-2.5462577 -1.4439696 -0.14054711 0
-3.4012578 -1.5965859 -0.1406371 0
-5.1175618 -1.9029436 -0.14108768 0
-10.229629 -2.8154402 -0.14065538 0
-1.3292991 -1.2267442 0.29095352 0
-1.317444 -1.2246281 0.32115763 0
-1.3142166 -1.2240521 0.35268229 0
-0.88460124 -1.1705339 -0.091171123 0
-1.0035424 -1.1948763 -0.09215308 0
-1.1457558 -1.2239816 -0.091402762 0
-1.1873423 -1.2324927 -0.069490843 0
-1.6081101 -1.3186069 -0.090986691 0
-2.5329592 -1.5078862 -0.14045036 0
-3.388319 -1.6829437 -0.1408845 0
-5.0802999 -2.0292237 -0.14048989 0
-10.190943 -3.075166 -0.14090805 0
-1.2511955 -1.2455609 0.31110686 0
-1.2273271 -1.240676 0.33719173 0
-0.88348454 -1.193684 -0.091986634 0
-0.99580556 -1.2196405 -0.091721974 0
-1.1213568 -1.2486544 -0.088347502 0
-1.1782739 -1.2618076 -0.069122471 0
-1.6001989 -1.3593111 -0.091095842 0
-2.5204525 -1.5719746 -0.14058301 0
-3.3705697 -1.7684301 -0.14094414 0
-5.0689516 -2.160913 -0.14127867 0
-10.138423 -3.3324289 -0.14098808 0
-0.87862122 -1.2160829 -0.092112906 0
-0.98146528 -1.2425997 -0.090124838 0
-1.1313093 -1.2812349 -0.091208033 0
-1.3061528 -1.3263156 -0.088734023 0
-1.604387 -1.4032109 -0.092789657 0
-1.9793983 -1.4999019 -0.089923672 0
-3.3406396 -1.8508778 -0.14028005 0
-5.018693 -2.2835388 -0.14036117 0
-10.060821 -3.5835767 -0.14062181 0
-0.86438453 -1.2358576 -0.090292908 0
-0.98303914 -1.2696656 -0.091746025 0
-1.1185603 -1.3082794 -0.090349726 0
-1.2981507 -1.3594499 -0.088868074 0
-1.5735751 -1.4379261 -0.090376504 0
-1.9791629 -1.5534896 -0.091212399 0
-3.3185451 -1.9351174 -0.14033152 0
-4.9928212 -2.4121659 -0.1407669 0
-9.9999018 -3.8388252 -0.14080894 0
-0.86551946 -1.2599971 -0.091992401 0
-0.96371675 -1.2906753 -0.089390896 0
-1.1034232 -1.3343216 -0.08919052 0
-1.2958254 -1.3944306 -0.08996167 0
-1.5658323 -1.4787847 -0.090875827 0
-1.9570825 -1.6010166 -0.090506874 0
-3.2951612 -2.0190511 -0.14044409 0
-4.9553742 -2.5377247 -0.140769 0
-9.9195681 -4.0886087 -0.14068098 0
-0.84707999 -1.2779162 -0.089447625 0
-0.9639039 -1.3176757 -0.091002174 0
-1.1000907 -1.364025 -0.090184338 0
-1.2713232 -1.4223017 -0.087903075 0
-1.5510334 -1.5174973 -0.090635113 0
-1.9403647 -1.650001 -0.090441801 0
-3.277915 -2.1052182 -0.14116669 0
-4.9184737 -2.6635604 -0.14095323 0
-9.8494787 -4.3417616 -0.14095771 0
-0.83998507 -1.2993902 -0.089551233 0
-0.95508754 -1.3418335 -0.090957247 0
-1.0950248 -1.3934343 -0.091014557 0
-1.2783283 -1.4610262 -0.090649433 0
-1.5322989 -1.5546761 -0.090023093 0
-1.9306922 -1.7015809 -0.09119945 0
-3.2436399 -2.1857209 -0.14078851 0
-4.8659401 -2.7839329 -0.14052035 0
-9.7510538 -4.5852847 -0.14069249 0
-0.83237201 -1.3207 -0.089660756 0
-0.94676971 -1.3661941 -0.091135927 0
-1.0685297 -1.414616 -0.088193603 0
-1.2582648 -1.4900705 -0.089476712 0
-1.5266109 -1.5967872 -0.091163285 0
-1.9097321 -1.749148 -0.090961032 0
-3.2123895 -2.2671928 -0.14078622 0
-4.8273497 -2.9094353 -0.14093316 0
-9.6637344 -4.8327837 -0.14085551 0
-0.81854367 -1.3393986 -0.088458486 0
-0.92648005 -1.3855102 -0.088989772 0
-1.0664642 -1.4453129 -0.089803196 0
-1.2524619 -1.524773 -0.09058211 0
-1.5238875 -1.6407287 -0.092827 0
-1.8821504 -1.7937822 -0.090169184 0
-3.1830757 -2.3495505 -0.14108665 0
-4.7749496 -3.0296152 -0.14081085 0
-9.5625086 -5.0749087 -0.14082582 0
-0.82261181 -1.3659848 -0.091535114 0
-0.9231537 -1.4119706 -0.090432517 0
-1.0509814 -1.4704367 -0.089145876 0
-1.2309017 -1.5527288 -0.089399837 0
-1.4930236 -1.6726183 -0.091035195 0
-1.8696431 -1.8448768 -0.091030352 0
-3.1535358 -2.4321046 -0.14153209 0
-4.7227063 -3.1498129 -0.14084958 0
-9.4562559 -5.314847 -0.14082265 0
-0.81016827 -1.3853376 -0.090901874 0
-0.91871512 -1.4383363 -0.091799162 0
-1.0457081 -1.5003414 -0.09046296 0
-1.215765 -1.5833727 -0.089317165 0
-1.465844 -1.7054753 -0.089804433 0
-1.8444574 -1.8903357 -0.090718426 0
-3.1055334 -2.5060637 -0.14070787 0
-4.6631927 -3.2666004 -0.14066838 0
-9.3385639 -5.5493789 -0.14067923 0
-0.80322802 -1.4073986 -0.091694988 0
-0.90156496 -1.4585242 -0.090625755 0
-1.0367063 -1.5287845 -0.091245718 0
-1.2042376 -1.6158843 -0.089926846 0
-1.4503301 -1.7438283 -0.090202652 0
-1.8160009 -1.9339412 -0.090178244 0
-3.0645936 -2.583087 -0.14057539 0
-4.6018648 -3.3823173 -0.14054325 0
-9.2310429 -5.7890358 -0.14095458 0
-0.79216939 -1.4274163 -0.091633461 0
-0.89589405 -1.4847127 -0.092014842 0
-1.008029 -1.5466549 -0.088479079 0
-1.1907442 -1.6475849 -0.090360306 0
-1.424338 -1.7766196 -0.089335777 0
-1.7961477 -1.9820033 -0.090664454 0
-3.0294526 -2.6632676 -0.14105842 0
-4.5385494 -3.4968767 -0.14046499 0
-9.1093616 -6.0217443 -0.14101726 0
-0.77147979 -1.4417922 -0.089322023 0
-0.87537748 -1.5026551 -0.090327241 0
-1.0031104 -1.5774804 -0.090282001 0
-1.1668106 -1.6733752 -0.089229189 0
-1.4021834 -1.8112556 -0.089087121 0
-1.7709111 -2.0272546 -0.090705834 0
-2.9761574 -2.7332821 -0.14024056 0
-4.4809718 -3.6147952 -0.14085001 0
-8.9770203 -6.2485595 -0.14095078 0
-0.76046365 -1.4615391 -0.089483805 0
-0.85404515 -1.5195788 -0.088531829 0
-0.99201888 -1.6051506 -0.091068842 0
-1.1510512 -1.7037832 -0.089538835 0
-1.3879842 -1.8507299 -0.090047933 0
-1.7452408 -2.0723019 -0.090824746 0
-2.9365246 -2.8111408 -0.14067799 0
-4.4092617 -3.7245381 -0.14062874 0
-8.8398294 -6.472394 -0.14090602 0
-0.74397528 -1.4777609 -0.088383026 0
-0.84408212 -1.5434017 -0.089362673 0
-0.97550541 -1.6295769 -0.09093941 0
-1.144358 -1.7402948 -0.091505207 0
-1.3692913 -1.8877851 -0.090534873 0
-1.71437 -2.1140556 -0.090491079 0
-2.8959777 -2.888844 -0.14120929 0
-4.3396492 -3.8354695 -0.14067353 0
-8.6898832 -6.6879487 -0.1406617 0
-0.74426496 -1.5052996 -0.091705643 0
-0.83922344 -1.5710493 -0.091514103 0
-0.95840538 -1.6535715 -0.090812631 0
-1.1193287 -1.7649957 -0.090528108 0
-1.3543885 -1.9277521 -0.091701008 0
-1.6962446 -2.1644549 -0.091717146 0
-2.8420935 -2.9578462 -0.14078119 0
-4.2674117 -3.9447436 -0.14072767 0
-8.548872 -6.9092479 -0.14081831 0
-0.73148859 -1.5242893 -0.091832064 0
-0.81823528 -1.5876497 -0.090104766 0
-0.94344735 -1.6791056 -0.09124162 0
-1.1038778 -1.7962854 -0.09130732 0
-1.3174845 -1.9523054 -0.089849316 0
-1.6573353 -2.2005353 -0.090709396 0
-2.8009312 -3.0358272 -0.14159596 0
-4.1946249 -4.0537925 -0.14090875 0
-8.4028015 -7.1274796 -0.14099158 0
-0.7185412 -1.5432035 -0.092042439 0
-0.80723983 -1.6114872 -0.091141723 0
-0.93329018 -1.7085257 -0.092807196 0
-1.0828612 -1.8236712 -0.091253467 0
-1.3008466 -1.9914849 -0.091041006 0
-1.6296127 -2.2445819 -0.091105931 0
-2.7442813 -3.1026971 -0.1412323 0
-4.1202979 -4.1620083 -0.14116308 0
-8.2327614 -7.3279438 -0.14062503 0
-0.71225274 -1.5676 -0.094208799 0
-0.78914863 -1.6299497 -0.090623938 0
-0.90246201 -1.7218279 -0.090186931 0
-1.0588175 -1.848606 -0.090774648 0
-1.2776376 -2.0260324 -0.091415919 0
-1.5911242 -2.2802174 -0.09034919 0
-2.6876152 -3.1692882 -0.14101009 0
-4.0286021 -4.2566037 -0.14054376 0
-8.0772686 -7.5393949 -0.14083633 0
-0.6849587 -1.5747628 -0.0907223 0
-0.77541941 -1.6519746 -0.091289259 0
-0.88580549 -1.7461933 -0.090643637 0
-1.0274049 -1.867054 -0.08903899 0
-1.2528329 -2.0594654 -0.091686405 0
-1.555856 -2.3181076 -0.090080447 0
-2.6283822 -3.2335503 -0.14070003 0
-3.945153 -4.3574653 -0.14056037 0
-7.9142966 -7.7452836 -0.14098501 0
-0.66722447 -1.5894188 -0.08993835 0
-0.75794113 -1.6708938 -0.091159888 0
-0.86586106 -1.7678194 -0.090518884 0
-1.0156808 -1.9023765 -0.091069601 0
-1.2143542 -2.0808101 -0.089946158 0
-1.5253859 -2.3601556 -0.090526171 0
-2.5767903 -3.3044491 -0.14125159 0
-3.8729107 -4.4685283 -0.14143619 0
-7.7474856 -7.9483833 -0.14117782 0
-0.65978581 -1.6135658 -0.092253156 0
-0.73422897 -1.6838983 -0.089534424 0
-0.84450358 -1.7880836 -0.090193622 0
-0.99338329 -1.9287423 -0.091275327 0
-1.1910466 -2.1154909 -0.090688877 0
-1.4883598 -2.3963866 -0.090275533 0
-1.9890212 -2.8694019 -0.09041927 0
-3.7817671 -4.5631537 -0.14130002 0
-7.555306 -8.1283207 -0.1407259 0
-0.64588475 -1.632086 -0.092870571 0
-0.71902955 -1.7047712 -0.09021423 0
-0.81852698 -1.8036432 -0.088906966 0
-0.96599013 -1.9501797 -0.090606995 0
-1.166883 -2.1498101 -0.091451921 0
-1.4552716 -2.4363861 -0.090655588 0
-1.9448467 -2.9228845 -0.090803258 0
-3.6804373 -4.6475673 -0.14064676 0
-7.3815665 -8.3254366 -0.14101405 0
-0.62333483 -1.6417999 -0.090987079 0
-0.69811803 -1.7199609 -0.089497663 0
-0.79936481 -1.8257807 -0.089298196 0
-0.94261122 -1.9754974 -0.090845458 0
-1.1356676 -2.1772735 -0.091187738 0
-1.4184855 -2.4728658 -0.090681128 0
-1.8878602 -2.9634409 -0.090036668 0
-3.588273 -4.7406573 -0.14073496 0
-7.1889124 -8.5039291 -0.14083897 0
-0.5993908 -1.6493385 -0.088686727 0
-0.68499428 -1.7434515 -0.091046833 0
-0.77742314 -1.8450686 -0.089156158 0
-0.91281033 -1.9939142 -0.089881025 0
-1.1003605 -2.2001085 -0.090324245 0
-1.3819594 -2.5097005 -0.090869494 0
-1.8444932 -3.0182137 -0.090768524 0
-3.4858201 -4.8227015 -0.14027418 0
-6.9944868 -8.6801567 -0.14075136 0
-0.58699232 -1.6694193 -0.090131857 0
-0.66362989 -1.7580693 -0.090436898 0
-0.76292831 -1.8729322 -0.09100201 0
-0.89105666 -2.0211439 -0.090715833 0
-1.0726496 -2.2312005 -0.090894289 0
-1.3378606 -2.5379817 -0.090113439 0
-1.7826934 -3.0525396 -0.089697368 0
-3.4042749 -4.9282942 -0.14143346 0
-6.7945838 -8.8500147 -0.14062239 0
-0.5729574 -1.6880708 -0.091241233 0
-0.64637828 -1.7774628 -0.091136344 0
-0.74658966 -1.8994731 -0.092607372 0
-0.86371839 -2.0420806 -0.090490066 0
-1.0469174 -2.265131 -0.091988854 0
-1.3059531 -2.5805144 -0.091230191 0
-1.7428508 -3.1124501 -0.091105364 0
-3.3001113 -5.0084596 -0.14116247 0
-6.6061659 -9.0336771 -0.14106487 0
-0.55643767 -1.7039882 -0.091688432 0
-0.6234417 -1.7898985 -0.090265281 0
-0.71780938 -1.9108938 -0.091116838 0
-0.83935136 -2.066731 -0.091054745 0
-1.0134023 -2.2898936 -0.091800548 0
-1.2613316 -2.6077807 -0.090614386 0
-1.6830392 -3.1484809 -0.090458877 0
-3.1886959 -5.0789857 -0.14048444 0
-6.3908691 -9.1847095 -0.14067829 0
-0.53461808 -1.7129475 -0.090398677 0
-0.59931022 -1.8003551 -0.089083515 0
-0.69452363 -1.9290007 -0.091170974 0
-0.81562752 -2.092628 -0.091935538 0
-0.9754402 -2.3085558 -0.090852894 0
-1.2191086 -2.6377835 -0.090459831 0
-1.6298094 -3.1926939 -0.090668596 0
-3.0845115 -5.1581864 -0.14048584 0
-6.183795 -9.3457232 -0.14074625 0
-0.51463002 -1.7240092 -0.089821793 0
-0.58544594 -1.8249191 -0.091310106 0
-0.66929352 -1.9443988 -0.090799324 0
-0.78600532 -2.1107087 -0.091562696 0
-0.9437294 -2.3354597 -0.091236673 0
-1.1829298 -2.6763113 -0.091402702 0
-1.579125 -3.2408748 -0.091329299 0
-2.9780283 -5.2342591 -0.14046025 0
-5.9709859 -9.4991121 -0.1407463 0
-0.50057417 -1.7437732 -0.091605641 0
-0.56532604 -1.8411797 -0.091701515 0
-0.64489967 -1.9608825 -0.090774931 0
-0.74508542 -2.1115923 -0.088421233 0
-0.90468979 -2.3516858 -0.090228863 0
-1.1379552 -2.7025876 -0.091060005 0
-1.5106863 -3.2632885 -0.089924283 0
-2.8700023 -5.3081112 -0.14046252 0
-5.7615323 -9.6578493 -0.14104694 0
-0.4792181 -1.7527533 -0.090743221 0
-0.53763062 -1.8456237 -0.089571409 0
-0.62059551 -1.9775301 -0.090903245 0
-0.72621042 -2.145448 -0.090976156 0
-0.87120157 -2.3759704 -0.090486713 0
-1.0923779 -2.7276201 -0.09071172 0
-1.4549551 -3.3040838 -0.090203322 0
-2.7689991 -5.3932905 -0.14123891 0
-5.5409927 -9.8005018 -0.14104743 0
-0.45738074 -1.7605512 -0.089735679 0
-0.51928061 -1.8647081 -0.090835072 0
-0.58809441 -1.9804987 -0.088532619 0
-0.6906414 -2.1530511 -0.089279838 0
-0.83966768 -2.4038126 -0.091340236 0
-1.041833 -2.7439897 -0.089553915 0
-1.3929236 -3.3347583 -0.089770429 0
-2.6533952 -5.4557118 -0.1409104 0
-5.3124418 -9.9300022 -0.14084394 0
-0.44018754 -1.7761731 -0.090784214 0
-0.49646935 -1.8765604 -0.090620123 0
-0.56587023 -2.0003479 -0.089531593 0
-0.66299754 -2.1735895 -0.089837082 0
-0.79755348 -2.4135909 -0.089868821 0
-1.0071613 -2.7874591 -0.09144979 0
-1.341835 -3.384402 -0.090990342 0
-2.5379431 -5.5178466 -0.1407281 0
-5.0884829 -10.067132 -0.14100157 0
-0.42431459 -1.7948599 -0.092660598 0
-0.47238705 -1.8859171 -0.089999937 0
-0.54628193 -2.0258863 -0.091679685 0
-0.63493454 -2.193809 -0.090447955 0
-0.76234263 -2.4351411 -0.090114109 0
-0.95457399 -2.7992592 -0.090070911 0
-1.2791928 -3.4141412 -0.090723239 0
-1.9217471 -4.6312456 -0.090757243 0
-4.8549905 -10.187295 -0.14086068 0
-0.40222943 -1.8020593 -0.091883577 0
-0.4514558 -1.9012884 -0.090780683 0
-0.51815778 -2.0357444 -0.091015629 0
-0.60042721 -2.201581 -0.089210309 0
-0.72372693 -2.4501252 -0.089616396 0
-0.90631974 -2.8181908 -0.089591451 0
-0.95712554 -2.9206038 -0.04974756 0
-0.92967409 -2.8652678 0.0034787974 0
-0.97324681 -2.9531004 0.050001256 0
-0.93476987 -2.8755398 0.10103051 0
-0.37757173 -1.8033239 -0.089855857 0
-0.432201 -1.9207995 -0.092522673 0
-0.48848578 -2.0418353 -0.089805894 0
-0.57414168 -2.2260311 -0.090707831 0
-0.68970263 -2.4745352 -0.090465821 0
-0.86526811 -2.8520741 -0.090782829 0
-0.97369927 -3.0852463 -0.060624931 0
-0.87185121 -2.8662305 0.0046042744 0
-0.96057993 -3.0570343 0.047950495 0
-0.87727427 -2.8778925 0.10102986 0
-0.36104423 -1.822121 -0.092058964 0
-0.40064546 -1.9132243 -0.088783167 0
-0.45945507 -2.0485165 -0.088850163 0
-0.54238027 -2.2392871 -0.090575896 0
-0.6528706 -2.4934719 -0.090718545 0
-0.82053077 -2.8791766 -0.091377147 0
-0.85339886 -2.9547901 -0.048856694 0
-0.83409089 -2.9103718 0.0034511185 0
-0.84285343 -2.9305301 0.051756013 0
-0.87693655 -3.0089388 0.10103326 0
-0.33797365 -1.8261944 -0.090959154 0
-0.38093615 -1.9322739 -0.090654813 0
-0.43620983 -2.0687511 -0.090437971 0
-0.50951105 -2.2497404 -0.090142496 0
-0.60987574 -2.4975524 -0.08921326 0
-0.76970136 -2.8921807 -0.090659969 0
-0.83513731 -3.0537496 -0.054742027 0
-0.83530974 -3.0541756 -0.0027442703 0
-3.9053597 -10.634488 -0.14097866 0
-0.31856155 -1.8392992 -0.09205354 0
-0.3566651 -1.9406596 -0.090463661 0
-0.40770689 -2.0764375 -0.089911126 0
-0.47587672 -2.2577782 -0.089475743 0
-0.578785 -2.5315275 -0.091590919 0
-0.71986872 -2.9068284 -0.090242021 0
-0.96097779 -3.5482101 -0.090144791 0
-1.4500648 -4.8492455 -0.091006197 0
-3.6591229 -10.725627 -0.1408706 0
-0.2924619 -1.8339889 -0.089105316 0
-0.33260775 -1.9495543 -0.090498351 0
-0.38141286 -2.0900464 -0.090545096 0
-0.44343996 -2.2686002 -0.089355908 0
-0.53657782 -2.5367105 -0.090483092 0
-0.6723628 -2.9275863 -0.090556301 0
-0.89948118 -3.581378 -0.090863518 0
-1.3490038 -4.875391 -0.090550967 0
-3.4136093 -10.818643 -0.14096333 0
-0.27311152 -1.8475604 -0.090541609 0
-0.30728698 -1.954577 -0.089887746 0
-0.3533366 -2.0987761 -0.090447105 0
-0.41235161 -2.2835748 -0.089970924 0
-0.49689096 -2.5483 -0.090301417 0
-0.62239367 -2.9412973 -0.09029559 0
-0.82551271 -3.5773413 -0.088960521 0
-1.2530239 -4.9160433 -0.090933539 0
-3.1639969 -10.900036 -0.14092351 0
-0.25107196 -1.8531834 -0.090315916 0
-0.2826983 -1.961583 -0.08979664 0
-0.32527474 -2.1075141 -0.090473078 0
-0.38276175 -2.3045516 -0.091575436 0
-0.45693958 -2.5587969 -0.090110473 0
-0.5753172 -2.9645376 -0.09108641 0
-0.76512361 -3.6151011 -0.090251736 0
-1.1535324 -4.9463763 -0.090930797 0
-2.9113445 -10.971296 -0.14079177 0
-0.23025742 -1.8632839 -0.091198958 0
-0.25937861 -1.9733537 -0.090755768 0
-0.29500949 -2.1080287 -0.089221634 0
-0.34576821 -2.2998824 -0.089550085 0
-0.41592005 -2.5650368 -0.089528494 0
-0.52656138 -2.9832304 -0.091548048 0
-0.70092148 -3.6422632 -0.090878598 0
-1.0522344 -4.9701285 -0.090732522 0
-2.6600311 -11.047153 -0.14092535 0
-0.20837064 -1.869843 -0.09141814 0
-0.23435593 -1.9791428 -0.090665422 0
-0.26555794 -2.1103852 -0.088418327 0
-0.31301337 -2.3099933 -0.089807115 0
-0.37839755 -2.5850134 -0.090724938 0
-0.47458854 -2.989614 -0.090944387 0
-0.63293451 -3.6556518 -0.09062881 0
-0.94557619 -4.9706912 -0.089548491 0
-2.4051106 -11.109813 -0.14089479 0
-0.18515152 -1.8704168 -0.090456165 0
-0.20828393 -1.9799262 -0.089733876 0
-0.23803249 -2.1207566 -0.089090817 0
-0.28063455 -2.3224359 -0.090516813 0
-0.33915958 -2.5994949 -0.091372095 0
-0.42301705 -2.9964786 -0.090515323 0
-0.56596297 -3.6731882 -0.090799652 0
-0.84688425 -5.003077 -0.090013407 0
-2.1512864 -11.178151 -0.14115269 0
-0.16160017 -1.8680195 -0.088983424 0
-0.18406324 -1.9894341 -0.090604164 0
-0.21012181 -2.1302826 -0.089735277 0
-0.24493578 -2.3184547 -0.088992991 0
-0.29720557 -2.6009769 -0.090589128 0
-0.36935282 -2.9909382 -0.089034595 0
-0.49785471 -3.6855006 -0.090718783 0
-0.94303393 -6.0917282 -0.14060296 0
-1.8903432 -11.212007 -0.14074589 0
-0.14314425 -1.8955289 -0.094081707 0
-0.15874322 -1.9936173 -0.090572305 0
-0.17946085 -2.1238925 -0.087845944 0
-0.21368562 -2.3391025 -0.091108479 0
-0.25754356 -2.614887 -0.091405667 0
-0.32031751 -3.009618 -0.089977227 0
-0.42999244 -3.6992688 -0.090863235 0
-0.81431764 -6.1159573 -0.14069891 0
-1.631693 -11.255724 -0.14072827 0
-0.11750644 -1.8784144 -0.089693777 0
-0.13301924 -1.9948282 -0.090097405 0
-0.15261713 -2.1418979 -0.090136372 0
-0.17833713 -2.3349102 -0.089807145 0
-0.21523838 -2.6118305 -0.090337239 0
-0.2699739 -3.0225856 -0.090495534 0
-0.36101744 -3.7058094 -0.090618469 0
-0.68445617 -6.1330109 -0.1406104 0
-1.3742146 -11.309209 -0.14109325 0
-0.095263414 -1.8832397 -0.090146787 0
-0.1086 -2.0071225 -0.091846637 0
-0.12441104 -2.1539907 -0.091555394 0
-0.14443941 -2.3400335 -0.089952387 0
-0.1737957 -2.6127226 -0.089861579 0
-0.21796793 -3.0230367 -0.089956842 0
-0.29266733 -3.7169161 -0.09081801 0
-0.55576152 -6.1607862 -0.14117783 0
-1.1113366 -11.321499 -0.14064607 0
-0.073104642 -1.8905787 -0.091254868 0
-0.082631491 -2.0064878 -0.091265462 0
-0.09376929 -2.1419969 -0.089116983 0
-0.11040495 -2.3443959 -0.090110816 0
-0.13463913 -2.6392429 -0.092515044 0
-0.1671045 -3.0342352 -0.09054894 0
-0.22459984 -3.7337568 -0.091540523 0
-0.42449811 -6.165834 -0.14083438 0
-0.85084385 -11.353003 -0.14080302 0
-0.050066043 -1.8873281 -0.090225957 0
-0.056451861 -1.9996845 -0.089645065 0
-0.064869605 -2.1477916 -0.089737795 0
-0.075925954 -2.342324 -0.089484312 0
-0.08088477 -2.4295726 -0.067631565 0
-0.08075662 -2.4273179 -0.03347202 0
-0.080807373 -2.4282107 0.00021408708 0
-0.080829203 -2.4285948 0.033856023 0
-0.080661476 -2.4256437 0.067520685 0
-0.080707267 -2.4264495 0.10101149 0
-0.027283026 -1.8848928 -0.089494966 0
-0.030980904 -2.0020952 -0.089886971 0
-0.035435509 -2.1432817 -0.088783704 0
-0.04094201 -2.3178077 -0.085824974 0
-0.040704582 -2.3102825 -0.053494904 0
-0.040907551 -2.3167155 -0.022993391 0
-0.040748667 -2.3116798 0.0084770415 0
-0.040699601 -2.3101246 0.039448909 0
-0.040782426 -2.3127496 0.070184112 0
-0.040538918 -2.3050318 0.10100798 0
-0.0047545731 -1.8975953 -0.092104129 0
-0.0054916227 -2.0144541 -0.092123695 0
-0.0063147261 -2.1449571 -0.088968448 0
-0.0067549348 -2.214752 -0.071252592 0
-0.0067763985 -2.2181549 -0.042653698 0
-0.0066835936 -2.2034409 -0.012360906 0
-0.0067438721 -2.2129979 0.015420133 0
-0.0067487727 -2.2137749 0.043963898 0
-0.0067435997 -2.2129548 0.072519131 0
-0.0067422474 -2.2127404 0.10100532 0
0.017807767 -1.8785982 -0.08809609 0
0.020282749 -2.0093501 -0.091192923 0
0.022850156 -2.144985 -0.089003287 0
0.023786072 -2.1944289 -0.068423398 0
0.024044123 -2.2080617 -0.041496713 0
0.024056761 -2.2087293 -0.012872657 0
0.023886779 -2.1997492 0.016332889 0
0.023801303 -2.1952336 0.044818167 0
0.023891049 -2.1999748 0.072816446 0
0.024004387 -2.2059624 0.10100514 0
0.041261703 -1.9010011 -0.093013369 0
0.04567736 -2.0009277 -0.089758076 0
0.052286543 -2.1504941 -0.090060942 0
0.054732826 -2.2058539 -0.070165522 0
0.054680388 -2.2046671 -0.041213084 0
0.054453894 -2.1995416 -0.012104927 0
0.054745395 -2.2061384 0.015818374 0
0.054442786 -2.1992903 0.044584397 0
0.054605782 -2.2029788 0.072724111 0
0.054514576 -2.2009149 0.10100502 0
0.064353518 -1.9011525 -0.093324028 0
0.071928687 -2.010139 -0.091770984 0
0.080917217 -2.1394601 -0.088517301 0
0.085429884 -2.2043855 -0.070204295 0
0.085421786 -2.2042689 -0.04137053 0
0.08540567 -2.2040372 -0.012687853 0
0.084925205 -2.1971245 0.016327823 0
0.085761145 -2.2091515 0.044043262 0
0.084669605 -2.1934471 0.072905719 0
0.085352391 -2.2032707 0.10100514 0
