# .PCD v0.7 - Point Cloud Data file format
VERSION 0.7
FIELDS x y z intensity
SIZE 4 4 4 4
TYPE F F F F
COUNT 1 1 1 1
WIDTH 1312
HEIGHT 1
VIEWPOINT 0 0 0 1 0 0 0
POINTS 1312
DATA ascii
0.83877987 0.64732569 0.27269152 0
0.83886182 0.64748567 0.31598067 0
0.84490776 0.6592961 0.36135462 0
0.83727199 0.64438003 0.40270996 0
0.84153897 0.65271538 0.44852135 0
0.39380372 -0.17169151 -0.09183941 0
0.44313654 -0.06901446 -0.091333918 0
0.50639468 0.062645584 -0.090837084 0
0.58946997 0.23555115 -0.090000086 0
0.71008337 0.48658529 -0.090396948 0
0.8925637 0.86638397 -0.091194369 0
1.18423 1.4734325 -0.09003859 0
1.7837117 2.7211411 -0.090671264 0
4.5010071 8.3766823 -0.14062375 0
0.85138774 0.78068393 0.19250096 0
0.84173816 0.76060015 0.23680349 0
0.83787179 0.75255293 0.28145868 0
0.83937049 0.75567216 0.32734051 0
0.83840829 0.75366956 0.37283546 0
0.83423001 0.74497336 0.41730446 0
0.84200943 0.76116461 0.46686649 0
0.37448153 -0.15885702 -0.092581354 0
0.41777849 -0.062592953 -0.090416588 0
0.47439116 0.063276559 -0.088713057 0
0.55627787 0.24533883 -0.089280345 0
0.67381573 0.506666 -0.090737708 0
0.84159482 0.87969667 -0.090314977 0
1.1206294 1.5000865 -0.089853339 0
1.6921433 2.7707586 -0.090968274 0
4.2679901 8.4977541 -0.14089176 0
1.0698487 1.3871832 0.22243105 0
0.85056829 0.89964789 0.24588625 0
0.84070659 0.87772185 0.29217157 0
0.83937913 0.87477046 0.33996964 0
0.84148538 0.87945336 0.38905445 0
0.83865601 0.87316269 0.43672317 0
0.84410077 0.88526839 0.48823634 0
0.35345936 -0.14957967 -0.092608489 0
0.39351258 -0.05416235 -0.090050779 0
0.44825777 0.076255113 -0.088957064 0
0.52582681 0.26104513 -0.089598648 0
0.63630921 0.52424341 -0.090874232 0
0.79565477 0.90384668 -0.090672858 0
1.0623477 1.5391793 -0.090735517 0
1.5921912 2.8014064 -0.090421729 0
4.024879 8.5967121 -0.14074847 0
0.9945848 1.3777504 0.22062913 0
0.85033506 1.0341094 0.25450838 0
0.84169406 1.0135243 0.30384147 0
0.8377521 1.0041335 0.35376748 0
0.83928311 1.0077808 0.4054786 0
0.84130889 1.0126066 0.45792422 0
0.84098417 1.0118332 0.50987327 0
0.32937059 -0.14809957 -0.090977855 0
0.36998066 -0.044076171 -0.090147786 0
0.42127588 0.087317377 -0.088977538 0
0.49232379 0.26930776 -0.088907428 0
0.59652036 0.53620917 -0.090424754 0
0.74725157 0.9223097 -0.090574183 0
1.0016879 1.5740523 -0.091403328 0
1.4994408 2.8490548 -0.090856872 0
3.7802513 8.69139 -0.14065368 0
0.92662072 1.3817668 0.21961334 0
0.85187173 1.1902959 0.26467824 0
0.84194463 1.1648674 0.31695271 0
0.83676779 1.151607 0.36970869 0
0.84165841 1.1641343 0.42598018 0
0.84204513 1.1651249 0.48121321 0
0.83753633 1.1535757 0.53438407 0
0.31251958 -0.12769839 -0.093776844 0
0.34574214 -0.035819795 -0.089996956 0
0.39378351 0.097040921 -0.088883452 0
0.43866152 0.22115329 -0.079918467 0
0.43673185 0.21581665 -0.048799563 0
0.43435857 0.20925334 -0.017991265 0
0.9303956 1.581068 -0.090108536 0
1.4046903 2.8927531 -0.091208972 0
3.5354474 8.7854671 -0.1406983 0
0.85712981 1.378448 0.21832867 0
0.84918505 1.3564763 0.27549645 0
0.84074956 1.3331475 0.33162642 0
0.84146601 1.3351288 0.3899906 0
0.84020621 1.3316448 0.44795465 0
0.8396892 1.330215 0.50648546 0
0.84188789 1.3362956 0.56689972 0
0.28415728 -0.1396862 -0.08939109 0
0.32174248 -0.026923086 -0.090096511 0
0.37417364 0.13038102 -0.093002237 0
0.4061082 0.22619107 -0.079085909 0
0.40387851 0.21950153 -0.047946308 0
0.40236709 0.21496704 -0.017515114 0
0.86783803 1.6114736 -0.090681382 0
1.3039637 2.9199381 -0.090865649 0
3.2907472 8.8806887 -0.14092268 0
0.79235643 1.3850136 0.21762693 0
0.85200417 1.5639687 0.28927594 0
0.84105664 1.5311239 0.3491039 0
0.83920205 1.5255599 0.41093966 0
0.84083045 1.5304453 0.47438776 0
0.8409729 1.5308728 0.53772056 0
0.84120035 1.5315552 0.60161161 0
0.26335412 -0.1304439 -0.089917369 0
0.29724053 -0.019523349 -0.090020247 0
0.33816406 0.11443165 -0.08870443 0
0.37980604 0.25073841 -0.081247844 0
0.38313395 0.26163164 -0.051899571 0
0.38075787 0.25385407 -0.020359432 0
0.7254703 1.3822019 -0.07238356 0
0.72844338 1.3919337 -0.014944604 0
0.72362936 1.3761756 0.043462921 0
0.72578979 1.3832476 0.10104122 0
0.7246322 1.3794584 0.15869918 0
0.72519851 1.3813121 0.21651019 0
0.84290636 1.7666054 0.30258921 0
0.83561867 1.7427506 0.36777955 0
0.8384245 1.751935 0.43612972 0
0.8358804 1.7436073 0.50272697 0
0.83327508 1.7350793 0.56932032 0
0.24094965 -0.12643924 -0.089400642 0
0.2742278 -0.0067845848 -0.091109656 0
0.30962995 0.12050703 -0.088349454 0
0.36527243 0.32057455 -0.090098076 0
0.43820482 0.58280951 -0.089740016 0
0.54939103 0.98258966 -0.090071522 0
0.65989608 1.3799202 -0.070946358 0
0.66070259 1.3828201 -0.013653925 0
0.65869367 1.375597 0.043898739 0
0.66011631 1.3807123 0.10104062 0
0.65993339 1.3800545 0.15829012 0
0.66240042 1.3889251 0.21603097 0
0.81299335 1.9303954 0.31300506 0
0.81269395 1.9293189 0.38390881 0
0.81256187 1.928844 0.45514244 0
0.81344974 1.9320364 0.52727711 0
0.81191593 1.9265215 0.59855437 0
0.22149709 -0.11112383 -0.09149041 0
0.24956112 0.00063309411 -0.091272004 0
0.28340438 0.13540414 -0.089614041 0
0.33138263 0.32646361 -0.089679964 0
0.39759088 0.59011894 -0.089351766 0
0.4989439 0.99372798 -0.089872219 0
0.59550607 1.3782589 -0.06968262 0
0.59903902 1.3923278 -0.013347557 0
0.59760308 1.3866098 0.04401451 0
0.5966326 1.382745 0.10104021 0
0.59805691 1.3884168 0.15810966 0
0.59936327 1.3936191 0.21549091 0
0.76898283 2.0690801 0.32159871 0
0.76836282 2.0666111 0.39524698 0
0.76987547 2.0726347 0.47012135 0
0.7678467 2.0645559 0.54365015 0
0.19700241 -0.11594126 -0.089289702 0
0.22578204 0.01227859 -0.092370115 0
0.25372362 0.13676503 -0.088703267 0
0.29952988 0.3408424 -0.090610571 0
0.3560119 0.59248298 -0.088496514 0
0.44939476 1.0085254 -0.090146251 0
0.55316788 1.4708588 -0.075296514 0
0.55165702 1.4641275 -0.016089527 0
0.54979157 1.4558165 0.042706069 0
0.55186713 1.4650636 0.10104221 0
0.55053902 1.4591465 0.15945743 0
0.55266142 1.4686022 0.21838796 0
0.71348971 2.1851299 0.32860065 0
0.71379119 2.1864731 0.40496016 0
0.71380866 2.1865509 0.481565 0
0.71607077 2.196629 0.56003273 0
0.17611638 -0.10515568 -0.090615354 0
0.20066397 0.018763218 -0.092587344 0
0.22481433 0.14067689 -0.088350303 0
0.26543337 0.3457264 -0.090291731 0
0.31926581 0.61747843 -0.090467297 0
0.39642456 1.0069842 -0.088983543 0
0.41606697 1.1061413 -0.048366744 0
0.4147754 1.0996213 0.0018320254 0
0.41412148 1.0963204 0.051536698 0
0.41551554 1.1033576 0.1010313 0
0.41630706 1.1073532 0.15078771 0
0.41518492 1.1016886 0.20032886 0
0.41561875 1.1038785 0.25026873 0
0.41665605 1.1091151 0.30076569 0
0.41515097 1.1015172 0.35020193 0
0.40730131 1.0618911 0.39495599 0
0.27250999 0.38144997 0.36425057 0
0.15340364 -0.10304931 -0.09017726 0
0.17302428 0.011027489 -0.090207331 0
0.19620292 0.14579096 -0.088321291 0
0.23329298 0.36143711 -0.091641165 0
0.27716097 0.61649114 -0.089458488 0
0.34888804 1.0335209 -0.090612046 0
0.37083608 1.1611295 -0.051571775 0
0.88212985 4.1338539 -0.14103797 0
1.7622932 9.2512312 -0.14062239 0
0.58128375 2.3846982 0.26054764 0
0.58091164 2.3825343 0.34035036 0
0.58163166 2.3867207 0.42091289 0
0.26192927 0.52793199 0.28098622 0
0.27181041 0.58538216 0.32560915 0
0.27260765 0.5900175 0.36443728 0
0.23638287 0.37940207 0.36263272 0
0.13015985 -0.10519639 -0.088950463 0
0.14955533 0.027538691 -0.092584573 0
0.16920233 0.16199508 -0.090254612 0
0.19847479 0.36232451 -0.090995766 0
0.23787802 0.63198489 -0.090525828 0
0.29675534 1.0349183 -0.089976557 0
0.39517942 1.7084944 -0.089633159 0
0.75166154 4.1481194 -0.14073987 0
1.504125 9.2976866 -0.14074636 0
0.50730062 2.4758084 0.26420042 0
0.50445223 2.4563153 0.34460866 0
0.50396514 2.4529815 0.4258858 0
0.21989335 0.50890476 0.27801672 0
0.27531534 0.8881914 0.36773434 0
0.20138618 0.38224891 0.3621268 0
0.10891881 -0.093029469 -0.090917788 0
0.12311251 0.024820719 -0.091419138 0
0.1392228 0.15858427 -0.089048006 0
0.16375256 0.36225465 -0.090341426 0
0.19670337 0.63584512 -0.090337373 0
0.24653113 1.0495644 -0.09071248 0
0.3263998 1.7127135 -0.089290373 0
0.62292469 4.174758 -0.14117751 0
1.2438767 9.3305168 -0.14070372 0
0.42554322 2.5359006 0.26647368 0
0.42407706 2.5237269 0.34854141 0
0.42453593 2.5275371 0.43180868 0
0.42490602 2.5306098 0.51553112 0
0.23003846 0.91262609 0.37029895 0
0.16634102 0.38374665 0.3615343 0
0.08600492 -0.093393177 -0.090319522 0
0.096933022 0.021747265 -0.090315692 0
0.1105677 0.16540483 -0.089658491 0
0.1293107 0.36288455 -0.089911304 0
0.15582485 0.64224273 -0.090569414 0
0.1953091 1.0582561 -0.091007359 0
0.25875103 1.7266924 -0.089755826 0
0.49244347 4.18892 -0.14118282 0
0.98346663 9.3624315 -0.14079341 0
0.34134191 2.5968852 0.26888007 0
0.3403137 2.5860519 0.35224998 0
0.34093177 2.5925639 0.43701178 0
0.34010491 2.5838518 0.52065998 0
0.34112161 2.594564 0.60709947 0
0.17375624 0.83117121 0.40161783 0
0.13094652 0.38011983 0.36014098 0
0.063230537 -0.093589038 -0.089881428 0
0.071651191 0.027561937 -0.091017179 0
0.080854386 0.15997151 -0.088368379 0
0.095507532 0.37079158 -0.090629689 0
0.1141194 0.63856703 -0.089741908 0
0.14238071 1.0451725 -0.089385398 0
0.19147956 1.7515752 -0.091104366 0
0.36167413 4.2002249 -0.14120865 0
0.72163761 9.3791466 -0.14068204 0
0.25338402 2.6422167 0.27065021 0
0.25268146 2.6321084 0.35495955 0
0.13299392 0.9101215 0.27879974 0
0.13367881 0.91997522 0.32476193 0
0.13376212 0.92117375 0.37021634 0
0.1247547 0.79158109 0.39447016 0
0.096078783 0.37901035 0.3593944 0
0.040739812 -0.089394003 -0.090500467 0
0.04611041 0.03214315 -0.09160573 0
0.051707715 0.15881065 -0.08790601 0
0.061014485 0.36942366 -0.090162642 0
0.073818132 0.65917152 -0.091879033 0
0.090475745 1.0361347 -0.088268153 0
0.12207475 1.7512231 -0.090804435 0
0.23032382 4.2009096 -0.14089344 0
0.45954871 9.3882904 -0.14054847 0
0.16296417 2.6765542 0.27200913 0
0.16252595 2.6666374 0.35701373 0
0.086380698 0.9434635 0.28166196 0
0.085648984 0.92690474 0.32525223 0
0.086662263 0.94983536 0.373864 0
0.076816715 0.72702974 0.38342625 0
0.061644658 0.38368455 0.35990554 0
0.018158363 -0.081464678 -0.092033826 0
0.020141169 0.023285899 -0.089783885 0
0.023115369 0.18041137 -0.091306426 0
0.026813576 0.37578562 -0.09090475 0
0.031876747 0.64327043 -0.08986678 0
0.039587326 1.050616 -0.08946947 0
0.053040307 1.7613301 -0.09135849 0
0.099205405 4.2002082 -0.14066826 0
0.19753958 9.3951502 -0.14051577 0
0.071254306 2.7235663 0.27406469 0
0.070767894 2.6978693 0.35899553 0
0.070709758 2.694798 0.44511846 0
0.070729822 2.6958578 0.53195655 0
0.032642793 0.6837402 0.37608293 0
0.026940793 0.3825064 0.35947743 0
-0.0046518366 -0.097278267 -0.088641666 0
-0.0054572546 0.030420575 -0.091097347 0
-0.0062932493 0.16296723 -0.088408791 0
-0.0076128952 0.3721967 -0.090369813 0
-0.009327543 0.64405352 -0.089927934 0
-0.011814713 1.0383937 -0.088298284 0
-0.016327286 1.753861 -0.090805702 0
-0.03174353 4.198102 -0.14053175 0
-0.064607792 9.408721 -0.14079285 0
-0.022463759 2.7267969 0.27418771 0
-0.022456549 2.7256536 0.36089846 0
-0.022425771 2.7207739 0.44748983 0
-0.0224772 2.7289279 0.53575492 0
-0.0093737058 0.65137261 0.37071747 0
-0.0076923994 0.38480201 0.35986879 0
-0.027366487 -0.091046542 -0.09005753 0
-0.030856848 0.019578729 -0.089146025 0
-0.035551757 0.16838148 -0.08938954 0
-0.042237587 0.38028565 -0.091598563 0
-0.050668124 0.64748746 -0.090420656 0
-0.064057842 1.0718677 -0.091514729 0
-0.085862257 1.762948 -0.091532908 0
-0.11882587 2.8077135 -0.075885855 0
-0.11900579 2.8134162 0.012511732 0
-0.11899951 2.8132172 0.10107901 0
-0.11882807 2.8077836 0.18951507 0
-0.11683965 2.7447615 0.27510825 0
-0.11624174 2.7258108 0.36103362 0
-0.11636768 2.7298024 0.44849899 0
-0.11632174 2.7283466 0.53589463 0
-0.050965939 0.65692657 0.37175989 0
-0.042239144 0.380335 0.35915041 0
-0.049800262 -0.095932871 -0.089230336 0
-0.056536511 0.022589121 -0.089926042 0
-0.064782105 0.1676673 -0.089484356 0
-0.076417483 0.37238756 -0.090701677 0
-0.092399158 0.65357953 -0.091347329 0
-0.11554638 1.0608466 -0.090699114 0
-0.15451218 1.7464361 -0.090591468 0
-0.21379612 2.789516 -0.075234629 0
-0.21444345 2.8009055 0.012704389 0
-0.21419342 2.7965064 0.10107865 0
-0.21405229 2.7940233 0.18929261 0
-0.21133718 2.7462518 0.27537212 0
-0.21096581 2.7397177 0.36229837 0
-0.21125364 2.744782 0.45028806 0
-0.07718236 0.38584533 0.26202637 0
-0.076410234 0.37226 0.2927039 0
-0.076796845 0.37906232 0.32630464 0
-0.077258438 0.38718382 0.36073095 0
-0.073234126 -0.08643052 -0.091590874 0
-0.082333639 0.02427939 -0.09058059 0
-0.092812464 0.15177086 -0.087197267 0
-0.11208904 0.38630059 -0.092999987 0
-0.13331181 0.64450926 -0.090621285 0
-0.16758732 1.0615249 -0.091099091 0
-0.22394265 1.7471764 -0.090979673 0
-0.42409113 4.1822982 -0.14060307 0
-0.8512184 9.3789749 -0.14090933 0
-0.30641681 2.7506044 0.27588183 0
-0.30550575 2.7395196 0.3627432 0
-0.30459198 2.7284024 0.4493663 0
-0.30410251 2.7224472 0.53645205 0
-0.11318793 0.39967051 0.29690719 0
-0.11385673 0.40780762 0.33144215 0
-0.11125015 0.37609437 0.35909051 0
-0.095231421 -0.095642179 -0.090083249 0
-0.10752843 0.018584166 -0.089961015 0
-0.12254524 0.15807465 -0.088690512 0
-0.14540477 0.37041596 -0.091219865 0
-0.17549604 0.64993232 -0.091718189 0
-0.21782272 1.043103 -0.089830212 0
-0.29014164 1.7148702 -0.089168392 0
-0.55430931 4.1687126 -0.1405462 0
-1.1118242 9.3474436 -0.14075199 0
-0.39834425 2.7199595 0.27486458 0
-0.39726239 2.7099099 0.36128724 0
-0.39664009 2.7041297 0.44792157 0
-0.39855966 2.7219603 0.53743899 0
-0.14873233 0.40132561 0.29761106 0
-0.14835039 0.39777771 0.33033624 0
-0.146469 0.38030139 0.36050671 0
-0.11779217 -0.098026007 -0.090153597 0
-0.13301872 0.016239557 -0.09009666 0
-0.15291183 0.16552475 -0.090503044 0
-0.17878811 0.35970977 -0.090286963 0
-0.21514106 0.63251549 -0.090251125 0
-0.27032834 1.0466607 -0.090745993 0
-0.35875604 1.7102544 -0.089421593 0
-0.68545115 4.1618934 -0.14096107 0
-1.3718132 9.312604 -0.14067054 0
-0.49199814 2.7101514 0.27493268 0
-0.48953313 2.6916533 0.36079094 0
-0.24217241 0.83536857 0.27289638 0
-0.24121824 0.82820815 0.31537145 0
-0.18565172 0.41121677 0.29961252 0
-0.18461023 0.40340105 0.33196712 0
-0.18091597 0.37567785 0.36041787 0
-0.14300448 -0.083934695 -0.093892537 0
-0.1585214 0.013637815 -0.090306275 0
-0.18090193 0.1543695 -0.089353971 0
-0.21132882 0.34569791 -0.088999607 0
-0.25720918 0.6341998 -0.091156848 0
-0.32023281 1.0305007 -0.089926876 0
-0.42622259 1.6969788 -0.089185186 0
-0.81614017 4.1488333 -0.14123914 0
-1.6319871 9.2789888 -0.14077182 0
-0.58153296 2.6735911 0.27384976 0
-0.57953656 2.6610377 0.35958177 0
-0.27930698 0.77315372 0.26764774 0
-0.27957836 0.77486008 0.30984706 0
-0.27630502 0.75427705 0.34918424 0
-0.2170862 0.38190106 0.36256355 0
-0.16245443 -0.10594794 -0.089981548 0
-0.1832459 0.006431553 -0.089757942 0
-0.20865004 0.14374283 -0.088405661 0
-0.24789624 0.35587159 -0.091279916 0
-0.29474398 0.60908717 -0.089007743 0
-0.37156862 1.0243299 -0.090171464 0
-0.49651945 1.6996987 -0.090205662 0
-0.94383317 4.1174636 -0.14080749 0
-1.8881918 9.2217941 -0.14047095 0
-0.67042416 2.639667 0.27299362 0
-0.66881514 2.63097 0.35856721 0
-0.66784906 2.6257484 0.44433764 0
-0.66880649 2.6309235 0.53147042 0
-0.28900021 0.57804161 0.36302882 0
-0.2526105 0.38135245 0.36359626 0
-0.18489103 -0.10940114 -0.090188257 0
-0.21005033 0.0097037293 -0.091343664 0
-0.23741655 0.13925603 -0.088601016 0
-0.28017083 0.341656 -0.09020149 0
-0.33699492 0.61066264 -0.09014798 0
-0.42112228 1.0089239 -0.089659609 0
-0.56253588 1.6783798 -0.089640431 0
-0.62004691 1.9506385 -0.038917322 0
-0.61701059 1.9362643 0.03144889 0
-0.61955839 1.9483259 0.10105611 0
-0.75352979 2.58255 0.27113461 0
-0.75280911 2.5791383 0.35615158 0
-0.75105619 2.5708396 0.44081685 0
-0.75261527 2.5782206 0.52732921 0
-0.28677031 0.37289813 0.36328435 0
-0.20627111 -0.11757281 -0.089488663 0
-0.23497701 0.003170464 -0.091171198 0
-0.2673718 0.13943008 -0.089707203 0
-0.31286058 0.33076587 -0.089714281 0
-0.3747234 0.59097451 -0.088868402 0
-0.4708468 0.99529058 -0.089434393 0
-0.52441627 1.2206156 -0.057829116 0
-0.61943114 1.6202688 -0.023902966 0
-0.61862963 1.6168976 0.038686387 0
-0.61654711 1.6081378 0.10104661 0
-0.83526862 2.5281289 0.26949379 0
-0.83444643 2.5246704 0.35368389 0
-0.8314414 2.5120306 0.43710148 0
-0.83284795 2.5179467 0.52250665 0
-0.8322348 2.5153677 0.60743433 0
-0.23024353 -0.11535338 -0.091187425 0
-0.25562799 -0.019407179 -0.087993793 0
-0.29538009 0.13084474 -0.089459769 0
-0.34854782 0.33180383 -0.09107735 0
-0.41275153 0.57447618 -0.088080652 0
-0.52045041 0.98154801 -0.089317925 0
-0.58171463 1.2131097 -0.05829582 0
-0.64687318 1.4593909 -0.01694948 0
-0.64799178 1.463619 0.041976862 0
-0.64890349 1.4670649 0.10104293 0
-0.91207486 2.4617796 0.26736602 0
-0.90924567 2.4510858 0.34996477 0
-0.9116686 2.4602439 0.4342351 0
-0.90685403 2.4420462 0.51600587 0
-0.91047317 2.4557254 0.60198009 0
-0.25541216 -0.11052522 -0.093609847 0
-0.28471708 -0.010082211 -0.091154255 0
-0.32339182 0.12247589 -0.089368187 0
-0.34335142 0.1908876 -0.071800672 0
-0.45690656 0.58009905 -0.09009669 0
-0.57170063 0.97355694 -0.08988113 0
-0.7131992 1.4585447 -0.077291109 0
-0.71556342 1.4666483 -0.01813194 0
-0.71303922 1.4579964 0.041697547 0
-0.71713114 1.4720216 0.10104359 0
-0.98374534 2.3858447 0.26485088 0
-0.98338228 2.3846002 0.34687269 0
-0.98275775 2.3824596 0.42901447 0
-0.9814828 2.3780897 0.51113862 0
-0.98118001 2.3770518 0.59398663 0
-0.27219483 -0.13389477 -0.089901082 0
-0.31131217 -0.011403408 -0.092379905 0
-0.35297155 0.11904815 -0.090249874 0
-0.38025707 0.20448974 -0.075144432 0
-0.39431289 0.24850383 -0.050892565 0
-0.39730549 0.25787488 -0.021232506 0
-0.39622346 0.25448659 0.009692343 0
-0.39806384 0.26024953 0.039904136 0
-0.3981747 0.26059678 0.070464052 0
-0.39491248 0.25038138 0.10100755 0
-0.39631525 0.254774 0.13140923 0
-0.39645222 0.25520292 0.16186477 0
-0.39549345 0.25220063 0.19215547 0
-0.39446107 0.2489678 0.22237541 0
-0.39793825 0.25985625 0.25430205 0
-0.39658943 0.25563255 0.28470626 0
-0.39660689 0.25568727 0.31584144 0
-0.39534843 0.25174645 0.34642828 0
-0.29839292 -0.1275225 -0.092947192 0
-0.33187792 -0.031131294 -0.090079449 0
-0.37999147 0.10737017 -0.089833222 0
-0.42760053 0.24441949 -0.082572468 0
-0.43135467 0.25522628 -0.053007025 0
-0.43140438 0.25536934 -0.022017127 0
-0.43276119 0.25927523 0.00856697 0
-0.42731816 0.2436066 0.040208563 0
-0.4317461 0.25635305 0.070310831 0
-0.43090323 0.25392678 0.10100797 0
-0.43195069 0.25694194 0.13171983 0
-0.4313466 0.25520304 0.16237913 0
-0.43101707 0.25425449 0.19307779 0
-0.43148497 0.25560132 0.22405674 0
-0.43127707 0.25500289 0.25499642 0
-0.43289644 0.25966445 0.28685829 0
-0.4307861 0.25358966 0.31729126 0
-0.43090165 0.25392213 0.34893548 0
-0.31823221 -0.1401616 -0.091854595 0
-0.36129314 -0.02561393 -0.092940919 0
-0.40719038 0.09647873 -0.089669891 0
-0.4763661 0.2804952 -0.089671187 0
-0.48831284 0.31227508 -0.061541487 0
-0.5127337 0.37723771 -0.035296921 0
-0.51543707 0.38442901 -0.0016272867 0
-0.51152766 0.37402955 0.033164944 0
-0.50927222 0.36802962 0.067255847 0
-0.51124334 0.37327316 0.10101195 0
-1.2069219 2.2238691 0.18097827 0
-1.1959299 2.1946287 0.25951883 0
-1.1613835 2.1027308 0.33209059 0
-1.1567742 2.0904696 0.40826684 0
-1.1616538 2.1034498 0.48731706 0
-1.1632951 2.107816 0.56615239 0
-0.33716109 -0.15439662 -0.090499051 0
-0.38582608 -0.034237113 -0.093108363 0
-0.43511692 0.087467819 -0.08995948 0
-0.50654393 0.2638295 -0.089031689 0
-0.51224911 0.27791622 -0.058817912 0
-0.51317173 0.28019431 -0.026873251 0
-0.51197565 0.27724102 0.0054416675 0
-0.51300812 0.27979031 0.037227083 0
-0.51255387 0.27866867 0.06916368 0
-0.51002699 0.2724295 0.10100926 0
-1.2747838 2.1607039 0.25938246 0
-1.1969711 1.968575 0.32425171 0
-1.2036866 1.9851565 0.40069708 0
-1.1942432 1.9618397 0.47327688 0
-1.1972301 1.9692147 0.54973394 0
-0.35752094 -0.16456899 -0.09018033 0
-0.40345547 -0.058895972 -0.090110801 0
-0.46249127 0.076916844 -0.090101905 0
-0.51136392 0.18934909 -0.079641856 0
-0.50929576 0.18459108 -0.048626427 0
-0.51641029 0.20095816 -0.020170232 0
-0.51434731 0.19621244 0.01060106 0
-0.51061863 0.18763438 0.041226357 0
-0.51222867 0.19133833 0.071038969 0
-0.50999475 0.18619922 0.10100699 0
-1.3545413 2.129091 0.25946268 0
-1.2275127 1.8368597 0.31658074 0
-1.227326 1.8364303 0.3887426 0
-1.2216665 1.8234105 0.45959181 0
-1.2278078 1.8375385 0.53432685 0
-1.2274905 1.8368087 0.60760862 0
-0.37895828 -0.17227921 -0.090554826 0
-0.42978853 -0.062972993 -0.091445051 0
-0.49078998 0.068205506 -0.090704001 0
-0.51350927 0.11706153 -0.070499875 0
-0.50862581 0.10656002 -0.040276412 0
-0.51277012 0.11547199 -0.012753135 0
-0.51348752 0.11701468 0.015675554 0
-0.50903505 0.10744002 0.044661753 0
-0.51148355 0.11270538 0.072713576 0
-0.50938308 0.10818842 0.10100495 0
-1.4335057 2.095437 0.25954184 0
-1.2481139 1.6967673 0.30823207 0
-1.2417337 1.6830473 0.37622857 0
-1.2399584 1.6792297 0.44509238 0
-1.2423739 1.6844242 0.51553291 0
-1.2407391 1.6809087 0.58512437 0
-0.3978222 -0.1854094 -0.089775585 0
-0.45202473 -0.076149434 -0.091021828 0
-0.51112819 0.042989645 -0.088415928 0
-0.51707411 0.054975305 -0.062851615 0
-0.51599431 0.052798782 -0.034985472 0
-0.50860864 0.037910853 -0.0060589146 0
-0.51268345 0.04612473 0.020167293 0
-0.51688504 0.054594193 0.046721194 0
-0.51093882 0.042607937 0.07418821 0
-0.51164001 0.044021402 0.10100333 0
-1.2496336 1.5316486 0.29786405 0
-1.2377642 1.5077229 0.36130711 0
-1.2346718 1.5014892 0.42608982 0
-1.2390484 1.5103114 0.49326423 0
-1.2396718 1.5115681 0.55995136 0
-0.42135245 -0.18933561 -0.091311954 0
-0.47535935 -0.087037534 -0.091199063 0
-0.52983773 0.016153488 -0.085890852 0
-0.53156406 0.019423518 -0.059331838 0
-0.53514314 0.026202831 -0.033238236 0
-0.52903897 0.014640484 -0.0049943309 0
-0.53105718 0.018463407 0.021303425 0
-0.53461224 0.025197182 0.047563426 0
-0.53329921 0.022710238 0.074363135 0
-0.53410083 0.024228487 0.10100312 0
-1.2503641 1.38095 0.28850096 0
-1.2387822 1.3590119 0.34898597 0
-1.2382464 1.3579972 0.41134363 0
-1.2404075 1.3620906 0.47480026 0
-1.2432642 1.3675017 0.5391348 0
-1.2428429 1.3667037 0.60292685 0
-0.44003838 -0.20267758 -0.090719394 0
-0.49297178 -0.10826269 -0.089273043 0
-0.56053281 0.012242947 -0.087737821 0
-0.56618631 0.022326861 -0.062016148 0
-0.55512202 0.0025919413 -0.031930406 0
-0.56136602 0.013729129 -0.0063620266 0
-0.55906224 0.0096199848 0.020910623 0
-0.5582965 0.0082542039 0.047729235 0
-0.55547941 0.0032294129 0.074514493 0
-0.55654657 0.005132887 0.10100295 0
-1.2964702 1.3249021 0.16280736 0
-1.2924128 1.3176651 0.22424892 0
-1.2473335 1.2372591 0.27956817 0
-1.2409934 1.2259505 0.33816779 0
-1.2395868 1.2234418 0.39759749 0
-1.2404654 1.2250087 0.4578743 0
-1.2415479 1.2269397 0.51869947 0
-1.2419955 1.2277379 0.57985079 0
-0.45600641 -0.22034612 -0.089163862 0
-0.51487142 -0.12129596 -0.08920949 0
-0.58544761 -0.002539661 -0.087681152 0
-0.58397573 -0.0050162938 -0.059938166 0
-0.58064502 -0.010620799 -0.032084558 0
-0.57946163 -0.01261213 -0.0050771367 0
-0.58740389 0.00075206498 0.020456808 0
-0.58658159 -0.00063153764 0.047429062 0
-0.58381981 -0.0052786735 0.074356332 0
-0.5817048 -0.0088375472 0.10100295 0
-1.3486477 1.281672 0.16254281 0
-1.3509275 1.2855082 0.22431459 0
-1.2492512 1.1144209 0.27219152 0
-1.2425413 1.1031303 0.32830495 0
-1.2408643 1.1003084 0.38520202 0
-1.2406809 1.0999999 0.44266751 0
-1.2350343 1.0904987 0.49873549 0
-1.2443213 1.1061256 0.56022513 0
-0.48370519 -0.2186974 -0.092534669 0
-0.53926992 -0.13035467 -0.090151362 0
-0.61301851 -0.013101246 -0.088564284 0
-0.61299086 -0.013145234 -0.06109089 0
-0.6100502 -0.017820623 -0.033159632 0
-0.61053979 -0.017042186 -0.0062377956 0
-0.60585308 -0.024493661 0.021289723 0
-0.61096197 -0.016370978 0.047462068 0
-0.60953605 -0.018638041 0.074309401 0
-0.60910094 -0.019329872 0.10100311 0
-1.2505195 1.0004656 0.26543516 0
-1.2388455 0.98190516 0.31846476 0
-1.2404191 0.98440725 0.37361187 0
-1.2424536 0.98764175 0.42931968 0
-1.2366035 0.97834069 0.4831371 0
-1.2439605 0.9900375 0.54152822 0
-0.50178331 -0.2329925 -0.092069902 0
-0.56461787 -0.13847026 -0.091460593 0
-0.63945442 -0.025893357 -0.089158364 0
-0.63111234 -0.038442459 -0.059488494 0
-0.639292 -0.026137736 -0.034199405 0
-0.64388555 -0.01922759 -0.0077568721 0
-0.63582629 -0.031351235 0.020554313 0
-0.63207155 -0.03699955 0.047734819 0
-0.63877207 -0.026919868 0.074101932 0
-0.63745892 -0.028895285 0.10100332 0
-1.2476302 0.88898748 0.25877538 0
-1.2384022 0.87510592 0.31006572 0
-1.2420613 0.88061017 0.36352381 0
-1.2432462 0.88239259 0.41695395 0
-1.2385415 0.87531537 0.46908584 0
-1.2406673 0.87851328 0.5235458 0
-0.51784837 -0.2499896 -0.091012679 0
-0.57997984 -0.16145453 -0.089517839 0
-0.65943009 -0.048240986 -0.087977313 0
-0.66559792 -0.039452042 -0.062105227 0
-0.66778266 -0.036338773 -0.035093237 0
-0.66776067 -0.036370125 -0.0076926406 0
-0.66133165 -0.045531299 0.020367103 0
-0.66372967 -0.042114224 0.047100052 0
-0.66201138 -0.044562664 0.074135877 0
-0.66234303 -0.044090118 0.10100336 0
-1.3028469 0.86860412 0.25977698 0
-1.2587377 0.80574995 0.30578786 0
-1.2340839 0.77061921 0.3523767 0
-1.2400792 0.77916235 0.40471759 0
-1.2464023 0.78817254 0.45798355 0
-1.2399738 0.77901214 0.5079909 0
-0.53968984 -0.25878462 -0.092210837 0
-0.59759063 -0.18055305 -0.088539071 0
-0.69338173 -0.051126804 -0.090855502 0
-0.69392818 -0.050388422 -0.063186489 0
-0.68489271 -0.06259653 -0.033772845 0
-0.68605053 -0.061032202 -0.0068233516 0
-0.69140738 -0.05379435 0.019606249 0
-0.68802691 -0.058361795 0.047052264 0
-0.68927538 -0.056674924 0.073993668 0
-0.69721931 -0.045941737 0.1010039 0
-1.3461028 0.83078474 0.25939998 0
-1.2521496 0.70384175 0.29770607 0
-1.2415849 0.68956739 0.34520051 0
-1.2405757 0.68820387 0.3943834 0
-1.238764 0.68575615 0.44358829 0
-1.243922 0.69272512 0.49523622 0
-0.55260497 -0.27951077 -0.090363719 0
-0.62235802 -0.19007561 -0.089933373 0
-0.71599293 -0.070019931 -0.090631403 0
-0.71632469 -0.069594532 -0.062941588 0
-0.71729702 -0.068347901 -0.035529021 0
-0.71449482 -0.07194075 -0.0076189768 0
-0.71812439 -0.067287058 0.019227276 0
-0.71613228 -0.069841236 0.04668615 0
-0.71832138 -0.067034453 0.073776856 0
-0.71989352 -0.065018743 0.10100386 0
-1.3948442 0.80038148 0.25976947 0
-1.2568996 0.62351352 0.29200032 0
-1.2418623 0.60423309 0.33727458 0
-1.2387633 0.60025972 0.38438365 0
-1.2383721 0.59975809 0.43229061 0
-1.2371135 0.59814435 0.48027024 0
-0.57202762 -0.29164591 -0.090929858 0
-0.64371198 -0.20436814 -0.090345107 0
-0.73589271 -0.0921354 -0.089837454 0
-0.74993885 -0.075033873 -0.06529697 0
-0.7442711 -0.081934541 -0.036259402 0
-0.74262494 -0.083938748 -0.008385485 0
-0.74285042 -0.083664268 0.019040922 0
-0.74423736 -0.081975609 0.046309523 0
-0.74610889 -0.079696983 0.073602967 0
-0.74440533 -0.081771106 0.10100392 0
-1.4414359 0.76688415 0.25997683 0
-1.2555932 0.54061514 0.28587893 0
-1.2406853 0.52246433 0.32972339 0
-1.237406 0.51847166 0.37528646 0
-1.2364447 0.51730126 0.42150789 0
-1.2308969 0.51054674 0.46665221 0
-0.59042132 -0.30519894 -0.091246359 0
-0.66543365 -0.21842894 -0.090956368 0
-0.75061631 -0.11989436 -0.087907933 0
-0.77618873 -0.090313584 -0.066032164 0
-0.77238482 -0.094713718 -0.037234697 0
-0.77621669 -0.090281218 -0.0099533852 0
-0.77197015 -0.095193416 0.01834538 0
-0.77546948 -0.091145605 0.045698978 0
-0.76970237 -0.097816676 0.07357163 0
-0.7780968 -0.088106483 0.10100441 0
-1.4739351 0.71680063 0.25876239 0
-1.248608 0.45615461 0.2794258 0
-1.2376395 0.44346693 0.32242963 0
-1.2475702 0.45495418 0.36937806 0
-1.2460133 0.45315328 0.41445619 0
-1.2354075 0.4408851 0.45716253 0
-0.60491079 -0.32317761 -0.090430506 0
-0.69012332 -0.2294943 -0.092482559 0
-0.78208292 -0.12839314 -0.090294339 0
-0.79889923 -0.10990515 -0.066089757 0
-0.79803771 -0.11085233 -0.037812743 0
-0.80082953 -0.10778299 -0.010255424 0
-0.79429519 -0.1149669 0.018344121 0
-0.80849886 -0.099351257 0.044964511 0
-0.79388475 -0.11541811 0.073504768 0
-0.79890668 -0.10989693 0.10100433 0
-1.2504858 0.38657275 0.27467945 0
-1.2321434 0.36640695 0.31526092 0
-1.2390658 0.37401751 0.36007026 0
-1.2355016 0.37009898 0.40309215 0
-1.2447506 0.38026753 0.44978487 0
-0.61410344 -0.34643307 -0.088148706 0
-0.70005852 -0.25659564 -0.090026356 0
-0.79949605 -0.15266672 -0.089329384 0
-0.82413542 -0.12691447 -0.066761218 0
-0.82118529 -0.12999788 -0.038022045 0
-0.83204925 -0.11864319 -0.011502123 0
-0.82801616 -0.12285849 0.017139325 0
-0.83596957 -0.11454585 0.044609334 0
-0.82782906 -0.123054 0.073096186 0
-0.83223444 -0.11844966 0.1010048 0
-1.250192 0.31838623 0.27000365 0
-1.2412883 0.30908027 0.31108853 0
-1.2374554 0.30507424 0.35282767 0
-1.2415383 0.30934158 0.39646447 0
-1.2396643 0.30738297 0.43908918 0
-0.64417309 -0.34819958 -0.092357643 0
-0.71350533 -0.27930304 -0.088747375 0
-0.81489629 -0.17854932 -0.088065736 0
-0.85617375 -0.13753125 -0.068849899 0
-0.85971332 -0.13401392 -0.040841002 0
-0.86635852 -0.1274105 -0.013161084 0
-0.86166435 -0.13207516 0.015951598 0
-0.86428577 -0.1294702 0.044181947 0
-0.85281074 -0.1408731 0.07298509 0
-0.85241169 -0.14126965 0.10100474 0
-1.2742983 0.27796558 0.14287391 0
-1.2735945 0.27726629 0.18472528 0
-1.2678645 0.27157214 0.22612557 0
-1.2422923 0.24616078 0.26467159 0
-1.2545167 0.25830844 0.30793414 0
-1.2382233 0.24211743 0.34658504 0
-1.2393143 0.2432014 0.38844618 0
-1.245983 0.24982837 0.43218243 0
-0.65619397 -0.36841241 -0.091202818 0
-0.73840249 -0.29074338 -0.090615846 0
-0.84376925 -0.19119486 -0.090027593 0
-0.88866413 -0.14877906 -0.071029283 0
-0.89022356 -0.14730576 -0.042320985 0
-0.88908243 -0.14838383 -0.013322106 0
-0.89079434 -0.14676645 0.015203716 0
-0.88128924 -0.15574673 0.044464722 0
-0.89340436 -0.14430055 0.072362669 0
-0.88389194 -0.15328774 0.10100515 0
-1.285421 0.22606924 0.14221832 0
-1.293451 0.23365584 0.18397538 0
-1.297419 0.23740473 0.22594707 0
-1.245618 0.18846419 0.26114452 0
-1.2519541 0.19445041 0.30252245 0
-1.2441598 0.18708649 0.34180015 0
-1.2409102 0.18401638 0.38186285 0
-1.24253 0.18554679 0.42328659 0
-0.66803449 -0.38843837 -0.090169795 0
-0.75509721 -0.31024513 -0.090439908 0
-0.85976243 -0.21624258 -0.089171655 0
-0.91349834 -0.167981 -0.071767949 0
-0.91677952 -0.16503409 -0.04319999 0
-0.91831702 -0.16365322 -0.01436354 0
-0.91505611 -0.1665819 0.01489477 0
-0.92117983 -0.16108206 0.04326703 0
-0.91981196 -0.16231057 0.072194777 0
-0.91367525 -0.16782209 0.10100549 0
-1.338159 0.21341768 0.14292267 0
-1.3289424 0.20514014 0.18429162 0
-1.3292189 0.20538834 0.2260658 0
-1.2545404 0.13831773 0.25858399 0
-1.2498488 0.13410416 0.29756013 0
-1.2395604 0.12486377 0.33539698 0
-1.2408054 0.12598196 0.37538508 0
-1.23866 0.12405506 0.41490006 0
-0.68001997 -0.40803733 -0.08934211 0
-0.77564538 -0.32641736 -0.091345213 0
-0.88556862 -0.23259357 -0.090592466 0
-0.94819951 -0.17913565 -0.074404515 0
-0.95154566 -0.17627957 -0.04539137 0
-0.95298004 -0.1750553 -0.016096806 0
-0.9517042 -0.17614427 0.013407448 0
-0.9481234 -0.17920062 0.042878941 0
-0.94465888 -0.18215773 0.072064117 0
-0.94873178 -0.17868134 0.10100605 0
-1.4077729 0.21312812 0.14413904 0
-1.4107547 0.21567324 0.18748435 0
-1.4103009 0.21528581 0.23079053 0
-1.2553532 0.083032042 0.25523931 0
-1.2484841 0.077169091 0.29305407 0
-1.2385756 0.068711668 0.33009177 0
-1.2379475 0.068175584 0.36877027 0
-1.2455074 0.074628264 0.40973562 0
-0.69447762 -0.42539737 -0.089344524 0
-0.78757149 -0.34991381 -0.090241499 0
-0.9016307 -0.25743094 -0.090011023 0
-0.98053277 -0.19345453 -0.076610811 0
-0.98425955 -0.19043276 -0.04727279 0
-0.97645217 -0.19676325 -0.01648516 0
-0.97349805 -0.19915858 0.013265194 0
-0.9809019 -0.19315526 0.042121284 0
-0.98366082 -0.19091824 0.071497239 0
-0.99116856 -0.1848307 0.10100687 0
-1.2421166 0.018646155 0.25044253 0
-1.2510287 0.025872383 0.28944629 0
-1.2367395 0.014286313 0.32499912 0
-1.2336285 0.011763845 0.36229217 0
-1.2393939 0.016438518 0.40183765 0
-0.7192409 -0.43484262 -0.092230149 0
-0.81187177 -0.36353174 -0.092242725 0
-0.9141115 -0.28482357 -0.088829316 0
-1.0132409 -0.20850983 -0.078905948 0
-1.0127274 -0.20890525 -0.048545007 0
-1.0080274 -0.21252337 -0.017885795 0
-1.0160707 -0.20633134 0.011240656 0
-1.0005337 -0.21829239 0.042129677 0
-1.0099477 -0.21104518 0.071307786 0
-1.0131547 -0.20857623 0.10100693 0
-1.2470752 -0.02849504 0.24807613 0
-1.2318245 -0.040235665 0.28289148 0
-1.2441577 -0.030741181 0.3218925 0
-1.2522818 -0.024486866 0.3610034 0
-1.2440414 -0.030830648 0.39700297 0
-0.73138613 -0.45437035 -0.091805093 0
-0.82150066 -0.38854989 -0.090866394 0
-0.93214691 -0.30773297 -0.088941716 0
-1.0389071 -0.22975442 -0.080000453 0
-1.0467081 -0.22405651 -0.050660003 0
-1.0462787 -0.22437015 -0.020078911 0
-1.0491614 -0.22226462 0.010058122 0
-1.0450908 -0.22523782 0.040664036 0
-1.0370466 -0.23111334 0.071083643 0
-1.0448947 -0.22538105 0.10100737 0
-1.2423286 -0.081173688 0.2447693 0
-1.2338903 -0.087337106 0.27978006 0
-1.2407511 -0.082325846 0.31715775 0
-1.246048 -0.078457028 0.35485932 0
-1.250469 -0.075227886 0.3929528 0
-0.7413519 -0.47530213 -0.090952493 0
-0.84333223 -0.40469047 -0.092455409 0
-0.95317775 -0.32863286 -0.089767613 0
-1.0871021 -0.23590294 -0.085019462 0
-1.0774237 -0.24260435 -0.052329127 0
-1.0798253 -0.24094144 -0.021734236 0
-1.0884861 -0.23494461 0.0083314497 0
-1.0800524 -0.2407842 0.03975708 0
-1.0759894 -0.24359748 0.070513986 0
-1.0861288 -0.23657683 0.10100815 0
-1.2385045 -0.13107118 0.20645221 0
-1.2444357 -0.12696442 0.24245071 0
-1.2381377 -0.1313251 0.27720344 0
-1.2363378 -0.13257143 0.31255743 0
-1.237177 -0.13199034 0.34856907 0
-1.2339016 -0.13425824 0.38396221 0
-0.74797934 -0.49819827 -0.089400776 0
-0.85824233 -0.42589805 -0.092551984 0
-0.96553308 -0.35554674 -0.08897952 0
-1.1123675 -0.25926635 -0.086129121 0
-1.1127248 -0.25903204 -0.054677714 0
-1.1161181 -0.25680706 -0.023716023 0
-1.113052 -0.25881752 0.0078399125 0
-1.1159875 -0.25689271 0.038788769 0
-1.1220088 -0.2529445 0.069748074 0
-1.1149265 -0.25758842 0.10100849 0
-1.2431574 -0.17350653 0.20506281 0
-1.2392731 -0.17605349 0.23948842 0
-1.2409534 -0.17495164 0.27462542 0
-1.2355052 -0.17852411 0.30884954 0
-1.2430779 -0.17355868 0.34555408 0
-1.239586 -0.17584828 0.38047099 0
-0.76860583 -0.51199573 -0.091520377 0
-0.86913496 -0.44964716 -0.091876261 0
-0.98441744 -0.37814853 -0.089598767 0
-1.1450671 -0.27851292 -0.088549264 0
-1.1382406 -0.28274676 -0.055701617 0
-1.1459322 -0.27797636 -0.024999818 0
-1.1587819 -0.27000698 0.0055650119 0
-1.1521626 -0.27411231 0.037799884 0
-1.145928 -0.27797899 0.069592185 0
-1.1540065 -0.27296868 0.1010092 0
-1.2512136 -0.21268049 0.16965139 0
-1.2535546 -0.21122858 0.2042568 0
-1.240706 -0.21919736 0.23743422 0
-1.2427772 -0.21791276 0.27210364 0
-1.2437662 -0.21729931 0.3068971 0
-1.2295295 -0.22612897 0.33902776 0
-1.2345773 -0.22299835 0.37489784 0
-0.78178549 -0.53075534 -0.091860823 0
-0.87459999 -0.47638509 -0.090157516 0
-0.99819654 -0.40398279 -0.089346014 0
-1.1700068 -0.30333719 -0.089749746 0
-1.1910584 -0.29100522 -0.060490254 0
-1.18994 -0.29166034 -0.027858457 0
-1.1725051 -0.30187359 0.0058936123 0
-1.1844418 -0.29488119 0.037012059 0
-1.1859814 -0.29397926 0.068986669 0
-1.1960641 -0.28807285 0.10101 0
-1.2587022 -0.25137976 0.16901894 0
-1.2317106 -0.26719132 0.20092605 0
-1.2402799 -0.26217148 0.23532771 0
-1.2452826 -0.25924084 0.26985934 0
-1.2434429 -0.26031861 0.30373523 0
-1.2330343 -0.26641592 0.33610123 0
-1.2411032 -0.26168922 0.3721869 0
-0.78630465 -0.55440789 -0.090209298 0
-0.88711905 -0.49871913 -0.090126671 0
-1.0220585 -0.42418 -0.091113247 0
-1.190061 -0.33137724 -0.090250619 0
-1.4145074 -0.20739546 -0.088023208 0
-1.7910008 0.00057551602 -0.090115614 0
-3.0294509 0.68468207 -0.1410583 0
-4.548449 1.5237603 -0.14099149 0
-9.0998077 4.0378828 -0.14076351 0
-1.2607932 -0.2923055 0.13456766 0
-1.2593279 -0.29311493 0.16808218 0
-1.2391936 -0.30423692 0.20009924 0
-1.2412312 -0.30311134 0.23351385 0
-1.2380284 -0.30488053 0.26648262 0
-1.2373953 -0.30523023 0.29987332 0
-1.232958 -0.30768135 0.33273497 0
-1.2471486 -0.29984263 0.36962178 0
-0.8019132 -0.57186961 -0.091380008 0
-0.89429659 -0.52383929 -0.08908277 0
-1.0236419 -0.45659241 -0.088825725 0
-1.195949 -0.36700967 -0.088613994 0
-1.4490834 -0.23540452 -0.090038426 0
-1.816378 -0.044447388 -0.090217911 0
-3.066433 0.60545856 -0.14072031 0
-4.6050868 1.4054077 -0.14071232 0
-9.2235909 3.806577 -0.1407593 0
-1.2505178 -0.33863917 0.13384633 0
-1.2393032 -0.3444697 0.16612847 0
-1.2390043 -0.34462509 0.19875242 0
-1.2378092 -0.34524646 0.23137277 0
-1.2374487 -0.34543386 0.26418242 0
-1.2267486 -0.35099682 0.29551381 0
-1.2456645 -0.34116247 0.33197552 0
-1.2392812 -0.34448114 0.3643415 0
-0.80736291 -0.59461677 -0.090238281 0
-0.90684801 -0.54604256 -0.089311786 0
-1.0425588 -0.47978094 -0.089886971 0
-1.2170154 -0.39460143 -0.089512728 0
-1.4695741 -0.27128813 -0.09028957 0
-1.8459455 -0.087522477 -0.090872996 0
-3.1086369 0.52899426 -0.14094929 0
-4.659852 1.2863843 -0.14049529 0
-9.3379526 3.5704958 -0.1406634 0
-1.244871 -0.38100079 0.10100998 0
-1.2587441 -0.37422714 0.13364422 0
-1.230363 -0.38808438 0.16484129 0
-1.2415648 -0.38261506 0.19771607 0
-1.2413048 -0.38274202 0.23008813 0
-1.2320453 -0.38726303 0.2614167 0
-1.2450898 -0.38089398 0.29592484 0
-1.2329781 -0.38680753 0.32673511 0
-1.2406701 -0.38305184 0.36130437 0
-0.82642061 -0.61085784 -0.092425384 0
-0.91892731 -0.56854707 -0.089557163 0
-1.0616051 -0.50328898 -0.091065861 0
-1.2352262 -0.42387804 -0.090068109 0
-1.4867035 -0.30885717 -0.090222947 0
-1.8696935 -0.1336849 -0.091035523 0
-3.1484132 0.45117679 -0.14113829 0
-4.7245588 1.1720755 -0.14094442 0
-9.4510574 3.333885 -0.14068973 0
-1.2424409 -0.42057815 0.10100943 0
-1.2501236 -0.41706428 0.13303581 0
-1.2409437 -0.42126301 0.16462621 0
-1.2423675 -0.42061177 0.19663057 0
-1.2503711 -0.41695109 0.22948813 0
-1.2400351 -0.42167857 0.26054138 0
-1.2449545 -0.4194285 0.29359207 0
-1.2401899 -0.42160776 0.3253617 0
-1.2470809 -0.41845593 0.35954541 0
-0.83149999 -0.63365096 -0.091453291 0
-0.943892 -0.58563596 -0.092556052 0
-1.075247 -0.52951968 -0.0913729 0
-1.2506913 -0.45456818 -0.09031152 0
-1.5077187 -0.34476349 -0.09077207 0
-1.8923197 -0.1804581 -0.091201358 0
-3.1910288 0.37436357 -0.14169127 0
-4.7809114 1.0535774 -0.14111266 0
-9.5609016 3.0956376 -0.1407852 0
-1.2571963 -0.45178917 0.10100946 0
-1.2366846 -0.46055201 0.13233936 0
-1.2494887 -0.45508197 0.16435292 0
-1.2328882 -0.46217385 0.19484778 0
-1.2418352 -0.45835152 0.22719501 0
-1.2393588 -0.45940956 0.25868461 0
-1.2401367 -0.45907721 0.29071793 0
-1.2392291 -0.45946494 0.32269979 0
-1.2381551 -0.45992377 0.35484716 0
-0.8369149 -0.65607798 -0.090699948 0
-0.94328636 -0.61377585 -0.090429865 0
-1.0768309 -0.56066746 -0.089661814 0
-1.2673714 -0.48489264 -0.090854026 0
-1.5267144 -0.38175634 -0.091176309 0
-1.9035286 -0.2319037 -0.090337895 0
-3.2126079 0.28869501 -0.14080265 0
-4.8256531 0.93017584 -0.14084814 0
-1.255227 -0.48972231 0.069538303 0
-1.2475827 -0.49276233 0.10100876 0
-1.2420007 -0.49498215 0.13214797 0
-1.2355262 -0.49755698 0.16299638 0
-1.2352774 -0.49765593 0.19405583 0
-1.2413601 -0.49523696 0.22584051 0
-1.238878 -0.49622405 0.25699139 0
-1.2426584 -0.49472061 0.28913513 0
-1.2463279 -0.49326134 0.3216604 0
-1.2447598 -0.49388495 0.35355815 0
-0.85112345 -0.67508727 -0.09207467 0
-0.94509661 -0.64043534 -0.088951595 0
-1.0877835 -0.58782053 -0.089746095 0
-1.2755663 -0.51857692 -0.090235732 0
-1.5449082 -0.41925904 -0.09159378 0
-1.9327272 -0.27625349 -0.091401897 0
-3.2425554 0.20673636 -0.1407077 0
-4.8725944 0.8078019 -0.14085051 0
-1.2475342 -0.52891362 0.070031382 0
-1.2361624 -0.53310686 0.10100804 0
-1.2529504 -0.52691638 0.13211998 0
-1.2507139 -0.52774107 0.16315408 0
-1.2313546 -0.53487968 0.19286762 0
-1.233001 -0.53427261 0.2238069 0
-1.2350692 -0.53350997 0.25501546 0
-1.234428 -0.53374642 0.2860913 0
-1.2375927 -0.53257942 0.31800622 0
-1.2423428 -0.53082782 0.35064238 0
-0.85487092 -0.69801694 -0.091196962 0
-0.95482975 -0.66399729 -0.089196779 0
-1.0976363 -0.61539495 -0.089758255 0
-1.2876824 -0.55071533 -0.090331621 0
-1.5470427 -0.46244553 -0.090142451 0
-1.9396465 -0.32882813 -0.09037099 0
-3.2704546 0.12409452 -0.14061576 0
-1.2538242 -0.56223851 0.039263185 0
-1.2521324 -0.5628143 0.070193976 0
-1.2428875 -0.56596071 0.10100791 0
-1.2488571 -0.56392902 0.13174181 0
-1.2330649 -0.56930369 0.16173132 0
-1.2405142 -0.56676847 0.19272619 0
-1.2508844 -0.56323904 0.22447737 0
-1.2447686 -0.56532043 0.25484169 0
-1.2320614 -0.56964523 0.28409126 0
-1.2372625 -0.56787509 0.31601608 0
-1.2411758 -0.56654328 0.34818667 0
-0.85221016 -0.7227456 -0.0890285 0
-0.96933568 -0.68615395 -0.090499677 0
-1.1059797 -0.64346439 -0.089630716 0
-1.2947872 -0.58447832 -0.089808814 0
-1.5611442 -0.50126463 -0.090301804 0
-1.9665753 -0.37460235 -0.091435157 0
-3.2955778 0.040596638 -0.1404746 0
-1.2504625 -0.59832597 0.039933201 0
-1.2541558 -0.59717214 0.070397079 0
-1.2478589 -0.59913939 0.10100775 0
-1.2382365 -0.60214555 0.13123012 0
-1.2314897 -0.60425335 0.1611561 0
-1.2325238 -0.60393023 0.19138803 0
-1.2425756 -0.60078996 0.22265148 0
-1.2393332 -0.60180295 0.25291392 0
-1.2397994 -0.60165727 0.28372926 0
-1.2307779 -0.60447574 0.31313556 0
-1.2412345 -0.60120893 0.3461709 0
-0.87510687 -0.73967206 -0.092662774 0
-0.97479463 -0.71126813 -0.090131365 0
-1.1205862 -0.66972798 -0.090695925 0
-1.3088192 -0.61609513 -0.090427034 0
-1.569437 -0.54183769 -0.089873634 0
-1.9752812 -0.42620119 -0.090835668 0
-1.2491633 -0.63309276 0.010095621 0
-1.2466737 -0.63380212 0.040574837 0
-1.2446545 -0.63437742 0.070856303 0
-1.2409633 -0.63542914 0.10100726 0
-1.241793 -0.63519275 0.13108914 0
-1.2355998 -0.63695741 0.16090347 0
-1.2471592 -0.63366377 0.19177397 0
-1.2342706 -0.63733608 0.22093143 0
-1.2347262 -0.63720632 0.2512131 0
-1.2467718 -0.63377416 0.28337651 0
-1.246641 -0.63381141 0.31425461 0
-1.243567 -0.6346873 0.34478703 0
-0.87444597 -0.7635783 -0.091196395 0
-0.97590703 -0.73741806 -0.089043699 0
-1.1258714 -0.69875193 -0.0902851 0
-1.3056819 -0.65239042 -0.088665687 0
-1.5955871 -0.57764268 -0.091727562 0
-1.9892399 -0.47614518 -0.09087234 0
-1.2520608 -0.6662159 0.010506535 0
-1.2481537 -0.66722327 0.04091581 0
-1.2431087 -0.66852403 0.071098909 0
-1.2414963 -0.66893977 0.10100703 0
-1.2468323 -0.66756397 0.1310049 0
-1.2409381 -0.66908371 0.16075146 0
-1.2406433 -0.66915971 0.19068353 0
-1.2415795 -0.66891831 0.2208178 0
-1.2341806 -0.67082602 0.25012198 0
-1.2382466 -0.66977769 0.28089401 0
-1.2349142 -0.67063689 0.31080815 0
-1.2383678 -0.6697464 0.34211165 0
-0.88245749 -0.78513807 -0.09176258 0
-0.99383956 -0.75939858 -0.09134192 0
-1.1294967 -0.72804922 -0.08972057 0
-1.3295394 -0.68182087 -0.090940766 0
-1.5964198 -0.62014687 -0.090642534 0
-2.5127854 -0.40838191 -0.13984849 0
-1.2498418 -0.70023835 0.011222014 0
-1.2349107 -0.70368886 0.041917857 0
-1.2377229 -0.70303899 0.071411118 0
-1.2325779 -0.70422792 0.10100654 0
-1.2447538 -0.70141417 0.1307705 0
-1.2427802 -0.70187026 0.16047201 0
-1.2458606 -0.7011584 0.19050655 0
-1.2512888 -0.69990402 0.22101158 0
-1.2437582 -0.70164424 0.25035429 0
-1.2322303 -0.70430827 0.27891955 0
-1.2432501 -0.70176166 0.3109245 0
-1.2422484 -0.70199317 0.34137928 0
-0.8851676 -0.80793494 -0.091293998 0
-0.99273831 -0.78591955 -0.090075918 0
-1.1450932 -0.75473863 -0.091291629 0
-1.3255155 -0.71781349 -0.089311473 0
-1.6011612 -0.66139996 -0.090157725 0
-1.2376909 -0.73578763 -0.017043551 0
-1.2470466 -0.73387289 0.011913495 0
-1.2275462 -0.73786384 0.042591549 0
-1.2447166 -0.73434973 0.071407184 0
-1.2482218 -0.73363239 0.1010068 0
-1.2390089 -0.73551786 0.13047045 0
-1.2398219 -0.7353515 0.16000505 0
-1.2363856 -0.73605478 0.18933903 0
-1.239807 -0.73535454 0.2192589 0
-1.2369133 -0.73594677 0.2487184 0
-1.2516764 -0.73292536 0.28073466 0
-1.2410899 -0.73509198 0.30941099 0
-1.2357564 -0.73618352 0.33881283 0
-0.8852157 -0.83110875 -0.090377279 0
-0.99865991 -0.81085908 -0.090287648 0
-1.1407592 -0.78549457 -0.089640968 0
-1.3332233 -0.75114 -0.089494251 0
-1.6184273 -0.70023149 -0.091285937 0
-1.2476938 -0.76640689 -0.017422913 0
-1.2361041 -0.76847565 0.013119997 0
-1.2421607 -0.76739454 0.042181931 0
-1.2391833 -0.76792598 0.071680427 0
-1.2331297 -0.76900655 0.10100619 0
-1.2345595 -0.76875132 0.13022286 0
-1.2446868 -0.76694363 0.15995073 0
-1.2407163 -0.76765233 0.1892207 0
-1.2435265 -0.76715076 0.21904139 0
-1.2334985 -0.76894075 0.24760032 0
-1.2424057 -0.76735079 0.27854383 0
-1.2373444 -0.76825422 0.30778033 0
-0.885481 -0.8540439 -0.08963681 0
-1.0046967 -0.83585489 -0.090640731 0
-1.1408085 -0.81508803 -0.088854708 0
-1.3325626 -0.78583169 -0.088606484 0
-1.2521895 -0.79809439 -0.047185872 0
-1.2507926 -0.79830754 -0.017222052 0
-1.2437384 -0.79938382 0.012946265 0
-1.2385905 -0.80016923 0.042595085 0
-1.2476525 -0.79878664 0.071603313 0
-1.2424892 -0.79957438 0.10100631 0
-1.2408829 -0.79981947 0.13025002 0
-1.2430389 -0.79949051 0.1596272 0
-1.237763 -0.80029547 0.18864386 0
-1.2364171 -0.80050087 0.21787758 0
-1.2365371 -0.80048251 0.24734861 0
-1.2413874 -0.79974252 0.27765888 0
-1.2411376 -0.79978061 0.30754921 0
-0.89592302 -0.87552565 -0.091203459 0
-1.0047051 -0.86172724 -0.089968078 0
-1.1452105 -0.84390485 -0.088916026 0
-1.3406907 -0.8191092 -0.089090846 0
-1.2444407 -0.83131802 -0.04575165 0
-1.2557601 -0.8298822 -0.017273543 0
-1.2440877 -0.83136278 0.013231391 0
-1.2307885 -0.83304971 0.043166626 0
-1.2515703 -0.83041364 0.071614832 0
-1.2442049 -0.83134794 0.10100623 0
-1.2322007 -0.8328706 0.12994301 0
-1.2342809 -0.83260673 0.15900931 0
-1.2410902 -0.831743 0.18857001 0
-1.2408832 -0.83176929 0.2178867 0
-1.2532247 -0.83020383 0.24880047 0
-1.2361768 -0.83236623 0.27629873 0
-1.2354431 -0.83245933 0.30587858 0
-0.89871085 -0.89817095 -0.091246821 0
-1.0125232 -0.88664383 -0.09089943 0
-1.1468961 -0.87303436 -0.088648804 0
-1.2557007 -0.86201447 -0.076539509 0
-1.2571334 -0.86186934 -0.046821032 0
-1.2367872 -0.86393005 -0.015153741 0
-1.2430302 -0.86329776 0.013557838 0
-1.2371224 -0.86389607 0.04303636 0
-1.2419411 -0.86340803 0.071924217 0
-1.2406024 -0.86354363 0.10100602 0
-1.247345 -0.86286074 0.13021454 0
-1.2267553 -0.86494607 0.15848994 0
-1.2418411 -0.86341816 0.18837108 0
-1.2382603 -0.86378086 0.21730447 0
-1.2341608 -0.86419606 0.24613507 0
-1.2345179 -0.86415988 0.27556047 0
-0.90096021 -0.92088193 -0.091297261 0
-1.0099989 -0.91261148 -0.089994349 0
-1.1259831 -0.90381426 -0.084778599 0
-1.1257925 -0.90382868 -0.057834227 0
-1.2490163 -0.89448237 -0.045539755 0
-1.2359113 -0.89547634 -0.014812542 0
-1.2523268 -0.89423126 0.013101155 0
-1.2439499 -0.89486665 0.042846907 0
-1.2380038 -0.89531761 0.072080858 0
-1.2398574 -0.89517701 0.10100592 0
-1.2453929 -0.89475715 0.13010363 0
-1.2353988 -0.8955152 0.1587656 0
-1.2484944 -0.89452195 0.18864283 0
-1.2407299 -0.89511085 0.21727613 0
-1.2384552 -0.8952834 0.24631463 0
-1.2473958 -0.89460528 0.27698648 0
-0.91121584 -0.94321501 -0.093173765 0
-1.0149965 -0.93797278 -0.090632685 0
-1.1329994 -0.93201208 -0.085637338 0
-1.1281632 -0.9322564 -0.057914887 0
-1.24087 -0.92656326 -0.044353087 0
-1.2345196 -0.926884 -0.014498053 0
-1.2358121 -0.92681873 0.014397131 0
-1.2476842 -0.92621905 0.042765416 0
-1.2389891 -0.92665827 0.07210394 0
-1.2331835 -0.92695153 0.10100567 0
-1.2472922 -0.92623883 0.13010156 0
-1.2319922 -0.92701167 0.15851456 0
-1.2296157 -0.92713171 0.18718062 0
-1.2431636 -0.92644739 0.21731848 0
-1.2426331 -0.92647421 0.24657227 0
-0.90245348 -0.9664883 -0.091125168 0
-1.0129504 -0.96369922 -0.090064146 0
-1.1197248 -0.96100402 -0.083276682 0
-1.1352625 -0.96061182 -0.058761109 0
-1.2449249 -0.95784378 -0.044688333 0
-1.2344459 -0.95810831 -0.01438087 0
-1.2329438 -0.95814621 0.014680417 0
-1.244589 -0.95785224 0.042965159 0
-1.2358439 -0.95807302 0.072204664 0
-1.2457578 -0.95782274 0.101006 0
