# .PCD v0.7 - Point Cloud Data file format
VERSION 0.7
FIELDS x y z intensity
SIZE 4 4 4 4
TYPE F F F F
COUNT 1 1 1 1
WIDTH 1319
HEIGHT 1
VIEWPOINT 0 0 0 1 0 0 0
POINTS 1319
DATA ascii
-1.3417002 1.301186 0.22684667 0
-1.244718 1.2445126 0.35635388 0
-1.2351549 1.2389241 0.49880558 0
-1.2336431 1.2380407 0.64803976 0
-0.93434131 1.0402166 -0.050112456 0
-1.3751569 1.290424 0.08020854 0
-1.3693026 1.2871011 0.22866178 0
-1.2524068 1.2207509 0.35541669 0
-1.2419108 1.2147933 0.49722651 0
-1.2387366 1.2129917 0.64534891 0
-0.93564427 1.0183388 -0.049771775 0
-1.249063 1.1910545 0.35227597 0
-1.2335749 1.1825194 0.4913508 0
-1.2352169 1.1834242 0.639525 0
-0.94275165 0.99983394 -0.049679566 0
-1.2499225 1.1640989 0.35009268 0
-1.2316653 1.1543354 0.48749179 0
-1.2416083 1.1596526 0.63762039 0
-0.96195018 0.9876703 -0.050083645 0
-1.2598568 1.1421891 0.34983647 0
-1.2489012 1.1365067 0.48926285 0
-1.2398229 1.1317979 0.63277614 0
-0.96727121 0.96820652 -0.049936768 0
-1.2697053 1.1202722 0.34962046 0
-1.2406162 1.105646 0.48379913 0
-1.2423803 1.1065329 0.62971067 0
-0.98026204 0.95259064 -0.050105132 0
-1.2868474 1.1019374 0.35092446 0
-1.2368613 1.0775877 0.47976503 0
-1.2340679 1.0762269 0.62275958 0
-0.98188746 0.93147957 -0.049831659 0
-1.2971021 1.0801487 0.35089359 0
-1.2381707 1.0523541 0.47728336 0
-1.2414753 1.0539128 0.62177277 0
-0.99726534 0.91685289 -0.050109908 0
-1.2912537 1.051012 0.34772512 0
-1.2472712 1.030941 0.47709018 0
-1.2402214 1.0277239 0.61772722 0
-1.0072442 0.8996262 -0.05018314 0
-1.2992895 1.0284806 0.34738365 0
-1.2479923 1.0058476 0.47463682 0
-1.2427164 1.0035199 0.61518759 0
-1.0116025 0.87994415 -0.050046291 0
-1.3257722 1.0138601 0.35071629 0
-1.2400284 0.97731149 0.46987575 0
-1.2418802 0.97810084 0.61156738 0
-1.0194212 0.86178684 -0.050053328 0
-1.3223014 0.98640782 0.34822622 0
-1.2451283 0.95465469 0.46884277 0
-1.2470275 0.95543611 0.61023384 0
-1.0139109 0.83833182 -0.049557187 0
-1.3358136 0.96606439 0.34911099 0
-1.2377222 0.92714119 0.46446073 0
-1.2505003 0.9322117 0.60841012 0
-1.0354612 0.82559341 -0.050109025 0
-1.3449752 0.94392145 0.34920108 0
-1.2509605 0.90797937 0.46583343 0
-1.2454169 0.90586007 0.60365194 0
-1.0395271 0.80600381 -0.049999312 0
-1.3571634 0.92287463 0.34992611 0
-1.2338215 0.87749225 0.45900738 0
-1.2412175 0.88021356 0.59934705 0
-1.0507246 0.78901541 -0.050169505 0
-1.3660555 0.90055048 0.35006812 0
-1.2509727 0.8598448 0.46159545 0
-1.2462738 0.85818273 0.59844184 0
-1.0509689 0.76817721 -0.049934082 0
-1.3800855 0.87994629 0.35124183 0
-1.2302159 0.82905012 0.45401841 0
-1.2277911 0.82822663 0.58936757 0
-1.0553092 0.74884409 -0.049863286 0
-1.3989938 0.86075419 0.35338533 0
-1.2338157 0.80696911 0.45311195 0
-1.2395191 0.80882627 0.59103304 0
-1.0668751 0.7318126 -0.050072096 0
-1.3904457 0.83268511 0.35037941 0
-1.2355819 0.7844066 0.45179346 0
-1.2468834 0.78792983 0.59125662 0
-1.0762696 0.71397704 -0.050207239 0
-1.3863353 0.80637228 0.34828645 0
-1.2334822 0.76082426 0.44952655 0
-1.2438066 0.76390076 0.58794618 0
-1.0877703 0.69663805 -0.050428424 0
-1.4049025 0.78680724 0.35051522 0
-1.2429248 0.74075264 0.45040813 0
-1.2336361 0.73811162 0.58229893 0
-1.0732584 0.67209077 -0.049694818 0
-1.4135616 0.76423311 0.35093126 0
-1.2382504 0.71676487 0.44762224 0
-1.2365675 0.71630925 0.58129883 0
-1.0959278 0.65764117 -0.050345663 0
-1.4115196 0.73884165 0.34940618 0
-1.2414074 0.69507247 0.44698822 0
-1.2411361 0.69500268 0.5809589 0
-1.08427 0.63434297 -0.049739748 0
-1.4115452 0.7141698 0.34832904 0
-1.2399336 0.67231143 0.44521189 0
-1.2465549 0.67392641 0.58100319 0
-1.0944055 0.61650598 -0.049944825 0
-1.4150921 0.69046044 0.34796438 0
-1.2315154 0.64812529 0.4416976 0
-1.2279716 0.64730805 0.57294315 0
-1.0898427 0.59532249 -0.049620554 0
-1.4390187 0.67122966 0.35141715 0
-1.2558382 0.63140815 0.44682091 0
-1.2401081 0.62798858 0.57547843 0
-1.0904438 0.57542396 -0.049495015 0
-1.4323256 0.64524925 0.34926948 0
-1.2416461 0.60630518 0.44195676 0
-1.2493528 0.60787922 0.57710797 0
-1.1045247 0.55818909 -0.049868856 0
-1.4420047 0.6226998 0.35019329 0
-1.2500619 0.58600914 0.44305891 0
-1.2431824 0.58469409 0.57359809 0
-1.1196766 0.540874 -0.050288573 0
-1.4385114 0.59766912 0.34875408 0
-1.2346877 0.56136131 0.43805978 0
-1.2331835 0.56109333 0.56890106 0
-1.1039201 0.51815051 -0.049596898 0
-1.4509948 0.57547706 0.35029596 0
-1.237923 0.54028386 0.43796363 0
-1.2338616 0.53961307 0.56791443 0
-1.1189644 0.50060719 -0.0500292 0
-1.4373592 0.54908651 0.34712109 0
-1.2403979 0.51909685 0.43773994 0
-1.2420171 0.51934344 0.56953722 0
-1.1231867 0.48124421 -0.050078612 0
-1.4570478 0.52778518 0.35008046 0
-1.2437739 0.49805436 0.43781757 0
-1.2368588 0.49709037 0.56677067 0
-1.1237053 0.46137407 -0.050003443 0
-1.4508263 0.50278366 0.34837374 0
-1.2407755 0.47619376 0.43632394 0
-1.2534022 0.47779214 0.5713802 0
-1.1246809 0.44160619 -0.049953803 0
-0.51393497 0.37209463 0.040008616 0
-0.50098479 0.37062073 0.10697322 0
-0.51312917 0.37200293 0.1776517 0
-1.2415481 0.45490733 0.43587154 0
-1.2404761 0.45478535 0.56619698 0
-1.1364098 0.42295724 -0.050299022 0
-0.51008272 0.35964993 0.039824408 0
-0.49837965 0.35846701 0.10655531 0
-0.51045471 0.35968751 0.17693485 0
-1.2390662 0.43333349 0.43465397 0
-1.2425953 0.43369019 0.56614822 0
-1.136315 0.40301582 -0.050228518 0
-0.4655937 0.34374255 0.038189583 0
-0.50207287 0.3469663 0.1068339 0
-0.52082509 0.34862348 0.17860867 0
-1.2298064 0.41127789 0.43177134 0
-1.2417024 0.41232917 0.56518233 0
-1.1436906 0.3836866 -0.050434541 0
-0.52649695 0.3369675 0.10936215 0
-0.50953341 0.33568344 0.1763882 0
-1.2476406 0.39155519 0.43589485 0
-1.2332531 0.39046612 0.56178594 0
-1.1331086 0.36307648 -0.050006729 0
-0.52297741 0.32461157 0.10889292 0
-0.51059818 0.32383114 0.17643186 0
-1.2330902 0.3693797 0.43179986 0
-1.246111 0.3702006 0.56558692 0
-1.2391341 0.36976072 0.69950825 0
-1.1321737 0.34325171 -0.049933318 0
-0.50159848 0.31146348 0.10651895 0
-0.50733888 0.31175286 0.17572162 0
-1.2416459 0.34877035 0.43368149 0
-1.2451844 0.34894875 0.56487876 0
-1.2386752 0.34862059 0.69882286 0
-0.34814113 0.30372748 0.4695707 0
-1.140554 0.32382765 -0.050201666 0
-0.51271766 0.30009842 0.10765897 0
-0.51364601 0.30013353 0.17676568 0
-1.2450627 0.32777759 0.4343164 0
-1.2490939 0.32792997 0.56587005 0
-1.2333686 0.32733563 0.69623953 0
-0.35102075 0.29398704 0.47102234 0
-1.1391462 0.30396459 -0.050129112 0
-0.40511602 0.28547359 0.35293075 0
-0.40440559 0.28545567 0.42489159 0
-0.38017577 0.28484532 0.48813379 0
-1.1389627 0.28416497 -0.050109208 0
-0.38826174 0.27471 0.41671389 0
-0.38802421 0.27470699 0.49267396 0
-1.1448534 0.26437625 -0.050315063 0
-0.39231598 0.26437426 0.41870984 0
-0.38657099 0.26437426 0.49177355 0
-0.90688473 -0.98929477 -0.092005916 0
-1.0211008 -0.98929507 -0.091538452 0
-1.1230609 -0.9892953 -0.083766319 0
-1.1312586 -0.98929536 -0.058147568 0
-1.131914 -0.98929536 -0.031434003 0
-1.1329745 -0.98929536 -0.0048727598 0
-1.1326445 -0.98929536 0.021719756 0
-1.1242907 -0.98929536 0.048584078 0
-1.125646 -0.98929536 0.074775971 0
-1.1318593 -0.98929536 0.10100274 0
-1.1330698 -0.98929536 0.12740222 0
-1.134927 -0.98929536 0.15391688 0
-1.1174135 -0.9892953 0.17922042 0
-1.1336777 -0.98929536 0.20694456 0
-1.1272771 -0.98929536 0.23289818 0
-1.139833 -0.98929536 0.26135978 0
-1.1214556 -0.9892953 0.28550908 0
-1.1271501 -0.98929536 0.31352043 0
-0.90121084 -1.0120651 -0.090860941 0
-1.011129 -1.0148395 -0.089720987 0
-1.1295935 -1.0178298 -0.084899135 0
-1.136978 -1.0180162 -0.059002284 0
-1.1312299 -1.017871 -0.031396199 0
-1.1330626 -1.0179173 -0.0049147066 0
-1.1250104 -1.017714 0.022228377 0
-1.120105 -1.0175903 0.048762314 0
-1.1260535 -1.0177404 0.074758157 0
-1.1247495 -1.0177075 0.10100254 0
-1.124904 -1.0177114 0.12722024 0
-1.1378593 -1.0180384 0.15407047 0
-1.1248815 -1.0177108 0.17976803 0
-1.1423527 -1.0181519 0.2077888 0
-1.1314485 -1.0178766 0.23342811 0
-1.1332071 -1.017921 0.26047903 0
-1.1334274 -1.0179266 0.28753677 0
-1.129209 -1.0178201 0.31397617 0
-0.90598291 -1.0351053 -0.092060022 0
-1.013725 -1.0405477 -0.090392895 0
-1.1238626 -1.0461111 -0.084133781 0
-1.1292777 -1.0463846 -0.058071706 0
-1.2383533 -1.0518943 -0.044058565 0
-1.2319176 -1.0515692 -0.014254881 0
-1.2309443 -1.0515201 0.014737869 0
-1.2238613 -1.0511622 0.043875899 0
-1.2368984 -1.0518209 0.072152607 0
-1.2327093 -1.0516093 0.10100566 0
-1.2380344 -1.0518782 0.12988551 0
-1.2454501 -1.0522528 0.15914264 0
-1.2442747 -1.0521934 0.18820757 0
-1.2362282 -1.051787 0.21666987 0
-0.90357774 -1.0579013 -0.09185525 0
-0.99951988 -1.0651784 -0.088014938 0
-1.1286436 -1.0749723 -0.085217111 0
-1.131173 -1.0751641 -0.058592547 0
-1.2255273 -1.0823207 -0.042786647 0
-1.2421938 -1.0835849 -0.015400646 0
-1.2526935 -1.0843812 0.01307545 0
-1.231366 -1.0827636 0.043434426 0
-1.239686 -1.0833946 0.072041638 0
-1.2381991 -1.0832819 0.10100587 0
-1.2358493 -1.0831037 0.12988056 0
-1.2386024 -1.0833125 0.15891536 0
-1.2379897 -1.083266 0.18790574 0
-1.2338787 -1.0829542 0.21663441 0
-0.89498043 -1.0800359 -0.090449817 0
-1.0157301 -1.0922656 -0.091506548 0
-1.1555704 -1.1064289 -0.090081714 0
-1.2333394 -1.1143055 -0.073380895 0
-1.233276 -1.1142991 -0.044018481 0
-1.2337308 -1.1143451 -0.014866991 0
-1.2377721 -1.1147544 0.013927305 0
-1.2483447 -1.1158252 0.04251124 0
-1.2335963 -1.1143315 0.072119236 0
-1.2474402 -1.1157336 0.10100622 0
-1.2384411 -1.1148221 0.13000596 0
-1.2321287 -1.1141828 0.15874168 0
-1.2399615 -1.1149762 0.18823889 0
-1.9901737 -1.1909587 0.28789091 0
-1.9960999 -1.191559 0.33568531 0
-1.9217891 -1.1840327 0.37268019 0
-1.4815911 -1.1394488 0.38172972 0
-0.90202129 -1.1038326 -0.092510112 0
-1.0125463 -1.1178521 -0.091456808 0
-1.1510193 -1.1354166 -0.089878358 0
-1.2108686 -1.1430082 -0.070700146 0
-1.2407223 -1.146795 -0.045313586 0
-1.2445564 -1.1472813 -0.016219405 0
-1.2485995 -1.1477942 0.012913438 0
-1.2363425 -1.1462395 0.042905986 0
-1.2371734 -1.1463449 0.071952246 0
-1.2410332 -1.1468345 0.10100614 0
-1.2348236 -1.1460468 0.13000464 0
-1.2334677 -1.1458747 0.1589711 0
-1.2429388 -1.1470761 0.18870038 0
-1.5899177 -1.1910886 0.36462471 0
-1.4748561 -1.1764936 0.38125977 0
-0.89797008 -1.1264462 -0.092322223 0
-1.006495 -1.1430042 -0.090983354 0
-1.1447099 -1.1640919 -0.08950334 0
-1.2039298 -1.1731272 -0.070319928 0
-1.6227822 -1.2370324 -0.090999492 0
-2.5671983 -1.381124 -0.14151771 0
-3.4121962 -1.5100472 -0.14040366 0
-5.1354237 -1.7729638 -0.14091998 0
-10.276728 -2.5573838 -0.14075606 0
-1.3539146 -1.1960107 0.29366252 0
-1.3547907 -1.1961443 0.32645115 0
-1.3578409 -1.1966097 0.35994756 0
-0.88995945 -1.1483227 -0.091401555 0
-0.99461585 -1.1670038 -0.08951392 0
-1.1450213 -1.1938509 -0.090352513 0
-1.2045562 -1.2044778 -0.07112626 0
-1.626502 -1.2797945 -0.092244558 0
-2.5566256 -1.4458202 -0.14153016 0
-3.4088099 -1.5979339 -0.14117341 0
-5.1186137 -1.9031314 -0.14113744 0
-10.225413 -2.8146877 -0.14055583 0
-1.3327725 -1.2273642 0.29144958 0
-1.3212907 -1.2253147 0.32180008 0
-1.316787 -1.2245108 0.35317424 0
-0.88438523 -1.1704897 -0.091124244 0
-0.99427956 -1.1929805 -0.090372242 0
-1.1236192 -1.2194512 -0.087689184 0
-1.1857499 -1.2321669 -0.069262423 0
-1.6099143 -1.3189762 -0.091201924 0
-2.5340302 -1.5081053 -0.14055237 0
-3.3936009 -1.6840247 -0.14126141 0
-5.0829601 -2.0297682 -0.1406163 0
-10.197596 -3.0765276 -0.14106596 0
-1.245847 -1.2444663 0.31020927 0
-1.2327745 -1.2417909 0.33823937 0
-0.88545793 -1.19414 -0.092417173 0
-0.99014026 -1.2183312 -0.090626784 0
-1.1253395 -1.2495748 -0.089019321 0
-1.1894989 -1.2644016 -0.070741542 0
-1.5948938 -1.3580852 -0.090459473 0
-2.5113184 -1.5698638 -0.13970795 0
-3.368963 -1.7680588 -0.14082885 0
-5.0583024 -2.158452 -0.14076982 0
-10.128673 -3.3301756 -0.14075541 0
-0.86599666 -1.2128279 -0.089341648 0
-0.9861179 -1.2437993 -0.09102983 0
-1.1223553 -1.2789261 -0.089688323 0
-1.3241729 -1.3309618 -0.091349281 0
-1.5838512 -1.3979161 -0.090311088 0
-1.9840771 -1.5011083 -0.090374671 0
-3.3480957 -1.8528003 -0.14081836 0
-5.0323968 -2.2870722 -0.14102001 0
-10.082632 -3.5892005 -0.14114553 0
-0.87365049 -1.2384977 -0.092340879 0
-0.97785968 -1.2681898 -0.090731643 0
-1.1213151 -1.3090644 -0.090820499 0
-1.3065169 -1.3618336 -0.09009061 0
-1.5773798 -1.4390101 -0.090838887 0
-1.9811805 -1.5540644 -0.09140823 0
-3.3322213 -1.9390141 -0.14132567 0
-4.9865465 -2.4103782 -0.14046317 0
-10.003596 -3.8398781 -0.14089827 0
-0.86858839 -1.2609559 -0.092675827 0
-0.97378421 -1.2938205 -0.091377489 0
-1.1076012 -1.3356268 -0.089909889 0
-1.2908479 -1.3928757 -0.089228831 0
-1.5592954 -1.4767424 -0.090075426 0
-1.9661144 -1.6038383 -0.091390096 0
-3.3081574 -2.0231113 -0.14139596 0
-4.9524894 -2.5368237 -0.14062832 0
-9.916214 -4.0875607 -0.14059927 0
-0.86063534 -1.2825296 -0.092491291 0
-0.96246642 -1.3171865 -0.090716176 0
-1.0973608 -1.363096 -0.089710422 0
-1.2855287 -1.4271363 -0.090011887 0
-1.5586911 -1.5201036 -0.091580518 0
-1.9474201 -1.6524022 -0.091137446 0
-3.2831337 -2.1069944 -0.14155206 0
-4.9279985 -2.6668019 -0.14142163 0
-9.8305368 -4.3353152 -0.1404925 0
-0.84541172 -1.3013912 -0.090780653 0
-0.95293039 -1.341038 -0.090524219 0
-1.0787106 -1.3874185 -0.088156812 0
-1.2665806 -1.4566944 -0.0888898 0
-1.5306175 -1.554056 -0.089813642 0
-1.922958 -1.6987289 -0.090430014 0
-3.2536709 -2.1894197 -0.14153592 0
-4.8740897 -2.786938 -0.14092472 0
-9.7537689 -4.5862856 -0.14075977 0
-0.82554883 -1.3179866 -0.088099934 0
-0.94052619 -1.3637111 -0.089870371 0
-1.0749123 -1.4171543 -0.089322485 0
-1.2638156 -1.492278 -0.090316243 0
-1.5168658 -1.5929117 -0.08993759 0
-1.9061406 -1.7477198 -0.090600275 0
-3.216383 -2.2687809 -0.14108667 0
-4.8339367 -2.9120548 -0.14126317 0
-9.6629915 -4.8324885 -0.14083692 0
-0.83676189 -1.3471817 -0.092669569 0
-0.9320032 -1.3878697 -0.090121008 0
-1.0626048 -1.4436641 -0.089113437 0
-1.2387868 -1.5189308 -0.088492252 0
-1.5115008 -1.635437 -0.091252767 0
-1.8864954 -1.7956384 -0.090610199 0
-3.169806 -2.3438816 -0.14007786 0
-4.7760072 -3.030067 -0.14086437 0
-9.5596828 -5.0737014 -0.14075437 0
-0.81109321 -1.3607163 -0.088842742 0
-0.91657281 -1.4089607 -0.089069508 0
-1.0551004 -1.4723206 -0.089890279 0
-1.2357363 -1.55494 -0.090146936 0
-1.4973584 -1.6746008 -0.09159229 0
-1.8695635 -1.8448403 -0.091022186 0
-3.1453195 -2.4283464 -0.14090045 0
-4.7245083 -3.1506371 -0.14094183 0
-9.4542742 -5.313941 -0.14077199 0
-0.81657922 -1.3884678 -0.092418365 0
-0.91436303 -1.4362113 -0.090886973 0
-1.0412197 -1.4981499 -0.089642055 0
-1.2273555 -1.5890319 -0.091129832 0
-1.476481 -1.7106689 -0.091187872 0
-1.8444797 -1.8903465 -0.090720735 0
-3.1139591 -2.5101776 -0.14136335 0
-4.6578074 -3.2639709 -0.14038937 0
-9.3498278 -5.5548787 -0.14097068 0
-0.79639363 -1.4038454 -0.090057664 0
-0.90355664 -1.4595597 -0.091048561 0
-1.0342692 -1.5275174 -0.090794288 0
-1.2123325 -1.6200929 -0.091209047 0
-1.4559909 -1.7467715 -0.090948321 0
-1.8243923 -1.9383039 -0.091061033 0
-3.068635 -2.5851882 -0.14089383 0
-4.5996118 -3.381146 -0.14042504 0
-9.2420874 -5.7947779 -0.14124399 0
-0.79262376 -1.4276674 -0.091743805 0
-0.88103074 -1.4765024 -0.088816606 0
-1.0160338 -1.5510767 -0.08998204 0
-1.1834702 -1.6435668 -0.089192472 0
-1.4297506 -1.7796094 -0.090058453 0
-1.7977998 -1.9829159 -0.09084063 0
-3.0282476 -2.6626019 -0.14096218 0
-4.5422611 -3.4989269 -0.14066237 0
-9.1110392 -6.0226707 -0.14106183 0
-0.78006321 -1.4468204 -0.091436543 0
-0.87400007 -1.5018482 -0.090026565 0
-0.9970113 -1.5739076 -0.089120261 0
-1.1690444 -1.6746838 -0.089593016 0
-1.4069494 -1.8140475 -0.089732684 0
-1.7815472 -2.0334849 -0.091856413 0
-2.9838626 -2.7377956 -0.14086483 0
-4.4811349 -3.6148911 -0.14085883 0
-8.9806499 -6.2506862 -0.1410486 0
-0.7562058 -1.4588984 -0.088418819 0
-0.86240762 -1.5247653 -0.090385251 0
-0.99152827 -1.6048464 -0.090973966 0
-1.1626287 -1.7109635 -0.091453396 0
-1.3804933 -1.8460841 -0.089017756 0
-1.7539458 -2.0777009 -0.091780864 0
-2.9284811 -2.8061521 -0.14001632 0
-4.4208274 -3.7317111 -0.14126232 0
-8.8358593 -6.4699321 -0.14079741 0
-0.7487641 -1.480901 -0.089600258 0
-0.84181994 -1.5419184 -0.088853158 0
-0.97264081 -1.6276985 -0.090376429 0
-1.1408181 -1.7379736 -0.090910293 0
-1.3615217 -1.8826905 -0.089449026 0
-1.7166835 -2.1155727 -0.090749301 0
-2.8977513 -2.8900068 -0.14135756 0
-4.3398175 -3.8355799 -0.14068291 0
-8.6900826 -6.6880789 -0.14066723 0
-0.73867458 -1.5014288 -0.09026029 0
-0.8412146 -1.572428 -0.091970272 0
-0.95435089 -1.6507641 -0.090002127 0
-1.1183701 -1.7643318 -0.09036424 0
-1.3488472 -1.9239153 -0.090913288 0
-1.6914384 -2.1611271 -0.091171511 0
-2.838038 -2.9550383 -0.14043635 0
-4.2717633 -3.9477568 -0.14097409 0
-8.5489998 -6.9093361 -0.14082192 0
-0.72031057 -1.5161247 -0.088889726 0
-0.82274932 -1.5909468 -0.091157623 0
-0.93960863 -1.6763018 -0.090460353 0
-1.1037428 -1.7961869 -0.09128385 0
-1.3232796 -1.9565383 -0.090688027 0
-1.6612362 -2.2033846 -0.091160305 0
-2.7898309 -3.0277195 -0.14063498 0
-4.1989989 -4.0569873 -0.14116092 0
-8.3998747 -7.1253419 -0.1409073 0
-0.70890397 -1.5357844 -0.089457236 0
-0.79437208 -1.601581 -0.088083066 0
-0.92689317 -1.7036009 -0.091480382 0
-1.0830412 -1.8238099 -0.091285385 0
-1.3055855 -1.9951332 -0.091739975 0
-1.6273749 -2.2428591 -0.090842329 0
-2.7428417 -3.1015892 -0.14110529 0
-4.112937 -4.156342 -0.14073062 0
-8.2334557 -7.3284783 -0.1406454 0
-0.70053178 -1.5580963 -0.09100128 0
-0.78801036 -1.6290268 -0.090347923 0
-0.89764947 -1.7179257 -0.089168645 0
-1.060703 -1.850135 -0.09111581 0
-1.2759217 -2.024641 -0.091157742 0
-1.5929205 -2.2816741 -0.090565063 0
-2.6828797 -3.1654484 -0.1405839 0
-4.0225673 -4.2517104 -0.14018206 0
-8.0748882 -7.5374641 -0.14076506 0
-0.68625242 -1.5758671 -0.091083832 0
-0.77087647 -1.6480969 -0.090164281 0
-0.888322 -1.7483412 -0.091187395 0
-1.0369527 -1.8752035 -0.090803109 0
-1.2453996 -2.0531209 -0.090544246 0
-1.5631083 -2.3242977 -0.090970434 0
-2.6316276 -3.2363203 -0.1409983 0
-3.9390731 -4.3522758 -0.14018823 0
-7.9105225 -7.7420621 -0.14086965 0
-0.66854614 -1.5906059 -0.09031596 0
-0.76780468 -1.6797525 -0.093656994 0
-0.86757475 -1.7693585 -0.090897448 0
-1.018615 -1.9050118 -0.091623865 0
-1.2152297 -2.0815966 -0.090083711 0
-1.5330292 -2.3670204 -0.091485105 0
-2.573657 -3.301635 -0.14095718 0
-3.8707898 -4.4666233 -0.14130345 0
-7.7337794 -7.9360733 -0.14074948 0
-0.65537798 -1.6094013 -0.090964191 0
-0.73969126 -1.689059 -0.090949796 0
-0.84704977 -1.7904892 -0.090769328 0
-0.99062222 -1.9261338 -0.090741523 0
-1.1998998 -2.1238551 -0.09211234 0
-1.4964017 -2.4039845 -0.091308184 0
-1.9898657 -2.8701997 -0.090500496 0
-3.7712657 -4.5532327 -0.14062746 0
-7.5713301 -8.1434603 -0.14123845 0
-0.63300955 -1.6192918 -0.089012317 0
-0.72059721 -1.706329 -0.090630509 0
-0.81707007 -1.8021955 -0.088569395 0
-0.96073455 -1.9449571 -0.089565746 0
-1.1558601 -2.1388564 -0.089635707 0
-1.4530852 -2.4342136 -0.090367891 0
-1.9328699 -2.9109828 -0.089622863 0
-3.6852775 -4.6523771 -0.14096442 0
-7.3683982 -8.3123503 -0.14058241 0
-0.62864804 -1.6473532 -0.092620753 0
-0.70817792 -1.7304752 -0.092238493 0
-0.80474305 -1.8314019 -0.090576775 0
-0.94136626 -1.9741961 -0.090592377 0
-1.135029 -2.1766062 -0.091079779 0
-1.4200419 -2.4744923 -0.090891264 0
-1.8942475 -2.9701166 -0.090682589 0
-3.5916743 -4.7442122 -0.14096399 0
-7.1940489 -8.5092974 -0.14101171 0
-0.60389298 -1.6542882 -0.090108983 0
-0.68456537 -1.74298 -0.090926774 0
-0.78481138 -1.8531913 -0.090960778 0
-0.92294681 -2.0050583 -0.091998123 0
-1.1046119 -2.2047825 -0.091062687 0
-1.3819133 -2.5096498 -0.090863086 0
-1.8481946 -3.0222831 -0.091153093 0
-3.4943259 -4.8320527 -0.14086269 0
-7.0018973 -8.6883039 -0.14100742 0
-0.59953594 -1.683929 -0.094208799 0
-0.66518879 -1.7598726 -0.090885855 0
-0.75483441 -1.8635696 -0.088967972 0
-0.8879562 -2.0175574 -0.090049587 0
-1.0711485 -2.2294641 -0.090626024 0
-1.3462555 -2.5476925 -0.091311611 0
-1.7987577 -3.0711219 -0.091414578 0
-3.4000354 -4.9233904 -0.14113167 0
-6.8002529 -8.8565722 -0.14082393 0
-0.57557899 -1.6912626 -0.092119209 0
-0.64613199 -1.777163 -0.091063254 0
-0.73577201 -1.8863024 -0.089806207 0
-0.86902446 -2.0485411 -0.091664933 0
-1.0365174 -2.2524686 -0.090073787 0
-1.301899 -2.5755785 -0.090633996 0
-1.7430881 -3.1127391 -0.091131501 0
-3.2936156 -5.0005507 -0.14068601 0
-6.6071334 -9.0348549 -0.14110033 0
-0.55216324 -1.6985075 -0.090211041 0
-0.62130684 -1.7871614 -0.089611448 0
-0.71703404 -1.9098996 -0.090909623 0
-0.83781737 -2.0647643 -0.09070421 0
-1.0088888 -2.2841065 -0.090942807 0
-1.2574073 -2.6027491 -0.090018786 0
-1.6821635 -3.1473579 -0.090359338 0
-3.1938231 -5.0855594 -0.14087255 0
-6.4008975 -9.1975679 -0.14105742 0
-0.53669184 -1.7157494 -0.091139637 0
-0.59914124 -1.8001267 -0.089030005 0
-0.69852197 -1.9344031 -0.092275582 0
-0.82044733 -2.0991402 -0.093074121 0
-0.97473562 -2.3076038 -0.090714462 0
-1.226794 -2.6481676 -0.091665663 0
-1.6327506 -3.1966681 -0.091014244 0
-3.0920591 -5.1683841 -0.14107648 0
-6.1826348 -9.3441553 -0.14070092 0
-0.51820284 -1.7291002 -0.091143839 0
-0.58130735 -1.8190218 -0.089953117 0
-0.67280966 -1.9494092 -0.091805346 0
-0.78958029 -2.1158028 -0.09243729 0
-0.94293278 -2.3343244 -0.091074593 0
-1.1788989 -2.6705673 -0.090747721 0
-1.5762442 -3.2367697 -0.090978704 0
-2.9862361 -5.245955 -0.14112546 0
-5.9763775 -9.506794 -0.14096452 0
-0.49805769 -1.7399877 -0.090639405 0
-0.56396002 -1.8391248 -0.091236778 0
-0.6470322 -1.9640905 -0.091408022 0
-0.75177997 -2.1216629 -0.090120681 0
-0.90289217 -2.3489816 -0.08984936 0
-1.1385447 -2.7034745 -0.091159411 0
-1.5171071 -3.2729473 -0.090735115 0
-2.8736634 -5.3136187 -0.14077041 0
-5.7530909 -9.6451511 -0.14069241 0
-0.48149866 -1.7563791 -0.091653727 0
-0.54248202 -1.8533369 -0.091287695 0
-0.6199227 -1.9764605 -0.090695538 0
-0.72189486 -2.1385865 -0.089837022 0
-0.87100089 -2.3756511 -0.09044265 0
-1.0911711 -2.7257013 -0.090500154 0
-1.4594265 -3.3111932 -0.090790458 0
-2.7643752 -5.3859391 -0.14083458 0
-5.5372019 -9.7944736 -0.14088188 0
-0.45601544 -1.7582538 -0.089167617 0
-0.52081788 -1.8672948 -0.091401823 0
-0.59306437 -1.9888614 -0.090131454 0
-0.6950475 -2.1604652 -0.090491883 0
-0.82933837 -2.3864319 -0.088977255 0
-1.0408647 -2.7423604 -0.089377008 0
-1.3989693 -3.3449314 -0.090597726 0
-2.654295 -5.4572263 -0.1409924 0
-5.3099847 -9.9258671 -0.14073211 0
-0.43876415 -1.7736343 -0.090165533 0
-0.49622861 -1.8761311 -0.090527408 0
-0.57414842 -2.0151131 -0.092313685 0
-0.65861982 -2.165781 -0.088579051 0
-0.79975355 -2.417515 -0.090394624 0
-1.0037013 -2.7812879 -0.090789415 0
-1.3452566 -3.3905051 -0.091479473 0
-2.5372756 -5.5166559 -0.14066455 0
-5.0854607 -10.061741 -0.14085788 0
-0.41607887 -1.7792602 -0.08891093 0
-0.47387508 -1.8887357 -0.09060026 0
-0.54050016 -2.0149345 -0.089644335 0
-0.63215762 -2.188549 -0.089612059 0
-0.76029456 -2.4312615 -0.089601405 0
-0.95752048 -2.8048403 -0.090659998 0
-1.2805086 -3.4166336 -0.090920277 0
-1.9226903 -4.6330318 -0.090851299 0
-4.8575697 -10.19218 -0.14098909 0
-0.39629656 -1.7901 -0.089045875 0
-0.45338064 -1.9051685 -0.091596492 0
-0.51661879 -2.0326421 -0.09044648 0
-0.60822505 -2.2172997 -0.091676213 0
-0.72517425 -2.4530425 -0.089997016 0
-0.91210246 -2.8298473 -0.090806 0
-1.2172965 -3.4450493 -0.09067487 0
-1.8284744 -4.6770449 -0.090676524 0
-4.6212492 -10.306643 -0.14085434 0
-0.37744981 -1.8030616 -0.089794405 0
-0.42789099 -1.9115312 -0.090597443 0
-0.49150693 -2.048332 -0.090983443 0
-0.570979 -2.2192299 -0.089653738 0
-0.68697 -2.4686589 -0.089708425 0
-0.86739469 -2.8566473 -0.091253586 0
-1.1557114 -3.4766483 -0.09080153 0
-1.7380253 -4.7288656 -0.091027506 0
-4.382236 -10.415019 -0.14071892 0
-0.35768375 -1.8143903 -0.090267144 0
-0.40409276 -1.9211549 -0.090411909 0
-0.46295169 -2.0565608 -0.090291716 0
-0.54272014 -2.2400692 -0.090695716 0
-0.64946544 -2.4856381 -0.089720242 0
-0.82079136 -2.879776 -0.091438167 0
-1.0931866 -3.5064254 -0.09090706 0
-1.6446142 -4.7749925 -0.091202162 0
-4.1441593 -10.525232 -0.14078537 0
-0.3365573 -1.8226973 -0.090157144 0
-0.38073087 -1.931767 -0.090551831 0
-0.43045157 -2.0545332 -0.087916888 0
-0.50873852 -2.2478328 -0.089853279 0
-0.61318302 -2.5057185 -0.09024296 0
-0.77136511 -2.8962886 -0.091073655 0
-1.0275222 -3.5287707 -0.090570651 0
-1.5465846 -4.8103962 -0.090955503 0
-3.9077816 -10.640469 -0.14112869 0
-0.31166235 -1.8209463 -0.087885894 0
-0.3524293 -1.9293919 -0.08819636 0
-0.40437728 -2.0675802 -0.088355981 0
-0.47597623 -2.2580428 -0.089515485 0
-0.57801956 -2.5294914 -0.09133669 0
-0.7238785 -2.917495 -0.091305666 0
-0.96646059 -3.5627952 -0.091234095 0
-1.446759 -4.8404512 -0.090568818 0
-3.6585224 -10.72403 -0.14083093 0
-0.29773587 -1.8491707 -0.092521571 0
-0.33222008 -1.9484383 -0.090275832 0
-0.3816013 -2.090589 -0.090639494 0
-0.44409916 -2.2704978 -0.089638211 0
-0.53591102 -2.5347908 -0.090245597 0
-0.67251927 -2.9280367 -0.090600796 0
-0.89730918 -3.5751257 -0.090400793 0
-1.3490046 -4.8753939 -0.090551101 0
-3.4076829 -10.801583 -0.14054343 0
-0.26986787 -1.8374033 -0.088275172 0
-0.3084237 -1.9581364 -0.090591542 0
-0.3537229 -2.0999856 -0.090655781 0
-0.41270113 -2.2846692 -0.090132393 0
-0.49553505 -2.544054 -0.089780502 0
-0.625036 -2.9495714 -0.091106318 0
-0.82630271 -3.5798151 -0.089142062 0
-1.2521728 -4.9133787 -0.090803318 0
-3.1617815 -10.893099 -0.14075419 0
-0.25257888 -1.8583485 -0.09145958 0
-0.28380954 -1.9653918 -0.090543918 0
-0.32479271 -2.1058621 -0.090190224 0
-0.37948561 -2.2933226 -0.089931585 0
-0.45846146 -2.5640132 -0.090745531 0
-0.5742417 -2.960851 -0.090727977 0
-0.76763201 -3.6236985 -0.090877824 0
-1.1533996 -4.9459209 -0.090908729 0
-2.9100947 -10.967012 -0.14068802 0
-0.22958645 -1.8607478 -0.090641342 0
-0.26062226 -1.9780544 -0.091671608 0
-0.29561448 -2.1103153 -0.089610375 0
-0.3465617 -2.3028815 -0.089986064 0
-0.42159572 -2.5864894 -0.092121981 0
-0.52568078 -2.979902 -0.091226704 0
-0.70091301 -3.6422312 -0.090876289 0
-1.053889 -4.9763827 -0.091033705 0
-2.6599107 -11.046698 -0.1409144 0
-0.20566936 -1.8584808 -0.088935651 0
-0.23683189 -1.9895573 -0.092681669 0
-0.26829445 -2.1218956 -0.090362795 0
-0.31254765 -2.3080342 -0.089524142 0
-0.37947279 -2.589536 -0.091268249 0
-0.4754039 -2.9930434 -0.091273434 0
-0.63241541 -3.6534684 -0.090471901 0
-0.94658864 -4.9749498 -0.089752279 0
-2.405477 -11.111355 -0.14093164 0
-0.18387981 -1.8643965 -0.089148246 0
-0.20660216 -1.9719646 -0.088201217 0
-0.23741028 -2.117811 -0.088596024 0
-0.28016147 -2.3201964 -0.090195127 0
-0.33887592 -2.5981519 -0.091211669 0
-0.42345819 -2.9985669 -0.090714566 0
-0.56644356 -3.6754634 -0.090962209 0
-0.84556383 -4.9968262 -0.08971598 0
-2.147712 -11.16123 -0.14075059 0
-0.16441494 -1.8832335 -0.092272229 0
-0.18523081 -1.9957448 -0.091812961 0
-0.21036959 -2.1316218 -0.089959107 0
-0.24673727 -2.328192 -0.090384625 0
-0.29740825 -2.6020722 -0.090719335 0
-0.37075308 -2.9985068 -0.089753039 0
-0.49806958 -3.6866622 -0.090801351 0
-0.94600773 -6.1078014 -0.14136396 0
-1.8906366 -11.213593 -0.14078338 0
-0.14102319 -1.8821913 -0.091211028 0
-0.15835211 -1.991158 -0.090103246 0
-0.18107359 -2.1340337 -0.089533605 0
-0.21157341 -2.3258207 -0.08921846 0
-0.25569135 -2.60324 -0.090027355 0
-0.31978935 -3.0062969 -0.089663334 0
-0.42854479 -3.6901658 -0.090218835 0
-0.81395233 -6.1136603 -0.14059062 0
-1.631871 -11.256844 -0.14075463 0
-0.1193269 -1.8920759 -0.09262336 0
-0.13282016 -1.9933343 -0.089813538 0
-0.15180229 -2.135783 -0.089122511 0
-0.17767632 -2.329951 -0.089104079 0
-0.21564786 -2.6149035 -0.090699561 0
-0.26865241 -3.0126686 -0.089561678 0
-0.36163521 -3.7104454 -0.09094543 0
-0.68511695 -6.1379695 -0.14084327 0
-1.3733618 -11.30281 -0.14094314 0
-0.09598247 -1.889919 -0.091574751 0
-0.1084635 -2.0058546 -0.091606446 0
-0.12373561 -2.1477168 -0.090518288 0
-0.14472605 -2.342696 -0.090328731 0
-0.17406125 -2.6151893 -0.090151541 0
-0.21789682 -3.0223761 -0.089894839 0
-0.29276589 -3.7178314 -0.090882368 0
-0.55398411 -6.1442757 -0.14040475 0
-1.1133763 -11.340445 -0.14108913 0
-0.07205499 -1.8778081 -0.088531159 0
-0.082819805 -2.008779 -0.091698445 0
-0.093890049 -2.143466 -0.089359276 0
-0.10982744 -2.3373694 -0.089120038 0
-0.13291308 -2.6182427 -0.090052418 0
-0.16678235 -3.0303159 -0.09018185 0
-0.22354008 -3.7208633 -0.090636112 0
-0.4237197 -6.1563635 -0.14039198 0
-0.85154939 -11.361586 -0.14100327 0
-0.050632987 -1.8973033 -0.092349716 0
-0.056913666 -2.0078096 -0.091177933 0
-0.065010771 -2.1502752 -0.090146668 0
-0.075431265 -2.3336201 -0.088259153 0
-0.081008278 -2.4317458 -0.067885958 0
-0.081039466 -2.4322944 -0.033937279 0
-0.081493072 -2.4402754 -0.00063070445 0
-0.081334516 -2.4374857 0.03344145 0
-0.080281027 -2.4189501 0.067676574 0
-0.080692038 -2.4261816 0.10101148 0
-0.027517062 -1.8923105 -0.091072462 0
-0.031245973 -2.0104966 -0.09147013 0
-0.035624187 -2.149262 -0.089767031 0
-0.041016866 -2.3201802 -0.086158551 0
-0.040369175 -2.2996519 -0.052251864 0
-0.040711883 -2.310514 -0.02241425 0
-0.040740628 -2.311425 0.0084948633 0
-0.04099014 -2.3193331 0.039019994 0
-0.040703945 -2.3102622 0.070241973 0
-0.040947296 -2.3179753 0.10100835 0
-0.0046854182 -1.8866308 -0.089773454 0
-0.0055157696 -2.0182827 -0.092844822 0
-0.0063714269 -2.1539469 -0.090445958 0
-0.0066328617 -2.1953974 -0.068532534 0
-0.0066587762 -2.199506 -0.040474091 0
-0.0067454092 -2.2132418 -0.013275733 0
-0.0067289909 -2.2106385 0.015585074 0
-0.006719009 -2.2090559 0.044183593 0
-0.0067287036 -2.210593 0.072574049 0
-0.0067612422 -2.2157521 0.10100541 0
0.017958237 -1.8865474 -0.089786105 0
0.020282822 -2.0093541 -0.091193639 0
0.023075581 -2.156894 -0.090960883 0
0.024027914 -2.2072053 -0.070219256 0
0.023920907 -2.2015522 -0.0407358 0
0.024098042 -2.2109101 -0.013076251 0
0.023919009 -2.2014518 0.016213836 0
0.023882914 -2.1995451 0.044617407 0
0.024144718 -2.213376 0.072504811 0
0.023832956 -2.1969059 0.10100488 0
0.040559061 -1.8851002 -0.089630134 0
0.045979891 -2.0077741 -0.091048859 0
0.051956423 -2.1430235 -0.088831939 0
0.053918798 -2.1874323 -0.067574121 0
0.05421266 -2.1940825 -0.039974812 0
0.054517493 -2.2009809 -0.01223938 0
0.054495465 -2.2004824 0.016214171 0
0.054802708 -2.2074354 0.044204835 0
0.054310679 -2.1963007 0.07287953 0
0.054365631 -2.1975441 0.10100492 0
0.063650824 -1.8910426 -0.091169871 0
0.071315244 -2.0013132 -0.090104602 0
0.081942104 -2.1542056 -0.090946577 0
0.084583268 -2.192205 -0.068488397 0
0.084540635 -2.1915915 -0.039885301 0
0.084872715 -2.1963694 -0.011970414 0
0.084744714 -2.1945276 0.016509796 0
0.084659748 -2.1933053 0.044782758 0
0.08503323 -2.1986787 0.072783783 0
0.08450681 -2.1911049 0.10100479 0
0.086446874 -1.889848 -0.091313757 0
0.096994013 -2.0009747 -0.090437286 0
0.11188207 -2.1578379 -0.091944717 0
0.1161306 -2.2026012 -0.070307843 0
0.11625087 -2.2038686 -0.041619051 0
0.11597863 -2.2010002 -0.012639096 0
0.11496595 -2.1903303 0.016629191 0
0.11567888 -2.1978419 0.044453949 0
0.11560272 -2.1970394 0.072763547 0
0.11550072 -2.1959646 0.101005 0
0.11067866 -1.9001672 -0.094046183 0
0.124061 -2.0112808 -0.092913188 0
0.13888326 -2.1343498 -0.088581331 0
0.14741671 -2.2052028 -0.071142055 0
0.14722791 -2.2036352 -0.04197951 0
0.1458323 -2.1920476 -0.012106491 0
0.14736044 -2.2047358 0.015385391 0
0.14719781 -2.2033854 0.044040255 0
0.14823484 -2.2119958 0.072336555 0
0.14688042 -2.2007501 0.10100523 0
0.13103046 -1.8793464 -0.090230368 0
0.15024419 -2.0108376 -0.093481936 0
0.16892907 -2.1387098 -0.089943998 0
0.17736296 -2.1964281 -0.070475541 0
0.17681807 -2.192699 -0.041169289 0
0.17739347 -2.1966367 -0.012920281 0
0.17685278 -2.1929367 0.015930736 0
0.17740622 -2.1967242 0.044161897 0
0.17830712 -2.2028894 0.07245408 0
0.17717703 -2.1951556 0.10100519 0
0.15430501 -1.880776 -0.091307588 0
0.17176251 -1.9822761 -0.088805281 0
0.19842462 -2.1372929 -0.090475433 0
0.20991281 -2.2040865 -0.072257049 0
0.20769581 -2.1911967 -0.04156271 0
0.20942578 -2.2012548 -0.013815654 0
0.20994857 -2.2042944 0.014783079 0
0.20922482 -2.2000866 0.04377462 0
0.20906276 -2.1991444 0.072427765 0
0.2088078 -2.1976619 0.1010054 0
0.17685194 -1.8771422 -0.091419987 0
0.19769922 -1.9823816 -0.089713641 0
0.22834159 -2.1370676 -0.091333605 0
0.24178842 -2.2049487 -0.073191233 0
0.24384438 -2.2153273 -0.045104761 0
0.24156746 -2.2038331 -0.014598167 0
0.24084483 -2.2001853 0.014672602 0
0.24205968 -2.2063179 0.043211218 0
0.24111353 -2.2015417 0.072237365 0
0.24263795 -2.2092371 0.1010059 0
0.19937122 -1.873197 -0.091588818 0
0.2268187 -1.995482 -0.093261681 0
0.25726202 -2.131114 -0.091358624 0
0.27301112 -2.2012799 -0.073593684 0
0.27243114 -2.1986959 -0.043893386 0
0.27173421 -2.195591 -0.014427392 0
0.27534214 -2.2116652 0.013388837 0
0.27234623 -2.1983178 0.043284222 0
0.27556577 -2.2126615 0.071818821 0
0.27411419 -2.2061944 0.101006 0
0.22073275 -1.8644171 -0.09082333 0
0.24922296 -1.9778712 -0.091010489 0
0.27937862 -2.0979574 -0.08689744 0
0.30553988 -2.202137 -0.074768327 0
0.30616423 -2.2046232 -0.045479376 0
0.30623439 -2.2049029 -0.016017957 0
0.30697632 -2.2078574 0.013136277 0
0.30437565 -2.1975009 0.042976297 0
0.30502459 -2.2000849 0.071944885 0
0.30439472 -2.1975768 0.10100596 0
0.24306245 -1.8597423 -0.091076724 0
0.27492097 -1.9742924 -0.091596909 0
0.30966562 -2.09922 -0.088371329 0
0.33654073 -2.1958518 -0.075028755 0
0.33918107 -2.2053454 -0.046548013 0
0.33568627 -2.1927795 -0.015627107 0
0.33553803 -2.1922464 0.013680654 0
0.33827221 -2.2020776 0.04236665 0
0.33715081 -2.1980455 0.071799666 0
0.33584204 -2.1933396 0.10100608 0
0.26342088 -1.8483593 -0.089965947 0
0.30002236 -1.9681671 -0.091813587 0
0.34267241 -2.1077735 -0.091240443 0
0.3700631 -2.1974316 -0.076561488 0
0.37182167 -2.2031879 -0.047374476 0
0.3721208 -2.2041669 -0.017600132 0
0.36952582 -2.1956728 0.012785146 0
0.37053338 -2.1989708 0.042084813 0
0.37006754 -2.1974461 0.071598671 0
0.36986387 -2.1967793 0.10100644 0
0.28593856 -1.8442427 -0.090588517 0
0.31875461 -1.9426975 -0.088316791 0
0.36824951 -2.091192 -0.089923121 0
0.42895523 -2.2733214 -0.089239962 0
0.52086675 -2.5490744 -0.091186114 0
0.65012193 -2.9368663 -0.090648867 0
0.8684333 -3.5918443 -0.090812989 0
1.3005614 -4.8883152 -0.090364747 0
3.2862868 -10.845892 -0.14059472 0
0.30913812 -1.8415346 -0.09166307 0
0.34542421 -1.9418856 -0.089820854 0
0.39829993 -2.0881162 -0.091066353 0
0.46354574 -2.2685566 -0.090202682 0
0.55685496 -2.5266078 -0.090085901 0
0.70099443 -2.9252324 -0.09118136 0
0.93124646 -3.562006 -0.090283476 0
1.4033695 -4.8676853 -0.091028161 0
3.54075 -10.778716 -0.14106086 0
0.33098125 -1.8346109 -0.091919295 0
0.36926484 -1.932675 -0.08977706 0
0.42449027 -2.0741358 -0.090430222 0
0.49549827 -2.2560239 -0.090134166 0
0.59948021 -2.5223753 -0.091375984 0
0.7479288 -2.9026291 -0.090748005 0
0.99741662 -3.5416963 -0.090582259 0
1.4993522 -4.8274126 -0.090845533 0
3.7821074 -10.674729 -0.14077237 0
0.34523425 -1.8094106 -0.088091396 0
0.39243942 -1.9218658 -0.089528568 0
0.45085374 -2.0610242 -0.090059362 0
0.52613854 -2.2403724 -0.089711852 0
0.6361028 -2.5023363 -0.090811901 0
0.79340768 -2.8770781 -0.090130948 0
1.0664461 -3.5275276 -0.091475777 0
1.5966758 -4.7906747 -0.090961121 0
4.0248737 -10.575284 -0.14074816 0
0.36761218 -1.8044547 -0.089021645 0
0.42117745 -1.9235487 -0.091977306 0
0.48158494 -2.0578554 -0.091595374 0
0.55699271 -2.225513 -0.08952526 0
0.66876858 -2.4740291 -0.089299656 0
0.84390062 -2.8634079 -0.090839677 0
1.1258898 -3.4903667 -0.090749852 0
1.6902838 -4.7452087 -0.090757228 0
4.2725644 -10.486508 -0.14115103 0
0.38866282 -1.7961935 -0.089316137 0
0.43952021 -1.9020436 -0.089761116 0
0.5052073 -2.0387588 -0.090386458 0
0.59007752 -2.2154002 -0.090197213 0
0.70683914 -2.4584177 -0.08952143 0
0.88921297 -2.8379946 -0.090472184 0
1.1910974 -3.4663103 -0.091147162 0
1.7853661 -4.7031689 -0.090849094 0
4.5047302 -10.363016 -0.14082365 0
0.40917528 -1.7866958 -0.089445345 0
0.46539044 -1.8965098 -0.090992965 0
0.53208077 -2.0267866 -0.09058661 0
0.62463099 -2.2075794 -0.091370754 0
0.74781078 -2.4482059 -0.090580411 0
0.93875241 -2.8212025 -0.091123097 0
1.2512991 -3.4317491 -0.090853073 0
1.8799371 -4.6597667 -0.090995632 0
4.7384014 -10.243656 -0.14075203 0
0.42971578 -1.7771555 -0.089690454 0
0.48516813 -1.8790557 -0.089824848 0
0.55914819 -2.015003 -0.090950914 0
0.64805168 -2.1783736 -0.089277603 0
0.78020418 -2.4212193 -0.089558698 0
0.98359817 -2.7949798 -0.090912856 0
1.3146955 -3.40341 -0.091170259 0
1.9711485 -4.6097198 -0.090917714 0
4.9727254 -10.125472 -0.14086564 0
0.45471057 -1.7751851 -0.091923513 0
0.51068324 -1.8721324 -0.091037698 0
0.58581346 -2.0022614 -0.091267549 0
0.67954689 -2.1646123 -0.089755274 0
0.82121646 -2.4099905 -0.090758152 0
1.0282874 -2.7686472 -0.090808831 0
1.3725388 -3.364907 -0.09079989 0
2.6033516 -5.4967327 -0.14133479 0
5.2041817 -10.001493 -0.14098303 0
0.46684459 -1.7511394 -0.088847123 0
0.52599013 -1.8478614 -0.088580556 0
0.6060313 -1.9787542 -0.089643784 0
0.70681238 -2.1435635 -0.089169912 0
0.84918833 -2.3763938 -0.089052714 0
1.0700257 -2.7375333 -0.090302564 0
1.4262705 -3.3201077 -0.090026595 0
2.7140574 -5.4260516 -0.1411391 0
5.4214473 -9.8535004 -0.14060578 0
0.49202091 -1.7485785 -0.091235779 0
0.56077147 -1.8548849 -0.093188606 0
0.63419175 -1.9684118 -0.090669148 0
0.73643577 -2.1265078 -0.089357473 0
0.88872087 -2.3619802 -0.090086751 0
1.1134129 -2.7094126 -0.090236865 0
1.4862766 -3.2859573 -0.090239145 0
2.8129313 -5.3373113 -0.14009269 0
5.6520033 -9.7272568 -0.14097522 0
0.51094508 -1.7358345 -0.091206752 0
0.57242197 -1.82583 -0.089845754 0
0.65923512 -1.9529151 -0.090826727 0
0.76660544 -2.1100936 -0.089783691 0
0.91833317 -2.3322065 -0.089104764 0
1.1582797 -2.6834621 -0.090538137 0
1.5477219 -3.2535634 -0.0907313 0
2.9327629 -5.2811136 -0.14100239 0
5.8661857 -9.5753269 -0.14079031 0
0.52544409 -1.716938 -0.089689158 0
0.58867025 -1.8046575 -0.088339381 0
0.67998272 -1.9313437 -0.089883439 0
0.79308021 -2.0882542 -0.089408658 0
0.96037865 -2.3203628 -0.090794645 0
1.1974055 -2.6492119 -0.090019099 0
1.6105549 -3.2224126 -0.091472067 0
3.0424106 -5.2089586 -0.14118506 0
6.0801711 -9.4235249 -0.14075924 0
0.54130274 -1.7004023 -0.088869266 0
0.61514449 -1.7975831 -0.090234987 0
0.7084049 -1.9203203 -0.091206245 0
0.82455134 -2.0731771 -0.090336747 0
0.99099272 -2.2922256 -0.090279885 0
1.24077 -2.6209495 -0.090306692 0
1.663157 -3.1768403 -0.091098912 0
3.1430941 -5.1245403 -0.14081456 0
6.2940645 -9.2714367 -0.14087547 0
0.56298494 -1.6914304 -0.090200029 0
0.63221455 -1.7779212 -0.089292057 0
0.72789651 -1.8974599 -0.090213679 0
0.85540867 -2.0567648 -0.091185041 0
1.0234802 -2.266742 -0.090266459 0
1.2857904 -2.5944548 -0.090941034 0
1.7173145 -3.1335716 -0.091042154 0
3.2482398 -5.046206 -0.14094938 0
6.4993591 -9.107934 -0.1408134 0
0.58637857 -1.6839771 -0.092131995 0
0.66622132 -1.7787246 -0.093474694 0
0.74627155 -1.8737181 -0.089115091 0
0.88154471 -2.0342433 -0.091070481 0
1.0552275 -2.2403483 -0.090237729 0
1.3232129 -2.5583601 -0.090554528 0
1.7708203 -3.0895247 -0.091036715 0
3.3577895 -4.9727416 -0.14154351 0
6.705893 -8.9458532 -0.14094912 0
0.60034221 -1.6651769 -0.091049917 0
0.67708313 -1.7517147 -0.090963893 0
0.77956033 -1.8672744 -0.09189216 0
0.90972745 -2.0140588 -0.091514848 0
1.0839899 -2.210568 -0.089803092 0
1.3667434 -2.5294185 -0.091168232 0
1.8172493 -3.037437 -0.090404682 0
3.4481831 -4.8765788 -0.1409089 0
6.9038095 -8.7733583 -0.14092456 0
0.61266887 -1.6449772 -0.089636557 0
0.69447863 -1.7326703 -0.09051495 0
0.79178667 -1.8369763 -0.089560412 0
0.93544281 -1.9909635 -0.0915455 0
1.1124979 -2.1807513 -0.089467101 0
1.3961043 -2.4847534 -0.089928098 0
1.8609574 -2.9830365 -0.089647286 0
3.5416102 -4.784554 -0.14066625 0
7.0963421 -8.5949259 -0.14086767 0
0.63627887 -1.6367346 -0.091840275 0
0.71092278 -1.7128047 -0.089952566 0
0.81794536 -1.821872 -0.090739004 0
0.96463287 -1.9713619 -0.092391141 0
1.1488831 -2.1591322 -0.09058135 0
1.4431555 -2.4590268 -0.091229282 0
1.9089652 -2.9337358 -0.089477189 0
3.6414773 -4.699348 -0.14101429 0
7.2944422 -8.4221039 -0.14114855 0
0.64710373 -1.6153556 -0.090269081 0
0.73553622 -1.7010417 -0.091679461 0
0.83922619 -1.8015114 -0.090861224 0
0.98579293 -1.9435264 -0.091743074 0
1.173177 -2.1250908 -0.089790963 0
1.4790223 -2.4214377 -0.09113089 0
1.9590224 -2.8865309 -0.089633353 0
3.7315128 -4.6039748 -0.14085782 0
7.47825 -8.2343531 -0.14110298 0
0.66638207 -1.6022509 -0.091334887 0
0.75232148 -1.6814164 -0.091439001 0
0.8639878 -1.7842809 -0.091874696 0
0.99641722 -1.9062718 -0.089232676 0
1.2102757 -2.1032732 -0.091191612 0
1.5079479 -2.3774822 -0.090275757 0
2.5451031 -3.332886 -0.14084977 0
3.8252649 -4.5121422 -0.14109442 0
7.6491556 -8.0346231 -0.14080223 0
0.67622727 -1.5805314 -0.089806832 0
0.7647894 -1.6580746 -0.090248369 0
0.88237953 -1.7610344 -0.091570638 0
1.0351346 -1.8947837 -0.092202269 0
1.2298255 -2.0652516 -0.089922167 0
1.5295244 -2.3276622 -0.088666759 0
2.6019835 -3.2666876 -0.1407159 0
3.909657 -4.4116621 -0.14089175 0
7.8307528 -7.8449001 -0.14099604 0
0.69134873 -1.5636543 -0.089922659 0
0.78446579 -1.6411237 -0.090994574 0
0.9018355 -1.7387702 -0.091627248 0
1.0469726 -1.8595181 -0.090250008 0
1.2571045 -2.0343387 -0.09000162 0
1.5668653 -2.2920463 -0.089159615 0
2.6638439 -3.2046857 -0.14119127 0
3.9952734 -4.3123779 -0.14092268 0
8.0010042 -7.6449733 -0.14098908 0
0.69894242 -1.5407759 -0.088113479 0
0.79611462 -1.6175543 -0.089902796 0
0.91952074 -1.7150608 -0.091430761 0
1.0648369 -1.829879 -0.089576654 0
1.279188 -1.9992437 -0.089423083 0
1.6058604 -2.2573564 -0.089947589 0
2.723191 -3.1401899 -0.14157425 0
4.0752711 -4.2085052 -0.14076988 0
8.1655617 -7.4403534 -0.14096461 0
0.72526103 -1.5324589 -0.091468222 0
0.81955492 -1.603173 -0.091749005 0
0.93453717 -1.689402 -0.090813838 0
1.0927106 -1.8080213 -0.090806924 0
1.3125412 -1.9728795 -0.090632387 0
1.6265619 -2.208374 -0.088689618 0
2.77057 -3.0663037 -0.14104789 0
4.1657887 -4.1126237 -0.14138617 0
8.3196001 -7.2277031 -0.1407865 0
0.74473089 -1.5182759 -0.093032174 0
0.83509225 -1.5825438 -0.091820441 0
0.9429884 -1.659283 -0.089015655 0
1.1135179 -1.7805691 -0.09089274 0
1.3206111 -1.9278604 -0.088290446 0
1.6770841 -2.1813953 -0.091012634 0
2.8201909 -2.9944096 -0.14088468 0
4.2330532 -3.9992826 -0.14080264 0
8.4782991 -7.0186367 -0.14089909 0
0.75310075 -1.4961474 -0.091817163 0
0.84764028 -1.5598572 -0.091331042 0
0.96935093 -1.6418777 -0.090949558 0
1.1295818 -1.7498565 -0.090291686 0
1.3451829 -1.8951492 -0.08847519 0
1.6921437 -2.1289647 -0.089382283 0
2.8758984 -2.9266925 -0.14139166 0
4.3022799 -3.8879254 -0.14050111 0
8.6223164 -6.79918 -0.1407474 0
0.75694418 -1.4714566 -0.089622341 0
0.85993451 -1.5371449 -0.090921737 0
0.98476267 -1.6167613 -0.090804256 0
1.1557316 -1.7258068 -0.091511704 0
1.3686858 -1.8616309 -0.088624246 0
1.7276931 -2.0906088 -0.090194099 0
2.9202342 -2.8512225 -0.14109056 0
4.3757019 -3.7795327 -0.14059256 0
8.7683744 -6.5812178 -0.14080845 0
0.76804358 -1.4517317 -0.08941748 0
0.87306494 -1.5150454 -0.090829588 0
0.99432164 -1.5881469 -0.089660577 0
1.1688854 -1.6933852 -0.090681128 0
1.4047326 -1.8355693 -0.090599246 0
1.7585443 -2.0488701 -0.090587951 0
2.9649329 -2.7761598 -0.14098033 0
4.4450502 -3.6684711 -0.14061107 0
8.906147 -6.3579102 -0.14079417 0
0.77987909 -1.432465 -0.089518212 0
0.89376485 -1.4972625 -0.092500873 0
1.0116912 -1.5643588 -0.090147696 0
1.1930856 -1.6675665 -0.091781758 0
1.4157653 -1.7942644 -0.089271687 0
1.782437 -2.0028892 -0.090342872 0
3.0158699 -2.704674 -0.14152695 0
4.521884 -3.5615492 -0.14118151 0
9.0494184 -6.1375751 -0.1410791 0
0.79895687 -1.4170368 -0.091482349 0
0.89068985 -1.4662087 -0.089165516 0
1.0358113 -1.5439985 -0.091999821 0
1.2054647 -1.6349381 -0.091087379 0
1.4560468 -1.7692583 -0.091979705 0
1.8115898 -1.9598409 -0.090781964 0
3.0446918 -2.6208234 -0.14045623 0
4.5678468 -3.4372838 -0.14025722 0
9.1673498 -5.9027658 -0.14083946 0
0.80379301 -1.393893 -0.090125047 0
0.9174009 -1.4511485 -0.09232112 0
1.0411233 -1.5135015 -0.09046226 0
1.2214863 -1.6044 -0.091105439 0
1.453827 -1.7214938 -0.089174248 0
1.8366462 -1.9144253 -0.090901621 0
3.0922568 -2.5472217 -0.1410331 0
4.6406021 -3.3275492 -0.14090596 0
9.2952766 -5.673389 -0.14101841 0
0.8178919 -1.3754683 -0.091099836 0
0.93040609 -1.4286562 -0.092663594 0
1.0568773 -1.4884421 -0.090981953 0
1.2312623 -1.5708779 -0.090273 0
1.4883593 -1.6924136 -0.091309942 0
1.8585902 -1.8674303 -0.090817623 0
3.1296675 -2.468298 -0.14096247 0
4.6969786 -3.2092021 -0.1408471 0
9.4078493 -5.4361391 -0.14095017 0
0.82757628 -1.3548224 -0.091146521 0
0.92931825 -1.3998135 -0.090217479 0
1.0645301 -1.4596053 -0.090154432 0
1.2468815 -1.5402426 -0.090478413 0
1.502652 -1.6533464 -0.090929873 0
1.8810452 -1.8206749 -0.09090846 0
3.1717525 -2.3914361 -0.14140311 0
4.7377772 -3.083945 -0.14014888 0
9.5142488 -5.1961389 -0.14087889 0
0.83184612 -1.3319162 -0.090068229 0
0.95069826 -1.3809268 -0.092523299 0
1.0748241 -1.4321122 -0.089935057 0
1.2531501 -1.505648 -0.089378484 0
1.5161703 -1.6141087 -0.090581141 0
1.9019179 -1.7731782 -0.090958409 0
3.1966462 -2.307081 -0.14068666 0
4.8056664 -2.9705873 -0.14098214 0
9.6233807 -4.957252 -0.14103022 0
0.8432709 -1.3120099 -0.090761267 0
0.94348168 -1.3504047 -0.08913561 0
1.0868255 -1.4053254 -0.090141065 0
1.26931 -1.4752425 -0.089909784 0
1.5129895 -1.5686059 -0.088270344 0
1.9234129 -1.7258556 -0.091190495 0
3.2252669 -2.224648 -0.14041631 0
4.8516521 -2.8477814 -0.14085877 0
9.7177095 -4.7121625 -0.14096241 0
0.84639102 -1.28897 -0.089689098 0
0.96534032 -1.3311343 -0.09174294 0
1.091105 -1.3757145 -0.089117207 0
1.2891651 -1.4459215 -0.091102295 0
1.5385759 -1.534331 -0.089690261 0
1.9290674 -1.6727498 -0.089970671 0
3.2618537 -2.1451869 -0.14089428 0
4.8890896 -2.7219985 -0.14046808 0
9.8057947 -4.4648385 -0.1408945 0
0.85511762 -1.268012 -0.090009861 0
0.9691633 -1.3052268 -0.090852357 0
1.1249609 -1.3560659 -0.093344666 0
1.288146 -1.4093156 -0.089309119 0
1.5597095 -1.4979308 -0.090657942 0
1.9611506 -1.628927 -0.091487877 0
3.2965176 -2.064677 -0.14137502 0
4.9448891 -2.6025651 -0.14113592 0
9.8936014 -4.2174034 -0.14097366 0
0.86283714 -1.2466588 -0.090222619 0
0.96690309 -1.2777346 -0.088901736 0
1.1108627 -1.3207233 -0.089400612 0
1.2998022 -1.3771437 -0.08952447 0
1.5616498 -1.4553357 -0.089389794 0
1.9473927 -1.5705249 -0.088636346 0
3.3205547 -1.9805739 -0.14122571 0
4.9751925 -2.4746759 -0.14070705 0
9.9706001 -3.9663868 -0.14094211 0
0.87018245 -1.2251368 -0.090470634 0
0.98989695 -1.2576193 -0.092028938 0
1.1269466 -1.2948052 -0.090775706 0
1.3216673 -1.3476393 -0.091343604 0
1.5656791 -1.4138476 -0.088513933 0
1.9658351 -1.5224229 -0.089061595 0
3.3385985 -1.8948983 -0.14079757 0
5.0232892 -2.3520095 -0.14129569 0
10.040395 -3.7133133 -0.1408904 0
0.87502056 -1.2029264 -0.090287752 0
0.99448359 -1.2321255 -0.091666602 0
1.1266356 -1.2644261 -0.089479543 0
1.3238224 -1.3126224 -0.090408169 0
1.5721141 -1.3733097 -0.088059284 0
1.9837356 -1.4739182 -0.089549206 0
3.3624656 -1.8109069 -0.14094728 0
5.0538979 -2.2243261 -0.14119144 0
10.106159 -3.4591982 -0.14089593 0
0.88400573 -1.1816491 -0.091130354 0
0.99752218 -1.2063771 -0.091132246 0
1.1346151 -1.2362411 -0.089714356 0
1.3270384 -1.2781579 -0.089757957 0
1.6052498 -1.3387626 -0.090923645 0
1.9877236 -1.4220794 -0.088822387 0
3.3761058 -1.7245203 -0.14051658 0
5.0708265 -2.0936928 -0.14058995 0
10.162655 -3.2028806 -0.14083391 0
0.87864435 -1.1574054 -0.088980459 0
1.0066104 -1.1819166 -0.091885559 0
1.1283512 -1.2052355 -0.087683909 0
1.3318417 -1.244213 -0.089462765 0
1.6099819 -1.2974893 -0.090498291 0
2.5516589 -1.4778625 -0.14143957 0
3.3877327 -1.638008 -0.14010023 0
5.103426 -1.96664 -0.14089087 0
10.206102 -2.9440305 -0.14061686 0
0.89435083 -1.1371511 -0.091510795 0
1.0076576 -1.1559041 -0.091218762 0
1.1619697 -1.1814436 -0.092436455 0
1.3454843 -1.2118162 -0.090550251 0
1.6253422 -1.2581342 -0.091457419 0
