# .PCD v0.7 - Point Cloud Data file format
VERSION 0.7
FIELDS x y z intensity
SIZE 4 4 4 4
TYPE F F F F
COUNT 1 1 1 1
WIDTH 1348
HEIGHT 1
VIEWPOINT 0 0 0 1 0 0 0
POINTS 1348
DATA ascii
1.151683 1.3869028 0.34612441 0
0.98661661 1.129245 0.34772137 0
1.2622181 1.5960636 -0.050015356 0
1.2416242 1.5630088 0.060624965 0
1.2367165 1.5551314 0.16943659 0
1.2094182 1.5113157 0.27095947 0
1.1290812 1.3823689 0.34206644 0
0.97948551 1.1422565 0.35011384 0
1.2488453 1.6121181 -0.050253835 0
1.1941859 1.5218734 0.27114388 0
1.1091877 1.3815382 0.33922908 0
0.96785164 1.1481872 0.34976906 0
0.83438706 0.92783225 0.46600741 0
1.2306213 1.6202686 -0.050170112 0
1.1750194 1.5258037 0.26998034 0
1.0881487 1.3782146 0.33574909 0
0.95474982 1.1515765 0.34850252 0
0.83678436 0.95115906 0.47861415 0
1.2090727 1.6224918 -0.049852706 0
1.1606165 1.5377438 0.27053949 0
1.0748268 1.3877012 0.33613703 0
0.94595039 1.1623015 0.35011983 0
0.84718549 0.98956579 0.35187119 0
0.84230715 0.98103368 0.41904926 0
0.83998108 0.97696555 0.49280378 0
1.1947469 1.63727 -0.050061304 0
1.1415932 1.5415285 0.26944998 0
1.0523472 1.3807768 0.33178243 0
0.93380213 1.167251 0.34957042 0
0.85072166 1.0176048 0.36270431 0
0.84018594 0.99862766 0.42619777 0
0.83790702 0.99452281 0.50127161 0
1.1784139 1.6486399 -0.050137613 0
1.1255478 1.5505253 0.26948485 0
1.0326717 1.3781561 0.32878688 0
0.9235509 1.1756378 0.35038182 0
0.84970671 1.0385901 0.37012562 0
0.84000802 1.0205901 0.43579602 0
0.84024769 1.021035 0.51573229 0
1.1529377 1.6426398 -0.049522001 0
1.1100709 1.5606269 0.26978555 0
1.0192674 1.3869005 0.32915434 0
0.91172218 1.1811439 0.350155 0
0.85136509 1.065668 0.38035071 0
0.8378306 1.0397737 0.4437637 0
0.83626574 1.0367798 0.52287322 0
1.1405716 1.6615571 -0.049920473 0
1.0929503 1.5675838 0.26948813 0
0.99653178 1.3773168 0.32432562 0
0.90026617 1.1873517 0.35024714 0
0.8496052 1.0873803 0.38801047 0
0.8409251 1.0702515 0.45803127 0
0.84146261 1.0713121 0.54249305 0
1.1196022 1.6635976 -0.049651463 0
1.0800449 1.5830375 0.27094311 0
0.97672468 1.3726217 0.3209978 0
0.88832498 1.192592 0.35003379 0
0.84915608 1.112823 0.39735401 0
0.83726245 1.0886011 0.46542892 0
0.84111047 1.0964378 0.55573368 0
1.1112578 1.6917552 -0.050426979 0
0.96817648 1.3908457 0.32423529 0
0.87866092 1.2025886 0.35162938 0
0.8427524 1.1270707 0.40151185 0
0.83898968 1.1191573 0.47957066 0
0.84036559 1.1220509 0.5692184 0
1.0940318 1.7019271 -0.05049533 0
0.94502145 1.3780962 0.31878564 0
0.86461741 1.2033614 0.34988248 0
0.84379768 1.1581157 0.4133383 0
0.8401261 1.1501367 0.49385184 0
0.84122276 1.1525201 0.58580142 0
1.0704668 1.6979796 -0.050020065 0
0.92876983 1.3795439 0.31741264 0
0.8518393 1.2066579 0.34912893 0
0.83980554 1.1796145 0.4207665 0
0.84006202 1.1801908 0.50753862 0
0.84010863 1.1802957 0.60053641 0
1.0534286 1.7083709 -0.050116163 0
0.9102726 1.3754321 0.31456009 0
0.84680331 1.2278211 0.3549082 0
0.8366881 1.2042961 0.4296118 0
0.8416881 1.2159247 0.52424532 0
0.83971405 1.2113336 0.61730695 0
1.0357689 1.71745 -0.050169345 0
0.89321023 1.3740487 0.31254056 0
0.84917897 1.2679842 0.36752442 0
0.83887303 1.2431588 0.44478589 0
0.84074265 1.2476624 0.53868896 0
0.83868456 1.2427049 0.63420725 0
1.0157611 1.7207752 -0.05000956 0
0.87703359 1.3743473 0.31105271 0
0.85030133 1.3075919 0.37986746 0
0.84085751 1.2840091 0.46075791 0
0.84058452 1.2833272 0.55518299 0
0.83873802 1.2787163 0.65399516 0
0.99491876 1.721633 -0.049765784 0
0.86585057 1.3871844 0.3130568 0
0.84925544 1.3441821 0.39106953 0
0.84283727 1.327551 0.47783595 0
0.83894461 1.3174641 0.57077867 0
0.84138536 1.3237889 0.67944664 0
0.98112303 1.7409736 -0.050237097 0
0.84962809 1.3870318 0.31155458 0
0.84531432 1.3754206 0.40032461 0
0.84089935 1.3635368 0.49148577 0
0.84133494 1.3647093 0.59330928 0
0.83718914 1.3535501 0.69507158 0
0.96159458 1.7452649 -0.050142359 0
0.83174622 1.3818008 0.30873868 0
0.83968407 1.40402 0.4086234 0
0.83538294 1.3919804 0.50176913 0
0.84097219 1.4076256 0.61342275 0
0.93959355 1.7421536 -0.049777929 0
0.81822002 1.3884151 0.30919087 0
0.83934766 1.4499909 0.42302155 0
0.84154087 1.4563829 0.5277788 0
0.84067905 1.4538711 0.63521302 0
0.92757016 1.768548 -0.050534405 0
1.029424 2.078038 0.35035038 0
0.79754806 1.3734668 0.30389547 0
0.83917904 1.4999654 0.43876395 0
0.84156495 1.5072153 0.54773217 0
0.84113115 1.505897 0.65995991 0
0.90177852 1.7530471 -0.049725309 0
1.0066354 2.085711 0.35040739 0
0.78578556 1.3850536 0.30578911 0
0.84154379 1.5619496 0.45863399 0
0.84091514 1.5599551 0.56843454 0
0.83981138 1.5564533 0.68383485 0
0.88548988 1.7671077 -0.050033692 0
0.98126465 2.0848577 0.3489123 0
0.7721377 1.3910413 0.30622312 0
0.83834571 1.6106982 0.4738194 0
0.8399359 1.6159741 0.59047991 0
0.86849082 1.779497 -0.050286505 0
0.96004868 2.0977035 0.35005346 0
0.7540803 1.3818668 0.30267596 0
0.83893377 1.6767725 0.49496186 0
0.83826953 1.674464 0.61351556 0
0.84313571 1.7620925 -0.049443461 0
0.7410208 1.389608 0.047654621 0
0.74114442 1.390059 0.13144049 0
0.74117327 1.3901643 0.21652657 0
0.73833895 1.3798255 0.30108839 0
0.83688408 1.7392883 0.51480132 0
0.83685368 1.7391776 0.63915271 0
0.82776141 1.7806342 -0.049941182 0
0.72813404 1.3984126 0.047839452 0
0.72536933 1.3878058 0.13076861 0
0.72638279 1.3916938 0.21610402 0
0.72447193 1.3843629 0.30129284 0
0.8287912 1.784585 0.52866459 0
0.82994866 1.7890255 0.65835297 0
0.8111304 1.7955686 -0.050311826 0
0.70927137 1.3836004 0.04716114 0
0.70761752 1.3769115 0.12916423 0
0.70893049 1.3822217 0.21367355 0
0.70922107 1.3833971 0.3000963 0
0.82550645 1.8537124 0.55068684 0
0.82478452 1.8507926 0.68261427 0
0.79193604 1.8007069 -0.050329894 0
0.69489747 1.3858868 0.047120471 0
0.6923424 1.3749642 0.12857677 0
0.69469082 1.3850034 0.21356061 0
0.69578373 1.3896753 0.30085176 0
0.81763399 1.9105605 0.56846291 0
0.771393 1.7998075 -0.050136026 0
0.67906779 1.3814538 0.046840876 0
0.68014228 1.3863226 0.12947652 0
0.68070692 1.3888811 0.21368356 0
0.68122411 1.3912247 0.30041391 0
0.80376774 1.9465075 0.57910252 0
0.75102448 1.7990917 -0.049958795 0
0.66382992 1.3789135 0.046638303 0
0.66357148 1.3776683 0.1281942 0
0.66469115 1.3830639 0.21205296 0
0.66454566 1.3823625 0.29731205 0
0.79131418 1.9932421 0.59343922 0
0.732651 1.8079991 -0.050141335 0
0.65125972 1.3893578 0.046915457 0
0.64997536 1.3827518 0.12844193 0
0.650065 1.3832129 0.21155959 0
0.65108049 1.3884361 0.29815441 0
0.77758908 2.0391409 0.60751081 0
0.71008784 1.7945466 -0.04952056 0
0.63451314 1.3778849 0.046402488 0
0.63679552 1.3904681 0.12899539 0
0.63590312 1.3855484 0.2115019 0
0.63412243 1.3757309 0.29416963 0
0.76264471 2.084305 0.62136042 0
0.69164991 1.8029721 -0.049703468 0
0.62120479 1.3846635 0.046559025 0
0.62106556 1.3838366 0.12800212 0
0.6198383 1.3765491 0.20940401 0
0.62170488 1.3876331 0.29661518 0
0.74544114 2.1223886 0.63285542 0
0.67325032 1.8125043 -0.049934402 0
0.60669786 1.3844665 0.04646929 0
0.60686642 1.3855506 0.12794001 0
0.60691506 1.3858635 0.21068971 0
0.60758251 1.3901564 0.2966747 0
0.72788477 2.1638899 0.64555162 0
0.65557659 1.8283018 -0.050399229 0
0.59177554 1.3809246 0.046265684 0
0.59146321 1.3787349 0.1269715 0
0.59242493 1.3854783 0.21023574 0
0.59104347 1.3757913 0.29242763 0
0.70871437 2.2009072 0.65679258 0
0.63446891 1.8202128 -0.050011385 0
0.57844698 1.3885646 0.046471737 0
0.57880145 1.391296 0.12812547 0
0.57807612 1.3857074 0.20992747 0
0.57746911 1.3810301 0.29328462 0
0.68590939 2.2165611 0.66092914 0
0.61432892 1.8180676 -0.049847316 0
0.56408644 1.3886544 0.046412133 0
0.56294328 1.3788836 0.12659283 0
0.56381726 1.3863535 0.20972818 0
0.56287587 1.3783077 0.29213935 0
0.66724992 2.2703731 0.67793745 0
0.59569263 1.8292594 -0.050171304 0
0.55122852 1.4027729 0.12900625 0
0.55236399 1.4136639 0.2143967 0
0.55218178 1.4119163 0.30036214 0
0.64608377 2.3125958 0.69112545 0
0.57467312 1.8169583 -0.049661107 0
0.55318654 1.5822462 0.14822322 0
0.55249262 1.5746667 0.24329804 0
0.55176526 1.5667213 0.33966035 0
0.62183595 2.3321493 0.69681394 0
0.55584228 1.8278735 -0.049992315 0
0.60275596 2.4227617 0.23868079 0
0.59881079 2.3727355 0.38742116 0
0.59819353 2.3649082 0.54357785 0
0.53653336 1.8351511 -0.050201595 0
0.5733186 2.3907909 0.39033636 0
0.57233113 2.3758759 0.54589146 0
0.51652503 1.8321904 -0.05005338 0
0.54834777 2.4262691 0.39645427 0
0.54726112 2.4059837 0.553177 0
0.49649927 1.8263255 -0.049810477 0
0.52123082 2.4303184 0.3969529 0
0.52172679 2.4424312 0.56215823 0
0.47720566 1.8403569 -0.05028728 0
0.4563731 1.1052601 0.35429767 0
0.45634723 1.1043471 0.42644206 0
0.45713261 1.826441 -0.049774785 0
0.44582665 1.1082399 0.35543489 0
0.44605324 1.1226337 0.43547601 0
0.43746424 1.8272343 -0.04979647 0
0.43513948 1.0890391 0.41861615 0
0.43513772 1.0884765 0.4947359 0
0.41769639 1.83661 -0.050133422 0
0.42475498 1.0890857 0.41865581 0
0.42486033 1.0779283 0.48849934 0
0.39823669 1.821074 -0.049589757 0
0.41388556 1.1109703 0.3566072 0
0.41412851 1.0999457 0.42417255 0
0.41445136 1.0852959 0.49296543 0
0.37811178 1.8357295 -0.050133128 0
0.35225672 2.5821381 0.4242568 0
0.35228318 2.5813746 0.59749609 0
0.40496731 1.060438 0.4783884 0
0.35867843 1.8275626 -0.049870182 0
0.32283813 2.5860541 0.42517948 0
0.32228726 2.5977123 0.60197395 0
0.39545015 1.0493597 0.47205466 0
0.33897024 1.827036 -0.049889047 0
0.29234919 2.605612 0.42899591 0
0.29220358 2.6080439 0.60501671 0
0.38611907 1.0396465 0.46659845 0
0.3199043 1.8174272 -0.049591701 0
0.26056725 2.6355667 0.4347651 0
0.26114407 2.6276135 0.61052227 0
0.30040124 1.8153826 -0.049573675 0
0.3560251 1.1624964 0.038180355 0
0.22977147 2.6444016 0.43679017 0
0.22981845 2.6438501 0.61528027 0
0.27978125 1.8248466 -0.049977262 0
0.19720949 2.6683273 0.44162264 0
0.19669431 2.6735899 0.6236068 0
0.26052788 1.8193393 -0.049852971 0
0.16592534 2.6745217 0.44331884 0
0.16669156 2.6675951 0.62287933 0
0.34624767 1.0444542 0.47144818 0
0.23887564 1.833964 -0.050461397 0
0.13449459 2.6799304 0.44494647 0
0.13530912 2.6733294 0.62526286 0
0.22210525 1.8095396 -0.049673714 0
0.10299139 2.6841516 0.44643265 0
0.10220115 2.689954 0.63055634 0
0.20294991 1.8048652 -0.049605049 0
0.069440052 2.7006741 0.45023698 0
0.068177655 2.7091444 0.63662899 0
0.18226792 1.809902 -0.049896177 0
0.034836575 2.7203405 0.45470053 0
0.036332086 2.7111051 0.63837159 0
0.16124059 1.8157033 -0.05022509 0
0.0014260577 2.7295389 0.45733711 0
0.002274947 2.7246847 0.64323109 0
0.14339556 1.8032941 -0.049902871 0
-0.030002279 2.726167 0.45775029 0
-0.029186023 2.7218225 0.6439451 0
0.12233888 1.8080044 -0.050211415 0
-0.08870782 2.8582132 0.1004548 0
-0.089222685 2.8607752 0.29061207 0
-0.061858758 2.7246072 0.45857063 0
-0.063433811 2.732445 0.64827305 0
0.10507683 1.7939358 -0.049844839 0
-0.11271723 2.8112333 0.098986678 0
-0.11406316 2.8175197 0.28660277 0
-0.095869377 2.7325382 0.46121752 0
-0.093910709 2.7233894 0.64759076 0
0.086103782 1.7885473 -0.049802948 0
-0.14333875 2.7979918 0.098760627 0
-0.14034219 2.7848084 0.28377843 0
-0.1298963 2.7388511 0.46365178 0
-0.12782766 2.7297499 0.65104026 0
0.064627901 1.7936752 -0.050155856 0
-0.17534687 2.7911735 0.098783895 0
-0.17588873 2.7934258 0.28555039 0
-0.16175111 2.7346604 0.46422443 0
-0.16305931 2.740098 0.65565848 0
0.047472969 1.7807633 -0.049855355 0
-0.21110107 2.7990193 0.099362209 0
-0.20897777 2.790658 0.28611517 0
-0.19566531 2.7382338 0.46631819 0
-0.19750364 2.7454731 0.6590991 0
0.022092389 1.799423 -0.050728556 0
-0.25064111 2.8194249 0.10042322 0
-0.25098819 2.8207231 0.2903806 0
-0.22909875 2.7388582 0.46794796 0
-0.2276168 2.7333157 0.6580354 0
0.0069039925 1.7795129 -0.050186384 0
-0.26322502 2.7410884 0.4699631 0
-0.26367372 2.7426856 0.66277313 0
-0.010895295 1.7698088 -0.050029151 0
-0.29153711 2.7225659 0.46816468 0
-0.2916559 2.7229693 0.659913 0
-0.03062488 1.7667316 -0.050127242 0
-0.32571536 2.723906 0.47017503 0
-0.32423389 2.7191007 0.6613667 0
-0.048634097 1.7580781 -0.050025873 0
-0.36206925 2.7310681 0.473378 0
-0.36040556 2.7259035 0.66579646 0
-0.065453842 1.7461001 -0.049807385 0
-0.3936516 2.7226131 0.47371009 0
-0.39418399 2.7241971 0.66807693 0
-0.084294334 1.7403498 -0.049831498 0
-0.4270705 2.7192466 0.4750919 0
-0.4222852 2.7055809 0.6659112 0
-0.10451175 1.7383195 -0.050006073 0
-0.45758617 2.7073338 0.47492015 0
-0.45797682 2.708406 0.66965353 0
-0.12111022 1.7263764 -0.049812749 0
-0.48755646 2.6940336 0.474554 0
-0.48893362 2.6976705 0.66983658 0
-0.14273567 1.7275836 -0.05013093 0
-0.52002323 2.6872089 0.47551385 0
-0.52293587 2.694617 0.67223316 0
-0.15817465 1.7130165 -0.049853034 0
-0.54792261 2.6688147 0.47430468 0
-0.5503605 2.6747932 0.67013896 0
-0.17987396 1.7137612 -0.050174624 0
-0.58159018 2.6644924 0.47591278 0
-0.5837338 2.6695657 0.67217177 0
-0.19161786 1.6911747 -0.049599435 0
-0.61400366 2.6567299 0.4769358 0
-0.61386728 2.6564181 0.67212707 0
-0.21301712 1.6909004 -0.049901087 0
-0.63981104 2.6340106 0.47508445 0
-0.63921499 2.6326933 0.66922593 0
-0.23116548 1.6831673 -0.049921121 0
-0.67311645 2.6279173 0.47659704 0
-0.66855752 2.6181717 0.6689896 0
-0.24888684 1.6745111 -0.049913708 0
-0.69736063 2.6025758 0.47434708 0
-0.70186937 2.6119061 0.67119551 0
-0.26547593 1.6635896 -0.049824756 0
-0.72889209 2.5925336 0.47522789 0
-0.72459233 2.5839145 0.66734028 0
-0.27978015 1.6483593 -0.049570568 0
-0.7568866 2.5753398 0.47474402 0
-0.75465155 2.5709972 0.66786718 0
-0.30715972 1.6581416 -0.050332889 0
-0.77628708 2.5420859 0.47104961 0
-0.78370368 2.5560603 0.66792321 0
-0.31968379 1.6396372 -0.049963389 0
-0.81051624 2.5370066 0.47317144 0
-0.80835986 2.5330644 0.6657421 0
-0.33163208 1.6206355 -0.049577326 0
-0.6131351 2.1202495 0.082050636 0
-0.83615208 2.516062 0.47211304 0
-0.83271062 2.509954 0.66360259 0
-0.35599518 1.6235696 -0.050099999 0
-0.61912203 2.0771196 0.080819987 0
-0.86195481 2.4956892 0.47123319 0
-0.85972965 2.4918535 0.66301525 0
-0.37865639 1.6229281 -0.050490655 0
-0.61808038 2.0239036 0.079163775 0
-0.89329529 2.4848201 0.47241101 0
-0.88842154 2.4766579 0.6633873 0
-0.38857412 1.6010101 -0.050004769 0
-0.61717618 1.9731354 0.077596717 0
-0.91694736 2.4611118 0.47096357 0
-0.90825117 2.4469557 0.65952647 0
-0.40172088 1.5848387 -0.049762938 0
-0.61736369 1.9261568 0.076176703 0
-0.93825781 2.4340658 0.46885586 0
-0.9360311 2.4305413 0.65971982 0
-0.41743582 1.5729284 -0.049707543 0
-0.61720335 1.8804741 0.074800298 0
-0.95276845 2.3970823 0.4646512 0
-0.96112692 2.4099503 0.65875012 0
-0.4404884 1.5720739 -0.050134722 0
-0.61529696 1.8339174 0.073374681 0
-0.98064303 2.3811646 0.46501857 0
-0.98402166 2.3862255 0.6569075 0
-0.46648538 1.5749736 -0.050740652 0
-0.61766911 1.7953689 0.072282359 0
-1.0102981 2.3677428 0.4660114 0
-0.99895561 2.3512077 0.65164381 0
-0.46723437 1.5412948 -0.049768683 0
-0.61914527 1.75688 0.07118421 0
-1.0218267 2.3283474 0.46136472 0
-1.0248154 2.3325887 0.65150982 0
-0.48151404 1.5274779 -0.049663514 0
-0.61891425 1.7173469 0.070030801 0
-0.61757886 1.7155015 0.19850302 0
-1.042212 2.3022885 0.45967659 0
-1.0446023 2.3055916 0.64883816 0
-0.081024244 0.97405356 0.44430447 0
-0.50454855 1.5255628 -0.050094686 0
-0.62475204 1.6873395 0.069290116 0
-0.6171416 1.677097 0.19514683 0
-1.0633582 2.2776408 0.45834708 0
-1.0667009 2.2821395 0.64734709 0
-0.096526936 0.97642386 0.44984779 0
-0.51921606 1.5121715 -0.050027687 0
-0.61123562 1.6328135 0.067444645 0
-0.61962283 1.6438096 0.19244915 0
-1.0845252 2.2533181 0.4571386 0
-1.0817453 2.2496734 0.64303803 0
-0.093889549 0.95454878 0.44030988 0
-0.53345227 1.498301 -0.049946625 0
-0.62019908 1.6091084 0.066970661 0
-0.61848927 1.6069244 0.18923797 0
-1.0959282 2.2167885 0.45318303 0
-1.100636 2.2228022 0.64056027 0
-0.1083069 0.95523465 0.44499236 0
-0.55118626 1.4888706 -0.050076246 0
-0.61835229 1.5724757 0.06590496 0
-0.61741221 1.5713055 0.18616675 0
-1.1189928 2.1956489 0.45278063 0
-1.1097778 2.1841786 0.63428861 0
-0.12442781 0.95766193 0.45095599 0
-0.56987786 1.4804533 -0.05026437 0
-0.62091804 1.5423723 0.065129176 0
-0.61483586 1.5349938 0.18296511 0
-1.1289984 2.1587474 0.44875762 0
-1.1342943 2.1651721 0.63447553 0
-0.14166982 0.96097475 0.45768696 0
-0.58318651 1.4654603 -0.050158005 0
-0.61754799 1.5060923 0.064057797 0
-0.61823022 1.5068991 0.1808812 0
-1.1406286 2.1246293 0.4453786 0
-1.1395477 2.1233511 0.62714404 0
-0.15173472 0.95527327 0.45872477 0
-0.59759629 1.4518462 -0.050123524 0
-0.61758149 1.4748839 0.06321235 0
-0.61619449 1.473285 0.17799519 0
-1.1593629 2.0994127 0.44412249 0
-1.1633368 2.1039934 0.62734139 0
-0.60930836 1.4352324 -0.049953919 0
-0.63446307 1.4635019 0.063304886 0
-0.63337839 1.4622829 0.17832585 0
-1.1790663 2.075542 0.44323379 0
-1.1713624 2.066884 0.62158018 0
-0.6239934 1.4220488 -0.049955245 0
-0.66691685 1.4690814 0.06422852 0
-0.65733933 1.4585869 0.17975467 0
-1.1846557 2.0363827 0.43866217 0
-1.177316 2.0283403 0.61529177 0
-0.64158511 1.4119649 -0.05011715 0
-0.50350934 1.2644454 0.054903466 0
-0.690938 1.4646933 0.18268749 0
-1.1925026 2.0005624 0.43487847 0
-1.1885809 1.9963727 0.61125284 0
-0.65995324 1.4025204 -0.050323561 0
-0.51333451 1.2497748 0.05476464 0
-0.72308159 1.4682866 0.18534423 0
-1.2000909 1.9652289 0.43119499 0
-1.2067292 1.9721447 0.60995191 0
-0.67566717 1.3901675 -0.050398361 0
-0.51323247 1.2251552 0.054131832 0
-0.7468487 1.4624786 0.18667705 0
-1.2091932 1.93216 0.42806268 0
-1.2112912 1.9342911 0.60383797 0
-0.68313634 1.3695687 -0.050065789 0
-0.53269237 1.2205381 0.054505583 0
-0.77362597 1.459208 0.1884598 0
-1.219548 1.9009404 0.42539346 0
-1.2135739 1.8950226 0.5971536 0
-0.69311857 1.3517191 -0.049874928 0
-0.54148197 1.2052437 0.054348074 0
-0.8123163 1.4668597 0.19200727 0
-1.2254916 1.8659718 0.42174965 0
-1.2260401 1.8665016 0.59433877 0
-0.70895076 1.3395603 -0.049984314 0
-0.56445259 1.2034554 0.054897431 0
-0.83723283 1.4603909 0.1934651 0
-1.2197975 1.8207338 0.4153752 0
-1.2341372 1.8342407 0.5901525 0
-0.7252599 1.3277305 -0.050123036 0
-0.87011313 1.4607679 0.069144614 0
-0.86153007 1.4528849 0.19482775 0
-1.2428139 1.8030668 0.41624475 0
-1.2300035 1.7913014 0.58191901 0
-0.23155166 0.87429488 0.37932792 0
-0.73817289 1.3127241 -0.050104622 0
-0.91005719 1.466643 0.070341893 0
-0.91279423 1.469094 0.20007913 0
-1.2317737 1.7547337 0.40891391 0
-1.2379524 1.7602665 0.57810205 0
-0.23149724 0.85900617 0.37505874 0
-0.74433088 1.2918333 -0.049775276 0
-0.93256593 1.4561706 0.070696257 0
-1.2368062 1.7217854 0.40565771 0
-1.2336655 1.7190435 0.5703159 0
-0.22890855 0.8418473 0.36954975 0
-0.76272428 1.2816569 -0.050035454 0
-0.97173095 1.4595413 0.071833923 0
-1.2321545 1.6811863 0.40024152 0
-1.2386434 1.686709 0.5658915 0
-0.23457648 0.8321532 0.36870661 0
-0.25723988 0.85144192 0.45920181 0
-0.78185153 1.2718468 -0.050332945 0
-1.0109776 1.4619324 0.072961576 0
-1.2417336 1.65337 0.39833677 0
-1.2455817 1.6565626 0.56229866 0
-0.24186505 0.82386798 0.36881015 0
-0.78369808 1.2477901 -0.049839739 0
-1.0488096 1.462152 0.074011475 0
-1.2479959 1.6232084 0.39576375 0
-1.2425891 1.6188366 0.55560905 0
-0.25591379 0.82103848 0.37256786 0
-0.78981066 1.2275339 -0.049559142 0
-1.0834465 1.4589064 0.074905656 0
-1.2509669 1.5909052 0.39254805 0
-1.2449157 1.5861371 0.55086833 0
-0.27310205 0.82038963 0.37796232 0
-0.8081876 1.2169391 -0.04984479 0
-1.1245583 1.4598318 0.076084524 0
-1.2539251 1.5591528 0.38945329 0
-1.2462984 1.5532975 0.54600275 0
-0.25753325 0.79417574 0.36621043 0
-0.2554611 0.79258484 0.43998784 0
-0.824301 1.2043959 -0.050032832 0
-1.1635302 1.4581137 0.07715641 0
-1.2551272 1.5266213 0.38608256 0
-1.2378449 1.5136955 0.5381813 0
-0.26097596 0.78307134 0.36456963 0
-0.27553743 0.79396218 0.44841021 0
-0.83581829 1.1883366 -0.050023153 0
-1.2092556 1.460375 0.07851778 0
-1.2548778 1.4936094 0.38251054 0
-1.2364643 1.4801958 0.53282201 0
-1.236333 1.4801 0.69292599 0
-0.26491082 0.77244675 0.36326793 0
-0.27624416 0.78070277 0.44475469 0
-0.85040343 1.174458 -0.050156739 0
-1.2498705 1.4578289 0.079642095 0
-1.2477438 1.4563202 0.37754029 0
-1.2360499 1.4480249 0.5279451 0
-1.2398838 1.4507445 0.68818438 0
-0.28405315 0.7727049 0.36976576 0
-0.27813709 0.76850826 0.44196224 0
-0.85281217 1.1520519 -0.049768478 0
-1.3075871 1.4661247 0.081500083 0
-1.2568651 1.4310955 0.37627926 0
-1.2392066 1.4189001 0.52434385 0
-1.2404608 1.4197663 0.68243158 0
-0.27613908 0.75379527 0.43692178 0
-0.87201214 1.1412587 -0.050117984 0
-1.2806015 1.4159017 0.079694256 0
-1.2757598 1.4126472 0.22721015 0
-1.2585359 1.4010698 0.3734791 0
-1.2336973 1.3843739 0.51822215 0
-1.2460278 1.3926622 0.67888469 0
-0.29107761 0.75077015 0.4422465 0
-0.87171292 1.1174139 -0.049638629 0
-1.2713429 1.3787899 0.078686565 0
-1.2804722 1.384761 0.22597603 0
-1.2457541 1.3620538 0.36766928 0
-1.2425762 1.3599753 0.51667011 0
-1.2344031 1.3546298 0.66866875 0
-0.29798943 0.74217284 0.44275156 0
-0.89335704 1.1079267 -0.050104365 0
-1.2709038 1.348127 0.078079954 0
-1.2843633 1.35669 0.22469206 0
-1.2459258 1.3322357 0.36478007 0
-1.237035 1.3265792 0.51086318 0
-1.2434659 1.3306707 0.66688144 0
-0.30252457 0.73203135 0.44190767 0
-0.90121353 1.0895196 -0.049992707 0
-1.2927344 1.3317398 0.07842923 0
-1.2977371 1.3348348 0.22466128 0
-1.2492645 1.3048465 0.36266488 0
-1.2503577 1.3055229 0.51088732 0
-1.2434211 1.3012314 0.66166335 0
-0.91484344 1.0746729 -0.050132103 0
-1.3084979 1.3114119 0.07853175 0
-1.3050923 1.3093637 0.22391059 0
-1.2447432 1.2730706 0.35898435 0
-1.229386 1.2638348 0.50078064 0
-1.2340915 1.2666647 0.65302461 0
-0.91944814 1.0544347 -0.049905039 0
-1.3343356 1.2968824 0.079060711 0
-1.3384717 1.2992994 0.2264448 0
-1.2490184 1.2470256 0.35725218 0
-1.2441666 1.2441903 0.50146854 0
-1.2439698 1.2440753 0.65201902 0
-0.92002583 1.0320911 -0.049524788 0
-1.3833053 1.2950491 0.080543041 0
-1.3822182 1.294432 0.23025781 0
-1.2486259 1.2186048 0.35463262 0
-1.2444456 1.2162321 0.4979701 0
-1.2378287 1.2124764 0.64500159 0
-0.94391167 1.0228947 -0.050108779 0
-1.2499713 1.191555 0.35246298 0
-1.2379278 1.1849182 0.49261883 0
-1.2350636 1.1833398 0.63946676 0
-0.95332909 1.0054904 -0.050107803 0
-1.2557995 1.1672416 0.35129461 0
-1.227543 1.152131 0.48629913 0
-1.2361879 1.156754 0.63557535 0
-0.96185338 0.98762012 -0.050079755 0
-1.2555212 1.1399404 0.34895563 0
-1.239423 1.1315905 0.48653874 0
-1.2399387 1.131858 0.63281953 0
-0.97398067 0.97158009 -0.050204881 0
-1.2742361 1.1225502 0.35053506 0
-1.232453 1.1015415 0.48146796 0
-1.2416179 1.1061497 0.62942684 0
-0.97170472 0.94842213 -0.049765307 0
-1.2870935 1.1020573 0.35097384 0
-1.2401514 1.0791904 0.48069873 0
-1.2361882 1.0772598 0.62354422 0
-0.98623514 0.93353009 -0.050003275 0
-1.2993624 1.0812148 0.35134429 0
-1.237851 1.0522033 0.47719318 0
-1.2435409 1.0548869 0.62253255 0
-0.99776769 0.91708213 -0.050129618 0
-1.3028753 1.0563155 0.35002899 0
-1.2376604 1.0265552 0.47439492 0
-1.2341588 1.0249573 0.61551011 0
-1.0085086 0.90018404 -0.050232477 0
-1.3094535 1.0329652 0.3493872 0
-1.2359842 1.0005496 0.47128826 0
-1.2443331 1.0042332 0.61577553 0
-1.0126505 0.88039082 -0.050086964 0
-1.3225026 1.0124664 0.35007527 0
-1.2390141 0.97687918 0.46959445 0
-1.2368859 0.975972 0.60976112 0
-1.0166264 0.86063689 -0.049945436 0
-1.3268257 0.98826939 0.34910855 0
-1.2405267 0.95276135 0.46757326 0
-1.2418184 0.95329285 0.60835987 0
-1.0190321 0.84036392 -0.049753886 0
-1.3388076 0.96725243 0.3496919 0
-1.2427714 0.9291448 0.46584666 0
-1.2373238 0.92698318 0.60369378 0
-1.0214267 0.82022804 -0.049572609 0
-1.3364526 0.94066322 0.34755555 0
-1.2357639 0.9021697 0.46168265 0
-1.233809 0.90142232 0.59951746 0
-1.0410464 0.80656284 -0.050057106 0
-1.3576988 0.92307162 0.35002899 0
-1.2387501 0.87930572 0.46034724 0
-1.2411211 0.88017809 0.59931284 0
-1.0381638 0.7845726 -0.049693845 0
-1.3613003 0.89886856 0.3491585 0
-1.2423782 0.85680485 0.45926958 0
-1.2417359 0.85657763 0.59684044 0
-1.058669 0.77079225 -0.050224409 0
-1.3686951 0.87607807 0.34907237 0
-1.239699 0.83227056 0.45657358 0
-1.242605 0.83325744 0.59457248 0
-1.0590481 0.75006157 -0.050003666 0
-1.3769394 0.85357285 0.34920231 0
-1.241441 0.80945206 0.45515794 0
-1.2398144 0.80892241 0.59113634 0
-1.0637866 0.73084974 -0.049956597 0
-1.3899984 0.83254564 0.35029492 0
-1.2501329 0.78894287 0.4556821 0
-1.2372007 0.78491127 0.58788234 0
-1.0734578 0.71313924 -0.050102495 0
-1.3935726 0.8085289 0.34964842 0
-1.2316227 0.76027012 0.44903147 0
-1.2438501 0.76391375 0.58796132 0
-1.0826154 0.69517237 -0.050237093 0
-1.3946823 0.78390133 0.34859896 0
-1.2494843 0.74261767 0.45214799 0
-1.2430067 0.74077588 0.58554 0
-1.0806432 0.67409033 -0.04996796 0
-1.4180766 0.7654556 0.35177487 0
-1.240997 0.71750855 0.44834822 0
-1.2448226 0.71854442 0.58414418 0
-1.0822698 0.65412706 -0.049842168 0
-1.4140615 0.73949569 0.34987956 0
-1.2371591 0.69397944 0.44586903 0
-1.25257 0.69794458 0.58488685 0
-1.0938634 0.63668293 -0.05009228 0
-1.4251617 0.71749103 0.35085678 0
-1.2386236 0.67199188 0.44486785 0
-1.2542189 0.67579579 0.58362776 0
-1.0954098 0.6167376 -0.04998162 0
-1.4308362 0.69409126 0.35087833 0
-1.231789 0.64818841 0.44176924 0
-1.2436182 0.6509164 0.57828534 0
-1.104726 0.59855795 -0.050164316 0
-1.4312301 0.66953653 0.3499797 0
-1.2342422 0.6267134 0.4411824 0
-1.243754 0.6287812 0.5767197 0
-1.1001593 0.57740819 -0.04984903 0
-1.4370215 0.64620829 0.35013387 0
-1.2372787 0.6054132 0.4408195 0
-1.2407528 0.60612273 0.5741877 0
-1.1119599 0.55961037 -0.050139107 0
-1.4371685 0.62177539 0.3493053 0
-1.2357345 0.58327037 0.43933737 0
-1.2343061 0.58299738 0.57059151 0
-1.116267 0.54026663 -0.050164931 0
-1.4530323 0.60025579 0.35141414 0
-1.2450058 0.56319934 0.44073373 0
-1.241259 0.56253189 0.57163 0
-1.1225568 0.52122879 -0.050271269 0
-1.4467566 0.57477707 0.34952125 0
-1.2362161 0.54000193 0.43752223 0
-1.2410884 0.54080671 0.5703513 0
-1.126444 0.50174606 -0.050299305 0
-1.4512769 0.55120564 0.34966007 0
-1.2391579 0.51890808 0.43741995 0
-1.2377642 0.51869583 0.568106 0
-1.116534 0.48031682 -0.0498388 0
-1.4600266 0.52820045 0.35062286 0
-1.2408264 0.49764344 0.43705827 0
-1.2329329 0.49654308 0.56545186 0
-1.1172464 0.46055648 -0.049771007 0
-1.4603831 0.50399339 0.35011107 0
-1.240438 0.47615102 0.43623716 0
-1.2420757 0.47635832 0.56758183 0
-1.1308804 0.44231176 -0.050176557 0
-0.50590491 0.37118071 0.039720081 0
-0.51395088 0.37209645 0.10837567 0
-0.51462889 0.37217361 0.17792393 0
-1.243288 0.45510536 0.43631834 0
-1.2337445 0.45401916 0.56394291 0
-1.1181186 0.42110842 -0.049642678 0
-0.49707472 0.35833511 0.03935764 0
-0.51477283 0.36012396 0.10832605 0
-0.5038597 0.35902089 0.17573938 0
-1.2389727 0.43332401 0.43462998 0
-1.2381375 0.43323961 0.56465757 0
-1.1307485 0.40252391 -0.050029013 0
-0.47560877 0.34462759 0.038548525 0
-0.51860982 0.34842771 0.10861805 0
-0.49942821 0.34673259 0.17473473 0
-1.2370706 0.41191983 0.43363187 0
-1.2338963 0.41163933 0.5625751 0
-1.1226456 0.38209358 -0.04968106 0
-0.52059531 0.33652079 0.10872608 0
-0.50850862 0.33560586 0.17620286 0
-1.2394807 0.39093754 0.43380705 0
-1.2362232 0.39069095 0.56277692 0
-1.1392945 0.36346647 -0.050228011 0
-0.50695199 0.32360128 0.10716726 0
-0.50734055 0.32362577 0.17584318 0
-1.2398595 0.36980647 0.43353039 0
-1.2381012 0.36969563 0.56291687 0
-1.2430232 0.37000591 0.70112163 0
-1.1363223 0.34346083 -0.050081618 0
-0.52119839 0.31245154 0.108628 0
-0.51695359 0.31223756 0.17745781 0
-1.2369113 0.34853169 0.43247199 0
-1.2380148 0.3485873 0.5624904 0
-1.2335776 0.34836361 0.69670957 0
-0.34905273 0.30377343 0.47011203 0
-1.1251681 0.32324615 -0.04965198 0
-0.5060491 0.29984638 0.10694179 0
-0.50976443 0.29998681 0.17606515 0
-1.2391753 0.32755509 0.43281326 0
-1.2339627 0.32735807 0.56083238 0
-1.2372255 0.32748139 0.69783753 0
-0.35534102 0.29415032 0.47358626 0
-1.1302785 0.30374119 -0.049812421 0
-0.40765405 0.28553751 0.35398191 0
-0.41403538 0.28569826 0.42971131 0
-0.38322687 0.28492218 0.48994377 0
-1.1344236 0.2841078 -0.049947143 0
-0.39212441 0.27475864 0.41864672 0
-0.37642467 0.2745609 0.48579431 0
-1.1423194 0.26437625 -0.050224598 0
-0.38607401 0.26437426 0.41558674 0
-0.3925128 0.26437426 0.49529731 0
-0.90268707 -0.98929477 -0.091113649 0
-1.021662 -0.98929507 -0.09164416 0
-1.134582 -0.98929536 -0.085659824 0
-1.1341884 -0.98929536 -0.058559317 0
-1.1248554 -0.98929536 -0.030609047 0
-1.1316555 -0.98929536 -0.0047496539 0
-1.1322032 -0.98929536 0.021750601 0
-1.1332651 -0.98929536 0.048166275 0
-1.1283116 -0.98929536 0.074713998 0
-1.1299586 -0.98929536 0.10100269 0
-1.1225708 -0.9892953 0.12715751 0
-1.1278763 -0.98929536 0.15358824 0
-1.1252292 -0.98929536 0.17976727 0
-1.1271366 -0.98929536 0.20633362 0
-1.1236582 -0.98929536 0.232475 0
-1.124558 -0.98929536 0.25921223 0
-1.1217035 -0.9892953 0.28554985 0
-1.1346176 -0.98929536 0.31492737 0
-0.90726852 -1.0122179 -0.092148997 0
-1.0162239 -1.0149682 -0.090680905 0
-1.1310267 -1.0178659 -0.085134767 0
-1.1220996 -1.0176406 -0.056910697 0
-1.1409726 -1.018117 -0.032535229 0
-1.1362026 -1.0179965 -0.0052078944 0
-1.1253096 -1.0177217 0.022207448 0
-1.1335616 -1.0179299 0.048135649 0
-1.1323558 -1.0178995 0.074611574 0
-1.1344947 -1.0179535 0.10100282 0
-1.127369 -1.0177736 0.12727772 0
-1.135565 -1.0179805 0.15396349 0
-1.1260158 -1.0177394 0.1798474 0
-1.1236491 -1.0176797 0.20604137 0
-1.1338896 -1.0179383 0.23371363 0
-1.1313407 -1.0178739 0.26021656 0
-1.1302487 -1.0178463 0.28701401 0
-1.1237892 -1.0176833 0.31295469 0
-0.90740246 -1.0351771 -0.092362143 0
-1.015556 -1.0406402 -0.0907382 0
-1.1275698 -1.0462984 -0.084743835 0
-1.125755 -1.0462067 -0.057576004 0
-1.2287735 -1.0514104 -0.042937521 0
-1.244856 -1.0522228 -0.01546408 0
-1.2346312 -1.0517063 0.014479788 0
-1.2520515 -1.0525863 0.042561844 0
-1.2402688 -1.0519911 0.072074145 0
-1.2303759 -1.0514914 0.10100559 0
-1.2277725 -1.0513599 0.12964602 0
-1.2405725 -1.0520065 0.158915 0
-1.2336763 -1.051658 0.1874651 0
-1.2273698 -1.0513395 0.21584147 0
-0.89374053 -1.0571551 -0.08975824 0
-1.015698 -1.0664055 -0.091070853 0
-1.1350012 -1.0754545 -0.08626499 0
-1.1250019 -1.0746961 -0.057722811 0
-1.2333039 -1.0829105 -0.043698136 0
-1.2335752 -1.0829312 -0.01459386 0
-1.2463131 -1.0838974 0.013522783 0
-1.2388376 -1.0833303 0.043085594 0
-1.2430383 -1.0836489 0.071963467 0
-1.2358831 -1.0831062 0.10100581 0
-1.2451153 -1.0838065 0.13009715 0
-1.2376992 -1.083244 0.15887313 0
-1.2428198 -1.0836323 0.18824467 0
-1.2467791 -1.0839326 0.21784273 0
-0.88672215 -1.0791996 -0.088685431 0
-1.0190923 -1.0926062 -0.092143066 0
-1.1524178 -1.1061096 -0.089560933 0
-1.2256292 -1.1135246 -0.072291784 0
-1.2450445 -1.1154909 -0.045400936 0
-1.2378008 -1.1147573 -0.015248833 0
-1.2437493 -1.1153598 0.013507308 0
-1.2343196 -1.1144047 0.043167513 0
-1.2567174 -1.1166732 0.071578905 0
-1.2359356 -1.1145684 0.10100589 0
-1.2417363 -1.1151559 0.13008314 0
-1.2357292 -1.1145475 0.15891038 0
-1.2365918 -1.1146349 0.18800192 0
-1.9964813 -1.1915976 0.28848302 0
-1.9866841 -1.1906053 0.33457866 0
-1.9248118 -1.1843388 0.37310737 0
-1.4747375 -1.1387546 0.38043183 0
-0.90051883 -1.103642 -0.092188187 0
-1.0051299 -1.1169114 -0.090048738 0
-1.1563036 -1.1360869 -0.090753801 0
-1.1990041 -1.1415032 -0.0690194 0
-1.2392042 -1.1466024 -0.045134742 0
-1.2437464 -1.1471786 -0.016143193 0
-1.2445596 -1.1472818 0.013198132 0
-1.2449167 -1.1473271 0.042503621 0
-1.2520615 -1.1482333 0.071603313 0
-1.2500727 -1.147981 0.1010064 0
-1.2420297 -1.1469609 0.13017394 0
-1.2339864 -1.1459405 0.15899546 0
-1.2535267 -1.1484191 0.18944712 0
-1.6059875 -1.193127 0.36728793 0
-1.4799509 -1.1771399 0.38222736 0
-0.89557129 -1.1260803 -0.091806434 0
-0.99731195 -1.1416031 -0.089233689 0
-1.1451449 -1.1641582 -0.089575656 0
-1.2098843 -1.1740357 -0.071166418 0
-1.6298428 -1.2381097 -0.091834225 0
-2.562196 -1.3803608 -0.14104539 0
-3.4319866 -1.5130666 -0.14180319 0
-5.1340494 -1.7727542 -0.14085528 0
-10.291561 -2.5596471 -0.14110494 0
-1.359217 -1.1968197 0.29441661 0
-1.3521001 -1.1957339 0.3260037 0
-1.3572056 -1.1965128 0.35982648 0
-0.89559984 -1.1493295 -0.092619441 0
-0.99360079 -1.1668226 -0.089319713 0
-1.1488894 -1.1945413 -0.090998299 0
-1.2011689 -1.2038732 -0.070642702 0
-1.6134315 -1.2774614 -0.090692826 0
-2.5395257 -1.4427679 -0.13990881 0
-3.3960595 -1.5956579 -0.14026795 0
-5.1099224 -1.9015801 -0.14072643 0
-10.228112 -2.8151696 -0.14061958 0
-1.3329695 -1.2273993 0.29147771 0
-1.3246744 -1.2259188 0.32236516 0
-1.3172895 -1.2246006 0.35327038 0
-0.88330281 -1.1702682 -0.090889402 0
-0.99633616 -1.1934015 -0.090767629 0
-1.1291813 -1.2205895 -0.088622265 0
-1.1910254 -1.2332464 -0.070019163 0
-1.5998344 -1.3169132 -0.089999445 0
-2.5264022 -1.5065442 -0.13982563 0
-3.3852894 -1.6823237 -0.1406683 0
-5.0884309 -2.0308878 -0.14087628 0
-10.179768 -3.0728791 -0.14064285 0
-1.2537616 -1.2460861 0.3115375 0
-1.2321707 -1.2416673 0.33812323 0
-0.87848485 -1.1925286 -0.090895884 0
-0.99107063 -1.2185463 -0.090806656 0
-1.1261207 -1.2497553 -0.089151092 0
-1.1914912 -1.2648619 -0.071028925 0
-1.6004776 -1.3593755 -0.091129281 0
-2.5216327 -1.5722474 -0.14069606 0
-3.363287 -1.7667471 -0.1404216 0
-5.0593047 -2.1586838 -0.14081772 0
-10.123707 -3.3290279 -0.14063689 0
-0.86449617 -1.212441 -0.089012273 0
-0.98281312 -1.2429472 -0.090387009 0
-1.1251322 -1.2796421 -0.090159617 0
-1.3158101 -1.3288056 -0.090135582 0
-1.5828421 -1.3976558 -0.090189286 0
-1.9792041 -1.4998519 -0.089904957 0
-3.3443837 -1.8518431 -0.14055036 0
-5.0322266 -2.2870283 -0.14101183 0
-10.068418 -3.5855355 -0.14080422 0
-0.87347567 -1.2384479 -0.09230224 0
-0.9769094 -1.2679191 -0.090545528 0
-1.1137793 -1.3069172 -0.089532696 0
-1.3006092 -1.3601503 -0.089227341 0
-1.5680274 -1.4363453 -0.089702316 0
-1.9758582 -1.5525479 -0.090891667 0
-3.310895 -1.9329376 -0.13977543 0
-4.9988961 -2.413897 -0.14106098 0
-10.000885 -3.8391054 -0.14083271 0
-0.86136794 -1.2587001 -0.091067888 0
-0.97487295 -1.2941606 -0.091592349 0
-1.098525 -1.3327913 -0.08834713 0
-1.2886623 -1.3921928 -0.088907041 0
-1.5749887 -1.4816452 -0.091996975 0
-1.961579 -1.6024214 -0.090946577 0
-3.3055918 -2.0223098 -0.14120804 0
-4.9652557 -2.540812 -0.14125098 0
-9.9265146 -4.0907788 -0.14085019 0
-0.85763365 -1.281508 -0.091817297 0
-0.95993167 -1.3163238 -0.090211846 0
-1.1012306 -1.364413 -0.090382241 0
-1.2810971 -1.4256281 -0.089354001 0
-1.5481081 -1.5165018 -0.090273969 0
-1.9452223 -1.6516542 -0.090920739 0
-3.2704933 -2.1026924 -0.14061861 0
-4.9092612 -2.6604249 -0.14050017 0
-9.8477697 -4.3411798 -0.14091572 0
-0.85549957 -1.3051111 -0.093066089 0
-0.95569593 -1.3420577 -0.091079377 0
-1.0867268 -1.3903744 -0.089560993 0
-1.2716999 -1.458582 -0.089656599 0
-1.5380061 -1.5567806 -0.090734012 0
-1.9248756 -1.6994361 -0.090620793 0
-3.2447476 -2.1861296 -0.14087105 0
-4.8725328 -2.7863638 -0.14084747 0
-9.7608194 -4.5888853 -0.14093448 0
-0.83727509 -1.32265 -0.090782352 0
-0.94273025 -1.3645877 -0.090317138 0
-1.0780392 -1.4183978 -0.089875542 0
-1.2673378 -1.4936787 -0.090848915 0
-1.5256935 -1.5964223 -0.091047905 0
-1.9012743 -1.7457845 -0.090111442 0
-3.2095246 -2.2660534 -0.14057069 0
-4.8327441 -2.9115806 -0.14120343 0
-9.66465 -4.833148 -0.14087842 0
-0.83197999 -1.3451388 -0.091564246 0
-0.93427807 -1.3888416 -0.090586953 0
-1.0660864 -1.4451514 -0.089735694 0
-1.2477542 -1.5227618 -0.089862682 0
-1.5032353 -1.6319059 -0.090202279 0
-1.8943329 -1.7989867 -0.091405712 0
-3.1750309 -2.3461137 -0.14047506 0
-4.7666407 -3.0260656 -0.1403902 0
-9.5727396 -5.0792799 -0.14108451 0
-0.81585044 -1.3628923 -0.089954711 0
-0.92381209 -1.4122719 -0.090568893 0
-1.0505469 -1.4702379 -0.089067347 0
-1.2238584 -1.5495073 -0.088311382 0
-1.4884423 -1.6705228 -0.090446405 0
-1.8610415 -1.8409426 -0.090147488 0
-3.1456828 -2.4285128 -0.1409284 0
-4.7273121 -3.1519196 -0.14108536 0
-9.4501514 -5.3120556 -0.14066659 0
-0.80602849 -1.3833164 -0.089922614 0
-0.90943104 -1.4338033 -0.089853205 0
-1.0482795 -1.5015969 -0.090933256 0
-1.2210025 -1.58593 -0.090136267 0
-1.4679228 -1.7064904 -0.0900748 0
-1.8363734 -1.8863887 -0.08987873 0
-3.1112916 -2.5088751 -0.14115582 0
-4.65587 -3.263025 -0.14028898 0
-9.3425274 -5.5513139 -0.14078178 0
-0.79851753 -1.4049497 -0.090566494 0
-0.90370858 -1.4596387 -0.091080807 0
-1.0182892 -1.5192094 -0.087834202 0
-1.1981558 -1.6127224 -0.088963546 0
-1.4495273 -1.7434109 -0.090096898 0
-1.821474 -1.9367868 -0.09075401 0
-3.0596147 -2.5804982 -0.14018308 0
-4.6030402 -3.3829284 -0.14060493 0
-9.2274704 -5.7871785 -0.14086097 0
-0.79367435 -1.4282477 -0.091998927 0
-0.88925952 -1.481048 -0.090587251 0
-1.0170616 -1.5516444 -0.09017504 0
-1.1814139 -1.6424309 -0.088862337 0
-1.4254608 -1.7772398 -0.089485697 0
-1.7973064 -1.9826434 -0.090788014 0
-3.0354905 -2.6666028 -0.14154065 0
-4.546031 -3.5010095 -0.1408629 0
-9.1070967 -6.020493 -0.1409571 0
-0.78058046 -1.4471234 -0.091563962 0
-0.87300467 -1.5012652 -0.089809276 0
-0.99940592 -1.5753103 -0.089576371 0
-1.1734642 -1.6772729 -0.090312876 0
-1.4041932 -1.8124329 -0.089359336 0
-1.7668216 -2.024859 -0.090263449 0
-2.9900093 -2.7413964 -0.14136285 0
-4.4848742 -3.6170814 -0.14106058 0
-8.9684706 -6.2435508 -0.1407204 0
-0.76848352 -1.4665132 -0.091489784 0
-0.86111504 -1.5239636 -0.090098761 0
-0.989443 -1.6035531 -0.090570696 0
-1.151387 -1.7039914 -0.089594357 0
-1.3864404 -1.8497725 -0.089835636 0
-1.7446576 -2.0719402 -0.090760686 0
-2.9376814 -2.8118582 -0.14077316 0
-4.4069419 -3.7230995 -0.14050166 0
-8.8398027 -6.4723778 -0.14090529 0
-0.7510919 -1.4824274 -0.090191938 0
-0.84925497 -1.5467936 -0.090527751 0
-0.9666512 -1.6237711 -0.089199267 0
-1.1331146 -1.7329223 -0.08961571 0
-1.3669146 -1.8862267 -0.090202726 0
-1.7202455 -2.1179082 -0.091146879 0
-2.8805759 -2.8787448 -0.13992172 0
-4.3479309 -3.8408997 -0.14113456 0
-8.6954269 -6.6915836 -0.14081584 0
-0.7420978 -1.5037991 -0.091145344 0
-0.83856475 -1.5705932 -0.091363214 0
-0.96170121 -1.6558535 -0.091471486 0
-1.1159849 -1.7626804 -0.089956529 0
-1.3425865 -1.9195805 -0.090023302 0
-1.6887244 -2.1592479 -0.090863384 0
-2.8415682 -2.9574826 -0.14073654 0
-4.26682 -3.944334 -0.14069417 0
-8.5523844 -6.9116797 -0.14091764 0
-0.72690457 -1.520941 -0.090625428 0
-0.81780642 -1.5873365 -0.090004735 0
-0.93677336 -1.6742309 -0.089883305 0
-1.100202 -1.7936006 -0.090667613 0
-1.3225878 -1.956033 -0.090587907 0
-1.6559447 -2.1995196 -0.090548672 0
-2.7916481 -3.0290468 -0.1407923 0
-4.1894689 -4.0500264 -0.1406115 0
-8.4002962 -7.1256495 -0.14091943 0
-0.71399629 -1.5397046 -0.090823255 0
-0.80791992 -1.6120107 -0.091303386 0
-0.92630154 -1.7031455 -0.091357671 0
-1.077698 -1.8196964 -0.090337761 0
-1.2948012 -1.9868309 -0.09014935 0
-1.6298163 -2.2447386 -0.091129906 0
-2.7393248 -3.0988815 -0.14079501 0
-4.115304 -4.158164 -0.14086969 0
-8.2399826 -7.3335028 -0.14083689 0
-0.7019735 -1.5592653 -0.091395818 0
-0.78445703 -1.6261456 -0.089486293 0
-0.90893096 -1.7270731 -0.091555677 0
-1.0472331 -1.839213 -0.088678725 0
-1.2707589 -2.0204549 -0.090380915 0
-1.588923 -2.2784328 -0.090084694 0
-2.6897528 -3.1710215 -0.14120249 0
-4.0349488 -4.2617497 -0.14092417 0
-8.0753441 -7.5378342 -0.14077872 0
-0.68279636 -1.5729171 -0.090118013 0
-0.78474253 -1.6599321 -0.093597956 0
-0.88660312 -1.7468741 -0.090815999 0
-1.0355306 -1.8739896 -0.090540327 0
-1.2430128 -2.0510838 -0.090177484 0
-1.5623022 -2.3236096 -0.090871505 0
-2.6329956 -3.237488 -0.14112404 0
-3.9509938 -4.3624506 -0.14091787 0
-7.9142075 -7.7452073 -0.14098229 0
-0.66413814 -1.5866469 -0.089056574 0
-0.75955778 -1.6723458 -0.091569178 0
-0.86255592 -1.764851 -0.089788757 0
-1.0127109 -1.8997092 -0.090508617 0
-1.2176255 -2.0837481 -0.090460055 0
-1.5282648 -2.3627412 -0.09088736 0
-2.5678573 -3.2964261 -0.14041218 0
-3.8574388 -4.4546323 -0.14046803 0
-7.7365446 -7.9385567 -0.14083588 0
-0.65265983 -1.6068333 -0.090169333 0
-0.73995113 -1.6893045 -0.091017134 0
-0.84407663 -1.7876803 -0.090097107 0
-0.99450988 -1.9298067 -0.091493137 0
-1.1957995 -2.1199813 -0.091453083 0
-1.5022542 -2.409514 -0.092059709 0
-1.9764963 -2.8575687 -0.089214705 0
-3.7751701 -4.556921 -0.1408775 0
-7.5548792 -8.1279182 -0.14071225 0
-0.63689673 -1.6231545 -0.090177171 0
-0.72636431 -1.7120599 -0.092161857 0
-0.82380962 -1.8088927 -0.090130962 0
-0.96588188 -1.9500722 -0.090585552 0
-1.1643291 -2.1472721 -0.091031112 0
-1.4537008 -2.4348252 -0.090448894 0
-1.940166 -2.9182332 -0.090341948 0
-3.6847434 -4.6518464 -0.14092937 0
-7.3735962 -8.3175163 -0.14075279 0
-0.620776 -1.6391256 -0.090200327 0
-0.70549035 -1.7276663 -0.091506265 0
-0.79756737 -1.8239021 -0.088870861 0
-0.94069648 -1.9734961 -0.090456225 0
-1.1331519 -2.1746442 -0.090762444 0
-1.4142032 -2.46839 -0.090102933 0
-1.8876432 -2.9632142 -0.090014733 0
-3.5915215 -4.7440524 -0.1409537 0
-7.1908889 -8.5059938 -0.14090542 0
-0.60750693 -1.6582613 -0.091250636 0
-0.69105655 -1.7501165 -0.092743807 0
-0.78809196 -1.8567979 -0.091762058 0
-0.91459817 -1.9958799 -0.090254448 0
-1.1011999 -2.2010312 -0.090470038 0
-1.3797619 -2.5072846 -0.090564661 0
-1.8514317 -3.0258422 -0.091489427 0
-3.492475 -4.830018 -0.14073463 0
-6.9963851 -8.6822443 -0.14081697 0
-0.58896625 -1.6717026 -0.090773426 0
-0.67534208 -1.7716173 -0.093810029 0
-0.75193143 -1.8602116 -0.08823844 0
-0.89576375 -2.0265887 -0.091727324 0
-1.0722123 -2.2306948 -0.090816148 0
-1.3359218 -2.5357389 -0.089836724 0
-1.8035589 -3.0766757 -0.091927819 0
-3.3992419 -4.9224725 -0.14107519 0
-6.7923865 -8.8474731 -0.14054428 0
-0.56867218 -1.6828535 -0.089806087 0
-0.65344334 -1.7860647 -0.093232937 0
-0.74129182 -1.8930229 -0.091235526 0
-0.86452472 -2.0430624 -0.090668596 0
-1.0390574 -2.2555611 -0.090541504 0
-1.3050621 -2.5794296 -0.09109915 0
-1.7414931 -3.1107972 -0.090955816 0
-3.2987208 -5.0067668 -0.14106047 0
-6.5990615 -9.0250273 -0.14080462 0
-0.55287445 -1.6994195 -0.090456866 0
-0.62435251 -1.7910664 -0.090544231 0
-0.71369153 -1.905614 -0.090016387 0
-0.83086568 -2.055851 -0.089115657 0
-1.0056388 -2.2799397 -0.090325184 0
-1.2606969 -2.606967 -0.09051808 0
-1.6864918 -3.1529076 -0.090851344 0
-3.1961272 -5.0885139 -0.14104697 0
-6.3921833 -9.1863947 -0.14072798 0
-0.53617322 -1.7150487 -0.090954341 0
-0.6026035 -1.8048047 -0.090126164 0
-0.69118893 -1.9244951 -0.09024971 0
-0.80797732 -2.0822916 -0.090128325 0
-0.979518 -2.3140655 -0.091653995 0
-1.2205216 -2.6396928 -0.090681516 0
-1.6338784 -3.1981919 -0.091146775 0
-3.0878906 -5.1627517 -0.14075026 0
-6.1891031 -9.3528948 -0.1409537 0
-0.51706922 -1.7274849 -0.090724386 0
-0.58095837 -1.8185246 -0.089838691 0
-0.6637544 -1.9365057 -0.089214541 0
-0.78847176 -2.1142232 -0.092166103 0
-0.93547261 -2.323694 -0.089556761 0
-1.1805496 -2.6729198 -0.091015972 0
-1.5745625 -3.2343733 -0.090774037 0
-2.983825 -5.2425194 -0.14093004 0
-5.9740181 -9.5034323 -0.14086902 0
-0.49645874 -1.7375824 -0.090025462 0
-0.56517047 -1.8409457 -0.091648601 0
-0.64965171 -1.968031 -0.092185698 0
-0.75617456 -2.1282737 -0.091236286 0
-0.90721929 -2.3554909 -0.090762891 0
-1.1322836 -2.6940558 -0.090103738 0
-1.5174794 -3.2735074 -0.090782128 0
-2.8689911 -5.3065901 -0.14037749 0
-5.7552862 -9.6484537 -0.14078461 0
-0.48059735 -1.7549461 -0.091293894 0
-0.54627848 -1.859373 -0.092630766 0
-0.62506706 -1.9846395 -0.092283569 0
-0.72137982 -2.1377678 -0.089701079 0
-0.87636542 -2.3841803 -0.091620274 0
-1.0931848 -2.7289031 -0.090853192 0
-1.4571689 -3.3076036 -0.090494014 0
-2.7667482 -5.3897119 -0.14104208 0
-5.5412903 -9.8009739 -0.14106041 0
-0.45420605 -1.7552092 -0.088414796 0
-0.52676517 -1.8773021 -0.093594439 0
-0.58756196 -1.9796028 -0.08836133 0
-0.69572222 -2.1616004 -0.090677477 0
-0.83471036 -2.3954711 -0.090206169 0
-1.039629 -2.7402811 -0.089151241 0
-1.3978463 -3.3430417 -0.090444051 0
-2.6480982 -5.4467988 -0.14042772 0
-5.3109255 -9.9274502 -0.14077492 0
-0.44115788 -1.7779039 -0.091205977 0
-0.49728173 -1.8780096 -0.090933017 0
-0.57273358 -2.0125897 -0.091838203 0
-0.66447502 -2.1762247 -0.09026169 0
-0.79524982 -2.409482 -0.089318268 0
-1.0042875 -2.7823334 -0.090901293 0
-1.3437706 -3.3878546 -0.091267057 0
-2.5356224 -5.5137076 -0.14050719 0
-5.0801682 -10.052301 -0.14060627 0
-0.41577259 -1.77868 -0.088771485 0
-0.4746356 -1.8901763 -0.090907075 0
-0.542256 -2.0182605 -0.090262465 0
-0.63207716 -2.1883967 -0.089587845 0
-0.75674629 -2.4245408 -0.088713147 0
-0.9535352 -2.7972915 -0.089863233 0
-1.2782941 -3.4124389 -0.090588652 0
-1.9227039 -4.6330576 -0.090852655 0
-4.8565383 -10.190227 -0.14093775 0
-0.39642623 -1.7903614 -0.089107893 0
-0.45216683 -1.9027216 -0.091082044 0
-0.51043111 -2.0201693 -0.088158138 0
-0.60350507 -2.2077851 -0.090183623 0
-0.7256192 -2.4539394 -0.090114035 0
-0.90936017 -2.8243194 -0.090230025 0
-1.213499 -3.4373941 -0.090077482 0
-1.8256499 -4.6713514 -0.090380646 0
-4.6201873 -10.304502 -0.14079878 0
-0.37589416 -1.7997164 -0.089010186 0
-0.42517936 -1.9057001 -0.089386202 0
-0.48513305 -2.0346255 -0.088499106 0
-0.56694531 -2.2105558 -0.088309355 0
-0.68758881 -2.4699898 -0.089879937 0
-0.86684453 -2.855464 -0.091131799 0
-1.158182 -3.4819613 -0.091211148 0
-1.7372997 -4.7273054 -0.090947397 0
-4.3834267 -10.41758 -0.14078458 0
-0.35836115 -1.8159486 -0.090628348 0
-0.40454414 -1.9221933 -0.090625174 0
-0.46618047 -2.0639884 -0.091622852 0
-0.54002535 -2.2338698 -0.089745738 0
-0.65266639 -2.4930022 -0.090658672 0
-0.81753409 -2.8722825 -0.090675496 0
-1.0937045 -3.5076168 -0.090997882 0
-1.6426543 -4.7704835 -0.09097328 0
-4.1452708 -10.527789 -0.14085019 0
-0.33727711 -1.8244746 -0.09056475 0
-0.38207033 -1.9350743 -0.091223918 0
-0.43486723 -2.0654359 -0.08985015 0
-0.51440847 -2.2618327 -0.09197598 0
-0.6110062 -2.5003438 -0.089565225 0
-0.77285105 -2.8999577 -0.091443144 0
-1.0338566 -3.5444112 -0.091750346 0
-1.5416094 -4.7981124 -0.090338506 0
-3.9037545 -10.630525 -0.14087924 0
-0.31847668 -1.8390734 -0.092002265 0
-0.35903421 -1.9469618 -0.091731794 0
-0.40569368 -2.0710819 -0.088970833 0
-0.4790056 -2.2661014 -0.09072537 0
-0.57606649 -2.5242958 -0.090687983 0
-0.72428066 -2.9185648 -0.091412343 0
-0.96487463 -3.5585761 -0.090918995 0
-1.4480052 -4.8437667 -0.0907337 0
-3.6580737 -10.722836 -0.14080128 0
-0.2950317 -1.8413864 -0.090769924 0
-0.33605367 -1.9594738 -0.092476241 0
-0.37855271 -2.0818131 -0.089112617 0
-0.4448829 -2.2727537 -0.089973859 0
-0.5396505 -2.5455556 -0.091577448 0
-0.674393 -2.9334304 -0.091133766 0
-0.90074414 -3.5850136 -0.091132574 0
-1.351312 -4.8820357 -0.090878449 0
-3.4134524 -10.818192 -0.14095223 0
-0.2736299 -1.8491837 -0.090903796 0
-0.30553132 -1.9490793 -0.088800736 0
-0.35214609 -2.095048 -0.089803912 0
-0.41333827 -2.2866642 -0.090426736 0
-0.49600151 -2.5455148 -0.089959718 0
-0.62226605 -2.9408977 -0.09025643 0
-0.82858413 -3.5869591 -0.089666344 0
-1.2528099 -4.9153733 -0.090900801 0
-3.1608453 -10.890166 -0.14068264 0
-0.25126931 -1.8538598 -0.090465702 0
-0.28284389 -1.962082 -0.089894541 0
-0.32313234 -2.1001711 -0.089215927 0
-0.37677118 -2.2840188 -0.088569574 0
-0.46041054 -2.5706935 -0.091558851 0
-0.5753848 -2.9647691 -0.091108941 0
-0.76443917 -3.6127551 -0.09008088 0
-1.1528533 -4.9440484 -0.090817921 0
-2.9091468 -10.963763 -0.14060932 0
-0.23076248 -1.8651929 -0.091618694 0
-0.2606546 -1.9781767 -0.091695435 0
-0.29762334 -2.1179082 -0.090901233 0
-0.34524322 -2.2978981 -0.089261629 0
-0.41968179 -2.5792553 -0.091247417 0
-0.524849 -2.9767582 -0.090923153 0
-0.70014775 -3.6393387 -0.090667121 0
-1.0562631 -4.9853559 -0.091465808 0
-2.6580925 -11.039825 -0.1407491 0
-0.20829272 -1.8695152 -0.091346525 0
-0.23563822 -1.9845363 -0.091709621 0
-0.26700747 -2.1164823 -0.089448296 0
-0.314585 -2.3166039 -0.090762027 0
-0.37887913 -2.587039 -0.090968274 0
-0.47627428 -2.9967043 -0.09162467 0
-0.63556546 -3.666718 -0.091423996 0
-0.94647944 -4.9744902 -0.089730285 0
-2.4044406 -11.106994 -0.14082746 0
-0.18651709 -1.8768814 -0.09186063 0
-0.21011676 -1.9886029 -0.091404192 0
-0.2397577 -2.1289239 -0.090462737 0
-0.28083614 -2.3233902 -0.090653874 0
-0.33780921 -2.5931022 -0.090608455 0
-0.4249 -3.0053923 -0.091365717 0
