# .PCD v0.7 - Point Cloud Data file format
VERSION 0.7
FIELDS x y z intensity
SIZE 4 4 4 4
TYPE F F F F
COUNT 1 1 1 1
WIDTH 1323
HEIGHT 1
VIEWPOINT 0 0 0 1 0 0 0
POINTS 1323
DATA ascii
-0.6183722 1.6067748 0.066864856 0
-0.62401986 1.613989 0.19020218 0
-1.0970032 2.2181618 0.45349759 0
-1.1001712 2.2222085 0.64036793 0
-0.10990681 0.95727831 0.44629094 0
-0.54362088 1.4794536 -0.049644988 0
-0.61927295 1.5736216 0.065957442 0
-0.61321533 1.5660814 0.18544658 0
-1.1100463 2.1845126 0.45020437 0
-1.109328 2.1836188 0.63410538 0
-0.12823267 0.96239811 0.45399567 0
-0.56074172 1.4693698 -0.049751572 0
-0.61875296 1.5397458 0.065007649 0
-0.61478519 1.5349323 0.18295656 0
-1.1233159 2.1518538 0.44714642 0
-1.1274359 2.156852 0.6317246 0
-0.13878681 0.95747721 0.45541912 0
-0.57405388 1.454661 -0.049653072 0
-0.61809134 1.5067348 0.06408783 0
-0.61913776 1.5079722 0.18103224 0
-1.1475744 2.1328425 0.44731852 0
-1.1384921 2.1221027 0.62672693 0
-0.14423312 0.94640267 0.45291215 0
-0.58679461 1.4393948 -0.049535032 0
-0.61595547 1.4730096 0.063123763 0
-0.61871433 1.4761897 0.17840844 0
-1.154368 2.0936551 0.44274786 0
-1.1651053 2.1060321 0.62803 0
-0.60697842 1.432614 -0.04982879 0
-0.63612962 1.4653748 0.06339439 0
-0.63317454 1.4620539 0.17829292 0
-1.1717649 2.0673363 0.44125289 0
-1.1731162 2.068855 0.6222533 0
-0.62061608 1.4183482 -0.049776379 0
-0.66283655 1.4646105 0.064012423 0
-0.66386497 1.4657373 0.18079503 0
-1.1783704 2.0294957 0.43698061 0
-1.1834708 2.0350842 0.61762124 0
-0.63885653 1.4090497 -0.049974598 0
-0.50773656 1.2689618 0.055124313 0
-0.68217719 1.4553332 0.18130969 0
-1.187481 1.9951977 0.43355322 0
-1.1966965 2.0050433 0.61428285 0
-0.65639806 1.3988167 -0.050140277 0
-0.5121823 1.2485744 0.054705236 0
-0.70575488 1.450236 0.18265527 0
-1.1938572 1.9587348 0.42957151 0
-1.196115 1.961087 0.60604137 0
-0.66214168 1.3764274 -0.049710032 0
-0.5153423 1.2272985 0.054239206 0
-0.75000286 1.4656829 0.18716024 0
-1.210362 1.9333472 0.42836314 0
-1.2106061 1.9335952 0.60358882 0
-0.67367601 1.3601972 -0.049590379 0
-0.52109885 1.2090535 0.053922981 0
-0.77667141 1.4622248 0.1889205 0
-1.2161535 1.897578 0.42453179 0
-1.218592 1.8999935 0.59895569 0
-0.69976676 1.3581409 -0.050204925 0
-0.54924786 1.2127453 0.054733556 0
-0.80642891 1.4611727 0.19112757 0
-1.2256553 1.8661299 0.42179069 0
-1.2249649 1.8654629 0.59395736 0
-0.71023381 1.3407688 -0.050047245 0
-0.56436098 1.2033691 0.054892939 0
-0.843732 1.4665127 0.19442461 0
-1.2283131 1.8287548 0.417485 0
-1.2219183 1.8227315 0.58586991 0
-0.72217429 1.3248966 -0.049973458 0
-0.86758876 1.4584495 0.069022246 0
-0.87319696 1.4636002 0.19653016 0
-1.2384251 1.799036 0.41517004 0
-1.22765 1.7891399 0.5811038 0
-0.23858298 0.88075262 0.38328066 0
-0.73122728 1.3065044 -0.049771763 0
-0.89745736 1.4553601 0.069738068 0
-0.90188718 1.459327 0.19850567 0
-1.2315103 1.7544978 0.40885016 0
-1.2302213 1.7533435 0.57545435 0
-0.23774196 0.86459821 0.37852946 0
-0.7479502 1.2949932 -0.049946811 0
-0.9392997 1.4620495 0.071015388 0
-1.2386292 1.723377 0.40609413 0
-1.2409507 1.7254038 0.57278323 0
-0.23009111 0.84287971 0.37019974 0
-0.76675248 1.2850853 -0.050224304 0
-0.96645141 1.455048 0.071586408 0
-1.2420237 1.6895859 0.4025788 0
-1.2462808 1.6932091 0.56845021 0
-0.23581655 0.83320862 0.36938086 0
-0.25577408 0.85019439 0.45823875 0
-0.7726661 1.2642264 -0.049906857 0
-1.0109277 1.4618909 0.072959259 0
-1.2466847 1.6574775 0.39949697 0
-1.237427 1.6497973 0.55959535 0
-0.25528646 0.83500254 0.37603045 0
-0.79528511 1.2571591 -0.050371718 0
-1.0535489 1.465984 0.074229062 0
-1.2527356 1.6270409 0.39686304 0
-1.2410263 1.617573 0.55509627 0
-0.2532382 0.81887513 0.37114328 0
-0.79545021 1.2319776 -0.049815476 0
-1.083678 1.4590888 0.074916176 0
-1.2549299 1.5940279 0.39345801 0
-1.2364393 1.5794581 0.54811507 0
-0.26688361 0.81548977 0.37468442 0
-0.81466889 1.2219151 -0.050136518 0
-1.1225095 1.4582589 0.075992301 0
-1.2443141 1.551774 0.38726804 0
-1.2412777 1.5494428 0.54438782 0
-0.26006383 0.79611856 0.36753136 0
-0.25728917 0.79398829 0.44114098 0
-0.81348479 1.1963062 -0.049550623 0
-1.1829281 1.4726218 0.078021213 0
-1.2556727 1.5270293 0.3862054 0
-1.2387723 1.514389 0.53847677 0
-0.2588923 0.78151292 0.36349234 0
-0.28532439 0.80128211 0.45452514 0
-0.83006215 1.1841434 -0.049768906 0
-1.2121451 1.4624798 0.078645408 0
-1.2413857 1.4837809 0.37950006 0
-1.246825 1.4877431 0.53609234 0
-1.2419229 1.4841721 0.69522685 0
-0.26477879 0.77235061 0.36320031 0
-0.27035993 0.7764163 0.44111222 0
-0.84907782 1.1735176 -0.050098713 0
-1.2589729 1.4642859 0.080040522 0
-1.250585 1.4583356 0.37816852 0
-1.2443657 1.4539238 0.53054631 0
-1.2437744 1.4535043 0.68977135 0
-0.27815986 0.76852435 0.36677414 0
-0.28463489 0.7731176 0.44594824 0
-0.86783648 1.1624279 -0.050420344 0
-1.3086039 1.4668267 0.081544191 0
-1.2536811 1.4288964 0.37558138 0
-1.2389632 1.4187322 0.52426839 0
-1.2396622 1.4192148 0.6821087 0
-0.28802937 0.76200682 0.44415182 0
-0.87547994 1.1435897 -0.05026716 0
-1.2758015 1.4126753 0.079487778 0
-1.2733752 1.4110444 0.22690137 0
-1.2487333 1.3944807 0.37134895 0
-1.2426926 1.3904203 0.52098745 0
-1.2434419 1.390924 0.67784804 0
-0.29103535 0.75074172 0.44222099 0
-0.88695109 1.1273804 -0.050288681 0
-1.2756261 1.3815913 0.078869283 0
-1.2709798 1.3785524 0.22475706 0
-1.2536281 1.3672037 0.36936611 0
-1.2387428 1.3574681 0.51550144 0
-1.2369062 1.3562669 0.66966379 0
-0.29885948 0.74274194 0.44327176 0
-0.8882879 1.1047016 -0.04988987 0
-1.2820615 1.3552256 0.078552075 0
-1.280023 1.3539287 0.22413921 0
-1.2409363 1.3290613 0.36371356 0
-1.237317 1.3267586 0.51094842 0
-1.2374656 1.3268532 0.66451538 0
-0.30145633 0.73135173 0.44127417 0
-0.89552319 1.0859994 -0.049753822 0
-1.2882023 1.328936 0.078238972 0
-1.2915645 1.3310161 0.22388123 0
-1.2461228 1.3029029 0.36199862 0
-1.2376496 1.2976608 0.50707477 0
-1.2335056 1.2950971 0.65778428 0
-0.91503096 1.0747857 -0.050139915 0
-1.2976274 1.3048744 0.078078888 0
-1.3123245 1.3137131 0.22481754 0
-1.2421666 1.271521 0.35844213 0
-1.2437646 1.272482 0.50506139 0
-1.2428112 1.2719086 0.6564098 0
-0.91942382 1.0544204 -0.049904037 0
-1.3381851 1.2991319 0.079219885 0
-1.3325676 1.2958492 0.2257099 0
-1.2505317 1.2479099 0.35756826 0
-1.2318921 1.2370174 0.49784142 0
-1.2395492 1.241492 0.65031564 0
-0.92278719 1.0336585 -0.049638141 0
-1.3701811 1.2875997 0.080004275 0
-1.3767503 1.2913284 0.22958212 0
-1.2494609 1.2190788 0.3548058 0
-1.2450272 1.2165622 0.49814072 0
-1.2410921 1.2143286 0.64625001 0
-0.9411813 1.0213901 -0.049997482 0
-1.2473418 1.1901059 0.3519215 0
-1.2485353 1.1907637 0.49570885 0
-1.238698 1.1853427 0.64084738 0
-0.94948602 1.0034353 -0.049952216 0
-1.2525378 1.1654974 0.35062754 0
-1.2425801 1.1601723 0.49064967 0
-1.2378953 1.157667 0.6362195 0
-0.96598077 0.98976088 -0.050245747 0
-1.2546614 1.1394944 0.34878096 0
-1.2347578 1.1291708 0.4851979 0
-1.2394831 1.1316217 0.63264883 0
-0.97046006 0.96980989 -0.050064195 0
-1.2676713 1.1192495 0.3492099 0
-1.2339211 1.1022797 0.48188719 0
-1.2479578 1.1093373 0.63178766 0
-0.97624338 0.95063305 -0.049945544 0
-1.2858294 1.1014415 0.35072026 0
-1.2404046 1.0793138 0.48077059 0
-1.2431986 1.0806748 0.62613857 0
-0.98504627 0.93296939 -0.049956348 0
-1.2778351 1.0710616 0.34705171 0
-1.2427634 1.0545202 0.47857887 0
-1.2430427 1.054652 0.62234932 0
-0.98574865 0.91159737 -0.049657959 0
-1.3077534 1.0585417 0.35099605 0
-1.2316697 1.0238214 0.47271487 0
-1.2486489 1.0315697 0.62080914 0
-1.0097795 0.9007448 -0.050282069 0
-1.3066308 1.0317198 0.34883079 0
-1.2388351 1.0018073 0.47208324 0
-1.233134 0.99929196 0.6117031 0
-1.014989 0.88138765 -0.050177719 0
-1.3251109 1.0135783 0.35058662 0
-1.2336527 0.97459382 0.46810749 0
-1.2355201 0.97538984 0.60926718 0
-1.0203801 0.86218137 -0.05009035 0
-1.3280053 0.98875469 0.34933859 0
-1.2457895 0.95492673 0.46902519 0
-1.2362226 0.95099044 0.60634679 0
-1.0261716 0.84319693 -0.050028108 0
-1.3342769 0.96545464 0.34881282 0
-1.2418513 0.92877966 0.46559411 0
-1.2339795 0.92565608 0.60249674 0
-1.0359311 0.82577306 -0.050126988 0
-1.3470755 0.94472432 0.3496066 0
-1.2377551 0.90293086 0.46222648 0
-1.2421737 0.90462011 0.60249674 0
-1.0317494 0.80314207 -0.049703434 0
-1.3604395 0.92408001 0.35055566 0
-1.2376213 0.8788904 0.46004039 0
-1.2507628 0.88372564 0.60273087 0
-1.0495176 0.78858852 -0.0501238 0
-1.3711795 0.90236288 0.35104835 0
-1.2438904 0.85733974 0.4596788 0
-1.240491 0.85613734 0.59640115 0
-1.0526226 0.76873881 -0.049996432 0
-1.3771446 0.87894756 0.35068172 0
-1.235688 0.83090842 0.45549282 0
-1.2404089 0.83251166 0.5938009 0
-1.0534539 0.74823999 -0.049793627 0
-1.3895555 0.85768092 0.35159519 0
-1.2448045 0.81054729 0.45606044 0
-1.240965 0.80929708 0.59153897 0
-1.0657493 0.73146164 -0.050029997 0
-1.3860291 0.83130819 0.34954506 0
-1.2449987 0.78734225 0.45431003 0
-1.2377118 0.7850706 0.58806038 0
-1.0723873 0.71282017 -0.050062612 0
-1.3926072 0.80824125 0.34946674 0
-1.2562575 0.76761097 0.45558974 0
-1.2404475 0.76289982 0.58678007 0
-1.0724021 0.69226843 -0.049858011 0
-1.4015265 0.78584737 0.34988225 0
-1.2406204 0.74009746 0.44979689 0
-1.2427224 0.74069506 0.58544165 0
-1.0837471 0.67493081 -0.050082769 0
-1.4166102 0.76505858 0.3515009 0
-1.2481201 0.71943724 0.45023102 0
-1.2415155 0.71764898 0.5830043 0
-1.0916741 0.65654671 -0.050188851 0
-1.4242756 0.74212372 0.35178167 0
-1.2334082 0.69301432 0.4448809 0
-1.2475404 0.69665051 0.58315897 0
-1.0863298 0.63484538 -0.049815439 0
-1.4186743 0.71590871 0.34965247 0
-1.2389755 0.67207772 0.44496027 0
-1.24535 0.67363256 0.58059055 0
-1.0989928 0.6175639 -0.050112896 0
-1.4170936 0.69092202 0.34833482 0
-1.243297 0.65084225 0.44478235 0
-1.2410971 0.65033495 0.57742453 0
-1.0987555 0.59726006 -0.049946185 0
-1.4293258 0.66912252 0.34962824 0
-1.2421364 0.62842953 0.4432435 0
-1.2454866 0.62915784 0.57730961 0
-1.0959618 0.5765509 -0.049696084 0
-1.4235817 0.64346337 0.34766001 0
-1.2350279 0.60495353 0.44023341 0
-1.2448863 0.60696697 0.57559127 0
-1.1062294 0.55851495 -0.049930818 0
-1.4351933 0.62139779 0.34894264 0
-1.2530487 0.5865801 0.44383475 0
-1.2329888 0.58274555 0.57014537 0
-1.1029712 0.53789818 -0.049682781 0
-1.4423307 0.59834945 0.34945375 0
-1.2361579 0.56162322 0.4384408 0
-1.2442456 0.56306392 0.57263935 0
-1.1170506 0.52031934 -0.050072029 0
-1.4532001 0.57584131 0.35069907 0
-1.2446195 0.54138994 0.43969527 0
-1.2334714 0.53954864 0.56778288 0
-1.1171978 0.5003382 -0.049965397 0
-1.4654976 0.55337095 0.3522543 0
-1.2367948 0.51854825 0.43681008 0
-1.2372781 0.5186218 0.56794238 0
-1.1008558 0.47813123 -0.049273659 0
-1.4682652 0.52934891 0.35212305 0
-1.233345 0.49660054 0.4351311 0
-1.2379364 0.49724057 0.56713259 0
-1.1124427 0.45994839 -0.049598143 0
-1.4695112 0.50514889 0.35177043 0
-1.2378422 0.47582242 0.43556961 0
-1.2457734 0.47682643 0.56882185 0
-1.1291435 0.44211408 -0.050114151 0
-0.5210709 0.3729068 0.040265024 0
-0.49932003 0.37043124 0.10679315 0
-0.51306891 0.37199605 0.17764078 0
-1.2419051 0.45494798 0.43596321 0
-1.2395579 0.45468083 0.56588948 0
-1.1238779 0.42169055 -0.049849339 0
-0.50771457 0.35941055 0.03973943 0
-0.52059919 0.36071289 0.10895539 0
-0.50698936 0.35933724 0.17630669 0
-1.2464418 0.43407899 0.43654531 0
-1.2322371 0.4326432 0.56268454 0
-1.1225814 0.40180215 -0.049736299 0
-0.50105852 0.34687665 0.10672447 0
-0.51133901 0.34778517 0.17689121 0
-1.2437595 0.41251096 0.43534508 0
-1.2366291 0.41188082 0.56348789 0
-1.1210999 0.38197657 -0.049625717 0
-0.51921821 0.33641654 0.10857768 0
-0.51695925 0.33624554 0.17773128 0
-1.2427654 0.39118615 0.43464747 0
-1.2435993 0.39124927 0.56523788 0
-1.1415415 0.36360812 -0.050308391 0
-0.51268631 0.32396278 0.10778474 0
-0.50996345 0.32379112 0.17631717 0
-1.2421086 0.36994827 0.43410534 0
-1.2373869 0.36965057 0.56267869 0
-1.2346324 0.36947694 0.69764066 0
-1.1303952 0.34316203 -0.049869742 0
-0.49415874 0.31108844 0.10571839 0
-0.50109601 0.31143814 0.17459428 0
-1.2486192 0.3491219 0.43546283 0
-1.229659 0.34816608 0.55970693 0
-1.2336468 0.34836709 0.69673824 0
-0.35121781 0.30388257 0.47139764 0
-1.1326814 0.32353011 -0.049920402 0
-0.50635135 0.29985783 0.1069743 0
-0.51546997 0.30020246 0.17709488 0
-1.2326554 0.32730865 0.43114865 0
-1.2446827 0.32776323 0.56440145 0
-1.2373548 0.32748628 0.69789112 0
-0.35736454 0.29422683 0.47478718 0
-1.1349185 0.30385807 -0.04997813 0
-0.41614586 0.28575143 0.35749897 0
-0.41225868 0.2856535 0.42882207 0
-0.38717908 0.28502172 0.49228838 0
-1.1326865 0.2840859 -0.049885124 0
-0.39833117 0.27483681 0.42175245 0
-0.37149596 0.27449882 0.48287115 0
-1.136711 0.26437622 -0.050024372 0
-0.39519727 0.26437426 0.42015144 0
-0.39065397 0.26437426 0.49419495 0
-0.90570933 -0.98929477 -0.091756068 0
-1.0147088 -0.98929507 -0.090334497 0
-1.1252589 -0.98929536 -0.084127568 0
-1.1242832 -0.98929536 -0.057167295 0
-1.1279452 -0.98929536 -0.030970162 0
-1.1378555 -0.98929536 -0.0053283628 0
-1.1244707 -0.98929536 0.022291185 0
-1.1260724 -0.98929536 0.04850113 0
-1.1321654 -0.98929536 0.074624397 0
-1.1316993 -0.98929536 0.10100273 0
-1.131135 -0.98929536 0.12735711 0
-1.1303328 -0.98929536 0.15370274 0
-1.1313856 -0.98929536 0.180198 0
-1.1285847 -0.98929536 0.20646888 0
-1.1205668 -0.9892953 0.23211353 0
-1.1261637 -0.98929536 0.25943798 0
-1.1282109 -0.98929536 0.28661972 0
-1.129006 -0.98929536 0.3138701 0
-0.89674181 -1.0119522 -0.089910708 0
-1.0149785 -1.0149367 -0.090446271 0
-1.1351793 -1.0179708 -0.085817464 0
-1.1293706 -1.0178242 -0.057932843 0
-1.1247339 -1.0177071 -0.030636748 0
-1.1364976 -1.0180041 -0.0052354466 0
-1.1251088 -1.0177165 0.022221493 0
-1.1221018 -1.0176407 0.048669323 0
-1.1274238 -1.0177749 0.074726284 0
-1.1354026 -1.0179764 0.10100285 0
-1.1241239 -1.0176917 0.12720206 0
-1.1271454 -1.017768 0.15357092 0
-1.1272048 -1.0177695 0.17993063 0
-1.1295571 -1.0178288 0.20659333 0
-1.1343026 -1.0179486 0.23376195 0
-1.1272821 -1.0177715 0.25964576 0
-1.1244736 -1.0177006 0.28606421 0
-1.1294121 -1.0178252 0.31401446 0
-0.89544088 -1.0345728 -0.089816324 0
-1.0190076 -1.0408145 -0.091389127 0
-1.1159817 -1.0457129 -0.082836889 0
-1.1262459 -1.0462315 -0.057645086 0
-1.2395129 -1.051953 -0.044194285 0
-1.2288568 -1.0514146 -0.013968816 0
-1.2387683 -1.0519153 0.014190199 0
-1.2345111 -1.0517002 0.043379467 0
-1.2302896 -1.051487 0.072306462 0
-1.2514162 -1.0525541 0.10100619 0
-1.2438242 -1.0521706 0.13002062 0
-1.2303444 -1.0514898 0.15843764 0
-1.2409754 -1.0520267 0.18797643 0
-1.2369777 -1.0518248 0.21673998 0
-0.90080619 -1.0576911 -0.091264449 0
-1.0150397 -1.0663556 -0.090946503 0
-1.1309114 -1.0751443 -0.085590892 0
-1.1285425 -1.0749646 -0.058221836 0
-1.2367527 -1.0831722 -0.04410236 0
-1.2292609 -1.0826039 -0.014190016 0
-1.2335656 -1.0829304 0.01441651 0
-1.2509658 -1.0842502 0.042519346 0
-1.2292085 -1.0826 0.072285943 0
-1.2402924 -1.0834407 0.10100593 0
-1.2496185 -1.084148 0.13020241 0
-1.2454933 -1.0838351 0.15923747 0
-1.2371475 -1.0832021 0.18784665 0
-1.2424769 -1.0836064 0.21743977 0
-0.90415704 -1.0809654 -0.092410393 0
-1.0011959 -1.0907936 -0.088755019 0
-1.1562095 -1.1064936 -0.090187289 0
-1.2380677 -1.1147844 -0.07404878 0
-1.2381252 -1.1147902 -0.044588123 0
-1.2444798 -1.1154338 -0.015875442 0
-1.2447749 -1.1154636 0.013435246 0
-1.238434 -1.1148214 0.042974986 0
-1.2305372 -1.1140217 0.072190724 0
-1.238842 -1.1148628 0.10100597 0
-1.2292747 -1.1138937 0.12979122 0
-1.2422762 -1.1152105 0.1592171 0
-1.2397103 -1.1149507 0.18822123 0
-1.9906288 -1.1910049 0.28793362 0
-1.9890466 -1.1908445 0.33485633 0
-1.9188184 -1.1837318 0.37226042 0
-1.4746274 -1.1387434 0.38041097 0
-0.89327407 -1.102723 -0.090635888 0
-1.0094184 -1.1174554 -0.090862937 0
-1.1478516 -1.1350149 -0.089353569 0
-1.2004282 -1.1416839 -0.069221161 0
-1.2428372 -1.1470633 -0.045562763 0
-1.2441487 -1.1472297 -0.01618105 0
-1.2369473 -1.1463162 0.013734566 0
-1.2390919 -1.1465882 0.042776965 0
-1.2431871 -1.1471076 0.071811303 0
-1.2342331 -1.1459719 0.10100594 0
-1.2339971 -1.145942 0.12998523 0
-1.249038 -1.1478498 0.15970267 0
-1.2394904 -1.1466388 0.18845718 0
-1.6070327 -1.1932596 0.36746112 0
-1.478531 -1.1769598 0.38195771 0
-0.88965458 -1.1251775 -0.090534218 0
-1.0003722 -1.1420699 -0.089816771 0
-1.1471736 -1.1644678 -0.089912944 0
-1.1932013 -1.1714903 -0.06879475 0
-1.6319028 -1.2384239 -0.092077769 0
-2.5543811 -1.3791685 -0.1403075 0
-3.4067731 -1.5092198 -0.14002015 0
-5.1340942 -1.772761 -0.1408574 0
-10.278608 -2.5576708 -0.14080028 0
-1.3478235 -1.1950814 0.29279622 0
-1.3627926 -1.1973653 0.32778198 0
-1.3616933 -1.1971976 0.36068177 0
-0.895392 -1.1492925 -0.092574559 0
-0.99462074 -1.1670046 -0.089514844 0
-1.1397877 -1.1929168 -0.089478768 0
-1.1932739 -1.202464 -0.069515638 0
-1.5999238 -1.2750504 -0.089089192 0
-2.5597785 -1.446383 -0.14182909 0
-3.3957913 -1.5956101 -0.14024891 0
-5.1059613 -1.9008729 -0.14053909 0
-10.239432 -2.8171902 -0.14088693 0
-1.3289651 -1.2266846 0.29090583 0
-1.3284101 -1.2265855 0.32298911 0
-1.3290299 -1.2266961 0.35551739 0
-0.88009608 -1.1696118 -0.090193652 0
-1.0023029 -1.1946226 -0.09191478 0
-1.1313717 -1.2210379 -0.088989727 0
-1.1854343 -1.2321023 -0.069217153 0
-1.6038773 -1.3177406 -0.090481736 0
-2.5404229 -1.5094136 -0.14116144 0
-3.3881142 -1.6829017 -0.14086989 0
-5.0920229 -2.0316231 -0.14104697 0
-10.184346 -3.0738161 -0.14075151 0
-1.2542015 -1.2461761 0.31161132 0
-1.2288193 -1.2409813 0.3374787 0
-0.87713158 -1.1922158 -0.090600662 0
-0.99674857 -1.2198584 -0.091904275 0
-1.1333058 -1.2514157 -0.090363093 0
-1.1903963 -1.2646089 -0.070870973 0
-1.5955584 -1.3582387 -0.09053921 0
-2.5148578 -1.5706817 -0.140047 0
-3.3635328 -1.766804 -0.14043923 0
-5.0574341 -2.1582515 -0.14072834 0
-10.132201 -3.3309913 -0.14083962 0
-0.86956769 -1.2137487 -0.090125538 0
-0.98506081 -1.2435268 -0.090824209 0
-1.1208601 -1.2785406 -0.089434542 0
-1.3141491 -1.3283774 -0.089894526 0
-1.5962696 -1.4011179 -0.091809936 0
-1.9855707 -1.5014935 -0.090518646 0
-3.3460851 -1.8522818 -0.14067321 0
-5.0356927 -2.2879219 -0.14117847 0
-10.063037 -3.5841482 -0.14067502 0
-0.85530037 -1.2332692 -0.088285111 0
-0.97977769 -1.2687364 -0.091107287 0
-1.1210061 -1.3089763 -0.090767704 0
-1.3077652 -1.3621893 -0.09027303 0
-1.5841391 -1.440936 -0.091660298 0
-1.971959 -1.5514369 -0.090513222 0
-3.3369691 -1.9403669 -0.14167079 0
-4.9980211 -2.4136477 -0.14101863 0
-10.00647 -3.8406966 -0.14096773 0
-0.8574872 -1.2574877 -0.090203665 0
-0.97450602 -1.294046 -0.091519929 0
-1.1003199 -1.333352 -0.08865615 0
-1.2971927 -1.3948579 -0.090163 0
-1.5750794 -1.4816736 -0.092008077 0
-1.9607781 -1.6021713 -0.090868257 0
-3.3029537 -2.0214856 -0.14101483 0
-4.9630022 -2.540108 -0.14114106 0
-9.9132624 -4.0866385 -0.14052737 0
-0.8540839 -1.2802999 -0.091020249 0
-0.95818174 -1.3157282 -0.08986368 0
-1.0993426 -1.3637704 -0.09005446 0
-1.2885493 -1.4281644 -0.090460308 0
-1.5526364 -1.5180429 -0.090833016 0
-1.9358933 -1.6484792 -0.09000092 0
-3.2779908 -2.1052439 -0.14117229 0
-4.916122 -2.66276 -0.14083758 0
-9.8450336 -4.3402486 -0.14084853 0
-0.84798568 -1.3023404 -0.091363795 0
-0.95716584 -1.3425997 -0.091374464 0
-1.0888871 -1.3911711 -0.089939423 0
-1.2712854 -1.4584292 -0.089594521 0
-1.5429895 -1.5586182 -0.09135478 0
-1.9220768 -1.698404 -0.09034235 0
-3.241379 -2.1848874 -0.14062005 0
-4.8775654 -2.7882197 -0.14109719 0
-9.7513733 -4.5854025 -0.1407004 0
-0.82918763 -1.3194337 -0.088932313 0
-0.93925953 -1.3632075 -0.089613624 0
-1.0672619 -1.4141119 -0.087969355 0
-1.262174 -1.4916252 -0.09006796 0
-1.5174114 -1.5931287 -0.090006195 0
-1.8990315 -1.7448926 -0.089886151 0
-3.210182 -2.266315 -0.14062014 0
-4.8259749 -2.9088883 -0.14086427 0
-9.6614609 -4.8318796 -0.14079861 0
-0.83439761 -1.3461716 -0.092123084 0
-0.93793929 -1.3904057 -0.091336839 0
-1.0682214 -1.4460635 -0.090117268 0
-1.244354 -1.5213091 -0.089343034 0
-1.5036991 -1.632104 -0.090261228 0
-1.8930777 -1.7984505 -0.091278307 0
-3.1778626 -2.3473234 -0.14069034 0
-4.7829771 -3.0330446 -0.14121723 0
-9.5484438 -5.0689001 -0.14047024 0
-0.82317913 -1.3662442 -0.091667719 0
-0.93337733 -1.4166467 -0.092550017 0
-1.0516254 -1.4707311 -0.089262269 0
-1.2365774 -1.5553247 -0.090276919 0
-1.4919356 -1.6721206 -0.090895362 0
-1.865527 -1.8429941 -0.090607874 0
-3.1359494 -2.4240608 -0.14018014 0
-4.7260656 -3.1513493 -0.14102153 0
-9.4517756 -5.3127985 -0.14070812 0
-0.80572271 -1.383167 -0.089850284 0
-0.91748571 -1.437736 -0.091541491 0
-1.0420656 -1.4985629 -0.089796789 0
-1.2153881 -1.5831888 -0.089258231 0
-1.4746743 -1.7097868 -0.090952896 0
-1.851127 -1.8935921 -0.091411211 0
-3.1121569 -2.5092976 -0.14122315 0
-4.6669292 -3.2684247 -0.14086194 0
-9.3382282 -5.5492148 -0.14067054 0
-0.79527944 -1.4032662 -0.089790724 0
-0.90617484 -1.4609209 -0.091604359 0
-1.0265567 -1.5235077 -0.089365639 0
-1.2064182 -1.617018 -0.09027224 0
-1.4500271 -1.7436708 -0.090162732 0
-1.8081527 -1.9298609 -0.0893526 0
-3.0682111 -2.5849676 -0.14086042 0
-4.615767 -3.3895452 -0.14127272 0
-9.2276201 -5.7872562 -0.14086488 0
-0.7814377 -1.4214883 -0.089027427 0
-0.88727027 -1.4799491 -0.090159215 0
-1.0195947 -1.5530437 -0.09065064 0
-1.1898625 -1.6470978 -0.09021876 0
-1.4276084 -1.7784261 -0.08977244 0
-1.8099294 -1.9896162 -0.092134051 0
-3.0268447 -2.6618271 -0.14085014 0
-4.5493016 -3.502816 -0.14103682 0
-9.0929108 -6.0126567 -0.1405803 0
-0.78449136 -1.4494144 -0.092527412 0
-0.87813371 -1.5042697 -0.09092889 0
-0.99979728 -1.5755396 -0.089650936 0
-1.1687785 -1.6745281 -0.089549713 0
-1.4115504 -1.8167427 -0.090355881 0
-1.7767944 -2.0307009 -0.091342278 0
-2.9838595 -2.7377939 -0.14086458 0
-4.4819784 -3.6153851 -0.14090434 0
-8.9703007 -6.2446237 -0.14076972 0
-0.75508749 -1.4582049 -0.088139109 0
-0.87041783 -1.5297332 -0.09216059 0
-0.9867779 -1.6019002 -0.090055279 0
-1.1478182 -1.7017781 -0.089004211 0
-1.3841887 -1.8483759 -0.08952596 0
-1.7513845 -2.0761123 -0.09149953 0
-2.9322598 -2.8084958 -0.14032716 0
-4.4115133 -3.7259347 -0.14075209 0
-8.8370705 -6.4706831 -0.14083055 0
-0.75036365 -1.4819498 -0.090006821 0
-0.85231799 -1.548802 -0.091217645 0
-0.9759258 -1.6298525 -0.091022037 0
-1.133695 -1.733303 -0.089713238 0
-1.3660085 -1.8856325 -0.090076096 0
-1.7147269 -2.1142895 -0.09053091 0
-2.8875659 -2.8833282 -0.14050606 0
-4.3433018 -3.8378644 -0.14087686 0
-8.6979294 -6.6932244 -0.14088541 0
-0.73792332 -1.5009086 -0.090066068 0
-0.82855558 -1.5636629 -0.089070164 0
-0.95079786 -1.648304 -0.089291863 0
-1.1118596 -1.7598239 -0.089251362 0
-1.3402033 -1.9179302 -0.089684524 0
-1.6964291 -2.1645827 -0.091738097 0
-2.837517 -2.9546776 -0.14039205 0
-4.2719841 -3.9479096 -0.14098659 0
-8.5458632 -6.9071641 -0.14073321 0
-0.72759438 -1.5214449 -0.090807013 0
-0.8187955 -1.5880589 -0.09023542 0
-0.94460708 -1.6799527 -0.091477655 0
-1.0881811 -1.7848204 -0.088575624 0
-1.3259528 -1.9584908 -0.091074936 0
-1.6595047 -2.2021198 -0.090960167 0
-2.7812741 -3.0214694 -0.1398942 0
-4.1908283 -4.0510192 -0.14068988 0
-8.39645 -7.1228399 -0.14080869 0
-0.71140695 -1.5377113 -0.090128653 0
-0.81100702 -1.6143873 -0.092037179 0
-0.91920054 -1.6976788 -0.08988484 0
-1.0741097 -1.816934 -0.089701332 0
-1.3036971 -1.9936794 -0.091461442 0
-1.6229634 -2.2394631 -0.090322681 0
-2.7326038 -3.0937076 -0.14020205 0
-4.1124783 -4.1559887 -0.14070366 0
-8.2343874 -7.329195 -0.14067273 0
-0.69885784 -1.556739 -0.090543188 0
-0.78882635 -1.6296884 -0.090545781 0
-0.90738887 -1.7258227 -0.091229387 0
-1.0647708 -1.8534331 -0.091851763 0
-1.2734346 -2.0226245 -0.090783529 0
-1.5902071 -2.279474 -0.090238996 0
-2.6879349 -3.1695473 -0.14103886 0
-4.0346198 -4.2614832 -0.14090446 0
-8.0789566 -7.5407634 -0.14088684 0
-0.68347025 -1.5734923 -0.090306334 0
-0.7755332 -1.6520716 -0.091317438 0
-0.8930254 -1.7523558 -0.092203714 0
-1.035854 -1.8742657 -0.090600081 0
-1.2474067 -2.0548341 -0.090852641 0
-1.5623701 -2.3236675 -0.090879835 0
-2.6277797 -3.233036 -0.14064464 0
-3.951009 -4.3624635 -0.14091881 0
-7.9071169 -7.7391553 -0.14076555 0
-0.66984689 -1.5917741 -0.09068761 0
-0.7535761 -1.6669735 -0.090054817 0
-0.86849082 -1.7701813 -0.091099821 0
-1.0170833 -1.903636 -0.091334514 0
-1.2144154 -2.0808651 -0.089955784 0
-1.5249188 -2.3597362 -0.09046758 0
-2.5669107 -3.2955759 -0.14032325 0
-3.8650146 -4.4614363 -0.14094208 0
-7.741477 -7.942987 -0.14099003 0
-0.64702708 -1.6015116 -0.088522173 0
-0.73184872 -1.6816494 -0.08891765 0
-0.84507215 -1.7886208 -0.090322189 0
-0.99028909 -1.925819 -0.090677105 0
-1.1891918 -2.1137385 -0.090390675 0
-1.4926769 -2.4004653 -0.090829872 0
-1.9824773 -2.8632195 -0.08978992 0
-3.7816496 -4.5630426 -0.1412925 0
-7.5565557 -8.1295023 -0.14076588 0
-0.64687723 -1.6330723 -0.093167983 0
-0.71806043 -1.7038082 -0.089956902 0
-0.8198182 -1.8049264 -0.089206137 0
-0.96830291 -1.9524779 -0.091065206 0
-1.1628475 -2.1457999 -0.090787001 0
-1.4563835 -2.4374912 -0.090801917 0
-1.9380192 -2.9160998 -0.090130351 0
-3.6846325 -4.6517363 -0.1409221 0
-7.3727765 -8.3167019 -0.14072593 0
-0.62711108 -1.6457467 -0.092148177 0
-0.70802778 -1.7303183 -0.09219759 0
-0.80378306 -1.8303986 -0.090348549 0
-0.94540977 -1.9784223 -0.091414355 0
-1.1342157 -2.1757562 -0.090942286 0
-1.4258577 -2.4805708 -0.091676496 0
-1.8867719 -2.9623034 -0.089926623 0
-3.5834293 -4.7355947 -0.14040877 0
-7.1865802 -8.5014915 -0.14076053 0
-0.60484695 -1.655337 -0.090410344 0
-0.68638444 -1.7449799 -0.091435961 0
-0.78415698 -1.8524718 -0.090800919 0
-0.92486429 -2.0071664 -0.092398606 0
-1.1055224 -2.2057836 -0.091220848 0
-1.3808439 -2.5084741 -0.090714745 0
-1.8471932 -3.0211823 -0.091049053 0
-3.4954367 -4.8332739 -0.14093953 0
-6.9987712 -8.6848679 -0.14089942 0
-0.59179223 -1.6749715 -0.091691919 0
-0.66117215 -1.7552264 -0.089729063 0
-0.76283574 -1.8728251 -0.090978749 0
-0.88847184 -2.0181539 -0.090160392 0
-1.0681081 -2.2259471 -0.090082698 0
-1.3457184 -2.5470712 -0.091234945 0
-1.7900128 -3.0610063 -0.090479784 0
-3.3963153 -4.9190869 -0.14086686 0
-6.8014135 -8.8579149 -0.14086521 0
-0.5710966 -1.6858052 -0.090618037 0
-0.64598137 -1.7769796 -0.09101855 0
-0.74179733 -1.8936383 -0.091366418 0
-0.85814798 -2.0352986 -0.089256652 0
-1.0401715 -2.2569177 -0.090746664 0
-1.3061322 -2.5807323 -0.091256537 0
-1.7421916 -3.1116474 -0.091032736 0
-3.2963569 -5.0038886 -0.14088708 0
-6.5938797 -9.0187178 -0.14061479 0
-0.55651611 -1.7040887 -0.091715537 0
-0.6246962 -1.791507 -0.090649478 0
-0.71556425 -1.9080151 -0.090516843 0
-0.8400088 -2.067574 -0.091204979 0
-1.0129032 -2.2892537 -0.091705687 0
-1.2729101 -2.6226263 -0.09237171 0
-1.6870629 -3.1536398 -0.090916269 0
-3.1945105 -5.0864406 -0.14092459 0
-6.3908134 -9.184638 -0.14067617 0
-0.53832811 -1.7179602 -0.091724269 0
-0.60469687 -1.807633 -0.090788938 0
-0.69020891 -1.923171 -0.089978971 0
-0.80862463 -2.0831661 -0.090281241 0
-0.97496814 -2.3079178 -0.090760149 0
-1.2242793 -2.6447699 -0.09127111 0
-1.6271585 -3.1891124 -0.090357102 0
-3.0860569 -5.1602745 -0.14060679 0
-6.1892204 -9.3530531 -0.14095829 0
-0.51103991 -1.7188934 -0.088493325 0
-0.58273506 -1.8210562 -0.090421237 0
-0.67232502 -1.9487185 -0.091666676 0
-0.77921021 -2.1010258 -0.089900278 0
-0.94195783 -2.3329351 -0.090876229 0
-1.1812038 -2.673852 -0.091122262 0
-1.5753124 -3.2354419 -0.090865292 0
-2.9799249 -5.2369614 -0.14061396 0
-5.9701896 -9.4979763 -0.14071405 0
-0.50046098 -1.743603 -0.091562174 0
-0.5567888 -1.8283371 -0.088796906 0
-0.64138192 -1.9555908 -0.089730598 0
-0.75382036 -2.1247323 -0.090638645 0
-0.90973252 -2.3592715 -0.091293462 0
-1.1358205 -2.6993766 -0.090700097 0
-1.5140184 -3.268301 -0.090345062 0
-2.8736 -5.3135233 -0.14076507 0
-5.7524419 -9.6441746 -0.14066516 0
-0.47884518 -1.7521603 -0.090594344 0
-0.54351085 -1.8549727 -0.091651656 0
-0.61639309 -1.9708487 -0.08960598 0
-0.7304129 -2.1521294 -0.092085443 0
-0.87412435 -2.3806171 -0.091128312 0
-1.0927311 -2.7281816 -0.09077365 0
-1.4561008 -3.3059056 -0.090353779 0
-2.760262 -5.3793993 -0.14047492 0
-5.5389676 -9.7972813 -0.14095898 0
-0.4598746 -1.7647475 -0.090773292 0
-0.51940393 -1.8649155 -0.090880536 0
-0.5925076 -1.9879247 -0.089952342 0
-0.69283193 -2.1567371 -0.089882426 0
-0.83266473 -2.392029 -0.089738198 0
-1.0394969 -2.7400589 -0.089127101 0
-1.3996699 -3.3461101 -0.0906936 0
-2.6535065 -5.4558992 -0.14092055 0
-5.3111539 -9.9278345 -0.14078534 0
-0.4434199 -1.7819386 -0.092189185 0
-0.49789229 -1.8790985 -0.091168188 0
-0.56620628 -2.000947 -0.089644529 0
-0.66308272 -2.1737413 -0.089861564 0
-0.79287374 -2.4052439 -0.088750415 0
-1.0011582 -2.7767518 -0.09030401 0
-1.3382782 -3.378058 -0.090481885 0
-2.5343716 -5.511476 -0.1403881 0
-5.083529 -10.058296 -0.14076605 0
-0.42094636 -1.7884799 -0.09112706 0
-0.47091794 -1.8831344 -0.089407258 0
-0.54433066 -2.0221903 -0.090992801 0
-0.63290769 -2.1899698 -0.089837842 0
-0.76061636 -2.4318712 -0.089681961 0
-0.95215333 -2.7946739 -0.089586951 0
-1.2781328 -3.4121335 -0.090564512 0
-1.9250658 -4.6375318 -0.091088183 0
-4.8525553 -10.182681 -0.14073938 0
-0.39941904 -1.7963941 -0.090539359 0
-0.45421284 -1.906846 -0.091949187 0
-0.5185203 -2.0364752 -0.091149695 0
-0.60301262 -2.2067926 -0.090027891 0
-0.72637677 -2.4554665 -0.090313263 0
-0.90829915 -2.8221807 -0.090007193 0
-1.2183567 -3.4471865 -0.090841658 0
-1.8277271 -4.6755385 -0.090598233 0
-4.6208253 -10.305789 -0.14083217 0
-0.37897968 -1.8063515 -0.090565614 0
-0.42850909 -1.9128604 -0.090873547 0
-0.48607621 -2.0366538 -0.088866718 0
-0.57063234 -2.2184846 -0.089538209 0
-0.68713838 -2.4690211 -0.089755096 0
-0.86294776 -2.8470845 -0.090269201 0
-1.1573849 -3.4802473 -0.091078989 0
-1.7393117 -4.7316322 -0.091169529 0
-4.3786659 -10.407343 -0.14052208 0
-0.36264366 -1.8258007 -0.092911787 0
-0.4064028 -1.9264692 -0.09150333 0
-0.46160528 -2.0534632 -0.089736633 0
-0.54366654 -2.2422464 -0.091029339 0
-0.65026999 -2.487489 -0.089956112 0
-0.81746614 -2.8721263 -0.090659596 0
-1.0926526 -3.5051968 -0.090813421 0
-1.6382154 -4.760272 -0.090454914 0
-4.1455498 -10.528431 -0.14086647 0
-0.33739504 -1.8247658 -0.090631537 0
-0.3798756 -1.9296552 -0.090122692 0
-0.43256348 -2.0597477 -0.08884152 0
-0.51152664 -2.2547171 -0.090897106 0
-0.61406577 -2.5078981 -0.090517797 0
-0.77523971 -2.9058554 -0.092037089 0
-1.0309278 -3.5371795 -0.091204889 0
-1.5438496 -4.8036432 -0.090616323 0
-3.9013736 -10.624646 -0.14073178 0
-0.31556332 -1.8313235 -0.090242378 0
-0.35688797 -1.9412525 -0.090582959 0
-0.40533382 -2.0701246 -0.088802747 0
-0.47654811 -2.2595639 -0.089743875 0
-0.57446158 -2.5200267 -0.090154953 0
-0.72305095 -2.9152937 -0.091086142 0
-0.96160221 -3.5498712 -0.090268858 0
-1.4452511 -4.8364401 -0.090369321 0
-3.6600845 -10.728186 -0.14093415 0
-0.29217955 -1.8331761 -0.088922419 0
-0.33318564 -1.9512179 -0.09083005 0
-0.38273779 -2.0938606 -0.091208689 0
-0.44299519 -2.2673197 -0.089165427 0
-0.53444415 -2.5305681 -0.089723162 0
-0.67504334 -2.9353025 -0.091318764 0
-0.89622372 -3.572001 -0.090169542 0
-1.3528646 -4.8865051 -0.091098718 0
-3.4106841 -10.810224 -0.14075609 0
-0.27282628 -1.8466673 -0.090342306 0
-0.31195614 -1.9691979 -0.092778616 0
-0.35564169 -2.1059942 -0.091692425 0
-0.40754625 -2.2685273 -0.087751023 0
-0.49655744 -2.5472555 -0.090173297 0
-0.62436116 -2.9474583 -0.090899266 0
-0.83166355 -3.596602 -0.090374 0
-1.2509481 -4.9095435 -0.090615891 0
-3.1620705 -10.894003 -0.14077628 0
-0.24979688 -1.8488131 -0.089348234 0
-0.28206789 -1.9594223 -0.089372702 0
-0.32116413 -2.093425 -0.088060968 0
-0.37800834 -2.2882593 -0.089190342 0
-0.45868877 -2.5647922 -0.090840377 0
-0.57260078 -2.9552269 -0.090181135 0
-0.76724118 -3.622359 -0.090780281 0
-1.1539448 -4.9477901 -0.090999372 0
-2.9094596 -10.964835 -0.14063528 0
-0.2297502 -1.8613667 -0.09077742 0
-0.25924933 -1.9728651 -0.090660565 0
-0.29767501 -2.1181035 -0.090934418 0
-0.34464493 -2.2956369 -0.088932894 0
-0.41923746 -2.5775757 -0.091044374 0
-0.52442956 -2.9751728 -0.090770073 0
-0.70078087 -3.6417317 -0.090840168 0
-1.0522227 -4.9700842 -0.090730391 0
-2.6569247 -11.035411 -0.14064294 0
-0.20659558 -1.8623767 -0.08978685 0
-0.23424831 -1.9786901 -0.090577789 0
-0.26664472 -2.1149564 -0.089190565 0
-0.31281024 -2.3091388 -0.089683674 0
-0.37591153 -2.5745566 -0.089468755 0
-0.47465849 -2.9899082 -0.090972625 0
-0.63386965 -3.6595852 -0.090911455 0
-0.94735163 -4.978159 -0.089905851 0
-2.4038513 -11.104516 -0.14076823 0
-0.18502481 -1.8698169 -0.090325855 0
-0.20783307 -1.9777918 -0.089322977 0
-0.24029179 -2.1314523 -0.09088745 0
-0.27860212 -2.3128142 -0.08913479 0
-0.33727989 -2.5905964 -0.090309136 0
-0.42480868 -3.0049601 -0.091324471 0
-0.56496686 -3.6684728 -0.090462707 0
-0.84637713 -5.0006762 -0.089899175 0
-2.1474471 -11.159976 -0.14072078 0
-0.16401012 -1.8810455 -0.091799252 0
-0.18407059 -1.9894738 -0.090611763 0
-0.2111896 -2.136054 -0.090699919 0
-0.24497688 -2.3186769 -0.089024745 0
-0.29751649 -2.6026573 -0.090788864 0
-0.37060711 -2.9977179 -0.089678146 0
-0.50032419 -3.6988485 -0.091667764 0
-0.94262183 -6.0895009 -0.14049751 0
-1.889428 -11.20706 -0.14062892 0
-0.14194529 -1.8879896 -0.092459016 0
-0.15861158 -1.9927896 -0.090414442 0
-0.18072966 -2.131871 -0.089173697 0
-0.21287394 -2.3339984 -0.090382181 0
-0.25659239 -2.608906 -0.090697862 0
-0.31852895 -2.9983716 -0.088914268 0
-0.42926195 -3.6946754 -0.090538062 0
-0.81406945 -6.1143966 -0.14062534 0
-1.6310365 -11.251595 -0.14063109 0
-0.11899087 -1.8895541 -0.092082582 0
-0.13318366 -1.996062 -0.09033186 0
-0.15188441 -2.1363993 -0.089224674 0
-0.17793867 -2.3319199 -0.089383207 0
-0.21552496 -2.613981 -0.090590812 0
-0.26960969 -3.0198526 -0.090238161 0
-0.36193275 -3.7126784 -0.09110292 0
-0.68332052 -6.1244888 -0.14021012 0
-1.3726218 -11.297256 -0.14081289 0
-0.095398612 -1.8844956 -0.090415277 0
-0.10766429 -1.998431 -0.090200104 0
-0.12359373 -2.1463988 -0.090300448 0
-0.14439906 -2.3396587 -0.089899413 0
-0.17538607 -2.6274955 -0.091598116 0
-0.21803591 -3.0236681 -0.090016119 0
-0.29168603 -3.7078006 -0.090177082 0
-0.55482489 -6.1520858 -0.14077045 0
-1.1125784 -11.333035 -0.14091583 0
-0.07286761 -1.887695 -0.090639822 0
-0.082990363 -2.010854 -0.092090599 0
-0.09456028 -2.1516204 -0.090703972 0
-0.10996249 -2.3390126 -0.089351736 0
-0.13385344 -2.6296837 -0.091394059 0
-0.16643393 -3.0260768 -0.089784838 0
-0.22347142 -3.7200277 -0.090577506 0
-0.42462736 -6.1674066 -0.14090782 0
-0.85075969 -11.351978 -0.14077914 0
-0.049952567 -1.8853315 -0.089800857 0
-0.057409592 -2.0165353 -0.092824079 0
-0.06516058 -2.1529109 -0.090580545 0
-0.0767821 -2.3573875 -0.091604702 0
-0.081511743 -2.440604 -0.068922929 0
-0.080621667 -2.4249434 -0.033250023 0
-0.080879211 -2.4294748 0.00012557418 0
-0.080799028 -2.4280641 0.033880781 0
-0.081166886 -2.4345365 0.067313597 0
-0.080990404 -2.4314313 0.10101163 0
-0.027533527 -1.8928324 -0.091183446 0
-0.031121001 -2.0065355 -0.090723701 0
-0.035820998 -2.1554997 -0.090792738 0
-0.040728938 -2.3110545 -0.084875442 0
-0.040660068 -2.3088715 -0.053329933 0
-0.040579427 -2.3063157 -0.022022193 0
-0.04066848 -2.3091383 0.0086548124 0
-0.040518261 -2.3043771 0.039716613 0
-0.040479183 -2.3031385 0.070407689 0
-0.040672455 -2.3092642 0.1010081 0
-0.0046784794 -1.8855306 -0.08953958 0
-0.0053954953 -1.9992133 -0.089252986 0
-0.0063269674 -2.1468978 -0.089287423 0
-0.0067799413 -2.2187169 -0.071809791 0
-0.0067396546 -2.2123294 -0.04197282 0
-0.0067030084 -2.2065191 -0.012648223 0
-0.0066981562 -2.2057498 0.015926862 0
-0.0067073517 -2.2072077 0.044269644 0
-0.0066878484 -2.2041154 0.072724655 0
-0.0067195459 -2.209141 0.10100522 0
0.018014764 -1.8895338 -0.090420999 0
0.02031838 -2.0112326 -0.091547526 0
0.02297391 -2.1515229 -0.090077974 0
0.023889594 -2.1998978 -0.069192134 0
0.023927856 -2.2019193 -0.0407787 0
0.02390217 -2.2005622 -0.012110217 0
0.024043636 -2.2080359 0.015753472 0
0.023868136 -2.1987643 0.044653762 0
0.023960464 -2.2036419 0.072731167 0
0.023807062 -2.1955378 0.10100484 0
0.040470973 -1.8831068 -0.089206003 0
0.045975536 -2.0076756 -0.091030262 0
0.052132942 -2.1470182 -0.08948911 0
0.053974885 -2.1887016 -0.067752667 0
0.054795355 -2.207269 -0.041517455 0
0.054627348 -2.2034669 -0.012471667 0
0.054252829 -2.1949916 0.016598405 0
0.054428834 -2.1989744 0.044599108 0
0.054270592 -2.1953933 0.072900645 0
0.054505285 -2.2007046 0.10100502 0
0.063177571 -1.8842336 -0.08971905 0
0.071095273 -1.9981484 -0.089507081 0
0.081412211 -2.1465819 -0.089690588 0
0.084536351 -2.19153 -0.068393297 0
0.085639551 -2.207402 -0.041737575 0
0.083991311 -2.1836882 -0.010783901 0
0.085770778 -2.20929 0.015475282 0
0.08522772 -2.2014771 0.044401415 0
0.084646776 -2.1931188 0.072913371 0
0.084970497 -2.1977761 0.10100498 0
0.08569093 -1.8818833 -0.089613147 0
0.09730456 -2.0042465 -0.091056325 0
0.11067866 -2.1451585 -0.089851491 0
0.11546867 -2.1956272 -0.069323324 0
0.11511748 -2.191927 -0.040217135 0
0.1156474 -2.1975102 -0.012311881 0
0.11723263 -2.2142124 0.014952103 0
0.11587073 -2.1998632 0.044359427 0
0.11630343 -2.2044222 0.072591119 0
0.11557198 -2.1967156 0.10100503 0
0.10944896 -1.8899571 -0.091860212 0
0.12179951 -1.9925035 -0.089350931 0
0.13837524 -2.1301317 -0.087883063 0
0.14640518 -2.196804 -0.069953196 0
0.14675374 -2.1996984 -0.041516054 0
0.14600685 -2.1934969 -0.01224274 0
0.14716224 -2.20309 0.01550127 0
0.1464884 -2.1974952 0.044316452 0
0.14644782 -2.1971581 0.072684027 0
0.14860992 -2.2151101 0.10100564 0
0.13115019 -1.8801658 -0.090406381 0
0.14908703 -2.0029185 -0.091974519 0
0.16880617 -2.1378686 -0.089804284 0
0.17870285 -2.2055976 -0.071777873 0
0.17815112 -2.2018218 -0.042246822 0
0.17721033 -2.1953835 -0.012802055 0
0.17805725 -2.2011795 0.015348354 0
0.17819925 -2.2021511 0.043906558 0
0.17674008 -2.1921651 0.072706066 0
0.17738336 -2.1965675 0.10100523 0
0.15440784 -1.881374 -0.091436557 0
0.17095898 -1.9776043 -0.087912418 0
0.1985494 -2.1380184 -0.090596415 0
0.21049139 -2.2074506 -0.072736748 0
0.20934841 -2.2008052 -0.042702172 0
0.21048974 -2.2074409 -0.014401546 0
0.20874007 -2.197268 0.015281508 0
0.20700596 -2.1871858 0.044384029 0
0.20872056 -2.1971548 0.072474703 0
0.20970087 -2.2028544 0.10100555 0
0.17519896 -1.8687978 -0.089611791 0
0.19798656 -1.9838321 -0.089992158 0
0.22484052 -2.1193938 -0.088372447 0
0.24043642 -2.1981237 -0.072213434 0
0.23990005 -2.195416 -0.042732436 0
0.24197358 -2.2058835 -0.014793253 0
0.24188457 -2.2054341 0.014298538 0
0.23989213 -2.1953759 0.04373052 0
0.24051948 -2.1985428 0.072308443 0
0.24077281 -2.1998217 0.10100563 0
0.1992684 -1.872739 -0.091489024 0
0.22367463 -1.9814743 -0.090557687 0
0.25374094 -2.1154268 -0.088716261 0
0.27355832 -2.2037177 -0.073944815 0
0.27586168 -2.2139797 -0.045724098 0
0.2708205 -2.1915202 -0.014037972 0
0.27458453 -2.2082899 0.013630668 0
0.27234381 -2.198307 0.043284733 0
0.2715928 -2.1949608 0.072240606 0
0.27134961 -2.1938775 0.10100564 0
0.21953402 -1.8596435 -0.089777149 0
0.25026095 -1.9820048 -0.091813229 0
0.28446445 -2.1182103 -0.090329386 0
0.30401173 -2.1960516 -0.073886581 0
0.30321547 -2.1928806 -0.044064377 0
0.30495363 -2.1998024 -0.015527112 0
0.30556789 -2.2022486 0.013540553 0
0.30522862 -2.2008977 0.042813256 0
0.30438557 -2.1975403 0.07200589 0
0.3033343 -2.1933539 0.10100584 0
0.23923017 -1.845963 -0.088036604 0
0.27211729 -1.9642116 -0.089626111 0
0.31395468 -2.1146417 -0.091002114 0
0.34008598 -2.2085991 -0.076888196 0
0.33667028 -2.1963177 -0.045452867 0
0.33866766 -2.2034996 -0.01666568 0
0.34033138 -2.2094815 0.012430036 0
0.33720908 -2.1982551 0.042551365 0
0.33825481 -2.2020149 0.071703874 0
0.33590719 -2.193574 0.10100608 0
0.26478839 -1.8528357 -0.090960853 0
0.29997849 -1.9680234 -0.091785289 0
0.33816248 -2.0930111 -0.08870355 0
0.37115258 -2.2009978 -0.077085532 0
0.37145633 -2.2019918 -0.047228325 0
0.37106842 -2.2007222 -0.017263932 0
0.37006924 -2.1974516 0.012655118 0
0.37162882 -2.2025566 0.041910265 0
0.37125817 -2.2013433 0.07150393 0
0.37110114 -2.2008293 0.10100656 0
0.28547722 -1.8428587 -0.090278395 0
0.32586077 -1.9640174 -0.092549585 0
0.36845136 -2.0917976 -0.09002804 0
0.429351 -2.274509 -0.089415871 0
0.52176809 -2.5517788 -0.091519274 0
0.65343362 -2.9468019 -0.091626428 0
0.86266017 -3.5745237 -0.08953663 0
1.3015693 -4.8913393 -0.090513133 0
3.2894931 -10.855511 -0.14083047 0
0.30886963 -1.8407922 -0.091495253 0
0.34737587 -1.947283 -0.090901889 0
0.39757305 -2.0861058 -0.090715043 0
0.46143213 -2.2627113 -0.089329161 0
0.55978823 -2.5347199 -0.091094054 0
0.69820887 -2.9175291 -0.090416752 0
0.93117893 -3.5618191 -0.090269573 0
1.3987736 -4.8549747 -0.09039893 0
3.5388882 -10.773567 -0.14093356 0
0.33209988 -1.8374763 -0.092573129 0
0.37084001 -1.9367098 -0.090592869 0
0.42316127 -2.0707314 -0.089829601 0
0.49511492 -2.2550421 -0.089986034 0
0.60037929 -2.5246785 -0.091664933 0
0.74595886 -2.897583 -0.090242393 0
0.99787098 -3.5428603 -0.090669595 0
1.4972197 -4.8219504 -0.090572543 0
3.7821608 -10.674866 -0.14077577 0
0.35351932 -1.8291478 -0.092641421 0
0.39743498 -1.9337666 -0.091959558 0
0.45707259 -2.075839 -0.092700042 0
0.52436411 -2.2361453 -0.089067556 0
0.63469785 -2.4989893 -0.09038768 0
0.80042732 -2.8938007 -0.091823794 0
1.0632397 -3.5198891 -0.090896629 0
1.5945857 -4.7856956 -0.090709724 0
4.0258036 -10.577498 -0.14080401 0
0.37115738 -1.8123369 -0.090858765 0
0.41468605 -1.9091161 -0.088996612 0
0.47983763 -2.0539706 -0.090895288 0
0.56151783 -2.2355738 -0.091075577 0
0.67267424 -2.4827127 -0.09041246 0
0.84591764 -2.8678925 -0.091298647 0
1.1305287 -3.5006807 -0.091540478 0
1.6897489 -4.7440195 -0.090696521 0
4.266726 -10.473528 -0.14082012 0
0.38965747 -1.7982635 -0.089804329 0
0.44321647 -1.9097366 -0.091368683 0
0.50270605 -2.0335531 -0.089437254 0
0.59070539 -2.216707 -0.090400971 0
0.71034551 -2.4657156 -0.090467699 0
0.88851374 -2.8365393 -0.090321474 0
1.1928194 -3.4698944 -0.091425128 0
1.781129 -4.6943507 -0.090393625 0
4.5063024 -10.366287 -0.14090803 0
0.40707242 -1.782588 -0.088464417 0
0.46283093 -1.8915099 -0.089935012 0
0.53510654 -2.0326972 -0.091677926 0
0.6170696 -2.1928086 -0.089038752 0
0.74308562 -2.4389756 -0.089368485 0
0.93388581 -2.8116958 -0.090126224 0
1.2525712 -3.4342341 -0.091048233 0
1.8831547 -4.6660523 -0.091324382 0
4.7317815 -10.230724 -0.14041427 0
0.43499914 -1.7868644 -0.092039965 0
0.48973066 -1.88744 -0.091622703 0
0.55476141 -2.0069416 -0.089442559 0
0.64983636 -2.181653 -0.089802302 0
0.78347254 -2.4272254 -0.090357833 0
0.98133278 -2.7908168 -0.09047047 0
1.3124672 -3.3993154 -0.09084437 0
1.9733267 -4.6137228 -0.091129862 0
4.9669156 -10.114796 -0.14058304 0
0.45214278 -1.7707376 -0.090831883 0
0.51175606 -1.8739907 -0.091441832 0
0.58571231 -2.0020864 -0.091234289 0
0.67738628 -2.1608701 -0.089147992 0
0.80850333 -2.3879709 -0.087786503 0
1.0319878 -2.7750564 -0.091499604 0
1.3798817 -3.3776252 -0.09182658 0
2.5942173 -5.4809117 -0.14048429 0
5.1990294 -9.9925699 -0.14074343 0
0.46413487 -1.7467082 -0.087743066 0
0.52855998 -1.8520639 -0.089508377 0
0.61182714 -1.9882324 -0.091469698 0
0.70865434 -2.1465757 -0.089666106 0
0.85302597 -2.3826694 -0.089912452 0
1.0688425 -2.7355986 -0.090090893 0
1.424523 -3.31725 -0.089792408 0
2.7074804 -5.4152956 -0.14055218 0
5.4208064 -9.8524523 -0.14057723 0
0.48956791 -1.7447857 -0.090275623 0
0.55401069 -1.8444309 -0.09084373 0
0.63885349 -1.9756202 -0.092080005 0
0.73868626 -2.1299875 -0.08993987 0
0.88768733 -2.3603821 -0.089864321 0
1.1183004 -2.71697 -0.091076933 0
1.4948198 -3.2991672 -0.09133894 0
2.8212094 -5.3501115 -0.14080235 0
5.6520696 -9.7273598 -0.14097807 0
0.51077825 -1.7355902 -0.091143869 0
0.58003056 -1.8369682 -0.092386402 0
0.65696824 -1.9495966 -0.090166233 0
0.76755357 -2.1114814 -0.090019904 0
0.92822862 -2.3466923 -0.091155089 0
1.1565063 -2.6808662 -0.090244688 0
1.5513046 -3.2588081 -0.09117534 0
2.9363306 -5.2863364 -0.14129685 0
5.8653908 -9.5741634 -0.14075755 0
0.52681571 -1.7188408 -0.090187766 0
0.59672177 -1.8158281 -0.090932958 0
0.68217868 -1.9343903 -0.09050066 0
0.80418813 -2.1036654 -0.092078395 0
0.95465273 -2.3124187 -0.089650147 0
1.1999129 -2.6526909 -0.090419374 0
1.60232 -3.2109876 -0.090487488 0
3.0404921 -5.2062969 -0.14103231 0
6.078577 -9.4213133 -0.14069587 0
0.54986084 -1.7116653 -0.091876067 0
0.61645716 -1.7993107 -0.090643652 0
0.70774138 -1.9194471 -0.091026001 0
0.82317036 -2.0713596 -0.090015955 0
0.98889929 -2.2894704 -0.089875482 0
1.2469982 -2.6291463 -0.091267578 0
1.6583936 -3.1705713 -0.090548478 0
3.1438763 -5.1255698 -0.14087476 0
6.2909007 -9.2672729 -0.1407539 0
0.57023007 -1.700482 -0.092664488 0
0.63446146 -1.7807283 -0.0899693 0
0.73122662 -1.9016203 -0.091089524 0
0.85052282 -2.0506608 -0.090086259 0
1.0223522 -2.2653327 -0.090055518 0
1.2896998 -2.5993388 -0.091524981 0
1.7167393 -3.132853 -0.090977795 0
3.2446122 -5.0416741 -0.14067914 0
6.4989042 -9.1073666 -0.14079648 0
0.58567441 -1.6831415 -0.091899715 0
0.65908217 -1.7702527 -0.091387995 0
0.75204915 -1.8805743 -0.090588637 0
0.8756181 -2.0272105 -0.089777969 0
1.0490392 -2.233005 -0.089115389 0
1.3276242 -2.5635948 -0.091193505 0
1.7683579 -3.0866027 -0.090769581 0
3.3526907 -4.966691 -0.14117514 0
6.7024899 -8.9418144 -0.14082633 0
0.59931493 -1.6640185 -0.090720795 0
0.67450237 -1.7488046 -0.090231262 0
0.77922416 -1.8668953 -0.091808893 0
0.9024052 -2.0058019 -0.089963906 0
1.0858405 -2.2126548 -0.090129085 0
1.3653098 -2.5278018 -0.09096656 0
1.8310051 -3.0529487 -0.091854088 0
3.4480753 -4.8764577 -0.14090134 0
6.8935738 -8.761816 -0.14056587 0
0.61655128 -1.6491388 -0.090846322 0
0.69658357 -1.7349266 -0.091096155 0
0.79840887 -1.8440747 -0.091155909 0
0.9332341 -1.988596 -0.091090478 0
1.1086876 -2.176667 -0.088814266 0
1.4046686 -2.4939337 -0.09109997 0
1.8617815 -2.9839199 -0.089731745 0
3.5383682 -4.7810788 -0.14044499 0
7.0892324 -8.5873041 -0.14062533 0
0.62861192 -1.6289212 -0.089513399 0
0.70422697 -1.7059809 -0.088151895 0
0.81901759 -1.8229647 -0.090990596 0
0.95307803 -1.9595864 -0.090072624 0
1.1473633 -2.1575835 -0.090327732 0
1.4420869 -2.4579377 -0.091086857 0
1.9083338 -2.9330924 -0.089414157 0
3.6311929 -4.6888671 -0.14033069 0
7.2868643 -8.414381 -0.14089699 0
0.64970225 -1.6178734 -0.091038175 0
0.73450994 -1.7000473 -0.091410302 0
0.83528316 -1.7976909 -0.089958884 0
0.992908 -1.9504205 -0.093135394 0
1.1738845 -2.1257765 -0.089906089 0
1.4704417 -2.4131238 -0.090015687 0
1.961271 -2.8887098 -0.089852251 0
3.732491 -4.6049228 -0.14092124 0
7.4614077 -8.2180338 -0.14055772 0
0.66377294 -1.5998474 -0.090580828 0
0.74103433 -1.6710188 -0.088548504 0
0.86241031 -1.7828276 -0.09152218 0
1.0007784 -1.9102892 -0.090065978 0
1.2017827 -2.0954497 -0.089842059 0
1.5130825 -2.3822119 -0.09092737 0
2.5421195 -3.3301377 -0.14056619 0
3.8183064 -4.5057321 -0.14065397 0
7.6492095 -8.0346727 -0.14080393 0
0.6807844 -1.5845214 -0.091094337 0
0.75917631 -1.65316 -0.088843159 0
0.87849033 -1.757629 -0.090721048 0
1.0293022 -1.8896772 -0.091112845 0
1.2267383 -2.0625484 -0.089442573 0
1.5297985 -2.3279023 -0.088700764 0
2.5970998 -3.2624114 -0.14026208 0
3.9035888 -4.4063487 -0.14051625 0
7.8291917 -7.8435335 -0.14094779 0
0.68764549 -1.5605733 -0.088898681 0
1.0521737 -1.8638451 -0.091200821 0
1.2380112 -2.0184538 -0.087098829 0
1.5623466 -2.2882872 -0.088610955 0
2.6607509 -3.2021124 -0.14091 0
4.00144 -4.3175082 -0.14129613 0
7.994628 -7.6396689 -0.14079624 0
1.0747483 -1.8377104 -0.091351889 0
1.2715336 -1.9931958 -0.08828292 0
1.5960481 -2.2496035 -0.088780321 0
2.7194371 -3.1372237 -0.14123979 0
4.0679808 -4.202745 -0.14033733 0
8.1549406 -7.4319625 -0.14064991 0
1.3226055 -1.9804271 -0.092102654 0
1.6293044 -2.2104306 -0.089009605 0
2.7727468 -3.0679359 -0.14123809 0
4.1555467 -4.1049428 -0.14079016 0
8.3181334 -7.2266035 -0.14074388 0
1.6803452 -2.1837146 -0.091386162 0
2.8147795 -2.990561 -0.14042045 0
4.2301207 -3.9971967 -0.1406351 0
8.4661045 -7.0099635 -0.14055116 0
0.75314593 -1.4961779 -0.091828741 0
1.6997691 -2.1341035 -0.09024059 0
2.8648031 -2.9192154 -0.1404563 0
4.3137102 -3.895628 -0.14114279 0
