# .PCD v0.7 - Point Cloud Data file format
VERSION 0.7
FIELDS x y z intensity
SIZE 4 4 4 4
TYPE F F F F
COUNT 1 1 1 1
WIDTH 1320
HEIGHT 1
VIEWPOINT 0 0 0 1 0 0 0
POINTS 1320
DATA ascii
-1.2248632 1.8255054 0.4166303 0
-1.2333819 1.8335292 0.58988774 0
-0.72350001 1.3261143 -0.050037727 0
-0.86311257 1.4543383 0.06880527 0
-0.86581647 1.4568217 0.19545323 0
-1.2322721 1.7933849 0.41366336 0
-1.229459 1.7908013 0.58173043 0
-0.23751439 0.87977117 0.38267994 0
-0.74676359 1.3204169 -0.050516319 0
-0.89559567 1.453693 0.069648847 0
-0.90745211 1.4643103 0.19930847 0
-1.2354766 1.7580495 0.40981036 0
-1.2291282 1.7523648 0.57508004 0
-0.24031998 0.86690676 0.37996224 0
-0.74173343 1.2895656 -0.049652178 0
-0.94583571 1.4677557 0.071325146 0
-1.2352074 1.7203897 0.40527496 0
-1.2360622 1.7211359 0.57112759 0
-0.23679234 0.84873015 0.37388286 0
-0.76186895 1.280929 -0.049995359 0
-0.97254109 1.4602308 0.071871899 0
-1.2341588 1.6828922 0.40071619 0
-1.2474271 1.6941848 0.5688343 0
-0.2386616 0.83563006 0.37092769 0
-0.25828475 0.85233116 0.45988831 0
-0.77529585 1.2664081 -0.050028842 0
-1.006883 1.4585354 0.072771639 0
-1.2501138 1.6603224 0.40030053 0
-1.2377664 1.6500789 0.55970788 0
-0.26063758 0.8394419 0.37890917 0
-0.78759384 1.2509402 -0.050018601 0
-1.0455463 1.4595133 0.073861651 0
-1.2505957 1.6253105 0.39636672 0
-1.2297809 1.6084803 0.55140674 0
-0.25473058 0.82008183 0.3719379 0
-0.79776227 1.2337993 -0.049920563 0
-1.0875762 1.4621602 0.075093359 0
-1.2523355 1.5919837 0.39286229 0
-1.2438231 1.5852761 0.55051345 0
-0.26630503 0.81503385 0.37437946 0
-0.80748665 1.2164009 -0.049813241 0
-1.1206702 1.4568467 0.075909518 0
-1.2499896 1.5561314 0.38855851 0
-1.2368037 1.5460079 0.54294872 0
-0.25477129 0.79205525 0.36476871 0
-0.24621268 0.78548437 0.43415403 0
-0.81975114 1.2009929 -0.04982999 0
-1.1549867 1.4517238 0.076775521 0
-1.2566479 1.5277587 0.38642505 0
-1.2474699 1.5208942 0.54124784 0
-0.26881206 0.78893214 0.36862114 0
-0.28042936 0.79762101 0.45146671 0
-0.83616972 1.1885926 -0.050038677 0
-1.2090161 1.4602004 0.078507192 0
-1.247803 1.4884557 0.38093194 0
-1.2370944 1.4806547 0.53302085 0
-1.2500465 1.49009 0.69857067 0
-0.26383162 0.77166063 0.3627151 0
-0.27362746 0.77879655 0.44313487 0
-0.85222399 1.1757494 -0.050236426 0
-1.256551 1.4625678 0.079934515 0
-1.2446775 1.4541451 0.37686232 0
-1.2349497 1.4472444 0.52760094 0
-1.2403882 1.4511023 0.68839014 0
-0.28473657 0.77318972 0.37011269 0
-0.28032768 0.77006221 0.44330603 0
-0.85771477 1.1554377 -0.049981188 0
-1.3033965 1.4632304 0.081318252 0
-1.247907 1.4249089 0.37431586 0
-1.2338336 1.4151895 0.5226779 0
-1.2417765 1.420675 0.68296355 0
-0.29173547 0.76456624 0.44640532 0
-0.87823415 1.1454411 -0.050385635 0
-1.2730963 1.4108568 0.079371415 0
-1.273157 1.4108976 0.2268731 0
-1.2465223 1.3929945 0.3708685 0
-1.2442418 1.3914616 0.52146369 0
-1.2416946 1.3897495 0.67714763 0
-0.29570681 0.75388175 0.44503725 0
-0.88284695 1.1246961 -0.0501136 0
-1.264587 1.3743714 0.078398362 0
-1.2766509 1.3822618 0.22548534 0
-1.2511071 1.3655548 0.36882281 0
-1.2418013 1.3594685 0.51643384 0
-1.2449452 1.3615247 0.67285961 0
-0.29328895 0.73909855 0.43994135 0
-0.90490651 1.1152747 -0.050593071 0
-1.2820358 1.3552094 0.078550994 0
-1.2755655 1.3510928 0.22357145 0
-1.2444962 1.3313261 0.36447451 0
-1.2449837 1.3316363 0.5132668 0
-1.2428023 1.3302484 0.66661972 0
-0.30140167 0.73131692 0.44124177 0
-0.90130675 1.0895774 -0.049996622 0
-1.2884244 1.3290734 0.078248292 0
-1.298914 1.3355628 0.22480999 0
-1.2457304 1.3026601 0.36191538 0
-1.2396948 1.2989261 0.5076884 0
-1.2402962 1.2992982 0.66044092 0
-0.90876567 1.0710179 -0.049878899 0
-1.3044596 1.3089832 0.078363508 0
-1.3075525 1.3108432 0.22421911 0
-1.245477 1.2735119 0.35913879 0
-1.2379773 1.2690016 0.5033384 0
-1.2358708 1.2677348 0.65371543 0
-0.9205941 1.0551043 -0.049952429 0
-1.3393301 1.299801 0.079267226 0
-1.3315268 1.295241 0.22558033 0
-1.2489518 1.2469866 0.35723826 0
-1.2339648 1.2382287 0.49845392 0
-1.2257457 1.2334256 0.64499664 0
-0.92633021 1.0356694 -0.049783587 0
-1.3778865 1.2919734 0.080320589 0
-1.3901776 1.2989498 0.23124139 0
-1.2621735 1.2262945 0.35744205 0
-1.2433558 1.2156135 0.49765038 0
-1.2350383 1.2108924 0.64393413 0
-0.94440866 1.0231687 -0.050129041 0
-1.2472552 1.1900582 0.35190368 0
-1.2357532 1.1837199 0.49198535 0
-1.2400504 1.186088 0.64136112 0
-0.94707537 1.0021461 -0.049854614 0
-1.2540971 1.1663312 0.35094643 0
-1.2373227 1.1573608 0.48912859 0
-1.2422061 1.1599723 0.63784593 0
-0.9573952 0.98530775 -0.049900454 0
-1.2617643 1.1431786 0.35022402 0
-1.2433971 1.1336519 0.48768091 0
-1.2433802 1.133643 0.63410938 0
-0.96731222 0.96822709 -0.049938407 0
-1.2682295 1.1195301 0.34932256 0
-1.2348105 1.1027268 0.48214117 0
-1.2419868 1.1063352 0.62956417 0
-0.97844589 0.95170593 -0.050033011 0
-1.2837663 1.1004364 0.35030636 0
-1.2330111 1.0757121 0.47867236 0
-1.2409199 1.0795648 0.62529528 0
-0.9774996 0.92941004 -0.049658459 0
-1.2922285 1.0778501 0.34992176 0
-1.2255136 1.0463845 0.47371298 0
-1.2410992 1.0537353 0.62163442 0
-0.99302971 0.91492003 -0.049943689 0
-1.2946018 1.0525399 0.34838885 0
-1.2349211 1.0253052 0.4736267 0
-1.2341511 1.0249538 0.61550736 0
-0.99990475 0.89638788 -0.049896739 0
-1.2984169 1.0280957 0.34721163 0
-1.2446268 1.0043627 0.47369832 0
-1.2429842 1.003638 0.61528498 0
-1.0135936 0.8807928 -0.050123557 0
-1.3296973 1.0155332 0.35148579 0
-1.2372227 0.97611552 0.46909758 0
-1.2371593 0.97608852 0.60986 0
-1.0161117 0.86042517 -0.049925569 0
-1.3382223 0.99295849 0.35133108 0
-1.2370456 0.95132905 0.46661291 0
-1.2388226 0.95206016 0.6072821 0
-1.0376004 0.84773195 -0.050467081 0
-1.3359303 0.96611071 0.34913364 0
-1.2415158 0.9286465 0.46550199 0
-1.2329876 0.92526257 0.6021418 0
-1.0325265 0.82447153 -0.04999686 0
-1.3478858 0.94503415 0.34976307 0
-1.2326051 0.90096205 0.46081984 0
-1.2422179 0.90463704 0.60251254 0
-1.0385948 0.80566078 -0.049963847 0
-1.35627 0.92254585 0.34975439 0
-1.2447809 0.88152468 0.46198672 0
-1.2329034 0.87715447 0.59639972 0
-1.0384004 0.78465629 -0.049702805 0
-1.3694364 0.90174633 0.35071492 0
-1.2386129 0.85547304 0.45825058 0
-1.2435945 0.85723507 0.59749633 0
-1.0576831 0.77045739 -0.050187234 0
-1.3783277 0.87934935 0.35090706 0
-1.242244 0.83313489 0.4572593 0
-1.2448676 0.83402586 0.59536749 0
-1.0582151 0.74979031 -0.049972393 0
-1.378222 0.8539905 0.34944555 0
-1.2333721 0.80682468 0.45299292 0
-1.2476133 0.81146187 0.5938651 0
-1.0647317 0.73114437 -0.049991943 0
-1.3817406 0.82997131 0.34873492 0
-1.2332941 0.78369337 0.4511821 0
-1.233624 0.78379619 0.58663589 0
-1.0740424 0.7133134 -0.050124269 0
-1.3982047 0.80990922 0.3505201 0
-1.2326741 0.76058346 0.44931141 0
-1.2478127 0.76509452 0.58933693 0
-1.0792904 0.69422692 -0.050113678 0
-1.4000677 0.78543258 0.34960872 0
-1.2363546 0.73888457 0.44866541 0
-1.2456862 0.74153775 0.58646679 0
-1.0836684 0.67490941 -0.050079852 0
-1.4043468 0.76173806 0.34920955 0
-1.2366104 0.71632087 0.44718876 0
-1.2378477 0.71665585 0.58174008 0
-1.0866878 0.65526378 -0.050005037 0
-1.4220897 0.74156129 0.3513746 0
-1.2391449 0.69449037 0.44639221 0
-1.2438314 0.69569618 0.5818848 0
-1.0791385 0.63309133 -0.049551174 0
-1.4096414 0.71370542 0.34797564 0
-1.2354703 0.67122281 0.44403979 0
-1.2412672 0.67263669 0.5791924 0
-1.0940655 0.6164276 -0.049932368 0
-1.4342366 0.69487542 0.35150769 0
-1.2417152 0.65047747 0.44436818 0
-1.2415894 0.6504485 0.57759261 0
-1.1082426 0.59932244 -0.050292801 0
-1.4332985 0.66998613 0.35036144 0
-1.2359627 0.62708747 0.44163164 0
-1.2337544 0.62660736 0.5733152 0
-1.1019795 0.57777995 -0.049915355 0
-1.4331532 0.64541823 0.3494218 0
-1.2382804 0.60561782 0.44108036 0
-1.2449461 0.60697919 0.57561165 0
-1.1122775 0.55967104 -0.050150651 0
-1.4455271 0.62337315 0.35084006 0
-1.2477423 0.58556575 0.44245642 0
-1.239549 0.58399957 0.57236737 0
-1.1126001 0.53961343 -0.050031956 0
-1.4553512 0.60066885 0.35183892 0
-1.2510031 0.56426764 0.44228792 0
-1.2485081 0.56382316 0.57407975 0
-1.1243901 0.52153158 -0.050337609 0
-1.4512309 0.57551605 0.35033911 0
-1.2338666 0.5396139 0.43691468 0
-1.2363147 0.54001826 0.56874162 0
-1.1216807 0.50102079 -0.05012729 0
-1.4540032 0.55162078 0.35015741 0
-1.2366185 0.51852143 0.43676457 0
-1.2352114 0.51830715 0.56724685 0
-1.1154894 0.48017117 -0.049801148 0
-1.4530277 0.52722478 0.34934843 0
-1.2388557 0.49736872 0.43655062 0
-1.2374767 0.4971765 0.56697816 0
-1.1249863 0.46153623 -0.05004954 0
-1.4656347 0.50465816 0.35106573 0
-1.2391571 0.47598889 0.43590775 0
-1.2319145 0.47507206 0.56417429 0
-1.1297915 0.44218785 -0.050137434 0
-0.51199979 0.37187439 0.039939079 0
-0.51617104 0.37234914 0.10861581 0
-0.50879031 0.37150908 0.17686415 0
-1.2283403 0.4534041 0.43248007 0
-1.2395748 0.45468274 0.56589514 0
-1.1346271 0.42277706 -0.050235055 0
-0.50694948 0.35933322 0.039711978 0
-0.5124926 0.3598935 0.10807975 0
-0.52245611 0.36090058 0.17911032 0
-1.2417597 0.4336057 0.43534464 0
-1.2447382 0.43390676 0.56686479 0
-1.1324835 0.40267724 -0.050091196 0
-0.46895432 0.34403953 0.038310029 0
-0.51319999 0.34794962 0.10803438 0
-0.50828046 0.34751487 0.17633745 0
-1.2488515 0.41296095 0.43664929 0
-1.2395979 0.4121432 0.56447941 0
-1.1269343 0.38241822 -0.049834609 0
-0.51624954 0.33619183 0.10825772 0
-0.52030498 0.3364988 0.1783364 0
-1.2383695 0.3908534 0.43352273 0
-1.2592865 0.39243674 0.57047188 0
-1.1304904 0.36291143 -0.049913071 0
-0.51887846 0.32435316 0.10845153 0
-0.51457143 0.32408163 0.17714986 0
-1.2492025 0.37039548 0.43591881 0
-1.2461787 0.37020487 0.56560951 0
-1.2480811 0.37032479 0.70321995 0
-1.1317632 0.34323102 -0.049918648 0
-0.52109528 0.31244636 0.10861692 0
-0.51120484 0.31194776 0.17641972 0
-1.242386 0.34880766 0.43387052 0
-1.2246403 0.34791309 0.55803514 0
-1.2332581 0.34834751 0.69657713 0
-0.34219766 0.30342785 0.46604148 0
-1.1411266 0.32384932 -0.050222129 0
-0.5070641 0.29988474 0.10705096 0
-0.51113242 0.30003852 0.17631204 0
-1.2432677 0.32770976 0.4338581 0
-1.2361778 0.32744178 0.56156987 0
-1.24643 0.32782927 0.70165128 0
-0.35303974 0.29406336 0.47222054 0
-1.1485243 0.30420083 -0.050464027 0
-0.40344834 0.28543156 0.35224006 0
-0.40325248 0.28542665 0.42431447 0
-0.38381845 0.28493708 0.49029475 0
-1.1374767 0.28414625 -0.050056152 0
-0.41007113 0.27498466 0.42762691 0
-0.37354392 0.27452463 0.48408577 0
-1.143604 0.26437625 -0.050270461 0
-0.39229935 0.26437426 0.41870153 0
-0.3759436 0.26437423 0.48547098 0
-0.90846455 -0.98929477 -0.092341729 0
-1.006831 -0.98929501 -0.088850729 0
-1.1388198 -0.98929536 -0.086356305 0
-1.1200644 -0.9892953 -0.056574408 0
-1.1280051 -0.98929536 -0.03097715 0
-1.1408409 -0.98929536 -0.0056070369 0
-1.1262256 -0.98929536 0.022168497 0
-1.1361461 -0.98929536 0.04803215 0
-1.1266284 -0.98929536 0.074753135 0
-1.1304897 -0.98929536 0.1010027 0
-1.1305285 -0.98929536 0.12734298 0
-1.1181428 -0.9892953 0.15313454 0
-1.1229961 -0.9892953 0.17961101 0
-1.1229169 -0.9892953 0.20593952 0
-1.1221848 -0.9892953 0.23230273 0
-1.1298016 -0.98929536 0.25994945 0
-1.1310993 -0.98929536 0.28709462 0
-1.1350948 -0.98929536 0.31501728 0
-0.89238167 -1.0118421 -0.088983603 0
-1.0223805 -1.0151235 -0.091840871 0
-1.1225109 -1.017651 -0.083734743 0
-1.1286265 -1.0178053 -0.057828236 0
-1.1216104 -1.0176283 -0.03027158 0
-1.1268778 -1.0177612 -0.0043372344 0
-1.1335593 -1.0179299 0.021630535 0
-1.1336606 -1.0179324 0.048131041 0
-1.131448 -1.0178766 0.074632689 0
-1.1239128 -1.0176864 0.10100252 0
-1.1368784 -1.0180136 0.12749943 0
-1.1483078 -1.0183022 0.15455766 0
-1.1368027 -1.0180117 0.18060237 0
-1.1317149 -1.0178833 0.20679493 0
-1.133737 -1.0179343 0.23369579 0
-1.1210282 -1.0176135 0.2587662 0
-1.1255239 -1.017727 0.28623694 0
-1.1274558 -1.0177758 0.31364575 0
-0.8910386 -1.0343505 -0.088879369 0
-1.0096267 -1.0403407 -0.089619987 0
-1.1414214 -1.046998 -0.087023281 0
-1.1298573 -1.0464139 -0.05815326 0
-1.2423379 -1.0520957 -0.044524867 0
-1.2472721 -1.0523448 -0.0156899 0
-1.2359128 -1.051771 0.014390083 0
-1.2373796 -1.0518452 0.043245759 0
-1.2348307 -1.0517164 0.072200745 0
-1.2401031 -1.0519828 0.10100587 0
-1.2325597 -1.0516016 0.12975773 0
-1.2352117 -1.0517356 0.15866481 0
-1.2350869 -1.0517293 0.18756391 0
-1.2333226 -1.0516403 0.21639816 0
-0.88631386 -1.0565919 -0.088175081 0
-1.0139139 -1.0662701 -0.090733863 0
-1.1152583 -1.073957 -0.083010904 0
-1.130457 -1.0751098 -0.058491651 0
-1.2422752 -1.0835911 -0.044749651 0
-1.2322658 -1.0828319 -0.014471291 0
-1.2309914 -1.0827352 0.014596993 0
-1.2315677 -1.0827789 0.043425009 0
-1.2397823 -1.0834019 0.072039388 0
-1.2507476 -1.0842336 0.10100623 0
-1.2425493 -1.0836118 0.13003717 0
-1.2349608 -1.0830363 0.15874512 0
-1.2326159 -1.0828584 0.18752868 0
-1.2489622 -1.0840982 0.2180472 0
-0.89054596 -1.0795869 -0.089502402 0
-1.0140407 -1.0920945 -0.091186725 0
-1.1522971 -1.1060973 -0.089540996 0
-1.2434289 -1.1153274 -0.074806072 0
-1.235631 -1.1145376 -0.044295136 0
-1.2398136 -1.1149611 -0.015437661 0
-1.240778 -1.1150589 0.013716089 0
-1.2451869 -1.1155053 0.042658996 0
-1.2442122 -1.1154066 0.071871147 0
-1.2474262 -1.1157322 0.10100622 0
-1.2356386 -1.1145383 0.1299403 0
-1.2421037 -1.1151931 0.15920901 0
-1.2471396 -1.1157031 0.1887437 0
-1.9914376 -1.1910868 0.28800955 0
-1.9988008 -1.1918325 0.33600274 0
-1.9334995 -1.1852187 0.37433502 0
-1.4848903 -1.1397829 0.3823545 0
-0.90955395 -1.1047881 -0.094124101 0
-1.0019891 -1.116513 -0.089452423 0
-1.1528994 -1.1356552 -0.090189837 0
-1.2098335 -1.142877 -0.070553504 0
-1.2466155 -1.1475425 -0.046007875 0
-1.2546176 -1.1485575 -0.017166046 0
-1.2409447 -1.1468232 0.013452874 0
-1.2388613 -1.146559 0.042787787 0
-1.2382648 -1.1464833 0.071926668 0
-1.239928 -1.1466943 0.10100611 0
-1.2370546 -1.1463298 0.13005705 0
-1.2412074 -1.1468565 0.15933475 0
-1.2168385 -1.1437654 0.18685961 0
-1.5949988 -1.1917331 0.3654668 0
-1.4692718 -1.1757853 0.38019919 0
-0.88827765 -1.1249675 -0.090238146 0
-1.0130597 -1.1440058 -0.092234127 0
-1.1453924 -1.164196 -0.089616798 0
-1.2130189 -1.1745139 -0.071612038 0
-1.6111265 -1.235254 -0.089621477 0
-2.559927 -1.3800147 -0.14083114 0
-3.4236245 -1.5117909 -0.14121184 0
-5.1199846 -1.7706082 -0.14019291 0
-10.283436 -2.5584071 -0.14091381 0
-1.3530997 -1.1958864 0.29354662 0
-1.3499659 -1.1954082 0.32564875 0
-1.3535773 -1.1959592 0.35913494 0
-0.88438588 -1.1473279 -0.090198107 0
-1.0033053 -1.1685548 -0.091176473 0
-1.1404899 -1.193042 -0.089595996 0
-1.2092119 -1.2053088 -0.071790896 0
-1.6156147 -1.2778511 -0.090952002 0
-2.5473244 -1.44416 -0.14064826 0
-3.4148653 -1.5990148 -0.14160344 0
-5.1100416 -1.9016013 -0.14073205 0
-10.229099 -2.8153458 -0.14064288 0
-1.3418827 -1.2289904 0.29275066 0
-1.3164784 -1.2244557 0.3209964 0
-1.3235338 -1.2257152 0.35446548 0
-0.87656486 -1.1688892 -0.089427494 0
-0.99751651 -1.1936431 -0.090994559 0
-1.1235081 -1.2194284 -0.087670542 0
-1.1969986 -1.2344689 -0.07087601 0
-1.5998377 -1.3169138 -0.089999832 0
-2.5351131 -1.5083269 -0.14065556 0
-3.3863876 -1.6825484 -0.14074668 0
-5.0882945 -2.0308599 -0.1408698 0
-10.184718 -3.0738921 -0.14076033 0
-1.2554804 -1.2464378 0.31182593 0
-1.2283747 -1.2408904 0.33739322 0
-0.88016659 -1.1929172 -0.09126278 0
-0.99163294 -1.2186762 -0.090915345 0
-1.125361 -1.2495797 -0.089022927 0
-1.1949399 -1.2656589 -0.071526341 0
-1.6056923 -1.3605806 -0.091754787 0
-2.5242219 -1.5728457 -0.14094411 0
-3.365514 -1.7672617 -0.14058138 0
-5.0585351 -2.1585059 -0.14078096 0
-10.135113 -3.3316641 -0.14090911 0
-0.86897671 -1.2135962 -0.089995809 0
-0.98637658 -1.2438661 -0.091080137 0
-1.1177711 -1.2777442 -0.088910244 0
-1.3177617 -1.3293087 -0.090418808 0
-1.5885819 -1.3991358 -0.09088207 0
-1.9909186 -1.5028723 -0.091034152 0
-3.3448632 -1.8519667 -0.14058499 0
-5.0261064 -2.2854502 -0.1407176 0
-10.061229 -3.5836818 -0.1406316 0
-0.87259728 -1.2381976 -0.092108093 0
-0.97574627 -1.2675877 -0.090317734 0
-1.1190468 -1.308418 -0.09043286 0
-1.2994697 -1.3598257 -0.089060836 0
-1.5748123 -1.4382786 -0.090526856 0
-1.9779432 -1.553142 -0.091094024 0
-3.3147471 -1.9340353 -0.14005545 0
-4.9865952 -2.410392 -0.14046551 0
-10.003172 -3.839757 -0.14088799 0
-0.86090583 -1.2585558 -0.090964966 0
-0.97154462 -1.2931209 -0.090935566 0
-1.1009591 -1.3335518 -0.08876621 0
-1.2975763 -1.3949777 -0.090219475 0
-1.5658247 -1.4787823 -0.090874918 0
-1.9595867 -1.601799 -0.09075176 0
-3.2990661 -2.0202711 -0.1407301 0
-4.9665332 -2.5412111 -0.14131328 0
-9.9295721 -4.0917339 -0.14092465 0
-0.84538126 -1.277338 -0.089066215 0
-0.96523386 -1.3181283 -0.091266789 0
-1.0974344 -1.363121 -0.089723192 0
-1.2864395 -1.4274464 -0.090147115 0
-1.5519751 -1.5178179 -0.090751387 0
-1.9381202 -1.6492372 -0.090220489 0
-3.2646394 -2.1006999 -0.14018631 0
-4.9206195 -2.6642907 -0.14105876 0
-9.8507442 -4.3421922 -0.14098878 0
-0.84723943 -1.3020651 -0.091194741 0
-0.94259089 -1.3372253 -0.088448577 0
-1.0876839 -1.3907274 -0.089728646 0
-1.2703574 -1.458087 -0.089455508 0
-1.5464292 -1.5598866 -0.091783248 0
-1.9208034 -1.6979344 -0.090215676 0
-3.242698 -2.1853738 -0.14071834 0
-4.8735561 -2.7867413 -0.14089824 0
-9.7608433 -4.5888939 -0.14093506 0
-0.83364463 -1.3212062 -0.089951865 0
-0.9429245 -1.3646649 -0.090356506 0
-1.0745776 -1.4170212 -0.089263283 0
-1.2643716 -1.492499 -0.090400316 0
-1.5167019 -1.5928465 -0.089916982 0
-1.9081234 -1.7485082 -0.090799443 0
-3.2088876 -2.2658002 -0.14052276 0
-4.8210626 -2.906935 -0.14061818 0
-9.656661 -4.8299708 -0.14067851 0
-0.83497685 -1.3464191 -0.092256971 0
-0.9253577 -1.3850307 -0.088759892 0
-1.0581058 -1.4417421 -0.088309385 0
-1.2505076 -1.5239381 -0.090283446 0
-1.5145016 -1.636719 -0.091634117 0
-1.8915436 -1.7977951 -0.09112259 0
-3.178658 -2.3476632 -0.14075081 0
-4.7851272 -3.0339632 -0.14132608 0
-9.5604544 -5.0740309 -0.14077388 0
-0.81918448 -1.3644172 -0.090734012 0
-0.92610025 -1.4133184 -0.091042794 0
-1.0519905 -1.4708982 -0.089328252 0
-1.2250062 -1.5500323 -0.088488765 0
-1.4986969 -1.6752131 -0.091764309 0
-1.8662232 -1.8433125 -0.09067934 0
-3.1486151 -2.4298539 -0.14115383 0
-4.7219315 -3.1494586 -0.14080991 0
-9.4622059 -5.3175688 -0.14097479 0
-0.81275314 -1.3865997 -0.091513313 0
-0.91322851 -1.4356574 -0.090649165 0
-1.04827 -1.5015923 -0.090931527 0
-1.2250519 -1.5879071 -0.090769567 0
-1.4714018 -1.708189 -0.090527274 0
-1.8471566 -1.8916535 -0.090998806 0
-3.0993032 -2.5030217 -0.14022316 0
-4.6704979 -3.2701674 -0.14104684 0
-9.3406382 -5.5503917 -0.1407329 0
-0.79634249 -1.4038188 -0.090045415 0
-0.90622628 -1.4609476 -0.091615282 0
-1.0334991 -1.527117 -0.090651624 0
-1.2045393 -1.6160412 -0.089974649 0
-1.4428147 -1.7399211 -0.089212678 0
-1.8206888 -1.9363786 -0.090671428 0
-3.0663154 -2.583982 -0.14071105 0
-4.6041908 -3.3835266 -0.14066531 0
-9.2227774 -5.7847385 -0.14073798 0
-0.78630596 -1.4241775 -0.090209626 0
-0.88898188 -1.4808946 -0.090527512 0
-0.99658924 -1.5403358 -0.086331151 0
-1.1834223 -1.6435404 -0.089184783 0
-1.4285237 -1.7789317 -0.08989466 0
-1.7985911 -1.983353 -0.090925001 0
-3.0260808 -2.6614051 -0.14078912 0
-4.5475087 -3.5018256 -0.14094149 0
-9.0968332 -6.0148234 -0.14068449 0
-0.77489078 -1.4437904 -0.090162329 0
-0.87654757 -1.5033405 -0.090582661 0
-1.0001644 -1.5757548 -0.089720868 0
-1.1687621 -1.6745185 -0.089547031 0
-1.4082038 -1.8147823 -0.089902587 0
-1.7696894 -2.0265388 -0.090573676 0
-2.9841006 -2.7379351 -0.14088412 0
-4.4701667 -3.6084657 -0.14026703 0
-8.9720049 -6.2456217 -0.14081565 0
-0.76334089 -1.4633236 -0.090203486 0
-0.86733103 -1.5278187 -0.091476448 0
-0.99482149 -1.6068888 -0.091610856 0
-1.1426629 -1.6985806 -0.088151656 0
-1.3912085 -1.8527297 -0.090491362 0
-1.7428035 -2.0707903 -0.090557031 0
-2.94751 -2.8179538 -0.14158168 0
-4.4121146 -3.7263076 -0.14078504 0
-8.8428116 -6.4742436 -0.14098762 0
-0.76139909 -1.4891858 -0.09281186 0
-0.85441077 -1.5501742 -0.091689013 0
-0.98487228 -1.6357188 -0.092780299 0
-1.1391635 -1.7368886 -0.090632237 0
-1.3692008 -1.8877258 -0.090522237 0
-1.7221837 -2.119179 -0.091363199 0
-2.890034 -2.8849466 -0.1407124 0
-4.3409367 -3.8363137 -0.14074519 0
-8.6915169 -6.6890197 -0.14070712 0
-0.74354559 -1.5048015 -0.091519661 0
-0.8338322 -1.5673164 -0.090279005 0
-0.94872171 -1.6468664 -0.088876836 0
-1.1193794 -1.7650307 -0.090536766 0
-1.3528838 -1.9267104 -0.091487132 0
-1.6892941 -2.1596425 -0.090928055 0
-2.8558936 -2.9674015 -0.14195465 0
-4.2669349 -3.9444134 -0.14070067 0
-8.5477133 -6.9084454 -0.14078555 0
-0.72393179 -1.5187696 -0.089842923 0
-0.8232379 -1.5913037 -0.091271587 0
-0.94044119 -1.6769099 -0.090629794 0
-1.1014462 -1.7945094 -0.090884157 0
-1.3199692 -1.9541203 -0.090208925 0
-1.6568741 -2.2001984 -0.090656094 0
-2.7901804 -3.0279748 -0.14066525 0
-4.1931219 -4.0526943 -0.1408221 0
-8.4053755 -7.1293592 -0.14106567 0
-0.7168833 -1.5419271 -0.091597714 0
-0.8141796 -1.6168296 -0.092791297 0
-0.930978 -1.7067456 -0.092327632 0
-1.080336 -1.8217273 -0.090805613 0
-1.2895713 -1.9828047 -0.089377962 0
-1.6288064 -2.2439611 -0.091010951 0
-2.7337208 -3.0945673 -0.14030059 0
-4.1153822 -4.1582241 -0.14087427 0
-8.2431297 -7.3359256 -0.14092924 0
-0.69450641 -1.5532107 -0.089352392 0
-0.79968327 -1.6384915 -0.093178459 0
-0.89453346 -1.7153991 -0.088509329 0
-1.0620171 -1.8512003 -0.091353543 0
-1.2699627 -2.0198092 -0.090261109 0
-1.5967553 -2.2847834 -0.091025881 0
-2.6894944 -3.1708117 -0.14117922 0
-4.0354772 -4.2621779 -0.14095582 0
-8.0746527 -7.5372734 -0.14075801 0
-0.68556833 -1.5752832 -0.090892665 0
-0.77612692 -1.6525784 -0.091464452 0
-0.88604957 -1.7464017 -0.090696387 0
-1.0304228 -1.8696299 -0.089596577 0
-1.2471541 -2.0546184 -0.090813823 0
-1.5626676 -2.3239214 -0.090916343 0
-2.6277275 -3.2329915 -0.14063986 0
-3.9511735 -4.3626041 -0.14092886 0
-7.9042778 -7.736732 -0.14067875 0
-0.67375582 -1.5952848 -0.091804408 0
-0.75193143 -1.6654963 -0.089638449 0
-0.86735159 -1.7691581 -0.090848155 0
-1.0093619 -1.8967012 -0.089875989 0
-1.2315767 -2.0962782 -0.092651658 0
-1.5344671 -2.3683119 -0.091665514 0
-2.5744848 -3.3023784 -0.14103495 0
-3.8617587 -4.4585123 -0.14073835 0
-7.7421207 -7.9435649 -0.14101015 0
-0.65495217 -1.608999 -0.090839662 0
-0.73601657 -1.6855872 -0.089997627 0
-0.84410435 -1.7877064 -0.090103365 0
-0.98932713 -1.9249102 -0.090491138 0
-1.1895281 -2.1140561 -0.090444736 0
-1.4921374 -2.3999557 -0.090760626 0
-1.9829237 -2.8636413 -0.08983285 0
-3.7796462 -4.5611501 -0.1411642 0
-7.5540142 -8.1271009 -0.14068459 0
-0.63877892 -1.6250249 -0.090741195 0
-0.72411931 -1.709829 -0.091565736 0
-0.82727253 -1.8123339 -0.090933301 0
-0.96714967 -1.951332 -0.090836726 0
-1.1639067 -2.1468525 -0.090961523 0
-1.4505328 -2.4316773 -0.090032019 0
-1.9325243 -2.9106395 -0.089588799 0
-3.6794612 -4.6465974 -0.1405827 0
-7.3727713 -8.3166962 -0.14072576 0
-0.63297206 -1.6518725 -0.093950279 0
-0.70747858 -1.7297442 -0.092047952 0
-0.80690265 -1.8336591 -0.091090195 0
-0.93997008 -1.9727368 -0.090308554 0
-1.1304946 -2.1718669 -0.090313189 0
-1.4212831 -2.4757898 -0.091058858 0
-1.884488 -2.9599164 -0.08969567 0
-3.5874774 -4.7398257 -0.14068137 0
-7.1924863 -8.5076647 -0.14095917 0
-0.60459888 -1.6550642 -0.090331964 0
-0.69408923 -1.7534506 -0.093592711 0
-0.77668315 -1.844255 -0.088975422 0
-0.92147595 -2.0034413 -0.09169092 0
-1.103931 -2.2040339 -0.090944417 0
-1.3770304 -2.5042815 -0.090185739 0
-1.8430839 -3.0166645 -0.090622105 0
-3.4922223 -4.82974 -0.14071712 0
-6.9987445 -8.6848383 -0.14089848 0
-0.5827654 -1.6645298 -0.088758014 0
-0.66909146 -1.764387 -0.092009835 0
-0.76214558 -1.8720268 -0.0908053 0
-0.8946504 -2.025301 -0.091488086 0
-1.0764835 -2.2356353 -0.09157943 0
-1.3397105 -2.5401216 -0.090377472 0
-1.7856712 -3.0559843 -0.090015687 0
-3.3966696 -4.919497 -0.14089207 0
-6.8018479 -8.8584175 -0.14088064 0
-0.5751583 -1.6907505 -0.091978319 0
-0.64438665 -1.775038 -0.090545319 0
-0.73841262 -1.8895173 -0.090489961 0
-0.86574399 -2.0445468 -0.090938561 0
-1.0376951 -2.2539024 -0.090290643 0
-1.3059949 -2.5805652 -0.091236345 0
-1.7397562 -3.1086824 -0.0907645 0
-3.2986372 -5.0066648 -0.14105435 0
-6.5994887 -9.025547 -0.14082028 0
-0.55269927 -1.6991949 -0.090396322 0
-0.62692684 -1.7943671 -0.091332652 0
-0.71319652 -1.9049793 -0.089884095 0
-0.83565569 -2.0619926 -0.090210237 0
-1.0108244 -2.2865884 -0.091310643 0
-1.2618041 -2.6083865 -0.090686105 0
-1.6798574 -3.1444011 -0.090097181 0
-3.1957345 -5.0880103 -0.14101726 0
-6.395565 -9.190731 -0.14085582 0
-0.53149575 -1.7087288 -0.089283057 0
-0.61051327 -1.8154918 -0.092630453 0
-0.6939851 -1.9282731 -0.091022186 0
-0.81142765 -2.0869534 -0.090943389 0
-0.9770146 -2.310683 -0.091162182 0
-1.2228676 -2.6428626 -0.091049634 0
-1.6287466 -3.1912582 -0.090543725 0
-3.0845404 -5.1582251 -0.1404881 0
-6.1876874 -9.3509827 -0.14089839 0
-0.52380776 -1.7370871 -0.093217887 0
-0.58405405 -1.8229357 -0.090853713 0
-0.6627267 -1.9350413 -0.088920511 0
-0.78285289 -2.1062167 -0.090791456 0
-0.94112664 -2.3317509 -0.090707116 0
-1.1744834 -2.6642756 -0.09003026 0
-1.5724285 -3.2313323 -0.09051431 0
-2.9883919 -5.2490268 -0.14130017 0
-5.9684582 -9.4955091 -0.14064397 0
-0.49670264 -1.7379494 -0.090119116 0
-0.56079215 -1.8343593 -0.090158962 0
-0.64892393 -1.9669363 -0.091969647 0
-0.75438613 -2.1255834 -0.090782277 0
-0.91034776 -2.3601971 -0.09142334 0
-1.1388987 -2.7040071 -0.091219105 0
-1.5175413 -3.2736003 -0.090789936 0
-2.8667333 -5.303194 -0.14018764 0
-5.7545786 -9.6473894 -0.14075489 0
-0.47982812 -1.7537231 -0.090986781 0
-0.54371083 -1.8552907 -0.091722406 0
-0.61932367 -1.975508 -0.090510629 0
-0.71897167 -2.133939 -0.089065425 0
-0.87055647 -2.3749447 -0.090345107 0
-1.0898929 -2.7236691 -0.090276055 0
-1.461781 -3.3149366 -0.091099627 0
-2.7664115 -5.3891768 -0.14101265 0
-5.5317311 -9.7857761 -0.14064297 0
-0.46584368 -1.7747915 -0.093256824 0
-0.51779115 -1.8622018 -0.090285949 0
-0.59199011 -1.9870539 -0.089785866 0
-0.69193941 -2.1552353 -0.0896369 0
-0.83721477 -2.3996854 -0.090779103 0
-1.0485563 -2.7553029 -0.090782292 0
-1.4030098 -3.3517301 -0.091150634 0
-2.6508141 -5.4513688 -0.1406752 0
-5.3034639 -9.9148951 -0.14043535 0
-0.43556443 -1.7679271 -0.088774748 0
-0.4960224 -1.8757633 -0.090448 0
-0.56408924 -1.9971712 -0.088933058 0
-0.66175663 -2.171376 -0.089480482 0
-0.79720414 -2.4129679 -0.08978533 0
-1.0074147 -2.7879112 -0.091498159 0
-1.3392146 -3.3797281 -0.090615742 0
-2.5378275 -5.5176406 -0.1407171 0
-5.0849442 -10.060821 -0.14083333 0
-0.4213466 -1.7892381 -0.091309302 0
-0.47753838 -1.8956746 -0.092078157 0
-0.54057652 -2.0150793 -0.089671217 0
-0.63290417 -2.1899631 -0.089836769 0
-0.76225793 -2.4349806 -0.090092905 0
-0.96183652 -2.8130155 -0.091522895 0
-1.2782933 -3.4124372 -0.090588532 0
-1.9189606 -4.625967 -0.090479381 0
-4.8518515 -10.181349 -0.14070433 0
-0.40138188 -1.8003508 -0.091478206 0
-0.44888452 -1.8961053 -0.089690916 0
-0.51146346 -2.0222502 -0.088539936 0
-0.60179615 -2.2043405 -0.089643218 0
-0.72426152 -2.4512026 -0.089756988 0
-0.91278177 -2.8312168 -0.090948693 0
-1.2196697 -3.4498332 -0.091048203 0
-1.8254646 -4.6709781 -0.090361245 0
-4.6210227 -10.306188 -0.1408425 0
-0.37974933 -1.8080065 -0.090953596 0
-0.42840767 -1.9126422 -0.090828232 0
-0.48853078 -2.0419321 -0.089823432 0
-0.57313043 -2.2238564 -0.090370767 0
-0.68712991 -2.4690027 -0.089752741 0
-0.86790991 -2.8577549 -0.091367625 0
-1.1537458 -3.4724214 -0.090475626 0
-1.7308658 -4.7134695 -0.090237044 0
-4.3804121 -10.411097 -0.14061835 0
-0.35983303 -1.8193347 -0.091413148 0
-0.40603852 -1.9256312 -0.091331221 0
-0.45988467 -2.049505 -0.089027278 0
-0.53495193 -2.2221982 -0.087957226 0
-0.65118581 -2.4895959 -0.090224616 0
-0.81920874 -2.8761351 -0.091067605 0
-1.0890179 -3.496835 -0.090176009 0
-1.6412412 -4.7672329 -0.09080825 0
-4.1425362 -10.521498 -0.1406907 0
-0.33989364 -1.8309351 -0.092046358 0
-0.38216791 -1.9353153 -0.091272868 0
-0.43240017 -2.0593445 -0.088770024 0
-0.51323283 -2.2589297 -0.091535844 0
-0.61495852 -2.5101025 -0.090795748 0
-0.76747102 -2.8866737 -0.090105377 0
-1.0279632 -3.5298595 -0.090652786 0
-1.5424656 -4.8002262 -0.090444677 0
-3.902354 -10.627067 -0.1407925 0
-0.3166275 -1.8341544 -0.090885229 0
-0.3556965 -1.9380829 -0.089945205 0
-0.40767831 -2.0763614 -0.089897789 0
-0.47576544 -2.2574821 -0.089431308 0
-0.57795572 -2.5293217 -0.091315486 0
-0.72212481 -2.9128301 -0.090840481 0
-0.96289468 -3.5533094 -0.090525635 0
-1.4438696 -4.8327651 -0.090186544 0
-3.6561835 -10.717809 -0.14067639 0
-0.29563349 -1.8431188 -0.091159739 0
-0.3330746 -1.9508982 -0.090766318 0
-0.38335529 -2.095638 -0.091517948 0
-0.44706392 -2.2790322 -0.090907924 0
-0.53681892 -2.5374043 -0.090568952 0
-0.67156893 -2.9253008 -0.090330474 0
-0.89808476 -3.5773582 -0.090566032 0
-1.3500828 -4.8784971 -0.090704046 0
-3.409785 -10.807635 -0.14069238 0
-0.27350593 -1.8487954 -0.090817176 0
-0.30768597 -1.9558264 -0.090134777 0
-0.3514725 -2.0929387 -0.08944001 0
-0.41158661 -2.2811792 -0.089617528 0
-0.49871591 -2.5540144 -0.091002531 0
-0.62221193 -2.9407282 -0.090239815 0
-0.83124524 -3.5952921 -0.090277873 0
-1.2531056 -4.9162993 -0.090946071 0
-3.1608801 -10.890275 -0.14068529 0
-0.25449201 -1.8649056 -0.092911504 0
-0.28325042 -1.9634755 -0.090167932 0
-0.32546818 -2.1081772 -0.090586595 0
-0.37985635 -2.2945933 -0.090117611 0
-0.45935029 -2.5670595 -0.091116421 0
-0.57526213 -2.9643486 -0.091068052 0
-0.76828474 -3.6259358 -0.091040768 0
-1.1519419 -4.9409251 -0.090666436 0
-2.9090569 -10.963455 -0.14060186 0
-0.23071176 -1.8650011 -0.091576539 0
-0.25602818 -1.96069 -0.088288479 0
-0.29705605 -2.1157641 -0.090536706 0
-0.34332243 -2.290638 -0.088206224 0
-0.41757724 -2.5713007 -0.090285741 0
-0.52584261 -2.9805136 -0.091285758 0
-0.70267779 -3.6489015 -0.091358639 0
-1.0546645 -4.9793134 -0.091174833 0
-2.658313 -11.040659 -0.14076915 0
-0.20828529 -1.8694839 -0.0913397 0
-0.23434465 -1.9790953 -0.090656243 0
-0.27009845 -2.1294835 -0.091644652 0
-0.31137842 -2.3031161 -0.088813715 0
-0.37847093 -2.5853219 -0.090762012 0
-0.4750846 -2.9917004 -0.091144584 0
-0.63177484 -3.650774 -0.09027829 0
-0.94752395 -4.9788842 -0.08994054 0
-2.4035826 -11.103386 -0.1407412 0
-0.18714194 -1.8798394 -0.092503272 0
-0.20894183 -1.9830408 -0.090333454 0
-0.23784854 -2.1198859 -0.088944547 0
-0.2806609 -2.3225605 -0.090534709 0
-0.33801863 -2.5940938 -0.09072689 0
-0.42438713 -3.0029645 -0.091134079 0
-0.56534481 -3.6702619 -0.090590559 0
-0.84502542 -4.994277 -0.089594699 0
-2.1494453 -11.169436 -0.14094558 0
-0.16233931 -1.8720145 -0.089847051 0
-0.18540572 -1.9966903 -0.091994055 0
-0.21073551 -2.1335998 -0.090289705 0
-0.24400681 -2.3134336 -0.088275366 0
-0.29651734 -2.5972569 -0.090146981 0
-0.37034145 -2.9962819 -0.089541845 0
-0.49892154 -3.691267 -0.091128744 0
-0.94219416 -6.0871887 -0.14038806 0
-1.8911664 -11.216456 -0.14085111 0
-0.14039928 -1.8782681 -0.090366639 0
-0.15803948 -1.9891921 -0.089728333 0
-0.18234731 -2.1420429 -0.090866499 0
-0.21146415 -2.3251336 -0.089120694 0
-0.25758776 -2.615165 -0.091438554 0
-0.3193256 -3.0033808 -0.089387707 0
-0.42977855 -3.6979239 -0.090768017 0
-0.81346059 -6.110568 -0.14044486 0
-1.631681 -11.255649 -0.14072649 0
-0.11869237 -1.8873141 -0.091602229 0
-0.13442381 -2.0053687 -0.09210027 0
-0.15349257 -2.1484675 -0.091225646 0
-0.17918469 -2.3412704 -0.090708919 0
-0.21741697 -2.6281793 -0.092264883 0
-0.26899406 -3.0152326 -0.089803122 0
-0.36124349 -3.7075059 -0.09073811 0
-0.68619239 -6.1460404 -0.14122233 0
-1.3719139 -11.291945 -0.14068829 0
-0.095933497 -1.8894641 -0.091477506 0
-0.10798849 -2.0014424 -0.09077061 0
-0.12334231 -2.1440632 -0.089914374 0
-0.1445066 -2.3406577 -0.090040617 0
-0.17450193 -2.6192827 -0.090632714 0
-0.21712117 -3.0151711 -0.08921843 0
-0.29428586 -3.7319503 -0.091875128 0
-0.55471408 -6.1510563 -0.14072223 0
-1.1103591 -11.312418 -0.14043373 0
-0.072223365 -1.8798567 -0.088968076 0
-0.082585305 -2.0059259 -0.091159262 0
-0.094453767 -2.1503246 -0.090490274 0
-0.11012308 -2.3409665 -0.089627244 0
-0.13411812 -2.6329041 -0.091771699 0
-0.16657041 -3.0277374 -0.089940362 0
-0.22433512 -3.730536 -0.091314606 0
-0.42398769 -6.1596236 -0.14054428 0
-0.85014886 -11.344546 -0.14060576 0
-0.050119206 -1.8882636 -0.090425096 0
-0.056739829 -2.004751 -0.090600915 0
-0.065233901 -2.154201 -0.090792902 0
-0.075844526 -2.3408914 -0.089282654 0
-0.081137381 -2.4340172 -0.068151884 0
-0.081197694 -2.4350784 -0.034197558 0
-0.081422932 -2.4390414 -0.00054430007 0
-0.081265546 -2.4362724 0.03349803 0
-0.081465095 -2.4397831 0.067191415 0
-0.081031337 -2.4321513 0.10101166 0
-0.027639829 -1.8962016 -0.091899969 0
-0.031191982 -2.0087852 -0.091147669 0
-0.03569597 -2.1515369 -0.09014114 0
-0.040700816 -2.310163 -0.084750108 0
-0.04088217 -2.3159111 -0.054153074 0
-0.040755104 -2.3118837 -0.022542177 0
-0.040520772 -2.3044567 0.0089822505 0
-0.041131359 -2.3238089 0.03881152 0
-0.040721219 -2.3108099 0.07022924 0
-0.040579528 -2.306319 0.10100801 0
-0.0046866578 -1.8868273 -0.089815222 0
-0.0054881126 -2.0138977 -0.092018865 0
-0.0063707824 -2.1538448 -0.090429179 0
-0.0067342194 -2.2114675 -0.070791014 0
-0.0066831564 -2.2033715 -0.040925864 0
-0.0067043272 -2.2067282 -0.012667743 0
-0.0066857338 -2.2037802 0.016064556 0
-0.0067381547 -2.2120914 0.044042274 0
-0.00669418 -2.2051194 0.072701313 0
-0.0066901119 -2.2044742 0.10100509 0
0.017932534 -1.8851895 -0.089497425 0
0.020390246 -2.0150292 -0.092262767 0
0.022924433 -2.1489089 -0.089648299 0
0.023626104 -2.1859779 -0.067235537 0
0.023897626 -2.2003222 -0.040592019 0
0.023894865 -2.2001765 -0.012074186 0
0.02372596 -2.1912532 0.016926939 0
0.023932397 -2.2021592 0.044495687 0
0.023967061 -2.2039905 0.072723068 0
0.023902403 -2.2005746 0.10100498 0
0.040881902 -1.8924062 -0.091184624 0
0.046189602 -2.0125198 -0.091943599 0
0.052382819 -2.152673 -0.090419374 0
0.054582052 -2.2024419 -0.069685541 0
0.054432381 -2.1990547 -0.040556509 0
0.054600116 -2.2028506 -0.012414096 0
0.054425202 -2.1988924 0.016325431 0
0.054548882 -2.2016912 0.044472508 0
0.054660153 -2.2042093 0.072695471 0
0.054708879 -2.205312 0.10100514 0
0.06337446 -1.8870664 -0.090322636 0
0.071786456 -2.0080926 -0.091384627 0
0.081702128 -2.150753 -0.09037777 0
0.085390978 -2.2038257 -0.070125453 0
0.085477129 -2.2050653 -0.041463811 0
0.085263982 -2.2019987 -0.01249711 0
0.085349947 -2.2032354 0.015899578 0
0.085770018 -2.2092791 0.044037309 0
0.084432736 -2.1900392 0.072985142 0
0.084683798 -2.1936514 0.10100486 0
0.086949594 -1.8951448 -0.09244471 0
0.096722983 -1.998119 -0.089897014 0
0.10995535 -2.1375375 -0.088593341 0
0.11628673 -2.2042465 -0.070540078 0
0.11609589 -2.2022355 -0.041427348 0
0.11688936 -2.2105956 -0.013538776 0
0.11616985 -2.2030149 0.01573843 0
0.11697774 -2.2115269 0.043813981 0
0.1160285 -2.2015257 0.07265877 0
0.11556432 -2.196635 0.10100502 0
0.10767306 -1.8752118 -0.088703282 0
0.1220786 -1.994821 -0.089790545 0
0.14028217 -2.1459649 -0.090504088 0
0.14748915 -2.2058043 -0.071227185 0
0.14725128 -2.2038293 -0.042002339 0
0.14619412 -2.1950517 -0.01238892 0
0.14698394 -2.2016096 0.015605511 0
0.14674227 -2.1996031 0.044217616 0
0.14599267 -2.1933792 0.072772533 0
0.14753798 -2.2062097 0.10100539 0
0.13085866 -1.8781707 -0.089977808 0
0.14808616 -1.9960691 -0.090670712 0
0.16948578 -2.1425195 -0.090576805 0
0.17731592 -2.1961062 -0.070429824 0
0.17655011 -2.190865 -0.040952686 0
0.17739552 -2.1966507 -0.012921615 0
0.177781 -2.1992888 0.015481928 0
0.17687663 -2.1930997 0.044332419 0
0.17689523 -2.1932271 0.072681122 0
0.17810385 -2.2014983 0.10100537 0
0.15450647 -1.8819474 -0.091560222 0
0.17269644 -1.9877061 -0.089843057 0
0.19652793 -2.1262653 -0.088636406 0
0.20954886 -2.2019706 -0.071955316 0
0.20947863 -2.2015622 -0.042791951 0
0.20867324 -2.1968796 -0.013401261 0
0.20900881 -2.1988306 0.015170673 0
0.20844118 -2.1955304 0.043989848 0
0.20973454 -2.2030501 0.072335616 0
0.20982465 -2.2035739 0.10100557 0
0.17483644 -1.8669677 -0.089215241 0
0.19797611 -1.9837794 -0.08998204 0
0.22556022 -2.1230268 -0.088981174 0
0.23834093 -2.1875453 -0.070697926 0
0.24009253 -2.1963875 -0.042848203 0
0.24022287 -2.1970456 -0.013952291 0
0.24039236 -2.1979012 0.014835389 0
0.242542 -2.2087529 0.043095663 0
0.24073493 -2.1996305 0.072282664 0
0.24113178 -2.2016339 0.10100568 0
0.19829391 -1.8683974 -0.090543203 0
0.22303694 -1.9786333 -0.090009265 0
0.25586477 -2.1248889 -0.090310074 0
0.2728304 -2.2004747 -0.073477723 0
0.27214944 -2.1974409 -0.043743063 0
0.27411446 -2.2061956 -0.015441855 0
0.27504447 -2.2103391 0.013483854 0
0.27269211 -2.1998587 0.0432107 0
0.27181694 -2.1959596 0.072216809 0
0.27380455 -2.2048147 0.10100596 0
0.2228082 -1.872682 -0.09263467 0
0.24970379 -1.9797859 -0.091382332 0
0.28351074 -2.1144123 -0.08968582 0
0.30317438 -2.1927171 -0.073403411 0
0.30502757 -2.2000968 -0.044933934 0
0.30388284 -2.1955383 -0.015116742 0
0.30547726 -2.2018876 0.01356657 0
0.30313531 -2.1925616 0.043213386 0
0.30561954 -2.2024543 0.071888089 0
0.30379745 -2.1951983 0.10100589 0
0.24231084 -1.8570398 -0.090480469 0
0.27434632 -1.9722263 -0.091192968 0
0.31186756 -2.1071372 -0.089721926 0
0.33411008 -2.1871121 -0.073753931 0
0.33784544 -2.2005432 -0.045965452 0
0.33862534 -2.2033472 -0.016650936 0
0.33847612 -2.2028108 0.012914086 0
0.33697441 -2.1974113 0.042592138 0
0.3370845 -2.1978071 0.071805425 0
0.33723891 -2.1983621 0.10100622 0
0.26236945 -1.8449178 -0.089201011 0
0.29879478 -1.9641488 -0.091022201 0
0.34001178 -2.0990646 -0.0897438 0
0.36739033 -2.1886828 -0.075275876 0
0.36968943 -2.1962085 -0.046521548 0
0.36950973 -2.1956203 -0.01676598 0
0.37161759 -2.2025199 0.012284631 0
0.37008718 -2.1975102 0.04215591 0
0.37194416 -2.2035887 0.071449339 0
0.37198979 -2.2037382 0.10100665 0
0.28613818 -1.8448416 -0.090722702 0
0.32189918 -1.9521317 -0.090189852 0
0.36760637 -2.0892625 -0.089588858 0
0.42825374 -2.2712169 -0.0889282 0
0.52340198 -2.5566807 -0.092123173 0
0.65225631 -2.9432695 -0.091278888 0
0.86310685 -3.5758638 -0.08963538 0
1.3042201 -4.899292 -0.090903409 0
3.2900212 -10.857096 -0.1408693 0
0.3085812 -1.8399945 -0.091314964 0
0.34559518 -1.9423585 -0.089915551 0
0.40105277 -2.0957291 -0.092396863 0
0.46328667 -2.2678399 -0.090095617 0
0.55910337 -2.5328257 -0.090858676 0
0.70223403 -2.9286606 -0.091521628 0
0.93072671 -3.5605683 -0.090176605 0
1.3996989 -4.8575339 -0.09052562 0
3.5339878 -10.760015 -0.14059849 0
0.33016098 -1.8325098 -0.091439836 0
0.37160388 -1.9386665 -0.090988509 0
0.42106456 -2.0653608 -0.088882037 0
0.49375394 -2.2515559 -0.089460097 0
0.59036154 -2.4990177 -0.088445447 0
0.75110143 -2.9107559 -0.091562323 0
0.99537873 -3.5364764 -0.090190493 0
1.4987777 -4.8259411 -0.090771995 0
3.7828436 -10.676615 -0.14081943 0
0.35225457 -1.8261349 -0.091946833 0
0.39673513 -1.9320993 -0.091618977 0
0.45034206 -2.0598052 -0.089842103 0
0.5248211 -2.2372339 -0.089233495 0
0.44783235 -2.0538263 -0.03396209 0
0.41086906 -1.9657701 0.0021211451 0
0.44286892 -2.0420022 0.021155106 0
0.4436529 -2.0438697 0.047724858 0
0.41381976 -1.9727994 0.076170467 0
0.42007881 -1.9877102 0.10100131 0
0.37059212 -1.8110802 -0.090565853 0
0.41996756 -1.9208587 -0.091421761 0
0.48240799 -2.0596852 -0.091925137 0
0.42593282 -1.9341216 -0.044623259 0
0.42529368 -1.9327006 -0.019928036 0
0.4218348 -1.9250103 0.005202489 0
0.4212516 -1.9237137 0.029342184 0
0.42135206 -1.923937 0.053259756 0
0.43070173 -1.9447246 0.076612666 0
0.43299878 -1.9498316 0.10100047 0
0.44816867 -1.9835595 0.12638046 0
0.3933602 -1.8059701 -0.091621719 0
0.44043335 -1.903944 -0.090158246 0
0.44370788 -1.9107594 -0.06704738 0
0.44129342 -1.9057342 -0.041915867 0
0.50221479 -2.0325305 -0.034299437 0
0.44903532 -1.9218475 0.0043995474 0
0.44441929 -1.91224 0.02938656 0
0.45487639 -1.9340045 0.052176584 0
0.45243886 -1.9289312 0.076732531 0
0.46569219 -1.9565156 0.10100103 0
0.40832064 -1.7850263 -0.089046679 0
0.46383575 -1.8934728 -0.090350352 0
0.46068406 -1.8873161 -0.064835586 0
0.46408468 -1.893959 -0.041856874 0
0.46923372 -1.9040174 -0.019130161 0
0.4659034 -1.8975118 0.0057348032 0
0.4694218 -1.9043849 0.029101687 0
0.47384959 -1.9130344 0.052658632 0
0.4838917 -1.9326512 0.076330021 0
0.42405301 -1.7667495 -0.087172233 0
0.49022236 -1.8883436 -0.091816463 0
0.48600006 -1.8805846 -0.065799825 0
0.4810808 -1.8715448 -0.04018629 0
0.57071638 -2.0362608 -0.038336936 0
0.49220094 -1.8919795 0.0050454158 0
0.49628636 -1.8994868 0.028527627 0
0.50376213 -1.9132245 0.052000608 0
0.51561111 -1.9349983 0.07593742 0
0.52434099 -1.9510405 0.10100166 0
0.45084369 -1.7684876 -0.090279616 0
0.51508468 -1.879756 -0.09269572 0
0.58521634 -2.0012274 -0.09107127 0
0.67952126 -2.1645679 -0.089748077 0
0.51476616 -1.8792043 -0.019126533 0
0.52565825 -1.8980699 0.0030221811 0
0.5299024 -1.905421 0.027016373 0
0.53060013 -1.9066294 0.051657371 0
0.54093033 -1.9245219 0.075861998 0
0.54581088 -1.9329752 0.10100151 0
0.47199309 -1.7595589 -0.090944879 0
0.52975518 -1.8540183 -0.08993987 0
0.60805124 -1.9820576 -0.090280153 0
0.55713481 -1.8987929 -0.048849422 0
0.55398405 -1.8936403 -0.022918893 0
0.55964208 -1.9028931 0.0010144359 0
0.56012917 -1.9036895 0.026040779 0
0.57210857 -1.9232798 0.050003644 0
0.56807911 -1.9166902 0.075696029 0
0.49154925 -1.7478492 -0.091051154 0
0.55043006 -1.8388944 -0.089601837 0
0.63666433 -1.972235 -0.091417454 0
0.57219267 -1.872545 -0.046853486 0
0.58008271 -1.884745 -0.023662923 0
0.57804382 -1.8815924 0.0017829931 0
0.59416431 -1.9065189 0.024606416 0
0.59719259 -1.9112015 0.049857866 0
5.6448407 -9.7161818 -0.14066857 0
0.50963748 -1.7339203 -0.090713985 0
0.57444429 -1.8287904 -0.090521045 0
0.61568165 -1.8891575 -0.078136571 0
0.60612106 -1.8751618 -0.04979961 0
0.59899831 -1.8647349 -0.022939144 0
0.60113996 -1.8678701 0.0016561991 0
0.60559267 -1.8743883 0.026034849 0
2.9297707 -5.2767334 -0.14075543 0
5.8658533 -9.5748415 -0.14077662 0
0.52429724 -1.7153468 -0.089272223 0
0.59815967 -1.8178231 -0.091396131 0
0.62379247 -1.8533857 -0.074089639 0
0.62533242 -1.8555223 -0.049091239 0
0.62344587 -1.8529049 -0.023448786 0
0.7145167 -1.9792559 -0.012934295 0
0.63479632 -1.8686523 0.025190236 0
3.0385182 -5.203558 -0.14087515 0
6.0806479 -9.4241867 -0.14077821 0
0.54220366 -1.7015879 -0.089185797 0
0.62216204 -1.8068187 -0.092419721 0
0.65821886 -1.8542719 -0.077572994 0
0.65101916 -1.8447967 -0.050027285 0
0.65190876 -1.8459674 -0.024776151 0
0.6558193 -1.8511139 -5.9840972e-05 0
1.6609784 -3.1739731 -0.090847172 0
3.1417377 -5.1227551 -0.14071019 0
6.2909856 -9.2673845 -0.14075717 0
0.56512266 -1.6941012 -0.090927191 0
0.63692307 -1.7838038 -0.090711258 0
0.72878069 -1.8985645 -0.090446226 0
0.85509855 -2.0563774 -0.091115288 0
1.0220052 -2.2648993 -0.089990608 0
1.286377 -2.5951874 -0.091028653 0
1.7156359 -3.1314745 -0.090854354 0
3.2478588 -5.0457301 -0.140921 0
6.5006256 -9.1095171 -0.14086053 0
0.58158475 -1.6782885 -0.090550698 0
0.66096765 -1.7724901 -0.091939099 0
0.75099432 -1.8793225 -0.090319611 0
0.87705493 -2.0289154 -0.09009131 0
1.0518432 -2.2363322 -0.089623906 0
1.3284243 -2.5645444 -0.091309421 0
1.7653929 -3.0830841 -0.09044791 0
3.3404121 -4.9521203 -0.14028807 0
6.7064762 -8.9465446 -0.14097016 0
0.60423428 -1.6695658 -0.092296816 0
0.67289102 -1.7469875 -0.089773826 0
0.77279294 -1.8596431 -0.090215839 0
0.90218264 -2.0055509 -0.089916758 0
1.0823702 -2.2087414 -0.089517795 0
1.3666726 -2.5293386 -0.091158278 0
1.8260034 -3.0473087 -0.091327079 0
3.4514275 -4.8802376 -0.14113654 0
6.9001498 -8.7692318 -0.14079632 0
0.61057526 -1.642733 -0.088984169 0
0.69940585 -1.7379519 -0.091875426 0
0.7987259 -1.8444145 -0.091232292 0
0.93067658 -1.9858544 -0.090563573 0
1.1164206 -2.1849563 -0.090139173 0
1.4092722 -2.4988682 -0.091729902 0
1.8664783 -2.9889545 -0.090213083 0
3.5423489 -4.7853456 -0.14071667 0
7.0888186 -8.5868607 -0.14061122 0
0.64392215 -1.644524 -0.094159953 0
0.70587641 -1.7076619 -0.088595472 0
0.81921625 -1.8231671 -0.091037221 0
0.95626283 -1.962832 -0.090711661 0
1.1477774 -2.1580055 -0.090396829 0
1.4369147 -2.4526668 -0.090397544 0
1.9208251 -2.9458225 -0.090660997 0
3.6328444 -4.6905503 -0.14044048 0
7.2829685 -8.4104109 -0.14076766 0
0.65003264 -1.6181935 -0.091135971 0
0.73181289 -1.6974339 -0.090702958 0
0.84034765 -1.8025981 -0.091117881 0
0.9832204 -1.9410337 -0.091239683 0
1.1762099 -2.1280296 -0.090284519 0
1.4723276 -2.4149511 -0.090260781 0
1.9549316 -2.8825672 -0.089235149 0
3.7263193 -4.5989423 -0.14052115 0
7.469264 -8.225646 -0.14081207 0
0.65755349 -1.5941182 -0.088783376 0
0.75304937 -1.6820869 -0.0916254 0
0.85435379 -1.7754061 -0.089721911 0
1.0010674 -1.9105555 -0.090121202 0
1.2022138 -2.0958469 -0.089910544 0
1.5071633 -2.3767593 -0.090176187 0
2.5461204 -3.3338232 -0.14094646 0
3.8160515 -4.5036545 -0.14051123 0
7.6489553 -8.0344381 -0.14079589 0
0.67925018 -1.5831782 -0.090660892 0
0.76391745 -1.6573112 -0.090030082 0
0.87695479 -1.7562846 -0.090385623 0
1.0335929 -1.8934339 -0.091914304 0
1.234345 -2.0692086 -0.090624206 0
1.5360212 -2.3333509 -0.089472778 0
2.6024876 -3.2671289 -0.14076272 0
3.9070814 -4.4094067 -0.14073236 0
7.8269444 -7.8415656 -0.14087833 0
0.6980626 -1.56924 -0.091779076 0
0.78082407 -1.6380939 -0.090102307 0
0.90115738 -1.7382061 -0.091482274 0
1.049669 -1.8617613 -0.090742938 0
1.2515326 -2.0297031 -0.089154519 0
1.5714685 -2.295876 -0.089718543 0
2.6632082 -3.2041569 -0.14113349 0
3.9900408 -4.3080244 -0.14060581 0
7.9920716 -7.6375422 -0.14071892 0
0.71172321 -1.5508744 -0.091575868 0
0.79216355 -1.6144326 -0.088954352 0
0.91380453 -1.7105443 -0.090233438 0
1.0713551 -1.8350292 -0.090744115 0
1.2810673 -2.0007286 -0.089702986 0
1.6046311 -2.2563851 -0.089801349 0
2.7088113 -3.128828 -0.14029305 0
4.082438 -4.2141676 -0.14119512 0
8.1636848 -7.4388714 -0.14090902 0
0.72282356 -1.5306309 -0.090820603 0
0.82140273 -1.6045587 -0.09218403 0
0.93306506 -1.688298 -0.090511419 0
1.1001247 -1.8135815 -0.0921093 0
1.3140929 -1.9740433 -0.090859063 0
1.6331925 -2.2133465 -0.089463241 0
2.7645311 -3.0617747 -0.14052019 0
4.155282 -4.1047444 -0.14077476 0
8.3134098 -7.2230611 -0.14060661 0
0.73482513 -1.5112306 -0.090448342 0
0.8355723 -1.5828853 -0.091931395 0
0.95409167 -1.6671801 -0.091254972 0
1.1263822 -1.7897186 -0.093111254 0
1.3290156 -1.9338379 -0.0894958 0
1.6752194 -2.1800692 -0.090799071 0
2.818475 -2.9931891 -0.14073747 0
4.2321048 -3.9986081 -0.14074847 0
8.4690218 -7.0120387 -0.1406344 0
0.74231941 -1.4888819 -0.089053668 0
0.84170997 -1.5558609 -0.089984111 0
0.96624786 -1.6397865 -0.090334557 0
1.1291434 -1.7495611 -0.090217389 0
1.3432078 -1.8938183 -0.088196822 0
1.6918392 -2.1287596 -0.089348011 0
2.86151 -2.9169962 -0.1401787 0
4.3037429 -3.8889112 -0.14058325 0
8.6273565 -6.802577 -0.14088872 0
0.75923973 -1.4729208 -0.090201102 0
0.86133641 -1.538039 -0.09123493 0
0.98458892 -1.6166506 -0.090770386 0
1.1510177 -1.7228003 -0.090725966 0
1.371158 -1.8632077 -0.088966928 0
1.7431707 -2.1004806 -0.091907613 0
2.9162669 -2.8486919 -0.1407616 0
4.3743811 -3.7786903 -0.14051962 0
8.7685852 -6.5813522 -0.14081426 0
0.76994169 -1.4528761 -0.089888595 0
0.86779076 -1.5118659 -0.089669637 0
1.0036945 -1.5937974 -0.091459312 0
1.1619016 -1.689175 -0.08953511 0
1.404189 -1.8352416 -0.090525053 0
1.7546674 -2.0465329 -0.090165399 0
2.9672508 -2.7775571 -0.14116955 0
4.4492354 -3.670994 -0.14083856 0
8.9063587 -6.3580375 -0.14079991 0
0.78460729 -1.4351552 -0.090674542 0
0.88215619 -1.4906574 -0.089985229 0
1.0130802 -1.5651491 -0.090410344 0
1.1837064 -1.6622301 -0.090265237 0
1.4137814 -1.7931356 -0.089004911 0
1.794403 -2.0096974 -0.091627918 0
2.9994919 -2.6953557 -0.14020963 0
4.5094237 -3.5544598 -0.14051412 0
9.0390778 -6.1316915 -0.14080247 0
0.79964143 -1.4174038 -0.091647454 0
0.89247745 -1.4671669 -0.089547537 0
1.032052 -1.5419834 -0.091298826 0
1.2032268 -1.6337386 -0.09073054 0
1.4513444 -1.7667376 -0.091356136 0
1.8103701 -1.959187 -0.090652786 0
3.052824 -2.6251826 -0.14110127 0
4.5745425 -3.4408729 -0.14061092 0
9.1599312 -5.8987889 -0.14064373 0
0.801094 -1.3925327 -0.089482598 0
