# .PCD v0.7 - Point Cloud Data file format
VERSION 0.7
FIELDS x y z intensity
SIZE 4 4 4 4
TYPE F F F F
COUNT 1 1 1 1
WIDTH 1361
HEIGHT 1
VIEWPOINT 0 0 0 1 0 0 0
POINTS 1361
DATA ascii
5.3530002 6.4190001 -1.671 0.31999999
5.3270001 6.428 -1.668 0.28999999
5.3109999 6.4510002 -1.67 0.36000001
5.2909999 6.4679999 -1.67 0.30000001
5.2810001 6.4970002 -1.674 0.38999999
5.2540002 6.506 -1.671 0.40000001
5.2579999 6.5320001 -1.676 0.46000001
5.1539998 6.4429998 -1.648 0.23
4.8080001 6.046 -1.535 0.36000001
4.7740002 6.0430002 -1.53 0.41999999
4.7579999 6.0609999 -1.53 0.37
4.7519999 6.0929999 -1.535 0.44999999
4.7379999 6.1160002 -1.5369999 0.44999999
5.0539999 6.5469999 -1.652 0.36000001
5.053 6.5890002 -1.659 0.34
4.9860001 6.5440001 -1.642 0.47999999
4.9850001 6.585 -1.649 0.56
2.0610001 2.733 -0.611 0.20999999
4.948 6.5780001 -1.643 0.23
2.046 2.7309999 -0.60900003 0.31
2.039 2.73 -0.60799998 0.41
2.03 2.7360001 -0.60799998 0.43000001
2.016 2.7349999 -0.60600001 0.47
2.0079999 2.743 -0.60600001 0.47
2 2.7490001 -0.60600001 0.44999999
1.9910001 2.7550001 -0.60600001 0.44999999
1.984 2.763 -0.60699999 0.57999998
2.006 2.8039999 -0.61699998 0.33000001
2.0109999 2.8299999 -0.62199998 0.51999998
1.999 2.8310001 -0.62 0.50999999
1.987 2.835 -0.62 0.43000001
1.98 2.842 -0.62 0.41999999
1.969 2.845 -0.61900002 0.43000001
1.9680001 2.8640001 -0.62199998 0.46000001
1.959 2.8610001 -0.62099999 0.47
1.956 2.875 -0.62300003 0.41999999
1.947 2.881 -0.62300003 0.41
1.943 2.8959999 -0.625 0.51999998
1.942 2.9130001 -0.62800002 0.37
1.9349999 2.9230001 -0.62900001 0.47
1.932 2.9389999 -0.63099998 0.41
1.933 2.951 -0.634 0.46000001
1.9349999 2.974 -0.63800001 0.31
1.926 2.9820001 -0.63800001 0.5
1.927 3.0039999 -0.64300001 0.37
1.947 3.0569999 -0.65399998 0.55000001
1.947 3.0780001 -0.65799999 0.25999999
1.966 3.1530001 -0.67400002 0.50999999
1.942 3.125 -0.66600001 0.38
1.939 3.142 -0.66900003 0.5
1.9220001 3.1370001 -0.66600001 0.51999998
1.9069999 3.1340001 -0.66399997 0.51999998
1.899 3.142 -0.66399997 0.50999999
1.891 3.151 -0.66500002 0.47
1.8789999 3.154 -0.66399997 0.61000001
2.5739999 4.3559999 -0.96200001 0.28999999
2.5580001 4.3600001 -0.96200001 0.68000001
2.2809999 3.911 -0.84799999 0.38999999
2.2079999 3.8110001 -0.82200003 0.36000001
2.1800001 3.7909999 -0.815 0.49000001
2.1559999 3.7750001 -0.81 0.38999999
2.141 3.777 -0.80800003 0.54000002
2.1289999 3.7679999 -0.80500001 0.54000002
2.1129999 3.7679999 -0.80400002 0.54000002
2.099 3.7709999 -0.80299997 0.38999999
2.0869999 3.7780001 -0.80299997 0.41
2.069 3.773 -0.80000001 0.57999998
2.062 3.7880001 -0.80199999 0.28999999
2.069 3.8299999 -0.81099999 0.54000002
2.0650001 3.8369999 -0.81199998 0.56999999
2.052 3.842 -0.81099999 0.50999999
2.0420001 3.852 -0.81199998 0.46000001
2.0320001 3.8629999 -0.81300002 0.41999999
2.036 3.901 -0.82099998 0.47
2.027 3.9130001 -0.82200003 0.47
2.017 3.924 -0.824 0.62
2.0139999 3.948 -0.82800001 0.23
3.4400001 6.8130002 -1.515 0.46000001
3.4170001 6.8210001 -1.5140001 0.31999999
3.3940001 6.8280001 -1.513 0.47
3.3800001 6.8530002 -1.517 0.40000001
3.355 6.8559999 -1.515 0.41999999
3.3340001 6.868 -1.515 0.34999999
3.3080001 6.8699999 -1.513 0.47999999
3.29 6.8590002 -1.5089999 0.41
3.266 6.8639998 -1.508 0.38999999
3.227 6.8390002 -1.5 0.43000001
3.2079999 6.855 -1.501 0.43000001
3.1960001 6.8839998 -1.506 0.47
3.197 6.9439998 -1.517 0.34
3.1719999 6.947 -1.516 0.55000001
3.1370001 6.8979998 -1.503 0.38
3.115 6.908 -1.503 0.41
3.098 6.9289999 -1.506 0.34999999
3.069 6.9219999 -1.502 0.54000002
3.0409999 6.9159999 -1.498 0.34
3.02 6.9289999 -1.499 0.49000001
3.0009999 6.9439998 -1.5 0.33000001
2.9749999 6.914 -1.492 0.52999997
2.961 6.9419999 -1.4960001 0.33000001
2.9300001 6.9289999 -1.4910001 0.49000001
2.927 6.9819999 -1.501 0.41
2.905 6.9910002 -1.501 0.41
2.895 7.0289998 -1.508 0.34
2.869 7.0289998 -1.506 0.51999998
2.8670001 7.0549998 -1.511 0.33000001
2.825 7.0149999 -1.5 0.51999998
2.8 7.0170002 -1.498 0.30000001
2.7679999 7 -1.492 0.63999999
2.7479999 7.0139999 -1.493 0.27000001
2.7379999 7.0539999 -1.501 0.44999999
2.71 7.0479999 -1.497 0.38
2.697 7.0799999 -1.503 0.43000001
2.6730001 7.0510001 -1.495 0.34999999
2.655 7.0710001 -1.498 0.51999998
2.6329999 7.079 -1.498 0.31
2.595 7.0430002 -1.488 0.5
2.5780001 7.066 -1.4910001 0.34
2.5580001 7.0809999 -1.493 0.54000002
2.5350001 7.0869999 -1.492 0.33000001
2.5179999 7.073 -1.488 0.51999998
2.5009999 7.0960002 -1.4910001 0.36000001
2.4849999 7.1240001 -1.4960001 0.38
2.441 7.0669999 -1.4809999 0.41999999
2.438 7.132 -1.494 0.56
1.493 4.3800001 -0.87 0.18000001
1.465 4.3439999 -0.86000001 0.56
1.442 4.296 -0.84899998 0.17
1.418 4.2670002 -0.84200001 0.25
1.395 4.243 -0.83499998 0.58999997
1.385 4.257 -0.83700001 0.40000001
1.378 4.2839999 -0.84200001 0.43000001
1.355 4.256 -0.83499998 0.50999999
1.3380001 4.2490001 -0.833 0.38999999
1.3380001 4.2740002 -0.838 0.47
1.326 4.2820001 -0.83899999 0.56999999
1.313 4.2859998 -0.83899999 0.55000001
1.302 4.3000002 -0.84100002 0.49000001
1.2819999 4.283 -0.83600003 0.5
1.268 4.283 -0.83499998 0.46000001
1.257 4.2969999 -0.83700001 0.46000001
1.247 4.2870002 -0.83499998 0.46000001
1.2359999 4.3010001 -0.83700001 0.55000001
1.225 4.3140001 -0.83899999 0.51999998
1.205 4.2930002 -0.83399999 0.49000001
1.197 4.316 -0.838 0.46000001
1.192 4.3520002 -0.84500003 0.44999999
1.173 4.336 -0.84100002 0.61000001
1.164 4.3309999 -0.83899999 0.37
1.16 4.3699999 -0.847 0.44999999
1.143 4.3610001 -0.84399998 0.56
1.1289999 4.362 -0.84399998 0.54000002
1.122 4.3940001 -0.85000002 0.64999998
1.105 4.3829999 -0.847 0.34
1.8099999 7.4530001 -1.523 0.58999997
1.798 7.4559999 -1.523 0.30000001
1.771 7.4450002 -1.5190001 0.51999998
1.748 7.4499998 -1.5190001 0.31999999
1.722 7.4439998 -1.517 0.49000001
1.6950001 7.434 -1.513 0.31
1.671 7.4400001 -1.513 0.46000001
1.6390001 7.4050002 -1.5039999 0.36000001
1.62 7.3730001 -1.497 0.56
1.604 7.408 -1.5039999 0.34
1.5779999 7.402 -1.501 0.5
1.5549999 7.4109998 -1.502 0.47999999
1.524 7.375 -1.493 0.43000001
1.501 7.382 -1.493 0.41
1.482 7.408 -1.498 0.38
1.457 7.401 -1.4960001 0.57999998
1.4400001 7.3759999 -1.49 0.41
1.414 7.3670001 -1.487 0.43000001
1.391 7.3740001 -1.487 0.36000001
1.373 7.4070001 -1.493 0.46000001
1.349 7.4050002 -1.492 0.36000001
1.322 7.388 -1.488 0.44999999
1.317 7.4289999 -1.4960001 0.36000001
1.2920001 7.4229999 -1.494 0.40000001
1.265 7.4060001 -1.489 0.44
1.239 7.3909998 -1.485 0.44
1.22 7.4219999 -1.4910001 0.36000001
1.199 7.4390001 -1.494 0.43000001
1.174 7.4369998 -1.493 0.34999999
1.159 7.4159999 -1.488 0.49000001
1.143 7.4699998 -1.498 0.30000001
1.122 7.4850001 -1.501 0.44999999
1.092 7.4460001 -1.492 0.37
1.064 7.414 -1.484 0.52999997
1.043 7.4369998 -1.488 0.43000001
1.023 7.461 -1.493 0.37
0.99400002 7.428 -1.485 0.43000001
0.98400003 7.4369998 -1.487 0.37
0.96100003 7.448 -1.488 0.41
0.94 7.4699998 -1.493 0.36000001
0.91900003 7.4910002 -1.4960001 0.44
0.89600003 7.4990001 -1.498 0.38999999
0.87599999 7.533 -1.5039999 0.56999999
0.852 7.5339999 -1.5039999 0.33000001
0.83899999 7.5219998 -1.501 0.61000001
0.81099999 7.4829998 -1.492 0.28
0.79400003 7.5500002 -1.506 0.49000001
0.77399999 7.5900002 -1.5140001 0.30000001
0.75199997 7.6129999 -1.5190001 0.41
0.72600001 7.5939999 -1.5140001 0.54000002
0.704 7.6139998 -1.518 0.31999999
0.69099998 7.6030002 -1.515 0.46000001
0.671 7.658 -1.527 0.43000001
0.65100002 7.7090001 -1.5369999 0.34
0.625 7.6900001 -1.5319999 0.50999999
0.60299999 7.7210002 -1.539 0.31999999
0.57700002 7.6890001 -1.5319999 0.5
0.55299997 7.7030001 -1.534 0.34999999
0.52899998 7.6950002 -1.5319999 0.41
0.51700002 7.698 -1.5319999 0.49000001
0.493 7.717 -1.536 0.38999999
0.46700001 7.6830001 -1.529 0.44999999
0.44400001 7.6919999 -1.53 0.47999999
0.421 7.7210002 -1.536 0.41
0.39700001 7.724 -1.5369999 0.38999999
0.37099999 7.698 -1.531 0.51999998
0.36000001 7.7179999 -1.535 0.31999999
0.33500001 7.7080002 -1.5319999 0.56
0.31099999 7.7199998 -1.535 0.37
0.285 7.6729999 -1.525 0.41999999
0.26199999 7.6989999 -1.53 0.38
0.23800001 7.717 -1.534 0.46000001
0.214 7.7179999 -1.534 0.44
0.20299999 7.7529998 -1.541 0.37
0.17900001 7.7740002 -1.546 0.43000001
0.154 7.7620001 -1.543 0.44999999
0.13 7.743 -1.539 0.54000002
0.105 7.7649999 -1.543 0.36000001
0.081 7.8119998 -1.553 0.41999999
0.057 7.7870002 -1.548 0.56999999
0.045000002 7.7810001 -1.5470001 0.31
0.02 7.7779999 -1.546 0.46000001
-0.0040000002 7.7909999 -1.549 0.36000001
-0.028999999 7.8010001 -1.551 0.47999999
-0.052999999 7.7789998 -1.546 0.37
-0.078000002 7.7909999 -1.549 0.60000002
-0.103 7.816 -1.554 0.34
-0.115 7.8080001 -1.553 0.46000001
-0.14 7.8390002 -1.559 0.38999999
-0.16500001 7.8540001 -1.563 0.41
-0.189 7.8340001 -1.559 0.44999999
-0.214 7.8470001 -1.561 0.44
-0.23999999 7.8660002 -1.566 0.41999999
-0.26300001 7.8379998 -1.5599999 0.47999999
-0.28600001 7.7800002 -1.548 0.36000001
-0.29899999 7.7989998 -1.552 0.41
-0.324 7.8119998 -1.5549999 0.44
-0.347 7.7839999 -1.549 0.51999998
-0.36899999 7.737 -1.539 0.47
-0.39399999 7.7519999 -1.543 0.28999999
-0.421 7.7839999 -1.55 0.47999999
-0.44400001 7.7709999 -1.5470001 0.44999999
-0.456 7.77 -1.5470001 0.30000001
-0.47999999 7.757 -1.545 0.47999999
-0.505 7.7649999 -1.5470001 0.28999999
-0.52700001 7.7259998 -1.539 0.44
-0.54799998 7.6859999 -1.53 0.58999997
-0.57499999 7.723 -1.539 0.38999999
-0.60000002 7.7210002 -1.539 0.52999997
-0.611 7.71 -1.5369999 0.38999999
-0.639 7.7550001 -1.5470001 0.5
-0.662 7.7379999 -1.543 0.51999998
-0.685 7.724 -1.541 0.61000001
-0.71399999 7.7620001 -1.55 0.38
-0.736 7.7410002 -1.546 0.44
-0.75800002 7.717 -1.541 0.47999999
-0.78600001 7.7480001 -1.548 0.36000001
-0.79400003 7.7069998 -1.54 0.49000001
-0.81800002 7.7030001 -1.539 0.30000001
-0.84200001 7.6999998 -1.539 0.47
-0.86799997 7.7129998 -1.543 0.63999999
-0.88700002 7.6680002 -1.533 0.36000001
-0.91799998 7.7189999 -1.545 0.34999999
-0.94199997 7.7140002 -1.545 0.43000001
-0.95200002 7.6950002 -1.541 0.57999998
-0.97600001 7.6890001 -1.54 0.38999999
-1.008 7.7470002 -1.553 0.46000001
-1.031 7.7350001 -1.551 0.40000001
-1.054 7.7199998 -1.549 0.51999998
-1.08 7.7340002 -1.553 0.36000001
-1.1 7.697 -1.546 0.41999999
-1.1109999 7.6900001 -1.544 0.51999998
-1.1390001 7.711 -1.55 0.36000001
-1.1670001 7.7290001 -1.554 0.58999997
-1.192 7.7350001 -1.556 0.31999999
-1.2130001 7.7059999 -1.551 0.55000001
-1.238 7.7119999 -1.553 0.38
-1.2589999 7.6890001 -1.549 0.34999999
-1.272 7.691 -1.55 0.47
-1.301 7.7160001 -1.556 0.38
-1.3279999 7.7270002 -1.559 0.56999999
-1.346 7.6859999 -1.551 0.44
-1.369 7.6760001 -1.55 0.46000001
-1.396 7.6849999 -1.553 0.28999999
-1.416 7.6609998 -1.549 0.44999999
-1.421 7.619 -1.54 0.40000001
-1.4529999 7.6570001 -1.549 0.38999999
-1.476 7.6479998 -1.548 0.61000001
-1.498 7.632 -1.546 0.43000001
-1.515 7.5929999 -1.538 0.40000001
-1.553 7.6570001 -1.553 0.37
-1.574 7.6409998 -1.551 0.43000001
-1.59 7.5949998 -1.5420001 0.56999999
-1.602 7.5949998 -1.543 0.40000001
-1.619 7.5570002 -1.535 0.41
-1.647 7.5710001 -1.54 0.5
-1.67 7.5640001 -1.539 0.37
-1.6900001 7.54 -1.535 0.46000001
-1.723 7.5760002 -1.544 0.47999999
-1.748 7.5749998 -1.545 0.41
-1.76 7.572 -1.545 0.52999997
-1.783 7.566 -1.545 0.58999997
-1.804 7.5469999 -1.5420001 0.38
-1.824 7.526 -1.539 0.52999997
-1.851 7.5339999 -1.5420001 0.34
-1.896 7.6149998 -1.561 0.34999999
-1.906 7.5539999 -1.549 0.44
-1.925 7.5799999 -1.5549999 0.43000001
-1.948 7.5700002 -1.554 0.46000001
-1.974 7.5689998 -1.556 0.54000002
-1.997 7.5630002 -1.556 0.40000001
-2.0209999 7.5570002 -1.556 0.43000001
-2.0480001 7.5640001 -1.559 0.44999999
-2.0699999 7.5479999 -1.556 0.44
-2.0899999 7.5300002 -1.554 0.51999998
-2.098 7.5139999 -1.551 0.40000001
-2.122 7.5089998 -1.551 0.56999999
-2.1570001 7.5419998 -1.5599999 0.38999999
-2.174 7.5120001 -1.5549999 0.58999997
-2.2049999 7.5300002 -1.561 0.36000001
-2.2290001 7.5229998 -1.561 0.47999999
-2.25 7.5079999 -1.559 0.54000002
-2.2639999 7.5100002 -1.5599999 0.5
-2.29 7.5110002 -1.562 0.46000001
-2.309 7.4879999 -1.559 0.47999999
-2.3410001 7.5110002 -1.5650001 0.47
-2.375 7.533 -1.572 0.51999998
-2.3900001 7.5 -1.566 0.51999998
-2.411 7.4850001 -1.564 0.63
-2.4289999 7.5019999 -1.569 0.38
-2.4349999 7.4380002 -1.556 0.61000001
-2.467 7.4580002 -1.563 0.34
-2.503 7.4879999 -1.571 0.50999999
-2.5179999 7.454 -1.5650001 0.38
-2.5380001 7.4369998 -1.563 0.46000001
-2.5699999 7.4530001 -1.569 0.55000001
-2.585 7.4580002 -1.571 0.50999999
-2.6110001 7.4590001 -1.573 0.41
-2.6400001 7.4650002 -1.576 0.44999999
-2.6619999 7.4530001 -1.575 0.56999999
-2.6930001 7.4650002 -1.58 0.38999999
-2.721 7.4689999 -1.5829999 0.46000001
-2.73 7.4219999 -1.574 0.5
-2.7490001 7.4359999 -1.5779999 0.38999999
-2.766 7.4109998 -1.574 0.41
-2.773 7.3600001 -1.5650001 0.55000001
-2.8169999 7.4060001 -1.577 0.40000001
-2.849 7.4190001 -1.582 0.50999999
-2.868 7.4000001 -1.58 0.37
-2.878 7.3579998 -1.572 0.51999998
-2.9159999 7.3850002 -1.581 0.34
-2.934 7.3969998 -1.585 0.41999999
-2.96 7.395 -1.586 0.44
-2.9920001 7.4050002 -1.591 0.43000001
-3.0239999 7.4190001 -1.596 0.44
-3.0439999 7.401 -1.594 0.47
-3.0710001 7.4000001 -1.596 0.37
-3.0869999 7.3740001 -1.5930001 0.41
-3.098 7.368 -1.592 0.66000003
-3.1440001 7.4099998 -1.604 0.31
-3.161 7.388 -1.601 0.54000002
-3.1919999 7.3940001 -1.605 0.38999999
-3.2149999 7.3839998 -1.605 0.61000001
-3.247 7.3930001 -1.61 0.33000001
-3.2720001 7.3870001 -1.6109999 0.47999999
-3.277 7.3670001 -1.607 0.41
-3.2980001 7.3530002 -1.6059999 0.44999999
-3.325 7.3520002 -1.608 0.60000002
-3.3469999 7.3379998 -1.608 0.38999999
-3.368 7.3239999 -1.607 0.51999998
-3.401 7.3340001 -1.612 0.38999999
-3.4230001 7.322 -1.6109999 0.57999998
-3.4319999 7.2810001 -1.604 0.38
-3.447 7.283 -1.6059999 0.46000001
-3.49 7.3140001 -1.6160001 0.49000001
-3.5239999 7.3260002 -1.6210001 0.47
-3.5250001 7.2690001 -1.6109999 0.31
-3.553 7.2690001 -1.613 0.56999999
-3.5769999 7.2610002 -1.614 0.38999999
-3.612 7.2719998 -1.619 0.57999998
-3.632 7.2839999 -1.624 0.36000001
-3.6389999 7.2410002 -1.6160001 0.58999997
-3.6400001 7.1880002 -1.6059999 0.34999999
-3.6830001 7.217 -1.6160001 0.41
-3.7 7.1929998 -1.613 0.62
-3.7290001 7.1950002 -1.6160001 0.31999999
-3.737 7.1560001 -1.609 0.51999998
-3.7509999 7.1529999 -1.61 0.38999999
-3.7750001 7.145 -1.6109999 0.43000001
-3.802 7.1409998 -1.613 0.51999998
-3.823 7.1279998 -1.613 0.37
-3.8429999 7.1110001 -1.6109999 0.55000001
-3.8710001 7.1090002 -1.614 0.36000001
-3.8900001 7.0910001 -1.613 0.44999999
-3.9230001 7.125 -1.622 0.47
-3.9660001 7.1479998 -1.631 0.30000001
-3.9949999 7.1479998 -1.6339999 0.5
-3.9890001 7.086 -1.622 0.34999999
-4.0349998 7.1139998 -1.632 0.49000001
-4.0489998 7.0879998 -1.6289999 0.36000001
-4.073 7.0760002 -1.6289999 0.44999999
-4.0780001 7.0599999 -1.627 0.38999999
-4.1230001 7.086 -1.636 0.44999999
-4.1479998 7.0780001 -1.637 0.40000001
-4.138 7.0110002 -1.624 0.41
-4.1609998 7 -1.624 0.44
-4.1700001 6.9650002 -1.619 0.60000002
-4.2280002 7.0120001 -1.6339999 0.34
-4.2179999 6.9450002 -1.6210001 0.54000002
-4.2249999 6.9320002 -1.619 0.38
-4.2540002 6.9299998 -1.622 0.47999999
-4.2880001 6.9369998 -1.627 0.47
-4.316 6.9330001 -1.6289999 0.41
-4.3319998 6.9109998 -1.627 0.5
-4.3610001 6.9089999 -1.63 0.34999999
-4.3610001 6.8610001 -1.6210001 0.52999997
-4.3649998 6.8439999 -1.619 0.38
-4.3800001 6.8210001 -1.6160001 0.55000001
-4.4190001 6.8330002 -1.623 0.38999999
-4.4250002 6.796 -1.617 0.62
-4.454 6.7940001 -1.62 0.34
-4.4850001 6.7940001 -1.624 0.55000001
-4.4829998 6.744 -1.615 0.28999999
-4.4980001 6.744 -1.6160001 0.57999998
-4.5489998 6.7750001 -1.628 0.38999999
-4.553 6.7350001 -1.6210001 0.52999997
-4.5710001 6.7160001 -1.62 0.40000001
-4.6199999 6.7420001 -1.631 0.51999998
-4.619 6.6950002 -1.622 0.38999999
-4.6269999 6.6630001 -1.618 0.5
-4.6479998 6.6479998 -1.618 0.41
-4.678 6.6680002 -1.625 0.41
-4.6830001 6.631 -1.619 0.44
-4.7319999 6.6560001 -1.6289999 0.38
-4.7540002 6.6430001 -1.63 0.43000001
-4.7620001 6.6100001 -1.625 0.49000001
-4.763 6.5679998 -1.618 0.34999999
-4.823 6.6069999 -1.632 0.54000002
-4.8439999 6.6139998 -1.636 0.31999999
-4.8249998 6.5450001 -1.622 0.41999999
-4.8639998 6.553 -1.628 0.63999999
-4.9060001 6.5679998 -1.636 0.28999999
-4.9380002 6.566 -1.64 0.52999997
-4.9549999 6.546 -1.6390001 0.36000001
-4.9850001 6.5430002 -1.642 0.51999998
-4.994 6.533 -1.642 0.31999999
-5.0170002 6.5209999 -1.642 0.41999999
-5.0370002 6.5050001 -1.642 0.51999998
-5.0479999 6.4770002 -1.6390001 0.38999999
-5.066 6.4580002 -1.638 0.55000001
-5.1030002 6.4629998 -1.6440001 0.34
-5.119 6.441 -1.642 0.44
-5.105 6.4039998 -1.6339999 0.38
-5.1430001 6.4089999 -1.64 0.43000001
-5.1859999 6.4219999 -1.648 0.36000001
-5.1900001 6.3860002 -1.643 0.44
-5.204 6.362 -1.641 0.47999999
-5.243 6.368 -1.647 0.36000001
-5.2789998 6.3709998 -1.653 0.41999999
-5.2969999 6.3720002 -1.655 0.44999999
-5.3000002 6.336 -1.65 0.58999997
-5.3569999 6.3629999 -1.6619999 0.31999999
-5.3670001 6.3340001 -1.658 0.5
-5.3920002 6.323 -1.66 0.31
-5.3920002 6.2839999 -1.654 0.55000001
-5.461 6.323 -1.67 0.27000001
-5.473 6.2969999 -1.6670001 0.52999997
-5.5009999 6.309 -1.673 0.28999999
-5.4879999 6.2550001 -1.663 0.47
-5.5159998 6.2459998 -1.665 0.54000002
-5.539 6.2329998 -1.666 0.38
-5.552 6.2090001 -1.664 0.41999999
-5.5539999 6.1719999 -1.659 0.55000001
-5.5840001 6.1659999 -1.6619999 0.38999999
-5.5900002 6.1529999 -1.661 0.40000001
-5.6269999 6.1539998 -1.666 0.41999999
-5.6620002 6.1539998 -1.671 0.55000001
-5.6680002 6.1220002 -1.6670001 0.31
-5.698 6.1149998 -1.671 0.44999999
-5.737 6.119 -1.677 0.38999999
-5.7550001 6.099 -1.676 0.46000001
-5.7789998 6.1059999 -1.681 0.34999999
-5.7670002 6.0549998 -1.671 0.47
-5.8080001 6.0599999 -1.678 0.38
-5.8070002 6.02 -1.6720001 0.52999997
-5.836 6.013 -1.675 0.36000001
-5.8569999 5.9959998 -1.676 0.5
-5.888 5.9899998 -1.679 0.38999999
-5.9109998 5.9759998 -1.681 0.41999999
-5.901 5.947 -1.675 0.47
-5.9060001 5.915 -1.671 0.37
-5.9310002 5.9029999 -1.673 0.55000001
-5.9219999 5.8569999 -1.664 0.34999999
-5.9780002 5.875 -1.676 0.34
-5.9980001 5.8579998 -1.676 0.50999999
-6.0170002 5.8400002 -1.676 0.47999999
-6.027 5.8309999 -1.676 0.37
-6.0479999 5.8150001 -1.677 0.52999997
-6.0599999 5.79 -1.676 0.36000001
-6.079 5.7709999 -1.676 0.51999998
-6.1269999 5.7800002 -1.684 0.38
-6.1490002 5.7649999 -1.686 0.49000001
-6.177 5.7550001 -1.689 0.36000001
-6.2010002 5.7579999 -1.693 0.63
-6.223 5.743 -1.694 0.31999999
-6.2129998 5.698 -1.686 0.47
-6.2309999 5.6789999 -1.686 0.34
-6.2360001 5.6469998 -1.682 0.44
-6.277 5.6479998 -1.689 0.37
-6.2849998 5.6199999 -1.686 0.44999999
-6.2880001 5.605 -1.684 0.36000001
-6.29 5.572 -1.6799999 0.50999999
-6.3109999 5.5549998 -1.681 0.38999999
-6.3299999 5.5359998 -1.682 0.52999997
-6.3660002 5.533 -1.687 0.36000001
-6.3699999 5.5009999 -1.683 0.52999997
-6.3909998 5.4840002 -1.684 0.38999999
-6.3959999 5.4710002 -1.683 0.5
-6.454 5.4850001 -1.6950001 0.36000001
-6.4679999 5.4619999 -1.694 0.38999999
-6.493 5.448 -1.696 0.38
-6.4899998 5.4120002 -1.6900001 0.41
-6.5180001 5.4000001 -1.693 0.43000001
-6.513 5.362 -1.687 0.47
-6.5739999 5.3769999 -1.7 0.28
-6.5669999 5.355 -1.6950001 0.46000001
-6.572 5.3239999 -1.692 0.43000001
-6.5780001 5.2950001 -1.689 0.34999999
-6.6110001 5.2880001 -1.694 0.55000001
-6.6360002 5.2729998 -1.696 0.34
-6.6430001 5.2449999 -1.693 0.55000001
-6.664 5.2280002 -1.6950001 0.34
-6.652 5.2020001 -1.689 0.46000001
-6.7150002 5.2160001 -1.702 0.34999999
-6.7410002 5.2020001 -1.704 0.51999998
-6.743 5.171 -1.7 0.31
-6.7810001 5.1659999 -1.706 0.57999998
-6.8319998 5.1700001 -1.716 0.33000001
-6.8119998 5.1220002 -1.706 0.50999999
-6.8010001 5.0970001 -1.701 0.38
-6.8039999 5.0669999 -1.697 0.54000002
-6.8559999 5.072 -1.707 0.44999999
-6.9260001 5.0890002 -1.721 0.41999999
-6.9099998 5.0450001 -1.7130001 0.44999999
-6.967 5.053 -1.724 0.37
-6.9749999 5.0250001 -1.722 0.41
-6.961 4.9819999 -1.714 0.41999999
-6.9780002 4.9770002 -1.716 0.36000001
-6.9910002 4.9530001 -1.716 0.46000001
-7.0560002 4.9660001 -1.729 0.44
-7.0749998 4.9460001 -1.729 0.41
-7.1129999 4.9390001 -1.735 0.38
-7.1339998 4.921 -1.737 0.38999999
-7.1279998 4.9000001 -1.733 0.56999999
-7.1880002 4.9089999 -1.745 0.34
-7.1570001 4.8540001 -1.733 0.51999998
-7.2030001 4.8520002 -1.7410001 0.36000001
-7.2540002 4.8540001 -1.75 0.40000001
-7.2069998 4.79 -1.734 0.38999999
-7.2319999 4.7740002 -1.7359999 0.46000001
-7.1659999 4.7140002 -1.7180001 0.36000001
-7.2480001 4.7350001 -1.735 0.43000001
-7.2410002 4.6989999 -1.729 0.38999999
-7.302 4.7049999 -1.7410001 0.30000001
-7.3299999 4.691 -1.744 0.50999999
-7.3130002 4.6479998 -1.7359999 0.34999999
-7.3639998 4.6479998 -1.7460001 0.47999999
-7.3559999 4.6100001 -1.74 0.38
-7.3730001 4.605 -1.742 0.38
-7.3720002 4.572 -1.739 0.44999999
-7.408 4.5630002 -1.744 0.31999999
-7.4510002 4.5560002 -1.751 0.44999999
-7.4180002 4.5050001 -1.739 0.38
-7.4039998 4.4640002 -1.732 0.44999999
-7.441 4.4549999 -1.738 0.38999999
-7.48 4.4619999 -1.7460001 0.41
-7.4959998 4.4400001 -1.747 0.38
-7.4949999 4.4070001 -1.743 0.47999999
-7.5289998 4.3959999 -1.748 0.30000001
-7.5479999 4.375 -1.749 0.51999998
-7.5869999 4.3660002 -1.755 0.31999999
-7.5650001 4.3210001 -1.747 0.47999999
-7.6360002 4.3460002 -1.763 0.31999999
-7.631 4.3119998 -1.758 0.5
-7.6599998 4.296 -1.762 0.31999999
-7.7030001 4.2880001 -1.7690001 0.44999999
-7.7350001 4.2740002 -1.773 0.44
-7.7659998 4.2589998 -1.778 0.40000001
-7.7740002 4.2319999 -1.776 0.43000001
-7.8060002 4.2340002 -1.783 0.38
-7.8249998 4.2119999 -1.784 0.43000001
-7.8460002 4.1919999 -1.786 0.41999999
-7.8649998 4.1700001 -1.7869999 0.30000001
-7.8969998 4.1550002 -1.7920001 0.41
-7.9260001 4.1389999 -1.796 0.31
-7.9590001 4.1240001 -1.801 0.54000002
-7.9569998 4.1069999 -1.799 0.40000001
-7.96 4.0770001 -1.796 0.55000001
-8.0439997 4.0879998 -1.813 0.50999999
-8.191 4.1300001 -1.846 0.22
-8.2639999 4.1339998 -1.86 0.18000001
-8.2729998 4.1059999 -1.859 0.44999999
-8.2670002 4.0710001 -1.854 0.37
-8.243 4.0430002 -1.847 0.56999999
-8.2860003 4.0320001 -1.854 0.34
-8.316 4.0139999 -1.859 0.51999998
-8.3660002 4.006 -1.867 0.38999999
-8.4029999 3.9909999 -1.873 0.44
-8.4390001 3.9760001 -1.8789999 0.43000001
-8.4490004 3.948 -1.878 0.34999999
-8.4549999 3.9349999 -1.878 0.44999999
-8.4860001 3.9170001 -1.883 0.37
-8.5050001 3.8929999 -1.8839999 0.43000001
-8.5530005 3.882 -1.893 0.41
-8.5740004 3.8599999 -1.895 0.34999999
-8.5819998 3.8310001 -1.8940001 0.38999999
-8.5939999 3.8039999 -1.8940001 0.38
-8.6120005 3.779 -1.895 0.33000001
-8.6160002 3.7650001 -1.895 0.40000001
-8.6079998 3.7290001 -1.89 0.47
-8.6359997 3.7090001 -1.8940001 0.47999999
-8.6759996 3.694 -1.901 0.34
-8.7019997 3.6730001 -1.904 0.43000001
-8.7410002 3.6570001 -1.91 0.36000001
-8.7770004 3.6400001 -1.916 0.44
-8.7720003 3.622 -1.914 0.28999999
-8.7849998 3.595 -1.914 0.050000001
-8.7930002 3.566 -1.913 0
-8.8009996 3.5369999 -1.9119999 0
-9.0229998 2.858 -1.908 0
-9.0509996 2.835 -1.9119999 0
-9.0699997 2.779 -1.913 0
-9.0970001 2.678 -1.9119999 0
-9.1370001 2.6589999 -1.919 0
-9.1660004 2.6359999 -1.924 0
-9.1420002 2.598 -1.9170001 0
-9.1709995 2.575 -1.921 0
-9.1890001 2.549 -1.923 0
-9.224 2.4189999 -1.923 0
-9.2220001 2.3870001 -1.921 0
-9.2440004 2.362 -1.925 0
-9.2690001 2.3369999 -1.928 0
-9.2629995 2.3199999 -1.926 0
-4.698 1.159 -0.91500002 0
-4.6420002 1.13 -0.90200001 0
-4.6630001 1.119 -0.90600002 0
-4.632 1.097 -0.898 0
-4.6620002 1.0880001 -0.90399998 0
-4.8070002 1.113 -0.93599999 0
-4.7950001 1.095 -0.93199998 0
-4.7740002 1.074 -0.92699999 0
-4.7750001 1.059 -0.926 0
-4.7709999 1.0420001 -0.92500001 0
-4.7589998 1.024 -0.921 0
-4.7620001 1.0089999 -0.921 0
-4.7389998 0.99599999 -0.91600001 0
-4.7399998 0.98100001 -0.91500002 0
-4.7410002 0.96600002 -0.91500002 0
-4.7480001 0.95200002 -0.91600001 0
-4.7449999 0.93599999 -0.91500002 0
-4.7459998 0.92000002 -0.91399997 0
-4.7470002 0.90499997 -0.91399997 0
-4.7649999 0.89300001 -0.917 0
-4.763 0.88499999 -0.91600001 0
-4.7680001 0.87 -0.917 0
-4.7800002 0.85699999 -0.91900003 0
-4.7670002 0.83899999 -0.91500002 0
-4.777 0.82599998 -0.917 0
-4.7680001 0.80900002 -0.91500002 0
-4.7670002 0.79299998 -0.91399997 0
-4.7820001 0.78799999 -0.917 0
-4.7839999 0.773 -0.917 0
-4.7940001 0.759 -0.91799998 0
-4.8239999 0.74800003 -0.92400002 0
-4.8319998 0.73299998 -0.926 0
-4.8460002 0.72000003 -0.92799997 0
-4.8730001 0.708 -0.93400002 0
-5.0250001 0.64099997 -0.96399999 0
-4.98 0.62 -0.954 0
-5.0229998 0.55299997 -0.96100003 0
-4.9959998 0.53399998 -0.95499998 0
-9.6639996 0.963 -1.961 0
-9.6350002 0.93000001 -1.954 0
-9.6269999 0.898 -1.952 0
-9.6490002 0.87 -1.956 0
-9.6339998 0.838 -1.952 0
-9.6409998 0.80800003 -1.9529999 0
-9.6590004 0.77899998 -1.956 0
-9.6219997 0.74599999 -1.948 0
-9.6520004 0.73299998 -1.954 0
-9.6820002 0.704 -1.96 0
-9.698 0.67500001 -1.9630001 0
-9.6709995 0.64200002 -1.957 0
-9.7119999 0.61400002 -1.965 0
-9.7189999 0.58399999 -1.967 0
-9.717 0.55299997 -1.966 0
-9.7279997 0.53899997 -1.9680001 0
-9.6870003 0.50599998 -1.959 0
-9.7250004 0.447 -1.966 0
-9.7530003 0.417 -1.972 0
-9.743 0.38600001 -1.969 0
-9.7639999 0.35600001 -1.974 0
-9.7519999 0.34 -1.971 0
-9.7460003 0.31 -1.969 0
-9.7469997 0.27900001 -1.969 0
-9.724 0.248 -1.964 0
-9.7480001 0.21799999 -1.969 0
-9.7189999 0.18700001 -1.9630001 0
-9.6789999 0.155 -1.954 0
-9.691 0.14 -1.957 0
-9.691 0.11 -1.957 0
-9.6660004 0.079000004 -1.951 0
-9.6820002 0.048999999 -1.955 0
-9.6940002 0.018999999 -1.957 0
-9.6960001 -0.012 -1.9579999 0
-9.6820002 -0.041999999 -1.955 0
-9.6859999 -0.072999999 -1.956 0
-9.6820002 -0.088 -1.955 0
-9.6850004 -0.118 -1.956 0
-9.6689997 -0.148 -1.952 0
-9.6709995 -0.17900001 -1.9529999 0
-9.6719999 -0.20900001 -1.9529999 0
-9.6599998 -0.23899999 -1.951 0
-9.6750002 -0.255 -1.954 0
-9.684 -0.28600001 -1.956 0
-9.6709995 -0.31600001 -1.954 0
-9.6599998 -0.34599999 -1.951 0
-9.6750002 -0.377 -1.955 0
-9.6780005 -0.40700001 -1.956 0
-9.6820002 -0.43799999 -1.957 0
-9.6599998 -0.45199999 -1.952 0
-9.6490002 -0.48199999 -1.95 0
-9.6739998 -0.514 -1.956 0
-9.6549997 -0.54299998 -1.952 0
-9.6459999 -0.57300001 -1.951 0
-9.6520004 -0.60399997 -1.952 0
-9.6610003 -0.63499999 -1.955 0
-9.6560001 -0.64999998 -1.954 0
-9.6680002 -0.68099999 -1.957 0
-9.6560001 -0.71100003 -1.955 0
-9.6560001 -0.741 -1.955 0
-9.6420002 -0.77100003 -1.9529999 0
-9.6309996 -0.80000001 -1.951 0
-9.592 -0.82700002 -1.943 0
-4.7519999 -0.419 -0.89999998 0
-4.7420001 -0.433 -0.89899999 0
-4.7259998 -0.447 -0.89499998 0
-4.724 -0.46200001 -0.89499998 0
-4.7150002 -0.47600001 -0.89399999 0
-4.7249999 -0.49200001 -0.89600003 0
-9.0480003 -0.98000002 -1.83 0
-8.96 -0.99800003 -1.812 0
-8.9180002 -1.022 -1.803 0
-8.8950005 -1.048 -1.799 0
-9.0120001 -1.091 -1.825 0
-9.0050001 -1.118 -1.824 0
-8.9659996 -1.142 -1.817 0
-9.0129995 -1.177 -1.8279999 0
-9.073 -1.199 -1.841 0
-4.572 -0.60600001 -0.866 0.02
-4.5349998 -0.61500001 -0.85900003 0.029999999
-4.5190001 -0.62800002 -0.85600001 0.07
-4.5100002 -0.64099997 -0.85399997 0.079999998
-4.5040002 -0.65399998 -0.85299999 0.090000004
-4.4959998 -0.66799998 -0.852 0.090000004
-4.4790001 -0.67199999 -0.84899998 0.079999998
-4.4699998 -0.685 -0.847 0.15000001
-4.4580002 -0.69800001 -0.84500003 0.16
-4.4569998 -0.71200001 -0.84500003 0.18000001
-4.4549999 -0.72600001 -0.84500003 0.17
-4.4489999 -0.73900002 -0.84500003 0.17
-4.4520001 -0.75400001 -0.84600002 0.16
-4.4450002 -0.75999999 -0.84500003 0.16
-4.4349999 -0.773 -0.84299999 0.039999999
-4.4439998 -0.78899997 -0.84500003 0.079999998
-4.4549999 -0.80500001 -0.84799999 0.039999999
-4.441 -0.81699997 -0.84600002 0
-4.4520001 -0.83399999 -0.84899998 0
-4.4710002 -0.852 -0.85299999 0
-4.5079999 -0.866 -0.86199999 0
-4.4899998 -0.87699997 -0.85799998 0
-4.5120001 -0.89700001 -0.86400002 0
-4.5170002 -0.912 -0.866 0
-4.5190001 -0.92799997 -0.86699998 0
-4.5450001 -0.94800001 -0.87300003 0
-8.7189999 -1.872 -1.791 0
-8.6090002 -1.862 -1.767 0
-4.691 -1.033 -0.90700001 0
-4.6440001 -1.038 -0.898 0
-4.677 -1.061 -0.90600002 0
-4.6329999 -1.066 -0.89700001 0
-4.638 -1.0829999 -0.89899999 0
-5.9109998 -1.397 -1.1799999 0
-5.9029999 -1.415 -1.179 0
-5.914 -1.437 -1.183 0
-7.2049999 -1.8049999 -1.471 0
-7.3369999 -1.863 -1.501 0
-7.178 -1.846 -1.467 0
-3.677 -0.95099998 -0.69199997 0
-7.2049999 -1.877 -1.475 0
-3.6700001 -0.96200001 -0.69099998 0
-3.652 -0.96899998 -0.68800002 0
-3.619 -0.972 -0.68099999 0
-3.599 -0.97899997 -0.67699999 0
-3.5680001 -0.98199999 -0.671 0
-3.5829999 -0.99900001 -0.67500001 0
-3.5480001 -0.995 -0.667 0
-3.517 -0.99800003 -0.66100001 0
-3.3789999 -0.96899998 -0.63099998 0
-3.3940001 -0.98500001 -0.63499999 0
-3.3889999 -0.995 -0.63499999 0
-3.382 -1.005 -0.634 0
-3.3659999 -1.011 -0.63099998 0
-3.348 -1.011 -0.62699997 0
-3.358 -1.026 -0.63 0
-3.369 -1.041 -0.63300002 0
-3.358 -1.049 -0.63200003 0
-3.4130001 -1.079 -0.64499998 0
-3.46 -1.1059999 -0.65600002 0
-3.4619999 -1.118 -0.65700001 0
-3.4300001 -1.114 -0.65100002 0
-3.4419999 -1.13 -0.65399998 0
-3.425 -1.136 -0.65100002 0
-3.418 -1.146 -0.64999998 0
-3.47 -1.176 -0.66299999 0
-3.451 -1.181 -0.65899998 0
-5.777 -2.684 -1.244 0.20999999
-5.7719998 -2.704 -1.245 0.41
-5.8109999 -2.744 -1.256 0.31999999
-5.6880002 -2.697 -1.228 0.36000001
-5.71 -2.7290001 -1.235 0.54000002
-5.724 -2.7579999 -1.24 0.38
-5.6279998 -2.733 -1.219 0.38999999
-5.5939999 -2.7390001 -1.2130001 0.38
-5.579 -2.753 -1.212 0.44999999
-5.5630002 -2.767 -1.21 0.37
-5.5229998 -2.7679999 -1.2029999 0.63
-5.4889998 -2.7620001 -1.1950001 0.34
-5.5120001 -2.7950001 -1.2029999 0.47
-5.4840002 -2.803 -1.198 0.36000001
-5.4749999 -2.8199999 -1.198 0.41999999
-5.4400001 -2.8239999 -1.192 0.44999999
-5.414 -2.8310001 -1.188 0.36000001
-5.4640002 -2.8800001 -1.202 0.43000001
-5.4450002 -2.881 -1.199 0.43000001
-5.4499998 -2.905 -1.202 0.44
-5.3959999 -2.898 -1.191 0.44
-5.3920002 -2.918 -1.192 0.38
-5.3899999 -2.9389999 -1.194 0.41
-5.3860002 -2.9579999 -1.1950001 0.5
-5.3969998 -2.987 -1.2 0.40000001
-5.382 -2.99 -1.198 0.57999998
-5.3860002 -3.0139999 -1.201 0.38
-5.3509998 -3.017 -1.1950001 0.46000001
-5.3280001 -3.026 -1.192 0.38
-5.3150001 -3.04 -1.191 0.47
-5.2919998 -3.049 -1.187 0.41999999
-5.276 -3.062 -1.186 0.38
-5.256 -3.0610001 -1.182 0.51999998
-5.217 -3.0610001 -1.175 0.38
-5.1830001 -3.062 -1.169 0.5
-5.1999998 -3.0940001 -1.175 0.34
-5.2870002 -3.1689999 -1.2 0.5
-5.369 -3.2420001 -1.223 0.41
-5.329 -3.24 -1.215 0.41
-5.3099999 -3.2409999 -1.212 0.44999999
-5.3080001 -3.2620001 -1.214 0.41999999
-5.2579999 -3.2539999 -1.204 0.51999998
-5.2600002 -3.2780001 -1.207 0.51999998
-5.2579999 -3.3 -1.209 0.46000001
-5.2870002 -3.342 -1.219 0.50999999
-5.2909999 -3.368 -1.223 0.51999998
-5.2810001 -3.3729999 -1.221 0.47999999
-5.2719998 -3.3900001 -1.222 0.52999997
-5.3280001 -3.451 -1.239 0.38
-5.2989998 -3.4560001 -1.234 0.47999999
-5.2839999 -3.4690001 -1.233 0.50999999
-5.2709999 -3.4849999 -1.233 0.50999999
-5.2470002 -3.4920001 -1.229 0.50999999
-5.2820001 -3.5280001 -1.24 0.44999999
-5.2859998 -3.5539999 -1.244 0.46000001
-5.2649999 -3.5639999 -1.2410001 0.5
-5.3390002 -3.6400001 -1.263 0.44
-5.342 -3.6659999 -1.267 0.41
-5.3109999 -3.6700001 -1.262 0.47999999
-5.276 -3.6700001 -1.256 0.47999999
-5.2620001 -3.6719999 -1.2539999 0.50999999
-5.2360001 -3.6789999 -1.25 0.5
-5.2389998 -3.7049999 -1.2539999 0.46000001
-5.2490001 -3.7379999 -1.26 0.51999998
-5.2490001 -3.7620001 -1.263 0.46000001
-5.2620001 -3.7969999 -1.2690001 0.47999999
-5.2610002 -3.822 -1.272 0.43000001
-5.2509999 -3.839 -1.273 0.46000001
-5.3039999 -3.892 -1.289 0.54000002
-5.3499999 -3.9519999 -1.304 0.36000001
-5.27 -3.918 -1.286 0.43000001
-5.2659998 -3.9400001 -1.288 0.43000001
-5.2519999 -3.9560001 -1.288 0.44999999
-5.2529998 -3.983 -1.2920001 0.5
-5.2779999 -4.0279999 -1.302 0.47999999
-5.3099999 -4.066 -1.312 0.37
-5.316 -4.0970001 -1.317 0.63
-7.1830001 -5.5830002 -1.829 0.41
-5.6960001 -4.4499998 -1.428 0.31999999
-5.507 -4.329 -1.38 0.25999999
-5.4000001 -4.2719998 -1.355 0.61000001
-7.1999998 -5.744 -1.854 0.15000001
-5.7270002 -4.5770001 -1.45 0.54000002
-5.7010002 -4.585 -1.447 0.47999999
-6.0760002 -4.921 -1.5549999 0.37
-6.0710001 -4.948 -1.558 0.31
-6.0029998 -4.9239998 -1.543 0.41999999
-5.8379998 -4.8189998 -1.501 0.63999999
-5.789 -4.8080001 -1.492 0.50999999
-5.9980001 -5 -1.553 0.20999999
-5.848 -4.9050002 -1.515 0.63999999
-5.724 -4.8309999 -1.484 0.28999999
-5.8909998 -5.0050001 -1.536 0.63999999
-5.4390001 -4.6469998 -1.4119999 0.33000001
-5.2350001 -4.5009999 -1.358 0.23999999
-5.415 -4.6869998 -1.414 0.34
-5.5489998 -4.8189998 -1.454 0.31999999
-5.4400001 -4.7529998 -1.427 0.43000001
-5.4219999 -4.7680001 -1.426 0.49000001
-5.4200001 -4.7969999 -1.4299999 0.56
-5.5240002 -4.921 -1.464 0.34999999
-5.448 -4.8829999 -1.447 0.47999999
-5.5240002 -4.9829998 -1.473 0.34999999
-5.4770002 -4.9559999 -1.462 0.63
-5.5159998 -5.0229998 -1.478 0.34
-5.5050001 -5.0450001 -1.479 0.40000001
-5.46 -5.0349998 -1.471 0.60000002
-5.4359999 -5.0450001 -1.4680001 0.5
-5.316 -4.9640002 -1.438 0.18000001
-5.2210002 -4.9050002 -1.414 0.30000001
-5.2189999 -4.9190001 -1.416 0.34999999
-5.2140002 -4.9460001 -1.419 0.30000001
-5.21 -4.973 -1.423 0.36000001
-5.1999998 -4.9949999 -1.424 0.30000001
-5.25 -5.0749998 -1.444 0.20999999
-5.3769999 -5.2309999 -1.487 0.38
-5.6539998 -5.5380001 -1.575 0.40000001
-6.21 -6.125 -1.749 0.5
-5.9879999 -5.9229999 -1.684 0.19
-5.4809999 -5.4520001 -1.536 0.47999999
-5.4169998 -5.4219999 -1.522 0.34
-5.4720001 -5.513 -1.544 0.63
-5.875 -5.9590001 -1.673 0.41
-5.5100002 -5.6209998 -1.566 0.30000001
-5.4200001 -5.5640001 -1.544 0.62
-5.4089999 -5.5700002 -1.543 0.38
-5.3629999 -5.5570002 -1.534 0.30000001
-5.3829999 -5.6139998 -1.546 0.47
-5.408 -5.6760001 -1.559 0.36000001
-5.4840002 -5.7930002 -1.589 0.62
-6.9130001 -7.3590002 -2.0439999 0.19
-5.388 -5.763 -1.5700001 0.34999999
-5.3670001 -5.7579999 -1.566 0.41
-5.3429999 -5.7690001 -1.564 0.62
-5.3280001 -5.789 -1.5650001 0.31999999
-5.3239999 -5.8210001 -1.5700001 0.36000001
-5.3200002 -5.8540001 -1.574 0.54000002
-5.2740002 -5.8400002 -1.566 0.36000001
-5.2690001 -5.8709998 -1.5700001 0.55000001
-5.2880001 -5.9120002 -1.579 0.34
-5.2480001 -5.9029999 -1.572 0.56
-5.3720002 -6.0830002 -1.619 0.34
-5.3309999 -6.0749998 -1.6109999 0.58999997
-5.3140001 -6.0929999 -1.612 0.41
-6.2420001 -7.211 -1.924 0.34
-5.1760001 -6.0100002 -1.579 0.38999999
-5.243 -6.1079998 -1.604 0.51999998
-5.302 -6.217 -1.63 0.22
-5.131 -6.0539999 -1.58 0.30000001
-5.1030002 -6.0599999 -1.577 0.33000001
-5.0710001 -6.059 -1.572 0.44
-5.0419998 -6.0630002 -1.569 0.37
-5.0149999 -6.0700002 -1.566 0.38999999
-5.0019999 -6.073 -1.5650001 0.43000001
-4.9759998 -6.0809999 -1.563 0.38
-4.954 -6.092 -1.562 0.38
-4.921 -6.0910001 -1.557 0.38999999
-4.902 -6.1059999 -1.557 0.41
-4.8800001 -6.118 -1.556 0.41
-4.855 -6.1259999 -1.554 0.31999999
-4.8410001 -6.1279998 -1.553 0.43000001
-4.816 -6.1370001 -1.551 0.34
-4.79 -6.1420002 -1.548 0.44
-4.7690001 -6.1560001 -1.548 0.38999999
-4.7470002 -6.1659999 -1.5470001 0.40000001
-4.7189999 -6.1700001 -1.544 0.38
-4.6950002 -6.1789999 -1.5420001 0.38
-4.6680002 -6.184 -1.54 0.41
-4.6570001 -6.1900001 -1.539 0.40000001
-4.631 -6.1950002 -1.5369999 0.38999999
-4.6059999 -6.2020001 -1.535 0.38
-4.5799999 -6.2080002 -1.5319999 0.38
-4.5609999 -6.223 -1.5319999 0.38
-4.54 -6.2350001 -1.5319999 0.43000001
-4.5170002 -6.2449999 -1.531 0.37
-4.4990001 -6.2410002 -1.528 0.44999999
-4.4770002 -6.2519999 -1.527 0.38
-4.4460001 -6.25 -1.523 0.43000001
-4.428 -6.2649999 -1.523 0.28999999
-4.401 -6.2690001 -1.521 0.47999999
-4.3800001 -6.2800002 -1.52 0.37
-4.362 -6.276 -1.517 0.47999999
-4.342 -6.289 -1.517 0.25999999
-4.3119998 -6.2880001 -1.513 0.54000002
-4.2859998 -6.2919998 -1.511 0.34999999
-4.2659998 -6.3060002 -1.511 0.37
-4.2389998 -6.3080001 -1.508 0.40000001
-4.2179999 -6.3189998 -1.507 0.38
-4.2059999 -6.323 -1.506 0.43000001
-4.1890001 -6.3410001 -1.508 0.34999999
-4.1550002 -6.3330002 -1.502 0.5
-4.132 -6.3410001 -1.501 0.37
-4.105 -6.342 -1.498 0.46000001
-4.0879998 -6.3600001 -1.499 0.37
-4.0640001 -6.3660002 -1.498 0.38999999
-4.0380001 -6.369 -1.495 0.47
-4.027 -6.3740001 -1.495 0.28999999
-4.0029998 -6.3800001 -1.493 0.5
-3.9749999 -6.3800001 -1.49 0.34999999
-3.9519999 -6.388 -1.489 0.44999999
-3.9260001 -6.3899999 -1.4859999 0.34999999
-3.905 -6.401 -1.4859999 0.44999999
-3.8829999 -6.4099998 -1.485 0.34999999
-3.8729999 -6.4159999 -1.485 0.44999999
-3.8469999 -6.4200001 -1.483 0.38
-3.823 -6.4250002 -1.4809999 0.46000001
-3.8 -6.4320002 -1.48 0.37
-3.779 -6.4419999 -1.48 0.41
-3.7590001 -6.454 -1.48 0.34999999
-3.7320001 -6.4549999 -1.477 0.5
-3.7179999 -6.4530001 -1.475 0.34
-3.6960001 -6.4629998 -1.475 0.41999999
-3.6730001 -6.4689999 -1.473 0.41
-3.6559999 -6.4860001 -1.475 0.40000001
-3.622 -6.473 -1.469 0.46000001
-3.5999999 -6.4809999 -1.4680001 0.36000001
-3.5810001 -6.4959998 -1.469 0.38999999
-3.563 -6.4879999 -1.465 0.36000001
-3.5409999 -6.4959998 -1.464 0.55000001
-3.5209999 -6.507 -1.464 0.30000001
-3.4860001 -6.4899998 -1.4579999 0.47999999
-3.4719999 -6.513 -1.461 0.31999999
-3.447 -6.5170002 -1.459 0.5
-3.415 -6.5050001 -1.454 0.41
-3.4030001 -6.507 -1.4529999 0.38999999
-3.3859999 -6.5250001 -1.454 0.41
-3.355 -6.5149999 -1.449 0.37
-3.336 -6.5289998 -1.45 0.38
-3.319 -6.546 -1.452 0.38999999
-3.2909999 -6.5409999 -1.448 0.38
-3.266 -6.5419998 -1.446 0.38999999
-3.2579999 -6.553 -1.447 0.38999999
-3.2309999 -6.5489998 -1.444 0.41
-3.2130001 -6.5640001 -1.4450001 0.36000001
-3.1919999 -6.5739999 -1.4450001 0.41
-3.1730001 -6.5879998 -1.446 0.36000001
-3.1489999 -6.5910001 -1.444 0.37
-3.1340001 -6.6129999 -1.447 0.44999999
-3.1029999 -6.5999999 -1.442 0.36000001
-3.089 -6.5970001 -1.4400001 0.38999999
-3.075 -6.6209998 -1.444 0.41
-3.049 -6.6199999 -1.441 0.38
-3.0239999 -6.6209998 -1.439 0.38
-3.0079999 -6.6409998 -1.441 0.41
-2.987 -6.6490002 -1.441 0.36000001
-2.9760001 -6.6529999 -1.441 0.44999999
-2.9590001 -6.6700001 -1.443 0.36000001
-2.931 -6.665 -1.439 0.44
-2.908 -6.6690001 -1.438 0.36000001
-2.8900001 -6.6849999 -1.4400001 0.41999999
-2.8640001 -6.6810002 -1.437 0.38
-2.8440001 -6.6939998 -1.438 0.46000001
-2.826 -6.71 -1.439 0.34999999
-2.8069999 -6.6939998 -1.4349999 0.44999999
-2.786 -6.7010002 -1.434 0.38
-2.7650001 -6.71 -1.434 0.41999999
-2.743 -6.717 -1.434 0.38
-2.724 -6.7309999 -1.4349999 0.41999999
-2.7030001 -6.7410002 -1.436 0.36000001
-2.6800001 -6.744 -1.434 0.44999999
-2.6719999 -6.7540002 -1.436 0.36000001
-2.6489999 -6.7589998 -1.4349999 0.38
-2.6259999 -6.7620001 -1.433 0.46000001
-2.6010001 -6.7610002 -1.431 0.36000001
-2.5810001 -6.7719998 -1.432 0.43000001
-2.556 -6.77 -1.4299999 0.41
-2.5339999 -6.7779999 -1.4299999 0.34
-2.523 -6.7800002 -1.429 0.43000001
-2.5020001 -6.7880001 -1.429 0.33000001
-2.4809999 -6.7969999 -1.4299999 0.43000001
-2.4560001 -6.796 -1.428 0.38
-2.434 -6.8000002 -1.427 0.38
-2.4119999 -6.8060002 -1.426 0.40000001
-2.4030001 -6.8150001 -1.428 0.38999999
-2.378 -6.8130002 -1.425 0.38999999
-2.358 -6.8239999 -1.426 0.41
-2.335 -6.8260002 -1.425 0.38
-2.3139999 -6.835 -1.425 0.38
-2.289 -6.8330002 -1.423 0.38
-2.2690001 -6.8439999 -1.424 0.38999999
-2.2479999 -6.8530002 -1.425 0.41
-2.2360001 -6.8530002 -1.424 0.38
-2.2160001 -6.8639998 -1.425 0.40000001
-2.194 -6.8699999 -1.425 0.38999999
-2.174 -6.881 -1.425 0.40000001
-2.151 -6.8839998 -1.425 0.38
-2.128 -6.8870001 -1.424 0.43000001
-2.1029999 -6.8829999 -1.421 0.36000001
-2.0929999 -6.8860002 -1.421 0.37
-2.073 -6.8979998 -1.423 0.43000001
-2.0480001 -6.895 -1.42 0.34999999
-2.0280001 -6.9070001 -1.4220001 0.38999999
-2.0079999 -6.9190001 -1.423 0.37
-1.99 -6.9400001 -1.426 0.38999999
-1.97 -6.9520001 -1.428 0.38999999
-1.9529999 -6.9330001 -1.423 0.47999999
-1.927 -6.9219999 -1.419 0.40000001
-1.906 -6.9320002 -1.42 0.37
-1.883 -6.9320002 -1.418 0.43000001
-1.8609999 -6.9380002 -1.418 0.34
-1.8380001 -6.9419999 -1.418 0.44999999
-1.816 -6.9460001 -1.4170001 0.36000001
-1.806 -6.9520001 -1.418 0.44999999
-1.783 -6.954 -1.4170001 0.34
-1.762 -6.9619999 -1.418 0.38
-1.742 -6.973 -1.419 0.38999999
-1.7180001 -6.973 -1.418 0.40000001
-1.697 -6.98 -1.418 0.40000001
-1.678 -6.9980001 -1.421 0.41999999
-1.666 -6.9970002 -1.42 0.40000001
-1.64 -6.9850001 -1.4170001 0.40000001
-1.62 -6.9959998 -1.418 0.40000001
-1.596 -6.9949999 -1.4170001 0.41
-1.573 -6.993 -1.415 0.41999999
-1.551 -7 -1.415 0.41
-1.527 -6.9970002 -1.414 0.41
-1.516 -6.9970002 -1.413 0.37
-1.4960001 -7.0100002 -1.415 0.38999999
-1.473 -7.0100002 -1.414 0.38
-1.45 -7.0110002 -1.413 0.31999999
-1.429 -7.0229998 -1.415 0.41999999
-1.406 -7.0180001 -1.413 0.41
-1.3839999 -7.0250001 -1.413 0.41999999
-1.374 -7.033 -1.415 0.40000001
-1.353 -7.0409999 -1.415 0.44999999
-1.329 -7.0370002 -1.414 0.31999999
-1.308 -7.0450001 -1.415 0.43000001
-1.284 -7.0430002 -1.413 0.34999999
-1.262 -7.0469999 -1.413 0.44
-1.243 -7.0669999 -1.4170001 0.34999999
-1.229 -7.0549998 -1.414 0.41999999
-1.2079999 -7.0650001 -1.415 0.34
-1.186 -7.0669999 -1.415 0.41999999
-1.166 -7.086 -1.418 0.34999999
-1.141 -7.0700002 -1.414 0.43000001
-1.117 -7.0640001 -1.4119999 0.41
-1.095 -7.0710001 -1.4119999 0.38999999
-1.072 -7.0669999 -1.411 0.37
-1.0599999 -7.0609999 -1.409 0.38
-1.039 -7.0760002 -1.4119999 0.43000001
-1.016 -7.0749998 -1.411 0.41
-0.995 -7.086 -1.4119999 0.38999999
-0.97299999 -7.0910001 -1.413 0.33000001
-0.94800001 -7.0689998 -1.4069999 0.44999999
-0.926 -7.0780001 -1.409 0.36000001
-0.91600001 -7.0869999 -1.41 0.41999999
-0.89200002 -7.0739999 -1.4069999 0.41
-0.87 -7.0770001 -1.4069999 0.41
-0.84799999 -7.0840001 -1.408 0.38
-0.824 -7.073 -1.405 0.38
-0.801 -7.0710001 -1.404 0.38
-0.78100002 -7.0869999 -1.4069999 0.34
-0.76800001 -7.0749998 -1.404 0.41999999
-0.74699998 -7.085 -1.406 0.41
-0.72500002 -7.0910001 -1.4069999 0.38999999
-0.70200002 -7.0900002 -1.406 0.41
-0.67900002 -7.0819998 -1.404 0.41
-0.65700001 -7.092 -1.405 0.34
-0.63499999 -7.0879998 -1.404 0.43000001
-0.62400001 -7.0949998 -1.405 0.52999997
-0.602 -7.099 -1.406 0.28999999
-0.391 -4.6830001 -0.88499999 0.19
-0.38699999 -4.829 -0.91600001 0.38999999
-0.537 -7.1300001 -1.411 0.20999999
-0.324 -4.3590002 -0.815 0.22
-0.31299999 -4.3990002 -0.82300001 0.27000001
-0.30500001 -4.382 -0.81900001 0.23999999
-0.28999999 -4.3559999 -0.81300002 0.17
-0.43200001 -7.0780001 -1.399 0.19
-0.41100001 -7.099 -1.403 0.43000001
-0.389 -7.1059999 -1.404 0.38999999
-0.245 -4.5580001 -0.85600001 0.19
-0.23100001 -4.573 -0.85900003 0.38999999
-0.223 -4.559 -0.85600001 0.36000001
-0.20900001 -4.5560002 -0.85500002 0.28999999
-0.198 -4.6560001 -0.87699997 0.51999998
-0.185 -4.704 -0.88700002 0.31999999
-0.171 -4.7319999 -0.89300001 0.37
-0.152 -4.5599999 -0.85600001 0.28999999
-0.13699999 -4.5370002 -0.85100001 0.25999999
-0.13 -4.5430002 -0.852 0.52999997
-0.118 -4.6880002 -0.88300002 0.34999999
-0.102 -4.5830002 -0.86000001 0.43000001
-0.086000003 -4.4899998 -0.83999997 0.25999999
-0.071999997 -4.4819999 -0.83899999 0.56999999
-0.057999998 -4.4980001 -0.84200001 0.23
-0.044 -4.5229998 -0.847 0.47999999
-0.037 -4.5019999 -0.84299999 0.43000001
-0.022 -4.809 -0.90899998 0.34
-0.0070000002 -4.7519999 -0.89700001 0.30000001
0.0070000002 -4.631 -0.87099999 0.41
0.023 -4.7839999 -0.903 0.63
0.039999999 -4.973 -0.94400001 0.34
0.055 -4.9400001 -0.93699998 0.57999998
0.104 -7.2020001 -1.423 0.41999999
0.126 -7.1960001 -1.421 0.28999999
0.093999997 -4.9450002 -0.93800002 0.43000001
0.108 -4.882 -0.92500001 0.25
0.117 -4.6690001 -0.87900001 0.56
0.131 -4.6550002 -0.87599999 0.31999999
0.14399999 -4.6020002 -0.86500001 0.51999998
0.14300001 -4.388 -0.81900001 0.38999999
0.15000001 -4.2220001 -0.78299999 0.25999999
0.149 -3.9070001 -0.71600002 0.47999999
0.16500001 -3.977 -0.73100001 0.43000001
0.178 -3.99 -0.73400003 0.23
0.183 -3.8540001 -0.70499998 0.5
0.19499999 -3.8499999 -0.704 0.38
0.20100001 -3.852 -0.704 0.23
0.20900001 -3.7920001 -0.69199997 0.50999999
0.223 -3.823 -0.69800001 0.31
0.234 -3.8069999 -0.69499999 0.51999998
0.24699999 -3.8139999 -0.69700003 0.40000001
0.25999999 -3.832 -0.70099998 0.41
0.273 -3.835 -0.70200002 0.31999999
0.27700001 -3.8099999 -0.69599998 0.49000001
0.29100001 -3.832 -0.70099998 0.36000001
0.301 -3.8080001 -0.69599998 0.47
0.30700001 -3.743 -0.68300003 0.41
0.31600001 -3.7179999 -0.67699999 0.37
0.32699999 -3.7019999 -0.67400002 0.56999999
0.33700001 -3.687 -0.671 0.34
0.34099999 -3.6730001 -0.66799998 0.47999999
0.35699999 -3.707 -0.676 0.34
0.36700001 -3.694 -0.67299998 0.55000001
0.37799999 -3.691 -0.67299998 0.34999999
0.38999999 -3.694 -0.67400002 0.30000001
0.40099999 -3.681 -0.671 0.44
0.414 -3.691 -0.67400002 0.44
0.41800001 -3.6789999 -0.671 0.43000001
0.42899999 -3.6719999 -0.67000002 0.34999999
0.44100001 -3.6760001 -0.671 0.38
0.45199999 -3.6730001 -0.671 0.43000001
0.463 -3.6630001 -0.66900003 0.34
0.479 -3.697 -0.67699999 0.44999999
0.49000001 -3.691 -0.676 0.43000001
0.491 -3.6559999 -0.66799998 0.38
0.50300002 -3.654 -0.66799998 0.33000001
0.51700002 -3.6760001 -0.67299998 0.31999999
0.52700001 -3.661 -0.67000002 0.5
0.54100001 -3.6730001 -0.67299998 0.40000001
0.55000001 -3.655 -0.67000002 0.44999999
0.56199998 -3.661 -0.67199999 0.30000001
0.57200003 -3.684 -0.67699999 0.5
0.59500003 -3.7509999 -0.69199997 0.37
0.616 -3.8050001 -0.704 0.34
0.63800001 -3.8610001 -0.71700001 0.41
0.648 -3.846 -0.71399999 0.31999999
0.62099999 -3.6240001 -0.66600001 0.33000001
0.63 -3.609 -0.66299999 0.38999999
0.64600003 -3.6340001 -0.66900003 0.43000001
0.64899999 -3.619 -0.66600001 0.41
0.66100001 -3.6210001 -0.667 0.47999999
0.69599998 -3.74 -0.69300002 0.38999999
0.727 -3.8369999 -0.71499997 0.38999999
0.73000002 -3.789 -0.70499998 0.30000001
0.759 -3.869 -0.72299999 0.47
0.78399998 -3.9319999 -0.73699999 0.27000001
0.80299997 -3.9920001 -0.75099999 0.41
0.82099998 -4.0139999 -0.75599998 0.40000001
0.82200003 -3.9560001 -0.74400002 0.30000001
0.79299998 -3.763 -0.70200002 0.49000001
0.81800002 -3.823 -0.71600002 0.30000001
0.82499999 -3.7980001 -0.71100003 0.44
0.84299999 -3.8499999 -0.722 0.41999999
0.84299999 -3.7920001 -0.70999998 0.38
0.85100001 -3.776 -0.70700002 0.36000001
0.88999999 -3.8870001 -0.73199999 0.47999999
0.917 -3.9430001 -0.745 0.30000001
0.89399999 -3.796 -0.71399999 0.25
0.903 -3.78 -0.71100003 0.30000001
0.90899998 -3.78 -0.71100003 0.51999998
0.91900003 -3.7720001 -0.70999998 0.43000001
0.94499999 -3.822 -0.722 0.23
0.972 -3.878 -0.73500001 0.47
0.97799999 -3.852 -0.73000002 0.34
1.0089999 -3.921 -0.745 0.47
1.071 -4.1009998 -0.78600001 0.25
1.0470001 -3.961 -0.75599998 0.41999999
1.13 -4.243 -0.81900001 0.23
1.033 -3.8399999 -0.73000002 0.61000001
1.0549999 -3.8699999 -0.73699999 0.38
1.971 -7.0640001 -1.451 0.43000001
1.993 -7.0580001 -1.451 0.31
1.556 -5.4660001 -1.096 0.27000001
1.1059999 -3.868 -0.74000001 0.5
1.166 -4.0479999 -0.78100002 0.25
1.131 -3.885 -0.745 0.46000001
1.128 -3.8310001 -0.73400003 0.44
1.16 -3.891 -0.74800003 0.44
1.3049999 -4.3189998 -0.84500003 0.28999999
1.196 -3.921 -0.75599998 0.36000001
1.166 -3.7850001 -0.727 0.23
1.1619999 -3.7509999 -0.71899998 0.47999999
1.179 -3.763 -0.72299999 0.34
1.186 -3.7460001 -0.72000003 0.41999999
1.193 -3.7249999 -0.71600002 0.41
1.206 -3.7249999 -0.71700001 0.28999999
1.225 -3.7460001 -0.722 0.50999999
1.225 -3.7049999 -0.71399999 0.27000001
1.228 -3.6949999 -0.71200001 0.56999999
1.286 -3.826 -0.74299997 0.30000001
1.284 -3.7839999 -0.73400003 0.44999999
1.274 -3.7149999 -0.71899998 0.31999999
1.273 -3.6760001 -0.71100003 0.34999999
1.286 -3.677 -0.713 0.47999999
1.286 -3.6400001 -0.70499998 0.41999999
1.288 -3.6270001 -0.70300001 0.31
1.314 -3.664 -0.71200001 0.34999999
1.34 -3.7 -0.72100002 0.47999999
1.355 -3.7030001 -0.72299999 0.31999999
1.402 -3.7939999 -0.745 0.38
1.415 -3.7909999 -0.745 0.41
1.42 -3.7679999 -0.741 0.34
1.381 -3.6489999 -0.71399999 0.41999999
1.469 -3.842 -0.759 0.40000001
1.489 -3.859 -0.764 0.37
1.472 -3.78 -0.74699998 0.44999999
1.5190001 -3.8640001 -0.76800001 0.27000001
1.5319999 -3.8610001 -0.76800001 0.46000001
1.562 -3.9000001 -0.778 0.34
