# .PCD v0.7 - Point Cloud Data file format
VERSION 0.7
FIELDS x y z
SIZE 4 4 4
TYPE F F F
COUNT 1 1 1
WIDTH 1376
HEIGHT 1
VIEWPOINT 0 0 0 1 0 0 0
POINTS 1376
DATA ascii
-0.95424783 -0.060159307 -0.29843667
-1.0258125 -0.06467101 -0.29474926
-1.1105931 -0.070015892 -0.29126033
-1.3263816 -0.083619997 -0.28249806
-1.9667636 -0.12399204 -0.2769472
-0.88498682 -0.066989958 -0.29985678
-0.94961751 -0.07188224 -0.2972481
-1.0290183 -0.077892557 -0.29592875
-1.1213672 -0.084883004 -0.29434288
-1.3286362 -0.10057244 -0.28322551
-1.979158 -0.14981434 -0.27893603
-0.88161159 -0.077910163 -0.29902187
-0.94224751 -0.083268709 -0.29524595
-1.0262109 -0.090688758 -0.2954264
-1.1113161 -0.098209709 -0.29200608
-1.1841583 -0.10464695 -0.28175569
-1.9783528 -0.17483185 -0.2791107
-0.87087733 -0.088025779 -0.29573357
-0.95328438 -0.096355245 -0.29906073
-1.0278463 -0.10389175 -0.29625031
-1.1198733 -0.11319357 -0.2946057
-1.1896321 -0.12024458 -0.28339589
-1.9938577 -0.20153341 -0.28163388
-0.85578424 -0.097400397 -0.29100168
-0.93926173 -0.10690132 -0.29506052
-1.0355155 -0.11785637 -0.29886484
-1.1203424 -0.12751086 -0.29512811
-1.1886364 -0.13528369 -0.28354204
-1.8019432 -0.20508671 -0.29806376
-1.9818443 -0.22556202 -0.28031594
-0.8698135 -0.11010779 -0.29622015
-0.93645686 -0.11854403 -0.29462495
-1.0290582 -0.13026623 -0.29745099
-1.1078269 -0.14023741 -0.29227322
-1.2366717 -0.15654758 -0.29544738
-0.85909617 -0.11975993 -0.29306066
-0.93561906 -0.13042741 -0.29485473
-1.0166346 -0.14172114 -0.29435241
-1.1100273 -0.15474029 -0.29334456
-1.2269691 -0.17104223 -0.29362065
-1.778355 -0.24790667 -0.29510128
-0.85558707 -0.13027316 -0.29240003
-0.94092643 -0.14326708 -0.29707229
-1.0134723 -0.15431304 -0.29397613
-1.1105362 -0.16909216 -0.29401842
-1.2275057 -0.18690214 -0.29428893
-1.7616373 -0.26822993 -0.29286438
-0.88076174 -0.14547597 -0.3016057
-0.93617368 -0.1546284 -0.29616302
-1.003899 -0.16581461 -0.29178172
-1.1118197 -0.18363996 -0.29494709
-1.2313092 -0.20337611 -0.29579136
-1.769714 -0.29230475 -0.29479566
-0.85681581 -0.15262745 -0.29404053
-0.93247378 -0.16610464 -0.29563078
-1.0187854 -0.18147962 -0.29674911
-1.1070585 -0.19720402 -0.29431945
-1.2235756 -0.2179596 -0.29456952
-1.7695428 -0.31521454 -0.29540491
-0.85442829 -0.16332765 -0.29390371
-0.92364699 -0.17655911 -0.29351395
-0.99818254 -0.1908069 -0.29142472
-1.0990617 -0.21009038 -0.29287353
-1.2195663 -0.23312536 -0.29428768
-1.5361794 -0.29364732 -0.29457971
-1.7671555 -0.3377994 -0.29569304
-0.85739386 -0.17511252 -0.29565883
-0.92922705 -0.1897836 -0.2960231
-1.0041615 -0.20508806 -0.293901
-1.1070786 -0.22610766 -0.2957451
-1.2309829 -0.25141364 -0.2977829
-1.3498627 -0.27569345 -0.29285276
-1.5472159 -0.31600049 -0.29743558
-1.7483021 -0.35706994 -0.29326743
-0.85119849 -0.18504155 -0.29430261
-0.92973948 -0.20211552 -0.29697359
-1.0095826 -0.21947257 -0.29627302
-1.0990642 -0.23892495 -0.29438454
-1.2142334 -0.26396149 -0.2945118
-1.346296 -0.29267052 -0.29285526
-1.5344167 -0.33356595 -0.29575905
-1.7566938 -0.38188666 -0.29545835
-0.85275716 -0.19665681 -0.29567426
-0.92680681 -0.21373363 -0.296873
-1.0029176 -0.23128577 -0.2951484
-1.0977517 -0.25315574 -0.29486343
-1.2172283 -0.28070855 -0.2960721
-1.3564073 -0.31280503 -0.2958881
-1.5311394 -0.35310051 -0.29596093
-1.7448654 -0.40238851 -0.29429778
-0.84938312 -0.20717596 -0.29538554
-0.91395646 -0.22292624 -0.29363269
-1.0015875 -0.24430063 -0.29563883
-1.0878479 -0.26534072 -0.29307744
-1.206084 -0.2941801 -0.29423913
-1.3353834 -0.32571796 -0.29217348
-1.5285126 -0.37282473 -0.29633716
-1.7433454 -0.42522535 -0.29492116
-0.83965307 -0.2160393 -0.29292461
-0.91049653 -0.23426703 -0.29344556
-1.0010732 -0.25757203 -0.2964209
-1.0882396 -0.27999958 -0.29410955
-1.1990076 -0.30849975 -0.29343721
-1.3404717 -0.34489787 -0.29421368
-1.5293369 -0.39349213 -0.29743403
-1.745279 -0.44905311 -0.29618135
-0.85255384 -0.23084205 -0.29841566
-0.91149485 -0.24680124 -0.29474556
-0.9962514 -0.26975039 -0.29597548
-1.081944 -0.29295295 -0.29338178
-1.2102982 -0.32770681 -0.2971867
-1.334839 -0.36142817 -0.293953
-1.5090071 -0.40858683 -0.29445744
-1.7367798 -0.47025982 -0.29572049
-0.84190732 -0.23937698 -0.29572073
-0.91234756 -0.25940505 -0.2960541
-0.98865718 -0.28110194 -0.29474756
-1.0840675 -0.30822966 -0.29498667
-1.1976366 -0.34052044 -0.29510719
-1.3330965 -0.37903532 -0.29459697
-1.5122595 -0.4299762 -0.29612514
-1.7268025 -0.49097654 -0.29505095
-0.83763659 -0.24960405 -0.29530123
-0.90699875 -0.270273 -0.29539937
-0.97591823 -0.29081005 -0.29201829
-1.0856519 -0.32350913 -0.2965028
-1.1900208 -0.35460964 -0.29430756
-1.3449888 -0.40078798 -0.29831666
-1.4888656 -0.44366124 -0.292615
-1.7361542 -0.51734978 -0.29773834
-0.83260995 -0.25956455 -0.29465804
-0.90567821 -0.28234345 -0.29610375
-0.98117191 -0.30587846 -0.29471946
-1.0770106 -0.335756 -0.29527408
-1.1898955 -0.37094763 -0.29540834
-1.3239959 -0.41275316 -0.29478988
-1.4979191 -0.46697339 -0.29552656
-1.7163967 -0.53508335 -0.29548216
-0.84059948 -0.27371475 -0.29868159
-0.89874274 -0.29264727 -0.29501766
-0.97747326 -0.31828341 -0.29478899
-1.0762013 -0.35043111 -0.29623851
-1.2004951 -0.39090347 -0.29923818
-1.3168809 -0.42880085 -0.2943846
-1.4876556 -0.48440823 -0.29468176
-1.7166526 -0.55897391 -0.29671443
-1.9975575 -0.65044171 -0.29523355
-0.82472026 -0.28007764 -0.2942692
-0.90961027 -0.30890656 -0.2998381
-0.98072296 -0.33305666 -0.2970103
-1.0688726 -0.36299255 -0.29545593
-1.1791863 -0.40045542 -0.2951602
-1.3157909 -0.44684681 -0.29537538
-1.4861108 -0.50468796 -0.29561117
-1.6948675 -0.57558239 -0.2941784
-1.9952521 -0.67759401 -0.29613042
-0.82226849 -0.29084292 -0.29467779
-0.88562185 -0.31325153 -0.29320771
-0.9733234 -0.34427226 -0.29605877
-1.0682906 -0.3778629 -0.29658675
-1.1749554 -0.41559109 -0.29538769
-1.297502 -0.45893684 -0.29254389
-1.4735354 -0.52120125 -0.2943919
-1.6858453 -0.59629691 -0.29389238
-1.9881432 -0.7032221 -0.29636607
-0.82269388 -0.30270115 -0.29617277
-0.8943063 -0.32905015 -0.29743114
-0.97183502 -0.35757598 -0.2969521
-1.0566553 -0.38878468 -0.29469231
-1.168806 -0.43004927 -0.29517969
-1.3012501 -0.47878063 -0.29472491
-1.4746124 -0.54256737 -0.29594854
-1.6846589 -0.61985165 -0.29502288
-1.9798255 -0.72845495 -0.29647005
-0.8229453 -0.314614 -0.29766589
-0.89391756 -0.3417469 -0.29870939
-0.97657859 -0.37334839 -0.29981428
-1.04872 -0.40092826 -0.29386392
-1.1497817 -0.43956435 -0.29174989
-1.3041503 -0.49857989 -0.29678026
-1.4722216 -0.56283396 -0.29686758
-1.6767305 -0.64101821 -0.2950246
-1.9666746 -0.75186449 -0.29589504
-0.81530088 -0.32351539 -0.29635087
-0.88593704 -0.35154414 -0.29749826
-0.96787345 -0.38405693 -0.29860279
-1.0325134 -0.40970638 -0.29074523
-1.1747478 -0.46614569 -0.29955062
-1.2882829 -0.51119697 -0.29461086
-1.4507235 -0.57565421 -0.29397097
-1.669168 -0.66233402 -0.29513806
-1.9623431 -0.77866733 -0.29669505
-0.8209008 -0.33776209 -0.29990855
-0.88039255 -0.36224017 -0.29714459
-0.94752198 -0.38986075 -0.29381534
-1.0286007 -0.42322081 -0.29112104
-1.1535413 -0.47462803 -0.29564369
-1.2769377 -0.52539986 -0.29350609
-1.4534593 -0.59803015 -0.29602781
-1.6544757 -0.68073899 -0.29403257
-1.9363208 -0.79670495 -0.29425412
-0.8082912 -0.34453708 -0.29686323
-0.8700431 -0.37085906 -0.29520425
-0.93671495 -0.39927819 -0.29200011
-1.0277674 -0.43808961 -0.29242334
-1.1378349 -0.48500627 -0.29316023
-1.2772591 -0.5444364 -0.29513234
-1.4378808 -0.61290193 -0.29440349
-1.6585453 -0.70696098 -0.29631442
-1.9434139 -0.82838726 -0.29689369
-0.80539536 -0.35535178 -0.29741952
-0.86638963 -0.3822633 -0.29557446
-0.94676906 -0.41772783 -0.29675046
-1.0131058 -0.44699654 -0.2898303
-1.125371 -0.49652955 -0.29153678
-1.2701503 -0.56040817 -0.29509693
-1.4307853 -0.63128263 -0.29455495
-1.6418945 -0.72442698 -0.29494599
-1.9229552 -0.84843493 -0.29537693
-0.80122685 -0.36563319 -0.29755682
-0.85366416 -0.38956252 -0.29288337
-0.92674541 -0.42291254 -0.29212037
-1.0181292 -0.46461481 -0.29291791
-1.1323837 -0.51675385 -0.29501578
-1.2569693 -0.5736075 -0.29368943
-1.4289136 -0.65207279 -0.29583654
-1.6323578 -0.74491292 -0.29489449
-1.9068726 -0.87018543 -0.29456636
-0.78907061 -0.37216049 -0.29475927
-0.85027212 -0.40102583 -0.29342887
-0.93574929 -0.44134063 -0.29668674
-1.0012349 -0.47222653 -0.28974518
-1.1285878 -0.53229177 -0.29574963
-1.2514323 -0.5902307 -0.29410893
-1.4201388 -0.6698001 -0.29574263
-1.6303791 -0.76895869 -0.2962628
-1.9041618 -0.89808673 -0.29587111
-0.78760916 -0.38366756 -0.29599461
-0.85998178 -0.41892239 -0.29857644
-0.92611754 -0.45113906 -0.29541066
-1.0102822 -0.49213815 -0.29413339
-1.11006 -0.54074281 -0.29265553
-1.2457911 -0.60686147 -0.29455572
-1.4112176 -0.68744558 -0.29566404
-1.6248 -0.79148781 -0.2970365
-1.8951131 -0.92316526 -0.29624787
-0.77380133 -0.38907182 -0.29262346
-0.83869213 -0.42169929 -0.29300532
-0.9197228 -0.46244198 -0.29520491
-1.0069609 -0.50630581 -0.29499921
-1.1144567 -0.56035531 -0.2956515
-1.245525 -0.62625724 -0.29633388
-1.3906078 -0.6992057 -0.29316747
-1.6093397 -0.80918533 -0.29604945
-1.8908089 -0.9507097 -0.29742286
-0.77684015 -0.40293303 -0.29566792
-0.82970369 -0.43035242 -0.2917352
-0.9136489 -0.47389328 -0.29514733
-0.99737716 -0.51732165 -0.29407665
-1.1058085 -0.57356298 -0.29524985
-1.2327614 -0.63941115 -0.29518941
-1.3728918 -0.71209431 -0.29129988
-1.5700164 -0.81433928 -0.29067895
-1.868758 -0.96929121 -0.29585072
-0.78062385 -0.41745186 -0.29908496
-0.83174336 -0.4447889 -0.2943984
-0.91132152 -0.48734465 -0.29635441
-0.99530709 -0.53225738 -0.29541907
-1.0962819 -0.58625537 -0.29465395
-1.2176616 -0.65116525 -0.29351389
-1.3773228 -0.73654675 -0.29418465
-1.5908141 -0.85071486 -0.29648936
-1.8534185 -0.99114698 -0.29537472
-0.76474589 -0.42142856 -0.29501137
-0.83990318 -0.46284547 -0.29932576
-0.90679288 -0.49970642 -0.29690444
-0.97601974 -0.53785527 -0.29168147
-1.0890914 -0.60016567 -0.2947292
-1.2191325 -0.67182744 -0.29588416
-1.3795646 -0.7602368 -0.29668471
-1.5777332 -0.86944145 -0.29606837
-1.842768 -1.0154942 -0.29569182
-0.74947304 -0.4254016 -0.291163
-0.8268491 -0.46932036 -0.29675615
-0.89143676 -0.50598037 -0.29393935
-0.98328924 -0.5581159 -0.29593074
-1.0844121 -0.61551332 -0.29553694
-1.2127515 -0.6883589 -0.29641572
-1.3696176 -0.77739626 -0.29662722
-1.5492538 -0.87935793 -0.29277879
-1.8184392 -1.0321479 -0.29385024
-0.75535363 -0.44140589 -0.29558346
-0.81851792 -0.4783172 -0.29590431
-0.89907432 -0.52539194 -0.29861555
-0.95509768 -0.55813026 -0.28953844
-1.0751324 -0.62827492 -0.29514062
-1.1898999 -0.69534165 -0.29294726
-1.3526881 -0.79047012 -0.29509303
-1.5466826 -0.9038347 -0.29442039
-1.8140539 -1.0600784 -0.29527527
-0.74620968 -0.44876108 -0.29419324
-0.804061 -0.48355216 -0.29285598
-0.88524652 -0.53237611 -0.29622591
-0.96396172 -0.57971442 -0.29441521
-1.0689614 -0.64285988 -0.29564536
-1.1816641 -0.71063793 -0.29309952
-1.3368857 -0.80398613 -0.29383096
-1.5313652 -0.92094368 -0.29368886
-1.8076277 -1.0870844 -0.2964339
-0.74906433 -0.46341959 -0.29759574
-0.80703026 -0.49928108 -0.29620385
-0.8760736 -0.5419957 -0.2954168
-0.95666349 -0.59185386 -0.29443905
-1.0421951 -0.64476919 -0.29046503
-1.1782746 -0.72895682 -0.29451224
-1.3313667 -0.82366943 -0.29487419
-1.5308962 -0.94711125 -0.29586267
-1.7893685 -1.1070189 -0.29570213
-0.7349599 -0.46759117 -0.2943081
-0.80239296 -0.51049292 -0.29683763
-0.86581522 -0.550843 -0.29427326
-0.94864482 -0.6035403 -0.29428685
-1.0550318 -0.67122507 -0.29637486
-1.1637111 -0.74036825 -0.29317906
-1.312533 -0.83505076 -0.29300857
-1.5199735 -0.96702713 -0.29608166
-1.7687073 -1.1252748 -0.294606
-0.74282587 -0.48584163 -0.29988402
-0.79038233 -0.51694572 -0.29477918
-0.86809754 -0.56777495 -0.29745537
-0.94005728 -0.61483991 -0.29400128
-1.0443844 -0.68307453 -0.29577667
-1.1592438 -0.75819772 -0.29443559
-1.2978444 -0.84884882 -0.2920925
-1.50371 -0.98349422 -0.2953026
-1.7599167 -1.1510649 -0.29553264
-0.71914172 -0.48338786 -0.29275668
-0.78048038 -0.52461803 -0.29352671
-0.86336112 -0.58032829 -0.29831275
-0.92372239 -0.62090153 -0.29131472
-1.032239 -0.69384342 -0.294788
-1.1603532 -0.77995843 -0.29718834
-1.3044703 -0.8768301 -0.29604521
-1.4835895 -0.99722922 -0.29379404
-1.7482034 -1.1750956 -0.296027
-0.71606129 -0.49451971 -0.29401433
-0.77305561 -0.53388065 -0.29323941
-0.86322433 -0.59615213 -0.30083543
-0.92469728 -0.63860601 -0.29413489
-1.0229987 -0.70649409 -0.29466644
-1.142928 -0.78931856 -0.29524764
-1.2945551 -0.89403385 -0.2963264
-1.4780097 -1.0207297 -0.29521096
-1.742355 -1.2032894 -0.29757884
-0.71614128 -0.50801063 -0.29665026
-0.76824802 -0.54497367 -0.29399556
-0.83512306 -0.59241295 -0.29361856
-0.91305894 -0.64769846 -0.29300395
-1.0190665 -0.72289729 -0.29613233
-1.141443 -0.80970776 -0.29747432
-1.2821286 -0.90950614 -0.29608002
-1.4606255 -1.036127 -0.29432139
-1.7172366 -1.2181597 -0.29588521
-0.70184714 -0.51127553 -0.29337275
-0.7610141 -0.55437696 -0.2938754
-0.82782871 -0.60304952 -0.29370055
-0.9014377 -0.65667158 -0.29190505
-1.0195066 -0.74268132 -0.2989541
-1.1168159 -0.81356841 -0.29370278
-1.2764313 -0.92984366 -0.29744467
-1.4426296 -1.0509143 -0.29333842
-1.6964577 -1.2358209 -0.29496288
-12.013754 -8.7516756 -0.34558183
-0.70200974 -0.52505016 -0.29618087
-0.75855368 -0.56734073 -0.29566061
-0.82408208 -0.61635101 -0.29510143
-0.89743787 -0.67121565 -0.29332352
-0.99430853 -0.74366754 -0.29428783
-1.114786 -0.83377552 -0.29590657
-1.2572706 -0.94034326 -0.29571551
-1.4368484 -1.0746539 -0.29489112
-1.6851928 -1.2603967 -0.29574034
-11.89799 -8.8987961 -0.34544778
-0.68877798 -0.5288074 -0.29338449
-0.75782418 -0.58181739 -0.29820824
-0.81399697 -0.62494385 -0.2942847
-0.89122635 -0.68423653 -0.2940861
-0.98908073 -0.75936395 -0.29554722
-1.0925291 -0.83878607 -0.29277912
-1.2459984 -0.95661181 -0.29587406
-1.4298109 -1.0977333 -0.29626024
-1.6817051 -1.2911243 -0.29795784
-11.789511 -9.0513639 -0.34557998
-0.67933649 -0.53528798 -0.29221082
-0.74047333 -0.58346117 -0.29424834
-0.81801951 -0.64456427 -0.29864964
-0.89044982 -0.70163625 -0.29672176
-0.9725945 -0.76636273 -0.29348126
-1.091339 -0.85992831 -0.29533863
-1.2398585 -0.97695524 -0.29731372
-1.4048911 -1.1069939 -0.29396179
-1.6536161 -1.3029784 -0.29586464
-1.9831444 -1.5626327 -0.29508328
-11.671862 -9.1969261 -0.34549865
-0.6816746 -0.55118299 -0.29617849
-0.73778194 -0.59654981 -0.29614043
-0.7966761 -0.64417005 -0.29379556
-0.88057625 -0.71200931 -0.29639575
-0.96128917 -0.77727157 -0.29300007
-1.0823179 -0.87513202 -0.29585609
-1.2279582 -0.99289268 -0.2974346
-1.3913647 -1.1250186 -0.29407239
-1.6372625 -1.3238447 -0.29589784
-1.9663318 -1.5899209 -0.2955372
-11.552133 -9.3407316 -0.34540886
-0.66520935 -0.5518651 -0.29202077
-0.73626631 -0.61081469 -0.29859573
-0.79818183 -0.66218048 -0.29740223
-0.87354302 -0.72470099 -0.29707649
-0.96341246 -0.79925764 -0.29669133
-1.066462 -0.88474876 -0.29454389
-1.2031287 -0.99812889 -0.29444143
-1.3802785 -1.1450943 -0.29475349
-1.6179965 -1.3423078 -0.29544726
-1.9407936 -1.610104 -0.29472274
-11.435473 -9.4869957 -0.34546527
-0.66663551 -0.56736976 -0.29575974
-0.72545588 -0.61743146 -0.29734105
-0.78402674 -0.66728073 -0.2952354
-0.86025602 -0.73215908 -0.29566976
-0.94403392 -0.80346197 -0.29381597
-1.0641541 -0.90569562 -0.29703274
-1.1990285 -1.0204864 -0.2965593
-1.3662282 -1.1627892 -0.29485652
-1.6082368 -1.3687613 -0.2967889
-1.9417394 -1.6526035 -0.29800287
-11.314378 -9.6296034 -0.3454428
-0.66786611 -0.58307594 -0.29953939
-0.71333241 -0.62276995 -0.2955628
-0.76839703 -0.67084372 -0.29250765
-0.85401154 -0.7455889 -0.29672688
-0.94100511 -0.82153809 -0.29606956
-1.0627578 -0.92783344 -0.29988039
-1.1839879 -1.0336725 -0.29603514
-1.3561521 -1.1839793 -0.29587606
-1.5839486 -1.3828555 -0.29549673
-1.9012518 -1.6598748 -0.29497355
-11.202001 -9.779829 -0.34574428
-0.66317439 -0.59385926 -0.30076519
-0.70255989 -0.62912822 -0.2943584
-0.76691532 -0.68675721 -0.29521218
-0.84704161 -0.75850868 -0.29760018
-0.9345513 -0.8368718 -0.29733101
-1.0343699 -0.92625737 -0.29513785
-1.1782897 -1.0551345 -0.29790881
-1.3429084 -1.2025474 -0.29626688
-1.5515757 -1.3894047 -0.29269806
-1.8979174 -1.6995467 -0.29775295
-11.058273 -9.9024611 -0.34512946
-0.63221794 -0.58064687 -0.29001874
-0.70007479 -0.64296848 -0.29668593
-0.76437008 -0.7020191 -0.29761162
-0.82549047 -0.75815386 -0.29335934
-0.9221307 -0.84691095 -0.29674879
-1.0297083 -0.94571322 -0.29718208
-1.1538634 -1.0597409 -0.29508364
-1.3289609 -1.2205553 -0.29655707
-1.5423787 -1.4165642 -0.29430476
-1.8603138 -1.7085649 -0.29520541
-10.941521 -10.049003 -0.34540755
-0.62532437 -0.58900166 -0.29023576
-0.70080262 -0.66009563 -0.30049312
-0.74108887 -0.69804186 -0.2919462
-0.82105958 -0.77336735 -0.29522207
-0.91095251 -0.85803872 -0.29660505
-1.0159061 -0.95689601 -0.29665273
-1.143784 -1.077346 -0.29595184
-1.316462 -1.2399938 -0.29722872
-1.5375513 -1.4482408 -0.29683986
-1.8389651 -1.7321465 -0.29525545
-10.814225 -10.186068 -0.34541073
-0.62605715 -0.60474807 -0.29408699
-0.67393136 -0.65099281 -0.29246292
-0.74111837 -0.71589297 -0.29548568
-0.81777972 -0.78994501 -0.29759577
-0.89814419 -0.86757416 -0.29596826
-1.0024893 -0.96836764 -0.29627213
-1.1325061 -1.0939591 -0.29657456
-1.2848191 -1.2410878 -0.29358962
-1.4941458 -1.4432896 -0.29194555
-1.8144155 -1.7526582 -0.29483396
-10.692344 -10.328409 -0.3456445
-0.61425251 -0.60848141 -0.29211792
-0.67339063 -0.66706383 -0.29585001
-0.73169261 -0.72481805 -0.29534316
-0.8020528 -0.79451722 -0.29549003
-0.88505572 -0.87674028 -0.29526985
-0.98540479 -0.97614652 -0.29483235
-1.1102111 -1.0997802 -0.29433933
-1.281118 -1.2690814 -0.29637206
-1.4977933 -1.483721 -0.29628536
-1.7966242 -1.7797441 -0.29556119
-10.55306 -10.453909 -0.34536994
-0.60462517 -0.61421978 -0.29119462
-0.65774637 -0.66818392 -0.29265022
-0.72517538 -0.73668295 -0.29643339
-0.79124612 -0.80380213 -0.29521424
-0.87044066 -0.88425332 -0.29408541
-0.97362995 -0.98908019 -0.29501238
-1.0957333 -1.113121 -0.29419371
-1.2534906 -1.2733818 -0.29366693
-1.4763184 -1.4997456 -0.2957496
-1.7725422 -1.80067 -0.29530624
-10.424304 -10.589724 -0.34549284
-0.60619253 -0.63152379 -0.29575592
-0.65801626 -0.68551308 -0.29658747
-0.7141307 -0.74397242 -0.29572469
-0.77390641 -0.80624598 -0.29250947
-0.86036342 -0.89631581 -0.29447067
-0.95397043 -0.99383438 -0.29282421
-1.0873159 -1.1327522 -0.29574004
-1.2503203 -1.302568 -0.29674336
-1.444295 -1.5046483 -0.29310676
-1.7552761 -1.8286246 -0.29624239
-10.294953 -10.725153 -0.34565443
-0.59964752 -0.64066058 -0.29647514
-0.64123923 -0.68509698 -0.29289073
-0.7076419 -0.75604123 -0.29695645
-0.77940875 -0.83271664 -0.29852873
-0.84855384 -0.90659094 -0.29431263
-0.946163 -1.0108761 -0.29431164
-1.0752757 -1.1488194 -0.29637635
-1.2272469 -1.3111848 -0.29516241
-1.44232 -1.5409678 -0.29662034
-1.723729 -1.8416239 -0.2948086
-10.168223 -10.863682 -0.34596503
-0.58565688 -0.64172113 -0.2935299
-0.63547981 -0.6963135 -0.29424164
-0.69089293 -0.75703132 -0.2939049
-0.77199072 -0.84589249 -0.2997435
-0.83434862 -0.91421986 -0.29335529
-0.94370347 -1.0340431 -0.29757324
-1.0461832 -1.1463331 -0.29231313
-1.2105939 -1.3264828 -0.29515114
-1.4239951 -1.5603125 -0.29686886
-1.7096807 -1.8733463 -0.29641694
-10.018441 -10.977495 -0.34554464
-0.5848946 -0.65732044 -0.29727274
-0.62589198 -0.70339447 -0.29388008
-0.68228501 -0.76677048 -0.29432714
-0.75017685 -0.8430692 -0.29537231
-0.83992624 -0.943932 -0.29947177
-0.92082751 -1.034851 -0.29444554
-1.0359671 -1.164248 -0.29353166
-1.1863989 -1.3333074 -0.29332232
-1.3898307 -1.5619296 -0.29382345
-1.6762832 -1.8838527 -0.29471606
-9.8743658 -11.097081 -0.34536761
-0.57443118 -0.6621654 -0.2961691
-0.61873955 -0.7132411 -0.29471543
-0.67757243 -0.78105962 -0.2965135
-0.74201548 -0.85534519 -0.2963762
-0.81692594 -0.94169694 -0.29547563
-0.92007071 -1.0605952 -0.29845038
-1.0249891 -1.1815381 -0.29461339
-1.1805408 -1.3608475 -0.29608718
-1.3665694 -1.5752887 -0.29307616
-1.6587874 -1.9121377 -0.29584986
-9.7423077 -11.230272 -0.34566742
-0.57081783 -0.67498571 -0.29866466
-0.61539537 -0.72769815 -0.2974636
-0.67231619 -0.79500639 -0.29857051
-0.72042853 -0.85189867 -0.29201546
-0.81288105 -0.96122277 -0.29836684
-0.90159613 -1.0661273 -0.29678884
-1.0091763 -1.1933396 -0.29436409
-1.1504289 -1.3603693 -0.29280806
-1.3497609 -1.5960772 -0.29375836
-1.6341999 -1.9324231 -0.29578111
-9.5956936 -11.346801 -0.34550759
-0.55488282 -0.67315334 -0.29473886
-0.60286599 -0.73136383 -0.29583541
-0.65893525 -0.79938394 -0.29707479
-0.72208399 -0.87599254 -0.29713404
-0.80267996 -0.9737671 -0.29909953
-0.87969398 -1.0671964 -0.29397944
-0.9993577 -1.2123657 -0.2959297
-1.1409518 -1.3841399 -0.29480869
-1.3341424 -1.6185082 -0.29477143
-1.5991145 -1.9399577 -0.29382896
-9.4586973 -11.474771 -0.34575009
-0.5388087 -0.67068332 -0.29066363
-0.585738 -0.72909862 -0.29191253
-0.64123809 -0.79818255 -0.29360428
-0.71462131 -0.88952643 -0.29864872
-0.78483284 -0.97692239 -0.29700959
-0.87104112 -1.0842303 -0.29562691
-0.98038912 -1.2203414 -0.29483974
-1.1305524 -1.4072576 -0.29667684
-1.3175745 -1.6400539 -0.2956503
-1.585546 -1.973612 -0.2958788
-1.9806039 -2.4653611 -0.29517984
-9.3143435 -11.594049 -0.34578267
-0.54738319 -0.69920874 -0.30001509
-0.5832864 -0.74507028 -0.29534304
-0.63527191 -0.8114748 -0.29552776
-0.69261992 -0.88472921 -0.29408658
-0.77042025 -0.98410869 -0.29622149
-0.85278732 -1.0893216 -0.29406381
-0.96615094 -1.2341285 -0.29520798
-1.1094079 -1.41712 -0.29578745
-1.2956326 -1.6549971 -0.29537964
-1.555571 -1.9870336 -0.29493096
-1.9524679 -2.4940162 -0.29564363
-9.1542702 -11.693355 -0.34527907
-0.52829182 -0.69261503 -0.29430816
-0.57211632 -0.75007093 -0.29444623
-0.62092787 -0.81406516 -0.29360035
-0.68589377 -0.89923853 -0.29601511
-0.75538939 -0.99035043 -0.2952137
-0.83831352 -1.0990678 -0.29382184
-0.95184422 -1.2479118 -0.29561454
-1.0852045 -1.4227533 -0.29408771
-1.2710818 -1.666447 -0.29454318
-1.5284638 -2.0038869 -0.29455236
-1.9159417 -2.5118883 -0.2948789
-9.00735 -11.809052 -0.34531888
-0.52221364 -0.70282495 -0.29582894
-0.56997406 -0.76710373 -0.29829147
-0.60875392 -0.81929588 -0.29269898
-0.67568076 -0.90936977 -0.29652587
-0.74444348 -1.0019146 -0.29584306
-0.81340992 -1.0947336 -0.28990194
-0.92758417 -1.2483959 -0.29293904
-1.0659875 -1.4346669 -0.2937524
-1.2513796 -1.6841782 -0.29486865
-1.5189459 -2.0442843 -0.29765534
-1.8869931 -2.5396233 -0.29532194
-8.8609619 -11.92559 -0.34543648
-0.51141709 -0.70671105 -0.29473063
-0.55535674 -0.76742995 -0.29567555
-0.61451983 -0.84918553 -0.30058894
-0.65516448 -0.9053511 -0.29250214
-0.73230994 -1.011956 -0.29606172
-0.80742913 -1.1157608 -0.29275459
-0.90563291 -1.2514654 -0.29096031
-1.0403301 -1.4375992 -0.2916474
-1.2369343 -1.7092805 -0.29651302
-1.4811093 -2.0466981 -0.29526779
-1.860338 -2.5707421 -0.29619309
-8.7087927 -12.034406 -0.34538457
-0.50125378 -0.71135676 -0.29401246
-0.53357428 -0.75722462 -0.28913209
-0.5964486 -0.84645295 -0.29693958
-0.6534692 -0.92737406 -0.29693529
-0.72647983 -1.0309875 -0.29892957
-0.79207647 -1.1240792 -0.29229704
-0.9094103 -1.2905942 -0.29737157
-1.0412441 -1.4776868 -0.29709649
-1.2164308 -1.7263038 -0.29678541
-1.4532995 -2.0624573 -0.29487786
-1.8177601 -2.5796833 -0.29456264
-8.5678988 -12.159176 -0.34584165
-0.49929273 -0.7278682 -0.29821461
-0.53576511 -0.78103757 -0.29562515
-0.57758617 -0.84200424 -0.2928043
-0.63762558 -0.92952955 -0.29503122
-0.70393801 -1.0261998 -0.29494792
-0.774782 -1.1294761 -0.29114038
-0.87562162 -1.2764798 -0.29155576
-1.0151869 -1.479938 -0.29495555
-1.1935459 -1.7399495 -0.29652402
-1.4348971 -2.0917907 -0.29646492
-1.7974963 -2.6203873 -0.2966024
-8.4063911 -12.254825 -0.34552395
-0.4839195 -0.72485685 -0.29446086
-0.52842849 -0.79152626 -0.29705301
-0.57800317 -0.86578363 -0.29851881
-0.62107426 -0.93029928 -0.29277006
-0.69473124 -1.040629 -0.29655725
-0.77172446 -1.1559563 -0.29543775
-0.87416869 -1.3094062 -0.29653859
-0.9916628 -1.485399 -0.29353195
-1.1675171 -1.7488089 -0.29550496
-1.4038546 -2.1028159 -0.29549867
-1.7598423 -2.6360455 -0.29584295
-8.253974 -12.363523 -0.34563082
-0.4744595 -0.73043865 -0.29427803
-0.50991791 -0.7850275 -0.29218119
-0.55991906 -0.86200511 -0.2947616
-0.61423641 -0.94562763 -0.29513645
-0.67710334 -1.0424124 -0.29461232
-0.75517452 -1.1626043 -0.2946831
-0.84766823 -1.3049999 -0.29310018
-0.97370541 -1.4990364 -0.29378062
-1.1410787 -1.7567105 -0.29438883
-1.3781464 -2.1216805 -0.2956875
-1.7174425 -2.6440327 -0.2942889
-8.0899763 -12.454659 -0.34530339
-0.46249372 -0.73203206 -0.29255047
-0.50393289 -0.79762173 -0.29448351
-0.54236293 -0.85844857 -0.29118702
-0.60210395 -0.95300621 -0.29504964
-0.66393685 -1.0508749 -0.29461783
-0.74193293 -1.1743267 -0.2952629
-0.84659714 -1.3399885 -0.2985405
-0.95674902 -1.5143362 -0.29439464
-1.1242936 -1.7795246 -0.29581609
-1.3504822 -2.1375346 -0.29550362
-1.6958059 -2.6841106 -0.29634944
-7.9432397 -12.572508 -0.34577018
-0.45274714 -0.73699528 -0.29223245
-0.49239454 -0.80153447 -0.29361567
-0.54552144 -0.8880161 -0.29886258
-0.58770484 -0.9566834 -0.29387361
-0.65277064 -1.0625995 -0.29557696
-0.71991116 -1.1718929 -0.29234847
-0.81645918 -1.3290565 -0.29379112
-0.9357999 -1.5233229 -0.29382759
-1.0992032 -1.7893158 -0.2951194
-1.3225622 -2.1529062 -0.29530293
-1.6605079 -2.7030244 -0.29610562
-7.7820344 -12.667828 -0.34566924
-0.4464041 -0.74761575 -0.29419142
-0.48714063 -0.81583923 -0.29658517
-0.5318715 -0.89075238 -0.29750586
-0.57132185 -0.95682186 -0.29168311
-0.63666576 -1.0662566 -0.29434085
-0.70814055 -1.1859591 -0.29360974
-0.79918301 -1.3384326 -0.29361585
-0.91902918 -1.539145 -0.29462388
-1.0777359 -1.8049393 -0.2954345
-1.2934686 -2.1662378 -0.29487407
-1.6190952 -2.7115812 -0.29478621
-7.6235089 -12.76748 -0.34574157
-0.43909472 -0.75686485 -0.2956318
-0.48049983 -0.82823461 -0.29886803
-0.51307809 -0.88438952 -0.2931996
-0.56417847 -0.97247094 -0.29426461
-0.62198728 -1.0721157 -0.29377288
-0.69832957 -1.2037064 -0.29580301
-0.78826201 -1.3587224 -0.29586598
-0.89813191 -1.5481045 -0.29415074
-1.0537537 -1.8163489 -0.29510674
-1.2658347 -2.1819115 -0.29481453
-1.591723 -2.743643 -0.29606932
-7.4547424 -12.849693 -0.34539852
-0.42863742 -0.76074934 -0.29501742
-0.46523166 -0.82569706 -0.29581496
-0.49983439 -0.88711029 -0.29199183
-0.54684985 -0.97055382 -0.2915777
-0.61042863 -1.0833939 -0.29473367
-0.67896634 -1.2050352 -0.29400522
-0.76407361 -1.3560843 -0.29317319
-0.88363737 -1.568287 -0.29584792
-1.0350316 -1.8369828 -0.29631814
-1.2427233 -2.205596 -0.29587683
-1.5539662 -2.7579925 -0.29548275
-3.6437275 -6.4669185 -0.34556535
-7.2918196 -12.941583 -0.345373
-0.42064402 -0.7690466 -0.29615751
-0.45667273 -0.83491647 -0.29703417
-0.49490485 -0.90481478 -0.29574457
-0.54435349 -0.99521971 -0.2969051
-0.59489328 -1.0876197 -0.29382205
-0.66821927 -1.2216786 -0.29598948
-0.75040215 -1.3719302 -0.29453275
-0.85444343 -1.5621449 -0.29263633
-1.0043693 -1.8362482 -0.29413623
-1.2101212 -2.2124162 -0.29472423
-1.5185026 -2.7762177 -0.29536334
-3.5591202 -6.5069971 -0.34528476
-7.1310401 -13.037395 -0.34550619
-0.41148114 -0.77532542 -0.29655656
-0.44402978 -0.83665454 -0.29563987
-0.48299387 -0.91007191 -0.29545155
-0.53091747 -1.000371 -0.29642391
-0.58193159 -1.0964934 -0.29421633
-0.65017831 -1.225086 -0.29480803
-0.72633803 -1.3685884 -0.29182863
-0.84253114 -1.587523 -0.29537958
-0.99143004 -1.8680829 -0.29721227
-1.1806077 -2.2245371 -0.29433516
-1.4872979 -2.8024123 -0.2961342
-1.9745533 -3.7205138 -0.29445967
-3.4723821 -6.542769 -0.3448354
-6.9671006 -13.127625 -0.34554496
-0.40574437 -0.7883296 -0.29955262
-0.43515095 -0.84546429 -0.29679313
-0.47109339 -0.91529769 -0.29519883
-0.5150615 -1.0007242 -0.29458341
-0.56444609 -1.0966747 -0.29233468
-0.63721502 -1.238059 -0.29597554
-0.70979995 -1.3790859 -0.29213801
-0.81914145 -1.5915278 -0.29418221
-0.96135402 -1.8678358 -0.29522356
-1.1529292 -2.2400515 -0.29444364
-1.4506131 -2.818428 -0.29587293
-1.9333986 -3.7564425 -0.295353
-3.3979099 -6.6018734 -0.34566799
-6.8044739 -13.220561 -0.34570849
-0.39080834 -0.78339756 -0.2957851
-0.42316949 -0.84826732 -0.29588306
-0.46190086 -0.92590654 -0.29672098
-0.50199705 -1.0062816 -0.29433522
-0.55172682 -1.1059678 -0.29293671
-0.61434263 -1.2314848 -0.29253131
-0.70650238 -1.4162242 -0.29809698
-0.80283809 -1.6093347 -0.29558155
-0.93565291 -1.8755696 -0.29456037
-1.1285686 -2.2622802 -0.29547408
-1.4183508 -2.8431649 -0.29657131
-1.8935423 -3.7957134 -0.29654244
-3.313725 -6.64255 -0.34558558
-6.63272 -13.295665 -0.34546101
-0.3813203 -0.78909814 -0.29610103
-0.4090372 -0.8464551 -0.29343107
-0.44634864 -0.92366678 -0.29417869
-0.48429242 -1.002187 -0.29133072
-0.54074371 -1.1190064 -0.29456335
-0.60846764 -1.2591532 -0.29726017
-0.6793859 -1.4059104 -0.29410204
-0.77999628 -1.6141119 -0.29463169
-0.91567868 -1.8948909 -0.29576051
-1.0985439 -2.2733092 -0.29508445
-1.3748546 -2.8451021 -0.29494414
-1.8448802 -3.817766 -0.29642686
-3.2267182 -6.677319 -0.34525323
-6.4591184 -13.366397 -0.34515816
-0.36661088 -0.78369683 -0.29231879
-0.39869231 -0.85227668 -0.29368553
-0.43889135 -0.93820935 -0.29702663
-0.47647396 -1.018549 -0.2943196
-0.53117907 -1.135491 -0.29711843
-0.5881424 -1.2572603 -0.2950415
-0.6672442 -1.4263548 -0.29659763
-0.76354682 -1.632219 -0.29615834
-0.88878375 -1.8999355 -0.29477766
-1.067776 -2.2825637 -0.29451707
-1.338238 -2.8607249 -0.2947934
-1.7900076 -3.8264637 -0.29532868
-3.1447668 -6.7225056 -0.34551471
-6.2934856 -13.45346 -0.34533256
-0.35676962 -0.78837341 -0.29236427
-0.39037892 -0.86264175 -0.29553989
-0.42536864 -0.93996042 -0.29586181
-0.45742095 -1.0107881 -0.29038963
-0.51284069 -1.1332523 -0.29481947
-0.57127702 -1.2623821 -0.29453194
-0.64366406 -1.4223399 -0.29405409
-0.74026448 -1.635803 -0.29509389
-0.87012964 -1.9227732 -0.29659748
-1.039503 -2.2970467 -0.2946735
-1.3056958 -2.8852677 -0.29560477
-1.7443178 -3.8545148 -0.29577497
-3.0612583 -6.7646308 -0.34567115
-6.129777 -13.545305 -0.3456814
-0.35132042 -0.80310279 -0.29616252
-0.37798691 -0.86406124 -0.2943722
-0.41053563 -0.93846613 -0.29374102
-0.44592914 -1.0193741 -0.29121998
-0.49884158 -1.1403296 -0.29500312
-0.55516535 -1.2690833 -0.29444101
-0.61933619 -1.4157748 -0.29106143
-0.72110415 -1.6484119 -0.29570699
-0.85089231 -1.9451019 -0.29836535
-1.0055348 -2.2986076 -0.29322615
-1.2578677 -2.8754294 -0.29295078
-1.6930587 -3.8702567 -0.29532358
-2.9747465 -6.800138 -0.34554404
-5.9520397 -13.606097 -0.34529272
-0.34007749 -0.80485213 -0.29520503
-0.365722 -0.86554432 -0.29328525
-0.3995043 -0.94549596 -0.29434341
-0.43963 -1.0404603 -0.29563907
-0.48413479 -1.1457887 -0.29481488
-0.53936714 -1.2765055 -0.29456395
-0.61020231 -1.4441491 -0.29529166
-0.700827 -1.6586282 -0.29593313
-0.81592035 -1.9310166 -0.2946054
-0.98022121 -2.3198628 -0.29433972
-1.2287478 -2.9080441 -0.29467386
-1.6406422 -3.8828633 -0.29468572
-2.8886733 -6.8365445 -0.34551826
-5.7845054 -13.690031 -0.3455469
-0.32931444 -0.807594 -0.29466635
-0.3558237 -0.87260389 -0.29413581
-0.37932116 -0.93022788 -0.28808048
-0.4197517 -1.0293777 -0.29096508
-0.47132817 -1.1558611 -0.29585603
-0.52277821 -1.2820346 -0.29429743
-0.59156835 -1.4507321 -0.29509115
-0.68221813 -1.6730371 -0.29694769
-0.7993421 -1.9602658 -0.2975086
-0.95553005 -2.3432932 -0.29576245
-1.1915665 -2.9221368 -0.29455814
-1.598693 -3.9205532 -0.29599488
-2.8101964 -6.8915825 -0.34648398
-5.6150527 -13.770068 -0.34575501
-0.31508994 -0.80142659 -0.29094532
-0.34711295 -0.88287669 -0.29610175
-0.37890524 -0.96373993 -0.29695761
-0.4117519 -1.047285 -0.29453784
-0.45789582 -1.1646513 -0.29660657
-0.50729769 -1.2903043 -0.29470602
-0.57316464 -1.4578359 -0.29504466
-0.65832126 -1.6744305 -0.29570019
-0.76833659 -1.9542528 -0.29510424
-0.92281264 -2.3471603 -0.29476053
-1.1599232 -2.9502475 -0.29589599
-1.5525213 -3.9488153 -0.29662913
-2.7138286 -6.9025831 -0.34529155
-5.4377108 -13.830737 -0.34553167
-0.30728069 -0.81142157 -0.2931459
-0.33666009 -0.88900232 -0.29671088
-0.36552417 -0.96522236 -0.2959727
-0.39774922 -1.0503175 -0.29395881
-0.44514444 -1.1754718 -0.29791114
-0.48783278 -1.2881969 -0.29279843
-0.55449951 -1.4642406 -0.29490435
-0.63729209 -1.6828669 -0.29574946
-0.74518174 -1.967766 -0.29570442
-0.8916918 -2.3546484 -0.29426745
-1.1166869 -2.9487822 -0.2943154
-1.4960984 -3.950676 -0.29533032
-2.6292377 -6.942903 -0.34562495
-5.2610888 -13.892708 -0.34539741
-0.29662272 -0.81408226 -0.2927345
-0.32539859 -0.89305782 -0.29667333
-0.35298035 -0.96875602 -0.29566985
-0.39095178 -1.0729688 -0.29889685
-0.42623818 -1.1698124 -0.29509315
-0.47649676 -1.3077472 -0.29585484
-0.53822941 -1.4771727 -0.29612046
-0.61840844 -1.6972245 -0.2968806
-0.71495092 -1.9621857 -0.29348966
-0.86309522 -2.3687685 -0.2946505
-1.079556 -2.9628458 -0.29433891
-2.539675 -6.9701481 -0.34536186
-5.0857553 -13.957876 -0.34539807
-0.28613555 -0.8171432 -0.29251638
-0.31343392 -0.89510167 -0.29601771
-0.34224868 -0.97739059 -0.29696631
-0.37224844 -1.0630636 -0.29480842
-0.4180038 -1.1937313 -0.2997753
-0.46162957 -1.3183174 -0.29690754
-0.51627505 -1.4743733 -0.29423273
-0.59393138 -1.6961437 -0.29535991
-0.69444519 -1.9831901 -0.29529998
-0.83662862 -2.3892362 -0.29586256
-1.0484906 -2.9942696 -0.29612559
-1.3976418 -3.9913723 -0.29564708
-2.4532826 -7.0060616 -0.34558326
-0.27859494 -0.82892573 -0.29545498
-0.30157879 -0.89731139 -0.29546916
-0.32926631 -0.97969228 -0.29638237
-0.36127123 -1.0749191 -0.29681107
-0.39190567 -1.1660681 -0.29156598
-0.4398801 -1.3088102 -0.2934956
-0.49948269 -1.4861506 -0.29530445
-0.57277745 -1.7042304 -0.29548872
-0.67095762 -1.9963535 -0.29597855
-0.80511713 -2.395529 -0.29536298
-1.0086429 -3.0010958 -0.29552111
-2.3597672 -7.0212035 -0.34483707
-0.27020106 -0.83877939 -0.2977308
-0.29094493 -0.90317416 -0.29616982
-0.31853762 -0.98882949 -0.29790956
-0.3459287 -1.0738591 -0.29529217
-0.38024011 -1.1803712 -0.29392186
-0.42551696 -1.3209232 -0.29498696
-0.47974986 -1.4892772 -0.29470196
-0.54867256 -1.7032325 -0.29409444
-0.64270395 -1.9951322 -0.29457423
-0.7720269 -2.3965867 -0.29427141
-0.97095907 -3.0141275 -0.29557699
-2.2759094 -7.0650568 -0.34555596
-0.25389233 -0.82354164 -0.29116413
-0.28103518 -0.91158396 -0.2977435
-0.30586627 -0.9921276 -0.29771921
-0.32702446 -1.0607578 -0.29053414
-0.36667871 -1.1893828 -0.29499266
-0.40963352 -1.3287138 -0.29555136
-0.46166313 -1.4974804 -0.29515147
-0.52992922 -1.7189127 -0.29562628
-0.61728537 -2.0022666 -0.29445663
-0.7409963 -2.4035437 -0.29395664
-0.93549114 -3.0344198 -0.29638824
-2.1847892 -7.0867233 -0.34524271
-0.2452078 -0.83246142 -0.29320285
-0.26704243 -0.90658826 -0.29499009
-0.28691536 -0.97405535 -0.29118881
-0.31615865 -1.0733341 -0.29286507
-0.34915215 -1.1853443 -0.29287738
-0.38810533 -1.3175874 -0.29196629
-0.44440764 -1.5087295 -0.29624218
-0.50930274 -1.7290432 -0.29624212
-0.59067422 -2.0052929 -0.29378456
-0.71256769 -2.419112 -0.2947399
-0.89480686 -3.0377998 -0.29559439
-2.0967157 -7.118187 -0.34546188
-0.23609853 -0.84043747 -0.29494157
-0.25883707 -0.92137963 -0.29871875
-0.27821854 -0.99037158 -0.29499575
-0.30593932 -1.089049 -0.29607835
-0.33498988 -1.1924599 -0.29356998
-0.37537548 -1.3362203 -0.29502437
-0.42381054 -1.508634 -0.29515216
-0.48426214 -1.723823 -0.29427958
-0.56720471 -2.0190728 -0.29473361
-0.67927963 -2.4180245 -0.293542
-0.85601038 -3.0471313 -0.29543012
-2.0011299 -7.1234012 -0.34446469
-0.22364475 -0.8364138 -0.29251802
-0.24541603 -0.91783667 -0.2965447
-0.26685333 -0.99801046 -0.29624674
-0.29082999 -1.0876813 -0.29468751
-0.31876099 -1.1921411 -0.29248011
-0.35783029 -1.3382571 -0.29445589
-0.40262505 -1.5057861 -0.29357982
-0.46358657 -1.7337773 -0.29495901
-0.5437994 -2.033767 -0.29585555
-0.65067905 -2.4334884 -0.29440126
-0.81777316 -3.0584073 -0.29550156
-1.9153113 -7.1631136 -0.34519142
-0.21580748 -0.84984291 -0.29624072
-0.23346105 -0.91936207 -0.29606423
-0.2527338 -0.9952575 -0.29446152
-0.273996 -1.0789874 -0.29137418
-0.30688 -1.2084835 -0.29551807
-0.343925 -1.3543656 -0.29702377
-0.38740426 -1.5255855 -0.29646546
-0.44304037 -1.7446787 -0.29584104
-0.51533043 -2.0293548 -0.29424638
-0.62028539 -2.4426639 -0.294543
-0.78165442 -3.07813 -0.29643264
-1.8296866 -7.2052469 -0.34608412
-0.20679528 -0.85958183 -0.29870412
-0.22294013 -0.92669082 -0.29749671
-0.23996723 -0.99746704 -0.29419789
-0.26366246 -1.0959605 -0.29503772
-0.28679034 -1.1920958 -0.29060456
-0.32285786 -1.3420169 -0.29340073
-0.36475641 -1.5161757 -0.29372105
-0.41966563 -1.7444159 -0.29487702
-0.48887101 -2.0320804 -0.29372573
-0.59053218 -2.4546535 -0.29506868
-0.7379756 -3.0675285 -0.29449344
-1.7364252 -7.2177644 -0.3456077
-0.19275689 -0.84804416 -0.29382804
-0.21204175 -0.93288887 -0.29860562
-0.22650206 -0.99650776 -0.2930505
-0.24997742 -1.0997889 -0.29519755
-0.27504069 -1.2100561 -0.29411525
-0.30924121 -1.3605231 -0.29657182
-0.35068282 -1.5428476 -0.29800895
-0.397708 -1.7497374 -0.29490662
-0.46308947 -2.0373867 -0.29362652
-0.5582608 -2.4560981 -0.29437396
-0.70254618 -3.090889 -0.29586336
-1.6455529 -7.239697 -0.3456383
-0.18592647 -0.86844659 -0.30006206
-0.19833019 -0.92638332 -0.29570046
-0.21677175 -1.0125222 -0.29693374
-0.23628011 -1.1036441 -0.29541031
-0.26133463 -1.2206715 -0.29587212
-0.28909013 -1.3503152 -0.2935299
-0.32583746 -1.5219588 -0.29315841
-0.37612063 -1.7568271 -0.29527989
-0.43700945 -2.0412338 -0.29336464
-0.52967566 -2.4740696 -0.29570508
-0.66354203 -3.0993481 -0.2958498
-1.5542822 -7.2599187 -0.34564194
-0.1692578 -0.84225929 -0.2902545
-0.18826316 -0.93683362 -0.2982558
-0.20508952 -1.0205648 -0.2985113
-0.22149469 -1.1022 -0.29425386
-0.24397662 -1.2140745 -0.29350516
-0.27453771 -1.3661523 -0.29619756
-0.30757943 -1.5305741 -0.29404852
-0.35324231 -1.7578014 -0.29467267
-0.4103291 -2.0418763 -0.2926912
-0.49640408 -2.470202 -0.29447237
-0.62415415 -3.1059108 -0.29570258
-1.4590479 -7.2605023 -0.34476766
-0.16124174 -0.85817444 -0.29501602
-0.17294984 -0.9204883 -0.29233551
-0.18788101 -0.99995625 -0.29176822
-0.20658933 -1.0995272 -0.2928226
-0.22832876 -1.2152307 -0.29306638
-0.25772175 -1.3716686 -0.29666644
-0.28940725 -1.5403079 -0.29519501
-0.33278218 -1.7711614 -0.29618636
-0.38533461 -2.0508604 -0.29326025
-0.4646858 -2.4731903 -0.29410774
-0.58454168 -3.1110973 -0.29547217
-1.3688811 -7.2855749 -0.34511238
-0.15056928 -0.8609702 -0.29530191
-0.16229868 -0.92804015 -0.29406151
-0.18017018 -1.0302311 -0.29991612
-0.19397448 -1.1091655 -0.29471558
-0.21437457 -1.2258153 -0.29494455
-0.23837283 -1.3630397 -0.29412767
-0.27108017 -1.5500635 -0.29638699
-0.30888078 -1.7662113 -0.29468477
-0.36203063 -2.0701275 -0.29534
-0.43422112 -2.4829199 -0.29459119
-0.54619855 -3.1232178 -0.29594663
-1.27727 -7.3035574 -0.34517497
-0.14041291 -0.86709732 -0.29677346
-0.15203264 -0.93885303 -0.29685757
-0.16629465 -1.0269258 -0.29832062
-0.17787094 -1.0984132 -0.29124039
-0.19694132 -1.2161793 -0.29200619
-0.22147898 -1.3677076 -0.29450977
-0.24755809 -1.5287549 -0.29169339
-0.28442129 -1.7563977 -0.29242668
-0.33526444 -2.0703714 -0.29474914
-0.40407735 -2.4953144 -0.29543465
-0.50804669 -3.1373603 -0.29665703
-1.1852468 -7.3193002 -0.34518626
-0.12986827 -0.87137496 -0.29765421
-0.13705373 -0.91958714 -0.29019716
-0.15192796 -1.0193886 -0.2955519
-0.1640493 -1.1007189 -0.2912809
-0.181381 -1.2170091 -0.29163393
-0.20412104 -1.3695875 -0.29433778
-0.23037617 -1.5457511 -0.29435948
-0.26735938 -1.7938968 -0.29808581
-0.31033486 -2.0822487 -0.29586026
-0.37040994 -2.4853334 -0.29367742
-0.4676612 -3.1378586 -0.2961238
-1.0943415 -7.3426852 -0.34561181
-0.11939563 -0.87668085 -0.29892942
-0.1285397 -0.94382262 -0.29731086
-0.139118 -1.0214955 -0.29563141
-0.15294324 -1.1230094 -0.29664645
-0.16930817 -1.2431715 -0.29736879
-0.18679059 -1.3715388 -0.29422829
-0.20962267 -1.5391868 -0.29258358
-0.24211201 -1.7777449 -0.29487193
-0.28218645 -2.0719976 -0.29387555
-0.33915132 -2.4902711 -0.29373294
-0.42781717 -3.1413138 -0.29591802
-1.0009379 -7.3495417 -0.34531391
-0.10677065 -0.86533338 -0.29457837
-0.11645162 -0.94379377 -0.29681635
-0.125626 -1.0181484 -0.29418159
-0.13801193 -1.1185315 -0.29498112
-0.15261814 -1.236909 -0.29538769
-0.17092361 -1.3852675 -0.29668817
-0.19114633 -1.5491645 -0.29399937
-0.22145502 -1.7948043 -0.29721546
-0.25849903 -2.0950313 -0.29665726
-0.30893657 -2.5038073 -0.29484737
-0.38780716 -3.1430218 -0.2955955
-0.90810072 -7.3597932 -0.34523094
-0.09493386 -0.85817754 -0.29171228
-0.10527402 -0.9516499 -0.29884642
-0.11368658 -1.0276973 -0.29650348
-0.12421295 -1.1228529 -0.29568484
-0.13547781 -1.2246844 -0.29203776
-0.15153173 -1.3698076 -0.29294521
-0.17089309 -1.5448292 -0.29274505
-0.19818234 -1.7915171 -0.29623437
-0.23136793 -2.0915062 -0.29572213
-0.27753034 -2.5088024 -0.29500064
-0.34805331 -3.146312 -0.29546928
-0.81351829 -7.3539953 -0.34445113
-0.086120792 -0.87973464 -0.29864767
-0.091572769 -0.93542725 -0.29336667
-0.1009739 -1.0314609 -0.29719892
-0.10924477 -1.1159489 -0.29348126
-0.12066234 -1.2325808 -0.29353514
-0.13566451 -1.3858298 -0.29598287
-0.15466565 -1.5799288 -0.29900363
-0.17547488 -1.7924976 -0.29600766
-0.20498784 -2.0939763 -0.29568294
-0.24798895 -2.5332379 -0.29748315
-0.30876428 -3.1540654 -0.29580885
-0.72338957 -7.3895144 -0.34566075
-0.073746152 -0.86559737 -0.29350993
-0.080974422 -0.95043939 -0.29773137
-0.086430013 -1.0144745 -0.29196784
-0.095102526 -1.1162684 -0.29322711
-0.10471431 -1.229087 -0.29236591
-0.11844289 -1.3902265 -0.29657987
-0.13153459 -1.5438907 -0.29184678
-0.15294407 -1.795185 -0.29610991
-0.17808725 -2.0903037 -0.29482433
-0.21552607 -2.529743 -0.29673049
-0.26828554 -3.1490085 -0.29499435
-0.62957639 -7.3896694 -0.3452698
-0.062995322 -0.86857975 -0.29422891
-0.068684064 -0.94701618 -0.29636458
-0.074079908 -1.021414 -0.29367331
-0.081311777 -1.1211271 -0.29421115
-0.090342693 -1.2456454 -0.29601064
-0.099057436 -1.3658044 -0.29108065
-0.11344396 -1.5641658 -0.29538602
-0.13049307 -1.799239 -0.29648408
-0.15214314 -2.0977502 -0.29558095
-0.18389724 -2.5355759 -0.29711953
-0.22867484 -3.1529698 -0.29507229
-0.53673774 -7.4005423 -0.34543464
-0.051660515 -0.86273521 -0.29200557
-0.056609485 -0.94538349 -0.29560712
-0.060856283 -1.0163053 -0.29196098
-0.067134291 -1.1211487 -0.29397163
-0.075071454 -1.2537 -0.29767644
-0.082603425 -1.3794847 -0.29375124
-0.4432925 -7.4030242 -0.34526256
-0.041075826 -0.86929137 -0.29402623
-0.044811487 -0.94834954 -0.29633462
-0.048620664 -1.0289634 -0.29539809
-0.053162843 -1.12509 -0.29480618
-0.058238011 -1.2324961 -0.29244456
-0.065142557 -1.3786176 -0.2933687
-0.34987476 -7.4044309 -0.34509534
-0.030056633 -0.86770421 -0.29333812
-0.032712027 -0.94436276 -0.29493678
-0.035081863 -1.0127774 -0.29060149
-0.03919927 -1.1316428 -0.29637039
-0.042777598 -1.2349454 -0.29287466
-0.25647706 -7.4042301 -0.34490809
-0.019349718 -0.87803841 -0.29672581
-0.020911593 -0.94891202 -0.29625186
-0.022651389 -1.0278594 -0.2948238
-0.024932886 -1.1313876 -0.2961978
-0.027412375 -1.2439002 -0.29489309
-0.16357343 -7.422524 -0.34563693
-0.0081923017 -0.86758858 -0.2931363
-0.0089260442 -0.94529408 -0.29506385
-0.0096944859 -1.0266743 -0.29442552
-0.010489698 -1.1108896 -0.29077381
-0.011551437 -1.2233309 -0.28995922
-0.070181303 -7.4324045 -0.34602845
0.0027940623 -0.88722277 -0.29975832
0.0029927385 -0.95031011 -0.29661778
0.0032262201 -1.0244496 -0.29377589
0.0035437695 -1.1252837 -0.29452977
0.0037524225 -1.1915392 -0.28241262
0.023357138 -7.4167943 -0.34528801
0.013844153 -0.87943739 -0.29716328
0.014998128 -0.95274264 -0.2974124
0.016175527 -1.0275359 -0.29469597
0.017642198 -1.1207049 -0.29336619
0.019252626 -1.2230058 -0.28990516
0.11674507 -7.4161263 -0.34529796
0.02472429 -0.87242037 -0.29487401
0.026980424 -0.95203024 -0.2972725
0.029528419 -1.0419387 -0.2989096
0.031987589 -1.1287129 -0.29554445
0.033880953 -1.1955221 -0.28346899
0.21003842 -7.4114075 -0.34517404
0.035785455 -0.87395209 -0.29552063
0.039050054 -0.95368004 -0.29791757
0.042464025 -1.037056 -0.29763868
0.045981959 -1.1229709 -0.29416928
0.049134847 -1.1999708 -0.28464797
0.30379245 -7.4192166 -0.34568849
0.047170874 -0.88060349 -0.29794699
0.050558884 -0.94385213 -0.29502296
0.054379825 -1.0151829 -0.29153442
0.060082637 -1.1216451 -0.29399684
0.06376908 -1.190465 -0.28256115
0.39665419 -7.4048882 -0.34522626
0.057798803 -0.8730489 -0.29561374
0.0631622 -0.95406282 -0.2984395
0.068474226 -1.0343008 -0.29724866
0.074651204 -1.1276039 -0.29578164
0.078972295 -1.1928738 -0.28334647
0.49003455 -7.4019551 -0.34534979
0.069707103 -0.88391978 -0.29956809
0.074757226 -0.94795775 -0.2968007
0.080708966 -1.0234287 -0.29439285
0.088309214 -1.1198035 -0.2940039
0.094513841 -1.1984812 -0.28493851
0.58209503 -7.3812461 -0.34469825
0.080033086 -0.87425369 -0.29661018
0.085669331 -0.93582207 -0.29331562
0.094354622 -1.0306972 -0.29680192
0.10184622 -1.1125329 -0.29240853
0.1095834 -1.197051 -0.28490397
0.67662287 -7.3911939 -0.34553331
0.091207117 -0.8748309 -0.29717213
0.097719677 -0.9372974 -0.29414037
0.10652918 -1.0217955 -0.2946015
0.11531995 -1.1061139 -0.29108003
0.12441362 -1.1933377 -0.28437048
0.76974612 -7.3831706 -0.34558395
0.10164782 -0.86876494 -0.29552293
0.10956336 -0.93641764 -0.29427391
0.12135401 -1.0371902 -0.29945686
0.13025345 -1.113252 -0.29336682
0.13961205 -1.1932381 -0.28474313
0.86244476 -7.3711548 -0.34550247
0.11288347 -0.86976558 -0.29632336
0.12270665 -0.94545305 -0.29757532
0.1307646 -1.0075395 -0.29134846
0.14485984 -1.116143 -0.294586
0.15453786 -1.190712 -0.28458214
0.95716965 -7.3749785 -0.34621918
0.12392701 -0.8689841 -0.29656523
0.13357101 -0.93660843 -0.2952975
0.14317408 -1.0039457 -0.29080755
0.15878837 -1.1134342 -0.29437545
0.17142271 -1.2020268 -0.28777951
1.0485168 -7.3522658 -0.34574535
0.13465956 -0.86607373 -0.29612723
0.14534299 -0.93478507 -0.29527625
0.15534736 -0.99912894 -0.28995594
0.17399085 -1.1190361 -0.29641226
0.18888152 -1.2148067 -0.29138544
1.1387144 -7.3237329 -0.34505048
0.14492767 -0.86059153 -0.29485336
0.15637004 -0.92853719 -0.29390138
0.16980003 -1.0082855 -0.29321051
0.18534002 -1.100563 -0.29211414
0.20281583 -1.2043358 -0.28946355
1.2338995 -7.3269887 -0.34590852
0.15483986 -0.85366929 -0.29312646
0.16881821 -0.93073523 -0.29524654
0.18137066 -0.99993992 -0.29142466
0.20074348 -1.1067469 -0.29440308
0.2178728 -1.201185 -0.2893427
1.32225 -7.2898812 -0.34491536
0.16581452 -0.8528772 -0.29354817
0.1815832 -0.93398428 -0.29697901
0.19687065 -1.0126164 -0.29581815
0.21660852 -1.1141393 -0.29707149
0.23296677 -1.1982789 -0.2893264
1.4166018 -7.2863784 -0.34556624
0.17546944 -0.84556228 -0.29176784
0.19395873 -0.93465954 -0.29794669
0.21000092 -1.0119646 -0.29637673
0.22698145 -1.0937912 -0.29238486
0.24563463 -1.1836783 -0.28652516
1.5079411 -7.2665534 -0.34549916
0.19283995 -0.87381673 -0.30233118
0.20219541 -0.91620916 -0.29285356
0.22079363 -1.0004834 -0.29380521
0.24034542 -1.0890785 -0.29191098
0.26427427 -1.1975074 -0.29065517
1.6008488 -7.2539349 -0.34583023
0.19925803 -0.85178763 -0.29555404
0.21669714 -0.92633629 -0.29693922
0.23413263 -1.0008695 -0.294761
0.25583354 -1.0936364 -0.29397282
0.28128204 -1.2024237 -0.29268491
1.6887134 -7.2189074 -0.34514675
0.20841807 -0.84294552 -0.29337338
0.22649796 -0.91606951 -0.29453906
0.24583098 -0.9942618 -0.29370338
0.27127042 -1.0971515 -0.29581243
0.29892114 -1.2089845 -0.29517475
1.783044 -7.2115097 -0.34583908
0.22118419 -0.84857559 -0.29627869
0.23649043 -0.90729815 -0.29265314
0.26061898 -0.99986762 -0.29630527
0.28384808 -1.0889863 -0.29455125
0.31289035 -1.2004073 -0.29401922
1.8720491 -7.182137 -0.34553358
0.22736153 -0.82934618 -0.29054135
0.24849641 -0.90643984 -0.29336235
0.27347425 -0.9975515 -0.2966159
0.2949982 -1.0760643 -0.29203773
0.32857397 -1.1985387 -0.29455158
1.9615878 -7.1552801 -0.34540245
0.23936513 -0.83190596 -0.29247084
0.25960341 -0.90224349 -0.29303899
0.28534541 -0.99170905 -0.29592359
0.31088942 -1.0804864 -0.29427698
0.34386745 -1.1951005 -0.29474744
2.0512285 -7.1289802 -0.34535238
0.2519725 -0.83596462 -0.29498982
