# .PCD v0.7 - Point Cloud Data file format
VERSION 0.7
FIELDS x y z
SIZE 4 4 4
TYPE F F F
COUNT 1 1 1
WIDTH 594
HEIGHT 1
VIEWPOINT 0 0 0 1 0 0 0
POINTS 594
DATA ascii
-1.2967616 -0.5527494 -0.050326444
-1.2794341 -0.56450433 -0.049925886
-1.2775476 -0.58299816 -0.050134763
-1.2721589 -0.60000622 -0.050215811
-1.2526518 -0.61020356 -0.049745172
-1.2435557 -0.62526703 -0.049692679
-1.2531958 -0.65001017 -0.05040098
-1.2459583 -0.66629744 -0.05044334
-1.2207395 -0.67271292 -0.04976134
-1.2253299 -0.69549835 -0.050301474
-1.2002689 -0.701401 -0.049631327
-1.2037474 -0.7239185 -0.050148122
-1.1944867 -0.73898673 -0.050146017
-1.1784345 -0.74973553 -0.049864508
-1.1758074 -0.76903105 -0.050159127
-1.16179 -0.78092414 -0.049976688
-1.1552472 -0.79782629 -0.050123427
-1.148051 -0.81439531 -0.050252158
-1.1370751 -0.82832664 -0.0502243
-1.1253999 -0.84171396 -0.050172791
-1.1223164 -0.86165524 -0.050515041
-1.0887825 -0.85791385 -0.049488008
-1.0886149 -0.88022357 -0.049980223
-1.0792986 -0.89539814 -0.050066188
-1.0631112 -0.90480793 -0.049839854
-1.0517527 -0.91822547 -0.049845468
-1.0360835 -0.92779189 -0.049652614
-1.0301973 -0.94616228 -0.049937535
-1.0163937 -0.9573552 -0.049848832
-1.0076559 -0.97335833 -0.050017454
-0.98492205 -0.97566831 -0.049494918
-0.98323697 -0.99883962 -0.05003833
-0.96554893 -1.0058967 -0.049778827
-0.94892174 -1.0138235 -0.049575847
-0.93265921 -1.0219415 -0.049394611
-0.93098259 -1.0462636 -0.049999602
-0.91456962 -1.0542539 -0.049827144
-0.90472621 -1.0698286 -0.050020844
-0.8876071 -1.0767961 -0.049820077
-0.87758219 -1.0923723 -0.050025493
-0.8554492 -1.0927218 -0.049544264
-0.84638792 -1.1096537 -0.049824778
-0.8322562 -1.120098 -0.049819227
-0.816383 -1.1281339 -0.049715471
-0.80626214 -1.1442109 -0.04997259
-0.79644865 -1.1610615 -0.050266534
-0.77131331 -1.1553404 -0.049594421
-0.76501262 -1.1777502 -0.050138898
-0.74749994 -1.183138 -0.04996359
-0.73363662 -1.1942356 -0.050038148
-0.7153011 -1.1979512 -0.049812485
-0.70407599 -1.2136114 -0.050091028
-0.68949652 -1.2237242 -0.050146099
-0.6691125 -1.2233117 -0.049779978
-0.65453619 -1.2332972 -0.049846973
-0.63728142 -1.238188 -0.049716368
-0.62813085 -1.259124 -0.050235428
-0.60161537 -1.2449733 -0.049364693
-0.58984542 -1.2609009 -0.04969779
-0.57866985 -1.2787186 -0.050108895
-0.55533004 -1.2694597 -0.049468122
-0.54241836 -1.2837267 -0.049753971
-0.52148592 -1.2788656 -0.049307149
-0.50973302 -1.2964985 -0.049735576
-0.49511507 -1.3074269 -0.049911682
-0.47841772 -1.3130194 -0.049891241
-0.46300259 -1.3222384 -0.050016042
-0.44794661 -1.3328112 -0.050198629
-0.43567243 -1.3524486 -0.050727595
-0.41390011 -1.3425531 -0.050156973
-0.39795426 -1.3510238 -0.050282232
-0.38008377 -1.3529803 -0.050172944
-0.35888696 -1.3422091 -0.049601991
-0.34383425 -1.3540082 -0.049874078
-0.32517505 -1.3516487 -0.049632408
-0.31025407 -1.3649791 -0.049974483
-0.29497865 -1.37782 -0.050304629
-0.27588582 -1.3728607 -0.049992763
-0.258214 -1.3742884 -0.049922395
-0.24147497 -1.3807781 -0.050043713
-0.22336093 -1.3793293 -0.049885314
-0.20414868 -1.369773 -0.049442805
-0.18876415 -1.38603 -0.049939852
-0.1706167 -1.3827801 -0.049741402
-0.15329006 -1.3857025 -0.049773145
-0.1363024 -1.3923459 -0.049946163
-0.11962894 -1.4041479 -0.050311491
-0.1007354 -1.3889401 -0.049717199
-0.084107369 -1.4046006 -0.050235875
-0.066074893 -1.3983488 -0.049978562
-0.048524234 -1.4008449 -0.050041966
-0.031194009 -1.4155005 -0.050547466
-0.013232661 -1.4013773 -0.050033208
0.0043553584 -1.3829947 -0.049374934
0.022291979 -1.4160781 -0.050562076
0.039499667 -1.3937837 -0.049779851
0.056979328 -1.3915486 -0.04972171
0.075200289 -1.4038671 -0.050191719
0.09303309 -1.4052616 -0.050279476
0.11053671 -1.4016589 -0.050196398
0.12788543 -1.3969761 -0.050082393
0.14622182 -1.4025152 -0.050342992
0.16248825 -1.3887569 -0.049918629
0.17829812 -1.3737844 -0.049457226
0.19750808 -1.3849392 -0.049944382
0.21612088 -1.3899987 -0.050221004
0.23273136 -1.3819765 -0.050033074
0.25017279 -1.3792626 -0.050044902
0.26460049 -1.360989 -0.049498834
0.28588286 -1.3776288 -0.050230969
0.30264115 -1.3713596 -0.05013736
0.32052168 -1.3701651 -0.050237268
0.33265921 -1.345438 -0.049480308
0.35191694 -1.3501332 -0.049812004
0.37145397 -1.354952 -0.050158378
0.38517043 -1.3386477 -0.04973042
0.40396404 -1.3402241 -0.049973998
0.42228889 -1.3397328 -0.050149981
0.43909016 -1.3342057 -0.050146084
0.45730534 -1.3327994 -0.050305668
0.47720802 -1.3357737 -0.050640725
0.49194816 -1.3241653 -0.05043149
0.50207525 -1.3010055 -0.049786273
0.51864171 -1.2951424 -0.049807884
0.53418005 -1.2867559 -0.049740098
0.55720973 -1.2959062 -0.050361037
0.57330239 -1.2883825 -0.050345216
0.57809287 -1.2563168 -0.049372744
0.60335416 -1.2688934 -0.050161604
0.61733717 -1.2572327 -0.050003976
0.63382757 -1.2507596 -0.050059993
0.6470564 -1.2379551 -0.049869664
0.66060698 -1.2260247 -0.049720228
0.67376965 -1.2136073 -0.049556788
0.6969673 -1.2189673 -0.050130062
0.71002382 -1.2062953 -0.04997265
0.7320534 -1.208647 -0.050447952
0.73860478 -1.1855158 -0.049866725
0.75095725 -1.1721945 -0.049700204
0.7740652 -1.1754137 -0.050245993
0.78288841 -1.1568334 -0.049869195
0.79727685 -1.1467183 -0.049861975
0.81841296 -1.1460559 -0.050277304
0.83402187 -1.1373562 -0.05035238
0.84220797 -1.1187038 -0.049992166
0.85055131 -1.100666 -0.04966078
0.86726904 -1.0935593 -0.049828917
0.88707328 -1.0900531 -0.050174154
0.90089893 -1.079002 -0.050183676
0.91623294 -1.0696973 -0.050283529
0.92194974 -1.0493356 -0.049868155
0.93059796 -1.0326602 -0.049628641
0.95461422 -1.0328574 -0.050211843
0.97116697 -1.0245786 -0.050399888
0.96929622 -0.99715245 -0.049647238
0.99399465 -0.99712723 -0.050265186
0.99900746 -0.97723186 -0.049892448
1.016892 -0.96997374 -0.050171662
1.0255889 -0.95389748 -0.050004154
1.0340629 -0.93777478 -0.049837615
1.0395404 -0.91915572 -0.049539853
1.0705475 -0.92281681 -0.050459739
1.0813545 -0.90865284 -0.050425813
1.0929228 -0.89513969 -0.05043564
1.0938007 -0.87308085 -0.049964845
1.104129 -0.85878968 -0.049938694
1.1242677 -0.85195237 -0.050360344
-1.3091004 -0.53863329 -0.050538067
-1.2718508 -0.56115848 -0.049629971
-1.2853374 -0.58655304 -0.050440464
-1.2661046 -0.5971508 -0.049976833
-1.2587514 -0.6131748 -0.049987394
-1.2502104 -0.62861305 -0.049958602
-1.2409503 -0.64365864 -0.049908489
-1.2403308 -0.663288 -0.050215505
-1.2257532 -0.67547584 -0.049965717
-1.2184926 -0.69161761 -0.050020799
-1.2196387 -0.7127201 -0.050432269
-1.1985689 -0.72080421 -0.049932387
-1.1905178 -0.7365312 -0.049979392
-1.1967757 -0.76140445 -0.050640602
-1.1791017 -0.7711857 -0.050299659
-1.1635455 -0.78210419 -0.050052203
-1.1496029 -0.79392833 -0.049878534
-1.14151 -0.80975533 -0.049965851
-1.1393712 -0.82999927 -0.050325718
-1.1266203 -0.84262669 -0.050227199
-1.1063151 -0.8493703 -0.049794827
-1.091903 -0.86037266 -0.049629845
-1.0920695 -0.88301682 -0.050138831
-1.0894196 -0.90379459 -0.050535671
-1.0607179 -0.90277106 -0.049727656
-1.0531303 -0.91942811 -0.049910754
-1.0453326 -0.93607426 -0.05009586
-1.0261533 -0.9424482 -0.04974151
-1.0219454 -0.96258438 -0.050121114
-0.99524081 -0.96136588 -0.049401201
-0.99563938 -0.98628497 -0.050033495
-0.99438733 -1.0101669 -0.050605785
-0.96099061 -1.001148 -0.049543824
-0.96037179 -1.0260568 -0.05017405
-0.94250852 -1.0327337 -0.049916241
-0.94208014 -1.0587353 -0.050595608
-0.91217983 -1.0514991 -0.049696945
-0.89899373 -1.06305 -0.049703903
-0.89089751 -1.0807878 -0.050004758
-0.87925982 -1.0944606 -0.050121129
-0.8691799 -1.110261 -0.05033949
-0.8479358 -1.111683 -0.049915895
-0.83681083 -1.1262279 -0.05009187
-0.82578599 -1.1411276 -0.050288085
-0.80716562 -1.1454931 -0.050028589
-0.78478444 -1.1440575 -0.049530368
-0.77556878 -1.1617146 -0.04986804
-0.7639035 -1.1760427 -0.050066207
-0.74534148 -1.1797217 -0.04981932
-0.73521256 -1.1968008 -0.050145634
-0.72062731 -1.2068714 -0.050183393
-0.70102113 -1.2083458 -0.049873695
-0.68854511 -1.2220356 -0.050076906
-0.67544246 -1.2348845 -0.050250906
-0.65779036 -1.2394288 -0.050094798
-0.63536441 -1.2344635 -0.049566813
-0.6318441 -1.2665675 -0.050532401
-0.60985887 -1.2620323 -0.050041102
-0.59124923 -1.2639018 -0.049816072
-0.57680708 -1.2746023 -0.04994759
-0.56201822 -1.2847486 -0.050063893
-0.54665816 -1.293761 -0.050142877
-0.52585775 -1.2895868 -0.049720511
-0.51702809 -1.3150533 -0.050447367
-0.49662042 -1.3114021 -0.050063431
-0.47779229 -1.3113029 -0.049826019
-0.4568873 -1.3047745 -0.049355436
-0.45025554 -1.3396811 -0.050457377
-0.43173376 -1.3402219 -0.050268997
-0.40981576 -1.3293049 -0.049662028
-0.3972041 -1.348477 -0.05018745
-0.37551963 -1.3367333 -0.049570452
-0.36570179 -1.367696 -0.050543875
-0.34414288 -1.3552235 -0.049918845
-0.32806888 -1.3636775 -0.050074104
-0.30900812 -1.3594977 -0.049773794
-0.2948055 -1.3770112 -0.050275099
-0.27556992 -1.3712887 -0.04993552
-0.25667691 -1.3661077 -0.049625222
-0.24143811 -1.3805673 -0.050036073
-0.22345062 -1.3798832 -0.049905345
-0.20608985 -1.3827976 -0.049912937
-0.18698306 -1.372952 -0.04946864
-0.17108998 -1.3866159 -0.049879383
-0.15345199 -1.3871664 -0.049825728
-0.13646041 -1.39396 -0.050004061
-0.11770712 -1.3815904 -0.049503244
-0.10131974 -1.396997 -0.050005596
-0.082241356 -1.373438 -0.049121339
-0.066590123 -1.4092528 -0.050368275
-0.048687696 -1.405564 -0.050210539
-0.030764332 -1.3960029 -0.049851205
-0.013209152 -1.3988876 -0.049944319
0.0044233333 -1.4045793 -0.05014554
0.022008991 -1.3981014 -0.049920209
0.039300837 -1.3867679 -0.049529281
0.057602417 -1.4067657 -0.050265435
0.075402237 -1.4076371 -0.050326508
0.092213713 -1.392885 -0.049836647
0.11063547 -1.4029113 -0.050241247
0.12823465 -1.4007909 -0.050219156
0.14723888 -1.4122705 -0.050693162
0.1620886 -1.385341 -0.049795847
0.1819797 -1.402151 -0.050478444
0.19697809 -1.381223 -0.049810365
0.21487953 -1.3820149 -0.049932543
0.23205562 -1.3779639 -0.049887802
0.25032008 -1.3800746 -0.050074365
0.26695299 -1.3730892 -0.049938917
0.28368652 -1.3670449 -0.049845058
0.300989 -1.3638731 -0.049863651
0.3207252 -1.3710351 -0.050269164
0.33655155 -1.3611804 -0.050059259
0.35743693 -1.3713107 -0.050593328
0.37121558 -1.3540823 -0.050126184
0.38724503 -1.3458579 -0.04999828
0.40436324 -1.3415487 -0.050023384
0.41853958 -1.3278378 -0.049704719
0.43375623 -1.3179983 -0.049536925
0.45190293 -1.3170543 -0.049711376
0.47604582 -1.3325205 -0.050517395
0.48970911 -1.3181385 -0.050201956
0.50531226 -1.3093934 -0.050107259
0.51751763 -1.2923355 -0.049699932
0.53761554 -1.2950315 -0.050059997
0.55100566 -1.2814772 -0.049800307
0.56579578 -1.2715129 -0.049686007
0.58467221 -1.2706151 -0.049934663
0.60140133 -1.2647865 -0.049999248
0.61740959 -1.2573801 -0.050009839
0.63532364 -1.2537118 -0.050178152
0.64413112 -1.2323583 -0.049644206
0.66301769 -1.2304989 -0.049901668
0.67096055 -1.2085475 -0.049350176
0.6993345 -1.2231073 -0.050300322
0.71544039 -1.2154977 -0.050353877
0.72801733 -1.2019832 -0.050169814
0.74092579 -1.1892412 -0.050023425
0.75505912 -1.1785972 -0.049971677
0.76968753 -1.1687664 -0.049961831
0.78248054 -1.1562308 -0.049843211
0.80166531 -1.15303 -0.050136428
0.81600428 -1.142683 -0.050129332
0.82598072 -1.1263905 -0.049866915
0.84404075 -1.1211385 -0.05010096
0.85565948 -1.1072763 -0.04995903
0.87080771 -1.0980213 -0.050032232
0.88042551 -1.0818841 -0.049798146
0.89711833 -1.0744741 -0.049973082
0.9196887 -1.0737319 -0.050473183
0.92509365 -1.0529139 -0.050038207
0.93154866 -1.0337152 -0.049679346
0.95322508 -1.0313544 -0.050138772
0.97050118 -1.0238762 -0.050365336
0.98059154 -1.0087724 -0.050225783
0.99090707 -0.99402994 -0.050109051
1.0054977 -0.98358059 -0.050216582
1.0146307 -0.96781683 -0.050060093
1.0200801 -0.9487738 -0.049735561
1.028658 -0.93287325 -0.049577124
1.0533606 -0.93137544 -0.050198462
1.0571587 -0.91127563 -0.049828667
1.0683777 -0.89774865 -0.04982068
1.0865611 -0.88992929 -0.050142068
1.0918951 -0.87155992 -0.049877804
1.1037233 -0.8584742 -0.04992035
1.1175858 -0.8468889 -0.050061036
1.1474116 -0.8248449 -0.050450388
-1.151534 -3.0556989e-06 -0.10748458
-1.1257919 -2.98739e-06 -0.078703471
-1.1455352 -0.014427859 -0.10693314
-1.1192902 -0.014097307 -0.078255147
-1.9686475 -0.17397417 -0.092006885
-1.3313671 -0.16853487 -0.09381789
1.1374172 -0.0071610133 -0.10616902
1.1290716 0.0071084709 -0.10539002
1.4459321 0.26696751 -0.13724495
1.3672332 0.27028191 -0.13008773
1.2704487 0.26781347 -0.12119027
14.531559 3.0632858 -0.3452906
1.21163 0.27139184 -0.11589626
14.493293 3.2463388 -0.34532529
1.2133505 0.28786793 -0.11639834
14.453531 3.4291065 -0.34537935
1.1963433 0.29979321 -0.11511984
14.402601 3.6091664 -0.34522098
1.2031971 0.317664 -0.11615506
14.359744 3.7912109 -0.34531063
1.193007 0.33109701 -0.11556466
1.2009999 0.34966046 -0.14619271
1.2148242 0.35368532 -0.11810011
1.2068872 0.36792073 -0.14746162
1.207467 0.36809748 -0.11782614
1.2084745 0.38510031 -0.14823632
1.1973057 0.38154113 -0.11729411
1.2086174 0.40197805 -0.14886294
1.1999 0.39907867 -0.1180312
1.2058384 0.41798848 -0.14915711
1.2157139 0.42141166 -0.12009924
1.2018766 0.43364227 -0.14933066
1.2023795 0.4338237 -0.11931216
1.2038438 0.4515627 -0.15026966
1.2193148 0.45736587 -0.12155451
1.204565 0.46921763 -0.15108523
1.2146738 0.47315532 -0.12167615
1.2054712 0.48713958 -0.15195623
1.2077209 0.48804873 -0.12158565
1.1998439 0.50253147 -0.15203251
1.2045318 0.50449491 -0.12189448
1.2045226 0.52241385 -0.15344672
1.2087257 0.5242368 -0.12297717
1.2086236 0.5423739 -0.15482694
1.2041949 0.54038644 -0.12319875
1.2172729 0.56477481 -0.15683351
1.2032406 0.55826432 -0.12381051
6.2939305 3.9488153 -0.34590673
6.2408619 4.0259123 -0.34574887
1.1211066 0.74336946 -0.15721428
1.1390587 0.75527287 -0.12756903
1.1222454 0.76464039 -0.15871161
6.0801358 4.2557678 -0.34550834
6.0286231 4.3338232 -0.34565482
5.9699273 4.406693 -0.34544361
5.9152641 4.4824944 -0.3455193
5.8626714 4.5599761 -0.34577385
5.7988081 4.6286573 -0.34541747
5.7364278 4.6983232 -0.34519842
0.88792711 0.74611747 -0.16299027
0.88691646 0.74526829 -0.13539386
0.88215333 0.7604202 -0.16367513
0.87578893 0.75493407 -0.13513565
1.0995477 1.3864449 -0.16516849
1.0938735 1.41554 -0.16698043
1.093454 1.4524336 -0.16969483
1.0962396 1.4949425 -0.17303483
1.0650179 1.4913865 -0.1710574
1.0463631 1.5049773 -0.17109141
0.88884377 1.3133982 -0.18534862
1.0206602 1.5081764 -0.16998051
0.89047498 1.3521814 -0.18922435
0.98537344 1.4962842 -0.16722848
0.88070899 1.3747283 -0.1908125
0.89510393 1.4367087 -0.15800022
0.89235014 1.4733028 -0.16077612
0.89330977 1.517689 -0.16437927
0.8974359 1.5695786 -0.16876203
0.90386784 1.6280648 -0.17381294
1.72156 3.8688617 -0.29603866
1.5758157 3.9350979 -0.29633838
1.5235327 3.9478633 -0.29583153
1.4748178 3.9697323 -0.2960552
1.4230484 3.9833164 -0.29570842
1.3708768 3.9953694 -0.29529828
1.5389798 4.6762962 -0.34416607
0.75225842 2.3865776 -0.23356815
0.7181626 2.3826351 -0.23227885
0.68468428 2.3795986 -0.231124
0.65314311 2.3824687 -0.23058566
0.62314624 2.3907075 -0.2306053
0.59197235 2.3942282 -0.23020764
0.55551451 2.3747118 -0.22764048
0.55104995 2.4969757 -0.23867662
0.82141304 4.8776131 -0.34579262
0.24927001 1.6032 -0.1896226
0.70017731 4.909688 -0.34670624
0.63557529 4.8970985 -0.34522468
0.24482778 2.0924973 -0.19664676
0.51162088 4.9073119 -0.3449268
0.45040756 4.9200964 -0.34539938
0.38864046 4.9281492 -0.34559375
0.32726064 4.9432607 -0.34633702
0.26477998 4.9430113 -0.34605852
0.20174758 4.9270778 -0.34473783
0.13987149 4.9355001 -0.34517652
0.077635713 4.9317389 -0.34481776
0.01552754 4.930594 -0.3446967
-0.046686433 4.9442291 -0.34566364
-0.10872577 4.9336843 -0.34499478
-0.17133173 4.9461718 -0.34599143
-0.41985556 4.9280658 -0.34576634
-0.48144874 4.9180589 -0.3454622
-0.543405 4.912241 -0.34550679
-0.60475951 4.9013338 -0.34524789
-0.23744236 1.593163 -0.18825482
-0.42013115 2.5944521 -0.24532165
-0.41938937 2.3981104 -0.22723766
-0.42848453 2.2805166 -0.21658893
-0.45929119 2.285521 -0.21759623
-0.48895696 2.2838759 -0.21800852
-0.52119005 2.2930033 -0.21948884
-0.54848856 2.2798915 -0.21887754
-0.58205646 2.2921195 -0.22073761
-0.39327967 1.4708351 -0.17794031
-0.39430833 1.4036152 -0.1703953
-0.39493135 1.3407612 -0.16335574
-0.39160693 1.2702416 -0.15535226
-0.38874424 1.2067704 -0.17817539
-0.39569473 1.2283466 -0.15082589
-0.39148906 1.1648285 -0.17269699
-0.39652482 1.1798118 -0.14546797
-0.3914676 1.1179496 -0.16646437
-0.39233279 1.1204203 -0.13874327
-0.40755042 1.1185238 -0.16730076
-0.40716329 1.1174613 -0.13900073
-0.41976297 1.1084481 -0.16657113
-0.41515025 1.0962677 -0.13700385
-0.43008533 1.0939157 -0.16518801
-0.43318132 1.1017903 -0.13836476
-0.44382089 1.0884037 -0.16518651
-0.44465771 1.0904559 -0.13763362
-0.45800835 1.0839559 -0.16537367
-0.46020535 1.0891556 -0.13818996
-0.46635374 1.0660639 -0.16352692
-0.47143093 1.0776701 -0.137475
-0.48083836 1.0625349 -0.16390137
-0.48454881 1.0707341 -0.13735767
-0.50376368 1.0768856 -0.16708033
-0.49298349 1.053841 -0.13597614
-0.51222599 1.0599923 -0.16544691
-0.51196438 1.059451 -0.13752089
-0.52576756 1.053931 -0.16552109
-0.52441573 1.0512213 -0.13729893
-0.53937846 1.0479703 -0.16563851
-0.54230499 1.0536562 -0.13849789
-0.55216718 1.0404104 -0.16552946
-0.55389547 1.0436668 -0.13809069
-0.56121129 1.0260402 -0.16435447
-0.56197894 1.0274436 -0.13686961
-0.57513225 1.0207496 -0.16465403
-0.57587385 1.0220658 -0.13710834
-0.59470975 1.0250975 -0.16655016
-0.59197336 1.0203809 -0.13787135
-0.60907322 1.020046 -0.16696228
-0.60514647 1.0134696 -0.1379562
-0.61875999 1.0072359 -0.16612767
-0.61379725 0.99915743 -0.13704921
-0.63733345 1.0087672 -0.16769062
-0.64040422 1.0136276 -0.14012903
-0.64056289 0.98615772 -0.16525991
-0.64160335 0.98775953 -0.13765888
-0.66004854 0.98867828 -0.1670619
-0.66089684 0.98994893 -0.13911279
-0.66462994 0.96889645 -0.16512035
-0.6658892 0.97073227 -0.13757977
-0.68078834 0.96614414 -0.13813353
-0.69935769 0.96642029 -0.13942106
-0.71440715 0.96148998 -0.13999648
-4.4176388 5.9455113 -0.34483343
-0.72855479 0.95516902 -0.14040078
-4.5044718 5.905571 -0.3457793
-0.73429096 0.93795836 -0.13921906
-4.5681024 5.8351388 -0.34499606
-0.75078648 0.93454307 -0.14010429
-4.6427617 5.779088 -0.34511131
-0.76885045 0.93272704 -0.14127226
-4.7197018 5.7256823 -0.34544376
-0.78515947 0.9284423 -0.1421095
-4.7988648 5.6746039 -0.34598044
-0.787916 0.90825623 -0.14052726
-4.8572335 5.5990896 -0.34507808
-0.7986846 0.89758348 -0.14042088
-4.9347405 5.5457959 -0.34559587
-0.82101309 0.89960772 -0.14234366
-5.0006523 5.4793591 -0.34535238
-0.83343518 0.89043826 -0.14254205
-5.0630989 5.4093909 -0.34493348
-0.85657269 0.89236665 -0.14456594
-5.1328092 5.3472958 -0.34506798
-0.87192822 0.88576454 -0.14526358
-5.2001967 5.2827168 -0.34509888
-0.88863319 0.88028413 -0.14618832
-5.2636719 5.2142177 -0.34492666
-0.897089 0.86655486 -0.14577273
-0.91515917 0.862001 -0.14693359
-0.93053412 0.85462886 -0.14766257
-0.94384211 0.8451916 -0.14807376
-0.95922977 0.83744895 -0.14882165
-0.95749092 0.83593088 -0.11864028
-0.97863364 0.83290958 -0.15019298
-0.97528088 0.83005607 -0.11954001
-0.99445426 0.8250103 -0.15101466
-0.98667687 0.8185581 -0.11966394
-1.0042336 0.81199515 -0.15093504
-1.0116525 0.81799394 -0.12143413
-1.0215421 0.80493134 -0.15200104
-1.0231967 0.80623513 -0.12159158
-1.0480303 0.80462223 -0.15442251
-1.0379487 0.79688227 -0.1221425
-1.049991 0.78531384 -0.1532422
-1.0662912 0.79750508 -0.12428614
-1.072513 0.781295 -0.15508106
-1.0825516 0.78860784 -0.12501407
-1.0857507 0.77020115 -0.12425365
-1.0996675 0.75944239 -0.12474201
-1.1197906 0.75269324 -0.12593953
-1.1348861 0.74226671 -0.12657605
-1.1588397 0.73726904 -0.12820204
-1.1713897 0.72469735 -0.12857069
-1.1959326 0.71921879 -0.13026014
-1.4101928 0.60109985 -0.10716832
-1.3915148 0.57254291 -0.10519264
-1.4024687 0.5565064 -0.10548259
-1.3981812 0.53452808 -0.10464559
-1.3842529 0.50932062 -0.13767506
-1.3973601 0.51414323 -0.10409132
-1.3939115 0.49303764 -0.13800727
-1.4014868 0.49571705 -0.1039255
-1.4004138 0.47558498 -0.13804717
-1.3915207 0.47256491 -0.10273708
-1.3878577 0.45191216 -0.1020384
-1.3974551 0.43565392 -0.13663046
-1.3943654 0.43469071 -0.10210633
-1.3925029 0.41494647 -0.13562466
-1.3857099 0.41292226 -0.10108373
-1.3810892 0.39268094 -0.10037801
-1.3852063 0.37506589 -0.1339514
-1.3835006 0.37460405 -0.10020248
-1.3790461 0.3548229 -0.099548355
-1.3960824 0.34052324 -0.10046066
-1.5994798 0.36886069 -0.11475359
-1.608992 0.34977785 -0.11511092
-1.6198604 0.33083725 -0.11558126
-1.5982387 0.30551022 -0.11375498
-1.1376835 0.014328967 -0.10620019
-1.1315639 0.014251892 -0.079113267
-1.1304362 2.9997138e-06 -0.1055153
-1.1403042 3.0258996e-06 -0.079718016
