# .PCD v0.7 - Point Cloud Data file format
VERSION 0.7
FIELDS x y z
SIZE 4 4 4
TYPE F F F
COUNT 1 1 1
WIDTH 1249
HEIGHT 1
VIEWPOINT 0 0 0 1 0 0 0
POINTS 1249
DATA ascii
-2.4486401 -0.061683852 -0.34422797
-2.9551368 -0.07444305 -0.34548616
-3.7066987 -0.09337569 -0.34609428
-4.9427562 -0.12451329 -0.34565488
-7.4062095 -0.18657032 -0.3449029
-14.851393 -0.37412241 -0.34541106
-2.9541328 -0.11165223 -0.34550574
-3.703861 -0.13998841 -0.34596649
-4.9353032 -0.18653108 -0.34527054
-7.4141884 -0.28022119 -0.34541142
-14.846623 -0.56113207 -0.34543708
-2.9636478 -0.14940183 -0.34681115
-3.6962187 -0.18633179 -0.34544441
-4.9337282 -0.24871647 -0.34535211
-7.4159265 -0.37384769 -0.34568429
-14.845897 -0.74840337 -0.34561205
-2.9457176 -0.18570891 -0.34495923
-3.7150121 -0.23420808 -0.34744892
-4.9388003 -0.31136021 -0.34595415
-7.4151387 -0.46747774 -0.34589455
-14.82303 -0.93449855 -0.34532627
-2.9529343 -0.2235253 -0.34610653
-3.7029817 -0.28030089 -0.3466264
-4.9260736 -0.37288404 -0.34536421
-7.3828325 -0.55885082 -0.3446885
-14.804496 -1.120641 -0.34519586
-2.938484 -0.29701352 -0.34518021
-3.7023649 -0.37422439 -0.34734085
-4.9107451 -0.496364 -0.34505665
-7.3970509 -0.74767262 -0.34612182
-14.767682 -1.4926748 -0.34510469
-2.9401736 -0.3346335 -0.34584627
-3.6719179 -0.41791636 -0.3449508
-4.9170241 -0.55962712 -0.34596556
-7.3736525 -0.83922631 -0.34549403
-14.763384 -1.6802827 -0.34547132
-2.4280884 -0.33848098 -0.34453022
-2.9259915 -0.40788978 -0.34527707
-3.6555486 -0.5095917 -0.34450957
-4.881568 -0.68050152 -0.3445676
-7.3617282 -1.0262414 -0.34603676
-14.720423 -2.0520599 -0.34556594
-2.4406993 -0.3716251 -0.3469561
-2.9103684 -0.44313774 -0.34406468
-3.6609809 -0.55742729 -0.34565565
-4.886385 -0.74400938 -0.34554151
-7.3381042 -1.1173124 -0.34556025
-14.684119 -2.2358294 -0.34534723
-2.4092922 -0.3979443 -0.34317657
-2.9171329 -0.48182464 -0.34555423
-3.6561716 -0.60389215 -0.3458921
-4.8789415 -0.80585778 -0.34570533
-7.316401 -1.2084545 -0.34522742
-14.668101 -2.4227393 -0.3456606
-2.4209917 -0.4312593 -0.34558916
-2.9293318 -0.5218116 -0.34775007
-3.6497047 -0.65013403 -0.34602737
-4.8601737 -0.8657589 -0.34512061
-7.300827 -1.3005205 -0.34523791
-14.616292 -2.6036487 -0.34518495
-2.4011698 -0.45899397 -0.34355745
-2.9116518 -0.55657482 -0.34645578
-3.6301494 -0.6939187 -0.34497446
-4.8363557 -0.92449021 -0.34422866
-7.2959204 -1.3946466 -0.34580895
-14.593705 -2.7896497 -0.34545374
-2.4155111 -0.49333948 -0.34647077
-2.8855255 -0.58933431 -0.34420273
-3.6228118 -0.73991627 -0.34513518
-4.8440504 -0.98933983 -0.34563562
-7.2574368 -1.4822453 -0.34484226
-14.559475 -2.9735999 -0.34550244
-2.416878 -0.52540368 -0.34758821
-2.8832746 -0.62679338 -0.34484839
-3.6187515 -0.78667831 -0.34566471
-4.8268447 -1.049305 -0.34532335
-7.253758 -1.5768902 -0.34558353
-14.522786 -3.1571 -0.3455478
-2.3848252 -0.54997152 -0.34394723
-2.8755341 -0.66313529 -0.34489399
-3.5981486 -0.82977957 -0.34466746
-4.8116651 -1.1096321 -0.34520966
-7.2243524 -1.6660289 -0.3451547
-14.483632 -3.3401124 -0.34558952
-2.3844771 -0.58160603 -0.34492594
-2.8685331 -0.69967377 -0.34508365
-3.5950873 -0.87689006 -0.34540454
-4.7988157 -1.1704955 -0.34531784
-7.2167683 -1.7602668 -0.34582394
-14.431878 -3.5201287 -0.3453849
-2.3774502 -0.61170816 -0.34499633
-2.8730743 -0.73923022 -0.34672228
-3.5840344 -0.92215741 -0.34543088
-4.7786231 -1.2295201 -0.34495157
-7.1857934 -1.8488752 -0.3454279
-14.395186 -3.7038224 -0.34559557
-2.3783774 -0.64398223 -0.34628016
-2.8426507 -0.76969135 -0.34419313
-3.5628235 -0.9646892 -0.34453002
-4.7714067 -1.2919316 -0.34557757
-7.1592751 -1.9384837 -0.34529915
-14.341383 -3.8831499 -0.3454504
-2.3725247 -0.67457283 -0.34663728
-2.8500454 -0.81034487 -0.34629655
-3.5578902 -1.0116043 -0.3452574
-4.7592735 -1.3531899 -0.34590551
-7.1240287 -2.0255537 -0.34480205
-14.297289 -4.0651054 -0.3455939
-2.3599577 -0.70323461 -0.34606758
-2.838881 -0.84594703 -0.3462069
-3.5539339 -1.0590228 -0.34614012
-4.7461648 -1.4142911 -0.34621972
-7.1092615 -2.1184609 -0.34535107
-14.264904 -4.2507429 -0.3460775
-2.3587866 -0.73534715 -0.34722614
-2.8320932 -0.88289958 -0.34670743
-3.5413599 -1.1040121 -0.34624201
-4.7222452 -1.4721508 -0.34579968
-7.103323 -2.2144473 -0.34638968
-14.200889 -4.4270997 -0.34584945
-2.8010566 -0.91207588 -0.34428662
-3.508112 -1.1423062 -0.34437037
-4.6919479 -1.5277852 -0.34496248
-7.0441012 -2.29369 -0.34488291
-14.127952 -4.6003227 -0.34545657
-2.802247 -0.95165205 -0.34587845
-3.4964199 -1.1873953 -0.34466305
-4.6748857 -1.5876062 -0.3451505
-7.0132108 -2.3817086 -0.3448115
-14.070006 -4.7782192 -0.34548351
-2.7721553 -0.98053342 -0.34366098
-3.4719079 -1.2280415 -0.34374386
-4.6550083 -1.6465136 -0.34518632
-6.9838352 -2.4702382 -0.34486923
-14.009353 -4.9552197 -0.34549895
-2.7797198 -1.0227673 -0.34616789
-3.4708867 -1.2770745 -0.34520754
-4.6418605 -1.7079214 -0.34577873
-6.9608727 -2.5611763 -0.34530053
-13.954453 -5.134387 -0.34571207
-2.7426064 -1.0485052 -0.34316307
-3.4529667 -1.3200777 -0.34505114
-4.6217313 -1.7668992 -0.34590924
-6.9246078 -2.6472945 -0.34512782
-13.876193 -5.304903 -0.34540081
-2.7321007 -1.084111 -0.34352943
-3.4505644 -1.3692008 -0.34650651
-4.5923729 -1.822276 -0.34540194
-6.8983579 -2.7373023 -0.34551007
-13.825036 -5.4858418 -0.34581947
-2.7259018 -1.1215805 -0.34449849
-3.4216609 -1.4078525 -0.34535688
-4.5696239 -1.8801854 -0.34544426
-6.8582258 -2.8218374 -0.34525236
-13.748714 -5.6569495 -0.3456648
-2.7080655 -1.1543229 -0.34405404
-3.3988781 -1.4487842 -0.3448714
-4.539392 -1.9349325 -0.34497342
-6.8221669 -2.9079738 -0.34525314
-13.677505 -5.8300867 -0.34569281
-2.6997092 -1.1911497 -0.34487069
-3.3894904 -1.4954909 -0.34580222
-4.5076165 -1.9888239 -0.34443453
-6.7849245 -2.9936042 -0.34524873
-13.59687 -5.9991307 -0.34553671
-2.6927013 -1.2287918 -0.34592465
-3.37711 -1.541116 -0.34649152
-4.4991903 -2.0531681 -0.3457388
-6.7474623 -3.0791481 -0.34528807
-13.51871 -6.1691504 -0.34549719
-2.6776268 -1.2628869 -0.34600359
-3.3487401 -1.5794134 -0.3455939
-4.4706764 -2.108568 -0.34556058
-6.7028966 -3.1613815 -0.34501728
-13.450629 -6.3439097 -0.34577143
-2.6663704 -1.2988675 -0.34663504
-3.34342 -1.6286782 -0.34713387
-4.4515343 -2.168473 -0.34616417
-6.6811953 -3.2546065 -0.34598231
-13.34409 -6.500298 -0.34510946
-2.6360748 -1.3254337 -0.34483892
-3.3016567 -1.6600922 -0.34494081
-4.4169664 -2.2208765 -0.34562337
-6.6363592 -3.3368001 -0.34580895
-13.28056 -6.6775432 -0.34561369
-2.6301324 -1.3642024 -0.34628132
-3.2883537 -1.70561 -0.34576741
-4.3790903 -2.2713556 -0.3448703
-6.5799413 -3.4128973 -0.34508118
-13.202018 -6.8476496 -0.34578627
-2.6049621 -1.3930478 -0.34524956
-3.2776914 -1.7528012 -0.34693956
-4.3620911 -2.3327024 -0.34581742
-6.5442548 -3.4996517 -0.34549335
-13.106215 -7.0087709 -0.34556118
-2.5774622 -1.4203622 -0.34394804
-3.2274964 -1.7785766 -0.34396982
-4.3291764 -2.3856795 -0.34556222
-6.5078077 -3.5862579 -0.34592584
-13.015505 -7.1724548 -0.34552345
-2.5787749 -1.4637151 -0.34655529
-3.212564 -1.8234543 -0.34479818
-4.2901287 -2.4350812 -0.34486559
-6.457705 -3.6653996 -0.34568864
-12.92529 -7.3364072 -0.34555358
-2.5551937 -1.4931781 -0.34588566
-3.2099578 -1.8758025 -0.34702608
-4.2507343 -2.4840012 -0.34418595
-6.4005098 -3.7402651 -0.34512076
-12.831936 -7.4985962 -0.34555477
-2.5300243 -1.5215247 -0.34504476
-3.1645741 -1.9031349 -0.34468317
-4.2326016 -2.5454333 -0.34528568
-6.3633089 -3.8268137 -0.34568581
-12.738788 -7.6609464 -0.34561679
-2.5089021 -1.5521688 -0.34480235
-3.1455531 -1.9460423 -0.34525311
-4.1871138 -2.5904193 -0.3442086
-6.3178167 -3.9086096 -0.34586078
-12.627778 -7.8123593 -0.34524661
-2.4847915 -1.580857 -0.3441973
-3.1327753 -1.9931129 -0.34657788
-4.1732492 -2.655076 -0.34578985
-6.2630429 -3.9846301 -0.34558165
-12.540922 -7.9786992 -0.3455914
-2.4722166 -1.6169412 -0.34524846
-3.1046131 -2.0305569 -0.34626353
-4.12572 -2.6984069 -0.34463975
-6.2008615 -4.0556431 -0.34494114
-12.439347 -8.1358948 -0.34558809
-2.4443357 -1.6430171 -0.34421682
-3.0707457 -2.0640731 -0.34535772
-4.1042156 -2.758744 -0.34571788
-6.1499329 -4.1338201 -0.3449764
-12.329709 -8.2877007 -0.3454141
-2.4307702 -1.6787164 -0.34525594
-3.0494125 -2.1059575 -0.3459135
-4.0750012 -2.8142402 -0.34621465
-6.0937958 -4.2084417 -0.34477276
-12.21865 -8.4383326 -0.34525219
-2.4173467 -1.7147982 -0.34638885
-3.0295801 -2.1490993 -0.34670609
-4.0308394 -2.859365 -0.34549433
-6.0573931 -4.2969451 -0.34574705
-12.123672 -8.600194 -0.34560108
-2.393903 -1.7438898 -0.34614873
-2.9856055 -2.1749282 -0.34478047
-3.9919415 -2.908015 -0.34527153
-5.9953976 -4.3674755 -0.34532017
-2.3732841 -1.7750368 -0.3463718
-2.9617758 -2.2151842 -0.34522247
-3.9599414 -2.9617364 -0.34570208
-5.9389324 -4.4418721 -0.34526217
-2.3488257 -1.8033044 -0.34608886
-2.9494176 -2.2644069 -0.34707803
-3.918117 -3.0081234 -0.34533027
-5.8754687 -4.5108747 -0.34484753
-2.8976102 -2.2831926 -0.34433749
-3.8801174 -3.0573659 -0.3453469
-5.8293033 -4.5932407 -0.34550527
-2.8696725 -2.3203371 -0.34446234
-3.8359697 -3.1016579 -0.34486642
-5.782012 -4.6751733 -0.34616417
-2.8464196 -2.3614213 -0.34521312
-3.8088472 -3.1598618 -0.34597784
-5.7171011 -4.7429705 -0.34582624
-2.8173385 -2.3978209 -0.34532067
-3.7554739 -3.1962626 -0.34475824
-5.6571927 -4.8148046 -0.34584239
-2.7952638 -2.4403858 -0.3463541
-3.729008 -3.2555847 -0.3460646
-5.5955782 -4.885181 -0.34580892
-2.76087 -2.4723034 -0.34592247
-3.6875889 -3.3021615 -0.34605226
-5.5311694 -4.9530506 -0.3456555
-2.7288401 -2.5062442 -0.3458361
-3.6325176 -3.3362069 -0.34479922
-5.4680681 -5.0220289 -0.3456367
-2.6975374 -2.5408478 -0.34589639
-3.6087472 -3.3991287 -0.3465783
-5.3974919 -5.083972 -0.34519482
-2.6572299 -2.5667861 -0.34484503
-3.5536592 -3.4327035 -0.34541163
-5.3476639 -5.1656461 -0.34614068
-2.6350656 -2.6103079 -0.34620684
-3.5214119 -3.4883268 -0.34651929
-5.2774978 -5.2279134 -0.34583268
-2.5972633 -2.6384785 -0.34557799
-3.4642327 -3.5192053 -0.34522599
-5.197825 -5.2803078 -0.3449415
-2.5610614 -2.6680815 -0.34520403
-3.4232867 -3.5663369 -0.34559342
-5.1384215 -5.3531432 -0.34544531
-2.5312538 -2.7043796 -0.34574899
-3.3764317 -3.6073639 -0.34542167
-5.0642419 -5.4106126 -0.34501135
-2.5045536 -2.7443116 -0.34679466
-3.3296282 -3.6483698 -0.34530607
-4.9974866 -5.4758902 -0.34513375
-2.4580364 -2.7624083 -0.34514278
-3.278934 -3.6849554 -0.34483355
-4.9355183 -5.54667 -0.34565032
-2.4235826 -2.7937417 -0.34521726
-3.2377048 -3.7322066 -0.3454127
-4.8620911 -5.6046896 -0.34542322
-2.3877187 -2.8234508 -0.3451457
-3.1867752 -3.768326 -0.3450143
-4.7950306 -5.6700702 -0.34570399
-2.3652301 -2.8693669 -0.3470903
-3.1460853 -3.8166575 -0.34578484
-4.726614 -5.7340674 -0.34594968
-3.0873425 -3.8429763 -0.34461981
-4.651628 -5.7901244 -0.34577036
-3.050036 -3.8960125 -0.34590429
-4.5718899 -5.8399773 -0.34528211
-2.9951208 -3.9267418 -0.34525669
-4.5045834 -5.9057174 -0.34578788
-2.9485469 -3.968323 -0.34562075
-4.4238496 -5.9538698 -0.34531823
-2.8934159 -3.9983201 -0.34503275
-4.3465199 -6.0063186 -0.3451584
-2.8457136 -4.0385089 -0.34538117
-4.2789111 -6.0724382 -0.34583431
-2.7908874 -4.0685515 -0.3449176
-4.1971312 -6.1185718 -0.34542432
-2.7475064 -4.1154547 -0.34593344
-4.1271367 -6.1819854 -0.34604296
-2.6950276 -4.1490421 -0.34587666
-4.0398517 -6.2194219 -0.3452636
-2.6318612 -4.1656928 -0.3444747
-3.9660316 -6.2774091 -0.34568289
-2.5857661 -4.209187 -0.34535146
-3.884608 -6.3234806 -0.34549886
-2.5401733 -4.254158 -0.34638932
-3.8010824 -6.3658667 -0.34517217
-2.4839497 -4.281569 -0.34604701
-3.7295847 -6.4286623 -0.3460032
-2.4244459 -4.302927 -0.34527841
-2.3683288 -4.3299208 -0.34502408
-4.9104018 -14.02308 -0.34545407
-1.5760046 -4.6892118 -0.34583977
-4.7330861 -14.082728 -0.34542787
-1.5189477 -4.7152371 -0.34632105
-4.5564842 -14.144596 -0.34551066
-1.4577733 -4.728528 -0.34592158
-4.3774781 -14.199072 -0.34546748
-1.39174 -4.7248487 -0.34434304
-4.2002869 -14.259646 -0.34562704
-1.3341017 -4.7489877 -0.34485063
-4.0180159 -14.302889 -0.34542143
-1.2770053 -4.7758994 -0.34560975
-3.8375564 -14.35216 -0.3454169
-1.2211652 -4.8089094 -0.34685823
-3.6560905 -14.397567 -0.34537435
-1.1550392 -4.8011284 -0.3452206
-3.4762537 -14.449675 -0.34554687
-1.0972959 -4.827611 -0.34610385
-3.296458 -14.502941 -0.34580061
-1.0360694 -4.8393912 -0.34598562
-3.1109924 -14.531178 -0.34551245
-0.97350538 -4.8443494 -0.3454363
-2.9295864 -14.578184 -0.34572554
-0.91374648 -4.8632188 -0.34593394
-2.7453229 -14.611391 -0.34566584
-0.85077769 -4.8648324 -0.34525928
-2.5596898 -14.636562 -0.34547141
-0.79108703 -4.8852301 -0.34597251
-2.3760026 -14.672621 -0.34558892
-0.72773099 -4.8828444 -0.34512722
-2.192188 -14.708888 -0.34576553
-0.66690844 -4.8968787 -0.3454982
-2.0054255 -14.725146 -0.34552673
-0.60425144 -4.8972163 -0.34495786
-1.8196917 -14.747873 -0.34549493
-0.54279166 -4.9066963 -0.34511682
-1.6350775 -14.780677 -0.34575367
-0.48133352 -4.9168816 -0.34537953
-1.4485155 -14.796765 -0.34567595
-0.41924831 -4.920938 -0.34526625
-1.2607458 -14.798037 -0.34530738
-0.35632479 -4.9130077 -0.34436771
-1.0746782 -14.817667 -0.3454223
-0.8876279 -14.823465 -0.34526953
-0.70191497 -14.85469 -0.3457635
-0.51436049 -14.849061 -0.34545437
-0.32745147 -14.858871 -0.34555924
-0.14033031 -14.861389 -0.34554935
0.04680014 -14.860853 -0.34552318
0.2341309 -14.872955 -0.3458457
0.4209491 -14.853594 -0.34549135
0.60733718 -14.832383 -0.3451485
0.79476315 -14.836936 -0.34545994
0.98157406 -14.826642 -0.34548068
1.1692431 -14.826568 -0.34579459
1.3559026 -14.811409 -0.34581184
1.5413929 -14.784573 -0.34561104
1.7280629 -14.769432 -0.34573838
1.9153957 -14.758098 -0.34601021
2.0983589 -14.713825 -0.34556434
2.2840796 -14.69024 -0.34565851
2.4680104 -14.655233 -0.34553868
2.6526704 -14.624807 -0.34558147
2.8355322 -14.584734 -0.34545088
3.0182533 -14.544533 -0.34537151
3.2039223 -14.517951 -0.34567091
3.3876965 -14.481715 -0.34579641
3.5679948 -14.430731 -0.34562442
3.7468932 -14.374997 -0.3453922
3.9293325 -14.333018 -0.34554502
4.1080923 -14.277546 -0.34542742
4.2841172 -14.213339 -0.34515181
1.4863175 -4.7154169 -0.34564042
4.4703107 -14.182285 -0.34573725
1.5480359 -4.703814 -0.34619132
4.6459861 -14.117148 -0.34554815
4.8280725 -14.071237 -0.34588507
4.9992876 -13.993723 -0.34549972
5.1776562 -13.936575 -0.34567109
5.3519273 -13.868214 -0.34561965
5.5254803 -13.798127 -0.34557956
5.6962209 -13.721303 -0.34542456
5.8739071 -13.660981 -0.34574062
6.0447941 -13.584465 -0.34570312
6.2133985 -13.503016 -0.34559405
6.3832598 -13.424415 -0.34561217
6.5476847 -13.33463 -0.34539595
6.7219582 -13.264732 -0.34575051
6.885529 -13.173467 -0.34560421
2.3418486 -4.346252 -0.34514421
7.0498409 -13.083846 -0.34555456
2.3944688 -4.3129649 -0.34486786
7.217339 -13.000014 -0.34571338
2.4544089 -4.2926607 -0.34568822
7.3745456 -12.897778 -0.34543669
2.5076947 -4.2604489 -0.34560975
7.543982 -12.816851 -0.34578606
2.5559337 -4.2199402 -0.34490716
7.6954656 -12.705495 -0.34536877
2.6058984 -4.1826615 -0.34451494
7.8678393 -12.628469 -0.34594065
2.6669824 -4.1629829 -0.34563282
8.0119734 -12.506159 -0.34532645
2.7226357 -4.1343074 -0.34607103
8.1825256 -12.425121 -0.34590644
2.7724066 -4.0966406 -0.34581292
8.3330469 -12.31331 -0.34568751
2.8168514 -4.0514593 -0.34496585
8.4838638 -12.202287 -0.34554243
2.8700957 -4.0191083 -0.34526113
8.6339808 -12.090504 -0.34542832
2.9258704 -3.9900115 -0.34589916
8.7905416 -11.987667 -0.34562534
2.9695985 -3.9445143 -0.34516934
8.9365139 -11.87036 -0.34546027
3.0187392 -3.9064353 -0.34513614
9.0798855 -11.749933 -0.34525564
3.0784483 -3.8816857 -0.34634691
9.2320242 -11.640869 -0.34543943
3.1199176 -3.8338163 -0.3455537
9.3834648 -11.530586 -0.34564573
2.3660305 -2.8337824 -0.34458169
3.168139 -3.7944636 -0.34557509
9.5295429 -11.413485 -0.34570515
2.4066954 -2.8098044 -0.34532374
3.2228527 -3.7626643 -0.34634757
9.6709461 -11.29078 -0.34564972
2.4427855 -2.7803054 -0.34545133
3.2572663 -3.7073228 -0.34500161
9.8115044 -11.167161 -0.34562016
2.4785523 -2.750385 -0.34558421
3.3007205 -3.6627235 -0.34469175
9.9581575 -11.050307 -0.34585708
2.5137994 -2.7198384 -0.345696
3.3501272 -3.6247144 -0.34505743
10.082338 -10.908719 -0.34537181
2.5415046 -2.6812809 -0.34483555
3.4041817 -3.5914028 -0.34593958
10.225257 -10.78762 -0.34558693
2.5693412 -2.6431806 -0.34406924
3.436841 -3.5356112 -0.3447068
10.363677 -10.661515 -0.34570035
2.6172345 -2.6254826 -0.34602809
3.4867721 -3.4977605 -0.34526983
10.48903 -10.522086 -0.3454347
2.6419401 -2.5843532 -0.34496459
3.5289831 -3.4520609 -0.3451179
10.637636 -10.405765 -0.34598604
2.6736538 -2.5502946 -0.34488502
3.5821443 -3.4168682 -0.34608164
10.745306 -10.24953 -0.34526283
2.720927 -2.5307271 -0.34684476
3.6169467 -3.3641126 -0.34532398
10.876351 -10.116065 -0.3453531
2.7387602 -2.4837372 -0.34510386
3.6626287 -3.3215783 -0.34566471
11.0175 -9.9915915 -0.34581253
2.7754292 -2.4540186 -0.34580317
3.6928077 -3.2651594 -0.34460521
11.142618 -9.8522396 -0.34581831
2.8011932 -2.4146414 -0.34519747
3.7349412 -3.2195365 -0.3447265
2.8353417 -2.3825133 -0.34568116
3.7842569 -3.1798785 -0.34555507
2.850188 -2.3343978 -0.34388012
3.8294165 -3.1364181 -0.34604496
2.8982227 -2.3133857 -0.34613347
3.8567986 -3.0785291 -0.34498894
2.9164524 -2.2684119 -0.34487188
3.9027815 -3.0355771 -0.3456555
2.355885 -1.7852527 -0.34546533
2.9574981 -2.2411456 -0.34636095
3.9416068 -2.9868877 -0.34573561
2.3673768 -1.7474757 -0.34389648
2.9836159 -2.2023516 -0.34614441
3.9831781 -2.940177 -0.3461071
2.3979623 -1.7238339 -0.34515887
3.0019078 -2.1579947 -0.3450866
4.0142918 -2.8857718 -0.3456257
2.4285507 -1.6998549 -0.34645328
3.037008 -2.1257422 -0.34601703
4.0572419 -2.8398509 -0.34621733
2.4428427 -1.6644275 -0.34547478
3.0681574 -2.0904849 -0.34653935
4.0829 -2.7818782 -0.3453902
2.4595668 -1.6308589 -0.34490833
3.0808682 -2.0428238 -0.34504226
4.1255879 -2.7355435 -0.34605998
2.488528 -1.6053224 -0.34610745
3.1018794 -2.0009887 -0.34454614
4.1478901 -2.6757591 -0.34507707
2.5066574 -1.5726782 -0.34584722
3.1330769 -1.9656941 -0.34523469
4.1880445 -2.6275814 -0.34563762
2.5174823 -1.535637 -0.34464544
3.1521909 -1.9228024 -0.34464559
4.2104235 -2.5683126 -0.34478813
2.5348117 -1.5027461 -0.34439999
3.1923611 -1.8925699 -0.34640449
4.2497168 -2.5194159 -0.34538051
6.380599 -3.7826953 -0.34532392
2.5622983 -1.4757595 -0.34558231
3.1992555 -1.8426158 -0.34460753
4.2770209 -2.4633565 -0.34505126
6.4244447 -3.7001684 -0.34514785
2.5944345 -1.4510748 -0.34742463
3.2365346 -1.8102032 -0.34614033
4.3305545 -2.4220917 -0.34688205
6.4706535 -3.6190555 -0.3451547
2.5969467 -1.4098492 -0.34535629
3.2629485 -1.7714131 -0.34655219
4.3412981 -2.3568351 -0.34533802
6.5099244 -3.5341547 -0.34484828
2.6094763 -1.3743967 -0.34469369
3.2649779 -1.7196457 -0.34444055
4.3695931 -2.3014405 -0.34525615
6.5603418 -3.4552956 -0.34518683
2.6434946 -1.3500725 -0.34691414
3.2964041 -1.6835232 -0.34549206
4.4031363 -2.2487478 -0.34564167
6.6093488 -3.375494 -0.34550157
2.657697 -1.3154002 -0.34657675
3.3144872 -1.6404718 -0.34519491
4.42943 -2.1923015 -0.34551132
6.653091 -3.2928801 -0.34559324
2.6558557 -1.2731113 -0.34421879
3.3318074 -1.5971355 -0.34487686
4.4452915 -2.1308954 -0.34462816
6.6936646 -3.2086759 -0.34557462
2.6877272 -1.2470175 -0.34628695
3.3465881 -1.5527074 -0.34435567
4.4945745 -2.0853357 -0.34638572
6.7184434 -3.1171379 -0.34480008
2.6919992 -1.2080436 -0.34485009
3.3874886 -1.5201467 -0.34656712
4.50032 -2.0195336 -0.3448413
6.7726107 -3.0392315 -0.34558854
2.7159765 -1.1779469 -0.34599409
3.40415 -1.4764149 -0.34634221
4.5284629 -1.964041 -0.34507534
6.7976308 -2.9482024 -0.34494352
2.7290576 -1.1430131 -0.34579954
3.4147873 -1.4302177 -0.34556475
4.5589876 -1.9094439 -0.34554175
6.8455892 -2.8671427 -0.34551769
2.7349436 -1.1052104 -0.34475458
3.4401283 -1.3901807 -0.34633023
4.578393 -1.8501616 -0.34521937
6.8858309 -2.782614 -0.34575289
2.75454 -1.0729837 -0.34549427
3.450635 -1.3441356 -0.3456566
4.6060963 -1.7942258 -0.3455773
6.9065876 -2.6903427 -0.3450667
2.7614975 -1.0358397 -0.34470358
3.4630313 -1.2989856 -0.34523246
4.6274691 -1.735767 -0.34551358
6.9439206 -2.6046698 -0.3452659
2.78579 -1.005125 -0.34612858
3.4717214 -1.252612 -0.34449905
4.645782 -1.6762182 -0.34527755
6.9842486 -2.5199471 -0.3456659
2.7977495 -0.96980411 -0.34606978
3.506099 -1.2153444 -0.34636426
4.6640019 -1.6167167 -0.34509128
7.0195575 -2.4332399 -0.34586957
2.8008952 -0.93155891 -0.34498054
3.5165377 -1.1695768 -0.34591314
4.700273 -1.5632792 -0.34629104
7.0285001 -2.3376317 -0.34483248
2.3481324 -0.74827105 -0.34634411
2.8069079 -0.89446735 -0.34430653
3.5263746 -1.1237373 -0.34546146
4.7054663 -1.4994742 -0.34525517
7.0727458 -2.2538469 -0.34558344
2.3673356 -0.72168452 -0.34780857
2.8293037 -0.86251605 -0.34569404
3.5361521 -1.0779994 -0.34506214
4.7285538 -1.4415041 -0.34558991
7.0909238 -2.161675 -0.34511426
2.3551769 -0.68568891 -0.34472635
2.8391421 -0.82659107 -0.34559694
3.5443127 -1.0318953 -0.34456319
4.7444582 -1.381307 -0.34545368
7.1254425 -2.0745094 -0.34549552
2.379817 -0.66047412 -0.34708804
2.8557587 -0.7925629 -0.34637731
3.5715559 -0.99121916 -0.34597081
4.7664165 -1.3228306 -0.34581226
7.1525178 -1.9850488 -0.34556893
2.3926308 -0.63169426 -0.3477692
2.8473272 -0.75174171 -0.34417924
3.5787594 -0.94485188 -0.3454887
4.7680383 -1.2588413 -0.34475252
7.1772766 -1.8949202 -0.3455849
2.3834872 -0.59728116 -0.3453196
2.8776789 -0.72112125 -0.34672296
3.5853837 -0.89846593 -0.34500864
4.785717 -1.1992589 -0.34491152
7.1919942 -1.8022511 -0.34517345
2.3801894 -0.56470096 -0.34378436
2.8942382 -0.68665928 -0.3476488
3.6037219 -0.85498458 -0.34570986
4.8124185 -1.1417483 -0.34577236
7.2266979 -1.7145371 -0.34577543
2.3980057 -0.53712702 -0.34535336
2.9014816 -0.64990014 -0.34750828
3.6219318 -0.8112731 -0.34644932
4.8092494 -1.0772192 -0.34454271
7.2517452 -1.6243116 -0.3459678
2.3973942 -0.50537616 -0.34432152
2.881777 -0.60748518 -0.34420481
3.6130562 -0.76164049 -0.34465563
4.8278413 -1.0177199 -0.34492922
7.2532048 -1.5289921 -0.34509152
2.4038534 -0.47520652 -0.3443625
2.886394 -0.57059771 -0.34387082
3.6271195 -0.71702826 -0.34510848
4.8486271 -0.95850235 -0.34552455
7.2769413 -1.4385445 -0.34533164
2.4094553 -0.44486618 -0.3443352
2.9114802 -0.53755677 -0.34602562
3.6399317 -0.67205334 -0.34549493
4.8653774 -0.89831167 -0.34588471
7.2897544 -1.3459328 -0.34510803
2.4099226 -0.41364449 -0.34363034
2.9128854 -0.49997416 -0.34541699
3.6372187 -0.62430036 -0.34446394
4.8722358 -0.83628142 -0.34559625
7.318809 -1.2562168 -0.34570724
2.4135492 -0.38304716 -0.34343249
2.9194171 -0.46333194 -0.34547228
3.658947 -0.58070052 -0.3458018
4.8874741 -0.77567637 -0.34595686
7.3314791 -1.1635572 -0.34558624
2.4222739 -0.35322416 -0.34401375
2.9180722 -0.42552313 -0.34465173
3.6567488 -0.53323942 -0.34493211
4.8851299 -0.71236616 -0.34512863
7.3497696 -1.0717682 -0.34578484
2.4290347 -0.32302997 -0.34436893
2.9364748 -0.39051288 -0.34621701
3.6672378 -0.48769483 -0.34531486
4.88731 -0.64994854 -0.34467712
7.3590498 -0.97865772 -0.34561425
2.4512329 -0.29462221 -0.34696254
2.9451554 -0.3539885 -0.34668744
3.6695468 -0.44105563 -0.34498197
4.9077215 -0.58987612 -0.34556538
7.3783488 -0.8868295 -0.34596875
2.4608786 -0.26439351 -0.34782904
2.9294851 -0.31473997 -0.34434897
3.6792288 -0.39529142 -0.34539685
4.9108233 -0.52761233 -0.3452886
7.3864684 -0.79359233 -0.34585348
14.774988 -1.5874051 -0.34550205
2.443805 -0.23147309 -0.34497645
2.9355278 -0.27804825 -0.34462041
3.6874745 -0.34927139 -0.34573066
4.9151206 -0.46555194 -0.34515119
7.3915367 -0.70011389 -0.34565061
14.796463 -1.4014961 -0.34556416
2.4505589 -0.2010151 -0.34554514
2.9531252 -0.24223976 -0.34630072
3.6882246 -0.30253869 -0.34541643
4.9174399 -0.4033691 -0.34493005
7.3925595 -0.60639888 -0.34531397
14.821665 -1.2157955 -0.34576777
2.4510925 -0.17001858 -0.34529114
2.9541521 -0.20491302 -0.34609112
3.6908123 -0.25601104 -0.34532946
4.9307475 -0.34201843 -0.34553403
7.3928199 -0.51279861 -0.34499714
14.833051 -1.0288858 -0.34570372
2.4544992 -0.13922574 -0.34549671
2.9580657 -0.16778935 -0.34627464
3.6993177 -0.20983514 -0.34585062
4.9337969 -0.27985808 -0.34547335
7.4078655 -0.42019382 -0.34542498
14.842337 -0.84189683 -0.34564567
2.4557781 -0.10829724 -0.34545738
2.9650977 -0.1307577 -0.34687755
3.6993098 -0.16313569 -0.34563044
4.9379821 -0.21775985 -0.34554702
7.4101849 -0.32678139 -0.34531388
14.835642 -0.65423632 -0.34527054
2.4660378 -0.077653699 -0.34673557
2.9656506 -0.093386143 -0.3467772
3.695925 -0.11638194 -0.3451499
4.9495535 -0.15585777 -0.34619197
7.426796 -0.23386431 -0.3459233
14.857369 -0.46784756 -0.34561169
2.4537575 -0.046350401 -0.34489951
2.9560587 -0.055838652 -0.34554598
3.7038395 -0.069963902 -0.34577933
4.9409051 -0.093331531 -0.34547746
7.4141846 -0.14005069 -0.34522638
14.858257 -0.28066596 -0.34552273
2.4539001 0.046353098 -0.34491956
2.9598036 0.055909388 -0.34598371
3.7057536 0.070000052 -0.34595799
4.9372292 0.093262091 -0.34522045
7.4370785 0.14048314 -0.34629238
14.857607 0.28065369 -0.34550762
2.461503 0.077510908 -0.34609798
2.9597044 0.093198903 -0.34608191
3.6896048 0.11618292 -0.34455967
4.9427843 0.15564461 -0.3457185
7.4165277 0.23354097 -0.34544501
14.848793 0.46757749 -0.34541219
2.4588726 0.10843371 -0.34589267
2.9455345 0.12989499 -0.34458891
3.693531 0.16288085 -0.34509054
4.927834 0.21731232 -0.34483686
7.418026 0.32712719 -0.34567925
14.845675 0.65467876 -0.34550405
2.4458797 0.13873681 -0.34428343
2.9553578 0.16763575 -0.34595764
3.7057872 0.2102021 -0.34645545
4.9276028 0.27950674 -0.34503964
7.4101243 0.42032197 -0.3455303
14.851946 0.84244192 -0.34586945
2.4438357 0.16951524 -0.34426889
2.9504347 0.20465517 -0.34565559
3.6895638 0.25592443 -0.34521264
4.9426875 0.3428466 -0.34637073
7.407742 0.51383364 -0.3456935
14.817408 1.0278008 -0.34533915
2.4398265 0.20013474 -0.34403181
2.9347818 0.24073507 -0.34414965
3.690146 0.30269629 -0.34559634
4.9186077 0.40346485 -0.34501195
7.3990016 0.60692734 -0.34561488
14.800872 1.21409 -0.3452827
2.4432793 0.2314233 -0.34490228
2.9474986 0.27918208 -0.34602571
3.6933231 0.34982535 -0.346279
4.9285994 0.46682861 -0.34609771
7.4054041 0.7014274 -0.34629905
14.798573 1.4016958 -0.34561342
2.4460447 0.2627998 -0.34573239
2.9418187 0.31606507 -0.34579873
3.6854942 0.39596459 -0.34598503
4.9100056 0.52752447 -0.34523112
7.3728504 0.79212922 -0.34521583
14.773335 1.5872273 -0.34546337
2.4540372 0.29495928 -0.34735948
2.9439216 0.35384017 -0.34654218
3.6716197 0.44130477 -0.34517685
4.9116058 0.59034306 -0.3458389
7.3730202 0.88618898 -0.34571889
14.751886 1.7730806 -0.34545654
2.4420412 0.32475963 -0.34621289
2.9149051 0.38764438 -0.34367388
3.6632996 0.48717108 -0.34494403
4.8891215 0.6501894 -0.34480485
7.3397427 0.97609013 -0.34470752
14.722904 1.9579544 -0.34532785
2.4363625 0.35527861 -0.34601465
2.9282792 0.42701155 -0.34585726
3.6670442 0.53474075 -0.34590325
4.8840532 0.71220911 -0.34505254
7.3483791 1.0715655 -0.34571943
14.698916 2.1434455 -0.34537089
2.4315684 0.38590693 -0.3459965
2.9249096 0.46420366 -0.34612224
3.6600595 0.58087707 -0.34590691
4.8798885 0.77447248 -0.34541991
7.3221912 1.162083 -0.34514841
14.671842 2.3285241 -0.34539628
2.3997426 0.41189721 -0.34217879
2.9149644 0.50033098 -0.34566352
3.6440105 0.62546611 -0.34510717
4.87112 0.83608997 -0.3455171
7.3234715 1.257017 -0.34592748
14.631252 2.5113409 -0.34515783
7.2943382 1.3467792 -0.34532505
14.606986 2.696939 -0.34535915
7.2852807 1.4401931 -0.34572738
14.568218 2.8799229 -0.3452726
7.2545514 1.529276 -0.3451556
7.2479138 1.6234534 -0.34578499
7.2381849 1.7172625 -0.34632504
7.1953568 1.8030938 -0.34533486
7.1740355 1.8940645 -0.34542885
7.1532879 1.9852625 -0.34560612
14.317626 3.9735918 -0.34547365
7.1323204 2.0765119 -0.34582901
14.258945 4.1513653 -0.34529167
7.0904126 2.1615191 -0.34508938
14.218568 4.3345442 -0.34560829
7.0750222 2.2545722 -0.34569466
14.162549 4.5131292 -0.34560061
7.0445466 2.3429689 -0.34561977
14.09325 4.6873202 -0.34532249
7.0200624 2.4334149 -0.34589446
14.0324 4.864152 -0.34530491
6.9802723 2.5185125 -0.34546912
13.984761 5.0457621 -0.34566873
6.9552445 2.6089172 -0.34582892
13.906803 5.2164521 -0.34533805
6.9122343 2.6925423 -0.34534883
13.846929 5.3938332 -0.34551045
6.8789935 2.779851 -0.34540957
13.775627 5.5668306 -0.34545305
6.8334708 2.8620672 -0.34490606
13.70519 5.7401543 -0.34547189
6.799583 2.9490492 -0.34504262
13.62857 5.910851 -0.34538934
6.7738156 3.0397723 -0.34565002
13.552028 6.0815172 -0.3453629
4.483562 2.0802262 -0.34553701
6.7433081 3.1286743 -0.34607616
13.472252 6.2506847 -0.34530836
2.6761959 1.2828616 -0.34685504
3.3256829 1.5941997 -0.34424293
4.4604983 2.138185 -0.34580711
6.6871438 3.2055502 -0.34523797
13.400049 6.423449 -0.34550351
2.6456156 1.3094206 -0.34500128
3.3217387 1.644061 -0.34595013
4.4362049 2.1956549 -0.34603977
6.6440568 3.2884088 -0.34512395
13.316916 6.591073 -0.34547263
2.6154985 1.3357745 -0.34324011
3.2962101 1.6834241 -0.34547174
4.3879805 2.2410076 -0.34445196
6.6088314 3.3752296 -0.34547451
13.236189 6.7599211 -0.34555924
2.6140072 1.3767831 -0.34529221
3.279115 1.7270917 -0.34593195
4.3611751 2.2970066 -0.34459099
6.5599656 3.4550974 -0.34516704
13.141996 6.9218163 -0.34534827
2.5997734 1.4113837 -0.34573221
3.2433491 1.7607727 -0.34447056
4.3451729 2.3589389 -0.34564626
6.5282831 3.5441215 -0.34582081
13.06373 7.0921326 -0.34561098
2.5757496 1.4406242 -0.34492248
3.2311494 1.8071913 -0.3455644
4.3145785 2.4131563 -0.34560233
6.4800329 3.6243014 -0.34565502
12.964318 7.2509809 -0.34536913
2.5693228 1.4798052 -0.34652969
3.2018325 1.8441001 -0.34488514
4.27666 2.4631486 -0.34502214
6.4220362 3.6987813 -0.34501848
12.869101 7.4119773 -0.34529155
2.5470674 1.5100118 -0.34606516
3.1881571 1.8900776 -0.34594831
4.2397332 2.5134971 -0.34456912
6.3830428 3.7841439 -0.34545618
12.774992 7.5735679 -0.34529799
2.5231855 1.5391159 -0.34542623
3.1534991 1.9236004 -0.34478861
4.2276039 2.5787928 -0.34619504
6.3294091 3.8608711 -0.3451573
12.677677 7.7332454 -0.34527233
2.5051138 1.5717098 -0.34563425
3.1248195 1.9605134 -0.34432477
4.1787071 2.6217229 -0.34486702
12.590887 7.899529 -0.34559032
2.4887621 1.6054735 -0.34614003
3.1039352 2.002315 -0.34477451
4.1427655 2.6724532 -0.34465075
12.482075 8.0520506 -0.3453593
2.4208236 1.6944463 -0.34535092
3.0410311 2.1285582 -0.34647539
4.0505157 2.8351429 -0.34564334
12.164373 8.5144062 -0.34522575
2.3939357 1.7209392 -0.34457928
3.0064192 2.161238 -0.34560522
4.0075779 2.8809452 -0.34504765
12.059349 8.669158 -0.34531584
2.3720486 1.7509242 -0.34457514
2.9786305 2.1986716 -0.34556603
3.9670987 2.928308 -0.3447099
11.949311 8.8203669 -0.34531799
2.3471687 1.7786475 -0.34418717
2.9500022 2.2354653 -0.34548309
3.9353228 2.9821258 -0.34518442
11.850396 8.9800434 -0.34569988
2.9099216 2.2633324 -0.34409961
3.9039505 3.0364864 -0.34575903
11.718257 9.1144409 -0.34516585
2.9074032 2.3207135 -0.3472299
3.8683851 3.0877776 -0.34602535
11.622952 9.2775373 -0.3457723
2.8609152 2.3431838 -0.34517437
3.8101053 3.1206014 -0.34429988
11.494266 9.4141817 -0.34544325
2.7756078 2.4541767 -0.34582543
3.6930442 3.2653685 -0.34462729
5.5535192 4.9103904 -0.34511262
11.130221 9.8412781 -0.34543353
2.7508171 2.4946713 -0.34662309
3.6759536 3.3336625 -0.34692225
5.4947596 4.983108 -0.34533307
11.009464 9.9843044 -0.34556034
2.7091069 2.5197332 -0.34533802
3.6178019 3.3649077 -0.34540561
5.4355564 5.0555968 -0.34558588
10.873341 10.113265 -0.34525749
2.6708434 2.5476136 -0.34452248
3.5744569 3.4095356 -0.34533897
5.3725781 5.1246934 -0.34565717
10.749121 10.253168 -0.3453854
2.6547198 2.5968542 -0.34663326
3.5262811 3.4494178 -0.34485367
5.3100462 5.1943021 -0.34581479
10.619184 10.387714 -0.34538591
2.6136262 2.6218631 -0.34555104
3.4889476 3.4999433 -0.34548527
5.2297678 5.2462497 -0.34486163
10.486012 10.519059 -0.3453353
2.5858843 2.6601992 -0.3462846
3.4381571 3.5369651 -0.3448388
5.1683006 5.3168306 -0.34519583
10.351524 10.649013 -0.34529498
2.5556972 2.6962538 -0.34676123
3.3997097 3.5866849 -0.34548512
5.105392 5.3861752 -0.34549671
10.225675 10.78806 -0.34560102
2.5092592 2.714926 -0.34507161
3.3641639 3.6399016 -0.3465032
5.0342131 5.4468331 -0.345294
10.079488 10.905635 -0.34527418
2.4737151 2.7450173 -0.34490976
3.3044899 3.6669064 -0.34508538
4.9740534 5.519577 -0.34590748
9.9418001 11.032157 -0.34528899
2.4482276 2.7864995 -0.34622094
3.2668107 3.7181864 -0.34601256
4.8992658 5.5761981 -0.34556222
9.8004427 11.154571 -0.34523046
2.411346 2.8152342 -0.34599105
3.2190728 3.7582512 -0.34594136
4.8286195 5.6373887 -0.34555885
9.6684885 11.28791 -0.34556186
2.3730638 2.8422062 -0.345606
3.1636097 3.7890389 -0.34508106
4.7579389 5.6985588 -0.3456085
9.5270319 11.410477 -0.34561405
3.1168709 3.8300722 -0.34521624
4.6906815 5.7640018 -0.34596783
9.3739071 11.518842 -0.34529367
3.0706511 3.8718538 -0.34546965
4.6096411 5.8124013 -0.3453615
9.2313509 11.640021 -0.34541425
3.0207818 3.9090786 -0.34536967
4.5304265 5.8626523 -0.34493026
9.0841923 11.755507 -0.34541938
4.4568381 5.920013 -0.34497583
8.9325781 11.865132 -0.34530813
4.3892188 5.98558 -0.34554848
8.7825699 11.976796 -0.34531194
4.3096657 6.0349951 -0.34524092
8.6362333 12.093658 -0.34551847
8.4803114 12.197178 -0.34539774
8.3138084 12.284883 -0.34488943
8.1660089 12.400041 -0.34520823
3.1894424 6.7076063 -0.34577456
3.1020389 6.7413797 -0.34547457
3.0165546 6.7791033 -0.34543377
6.0374098 13.56787 -0.34528083
2.9319403 6.8188319 -0.34554952
5.8650308 13.640338 -0.34521818
2.840909 6.8433042 -0.34494948
5.6943626 13.716826 -0.34531185
2.7600498 6.8923454 -0.34564221
5.5257049 13.798688 -0.34559363
2.6728451 6.9260259 -0.34561598
5.3480473 13.858158 -0.34536907
2.5827169 6.951839 -0.34525383
5.1767397 13.934109 -0.3456099
2.4976528 6.9912877 -0.34562364
4.9986091 13.991823 -0.34545282
2.4084213 7.0192537 -0.34547952
4.8267584 14.067407 -0.34579092
2.3174684 7.0417881 -0.34512493
4.6436863 14.110162 -0.34537715
1.2318631 7.3148975 -0.34533766
2.4658136 14.642189 -0.34523112
1.0474124 7.344522 -0.3453812
2.0978665 14.710374 -0.34548327
0.95500237 7.3582802 -0.34543526
1.9118309 14.730631 -0.34536624
0.77043921 7.3898187 -0.34589511
1.5403868 14.774921 -0.34538543
0.67626876 7.3873258 -0.34535247
1.3546562 14.797795 -0.345494
0.58404756 7.4060059 -0.34585449
1.1683255 14.814933 -0.34552324
0.49009314 7.4028401 -0.34539109
0.98020959 14.806032 -0.34500045
0.39659724 7.4038253 -0.3451767
0.794195 14.826328 -0.34521297
0.30411997 7.4272156 -0.3460612
0.60784513 14.844789 -0.34543717
0.21037909 7.4234285 -0.34573391
0.42081815 14.848973 -0.34538385
0.11668066 7.4120345 -0.34510744
0.23374191 14.848245 -0.34527111
0.023375154 7.4225144 -0.34555432
0.046752084 14.845593 -0.34516838
-0.070017911 7.4151006 -0.34522283
-0.14025991 14.853931 -0.34537593
-0.16344011 7.4164743 -0.34535521
-0.32711717 14.843701 -0.34520647
-0.2569595 7.4181581 -0.34555691
-0.51461995 14.85655 -0.34562859
-0.63072264 7.4031239 -0.34589842
-1.2602473 14.792186 -0.34517086
-0.72277981 7.3832855 -0.34536937
-1.4469011 14.780274 -0.34529066
-0.81559932 7.372807 -0.34533226
-1.632441 14.756845 -0.34519619
-0.90818059 7.3604403 -0.34526131
-1.8190072 14.742326 -0.34536496
-2.0016859 14.697688 -0.3448824
-2.375186 14.667578 -0.34547013
-2.5578258 14.625905 -0.34521985
-2.7419503 14.59344 -0.34524119
-2.9248095 14.554413 -0.3451618
-3.1097581 14.525413 -0.34537536
-3.2951603 14.497231 -0.34566447
-3.4739542 14.440117 -0.34531832
-3.6547523 14.392297 -0.34524792
-3.8376317 14.352441 -0.3454237
-4.0171452 14.29979 -0.34534657
-4.195096 14.242024 -0.34519991
-4.3730068 14.184568 -0.34511462
-4.5516243 14.12951 -0.34514216
-4.7350645 14.088614 -0.34557226
-5.6094985 13.756448 -0.345413
-5.786746 13.695334 -0.34568074
-5.9494438 13.600163 -0.34514216
-6.1239285 13.532381 -0.34535158
-6.2934489 13.453382 -0.34533057
-6.4628868 13.374195 -0.34535953
-6.6308894 13.291995 -0.34536567
-6.7973905 13.206799 -0.34534863
-6.9680381 13.129392 -0.34559149
-3.5659857 6.5195489 -0.34595081
-7.1266699 13.029407 -0.34529445
-3.6469271 6.4725971 -0.3458688
-7.2893887 12.937268 -0.34525785
-3.7236643 6.418457 -0.34545395
-7.4538107 12.848088 -0.34535536
-4.2004638 6.1234303 -0.34569862
-8.3964577 12.240343 -0.34511566
-4.278863 6.0723701 -0.34583041
-8.5513029 12.135625 -0.34517178
-4.3431377 6.0016446 -0.34488982
-8.715847 12.044153 -0.34566432
-8.8550425 11.917624 -0.34520572
-9.0061626 11.807497 -0.34527341
-9.160799 11.701694 -0.34552532
-9.3055992 11.583165 -0.34545803
-9.4506302 11.464985 -0.34545523
-9.5920877 11.342536 -0.34537774
-9.7304754 11.216634 -0.34524763
-9.8771982 11.100265 -0.34546667
-10.007938 10.965986 -0.34518236
-10.160472 10.855401 -0.34570131
-10.27972 10.709284 -0.34514299
-10.429264 10.594763 -0.34565723
-10.558223 10.459024 -0.34553891
-5.3386116 5.1569018 -0.34555474
-10.677973 10.314527 -0.34517992
-5.3919854 5.0787854 -0.34484264
-10.812868 10.184789 -0.3453674
-5.8843164 4.5176673 -0.34536684
-11.778666 9.0430374 -0.34526208
-5.9310951 4.4360104 -0.34480652
-11.893671 8.895566 -0.34532237
-5.9955635 4.3675961 -0.34532973
-11.998405 8.7404947 -0.34514031
-6.0582628 4.2975626 -0.34579673
-12.124296 8.6006365 -0.3456189
-6.1072655 4.2177444 -0.34553483
-12.220352 8.4395084 -0.34530029
-6.1604724 4.1409049 -0.34556761
-12.331837 8.2891312 -0.34547371
-6.2198415 4.0680571 -0.34599698
-12.428766 8.128974 -0.34529412
-6.2709007 3.9896293 -0.34601521
-12.536169 7.9756756 -0.34546041
-6.3144517 3.906528 -0.34567657
-12.637213 7.8181963 -0.34550455
-6.3626227 3.826401 -0.3456485
-12.715796 7.6471195 -0.344993
-2.551353 1.4909338 -0.34536576
-3.1895425 1.8638725 -0.34481901
-4.260509 2.4897132 -0.34497741
-6.4034624 3.7419903 -0.34527996
-12.832243 7.498776 -0.34556302
-2.5820372 1.4655668 -0.34699368
-3.2225556 1.8291256 -0.34587055
-4.2891245 2.4345112 -0.34478489
-6.4416013 3.6562591 -0.34482658
-2.5927815 1.4288043 -0.34599233
-3.2451489 1.7883043 -0.34585115
-4.333653 2.3881464 -0.34591955
-6.50316 3.5836966 -0.34567881
-2.6059103 1.3935549 -0.34537524
-3.2654243 1.7462411 -0.34564111
-4.3645635 2.3340244 -0.34601343
-6.5375218 3.4960508 -0.34513789
-2.6212239 1.3595817 -0.34510842
-3.2790425 1.7007804 -0.34478834
-4.3814535 2.2725811 -0.34505638
-6.5922251 3.4192686 -0.34572536
-2.6502552 1.3325638 -0.34669396
-3.2986493 1.6585801 -0.34462661
-4.4207897 2.2227988 -0.34592256
-2.6591692 1.2953594 -0.34569883
-3.3223333 1.6184062 -0.34494451
-4.4626822 2.1739037 -0.34703106
-2.6705022 1.2595266 -0.34508291
-3.3470614 1.5786217 -0.34542063
-4.4584389 2.1027966 -0.34461471
-2.6876395 1.2264818 -0.34527433
-3.3755887 1.5404217 -0.34633541
-4.5077801 2.0570879 -0.34639886
-2.7037828 1.192947 -0.34539104
-3.3825989 1.4924502 -0.34509912
-4.5280113 1.9978223 -0.34599292
-2.7151423 1.1573393 -0.34495312
-3.4005573 1.4495 -0.34504175
-2.7371318 1.126201 -0.34591773
-3.4367783 1.4140728 -0.34688273
-2.7451122 1.0892739 -0.34516543
-3.4463189 1.3675162 -0.34608018
-2.7740974 1.0605443 -0.3471033
-3.4660182 1.3250673 -0.34635538
-2.7730539 1.0203146 -0.34533778
-2.7980514 0.98969305 -0.34687129
-2.8031874 0.95197141 -0.3459945
-2.8153284 0.91672307 -0.34604082
-2.3391421 0.72922301 -0.34433436
-14.186945 4.4227529 -0.34550989
-2.3589766 0.70294219 -0.34592366
-14.245286 4.2448969 -0.34560156
-2.3531759 0.66907144 -0.34381032
-14.275261 4.0588422 -0.34506142
-2.3735874 0.64268523 -0.34558275
-14.342971 3.88358 -0.34548867
-2.3716097 0.61020541 -0.34414878
-14.387474 3.701838 -0.34541041
-7.2115769 1.7590004 -0.34557518
-14.425005 3.5184524 -0.34522042
-7.2320251 1.6677984 -0.3455213
-14.485836 3.340621 -0.34564212
-7.2433176 1.5746206 -0.34508613
-14.516564 3.1557477 -0.34539977
-7.2725172 1.4853253 -0.34555879
-14.542863 2.9702072 -0.34510821
-7.2876754 1.3930706 -0.34541816
-14.60106 2.7910554 -0.34562781
-4.8626566 0.86620116 -0.34529692
-7.2840166 1.297526 -0.34444299
-14.62977 2.6060495 -0.34550327
-4.8696589 0.80432463 -0.34504759
-7.3128672 1.2078708 -0.34506068
-14.638297 2.4178166 -0.34495825
-4.9002261 0.74611694 -0.3465203
-7.3340707 1.1166983 -0.34537029
-14.686894 2.2362521 -0.34541252
-4.9012012 0.68323845 -0.3459534
-7.3507266 1.0247078 -0.34551963
-14.716954 2.0515764 -0.3454845
-4.9159436 0.6222986 -0.34641343
-7.3685756 0.93277198 -0.34577909
-14.739631 1.8658577 -0.34543788
-3.6836715 0.41925409 -0.34605497
-4.9127145 0.55913663 -0.34566233
-7.3792992 0.83986896 -0.34575862
-14.775647 1.6816784 -0.34575829
-3.6906822 0.37304354 -0.34624481
-4.9211035 0.49741101 -0.34578449
-7.3813863 0.74608928 -0.34538883
-14.774977 1.4934121 -0.34527516
-3.686908 0.32582104 -0.34547845
-4.9247904 0.43521574 -0.34563106
-7.3879333 0.65288967 -0.34528312
-14.804586 1.3083174 -0.34555474
-3.6882656 0.27918693 -0.34524885
-4.9132133 0.37191054 -0.34446257
-7.4057899 0.56058866 -0.34576035
-14.81671 1.1215656 -0.34548068
-3.6924355 0.23278478 -0.34533742
-4.9360776 0.31118855 -0.34576344
-7.4156289 0.46750864 -0.34591743
-14.822199 0.93444616 -0.3453069
-2.9473536 0.1485804 -0.34490436
-3.6775086 0.18538859 -0.34369579
-4.9379287 0.24892822 -0.34564614
-7.4067817 0.37338671 -0.34525803
-14.838827 0.74804699 -0.34544748
-2.9535887 0.11163167 -0.34544215
-3.6948838 0.13964911 -0.34512797
-4.9331479 0.18644963 -0.3451198
-7.4124503 0.28015551 -0.34533045
-14.848129 0.56118894 -0.34547213
-2.9514372 0.07434985 -0.34505364
-3.7095723 0.09344808 -0.34636259
-4.9436517 0.12453586 -0.34571749
-7.4144888 0.18677887 -0.34528846
-14.86666 0.37450701 -0.34576613
