# .PCD v0.7 - Point Cloud Data file format
VERSION 0.7
FIELDS x y z
SIZE 4 4 4
TYPE F F F
COUNT 1 1 1
WIDTH 1417
HEIGHT 1
VIEWPOINT 0 0 0 1 0 0 0
POINTS 1417
DATA ascii
1.6463559 0.45691559 -0.20753232
0.98001206 0.46977869 -0.20894656
1.2488378 0.46844 -0.20896789
-1.6573441 0.47122765 -0.20928742
0.77366072 0.47192466 -0.20691666
1.6441376 0.47867611 -0.20799601
0.97187954 0.48102194 -0.20848754
1.2359918 0.48145941 -0.20781635
0.77467573 0.48603192 -0.20880842
0.96126056 0.49093026 -0.20751925
0.75083411 0.49785373 -0.20569696
1.2328647 0.49820957 -0.20832889
0.95318192 0.50203562 -0.20712355
1.6474928 0.50223976 -0.20920396
0.74283922 0.50613248 -0.20523645
1.2155077 0.50909197 -0.2064628
0.9457615 0.51344186 -0.2068996
1.6314577 0.51989084 -0.20798257
1.2137011 0.52639467 -0.20726539
0.94833374 0.53040582 -0.20890689
1.1986145 0.53788221 -0.20582935
1.6267287 0.54103899 -0.20823172
0.93351811 0.55342996 -0.20864783
1.1918845 0.55299544 -0.20585313
0.9218545 0.56232131 -0.20760709
1.6203389 0.56166977 -0.20830263
1.1854278 0.56824678 -0.20595749
0.89874822 0.57977271 -0.20562699
0.91777712 0.57581383 -0.20830524
1.6134241 0.58213037 -0.20833953
1.1903934 0.5891732 -0.2080927
0.89724302 0.59493273 -0.20698023
0.8940053 0.60912931 -0.20798625
1.1928126 0.6091873 -0.20983993
1.1687294 0.61556333 -0.20695043
0.88618839 0.62028414 -0.20796832
1.1646301 0.63226277 -0.20761786
1.1642318 0.65115827 -0.20899202
1.1462173 0.66016561 -0.20723407
1.1217978 0.68428451 -0.20586999
1.1498193 0.68166256 -0.20942058
1.1163864 0.70042139 -0.20647915
1.1047225 0.71264452 -0.20596527
0.5310123 0.72414178 -0.20502998
0.54389387 0.72245359 -0.20647477
0.52713615 0.73816955 -0.20710592
1.1110082 0.73667341 -0.20885009
0.50996685 0.75355148 -0.20775174
0.52207494 0.75089711 -0.20881581
1.1055063 0.75323516 -0.20958221
0.48477674 0.75670433 -0.20518942
0.49966532 0.75873905 -0.20743084
1.0879719 0.76152182 -0.20805949
0.45553565 0.77393246 -0.20504636
0.44820997 0.78390086 -0.20617573
0.47286391 0.78071564 -0.20840454
-0.42578954 0.80228567 -0.20738165
0.44587147 0.80311257 -0.20973535
0.42239192 0.8081246 -0.20819971
0.43592495 0.80903602 -0.20983209
-0.40551707 0.81288207 -0.20741461
-0.39267865 0.812603 -0.20606539
0.38684192 0.81355393 -0.20568511
0.39846128 0.81148285 -0.20641366
-0.38666868 0.82657403 -0.20835702
-0.37490264 0.82844293 -0.20762166
0.38085514 0.82767791 -0.20802699
-0.36372641 0.83146232 -0.20721409
-0.35297996 0.83538806 -0.20706831
-0.34222028 0.83924353 -0.20693941
-0.33038214 0.84032214 -0.2061632
0.31577295 0.84995866 -0.2070273
0.32658699 0.8462705 -0.20711422
0.3509818 0.84546018 -0.20901325
-0.32336032 0.85388225 -0.20847452
-0.31046912 0.8520838 -0.20706451
-0.27566433 0.85573888 -0.20527449
-0.30218321 0.86297196 -0.2087692
0.26019144 0.86323243 -0.20585652
0.27107906 0.86001194 -0.20588621
0.2951951 0.86033511 -0.20767777
0.30845246 0.86340261 -0.20933923
0.28483751 0.86549848 -0.20804185
0.62098366 0.8695879 -0.20543987
-0.26913285 0.87297678 -0.20858005
-0.25741869 0.87391639 -0.20801356
-0.24558489 0.87420601 -0.20732999
0.21552239 0.87167889 -0.20501962
0.63982058 0.87252367 -0.20802036
-0.23443013 0.87675023 -0.20721686
-0.2232753 0.87925094 -0.20712698
-0.18830089 0.87953728 -0.20537139
0.24011368 0.87586218 -0.20736028
0.25176704 0.87500846 -0.20789225
0.59764731 0.88311237 -0.20501354
-0.20229073 0.88998878 -0.20839007
0.20742121 0.88668358 -0.20791794
0.61808711 0.8889907 -0.20816854
-0.11006974 0.89207125 -0.20522708
0.1505723 0.89410979 -0.20702252
0.1964823 0.89032137 -0.2081743
-0.12197093 0.89559042 -0.20637366
-0.099429645 0.89881831 -0.20647487
0.025438625 0.8976264 -0.20503314
0.13950098 0.89721167 -0.20731758
0.17451505 0.8976289 -0.2087889
0.18616395 0.89709759 -0.209194
-0.13474032 0.90406489 -0.2087009
0.014204256 0.9023127 -0.20604637
0.059758015 0.90264273 -0.20654736
0.093963139 0.9012658 -0.20689718
0.10576805 0.90397984 -0.20780949
0.11723042 0.90325868 -0.20796657
0.16371751 0.90261382 -0.20945229
-0.14679159 0.90648776 -0.20967028
0.048612021 0.90750736 -0.20750399
0.071640782 0.90843976 -0.2080638
0.12954648 0.90838814 -0.20950656
0.56577951 0.90811837 -0.20570794
0.59617639 0.9052906 -0.2084029
-0.089211814 0.91130978 -0.20906976
-0.077561751 0.91038305 -0.20861654
-0.054512709 0.91036713 -0.20823221
0.083388835 0.91091079 -0.20885369
0.58479506 0.9128263 -0.20842592
-0.043242108 0.91513658 -0.20918201
-0.020262301 0.91944891 -0.20998447
-0.0086666392 0.91782236 -0.20957145
0.0028821046 0.91517955 -0.20895973
0.5571894 0.91994011 -0.20678009
0.54339123 0.92319477 -0.20595729
0.50952816 0.94563663 -0.20652053
0.52494299 0.94553775 -0.20792606
0.48430827 0.9557066 -0.20599023
0.5038985 0.96406388 -0.20914258
0.46103355 0.96958381 -0.20641285
0.4782339 0.97394305 -0.20860636
0.44912776 0.97604865 -0.20656878
0.42502773 0.98848963 -0.20687038
0.43877438 0.98605764 -0.20750128
-0.41889352 0.99138391 -0.20691983
0.39839974 0.9948765 -0.20604154
-0.40776247 0.99997586 -0.20762499
0.41374391 0.99664426 -0.20747019
-0.37880564 1.0002941 -0.20564473
0.3877548 1.0047719 -0.20706329
-0.35534486 1.0147905 -0.20671929
0.36185905 1.0128953 -0.20679343
0.375595 1.0109802 -0.2073516
-0.3703821 1.0165153 -0.20800421
-0.34244651 1.0189084 -0.20666334
0.33493769 1.0177313 -0.20599298
0.34896523 1.0170462 -0.20672733
-0.31597051 1.0249025 -0.20619944
0.30850208 1.0235118 -0.20552497
-0.30317494 1.0292554 -0.20629077
0.29779154 1.0349652 -0.20705545
0.32541758 1.0324037 -0.20811683
-0.33380461 1.0362225 -0.20930597
-0.27803996 1.0398476 -0.20694444
0.25627717 1.0365113 -0.20528057
-0.25037605 1.0407331 -0.20580029
-0.29418269 1.047199 -0.20912813
0.28769645 1.0494298 -0.20920789
0.20486696 1.0537459 -0.20638654
0.24638535 1.0532473 -0.2079642
-0.26844576 1.0571308 -0.20969468
-0.24088612 1.0597912 -0.20895256
-0.22595456 1.0554143 -0.20751217
-0.19861342 1.0570772 -0.2067899
0.16418566 1.0559732 -0.20546079
0.21924616 1.0565161 -0.2074534
0.23375274 1.0592051 -0.20854284
-0.21335156 1.0616783 -0.20819902
-0.17232192 1.0641462 -0.20725791
-0.1445885 1.0616634 -0.20599969
-0.10403141 1.0626937 -0.20529018
-0.077164724 1.0639476 -0.20509188
0.19253445 1.0614885 -0.20741172
-0.1594303 1.0697268 -0.20793732
-0.091058046 1.0687963 -0.20623121
-0.063807532 1.0655916 -0.20523763
0.07078322 1.0691781 -0.20601019
0.15226586 1.0676979 -0.20735256
0.17996641 1.0686542 -0.20835255
0.78454864 1.0698894 -0.20785776
-0.18747373 1.0719936 -0.20922948
0.016847886 1.0702468 -0.20579119
0.043975569 1.0739709 -0.20665471
0.13913023 1.0719965 -0.20783067
-0.13266322 1.0751823 -0.20828217
0.003386521 1.0753514 -0.2067481
0.084946975 1.0771687 -0.20773946
0.77010435 1.0784075 -0.20761219
-0.037459433 1.0814154 -0.20803766
-0.023844888 1.0820172 -0.20807916
0.099115118 1.0826993 -0.2090302
0.75371748 1.084067 -0.20685817
0.73970556 1.0930244 -0.20677362
0.71164584 1.110832 -0.20668581
0.73154718 1.1108503 -0.20838669
0.67889529 1.120881 -0.20530869
0.70122212 1.1255138 -0.20775816
0.67146301 1.1407822 -0.2073888
0.65512532 1.1457874 -0.20678259
0.62692505 1.1635143 -0.20706627
0.64529502 1.1623182 -0.20828299
0.59395665 1.1720805 -0.20586294
0.61326575 1.1733065 -0.20741816
0.58120328 1.1836444 -0.2065922
0.55143642 1.1983867 -0.20667544
0.57300788 1.2050731 -0.20905641
0.52445734 1.2197337 -0.20801273
0.48865297 1.2202553 -0.20593728
0.54329938 1.2209567 -0.20937142
0.50862491 1.2251977 -0.20783582
0.45989302 1.2378832 -0.20689169
0.47686765 1.2356862 -0.20751163
0.4266763 1.2435322 -0.20597425
0.44375128 1.2421234 -0.20665008
-0.41963938 1.2485864 -0.20636955
0.41285744 1.2544959 -0.20691273
-0.40430343 1.2550704 -0.2065834
-0.3539142 1.2598248 -0.20501801
0.36195856 1.2579756 -0.20508403
-0.38907027 1.2620136 -0.2069034
-0.37135792 1.2607312 -0.20591021
0.39773947 1.2618484 -0.20728295
0.38258374 1.2692912 -0.2076977
-0.32403696 1.2760471 -0.2062643
-0.29068238 1.2788725 -0.20547232
0.33331376 1.2787619 -0.20703837
-0.34326518 1.2837849 -0.20819725
-0.30809689 1.2806602 -0.20636649
0.3516241 1.2826185 -0.20836313
0.23360386 1.287914 -0.20507067
0.26761401 1.2895938 -0.20634599
0.31778273 1.2852701 -0.20742775
-0.27728164 1.2951587 -0.20751154
-0.2104208 1.2994196 -0.20623289
0.28628236 1.2972327 -0.20812862
-0.26161188 1.3018308 -0.20803624
-0.24461903 1.3019321 -0.20754373
-0.227874 1.3030063 -0.20724113
-0.17770489 1.3048257 -0.20631504
0.20271496 1.3037775 -0.20671797
0.25299734 1.3013073 -0.20769404
0.30420548 1.3004167 -0.20923746
-0.19453502 1.3052684 -0.20675598
-0.11148183 1.3085209 -0.20574951
-0.09491083 1.3086309 -0.20556259
0.16964552 1.3071163 -0.20650433
0.22044587 1.3090243 -0.20797351
0.18731727 1.3134806 -0.20786595
-0.14573966 1.3174489 -0.20766468
0.12070531 1.318543 -0.20744081
-0.16313568 1.3221494 -0.20871286
-0.045778178 1.3215692 -0.2071753
-0.012475851 1.3212289 -0.20700704
0.08768139 1.3244244 -0.20795268
0.10426107 1.3220807 -0.20777436
0.1547883 1.3229468 -0.20868082
-0.12993543 1.3273065 -0.20894404
-0.062610149 1.3250241 -0.20782404
0.020880021 1.3263847 -0.20783131
0.037687637 1.3298446 -0.20843129
0.13819849 1.3255579 -0.20880166
-0.079754703 1.3319107 -0.20904511
-0.029355032 1.3320528 -0.20874426
0.004198249 1.3331064 -0.2088597
0.054644119 1.3345182 -0.20925505
0.99771243 1.3971361 -0.20853086
0.97703934 1.4052694 -0.20789202
0.96517187 1.4261842 -0.20917155
0.94210023 1.4305741 -0.20805898
0.93044484 1.4523627 -0.20950724
0.91284889 1.4651905 -0.20968293
0.86629122 1.4717858 -0.20743826
0.8242808 1.4847109 -0.20626824
0.84748906 1.4822236 -0.20738883
0.80727071 1.498219 -0.20671625
0.79034418 1.5120947 -0.20724116
0.74588132 1.5190181 -0.2055499
0.76822829 1.5159783 -0.20643124
0.6119206 1.5856428 -0.20644356
0.59199077 1.5934477 -0.20647281
0.57147551 1.5996418 -0.20632662
0.51044929 1.619426 -0.20624298
0.53250921 1.618066 -0.20690733
0.55532867 1.6184847 -0.20783861
0.44814706 1.6347052 -0.2058849
0.49336919 1.636842 -0.20765333
-0.43945318 1.6435204 -0.20664245
0.47191706 1.6401329 -0.2073005
-0.5084582 1.6492679 -0.20963149
-0.46265891 1.6469221 -0.20778617
0.42935556 1.6472274 -0.2067647
0.38682833 1.6536126 -0.20627773
-0.48770535 1.6557218 -0.2096546
-0.42137289 1.6593529 -0.20794946
0.40977463 1.6573308 -0.20736878
0.36734384 1.6645472 -0.20704831
-0.40133241 1.6682104 -0.20840965
-0.35730866 1.6689579 -0.20731291
0.34566271 1.6656995 -0.20663384
0.32614893 1.677567 -0.2075801
-0.38270584 1.6837345 -0.2097304
-0.33859748 1.6849259 -0.20875022
-0.31575099 1.6805167 -0.20769489
0.2396253 1.6802679 -0.20615788
0.26146337 1.6816226 -0.20671166
0.2834622 1.6832201 -0.20733036
0.30556458 1.6846508 -0.20796403
-0.2952092 1.6880358 -0.20814826
0.1758751 1.6869403 -0.20601396
-0.01600199 1.6946573 -0.20584989
0.069316238 1.6928406 -0.20579234
0.15484227 1.6914433 -0.20630939
0.19813459 1.6934195 -0.20709346
-0.27471268 1.6964438 -0.20874192
-0.25272825 1.6957265 -0.20824558
-0.23113582 1.6971505 -0.20804651
0.090991892 1.6986706 -0.20662399
0.11247507 1.6989321 -0.20681167
-0.12348974 1.7026771 -0.20735805
0.13429752 1.7029575 -0.2074911
0.22102082 1.7029624 -0.20858432
-0.21051638 1.7061511 -0.20880835
-0.18872774 1.7060499 -0.2084886
0.026874386 1.7071712 -0.20738639
0.048386984 1.7073812 -0.20746948
-0.16746816 1.7107081 -0.20878358
-0.14601906 1.7139026 -0.20893249
-0.037694611 1.7104806 -0.20781311
0.0053922283 1.7122408 -0.2079775
-0.10285367 1.7176656 -0.2090091
-0.059658568 1.7222817 -0.20932156
-0.081534639 1.7255249 -0.20982388
1.3722308 1.9736708 -0.20805761
1.3404013 1.9806411 -0.20699671
1.3148131 1.9965366 -0.20691122
1.2983289 2.0266051 -0.20831656
1.2656536 2.0314684 -0.20716183
1.2446963 2.0550392 -0.20795067
1.2194577 2.0717981 -0.20807618
1.1879689 2.0777087 -0.20715098
1.1627425 2.0943549 -0.20733441
1.1382383 2.112464 -0.20769177
0.25840878 -1.6619767 -0.20429671
-0.31077278 -1.6540211 -0.20442031
-0.33118799 -1.648055 -0.20418216
0.15177013 -1.2971511 -0.20461184
0.86263835 -0.98182917 -0.20476164
-0.064665355 -0.89160615 -0.20411099
0.070058852 -0.88838011 -0.20346946
0.39434347 -0.80309677 -0.20428053
-0.41003126 -0.79665869 -0.20457628
0.83118051 -0.66345531 -0.2044687
0.60604441 -0.65571779 -0.20386982
0.67232972 -0.59447014 -0.20491128
0.88269114 -0.58528382 -0.20362332
0.89784807 -0.56331033 -0.20378199
0.89881438 -0.54826701 -0.20241831
0.74781281 -0.49585041 -0.20486926
0.96603191 -0.44820723 -0.20474632
0.97706908 -0.42376491 -0.20475835
0.81373167 -0.37754488 -0.20481934
0.81364405 -0.36512545 -0.20362386
0.81944758 -0.35540286 -0.20394011
-0.99073315 -0.33645615 -0.2011627
1.0145614 -0.32330671 -0.20472418
-1.0163213 -0.31683621 -0.2046729
-0.83286989 -0.31840819 -0.20358838
-1.273898 -0.29377732 -0.20482083
-0.84624898 -0.25217041 -0.20161623
1.0315632 -0.2447388 -0.20383368
0.86414468 -0.23982735 -0.20476381
-1.289426 -0.21297528 -0.2047523
0.87315363 -0.20715608 -0.20489715
0.89224923 -0.084512338 -0.20463492
-1.065429 -0.040268172 -0.20498566
1.3063413 0.024676213 -0.20470187
0.89725518 0.028253902 -0.20496765
1.0650805 0.033538599 -0.20487392
-1.0398607 0.22605473 -0.20459314
-0.8412677 0.28569719 -0.20285705
1.2761332 0.28583986 -0.20488667
-1.2582529 0.3406913 -0.20422974
-0.81915373 0.34916726 -0.20331606
-0.98924321 0.36398113 -0.20265743
-0.82046968 0.36200279 -0.20475787
-0.78833985 0.42157811 -0.20411925
-0.96327758 0.43958369 -0.20357218
-0.77462059 0.43967539 -0.20337002
0.77936852 0.43590307 -0.20389169
-0.94705725 0.44667396 -0.201317
0.77193004 0.45763353 -0.20489632
0.75243419 0.48538712 -0.20444465
0.7203669 0.53173774 -0.20443389
0.55444187 0.69910836 -0.20372947
0.54388344 0.7038188 -0.20309024
0.47052735 0.7552315 -0.2031673
-0.4265328 0.77981287 -0.20294493
0.40207922 0.79344046 -0.20309606
-0.40943474 0.79549974 -0.20427866
0.36448649 0.81911051 -0.20470388
0.35299575 0.8209644 -0.20404017
0.33350348 0.83281875 -0.20483363
0.22577277 0.86617976 -0.20437869
-0.42262149 0.96609384 -0.20273601
-0.38976899 0.99137169 -0.2048032
0.26852685 1.0302062 -0.20468529
0.11052514 1.0601234 -0.20492408
-0.4271723 1.2199147 -0.20250361
0.87351012 1.4421972 -0.20480199
0.69131529 1.5023727 -0.20087749
0.72141904 1.5171915 -0.20405732
0.65653074 1.5268975 -0.20188148
0.62086105 1.5504028 -0.20285726
-1.1930879 0.43898356 -0.19917305
-0.42697665 0.94351375 -0.19911005
-0.42818835 1.1751647 -0.1959547
0.66916656 1.503818 -0.19992822
0.62954468 1.5164744 -0.19943942
-0.95471907 -0.33769175 -0.19469821
-1.1769433 -0.33463675 -0.19170097
-1.149106 0.43930605 -0.19273895
-0.90328562 0.44001696 -0.19317491
-0.42553401 0.90965569 -0.19308044
1.1416694 -1.8324646 -0.18686812
0.88460153 -0.80223072 -0.18709482
-0.90394598 -0.33259696 -0.18518335
-1.1061765 0.43893626 -0.18645069
-1.4811558 0.44136381 -0.18772551
-0.87509668 0.44000369 -0.18831646
-1.4549596 0.45358086 -0.18511458
-0.42615148 0.8818711 -0.18830708
-0.42174089 1.1136712 -0.1865716
0.87904119 -0.77724326 -0.18383422
0.88295019 -0.76110709 -0.18263291
0.8944701 -0.75161552 -0.18304355
-1.119451 -0.33358082 -0.18300627
-0.87570614 -0.3347846 -0.18024744
-0.84569395 0.43864626 -0.18316326
-1.0793693 0.44410974 -0.18286034
-1.4447753 0.47044563 -0.1845579
-1.4238338 0.48353854 -0.18264613
-1.4117756 0.4993563 -0.1818915
1.415063 0.53079116 -0.18357392
-0.42996174 0.83538204 -0.18063547
-0.42661947 0.85518301 -0.18374085
-0.42405415 1.0785755 -0.18157224
0.88231778 -0.72264725 -0.17868038
0.88890237 -0.70952934 -0.17819037
-0.84754306 -0.33630922 -0.17530838
-1.0669086 -0.3326067 -0.17508753
-0.82276577 0.43998799 -0.17938313
-1.0414886 0.44393834 -0.17737582
-0.79875386 0.44016933 -0.17534249
0.74380141 0.53469986 -0.17611948
1.3653568 0.53185129 -0.17798032
0.55270988 0.73416394 -0.176679
-0.42790312 1.0493678 -0.17754829
-0.32410222 2.001441 -0.17548648
0.87095004 -1.0982008 -0.17024969
0.8796311 -0.68417567 -0.17459098
0.87934083 -0.66635066 -0.17285421
0.87461239 -0.64559388 -0.17031321
0.8929835 -0.64194304 -0.17230286
-0.77068734 0.43744287 -0.17037702
0.72057635 0.53189236 -0.17219241
1.3124994 0.5303905 -0.17194711
1.2494272 0.63810128 -0.17040744
1.2410626 0.65366083 -0.17037573
1.2359554 0.67098439 -0.17082097
1.2500857 0.69917655 -0.17397694
0.55137515 0.71351355 -0.17336655
1.2350812 0.71134681 -0.17312165
-0.4288114 0.78397876 -0.17180151
-0.42600843 0.80269814 -0.17471428
-0.24146532 1.9569798 -0.17066614
-0.2172551 1.96393 -0.17102012
-0.29343554 1.9688596 -0.1722921
-0.19450876 1.9869312 -0.1727961
-0.16932407 1.9874457 -0.17264174
0.88062191 -1.0821255 -0.16946325
0.88337868 -0.61831748 -0.16893387
0.8856197 -0.60341579 -0.16789606
0.88014781 -0.58359742 -0.16545239
0.89308077 -0.57611674 -0.16650663
0.89591277 -0.56209612 -0.16570185
0.90421915 -0.55156392 -0.16594042
-1.030866 -0.33566907 -0.16985287
-0.99083632 0.43717095 -0.16967332
1.2747346 0.533898 -0.16786708
1.247384 0.57874537 -0.16702642
1.2466571 0.59759772 -0.16792339
1.2453867 0.61639154 -0.16878438
-0.42647323 0.97489876 -0.16671312
-0.42157531 0.99773085 -0.16969629
-0.42269188 1.3121533 -0.16744554
-0.26497278 1.9456036 -0.16995154
1.1996546 -1.43682 -0.16200885
0.88205093 -0.52291793 -0.16065101
0.89579123 -0.51593226 -0.16195746
0.90324819 -0.50518936 -0.16214268
-0.97696131 -0.33177918 -0.16164668
-0.9529326 0.43486285 -0.16410729
-0.9298594 0.43856269 -0.16107206
1.2355939 0.5358898 -0.16358839
1.2313033 0.55255145 -0.16392854
-0.42369795 0.93626857 -0.16100675
-0.42327824 1.2594134 -0.1613827
0.048154674 -3.0589826 -0.15862434
0.16368066 -3.0556517 -0.15865913
0.0096172439 -3.0538466 -0.15833919
0.12499715 -3.0526793 -0.1584105
0.24053678 -3.0501227 -0.15863632
0.31822637 -3.0523303 -0.15911756
0.086319186 -3.0458555 -0.15798748
0.20169045 -3.0465274 -0.15830468
0.27828151 -3.0398507 -0.15827179
0.1668703 -1.8228333 -0.15843064
0.26021296 -1.8246299 -0.15952431
0.14291671 -1.8122529 -0.15734217
0.18860646 -1.8090558 -0.15742712
0.21121085 -1.8051797 -0.15730879
0.23383349 -1.8016837 -0.15724826
1.1990747 -1.3999137 -0.1595373
1.2018917 -1.3679572 -0.15760773
0.89087909 -0.4836469 -0.15881646
0.89000213 -0.46875918 -0.15759534
0.89649409 -0.45785302 -0.15771149
0.90519404 -0.41998044 -0.15633816
-0.93555641 -0.33091378 -0.15547302
-0.89803016 0.43745688 -0.15650032
-0.4234429 0.90518552 -0.15656604
-0.42844611 1.2235525 -0.15746628
1.198608 -1.3300641 -0.15496856
1.2040962 -1.3027878 -0.15354496
0.88559318 -0.43831539 -0.15481058
0.88398445 -0.42374688 -0.15358441
-0.91812098 -0.33781248 -0.15327032
-1.196249 0.44014665 -0.15482512
-0.87858915 0.44175974 -0.15406953
-0.85035235 0.44106248 -0.15007997
-0.43157595 0.86511856 -0.15146804
-0.41999254 0.8691259 -0.15123172
-0.42287263 1.1605757 -0.15003483
1.2651221 -1.1186137 -0.14616451
-0.87707347 -0.33530733 -0.14711107
-1.1735246 -0.33366475 -0.14819129
-1.1427323 0.43686935 -0.14859889
-0.82039022 0.4387176 -0.14575537
-1.1107476 0.44075009 -0.14514987
-0.42977238 0.83501416 -0.1471331
-0.42717934 1.1280322 -0.14651151
0.74490678 1.5170333 -0.14627838
0.7234987 1.5215653 -0.14582534
0.62391979 1.5580411 -0.14526318
0.61478925 1.5930762 -0.14779617
-1.1389514 -0.33939168 -0.14435366
-0.84670496 -0.33597669 -0.14271568
-0.78995079 0.43531823 -0.14131002
0.74240869 0.53369862 -0.14324917
0.54852676 0.7098276 -0.14054474
0.55191988 0.73311454 -0.14376807
-0.42241657 0.79593027 -0.14117242
0.67572623 1.5185596 -0.14386043
0.69833595 1.5176301 -0.14459397
0.65651983 1.5268722 -0.14385334
0.63791084 1.5366273 -0.1440042
-1.0531784 0.43333343 -0.13832895
-1.0290765 0.43864763 -0.13587801
-0.4291884 1.0525198 -0.13806409
-0.42168549 1.0725508 -0.13998403
0.88789397 -0.65539759 -0.13404651
0.88922167 -0.63923872 -0.13302118
0.89287311 -0.6249631 -0.13237965
0.89274341 -0.60826951 -0.13121442
-1.0584999 -0.32998529 -0.13467298
-1.4827142 0.44182819 -0.13390929
-0.99756747 0.44014081 -0.13243891
-1.4415075 0.44938716 -0.13068846
-1.4412055 0.46928319 -0.13118643
-1.4299452 0.48561397 -0.13070771
1.4191535 0.53232551 -0.13118835
-0.43194151 1.0222642 -0.13479811
0.88867205 -0.58924961 -0.12951517
0.87943286 -0.5673126 -0.12711744
0.8776775 -0.55065531 -0.12585147
0.88325238 -0.53877443 -0.12566808
0.88769877 -0.52626622 -0.12534791
0.89590073 -0.51599532 -0.12557863
-1.0157701 -0.33075356 -0.12975609
-0.97063667 0.44294193 -0.12959374
-1.397507 0.4943094 -0.1283014
1.3537574 0.52733296 -0.12574692
-0.42568859 0.94066745 -0.12541267
-0.42519057 0.97196668 -0.12886155
0.87070447 -1.0978911 -0.12128149
0.88244045 -1.0843601 -0.12100466
0.8731007 -0.48832777 -0.12151119
0.8763805 -0.47577578 -0.12112425
0.88657904 -0.46695626 -0.12171146
0.89374065 -0.4564468 -0.12189591
0.90070999 -0.43176442 -0.12132467
-0.97092795 -0.32973024 -0.1245484
-0.92451513 0.4360421 -0.12415912
-0.89569747 0.43632054 -0.12101727
1.3164475 0.53198594 -0.1228938
1.2457947 0.63624609 -0.12107507
1.2354369 0.65069777 -0.12085518
1.2399503 0.67315316 -0.12211622
1.2552254 0.70205122 -0.12448136
1.2488124 0.71925533 -0.12473368
-0.42530394 0.90916383 -0.12191686
0.87999576 -0.435545 -0.11926379
0.88395441 -0.41012594 -0.1183627
0.89006519 -0.3994197 -0.11849807
0.8954103 -0.38834867 -0.11854925
0.88265049 -0.36968112 -0.11623436
0.89456654 -0.3615008 -0.11719481
0.90129435 -0.35108376 -0.11748772
-0.91194159 -0.33553886 -0.11802849
-0.8862828 -0.33882809 -0.11525065
0.89899606 -0.33721408 -0.11662535
-0.93007493 -0.32897493 -0.11982976
0.89933574 -0.29911301 -0.11512076
-0.86981308 0.43734708 -0.11825474
-0.85389829 0.4429017 -0.11684003
1.2643169 0.5295347 -0.11864033
1.2305093 0.53368455 -0.11608932
1.2459143 0.55910814 -0.11819751
1.2381189 0.57444668 -0.11813484
1.2411677 0.59496629 -0.11913114
1.2385209 0.61299336 -0.11960849
-0.42611787 0.85417747 -0.11594585
-0.42976838 0.8893559 -0.11997685
-0.42926812 1.2772356 -0.11662465
-0.42256993 1.3117748 -0.1192831
1.1223692 -1.8530726 -0.11232893
1.1398851 -1.8296006 -0.11176734
0.88066745 -0.31774861 -0.11371954
0.88758916 -0.30767143 -0.114104
-1.2002593 0.44162217 -0.11069438
-0.82394671 0.4406195 -0.1134919
0.74838668 0.53799605 -0.11195327
0.55581421 0.73828739 -0.11224777
-0.42488721 0.80058551 -0.11008909
-0.43005413 0.83556157 -0.11414495
-0.42432413 1.2117809 -0.11112704
-1.1816443 -0.33597338 -0.10632806
-0.83124936 -0.32984382 -0.1086257
-1.1431191 0.43701723 -0.10592372
-0.79196823 0.43642998 -0.1098354
0.72234428 0.53319734 -0.10905325
0.54711396 0.70799935 -0.10868167
-0.42587885 1.1688262 -0.10767112
-0.32379788 1.9995615 -0.10502547
-1.1278491 -0.33608335 -0.10186014
-1.1022639 0.43738374 -0.10264021
-1.0791806 0.4440321 -0.10100339
-0.42480186 1.0804772 -0.10048631
-0.4238387 1.1192108 -0.10358403
-0.19084343 1.9494894 -0.10156193
-0.24086958 1.9521515 -0.10198436
-0.21733697 1.9646701 -0.10248725
-0.26826352 1.9697664 -0.1030729
-0.29372075 1.9707732 -0.10331093
-0.17011261 1.9967011 -0.10390168
1.2012902 -1.4387791 -0.09718281
1.1933224 -1.3931979 -0.095111445
-1.0665007 -0.33247954 -0.096689984
-1.0284618 0.43838561 -0.096765466
-0.42826661 1.0502592 -0.098169737
1.2040182 -1.3703775 -0.094581075
1.1999127 -1.3315119 -0.092934094
1.1980686 -1.2962661 -0.091519795
-1.0420326 -0.3393051 -0.094851516
-0.98516542 -0.33456531 -0.090051502
-0.99562722 0.43928474 -0.094189122
-0.96531934 0.44051543 -0.091839403
-0.43173993 0.98693818 -0.093237922
-0.42418459 1.0039061 -0.094328821
0.88647389 -0.51056594 -0.08854264
0.87659335 -0.49028119 -0.08693222
0.87549889 -0.47529715 -0.086223304
0.88177633 -0.4644267 -0.086258739
0.88372147 -0.45132986 -0.085886262
0.88359624 -0.43732703 -0.085332125
-0.95008039 -0.33605102 -0.087224357
-0.92771804 0.43755272 -0.088779211
-0.89920056 0.43802702 -0.086571164
-0.88207895 0.44351444 -0.085453674
-0.42655069 0.91182899 -0.087129593
-0.42315108 0.93506014 -0.088833243
0.65109009 1.5142442 -0.085461825
0.67284894 1.5120934 -0.085811816
0.70050484 1.5223436 -0.086887218
0.72342479 1.5214097 -0.087346919
0.63730419 1.5351659 -0.086182855
0.75776446 1.5432185 -0.089139752
0.62591952 1.5630347 -0.087297991
0.60552824 1.5690786 -0.08720278
0.87895238 -0.42133471 -0.084364586
0.87740952 -0.40708932 -0.083717838
0.88080359 -0.39526352 -0.083560154
0.88383394 -0.38332787 -0.083383106
0.89645731 -0.37546384 -0.084121317
0.8900311 -0.35966802 -0.083086714
0.90507054 -0.35255468 -0.084069587
-0.91354465 -0.33612868 -0.084252015
-0.88705504 -0.33912331 -0.08219631
0.89551312 -0.33590761 -0.082782358
0.89656556 -0.32348472 -0.082496561
0.90133065 -0.31243476 -0.08256647
0.89107853 -0.29636672 -0.081279017
0.89444059 -0.2726711 -0.080933541
0.90251619 -0.2627596 -0.081358418
0.89973068 -0.23754384 -0.080542393
-1.4817197 0.44153187 -0.080163799
-0.8570323 0.44452727 -0.083562873
-0.83054501 0.44414806 -0.081519142
0.75105888 0.53991705 -0.08005996
-0.42982218 0.86160302 -0.083338358
-0.42601666 0.88159215 -0.084746204
-0.84595203 -0.33567792 -0.078773052
0.87955403 -0.28028437 -0.079899557
0.88555521 -0.24576944 -0.079544164
0.89196694 -0.22351913 -0.079589128
0.89540642 -0.21243556 -0.079651028
-0.8001008 0.44091159 -0.079069674
-1.4660159 0.45702764 -0.079619236
-1.4454064 0.47065109 -0.078815557
-1.4255123 0.48410854 -0.078056984
-1.4208286 0.50255841 -0.07814084
1.3616346 0.53040141 -0.075766295
1.4168142 0.53144801 -0.078458093
0.54577488 0.72495216 -0.078540251
-0.42930076 0.80890167 -0.079261616
-0.42193249 0.8197819 -0.079800792
0.87023038 -1.0972934 -0.072613433
0.88591468 -1.0886294 -0.072772548
1.2731252 0.53322393 -0.071565963
1.3145925 0.53123635 -0.073515102
1.2390414 0.55602396 -0.070414968
1.2358909 0.57341295 -0.070640668
1.2522104 0.60025972 -0.071999773
1.2435107 0.61546302 -0.071939468
1.2535261 0.64019459 -0.072979458
1.2396818 0.65293354 -0.072646372
1.232692 0.66921276 -0.072724819
1.2453566 0.69653159 -0.073983572
1.2406698 0.71456563 -0.074233808
-0.42355803 1.3148421 -0.07162296
-1.1955166 0.43987715 -0.066048823
1.2303079 0.53359717 -0.069531277
-0.42207608 1.2053609 -0.066217348
-0.42256072 1.2572786 -0.068771712
-1.1799853 -0.33550167 -0.063605793
-1.1264426 -0.33566421 -0.060942646
-1.1528754 0.44074711 -0.063994572
-1.1138012 0.44196177 -0.062129606
-0.41834077 1.1046927 -0.061246514
-0.42723036 1.1725354 -0.06470447
-1.0630414 -0.33140114 -0.057733718
-1.026204 -0.33415103 -0.055957165
-1.0194232 0.43453291 -0.057457373
-1.0657746 0.43851611 -0.059753884
-0.99069417 0.43710822 -0.056143902
-0.42857239 0.97969735 -0.055443872
-0.42468706 1.0050952 -0.056574084
-0.42766932 1.0487944 -0.058726009
-0.42177823 1.0727867 -0.059767302
0.16428083 -3.0668561 -0.053038079
0.0096426783 -3.061923 -0.052877225
0.31944174 -3.063988 -0.05319941
0.12518348 -3.0572298 -0.052840155
0.086460456 -3.0508404 -0.052706726
0.2403418 -3.0476501 -0.052793887
0.27910465 -3.0488427 -0.052871231
0.047869105 -3.0408421 -0.052519418
0.2011075 -3.0377219 -0.052573863
0.88708806 -0.41157985 -0.050703902
0.88834786 -0.39864907 -0.050484985
0.89132184 -0.38657546 -0.050373361
-0.99238366 -0.33701664 -0.054340094
-0.95227587 -0.33682758 -0.052372001
-0.91505605 -0.33668479 -0.050554194
-0.96278715 0.43935987 -0.054871559
-0.92873949 0.4380345 -0.053241242
-0.9020347 0.43940759 -0.052023422
-0.86573046 0.4352943 -0.050241776
-0.42432454 0.8780905 -0.050565094
-0.42859367 0.91619623 -0.05244448
-0.42617062 0.94173265 -0.05359479
0.882842 -0.36976132 -0.049627043
0.88047671 -0.35580701 -0.049238324
0.87725759 -0.34172064 -0.048813798
0.89652413 -0.33628684 -0.049646296
-0.86694068 -0.33143353 -0.048122715
-0.83826303 -0.33262688 -0.046759646
0.88931066 -0.32086712 -0.049019206
0.87156326 -0.30211627 -0.047827475
0.88065636 -0.29290038 -0.048120257
0.8736189 -0.27839306 -0.0475404
0.88209534 -0.26890764 -0.047813613
0.89164519 -0.25959462 -0.048150253
0.89682364 -0.24889679 -0.048256822
0.88354343 -0.23327014 -0.047380421
0.89511371 -0.22430769 -0.047845621
0.89645165 -0.21268354 -0.047770195
0.89095074 -0.19956322 -0.047339398
0.8948459 -0.18863556 -0.047416396
0.89354253 -0.17664024 -0.047225725
0.89417183 -0.16509408 -0.047145374
0.88844717 -0.15249506 -0.046738587
0.89665979 -0.14230619 -0.04707263
0.8927229 -0.13017987 -0.046776187
0.90696865 -0.12061501 -0.047439281
-0.83834934 0.43483675 -0.048966628
-0.83153433 0.44467708 -0.048891749
-0.80047441 0.44111747 -0.04738836
0.74360329 0.5345574 -0.047483388
0.55116415 0.73211068 -0.047513682
-0.42423648 0.79935938 -0.046921108
-0.42982253 0.83511156 -0.048698142
-0.42115662 0.84423244 -0.04891688
1.1309059 -1.8671671 -0.037697762
1.1428524 -1.8343633 -0.037323054
1.2007254 -1.4381027 -0.032353286
1.202656 -1.4040948 -0.031926375
1.20732 -1.3741355 -0.031588338
1.2065282 -1.338853 -0.031124052
1.1954297 -1.2934109 -0.030415192
-0.26711115 1.961305 -0.034182835
-0.24190082 1.9605093 -0.034113176
-0.21748976 1.9660511 -0.034159243
-0.29439735 1.9753132 -0.034488853
-0.19350454 1.9766729 -0.034298737
-0.32261276 1.9922431 -0.034852616
-0.17011988 1.9967865 -0.034607828
-1.4915888 0.44447273 -0.026877852
-1.4622861 0.45586485 -0.026451169
-1.4328071 0.46654853 -0.026022132
-1.426247 0.48435804 -0.0260117
-1.42981 0.50573522 -0.02619075
1.3625988 0.53077698 -0.025253214
1.4136221 0.53025073 -0.026073024
0.69257653 1.5051137 -0.028611837
0.65361625 1.5201193 -0.028575059
0.67738992 1.5222985 -0.028774083
0.72387201 1.5223504 -0.029110471
0.63559937 1.5310593 -0.028627986
0.7567032 1.5410572 -0.029648039
0.62282825 1.5553151 -0.028932586
0.60562319 1.5693246 -0.02904903
0.88437057 -1.0867319 -0.024195977
0.85644841 -1.0799154 -0.023802202
-1.1695694 -0.33254015 -0.020998066
-1.1182457 -0.33322167 -0.020150354
-1.1781038 0.43347031 -0.021678349
-1.1025563 0.43749973 -0.020484477
-1.1523945 0.44056323 -0.021305665
-1.071341 0.44080645 -0.020006068
1.2601862 0.52780467 -0.023594094
1.3185397 0.53283143 -0.024559064
1.2442442 0.5396415 -0.023420988
1.2340074 0.55376488 -0.023357701
1.2383524 0.57455504 -0.023575023
1.2454641 0.59702581 -0.023851639
1.2451137 0.61625648 -0.023991639
1.2414908 0.6340481 -0.024073765
1.2479225 0.65727389 -0.024357041
1.2254571 0.66528499 -0.024080159
1.2413309 0.69427997 -0.024561921
1.2362561 0.71202356 -0.024636962
-0.42190176 1.114096 -0.020572908
-0.42670617 1.1710968 -0.02152456
-0.42436224 1.2118896 -0.022174353
-0.43116832 1.2828894 -0.023372261
-0.42300022 1.3131105 -0.023823915
-1.0776997 -0.33597079 -0.019494418
-1.0296537 -0.33527431 -0.018700205
-0.99619132 -0.33830976 -0.018168403
-0.91315752 -0.33598623 -0.01680306
-0.85297799 -0.33846584 -0.015847543
-0.93461859 -0.33058205 -0.017120009
-0.87407088 -0.33415943 -0.01615997
0.8908245 -0.32141331 -0.016354533
0.87733865 -0.30411825 -0.016035371
0.88378829 -0.29394203 -0.016084326
0.87672353 -0.27938238 -0.015890468
0.87679219 -0.26729095 -0.015829453
0.88927895 -0.25890568 -0.015994759
0.89224619 -0.24762639 -0.015990777
0.8872304 -0.23424356 -0.015846765
0.88720953 -0.21049085 -0.0157467
0.88005543 -0.19712278 -0.015574434
0.88770306 -0.18712983 -0.015666833
0.90272242 -0.17845497 -0.015890986
0.89659423 -0.1307444 -0.015647223
-0.82998765 0.4304997 -0.016146559
-1.0297925 0.43895283 -0.019331882
-0.9623425 0.43915698 -0.018267533
-0.92937028 0.43833202 -0.017745009
-0.90239471 0.43958297 -0.017334264
-0.86851442 0.43669412 -0.016787751
-0.79360998 0.43733469 -0.015648205
-1.0045245 0.44321033 -0.018960802
-0.83975601 0.44907382 -0.016445298
0.74376041 0.53467035 -0.015818549
0.54682302 0.72634441 -0.015700653
-0.42365187 0.79825783 -0.015606394
-0.42564318 0.82699144 -0.016062092
-0.42563784 0.85321528 -0.016466016
-0.42185596 0.87298203 -0.016743645
-0.42254841 0.9032734 -0.017221212
-0.42425704 0.93750411 -0.01777057
-0.42071235 0.96172965 -0.018127913
-0.42643842 1.0092403 -0.018920736
-0.42490485 1.0420151 -0.019433333
-0.4218539 1.0729792 -0.01991016
0.87655503 -0.21965706 0.015605453
0.88119763 -0.20906453 0.015639998
0.88688785 -0.18695797 0.015652444
0.88344485 -0.17464408 0.015551635
0.74957651 0.53885138 0.015942248
0.54573095 0.72489381 0.015669297
0.86466181 -1.0902718 0.024030466
0.8811574 -1.0827836 0.024108067
1.2573093 0.52659976 0.023540232
1.3478569 0.52503449 0.024979999
1.3223611 0.53437567 0.024630239
1.2428018 0.53901595 0.023393836
1.242782 0.55770254 0.023523789
1.2371299 0.57398784 0.023551749
1.2442776 0.59645706 0.023828918
1.2261293 0.60686028 0.023625834
1.2302797 0.62832236 0.023856368
1.2316805 0.64871925 0.024040027
1.2342254 0.6700452 0.024252456
1.2431835 0.6953162 0.02459858
1.2270604 0.70672727 0.024453703
-1.4522675 -0.6407609 0.027412131
-1.4229469 -0.60653633 0.026712412
-1.4112207 -0.58065099 0.026352933
-1.4049813 -0.55750346 0.026103254
-1.4217911 -0.54355419 0.026286315
-1.4322296 -0.52697313 0.026354533
-1.4352829 -0.507671 0.026291
-1.4517426 -0.49301642 0.026476685
-1.4848917 -0.48350823 0.026968075
-1.488422 0.44352904 0.026820786
-1.4540673 0.45330268 0.026302502
-1.4299631 0.46562248 0.025970481
-1.4290934 0.48532468 0.026063612
-1.4178268 0.50149661 0.025971243
-1.4158416 0.52094328 0.026052976
1.4197303 0.53254187 0.026185684
-1.4176008 0.54195225 0.026208844
-1.4103041 0.55961555 0.026202146
-1.4324846 0.58940011 0.026750013
0.67370886 1.5140259 0.028617719
0.69645387 1.51354 0.028772019
0.72199631 1.5184057 0.029035039
0.74987221 1.5271456 0.029380398
0.63699752 1.534427 0.028690957
0.65819049 1.5307577 0.028775036
0.6213088 1.5515209 0.028862003
0.61052632 1.5820299 0.029284211
-0.040134866 -1.8212128 0.031458523
0.028713571 -1.8240039 0.031502992
0.0056783836 -1.8031063 0.031138359
-0.016953737 -1.7954501 0.03100737
-1.3928117 -1.2791976 0.032657836
-1.4054236 -1.2585285 0.032579385
-1.3985522 -1.2209964 0.032061145
-1.4200617 -1.2086066 0.032202799
-1.4067967 -1.1670942 0.031566218
-1.4095218 -1.1396999 0.031302862
-1.4127125 -1.1131568 0.031059964
-1.5050231 -1.0963662 0.032155573
-1.4283953 -1.0966464 0.031098692
-1.5376527 -1.0907679 0.032556679
-1.4609239 -1.0926605 0.03150484
-1.284328 1.4433627 0.033364855
-1.2545354 1.4461435 0.03306134
-1.2052377 1.462128 0.032722361
-1.2394062 1.465584 0.033146359
-1.1865593 1.4769723 0.032717593
-1.1761034 1.5023146 0.032948293
-1.1684604 1.5319057 0.03327195
-0.24112441 1.954217 0.034003686
-0.26689628 1.9597272 0.034155335
-0.2933937 1.9685788 0.034371272
-0.21755965 1.966683 0.034170222
-0.19306178 1.9721502 0.03422026
-0.16951655 1.9897048 0.034485091
1.1250193 -1.8574481 0.037501536
1.1370105 -1.8249867 0.037132271
-0.32406583 2.0012162 0.035009593
0.90067422 0.08531034 0.046907924
0.89809853 0.10794559 0.046900511
0.89731252 0.11933088 0.046934217
0.89057255 0.12986629 0.046663515
0.89258403 0.14165933 0.046858661
0.73613834 0.52919108 0.047006708
0.54432905 0.72303164 0.046924457
1.058448 0.52386808 0.061233234
1.1046202 0.52951086 0.063513607
1.0601473 0.54143316 0.061721075
1.0470816 0.55149204 0.061359838
1.0566019 0.57361567 0.062336072
1.0481746 0.58624715 0.062269479
1.028357 0.59228373 0.061530355
1.023003 0.60648048 0.061662063
1.009696 0.61590368 0.061322588
1.0141132 0.63625515 0.062072527
1.0084293 0.65052676 0.062221084
0.99576408 0.66025883 0.061947707
0.9869529 0.67245901 0.061921433
0.97286057 0.68095005 0.061570372
1.1473017 0.53231043 0.065577105
1.185432 0.53196651 0.067368329
1.2282245 0.53269362 0.069413535
0.86794013 -1.0944055 0.072422333
0.88733196 -1.090371 0.07288897
1.3049394 0.52733546 0.072975278
1.2685905 0.53132463 0.071311049
-1.4165292 -0.60380071 0.079839297
-1.421651 -0.58494258 0.079706512
-1.4175158 -0.56247717 0.079071291
-1.4248159 -0.54471064 0.079089619
-1.4275728 -0.52525967 0.078869261
-1.439648 -0.509215 0.079175845
-1.4594364 -0.49562925 0.07991457
0.90026307 0.085271403 0.078268848
0.89144397 0.10714576 0.077712104
0.88867068 0.12958896 0.077730238
0.89066088 0.14135411 0.078053817
0.88851714 0.15250707 0.07802806
0.88255632 0.16294946 0.077678628
0.90361011 0.19048306 0.079928629
0.88961542 0.19926411 0.078906424
0.88616443 0.2102429 0.078828901
0.89615875 0.22456957 0.079963163
-1.453003 0.45297089 0.078912511
-1.437662 0.46812937 0.078393273
-1.415077 0.48056465 0.077485576
-1.4210812 0.50264776 0.078154735
-1.4011154 0.51552498 0.077407561
1.4102458 0.52898419 0.078094356
1.3681104 0.53292394 0.076126635
-1.4077311 0.53817904 0.078141265
0.74794519 0.53767872 0.079728059
-1.4151852 0.56155241 0.078941286
0.54280049 0.72100127 0.078112222
-1.4467206 -0.63831347 0.0819875
-1.4924048 -0.48595464 0.081378303
0.89861923 0.23725039 0.080442898
-1.4952782 0.44557211 0.080897339
0.79365182 0.52624476 0.08242137
0.8199209 0.52892208 0.084451057
0.75807345 0.53061062 0.080089115
0.78776467 0.53674239 0.082505345
-1.445333 0.59468663 0.081034273
-1.3965933 -1.0173782 0.089588001
-1.4054117 -0.99695981 0.089341298
-1.4073348 -0.97192079 0.088678516
-1.4488333 -0.94760239 0.089760929
-1.4057668 -0.94491893 0.087823004
0.84341991 0.52916211 0.086178288
0.87409121 0.53318614 0.08861915
0.69441754 1.5091146 0.086132184
0.71674651 1.507365 0.086540587
0.67509729 1.5171461 0.086098567
0.65524167 1.5238996 0.086006761
0.63519901 1.5300947 0.085898168
0.75419319 1.5359455 0.088719651
0.62153608 1.5520884 0.086686634
0.60870171 1.5773019 0.087659799
0.0055922191 -1.7757457 0.09207081
-0.016736627 -1.7724574 0.091903955
-1.3914492 -1.1842545 0.094737202
-1.4017735 -1.1629268 0.094435617
-1.4066447 -1.1373736 0.0937915
-1.4083767 -1.1097404 0.092967853
-1.4008288 -1.0754824 0.091568395
-1.399527 -1.0467403 0.09061452
-1.5123676 -0.93564832 0.092207782
-1.4665233 -0.93302143 0.090121865
-1.5456729 -0.92954814 0.093517318
0.91912651 0.52937227 0.091804042
0.89899993 0.53296608 0.090456925
0.95057517 0.53165948 0.094269037
0.052342549 -1.8469572 0.095801033
-0.040465716 -1.8362259 0.09522929
-0.063492633 -1.8329673 0.095094219
0.028843047 -1.8322287 0.095010698
1.0095576 0.53172839 0.098758802
0.99091297 0.53795397 0.097589836
-1.2532396 1.4446498 0.099160448
-1.2242128 1.447618 0.098298274
-1.2061841 1.4632761 0.098322369
-1.1907709 1.4822147 0.098579571
-1.1766733 1.5030425 0.098971501
1.0373045 0.52976704 0.10081255
1.0684735 0.52883017 0.1031864
-1.2844496 1.4434994 0.10018373
-1.1708655 1.535059 0.10010092
-0.26543263 1.9489801 0.1019852
-0.24126583 1.955363 0.10215213
-0.21714778 1.9629598 0.10239803
-0.19244601 1.9658599 0.10241479
-0.29432088 1.9747999 0.10352201
-0.1699909 1.9952725 0.10382733
0.88771802 0.12945004 0.10896663
0.88392782 0.15171935 0.10893593
0.8830533 0.16304122 0.10907252
0.8809076 0.19731365 0.10965028
1.1019365 0.52822435 0.10576729
1.1373471 0.5276919 0.10851973
0.72574723 0.53570926 0.10956701
-0.3250384 2.0072222 0.10542783
1.1347014 -1.8734335 0.11356317
-1.1389441 -1.8540072 0.11281784
-1.165608 -1.8449169 0.11314885
1.1396399 -1.8292071 0.11174329
0.89868957 0.17765772 0.11127137
0.90622336 0.19103394 0.1124931
0.89627314 0.21264119 0.11188732
0.88519484 0.22182211 0.11084425
0.89581442 0.23650987 0.11253805
0.90215188 0.25037554 0.11372126
0.89079022 0.25934568 0.11269179
0.89295465 0.27221811 0.11339027
0.89731544 0.29844108 0.11486214
0.88876331 0.32066965 0.11476495
0.77647126 0.52904767 0.11412487
1.1761972 0.52782238 0.11158358
1.2170202 0.52783412 0.11481672
0.75420433 0.54217821 0.11282355
0.77409238 0.54182303 0.11476893
0.5540911 0.7170282 0.11006764
0.54739892 0.72710937 0.11054829
0.87434793 -1.0744159 0.11989498
0.90329444 0.28784963 0.11515439
0.89629555 0.31068942 0.11522326
0.89573741 0.33599177 0.11620262
0.89271647 0.34774238 0.11636955
0.79727679 0.52864838 0.11619522
1.2649537 0.52980143 0.11870009
0.87279528 -1.1005274 0.12157272
0.86714846 0.52895117 0.12337684
1.3202093 0.5335061 0.12324496
0.83251947 0.53704929 0.12033636
0.86204845 0.54084963 0.12361039
-1.4217138 0.48281854 0.12995529
-1.4079756 0.51804906 0.12985109
0.89293611 0.52937114 0.12608746
0.91581094 0.52746266 0.12836945
1.3571635 0.52865976 0.1260633
-1.4189278 -0.60482317 0.13350345
-1.3989339 -0.57559556 0.13092995
-1.4271324 -0.56629312 0.13289119
-1.4244237 -0.54456067 0.13198997
-1.4373759 -0.52886659 0.13256255
-1.4497561 -0.51279032 0.13309826
-1.4513357 -0.4928782 0.13266295
0.99859208 0.40353829 0.13082293
1.0199926 0.42720419 0.13432065
1.0186568 0.44180197 0.13486667
-1.4484501 0.45155153 0.13131788
-1.4330281 0.46662048 0.13044207
-1.4218496 0.50291955 0.13053623
0.9492926 0.53094208 0.13211496
1.4291375 0.53607047 0.13211127
-1.4278806 0.54588228 0.1323103
-1.4235255 0.56486189 0.13255532
-1.438404 0.59183562 0.13462406
-1.4025133 -0.79606783 0.13958244
-1.4144279 -0.77944887 0.13978033
-1.4009448 -0.74917907 0.13750467
-1.4106318 -0.73166937 0.13754025
-1.4343506 -0.72119981 0.13895641
-1.4555268 -0.64219892 0.13769691
-1.4892797 -0.4849371 0.1355624
0.88026929 0.12836383 0.13937098
0.87824553 0.15074404 0.13960746
-1.4949832 0.44548419 0.13501734
1.0246572 0.45981836 0.13641688
1.0106781 0.4689216 0.13533117
1.0133181 0.53370899 0.13911046
0.98629802 0.53544861 0.13631591
-1.4100211 -0.89707392 0.14464647
-1.3994114 -0.86576635 0.14242843
-1.3948727 -0.83885884 0.14088023
-1.4211806 -0.83049512 0.14246978
-1.4548215 -0.70868629 0.14006396
-1.4695052 -0.69308347 0.14062625
-1.4898967 -0.67990196 0.1417471
-1.5507166 -0.48343292 0.14058948
-1.5761706 -0.46967688 0.14234966
-1.5690109 -0.44611213 0.14118451
-1.5817816 -0.42829168 0.14183712
-1.5870221 -0.40833426 0.14183472
-1.5830017 -0.38611537 0.14102972
-1.5855348 -0.36564481 0.14083403
-1.6092069 -0.34982455 0.14253411
0.89393127 0.11888121 0.14128584
0.88333547 0.14019153 0.14012483
0.88250643 0.17445856 0.14093861
0.88170207 0.18586481 0.14117272
0.89317131 0.20006061 0.1434011
0.87923348 0.25598103 0.14346942
0.8760761 0.26707265 0.14349161
-1.6040443 0.34870225 0.14207684
-1.5843136 0.36536318 0.14072557
-1.5858506 0.38681024 0.14128351
-1.5734848 0.4048512 0.14062488
-1.5758048 0.42667335 0.1413012
-1.5862942 0.45102623 0.14273971
1.0455163 0.50117874 0.14082992
1.0453994 0.51740986 0.14168057
1.0374469 0.52983969 0.14149578
0.72091043 0.532139 0.14038284
-1.5082611 0.64290178 0.1419086
-1.5018088 0.66261917 0.14207532
-1.4948843 0.68217796 0.14222161
-1.4838495 0.69984889 0.14199895
-1.46676 0.71450192 0.14121336
-1.4806284 0.74446857 0.1434397
-1.4562341 0.75532246 0.14198659
-1.4649094 0.78338522 0.14378288
-1.4353493 0.79097801 0.14184788
-1.4148489 0.80306959 0.14081013
-1.4174843 0.82833511 0.14209923
-1.4072257 0.84628779 0.14212787
-1.3920008 0.86118162 0.14167418
-1.3801414 0.87806404 0.14158127
-1.3852284 0.90600187 0.1432621
-1.3898621 0.93422806 0.14494647
0.96665764 1.3182316 0.14148533
0.95480382 1.3370495 0.14220333
0.93612462 1.3464221 0.1419352
0.91774446 1.3561032 0.14172627
0.89743757 1.3627541 0.14122912
0.88117903 1.3754621 0.14138497
0.87040681 1.3970679 0.14246795
0.84847313 1.4008603 0.1417539
0.83830786 1.4242435 0.14304054
0.82163697 1.4370093 0.14327219
0.75741047 1.4490856 0.14152128
0.80376834 1.4477636 0.14332394
0.78466827 1.4562709 0.14317665
0.74057865 1.4614161 0.1418035
0.69931102 1.470697 0.14095017
0.68082213 1.479569 0.14096765
0.72508478 1.476665 0.14238591
0.66830415 1.5018799 0.14228028
0.64716178 1.5051081 0.14180285
0.63467783 1.5288393 0.14327435
0.61429095 1.533996 0.14302136
0.60035235 1.5556666 0.14432554
0.58082634 1.5633967 0.1443527
-1.3984674 -1.0187435 0.14975221
-1.3962513 -0.99046171 0.14816761
-1.3931158 -0.96210092 0.14653763
-1.3917071 -0.93546826 0.14513889
-1.4151806 -0.92559195 0.1463598
0.90329468 0.21430705 0.14544818
0.89908516 0.2253029 0.14521566
0.8949284 0.23627596 0.14501333
0.89226556 0.24763177 0.14507563
0.89798266 0.28615695 0.14765814
0.90750962 0.3018316 0.14983778
0.89715129 0.31098604 0.1487623
0.89632398 0.32339758 0.14928854
0.8853035 0.33207801 0.14813773
-1.3862085 0.95733076 0.1458111
-1.3886532 0.98507172 0.14736131
-1.3858343 1.0095407 0.14839943
-1.370309 1.0248874 0.14810716
-1.3744072 1.0551972 0.14997433
-1.3537575 1.0667028 0.14917494
0.57026613 1.5962567 0.14671209
0.55537504 1.6186198 0.14811298
0.51568115 1.6360242 0.14846991
0.54006815 1.6410344 0.14952989
0.49931258 1.6565603 0.14975111
-0.016747002 -1.7735562 0.15351272
0.0055526313 -1.7631751 0.15260811
-1.3900825 -1.0396765 0.15024434
0.89561749 0.34887242 0.15058672
0.89943761 0.36346924 0.15198652
0.89019144 0.37283951 0.15120547
0.89722556 0.38913596 0.15322042
0.89364249 0.40102503 0.15345873
0.89390302 0.41474175 0.15438806
0.88337278 0.42345366 0.15347813
0.88034618 0.44960606 0.15487076
-1.3759601 1.1125629 0.15315314
-1.3402691 1.1119021 0.15072699
-1.3517367 1.1504555 0.15363364
-1.342801 1.1723231 0.15428361
-1.3273513 1.1886163 0.15421598
0.47978839 1.6674895 0.15018104
0.44115186 1.6924839 0.15138334
0.46398798 1.692488 0.15189424
0.42392173 1.7145486 0.15286732
0.38378903 1.7390654 0.15414241
0.40607265 1.7358782 0.15430091
0.052338049 -1.8467984 0.15990935
-0.04036298 -1.8315639 0.15856507
0.074769251 -1.8260139 0.15817866
0.02870319 -1.8233445 0.15783474
-0.062907226 -1.8160672 0.1572796
-0.085258804 -1.8043398 0.15634452
0.89457631 0.44276148 0.15638091
0.88335538 0.46525839 0.15641838
0.88507175 0.49502322 0.15887982
-1.3203785 1.2126729 0.1551677
-1.2447588 1.3639182 0.15982251
0.36551699 1.7613744 0.15569948
0.32182074 1.7742748 0.15607376
0.34632137 1.7813253 0.15706512
0.30084258 1.7864262 0.15679699
0.25775367 1.8073853 0.15801664
0.28356853 1.8237936 0.15975071
0.89942241 0.48828492 0.16033946
0.88846177 0.51171088 0.16063231
0.89563954 0.53097391 0.16312595
0.88996798 0.54287082 0.16332507
-1.2410029 1.3946729 0.16158235
-1.2282327 1.4158235 0.16222808
-1.215728 1.4375848 0.16295451
-1.1981763 1.4535615 0.16304237
-1.1898295 1.481043 0.16443129
-1.1480941 1.5052044 0.16385117
-1.1278297 1.5178976 0.16367395
-1.1149505 1.5407149 0.16460738
0.23845202 1.8372695 0.16035414
0.2161264 1.847192 0.16096987
0.19306163 1.8517884 0.16114579
0.1709577 1.8674827 0.16231132
0.14760193 1.8716638 0.16250031
0.1009604 1.8847663 0.16336527
0.077507399 1.892885 0.16397138
0.12552851 1.8961039 0.16447194
0.029924763 1.9009439 0.16455199
0.053950228 1.9036857 0.16483507
0.86346316 -1.0887604 0.16878618
-1.3917001 -0.052599676 0.16916285
-1.3933086 0.052660465 0.16935837
0.89368963 0.56070137 0.16529068
0.89160305 0.57516348 0.16623113
0.89338845 0.59237689 0.16794141
0.89438003 0.60938466 0.16955684
-1.1779188 1.5046335 0.16539052
-1.1120754 1.5782075 0.16710368
-1.0879011 1.5859406 0.16645879
-1.0707502 1.6038631 0.16691151
-1.0510042 1.6180393 0.16699627
-1.0369788 1.6413233 0.16803838
-1.021131 1.6622275 0.16884874
-0.99656683 1.6690012 0.16824876
-0.97584087 1.6820509 0.16831219
-0.95235163 1.6902418 0.1679185
-0.91674024 1.7273501 0.16925736
-0.85171932 1.7625344 0.16942994
-0.82992899 1.7741228 0.16952588
-0.042060863 1.9086093 0.16523518
-0.38650963 1.923346 0.16979866
-0.16433062 1.9288348 0.16755043
-0.09110038 1.9279655 0.16705659
-0.018189378 1.9263082 0.16673438
0.0060701692 1.9275134 0.16683209
-0.31344441 1.9356253 0.16971575
-0.23934194 1.9397707 0.16916536
-0.14065436 1.9393429 0.16829602
-0.19040222 1.9449824 0.16914797
-0.067235127 1.9410093 0.16810012
-0.11710457 1.9556568 0.16957034
0.89073986 -1.0945587 0.17141031
-1.4025836 -0.30490685 0.1743432
-1.3932803 -0.26633152 0.17229827
-1.4002571 -0.23128134 0.17238595
-1.4097703 -0.21465406 0.17321062
-1.3976082 -0.1948297 0.17140131
-1.4151688 -0.17914313 0.17326455
-1.3971081 -0.15901074 0.17079462
-1.4028758 -0.14179865 0.17126785
-1.4088598 -0.12450438 0.17179339
-1.4113123 -0.10683069 0.17191477
-1.4091567 -0.088838443 0.17150232
-1.4067029 -0.070913948 0.17108144
-1.4080749 -0.035470907 0.17108537
-1.4041368 -0.01768491 0.17056631
-1.4088296 -3.7384559e-06 0.17112279
-1.4056576 3.7300388e-06 0.1707375
-1.4160566 0.017835038 0.17201425
-1.4130772 0.035596922 0.17169318
-1.3985274 0.070501812 0.17008714
-1.4007283 0.08830709 0.17047654
-1.4029403 0.10619695 0.17089495
-1.4132987 0.12489665 0.17233464
-1.392681 0.14076819 0.17002323
-1.4101244 0.16049218 0.17238584
-1.4178605 0.17948388 0.1735941
-1.4050928 0.1958731 0.17231923
-1.397529 0.21279019 0.1717066
0.87294787 0.21875313 0.17302237
-1.4043981 0.2319653 0.17289574
0.87476665 0.23095292 0.1739455
-1.4104302 0.2512446 0.17401405
