# .PCD v0.7 - Point Cloud Data file format
VERSION 0.7
FIELDS x y z intensity
SIZE 4 4 4 4
TYPE F F F F
COUNT 1 1 1 1
WIDTH 1200
HEIGHT 1
VIEWPOINT 0 0 0 1 0 0 0
POINTS 1200
DATA ascii
-1.4025235 -3.7217224e-06 -0.050071899 0
-0.89527327 -2.3756879e-06 0.16146137 0
-1.4044452 -0.017688794 -0.050144479 0
-0.88708222 -0.011172678 0.15999681 0
-1.4041828 -0.035372861 -0.050147042 0
-0.88630617 -0.022326998 0.15989487 0
-1.4150279 -0.053481352 -0.050554387 0
-0.88992637 -0.033635002 0.16061164 0
-1.4105079 -0.071105771 -0.050420899 0
-0.89842826 -0.045291085 0.096676067 0
-0.90185195 -0.045463677 0.16285436 0
-1.3894544 -0.087596335 -0.049703795 0
-0.90632707 -0.057138205 0.16377941 0
-1.397784 -0.10580666 -0.050045457 0
-0.89822805 -0.067992263 0.096808098 0
-0.91347784 -0.069146611 0.16521583 0
-1.3902718 -0.12286171 -0.049827933 0
-0.90168774 -0.079684339 0.097281404 0
-0.88359672 -0.078085594 0.15997656 0
-1.3793291 -0.13941862 -0.04949474 0
-0.89161277 -0.090121649 0.096309237 0
-0.89169079 -0.090129547 0.16163467 0
-1.4015146 -0.15951225 -0.05035891 0
-0.90042782 -0.10248147 0.097393088 0
-0.89503044 -0.10186717 0.16245969 0
-1.3825626 -0.1750156 -0.049753178 0
-0.89506799 -0.11330471 0.096959986 0
-0.89548081 -0.11335697 0.16278762 0
-1.3988677 -0.1950053 -0.050424304 0
-0.9069078 -0.12642498 0.03269086 0
-0.8959499 -0.12489742 0.16314586 0
-1.3859452 -0.21102642 -0.050050307 0
-0.8985064 -0.13680814 0.097674765 0
-0.89365774 -0.13606988 0.16302755 0
-1.3858755 -0.2289059 -0.050147906 0
-0.89179921 -0.14729904 0.032269757 0
-0.89357978 -0.14759313 0.097333528 0
-0.91055942 -0.15039766 0.16644317 0
-1.3791697 -0.24567607 -0.050013233 0
-0.90014035 -0.16034499 0.032642055 0
-0.8892206 -0.15839982 0.097068265 0
-0.89537656 -0.15949641 0.16402198 0
-1.3754396 -0.26292121 -0.04999407 0
-0.8969329 -0.17145258 0.032601446 0
-0.89783567 -0.17162515 0.098236822 0
-0.88039494 -0.16829129 0.16165292 0
-1.3712703 -0.28006569 -0.049966749 0
-0.90521044 -0.18487848 0.03298432 0
-0.89814192 -0.18343483 0.09851525 0
-0.87847519 -0.17941813 0.16170244 0
-1.3695177 -0.29771864 -0.050035521 0
-0.89122438 -0.19374275 0.032561008 0
-0.90781254 -0.19734885 0.099840663 0
-0.89869487 -0.19536676 0.16586401 0
-1.3558776 -0.3126829 -0.049677093 0
-0.89258438 -0.20584148 0.0327028 0
-0.91275591 -0.2104933 0.10066786 0
-0.88790172 -0.20476159 0.16433485 0
-1.3533196 -0.33009282 -0.04973172 0
-0.89778483 -0.21898177 0.032991752 0
-0.90003484 -0.21953058 0.099561848 0
-0.89951962 -0.21940491 0.16698322 0
-1.3423026 -0.34536892 -0.049482759 0
-0.87568462 -0.22531006 0.032281313 0
-0.89880568 -0.231259 0.099740103 0
-0.89214838 -0.22954611 0.16613826 0
-1.3689222 -0.37065673 -0.050632115 0
-0.8908335 -0.24120685 0.03294912 0
-0.89515734 -0.24237761 0.099666029 0
-0.89770162 -0.2430665 0.16772908 0
-1.357173 -0.38588092 -0.050373275 0
-0.89286929 -0.25386685 0.033140026 0
-0.89131731 -0.25342557 0.099585898 0
-0.89659113 -0.25492507 0.16810805 0
-1.3412796 -0.39968264 -0.049966212 0
-0.89727592 -0.26737574 0.033425901 0
-0.89149696 -0.2656537 0.099971794 0
-0.89126748 -0.2655853 0.16772363 0
-1.3408141 -0.4179962 -0.050140973 0
-0.88535255 -0.27600694 0.033108573 0
-0.87967253 -0.2742362 0.099025205 0
-0.89699918 -0.27963775 0.16945148 0
-1.3260778 -0.43179551 -0.049789283 0
-0.88581795 -0.28843874 0.033259165 0
-0.89051855 -0.28996935 0.10064921 0
-0.90025973 -0.29314125 0.1707512 0
-1.3192922 -0.44803584 -0.049742393 0
-0.88368279 -0.30010149 0.03331824 0
-0.89492261 -0.3039186 0.10157146 0
-0.88843191 -0.30171433 0.16921502 0
-1.3204962 -0.46707004 -0.050005574 0
-0.97122872 -0.34353134 0.036779243 0
-0.97151721 -0.34363338 0.11074708 0
-0.97083008 -0.34339035 0.18571782 0
-1.3061483 -0.48058286 -0.049687468 0
-1.0849606 -0.39919928 0.041273218 0
-1.0784677 -0.39681032 0.1234986 0
-1.3040239 -0.49853152 -0.049841505 0
-1.2165619 -0.4650946 0.046498593 0
-1.2166637 -0.46513355 0.13998345 0
-1.2918559 -0.51261479 -0.049619216 0
-1.3840961 -0.54921615 0.05316209 0
-1.3899021 -0.55151999 0.16070172 0
-1.2983923 -0.53422737 -0.050124679 0
-1.617503 -0.66552651 0.062444013 0
-1.6226765 -0.66765511 0.18857242 0
-1.2833537 -0.5470342 -0.049806092 0
-1.9045714 -0.81183052 0.22250198 0
-1.2788326 -0.56423891 -0.049902413 0
-1.8937715 -0.83555865 0.22245182 0
-1.2613566 -0.57560956 -0.049499381 0
-1.8912251 -0.8630448 0.22341155 0
-1.2703223 -0.59914005 -0.050143316 0
-1.89259 -0.89262891 0.22488277 0
-1.2567328 -0.6121915 -0.049907234 0
-1.881902 -0.91672975 0.2249666 0
-1.2585447 -0.63280362 -0.050291643 0
-1.8795484 -0.94504786 0.22608991 0
-1.2474486 -0.64702916 -0.050169837 0
-1.8875506 -0.9790386 0.22851734 0
-1.2331825 -0.65946537 -0.049926106 0
-1.2269694 -0.67614609 -0.050015293 0
-1.2324915 -0.69956332 -0.050595466 0
-1.217805 -0.71164858 -0.050356448 0
-1.2064167 -0.72552383 -0.050259329 0
-1.1952956 -0.73948711 -0.050179973 0
-1.1736114 -0.74666703 -0.049660422 0
-1.1618754 -0.75991887 -0.049564797 0
-1.9042616 -1.245473 0.081234477 0
-1.1651405 -0.7831763 -0.050120816 0
-1.8836983 -1.2661717 0.081030995 0
-1.1622328 -0.80265057 -0.050426513 0
-1.8891416 -1.3046618 0.081965357 0
-1.1475563 -0.81404442 -0.050230507 0
-1.8830876 -1.3358097 0.082425974 0
-1.1367804 -0.82811189 -0.050211284 0
-1.120183 -0.83781213 -0.04994021 0
-1.1127472 -0.85430855 -0.050084334 0
-1.0919815 -0.86043453 -0.04963341 0
-1.0950048 -0.88539022 -0.050273594 0
-1.0719118 -0.88926989 -0.049723525 0
-1.0702829 -0.9109118 -0.050176073 0
-1.0549592 -0.92102486 -0.04999743 0
-1.0357738 -0.92751449 -0.049637768 0
-1.0273516 -0.94354874 -0.049799595 0
-1.0261743 -0.9665677 -0.050328523 0
-0.99689591 -0.96296459 -0.049483355 0
-0.98702437 -0.9777509 -0.049600564 0
-0.97860676 -0.99413592 -0.049802691 0
-0.9718169 -1.0124266 -0.050101973 0
-0.93847555 -1.0026628 -0.049030092 0
-0.95110935 -1.0421579 -0.050371751 0
-0.92848021 -1.0434513 -0.049865212 0
-0.92489302 -1.066154 -0.050389577 0
-0.90265954 -1.0673848 -0.049906582 0
-0.88749373 -1.0766585 -0.04981371 0
-0.86635655 -1.0783992 -0.049385589 0
-0.8654905 -1.1055481 -0.050125815 0
-0.85405678 -1.1197079 -0.050276227 0
-0.83702046 -1.12651 -0.050104417 0
-0.82322693 -1.1375912 -0.050132245 0
-0.80801791 -1.1467026 -0.050081413 0
-0.79829395 -1.1637517 -0.050383002 0
-0.78036922 -1.1689051 -0.050176702 0
-0.75850219 -1.1677274 -0.049712203 0
-0.74160552 -1.1738085 -0.049569603 0
-0.73135859 -1.1905273 -0.049882773 0
-0.71584862 -1.1988682 -0.049850613 0
-0.70546299 -1.2160022 -0.050189707 0
-0.6860525 -1.2176119 -0.049895622 0
-0.66811711 -1.2214918 -0.049705926 0
-0.65476233 -1.2337233 -0.049864195 0
-0.64180672 -1.2469804 -0.050069399 0
-0.62563097 -1.254113 -0.050035499 0
-0.60125214 -1.2442217 -0.049334891 0
-0.5997206 -1.2820109 -0.050529838 0
-0.58159739 -1.2851876 -0.050362397 0
-0.56101733 -1.2824606 -0.049974736 0
-0.54375184 -1.2868826 -0.049876288 0
-0.52693921 -1.292239 -0.049822763 0
-0.51289588 -1.3045433 -0.050044183 0
-0.54453135 -1.3850075 0.2683962 0
-0.52477509 -1.3347577 0.36591366 0
-0.49565467 -1.3088518 -0.049966078 0
-0.52591252 -1.3887523 0.26781732 0
-0.50368732 -1.3300632 0.36285919 0
-0.5311144 -1.4024886 0.49893665 0
-0.47418281 -1.3013967 -0.049449608 0
-0.50750738 -1.3928561 0.26735511 0
-0.48548007 -1.3324021 0.36180079 0
-0.51028967 -1.4004922 0.49590117 0
-0.46712074 -1.333999 -0.050460905 0
-0.48599631 -1.3879037 0.26520881 0
-0.47535208 -1.357506 0.36696306 0
-0.4873946 -1.391897 0.49064559 0
-0.44140998 -1.3133622 -0.049466107 0
-0.46857601 -1.3941915 0.26526183 0
-0.48196733 -1.4340358 0.3859795 0
-0.47340208 -1.408551 0.49437562 0
-0.4315533 -1.3396617 -0.050247986 0
-0.45742756 -1.4199827 0.26905164 0
-0.44791234 -1.3904446 0.4860025 0
-0.40997908 -1.3298347 -0.04968182 0
-0.44209045 -1.4339932 0.27063006 0
-0.43317682 -1.4050803 0.48917279 0
-0.39629185 -1.3453799 -0.050072182 0
-0.41480863 -1.4082431 0.48841667 0
-0.37834886 -1.3468045 -0.049943924 0
-0.38937557 -1.3860562 0.47898316 0
-0.36085844 -1.3495822 -0.049874473 0
-0.38242665 -1.4302456 0.49255064 0
-0.34407225 -1.3549454 -0.049908601 0
-0.35934305 -1.4150813 0.48573151 0
-0.32682326 -1.3584999 -0.04988398 0
-0.32667539 -1.3578851 0.049861409 0
-0.34307006 -1.4260325 0.48796901 0
-0.30831829 -1.3564627 -0.049662676 0
-0.30819917 -1.3559386 0.04964349 0
-0.32103953 -1.4124304 0.481893 0
-0.29204568 -1.3641204 -0.049804449 0
-0.28920177 -1.3508366 0.049319461 0
-0.30149424 -1.4082537 0.47913474 0
-0.27503288 -1.3686163 -0.049838204 0
-0.27208912 -1.3539677 0.049304772 0
-0.28118464 -1.3992287 0.47482184 0
-0.26068071 -1.3874171 -0.050399303 0
-0.25380805 -1.3508387 0.049070559 0
-0.26279998 -1.3986963 0.47348064 0
-0.2398883 -1.3717054 -0.049714889 0
-0.23253302 -1.3296471 0.048190568 0
-0.24499048 -1.4008801 0.47313809 0
-0.22506936 -1.3898795 -0.050266873 0
-0.22131044 -1.3666669 0.04942736 0
-0.22688176 -1.4010717 0.47220039 0
-0.20732911 -1.3911127 -0.050213072 0
-0.39107198 -2.6239693 0.094713792 0
-0.20869982 -1.4003098 0.47102058 0
-0.18773457 -1.3784702 -0.049667466 0
-0.35635135 -2.616565 0.094277084 0
-0.19193956 -1.4093459 0.47320956 0
-0.17143169 -1.3893853 -0.049979005 0
-0.32089466 -2.6007228 0.093553275 0
-0.17265354 -1.3992878 0.46906525 0
-0.15238483 -1.3775195 -0.04947922 0
-0.29001069 -2.6216216 0.094166212 0
-0.15457012 -1.3972739 0.46770057 0
-0.13565171 -1.3856992 -0.049707729 0
-0.25688559 -2.6241181 0.09413223 0
-0.13766663 -1.4062817 0.4700982 0
-0.11900001 -1.3967657 -0.050046988 0
-0.22345011 -2.6227515 0.093974821 0
-0.11891387 -1.3957547 0.46604168 0
-0.10115122 -1.3946735 -0.049922425 0
-0.19091924 -2.632395 0.094226748 0
-0.101549 -1.4001579 0.46704796 0
-0.082950905 -1.3852875 -0.049545139 0
-0.15729129 -2.6267788 0.093947366 0
-0.083577491 -1.3957516 0.46519017 0
-0.066343248 -1.4040281 -0.050181542 0
-0.12386415 -2.6213481 0.093689926 0
-0.06637989 -1.4048035 0.46789142 0
-0.048069116 -1.3877062 -0.049572613 0
-0.048985936 -1.4141738 0.47076955 0
-0.030732637 -1.3945647 -0.049799848 0
-0.030822078 -1.3986233 0.4654268 0
-0.013193373 -1.3972166 -0.049884658 0
-0.013257405 -1.4039978 0.4671227 0
0.0044218875 -1.4041202 -0.050129153 0
0.0044006053 -1.3973624 0.46489662 0
0.022088056 -1.403124 -0.050099544 0
0.022206808 -1.4106675 0.46937901 0
0.039880518 -1.4072224 -0.050259825 0
0.039570402 -1.3962797 0.46472061 0
0.05768656 -1.4088206 -0.050338861 0
0.057292528 -1.3991976 0.46589497 0
0.074597821 -1.39262 -0.049789611 0
0.07597588 -1.4183462 0.472552 0
0.092492208 -1.3970916 -0.049987156 0
0.092661515 -1.399649 0.46667442 0
0.11007062 -1.3957486 -0.049984735 0
0.1096762 -1.3907473 0.46413007 0
0.12757811 -1.3936191 -0.049962044 0
0.1283989 -1.402585 0.46858308 0
0.14387763 -1.3800304 -0.049535904 0
0.14694339 -1.4094363 0.47145277 0
0.16344693 -1.3969505 -0.050213143 0
0.16409901 -1.4025236 0.46979445 0
0.1807175 -1.3924258 -0.050128326 0
0.18283843 -1.4087675 0.47261962 0
0.19489485 -1.3666151 -0.049283568 0
0.19957185 -1.3994105 0.47028631 0
0.21447913 -1.3794397 -0.0498395 0
0.21819983 -1.4033697 0.47250277 0
0.23196037 -1.3773984 -0.049867325 0
0.23445526 -1.3922131 0.46970323 0
0.25136635 -1.3858428 -0.050283659 0
0.25592053 -1.4109511 0.47707444 0
0.26684809 -1.3725497 -0.049919292 0
0.27247888 -1.4015119 0.4750053 0
0.28705421 -1.3832734 -0.05043678 0
0.28805774 -1.3881092 0.4716548 0
0.30191875 -1.3680861 -0.050017681 0
0.31173563 -1.4125694 0.48126155 0
0.31879616 -1.3627889 -0.049966816 0
0.33018535 -1.4114753 0.48226714 0
0.33527035 -1.3559986 -0.049868688 0
0.35266793 -1.4263631 0.4888325 0
0.35324994 -1.3552473 -0.050000682 0
0.36765331 -1.410506 0.48494625 0
0.36746559 -1.3404034 -0.049619816 0
0.38735396 -1.4129503 0.48742497 0
0.38968864 -1.3543506 -0.050313782 0
0.40150222 -1.3954084 0.48307934 0
0.40294853 -1.3368551 -0.049848374 0
0.42359766 -1.4053624 0.4883332 0
0.42341977 -1.3433206 -0.050284281 0
0.43872711 -1.3918839 0.48553088 0
0.44347653 -1.3475341 -0.050647028 0
0.45909807 -1.3950012 0.48859617 0
0.45591381 -1.3287438 -0.050152596 0
0.48286954 -1.4073052 0.49499607 0
0.46931115 -1.3136692 -0.049802717 0
0.50358689 -1.4096119 0.49799833 0
0.49098679 -1.3215777 -0.050332937 0
0.52226585 -1.4057708 0.49892512 0
0.50138652 -1.2992208 -0.049717978 0
0.54284501 -1.4066504 0.50162363 0
0.51797408 -1.2934753 -0.049743768 0
0.53273344 -1.2832713 -0.049605403 0
0.55386484 -1.2881269 -0.050058722 0
0.56669891 -1.2735424 -0.049765319 0
0.64310348 -1.4452465 0.056474876 0
0.63767451 -1.433046 0.16856755 0
0.63783675 -1.4334105 0.28295219 0
0.63472998 -1.4264287 0.39833134 0
0.58977467 -1.2817038 -0.050370447 0
0.64155114 -1.3942249 0.054792479 0
0.64420789 -1.3999987 0.16562131 0
0.64469969 -1.4010674 0.27814817 0
0.6433996 -1.398242 0.39269152 0
0.59945041 -1.2606835 -0.049837057 0
0.66672719 -1.402171 0.055430304 0
0.66145635 -1.3910861 0.16553918 0
0.66153032 -1.3912417 0.27782923 0
0.6690852 -1.40713 0.39752236 0
0.61492544 -1.252321 -0.049808625 0
0.63535041 -1.2537646 -0.050180268 0
0.64598739 -1.2359098 -0.049787272 0
0.65370423 -1.2132139 -0.049200695 0
0.67438889 -1.2147226 -0.049602333 0
0.68795443 -1.2032042 -0.049481798 0
0.7105636 -1.2072123 -0.05001064 0
0.71811593 -1.1856357 -0.049487479 0
0.40554067 -0.66956252 0.46423844 0
0.73964685 -1.1871884 -0.049937081 0
0.70707542 -1.1349088 0.047738027 0
0.70932937 -1.1385266 0.14416079 0
0.41450214 -0.66530687 0.46486986 0
0.75826085 -1.1835949 -0.050183576 0
0.71133274 -1.1103432 0.047077756 0
0.71407783 -1.1146281 0.14226204 0
0.77159166 -1.1716577 -0.050085429 0
0.70680571 -1.0732807 0.045880057 0
0.70195568 -1.0659159 0.13716209 0
0.78533643 -1.1604508 -0.050025128 0
0.71010709 -1.0492883 0.045233097 0
0.71028644 -1.0495533 0.13619667 0
0.80677348 -1.1603771 -0.050455894 0
0.70896584 -1.0197011 0.044338975 0
0.70602661 -1.0154735 0.13291742 0
0.81875616 -1.1465366 -0.050298389 0
0.70785934 -0.9912433 0.043485697 0
0.70515513 -0.98745656 0.13040213 0
0.83081859 -1.1329879 -0.050158989 0
0.70669276 -0.96371734 0.042665146 0
0.70954549 -0.96760762 0.1289506 0
0.84285027 -1.119557 -0.050030291 0
0.70271409 -0.93341428 0.041712023 0
0.71311337 -0.94722766 0.1274212 0
0.46777087 -0.6213395 0.46123439 0
0.85606343 -1.1077991 -0.049982611 0
0.70646727 -0.91421241 0.041248206 0
0.70756316 -0.91563052 0.12435944 0
0.4785502 -0.61927354 0.46413723 0
0.8664574 -1.092536 -0.049782287 0
0.71349895 -0.89966708 0.040994063 0
0.70358956 -0.8871721 0.12168793 0
0.54767412 -0.69057482 0.3649253 0
0.50362211 -0.63502866 0.40552154 0
0.49110982 -0.61925155 0.46871853 0
0.87520093 -1.0754641 -0.049502637 0
0.7052747 -0.86665541 0.039891362 0
0.70876974 -0.87095022 0.12067749 0
0.56162536 -0.69013631 0.36840156 0
0.53729081 -0.6602335 0.42590374 0
0.50520486 -0.62080562 0.47467238 0
0.90004778 -1.0779827 -0.050136264 0
0.71597058 -0.85751426 0.039882425 0
0.71403027 -0.85519034 0.11973014 0
0.70280141 -0.84174162 0.1977644 0
0.56570256 -0.67753905 0.36545059 0
0.54734582 -0.65555328 0.42729685 0
0.52108508 -0.62410092 0.48217082 0
0.90458268 -1.0560957 -0.049644154 0
0.72979081 -0.85202706 0.040051449 0
0.73474097 -0.85780632 0.12138209 0
0.58497137 -0.68295109 0.37231335 0
0.57505339 -0.67137194 0.44229245 0
0.53252202 -0.6217168 0.48547101 0
0.92585224 -1.0537773 -0.050079238 0
0.75338721 -0.85748279 0.040750626 0
0.75298738 -0.85702771 0.12260389 0
0.58009368 -0.6602453 0.4397397 0
0.54283237 -0.61783558 0.48773921 0
0.94059402 -1.0437527 -0.050161734 0
0.65524411 -0.72710735 0.034944065 0
0.7603544 -0.84374547 0.1220638 0
0.56450397 -0.62641531 0.50008422 0
0.95312166 -1.0312426 -0.050133333 0
0.62316358 -0.67424005 0.098669022 0
0.62175614 -0.67271727 0.16520661 0
0.62465876 -0.67585778 0.23480219 0
0.61804456 -0.66870147 0.30294189 0
0.60565722 -0.65529883 0.36945307 0
0.61266249 -0.66287833 0.45162821 0
0.57071632 -0.61749411 0.49865988 0
0.96650922 -1.0196648 -0.050158169 0
0.62047315 -0.65459752 0.096930213 0
0.6196506 -0.6537298 0.16244698 0
0.62703085 -0.66151595 0.23254426 0
0.61068428 -0.6442703 0.29533416 0
0.6101234 -0.64367861 0.36720407 0
0.62009877 -0.65420258 0.45100155 0
0.97290283 -1.0008627 -0.049831968 0
0.6349625 -0.65321046 0.032522704 0
0.82521898 -0.84893471 0.1272355 0
0.99390304 -0.99703538 -0.050260555 0
0.85444999 -0.85714281 0.13006799 0
1.0006529 -0.97884142 -0.049974624 0
0.86947948 -0.85052723 0.13071515 0
1.0236558 -0.97642553 -0.050505377 0
0.88584626 -0.84497434 0.13156566 0
1.0203719 -0.94904524 -0.049749792 0
0.92096442 -0.85658652 0.1351687 0
1.0347267 -0.93837684 -0.049869608 0
0.9491809 -0.86079669 0.1377082 0
1.0486373 -0.92719913 -0.049973369 0
0.96161956 -0.85025853 0.13794856 0
1.0499576 -0.90506822 -0.049489245 0
0.98892647 -0.85245913 0.14031483 0
1.0724396 -0.90116173 -0.050010093 0
1.0816681 -0.88592178 -0.049916271 0
1.0887343 -0.86903679 -0.049733412 0
1.0969669 -0.85321909 -0.049614765 0
1.1235018 -0.851372 -0.050326038 0
1.1247407 -0.83022577 -0.049909286 0
1.1262579 -0.80963802 -0.04952028 0
1.1413957 -0.79891557 -0.049739603 0
1.1540506 -0.78631079 -0.049855638 0
1.1715163 -0.77679443 -0.05018362 0
1.1753981 -0.75823659 -0.049936946 0
1.1909788 -0.7472207 -0.050195165 0
1.2125456 -0.7396397 -0.050707567 0
1.2066953 -0.71538121 -0.050082229 0
1.2138633 -0.6991263 -0.050010379 0
1.2145152 -0.67928189 -0.049680892 0
1.2132779 -0.65867311 -0.049287096 0
1.2373862 -0.65172446 -0.049929112 0
1.2464062 -0.63655841 -0.049965672 0
1.2648419 -0.62602067 -0.050384715 0
1.2547616 -0.60148263 -0.049677521 0
1.2635994 -0.58626884 -0.049731199 0
1.281162 -0.57492572 -0.050133508 0
1.298095 -0.56299716 -0.050514694 0
1.295513 -0.54260063 -0.050144359 0
1.2969638 -0.52411246 -0.049941104 0
1.2967598 -0.50513053 -0.049684383 0
1.2982804 -0.48698589 -0.049503762 0
1.3094677 -0.47246158 -0.049699549 0
1.3254291 -0.45944306 -0.050081801 0
1.3263184 -0.44112456 -0.049901556 0
1.3335607 -0.42496106 -0.049968749 0
1.3334644 -0.40650791 -0.04976939 0
1.3380172 -0.38955188 -0.049752291 0
1.346072 -0.37357733 -0.04987292 0
1.3552577 -0.35781056 -0.050042361 0
1.3721818 -0.34385678 -0.050503384 0
1.3657893 -0.32403412 -0.050113965 0
1.3805158 -0.30922043 -0.050507437 0
1.3658066 -0.28791514 -0.049832691 0
1.3723716 -0.27129769 -0.049943618 0
1.3750401 -0.25387847 -0.049920432 0
1.3912959 -0.23880515 -0.05039743 0
1.3865037 -0.22004785 -0.050119493 0
1.3776284 -0.20089044 -0.049703289 0
1.3880492 -0.18459246 -0.049991433 0
1.390457 -0.16712388 -0.049998395 0
1.3912479 -0.14947382 -0.049955186 0
1.3828086 -0.1309773 -0.049589008 0
1.4058996 -0.11532352 -0.050361011 0
1.4149411 -0.098146558 -0.050636601 0
1.4068513 -0.079800352 -0.050307143 0
1.4076194 -0.062074538 -0.050302666 0
1.3900038 -0.04377019 -0.049649525 0
1.4104085 -0.026641998 -0.050362386 0
1.404633 -0.0088433651 -0.050148204 0
1.3966864 0.0087933354 -0.049864497 0
1.408723 0.026610158 -0.050302196 0
1.4033171 0.044189416 -0.050125066 0
1.3975408 0.061630089 -0.049942501 0
1.4013691 0.079489388 -0.050111104 0
1.3895397 0.096384607 -0.049727559 0
1.3875309 0.11381677 -0.049703024 0
1.4050081 0.13307999 -0.050385106 0
1.3895406 0.14929038 -0.049893882 0
1.3903469 0.16711064 -0.049994431 0
1.3846034 0.18413422 -0.049867328 0
1.374826 0.20048176 -0.049602177 0
1.3884156 0.22035128 -0.050188605 0
1.3782843 0.23657182 -0.049926106 0
1.3832965 0.25540289 -0.05022018 0
1.3678684 0.2704075 -0.049779739 0
1.3788478 0.29066426 -0.050308514 0
1.3676775 0.30634478 -0.05003773 0
1.3614032 0.32299352 -0.049953029 0
1.3607836 0.3410005 -0.050083872 0
1.3698031 0.36165076 -0.05057944 0
1.346001 0.37355766 -0.049870294 0
1.3384204 0.38966924 -0.049767282 0
1.3316466 0.40595376 -0.049701545 0
1.3211334 0.4210009 -0.049503095 0
1.3221446 0.43973643 -0.049744524 0
1.3214835 0.45807537 -0.049932715 0
1.3081945 0.47200224 -0.049651232 0
1.3127596 0.4924171 -0.050055865 0
1.3186839 0.51367068 -0.050524388 0
1.2974668 0.52431566 -0.049960468 0
1.2826195 0.53720039 -0.049645297 0
1.2919822 0.56034595 -0.050276816 0
1.2741786 0.57179189 -0.049860239 0
1.2736112 0.59091395 -0.05012523 0
1.2591144 0.60356921 -0.049849853 0
1.2621018 0.62466455 -0.050275564 0
1.2556381 0.64127332 -0.050335765 0
1.2323923 0.64909422 -0.049727608 0
1.2215569 0.6631676 -0.049623411 0
1.2303481 0.68813729 -0.050328556 0
1.2224237 0.70405674 -0.050363064 0
1.1975052 0.70993292 -0.049700804 0
1.1897725 0.7257483 -0.049755216 0
1.1795514 0.74005109 -0.049713545 0
1.1677921 0.75333005 -0.049613807 0
1.1627572 0.77098656 -0.049808409 0
1.155221 0.7871083 -0.049906202 0
1.1480182 0.80355096 -0.050028197 0
1.1430968 0.82174307 -0.05026067 0
1.1273463 0.83214903 -0.050024904 0
1.1174581 0.84679216 -0.050055314 0
1.1069467 0.8609814 -0.050066143 0
1.1015608 0.87927514 -0.050319333 0
1.080381 0.88486755 -0.049856871 0
1.0765505 0.90461612 -0.050201796 0
1.0702097 0.92252564 -0.050443817 0
1.0521222 0.93028051 -0.050139446 0
1.0322965 0.93617296 -0.049752485 0
1.0364225 0.96397382 -0.050532363 0
1.0044097 0.95806736 -0.049555805 0
0.9992525 0.97747153 -0.049904685 0
0.98457599 0.98767889 -0.049788892 0
0.97562671 1.0036649 -0.049971487 0
0.92905861 0.95575851 0.047586273 0
0.92987186 0.95659506 0.14337128 0
0.93787289 0.96482611 0.24266753 0
0.93968421 0.96668947 0.34395495 0
0.96056259 1.013391 -0.049849559 0
0.91615075 0.96653664 0.047544755 0
0.92082077 0.9714635 0.14385046 0
0.90976697 0.95980173 0.23850358 0
0.91487181 0.96518737 0.33929461 0
0.95179582 1.029808 -0.050063595 0
0.88693357 0.95962948 0.0466519 0
0.89146996 0.96453768 0.14115149 0
0.89180338 0.96489847 0.23696077 0
0.89281029 0.96598792 0.33559734 0
0.94157988 1.0448467 -0.050214309 0
0.87263751 0.96834308 0.046537623 0
0.8698352 0.9652335 0.13963935 0
0.8691504 0.96447361 0.2341501 0
0.86761659 0.96277153 0.33065814 0
0.92794389 1.0561579 -0.050192375 0
0.84740812 0.96449459 0.045836207 0
0.8488065 0.96608621 0.13820548 0
0.84276897 0.95921445 0.23027864 0
0.84081554 0.95699114 0.32501084 0
0.90585631 1.0575826 -0.049714051 0
0.8237195 0.96168834 0.045206323 0
0.82630771 0.96471006 0.13650928 0
0.81181842 0.94779384 0.22506493 0
0.82457322 0.96268505 0.32339263 0
0.89004242 1.0659993 -0.049578924 0
0.80934888 0.96935302 0.045083974 0
0.80525798 0.96445334 0.13502741 0
0.81526667 0.97644067 0.22941148 0
0.80796027 0.96768981 0.32163066 0
0.87650591 1.0770676 -0.04957645 0
0.78361249 0.9629184 0.044322263 0
0.78367615 0.96299666 0.1334313 0
0.79179579 0.97297424 0.2262366 0
0.77726901 0.95512342 0.31417599 0
0.56706661 0.69682258 0.29889312 0
0.86878806 1.0954747 -0.049916193 0
0.76181859 0.96059442 0.043770265 0
0.76105165 0.95962739 0.13162617 0
0.76238722 0.96131146 0.22127499 0
0.75809437 0.95589846 0.31126618 0
0.5828411 0.73491764 0.31206068 0
0.85901374 1.111617 -0.050154872 0
0.73942041 0.95685577 0.043172225 0
0.74560529 0.96485937 0.13104561 0
0.74964297 0.97008443 0.221104 0
0.73849666 0.95566034 0.30813611 0
0.5908702 0.76462263 0.32148921 0
0.84622931 1.1240455 -0.050230868 0
0.73919767 0.98187542 0.043877631 0
0.74512035 0.98974252 0.13314031 0
0.74071425 0.98388988 0.22210708 0
0.73035932 0.97013545 0.30981344 0
0.58726346 0.78006136 0.32484549 0
0.82118034 1.1198441 -0.049577102 0
0.74524212 1.0162871 0.04499248 0
0.74863076 1.0209082 0.13605383 0
0.73971212 1.0087459 0.22559758 0
0.71456242 0.97444916 0.30829307 0
0.59103829 0.80599928 0.33252132 0
0.80873632 1.1325054 -0.049682841 0
0.74604344 1.0447141 0.045831453 0
0.75334203 1.0549346 0.13931318 0
0.74140632 1.0382205 0.23008317 0
0.68856037 0.96421826 0.30228916 0
0.58333629 0.81686884 0.33394873 0
0.80284584 1.1547281 -0.05021026 0
0.75229472 1.0820208 0.047048777 0
0.74240631 1.0677983 0.13976631 0
0.74764222 1.0753289 0.23620181 0
0.67083478 0.9648574 0.29981747 0
0.59767419 0.85963094 0.34832615 0
0.77792364 1.1494973 -0.04955294 0
0.74395072 1.0992973 0.047388904 0
0.74097806 1.0949047 0.14208177 0
0.75323629 1.113018 0.24237777 0
0.65837145 0.9728412 0.29969847 0
0.5731526 0.84691781 0.34022328 0
0.76522756 1.1619939 -0.049672324 0
0.74435556 1.1302998 0.048317485 0
0.74994427 1.1387863 0.14653906 0
0.758609 1.1519437 0.24875452 0
0.63389111 0.96256018 0.29404891 0
0.56458509 0.85731936 0.34151876 0
0.75862223 1.184159 -0.050207496 0
0.61431575 0.95890617 0.29054651 0
0.56163567 0.87667602 0.34638488 0
0.73608488 1.1814711 -0.049696594 0
0.60424322 0.96985549 0.29153559 0
0.54777324 0.87921691 0.34463614 0
0.72751266 1.2011501 -0.050135035 0
0.58069676 0.95875156 0.28597707 0
0.53770316 0.88776761 0.34530643 0
0.7197473 1.2228149 -0.050657004 0
0.5683561 0.96560884 0.28586504 0
0.52977002 0.90005302 0.34746265 0
0.6954096 1.2162428 -0.050018016 0
0.54611874 0.95513928 0.28070745 0
0.51930058 0.90823537 0.34806943 0
0.68426055 1.2325038 -0.050328411 0
0.53345245 0.9608652 0.28039384 0
0.50277239 0.90560365 0.34460726 0
0.67024314 1.2439086 -0.050445486 0
0.51644015 0.95846468 0.27777362 0
0.486339 0.90259975 0.34110677 0
0.39727429 0.73730397 0.34676445 0
0.3941443 0.73149502 0.41574469 0
0.65168405 1.2468088 -0.050226323 0
0.50209612 0.96061558 0.27654272 0
0.47971818 0.9178018 0.34454167 0
0.39602798 0.75768489 0.35397643 0
0.63539082 1.2538444 -0.050183456 0
0.4908475 0.96861076 0.27704307 0
0.47622013 0.9397459 0.35050052 0
0.40715542 0.80345756 0.37293574 0
0.6171816 1.2569158 -0.049991373 0
0.47205397 0.96135741 0.27324665 0
0.45919234 0.93516415 0.34660754 0
0.39792493 0.81039053 0.37379837 0
0.60680336 1.2761474 -0.050448366 0
0.45876211 0.96480685 0.27256352 0
0.45392525 0.95463461 0.35167763 0
0.39959741 0.8403796 0.38527951 0
0.58522534 1.2718172 -0.049981903 0
0.43633074 0.94823802 0.26630941 0
0.43816718 0.95222902 0.34873119 0
0.39658228 0.86185628 0.39280507 0
0.5664221 1.2729205 -0.049741015 0
0.43649414 0.98093331 0.27392641 0
0.43002287 0.96639043 0.35190648 0
0.38328916 0.86136574 0.39035082 0
0.54914147 1.2771417 -0.049631823 0
0.42313394 0.9840852 0.27329701 0
0.4145056 0.96401823 0.3491143 0
0.39302585 0.91406262 0.41195634 0
0.53668392 1.2927874 -0.049973249 0
0.40489289 0.9753235 0.26942644 0
0.39925462 0.96174181 0.34644175 0
0.38926536 0.93767923 0.42035761 0
0.51966786 1.2977051 -0.049906433 0
0.39745083 0.99250686 0.27276906 0
0.38791734 0.96869999 0.34716117 0
0.39562559 0.98794889 0.44062504 0
0.50598902 1.3111471 -0.05017437 0
0.38097593 0.9872061 0.26997241 0
0.37422216 0.9697054 0.34580529 0
0.38960603 1.0095689 0.44804397 0
0.48500636 1.3054802 -0.049719859 0
0.36670369 0.98704767 0.26864502 0
0.35801518 0.96366102 0.34201503 0
0.46830446 1.3108512 -0.04969589 0
0.35305122 0.98824096 0.26773858 0
0.34473687 0.96496797 0.34091115 0
0.45802599 1.3348998 -0.050384946 0
0.34355432 1.0012763 0.27007669 0
0.33225805 0.96835369 0.34060219 0
0.44011545 1.3373212 -0.050263174 0
0.33040023 1.0039439 0.26965266 0
0.31719664 0.96382385 0.33757725 0
0.42205614 1.3389944 -0.050122339 0
0.31838471 1.0100914 0.27020559 0
0.30883193 0.97978485 0.34177837 0
0.40377262 1.3395891 -0.04995032 0
0.30570066 1.0142175 0.27025816 0
0.29394928 0.97523016 0.33887151 0
0.38704243 1.3451538 -0.049972124 0
0.28972754 1.0069389 0.26732528 0
0.27571508 0.95823908 0.33173478 0
0.36758283 1.3408312 -0.049635645 0
0.28181416 1.0279729 0.2719458 0
0.26415664 0.96356368 0.33240023 0
0.35340172 1.3558296 -0.050022166 0
0.25121394 0.96378505 0.035558019 0
0.24994279 0.95890832 0.10649641 0
0.24998306 0.95906276 0.17874484 0
0.25051162 0.96109056 0.25339773 0
0.24991211 0.9587906 0.32964194 0
0.33523285 1.3558471 -0.049863115 0
0.23967889 0.96937966 0.035650253 0
0.23578416 0.95362747 0.10557181 0
0.23434363 0.94780129 0.17608204 0
0.23383719 0.94575292 0.24855784 0
0.23761187 0.96101964 0.32935348 0
0.31834984 1.360881 -0.049896862 0
0.22584863 0.96545708 0.035398599 0
0.22727637 0.97156042 0.10723175 0
0.22432896 0.95896083 0.17761639 0
0.22452107 0.959782 0.25148192 0
0.22275707 0.9522413 0.32535791 0
0.30302647 1.3731055 -0.050201192 0
0.21330969 0.96657139 0.035338167 0
0.21148328 0.95829535 0.1054654 0
0.21116878 0.95687026 0.17672266 0
0.21524817 0.97535521 0.254832 0
0.21124098 0.95719743 0.32611659 0
0.28580987 1.3772771 -0.050218146 0
0.19930182 0.96040714 0.035018273 0
0.20127985 0.96993893 0.10645945 0
0.20081425 0.96769524 0.17824076 0
0.19679114 0.94830847 0.24709845 0
0.19791292 0.95371419 0.32405511 0
0.2686055 1.3815889 -0.050248053 0
0.18639675 0.95874316 0.034869254 0
0.1865693 0.95963067 0.10506184 0
0.18771082 0.96550214 0.17738737 0
0.18523936 0.95279002 0.24763876 0
0.18491781 0.95113611 0.32236236 0
0.2514129 1.3860996 -0.050292972 0
0.17648894 0.97302586 0.035305087 0
0.17464539 0.9628619 0.10516649 0
0.17535812 0.96679133 0.17720449 0
0.17433554 0.96115363 0.24922222 0
0.17582656 0.969374 0.32776725 0
0.23264314 1.3814527 -0.050014108 0
0.16205835 0.96231484 0.034839645 0
0.16238856 0.96427566 0.10508924 0
0.16289179 0.96726382 0.17690112 0
0.16004847 0.95037997 0.24588659 0
0.1631982 0.96908337 0.3269482 0
0.21570806 1.3873436 -0.050125074 0
0.14867134 0.95619166 0.034547444 0
0.14847375 0.95492083 0.10385774 0
0.14887865 0.95752496 0.17476326 0
0.1491133 0.95903409 0.24762021 0
0.15031964 0.96679276 0.32551098 0
0.19646575 1.3776304 -0.049680807 0
0.13919134 0.97601855 0.035197679 0
0.13575621 0.95193118 0.10333847 0
0.13962196 0.97903806 0.17835471 0
0.13783225 0.9664886 0.24907705 0
0.13630241 0.95576113 0.3211934 0
0.18154261 1.3987832 -0.0503572 0
0.12399472 0.95537758 0.034394279 0
0.12541348 0.96630907 0.10471954 0
0.12387413 0.9544484 0.1735772 0
0.1262133 0.97247171 0.25018957 0
0.12529692 0.96541095 0.3238804 0
0.16136807 1.3791829 -0.049574491 0
0.11158247 0.95367455 0.034279667 0
0.11192481 0.95660055 0.10350648 0
0.11234623 0.96020228 0.17435253 0
0.11225972 0.95946294 0.24645956 0
0.1127895 0.96399087 0.3229019 0
0.14600427 1.4004285 -0.050268091 0
0.10194913 0.97786498 0.035100263 0
0.10033581 0.9623906 0.10398802 0
0.10103953 0.96914041 0.17573054 0
0.10008596 0.95999408 0.24625273 0
0.099458002 0.95397091 0.3191008 0
0.12798895 1.3981071 -0.050122935 0
0.0879976 0.96125537 0.034461554 0
0.088714972 0.96909165 0.10458309 0
0.087417535 0.95491892 0.1729385 0
0.088797063 0.96998835 0.24850988 0
0.086072475 0.9402259 0.31411567 0
0.10936742 1.3868318 -0.049665403 0
0.075438514 0.95659685 0.034257773 0
0.076750241 0.97323012 0.10491709 0
0.075153381 0.95298117 0.17240252 0
0.075673535 0.95957708 0.24557893 0
0.07605201 0.96437621 0.3218385 0
0.092921019 1.4035687 -0.050218906 0
0.063718684 0.96246845 0.034436584 0
0.063169077 0.95416671 0.10276811 0
0.06406077 0.96763569 0.17489384 0
0.063776605 0.96334338 0.24631777 0
0.063533798 0.95967585 0.31997749 0
0.074649826 1.3935908 -0.04982432 0
0.052318532 0.97670192 0.034919508 0
0.051879421 0.96850443 0.10423371 0
0.05196007 0.97000998 0.17519084 0
0.051559649 0.96253479 0.2459255 0
0.052129831 0.97317916 0.3242352 0
0.05726818 1.398603 -0.049973771 0
0.08278089 2.0216742 0.36491182 0
0.039961722 1.4100878 -0.050362166 0
0.057835385 2.0407772 0.36819926 0
0.021762617 1.3824508 -0.049361393 0
0.032474011 2.0628824 0.37208426 0
0.0044007087 1.397395 -0.049889054 0
0.0065497882 2.0798109 0.37509304 0
-0.0132049 1.3984374 -0.04992824 0
-0.020069003 2.1253657 0.38332403 0
-0.030841442 1.399502 -0.049976159 0
-0.047030807 2.1341321 0.38498136 0
-0.048134286 1.3895876 -0.049639825 0
-0.075276025 2.1731417 0.39215833 0
-0.066091098 1.3986919 -0.049990818 0
-0.10392556 2.1993859 0.39709896 0
-0.083629772 1.3966248 -0.049950615 0
-0.13142419 2.1947956 0.39653754 0
-0.10040168 1.3843387 -0.049552493 0
-0.1602122 2.2090065 0.39943787 0
-0.11894234 1.3960888 -0.050022736 0
-0.18875392 2.2155042 0.40101075 0
-0.13543242 1.383459 -0.049627367 0
-0.21909384 2.238071 0.40556261 0
-0.15352131 1.3877929 -0.049848232 0
-0.24820901 2.2437453 0.40712497 0
-0.17174888 1.391956 -0.050071474 0
-0.28042227 2.2727103 0.41298863 0
-0.18710789 1.3738686 -0.049501669 0
-0.30856615 2.2656946 0.4123871 0
-0.2070501 1.3892406 -0.050145499 0
-0.34114257 2.2889585 0.41737026 0
-0.22297952 1.376974 -0.049800128 0
-0.3737388 2.3079636 0.42166036 0
-0.24200779 1.3838248 -0.050154138 0
-0.40384293 2.3092144 0.42278442 0
-0.2595906 1.381615 -0.050188541 0
-0.43666521 2.3240566 0.42647472 0
-0.27600291 1.3734435 -0.050013985 0
-0.46786776 2.3281996 0.42828217 0
-0.29502642 1.3780432 -0.050312776 0
-0.50071359 2.3387899 0.43135595 0
-0.31119478 1.369118 -0.050126009 0
-0.53437507 2.3510115 0.4348166 0
-0.32883343 1.3668555 -0.050190799 0
-0.56297916 2.3401241 0.43407974 0
-0.34525856 1.3596171 -0.050080679 0
-0.59395027 2.3389571 0.43521607 0
-0.36416885 1.3619629 -0.050332006 0
-0.65717262 2.4577739 0.09082824 0
-0.6497438 2.4299908 0.27032369 0
-0.63078934 2.3591025 0.44040766 0
-0.37909392 1.3494567 -0.050042275 0
-0.67800677 2.4134939 0.089500256 0
-0.67799175 2.4134402 0.26941091 0
-0.66502798 2.3672934 0.44346491 0
-0.39654097 1.3462257 -0.050103661 0
-0.70410979 2.390398 0.088965535 0
-0.70306385 2.3868473 0.26740941 0
-0.69967937 2.3753572 0.44659057 0
-0.41016793 1.3304472 -0.049704704 0
-0.73295063 2.3774462 0.088819951 0
-0.73269683 2.3766229 0.26727641 0
-0.72459251 2.3503351 0.4435665 0
-0.42760956 1.3274192 -0.049788795 0
-0.77146071 2.394829 0.089825161 0
-0.77155203 2.3951125 0.27042693 0
-0.76021093 2.3599064 0.447144 0
-0.44237736 1.3162407 -0.049574517 0
-0.81498367 2.4248857 0.091330215 0
-0.81766218 2.4328554 0.27582905 0
-0.79428899 2.3633113 0.44964859 0
-0.46211439 1.319702 -0.049920093 0
-0.47766477 1.3109529 -0.049812719 0
-0.49708211 1.3126211 -0.050109975 0
-0.50961643 1.2962018 -0.049724199 0
-0.5320366 1.3047395 -0.050304726 0
-0.54522681 1.2903734 -0.050011579 0
-0.56427824 1.2899148 -0.050265215 0
-0.57666385 1.2742858 -0.049935188 0
-0.59309262 1.2678424 -0.049971387 0
-0.6024524 1.2467054 -0.049433373 0
-0.62382227 1.2504872 -0.049890842 0
-0.64178568 1.2469394 -0.050067756 0
-0.65056831 1.2258208 -0.049544796 0
-0.91838032 1.7304404 0.069940329 0
-0.67379862 1.2318791 -0.050128613 0
-0.92180711 1.6853031 0.068579704 0
-0.68208265 1.210566 -0.049606897 0
-0.92414129 1.6401738 0.067211479 0
-0.70292991 1.2116359 -0.050009493 0
-0.9231115 1.5911617 0.065674171 0
-0.91396093 1.5753889 0.19573505 0
-0.39661995 0.68365133 0.46872798 0
-0.71456659 1.1967212 -0.049761336 0
-0.928886 1.5556527 0.064686209 0
-0.92503035 1.5491955 0.19391249 0
-0.40545905 0.67904294 0.46903169 0
-0.73109913 1.190105 -0.049865074 0
-0.92950219 1.5130714 0.063397281 0
-0.91927481 1.4964229 0.18874092 0
-0.41066778 0.66849726 0.46528253 0
-0.74372238 1.177159 -0.049711097 0
-0.91681325 1.4511261 0.061280649 0
-0.91773438 1.452584 0.18465455 0
-0.44117749 0.69829285 0.41327327 0
-0.43150708 0.68298662 0.47911119 0
-0.76741987 1.1814562 -0.050296672 0
-0.92486894 1.4238517 0.060615875 0
-0.92372561 1.4220917 0.18224251 0
-0.44637382 0.68720031 0.41000241 0
-0.42977372 0.6616441 0.46789879 0
-0.77593929 1.1622696 -0.049891863 0
-0.91919899 1.3768564 0.059103273 0
-0.9199726 1.3780153 0.17806453 0
-0.44735384 0.67008561 0.4778142 0
-0.78578979 1.1455232 -0.049593821 0
-0.91642302 1.3359601 0.057838522 0
-0.91676605 1.3364601 0.17417274 0
-0.45196345 0.65887165 0.47383854 0
-0.80372065 1.1406041 -0.049815066 0
-0.92527878 1.313114 0.057349309 0
-0.92265648 1.3093926 0.17214569 0
-0.46112123 0.65440249 0.47476271 0
-0.81503892 1.1262765 -0.049633618 0
-0.91778725 1.2682612 0.055890705 0
-0.91384631 1.2628154 0.16752177 0
-0.46890992 0.64797181 0.47434342 0
-0.83875078 1.1288388 -0.050207995 0
-0.92156625 1.2402966 0.055165365 0
-0.91774189 1.2351495 0.16537164 0
-0.46980831 0.63229489 0.46716094 0
-0.84176892 1.103598 -0.049552869 0
-0.92846727 1.2172636 0.054656588 0
-0.9201647 1.2063785 0.16305795 0
-0.47943944 0.62856728 0.46883017 0
-0.86126727 1.1001536 -0.04988122 0
-0.9174732 1.1719491 0.053136449 0
-0.91852516 1.1732929 0.16013664 0
-0.48683336 0.62186444 0.468366 0
-0.87939781 1.0946324 -0.050128989 0
-0.91754001 1.14211 0.05230324 0
-0.92191613 1.1475571 0.158196 0
-0.49133578 0.61159128 0.46525159 0
-0.89445025 1.0850978 -0.050204169 0
-0.92262095 1.1192729 0.05178535 0
-0.92551011 1.1227779 0.15637426 0
-0.90093064 1.0653404 -0.049810991 0
-0.92463118 1.093366 0.051121354 0
-0.91605836 1.0832287 0.15246055 0
-0.59075767 0.69856435 0.45774612 0
-0.92875206 1.0706025 -0.050599828 0
-0.92032123 1.060884 0.0501405 0
-0.92388594 1.0649931 0.15151934 0
-0.58968514 0.67974907 0.45024708 0
-0.93063003 1.0458673 -0.049980666 0
-0.91662377 1.0301268 0.049228445 0
-0.91341788 1.0265238 0.14767092 0
-0.59659261 0.67046702 0.44903928 0
-0.53830606 0.604963 0.48024201 0
-0.94800943 1.0387613 -0.050207578 0
-0.92052406 1.0086447 0.04875192 0
-0.9146145 1.0021695 0.14581265 0
-0.60966647 0.66802913 0.45251229 0
-0.54436058 0.59647161 0.47890478 0
-0.95463485 1.0199274 -0.049874324 0
-0.92195386 0.98501116 0.048166927 0
-0.91717398 0.97990435 0.14424208 0
-0.63249451 0.67575419 0.46310344 0
-0.54351151 0.58068508 0.4716875 0
-0.96090972 1.0010637 -0.049539652 0
-0.92657417 0.96529335 0.047769487 0
-0.90927684 0.94727319 0.141113 0
-0.63732696 0.66395921 0.46048355 0
-0.55175233 0.57480866 0.47252026 0
-0.99060893 1.0063286 -0.050413501 0
-0.91918808 0.93377435 0.046778791 0
-0.92345357 0.93810749 0.14146863 0
-1.7467066 1.7744244 0.44904891 0
-0.98878229 0.97949225 -0.049688905 0
-0.81865144 0.81095988 0.041139383 0
-0.91914082 0.91050512 0.1390405 0
-1.7619894 1.7454348 0.447292 0
-1.0105382 0.97614264 -0.050160527 0
-0.81084073 0.78324223 0.040248055 0
-0.91449755 0.88337088 0.13664459 0
-1.7649769 1.7049024 0.44256538 0
-1.019372 0.96016055 -0.049994905 0
-0.82356393 0.7757262 0.040391535 0
-0.92643028 0.87261742 0.13677487 0
-1.7999892 1.6954346 0.44595602 0
-1.0337113 0.9493897 -0.050107874 0
-0.72955483 0.67004383 0.035364266 0
-0.73537391 0.67538822 0.10730389 0
-0.73163539 0.67195463 0.17915565 0
-0.73947442 0.67915422 0.25615978 0
-0.74390078 0.68321949 0.33603385 0
-1.039695 0.93102592 -0.049825687 0
-0.76319414 0.68342495 0.036574833 0
-0.74046355 0.6630702 0.10681975 0
-0.74535728 0.66745239 0.18044338 0
-0.74659091 0.66855711 0.25568843 0
-0.74207366 0.66451198 0.33140239 0
-1.0557621 0.92172587 -0.050035484 0
-0.85052598 0.74254584 0.040308777 0
-0.99644715 0.86994135 0.14215653 0
-1.8294324 1.5971735 0.43798324 0
-1.0692908 0.91006738 -0.050129563 0
-0.88198966 0.75065643 0.041348673 0
-1.0190246 0.86728609 0.14380807 0
-1.8427571 1.5683602 0.43641058 0
-1.0766979 0.89324057 -0.049945544 0
-1.046759 0.86840284 0.048556745 0
-1.063898 0.88262159 0.14856051 0
-1.8422194 1.5283257 0.43169132 0
-1.091593 0.88263154 -0.050116953 0
-1.0755813 0.86968499 0.04938183 0
-1.0781531 0.87176442 0.14900638 0
-1.8592054 1.5033015 0.43120164 0
-1.1018614 0.86821944 -0.050082475 0
-1.110011 0.85220778 -0.049961176 0
-1.1270012 0.84291154 -0.050244179 0
-1.121619 0.81706727 -0.049541607 0
-1.1321722 0.80313128 -0.049557116 0
-1.154261 0.79714519 -0.050080638 0
-1.1610268 0.78041118 -0.049943857 0
-1.1745121 0.76818395 -0.050103873 0
-1.3354151 0.87342173 0.056967884 0
-1.324998 0.8666085 0.17014906 0
-1.8830243 1.2315829 0.40578765 0
-0.74710739 0.48864195 0.36961618 0
-0.75440347 0.4934139 0.45102328 0
-1.1738793 0.74683744 -0.049671758 0
-1.3685962 0.8707189 0.057911046 0
-1.3772686 0.87623638 0.17543055 0
-1.8903401 1.2026592 0.40406862 0
-0.75531447 0.48054099 0.37065342 0
-1.1870323 0.73437488 -0.04983307 0
-1.4117781 0.87341714 0.059268173 0
-1.4070548 0.87049502 0.17781428 0
-1.9036893 1.1777452 0.40371999 0
-1.1979994 0.72046173 -0.04990866 0
-1.4517788 0.87308145 0.060481112 0
-1.4551595 0.87511462 0.18248639 0
-1.8905331 1.1369427 0.39786223 0
-1.2187884 0.71222323 -0.050397113 0
-1.4961299 0.87429315 0.061865225 0
-1.4861484 0.8684603 0.18498649 0
-1.8901241 1.1045315 0.3948178 0
-1.2096887 0.68662047 -0.049659383 0
-1.5388079 0.87342882 0.06317018 0
-1.5423998 0.8754676 0.19060099 0
-1.9082707 1.0831362 0.39572799 0
-1.222859 0.67388099 -0.049847744 0
-1.5597452 0.85952884 0.063580327 0
-1.5844215 0.87312722 0.19441974 0
-1.9058191 1.0502398 0.39244595 0
-1.2406405 0.66345358 -0.050228041 0
-1.6297997 0.87156314 0.065983377 0
-1.6302092 0.87178206 0.19867542 0
-1.9022943 1.0172842 0.3890515 0
-1.2329111 0.63948882 -0.049585167 0
-1.6784182 0.87056535 0.067502551 0
-1.9078717 0.98957878 0.23097752 0
-1.9051633 0.98817396 0.3870627 0
-1.2537092 0.63037229 -0.050098412 0
-1.9104683 0.96059459 0.076342613 0
-1.9130994 0.96191752 0.23012574 0
-1.8999497 0.95530576 0.38352913 0
-1.2549437 0.61131996 -0.049836185 0
-1.915369 0.93303251 0.076062918 0
-1.9088631 0.92986327 0.22818959 0
-1.9142212 0.93247336 0.3840093 0
-1.2707527 0.599343 -0.050160304 0
-1.9311223 0.91080242 0.076227009 0
-1.9286841 0.90965247 0.22917157 0
-1.9051001 0.89852923 0.37987965 0
-1.2706031 0.5798291 -0.049862243 0
-1.9492203 0.88951039 0.076493196 0
-1.9505447 0.89011478 0.23041901 0
-1.8892128 0.86212647 0.37451729 0
-1.2846975 0.56682664 -0.050131273 0
-1.9769824 0.87227243 0.077145509 0
-1.9790757 0.87319607 0.23247206 0
-1.899864 0.8382467 0.37450659 0
-1.2862613 0.54827362 -0.049918935 0
-1.9028239 0.81108564 0.3730472 0
-1.3120947 0.53986526 -0.050653663 0
-1.896844 0.78046215 0.36991879 0
-1.3028866 0.51699179 -0.050042897 0
-1.8924791 0.75094497 0.36719435 0
-0.73474371 0.29154989 0.46878916 0
-1.3120018 0.50158149 -0.050146431 0
-1.9180619 0.73327976 0.37033716 0
-0.74329621 0.28416395 0.47192547 0
-1.3173556 0.48470649 -0.050113808 0
-1.8992152 0.69879526 0.36497039 0
-1.3181211 0.46622995 -0.049915634 0
-1.9069978 0.67452037 0.3648048 0
-1.3215748 0.44881102 -0.049828455 0
-1.9043458 0.6467219 0.36271086 0
-1.3127834 0.4274666 -0.049290124 0
-1.9094743 0.62176019 0.36216775 0
-1.3338597 0.41582817 -0.049880907 0
-1.8962965 0.59116679 0.35822803 0
-1.3429655 0.40018505 -0.050029017 0
-1.9030902 0.56709439 0.35813403 0
-1.3406115 0.38117203 -0.049758572 0
-1.8969381 0.53935075 0.35567001 0
-1.3603356 0.36833176 -0.050314523 0
-1.8984128 0.51402444 0.35470477 0
-1.3564888 0.34901902 -0.050005723 0
-1.3705542 0.33429658 -0.050365057 0
-1.3508699 0.31152803 -0.049493618 0
-1.3656868 0.29688585 -0.049895559 0
-1.9002925 0.41310349 0.35071984 0
-1.3731571 0.28045103 -0.050035499 0
-1.9054866 0.389173 0.35074618 0
-1.3752222 0.26287964 -0.049986165 0
-1.9025807 0.3636865 0.34934065 0
-1.3703148 0.24409874 -0.049692132 0
-1.8928381 0.33717754 0.34674469 0
-1.3736057 0.22687931 -0.049703926 0
-1.9104539 0.31555086 0.3492161 0
-1.3844726 0.2108022 -0.049997132 0
-1.9168122 0.29185715 0.34967884 0
-1.3830137 0.19279522 -0.049852818 0
-1.9031208 0.26529929 0.34654424 0
-1.396717 0.17680737 -0.050262537 0
-1.9266597 0.24389166 0.35024351 0
-1.3889345 0.15808046 -0.049906883 0
-1.9246576 0.21905334 0.34935042 0
-1.3971326 0.14121816 -0.05013359 0
-0.89122534 0.090082496 0.096267387 0
-0.89069903 0.090029299 0.1614549 0
-1.3903221 0.12286615 -0.049829736 0
-0.89463979 0.079061501 0.09652102 0
-1.4093277 0.10668047 -0.050458763 0
-0.89467686 0.067723453 0.096425369 0
-0.88746482 0.067177527 0.160511 0
-1.3953003 0.087964885 -0.049912915 0
-0.89725935 0.056566544 0.16214082 0
-1.4025207 0.070703119 -0.050135378 0
-0.8917129 0.044952553 0.16102347 0
-1.39838 0.052852143 -0.049959615 0
-0.89941055 0.03399346 0.096728034 0
-0.88734186 0.033537321 0.16014519 0
-1.3952764 0.035148501 -0.049828973 0
-0.89323348 0.022501504 0.1611446 0
-1.3914757 0.017525446 -0.049681418 0
-0.89106524 0.011222845 0.16071519 0
-1.3913081 3.691961e-06 -0.049671493 0
-0.88627386 2.3518073e-06 0.15983833 0
