# .PCD v0.7 - Point Cloud Data file format
VERSION 0.7
FIELDS x y z
SIZE 4 4 4
TYPE F F F
COUNT 1 1 1
WIDTH 1160
HEIGHT 1
VIEWPOINT 0 0 0 1 0 0 0
POINTS 1160
DATA ascii
-1.4108698 -3.7438699e-06 -0.050369874
-1.0610101 -2.8154855e-06 0.35299188
-1.0160838 -2.6962698e-06 0.42069525
-1.4016643 -0.017653769 -0.050045192
-1.052411 -0.013254971 0.35015875
-1.0404147 -0.01310388 0.43080324
-1.4068085 -0.035439007 -0.050240811
-1.0635642 -0.026792316 0.35395387
-1.0245517 -0.025809551 0.42433581
-1.397905 -0.05283419 -0.049942646
-1.0505048 -0.039704107 0.34974638
-1.0208282 -0.038582474 0.42296138
-1.4061638 -0.070886776 -0.05026561
-1.0416205 -0.052509617 0.34698114
-1.0133615 -0.051085033 0.42010084
-1.3993284 -0.088218823 -0.050057005
-1.0578995 -0.066693895 0.35265574
-1.0278639 -0.06480033 0.42641747
-1.3848492 -0.10482754 -0.049582344
-1.059353 -0.080188781 0.35344887
-1.019356 -0.077161163 0.42325744
-1.4158922 -0.12512586 -0.050746184
-1.044831 -0.09233427 0.34896395
-1.0145112 -0.089654826 0.42168111
-1.3846103 -0.13995242 -0.049684245
-1.043636 -0.10548772 0.34898075
-1.0113026 -0.10221956 0.42084911
-1.3881487 -0.15799102 -0.049878646
-1.0490117 -0.11939242 0.35125321
-1.0402685 -0.11839733 0.43348923
-1.3991026 -0.17710935 -0.050348386
-1.0482308 -0.13269325 0.35152334
-1.0189679 -0.12898892 0.42525616
-1.3869002 -0.19333701 -0.049992915
-1.0408409 -0.14509554 0.34963015
-1.0175059 -0.14184259 0.4253577
-1.3798692 -0.21010128 -0.049830887
-1.0433998 -0.15886985 0.35113385
-1.0191617 -0.15517932 0.42683294
-1.3874094 -0.22915928 -0.050203413
-1.0495033 -0.17334712 0.35389441
-1.0136213 -0.16742046 0.42536181
-1.3861777 -0.24692445 -0.050267369
-1.0458152 -0.18629456 0.35341382
-1.0217266 -0.18200357 0.42969087
-1.3691653 -0.26172185 -0.049766012
-1.0452168 -0.1997977 0.35403371
-1.0310191 -0.19708373 0.43460804
-1.367503 -0.27929625 -0.049829472
-1.0242131 -0.20918337 0.34778401
-1.0202477 -0.20837349 0.43113944
-1.3577085 -0.29515147 -0.049604069
-1.0292845 -0.22375557 0.35043502
-1.0209649 -0.22194695 0.43258926
-1.3750501 -0.31710428 -0.050379537
-1.0298361 -0.23749349 0.3516131
-1.0144535 -0.2339461 0.4310444
-1.3480968 -0.32881892 -0.049539797
-1.0237706 -0.24971138 0.35058799
-1.0193489 -0.24863288 0.43442029
-1.3579013 -0.34938246 -0.050057795
-1.0383629 -0.2671665 0.35670885
-1.0271163 -0.26427281 0.43911397
-1.3629957 -0.36905205 -0.050412912
-1.0220269 -0.27672946 0.35226613
-1.0286542 -0.27852392 0.44123587
-1.3340915 -0.37931827 -0.049516577
-1.0389746 -0.29540855 0.35936123
-1.0233587 -0.29096848 0.44050109
-1.3412865 -0.39968473 -0.049966469
-1.0323217 -0.30761752 0.3583715
-1.027003 -0.3060326 0.4436934
-1.3204572 -0.41165 -0.04937971
-1.0226847 -0.31882 0.35639143
-1.0236276 -0.31911394 0.44393599
-1.329201 -0.43281248 -0.049906548
-1.0290854 -0.33508927 0.36006388
-1.0172868 -0.33124742 0.4429599
-1.3183998 -0.44773275 -0.049708743
-1.0282042 -0.34918144 0.36126539
-1.0142705 -0.34444952 0.44350001
-1.3261 -0.46905217 -0.050217785
-1.0322278 -0.36510718 0.36426553
-1.021425 -0.36128619 0.44858208
-1.3181826 -0.48501074 -0.050145261
-1.0321561 -0.37977046 0.36589882
-1.3060329 -0.49929956 -0.04991829
-1.0474964 -0.40046048 0.37309504
-1.2982206 -0.5151403 -0.049863677
-1.0385443 -0.41209945 0.37172526
-1.2921448 -0.53165686 -0.049883496
-1.0247506 -0.42163673 0.36865929
-1.291206 -0.5503813 -0.050110836
-1.0409729 -0.44371852 0.3764756
-1.2856022 -0.56722575 -0.050166577
-1.0341688 -0.45628983 0.37606299
-1.2746307 -0.58166707 -0.050020296
-1.0334848 -0.47162217 0.37794384
-1.2665805 -0.59737521 -0.049995616
-1.0234845 -0.48272038 0.37647977
-1.2501006 -0.60896075 -0.049643859
-1.0302277 -0.50185418 0.38125458
-1.2543845 -0.63071185 -0.050125401
-1.2215908 -0.61422294 0.34884617
-1.0356388 -0.52072525 0.38565305
-1.2504644 -0.64859349 -0.050291128
-1.227915 -0.6368975 0.35291442
-1.0383385 -0.53856754 0.38915294
-1.2282236 -0.65681344 -0.049725335
-1.2268382 -0.65607256 0.3549512
-1.0334046 -0.55263066 0.38988093
-1.2278656 -0.67663997 -0.050051827
-1.2065724 -0.66490597 0.35148239
-1.0333338 -0.56943935 0.39252836
-1.2000531 -0.68115127 -0.049263828
-1.1861703 -0.67327142 0.34798121
-1.0321152 -0.58582956 0.39483637
-1.2050765 -0.7042104 -0.04983012
-1.1973207 -0.69967812 0.353809
-1.0223475 -0.59742904 0.39394638
-1.2026473 -0.72325689 -0.050102293
-1.1833212 -0.71163446 0.35229221
-1.0512899 -0.63223249 0.40813431
-1.1900786 -0.73625952 -0.049960956
-1.1714247 -0.72471899 0.35143948
-1.0226403 -0.63267136 0.40007305
-1.1838881 -0.75320518 -0.050095271
-1.1517432 -0.73275411 0.34827539
-1.0238081 -0.65136015 0.40370667
-1.1775609 -0.77017796 -0.050233934
-1.1515974 -0.75319666 0.35107145
-1.0184593 -0.66611832 0.40487295
-1.1675791 -0.78481543 -0.050225716
-1.136694 -0.76405525 0.34943342
-1.0213684 -0.68653649 0.40943363
-1.1663896 -0.80552137 -0.050606869
-1.1179191 -0.77204716 0.34662291
-1.0322361 -0.71287352 0.41735554
-1.1471906 -0.8137849 -0.050214496
-1.1176053 -0.79279792 0.34959325
-1.0223972 -0.72525996 0.41703686
-1.1244621 -0.81913841 -0.049667191
-1.1828376 -0.86166334 0.052245621
-1.194998 -0.87052184 0.1588885
-1.1883783 -0.86569959 0.26516035
-1.1111274 -0.80942452 0.35072738
-1.017787 -0.74142867 0.41893142
-1.1132545 -0.83263016 -0.049631327
-1.1257439 -0.84197122 0.050188124
-1.1196074 -0.83738166 0.15025458
-1.1368562 -0.85028243 0.25603303
-1.1002073 -0.82287186 0.35052338
-1.0206155 -0.7633431 0.4240185
-1.1101394 -0.85230643 -0.049966957
-1.1033367 -0.84708363 0.049660772
-1.1026297 -0.84654081 0.14939483
-1.1189066 -0.85903746 0.25440657
-1.0913029 -0.83784473 0.35101992
-1.0276718 -0.78899211 0.43104351
-1.0991331 -0.86606967 -0.049958471
-1.0911444 -0.85977501 0.049595367
-1.0955948 -0.86328161 0.14990264
-1.0968885 -0.86430109 0.25185493
-1.0698082 -0.84296292 0.34749281
-1.0151006 -0.79985571 0.42996114
-1.0978904 -0.88772345 -0.05040608
-1.07918 -0.87259477 0.049547054
-1.0768472 -0.87070853 0.1488259
-1.0700516 -0.86521375 0.24817482
-1.0708699 -0.86587542 0.35135138
-1.0390147 -0.84011823 0.44453594
-1.0817256 -0.89741158 -0.05017877
-1.0500962 -0.87117141 0.048711549
-1.0619786 -0.88102925 0.1482925
-1.0657481 -0.88415641 0.24973908
-1.05126 -0.87213701 0.34849304
-1.0056748 -0.83431906 0.43473214
-1.0719801 -0.9123562 -0.050255638
-0.81579781 -0.69432092 0.038245521
-0.82032692 -0.69817567 0.11576721
-0.82637906 -0.70332658 0.19570705
-1.0388323 -0.88414437 0.34803635
-1.0236381 -0.87121266 0.44720414
-1.0501938 -0.91686445 -0.049771585
-0.80710477 -0.70463729 0.038250923
-0.80771071 -0.70516628 0.11523075
-0.81837392 -0.71447569 0.19592637
-1.0508199 -0.91741103 0.35589457
-1.045054 -0.93582475 -0.050082505
-0.7864722 -0.70427001 0.037690397
-0.7905767 -0.70794547 0.11404909
-0.77594662 -0.69484454 0.18784873
-1.0251929 -0.9180395 0.35110253
-1.0307111 -0.94663423 -0.049962442
-0.76357293 -0.70128697 0.037013251
-0.77124673 -0.70833486 0.11253836
-0.76833606 -0.70566159 0.18814254
-1.0407516 -0.95585573 0.36052456
-1.0318862 -0.97194785 -0.050608661
-0.74961323 -0.70607102 0.036764637
-0.7472735 -0.7038672 0.1103248
-0.74884504 -0.70534748 0.18552999
-1.0290391 -0.96926612 0.36066666
-0.99045879 -0.95674658 -0.049163833
-0.72782683 -0.70305389 0.036127459
-0.72463399 -0.69996965 0.10827509
-0.72491688 -0.70024288 0.18177184
-1.0345869 -0.99937266 0.36699265
-0.9970327 -0.98766518 -0.050103508
-0.71006769 -0.70339632 0.035682764
-0.70847964 -0.70182317 0.10717331
-0.7061618 -0.69952714 0.17926358
-1.0254573 -1.0158228 0.36826241
-0.98576736 -1.0014101 -0.050167102
-0.69516438 -0.70619571 0.035377905
-0.6918996 -0.70287907 0.10599568
-0.68406886 -0.69492412 0.17586261
-1.0405416 -1.0570536 0.37842959
-0.97685462 -1.0176748 -0.050361689
-0.67225122 -0.70034289 0.034657877
-0.67480719 -0.70300561 0.10472505
-0.67176574 -0.69983715 0.17495136
-1.0324395 -1.0755825 0.38037854
-0.95944941 -1.0250713 -0.05012586
-0.65840161 -0.70343316 0.0343978
-0.6689508 -0.71470386 0.10520453
-0.66850448 -0.71422702 0.17643028
-1.0359395 -1.1067928 0.38677213
-0.93703508 -1.0267364 -0.049626362
-0.63476968 -0.69553542 0.03361807
-0.64382839 -0.70546138 0.10264251
-0.6400997 -0.70137566 0.17125107
-1.0341337 -1.1331301 0.39139417
-0.93222201 -1.0476565 -0.050066169
-0.6218918 -0.69889897 0.033399489
-0.62697464 -0.70461112 0.10136207
-0.6286189 -0.70645905 0.170546
-1.0165801 -1.1424603 0.39016441
-0.91048092 -1.0495408 -0.049604386
-0.60732675 -0.7000851 0.033088084
-0.59983206 -0.69144583 0.098373801
-0.60921437 -0.70226103 0.16766733
-1.0188961 -1.1745144 0.39669815
-0.91089994 -1.077129 -0.050362177
-0.59020454 -0.69791025 0.032631449
-0.58930969 -0.69685209 0.098079428
-0.58853418 -0.69593507 0.16437456
-1.0144247 -1.199546 0.40080646
-0.8964861 -1.0875676 -0.050318442
-0.57848382 -0.70178473 0.03246944
-0.58281559 -0.70703977 0.098472565
-0.57022899 -0.69177043 0.16168211
-1.0106696 -1.2260886 0.40539074
-0.87643057 -1.0909389 -0.049959846
-0.56364793 -0.70160198 0.096719041
-0.56302381 -0.7008251 0.16212852
-0.85793895 -1.0959021 -0.049688458
-0.54774636 -0.69967264 0.16025357
-0.85251921 -1.1176921 -0.050185714
-0.82801324 -1.1143876 -0.049565244
-0.82592916 -1.1413254 -0.050296802
-0.80504584 -1.1424848 -0.049897205
-0.79012889 -1.1518487 -0.049867671
-0.78044814 -1.1690233 -0.050181776
-0.75998044 -1.1700031 -0.049809087
-0.74627501 -1.1811992 -0.049881715
-0.73600876 -1.198097 -0.050199941
-0.71206605 -1.1925334 -0.049587201
-0.7064293 -1.2176679 -0.050258458
-0.68980569 -1.224273 -0.050168589
-0.67750007 -1.2386463 -0.05040399
-0.65613496 -1.2363096 -0.049968727
-0.64439797 -1.252015 -0.050271552
-0.62437403 -1.2515932 -0.049934972
-0.608657 -1.2595451 -0.049942482
-0.59363961 -1.2690117 -0.050017476
-0.57500613 -1.2706226 -0.049791642
-0.56292295 -1.2868168 -0.05014449
-0.54373473 -1.2868422 -0.049874719
-0.52670771 -1.2916712 -0.049800873
-0.51185697 -1.3019006 -0.04994281
-0.48935536 -1.2922175 -0.049331054
-0.47947052 -1.3159089 -0.050001033
-0.4659816 -1.3307459 -0.050337851
-0.4477641 -1.3322682 -0.050178178
-0.42853895 -1.3303043 -0.049897008
-0.41707131 -1.3528395 -0.050541267
-0.39517224 -1.341579 -0.049930718
-0.3793492 -1.3503654 -0.050075978
-0.36168635 -1.3526785 -0.049988896
-0.34390777 -1.3542978 -0.04988474
-0.32835218 -1.3648549 -0.05011734
-0.31159893 -1.370896 -0.050191108
-0.2930215 -1.3686782 -0.049970862
-0.27806848 -1.3837221 -0.05038828
-0.2592994 -1.3800652 -0.050132241
-0.24143714 -1.3805618 -0.050035875
-0.22347182 -1.3800142 -0.04991008
-0.20796303 -1.3953661 -0.050366603
-0.1871172 -1.373937 -0.049504131
-0.17145686 -1.3895893 -0.049986344
-0.15505092 -1.4016203 -0.050344896
-0.13532436 -1.3823551 -0.049587771
-0.11908216 -1.39773 -0.050081536
-0.10170048 -1.4022466 -0.050193503
-0.083783858 -1.3991979 -0.050042644
-0.066480778 -1.4069386 -0.050285567
-0.048749447 -1.4073466 -0.050274223
-0.030726442 -1.3942837 -0.049789809
-0.013338709 -1.4126081 -0.05043418
0.0044281119 -1.4060967 -0.050199714
0.022205608 -1.4105914 -0.050366171
0.039853219 -1.4062592 -0.050225422
0.05703127 -1.3928171 -0.049767036
0.074588165 -1.3924397 -0.049783163
0.092490122 -1.39706 -0.049986027
0.11014239 -1.3966588 -0.050017327
0.28799257 -3.6518848 0.13078178
0.12764114 -1.3943077 -0.049986731
0.32308301 -3.529247 0.12652552
0.14590661 -1.3994919 -0.050234471
0.35872814 -3.4408112 0.1235072
0.16449063 -1.4058708 -0.050533783
0.40112871 -3.4283724 0.12323225
0.18078281 -1.392929 -0.050146446
0.44393811 -3.4205368 0.12314178
0.19887687 -1.3945373 -0.050290514
0.48739266 -3.4176285 0.12324826
0.21358328 -1.373678 -0.049631327
0.5327512 -3.4264321 0.12379785
0.339526 -2.1836886 0.23749922
0.23207393 -1.3780726 -0.04989174
0.57446027 -3.4111888 0.12349868
0.36541834 -2.1698818 0.2364793
0.37333202 -2.2168739 0.40544003
0.25049001 -1.3810115 -0.050108358
0.26692122 -1.3729258 -0.049932972
0.28844827 -1.3899913 -0.050681725
0.30439228 -1.3792944 -0.050427459
0.24914733 -1.1289626 0.041275248
0.31820819 -1.3602755 -0.049874663
0.26152056 -1.1179473 0.040989675
0.33533591 -1.3562639 -0.049878445
0.31772575 -1.2850397 0.047259077
0.29300499 -1.1850568 0.13119231
0.35244483 -1.3521585 -0.049886726
0.2937614 -1.1270188 0.04158039
0.30397868 -1.1662176 0.12952019
0.37065706 -1.3520451 -0.050050769
0.30759364 -1.1220087 0.041535154
0.31888497 -1.1631961 0.12962031
0.38804138 -1.3486255 -0.050101098
0.37222973 -1.2936728 0.048059613
0.33725855 -1.1721315 0.13107888
0.39987305 -1.3266516 -0.049467906
0.33746812 -1.1196119 0.041747853
0.35473874 -1.1769104 0.13210236
0.42223081 -1.3395485 -0.050143078
0.35982278 -1.1415559 0.042731658
0.36752895 -1.1660041 0.13138723
0.44485652 -1.3517272 -0.050804626
0.37674484 -1.1447653 0.043025967
0.38311914 -1.1641339 0.13170968
0.45430318 -1.3240497 -0.049975418
0.39093676 -1.1393706 0.043004822
0.39825952 -1.1607126 0.13187951
0.4698635 -1.3152152 -0.049861334
0.45811772 -1.2823372 0.048614886
0.41169268 -1.1523868 0.13151214
0.49200964 -1.3243308 -0.050437793
0.4217993 -1.1353474 0.043240264
0.42577896 -1.1460592 0.13139147
0.50397581 -1.3059304 -0.049974736
0.43009463 -1.1144853 0.042648606
0.44366065 -1.1496383 0.13243179
0.52220833 -1.3040491 -0.050150409
0.45458409 -1.135179 0.043656096
0.46293157 -1.1560242 0.13382831
0.53661692 -1.292626 -0.04996701
0.46496218 -1.120021 0.043294892
0.48093754 -1.1585031 0.13480568
0.55302501 -1.2861737 -0.04998282
0.48060161 -1.1177381 0.043437134
0.49451238 -1.1500905 0.13454069
0.57112569 -1.2834908 -0.050154064
0.51882529 -1.165956 0.13715008
0.59084225 -1.2840239 -0.05046162
0.60191011 -1.2658565 -0.050041549
0.62046266 -1.2635978 -0.050257139
0.63186902 -1.2468946 -0.049905304
0.6464529 -1.2368004 -0.04982315
0.6617108 -1.2280734 -0.049803305
0.68498814 -1.2338144 -0.050381929
0.69105679 -1.2086301 -0.049704943
1.2704524 -2.2219691 0.46160796
0.71295464 -1.2112746 -0.050178926
1.2987688 -2.2065437 0.46176434
0.7230413 -1.1937677 -0.049826901
1.3333428 -2.2013977 0.46416423
0.73219144 -1.1752219 -0.049433731
1.3647066 -2.1904559 0.46544367
0.75654578 -1.1809179 -0.05007007
1.4052384 -2.1934841 0.4698098
0.77485132 -1.1766075 -0.050297018
1.4498248 -2.201551 0.47541019
0.78121525 -1.1543611 -0.049762614
1.5068885 -2.2266507 0.09598726
1.5097693 -2.2309074 0.28949669
1.49964 -2.21594 0.48255697
0.79533863 -1.1439304 -0.049740754
1.5301602 -2.2008195 0.095696755
1.5229437 -2.1904404 0.28671122
1.5237393 -2.1915846 0.48139337
0.81540263 -1.1418405 -0.050092373
0.83420509 -1.1376059 -0.05036344
0.84504253 -1.1224689 -0.050160419
0.85722798 -1.1093061 -0.050050609
0.86344033 -1.0887316 -0.049608938
0.48507604 -0.61164343 0.46295983
0.88331252 -1.0854318 -0.04996144
1.5763525 -1.9370528 0.089160785
0.49206451 -0.60465854 0.46232617
0.89682537 -1.0741231 -0.049956761
1.5710915 -1.8816882 0.087516084
0.50258964 -0.60194898 0.46505657
0.91306835 -1.0660026 -0.050109852
1.237106 -1.444315 0.067893274
1.2428716 -1.4510462 0.20532727
1.2379158 -1.4452604 0.34319428
0.92888796 -1.0572325 -0.050243441
1.5783621 -1.7964445 0.085373424
0.92580247 -1.0273389 -0.0493729
1.5637501 -1.7352527 0.08339455
1.3009901 -1.4436748 0.49582151
0.94818622 -1.0259026 -0.049873732
1.5907114 -1.7210913 0.083669975
1.3706595 -1.4830031 0.36419746
1.3067547 -1.4138606 0.49119437
0.96030414 -1.0131184 -0.049836148
1.5810858 -1.6680415 0.082052365
1.3946687 -1.4713718 0.36562493
1.3360701 -1.4095504 0.49550259
0.97038585 -0.99827343 -0.04970305
1.6085706 -1.6547987 0.0823908
1.4374701 -1.4787811 0.37193453
1.3803051 -1.4199731 0.50523651
0.99036252 -0.99348366 -0.050081514
0.61710739 -0.61905223 0.29080728
0.61863297 -0.62058264 0.36280265
0.60206562 -0.60396302 0.42668617
1.0024712 -0.98062009 -0.050065432
0.63258213 -0.61879355 0.29440439
0.62514615 -0.61151969 0.36207768
0.63165182 -0.61788356 0.44210488
1.0138952 -0.96711516 -0.050023802
0.82797927 -0.78977728 0.040851042
1.0230539 -0.9515397 -0.049880553
0.83516234 -0.77678227 0.040719613
1.0264105 -0.93083489 -0.049468797
0.83293736 -0.75537729 0.040144183
1.0550814 -0.93289691 -0.050280463
0.85174471 -0.75310785 0.04059035
1.0629988 -0.91630977 -0.050103933
0.86499465 -0.74562937 0.040771104
1.0701261 -0.89921772 -0.049902208
1.2517947 -1.0518724 0.058373798
1.0729314 -0.87876612 -0.04951309
1.2623347 -1.0338937 0.058253579
0.60542667 -0.49586436 0.46410421
1.1035783 -0.88088554 -0.050411493
1.2593073 -1.0051897 0.057525195
0.6106596 -0.48743361 0.46337375
1.1072991 -0.86125547 -0.05008208
1.2508506 -0.97290951 0.056574773
0.62048852 -0.48261499 0.46618366
1.1226881 -0.85075533 -0.050289586
1.2480633 -0.94576281 0.055905636
1.1165814 -0.82420295 -0.049547225
1.2567393 -0.92766023 0.05576659
1.1338066 -0.81506461 -0.049852192
1.2683636 -0.91179419 0.055768508
1.1474657 -0.80316418 -0.050004117
1.2673916 -0.88710582 0.05523023
1.1516351 -0.78466499 -0.049751289
1.2636484 -0.86098516 0.054590326
1.166984 -0.77378917 -0.049989469
1.2617701 -0.83663881 0.054049775
1.1804761 -0.76151234 -0.050152689
1.2730373 -0.8212226 0.054085162
1.1883448 -0.74556816 -0.050084155
1.278118 -0.80189186 0.053867746
1.1846309 -0.72261196 -0.049540196
1.265866 -0.77216464 0.052937385
1.2593036 -0.76816154 0.15852787
1.2041848 -0.71389282 -0.049978029
1.3086811 -0.77584279 0.054315008
1.251897 -0.74217874 0.15640663
1.2232908 -0.70455611 -0.050398786
1.3329034 -0.76768762 0.054914754
1.2531916 -0.72177756 0.15542053
1.2206659 -0.68272197 -0.049932495
1.3679011 -0.76507103 0.055955291
1.2531821 -0.70090842 0.15431252
1.2279022 -0.66661239 -0.049881179
1.4101651 -0.76556057 0.05728526
1.2592123 -0.6836102 0.15398286
1.2405076 -0.65336847 -0.050055061
1.4432433 -0.76014823 0.058235537
1.2589531 -0.66308361 0.15291801
1.2446845 -0.63567907 -0.049896654
1.2672373 -0.64719719 0.15292223
1.2462318 -0.61680979 -0.049643386
1.2674091 -0.62729126 0.1519777
1.2591879 -0.60360444 -0.049852766
1.2621253 -0.60501248 0.15041864
1.2545576 -0.58207375 -0.049375344
1.2690103 -0.58877927 0.15034367
1.2728714 -0.5712052 -0.04980908
1.2627357 -0.56665683 0.14874317
1.2824078 -0.55619347 -0.049904235
1.264551 -0.5484488 0.14813174
1.2870816 -0.53906924 -0.049818005
1.2645444 -0.52963001 0.14733803
1.2479256 -0.52266955 0.24400464
1.2999501 -0.52531922 -0.050056092
1.2796123 -0.51710057 0.14832324
1.2681948 -0.51248664 0.24668646
1.3079295 -0.50948149 -0.050112341
1.2968071 -0.50514895 0.14956716
1.2617216 -0.49148202 0.24420412
1.3132548 -0.49260285 -0.050074745
1.3364123 -0.50128925 0.15339483
1.2585832 -0.47209546 0.24242686
1.3264508 -0.47858918 -0.050344128
1.3690596 -0.49396259 0.15641576
1.2648121 -0.45634964 0.24250056
1.3309373 -0.46135241 -0.050289929
1.3923061 -0.4826251 0.1583648
1.2612832 -0.4372077 0.24074934
1.3257265 -0.44092771 -0.04987929
1.4388047 -0.47853675 0.16295537
1.2512075 -0.41614318 0.23780705
1.3343264 -0.42520508 -0.049997438
1.471349 -0.46886957 0.16595942
1.2601696 -0.40157378 0.23853041
1.3373322 -0.40768704 -0.049913753
1.2612356 -0.38448888 0.2377969
1.3474469 -0.39229724 -0.050102919
1.2620575 -0.36743686 0.23706073
1.3591961 -0.37721968 -0.050359178
1.2668899 -0.35160184 0.23711799
1.3500513 -0.35643595 -0.049850114
1.2720983 -0.33585507 0.23728245
1.3538696 -0.33926791 -0.049829401
1.2849349 -0.32199347 0.2389016
1.3623239 -0.32321191 -0.049986806
1.2729681 -0.30201223 0.2359509
1.2534335 -0.29737765 0.32866797
1.3515987 -0.30274332 -0.049449477
1.2679877 -0.28401539 0.2343463
1.245736 -0.27903125 0.32570243
1.3572879 -0.28611937 -0.049521878
1.2587148 -0.26533994 0.23199658
1.2530354 -0.26414272 0.32671535
1.383644 -0.2735261 -0.050353847
1.3824202 -0.2552411 -0.050188366
1.3864822 -0.23797891 -0.05022306
1.3725014 -0.21782559 -0.049613338
1.3987733 -0.22199513 0.25542423
1.2592552 -0.19985262 0.3252973
1.3856956 -0.20206681 -0.049994342
1.4298481 -0.20850527 0.26059854
1.2691345 -0.18506949 0.32722142
1.3797388 -0.18348728 -0.049692128
1.4655792 -0.19490293 0.2666423
1.2522562 -0.16653374 0.32230341
1.3841829 -0.16636977 -0.049772788
1.258834 -0.15130365 0.32348043
1.3925564 -0.14961441 -0.050002173
1.2778893 -0.13729471 0.32790676
1.4005504 -0.13265778 -0.05022525
1.2653006 -0.11984715 0.32426357
1.3939954 -0.11434703 -0.049934585
1.2678059 -0.10399593 0.32454428
1.387997 -0.096277602 -0.049672354
1.2605997 -0.087440759 0.32239214
1.3967009 -0.079224594 -0.049944177
1.2801681 -0.072614536 0.32713684
1.3930496 -0.06143203 -0.049782004
1.2771152 -0.056319445 0.32614967
1.3923275 -0.043843362 -0.049732529
1.2631471 -0.039775569 0.322429
1.2558055 -0.039544385 0.41800627
1.4168947 -0.02676452 -0.050593995
1.2652287 -0.023899615 0.32285795
1.2589842 -0.023781659 0.41893142
1.4117688 -0.0088882912 -0.050402965
1.2823194 -0.0080732964 0.32716721
1.2688261 -0.0079883449 0.42213944
1.3996425 0.008811946 -0.049970035
1.2911234 0.008128725 0.32941344
1.244211 0.0078333719 0.41394994
1.3884871 0.026227912 -0.049579624
1.3232932 0.024996428 0.33767471
1.2743772 0.024072425 0.42405349
1.3956492 0.043947961 -0.049851175
1.3240004 0.041691791 0.33796233
1.2412056 0.039084643 0.41314656
1.4111031 0.062228173 -0.050427165
1.3277214 0.058551122 0.33907345
1.2536077 0.05528279 0.41747332
1.3939179 0.079066731 -0.04984466
1.3539376 0.076798946 0.34598809
1.2563334 0.071262576 0.41864666
1.4121907 0.097955786 -0.050538175
1.3406584 0.092993982 0.34286675
1.2512258 0.086790547 0.41727579
1.3983314 0.11470271 -0.050089907
1.3375236 0.10971475 0.34239122
1.2621645 0.10353317 0.42132512
1.3924173 0.13188742 -0.049933586
1.7384161 0.16465984 0.062341478
1.7446111 0.16524662 0.18833131
1.7245607 0.16334748 0.31241435
1.3670974 0.12948915 0.35035139
1.2448108 0.11790638 0.41599488
1.388453 0.14917354 -0.049854834
1.5932189 0.17117332 0.057207312
1.6185486 0.1738947 0.17494532
1.5281118 0.1641783 0.277179
1.3571244 0.14580764 0.34823853
1.255986 0.13494146 0.42026398
1.3764738 0.16544318 -0.049495582
1.607861 0.19325443 0.057815861
1.6165538 0.19429924 0.1749803
1.4781909 0.17766891 0.26850852
1.3619086 0.16369253 0.3499673
1.2604648 0.15149966 0.42236751
1.3981812 0.18593988 -0.05035634
1.6184465 0.2152323 0.058289327
1.6110759 0.2142521 0.17466554
1.4920779 0.19842692 0.27146342
1.220096 0.16225687 0.31402612
1.2599086 0.16755141 0.42285454
1.382275 0.20156799 -0.049870927
1.6076235 0.23442909 0.05800125
1.6229095 0.23665814 0.1762576
1.4741824 0.21497025 0.26867875
1.1216035 0.16355601 0.28918344
1.2534432 0.18278132 0.42142373
1.3832463 0.21953087 -0.050001744
1.0548828 0.16741729 0.038132023
1.0306475 0.16357099 0.11214924
1.0319854 0.16378331 0.1884466
1.0393209 0.16494752 0.26848274
1.03433 0.16415542 0.34842241
1.3717569 0.23545143 -0.049689662
0.95150959 0.16331923 0.034466885
0.95608509 0.16410458 0.10425237
0.94455349 0.16212527 0.1728401
0.96531433 0.16568871 0.24988413
0.9547804 0.16388065 0.32229507
1.3701091 0.25296804 -0.049741413
0.92304862 0.1704257 0.033511013
0.91496545 0.16893327 0.09999267
0.91370285 0.16870016 0.16757029
0.91711664 0.16933045 0.23794062
0.91309661 0.16858822 0.30891642
1.3624281 0.26933202 -0.049581751
0.93652231 0.18513671 0.034082104
0.92786777 0.18342584 0.10164708
0.9242211 0.18270494 0.16990778
0.90905637 0.1797071 0.23641779
0.91770732 0.18141727 0.31122449
1.3679165 0.28835991 -0.049909674
0.92447293 0.19488101 0.033730235
0.91481537 0.19284517 0.10047526
0.92179573 0.19431664 0.16989826
0.92925906 0.19588992 0.24229419
0.91519535 0.19292526 0.31117183
1.3685859 0.3065483 -0.050070971
0.92000544 0.20607115 0.033659242
0.91004926 0.20384108 0.10022576
0.91290832 0.20448147 0.16872141
0.9193123 0.20591588 0.24035771
0.91413152 0.20475546 0.31166205
1.3476835 0.31973851 -0.049449623
0.90823388 0.21547888 0.033325199
0.91765434 0.21771389 0.10135721
0.92502719 0.21946311 0.17145835
0.91057336 0.21603392 0.2387652
0.92251754 0.21886769 0.3154358
1.3644934 0.34193015 -0.050220415
0.90806657 0.22755358 0.033421546
0.90837079 0.22762981 0.10064045
0.92388833 0.23151837 0.171774
0.91237515 0.22863327 0.23997355
0.91914791 0.23033047 0.31525034
1.3645555 0.36026531 -0.050385673
0.92602831 0.24448684 0.034193229
0.92811722 0.24503835 0.10316187
0.91240686 0.24089056 0.1701898
0.92629319 0.24455677 0.24442486
0.91031247 0.24033761 0.31323311
1.3521439 0.3752625 -0.050097894
0.92666107 0.25717762 0.034333453
0.90943015 0.25239548 0.10143
0.91828912 0.25485414 0.17187198
0.92522061 0.25677785 0.24497564
0.94037718 0.26098427 0.32468325
1.3419152 0.39068672 -0.049897231
0.92781723 0.27012578 0.034499578
0.93045169 0.27089277 0.10414675
0.91197073 0.2655122 0.17130157
0.93409848 0.27195451 0.24821332
0.91351479 0.26596174 0.31653973
1.3354611 0.40711665 -0.049843919
0.91005778 0.27743199 0.033966426
0.92917371 0.28325951 0.10439467
0.92622256 0.28235987 0.17463261
0.92165083 0.28096613 0.24582632
0.91756701 0.2797212 0.31913906
1.3398938 0.42697921 -0.05020605
0.91984397 0.29312342 0.03446671
0.92193878 0.29379097 0.10398921
0.9045527 0.2882506 0.17121769
0.91959417 0.29304382 0.24624246
0.92884046 0.29599029 0.32433072
1.3372829 0.44477129 -0.050314091
0.91360819 0.30385992 0.034373701
0.91731173 0.30509171 0.10389239
0.92225844 0.30673695 0.17528632
0.92684925 0.30826384 0.24920484
0.92280304 0.30691808 0.32354644
1.3338201 0.46235171 -0.050398856
0.92581278 0.32092118 0.034982156
0.91540152 0.31731224 0.10412034
0.91767472 0.31810021 0.17516257
0.91100907 0.31578967 0.24599552
0.91237593 0.31626347 0.32126141
1.307691 0.47182056 -0.049632117
0.92116535 0.33236045 0.03496192
0.92079276 0.33222601 0.10520105
0.92960262 0.33540463 0.17823134
0.93304986 0.3366484 0.2530717
0.92750871 0.33464915 0.32804766
1.2995734 0.48747095 -0.04955307
0.92269486 0.34610352 0.035182592
0.91132444 0.34183848 0.10460279
0.9133476 0.34259737 0.17592798
0.91280031 0.34239206 0.24872908
0.92539579 0.34711662 0.32882023
1.3070914 0.50915504 -0.050080229
0.91323644 0.35573557 0.034989972
0.92358315 0.35976595 0.1065214
0.92445135 0.36010414 0.17892602
0.91309834 0.35568181 0.25001091
0.92518693 0.36039069 0.33033237
1.2946609 0.52318186 -0.049852427
1.2828681 0.51841629 0.35301512
1.2530801 0.50637871 0.44964567
1.2875384 0.53926063 -0.049835689
1.2646774 0.52968574 0.34981716
1.2765822 0.55366683 -0.049677536
1.2698226 0.55073518 0.35313061
1.2634169 0.56696254 -0.049439117
1.2529595 0.56226975 0.35038227
1.2638408 0.58638084 -0.049740702
1.2577635 0.58356112 0.35375252
1.2635322 0.6056869 -0.050024759
1.2457858 0.59718007 0.35247082
1.2644303 0.625817 -0.05036832
1.2516947 0.61951363 0.35632148
1.256983 0.64196014 -0.050389674
1.2418226 0.6342175 0.35575643
1.2403777 0.65329999 -0.050049815
1.2492709 0.65798402 0.36023527
1.2225941 0.66373074 -0.049665552
1.2439688 0.67533475 0.36112991
1.2180449 0.68125606 -0.049825281
1.233547 0.68992639 0.36059791
1.2019972 0.69229198 -0.049521502
1.2226375 0.70417988 0.35997239
1.2056593 0.71476698 -0.050039224
1.2175889 0.72183937 0.36113349
1.1824957 0.7213096 -0.049450912
1.2195207 0.74389446 0.36445585
1.1917441 0.74770087 -0.050227419
1.2167281 0.76337588 0.36646497
1.1904856 0.76796937 -0.050577942
1.2166945 0.78487641 0.36940229
1.1677369 0.77428842 -0.050021723
1.2022343 0.79716247 0.36803049
1.1500764 0.78360301 -0.049683955
1.1870641 0.80880445 0.36647522
1.1606894 0.81242007 -0.050580375
1.191709 0.83413219 0.37112257
1.14466 0.8228668 -0.050329398
1.1867573 0.85312957 0.37289646
1.1221511 0.82831424 -0.049794376
1.1833462 0.87348521 0.37525094
1.1141192 0.844262 -0.049905751
1.1708777 0.88727272 0.37481034
1.1021301 0.85723495 -0.049848288
1.1711129 0.91088969 0.37852731
1.0851468 0.86617327 -0.049569536
1.155371 0.92222685 0.37716284
1.0805657 0.88501883 -0.049865395
1.1463325 0.93888402 0.37804174
1.0580688 0.88908601 -0.04933995
1.1392214 0.95727789 0.3796418
1.0554042 0.90976328 -0.049745969
1.1345026 0.97794652 0.38214275
1.0458255 0.9247129 -0.04983937
1.1184148 0.98889595 0.38088799
1.0392866 0.94251215 -0.050089378
1.1029477 1.0002453 0.37987986
1.0302222 0.95820689 -0.050230056
1.090029 1.0138332 0.37979731
1.0153835 0.96853489 -0.050097238
1.0898367 1.0395529 0.38426089
1.0034076 0.98153609 -0.050112199
1.0824199 1.0588262 0.38631618
0.98686576 0.98997587 -0.049904685
1.072595 1.0759754 0.38761458
0.9738127 1.0017987 -0.049878571
1.0512071 1.0814173 0.38477594
0.95807606 1.0107678 -0.049720518
1.0949397 1.1551585 0.056823224
1.084674 1.1443282 0.16944759
1.082348 1.1418743 0.28374726
1.0394351 1.0966014 0.38549089
0.95750022 1.03598 -0.050363641
1.0573943 1.1440617 0.055617981
1.0683954 1.1559645 0.16916509
1.054181 1.1405851 0.28010607
1.0331458 1.1178257 0.38834783
0.93264043 1.0349268 -0.049737569
1.0312786 1.144383 0.054997928
1.0370381 1.1507741 0.16648133
1.0365167 1.1501956 0.27923876
1.0169173 1.1284467 0.38755828
0.91590703 1.0424579 -0.049541306
1.0080991 1.1473882 0.054527961
1.023115 1.1644789 0.16658697
1.0208557 1.1619074 0.27893916
1.0084783 1.1478198 0.38981956
0.90956801 1.061916 -0.04991775
1.0040363 1.1722072 0.05510224
0.99291414 1.1592222 0.16403331
1.0010865 1.1687634 0.27753678
0.98434281 1.1492152 0.38605329
0.89522058 1.0722011 -0.049867369
0.99243248 1.1886313 0.055282459
0.99927533 1.1968269 0.16756067
0.98770046 1.1829637 0.27793339
0.98379129 1.1782818 0.39162502
0.87528694 1.0755697 -0.049507502
0.98757768 1.2135549 0.055858828
0.99430615 1.221823 0.16929387
0.98532355 1.2107849 0.2815325
0.97069359 1.1928073 0.39235917
0.87678218 1.1055547 -0.050375495
0.96901417 1.2218521 0.05567468
0.98050964 1.236347 0.1695821
0.97595203 1.2306001 0.28325996
0.96229529 1.2133801 0.39510912
0.85351366 1.1044995 -0.049833741
0.99087292 1.2822509 0.057853676
0.98589283 1.2758063 0.17327793
0.98385727 1.2731723 0.2901845
0.94454455 1.2222991 0.39410913
0.84173441 1.1180749 -0.049964055
0.93301874 1.2393278 0.39578018
0.83454514 1.1380697 -0.050383974
0.92110872 1.2561165 0.3974061
0.81265306 1.1379901 -0.049923457
0.90830153 1.2719305 0.39875907
0.79377627 1.1416833 -0.049643047
0.88969964 1.2796494 0.39763516
0.78172672 1.1551168 -0.049795192
0.87075406 1.2866679 0.39637756
0.76481807 1.1613721 -0.049645744
0.8586998 1.303931 0.39833301
0.75698727 1.1816069 -0.050099287
0.84460086 1.3183659 0.39946207
0.73604739 1.181411 -0.049694061
0.83254087 1.3362902 0.40168476
0.72333282 1.1942489 -0.049846992
0.81358731 1.3432624 0.40066925
0.70841289 1.2035583 -0.04985927
0.79432285 1.3495151 0.39951912
0.70708293 1.236659 -0.050857637
0.77394015 1.3535895 0.39780864
0.682338 1.2290409 -0.050187003
0.76056737 1.3699491 0.39977023
0.65952182 1.2240108 -0.049638554
0.74172151 1.3765658 0.39894393
0.64312035 1.2304245 -0.049566306
0.72191006 1.3811659 0.39761105
0.63306946 1.2492635 -0.050000116
0.71000421 1.4010822 0.40073901
0.61837941 1.2593552 -0.050088394
0.6911819 1.4076205 0.40008801
0.60430431 1.2708917 -0.050240599
0.67868775 1.4273249 0.40322754
0.58767438 1.2771395 -0.050191067
0.65640032 1.4264953 0.40062633
0.56825131 1.2770312 -0.049901646
0.63361317 1.423919 0.39763048
0.55264354 1.2852864 -0.049948338
0.62325466 1.4495072 0.40255252
0.53064936 1.2782511 -0.049411342
0.60821885 1.4651039 0.40472493
0.51624304 1.2891525 -0.049577527
0.58521765 1.4613947 0.40163276
0.50253141 1.3021876 -0.04983151
0.5714159 1.4806849 0.40492463
0.49012789 1.3192657 -0.050244886
0.55554539 1.4953485 0.40698937
0.46889496 1.3125042 -0.049758554
0.53429562 1.4955701 0.40518641
0.45217395 1.3178442 -0.04974119
0.51094913 1.4891422 0.40166995
0.43363705 1.3176361 -0.049523313
0.49009934 1.4892007 0.3999894
0.42135942 1.336784 -0.050039597
0.47233948 1.4985207 0.40086338
0.40384209 1.3398196 -0.049958915
0.45509607 1.509864 0.4023329
0.38766915 1.3473319 -0.050053038
0.43740815 1.5201982 0.40358695
0.36862743 1.3446414 -0.049776699
0.42020568 1.5327834 0.4054912
0.35332668 1.3555417 -0.050011542
0.39526847 1.5164518 0.39982235
0.33577073 1.3580225 -0.049943119
0.38192689 1.5447009 0.40597019
0.31966877 1.3665191 -0.050103586
0.36088207 1.5426977 0.40421736
0.30160606 1.3666692 -0.049965873
0.34317294 1.5550215 0.40628198
0.28485712 1.3726859 -0.050050743
0.3219074 1.551226 0.40419921
0.26865107 1.3818233 -0.050256576
0.30482972 1.5679104 0.40751415
0.2522856 1.390911 -0.050467551
0.28152347 1.5521064 0.40245324
0.2314412 1.3743155 -0.049755715
0.26278085 1.5604126 0.40371701
0.21617521 1.3903481 -0.050233625
0.24089862 1.5493588 0.40004057
0.19671676 1.3793905 -0.049744278
0.22259136 1.5608248 0.40224543
0.17910336 1.3799889 -0.049680591
0.2153853 1.6595407 0.059744656
0.21545185 1.6600535 0.17990108
0.21403414 1.64913 0.2999129
0.20306055 1.5645788 0.40252203
0.16292983 1.3925309 -0.050054286
0.18701956 1.5984213 0.057454977
0.18801901 1.6069634 0.17387731
0.18927322 1.6176829 0.29373717
0.18321937 1.5659419 0.40224728
0.14444955 1.385516 -0.049732812
0.16642021 1.596252 0.057297137
0.1666854 1.5987957 0.17275272
0.16625167 1.5946355 0.28914917
0.16308402 1.5642523 0.40125394
0.12652093 1.3820708 -0.04954803
0.14664268 1.6018739 0.057428099
0.14591055 1.5938762 0.17200902
0.14529109 1.5871096 0.28742999
0.14339028 1.5663458 0.40129599
0.10954607 1.3890971 -0.049746532
0.12517019 1.5872185 0.056841683
0.12527785 1.5885836 0.17125402
0.12368477 1.5683827 0.28373396
0.12449834 1.5786991 0.40402719
0.092502281 1.3972437 -0.049992602
0.10497896 1.5857035 0.056735586
0.1058792 1.5993016 0.17225206
0.10586257 1.5990504 0.28901795
0.10362685 1.5652801 0.40022728
0.075201683 1.4038931 -0.05019265
0.084907353 1.5850821 0.056670606
0.085558847 1.5972445 0.17190084
0.085524619 1.5966055 0.28835854
0.08393684 1.5669643 0.40035591
0.056270439 1.3742361 -0.049103115
0.065431975 1.5979791 0.057097718
0.066685319 1.6285883 0.1751699
0.066266045 1.6183487 0.29211164
0.064359032 1.5717757 0.40134633
0.03991444 1.4084194 -0.050302576
0.046608597 1.6446291 0.058738954
0.046379402 1.6365417 0.17594862
0.04645412 1.6391783 0.29574236
0.044515189 1.5707612 0.40091237
0.022027874 1.3993009 -0.049963038
0.02471761 1.5701641 0.40064874
0.0044177361 1.402802 -0.050082088
0.004920796 1.5625429 0.3986567
-0.013151927 1.3928274 -0.04972795
-0.014704142 1.5572114 0.39731219
-0.030731725 1.3945234 -0.049798369
-0.034867145 1.5821776 0.40376216
-0.048162643 1.3904061 -0.049669065
-0.054662682 1.5780556 0.402854
-0.065579608 1.3878671 -0.049603928
-0.07433407 1.5731386 0.40180585
-0.083565317 1.3955482 -0.049912117
-0.093213998 1.5566821 0.39787084
-0.10122534 1.3956953 -0.049959004
-0.11945575 1.4021149 -0.05023865
-0.13709074 1.400399 -0.05023504
-0.15348114 1.3874297 -0.049835186
-0.17138796 1.3890309 -0.049966257
-0.18510304 1.3591477 -0.048971262
-0.20549385 1.3787986 -0.049768589
-0.22072852 1.3630733 -0.049297392
-0.24151558 1.3810103 -0.050052129
-0.25805926 1.3734648 -0.049892478
-0.27469155 1.3669177 -0.049776349
-0.29416242 1.3740075 -0.050165433
-0.30567545 1.3448353 -0.049236979
-0.32687601 1.358719 -0.049892031
-0.34354562 1.3528717 -0.049832214
-0.36235446 1.3551772 -0.050081238
-0.37887886 1.3486911 -0.050013889
-0.40180928 1.3641113 -0.050769322
-0.41242963 1.3377835 -0.049978778
-0.4311648 1.3384557 -0.050202753
-0.43862185 1.3050665 -0.049153656
-0.45963797 1.3126298 -0.049652576
-0.47733667 1.3100525 -0.049778502
-0.48971808 1.2931753 -0.049367618
-0.50900817 1.2946548 -0.049664851
-0.52936012 1.2981758 -0.050051663
-0.54772115 1.2962768 -0.050240379
-0.56110215 1.2826545 -0.049982294
-0.57572126 1.2722028 -0.049853563
-0.59475827 1.271403 -0.050111726
-0.60947239 1.2612325 -0.050009392
-0.61180919 1.2264065 -0.04893009
-0.6422109 1.2477655 -0.05010093
-0.65630424 1.2366285 -0.04998162
-0.67412037 1.2324673 -0.050152548
-0.68782002 1.2207488 -0.05002417
-0.70803481 1.2204353 -0.050372679
-0.7216326 1.2085549 -0.050253399
-0.72707415 1.183553 -0.04959055
-0.75109631 1.1888304 -0.050203979
-0.76128167 1.1720064 -0.049894374
-0.78319734 1.1731414 -0.050358545
-0.79437053 1.1580322 -0.050135382
-0.80207574 1.1382698 -0.049713112
-0.82153207 1.1352491 -0.050029032
-0.83617371 1.1253704 -0.050053731
-0.84967566 1.1139641 -0.050018322
-0.86514992 1.1051131 -0.050106086
-0.88230324 1.0982488 -0.050294612
-0.89549893 1.08637 -0.050263032
-0.90506768 1.0702324 -0.050039724
-0.91901916 1.059383 -0.050069563
-0.93598634 1.0518869 -0.050268337
-0.93557358 1.0251349 -0.049548961
-0.96168244 1.027457 -0.050242521
-0.96384877 1.0041255 -0.049691174
-0.97943962 0.994982 -0.049845077
-0.99416316 0.98482257 -0.049959309
-1.0102963 0.97590899 -0.050148521
-1.0140955 0.95519054 -0.04973612
-1.0311893 0.9470734 -0.049985625
-1.042599 0.93362635 -0.049964856
-1.0533589 0.91962773 -0.049921587
-1.0703156 0.91093963 -0.050177608
-1.0821838 0.89779174 -0.050200023
-1.0800947 0.87333435 -0.049589045
-1.105317 0.87094235 -0.050239544
-1.1030325 0.84685004 -0.049647078
-1.1268262 0.84278065 -0.050236374
-1.1189048 0.81509012 -0.049421728
-1.1374756 0.80689341 -0.049789257
-1.1473606 0.79237974 -0.049781248
-1.1705167 0.78679007 -0.050352085
-1.1775649 0.77018052 -0.050234098
-1.1820904 0.75206143 -0.050019201
-1.1909547 0.73680151 -0.049997732
-1.2016884 0.72268021 -0.050062343
-1.2138889 0.70936006 -0.050194513
-1.2218573 0.6935274 -0.050158922
-1.2202518 0.67244422 -0.049741466
-1.2443739 0.6654501 -0.050379191
-1.2357064 0.64093876 -0.049697593
-1.2514498 0.62923622 -0.050008126
-1.2604736 0.61401373 -0.050055791
-1.2677565 0.59792989 -0.050042037
-1.2728317 0.58084607 -0.049949698
-1.2826355 0.56591678 -0.050050806
-1.2970731 0.55288219 -0.050338533
-1.2895356 0.53058326 -0.049782764
-1.2989713 0.51543814 -0.049892507
-1.3030194 0.49814752 -0.049803115
-1.3106146 0.48222616 -0.049857367
-1.3256358 0.46888795 -0.050200202
-1.3182967 0.44769776 -0.049704857
-1.3106771 0.42678073 -0.04921104
-1.338092 0.41714758 -0.050039176
-1.3373951 0.39852515 -0.049821503
-1.3421421 0.38160723 -0.049815383
-1.3451759 0.36422703 -0.049753811
-1.3478929 0.34680733 -0.049688842
-1.3617646 0.33215266 -0.050042052
-1.3693653 0.31579334 -0.05017126
-1.364567 0.29664245 -0.049854651
-1.3655385 0.27889502 -0.049757887
-1.3784528 0.26349717 -0.050103586
-1.3712195 0.24425988 -0.049724933
-1.3815731 0.22819529 -0.049992226
-1.38603 0.2110393 -0.050053369
-1.3923438 0.19409584 -0.050189137
-1.0204651 0.14225513 0.42659479
-1.3834239 0.17512463 -0.049784169
-1.0233532 0.12954406 0.42708635
-1.3850729 0.15764096 -0.049768131
-1.0465103 0.11910773 0.35041568
-1.0102499 0.11498077 0.42098016
-1.3966963 0.14117405 -0.050117932
-1.0523379 0.10636729 0.35189059
-1.012816 0.10237252 0.42147887
-1.4082199 0.12444783 -0.050471205
-1.0835236 0.095753625 0.27751896
-1.0479318 0.09260828 0.34999952
-1.0163256 0.089815177 0.42243528
-1.4047281 0.10633229 -0.050294079
-1.0937626 0.082793452 0.039160449
-1.0901868 0.082522772 0.1174968
-1.0874951 0.082319014 0.1966894
-1.0930254 0.082737647 0.27966356
-1.0431472 0.078962065 0.34804186
-1.012545 0.076645598 0.42042938
-1.3916323 0.087733641 -0.049781702
-1.0496998 0.066176951 0.3499223
-1.0175829 0.064152181 0.42215231
-1.3842515 0.069782145 -0.04948232
-1.0415477 0.052505944 0.34695685
-1.0199852 0.051418949 0.42284682
-1.3895291 0.052517623 -0.049643401
-1.0572175 0.039957814 0.35198122
-1.035272 0.039128382 0.42894587
-1.4092795 0.035501253 -0.050329059
-1.0582341 0.026658043 0.35218
-1.0341529 0.026051411 0.42831227
-1.4064945 0.017714605 -0.050217647
-1.0480499 0.013200045 0.34870774
-1.0269012 0.012933681 0.42520776
-1.4023967 3.7213856e-06 -0.050067369
-1.0565178 2.8035649e-06 0.35149735
-1.0208791 2.7089943e-06 0.42268065
