# .PCD v0.7 - Point Cloud Data file format
VERSION 0.7
FIELDS x y z
SIZE 4 4 4
TYPE F F F
COUNT 1 1 1
WIDTH 1202
HEIGHT 1
VIEWPOINT 0 0 0 1 0 0 0
POINTS 1202
DATA ascii
-1.4087896 -3.7383497e-06 -0.050295606
-0.89663363 -2.3792977e-06 0.1617067
-1.4231778 -0.01792473 -0.050813314
-0.88627678 -0.011162534 0.15985154
-1.3982391 -0.035223134 -0.049934775
-1.3986449 -0.052862152 -0.049969077
-1.3848711 -0.069813386 -0.04950447
-0.90057439 -0.045399275 0.16262366
-1.3928511 -0.087810479 -0.049825303
-0.90162522 -0.056841783 0.097089402
-1.403479 -0.10623773 -0.050249353
-0.90082908 -0.068189152 0.097088434
-0.88892895 -0.067288361 0.16077581
-1.3950571 -0.12328459 -0.049999438
-0.91521949 -0.080880173 0.098741323
-0.88937819 -0.078596517 0.1610233
-1.4018667 -0.14169665 -0.050303463
-0.88933772 -0.089891694 0.16120814
-1.393276 -0.1585746 -0.050062884
-0.89043468 -0.1013441 0.096312195
-0.90469825 -0.1029675 0.16421451
-1.404967 -0.17785171 -0.05055942
-0.88995725 -0.11265776 0.096406356
-0.89725012 -0.11358093 0.16310926
-1.3995243 -0.19509682 -0.050447971
-0.89461589 -0.12471146 0.032247782
-0.90529138 -0.12619965 0.098231815
-0.90062445 -0.12554908 0.16399707
-1.3778336 -0.20979132 -0.049757376
-0.89126527 -0.13570559 0.03218605
-0.89903045 -0.13688794 0.16400769
-1.3864075 -0.22899379 -0.050167158
-0.89191175 -0.14731762 0.032273829
-0.89115107 -0.14719197 0.097068973
-0.8904466 -0.14707562 0.16276671
-1.3807843 -0.24596368 -0.050071783
-0.88165516 -0.15705216 0.096242413
-0.88751131 -0.15809534 0.16258118
-1.366785 -0.26126683 -0.049679492
-0.88753325 -0.1696558 0.032259792
-0.90275878 -0.17256624 0.098775484
-0.88198447 -0.16859512 0.16194478
-1.3759946 -0.28103054 -0.050138887
-0.89220721 -0.18222272 0.032510504
-0.89432734 -0.18265574 0.09809684
-0.89379996 -0.18254803 0.1645233
-1.3729469 -0.29846412 -0.050160803
-0.89560205 -0.19469441 0.032720946
-0.89343458 -0.19422323 0.098259389
-0.89301407 -0.19413182 0.16481555
-1.3691313 -0.31573936 -0.050162688
-0.89243925 -0.20580801 0.032697484
-0.89851606 -0.20720939 0.099097349
-0.88343018 -0.2037304 0.16350724
-1.3608696 -0.33193439 -0.050009169
-0.90271485 -0.22018428 0.03317292
-0.88997811 -0.21707761 0.098449372
-0.90115088 -0.2198028 0.16728604
-1.3554652 -0.34875563 -0.049967989
-0.89191532 -0.22948615 0.032879643
-0.88091063 -0.22665468 0.097754292
-0.88770914 -0.22840393 0.16531157
-1.3386317 -0.3624551 -0.049511764
-0.89363891 -0.24196647 0.033052884
-0.88306594 -0.23910367 0.098319791
-0.90648431 -0.24544455 0.16937007
-1.3401042 -0.38102779 -0.049739745
-0.88655019 -0.25207016 0.032905485
-0.89224547 -0.25368947 0.099689603
-0.88144952 -0.25061989 0.16526905
-1.340978 -0.39959279 -0.049954977
-0.9062658 -0.27005458 0.033760797
-0.88846684 -0.26475075 0.099631995
-0.90336269 -0.26918951 0.16999978
-1.3407135 -0.41796485 -0.050137214
-0.90083504 -0.28083357 0.033687554
-0.90553355 -0.28229833 0.10193639
-0.88499594 -0.27589577 0.16718394
-1.3354014 -0.43483144 -0.050139349
-0.90562606 -0.29488862 0.034002885
-0.89441216 -0.29123718 0.10108927
-0.89903635 -0.29274291 0.17051917
-1.3244565 -0.44978961 -0.049937103
-0.89521241 -0.30401701 0.033752952
-0.8934229 -0.30340928 0.10140124
-0.88354921 -0.30005613 0.16828503
-1.316668 -0.46571597 -0.049860604
-0.97064722 -0.34332567 0.036757223
-0.97009385 -0.34312993 0.11058483
-0.98638451 -0.34889206 0.18869336
-1.3193651 -0.48544589 -0.050190251
-1.0900949 -0.40108839 0.041468531
-1.0845647 -0.3990536 0.12419678
-1.3097068 -0.50070411 -0.050058715
-1.2129948 -0.4637309 0.046362258
-1.2243701 -0.46807972 0.14087011
-1.2982993 -0.51517153 -0.049866702
-1.3905343 -0.55177081 0.053409375
-1.3851274 -0.54962534 0.16014966
-1.2944978 -0.53262496 -0.049974333
-1.623628 -0.66804659 0.062680468
-1.6327621 -0.67180485 0.18974447
-1.2781882 -0.54483241 -0.049605623
-1.8956327 -0.80802035 0.2214577
-1.2895172 -0.56895316 -0.050319348
-1.9083613 -0.84199589 0.2241656
-1.2840297 -0.58595628 -0.050389145
-1.8863841 -0.86083567 0.2228397
-1.2676417 -0.59787571 -0.050037503
-1.8922844 -0.89248478 0.22484647
-1.2613069 -0.61441964 -0.050088879
-1.8920676 -0.9216817 0.22618182
-1.2497957 -0.62840456 -0.049942028
-1.8956691 -0.95315343 0.22802906
-1.2466245 -0.64660174 -0.050136693
-1.8924197 -0.9815641 0.22910681
-1.235292 -0.66059339 -0.050011504
-1.2255243 -0.67534977 -0.049956389
-1.2115302 -0.6876657 -0.04973498
-1.2131165 -0.70890868 -0.050162576
-1.2039254 -0.72402549 -0.050155539
-1.1958035 -0.73980135 -0.050201297
-1.1795638 -0.75045395 -0.049912293
-1.1675451 -0.76362717 -0.049806666
-1.8957249 -1.2398896 0.080870308
-1.1530212 -0.77503002 -0.04959948
-1.8971324 -1.2752017 0.081608891
-1.1540031 -0.79696721 -0.050069451
-1.8961931 -1.3095317 0.082271308
-1.1420029 -0.81010491 -0.049987424
-1.8913004 -1.3416357 0.082785457
-1.1312053 -0.82405066 -0.049965035
-1.1256491 -0.84190029 -0.0501839
-1.1054085 -0.84867436 -0.049754027
-1.1038874 -0.86981589 -0.050174568
-1.0838126 -0.87634051 -0.049759738
-1.0957555 -0.90905088 -0.050829582
-1.0758178 -0.91562247 -0.050435554
-1.049916 -0.91662192 -0.049758419
-1.0438695 -0.93476403 -0.050025743
-1.0227627 -0.93933421 -0.049577154
-1.0171318 -0.95805049 -0.049885038
-1.0027312 -0.96860135 -0.049773008
-1.001 -0.99159527 -0.050302882
-0.97866952 -0.99419969 -0.049805883
-0.9673236 -1.0077455 -0.04987032
-0.94658917 -1.0113314 -0.049453985
-0.9447881 -1.0352316 -0.050036971
-0.92554712 -1.0401551 -0.049707685
-0.91760164 -1.057749 -0.049992334
-0.89903778 -1.0631021 -0.04970634
-0.88664627 -1.0756304 -0.049766142
-0.88061738 -1.0961504 -0.05019851
-0.86710846 -1.1076149 -0.050219517
-0.85376585 -1.1193266 -0.050259098
-0.83078736 -1.1181211 -0.049731303
-0.8280468 -1.1442517 -0.05042576
-0.80020297 -1.135612 -0.049597036
-0.79121488 -1.1534319 -0.049936216
-0.77710122 -1.1640099 -0.049966574
-0.76809835 -1.1825008 -0.05034114
-0.75118428 -1.1889696 -0.050209861
-0.73057783 -1.1892563 -0.04982952
-0.70737767 -1.1846815 -0.049260709
-0.70271683 -1.2112687 -0.049994335
-0.68348771 -1.2130598 -0.049709085
-0.67280775 -1.2300676 -0.050054897
-0.66197425 -1.2473122 -0.05041343
-0.63782805 -1.2392501 -0.049759012
-0.61576164 -1.2343292 -0.049246188
-0.61080891 -1.2639983 -0.050119057
-0.59784579 -1.2780031 -0.05037187
-0.5712263 -1.2622701 -0.04946433
-0.55723149 -1.2738063 -0.0496375
-0.54988688 -1.3014023 -0.050439034
-0.526721 -1.2917037 -0.049802128
-0.51030827 -1.2979617 -0.049791705
-0.5553177 -1.4124424 0.27371272
-0.51746809 -1.3161725 0.36081865
-0.5000245 -1.3203911 -0.05040659
-0.52676851 -1.3910127 0.26825321
-0.50154376 -1.3244028 0.36131495
-0.52462196 -1.3853444 0.49283761
-0.48131546 -1.3209722 -0.050193425
-0.49780083 -1.3662164 0.26224169
-0.48621356 -1.3344152 0.36234742
-0.5118258 -1.404708 0.49739397
-0.46462813 -1.3268807 -0.050191641
-0.48569909 -1.3870549 0.26504663
-0.47346112 -1.3521059 0.36550328
-0.48962522 -1.398267 0.49289107
-0.44599444 -1.3270028 -0.049979858
-0.46525192 -1.3843011 0.26338005
-0.47450799 -1.4118414 0.38000575
-0.46983775 -1.3979456 0.49065337
-0.42659321 -1.3242642 -0.049670458
-0.45972183 -1.4271047 0.27040109
-0.45099762 -1.4000223 0.48935017
-0.40898699 -1.3266166 -0.049561597
-0.43463516 -1.4098108 0.26606622
-0.4342905 -1.4086928 0.49043044
-0.39672187 -1.3468399 -0.050126519
-0.41784829 -1.4185624 0.49199569
-0.37695384 -1.3418387 -0.049759775
-0.39837208 -1.4180809 0.49005002
-0.35975185 -1.3454436 -0.049721528
-0.37853736 -1.4157 0.48754135
-0.34367421 -1.3533781 -0.049850866
-0.35812077 -1.4102681 0.48407933
-0.32641199 -1.3567903 -0.049821209
-0.32483494 -1.350235 0.049580496
-0.33647063 -1.3986008 0.47858223
-0.31433484 -1.3829328 -0.050631799
-0.30550417 -1.3440818 0.049209386
-0.32148424 -1.4143869 0.48256052
-0.29263279 -1.3668627 -0.04990457
-0.28840914 -1.3471344 0.049184285
-0.29800183 -1.391941 0.47358459
-0.27739164 -1.380354 -0.050265633
-0.27039748 -1.3455497 0.048998229
-0.28373677 -1.4119285 0.47913143
-0.25875947 -1.3771915 -0.050027855
-0.25088724 -1.3352934 0.048505861
-0.26195496 -1.394199 0.47195822
-0.2395734 -1.3699048 -0.04964963
-0.23724742 -1.3566046 0.049167588
-0.24622667 -1.4079489 0.47552547
-0.22301665 -1.3772033 -0.049808424
-0.21985868 -1.3577018 0.049103122
-0.2243102 -1.3851914 0.46684834
-0.20775589 -1.3939762 -0.050316434
-0.39227512 -2.6320419 0.095005177
-0.2073099 -1.3909838 0.46788365
-0.18763745 -1.377757 -0.049641766
-0.35720059 -2.6228006 0.094501756
-0.19278534 -1.4155561 0.47529474
-0.1730579 -1.402565 -0.050453108
-0.32285967 -2.6166484 0.09412615
-0.17302024 -1.4022599 0.47006154
-0.15358794 -1.3883952 -0.049869865
-0.29171839 -2.637059 0.094720706
-0.15468858 -1.3983448 0.46805906
-0.13722673 -1.4017881 -0.05028487
-0.25765228 -2.6319501 0.094413184
-0.13630913 -1.3924148 0.46546271
-0.11947824 -1.4023789 -0.050248113
-0.2237113 -2.6258171 0.094084665
-0.11926195 -1.3998402 0.46740583
-0.1015915 -1.400744 -0.050139721
-0.19057395 -2.6276343 0.094056338
-0.10086297 -1.3906991 0.46389279
-0.0829942 -1.3860106 -0.049571
-0.15633345 -2.6107826 0.093375258
-0.083851077 -1.4003205 0.46671298
-0.06638965 -1.4050101 -0.050216641
-0.12347391 -2.6130893 0.093394749
-0.066309288 -1.4033093 0.46739376
-0.048630528 -1.4039136 -0.050151587
-0.047965769 -1.3847226 0.46096545
-0.030741919 -1.3949859 -0.049814887
-0.03076046 -1.3958273 0.46449634
-0.013215227 -1.399531 -0.049967289
-0.013157878 -1.3934575 0.46361589
0.0044080117 -1.399714 -0.049971841
0.0044005378 -1.3973408 0.46488944
0.022089642 -1.4032247 -0.050103139
0.022122381 -1.4053046 0.46759453
0.039811872 -1.4048002 -0.050173316
0.039474063 -1.3928803 0.46358922
0.057294879 -1.3992549 -0.049997069
0.057786897 -1.4112711 0.46991512
0.075732693 -1.4138062 -0.050547067
0.075107649 -1.4021376 0.46715179
0.09278509 -1.4015156 -0.050145444
0.09249337 -1.3971092 0.46582758
0.10948176 -1.3882817 -0.049717326
0.11156683 -1.4147214 0.47213086
0.12695378 -1.3867991 -0.049717542
0.12746556 -1.3923897 0.46517694
0.14610505 -1.4013952 -0.050302789
0.14626795 -1.4029577 0.4692857
0.16244684 -1.3884029 -0.049905904
0.16332889 -1.3959416 0.46758971
0.18003932 -1.3872004 -0.04994021
0.18166104 -1.3996958 0.46957624
0.19901146 -1.3954811 -0.050324548
0.19916061 -1.3965269 0.46931726
0.21477266 -1.3813275 -0.04990771
0.21838818 -1.4045811 0.47291061
0.23200323 -1.3776528 -0.049876537
0.23647021 -1.404178 0.47373992
0.24964766 -1.3763673 -0.049939852
0.25246996 -1.3919272 0.47064206
0.26443449 -1.3601351 -0.04946778
0.27203068 -1.3992065 0.47422394
0.28646958 -1.3804561 -0.050334055
0.29212278 -1.4076982 0.47831076
0.30052927 -1.3617899 -0.049787488
0.30978245 -1.4037189 0.47824624
0.32052702 -1.370188 -0.050238106
0.33206528 -1.4195117 0.48501298
0.33978638 -1.3742636 -0.05054041
0.35031143 -1.4168322 0.48556617
0.35378623 -1.3573048 -0.050076593
0.36452308 -1.3984967 0.48081738
0.36834952 -1.3436278 -0.049739175
0.38775364 -1.4144081 0.48792788
0.38660949 -1.3436491 -0.049916223
0.40094876 -1.3934848 0.48241341
0.39993963 -1.3268725 -0.049476143
0.42123973 -1.3975395 0.48561493
0.41858429 -1.3279797 -0.049710028
0.44357622 -1.4072678 0.49089727
0.44454479 -1.35078 -0.050769024
0.45900741 -1.3947257 0.4884997
0.45116705 -1.3149096 -0.04963043
0.47852379 -1.3946397 0.49054119
0.46900883 -1.3128229 -0.049770638
0.49912593 -1.397125 0.49358687
0.48585612 -1.3077675 -0.049806971
0.51965517 -1.3987436 0.49643111
0.50242138 -1.3019023 -0.049820594
0.53818738 -1.3945812 0.49731964
0.52763653 -1.3176042 -0.050671704
0.53801316 -1.2959894 -0.050097022
0.55614179 -1.2934223 -0.050264515
0.57152855 -1.2843961 -0.050189439
0.63333005 -1.4232826 0.05561661
0.63125712 -1.418624 0.16687113
0.632698 -1.4218622 0.28067258
0.63481468 -1.4266191 0.39838451
0.59092003 -1.2841929 -0.050468266
0.64477682 -1.401235 0.055067971
0.64111936 -1.3932866 0.16482727
0.64003581 -1.3909317 0.27613598
0.64948988 -1.4114774 0.39640862
0.60223985 -1.2665499 -0.050068963
0.66891307 -1.4067681 0.055612035
0.66747135 -1.4037361 0.16704454
0.66755122 -1.4039041 0.2803579
0.66893214 -1.4068081 0.39743143
0.6188072 -1.2602264 -0.050123043
0.63375574 -1.2506179 -0.050054319
0.65282154 -1.2489849 -0.050313991
0.66786313 -1.2394916 -0.050266359
0.67864603 -1.2223908 -0.049915452
0.69418222 -1.2140962 -0.049929738
0.7032603 -1.1948043 -0.049496621
0.72621214 -1.1990029 -0.050045412
0.40160993 -0.66307271 0.45973873
0.74740678 -1.1996436 -0.050460987
0.70791167 -1.1362511 0.047794484
0.69846672 -1.1210912 0.14195313
0.41510186 -0.66626948 0.46554247
0.75541443 -1.1791518 -0.049995191
0.70913541 -1.1069133 0.046932332
0.69822329 -1.0898802 0.13910341
0.42557514 -0.66429454 0.46786988
0.76985472 -1.1690202 -0.049972683
0.70639259 -1.0726533 0.045853239
0.70228219 -1.0664117 0.1372259
0.43020451 -0.65326321 0.46387902
0.77884662 -1.1508611 -0.049611736
0.70677119 -1.0443591 0.045020606
0.7007193 -1.0354165 0.13436219
0.79313958 -1.1407676 -0.049603228
0.70958549 -1.0205923 0.044377726
0.70062196 -1.0077001 0.13189994
0.47602928 -0.68466985 0.41722995
0.81581134 -1.1424128 -0.050117478
0.7106874 -0.99520361 0.043659434
0.70231789 -0.98348343 0.12987745
0.47342649 -0.66295779 0.40759939
0.83196896 -1.1345565 -0.050228439
0.70234042 -0.95778203 0.042402379
0.71520334 -0.9753232 0.12997884
0.83330154 -1.1068734 -0.049463492
0.71176195 -0.9454326 0.042249095
0.69802803 -0.92718983 0.12472571
0.86685926 -1.1217695 -0.050612945
0.70196044 -0.90838021 0.040985066
0.71139538 -0.92058963 0.12503298
0.5130977 -0.66398019 0.34742993
0.49431518 -0.63967443 0.40448129
0.86788553 -1.0943366 -0.049864337
0.69025499 -0.87035823 0.03965858
0.70450628 -0.88832802 0.12184648
0.54002631 -0.68093145 0.3598294
0.50080311 -0.63147402 0.40325162
0.48424166 -0.61059135 0.46216351
0.88263994 -1.0846053 -0.049923398
0.71055532 -0.87314433 0.040190045
0.70549089 -0.86692107 0.12011921
0.55963397 -0.68768919 0.36709526
0.51962185 -0.63852149 0.41189778
0.50785851 -0.62406653 0.47716567
0.90553266 -1.0845518 -0.05044179
0.70338213 -0.84243721 0.039181199
0.71776104 -0.85965872 0.12035573
0.71374661 -0.85485065 0.2008443
0.57441932 -0.68797904 0.37108171
0.55434227 -0.66393292 0.43275878
0.52583337 -0.62978792 0.48656449
0.90820938 -1.0603298 -0.049843192
0.7366873 -0.86007869 0.040429935
0.728558 -0.85058779 0.12036064
0.5870471 -0.68537456 0.37363449
0.57636309 -0.67290103 0.44329977
0.52968574 -0.6184054 0.48288533
0.91318923 -1.0393647 -0.049394298
0.74524438 -0.84821486 0.040310182
0.75257224 -0.85655522 0.12253629
0.57998693 -0.66012377 0.43965876
0.53790241 -0.61222446 0.4833096
0.93887305 -1.0418429 -0.050069954
0.63841653 -0.70843416 0.034046654
0.76733953 -0.85149664 0.12318516
0.56095445 -0.62247658 0.49693984
0.94388717 -1.0212512 -0.049647607
0.61856395 -0.66926348 0.032535903
0.60996145 -0.65995586 0.096578658
0.62298578 -0.67404771 0.16553335
0.61424822 -0.66459399 0.23088899
0.60755098 -0.6573478 0.29779834
0.60709912 -0.65685892 0.37033266
0.6129905 -0.66323316 0.45186999
0.57235777 -0.61927003 0.50009406
0.96803749 -1.0212771 -0.050237481
0.62116981 -0.65533251 0.097039044
0.61818802 -0.65218675 0.16206354
0.61581743 -0.6496858 0.2283856
0.62067086 -0.65480614 0.30016378
0.61439258 -0.64818257 0.36977348
0.61327261 -0.64700097 0.44603682
0.96382785 -0.99152696 -0.049367148
0.6367622 -0.6550619 0.032614887
0.82791221 -0.85170531 0.12765075
0.98320156 -0.98630017 -0.049719393
0.85777837 -0.86048168 0.13057464
1.0006737 -0.97886169 -0.04997566
0.8724938 -0.85347581 0.13116831
1.0150486 -0.96821547 -0.050080717
0.88499284 -0.84416032 0.13143891
1.0142988 -0.94339657 -0.049453687
0.91668177 -0.85260326 0.13454014
1.0363736 -0.93987042 -0.049948987
0.93001521 -0.84341568 0.13492762
1.0594122 -0.93672627 -0.050486855
0.96313405 -0.85159761 0.1381658
1.0684708 -0.92102671 -0.050361857
0.98589689 -0.84984761 0.13988498
1.0743295 -0.90274978 -0.050098222
1.0812998 -0.88562012 -0.049899269
1.1008329 -0.87869412 -0.050286084
1.1063908 -0.86054903 -0.050041001
1.1069765 -0.83884943 -0.049585804
1.1260577 -0.83119786 -0.049967725
1.1349992 -0.8159219 -0.049904626
1.1431051 -0.80011207 -0.049814094
1.1590323 -0.7897051 -0.050070852
1.1639124 -0.77175254 -0.0498579
1.1679668 -0.75344276 -0.049621232
1.1785223 -0.73940551 -0.049670175
1.1914074 -0.72674567 -0.04982359
1.204789 -0.7142511 -0.050003111
1.2132109 -0.69875062 -0.049983505
1.2289158 -0.68733621 -0.050269965
1.2325134 -0.66911578 -0.050068501
1.2459008 -0.65620899 -0.050272677
1.2508094 -0.63880718 -0.050142188
1.2506777 -0.61901027 -0.049820486
1.2687944 -0.60820943 -0.050233096
1.2778847 -0.59289676 -0.050293427
1.2821547 -0.57537115 -0.050172351
1.2797593 -0.55504477 -0.049801167
1.2907391 -0.54060113 -0.049959574
1.2823119 -0.51819152 -0.049376916
1.2993584 -0.50614274 -0.049783941
1.2950072 -0.48575816 -0.049378961
1.3233207 -0.47745985 -0.050225329
1.3330803 -0.46209526 -0.050370906
1.3245426 -0.44053397 -0.049834747
1.3332605 -0.42486542 -0.049957503
1.3383336 -0.4079923 -0.049951125
1.3504682 -0.39317685 -0.050215263
1.3441005 -0.37303019 -0.049799874
1.3560191 -0.35801157 -0.050070476
1.365486 -0.34217888 -0.050256949
1.3687761 -0.32474273 -0.050223555
1.3721883 -0.30735517 -0.050202765
1.3670033 -0.28816742 -0.049876358
1.3718871 -0.27120194 -0.049925987
1.3876281 -0.25620264 -0.050377436
1.38508 -0.23773822 -0.050172266
1.3839273 -0.21963896 -0.050026365
1.3960686 -0.20357943 -0.050368588
1.3863971 -0.18437275 -0.049931929
1.3811082 -0.1660002 -0.049662225
1.3914434 -0.14949483 -0.049962211
1.4004912 -0.13265218 -0.050223131
1.3924472 -0.11422004 -0.04987913
1.3892843 -0.09636689 -0.049718421
1.4065726 -0.079784535 -0.050297175
1.4018426 -0.061819792 -0.050096229
1.4016745 -0.044137694 -0.050066393
1.4022535 -0.026487954 -0.050071191
1.406056 -0.0088523244 -0.050199009
1.4061065 0.008852642 -0.050200813
1.4035475 0.026512397 -0.050117396
1.3894826 0.043753777 -0.049630906
1.4096272 0.062163085 -0.050374418
1.3862288 0.078630581 -0.049569707
1.3934143 0.096653365 -0.049866222
1.3990645 0.11476284 -0.05011617
1.3939995 0.13203728 -0.049990326
1.3898571 0.14932439 -0.049905248
1.3872601 0.16673961 -0.049883436
1.3847938 0.18415953 -0.049874187
1.3868582 0.20223634 -0.050036285
1.3762383 0.21841867 -0.049748421
1.3919044 0.23890957 -0.050419468
1.3836759 0.25547293 -0.050233953
1.3746388 0.27174592 -0.05002613
1.3699627 0.28879127 -0.049984332
1.3750486 0.30799586 -0.050307415
1.3518715 0.32073212 -0.049603287
1.3590971 0.3405779 -0.050021805
1.3524792 0.35707694 -0.049939763
1.3467127 0.37375519 -0.049896665
1.3486966 0.39266109 -0.050149389
1.3314868 0.40590504 -0.049695581
1.3230956 0.42162618 -0.049576618
1.3283439 0.44179824 -0.049977768
1.3223037 0.45835966 -0.049963702
1.3136647 0.4739759 -0.049858842
1.3112822 0.49186292 -0.049999528
1.2993017 0.50612068 -0.049781773
1.2931734 0.52258074 -0.049795151
1.2890645 0.53989977 -0.049894761
1.2926844 0.56065053 -0.050304141
1.2735963 0.57153052 -0.049837448
1.2651628 0.58699423 -0.049792733
1.2702671 0.60891539 -0.0502914
1.2466433 0.61701351 -0.049659781
1.2459619 0.6363315 -0.049947862
1.2515749 0.65919751 -0.05050163
1.2184261 0.66146797 -0.04949623
1.22598 0.68569422 -0.050149877
1.2084945 0.69603419 -0.04978919
1.20136 0.71221823 -0.049860794
1.1828752 0.72154105 -0.049466774
1.1907787 0.74709517 -0.050186735
1.1844177 0.76405507 -0.050320148
1.1762189 0.77991253 -0.050385062
1.1513648 0.78448087 -0.049739614
1.1592391 0.81140488 -0.050517175
1.1380383 0.81810659 -0.050038252
1.119162 0.82610774 -0.049661733
1.1158206 0.84555137 -0.049981967
1.1025947 0.8575964 -0.049869306
1.1009461 0.87878442 -0.050291248
1.0805436 0.88500077 -0.049864374
1.0746423 0.90301263 -0.050112806
1.0575148 0.91158259 -0.04984545
1.0395466 0.9191612 -0.049540147
1.0319793 0.93588525 -0.049737196
1.029228 0.95728219 -0.050181583
1.0150361 0.96820349 -0.050080094
0.99740648 0.97566575 -0.049812488
0.99224764 0.99537474 -0.05017684
0.97295892 1.0009204 -0.049834844
0.93641651 0.96332783 0.047963142
0.93858504 0.96555871 0.14471473
0.93786961 0.96482271 0.24266668
0.92971522 0.95643395 0.34030595
0.96846521 1.0217283 -0.050259676
0.91455668 0.9648549 0.047462028
0.91326427 0.96349144 0.14266999
0.90927827 0.95928621 0.23837547
0.91724437 0.96769047 0.34017453
0.94629395 1.0238552 -0.049774203
0.89090937 0.9639312 0.046861026
0.89216912 0.96529412 0.14126219
0.88975602 0.96268326 0.23641677
0.8836534 0.95608044 0.33215535
0.93657589 1.0392939 -0.049947444
0.86755574 0.962704 0.046266612
0.8684364 0.96368128 0.13941479
0.85724801 0.95126581 0.23094358
0.85937285 0.95362365 0.32751638
0.92267686 1.0501631 -0.049907483
0.84648824 0.96344757 0.045786448
0.83963639 0.95564902 0.13671236
0.84528208 0.96207482 0.23096533
0.83582354 0.95130932 0.3230812
0.90808046 1.0601792 -0.049836114
0.82314241 0.96101457 0.045174651
0.83000392 0.96902537 0.1371199
0.82900858 0.96786332 0.22983067
0.82747144 0.96606869 0.32452929
0.89516795 1.0721381 -0.049864437
0.79914075 0.9571268 0.044515338
0.80120617 0.95960051 0.13434799
0.80823177 0.96801507 0.22743191
0.80222648 0.96082252 0.31934819
0.87795663 1.0788504 -0.049658503
0.7855382 0.96528476 0.044431183
0.7912153 0.97226089 0.13471495
0.78380561 0.96315575 0.22395359
0.78426582 0.96372128 0.31700411
0.56003028 0.68817616 0.29518437
0.86363679 1.0889794 -0.04962023
0.75440979 0.95125252 0.043344591
0.76066941 0.95914543 0.13156007
0.75821644 0.95605242 0.22006446
0.76764184 0.96793711 0.31518629
0.58185023 0.73366821 0.31153017
0.86244208 1.1160535 -0.050355043
0.7467379 0.9663251 0.043599471
0.74632472 0.96579033 0.13117206
0.74059731 0.95837879 0.21843602
0.74777061 0.96766144 0.31200564
0.58367217 0.75530791 0.3175728
0.84265745 1.119301 -0.050018847
0.74384665 0.98805064 0.04415359
0.74577421 0.99061102 0.13325714
0.74686199 0.99205589 0.22395051
0.73020732 0.96993357 0.30974895
0.58738703 0.78022552 0.32491386
0.83038557 1.1323973 -0.050132848
0.74256814 1.0126406 0.044831045
0.73539448 1.0028579 0.13364831
0.73961008 1.0086067 0.22556645
0.70096344 0.9559043 0.30242592
0.57792717 0.78811967 0.32514495
0.81853002 1.1462198 -0.050284497
0.74690902 1.0459262 0.045884624
0.73564512 1.0301528 0.13604054
0.74434644 1.0423377 0.2309956
0.68781424 0.96317345 0.3019616
0.58248454 0.81567609 0.33346111
0.79400468 1.1420119 -0.049657334
0.74757648 1.0752345 0.046753697
0.7395007 1.0636191 0.13921928
0.74775314 1.0754886 0.23623686
0.66420609 0.95532334 0.29685488
0.58159387 0.83650273 0.33895451
0.79386729 1.1730564 -0.050568536
0.73854703 1.0913124 0.047044691
0.74107349 1.0950457 0.14210007
0.75477856 1.115297 0.24287406
0.65449232 0.9671092 0.29793262
0.57870132 0.85511684 0.34351701
0.773525 1.1745936 -0.050210927
0.7527861 1.1431016 0.04886473
0.74372745 1.1293461 0.14532429
0.745471 1.1319937 0.24444646
0.62737375 0.95266366 0.29102567
0.56312209 0.85509783 0.34063381
0.7569204 1.1815026 -0.050094862
0.61512136 0.96016371 0.29092756
0.55240864 0.86227328 0.34069419
0.74162304 1.1903603 -0.050070498
0.5948413 0.95476466 0.28699934
0.55103165 0.88444686 0.34668618
0.7177887 1.1850954 -0.04946493
0.59258294 0.97837615 0.29183072
0.54072219 0.89275211 0.34724519
0.71102554 1.2079971 -0.050043151
0.56650019 0.96245569 0.28493157
0.52398819 0.89022994 0.34367049
0.69319129 1.2123631 -0.049858466
0.5491482 0.96043766 0.28226459
0.52078819 0.91083723 0.34906656
0.67623109 1.2180409 -0.04973783
0.53034335 0.95526505 0.27875966
0.50552738 0.91056597 0.34649557
0.66247737 1.2294961 -0.049861003
0.51810801 0.96156007 0.2786707
0.4962523 0.92099792 0.34805971
0.40431812 0.75037664 0.35291272
0.38933539 0.72257012 0.41067225
0.64909452 1.2418544 -0.050026748
0.50026399 0.95711029 0.27553362
0.4845601 0.92706543 0.34801924
0.3966319 0.75884026 0.35451618
0.63508505 1.2532409 -0.050159309
0.48236084 0.95186365 0.27225304
0.47116962 0.92977953 0.34678334
0.40325341 0.79575747 0.36936167
0.61639529 1.2553144 -0.049927682
0.47686735 0.97115999 0.27603284
0.46446449 0.94590104 0.35058707
0.40231121 0.81932336 0.37791869
0.60225946 1.2665912 -0.050070595
0.45488107 0.95664477 0.27025768
0.45156685 0.94967473 0.34985045
0.39933893 0.839836 0.3850303
0.5850988 1.2715422 -0.049971092
0.44166607 0.95983279 0.26956576
0.43656087 0.94873816 0.34745276
0.39569253 0.85992265 0.39192382
0.56525803 1.2703043 -0.049638785
0.43243885 0.97181982 0.27138147
0.42794991 0.96173185 0.35021007
0.39621812 0.89042097 0.40351799
0.55109161 1.2816772 -0.049808078
0.41775784 0.971582 0.26982465
0.41279852 0.96004808 0.34767655
0.39256641 0.91299415 0.41147482
0.53599131 1.291119 -0.049908753
0.40646946 0.97912121 0.27047554
0.39804167 0.95881993 0.34538925
0.39252082 0.94552106 0.42387307
0.52134424 1.3018912 -0.050067421
0.39100662 0.97641456 0.26834643
0.38347453 0.95760548 0.34318513
0.39004692 0.97401798 0.43441182
0.49772406 1.2897304 -0.049354807
0.38256919 0.99133468 0.27110147
0.37291396 0.96631545 0.34459639
0.3840881 0.99527049 0.44169837
0.49066862 1.3207213 -0.050300322
0.36987892 0.99559438 0.27097118
0.35464716 0.95459545 0.33879754
0.47549573 1.3309808 -0.05045902
0.35917205 1.0053741 0.27238035
0.34179047 0.95672047 0.33799744
0.4546431 1.3250403 -0.050012808
0.34161186 0.99561507 0.26854971
0.3289572 0.9587335 0.33721846
0.43769518 1.329967 -0.049986769
0.3247903 0.98689771 0.26507416
0.32217574 0.97895324 0.34287629
0.4209139 1.3353705 -0.049986687
0.3159506 1.0023692 0.26813984
0.30244178 0.95951176 0.33470652
0.40786368 1.3531619 -0.05045642
0.30796307 1.0217235 0.27225828
0.29157487 0.96735269 0.33613428
0.38854721 1.3503836 -0.050166409
0.29103482 1.0114824 0.2685315
0.27671754 0.96172315 0.33294094
0.36614245 1.3355771 -0.049441151
0.28327745 1.0333107 0.27335784
0.26953363 0.9831773 0.33916631
0.35549843 1.3638737 -0.050318945
0.24897926 0.95521164 0.035241712
0.25148362 0.96481967 0.10715292
0.24855764 0.95359415 0.17772563
0.24681413 0.94690514 0.24965766
0.24908683 0.9556244 0.32855335
0.33583072 1.358265 -0.049952041
0.23687905 0.95805573 0.035233799
0.2385865 0.96496153 0.10682655
0.2396768 0.96937126 0.18008931
0.23821276 0.96344995 0.25320888
0.24011235 0.97113276 0.33281937
0.31617108 1.3515671 -0.049555369
0.2231241 0.95381027 0.034971569
0.22292222 0.95294732 0.10517741
0.22583804 0.96541178 0.17881122
0.22285023 0.95263958 0.24961044
0.22656421 0.96851605 0.33091861
0.30049038 1.3616138 -0.049781047
0.2129056 0.96474034 0.035271224
0.21122314 0.9571166 0.10533567
0.21341871 0.96706539 0.17860559
0.21274826 0.9640274 0.25187236
0.214044 0.96989882 0.33044395
0.28177801 1.357848 -0.049509723
0.20070639 0.96717554 0.035265062
0.20023227 0.96489078 0.10590538
0.19976746 0.96265095 0.17731166
0.19880688 0.95802212 0.2496295
0.19892325 0.95858276 0.32570937
0.26640528 1.370272 -0.049836457
0.18670261 0.96031636 0.03492647
0.18745847 0.96420419 0.10556256
0.19000331 0.97729373 0.17955379
0.18657337 0.95965159 0.24942215
0.18820472 0.96804255 0.32809237
0.25031289 1.3800349 -0.050072927
0.17515528 0.96567309 0.0350383
0.17359708 0.95708233 0.10453524
0.17232549 0.95007175 0.17413995
0.17629041 0.97193128 0.25201681
0.17596237 0.97012269 0.32802039
0.23259883 1.3811895 -0.050004583
0.16297808 0.9677763 0.035037369
0.16285674 0.96705574 0.10539222
0.15962964 0.94789302 0.17335841
0.16159858 0.95958459 0.24826807
0.16123113 0.95740271 0.3230074
0.21583086 1.3881334 -0.050153609
0.14906457 0.95872068 0.034638818
0.14967749 0.96266276 0.10469975
0.15010783 0.96543056 0.17620617
0.14804246 0.95214689 0.24584194
0.15114455 0.97209823 0.32729727
0.19877595 1.3938296 -0.050264992
0.13520592 0.94807255 0.034189876
0.13490057 0.94593138 0.10268714
0.13748407 0.96404707 0.17562376
0.13787887 0.96681541 0.24916127
0.13527294 0.94854248 0.31876746
0.17995015 1.3865135 -0.049915478
0.1245579 0.95971692 0.034550499
0.12435158 0.9581272 0.10383287
0.12504934 0.96350342 0.17522398
0.1236996 0.95310366 0.24520671
0.1243443 0.95807105 0.32141799
0.16259243 1.3896472 -0.049950629
0.11314756 0.96705121 0.03476049
0.11090899 0.94791853 0.10256706
0.11244244 0.96102464 0.17450184
0.11281545 0.96421272 0.24767965
0.11252771 0.96175331 0.32215241
0.14521806 1.3928875 -0.049997408
0.10007171 0.9598574 0.034453884
0.10142295 0.97281808 0.10511474
0.1003535 0.96256024 0.17453739
0.1011054 0.96977222 0.24876098
0.1011425 0.970128 0.3245053
0.12680148 1.3851354 -0.049657896
0.0893654 0.97619671 0.03499721
0.085731916 0.93650579 0.10106647
0.088004187 0.96132725 0.17409907
0.088108435 0.96246606 0.24658269
0.087731071 0.9583438 0.32016861
0.11037929 1.3996627 -0.050124906
0.075599417 0.95863718 0.034330841
0.075470209 0.95699877 0.1031673
0.076467037 0.969639 0.17541605
0.076049067 0.9643389 0.24679761
0.076075315 0.96467179 0.32193711
0.091812037 1.3868176 -0.049619559
0.063059233 0.95250762 0.034080189
0.064512894 0.97446501 0.10495432
0.063867472 0.96471596 0.17436613
0.06359762 0.96063983 0.24562649
0.063435726 0.95819449 0.31948355
0.074434437 1.3895698 -0.049680557
0.050893966 0.95010757 0.033968695
0.051704641 0.96524155 0.10388255
0.050863225 0.9495337 0.17149267
0.05163154 0.96387684 0.24626841
0.052939951 0.98830283 0.32927397
0.057456624 1.403205 -0.050138209
0.082484186 2.0144279 0.36360389
0.039624598 1.398192 -0.049937304
0.057862137 2.0417211 0.36836958
0.022058381 1.4012388 -0.050032232
0.032549944 2.0677061 0.37295431
0.0043649767 1.3860487 -0.049483974
0.006559921 2.0830286 0.37567332
-0.013106809 1.3880492 -0.049557354
-0.019788278 2.0956361 0.37796208
-0.030766461 1.3960996 -0.049854659
-0.047254968 2.144304 0.38681629
-0.048323702 1.3950558 -0.04983516
-0.07450708 2.150943 0.38815245
-0.06586989 1.3940104 -0.0498235
-0.10339158 2.1880853 0.39505863
-0.083645523 1.3968878 -0.049960025
-0.1319567 2.2036886 0.39814425
-0.10079605 1.3897763 -0.049747135
-0.16082722 2.2174864 0.4009712
-0.11814978 1.3867861 -0.049689412
-0.18854672 2.2130721 0.40057054
-0.13549946 1.3841438 -0.049651936
-0.21790124 2.2258883 0.40335497
-0.15249471 1.3785127 -0.049514897
-0.24822651 2.2439034 0.40715367
-0.17195852 1.3936549 -0.050132595
-0.28010583 2.2701457 0.41252258
-0.1890555 1.3881692 -0.050016932
-0.31003466 2.2764776 0.41434973
-0.20654307 1.3858386 -0.050022703
-0.34139583 2.2906578 0.41768011
-0.22478393 1.3881168 -0.050203126
-0.371755 2.2957129 0.41942221
-0.24093707 1.3777024 -0.049932238
-0.40455016 2.3132584 0.42352483
-0.25845149 1.3755524 -0.04996831
-0.43553934 2.3180645 0.42537513
-0.27600294 1.3734436 -0.050013989
-0.4664529 2.3211589 0.42698699
-0.29443285 1.3752705 -0.050211549
-0.49789619 2.3256304 0.42892882
-0.30816266 1.3557779 -0.049637605
-0.53155154 2.3385892 0.43251911
-0.32823497 1.3643678 -0.050099455
-0.56693298 2.356559 0.43712831
-0.34508023 1.3589149 -0.050054811
-0.59931701 2.3600912 0.43914858
-0.3568747 1.3346834 -0.049323879
-0.65213645 2.4389389 0.090132184
-0.65436935 2.4472899 0.27224815
-0.6290704 2.352674 0.43920755
-0.3783893 1.3469485 -0.049949266
-0.67319375 2.3963609 0.088864915
-0.67864043 2.4157493 0.26966867
-0.65873706 2.3448997 0.4392699
-0.39515415 1.3415176 -0.049928434
-0.70571911 2.3958616 0.089168876
-0.70445108 2.3915567 0.26793703
-0.6969738 2.3661718 0.44486368
-0.4144879 1.3444598 -0.050228205
-0.736992 2.3905549 0.089309685
-0.73637015 2.3885379 0.26861638
-0.72823995 2.3621662 0.44579929
-0.42697132 1.3254379 -0.04971448
-0.77013958 2.3907278 0.089671344
-0.77220881 2.3971512 0.27065712
-0.76365089 2.3705852 0.44916734
-0.44540143 1.3252383 -0.049913403
-0.81328899 2.4198434 0.091140307
-0.81458312 2.4236939 0.27479038
-0.79613018 2.3687894 0.45069087
-0.46180391 1.3188154 -0.049886554
-0.47385278 1.3004909 -0.04941519
-0.49675572 1.3117592 -0.05007707
-0.50811219 1.2923759 -0.04957743
-0.53128016 1.3028845 -0.050233208
-0.5432871 1.2857828 -0.049833659
-0.55979896 1.2796754 -0.049866203
-0.58193958 1.2859437 -0.050392028
-0.59084636 1.2630405 -0.049782131
-0.61432648 1.2712774 -0.050407685
-0.62514496 1.2531387 -0.049996629
-0.64123636 1.2458721 -0.050024901
-0.65774995 1.2393527 -0.050091721
-0.91708696 1.7280035 0.069841839
-0.67567044 1.2353013 -0.050267868
-0.92188144 1.685439 0.068585232
-0.68465137 1.215125 -0.049793717
-0.9215464 1.6355684 0.067022756
-0.70635229 1.2175351 -0.050252978
-0.92254519 1.5901855 0.065633886
-0.92709458 1.5980272 0.19854777
-0.71928346 1.2046207 -0.05008981
-0.92659378 1.5518138 0.064526588
-0.91670793 1.5352575 0.19216788
-0.40322328 0.67529863 0.46644539
-0.74064261 1.2056401 -0.050515991
-0.91790658 1.4941957 0.062606394
-0.92373824 1.5036886 0.18965733
-0.41212597 0.6708709 0.46693462
-0.74766618 1.1834012 -0.049974702
-0.91933662 1.45512 0.061449315
-0.92028254 1.4566172 0.18516725
-0.43959349 0.6957857 0.41178948
-0.42657858 0.6751858 0.47363895
-0.76626122 1.1796725 -0.050220732
-0.91961449 1.4157625 0.060271502
-0.92221957 1.4197731 0.18194538
-0.44698089 0.68813491 0.41056001
-0.43030494 0.66246194 0.46847716
-0.78071457 1.1694224 -0.050198909
-0.91676879 1.3732163 0.058947016
-0.9233132 1.3830191 0.1787111
-0.44389462 0.66490412 0.47411945
-0.79573631 1.1600232 -0.050221577
-0.91094667 1.3279767 0.057492889
-0.92859632 1.3537062 0.17642033
-0.45301834 0.66040945 0.47494447
-0.80468845 1.1419775 -0.049875051
-0.91867548 1.3037429 0.056940034
-0.9211961 1.30732 0.17187321
-0.45821455 0.65027744 0.47177002
-0.82010716 1.1332802 -0.049942259
-0.92134464 1.273177 0.056107342
-0.92597204 1.2795715 0.1697446
-0.47035617 0.64997035 0.47580644
-0.82673156 1.1126626 -0.049488518
-0.92296618 1.2421807 0.055249169
-0.91126442 1.2264317 0.16420443
-0.47796172 0.64326823 0.47526839
-0.84359092 1.1059867 -0.049660128
-0.9144491 1.1988851 0.053831372
-0.9220143 1.2088034 0.16338572
-0.4807384 0.6302703 0.4701004
-0.86835563 1.109208 -0.050291751
-0.91008258 1.1625086 0.052708413
-0.92693663 1.1840374 0.16160311
-0.486141 0.62098002 0.46769989
-0.87269741 1.086292 -0.049747042
-0.92120934 1.1466774 0.052512404
-0.92619371 1.1528816 0.15893002
-0.48519906 0.60395259 0.45944065
-0.89744157 1.0887268 -0.050372068
-0.91621351 1.1114998 0.05142571
-0.92217642 1.1187336 0.15581101
-0.91157317 1.0779251 -0.0503994
-0.91700196 1.0843445 0.050699547
-0.91568828 1.0827911 0.15239896
-0.58601367 0.69295466 0.4540703
-0.91774648 1.057916 -0.050000228
-0.93640047 1.079419 0.051016524
-0.9223091 1.0631754 0.15126075
-0.59404129 0.68477058 0.45357317
-0.93906647 1.0553485 -0.050433759
-0.92651528 1.0412431 0.049759679
-0.92768085 1.0425529 0.1499768
-0.5920651 0.66537887 0.44563156
-0.52596509 0.5910939 0.4692322
-0.94776046 1.0384885 -0.050194394
-0.93460733 1.0240762 0.049497787
-0.91871226 1.0066595 0.14646594
-0.62146986 0.68096238 0.4612731
-0.53737056 0.58881241 0.47275522
-0.95030987 1.0153066 -0.049648371
-0.91698956 0.9797073 0.047907569
-0.91741073 0.98015732 0.14427932
-0.62761426 0.67054009 0.45953017
-0.54912466 0.5866822 0.47655889
-0.98068142 1.0216616 -0.050558981
-0.90926439 0.9472602 0.046877082
-0.91901869 0.95742214 0.14262487
-0.64182913 0.66864955 0.46373653
-0.55398303 0.57713258 0.47443062
-0.97798783 0.99350721 -0.049771193
-0.92137069 0.93599159 0.046889864
-0.92401403 0.93867689 0.1415545
-1.7393583 1.7669595 0.4471598
-1.0003746 0.99097562 -0.050271444
-0.81939524 0.81169671 0.041176762
-0.92789125 0.9191733 0.1403642
-1.7720147 1.755366 0.449837
-1.0007976 0.96673357 -0.049677029
-0.81206435 0.78442413 0.040308792
-0.91444302 0.88331819 0.13663642
-1.7726411 1.7123058 0.44448718
-1.0173721 0.95827681 -0.049896821
-0.82186812 0.77412891 0.040308367
-0.92461824 0.87091064 0.13650735
-1.7915158 1.6874534 0.44385672
-1.0351241 0.95068729 -0.05017636
-0.74183649 0.68132365 0.035959605
-0.73415017 0.67426431 0.10712532
-0.73664683 0.6765573 0.1803828
-0.74123776 0.68077374 0.25677061
-0.73547411 0.67548025 0.33222735
-1.0453485 0.9360885 -0.050096624
-0.74645036 0.66843128 0.035772417
-0.75023699 0.67182207 0.10822967
-0.75205266 0.67344797 0.18206425
-0.75116342 0.67265171 0.25725439
-0.74757302 0.66943657 0.33385834
-1.0540746 0.92025262 -0.049955513
-0.8555454 0.74692804 0.040546663
-1.0023162 0.87506527 0.14299384
-1.831545 1.5990179 0.43848902
-1.0689942 0.90981495 -0.050115656
-0.87757629 0.7469002 0.041141767
-1.0153738 0.86417896 0.14329286
-1.8360467 1.562649 0.4348214
-1.0863259 0.90122795 -0.050392162
-1.0529857 0.87356865 0.048845589
-1.0369186 0.86023921 0.14479317
-1.8404621 1.5268677 0.43127951
-1.0893044 0.88078117 -0.050011884
-1.0730084 0.86760461 0.049263701
-1.0690341 0.86439109 0.1477461
-1.859243 1.5033319 0.43121034
-1.1085738 0.87350857 -0.050387576
-1.1126842 0.85426027 -0.050081503
-1.1203125 0.83790892 -0.049945984
-1.1301271 0.82326519 -0.049917411
-1.1320071 0.80301422 -0.049549893
-1.145069 0.79079717 -0.049681824
-1.1456153 0.77005202 -0.049280901
-1.1676641 0.76370502 -0.049811739
-1.3382541 0.87527853 0.057088993
-1.3217261 0.86446851 0.16972889
-1.896805 1.2405961 0.40875736
-0.75852096 0.49610695 0.37526283
-0.76571119 0.50080967 0.45778367
-1.1732273 0.74642265 -0.049644172
-1.3593471 0.86483449 0.057519678
-1.3700184 0.87162369 0.17450705
-1.8856511 1.199676 0.40306631
-0.7439183 0.47329062 0.36506101
-1.1877617 0.73482609 -0.049863689
-1.417146 0.87673801 0.059493519
-1.3953347 0.86324418 0.17633316
-1.8931901 1.1712497 0.4014934
-1.2105666 0.72801954 -0.050432216
-1.4400645 0.86603659 0.059993096
-1.4570657 0.87626094 0.18272543
-1.8995898 1.1423893 0.3997682
-1.2121093 0.7083202 -0.050120931
-1.4926543 0.87226218 0.061721515
-1.4870054 0.86896116 0.18509316
-1.8958691 1.1078887 0.39601785
-1.2157279 0.69004834 -0.049907304
-1.5257441 0.86601377 0.062633887
-1.5344973 0.87098211 0.18962444
-1.9039983 1.0807112 0.39484197
-1.2333652 0.67967063 -0.050276008
-1.5773512 0.86923099 0.064298004
-1.5743396 0.86757141 0.19318262
-1.896274 1.0449798 0.39048043
-1.2326181 0.65916348 -0.049903251
-1.6289413 0.87110406 0.065948628
-1.6288171 0.8710376 0.19850576
-1.9045992 1.0185168 0.38952288
-1.2377607 0.64200419 -0.049780209
-1.6641471 0.86316323 0.066928603
-1.9131937 0.99233919 0.23162183
-1.9002336 0.9856171 0.38606119
-1.2513857 0.62920403 -0.050005566
-1.924347 0.96757293 0.076897204
-1.918815 0.96479136 0.23081328
-1.8966938 0.95366871 0.3828719
-1.2594031 0.61349225 -0.050013274
-1.9094219 0.93013555 0.075826749
-1.9225974 0.93655372 0.22983143
-1.9001489 0.92561835 0.38118628
-1.2689552 0.59849524 -0.050089352
-1.9179282 0.90457952 0.075706206
-1.933466 0.91190779 0.22973977
-1.8983296 0.89533597 0.37852961
-1.2762318 0.58239776 -0.050083131
-1.9430233 0.88668251 0.076250009
-1.9508162 0.8902387 0.23045109
-1.8894199 0.862221 0.37455833
-1.2798122 0.56467116 -0.049940642
-1.9871495 0.87675828 0.077542245
-1.9814124 0.87422705 0.23274656
-1.9068307 0.84132051 0.37587985
-1.2878784 0.54896289 -0.049981691
-1.8900585 0.80564433 0.37054455
-1.2953635 0.53298122 -0.050007753
-1.8976666 0.78080058 0.37007922
-1.3029169 0.51700383 -0.05004406
-1.8979052 0.75309807 0.36824718
-0.72674209 0.28837484 0.4636839
-1.3072548 0.49976671 -0.049964994
-1.9005386 0.72658056 0.36695379
-0.74501228 0.28482002 0.47301501
-1.3071703 0.48095891 -0.049726345
-1.8919328 0.69611585 0.36357093
-0.73635632 0.27093419 0.4653163
-1.3227035 0.46785077 -0.050089162
-1.8904799 0.66867787 0.36164498
-1.3389485 0.4547112 -0.05048351
-1.8881856 0.64123386 0.35963291
-1.3326323 0.43392974 -0.050035376
-1.9025673 0.61951113 0.3608577
-1.3305622 0.4148002 -0.049757596
-1.8874699 0.58841509 0.35656059
-1.3365835 0.39828327 -0.049791269
-1.9154993 0.57079214 0.36046922
-1.3305538 0.37831235 -0.049385268
-1.8973948 0.53948057 0.35575563
-1.3452021 0.36423415 -0.04975478
-1.9031081 0.5152958 0.35558206
-1.3575939 0.34930333 -0.050046459
-1.3559729 0.33074 -0.049829226
-1.3742455 0.31691876 -0.050350063
-1.3678282 0.29735139 -0.049973797
-1.9014457 0.41335419 0.35093269
-1.3669771 0.27918884 -0.049810309
-1.8932828 0.38668054 0.34849983
-1.3829595 0.26435867 -0.050267398
-1.9126941 0.36561972 0.3511976
-1.3807733 0.24596174 -0.050071388
-1.8965794 0.33784398 0.34743002
-1.3885669 0.22935045 -0.050245292
-1.9290417 0.31862101 0.35261381
-1.3824821 0.21049911 -0.049925245
-1.9085646 0.29060134 0.34817424
-1.3827225 0.19275463 -0.049842324
-1.9106754 0.26635244 0.34791988
-1.386631 0.1755306 -0.049899582
-1.9347579 0.2449168 0.35171568
-1.3911471 0.1583323 -0.049986392
-1.9148993 0.21794273 0.34757915
-1.3852758 0.1400197 -0.049708132
-0.89584583 0.090549521 0.096766479
-0.89894879 0.090863161 0.16295031
-1.4187912 0.12538204 -0.050850078
-0.90949839 0.080374591 0.098124087
-0.89301169 0.078917623 0.16168116
-1.3953742 0.10562423 -0.049959175
-0.89637381 0.067851909 0.096608259
-0.89090937 0.067438267 0.161134
-1.4035954 0.088487841 -0.050209653
-0.90138102 0.056826387 0.16288562
-1.399783 0.070565112 -0.050037518
-0.90715677 0.045731101 0.16381229
-1.4145803 0.053464439 -0.050538402
-0.89936244 0.033991642 0.096722864
-0.90952593 0.034375772 0.16414893
-1.4048146 0.035388779 -0.050169602
-0.89088619 0.022442373 0.16072112
-1.3895762 0.017501522 -0.049613599
-0.89388216 0.011258324 0.16122326
-1.3966635 3.7061723e-06 -0.04986269
-0.90090948 2.3906441e-06 0.16247785
