# .PCD v0.7 - Point Cloud Data file format
VERSION 0.7
FIELDS x y z
SIZE 4 4 4
TYPE F F F
COUNT 1 1 1
WIDTH 1422
HEIGHT 1
VIEWPOINT 0 0 0 1 0 0 0
POINTS 1422
DATA ascii
0.79001546 1.6088991 -0.29458258
0.92540306 1.8846215 -0.29506153
1.1157801 2.2723322 -0.29586399
1.2456354 2.536788 -0.26379013
1.2470334 2.5396349 -0.1977935
0.90897816 1.8511715 -0.09600962
0.88996357 1.8124475 -0.046946336
0.89139712 1.815367 5.7736572e-05
1.043205 2.1245301 0.055165168
1.0888268 2.2174406 0.11514724
0.37768778 0.79430223 -0.29715604
0.40904701 0.86025268 -0.29731587
0.44348073 0.93266904 -0.2961511
0.48243749 1.0145977 -0.29405004
0.53282529 1.1205665 -0.29408553
0.59670067 1.2549007 -0.29536384
0.67430305 1.4181037 -0.29575917
0.77427924 1.6283602 -0.29633716
0.90029454 1.8933786 -0.29463428
1.0933893 2.2994692 -0.29758108
1.3598784 2.8599136 -0.29558656
1.8185318 3.8244917 -0.29605463
3.1843705 6.6969404 -0.34522474
0.90189219 1.8967385 -0.048831619
0.88462466 1.8604237 5.8810627e-05
1.0088822 2.1217456 0.054758653
1.1016552 2.3168533 0.11957971
0.36016461 0.78271306 -0.29110065
0.39656764 0.86182445 -0.29610974
0.4316695 0.93810821 -0.29612872
0.47182488 1.0253742 -0.29542795
0.52037889 1.1308922 -0.29505232
0.58086818 1.2623482 -0.29537174
0.65247536 1.4179655 -0.29399353
0.75225556 1.6348088 -0.2957634
0.87868094 1.9095576 -0.29540676
1.0608034 2.3053479 -0.29658964
1.3203665 2.8694327 -0.29482859
1.7704929 3.8476517 -0.29609814
3.0986919 6.7341065 -0.34510183
0.90282637 1.9620308 -0.050215904
0.88631266 1.9261428 6.0530503e-05
0.89819705 1.9519701 0.050081167
1.095281 2.380275 0.12213156
0.35182476 0.79065579 -0.29238379
0.38236183 0.85928172 -0.29355854
0.41808411 0.93956041 -0.29490191
0.46024159 1.0343009 -0.29630664
0.50294816 1.1302755 -0.29321581
0.56679881 1.2737669 -0.29635009
0.63628763 1.4299293 -0.2947894
0.7282095 1.6365052 -0.29438803
0.85132343 1.9131792 -0.2942853
1.0282619 2.3108132 -0.29560351
1.2827522 2.8827291 -0.2945118
1.7197676 3.8648336 -0.29573044
3.0188408 6.7842412 -0.34569559
6.0385451 13.570423 -0.34534577
0.89579827 2.0131273 6.2904583e-05
0.88514578 1.9891881 0.050746068
1.0995326 2.4709795 0.12606519
0.34027389 0.79137707 -0.29104295
0.37373555 0.86919904 -0.29531541
0.40280443 0.93680477 -0.29242176
0.45037383 1.0474372 -0.29842156
0.48947474 1.1383744 -0.29369462
0.54901439 1.2768462 -0.29543462
0.61952764 1.4408392 -0.29540688
0.7059437 1.6418177 -0.29372129
0.83475167 1.9413871 -0.29698384
1.0023142 2.3310883 -0.2965591
1.2490292 2.9048746 -0.29514402
1.6652269 3.8728285 -0.2947143
2.9284847 6.8107948 -0.34514225
5.8758826 13.665577 -0.3458569
0.90534884 2.1055753 6.5431908e-05
0.88974851 2.0692937 0.052499652
1.0985974 2.5550148 0.12963647
0.33610865 0.80963302 -0.29617688
0.36879721 0.88837469 -0.30022886
0.39372179 0.94841409 -0.29447469
0.43586063 1.0499198 -0.29754162
0.47778949 1.1509199 -0.29535568
0.52836555 1.2727497 -0.29292417
0.59612501 1.4359716 -0.29284668
0.69394499 1.6716046 -0.29746333
0.80342406 1.9353226 -0.29448515
0.96634555 2.327775 -0.29456615
1.2153584 2.9276078 -0.2958754
1.6195154 3.9011588 -0.29529488
2.8452201 6.8536892 -0.34547296
5.6946177 13.717442 -0.34532735
0.99316257 2.3923728 7.3949799e-05
0.89573658 2.1576889 0.054451827
0.88932866 2.1422534 0.10811699
0.32677656 0.81602037 -0.29698467
0.35090861 0.87628251 -0.29462558
0.38387933 0.95861638 -0.29611805
0.42079693 1.0508063 -0.29626772
0.46516702 1.1616066 -0.29657143
0.51150483 1.2773204 -0.29247051
0.58719873 1.4663419 -0.29750875
0.66821271 1.6686485 -0.2954165
0.78385872 1.9574375 -0.29632479
0.94250655 2.35361 -0.2963101
1.1815292 2.9504929 -0.29666108
1.5641661 3.9060068 -0.29414764
2.7556281 6.8813033 -0.34508845
5.5275774 13.803365 -0.34571075
0.95306921 2.379987 7.3190175e-05
0.89819956 2.2429674 0.056314036
0.88680547 2.2145143 0.11119153
0.31742829 0.8225379 -0.29787835
0.33823279 0.87644768 -0.29322588
0.36720037 0.95151013 -0.29247141
0.40334177 1.0451617 -0.29322103
0.44899362 1.1634574 -0.29557705
0.49722418 1.2884351 -0.29355857
0.53289175 1.3808589 -0.27878141
0.53112143 1.3762716 -0.24245103
0.75796926 1.9640924 -0.2958639
0.9130494 2.3659446 -0.29639202
1.1427355 2.9611201 -0.29625931
1.5243623 3.9500129 -0.29599261
2.6646373 6.904757 -0.34455463
5.3474393 13.856584 -0.34532979
0.92127198 2.3872514 7.3051029e-05
0.90110236 2.3349867 0.058334854
0.89589 2.3214803 0.1159867
0.30532753 0.82184297 -0.29621083
0.32794964 0.8827343 -0.29392424
0.35921502 0.96689063 -0.29578519
0.38982359 1.049279 -0.29297575
0.43138894 1.1611595 -0.29358998
0.47967815 1.2911384 -0.29277509
0.50819486 1.3678963 -0.27485064
0.50908017 1.3702792 -0.24024704
0.73066145 1.9667042 -0.29484802
0.87790829 2.3630452 -0.29462054
1.0996652 2.9599428 -0.29473275
1.4730841 3.9650657 -0.29570717
2.5831058 6.9528852 -0.3453058
5.1729312 13.923857 -0.34535563
0.88797265 2.3901353 7.2791343e-05
0.90201324 2.4279277 0.060368244
0.89199167 2.4009531 0.11938669
0.29751521 0.83278775 -0.2987816
0.31606898 0.88472241 -0.29323772
0.34609324 0.96876454 -0.29500186
0.38415572 1.0753069 -0.29886881
0.41966385 1.1746993 -0.29565382
0.46858597 1.3116393 -0.29606235
0.48553759 1.3590894 -0.27183104
0.48699066 1.3631567 -0.23790425
0.70843852 1.9830209 -0.29593334
0.84978551 2.3786714 -0.29521126
1.0667444 2.9859705 -0.29596344
1.4217682 3.979733 -0.2954424
2.4966798 6.9885645 -0.345489
4.9988265 13.992432 -0.34546784
0.85043043 2.3804765 7.2165334e-05
0.90138751 2.5231128 0.062447764
0.89128208 2.4948263 0.12348665
0.28501689 0.83067113 -0.29671106
0.31128624 0.90723211 -0.29937556
0.33812729 0.98545939 -0.29876545
0.36478814 1.0631615 -0.29419309
0.4046185 1.1792456 -0.29549226
0.44474062 1.29618 -0.29128569
0.47498086 1.3843141 -0.27565807
0.47044498 1.3710943 -0.23823681
0.68408537 1.9937413 -0.29622418
0.82039553 2.3910122 -0.29543731
1.0277699 2.9953971 -0.29559156
1.3687785 3.989254 -0.2948463
2.4045196 7.0078831 -0.34491983
4.8175206 14.040484 -0.34512913
0.81898594 2.386904 7.2041839e-05
0.89810002 2.6174791 0.064498335
0.88907123 2.5911648 0.12769088
0.27738687 0.84285909 -0.29979312
0.29927817 0.9093774 -0.2988162
0.32263586 0.98035127 -0.29596165
0.35185811 1.0691451 -0.29459947
0.386161 1.1733768 -0.29278001
0.43319178 1.3162831 -0.2945542
0.45826367 1.3924658 -0.27611038
0.4619281 1.4036003 -0.242855
0.65753096 1.9979532 -0.29559636
0.78639489 2.3895152 -0.29400548
0.99175698 3.0135219 -0.29612431
1.54433 4.692553 -0.34536254
2.3173516 7.0414324 -0.34510753
4.64675 14.119471 -0.34560499
0.78219914 2.376766 7.1432907e-05
0.89713579 2.7260089 0.066888988
0.8841455 2.686537 0.13183165
0.26295105 0.83422542 -0.29552108
0.28584448 0.90685594 -0.29678139
0.30474904 0.96683168 -0.29069862
0.33971885 1.0777751 -0.29577523
0.37271881 1.1824691 -0.29385436
0.41897801 1.3292288 -0.29624704
0.45194164 1.4338075 -0.28315708
0.44435883 1.4097507 -0.24293175
0.63009351 1.9990034 -0.2945545
0.74866527 2.3751781 -0.29105842
0.75062686 2.3814015 -0.23306158
0.7525388 2.3874671 -0.17500152
0.74878174 2.3755479 -0.11595662
0.75286138 2.3884907 -0.05822688
0.75323123 2.3896639 7.1529808e-05
0.88323969 2.8021224 0.068478279
0.87431657 2.7738132 0.1355634
0.25373372 0.84180784 -0.29705176
0.27298561 0.90567946 -0.295248
0.29168659 0.96772337 -0.28983936
0.32961953 1.0935727 -0.29894787
0.3554908 1.1794055 -0.29195741
0.39601699 1.3138584 -0.29168692
0.4502219 1.493693 -0.29384074
0.52412301 1.7388735 -0.29848602
0.60657281 2.0124156 -0.2953819
0.71801353 2.3821406 -0.29078063
0.71567804 2.374392 -0.23147525
0.71429414 2.3698008 -0.17303357
0.71415347 2.369334 -0.11520521
0.71698695 2.3787348 -0.057764374
0.7168901 2.3784132 7.0917209e-05
0.8772862 2.9105566 0.070852615
0.86799467 2.8797302 0.14019455
0.24162784 0.83976996 -0.29523557
0.26390043 0.91717762 -0.29788941
0.28539142 0.99186891 -0.2959713
0.3135044 1.0895747 -0.29675221
0.34450185 1.1973054 -0.29529122
0.38366061 1.3334004 -0.29492944
0.4290311 1.4910841 -0.29224154
0.49853921 1.7326573 -0.29631791
0.58225167 2.0235975 -0.29592353
0.68395114 2.3770509 -0.28908512
0.68491322 2.3803945 -0.23120129
0.68604052 2.3843124 -0.17344862
0.68462735 2.379401 -0.11526638
0.68302178 2.3738208 -0.057431631
0.68712902 2.3880954 7.0942289e-05
0.84960228 2.9527659 0.07161402
0.84576678 2.939436 0.14257143
0.22908469 0.83563173 -0.29274333
0.25248823 0.92100078 -0.29807487
0.27097738 0.98844367 -0.29390773
0.30153668 1.0999148 -0.29851058
0.32745633 1.1944618 -0.29354969
0.36404958 1.3279428 -0.29268518
0.41296247 1.5063624 -0.29419348
0.47821251 1.7443748 -0.29726842
0.55190331 2.0131767 -0.29336008
0.65462697 2.3878815 -0.28937683
0.65421188 2.3863673 -0.23096299
0.65267539 2.3807628 -0.17257884
0.65124965 2.3755622 -0.11467406
0.65423465 2.3864505 -0.057533316
0.64898759 2.3673108 7.0076523e-05
0.82917029 3.0245628 0.073096298
0.83163595 3.0335569 0.14661703
0.21861044 0.83870137 -0.29283112
0.23813075 0.91359127 -0.29468301
0.25742066 0.98759723 -0.292669
0.28717968 1.101768 -0.2980085
0.31329185 1.2019477 -0.29439652
0.35081595 1.3459092 -0.29564795
0.39422294 1.5124407 -0.29438773
0.45251369 1.7360737 -0.29485935
0.53182721 2.0403609 -0.29632202
0.62054485 2.3807273 -0.28754011
0.61978871 2.3778262 -0.2293628
0.61985111 2.3780656 -0.17180392
0.62390351 2.3936129 -0.11515704
0.62129933 2.3836217 -0.057271969
0.62329423 2.3912752 7.0547983e-05
0.80881834 3.1030405 0.074740842
0.80253083 3.0789182 0.14830925
0.21064802 0.85196447 -0.29651228
0.22839534 0.92374343 -0.29700643
0.24696721 0.9988572 -0.29506087
0.268635 1.0864924 -0.29293856
0.29709324 1.2015916 -0.29336974
0.32897487 1.3305367 -0.29133809
0.3773624 1.5262396 -0.29612523
0.43332642 1.7525858 -0.29671353
0.50232059 2.0316322 -0.29411241
0.59143716 2.3920636 -0.28798696
0.58957976 2.3845515 -0.22927721
0.58955407 2.3844476 -0.17171504
0.58726043 2.3751709 -0.113905
0.58865994 2.380831 -0.057022292
0.58955628 2.3844564 7.0122238e-05
0.77767575 3.1453042 0.075516969
0.77163953 3.1208909 0.1498511
0.20080994 0.85842174 -0.29785597
0.21794644 0.93167681 -0.29865113
0.23739547 1.0148175 -0.29886875
0.25471959 1.0888745 -0.29269278
0.28440672 1.2157811 -0.29593629
0.31761286 1.3577305 -0.29639331
0.35543263 1.5194024 -0.29390699
0.40750176 1.7419873 -0.29402718
0.47780034 2.0424995 -0.29479125
0.55454659 2.3705742 -0.28453654
0.5591687 2.3903327 -0.22913791
0.55806732 2.3856244 -0.17128015
0.55425167 2.3693135 -0.11328041
0.55873531 2.3884799 -0.057032458
0.5570578 2.381309 6.9817856e-05
0.74745888 3.195235 0.076483727
0.74328238 3.1773815 0.15210207
0.1868172 0.84652585 -0.29288882
0.20429574 0.92572641 -0.29589561
0.22273284 1.0092705 -0.29638568
0.24278614 1.1001382 -0.29487532
0.27164027 1.230885 -0.29875648
0.2973541 1.3474023 -0.29329801
0.33633965 1.5240579 -0.29396492
0.38720116 1.7545269 -0.29529732
0.45395881 2.0570261 -0.29603934
0.54232311 2.4574318 -0.29411894
0.5497877 2.4912562 -0.23812993
0.55321002 2.5067637 -0.17946318
0.55164409 2.4996681 -0.11917129
0.55230618 2.5026681 -0.059588268
0.55075574 2.4956424 7.2960895e-05
0.71970206 3.2611902 0.077839382
0.17536277 0.84504819 -0.29159045
0.1940169 0.9349398 -0.29803604
0.20808181 1.0027167 -0.29366827
0.22724198 1.0950468 -0.29272047
0.25384682 1.2232517 -0.29610443
0.28390154 1.3680811 -0.29699755
0.31984544 1.5412897 -0.29648831
0.36640182 1.7656382 -0.29636741
0.42442152 2.0452271 -0.29354885
0.51269025 2.4705813 -0.29489669
0.64557874 3.1109519 -0.29656377
0.69601202 3.3539829 -0.2394705
0.69895053 3.3681431 -0.16014341
0.70073068 3.3767214 -0.080182932
0.6960755 3.3542888 9.7799682e-05
0.68511981 3.3014948 0.078589246
0.1659659 0.85365587 -0.29381618
0.18086097 0.93026954 -0.29579782
0.19435033 0.99965286 -0.29203111
0.21632624 1.1126873 -0.29668435
0.23603116 1.2140408 -0.2931321
0.26428711 1.359377 -0.29436219
0.29858795 1.5358055 -0.29468673
0.34442019 1.7715465 -0.29660761
0.39918742 2.0532451 -0.29395491
0.48343292 2.486567 -0.29605469
0.59972161 3.0847049 -0.29331854
0.65529513 3.3705506 -0.24004523
0.65883356 3.388751 -0.16071604
0.65467656 3.3673692 -0.079758778
0.65474957 3.3677447 9.7943856e-05
0.65171349 3.3521285 0.079592876
0.15594646 0.85977024 -0.29522136
0.16696146 0.92049861 -0.29199928
0.18386953 1.0137168 -0.29543981
0.20176546 1.1123813 -0.29590186
0.21993853 1.2125739 -0.29208606
0.2477154 1.3657143 -0.29503563
0.27709931 1.527715 -0.29244164
0.31920126 1.7598331 -0.29395017
0.3745586 2.0650313 -0.29494369
0.45114404 2.4872653 -0.29543802
0.56432277 3.1112468 -0.29514325
0.62033075 3.420032 -0.24299364
0.61971563 3.416641 -0.16165584
0.61857671 3.4103618 -0.08058621
0.61914665 3.4135039 9.904008e-05
0.61573958 3.3947198 0.080413692
0.14561887 0.86469597 -0.29625961
0.15636359 0.92849886 -0.29388922
0.17072368 1.0137702 -0.29480547
0.1864678 1.10726 -0.29389164
0.2065666 1.2266083 -0.29481673
0.23013262 1.366545 -0.29456571
0.2587131 1.5362581 -0.29343012
0.29792166 1.7690815 -0.29484499
0.34887353 2.0716376 -0.29523638
0.41681463 2.4750769 -0.2933436
0.52140498 3.0961425 -0.29306433
0.82287627 4.886302 -0.34640861
1.2300653 7.3042216 -0.34483367
2.4663694 14.645489 -0.3453089
0.57948655 3.4410353 0.081331506
0.13266982 0.85327655 -0.29175162
0.14594494 0.93865651 -0.29649913
0.15726568 1.0114667 -0.29353648
0.17411557 1.1198381 -0.29662472
0.14809521 0.95248616 -0.22846484
0.14664181 0.94313848 -0.20288417
0.14720266 0.94674563 -0.18046303
0.14621148 0.94037074 -0.15640818
0.14706573 0.94586498 -0.13452397
0.14767681 0.94979519 -0.11233947
0.24677631 1.5871615 -0.14992622
0.24701954 1.5887259 -0.11240143
0.24669689 1.5866507 -0.074753501
0.24790823 1.5944417 -0.037516903
0.24489427 1.575057 4.5505607e-05
0.24862386 1.5990442 0.037717648
0.24775599 1.5934623 0.075166695
0.24647845 1.5852458 0.11224726
0.24899454 1.6014283 0.15136723
0.12328088 0.86445343 -0.29501903
0.13414438 0.94062895 -0.29656512
0.14560042 1.0209595 -0.29573584
0.13197881 0.92544383 -0.24467359
0.1310222 0.91873598 -0.21995629
0.13494085 0.94621384 -0.20316409
0.13070102 0.91648382 -0.17436717
0.13388208 0.93878967 -0.15585245
0.13353483 0.93635476 -0.13292171
0.13471548 0.9446336 -0.11151948
0.13739496 0.9634223 -0.090836026
0.69955027 4.9052911 -0.34639576
1.047966 7.3484039 -0.34556374
2.1005156 14.72895 -0.34591955
0.24479367 1.7165089 0.040412448
0.24292843 1.7034296 0.080203407
0.24381863 1.7096717 0.12083057
0.25026101 1.7548462 0.16555732
0.11309385 0.87138653 -0.2968756
0.12416676 0.95670313 -0.30111623
0.1161001 0.89454955 -0.25867537
0.14508806 1.1179014 -0.29505011
0.13655823 1.0521793 -0.25147259
0.11934582 0.91955787 -0.19710241
0.12103 0.9325344 -0.1771169
0.11921246 0.91853034 -0.15222782
0.12143595 0.93566227 -0.13259582
0.12287796 0.94677299 -0.11158054
0.12564778 0.96811444 -0.091122024
0.63560396 4.8973193 -0.34524027
0.95529354 7.3605232 -0.34554055
1.9132152 14.741296 -0.34561631
0.45973834 3.5422773 0.083254345
0.22069368 1.7004417 0.11997232
0.10064924 0.86023033 -0.29261976
0.10607962 0.90664274 -0.284917
0.10565557 0.90301847 -0.26071891
0.10673407 0.91223621 -0.24039465
0.14475477 1.237192 -0.29523188
0.10833161 0.92589003 -0.19815157
0.10844746 0.9268803 -0.1757697
0.10852287 0.92752475 -0.15347983
0.10990493 0.93933702 -0.13290992
0.11034714 0.94311643 -0.11097704
0.11471511 0.98044866 -0.092139691
0.24566209 2.0996282 -0.1477851
0.24481054 2.0923502 -0.09807311
0.24305333 2.0773315 -0.04862836
0.24373074 2.0831213 5.987543e-05
0.24516013 2.0953381 0.04917039
0.24602868 2.1027613 0.098682255
0.2458171 2.1009529 0.1479997
0.090535924 0.868393 -0.29498523
0.094009034 0.90170604 -0.28297117
0.093287989 0.89479005 -0.2579836
0.09380696 0.89976782 -0.2367789
0.11082595 1.0630088 -0.25331333
0.098132826 0.94126022 -0.20116058
0.096561007 0.92618382 -0.17539315
0.096337758 0.92404246 -0.15269075
0.097090252 0.93126017 -0.13158369
0.10077068 0.96656173 -0.11357754
0.10118671 0.97055209 -0.091082677
0.5116502 4.9075933 -0.34494659
0.76995003 7.3851266 -0.3456755
1.5399929 14.771144 -0.34529713
0.37633806 3.6097202 0.084589832
0.080146052 0.87548769 -0.29702884
0.081913464 0.89479429 -0.28045622
0.086476006 0.9446339 -0.27201894
0.08229094 0.89891768 -0.23626378
0.098414972 1.0750511 -0.25586739
0.08436688 0.92159456 -0.19671512
0.08496885 0.92817026 -0.17555279
0.084356308 0.92147911 -0.15207961
0.085973956 0.93914974 -0.13253498
0.087973371 0.96099061 -0.11278378
0.092064895 1.005685 -0.094263501
0.45255914 4.9435992 -0.34704933
0.67649645 7.3898129 -0.34546873
1.3537623 14.78803 -0.34526598
0.33224154 3.6292915 0.084943689
0.19177184 2.0948491 0.098053142
0.068017446 0.86249411 -0.29230672
0.070809729 0.89790154 -0.28112838
0.070880443 0.89879829 -0.25854248
0.070206694 0.8902548 -0.23373601
0.096998818 1.2299919 -0.29243019
0.072331674 0.91720057 -0.19556729
0.073412389 0.93090457 -0.17588116
0.073393114 0.93066019 -0.15343015
0.074326433 0.94249511 -0.13286446
0.075830065 0.96156186 -0.11272983
0.24753919 3.1389167 -0.29389721
0.38851544 4.9265637 -0.34548256
0.58348781 7.3989072 -0.345523
1.1672086 14.800769 -0.34519291
0.28836316 3.6565843 0.085490711
0.058137782 0.87816918 -0.29734746
0.060062535 0.90724254 -0.28379369
0.059717674 0.90203345 -0.25923622
0.059518278 0.89902157 -0.23582225
0.070063703 1.0583098 -0.25138313
0.059718344 0.90204352 -0.19215991
0.061496463 0.92890197 -0.17534259
0.061450005 0.92820019 -0.1528849
0.061947275 0.93571144 -0.13178775
0.066958882 1.0114115 -0.11846577
0.20739859 3.1327486 -0.29305193
0.32651523 4.9320011 -0.34554815
0.49050295 7.40903 -0.34567988
0.98122013 14.821296 -0.34535611
0.13857472 2.0931664 0.048893426
0.13724561 2.0730903 0.096842155
0.046665955 0.87117749 -0.29475775
0.049945224 0.93239611 -0.29144213
0.048165325 0.89916825 -0.25821802
0.049845967 0.93054312 -0.24390668
0.056719821 1.0588667 -0.25132585
0.049632128 0.92655104 -0.1972319
0.051408153 0.9597066 -0.18102083
0.050757565 0.9475612 -0.15595622
0.050903566 0.95028681 -0.13373969
0.05236749 0.97761583 -0.114421
0.16896021 3.1542125 -0.29483736
0.26454419 4.9386101 -0.34575036
0.39693278 7.410089 -0.3454687
0.79502398 14.841804 -0.34557328
0.19812699 3.6987085 0.086331517
0.1109335 2.0709481 0.096669167
0.036297958 0.88646841 -0.29975292
0.038950667 0.95125282 -0.29715937
0.042250272 1.0318357 -0.29614046
0.046258762 1.1297311 -0.29594013
0.038103465 0.93056244 -0.22074096
0.038130492 0.9312225 -0.19810839
0.038439769 0.93877566 -0.17696749
0.038090043 0.93023461 -0.15301344
0.039200529 0.95735496 -0.1346543
0.039804857 0.97211385 -0.11370936
0.12969559 3.1674244 -0.29589623
0.20251927 4.9459238 -0.34605643
0.30396828 7.4235106 -0.34588856
0.60783315 14.844496 -0.34543037
0.15214011 3.7155645 0.086673364
0.086545572 2.113615 0.098602124
0.086433731 2.110884 0.14781556
0.024393477 0.86074728 -0.29092857
0.026966846 0.95155108 -0.2971229
0.025676904 0.90603423 -0.25992158
0.026172375 0.92351747 -0.24181567
0.026110504 0.92133427 -0.21845661
0.026386684 0.93107957 -0.19799158
0.026779106 0.94492656 -0.1780493
0.027005918 0.95292979 -0.15667818
0.027244868 0.96136135 -0.13515884
0.027308932 0.96362191 -0.1126669
0.089453191 3.1564419 -0.29474166
0.13992368 4.9373417 -0.34530529
0.210216 7.4176741 -0.3454659
0.42116305 14.861143 -0.34566694
0.10620438 3.7475238 0.087380752
0.059756171 2.1085539 0.098323114
0.059945453 2.1152329 0.14805551
0.056965027 2.0100658 0.18781137
0.013967742 0.88728833 -0.2998161
0.014885046 0.9455592 -0.29517001
0.016178213 1.0277065 -0.29474491
0.014786142 0.93927646 -0.24587379
0.014717452 0.93491298 -0.22161473
0.014811014 0.9408564 -0.2000151
0.014844033 0.94295388 -0.17762829
0.015019092 0.95407432 -0.15682283
0.014993777 0.95246625 -0.13387111
0.015300121 0.97192651 -0.11360633
0.050032198 3.1782506 -0.29669577
0.077768736 4.9401894 -0.34540862
0.11666197 7.4108477 -0.34505218
0.23400649 14.865052 -0.34566194
0.059161402 3.7581751 0.087604798
0.031441767 1.99731 0.18656775
0.0027403426 0.87016469 -0.29399505
0.0029766574 0.94520372 -0.29502395
0.0032250353 1.0240734 -0.29366797
0.0029421896 0.93425894 -0.24453127
0.0029200485 0.92722827 -0.21976699
0.0029868614 0.94844395 -0.20160414
0.0030167641 0.95793921 -0.18042968
0.0029604849 0.94006836 -0.15450227
0.0030415303 0.96580344 -0.13572954
0.0030462169 0.96729159 -0.11305112
0.0099624554 3.1634645 -0.29528034
0.015564633 4.9423723 -0.34552014
0.023353258 7.4155622 -0.34523064
0.046842374 14.874265 -0.345835
0.0058542518 1.8589511 5.3070318e-05
0.0058645946 1.8622354 0.043404404
0.0058435095 1.8555402 0.086490631
0.0058341138 1.8525566 0.12961811
0.0054470114 1.7296365 0.16154529
-0.0082406001 0.87270355 -0.29486451
-0.0089200484 0.94465905 -0.29486564
-0.0087134568 0.92278045 -0.26463127
-0.0087865619 0.93052244 -0.24356295
-0.0087616593 0.92788517 -0.21993141
-0.0089028776 0.94284064 -0.20042102
-0.0088610305 0.93840891 -0.17675813
-0.0090526063 0.95869738 -0.15757023
-0.0090386905 0.95722365 -0.1345291
-0.009810809 1.0389932 -0.12143598
-0.029754907 3.1511312 -0.29414079
-0.046631202 4.9383802 -0.34525472
-0.069987752 7.4119062 -0.34507412
-0.14031486 14.859752 -0.34551126
-0.035800248 3.7913504 0.08837112
-0.01891974 2.0036554 0.18714564
-0.019071475 0.86541241 -0.29245898
-0.020935068 0.94997728 -0.29658443
-0.020043425 0.90951699 -0.26087931
-0.019943215 0.90496963 -0.23692149
-0.020264076 0.9195295 -0.21799409
-0.020352403 0.92353749 -0.19635664
-0.020970149 0.95156914 -0.1792725
-0.020877063 0.9473452 -0.15573527
-0.021371147 0.96976537 -0.13631874
-0.055439353 2.5156894 -0.2940883
-0.069825903 3.1685123 -0.29582185
-0.10888164 4.9407568 -0.34548935
-0.16343611 7.4162927 -0.34534678
-0.32741746 14.857327 -0.34552336
-0.083702467 3.7981939 0.088548176
-0.043981947 1.995783 0.18644726
-0.030195758 0.87172061 -0.29469591
-0.032777473 0.94625211 -0.29552683
-0.031972263 0.92300653 -0.26484305
-0.031169195 0.89982277 -0.23565811
-0.031844925 0.91933042 -0.21802469
-0.032483771 0.93777329 -0.19945452
-0.032475982 0.93754834 -0.17669407
-0.033269621 0.96045995 -0.15794757
-0.03340891 0.964481 -0.1356243
-0.087629214 2.5297658 -0.2958394
-0.10947722 3.1604953 -0.29517865
-0.17077522 4.9301057 -0.34486759
-0.25704354 7.4205837 -0.3456699
-0.51479214 14.861523 -0.34574428
-0.13172305 3.8027093 0.088685088
-0.054787092 1.5816472 0.073767759
-0.054929085 1.5857464 0.11101615
-0.054900602 1.5849242 0.14811744
-0.040848758 0.86448592 -0.29240084
-0.044855233 0.94927537 -0.29662395
-0.049129944 1.0397414 -0.29849222
-0.053438056 1.1309143 -0.29633233
-0.042514805 0.89974463 -0.21348985
-0.043748315 0.9258495 -0.19701999
-0.044785615 0.94780195 -0.17871861
-0.045355529 0.95986313 -0.15793082
-0.045648262 0.96605819 -0.13591614
-0.11975144 2.5343103 -0.29652372
-0.14933501 3.1603904 -0.29532105
-0.18082677 3.826853 -0.26783162
-0.18076789 3.8256071 -0.17829852
-0.18112278 3.8331175 -0.089221135
-0.18119499 3.8346457 0.0001095951
-0.17944008 3.7975066 0.08860942
-0.074603967 1.5788505 0.07367529
-0.075235598 1.5922176 0.11152668
-0.075412229 1.5959557 0.14922529
-0.053775184 0.89805043 -0.30395854
-0.056284465 0.93995559 -0.29390991
-0.053500216 0.89345843 -0.25666991
-0.054483019 0.90987134 -0.23857351
-0.0634453 1.0595423 -0.25157595
-0.054575682 0.9114188 -0.19408001
-0.055743366 0.93091923 -0.17565362
-0.057368185 0.95805383 -0.15773948
-0.12580514 2.1009569 -0.29578614
-0.15098229 2.5214179 -0.29521427
-0.18919848 3.1596315 -0.29544935
-0.22780773 3.8044095 -0.26644048
-0.22826745 3.8120868 -0.17778827
-0.22902101 3.8246715 -0.089084603
-0.22790696 3.8060668 0.00010885169
-0.22806279 3.8086691 0.088929839
-0.094662577 1.5808736 0.11080679
-0.062781103 0.8656261 -0.29322836
-0.064647295 0.89135718 -0.27894634
-0.065925635 0.90898287 -0.2613475
-0.06584736 0.90790367 -0.2382561
-0.090288952 1.2449044 -0.29583454
-0.065692514 0.90576863 -0.19303769
-0.068055265 0.93834633 -0.17720267
-0.070675626 0.9744758 -0.16057709
-0.15253176 2.1031084 -0.29633597
-0.18279178 2.520334 -0.29533345
-0.22933447 3.1620648 -0.29592344
-0.27720973 3.8221688 -0.2679075
-0.27665186 3.814477 -0.17804809
-0.27740493 3.8248606 -0.089163303
-0.27758509 3.8273444 0.0001095515
-0.11607624 1.6004596 0.037400812
-0.11622567 1.6025201 0.07489267
-0.11449967 1.5787219 0.11074826
-0.075260989 0.88337785 -0.299539
-0.075609982 0.88747412 -0.27800709
-0.078722008 0.92400157 -0.26592955
-0.077117108 0.90516412 -0.23777315
-0.079457395 0.93263322 -0.22184773
-0.076255746 0.89505374 -0.19094364
-0.078459211 0.92091703 -0.17408401
-0.1525453 1.7905043 -0.29533786
-0.17827465 2.0925033 -0.29513457
-0.21443343 2.5169179 -0.29522616
-0.26844519 3.1508822 -0.29516989
-0.41965565 4.9257193 -0.34560171
-0.63098997 7.4062614 -0.34604502
-1.2626835 14.820781 -0.3458381
-0.32436866 3.8072855 0.089060061
-0.13424844 1.5757445 0.11064921
-0.084487438 0.86304969 -0.29298356
-0.088695727 0.90603787 -0.28414965
-0.089040026 0.9095549 -0.26207367
-0.089367129 0.91289628 -0.24008085
-0.090577081 0.92525619 -0.22034678
-0.088276707 0.90175754 -0.19259565
-0.091812521 0.93787634 -0.17749435
-0.17609718 1.7988546 -0.29705742
-0.20510402 2.0951631 -0.29585055
-0.24739604 2.5271811 -0.29677188
-0.3080276 3.1465402 -0.29510307
-0.48158556 4.9194565 -0.34556037
-0.72446764 7.400527 -0.34617588
-1.44862 14.797832 -0.34570089
-0.36998239 3.7794161 0.088510104
-0.095872685 0.86666423 -0.29459709
-0.099378809 0.8983587 -0.28211141
-0.099777885 0.90196627 -0.26022851
-0.098159976 0.88734078 -0.2336666
-0.13697892 1.2382541 -0.29527357
-0.10100701 0.91307729 -0.19526947
-0.10660216 0.96365601 -0.18261275
-0.19829802 1.7925628 -0.29640728
-0.22962074 2.0757122 -0.29348895
-0.2764253 2.4988132 -0.29382604
-0.34718302 3.1384449 -0.29473048
-0.5425809 4.9047914 -0.34498283
-0.81733435 7.3884912 -0.34606689
-1.6347697 14.777895 -0.34568858
-0.41692674 3.7689099 0.088380001
-0.10594172 0.85861522 -0.29229137
-0.1161552 0.94139141 -0.2960608
-0.11138535 0.90273374 -0.26083392
-0.1116684 0.90502775 -0.23867553
-0.15174033 1.2297947 -0.29368871
-0.11215471 0.90896904 -0.19467749
-0.12627628 1.0234188 -0.19422373
-0.21839294 1.7699875 -0.29310584
-0.25607076 2.0753512 -0.29387054
-0.3075282 2.492393 -0.29350322
-0.38822883 3.1464396 -0.29591689
-0.60535294 4.9061432 -0.34558666
-0.90727049 7.3530645 -0.3449153
-1.820678 14.755867 -0.3456822
-0.46567839 3.774137 0.08863306
-0.23511711 1.9055301 0.089493893
-0.23280053 1.8867552 0.13301131
-0.11986063 0.88009524 -0.30009365
-0.12850577 0.94357342 -0.29723236
-0.13883576 1.019423 -0.29503161
-0.12437856 0.91326886 -0.24124281
-0.12501834 0.91796649 -0.21957919
-0.13200799 0.96928912 -0.20793599
-0.21014896 1.5430512 -0.29331815
-0.24404405 1.7919312 -0.297225
-0.28080562 2.0618587 -0.29243752
-0.33938158 2.4919617 -0.29393235
-0.42011541 3.0847623 -0.29059076
-0.42132154 3.0936186 -0.21826959
-0.41844574 3.0725026 -0.14435974
-2.0050087 14.722087 -0.34545493
-0.51224625 3.7612474 0.088474825
-0.25974926 1.9072492 0.089721128
-0.25908154 1.9023463 0.13432978
-0.24070436 1.767409 0.16659619
-0.12691446 0.85155582 -0.29088417
-0.14230606 0.95482868 -0.30131844
-0.1510466 1.0134749 -0.29383734
-0.16616639 1.114924 -0.29503995
-0.18589872 1.2473215 -0.29889774
-0.14606576 0.98005503 -0.21062341
-0.23165898 1.5543584 -0.29599857
-0.23698498 1.5900942 -0.26422063
-0.23669793 1.5881681 -0.2256579
-0.23597571 1.5833224 -0.18709201
-0.23908499 1.6041846 -0.151389
-0.23950349 1.6069926 -0.11358479
-0.23672439 1.5883458 -0.074761622
-0.23732953 1.592406 -0.037433092
-0.23787111 1.5960398 4.6067631e-05
-0.2366554 1.5878828 0.037418477
-0.23773758 1.5951439 0.075173892
-0.23889311 1.602897 0.1133883
-0.23851369 1.6003513 0.15112044
-0.13779934 0.85095757 -0.29124945
-0.1492397 0.92160571 -0.2914041
-0.16457585 1.0163115 -0.29523721
-0.18028742 1.1133358 -0.29519707
-0.20031857 1.237035 -0.2970137
-0.22177576 1.3695405 -0.29490444
-0.24963169 1.5415602 -0.29413667
-0.28700686 1.7723645 -0.29508501
-0.33311233 2.0570812 -0.29285708
-0.35201988 2.173842 -0.25737366
-0.42082712 2.5987499 -0.24572803
-0.41948184 2.5904424 -0.18345541
-0.42028037 2.5953736 -0.12240067
-2.3754144 14.668987 -0.34550333
-0.60564792 3.7400811 0.088307768
-0.15003233 0.8578999 -0.29424882
-0.16517498 0.94448709 -0.29927292
-0.17781384 1.0167574 -0.29599372
-0.19369902 1.1075904 -0.29429707
-0.2144275 1.2261178 -0.29501739
-0.24068353 1.3762525 -0.29697883
-0.26737565 1.5288807 -0.29233664
-0.31097773 1.7782018 -0.29668531
-0.35848615 2.0498598 -0.29244846
-0.38025522 2.1743374 -0.2579788
-0.41887808 2.3951869 -0.22696063
-0.41965044 2.3996031 -0.17030089
-0.41835269 2.3921826 -0.11305745
-2.5592539 14.634071 -0.34541261
-0.65434843 3.7416301 0.088531874
-0.16356738 0.87055218 -0.29927114
-0.17285571 0.91998732 -0.2921764
-0.19028194 1.0127348 -0.29549673
-0.2080691 1.107403 -0.29492006
-0.22841474 1.2156883 -0.29317674
-0.26053566 1.386645 -0.29990554
-0.28940272 1.5402838 -0.29519039
-0.33229053 1.7685448 -0.29574877
-0.38547024 2.0515823 -0.29336348
-0.41388863 2.2028332 -0.26195732
-0.43194637 2.2989416 -0.2183388
-0.42895254 2.2830076 -0.16239652
-0.43002367 2.2887084 -0.10841446
-2.7435024 14.601701 -0.3454366
-0.69945312 3.7226887 0.088285096
-0.17062677 0.8490715 -0.29260209
-0.18670443 0.92907697 -0.29578638
-0.20342067 1.0122602 -0.29608223
-0.22342458 1.1118035 -0.29681772
-0.24416539 1.2150139 -0.29373226
-0.271727 1.3521656 -0.29316509
-0.30956718 1.5404656 -0.29594886
-0.35486051 1.765854 -0.29602259
-0.4135344 2.0578265 -0.29497755
-0.46100238 2.2940361 -0.27347168
-0.45894167 2.2837818 -0.21743065
-0.46086851 2.29337 -0.16353346
-0.46092963 2.2936742 -0.10891598
-2.9274619 14.567611 -0.34547481
-0.73913229 3.6780639 0.087440595
-0.18271811 0.85346061 -0.29488418
-0.19438097 0.90793681 -0.28981236
-0.21747218 1.0157938 -0.29789317
-0.23324829 1.0894828 -0.29161975
-0.26342824 1.2304506 -0.29824242
-0.28887236 1.349298 -0.29330876
-0.32802379 1.5321709 -0.29512545
-0.37524685 1.7527457 -0.29459393
-0.43872917 2.0492663 -0.29451907
-0.49028462 2.2900774 -0.27371404
-0.49020532 2.2897069 -0.21856512
-0.49303901 2.3029428 -0.16464573
-0.49218869 2.2989712 -0.10945313
-3.1125202 14.538315 -0.34568211
-0.7856735 3.6698136 0.087472722
-0.19356063 0.85158026 -0.29505321
-0.20923254 0.9205296 -0.29464957
-0.22861464 1.0058022 -0.29578379
-0.2503306 1.1013427 -0.2956146
-0.27529263 1.2111645 -0.29438463
-0.31045508 1.3658636 -0.29773599
-0.34609789 1.5226759 -0.29411268
-0.39937437 1.7570688 -0.29614228
-0.4657318 2.0490117 -0.29530191
-0.51973426 2.2865984 -0.2740587
-0.52059042 2.290365 -0.2192363
-0.51832527 2.2803993 -0.16348769
-0.52322888 2.3019731 -0.10990102
-3.2950766 14.496864 -0.34565571
-0.82807887 3.6431768 0.08707945
-0.20355737 0.84612292 -0.29402718
-0.21905988 0.91056186 -0.29231879
-0.24312739 1.0106028 -0.29807222
-0.26331183 1.094503 -0.29464537
-0.28782347 1.1963902 -0.2916514
-0.3221437 1.3390483 -0.29275173
-0.36771801 1.5284863 -0.29610586
-0.42024094 1.7468072 -0.29528126
-0.49140328 2.0426064 -0.29524717
-0.5471949 2.2745144 -0.27341455
-0.55040044 2.2878385 -0.21964046
-0.55099273 2.2903006 -0.16468188
-0.55666888 2.3138945 -0.11079605
-3.4726212 14.434575 -0.34518579
-0.87089127 3.6200163 0.086781114
-0.21510263 0.84706724 -0.29527315
-0.23477945 0.92455387 -0.29773617
-0.25150678 0.99042559 -0.2930319
-0.28109145 1.1069291 -0.29891965
-0.30443606 1.1988595 -0.29316464
-0.34253123 1.348877 -0.29582006
-0.38597491 1.5199568 -0.29537165
-0.44347641 1.7463958 -0.29613221
-0.51963335 2.0462992 -0.29670325
-0.57945305 2.2818675 -0.27515373
-0.58358705 2.298147 -0.22131807
-0.58058608 2.2863293 -0.16490893
-0.58321816 2.2966943 -0.11031536
-3.6556053 14.395657 -0.34532851
-0.90836793 3.5771236 0.086020254
-0.22701494 0.84901804 -0.29692608
-0.24824388 0.92841262 -0.29996169
-0.26459858 0.98957783 -0.29374361
-0.2908048 1.0875871 -0.294662
-0.32307604 1.208279 -0.29643938
-0.35999423 1.3463501 -0.29623657
-0.39445928 1.4752468 -0.28762564
-0.39434013 1.4748011 -0.25090066
-0.39291382 1.4694668 -0.21376584
-0.39573094 1.4800026 -0.1790494
-0.39404395 1.4736935 -0.14238742
-0.39601129 1.4810511 -0.10717682
-0.61109883 2.2854617 -0.11013671
-3.8390205 14.357635 -0.34554869
-0.95132512 3.5578811 0.08583878
-0.23466204 0.83532405 -0.29314709
-0.25669685 0.91376114 -0.29624879
-0.27625111 0.98336816 -0.29290968
-0.30624607 1.0901411 -0.29637522
-0.33804932 1.2033507 -0.29625115
-0.37180746 1.3235191 -0.29222009
-0.39848578 1.4184856 -0.27751538
-0.39319566 1.3996545 -0.23893972
-0.39502865 1.4061793 -0.20526665
-0.39304051 1.3991022 -0.16984743
-0.39438739 1.4038967 -0.13611273
-0.39558524 1.4081607 -0.10225444
-0.64187926 2.2848911 -0.11048996
-4.0175362 14.301181 -0.34538019
-0.98858547 3.5190575 0.08519569
-0.24526396 0.83265209 -0.29326999
-0.26852441 0.91161954 -0.29662719
-0.28854859 0.97959995 -0.29284635
-0.3157188 1.0718408 -0.29245761
-0.35288584 1.19802 -0.2960093
-0.39011997 1.3244269 -0.29348186
-0.39197606 1.3307282 -0.26129127
-0.39245737 1.3323622 -0.22827756
-0.39301127 1.3342427 -0.19547263
-0.39145979 1.3289756 -0.1619198
-0.39002866 1.3241169 -0.12884375
-0.39685911 1.3473058 -0.098190524
-0.67671382 2.2973907 -0.11149763
-4.2015858 14.264057 -0.34573394
-1.0306762 3.4990656 0.085019164
-0.25840166 0.83816832 -0.29633543
-0.28097886 0.91140127 -0.29768384
-0.30267298 0.98176968 -0.29461101
-0.32874423 1.066336 -0.29206198
-0.37109494 1.2037076 -0.29854554
-0.39114681 1.2687491 -0.28221318
-0.39228618 1.2724448 -0.25079727
-0.39222351 1.2722416 -0.21880579
-0.39048079 1.2665887 -0.18626662
-0.39076215 1.2675015 -0.15501714
-0.39328277 1.2756774 -0.12460234
-0.39576855 1.2837405 -0.093913697
-0.70364183 2.2823782 -0.11119024
-4.3782878 14.201697 -0.34553137
-1.0689418 3.467289 0.084567413
-0.26844722 0.83333498 -0.29579827
-0.28967696 0.89923799 -0.29487908
-0.31504944 0.97800124 -0.29464728
-0.34422836 1.0685807 -0.29384071
-0.38663423 1.2002203 -0.29886442
-0.39118013 1.2143321 -0.27118316
-0.39707309 1.2326255 -0.24391507
-0.39832121 1.2365 -0.21350449
-0.39616519 1.2298071 -0.18157668
-0.39239064 1.2180898 -0.14956647
-0.39218307 1.2174455 -0.11938741
-0.4186388 1.2995714 -0.09544991
-0.73700428 2.2878666 -0.11190085
-4.5571933 14.146797 -0.34556442
-1.1060888 3.4336076 0.08407896
-0.28299862 0.84202832 -0.30012515
-0.30289742 0.90123481 -0.2967611
-0.32644013 0.97128326 -0.29383844
-0.359887 1.0708004 -0.29567379
-0.38823584 1.155149 -0.28883573
-0.38971609 1.1595533 -0.26002532
-0.39318207 1.1698658 -0.23245734
-0.39684066 1.1807516 -0.20472512
-0.39588842 1.1779183 -0.17463768
-0.39300033 1.1693252 -0.14417499
-0.39448529 1.1737435 -0.11557978
-0.42923152 1.2771267 -0.094190918
-0.76760048 2.2839029 -0.11217085
-4.7347002 14.087531 -0.34554568
-1.1364406 3.3813424 0.083142966
-0.29282498 0.83624685 -0.299355
-0.31688109 0.90494609 -0.29927334
-0.33999234 0.97094697 -0.29500851
-0.37215742 1.0628037 -0.29473636
-0.39135233 1.1176202 -0.28066194
-0.3927269 1.1215458 -0.25259122
-0.39198461 1.119426 -0.22339779
-0.38942042 1.1121032 -0.19365735
-0.39633912 1.1318616 -0.16853589
-0.39288515 1.1219977 -0.13893861
-0.39740908 1.1349171 -0.11224039
-0.44963267 1.2840568 -0.095112063
-0.80368805 2.2951648 -0.11321203
-1.1721517 3.3474197 -0.082462609
-1.1750709 3.3557565 0.00010150504
-1.1673685 3.3337603 0.082327902
-0.30523244 0.83771169 -0.30123138
-0.32460514 0.89088017 -0.29594991
-0.35152087 0.96475047 -0.29444733
-0.3850686 1.0568224 -0.29439893
-0.40546933 1.1128123 -0.28071445
-0.40290979 1.1057875 -0.25016502
-0.40178648 1.1027046 -0.22105296
-0.40632141 1.1151508 -0.19506355
-0.40379146 1.1082073 -0.1657577
-0.40457764 1.110365 -0.13811801
-0.40421605 1.1093726 -0.11020875
-0.4637 1.2726265 -0.094690405
-0.83791387 2.2996581 -0.11394509
-1.2055897 3.3087456 -0.081877381
-1.2068982 3.3123372 0.00010064342
-1.2008427 3.2957177 0.081755377
-0.31152785 0.82263684 -0.2971977
-0.33988193 0.89751011 -0.29955038
-0.36657503 0.96799731 -0.29682359
-0.40062004 1.0578984 -0.2960805
-0.41865835 1.1055312 -0.2801854
-0.41881761 1.1059518 -0.25137535
-0.41689014 1.100862 -0.22171836
-0.41798529 1.1037539 -0.1939753
-0.41998103 1.109024 -0.16665766
-0.42199939 1.1143539 -0.13926414
-0.42157146 1.1132238 -0.11110989
-0.48161754 1.2717847 -0.095071465
-0.87065965 2.2991097 -0.11445207
-1.2460327 3.2903395 -0.081803687
-1.2476743 3.2946746 0.00010057614
-1.2268057 3.2395675 0.080739304
-0.3180334 0.80891323 -0.29366323
-0.34360969 0.87396622 -0.29311332
-0.37911689 0.96427828 -0.29712349
-0.40896985 1.0402088 -0.29254773
-0.43445975 1.105042 -0.28142563
-0.43425015 1.1045089 -0.25227025
-0.43631586 1.109763 -0.22459979
-0.43420202 1.1043864 -0.19503187
-0.436726 1.1108062 -0.16773859
-0.43122676 1.0968189 -0.13774045
-0.43389896 1.1036156 -0.11068747
-0.49246541 1.2525786 -0.09409184
-0.90477186 2.3012741 -0.11511785
-1.3015238 3.3104067 -0.082703494
-1.2989608 3.3038876 0.00010134868
-1.2578226 3.1992533 0.080122955
-0.3297902 0.80876064 -0.29509205
-0.35478899 0.87006646 -0.29328051
-0.39206767 0.96148676 -0.29776099
-0.42747045 1.0483068 -0.29631558
-0.44455877 1.0902133 -0.27905267
-0.44676438 1.0956222 -0.25150552
-0.44321924 1.0869284 -0.22109039
-0.44873178 1.1004469 -0.19531853
-0.44882977 1.1006873 -0.16705078
-0.44274411 1.0857631 -0.1370413
-0.44915593 1.101487 -0.11103244
-0.50969857 1.2499589 -0.094369695
-0.93386143 2.2901542 -0.11514071
-5.6118526 13.762221 -0.34555796
-1.2790554 3.1366904 0.078953214
-0.34518304 0.8169353 -0.2996369
-0.36722252 0.86909556 -0.29448858
-0.40315267 0.95413047 -0.29703143
-0.43911675 1.0392456 -0.2952939
-0.45950514 1.0874983 -0.2798166
-0.45570394 1.0785022 -0.24887307
-0.46095517 1.0909301 -0.22306737
-0.45845041 1.0850021 -0.19358653
-0.45834976 1.0847639 -0.16549693
-0.45440161 1.0754199 -0.13644721
-0.45229232 1.0704279 -0.10846712
-0.52984285 1.2539647 -0.0951683
-0.97237551 2.3012948 -0.1163072
-5.7858343 13.693177 -0.34562629
-1.3124037 3.10603 0.078591213
-0.34725928 0.79381925 -0.292739
-0.37934279 0.86716068 -0.29542813
-0.41290188 0.94387525 -0.29543406
-0.45064732 1.0301597 -0.29430127
-0.46867073 1.0713603 -0.27716079
-0.4760046 1.0881253 -0.25245681
-0.46771225 1.0691694 -0.2198047
-0.47744188 1.0914109 -0.19578712
-0.47198668 1.0789405 -0.16550212
-0.47009906 1.0746255 -0.1370866
-0.46949089 1.0732353 -0.10934197
-0.54307514 1.2414455 -0.094729662
-1.0047575 2.2968307 -0.11671177
-5.9486918 13.598444 -0.3450985
-1.32714 3.033783 0.077179886
-1.3186318 3.0143335 0.15335941
-0.35925409 0.79386353 -0.29440024
-0.39113826 0.86431968 -0.29611474
-0.4191092 0.92612857 -0.29150811
-0.46233112 1.0216385 -0.2935068
-0.48347262 1.068356 -0.27793649
-0.48729381 1.0767999 -0.25123292
-0.49016765 1.0831504 -0.22393015
-0.48548788 1.0728092 -0.19353153
-0.47821853 1.0567458 -0.16300838
-0.48413569 1.0698212 -0.13724054
-0.48009306 1.0608881 -0.10869132
-0.55816883 1.2334163 -0.094645806
-1.0351865 2.2875085 -0.11689119
-6.1283855 13.54223 -0.34560293
-1.3481517 2.9790847 0.076214194
-1.3438166 2.9695055 0.15192759
-0.36530328 0.78090161 -0.29127619
-0.39976263 0.85456467 -0.29447395
-0.44584957 0.95308381 -0.30173573
-0.48236865 1.03115 -0.29796076
-0.50033337 1.0695528 -0.2798647
-0.49768287 1.0638869 -0.2496625
-0.49877259 1.0662163 -0.2217101
-0.49936265 1.0674777 -0.19368872
-0.49430761 1.0566716 -0.16394408
-0.49657264 1.0615135 -0.13696611
-0.49904555 1.0667998 -0.10993211
-0.57858032 1.2368197 -0.095458455
-1.0702091 2.287765 -0.1175836
-6.3023939 13.472504 -0.34582138
-1.3698081 2.9282115 0.075348005
-1.3490973 2.8839386 0.14840715
-0.38356432 0.79374194 -0.29784358
-0.41008487 0.8486231 -0.29418263
-0.44997036 0.93116152 -0.29656571
-0.4859075 1.0055293 -0.29230228
-0.51190257 1.059323 -0.27885249
-0.50485742 1.0447439 -0.24664253
-0.52270764 1.0816829 -0.22627696
-0.51158148 1.0586586 -0.19324209
-0.51654363 1.0689272 -0.16684149
-0.51456159 1.0648255 -0.13821854
-0.51009136 1.055575 -0.10942864
-0.59331274 1.2277919 -0.095330752
-1.1010067 2.2784059 -0.11780581
-6.4592009 13.366568 -0.34516257
-1.3832763 2.86253 0.074100241
-1.3724427 2.840111 0.14702947
-0.3914161 0.78461581 -0.2962451
-0.42641398 0.85477108 -0.29815164
-0.46000707 0.92211038 -0.29550442
-0.49705261 0.99637026 -0.29143617
-0.52422071 1.0508302 -0.2783325
-0.53193319 1.0662904 -0.25329041
-0.51994175 1.0422529 -0.21938083
-0.52313614 1.0486562 -0.19260347
-0.52619666 1.0547911 -0.16565618
-0.52453023 1.0514507 -0.13732889
-0.52876687 1.0599433 -0.11056298
-0.60263258 1.2080113 -0.094376624
-1.1472108 2.2996492 -0.11964165
-6.6359897 13.302219 -0.3456313
-1.3953565 2.7970715 0.072854824
-1.3817891 2.7698748 0.14428274
-0.40247199 0.78197163 -0.29713669
-0.43226317 0.83985358 -0.29482353
-0.47157729 0.91623783 -0.29550204
-0.51413202 0.99891841 -0.29405183
-0.53868186 1.0466168 -0.27899101
-0.54094845 1.0510205 -0.25126135
-0.54051399 1.0501765 -0.22246364
-0.53707492 1.0434947 -0.1928823
-0.53529775 1.0400417 -0.16438535
-0.53658354 1.0425398 -0.1370367
-0.54096818 1.051059 -0.11033805
-0.61894435 1.2025605 -0.094552182
-1.1809403 2.2944746 -0.12013657
-6.802815 13.217338 -0.34562421
-1.3907648 2.7021472 0.070832893
-1.3872648 2.6953471 0.14129934
-0.41384861 0.77978629 -0.29826283
-0.44713825 0.84251159 -0.29770952
-0.47784099 0.90036267 -0.29229948
-0.52757365 0.99407041 -0.29455698
-0.5492245 1.0348656 -0.2776801
-0.54908442 1.0346017 -0.24896939
-0.54713112 1.0309212 -0.21982674
-0.55133319 1.0388389 -0.19328967
-0.55249327 1.0410248 -0.16562721
-0.54778671 1.0321565 -0.13656771
-0.54878652 1.0340403 -0.10926826
-0.62867141 1.184562 -0.093752027
-1.2194734 2.2977693 -0.12110349
-6.9677424 13.128835 -0.34557682
-1.3958522 2.6301074 0.069399722
-1.3881872 2.615665 0.13802756
-0.41832921 0.76481456 -0.29452777
-0.45206752 0.82649702 -0.2940388
-0.49296707 0.90127194 -0.29458657
-0.54003841 0.98733062 -0.29455152
-0.57086778 1.0436947 -0.28195566
-0.56013399 1.0240706 -0.24811283
-0.56397849 1.0310993 -0.2213615
-0.56407124 1.0312688 -0.19318743
-0.56021607 1.0242206 -0.16406301
-0.56784058 1.0381603 -0.13829722
-0.56659651 1.0358857 -0.11020846
-0.64466298 1.1786116 -0.093916118
-3.5617921 6.5118823 -0.34554398
-7.13203 13.039206 -0.34555414
-1.4048818 2.5684893 0.068235211
-1.3892987 2.5399992 0.1349472
-0.42474735 0.75384516 -0.29234001
-0.4661406 0.82731026 -0.29639289
-0.50668728 0.89927292 -0.29599515
-0.55216861 0.97999358 -0.29441363
-0.57384086 1.0184577 -0.27706796
-0.57577789 1.0218955 -0.24932268
-0.57682395 1.0237521 -0.22132596
-0.5787819 1.027227 -0.1937802
-0.56946862 1.0106977 -0.16303261
-0.58004785 1.0294739 -0.13810211
-0.57323164 1.0173764 -0.10899855
-0.66041279 1.1721063 -0.094052948
-3.639899 6.4601235 -0.34520224
-7.298501 12.953442 -0.34568948
-1.396842 2.4791269 0.066323213
-1.3939164 2.4739347 0.1323593
-0.43531382 0.75034773 -0.2930862
-0.47653943 0.82140809 -0.29640469
-0.51747423 0.89196712 -0.29571179
-0.56905419 0.98087525 -0.29680771
-0.58847225 1.014346 -0.27794325
-0.59384662 1.0236098 -0.25154543
-0.5896678 1.0164068 -0.2213257
-0.5919227 1.0202935 -0.19386294
-0.59131086 1.0192388 -0.16559829
-0.59787917 1.0305606 -0.13924681
-0.58381724 1.0063221 -0.10859325
-0.67538589 1.1641586 -0.094090179
-3.7309577 6.4310288 -0.34613058
-7.4596071 12.858079 -0.34562391
-1.4021339 2.4168496 0.065124303
-1.3877546 2.3920639 0.12890381
-0.45020589 0.75398278 -0.29669687
-0.48590499 0.81376988 -0.2958329
-0.52867496 0.88539886 -0.29571784
-0.57793748 0.96790135 -0.29506063
-0.60200459 1.0082077 -0.27831641
-0.60383487 1.011273 -0.25036246
-0.60783541 1.0179729 -0.22331572
-0.60294044 1.009775 -0.19329165
-0.60641891 1.0156007 -0.16623467
-0.60771406 1.0177697 -0.13854153
-0.60984576 1.0213398 -0.11103369
-0.68829757 1.152727 -0.093859315
-1.4120737 2.364872 -0.12822889
-1.4049417 2.3529274 -0.063716948
-1.4155642 2.3707175 7.8827281e-05
-1.400129 2.3448675 0.063654706
-1.3901675 2.3281844 0.12639476
-0.4560875 0.74243283 -0.29438853
-0.49548933 0.80657226 -0.29546109
-0.53413665 0.86948353 -0.29262543
-0.58618087 0.95420271 -0.29311159
-0.61611623 1.0029323 -0.27897969
-0.62471199 1.0169247 -0.25368908
-0.62609863 1.019182 -0.22529261
-0.61555415 1.0020174 -0.19327506
-0.61880511 1.0073094 -0.1661398
-0.61631787 1.0032606 -0.13761202
-0.61462587 1.0005063 -0.10960151
-0.71262693 1.1600353 -0.095177494
-1.4275137 2.3237493 -0.12696373
-1.4346046 2.3352921 -0.063723527
-1.4283351 2.3250864 7.7901888e-05
-1.3985831 2.2766552 0.062276136
-1.3875735 2.2587335 0.12356312
-0.47118363 0.74578637 -0.2980473
-0.49820313 0.7885527 -0.29113519
-0.54554117 0.86347902 -0.29289335
-0.59611517 0.94352722 -0.29211494
-0.62970805 0.99669778 -0.27942899
-0.62909895 0.99573374 -0.25035897
-0.63010842 0.9973315 -0.22219881
-0.63185328 1.0000932 -0.19442321
-0.63354033 1.0027635 -0.1666926
-0.63517624 1.0053529 -0.13898507
-0.62180591 0.9841904 -0.10866328
-0.7240997 1.1461003 -0.09477476
-1.4499798 2.2950184 -0.12638153
-1.4602464 2.3112686 -0.063564703
-1.4573135 2.3066263 7.7892058e-05
-1.395267 2.2084196 0.060885377
-1.387951 2.1968398 0.12112375
-0.47519818 0.73157585 -0.29473618
-0.51233643 0.78875083 -0.29356697
-0.5557124 0.85552895 -0.29254711
-0.61616486 0.94859648 -0.29606304
-0.64270663 0.98945808 -0.27964607
-0.63857508 0.98309737 -0.24918383
-0.64552552 0.99379778 -0.22320484
-0.6446954 0.9925198 -0.19451368
-0.64224744 0.98875105 -0.1656945
-0.64160299 0.98775893 -0.13765879
-0.64744723 0.99675626 -0.11094201
-0.7366969 1.1341577 -0.09454681
-1.4902141 2.2942104 -0.1273603
-1.4835287 2.2839184 -0.063321263
-1.4892679 2.2927539 7.8050682e-05
-1.3918134 2.1427209 0.05955255
-1.3889071 2.1382465 0.11884804
-0.48701364 0.72949147 -0.29634362
-0.52335167 0.78392184 -0.29419914
-0.57158345 0.85616755 -0.29520324
-0.62703705 0.9392308 -0.29558083
-0.64911997 0.97230858 -0.27708736
-0.6558944 0.98245585 -0.25109473
-0.65420479 0.97992498 -0.22192165
-0.65190673 0.97648281 -0.19296424
-0.65983498 0.98835838 -0.16700785
-0.65594524 0.98253202 -0.13807054
-0.65237993 0.97719157 -0.10967005
-0.74920183 1.1222198 -0.094330609
-1.5364817 2.3014765 -0.1288275
-1.5395769 2.3061125 -0.064468972
-1.5386636 2.3047445 7.9112178e-05
-1.3944361 2.0887082 0.058534749
-1.3916892 2.0845935 0.11683068
-0.49222565 0.71756577 -0.29399362
-0.53450781 0.77920467 -0.29493141
-0.58819956 0.85747647 -0.29818472
-0.63936245 0.93206161 -0.2958349
-0.67353094 0.98187232 -0.28220743
-0.67474699 0.98364514 -0.25355014
-0.66490382 0.9692958 -0.22139305
-0.67108202 0.97830236 -0.19497825
-0.67072862 0.9777872 -0.16663553
-0.67854822 0.98918653 -0.14019525
-0.67231667 0.98010224 -0.11093806
-0.76278657 1.1119891 -0.094270557
-4.19595 6.1168494 -0.34532711
-8.405179 12.253057 -0.34547415
-1.4007733 2.0420451 0.057716794
-1.3896267 2.0257957 0.11450699
-0.50240374 0.71298873 -0.29468697
-0.54734439 0.77676648 -0.29659379
-0.58704513 0.83310807 -0.29225811
-0.65390134 0.92798734 -0.29713166
-0.69027317 0.9796046 -0.28403136
-0.68342823 0.96989059 -0.25220299
-0.68756545 0.97576189 -0.22482966
-0.69103813 0.98069024 -0.19717279
-0.67674893 0.96041161 -0.16511355
-0.68722641 0.97528076 -0.13943982
-0.6845364 0.97146326 -0.1109271
-0.77586377 1.1010709 -0.094165735
-4.2808814 6.0752344 -0.34599355
-8.5628004 12.15194 -0.34563586
-1.4090973 1.9997275 0.057017706
-1.391305 1.9744773 0.11258761
-0.51086259 0.70594484 -0.29441109
-0.5489158 0.75852942 -0.29224637
-0.60176378 0.83155835 -0.29434937
-0.65983897 0.91181058 -0.29458907
-0.69309413 0.95776486 -0.28020737
-0.69961131 0.96677071 -0.25366241
-0.6996668 0.96684742 -0.22478785
-0.68855029 0.95148587 -0.19302903
-0.70217574 0.97031444 -0.1683228
-0.70327783 0.9718374 -0.14020255
-0.70151758 0.969405 -0.11169188
-0.79770201 1.1023192 -0.095124006
-4.3604517 6.0255704 -0.34626472
-8.7175236 12.046471 -0.34573084
-1.4005982 1.9354423 0.055683214
-1.3826883 1.9106932 0.10993463
-0.52897233 0.71192122 -0.29965767
-0.57782668 0.77767223 -0.30240107
-0.61049038 0.82163292 -0.29353392
-0.67810434 0.91263163 -0.29758948
-0.7157405 0.96328449 -0.28443646
-0.70323551 0.94645458 -0.25063542
-0.71203882 0.95830256 -0.22486797
