# .PCD v0.7 - Point Cloud Data file format
VERSION 0.7
FIELDS x y z
SIZE 4 4 4
TYPE F F F
COUNT 1 1 1
WIDTH 1442
HEIGHT 1
VIEWPOINT 0 0 0 1 0 0 0
POINTS 1442
DATA ascii
1.1709008 0.61670697 -0.20733492
1.2416177 0.65395314 -0.17045192
1.230389 0.64803904 -0.12036137
1.2391313 0.65264356 -0.072614111
1.2347693 0.65034616 -0.024100317
1.2355028 0.65073252 0.024114633
1.0371933 0.54628396 0.060780376
1.0081724 0.53099877 0.098623291
1.0050815 0.52937084 0.13797975
0.89305043 0.47036472 0.15813512
0.8810724 0.46405596 0.19145435
0.89516437 0.4714781 0.23100509
0.79485554 0.43151692 -0.20650537
0.9474389 0.51435244 -0.20726655
1.164946 0.63243431 -0.20767418
1.2265911 0.66590065 -0.16952674
1.2340572 0.66995388 -0.12153583
1.243868 0.67528009 -0.073384166
1.2364286 0.67124128 -0.024295749
1.2357087 0.67085052 0.024281604
1.0523288 0.57129586 0.062083978
0.98222655 0.53323823 0.096734352
0.9803347 0.53221118 0.13549173
0.89221323 0.48437116 0.15905428
0.89037412 0.48337272 0.19478278
0.90210181 0.48973954 0.23436821
0.79444945 0.44433787 -0.20783703
0.94071358 0.52614385 -0.20722824
1.1615176 0.6496402 -0.2085048
1.2267743 0.68613851 -0.17073266
1.2416458 0.69445616 -0.12313467
1.2403584 0.69373602 -0.073686637
1.234036 0.69019991 -0.024417579
1.2246908 0.68497312 0.024232669
1.0432799 0.5835095 0.061978694
0.95343119 0.53325683 0.094552271
0.94364947 0.5277859 0.13132961
0.89433956 0.50020671 0.16054349
0.88066745 0.49255988 0.1940008
0.89711601 0.50175959 0.23469578
0.78989518 0.45494127 -0.20812778
0.93507314 0.53855675 -0.20746319
1.146342 0.66023737 -0.2072566
1.2500124 0.71994644 -0.17521454
1.2396667 0.71398789 -0.12382019
1.2316498 0.70937043 -0.073694102
1.2384397 0.71328115 -0.024680478
1.2430301 0.71592504 0.024771959
1.034102 0.5955925 0.061874095
0.92645782 0.53359473 0.092536308
0.9201889 0.52998418 0.12898311
0.89614743 0.51613742 0.16202186
0.89386553 0.51482314 0.19832052
0.88367838 0.50895584 0.23283851
0.78573895 0.46582004 -0.20856167
0.9258185 0.54886526 -0.20692691
1.1408886 0.67636812 -0.20779401
1.481541 0.87832159 -0.20920168
2.5771818 1.5278649 -0.25931475
4.3012514 2.549968 -0.25926027
12.849025 7.6174579 -0.25795534
1.0329119 0.61235487 0.062259324
0.90183312 0.53464568 0.090741992
0.87696946 0.51990545 0.12383287
0.89442194 0.53025204 0.16290417
0.8819679 0.52286875 0.19712599
0.88299662 0.52347857 0.23437715
0.77093631 0.4702628 -0.20618801
0.92414045 0.5637157 -0.2081219
1.1318901 0.69044071 -0.20772211
1.4561366 0.88822758 -0.20717736
2.5330319 1.545122 -0.25680974
4.2602377 2.5986989 -0.25874004
12.760276 7.7836299 -0.25812083
1.0192108 0.62170756 0.061900456
0.85915601 0.52407587 0.087104954
0.85770422 0.52319032 0.12203312
0.89783156 0.5476675 0.16476817
0.87839878 0.53581375 0.1978206
0.88112617 0.53747743 0.23565845
0.75982881 0.476717 -0.20480655
0.89653307 0.56248528 -0.20348354
1.1273663 0.70731026 -0.20850992
1.4453611 0.9068203 -0.20725246
2.5277882 1.5859356 -0.2582823
4.2154741 2.6447906 -0.25802362
12.662074 7.9441919 -0.25813746
1.0143616 0.63641101 0.062087733
0.84572506 0.53060836 0.086413816
0.84980708 0.53316939 0.1218551
0.88536417 0.55547792 0.16375086
0.88007367 0.55215865 0.19974779
0.89138943 0.55925822 0.2402678
0.75586134 0.48759797 -0.20537585
0.90335774 0.58274633 -0.20668164
1.1166409 0.72033292 -0.20818734
1.4446632 0.9319365 -0.20881854
2.5146708 1.6221869 -0.25900865
4.1831346 2.6984947 -0.25810355
12.547114 8.0940075 -0.25785121
1.0122211 0.65297288 0.062455043
0.81940603 0.52858996 0.084398024
0.82107437 0.52966619 0.11868203
0.90018302 0.58069831 0.16783078
0.89113283 0.57486016 0.20388466
0.87257528 0.56288886 0.23708831
0.75997692 0.50391603 -0.20820171
0.88838536 0.58905947 -0.20493689
1.0911853 0.72352958 -0.20512377
1.4104334 0.93521261 -0.20555674
2.4874566 1.6493516 -0.25832433
4.1550212 2.7550597 -0.25848898
12.444893 8.2518044 -0.25786543
1.0026996 0.66485757 0.062379178
0.79826987 0.52930683 0.082900956
0.79676008 0.52830577 0.11611991
0.90153778 0.59778041 0.16947334
0.88492864 0.58676749 0.20413949
0.75041634 0.51129514 -0.2073299
0.90768343 0.61844885 -0.21116841
1.1042525 0.75238097 -0.20934452
1.4032749 0.95611942 -0.20625176
1.9817613 1.3502704 -0.20755678
4.1168561 2.8050144 -0.2582916
12.366032 8.4255791 -0.25840929
0.99334085 0.67681146 0.062322214
0.7978949 0.54364461 0.083566323
0.79230076 0.53983301 0.11645147
0.89148015 0.60740882 0.16900708
0.88204068 0.60097724 0.20520274
0.74351698 0.52042186 -0.20721784
0.8888213 0.62212706 -0.20858622
1.0808339 0.75652558 -0.20669445
1.4032565 0.98220408 -0.20805043
1.9657694 1.3759328 -0.20768005
4.0875802 2.8610861 -0.25869465
12.245559 8.5712318 -0.25812674
0.97412401 0.6818344 0.061650336
0.76120454 0.53280222 0.080419913
0.7535302 0.52743059 0.11172033
0.89046776 0.62327951 0.17028956
0.8876254 0.62129003 0.20830557
0.73488432 0.52828956 -0.20664956
0.7498464 0.53904545 -0.17755082
0.75078243 0.53971833 -0.14486489
0.74179733 0.53325915 -0.11096755
0.7290293 0.52408051 -0.077711694
0.73786706 0.53043377 -0.047117095
0.73170596 0.52600473 -0.015562171
0.74228555 0.53361011 0.015787182
0.7425344 0.53378904 0.047415134
0.73434991 0.52790534 0.078278847
0.74242812 0.53371263 0.11106192
0.8976959 0.64533067 0.17321213
0.89131308 0.64074218 0.21104771
0.71502203 0.52779245 -0.20291707
0.71125025 0.52500832 -0.16996381
0.72932774 0.53835219 -0.11010756
0.72271097 0.53346801 0.10910861
0.72046524 0.5318104 0.14029615
0.87849349 0.64845866 0.20992906
0.70663869 0.53547972 -0.20243546
0.88458943 0.67032796 0.21338594
0.88723034 0.69008631 0.21610205
0.88949579 0.71000302 0.21881413
0.88088608 0.72147471 0.21891369
0.87910593 0.7387051 0.22076546
0.88679105 0.76441795 0.2250948
0.88805652 0.78521454 0.22790772
0.87931138 0.7974332 0.22822231
0.55050302 0.69414181 -0.20228213
0.54976535 0.71143037 -0.20528659
0.55337763 0.71610492 -0.17399618
0.5487318 0.7100929 -0.14059728
0.55313575 0.71579188 -0.10987786
0.5580768 0.72218597 0.11085939
0.55312306 0.73471272 -0.20997837
0.54273373 0.72091264 -0.17349003
0.54887259 0.72906685 -0.14297429
0.54375672 0.72227144 -0.10981274
0.55283892 0.7343353 -0.079556808
0.55501926 0.73723143 -0.047846016
0.54798388 0.72788632 -0.015733983
0.54348826 0.72191483 0.015604904
0.55311161 0.73469752 0.047681566
0.55164289 0.73274666 0.079384692
0.54471773 0.72354794 0.11000681
0.84691834 1.1249607 0.22061139
0.53853798 0.73440456 -0.20793574
0.63480926 0.86568975 -0.20639108
0.78915012 1.0761645 -0.20907687
1.0086497 1.3754963 -0.20718029
1.413088 1.9270289 -0.20682731
2.9474406 4.0194263 -0.25842991
8.8417158 12.057454 -0.25820667
0.97279787 1.3266051 0.14238404
0.84025967 1.1458626 0.17259236
0.83165115 1.1341232 0.22033706
0.52308881 0.73250186 -0.20551576
0.62968928 0.88177872 -0.20831996
0.7723555 1.0815599 -0.20821908
0.99669188 1.395707 -0.20831756
1.3999561 1.9604137 -0.20850191
2.8908732 4.0482035 -0.25791919
8.6805143 12.155667 -0.25794867
0.95158368 1.3325402 0.14172374
0.83211613 1.1652451 0.17391975
0.82241428 1.1516591 0.22171441
0.51528406 0.74112976 -0.20609964
0.61421102 0.88341582 -0.20686309
0.75181341 1.0813284 -0.20633559
0.98641676 1.418757 -0.20988733
1.3800724 1.9849494 -0.20924656
2.8482935 4.0966825 -0.25870222
8.5348377 12.275603 -0.25819269
0.93713427 1.3478742 0.14208828
0.82548702 1.1872927 0.17564508
0.81517285 1.1724579 0.22372462
0.50825268 0.75101846 -0.20705339
0.6032325 0.89136523 -0.20692945
0.74589413 1.1021689 -0.20850354
0.96208572 1.4216241 -0.20850272
1.3498602 1.9946181 -0.20845744
2.7918758 4.1254096 -0.25827578
8.3748207 12.375036 -0.25804549
0.92270797 1.3634375 0.14249279
0.81634229 1.2062665 0.17691727
0.81735158 1.2077579 0.22847842
0.49365219 0.74960816 -0.20493454
0.59265453 0.8999427 -0.20717178
0.72505689 1.1009949 -0.2065379
0.94356471 1.4327979 -0.20838241
1.3263158 2.0140033 -0.20872138
2.7340877 4.1516976 -0.25774571
8.2169971 12.477465 -0.25800335
0.90378946 1.3723994 0.14222872
0.80958921 1.2293569 0.17879446
0.79988229 1.2146169 0.22785246
0.48554304 0.75790048 -0.20551376
0.58668691 0.91577941 -0.20910022
0.70992333 1.1081432 -0.20618553
0.91554749 1.429109 -0.20615283
1.2952781 2.0218432 -0.20782708
2.6901836 4.1991982 -0.25857112
8.0610504 12.582766 -0.25806132
0.88743412 1.3852258 0.1423886
0.79628539 1.2429487 0.17929871
0.79389691 1.2392204 0.23057428
0.47578895 0.76367676 -0.2054392
0.57166606 0.91756666 -0.20784818
0.70540464 1.1322271 -0.20899737
0.89831656 1.4418651 -0.20634483
1.2735813 2.0441928 -0.20845941
2.6253684 4.213912 -0.25742108
7.8985829 12.677814 -0.2579504
0.87347966 1.402 0.1429709
0.78857887 1.265728 0.1811379
0.7798835 1.2517712 0.23106398
0.47275531 0.78053635 -0.20835668
0.55326295 0.91345739 -0.20532294
0.68646097 1.1333722 -0.20759669
0.8837046 1.4590286 -0.20719218
1.2448852 2.055351 -0.20798223
2.5671527 4.2384629 -0.25692573
7.7437325 12.785186 -0.25813058
0.85312563 1.4085417 0.14253119
0.78179878 1.2907784 0.18329948
0.77530271 1.2800531 0.23446383
0.45878574 0.77945417 -0.20650928
0.55038631 0.93507904 -0.2086086
0.6775049 1.1510471 -0.20925491
0.87853438 1.4925863 -0.21036994
1.2137501 2.0621014 -0.20710228
2.5292578 4.2970834 -0.25852805
7.5870004 12.889936 -0.2582961
0.83298767 1.4152046 0.14213276
0.77610397 1.3185622 0.18584241
0.77082008 1.309585 0.23807634
0.45305938 0.79238224 -0.20840645
0.53783506 0.94065148 -0.20832434
0.65728581 1.1495659 -0.20746452
0.85249311 1.4909755 -0.20861337
1.1932329 2.0869153 -0.20806889
2.4677093 4.3159227 -0.25777152
7.4152594 12.968984 -0.25798857
0.81082821 1.4181052 0.14138743
0.75999016 1.3291916 0.185977
0.75554019 1.3214089 0.23847736
0.44591543 0.80319178 -0.20975602
0.52331066 0.94259757 -0.20727952
0.64055002 1.1537714 -0.20675144
0.83407402 1.5023508 -0.2087189
1.1672387 2.1024537 -0.20813616
2.4100559 4.3410411 -0.25743878
7.2555561 13.068852 -0.25813729
0.79374707 1.4297131 0.141537
0.74886829 1.3488765 0.18739699
0.75011408 1.3511205 0.24211563
0.43224642 0.80220896 -0.20806143
0.51409131 0.95410538 -0.20837004
0.62462187 1.1592399 -0.20630556
0.81234211 1.5076311 -0.20801488
1.1473509 2.1293762 -0.20935453
2.3527596 4.3665018 -0.25717136
7.0908451 13.159945 -0.25815246
0.78328264 1.4536995 0.14292382
0.74134922 1.3758749 0.18983586
0.7326721 1.359771 0.24199332
0.41890571 0.80145478 -0.20648132
0.49414057 0.94539487 -0.20509256
0.62063706 1.1874093 -0.20991129
0.79111207 1.5135639 -0.20744252
1.1155944 2.1343668 -0.20844753
2.297112 4.3948588 -0.25711748
6.9231462 13.245436 -0.25809887
0.76428062 1.4622297 0.14280497
0.73348761 1.4033161 0.19233245
0.40685153 0.80285782 -0.20550662
0.47875124 0.94474065 -0.20362668
0.59960419 1.1832252 -0.20782037
0.77389145 1.5271537 -0.20795299
1.0870738 2.14517 -0.20814922
2.2591987 4.4581752 -0.25913686
6.7550478 13.33003 -0.25806934
0.74491405 1.4699714 0.14263365
0.70937377 1.3998382 0.1906164
0.40030646 0.81524068 -0.20736952
0.47467071 0.96668649 -0.20705208
0.57713884 1.1753671 -0.20514749
0.74519759 1.5176256 -0.20536149
0.74721855 1.5217414 -0.14673235
0.74935859 1.5260997 -0.088150933
0.75363213 1.5348029 -0.029527714
0.74946249 1.5263113 0.029364346
0.745875 1.5190053 0.087741144
0.71929127 1.4648664 0.14124824
0.69510055 1.4156009 0.19155574
0.38909867 0.81830001 -0.20688502
0.46471184 0.97731948 -0.20805968
0.57092631 1.2006955 -0.20829697
0.71990222 1.5140016 -0.20362827
0.71712005 1.5081506 -0.1445397
0.72099394 1.5162977 -0.087053426
0.72388572 1.5223792 -0.02911102
0.71542215 1.5045797 0.028770659
0.71835369 1.5107449 0.086734638
0.70445383 1.4815127 0.14198674
0.68508935 1.4407879 0.19378127
0.37171108 0.80780602 -0.20303242
0.44953111 0.97692519 -0.20675428
0.55983365 1.2166357 -0.20982268
0.69642758 1.5134829 -0.202363
0.69886702 1.5187843 -0.14470394
0.70010477 1.5214741 -0.086837597
0.69665474 1.5139766 -0.028780317
0.69586897 1.5122689 0.028747855
0.69759744 1.5160253 0.086526603
0.68056256 1.4790049 0.1409139
0.67044747 1.4570227 0.19481386
0.37051949 0.83266842 -0.20809215
0.43571934 0.97919208 -0.20605651
0.5348109 1.2018805 -0.20610021
0.67180693 1.5097517 -0.20071709
0.67036188 1.5065043 -0.14271836
0.6732052 1.512894 -0.085857257
0.6760388 1.5192621 -0.028716689
0.67403656 1.5147624 0.028631639
0.67677516 1.5209168 0.086312555
0.66668087 1.498232 0.14193469
0.65727359 1.477091 0.19637495
0.36118641 0.84001344 -0.20877457
0.42587754 0.990466 -0.207284
0.52934301 1.2310963 -0.20995051
0.66000557 1.534979 -0.20294999
0.65724188 1.5285515 -0.14401156
0.65868926 1.5319176 -0.086459287
0.65269822 1.5179843 -0.028534925
0.65476888 1.5228001 0.028625449
0.64985794 1.5113786 0.085300095
0.65212572 1.5166527 0.14289051
0.64173269 1.4924817 0.19733113
0.34736425 0.83674598 -0.20685895
0.41046834 0.98875386 -0.20582767
0.51040637 1.229489 -0.20856377
0.63787973 1.5365522 -0.20207997
0.63921285 1.5397635 -0.14429811
0.63477844 1.5290817 -0.085841298
0.63890016 1.5390104 -0.028776657
0.64112949 1.5443804 0.028877066
0.63767278 1.5360538 0.086232707
0.6418398 1.5460914 0.14489113
0.6284762 1.5139006 0.19910094
0.33863172 0.84562486 -0.20798331
0.40091142 1.0011486 -0.20734052
0.48998839 1.2235899 -0.20650008
0.62314862 1.5561152 -0.20360467
0.62246323 1.5544037 -0.14492406
0.61865216 1.5448867 -0.086284406
0.62080449 1.5502615 -0.028838577
0.61838442 1.5442182 0.028726155
0.62245065 1.5543723 0.086814187
0.6190756 1.5459442 0.14413534
0.60896122 1.5206867 0.19896916
0.32604799 0.84487373 -0.20677239
0.39002377 1.0106514 -0.20827492
0.47303745 1.2257611 -0.20584489
0.60994005 1.5805107 -0.20577538
0.60847634 1.576718 -0.14627855
0.60900158 1.5780789 -0.087702982
0.60989976 1.5804063 -0.029254157
0.60914332 1.5784463 0.029217875
0.60549277 1.5689868 0.087197676
0.60349721 1.5638156 0.14508155
0.59278047 1.5360459 0.19998626
0.313485 0.84380019 -0.20552726
0.36977223 0.99530727 -0.20413706
0.45891115 1.2352403 -0.20644999
0.59288323 1.5958499 -0.20678408
1.0404071 2.8004394 -0.25857225
1.7330997 4.6649437 -0.2580246
5.200057 13.996872 -0.25785699
0.59045333 1.5893095 0.14674529
0.58495122 1.5744994 0.20401756
0.30305949 0.84830695 -0.20567915
0.36240587 1.014426 -0.20710592
0.44432408 1.2437268 -0.20691684
0.57611805 1.6126369 -0.20800276
1.0014309 2.8031485 -0.25763762
1.6733922 4.6840649 -0.25789627
5.0254636 14.066993 -0.25796252
0.56763011 1.588878 0.14603391
0.56762385 1.5888605 0.20493601
0.29527491 0.86056769 -0.20773391
0.35446298 1.0330691 -0.20998421
0.43210638 1.2593579 -0.20859557
0.55183154 1.6082925 -0.20652977
0.96967798 2.8260903 -0.25860345
1.6182945 4.7164588 -0.25853735
4.8520689 14.141174 -0.25818199
0.5520249 1.608856 0.14721954
0.54837942 1.5982314 0.20523776
0.28698626 0.87202752 -0.20961127
0.33444482 1.0162337 -0.20568985
0.4122684 1.2527059 -0.20661752
0.53790164 1.6344513 -0.20900257
0.93338251 2.8361471 -0.25842771
1.5518397 4.7153721 -0.25738621
4.6768284 14.210865 -0.25835869
0.53747493 1.6331546 0.14881191
0.53519076 1.626214 0.20794927
0.27314517 0.86656672 -0.20745543
0.32614052 1.0346972 -0.20857917
0.3955237 1.2548188 -0.20612819
0.51182032 1.6237757 -0.20679693
0.8946104 2.8381965 -0.25756758
1.5001773 4.7593875 -0.25873715
4.4926786 14.253248 -0.25808024
0.51489943 1.6335443 0.14824486
0.51309651 1.6278244 0.20731255
0.26256472 0.87110621 -0.20773418
0.3091982 1.0258213 -0.20598873
0.38338703 1.2719562 -0.20813379
0.49144968 1.6304737 -0.20684543
0.85293025 2.8297513 -0.25580621
1.4382169 4.7715464 -0.25839311
4.3148084 14.315162 -0.25819701
0.4990277 1.6556152 0.14966567
0.49482504 1.641672 0.20826608
0.24614783 0.85547906 -0.20325229
0.29852003 1.037497 -0.20756197
0.36563352 1.2707478 -0.20716624
0.47255498 1.6423501 -0.20758073
0.82609254 2.8710587 -0.25857949
1.3779075 4.7888741 -0.25837138
4.1352725 14.372009 -0.25826269
0.48243487 1.6766872 0.15100943
0.47704664 1.6579605 0.20955379
0.23776296 0.86728752 -0.20533024
0.28637356 1.0446042 -0.2082459
0.3500371 1.2768297 -0.20742273
0.4544079 1.6575428 -0.20876122
0.78859305 2.8765492 -0.25815916
1.314247 4.7939758 -0.25773332
3.9503453 14.409667 -0.25802505
0.46386614 1.6920435 0.15185437
0.45846862 1.6723551 0.21062677
0.23046906 0.88419712 -0.20862997
0.27180514 1.0427834 -0.20718418
0.33460215 1.2837049 -0.20783865
0.43006492 1.6499487 -0.20710629
0.75123149 2.882108 -0.25778863
1.2553765 4.8162661 -0.25806135
3.7708588 14.466942 -0.2581799
0.44303474 1.6997076 0.15202945
0.4384197 1.6820021 0.21112972
0.21706778 0.87792921 -0.20648971
0.25957909 1.049866 -0.20792544
0.31931379 1.2914625 -0.20842715
0.41057137 1.6605531 -0.20777196
0.71417451 2.888474 -0.25753325
1.1949128 4.8328166 -0.25812149
3.5882301 14.512573 -0.25816742
0.42502716 1.7190195 0.15326594
0.42380121 1.7140613 0.21446702
0.20505118 0.87655222 -0.20554225
0.24630286 1.0528947 -0.20789458
0.30145097 1.2886417 -0.20734285
0.39043081 1.6690124 -0.20819876
0.68005615 2.9071019 -0.2584101
1.135882 4.8556652 -0.25855738
3.4031417 14.54774 -0.25801024
0.40641746 1.7373521 0.15443192
0.40508145 1.7316411 0.21601127
0.19440785 0.88092136 -0.20597641
0.23226473 1.0524625 -0.20721529
0.28741726 1.3023754 -0.20895372
0.36749136 1.6652156 -0.20713145
0.64324331 2.914732 -0.25834787
1.0716516 4.8559809 -0.25783518
3.222445 14.601883 -0.25823036
0.38693723 1.7533308 0.15540683
0.3850705 1.7448721 0.21703969
0.18584086 0.89554065 -0.20883095
0.21800849 1.0505519 -0.20628227
0.26722336 1.2877113 -0.20604478
0.34491494 1.662096 -0.20618682
0.60726964 2.9263461 -0.25867897
1.0132082 4.8825059 -0.25854567
3.0382621 14.640953 -0.25822422
0.36647567 1.7659942 0.15610784
0.36385265 1.7533541 0.2175076
0.17510003 0.90063781 -0.20948878
0.20541279 1.0565534 -0.2069364
0.25190797 1.2957042 -0.20679976
0.32784069 1.6862688 -0.20865685
0.56918013 2.927613 -0.25813696
0.95012301 4.8870163 -0.25813049
2.8502257 14.660311 -0.25791219
0.34698427 1.784735 0.15736575
0.34036097 1.7506676 0.21662548
0.16369079 0.9024666 -0.20941812
0.19339348 1.0662246 -0.20833713
0.23605022 1.3014015 -0.20721823
0.30356798 1.6736429 -0.20660517
0.53156 2.9306176 -0.25779125
0.888336 4.8976092 -0.25807869
2.6704783 14.722987 -0.25840276
0.32619759 1.7984055 0.15819642
0.32222006 1.7764764 0.21929958
0.15256473 0.90594101 -0.20976192
0.18198436 1.080637 -0.2106888
0.2214122 1.3147625 -0.20888516
0.28134468 1.6706462 -0.20578156
0.4943938 2.9357481 -0.25767449
0.82800299 4.9167447 -0.25851712
2.4801927 14.727572 -0.25791466
0.30348861 1.8021384 0.15817608
0.29946688 1.7782571 0.21903653
0.13920361 0.89529914 -0.20687564
0.16374132 1.0531154 -0.20490475
0.20189787 1.2985222 -0.20588474
0.26144543 1.6815072 -0.20669748
0.45923463 2.9536042 -0.25871369
0.76400238 4.9137425 -0.25783297
2.2959027 14.766283 -0.25806582
0.27958825 1.7981943 0.1575084
0.27866468 1.7922541 0.22031091
0.12768379 0.89532685 -0.20649415
0.15282796 1.0716394 -0.20811802
0.18502943 1.2974381 -0.20532715
0.23918971 1.6772135 -0.20578313
0.42282519 2.9648771 -0.25921419
0.70145613 4.9186549 -0.25760686
2.1113877 14.805185 -0.25826058
0.25905785 1.8165301 0.15881616
0.25656307 1.7990366 0.22073002
0.11753656 0.90561759 -0.20850968
0.13732679 1.0581009 -0.2051367
0.17060558 1.3145137 -0.207673
0.21907246 1.6879503 -0.20674559
0.3827748 2.9492745 -0.25740826
0.64046103 4.9347434 -0.25800663
1.92374 14.82239 -0.25811765
0.24048202 1.8529105 0.16171926
0.23643255 1.8217095 0.22312887
0.10690624 0.91370779 -0.21004577
0.12490121 1.0675074 -0.20663904
0.15491982 1.3240708 -0.20885813
0.19829458 1.6947868 -0.2072607
0.34667069 2.96293 -0.25819862
0.57799512 4.9400167 -0.25788137
1.7358578 14.836054 -0.25795451
0.21469258 1.8349376 0.15990198
0.21439037 1.8323545 0.22408427
0.09567146 0.91765153 -0.21065873
0.11154196 1.0698764 -0.20680936
0.13885605 1.3318651 -0.20979515
0.17694795 1.6972309 -0.20727068
0.30930534 2.9667628 -0.25817275
0.51487011 4.9384775 -0.25744215
1.5496265 14.863545 -0.25807276
0.19271129 1.8484281 0.16085337
0.19347852 1.8557872 0.22663401
0.08335942 0.91058946 -0.20878002
0.098209932 1.0728112 -0.20712118
0.12010922 1.3120315 -0.20641638
0.15451649 1.6878846 -0.20587534
0.27029717 2.9526327 -0.25662661
0.45426893 4.9622765 -0.25836411
1.3641943 14.901986 -0.25842145
0.17070161 1.8646852 0.16206819
0.16999392 1.8569548 0.22649723
0.07249479 0.91926903 -0.21054408
0.085880741 1.0890094 -0.21002302
0.10430776 1.3226728 -0.20786741
0.13445553 1.7049612 -0.20773523
0.23487611 2.9783425 -0.25858361
0.39071512 4.9544568 -0.25768039
1.17522 14.902357 -0.25815082
0.1478768 1.8751494 0.16280292
0.14684545 1.8620713 0.22687776
0.060478844 0.91353083 -0.20903884
0.072498001 1.0950798 -0.21100096
0.088169605 1.3317988 -0.20911056
0.11097967 1.6763442 -0.20406203
0.19729844 2.9801862 -0.25850746
0.3291086 4.9711738 -0.2583138
0.98814195 14.92585 -0.25832173
0.12377938 1.8696833 0.16218017
0.12476355 1.8845491 0.22940691
0.048238676 0.90053761 -0.20591034
0.057923127 1.0813305 -0.20819469
0.070918575 1.3239344 -0.20771907
0.090723924 1.693668 -0.20601548
0.15982638 2.9836986 -0.25861707
0.26587319 4.9634199 -0.25771651
0.79944074 14.924258 -0.2580995
0.10165755 1.8977811 0.16449335
0.10032071 1.8728244 0.22780782
0.037222136 0.9090386 -0.20773047
0.044049401 1.0757741 -0.20700166
0.054845385 1.3394334 -0.21002579
0.069546305 1.6984593 -0.20647538
0.12266532 2.9957311 -0.25950554
0.20371556 4.9751396 -0.25817135
0.61145592 14.93297 -0.25809655
0.077531144 1.8934649 0.16402161
0.077052251 1.8817694 0.22875971
0.025501527 0.8998459 -0.20554011
0.030468868 1.0751233 -0.20678623
0.037668772 1.3291788 -0.20832694
0.048281938 1.7036747 -0.20701908
0.084420748 2.9788675 -0.25793219
0.14115509 4.980793 -0.25835201
0.42344168 14.941546 -0.25813216
0.053916443 1.9024936 0.16473185
0.053176783 1.8763939 0.22800675
0.014553095 0.92447233 -0.21110661
0.0168595 1.0709847 -0.20593305
0.02110951 1.3409626 -0.21011555
0.026968893 1.7131747 -0.2081157
0.046852048 2.9762344 -0.2576327
0.078448422 4.983366 -0.25841376
0.23530357 14.947448 -0.25816247
0.029983934 1.9047025 0.16487736
0.029721297 1.8880188 0.22935568
0.0028626651 0.90900677 -0.20755032
0.0034537679 1.0967047 -0.21085353
0.0041882629 1.3299353 -0.20836289
0.0053653638 1.7037103 -0.20694135
0.0094079413 2.987385 -0.25856718
0.01566086 4.972928 -0.25784183
0.04709753 14.955286 -0.2582671
0.0060172277 1.9107022 0.16537704
0.0059698434 1.895656 0.23025605
-0.0086385524 0.91484785 -0.20889226
-0.010140847 1.0739453 -0.20648594
-0.012510007 1.3248461 -0.20757379
-0.016179023 1.7134057 -0.20812725
-0.028314169 2.9985528 -0.25954407
-0.046894211 4.9662333 -0.25750491
-0.14112957 14.946032 -0.25811753
-0.018085292 1.915285 0.16578026
-0.01804556 1.9110773 0.2321384
-0.020166082 0.91508281 -0.20898733
-0.023785692 1.079331 -0.20756258
-0.029239731 1.3268206 -0.20792434
-0.037553605 1.704082 -0.20703574
-0.065785863 2.9851861 -0.25843832
-0.10993867 4.9887228 -0.25872228
-0.32948118 14.950974 -0.25825405
-0.042558577 1.9311942 0.16719043
-0.042357557 1.9220725 0.23352025
-0.031863239 0.91985911 -0.21015312
-0.036911499 1.0655972 -0.20499462
-0.045975327 1.3272607 -0.20806752
-0.059185024 1.7086111 -0.20766006
-0.10317039 2.9784234 -0.25794485
-0.17250107 4.9799294 -0.25835842
-0.51727402 14.933172 -0.25803861
-0.066598728 1.9226371 0.16650902
-0.066007055 1.9055561 0.23159625
-0.042606704 0.90168947 -0.20610827
-0.05150795 1.0900674 -0.20981023
-0.062038787 1.3129324 -0.20592749
-0.080758266 1.7090944 -0.20782593
-0.14063233 2.9762146 -0.2578865
-0.2348363 4.9698615 -0.25796905
-0.70576924 14.936257 -0.25822502
-0.091613002 1.9388142 0.16799662
-0.090388067 1.9128907 0.23260756
-0.054617118 0.91211081 -0.20863104
-0.065357581 1.0914774 -0.21022336
-0.079121329 1.3213333 -0.20738497
-0.10220588 1.7068474 -0.20769273
-0.17796391 2.9720132 -0.25769618
-0.29867926 4.9879704 -0.25908372
-0.89331126 14.918378 -0.25808993
-0.11551538 1.9291172 0.16726916
-0.11432369 1.9092158 0.23231733
-0.066243887 0.91337103 -0.20909353
-0.077293783 1.065727 -0.20543489
-0.096521124 1.3308337 -0.20905024
-0.12357616 1.7038686 -0.20750315
-0.21571437 2.9742706 -0.25810698
-0.35949492 4.9567175 -0.25767508
-1.0809318 14.903893 -0.25805435
-0.14102195 1.9444112 0.16873586
-0.13948582 1.9232311 0.2342179
-0.076475777 0.89763641 -0.20569561
-0.091833159 1.0778941 -0.2079867
-0.11378793 1.3355888 -0.21000561
-0.14629312 1.7171193 -0.20932461
-0.16884622 1.9818368 -0.17215452
-0.169948 1.9947691 -0.10380115
-0.16971813 1.992071 -0.034526099
-0.16926283 1.9867268 0.034433473
-0.1704064 2.0001495 0.10408112
-0.16437313 1.9293339 0.16759378
-0.16446577 1.9304214 0.23532711
-0.08894863 0.90862131 -0.20845297
-0.10504152 1.0730121 -0.2072835
-0.12972601 1.3251673 -0.20860727
-0.1674652 1.7106779 -0.20877989
-0.19376358 1.9793191 -0.1721341
-0.19269037 1.968356 -0.10254483
-0.19211484 1.962477 -0.034052409
-0.19193503 1.9606403 0.034020539
-0.1929957 1.9714751 0.10270732
-0.19138911 1.9550636 0.17002469
-0.18850599 1.9256121 0.23501158
-0.1003177 0.90684611 -0.20831901
-0.11966983 1.0817844 -0.20925261
-0.1468062 1.3270901 -0.20918439
-0.18897837 1.7083156 -0.20876548
-0.21539705 1.9471337 -0.1695575
-0.21707299 1.9622837 -0.10236277
-0.21709332 1.9624676 -0.034096979
-0.21828586 1.9732476 0.034284279
-0.21528184 1.9460921 0.10151813
-0.214798 1.9417185 0.16908593
-0.21371111 1.9318932 0.23608787
-0.11190931 0.90698028 -0.208657
-0.13221347 1.0715373 -0.20757607
-0.16349244 1.3250409 -0.20916931
-0.21021564 1.7037137 -0.20851004
-0.24097131 1.9529761 -0.17031698
-0.24142955 1.95669 -0.10222145
-0.24137069 1.956213 -0.034038417
-0.24011013 1.9459966 0.03386065
-0.24002287 1.9452894 0.10162586
-0.24002032 1.9452688 0.16964483
-0.24035263 1.9479619 0.23840252
-0.12234512 0.89833796 -0.20700678
-0.14579734 1.0705396 -0.20772198
-0.17956513 1.3184848 -0.20847479
-0.23152521 1.7000097 -0.20839702
-0.26799041 1.967761 -0.17188704
-0.2672475 1.962306 -0.10268251
-0.26771256 1.9657208 -0.034259796
-0.26832759 1.9702369 0.034338504
-0.26699555 1.9604561 0.10258572
-0.26439023 1.941326 0.1695779
-0.26126111 1.9183501 0.23516244
-0.13402952 0.89929563 -0.20759992
-0.16008845 1.0741428 -0.20879573
-0.19587852 1.3142828 -0.20818388
-0.25408515 1.7048309 -0.20936364
-0.29425392 1.9743507 -0.17277262
-0.29332763 1.9681355 -0.10317265
-0.29317439 1.9671073 -0.034345578
-0.29365039 1.9703013 0.034401346
-0.29400432 1.9726758 0.10341067
-0.29021719 1.9472654 0.17040242
-0.28781512 1.9311484 0.23715681
-0.14578068 0.90024507 -0.20822637
-0.17366876 1.0724634 -0.2088778
-0.21075857 1.3015056 -0.20656395
-0.27567336 1.7023764 -0.2094719
-0.32488555 2.0062783 -0.17591061
-0.32338917 1.9970376 -0.1048929
-0.32606697 2.0135741 -0.035225783
-0.32282761 1.9935697 0.034875825
-0.32392079 2.0003204 0.10506533
-0.31307366 1.9333359 0.16951503
-0.3130258 1.9330403 0.23785435
-0.15655108 0.89517474 -0.20749311
-0.18782541 1.0740045 -0.209622
-0.22682269 1.2969948 -0.20628501
-0.29521856 1.6880894 -0.20815484
-0.51384383 2.9382107 -0.25816935
-0.85584658 4.8938165 -0.25758967
-2.5739596 14.71816 -0.25802839
-0.33989406 1.9435482 0.17077217
-0.33691746 1.9265277 0.2375562
-0.16870503 0.89789623 -0.20859979
-0.20185569 1.0743335 -0.21016563
-0.24682574 1.313677 -0.209416
-0.31587476 1.6811754 -0.20777629
-0.54866081 2.9201291 -0.25716728
-0.91974574 4.8951488 -0.25824896
-2.7614007 14.696961 -0.25824589
-0.36529672 1.9442133 0.1712212
-0.36279848 1.9309169 0.23864183
-0.18008068 0.89611596 -0.20869647
-0.20935643 1.0417976 -0.20430037
-0.25942367 1.2909418 -0.20629616
-0.33506975 1.6673714 -0.20657533
-0.59083903 2.9401281 -0.25956318
-0.97903395 4.8718605 -0.25765029
-2.9446042 14.652915 -0.25810298
-0.39052826 1.9433434 0.17156407
-0.38487455 1.9152094 0.2372807
-0.19016558 0.88824707 -0.20740512
-0.22616363 1.0563909 -0.20770416
-0.27781874 1.2976674 -0.20791349
-0.35871223 1.675514 -0.20812728
-0.62310159 2.910454 -0.25761572
-1.0411438 4.8630934 -0.25785953
-3.1281011 14.611092 -0.25803965
-0.41350871 1.9314637 0.17096144
-0.41238016 1.9261924 0.23926578
-0.2043827 0.89919251 -0.21054512
-0.23657325 1.0408165 -0.20521145
-0.29303455 1.289221 -0.20713498
-0.3757261 1.6530269 -0.20590536
-0.65734786 2.8920367 -0.25669786
-1.1024141 4.8501296 -0.25788778
-3.3104582 14.564536 -0.2579332
-0.43901116 1.9314528 0.17143619
-0.4363921 1.9199302 0.23915154
-0.21177818 0.8802942 -0.20672812
-0.24769832 1.0296028 -0.2035993
-0.30958375 1.2868407 -0.20736243
-0.39721453 1.6510938 -0.20627126
-0.69424015 2.8857343 -0.25689402
-1.1668123 4.8500657 -0.25864512
-3.4947248 14.526454 -0.25801766
-0.46795839 1.9451534 0.17316157
-0.46610084 1.9374322 0.24204354
-0.2245305 0.8841939 -0.2082914
-0.26549187 1.0454984 -0.20738725
-0.32680151 1.2869338 -0.20802405
-0.4248479 1.6730373 -0.20966439
-0.73599237 2.8983142 -0.25881842
-1.2252967 4.8251786 -0.25812027
-3.6816089 14.498057 -0.25831625
-0.48634583 1.9152142 0.17102794
-0.48765528 1.9203708 0.24066013
-0.23250042 0.8695333 -0.20551115
-0.27651203 1.0341333 -0.20580721
-0.34360096 1.2850405 -0.20840089
-0.44267264 1.6555609 -0.20815632
-0.76791298 2.8719342 -0.2573058
-1.2841618 4.8026638 -0.25776047
-3.8590784 14.43265 -0.25799623
-0.5142222 1.9231507 0.17230123
-0.50972003 1.9063128 0.23968376
-0.24330184 0.86607903 -0.20540255
-0.28906873 1.028995 -0.20549273
-0.3595579 1.2799145 -0.20828733
-0.46295524 1.647977 -0.20791925
-0.8035875 2.8605223 -0.25716957
-1.3413731 4.7748718 -0.257155
-4.0426927 14.390732 -0.25813645
-0.53338313 1.8986784 0.17069691
-0.53182292 1.8931245 0.23884863
-0.25790092 0.87555355 -0.20840326
-0.30240089 1.0266275 -0.20576407
-0.37480688 1.2724402 -0.20782258
-0.48257956 1.6383201 -0.20745112
-0.84185261 2.8580241 -0.25787759
-1.4036199 4.7651801 -0.25756451
-4.2230406 14.336894 -0.25810412
-0.56088346 1.9041557 0.17181069
-0.55599552 1.8875617 0.23901115
-0.26611024 0.86317241 -0.20623748
-0.3167536 1.0274425 -0.20671046
-0.3922725 1.2724005 -0.20860632
-0.50572878 1.6404146 -0.20850618
-0.88187176 2.8604963 -0.25908208
-1.4691714 4.7654996 -0.25856122
-4.4038677 14.284671 -0.25814185
-0.58045065 1.8827873 0.17052861
-0.58382916 1.8937461 0.24070609
-0.27557957 0.85547572 -0.20521137
-0.33220288 1.0312504 -0.20830165
-0.4027195 1.2501535 -0.20577407
-0.42479783 1.3186909 -0.1682798
-0.42379543 1.3155792 -0.11962904
-0.42251423 1.3116019 -0.071446456
-0.42299104 1.3130821 -0.023823397
-0.6038596 1.8745484 0.17045759
-0.60345578 1.8732948 0.2390535
-0.28788415 0.85656464 -0.20632581
-0.34556097 1.0281751 -0.20854288
-0.42268762 1.2576561 -0.20786859
-0.42947587 1.2778537 -0.16374567
-0.42522782 1.2652142 -0.11552697
-0.42440087 1.2627537 -0.069071196
-0.42603296 1.2676097 -0.02309389
-0.63061064 1.8763061 0.17132591
-0.63119096 1.8780328 0.24065331
-0.29370677 0.83876503 -0.20291309
-0.35658252 1.018325 -0.2074393
-0.4258064 1.216014 -0.20185609
-0.42371285 1.2100352 -0.15572667
-0.42375925 1.2101676 -0.1109791
-0.42503935 1.2138234 -0.066682234
-0.42230749 1.2060218 -0.022066984
-0.65560716 1.8722768 0.1716982
-0.65067273 1.8581851 0.23914096
-0.31052354 0.85223317 -0.20710081
-0.36870652 1.0119165 -0.20706321
-0.42462915 1.1653965 -0.19432588
-0.42874539 1.1766936 -0.15211847
-0.42726576 1.1726327 -0.10802177
-0.42474025 1.1657014 -0.064327337
-0.42091414 1.1552006 -0.021232389
-0.67481989 1.852046 0.17060865
-0.67754662 1.8595295 0.24039292
-0.31754521 0.83852655 -0.20472544
-0.38196567 1.0086386 -0.20736024
-0.42652702 1.1263098 -0.18868892
-0.42373511 1.1189373 -0.14533024
-0.42649949 1.1262369 -0.10423431
-0.41822886 1.1043972 -0.06123013
-0.42750084 1.1288812 -0.020845933
-0.70159298 1.8526633 0.17146575
-0.69834638 1.8440902 0.23951483
-0.3311674 0.84231943 -0.20665321
-0.3907463 0.9938575 -0.20531674
-0.42774367 1.0879598 -0.18315203
-0.42498395 1.0809405 -0.14107899
-0.42343777 1.0770078 -0.10016365
-0.42057714 1.0697317 -0.059597105
-0.42287529 1.0755771 -0.019958368
-0.72413558 1.8418282 0.17129332
-0.72476584 1.8434314 0.24059553
-0.34019294 0.83427185 -0.2057135
-0.40329716 0.98902541 -0.20535134
-0.42221943 1.0354294 -0.17518997
-0.43059331 1.0559651 -0.13851602
-0.42024925 1.0305979 -0.096331954
-0.42930853 1.0528144 -0.058951102
-0.42690599 1.0469226 -0.019524857
-0.74651092 1.8307054 0.17111954
-0.74345934 1.8232218 0.23916078
-0.35091537 0.83050185 -0.20585717
-0.4194378 0.99267209 -0.2071887
-0.42242184 0.99973428 -0.17003705
-0.42386898 1.0031592 -0.13227887
-0.42443061 1.0044883 -0.09438353
-0.4234426 1.0021502 -0.056408308
-0.4218142 0.9982962 -0.018715562
-0.7703681 1.8232093 0.17131202
-0.76369447 1.807415 0.23832989
-0.36042139 0.8239072 -0.20533122
-0.42008471 0.9602949 -0.20151909
-0.42341891 0.96791673 -0.16551916
-0.42325988 0.9675532 -0.12827641
-0.42805719 0.97851962 -0.092442602
-0.4257811 0.97331661 -0.055082768
-0.42360371 0.9683392 -0.018252499
-0.79046869 1.8069762 0.17070846
-0.78879583 1.8031522 0.23905857
-0.37478587 0.8281849 -0.20755699
-0.41918918 0.92630535 -0.19547854
-0.43012422 0.95046914 -0.16344877
-0.42533186 0.93987918 -0.12530757
-0.42800862 0.94579417 -0.089853004
-0.42355725 0.93595773 -0.053266138
-0.4292959 0.94863874 -0.017981628
-0.80444491 1.777626 0.16887929
-0.81237769 1.7951556 0.23933566
-0.38944587 0.83251077 -0.2098535
-0.42238972 0.90293413 -0.19165376
-0.42358348 0.90548599 -0.156618
-0.42565688 0.90991831 -0.12201803
-0.42295313 0.90413851 -0.086394735
-0.42799103 0.91490799 -0.052370738
-0.42856064 0.9161256 -0.017466243
-0.83414882 1.7831434 0.17038783
-0.83267903 1.7800015 0.23869428
-0.39401135 0.81536078 -0.20676473
-0.42567489 0.88088489 -0.18809648
-0.42173448 0.87273061 -0.15185896
-0.42644233 0.88247299 -0.11904833
-0.42034021 0.86984539 -0.083617002
-0.42648134 0.8825537 -0.050822109
-0.42416909 0.87776875 -0.016835455
-0.86018318 1.7800493 0.17111363
-0.85123175 1.7615254 0.23763521
-0.40144882 0.80472702 -0.20533377
-0.42473581 0.85140717 -0.18292959
-0.42370459 0.84933996 -0.14870547
-0.42185044 0.8456232 -0.11478469
-0.42391279 0.84975731 -0.082192585
-0.4267661 0.85547698 -0.049568415
-0.4294323 0.86082149 -0.016612807
-0.8781445 1.7602906 0.17026372
-0.87267172 1.7493201 0.2374523
-0.41387421 0.80412525 -0.20649365
-0.42530611 0.8263365 -0.17867954
-0.42317542 0.82219678 -0.14487463
-0.42616111 0.82799774 -0.11311167
-0.42398182 0.82376355 -0.080188386
-0.42458788 0.82494104 -0.048105069
-0.42025563 0.81652385 -0.015858786
-0.9052341 1.7587992 0.17120844
-0.89390355 1.7367848 0.23725985
-0.42418498 0.79926234 -0.20660014
-0.42358634 0.79813439 -0.17372094
-0.4212352 0.79370427 -0.1407776
-0.42762107 0.80573672 -0.11079743
-0.42320696 0.79741949 -0.078136519
-0.42829803 0.80701226 -0.015777549
-0.91733909 1.7284784 0.16936792
-0.91229314 1.7189708 0.2363769
-0.42627054 0.77933341 -0.17078352
-0.94656265 1.7305627 0.17072655
-0.93272358 1.7052612 0.23608804
-0.96177256 1.7069621 0.1695796
-0.94771296 1.682009 0.23450245
-0.97220099 1.6757768 0.16768439
-0.9736501 1.6782748 0.23567246
-0.9903903 1.6586572 0.16720599
-0.99476498 1.6659837 0.23568681
-1.0136347 1.6500247 0.16760918
-1.0100026 1.6441122 0.23437332
-1.0353771 1.6387881 0.16777883
-1.0280067 1.6271223 0.23377813
-1.0510346 1.618086 0.1670011
-1.0485349 1.6142377 0.23380539
-1.0743442 1.6092465 0.16747175
-1.0733565 1.6077671 0.23480724
-1.0867164 1.5842136 0.16627753
-1.0879843 1.586062 0.23361962
-1.1002251 1.5613899 0.165323
-1.1038982 1.5666027 0.23278238
-1.1199219 1.5475847 0.16534135
-1.120151 1.5479013 0.23208103
-1.1399103 1.5341566 0.16542715
-1.1403204 1.5347084 0.23223747
-1.1629149 1.5246352 0.033114038
-1.1705514 1.5346471 0.10007407
-1.1490322 1.5064343 0.16398504
-1.1425277 1.4979067 0.22882745
-1.1876578 1.5170738 0.033271991
-1.1751325 1.5010744 0.098841906
-1.1800323 1.5073332 0.16568726
-1.1614536 1.4836015 0.2288582
-1.1904547 1.4818211 0.032825001
-1.1791855 1.4677938 0.097620457
-1.1751177 1.4627304 0.16239816
-1.1743993 1.4618361 0.22776386
-1.203923 1.4605331 0.032686666
-1.1984442 1.4538865 0.097691447
-1.1933043 1.447651 0.1623794
-1.1962769 1.4512572 0.22844453
-1.2211745 1.4440252 0.032658774
-1.225965 1.4496899 0.098438963
-1.2028291 1.422332 0.16122557
-1.2153364 1.4371219 0.22861032
-1.2593657 1.4517114 0.033188634
-1.2504598 1.4414454 0.098940492
-1.2132256 1.3985243 0.16024591
-1.2190152 1.4051982 0.22595598
-1.2964257 1.4569585 0.033679135
-1.2853287 1.4444875 0.1002523
-1.2325772 1.3852037 0.1604853
-1.2300701 1.3823863 0.22476068
-1.2439908 1.3630766 0.15972389
-1.2458287 1.3650905 0.22448143
-1.3248907 1.2168171 0.15569796
-1.3179204 1.2104155 0.21735087
-1.3364497 1.1967638 0.15527305
-1.3164289 1.1788355 0.21463977
-1.3325106 1.1633393 0.1531013
-1.3360933 1.1664671 0.21543403
-1.340701 1.1410631 0.15237936
-1.3361956 1.1372285 0.2131246
-1.3508438 1.1206751 0.15191622
-1.3468574 1.1173679 0.21256413
-1.3586047 1.0985298 0.15122136
-1.3481845 1.0901042 0.21059047
-1.3674474 1.0774899 0.15068346
-1.3578506 1.0699279 0.20997921
-1.3602117 1.0442988 0.14842534
-1.3687834 1.0508795 0.20960689
-1.3767377 1.0296956 0.148802
-1.3716196 1.0258676 0.20804656
-1.3862647 1.0098542 0.14844552
-1.3785766 1.0042536 0.20716727
-1.3824929 0.98070174 0.14670759
-1.3648448 0.96818268 0.20325549
-1.3875519 0.95825845 0.14595239
-1.3786215 0.95209098 0.20350558
-1.3834828 0.92994016 0.14428119
-1.3824607 0.92925316 0.20232899
-1.394335 0.91195798 0.14420392
-1.3859341 0.90646344 0.20115085
-1.3906935 0.88477749 0.14266375
-1.3819749 0.87923056 0.19895355
-1.3948982 0.86297411 0.14196907
-1.3902005 0.86006784 0.19856286
-1.4040385 0.84437108 0.14180596
-1.3723216 0.82529688 0.19450945
-1.420258 0.829956 0.14237729
-1.3902403 0.81241453 0.19558372
-0.7670303 0.43536714 -0.20137726
-0.77616823 0.44055381 -0.17158869
-1.4343349 0.81412989 0.14274943
-1.3931181 0.79073519 0.19457234
-0.79725718 0.43934456 -0.20784412
-0.80364579 0.4428651 -0.17641637
-0.79039794 0.43556464 -0.14139
-0.80018026 0.4409554 -0.1109743
-0.78555328 0.43289492 -0.077632025
-0.80044436 0.44110093 -0.047386583
-0.79532546 0.43828005 -0.01568203
-1.4331999 0.78979349 0.14163546
-1.4010297 0.77206552 0.19430408
-0.80988753 0.43310112 -0.20969845
-0.81692773 0.43686599 -0.1781103
-0.828798 0.44321382 -0.14724913
-0.8235206 0.44039163 -0.11343321
-0.81038862 0.4333691 -0.079540767
-0.83234406 0.44511014 -0.048939362
-0.81975245 0.43837655 -0.016053559
-1.4431927 0.77177185 0.14165136
-1.3888152 0.74269253 0.1912979
-0.80240548 0.41619331 -0.20638785
-0.85292631 0.44239753 -0.18472967
-0.84372878 0.43762699 -0.14891097
-0.83063734 0.43083665 -0.1136572
-0.85296094 0.44241551 -0.083165899
-0.84849459 0.44009888 -0.049559191
-0.84904093 0.44038227 -0.01651722
-1.4497036 0.75193518 0.14134985
-1.4055434 0.72903013 0.19232236
-0.81600326 0.41029119 -0.20853995
-0.88848919 0.44673753 -0.19119847
-0.87715727 0.4410398 -0.15381844
-0.85439771 0.42959613 -0.11615895
-0.87699759 0.44095948 -0.084961407
-0.85387069 0.42933115 -0.049553506
-0.88147902 0.44321278 -0.017038347
-1.466207 0.73721743 0.14204259
-1.4060853 0.70698786 0.19116318
-0.82469368 0.40173253 -0.20945147
-0.91233075 0.44442311 -0.19510928
-0.90029734 0.43856129 -0.15689543
-0.90707624 0.44186348 -0.12255465
-0.89448017 0.43572757 -0.086116701
-0.90735489 0.44199923 -0.052330256
-0.90400755 0.44036862 -0.017365245
-1.458726 0.71058834 0.14043987
-1.397805 0.6809119 0.18885678
-0.82390785 0.38859126 -0.20799264
-0.91738433 0.43267891 -0.1950094
-0.93475348 0.44087094 -0.16191982
-0.91177082 0.43003133 -0.1224476
-0.94442886 0.4454343 -0.090378374
-0.9369278 0.44189647 -0.053710647
-0.93526655 0.44111297 -0.017857591
-1.4991262 0.70705402 0.14346087
-1.4217471 0.67055863 0.19093561
-1.3903776 0.65576339 0.24084392
-0.825679 0.37679172 -0.20722558
-0.96084601 0.43847406 -0.20305832
-0.95873231 0.43750951 -0.16510607
-0.97003573 0.44266772 -0.12951352
-0.9601391 0.43815145 -0.091346554
-0.95645535 0.43647042 -0.054510698
-0.96430039 0.44005045 -0.018304698
-1.5044845 0.68655896 0.14313497
-1.4182906 0.64722508 0.1893619
-1.3978451 0.63789499 0.24072698
-0.84142691 0.37124941 -0.209988
-0.99575526 0.43934122 -0.20925005
-0.98896581 0.43634564 -0.16935301
-0.99505228 0.43903106 -0.13210499
-0.98783398 0.43584627 -0.093451858
-0.99919885 0.4408606 -0.056625873
-0.98004371 0.43240908 -0.018498717
-1.5088904 0.66574365 0.14274526
-1.4080628 0.62125713 0.18693703
-1.4081085 0.62127727 0.24112806
-0.8310253 0.35422757 -0.20626263
-0.98233974 0.41872591 -0.20530659
-1.0217831 0.43553883 -0.17401978
-1.0194504 0.4345445 -0.13460702
-1.0324672 0.44009295 -0.097142331
-1.0315366 0.43969628 -0.058140114
-1.0325922 0.44014621 -0.019384438
-1.5137863 0.645257 0.14242847
-1.4026203 0.59787208 0.1852003
-1.3877891 0.59155017 0.2363542
-0.84476286 0.34758019 -0.20856945
-0.99741745 0.41039041 -0.20736133
-1.0641265 0.43783802 -0.180278
-1.0690863 0.43987873 -0.14041837
-1.0676026 0.43926829 -0.099919774
-1.0823984 0.44535607 -0.060685921
-1.0635105 0.43758458 -0.019859843
-1.4272605 0.58725059 0.026652457
-1.4337213 0.58990896 0.080383249
-1.4362355 0.5909434 0.13442111
-1.4022576 0.57696307 0.1841785
-1.3874451 0.57086843 0.23505272
-0.84113288 0.33376566 -0.20661917
-1.0091245 0.40042555 -0.20873037
-1.1148195 0.44236583 -0.18790752
-1.1117808 0.44116002 -0.14528488
-1.0990679 0.43611553 -0.10234261
-1.116634 0.44308582 -0.062287625
-1.1006027 0.43672454 -0.020448182
-1.433625 0.56886941 0.026635429
-1.420768 0.56376773 0.079252705
-1.419229 0.56315702 0.13215525
-1.4012333 0.55601627 0.18310986
-1.4041077 0.5571568 0.23666826
-0.86266458 0.32979879 -0.21087146
-1.0016923 0.38294941 -0.20617929
-1.150412 0.4398053 -0.192958
-1.1348304 0.43384841 -0.14757134
-1.1434708 0.4371517 -0.10595631
-1.1385454 0.43526867 -0.063199125
-1.1550324 0.44157174 -0.021354437
-1.4201061 0.54291004 0.026255162
-1.4196361 0.54273039 0.078802101
-1.40398 0.53674501 0.13009563
-1.4090924 0.53869951 0.1832359
-1.4009908 0.53560227 0.23498747
-0.84417844 0.31060615 -0.20538031
-1.0134077 0.3728722 -0.20760779
-1.1971415 0.44047505 -0.19984977
-1.1931245 0.43899703 -0.15442073
-1.1903715 0.43798408 -0.10978247
-1.1866175 0.43660283 -0.065557174
-1.1890666 0.43750396 -0.021880077
-1.410499 0.51897758 0.025954667
-1.4023083 0.51596391 0.077473469
-1.4145395 0.52046418 0.13045645
-1.3999411 0.51509291 0.18118806
-1.3967973 0.51393616 0.23318011
-0.8650012 0.30595782 -0.20949236
-1.0100008 0.35724536 -0.20597196
-1.2597826 0.44559515 -0.2093537
-1.4133269 0.49990499 -0.18209137
-1.4089043 0.4983407 -0.12934776
-1.4253621 0.50416195 -0.078390174
-1.4130527 0.49980801 -0.025883794
-1.4152354 0.50058007 0.025923777
-1.4106362 0.49895328 0.077580296
-1.437815 0.50856662 0.13200197
-1.4066682 0.49754974 0.18123347
-1.3950611 0.49344423 0.23183462
-0.86464012 0.29363453 -0.20849289
-1.0331579 0.35086375 -0.20977682
-1.2579128 0.42719117 -0.20813252
-1.4251142 0.48397332 -0.18281035
-1.4294297 0.48543885 -0.13066058
-1.4329718 0.48664179 -0.078465447
-1.4293171 0.48540068 -0.026067693
-1.4371773 0.48807001 0.026211044
-1.4318476 0.48626 0.078403883
-1.4256275 0.48414764 0.13031304
-1.4111829 0.47924224 0.18102328
-1.4007562 0.4757013 0.23176722
-0.8571009 0.27908793 -0.2058112
-1.024145 0.3334806 -0.20707773
-1.2552202 0.40872294 -0.20681904
-1.4356849 0.46748564 -0.18339668
-1.4284054 0.46511525 -0.13002129
-1.4462923 0.47093955 -0.078863859
-1.440599 0.46908569 -0.026163645
-1.4425802 0.46973085 0.02619963
-1.445724 0.47075453 0.07883288
-1.4217743 0.46295604 0.12941769
-1.3961416 0.45460957 0.17834535
-1.4044433 0.45731273 0.23140611
-0.85553133 0.26671025 -0.20461164
-1.0417832 0.32477391 -0.20980057
-1.2681701 0.39534959 -0.20811602
-1.4542475 0.45335886 -0.18502396
-1.4619619 0.45576379 -0.13254288
-1.4556758 0.45380411 -0.079057664
-1.4442542 0.45024344 -0.026124991
-1.4491102 0.45175731 0.026212832
-1.4593989 0.45496476 0.079259865
-1.453825 0.45322713 0.13180518
-1.4086294 0.43913749 0.17921998
-1.3861959 0.4321439 0.22748491
-0.85475081 0.25470385 -0.20364176
-1.0306209 0.3071107 -0.20675744
-1.2677513 0.37777227 -0.20725021
-1.4897782 0.44393316 -0.18881834
-1.4771906 0.44018227 -0.13341042
-1.4970639 0.4461042 -0.080993943
-1.4940654 0.4452107 -0.026922479
-1.4860907 0.44283432 0.026778776
-1.4815392 0.44147807 0.080154032
-1.4962157 0.44585148 0.13512866
-1.393157 0.4151414 0.17657232
-1.400798 0.4174183 0.22900048
-0.87510502 0.24881598 -0.20772816
-1.022788 0.29080626 -0.20443523
-1.2650942 0.35970041 -0.20605901
-1.6451979 0.46777418 -0.20775361
-2.8669846 0.81516111 -0.25798026
-4.7929549 1.3627665 -0.25835893
-14.377337 4.0878649 -0.25812599
-1.566231 0.44532177 0.14093438
-1.4043123 0.39928389 0.17733486
-1.3935091 0.39621228 0.22697531
-0.86660463 0.23464651 -0.20499274
-1.0375963 0.28094515 -0.2066716
-1.2584518 0.34074515 -0.20426203
-1.6639628 0.45054349 -0.20939021
-2.8881295 0.78200543 -0.25897634
-4.8068867 1.3015383 -0.25820598
-14.4319 3.9076588 -0.25820172
-1.5742736 0.42625874 0.14116389
-1.4015563 0.37949288 0.17636941
-1.4152523 0.38320133 0.22971267
-0.87852126 0.22603992 -0.20712188
-1.0468421 0.26934817 -0.20782115
-1.2858505 0.33084407 -0.20801648
-1.6627481 0.42781827 -0.2085429
-2.8762691 0.74005222 -0.25705683
-4.8164539 1.2392539 -0.25786123
-14.469302 3.7228923 -0.2580117
-1.589709 0.40902561 0.14207487
-1.4067807 0.36195892 0.17643932
-1.3937854 0.35861525 0.22547747
-0.88311595 0.21540384 -0.2075492
-1.0367728 0.25288281 -0.20517376
-1.2835324 0.31307077 -0.20698731
-1.6654639 0.40622902 -0.20822544
-2.9012825 0.70766175 -0.25847542
-4.8373899 1.1799043 -0.25816616
-14.516947 3.5408783 -0.25804573
-1.5886707 0.38749814 0.14153478
-1.4142073 0.34494418 0.17681198
-1.3937193 0.33994684 0.22475646
-0.88146901 0.20327814 -0.20654418
-1.0527983 0.24278887 -0.20772365
-1.301911 0.30023751 -0.20932484
-1.6847475 0.3885245 -0.21000805
-2.912288 0.67161125 -0.25868195
-4.8444614 1.1171954 -0.25777233
-14.559128 3.357523 -0.25802356
-1.5864127 0.36584723 0.140912
-1.3946694 0.32162878 0.17384909
-1.3837637 0.31911379 0.22248533
-0.89726901 0.19505678 -0.20965424
-1.047804 0.2277815 -0.20615597
-1.2996498 0.2825301 -0.20837274
-1.6847905 0.36625564 -0.20942193
-2.9145889 0.63360083 -0.25815719
-4.8598027 1.0564698 -0.25786036
-14.607462 3.1755075 -0.25815102
-1.6103867 0.35008103 0.14263861
-1.3918339 0.30256999 0.173007
-1.3806622 0.30014136 0.22136146
-0.88353807 0.18045217 -0.20589864
-1.070129 0.21856116 -0.20999029
-1.2867612 0.2628057 -0.20575942
-1.672761 0.34164158 -0.20737545
-2.9262729 0.59765649 -0.25850502
-4.8588848 0.99236953 -0.25712821
-14.642942 2.9906471 -0.25809208
-1.3909703 0.28408918 0.17244132
-1.3893224 0.28375262 0.22215946
-0.89244646 0.17059498 -0.20745757
-1.0510513 0.20091298 -0.20573394
-1.2802321 0.24472187 -0.20420644
-1.67671 0.32051036 -0.20734824
-2.9194379 0.55806315 -0.25726002
-4.8778529 0.93242264 -0.25749025
-14.678213 2.8058038 -0.25807056
-1.4196692 0.27137586 0.17556161
-1.3920053 0.26608783 0.22203508
-0.88790107 0.15816477 -0.20592166
-1.0657628 0.18984787 -0.20812914
-1.311599 0.23363949 -0.20872386
-1.6810199 0.29944566 -0.20739847
-2.9382527 0.52340072 -0.25831673
-4.8759847 0.86857533 -0.25679389
-14.706005 2.6196294 -0.25795874
-1.4147255 0.25200975 0.17454399
-1.3956444 0.24861078 0.22209859
-0.88806063 0.14668152 -0.20551401
-1.0694153 0.176636 -0.20839155
-1.3158225 0.21733521 -0.20894389
-1.7003858 0.28085378 -0.20933487
-2.9372904 0.48515409 -0.2576746
-4.8986678 0.80911601 -0.25743151
-14.740816 2.4347498 -0.25801113
-1.4142784 0.23359723 0.17411211
-1.3892738 0.22946721 0.22060747
-0.89658672 0.13651584 -0.20707288
-1.067322 0.16251229 -0.20756841
-1.3192482 0.20087101 -0.20906964
-1.6790388 0.25565335 -0.20629415
-2.945312 0.44845828 -0.25786248
-4.914547 0.74829745 -0.25775039
-14.776173 2.2498457 -0.25811365
-1.3916329 0.21189243 0.17098218
-1.3956945 0.21251085 0.22118458
-0.91071039 0.12695508 -0.20994897
-1.0614716 0.14797153 -0.20605195
-1.3093237 0.18252265 -0.20711619
-1.676921 0.23376654 -0.20565596
-2.9561617 0.41209558 -0.25833759
-4.9226789 0.68623245 -0.25770324
-14.806983 2.0641267 -0.25817737
-1.3897964 0.19374074 0.17044328
-1.3896248 0.19371681 0.21981868
-0.91150993 0.11538606 -0.20978171
