# .PCD v0.7 - Point Cloud Data file format
VERSION 0.7
FIELDS x y z
SIZE 4 4 4
TYPE F F F
COUNT 1 1 1
WIDTH 1202
HEIGHT 1
VIEWPOINT 0 0 0 1 0 0 0
POINTS 1202
DATA ascii
-1.3997196 -3.7142818e-06 -0.049971797
-0.89884776 -2.3851733e-06 0.16210602
-1.3889297 -0.017493378 -0.049590517
-0.88840532 -0.011189342 0.16023545
-1.391921 -0.035063978 -0.049709145
-0.89271843 -0.022488529 0.16105168
-1.3968439 -0.052794084 -0.049904734
-0.89653456 -0.03388476 0.096418738
-0.8915984 -0.033698197 0.16091342
-1.4101526 -0.07108786 -0.050408196
-0.89657718 -0.045197766 0.096476875
-0.88577533 -0.044653233 0.15995128
-1.3830537 -0.087192811 -0.049474828
-0.89526296 -0.056440681 0.096404292
-1.4068179 -0.10649048 -0.050368901
-0.89500827 -0.067748539 0.096461087
-1.3994437 -0.12367225 -0.05015666
-0.88678902 -0.07836771 0.16055454
-1.3877279 -0.14026755 -0.049796116
-1.3789308 -0.15694191 -0.049547438
-0.90200263 -0.1026607 0.032410558
-0.90062946 -0.10250442 0.097414896
-0.89554864 -0.10192614 0.16255374
-1.3873659 -0.17562364 -0.049926028
-0.90527838 -0.11459722 0.03257753
-0.8886115 -0.1124874 0.09626057
-0.89561188 -0.11337356 0.16281144
-1.3898053 -0.19374199 -0.050097637
-0.89738578 -0.12509759 0.097373985
-0.88922584 -0.12396007 0.16192146
-1.3765315 -0.20959306 -0.049710352
-0.8967613 -0.13654242 0.032384526
-0.90858114 -0.13834214 0.09876997
-0.88889903 -0.13534531 0.16215943
-1.3853852 -0.22882493 -0.050130166
-0.89836913 -0.14838418 0.09785521
-0.87992018 -0.14533697 0.16084257
-1.3854743 -0.24679914 -0.050241861
-0.9051277 -0.16123341 0.032822911
-0.90038347 -0.16038831 0.098286815
-0.89606142 -0.15961839 0.16414744
-1.3778594 -0.26338375 -0.050082017
-0.89939958 -0.17192411 0.032691106
-0.89073575 -0.17026797 0.16355164
-1.3715631 -0.28012547 -0.049977411
-0.90261573 -0.18434854 0.032889772
-0.90247035 -0.18431886 0.098990023
-0.90629995 -0.185101 0.16682419
-1.3665074 -0.29706424 -0.04992554
-0.88649434 -0.1927145 0.032388195
-0.88865209 -0.19318357 0.097733416
-0.90906447 -0.197621 0.16777782
-1.3582634 -0.31323308 -0.049764507
-0.89333087 -0.20601363 0.032730151
-0.88887721 -0.20498656 0.098034278
-0.8860808 -0.20434168 0.16399783
-1.3654395 -0.33304906 -0.050177105
-0.8907097 -0.21725605 0.032731757
-0.89632362 -0.21862537 0.099151313
-0.88432658 -0.21569914 0.16416284
-1.3736582 -0.35343662 -0.050638657
-0.88517189 -0.22775109 0.032631055
-0.89260149 -0.2296627 0.099051625
-0.88541991 -0.22781491 0.16488527
-1.3596829 -0.36815503 -0.05029038
-0.90721768 -0.24564314 0.03355512
-0.89155394 -0.24140194 0.099264838
-0.89830673 -0.24323034 0.16784213
-1.3517329 -0.38433415 -0.050171357
-0.88731968 -0.25228894 0.032934047
-0.90249258 -0.256603 0.1008345
-0.89531881 -0.2545633 0.16786949
-1.3313062 -0.39671072 -0.049594674
-0.89333588 -0.26620167 0.033279125
-0.89323533 -0.26617169 0.10016673
-0.89834386 -0.26769397 0.1690553
-1.3240495 -0.41276988 -0.049514048
-0.90170163 -0.28110376 0.033719961
-0.90468782 -0.2820347 0.10184119
-0.88966489 -0.27735129 0.16806595
-1.3311034 -0.43343192 -0.049977973
-0.88858736 -0.2893405 0.033363145
-0.89880067 -0.29266614 0.10158528
-0.89666146 -0.2919696 0.17006873
-1.3274443 -0.45080432 -0.050049756
-0.89062959 -0.30246064 0.033580162
-0.9013083 -0.3060872 0.10229621
-0.88775539 -0.30148456 0.16908617
-1.3145792 -0.46497715 -0.049781505
-0.97462147 -0.34473139 0.036907725
-0.98026872 -0.34672886 0.1117447
-0.98156905 -0.34718883 0.18777217
-1.3092101 -0.48170942 -0.049803939
-1.0897467 -0.40096027 0.041455284
-1.0797479 -0.39728135 0.12364519
-1.3034573 -0.49831492 -0.049819849
-1.2038212 -0.46022376 0.046011627
-1.228065 -0.46949226 0.14129522
-1.3040287 -0.51744503 -0.050086766
-1.3916758 -0.5522238 0.053453222
-1.3900603 -0.55158269 0.16072001
-1.2973439 -0.53379601 -0.050084207
-1.6182711 -0.66584247 0.062473662
-1.6236913 -0.66807264 0.18869035
-1.2818142 -0.54637802 -0.049746342
-1.8989577 -0.80943769 0.22184615
-1.2783231 -0.56401414 -0.049882531
-1.9001471 -0.83837163 0.22320072
-1.2728442 -0.58085179 -0.04995019
-1.8870586 -0.86114347 0.22291937
-1.2613777 -0.59492135 -0.049790245
-1.900929 -0.89656192 0.22587363
-1.2575785 -0.61260349 -0.049940821
-1.8962339 -0.9237113 0.22667988
-1.2652538 -0.63617694 -0.050559737
-1.9007523 -0.95570934 0.22864053
-1.2316415 -0.6388303 -0.049534108
-1.8800548 -0.9751507 0.22760986
-1.2472318 -0.66697842 -0.050494898
-1.2268564 -0.6760838 -0.050010689
-1.222683 -0.69399601 -0.050192814
-1.206895 -0.70527303 -0.049905315
-1.1896834 -0.71546066 -0.04956222
-1.1858227 -0.73362654 -0.049782291
-1.1839017 -0.75321376 -0.050095845
-1.1707132 -0.76569927 -0.049941815
-1.9027158 -1.244462 0.08116854
-1.1561103 -0.77710646 -0.049732365
-1.8865039 -1.2680575 0.081151687
-1.1497344 -0.7940191 -0.049884241
-1.8958135 -1.3092694 0.082254834
-1.1443281 -0.81175435 -0.050089203
-1.8976042 -1.3461074 0.08306139
-1.1219656 -0.81731981 -0.049556922
-1.1126587 -0.83218455 -0.049604766
-1.1079376 -0.85061598 -0.049867857
-1.0967404 -0.86418438 -0.049849719
-1.0966095 -0.88668776 -0.050347269
-1.0661843 -0.88451833 -0.049457841
-1.0759839 -0.9157638 -0.05044334
-1.0580887 -0.92375708 -0.050145745
-1.043417 -0.93435889 -0.050004058
-1.0263413 -0.94262093 -0.049750622
-1.0218928 -0.9625349 -0.050118536
-0.99090952 -0.95718205 -0.049186211
-0.99182063 -0.98250204 -0.04984159
-0.97874498 -0.99427634 -0.049809724
-0.97374594 -1.0144364 -0.050201423
-0.96031374 -1.0259947 -0.050171014
-0.93591923 -1.0255138 -0.049567267
-0.93633127 -1.0522746 -0.050286863
-0.92688233 -1.0684472 -0.05049796
-0.90098512 -1.0654048 -0.049814004
-0.89233387 -1.0825303 -0.050085381
-0.87835789 -1.0933379 -0.050069708
-0.84548301 -1.0799913 -0.04896706
-0.84900445 -1.1130841 -0.049978808
-0.83244437 -1.1203513 -0.049830493
-0.81154442 -1.1214476 -0.049420811
-0.81078231 -1.1506257 -0.050252751
-0.79972291 -1.1658348 -0.050473183
-0.77626318 -1.1627548 -0.049912691
-0.76127493 -1.171996 -0.049893931
-0.75075012 -1.1882825 -0.050180838
-0.74001491 -1.2046183 -0.050473183
-0.71358889 -1.1950837 -0.049693249
-0.70174873 -1.2096 -0.049925461
-0.68678772 -1.2189167 -0.049949091
-0.67058867 -1.2260106 -0.049889803
-0.65804046 -1.2399001 -0.050113846
-0.63914907 -1.2418166 -0.049862064
-0.63007814 -1.2630274 -0.050391164
-0.61270511 -1.2679223 -0.050274648
-0.58991742 -1.2610549 -0.049703863
-0.57907653 -1.2796172 -0.050144106
-0.56294465 -1.2868663 -0.050146416
-0.54097164 -1.2803029 -0.049621269
-0.52604496 -1.2900459 -0.049738206
-0.51432741 -1.3081841 -0.050183855
-0.54840028 -1.3948481 0.27030316
-0.52824777 -1.3435905 0.3683351
-0.49957573 -1.319206 -0.050361354
-0.5284034 -1.3953298 0.26908579
-0.50365579 -1.32998 0.36283645
-0.52868801 -1.3960814 0.49665731
-0.47529161 -1.3044398 -0.049565237
-0.49582815 -1.3608024 0.26120248
-0.48176494 -1.3222059 0.35903212
-0.51286036 -1.4075474 0.49839935
-0.46251214 -1.3208379 -0.049963061
-0.47939551 -1.3690532 0.26160675
-0.47285351 -1.3503706 0.36503422
-0.49011233 -1.3996582 0.49338144
-0.44543856 -1.3253489 -0.049917568
-0.46670675 -1.3886298 0.26420364
-0.4807469 -1.4304045 0.38500214
-0.47217259 -1.4048927 0.49309164
-0.42836082 -1.3297513 -0.049876265
-0.45666656 -1.4176202 0.26860401
-0.45061231 -1.3988261 0.4889321
-0.4131135 -1.3400018 -0.050061654
-0.44061598 -1.4292105 0.26972744
-0.4308387 -1.3974963 0.48653245
-0.39575222 -1.3435481 -0.050004002
-0.40980452 -1.3912544 0.48252454
-0.3762385 -1.3392923 -0.049665347
-0.39371109 -1.4014893 0.48431641
-0.36288673 -1.3571678 -0.050154801
-0.37824151 -1.4145936 0.48716033
-0.34571755 -1.3614246 -0.050147258
-0.36203945 -1.4256997 0.48937628
-0.32696682 -1.3590965 -0.049905892
-0.32481429 -1.3501492 0.049577348
-0.33832368 -1.4063034 0.48121798
-0.31239974 -1.3744191 -0.0503201
-0.30696595 -1.350513 0.049444847
-0.32253912 -1.4190279 0.48414394
-0.29484242 -1.3771837 -0.050281394
-0.28790161 -1.3447636 0.049097732
-0.30136028 -1.4076281 0.47892186
-0.27342561 -1.3606182 -0.049546953
-0.27314693 -1.3592315 0.049496453
-0.28324336 -1.4094733 0.47829825
-0.25674856 -1.3664889 -0.049639069
-0.2530556 -1.3468339 0.048925083
-0.2638717 -1.4044002 0.47541153
-0.24148485 -1.3808346 -0.050045762
-0.23478322 -1.342514 0.048656903
-0.24461527 -1.3987346 0.47241345
-0.22576393 -1.3941687 -0.050422002
-0.22009566 -1.3591652 0.049156051
-0.22922544 -1.4155447 0.47707826
-0.20571788 -1.3803018 -0.049822848
-0.39118242 -2.6247101 0.094740532
-0.20885487 -1.40135 0.47137049
-0.18954675 -1.3917762 -0.050146896
-0.35791677 -2.6280591 0.094691232
-0.19239947 -1.4127228 0.47434342
-0.17138407 -1.3889993 -0.049965121
-0.32433426 -2.6285994 0.094556049
-0.17242748 -1.3974558 0.46845111
-0.15225524 -1.3763479 -0.049437139
-0.2898615 -2.6202731 0.094117776
-0.15495433 -1.4007471 0.46886316
-0.13737282 -1.4032805 -0.050338406
-0.25647816 -2.6199563 0.093982935
-0.13703524 -1.3998319 0.46794215
-0.11907788 -1.3976797 -0.050079737
-0.22350785 -2.6234291 0.093999103
-0.11976561 -1.4057519 0.46937975
-0.10031281 -1.3831135 -0.049508635
-0.19077706 -2.630435 0.094156586
-0.10128507 -1.3965191 0.46583411
-0.083794259 -1.3993716 -0.050048858
-0.15663001 -2.6157353 0.093552396
-0.083627991 -1.396595 0.46547127
-0.066335239 -1.4038587 -0.050175484
-0.12388862 -2.621866 0.093708433
-0.066391684 -1.4050531 0.46797454
-0.048489708 -1.3998482 -0.050006364
-0.048429284 -1.3981038 0.46541998
-0.030894049 -1.4018892 -0.050061405
-0.03103954 -1.4084913 0.4687106
-0.013220469 -1.4000862 -0.049987111
-0.013230886 -1.4011893 0.46618831
0.004397335 -1.3963238 -0.049850807
0.004381978 -1.3914473 0.46292871
0.022254338 -1.413687 -0.0504767
0.022130061 -1.4057924 0.46775687
0.03957507 -1.3964443 -0.049874879
0.039418895 -1.3909336 0.46294132
0.057465397 -1.4034194 -0.050145868
0.057456493 -1.4032019 0.46722829
0.073972873 -1.3809532 -0.049372494
0.07510303 -1.4020514 0.46712309
0.092130117 -1.3916223 -0.049791466
0.093254484 -1.4086058 0.46966082
0.10998764 -1.3946965 -0.049947053
0.11049018 -1.4010689 0.46757469
0.12847638 -1.4034315 -0.050313823
0.12800232 -1.398253 0.46713579
0.14610045 -1.401351 -0.050301205
0.14430016 -1.3840832 0.46297222
0.16295581 -1.3927529 -0.050062265
0.16273013 -1.3908241 0.46587554
0.1795826 -1.3836813 -0.04981352
0.18364474 -1.4149802 0.47470391
0.19781916 -1.3871206 -0.050023049
0.20004979 -1.4027619 0.4714126
0.21288052 -1.3691581 -0.049468026
0.21842289 -1.4048042 0.47298577
0.23290607 -1.383014 -0.050070632
0.24008651 -1.425652 0.48098478
0.25327507 -1.3963661 -0.050665483
0.25310457 -1.3954262 0.47182512
0.26440674 -1.3599923 -0.049462587
0.27030221 -1.3903161 0.47121078
0.28343147 -1.3658159 -0.049800247
0.29128331 -1.4036528 0.47693622
0.30065081 -1.3623407 -0.049807623
0.31141078 -1.4110974 0.48076007
0.31978789 -1.3670284 -0.050122257
0.33087513 -1.4144241 0.48327464
0.33806732 -1.367311 -0.050284717
0.34936872 -1.4130195 0.48425949
0.3538141 -1.3574116 -0.050080534
0.36710995 -1.4084214 0.48422956
0.36975238 -1.348745 -0.049928606
0.38920546 -1.419704 0.48975477
0.38530824 -1.3391267 -0.049748216
0.40171167 -1.3961363 0.48333132
0.40419897 -1.3410037 -0.050003063
0.42751011 -1.4183425 0.49284354
0.42561123 -1.350273 -0.05054453
0.44231009 -1.4032511 0.48949611
0.43794939 -1.3307394 -0.0500158
0.46139181 -1.4019709 0.49103731
0.45456219 -1.3248047 -0.050003912
0.48078486 -1.4012295 0.49285904
0.46939212 -1.3138958 -0.049811311
0.4997074 -1.3987527 0.4941619
0.48572439 -1.307413 -0.049793467
0.52040845 -1.4007711 0.49715072
0.49766684 -1.2895821 -0.049349133
0.54008693 -1.3995034 0.49907494
0.5200718 -1.2987137 -0.049945224
0.53672194 -1.292879 -0.049976788
0.55008781 -1.2793427 -0.049717352
0.57002079 -1.2810078 -0.050057035
0.64165831 -1.4419987 0.056347966
0.63243186 -1.4212642 0.16718167
0.63901228 -1.4360523 0.28347367
0.63708812 -1.4317281 0.39981121
0.58395374 -1.2690537 -0.0498733
0.63946259 -1.3896861 0.054614104
0.64753759 -1.4072347 0.16647735
0.64663589 -1.4052752 0.27898353
0.64448786 -1.400607 0.3933557
0.59976768 -1.2613509 -0.049863432
0.66162664 -1.3914443 0.055006258
0.66436374 -1.3972006 0.1662668
0.66474384 -1.3979999 0.27917886
0.67406666 -1.4176065 0.400482
0.61798418 -1.2585503 -0.050056383
0.637003 -1.2570257 -0.050310787
0.64655691 -1.2369995 -0.049831171
0.66030627 -1.2254668 -0.049697597
0.67850393 -1.2221347 -0.049905002
0.69582731 -1.2169734 -0.050048064
0.71116728 -1.2082379 -0.050053131
0.72568959 -1.1981401 -0.050009407
0.74065548 -1.1888072 -0.050005175
0.71257252 -1.1437321 0.048109163
0.70053226 -1.1244065 0.14237291
0.41355324 -0.66378379 0.46380565
0.75309169 -1.1755263 -0.049841471
0.71115422 -1.1100646 0.047065943
0.70849502 -1.1059138 0.1411498
0.4210135 -0.65717417 0.46285492
0.7630282 -1.1586542 -0.04952956
0.71021444 -1.0784568 0.046101324
0.70722216 -1.0739131 0.13819116
0.78965706 -1.1668352 -0.050300349
0.70883679 -1.0474112 0.045152184
0.70922899 -1.0479908 0.13599391
0.79531479 -1.1438962 -0.049739264
0.70152575 -1.0090001 0.043873668
0.70962572 -1.0206501 0.13359499
0.4701792 -0.67625576 0.41210246
0.81687969 -1.1439089 -0.050183114
0.71871448 -1.0064442 0.044152558
0.70406681 -0.98593259 0.13020088
0.46912888 -0.65693969 0.40389934
0.82383543 -1.1234649 -0.049737398
0.70660192 -0.96359348 0.042659659
0.7135275 -0.9730379 0.12967427
0.47694594 -0.65041149 0.40354615
0.84485167 -1.1222155 -0.050149091
0.70469034 -0.93603933 0.041829329
0.71916974 -0.95527232 0.12850337
0.85517246 -1.1066461 -0.049930591
0.70465493 -0.91186708 0.041142389
0.70985323 -0.918594 0.12476193
0.49514872 -0.64075309 0.40516335
0.47432107 -0.61380082 0.46003547
0.86402631 -1.0894705 -0.049642604
0.71466118 -0.90113258 0.041060835
0.70853233 -0.8934046 0.12254281
0.54557419 -0.68792695 0.36352608
0.51143003 -0.6448738 0.41180852
0.48970473 -0.61747986 0.46737748
0.88496369 -1.0874608 -0.050054837
0.70668632 -0.86839002 0.039971206
0.71515501 -0.87879652 0.12176466
0.55321378 -0.67979991 0.36288387
0.52190411 -0.64132607 0.41370693
0.48967636 -0.60172397 0.46008238
0.89802414 -1.0755589 -0.050023537
0.71352285 -0.85458267 0.03974608
0.71045595 -0.85090941 0.1191308
0.71674722 -0.85844445 0.20168866
0.57140666 -0.68437082 0.3691355
0.55018073 -0.6589486 0.42950997
0.5168671 -0.61904907 0.47826782
0.91548282 -1.0688215 -0.050242361
0.73507732 -0.85819906 0.040341578
0.72538865 -0.84688759 0.11983705
0.57623881 -0.67275584 0.36675537
0.57631624 -0.67284626 0.44326374
0.53129554 -0.62028486 0.48435292
0.92179602 -1.0491607 -0.04985984
0.75007808 -0.85371643 0.040571634
0.75670385 -0.86125767 0.12320902
0.58259004 -0.66308659 0.44163209
0.54797369 -0.62368727 0.49235871
0.93634504 -1.0390377 -0.049935132
0.65068072 -0.72204345 0.034700699
0.77500743 -0.86000556 0.12441614
0.55639148 -0.6174131 0.49289757
0.95072603 -1.0286506 -0.050007325
0.61310571 -0.66335779 0.032248802
0.61957514 -0.67035747 0.098100841
0.61004663 -0.66004801 0.16209528
0.61521679 -0.6656419 0.23125304
0.61451244 -0.66487986 0.30121058
0.61395919 -0.66428131 0.37451732
0.61711627 -0.66769707 0.45491132
0.58092213 -0.62853634 0.50757712
0.96810782 -1.0213512 -0.050241128
0.6201849 -0.65429348 0.096885182
0.6100809 -0.64363378 0.1599382
0.61536598 -0.6492095 0.22821815
0.61224645 -0.64591843 0.29608965
0.61949974 -0.65357059 0.37284723
0.61726391 -0.6512118 0.44893971
0.98316002 -1.0114148 -0.050357342
0.64255184 -0.66101789 0.032911431
0.8285774 -0.85238957 0.12775332
0.98328102 -0.9863798 -0.049723409
0.85669935 -0.85939926 0.13041039
0.99480057 -0.97311664 -0.049682345
0.86791456 -0.8489964 0.13047989
1.0152955 -0.9684509 -0.050092895
0.88614756 -0.84526169 0.13161041
1.0190616 -0.94782645 -0.049685903
0.91674072 -0.85265809 0.1345488
1.0364159 -0.93990874 -0.049951024
0.93370235 -0.84675944 0.13546255
1.0503023 -0.92867124 -0.05005271
0.96887642 -0.85667497 0.13898957
1.0776085 -0.92890346 -0.050792556
0.98589593 -0.84984684 0.13988484
1.070544 -0.89956886 -0.049921695
1.0872988 -0.89053345 -0.050176106
1.0913132 -0.87109542 -0.049851224
1.0926621 -0.84987086 -0.049420062
1.1140752 -0.84422863 -0.04990378
1.1287637 -0.83319527 -0.050087802
1.1349453 -0.81588316 -0.049902257
1.146498 -0.8024869 -0.049961947
1.1522852 -0.78510803 -0.049779374
1.1484312 -0.76148742 -0.049194735
1.1752015 -0.75810975 -0.049928594
1.1834761 -0.74251354 -0.049878955
1.178081 -0.71861672 -0.049266294
1.2143773 -0.71993542 -0.050401058
1.2183064 -0.70168537 -0.050193436
1.2256967 -0.68553567 -0.050138284
1.2276924 -0.66649848 -0.049872652
1.2503996 -0.65857852 -0.050454207
1.2498846 -0.63833493 -0.050105117
1.2477493 -0.61756092 -0.049703836
1.2587636 -0.60340106 -0.049835965
1.2699784 -0.58922845 -0.049982257
1.2741666 -0.57178646 -0.049859762
1.270119 -0.55086368 -0.049426019
1.3121092 -0.54955161 -0.050786734
1.2931075 -0.5225541 -0.04979261
1.313737 -0.51174372 -0.050334852
1.3077996 -0.4905566 -0.049866736
1.3246242 -0.47793013 -0.050274801
1.3330761 -0.4620938 -0.050370742
1.3421869 -0.44640234 -0.050498597
1.3473063 -0.42934132 -0.050483797
1.3333044 -0.40645912 -0.049763419
1.3464104 -0.39199546 -0.050064381
1.340203 -0.37194854 -0.049655475
1.3465836 -0.35552043 -0.049722072
1.3746556 -0.34447673 -0.050594438
1.3774323 -0.32679641 -0.05054117
1.3718895 -0.30728823 -0.050191835
1.3621341 -0.287141 -0.049698703
1.3749446 -0.27180636 -0.050037257
1.3724594 -0.25340196 -0.049826741
1.376418 -0.23625147 -0.049858503
1.3779221 -0.21868588 -0.049809285
1.3877387 -0.20236474 -0.050068054
1.391847 -0.18509752 -0.05012821
1.3819525 -0.16610169 -0.049692586
1.3879039 -0.14911455 -0.049835119
1.3941873 -0.13205507 -0.049997065
1.3864899 -0.11373136 -0.04966573
1.4082447 -0.097682066 -0.050396957
1.3949881 -0.079127438 -0.04988293
1.4192436 -0.062587157 -0.050718069
1.3884875 -0.04372244 -0.049595363
1.4132661 -0.026695976 -0.050464422
1.3929735 -0.0087699592 -0.04973194
1.4068842 0.0088575389 -0.050228577
1.3946575 0.026344469 -0.049799956
1.392264 0.043841362 -0.049730256
1.399 0.06169444 -0.049994651
1.392663 0.078995548 -0.049799785
1.3979555 0.096968368 -0.050028738
1.4054258 0.11528464 -0.050344035
1.4005884 0.13266137 -0.05022661
1.3989505 0.15030137 -0.050231762
1.3977183 0.16799663 -0.050259497
1.3868197 0.18442896 -0.04994715
1.3961638 0.20359331 -0.050372023
1.3815441 0.21926072 -0.049940214
1.3763968 0.23624781 -0.049857732
1.3743505 0.25375116 -0.049895398
1.3732953 0.27148032 -0.049977235
1.371644 0.28914568 -0.05004568
1.3677136 0.30635288 -0.050039053
1.3696258 0.32494432 -0.050254732
1.3627602 0.34149584 -0.050156627
1.3466549 0.35553923 -0.049724702
1.3347566 0.37043697 -0.049453679
1.3370653 0.38927472 -0.049716894
1.3456291 0.41021633 -0.050223418
1.3352498 0.42549929 -0.050032038
1.3272513 0.44143483 -0.049936656
1.3210516 0.45792565 -0.049916394
1.3163661 0.47495055 -0.049961369
1.3052707 0.48960799 -0.049770307
1.3035239 0.50776535 -0.049943544
1.2991649 0.52500188 -0.050025854
1.2908388 0.54064292 -0.049963437
1.288301 0.55874944 -0.050133567
1.28088 0.57479912 -0.05012247
1.271782 0.5900653 -0.050053243
1.2731251 0.61028534 -0.050404552
1.2476801 0.61752665 -0.049701076
1.2483642 0.6375584 -0.050044168
1.2501172 0.6584298 -0.050442815
1.2323982 0.6690532 -0.050063819
1.2131635 0.67852592 -0.049625605
1.220803 0.70312327 -0.050296292
1.2058359 0.7148717 -0.050046559
1.2039863 0.73441857 -0.050349623
1.1839502 0.74281096 -0.049898937
1.1698294 0.75464422 -0.049700357
1.1569248 0.76711935 -0.049558576
1.1705456 0.79754966 -0.050568234
1.1552111 0.80858558 -0.050341643
1.1450509 0.82314783 -0.050346591
1.1187958 0.82583749 -0.049645483
1.1138611 0.84406644 -0.049894191
1.1052948 0.85969651 -0.049991425
1.1006606 0.87855655 -0.050278209
1.084922 0.88858676 -0.050066423
1.0735214 0.90207082 -0.05006054
1.0624338 0.9158228 -0.050077304
1.0428581 0.92208928 -0.049697962
1.0315001 0.93545067 -0.0497141
1.0291058 0.95716858 -0.050175626
1.0147288 0.96791041 -0.050064933
1.0057871 0.98386383 -0.05023104
0.98434722 0.98744941 -0.049777325
0.98279923 1.0110435 -0.050338861
0.93813795 0.9650988 0.048051316
0.9268496 0.95348597 0.14290531
0.92910582 0.95580709 0.24039911
0.92996007 0.95668584 0.3403956
0.96359426 1.0165894 -0.050006893
0.91716117 0.96760261 0.047597189
0.91390139 0.96416354 0.14276952
0.90824836 0.95819968 0.23810548
0.90482444 0.9545874 0.33556837
0.94224429 1.0194737 -0.049561195
0.8950538 0.96841526 0.047079016
0.89211702 0.9652378 0.14125395
0.88345158 0.9558621 0.23474161
0.88785213 0.96062332 0.33373362
0.92703837 1.0287104 -0.049438812
0.86410707 0.95887715 0.046082694
0.86881965 0.96410656 0.13947631
0.87205529 0.96769708 0.23493268
0.86509228 0.95997036 0.32969609
0.93019825 1.0587238 -0.050314315
0.84794796 0.96510899 0.045865405
0.85536391 0.9735496 0.13927318
0.84123504 0.95746857 0.22985952
0.84889412 0.96618593 0.32813355
0.92129713 1.0756097 -0.050561454
0.81847811 0.95556909 0.044918675
0.82474202 0.9628821 0.13625062
0.8274191 0.96600759 0.22939
0.82920694 0.96809489 0.32520995
0.8936581 1.0703297 -0.049780332
0.79615504 0.95355082 0.044349022
0.81322235 0.97399217 0.1363629
0.80467135 0.96375072 0.22643001
0.79703641 0.95460641 0.31728211
0.88305295 1.0851128 -0.049946759
0.77677667 0.95451844 0.043935616
0.77707219 0.95488161 0.13230689
0.78221053 0.96119565 0.22349782
0.78201216 0.96095192 0.31609321
0.56816852 0.69817662 0.29947394
0.86329287 1.0885457 -0.049600467
0.76719594 0.96737486 0.044079222
0.76725465 0.96744889 0.132699
0.7638396 0.96314281 0.22169653
0.75205302 0.94828081 0.30878568
0.57757813 0.72828144 0.30924281
0.84770519 1.096983 -0.049494606
0.74157351 0.95964199 0.043297939
0.74286282 0.96131051 0.13056362
0.73699468 0.9537167 0.21737343
0.73772103 0.95465666 0.30781248
0.58445436 0.75632012 0.31799838
0.84046477 1.1163884 -0.049888693
0.75339395 1.0007323 0.044720303
0.74288732 0.98677641 0.1327413
0.75409937 1.0016693 0.22612068
0.72335279 0.96082866 0.30684128
0.579512 0.76976514 0.32055777
0.83050859 1.132565 -0.050140273
0.75025463 1.0231227 0.045295104
0.74352133 1.0139405 0.13512525
0.74133664 1.0109613 0.22609302
0.70563537 0.96227539 0.3044416
0.58584285 0.79891425 0.32959834
0.80907691 1.1329824 -0.049703766
0.74564773 1.04416 0.045807142
0.74143261 1.0382574 0.13711081
0.74405986 1.0419364 0.23090665
0.69339067 0.97098225 0.30440971
0.58507729 0.81930679 0.33494538
0.8022579 1.1538824 -0.050173491
0.74656105 1.073774 0.046690188
0.75005192 1.0787948 0.14120568
0.74313271 1.068843 0.23477712
0.6624912 0.9528569 0.29608846
0.58318627 0.83879304 0.33988255
0.77849931 1.1503478 -0.049589612
0.74285853 1.0976834 0.04731933
0.74577808 1.1019975 0.14300217
0.74310935 1.0980541 0.23911911
0.64306951 0.95023036 0.29273286
0.57977241 0.85669953 0.34415281
0.77138573 1.171345 -0.050072063
0.74828422 1.1362655 0.048572503
0.7433297 1.1287421 0.14524657
0.74688691 1.1341437 0.24491073
0.62878424 0.95480543 0.29167995
0.56097478 0.8518371 0.33933488
0.75273407 1.1749679 -0.049817797
0.61612988 0.96173787 0.29140452
0.5604499 0.87482512 0.34565356
0.73681396 1.1826414 -0.049745817
0.6030767 0.96798313 0.29097277
0.54706943 0.87808728 0.34419334
0.72602981 1.1987019 -0.05003285
0.58587998 0.96730936 0.28852969
0.53731441 0.88712579 0.3450568
0.70845377 1.2036278 -0.04986215
0.56452054 0.95909232 0.28393587
0.52785826 0.89680499 0.34620878
0.69351792 1.2129344 -0.049881957
0.55115867 0.96395391 0.28329802
0.52086753 0.91097593 0.34911972
0.67840886 1.2219635 -0.04989801
0.53291035 0.95988876 0.28010893
0.50964689 0.91798609 0.34931913
0.66642678 1.2368258 -0.050158251
0.51632726 0.95825523 0.27771291
0.49694139 0.92227674 0.34854302
0.38415414 0.71295416 0.40520701
0.65306276 1.2494465 -0.050332583
0.50468332 0.96556538 0.27796769
0.48286778 0.92382765 0.34680378
0.40149659 0.76814747 0.35886434
0.62661999 1.2365365 -0.049490735
0.49080971 0.96853614 0.27702174
0.4703517 0.9281655 0.34618133
0.39574617 0.78094316 0.36248538
0.62293327 1.2686293 -0.050457254
0.46796846 0.95303708 0.27088174
0.4658891 0.94880235 0.3516624
0.40039155 0.81541389 0.37611541
0.59635532 1.2541745 -0.04957974
0.45628926 0.95960623 0.27109432
0.45272434 0.95210904 0.35074723
0.39917356 0.83948821 0.38487086
0.58516324 1.2716821 -0.049976595
0.43868867 0.95336229 0.26774853
0.4414503 0.95936388 0.35134417
0.3951256 0.85869068 0.39136228
0.57091695 1.2830217 -0.050135732
0.4287686 0.96357167 0.26907817
0.43010101 0.96656597 0.3519704
0.39170617 0.88028127 0.39892289
0.55491734 1.2905747 -0.050153848
0.41894376 0.97434008 0.2705906
0.41473812 0.96455896 0.34931016
0.38965422 0.90622127 0.40842235
0.53777516 1.295416 -0.050074857
0.39989665 0.96328837 0.26610181
0.40104786 0.96606141 0.34799778
0.38989148 0.93918747 0.42103374
0.52042592 1.299598 -0.049979232
0.39713031 0.99170655 0.27254909
0.3878606 0.96855831 0.34711039
0.3909739 0.97633278 0.43544424
0.49667987 1.2870246 -0.049251262
0.38044837 0.98583907 0.26959857
0.37050655 0.96007729 0.34237179
0.38748413 1.0040705 0.44560379
0.48620218 1.308699 -0.049842447
0.36797252 0.99046302 0.26957455
0.35795623 0.96350235 0.3419587
0.47404307 1.3269145 -0.050304864
0.35445794 0.99217862 0.26880538
0.34133923 0.95545739 0.33755121
0.45335913 1.3212984 -0.049871568
0.3480736 1.0144476 0.27362943
0.3276459 0.95491171 0.3358742
0.43890795 1.3336521 -0.050125275
0.32720986 0.9942497 0.26704887
0.31414306 0.95454532 0.33432746
0.42075369 1.3348622 -0.049967661
0.31308278 0.99327087 0.265706
0.30316785 0.96181524 0.33551005
0.409931 1.3600208 -0.050712168
0.30767843 1.0207791 0.27200663
0.28834096 0.95662355 0.33240613
0.38683072 1.3444179 -0.049944784
0.2938548 1.0212831 0.27113342
0.27741665 0.96415281 0.33378208
0.36858389 1.3444827 -0.049770821
0.27984095 1.0207753 0.27004167
0.26563713 0.96896404 0.33426321
0.34962156 1.3413271 -0.049487107
0.24546275 0.94172055 0.034743968
0.25238049 0.96826047 0.10753506
0.25178879 0.96599048 0.18003598
0.25151998 0.96495914 0.25441772
0.25270304 0.96949798 0.33332321
0.33447644 1.3527877 -0.049750604
0.23761138 0.96101767 0.035342727
0.23738883 0.96011758 0.1062903
0.23974772 0.96965802 0.18014258
0.23702137 0.9586314 0.25194249
0.24340205 0.98443794 0.33737925
0.31796852 1.3592509 -0.049837094
0.22483107 0.96110725 0.035239112
0.22623824 0.96712255 0.10674195
0.22222196 0.94995379 0.17594813
0.22440144 0.95927066 0.25134793
0.22468191 0.96046954 0.32816932
0.30348146 1.3751671 -0.050276566
0.21107067 0.95642573 0.03496724
0.21290481 0.96473676 0.10617431
0.20969591 0.95019627 0.17549005
0.2120332 0.96078718 0.2510258
0.21388775 0.96919078 0.33020273
0.28041741 1.3512917 -0.049270667
0.20103699 0.96876866 0.03532315
0.19822784 0.95523173 0.10484521
0.20012212 0.96436 0.17762643
0.19702058 0.94941413 0.24738654
0.19715105 0.95004284 0.32280764
0.2658895 1.3676189 -0.049739964
0.18484761 0.95077509 0.034579456
0.18760306 0.96494782 0.10564397
0.18582058 0.95577961 0.17560109
0.18859297 0.97003961 0.25212207
0.18798637 0.96691954 0.32771173
0.25025967 1.3797415 -0.05006228
0.17269923 0.95213223 0.034546986
0.17273779 0.95234483 0.10401779
0.17370717 0.95768923 0.17553616
0.17479569 0.96369046 0.24988002
0.17637651 0.97240591 0.32879242
0.23249273 1.3805596 -0.049981773
0.16222863 0.96332592 0.03487625
0.16245344 0.96466088 0.10513122
0.16084124 0.95508754 0.17467421
0.16165288 0.95990705 0.24835148
0.16116303 0.95699835 0.32287097
0.2156644 1.3870629 -0.05011493
0.15037805 0.96716839 0.034944035
0.14856279 0.95549351 0.10392002
0.14926936 0.96003777 0.17522191
0.1495654 0.96194184 0.24837098
0.15065674 0.96896088 0.32624096
0.19728683 1.3833878 -0.049888436
0.13805717 0.96806568 0.034910876
0.13626917 0.95552808 0.10372894
0.13661337 0.95794165 0.17451151
0.13772173 0.9657135 0.24887732
0.13592044 0.9530828 0.32029331
0.18240292 1.405412 -0.050595839
0.12466326 0.96052867 0.034579724
0.12460716 0.96009642 0.10404628
0.12376218 0.95358592 0.17342035
0.12563473 0.96801388 0.24904269
0.12455917 0.95972663 0.32197341
0.1615871 1.3810549 -0.049641781
0.11270269 0.96324891 0.034623817
0.11270171 0.96324062 0.10422495
0.11185492 0.95600313 0.17359005
0.11296326 0.96547598 0.24800414
0.11138218 0.95196277 0.31887293
0.14546506 1.3952565 -0.050082445
0.10169531 0.97543055 0.035012875
0.098504163 0.94482201 0.10208971
0.10091379 0.96793431 0.17551184
0.099552833 0.95488048 0.24494103
0.099768616 0.95695019 0.32009733
0.12878311 1.406782 -0.050433941
0.08852075 0.96697003 0.03466643
0.087923862 0.96044981 0.10365047
0.088681132 0.96872199 0.17543827
0.089344151 0.97596455 0.25004098
0.088494636 0.9666847 0.32295516
0.11059 1.4023347 -0.050220598
0.076408803 0.96890056 0.034698397
0.075588092 0.95849359 0.10332845
0.076201662 0.9662739 0.17480728
0.075913467 0.96261942 0.24635755
0.076782823 0.9736433 0.32493117
0.093050107 1.4055187 -0.050288673
0.064964026 0.98127937 0.035109628
0.064074054 0.96783632 0.10424038
0.063183062 0.95437801 0.1724976
0.063330397 0.95660347 0.24459444
0.063089721 0.95296806 0.31774095
0.074203722 1.3852628 -0.049526572
0.051288329 0.95746964 0.034231909
0.051779397 0.96663707 0.10403275
0.052090954 0.97245336 0.17563212
0.051163755 0.95514405 0.2440372
0.050577819 0.94420564 0.31458208
0.057314612 1.3997369 -0.050014287
0.082964316 2.0261538 0.36572039
0.039758455 1.4029154 -0.050105996
0.058015693 2.0471396 0.36934718
0.022151606 1.407161 -0.050243687
0.032598071 2.0707633 0.37350574
0.0044070794 1.399418 -0.049961273
0.0065606087 2.0832467 0.37571269
-0.013257262 1.4039826 -0.050126228
-0.020029446 2.1211767 0.38256851
-0.031020204 1.4076138 -0.050265826
-0.047045555 2.1348011 0.38510209
-0.048387159 1.3968877 -0.049900603
-0.074025638 2.1370442 0.38564429
-0.066642076 1.4103522 -0.050407574
-0.10284031 2.1764188 0.39295223
-0.083454028 1.3936898 -0.049845647
-0.13091552 2.186301 0.39500278
-0.10093844 1.3917396 -0.049817406
-0.16124442 2.2232389 0.40201139
-0.11965589 1.4044641 -0.050322827
-0.18935119 2.2225144 0.40227965
-0.13621514 1.3914546 -0.049914185
-0.21843351 2.2313256 0.40434027
-0.15451404 1.3967669 -0.050170571
-0.24736229 2.2360911 0.40573612
-0.17156827 1.3904922 -0.050018825
-0.27946302 2.2649362 0.41157591
-0.18874928 1.3859208 -0.049935918
-0.30951315 2.2726481 0.41365275
-0.20669866 1.3868825 -0.050060384
-0.34124789 2.2896652 0.41749913
-0.22337562 1.37942 -0.049888596
-0.37476361 2.3142922 0.42281657
-0.24034604 1.3743228 -0.049809754
-0.40452525 2.3131158 0.42349875
-0.2600255 1.3839298 -0.050272625
-0.43760157 2.3290403 0.42738923
-0.2774137 1.3804637 -0.050269626
-0.4648754 2.3133092 0.42554298
-0.29289782 1.3681005 -0.049949769
-0.50147867 2.3423638 0.43201506
-0.30745497 1.3526645 -0.049523618
-0.53343368 2.3468697 0.43405059
-0.33064631 1.374391 -0.050467499
-0.56772512 2.3598518 0.4377391
-0.34252545 1.3488542 -0.049684234
-0.59857887 2.3571842 0.43860766
-0.36310172 1.3579719 -0.050184518
-0.65389562 2.4455183 0.090375319
-0.65241385 2.4399765 0.27143455
-0.62971783 2.3550951 0.43965954
-0.37676045 1.3411503 -0.049734246
-0.67871314 2.416008 0.0895935
-0.67661715 2.4085472 0.26886469
-0.66166115 2.3553083 0.44121978
-0.3911109 1.3277911 -0.049417559
-0.70271581 2.3856654 0.088789396
-0.71136367 2.4150243 0.27056623
-0.69606072 2.3630722 0.44428086
-0.40746623 1.3216838 -0.049377307
-0.73474479 2.3832657 0.089037366
-0.73696119 2.390455 0.26883197
-0.72532213 2.3527019 0.44401312
-0.42947161 1.3331995 -0.050005604
-0.77069789 2.3924611 0.08973635
-0.77283394 2.3990917 0.27087623
-0.76296616 2.3684595 0.44876456
-0.44336411 1.3191766 -0.049685095
-0.81812549 2.4342339 0.0916823
-0.8194446 2.4381588 0.27643034
-0.791237 2.3542304 0.44792086
-0.45948708 1.3121989 -0.049636275
-0.4776215 1.3108342 -0.049808208
-0.49803415 1.3151351 -0.050205946
-0.51189101 1.3019873 -0.049946133
-0.53287619 1.3067985 -0.050384112
-0.54547656 1.2909645 -0.050034489
-0.56341207 1.2879348 -0.050188053
-0.57896179 1.2793636 -0.050134171
-0.5877285 1.2563756 -0.049519431
-0.60938859 1.261059 -0.050002512
-0.62309015 1.2490196 -0.049832292
-0.64169133 1.2467562 -0.050060395
-0.65652341 1.2370416 -0.049998313
-0.92402577 1.7410778 0.070370272
-0.67229688 1.2291335 -0.050016887
-0.91734141 1.6771387 0.068247475
-0.6856159 1.2168369 -0.049863867
-0.91169107 1.618077 0.066305995
-0.70132768 1.2088742 -0.049895506
-0.91541183 1.5778898 0.065126382
-0.92219585 1.5895834 0.19749865
-0.39378467 0.67876422 0.46537724
-0.71438146 1.1964111 -0.049748443
-0.92045182 1.5415276 0.064098872
-0.91542196 1.5331038 0.19189832
-0.40605399 0.68003929 0.46971992
-0.73455805 1.1957355 -0.050100993
-0.91574842 1.4906826 0.062459197
-0.92533749 1.5062919 0.18998569
-0.41050953 0.66823965 0.46510321
-0.74177647 1.1740789 -0.049581029
-0.92629528 1.4661342 0.06191444
-0.92097038 1.4577059 0.18530566
-0.44224685 0.69998544 0.41427502
-0.42706656 0.67595822 0.47418079
-0.7611599 1.1718189 -0.049886391
-0.91830021 1.4137392 0.060185362
-0.92261016 1.4203744 0.18202244
-0.44037944 0.67797178 0.40449646
-0.43273652 0.66620541 0.47112444
-0.77912426 1.1670402 -0.050096653
-0.91739243 1.3741504 0.058987111
-0.91148269 1.3652984 0.17642127
-0.43879893 0.65727133 0.46867678
-0.79369503 1.1570474 -0.050092746
-0.92672133 1.350973 0.058488481
-0.91936177 1.3402442 0.1746659
-0.45197466 0.65888798 0.47385031
-0.80130947 1.1371824 -0.049665622
-0.91567862 1.2994899 0.056754287
-0.91952258 1.3049451 0.17156097
-0.46903726 0.66563654 0.4829129
-0.81978399 1.1328335 -0.049922578
-0.92714453 1.2811917 0.056460537
-0.92541212 1.2787977 0.16964196
-0.47185537 0.65204203 0.47732303
-0.83845001 1.1284341 -0.050189994
-0.9229303 1.2421324 0.05524702
-0.92441183 1.2441263 0.16657352
-0.48286912 0.6498729 0.48014817
-0.84210455 1.1040381 -0.049572628
-0.92335439 1.2105603 0.054355606
-0.92187828 1.2086251 0.16336161
-0.48322952 0.63353628 0.47253639
-0.87046254 1.1118993 -0.050413772
-0.91702145 1.1713721 0.053110283
-0.92700201 1.1841209 0.16161451
-0.48817518 0.62357843 0.46965691
-0.87449163 1.0885254 -0.04984932
-0.92300707 1.1489151 0.052614883
-0.92440122 1.1506505 0.15862243
-0.49012187 0.6100803 0.46410212
-0.89059383 1.0804194 -0.049987715
-0.9175126 1.1130757 0.051498625
-0.91850269 1.1142769 0.15519029
-0.90567428 1.0709497 -0.050073259
-0.92813772 1.0975125 0.051315229
-0.92825401 1.0976501 0.15449029
-0.58144259 0.68754941 0.45052841
-0.91621679 1.0561526 -0.049916882
-0.92484915 1.0661035 0.050387189
-0.92422724 1.0653865 0.15157533
-0.59503663 0.68591791 0.45433313
-0.92064148 1.034642 -0.049444221
-0.91885322 1.0326322 0.049348179
-0.91258508 1.0255879 0.14753629
-0.59934586 0.67356122 0.45111161
-0.53386539 0.59997249 0.47628036
-0.94461375 1.0350405 -0.050027736
-0.9252702 1.0138452 0.049003284
-0.92036581 1.0084714 0.14672956
-0.60815728 0.66637552 0.45139217
-0.53865379 0.59021848 0.47388417
-0.95915926 1.0247612 -0.050110698
-0.92071724 0.98368996 0.048102319
-0.91724938 0.97998494 0.14425394
-0.63544035 0.67890143 0.46526033
-0.54750592 0.58495271 0.47515407
-0.9768461 1.017666 -0.050361253
-0.92821544 0.96700317 0.047854099
-0.91306049 0.95121491 0.14170019
-0.63943833 0.66615885 0.4620091
-0.55306667 0.5761779 0.47364587
-0.98420465 0.99982268 -0.050087575
-0.92250407 0.93714297 0.046947546
-0.92363745 0.93829429 0.14149681
-1.7462097 1.7739197 0.44892117
-0.99783903 0.98846394 -0.050144032
-0.82524151 0.81748807 0.041470554
-0.9246648 0.91597718 0.13987613
-1.7611128 1.7445664 0.44706947
-1.0089989 0.97465563 -0.050084118
-0.81152642 0.78390455 0.040282093
-0.92047459 0.88914442 0.13753767
-1.7822973 1.7216333 0.44690844
-1.0176479 0.95853657 -0.049910344
-0.81695729 0.76950336 0.040067516
-0.92067081 0.86719251 0.13592456
-1.7964997 1.6921479 0.44509152
-1.0433931 0.95828176 -0.05057719
-0.73970205 0.67936331 0.035856139
-0.73666185 0.67657113 0.10749182
-0.73074442 0.67113638 0.17893749
-0.73278075 0.67300659 0.25384104
-0.732463 0.67271471 0.33086717
-1.0396082 0.93094826 -0.049821533
-0.74412006 0.66634452 0.03566074
-0.75750685 0.67833209 0.10927842
-0.76038724 0.68091148 0.18408197
-0.74510562 0.66722709 0.25517976
-0.74665415 0.66861373 0.33344799
-1.0500233 0.91671568 -0.049763508
-0.85487711 0.74634463 0.040514991
-0.99358976 0.86744672 0.14174889
-1.8250442 1.5933423 0.43693265
-1.0652435 0.90662271 -0.049939819
-0.87114167 0.74142379 0.040840104
-1.023169 0.87081343 0.14439295
-1.8372608 1.5636824 0.43510893
-1.0749232 0.89176822 -0.049863219
-1.047654 0.86914539 0.048598263
-1.0673473 0.88548321 0.14904216
-1.8383744 1.5251358 0.43079031
-1.072081 0.86685467 -0.049221121
-1.0780091 0.87164801 0.049493294
-1.0791725 0.87258869 0.14914727
-1.853109 1.4983721 0.4297877
-1.095234 0.86299735 -0.049781248
-1.1133484 0.85477006 -0.050111391
-1.1235881 0.84035885 -0.050092019
-1.1308739 0.82380927 -0.049950399
-1.1399702 0.80866295 -0.049898446
-1.1591887 0.80054837 -0.05029444
-1.1663474 0.78398752 -0.050172731
-1.167325 0.76348323 -0.049797278
-1.3250469 0.86664045 0.056525581
-1.3216754 0.86443532 0.16972238
-1.8839834 1.23221 0.4059943
-0.7481367 0.48931515 0.37012541
-0.74969047 0.49033138 0.44820559
-1.1832846 0.75282127 -0.050069738
-1.3609616 0.86586159 0.057587992
-1.3737893 0.87402278 0.17498738
-1.8907084 1.2028935 0.40414733
-0.75864589 0.48266047 0.37228826
-1.1955502 0.73964459 -0.050190657
-1.4010677 0.86679101 0.058818538
-1.4114033 0.87318528 0.17836381
-1.8898225 1.1691663 0.40077922
-1.2170732 0.73193252 -0.05070328
-1.4434012 0.8680433 0.060132105
-1.4544011 0.87465847 0.18239127
-1.9042096 1.1451676 0.40074044
-1.2093012 0.70667917 -0.050004814
-1.4972599 0.87495357 0.061911955
-1.4824518 0.86630017 0.18452637
-1.9094678 1.1158354 0.3988584
-1.217425 0.69101161 -0.049976971
-1.5436618 0.87618393 0.063369438
-1.5282221 0.86742032 0.188849
-1.8998817 1.0783746 0.39398831
-1.2218926 0.67334843 -0.049808349
-1.5778651 0.86951423 0.064318955
-1.5859385 0.87396318 0.19460587
-1.8933794 1.0433847 0.38988438
-1.2346386 0.66024399 -0.049985051
-1.6156157 0.86397797 0.065409131
-1.6173574 0.86490935 0.19710915
-1.9096566 1.0212213 0.39055723
-1.2374631 0.64184988 -0.049768243
-1.6767671 0.86970896 0.067436151
-1.9181272 0.99489808 0.2322191
-1.9055383 0.98836851 0.3871389
-1.2478576 0.62743008 -0.049864583
-1.9046831 0.95768577 0.076111428
-1.9082119 0.95946008 0.22953783
-1.9019282 0.95630056 0.38392851
-1.2486423 0.60825038 -0.049585946
-1.9275273 0.93895519 0.076545753
-1.9065565 0.92873967 0.22791386
-1.8919669 0.92163271 0.37954491
-1.2650909 0.59667271 -0.04993682
-1.925191 0.908005 0.07599289
-1.9378254 0.91396391 0.23025776
-1.9050466 0.89850402 0.37986898
-1.2668729 0.57812685 -0.049715858
-1.9347146 0.88289082 0.075923949
-1.9381393 0.88445365 0.22895356
-1.9039708 0.8688612 0.37744293
-1.2939161 0.570894 -0.050490998
-1.974925 0.87136471 0.077065229
-1.9734651 0.87072057 0.23181301
-1.9101198 0.84277171 0.37652823
-1.2904695 0.55006737 -0.050082255
-1.8809823 0.80177557 0.36876518
-1.2902284 0.53086835 -0.049809512
-1.9003541 0.78190637 0.37060332
-1.3108693 0.52015936 -0.050349507
-1.8943515 0.75168794 0.36755764
-0.73401874 0.29126224 0.4683266
-1.2931039 0.49435681 -0.04942413
-1.9004377 0.726542 0.36693433
-0.73305666 0.28024936 0.46542427
-1.3174262 0.48473245 -0.050116491
-1.9078313 0.70196551 0.36662611
-0.72910422 0.26826587 0.46073356
-1.3295679 0.47027877 -0.050349109
-1.8966757 0.67086935 0.36283022
-1.342298 0.45584869 -0.050609797
-1.9055108 0.64711756 0.36293274
-1.3226011 0.43066341 -0.049658742
-1.8935313 0.61656886 0.35914385
-1.3360339 0.41650602 -0.049962219
-1.8931063 0.59017223 0.35762537
-1.3404917 0.39944786 -0.049936861
-1.9023473 0.56687307 0.35799423
-1.3460206 0.38270998 -0.049959339
-1.8965919 0.53925228 0.3556051
-1.3536034 0.3665089 -0.050065514
-1.9002542 0.51452303 0.35504884
-1.3692652 0.35230634 -0.050476711
-1.3454159 0.32816502 -0.049441278
-1.3677057 0.31541058 -0.050110452
-1.3838736 0.30083948 -0.050560016
-1.9031076 0.41371548 0.35123941
-1.3638737 0.27855501 -0.049697224
-1.8931531 0.38665405 0.34847596
-1.3750055 0.26283824 -0.04997829
-1.9174358 0.36652613 0.35206825
-1.3660214 0.24333392 -0.049536433
-1.9218032 0.34233719 0.35205072
-1.3893189 0.22947466 -0.050272506
-1.921753 0.31741714 0.35128149
-1.3857862 0.21100219 -0.050044563
-1.9062167 0.29024386 0.34774593
-1.3782165 0.19212648 -0.049679898
-1.915493 0.26702404 0.34879714
-1.3702084 0.17345169 -0.049308591
-1.9298481 0.24429527 0.3508231
-1.3812963 0.15721112 -0.04963243
-1.9083861 0.21720143 0.34639692
-1.3872546 0.1402197 -0.049779132
-0.8851881 0.089472272 0.16045594
-1.3918235 0.12299883 -0.049883548
-0.89554614 0.079141594 0.096618801
-0.88941544 0.078599811 0.16103005
-1.3998455 0.1059627 -0.050119266
-0.88780147 0.067203015 0.16057189
-1.4006231 0.088300452 -0.050103325
-0.89421594 0.056374677 0.09629155
-0.89909446 0.056682233 0.16247243
-1.3861473 0.069877714 -0.049550086
-0.89533007 0.045134898 0.16167665
-1.3979604 0.052836284 -0.049944624
-0.90142578 0.034069624 0.096944764
-0.90774393 0.034308422 0.16382731
-1.3894495 0.035001714 -0.049620878
-0.90479386 0.022792723 0.16323017
-1.3901278 0.017508468 -0.049633291
-0.89869416 0.011318929 0.16209117
-1.3999252 3.7148275e-06 -0.049979139
-0.90020978 2.3887876e-06 0.16235167
