# .PCD v0.7 - Point Cloud Data file format
VERSION 0.7
FIELDS x y z
SIZE 4 4 4
TYPE F F F
COUNT 1 1 1
WIDTH 1411
HEIGHT 1
VIEWPOINT 0 0 0 1 0 0 0
POINTS 1411
DATA ascii
0.13089567 1.2555114 -0.29918641
0.14535831 1.3942326 -0.29796717
0.16234019 1.5571177 -0.29487428
0.18677817 1.7915194 -0.29603451
0.21826556 2.0935369 -0.29580918
0.26102003 2.5036247 -0.29419285
0.32722902 3.1386812 -0.29455349
0.51182598 4.9092793 -0.34506509
0.77127975 7.397881 -0.34627247
1.5407362 14.778273 -0.34546378
0.37740025 3.6199083 0.084828578
0.079558671 0.86907136 -0.29485196
0.086090535 0.94042319 -0.29475775
0.094686717 1.0343249 -0.29784656
0.10156291 1.1094381 -0.29159513
0.11395106 1.2447619 -0.2962594
0.12762076 1.3940849 -0.29756856
0.14421549 1.5753602 -0.29796135
0.16340983 1.7850324 -0.29459921
0.19280317 2.1061151 -0.29721981
0.2301359 2.5139248 -0.29503927
0.28703454 3.1354659 -0.29388922
0.4502416 4.9182835 -0.34527209
0.67658246 7.3907528 -0.34551266
1.3545071 14.796165 -0.34545594
0.33113384 3.6171916 0.084660485
0.19276828 2.1057339 0.098562621
0.068895862 0.87363285 -0.29608175
0.075065911 0.95187205 -0.29802626
0.079968192 1.0140353 -0.29169083
0.089056984 1.1292857 -0.29649344
0.098371916 1.2474034 -0.29656976
0.10920893 1.384822 -0.29527444
0.1231738 1.5619034 -0.29509938
0.14191909 1.7996026 -0.2966854
0.16509724 2.0935128 -0.29512456
0.19890164 2.5221689 -0.2956894
0.24793805 3.1439743 -0.29437077
0.38903826 4.9331937 -0.34594747
0.58432865 7.4095702 -0.34602097
1.1676881 14.80685 -0.34533474
0.28919941 3.6671882 0.085738637
0.057230823 0.86446959 -0.29270878
0.062282648 0.94077724 -0.29428366
0.068205915 1.030248 -0.29608393
0.074606158 1.1269234 -0.29560316
0.081841052 1.2362063 -0.29363933
0.091494627 1.3820232 -0.29440868
0.10340066 1.5618634 -0.29482248
0.11818745 1.7852174 -0.29404518
0.13893344 2.0985847 -0.29556951
0.16732012 2.5273645 -0.29602805
0.20958425 3.1657629 -0.29614025
0.32590932 4.9228492 -0.34490693
0.49002042 7.4017415 -0.34533983
0.98170525 14.828624 -0.34552684
0.13955629 2.1079929 0.049239755
0.13702047 2.0696895 0.096683286
0.04659966 0.8699398 -0.294339
0.050743997 0.94730788 -0.29610315
0.055579115 1.0375717 -0.29796392
0.060578186 1.1308962 -0.29642168
0.066441208 1.2403493 -0.29440138
0.074139923 1.3840717 -0.29462284
0.083935916 1.5669471 -0.29555914
0.096062057 1.7933224 -0.29515752
0.11290607 2.1077726 -0.2966398
0.13472582 2.5151119 -0.29437086
0.16947582 3.1638379 -0.29573709
0.26361775 4.9213147 -0.34453955
0.39687535 7.4090171 -0.34541872
0.79437518 14.829693 -0.34529132
0.19836502 3.7031522 0.086435236
0.11143834 2.0803726 0.097109087
0.036406279 0.88911378 -0.30064744
0.038130254 0.93121666 -0.29090032
0.042292509 1.0328672 -0.29643649
0.046029709 1.1241372 -0.29447478
0.050956223 1.2444524 -0.29519957
0.057834793 1.4124408 -0.30048281
0.065025412 1.58805 -0.29936141
0.073062785 1.7843387 -0.29350421
0.085925058 2.0984609 -0.29515362
0.10327189 2.5221052 -0.29501376
0.12952933 3.1633642 -0.29551691
0.20197524 4.9326372 -0.34512681
0.30356801 7.4137354 -0.34543312
0.60784137 14.844696 -0.34543502
0.15279314 3.7315128 0.087045386
0.08656811 2.1141655 0.098627798
0.0875104 2.1371782 0.14965683
0.025080385 0.88498545 -0.29912096
0.026870053 0.94813567 -0.29605645
0.028875679 1.0189061 -0.29230207
0.03191464 1.1261388 -0.29487047
0.035309024 1.2459128 -0.2954171
0.039523467 1.3946236 -0.296563
0.044334866 1.5643984 -0.29477429
0.051142424 1.8046097 -0.29670912
0.05959332 2.1028075 -0.29563603
0.071336374 2.5171726 -0.29430839
0.089817539 3.1692982 -0.29594216
0.13981137 4.9333782 -0.34502813
0.05195022 1.8331136 -0.085374229
0.052015513 1.8354175 -0.04269141
0.10592348 3.737612 0.087149642
0.060032986 2.1183217 0.098778583
0.060127914 2.1216712 0.14850616
0.056639578 1.998582 0.18673839
0.013799195 0.87658155 -0.29619828
0.0151107 0.9598937 -0.29964471
0.016070146 1.0208416 -0.29277605
0.017753631 1.1277835 -0.29521918
0.019578189 1.2436868 -0.29480746
0.021681888 1.3773226 -0.29280272
0.024620667 1.5640059 -0.29461852
0.028313531 1.7985917 -0.29563761
0.032953285 2.093328 -0.29422158
0.039728757 2.5237336 -0.29499364
0.049697116 3.1569648 -0.2947087
0.077702418 4.9359765 -0.34511405
0.028454015 1.8075157 -0.084158696
0.028608479 1.817328 -0.042258922
0.058933914 3.7437241 0.087267935
0.031390816 1.9940734 0.18626542
0.0027760726 0.88151038 -0.29782832
0.0030048958 0.95417053 -0.29782274
0.0032213151 1.0228921 -0.29332924
0.0035177511 1.1170219 -0.29236734
0.0039124005 1.2423384 -0.29445282
0.0043216692 1.3722969 -0.29169965
0.0049542775 1.5731746 -0.29631045
0.0056482106 1.7935251 -0.29476973
0.0065903445 2.092689 -0.2940968
0.0079792421 2.5337176 -0.29612541
0.01001593 3.1804447 -0.29686528
0.015533909 4.9326162 -0.34483811
0.0056501226 1.7941322 -0.08352562
0.0056346324 1.7892135 -0.04160022
0.0058209598 1.8483797 5.2768522e-05
0.005757188 1.8281296 0.042609479
0.0057966416 1.8406577 0.08579693
0.0058428589 1.8553334 0.12981239
0.0054857172 1.7419273 0.16269322
-0.0083508017 0.88437414 -0.29880771
-0.0088390335 0.93607944 -0.29218757
-0.0097391037 1.0313995 -0.29578057
-0.010729089 1.1362418 -0.29740971
-0.011840984 1.2539947 -0.29722729
-0.013074917 1.3846718 -0.29434171
-0.014805157 1.5679092 -0.29533041
-0.016976636 1.7978752 -0.29549637
-0.019907366 2.108248 -0.29629514
-0.02384498 2.5252526 -0.29514778
-0.029993905 3.1764419 -0.29650339
-0.046639379 4.9392462 -0.34531525
-0.017132781 1.8144114 -0.084473059
-0.017077694 1.8085774 -0.042052105
-0.035727926 3.7836912 0.08819259
-0.018865181 1.9978776 0.18660596
-0.01926657 0.87426537 -0.29545075
-0.020733386 0.94082552 -0.29372725
-0.022781815 1.0337777 -0.2965214
-0.025037101 1.1361165 -0.29743585
-0.027665718 1.2553961 -0.29761845
-0.030826686 1.3988324 -0.29741082
-0.034653638 1.5724893 -0.2962518
-0.039852783 1.8084124 -0.2972872
-0.046349742 2.1032271 -0.2956481
-0.055961024 2.5393615 -0.29685563
-0.07008411 3.1802292 -0.29691574
-0.10861025 4.9284425 -0.34462824
-0.04030104 1.8287534 -0.085157648
-0.040216777 1.8249296 -0.042440731
-0.083082169 3.7700462 0.087891966
-0.04403089 1.9980038 0.18665475
-0.030147186 0.87031835 -0.29422185
-0.032795034 0.94675905 -0.29568517
-0.035748094 1.0320109 -0.29612023
-0.039463654 1.1392753 -0.29836926
-0.043249153 1.2485588 -0.29610315
-0.048471034 1.399309 -0.29761833
-0.054222472 1.5653472 -0.29501152
-0.061688241 1.7808764 -0.29286498
-0.072498359 2.0929534 -0.29430893
-0.087333091 2.5212169 -0.29483968
-0.10952208 3.1617904 -0.29529959
-0.17101727 4.9370933 -0.34535637
-0.25690213 7.416501 -0.34547973
-0.51426125 14.846195 -0.3453877
-0.13156386 3.7981141 0.088577919
-0.055422317 1.5999856 0.074623056
-0.055562843 1.6040423 0.11229703
-0.054760713 1.5808856 0.14774002
-0.040754814 0.86249775 -0.29172838
-0.044134837 0.93402946 -0.29185998
-0.04842817 1.0248897 -0.29422855
-0.053522956 1.1327111 -0.29680312
-0.058982767 1.2482575 -0.29618439
-0.065806597 1.392671 -0.29635921
-0.074653931 1.5799078 -0.2979092
-0.084726185 1.7930679 -0.29502195
-0.099506684 2.1058688 -0.29627779
-0.11924567 2.5236068 -0.29527134
-0.14954448 3.1648231 -0.29573527
-0.18106063 3.8318021 -0.26817799
-0.18107006 3.8320019 -0.17859657
-0.18074365 3.8250942 -0.089034379
-0.18030606 3.8158333 0.00010905743
-0.17895558 3.7872531 0.088370174
-0.075876206 1.6057749 0.074931689
-0.074938558 1.5859314 0.11108636
-0.074671037 1.5802698 0.14775862
-0.052687068 0.87987876 -0.29780805
-0.056838211 0.94920325 -0.29680151
-0.06125281 1.0229274 -0.29386336
-0.068227872 1.1394117 -0.29876029
-0.075151421 1.2550354 -0.29799354
-0.083089456 1.3876014 -0.29547963
-0.094106331 1.5715842 -0.29653963
-0.10663279 1.7807772 -0.29319736
-0.12657344 2.1137879 -0.29759255
-0.15097962 2.5213733 -0.29520905
-0.18957976 3.1659987 -0.29604474
-0.22832225 3.8130021 -0.26704228
-0.228829 3.8214648 -0.17822564
-0.22826359 3.8120222 -0.088789977
-0.22842953 3.8147936 0.00010910128
-0.22775713 3.8035645 0.088810652
-0.095149085 1.5889983 0.11137627
-0.063583598 0.87669092 -0.29697654
-0.068255633 0.941109 -0.29451597
-0.07464309 1.0291792 -0.29590592
-0.082282037 1.134505 -0.29772183
-0.090824708 1.2522914 -0.29758996
-0.10049066 1.3855656 -0.2952922
-0.11424333 1.5751874 -0.29746741
-0.1307057 1.8021708 -0.29696718
-0.15198092 2.0955136 -0.29526582
-0.18309064 2.5244546 -0.2958163
-0.22955661 3.1651275 -0.29621008
-0.2754707 3.7981913 -0.26622683
-0.27565128 3.8006811 -0.17740414
-0.2772454 3.8226607 -0.089112014
-0.27664745 3.8144164 0.00010918146
-0.11638625 1.6047341 0.037500698
-0.11618631 1.6019773 0.074867301
-0.11564466 1.594509 0.11185574
-0.073169179 0.85882515 -0.2912136
-0.080289416 0.94239908 -0.29521269
-0.087975264 1.032612 -0.29718781
-0.096260346 1.1298584 -0.29679698
-0.10671617 1.2525837 -0.29795516
-0.11759032 1.3802193 -0.29444501
-0.13267492 1.5572753 -0.29437694
-0.15273203 1.7926961 -0.29569939
-0.17859958 2.0963173 -0.29567251
-0.21408281 2.5128026 -0.29474345
-0.26735792 3.1381204 -0.29397437
-0.419651 4.9256644 -0.34559786
-0.63086092 7.4047461 -0.34597424
-1.2616535 14.808691 -0.34555599
-0.32303724 3.7916582 0.088694505
-0.13605811 1.5969856 0.11214076
-0.085835055 0.87681574 -0.2976568
-0.09201137 0.93990761 -0.29477179
-0.10059707 1.0276116 -0.2960898
-0.10908532 1.1143202 -0.29305294
-0.12103362 1.2363734 -0.29443836
-0.13504432 1.3794945 -0.29462981
-0.15286028 1.5614868 -0.29551348
-0.17490023 1.7866277 -0.29503831
-0.20354126 2.0791993 -0.29359636
-0.24593225 2.5122285 -0.29501599
-0.30760604 3.1422338 -0.29469922
-0.48215109 4.9252334 -0.34596616
-0.72298735 7.3854055 -0.34546855
-1.4472594 14.783936 -0.34537619
-0.37120372 3.7918921 0.088802278
-0.096440263 0.87179506 -0.29634115
-0.10439233 0.94367969 -0.29634356
-0.11268796 1.0186701 -0.293899
-0.12434626 1.1240581 -0.29600221
-0.13725734 1.2407708 -0.29587373
-0.15380493 1.3903568 -0.29733983
-0.17199107 1.5547547 -0.29462594
-0.19770773 1.7872268 -0.29552492
-0.23033415 2.0821612 -0.29440081
-0.27644831 2.4990213 -0.29385051
-0.34607849 3.1284599 -0.29379281
-0.5433104 4.9113855 -0.34544662
-0.81506109 7.3679414 -0.34510437
-1.6331682 14.763418 -0.34534997
-0.41932234 3.7905655 0.088887818
-0.10854686 0.87972885 -0.29947892
-0.11565151 0.93730921 -0.29477698
-0.12593569 1.0206584 -0.29490682
-0.13855948 1.122969 -0.2961514
-0.15279172 1.2383158 -0.29572365
-0.16992946 1.3772103 -0.29496256
-0.19217616 1.557511 -0.29558337
-0.21978369 1.7812589 -0.29497236
-0.2573615 2.0858121 -0.2953518
-0.30889988 2.50351 -0.29481232
-0.38805014 3.1449912 -0.29578069
-0.60378081 4.8934021 -0.34468916
-0.90791976 7.3583264 -0.34516212
-1.8189238 14.741651 -0.34534916
-0.46676767 3.7829652 0.08884038
-0.23512089 1.9055609 0.089495331
-0.23282363 1.8869424 0.13302451
-0.11934408 0.87630236 -0.29880035
-0.12755972 0.93662703 -0.29504421
-0.13961636 1.0251546 -0.2966904
-0.15288404 1.1225747 -0.29653162
-0.16914652 1.2419845 -0.29708487
-0.18666165 1.370592 -0.29402518
-0.21214323 1.5576944 -0.29610166
-0.24131311 1.7718788 -0.29389894
-0.28252214 2.0744627 -0.29422516
-0.34044933 2.4998019 -0.29485711
-0.4206734 3.0888596 -0.29097673
-0.42084622 3.0901284 -0.21802334
-0.41964087 3.0812778 -0.14477204
-2.0022817 14.702063 -0.34498507
-0.51269567 3.7645471 0.088552438
-0.25874093 1.8998452 0.089372836
-0.25982112 1.9077768 0.13471325
-0.24226454 1.7788649 0.16767602
-0.12750581 0.85552359 -0.29223955
-0.13930117 0.93466669 -0.29495585
-0.15007004 1.0069225 -0.29193759
-0.16606735 1.1142594 -0.29486406
-0.18310399 1.2285697 -0.29440424
-0.20183273 1.3542336 -0.29103807
-0.2297426 1.5415002 -0.29354998
-0.23803999 1.5971729 -0.26539686
-0.23644374 1.5864627 -0.22541557
-0.23707013 1.5906655 -0.1879597
-0.23739004 1.5928121 -0.15031576
-0.23543662 1.5797052 -0.11165608
-0.23869932 1.601597 -0.07538534
-0.23644426 1.5864661 -0.03729346
-0.23924281 1.6052434 4.6333284e-05
-0.23674163 1.5884614 0.037432112
-0.23613299 1.5843776 0.074666508
-0.2341114 1.5708134 0.11111872
-0.23945628 1.6066759 0.15171765
-0.1384501 0.85497624 -0.29262489
-0.15008053 0.92679811 -0.29304588
-0.16500303 1.0189496 -0.29600355
-0.18070391 1.1159078 -0.29587901
-0.19807857 1.2232022 -0.29369241
-0.22338836 1.3794987 -0.29704875
-0.24966653 1.5417753 -0.29417774
-0.28466743 1.7579179 -0.29267976
-0.33436006 2.0647864 -0.29395404
-0.40147895 2.4792686 -0.29353487
-0.42082998 2.5987678 -0.24572971
-0.4203333 2.5957003 -0.18382777
-0.41986978 2.592838 -0.12228109
-2.3753278 14.668453 -0.34549075
-0.60333371 3.72579 0.087970339
-0.14863747 0.84992397 -0.2915132
-0.16182466 0.92532963 -0.29320264
-0.17743513 1.0145919 -0.29536328
-0.19493316 1.1146474 -0.29617214
-0.21681882 1.2397918 -0.29830748
-0.23753637 1.3582568 -0.29309556
-0.27188405 1.5546603 -0.29726592
-0.31038138 1.7747918 -0.29611638
-0.35916159 2.0537219 -0.29299948
-0.4214333 2.4097979 -0.28591546
-0.417748 2.388725 -0.22634833
-0.41906995 2.3962839 -0.17006531
-0.42164868 2.4110293 -0.11394817
-2.5600805 14.638798 -0.34552416
-0.64824039 3.7067034 0.087705463
-0.16053674 0.85442227 -0.29372612
-0.1715917 0.91325992 -0.29003984
-0.19036819 1.0131937 -0.29563066
-0.20856631 1.1100494 -0.29562482
-0.22992522 1.2237275 -0.29511547
-0.25525242 1.3585261 -0.29382396
-0.29100996 1.5488379 -0.29682976
-0.3339662 1.7774632 -0.29724017
-0.38708472 2.0601752 -0.29459217
-0.43031558 2.290262 -0.27235422
-0.42935976 2.2851751 -0.21703134
-0.42842758 2.2802136 -0.16219777
-0.43143734 2.2962325 -0.10877086
-2.7430468 14.599276 -0.34537923
-0.69545305 3.7013993 0.087780207
-0.17342791 0.86301047 -0.29740566
-0.18686363 0.92986923 -0.2960386
-0.20422287 1.0162522 -0.29724985
-0.22160825 1.1027651 -0.29440475
-0.24487334 1.2185367 -0.29458392
-0.271725 1.3521557 -0.29316294
-0.30555972 1.5205238 -0.29211769
-0.35304189 1.756804 -0.29450548
-0.4136827 2.0585644 -0.29508334
-0.46196166 2.2988098 -0.27404073
-0.46180028 2.2980065 -0.21878494
-0.46228969 2.300442 -0.16403775
-0.45912299 2.2846839 -0.10848907
-2.9276195 14.568396 -0.34549344
-0.73990893 3.6819286 0.087532476
-0.18186769 0.84948838 -0.29351169
-0.19572747 0.91422623 -0.2918199
-0.21634346 1.0105218 -0.29634705
-0.23766458 1.1101109 -0.29714122
-0.26309747 1.2289057 -0.29786792
-0.29032874 1.3561007 -0.29478753
-0.32835394 1.5337131 -0.29542249
-0.37487027 1.7509869 -0.29429829
-0.44073001 2.0586121 -0.29586223
-0.49313295 2.3033817 -0.27530417
-0.49087161 2.2928193 -0.21886221
-0.48941806 2.2860298 -0.16343656
-0.49024087 2.2898731 -0.10901997
-3.1082618 14.518424 -0.34520918
-0.78338677 3.6591322 0.087218128
-0.19282503 0.84834391 -0.2939319
-0.2108603 0.92769104 -0.29694188
-0.22908486 1.007871 -0.29639217
-0.24927442 1.096696 -0.29436737
-0.27953529 1.2298304 -0.29892156
-0.30861005 1.3577462 -0.29596654
-0.34791368 1.5306647 -0.29565573
-0.39863214 1.7538031 -0.29559189
-0.46450496 2.0436141 -0.29452401
-0.52179378 2.2956593 -0.2751447
-0.52024281 2.2888358 -0.21908991
-0.51993281 2.287472 -0.16399474
-0.5150699 2.2660773 -0.10818727
-3.2916586 14.481827 -0.34529716
-0.82731152 3.6398008 0.086998761
-0.20543888 0.85394371 -0.29674488
-0.22211255 0.92325085 -0.29639238
-0.24012822 0.99813622 -0.29439527
-0.2633512 1.0946667 -0.29468942
-0.29107982 1.2099258 -0.29495108
-0.32489216 1.3504729 -0.29524946
-0.36663041 1.5239654 -0.29523009
-0.41821581 1.7383894 -0.29385829
-0.49358934 2.0516932 -0.29656062
-0.54785424 2.2772551 -0.27374399
-0.5509426 2.2900922 -0.21985684
-0.54996574 2.2860317 -0.16437495
-0.55285096 2.2980247 -0.11003616
-3.4733882 14.437764 -0.34526205
-0.87025589 3.6173754 0.086717807
-0.21614005 0.85115254 -0.29669723
-0.23280126 0.91676384 -0.29522753
-0.25469831 1.0029937 -0.2967504
-0.27633077 1.0881817 -0.29385704
-0.30552396 1.2031435 -0.29421225
-0.33913678 1.3355098 -0.29288852
-0.38578704 1.5192169 -0.29522789
-0.44307101 1.7447994 -0.29586148
-0.51843816 2.0415928 -0.29602084
-0.58096004 2.287802 -0.27586934
-0.58368194 2.2985208 -0.22135407
-0.57969081 2.2828038 -0.16465466
-0.58178121 2.2910357 -0.11004356
-3.6579354 14.404832 -0.34554863
-0.90912795 3.5801165 0.086092226
-0.22469115 0.84032726 -0.29388669
-0.24411236 0.91296107 -0.29496941
-0.26755419 1.0006317 -0.29702479
-0.28983536 1.0839615 -0.29367968
-0.32166508 1.2030021 -0.29514477
-0.3596068 1.3449012 -0.29591778
-0.39223704 1.4669358 -0.28600526
-0.39318717 1.4704891 -0.25016707
-0.39203748 1.4661893 -0.21328905
-0.39437887 1.474946 -0.17843765
-0.38999224 1.4585403 -0.14092332
-0.39312425 1.4702538 -0.10639546
-0.61270165 2.291456 -0.11042558
-3.8344886 14.340687 -0.34514078
-0.950571 3.5550609 0.085770741
-0.23762071 0.84585601 -0.29684314
-0.26011342 0.92592299 -0.30019176
-0.27978706 0.99595505 -0.29665887
-0.30032393 1.06906 -0.29064396
-0.33537728 1.1938391 -0.29390952
-0.37775463 1.3446892 -0.29689422
-0.39171258 1.3943752 -0.27279836
-0.39102969 1.3919443 -0.23762348
-0.394591 1.4046215 -0.20503925
-0.39517543 1.4067019 -0.17077
-0.3960253 1.4097271 -0.13667801
-0.39146563 1.3934962 -0.10118956
-0.64215034 2.285856 -0.11053662
-4.017911 14.302516 -0.34541243
-0.99099958 3.5276508 0.085403733
-0.24464458 0.83054936 -0.29252937
-0.26410404 0.8966127 -0.2917442
-0.28961974 0.98323649 -0.29393348
-0.31819734 1.0802553 -0.29475355
-0.35454902 1.2036663 -0.29740441
-0.38874179 1.3197482 -0.29244509
-0.39505833 1.3411924 -0.26334593
-0.39789799 1.3508327 -0.23144217
-0.39581746 1.3437696 -0.19686836
-0.39204487 1.3309618 -0.16216181
-0.39331666 1.3352795 -0.12992993
-0.39064282 1.3262019 -0.096652493
-0.67479968 2.2908924 -0.11118225
-4.1955304 14.2435 -0.34523565
-1.0259286 3.4829478 0.084627531
-0.25993785 0.84315121 -0.29809713
-0.28141382 0.91281211 -0.29814464
-0.301994 0.97956723 -0.29395008
-0.33437201 1.0845908 -0.29706183
-0.36347741 1.1789988 -0.29241723
-0.39472619 1.2803594 -0.2847957
-0.39415485 1.2785062 -0.25199193
-0.39479944 1.280597 -0.22024278
-0.39333597 1.2758501 -0.1876286
-0.39455134 1.2797923 -0.15652032
-0.39555034 1.2830328 -0.12532078
-0.40036812 1.29866 -0.095005155
-0.70561588 2.2887814 -0.11150218
-4.3779879 14.200725 -0.34550771
-1.067884 3.4638577 0.08448372
-0.26799515 0.83193159 -0.29530013
-0.28699741 0.89091992 -0.29215139
-0.31728569 0.98494321 -0.29673871
-0.34906876 1.0836066 -0.29797256
-0.3798466 1.1791496 -0.29361767
-0.39307961 1.2202286 -0.27249995
-0.392739 1.2191713 -0.24125272
-0.39158195 1.2155795 -0.20989218
-0.39273202 1.2191497 -0.18000315
-0.39386606 1.22267 -0.15012886
-0.39061779 1.2125864 -0.11891092
-0.41613373 1.291795 -0.094878748
-0.7413035 2.3012125 -0.11255361
-4.5569797 14.146133 -0.34554821
-1.1016322 3.4197733 0.083740205
-0.27525678 0.81899339 -0.29191479
-0.29885063 0.88919401 -0.29279625
-0.33236536 0.98891318 -0.29917192
-0.35502756 1.0563418 -0.29168141
-0.39868686 1.1862447 -0.29661098
-0.38978705 1.1597644 -0.26007268
-0.39231506 1.1672863 -0.23194475
-0.39395866 1.1721765 -0.20323832
-0.39482707 1.1747603 -0.17416948
-0.39291793 1.16908 -0.14414476
-0.39538968 1.1764344 -0.11584476
-0.42533949 1.2655464 -0.09333685
-0.76847392 2.2865016 -0.11229849
-4.7290883 14.070833 -0.34513614
-1.1319728 3.3680487 0.082816094
-0.28786173 0.82207286 -0.29428107
-0.31101039 0.88818055 -0.29372883
-0.34139854 0.97496277 -0.29622865
-0.37002674 1.0567188 -0.29304889
-0.39492309 1.1278176 -0.28322276
-0.39292526 1.1221123 -0.25271881
-0.39166221 1.1185052 -0.22321406
-0.39435992 1.1262094 -0.19611374
-0.3956539 1.1299047 -0.16824451
-0.3939651 1.1250819 -0.13932051
-0.39335123 1.1233287 -0.11109433
-0.45088047 1.2876202 -0.095376015
-0.80730569 2.305496 -0.11372164
-1.1687311 3.3376513 -0.08222197
-1.1744741 3.3540523 0.0001014535
-1.167634 3.3345182 0.082346626
-0.30211067 0.829144 -0.29815054
-0.32401538 0.88926154 -0.29541221
-0.35601586 0.97708702 -0.29821253
-0.38831031 1.0657192 -0.29687735
-0.40528893 1.1123171 -0.28058955
-0.40287733 1.1056985 -0.25014487
-0.40576842 1.113633 -0.22324373
-0.40601811 1.1143184 -0.19491793
-0.40631443 1.1151316 -0.16679339
-0.4036755 1.1078891 -0.13781004
-0.40552858 1.1129748 -0.1105666
-0.46423525 1.2740955 -0.094799705
-0.83931416 2.3035011 -0.11413551
-1.2049894 3.3070986 -0.081836618
-1.2053441 3.3080716 0.00010051381
-1.1967874 3.2845879 0.081479289
-0.30854818 0.81476855 -0.29435506
-0.33164951 0.87577116 -0.29229486
-0.36334714 0.95947361 -0.2942099
-0.39870337 1.0528371 -0.294664
-0.42321572 1.1175658 -0.28323543
-0.41470701 1.0950971 -0.24890815
-0.41789201 1.1035076 -0.22225119
-0.41698641 1.1011162 -0.19351174
-0.4203409 1.1099743 -0.16680047
-0.42217126 1.1148077 -0.13932085
-0.42199191 1.1143341 -0.11122071
-0.47765499 1.2613209 -0.094289258
-0.86649537 2.2881134 -0.11390466
-1.2529233 3.3085351 -0.082256064
-1.247541 3.2943225 0.00010056539
-1.2324576 3.2544925 0.081111267
-0.31884447 0.81097621 -0.29441214
-0.34725317 0.88323331 -0.29622135
-0.38065773 0.96819735 -0.29833108
-0.41114143 1.0457321 -0.29410115
-0.43609306 1.1091963 -0.28248364
-0.43407291 1.104058 -0.25216728
-0.43473205 1.1057346 -0.22378451
-0.43139476 1.0972462 -0.19377092
-0.43744233 1.1126281 -0.16801371
-0.42963573 1.0927722 -0.13723224
-0.42742306 1.0871444 -0.10903548
-0.49417984 1.2569392 -0.094419397
-0.89939678 2.2876024 -0.11443395
-1.2970942 3.2991402 -0.082422026
-1.3008714 3.3087471 0.00010149775
-1.2533187 3.1877978 0.079836056
-0.32992136 0.80908233 -0.29520941
-0.35512683 0.87089497 -0.29355979
-0.38638666 0.94755495 -0.29344648
-0.42379624 1.0392963 -0.29376867
-0.44395512 1.088733 -0.27867377
-0.44720948 1.0967137 -0.2517561
-0.44602856 1.0938177 -0.22249177
-0.44394276 1.0887026 -0.19323403
-0.44147524 1.0826514 -0.16431348
-0.4384023 1.0751154 -0.13569739
-0.44768649 1.0978836 -0.1106692
-0.51235777 1.25648 -0.094862036
-0.9372046 2.2983527 -0.11555291
-5.6081266 13.753084 -0.34532857
-1.2830019 3.1463685 0.079196818
-0.3438639 0.81381339 -0.29849184
-0.37088895 0.87777281 -0.29742885
-0.40303472 0.95385128 -0.29694453
-0.43554857 1.0308011 -0.29289442
-0.45877191 1.085763 -0.27937013
-0.46326491 1.0963964 -0.25300232
-0.46070522 1.0903386 -0.22294642
-0.45850223 1.0851247 -0.1936084
-0.45458362 1.0758507 -0.1641371
-0.45674184 1.0809585 -0.13714993
-0.45904076 1.0863993 -0.1100855
-0.52532399 1.2432699 -0.094356634
-0.96628881 2.2868893 -0.11557916
-5.7818336 13.683708 -0.34538728
-1.3013104 3.079776 0.077926911
-0.35312578 0.80722976 -0.29768446
-0.37597263 0.85945666 -0.2928035
-0.4134573 0.94514495 -0.2958315
-0.44724962 1.0223926 -0.29208234
-0.47280985 1.0808222 -0.27960858
-0.47277778 1.0807489 -0.25074542
-0.47227988 1.0796107 -0.22195128
-0.48166415 1.1010628 -0.19751857
-0.46799845 1.0698236 -0.16410364
-0.47067448 1.0759408 -0.13725442
-0.47096294 1.0766002 -0.1096848
-0.53894418 1.2320024 -0.094009101
-0.99705392 2.2792208 -0.11581694
-5.9543571 13.611395 -0.34542719
-1.333588 3.0485227 0.077554874
-1.3218297 3.0216436 0.15373133
-0.36512658 0.80684024 -0.2992126
-0.39034554 0.86256796 -0.29551461
-0.42808521 0.94596338 -0.29775128
-0.46582827 1.0293663 -0.29572695
-0.47983801 1.0603244 -0.27584705
-0.48955822 1.0818037 -0.2524004
-0.48593304 1.0737929 -0.22199559
-0.48468319 1.071031 -0.19321074
-0.48188695 1.0648521 -0.16425881
-0.48218566 1.0655121 -0.13668777
-0.49208596 1.0873893 -0.11140647
-0.55350667 1.223114 -0.093855269
-1.0386117 2.2950771 -0.11727794
-6.1235948 13.531643 -0.34533274
-1.3441663 2.9702778 0.075988889
-1.3367065 2.9537938 0.15112375
-0.37100592 0.79309201 -0.29582319
-0.40002087 0.85511672 -0.29466417
-0.43576622 0.93152881 -0.29491165
-0.47941816 1.0248427 -0.29613826
-0.50434524 1.0781289 -0.28210878
-0.49968779 1.0681727 -0.25066826
-0.50045085 1.069804 -0.2224561
-0.49480256 1.0577297 -0.19192
-0.49961197 1.0680107 -0.16570336
-0.49346274 1.0548655 -0.13610832
-0.49585497 1.0599794 -0.10922928
-0.57306242 1.2250242 -0.094548076
-1.0743685 2.2966564 -0.11804058
-6.2942934 13.455187 -0.34537688
-1.3671089 2.9224417 0.075199537
-1.3540373 2.8944988 0.14895058
-0.37860075 0.78347033 -0.29398927
-0.40743476 0.84313899 -0.29228154
-0.44832581 0.92775828 -0.2954818
-0.49280712 1.0198072 -0.29645282
-0.50831372 1.0518963 -0.27689752
-0.51064003 1.0567104 -0.24946755
-0.51652491 1.0688885 -0.22360051
-0.50675899 1.048679 -0.19142047
-0.50979924 1.0549704 -0.16466309
-0.51105696 1.0575732 -0.13727714
-0.51162702 1.0587529 -0.10975808
-0.5868032 1.2143213 -0.094284832
-1.107785 2.2924328 -0.11853107
-6.459805 13.367818 -0.34519485
-1.37719 2.8499351 0.073774204
-1.370663 2.8364282 0.14683881
-0.39738005 0.79657096 -0.30075896
-0.42774385 0.8574369 -0.29908147
-0.46008676 0.92227012 -0.29555562
-0.49705189 0.99636883 -0.29143575
-0.53073215 1.0638828 -0.28178972
-0.51602972 1.034411 -0.24571769
-0.52066553 1.0437037 -0.2196862
-0.53377974 1.0699918 -0.19652213
-0.52651745 1.0554342 -0.16575716
-0.52748644 1.0573766 -0.13810287
-0.52224827 1.0468763 -0.10919996
-0.60028845 1.2033124 -0.094009519
-1.1484228 2.302079 -0.11976805
-6.6368837 13.304011 -0.34567788
-1.3882043 2.7827346 0.072481401
-1.3749714 2.7562084 0.14357086
-0.39675692 0.77086765 -0.29291734
-0.43632096 0.84773749 -0.29759112
-0.47325504 0.91949755 -0.29655337
-0.51143777 0.99368364 -0.29251087
-0.53615856 1.0417142 -0.27768415
-0.54550296 1.0598696 -0.25337687
-0.53980255 1.0487942 -0.22217083
-0.53730613 1.0439439 -0.19296533
-0.53132015 1.0323135 -0.16316386
-0.54145139 1.0519978 -0.13827989
-0.54679942 1.0623885 -0.11152741
-0.6173054 1.1993761 -0.094301805
-1.180226 2.2930868 -0.12006391
-6.7923574 13.19702 -0.34509292
-1.3945889 2.7095773 0.071027659
-1.3879106 2.6966019 0.14136513
-0.40922412 0.77107269 -0.29492992
-0.44875625 0.84556031 -0.29878682
-0.47978872 0.90403265 -0.29349092
-0.52457398 0.9884184 -0.2928822
-0.54384041 1.0247208 -0.27495798
-0.55286235 1.0417202 -0.25068238
-0.55102617 1.0382605 -0.22139171
-0.554865 1.0454936 -0.19452786
-0.55362749 1.043162 -0.16596723
-0.55257881 1.041186 -0.13776241
-0.54711366 1.0308883 -0.10893518
-0.63910812 1.2042271 -0.09530843
-1.2081141 2.2763658 -0.11997543
-6.9668951 13.127238 -0.3455348
-1.3964764 2.6312838 0.069430761
-1.3912921 2.6215153 0.13833629
-0.41454476 0.75789559 -0.29186329
-0.45686501 0.83526802 -0.29715922
-0.49681604 0.90830892 -0.29688665
-0.54383647 0.9942745 -0.29662311
-0.56254756 1.0284832 -0.27784625
-0.56322151 1.0297154 -0.24948046
-0.56295502 1.0292281 -0.22095977
-0.56239092 1.0281968 -0.19261195
-0.56444412 1.0319506 -0.16530122
-0.56023854 1.0242617 -0.13644573
-0.5622052 1.0278573 -0.10935431
-0.64694744 1.1827883 -0.094248928
-3.5637927 6.5155401 -0.34573805
-7.1259007 13.028 -0.34525719
-1.4021858 2.5635602 0.06810426
-1.3922399 2.5453768 0.13523288
-0.43209875 0.76689249 -0.29739973
-0.46112752 0.81841302 -0.29320535
-0.50006682 0.88752282 -0.29212761
-0.55417699 0.983558 -0.29548448
-0.57777131 1.0254334 -0.27896568
-0.5799064 1.0292227 -0.2511104
-0.58394331 1.0363876 -0.22405764
-0.57324558 1.0174011 -0.19192661
-0.58534729 1.0388794 -0.16757849
-0.57771456 1.0253327 -0.13754658
-0.57455659 1.0197278 -0.10925049
-0.6642344 1.1788888 -0.094597198
-3.6433573 6.4662614 -0.34553021
-7.2854328 12.930248 -0.34507051
-1.3952454 2.4762933 0.066247404
-1.3910553 2.4688568 0.13208763
-0.44325832 0.76404166 -0.29843503
-0.47288501 0.81510901 -0.29413167
-0.51493442 0.88758934 -0.29426044
-0.56662518 0.97668833 -0.29554078
-0.58627725 1.0105624 -0.27690652
-0.59536731 1.0262309 -0.25218958
-0.58687621 1.011595 -0.22027791
-0.59026688 1.0174394 -0.19332065
-0.58936524 1.0158852 -0.16505341
-0.59259433 1.0214511 -0.13801597
-0.59541166 1.0263075 -0.11074988
-0.67902863 1.1704375 -0.094597653
-3.728471 6.4267426 -0.34589988
-7.4530592 12.846792 -0.34532052
-1.3972226 2.4083841 0.064896196
-1.3922542 2.3998201 0.12932177
-0.44281751 0.7416091 -0.29182774
-0.4774268 0.79957098 -0.29067111
-0.52727848 0.88306022 -0.29493672
-0.58016562 0.97163302 -0.29619822
-0.59992099 1.0047182 -0.27735314
-0.59702635 0.99987048 -0.24753951
-0.60798919 1.0182306 -0.22337221
-0.60445881 1.0123179 -0.1937784
-0.60361737 1.0109088 -0.1654667
-0.60457909 1.0125194 -0.13782685
-0.60818696 1.0185617 -0.11073168
-0.69094801 1.1571659 -0.094220743
-1.4054598 2.3537951 -0.12762828
-1.4101135 2.361589 -0.0639515
-1.4144307 2.3688192 7.8764162e-05
-1.4050684 2.3531396 0.063879266
-1.3862157 2.3215661 0.12603547
-0.45258886 0.73673761 -0.29213026
-0.49720842 0.8093707 -0.2964862
-0.54315084 0.88415712 -0.29756385
-0.58668298 0.95502001 -0.29336265
-0.6227861 1.0137898 -0.28199983
-0.61728144 1.0048292 -0.2506716
-0.62075227 1.010479 -0.22336879
-0.61617517 1.0030284 -0.19347008
-0.62075198 1.0104786 -0.1666625
-0.61375207 0.99908388 -0.13703912
-0.61713958 1.0045981 -0.11004976
-0.70581949 1.148954 -0.094268307
-1.4240214 2.3180645 -0.12665312
-1.4297087 2.3273225 -0.063506059
-1.4280674 2.3246508 7.7887293e-05
-1.406058 2.2888229 0.062608972
-1.3906232 2.2636979 0.12383469
-0.46532783 0.73651791 -0.2943432
-0.5097236 0.80678719 -0.29786742
-0.5484845 0.86813772 -0.29447359
-0.59976208 0.94929951 -0.29390204
-0.62526691 0.98966837 -0.27745828
-0.63150376 0.99954003 -0.25131601
-0.63765776 1.0092806 -0.224861
-0.63334721 1.0024579 -0.1948829
-0.62645012 0.99154115 -0.16482706
-0.62734175 0.99295241 -0.13727078
-0.63993871 1.0128908 -0.11183207
-0.72274542 1.1439568 -0.094597511
-1.4526892 2.2993071 -0.1266177
-1.4639655 2.3171551 -0.063726597
-1.4581335 2.3079243 7.7935882e-05
-1.3944343 2.2071016 0.060849041
-1.3823802 2.1880226 0.1206376
-0.4818663 0.74184155 -0.29887199
-0.51572931 0.79397422 -0.29551107
-0.56004548 0.86219978 -0.29482818
-0.61099577 0.9406386 -0.29357934
-0.65354079 1.0061374 -0.28436008
-0.64678764 0.99574083 -0.25238854
-0.64454097 0.99228209 -0.2228644
-0.64012957 0.98549062 -0.1931361
-0.64054328 0.9861275 -0.16525485
-0.64265913 0.98938495 -0.13788541
-0.63855207 0.98306209 -0.10941781
-0.73538488 1.1321378 -0.094378427
-1.4905232 2.2946863 -0.12738672
-1.4925569 2.2978175 -0.063706607
-1.4893867 2.2929366 7.8056903e-05
-1.402084 2.1585326 0.059992008
-1.3915178 2.1422658 0.11907145
-0.4763304 0.71348923 -0.28984296
-0.52843082 0.79152977 -0.29705435
-0.56493556 0.84620982 -0.29176983
-0.625893 0.93751711 -0.29504153
-0.66313642 0.9933036 -0.2830705
-0.65755641 0.98494542 -0.25173101
-0.65767872 0.98512864 -0.22310011
-0.66144764 0.99077398 -0.19578834
-0.65264082 0.9775824 -0.16518697
-0.65593237 0.98251271 -0.13806781
-0.66131335 0.99057287 -0.11117183
-0.75246257 1.127104 -0.094741166
-1.5356054 2.3001637 -0.12875403
-1.5423493 2.3102655 -0.064585067
-1.5327272 2.2958527 7.8806952e-05
-1.3974984 2.0932951 0.058663297
-1.390952 2.0834892 0.11676879
-0.49829277 0.72641045 -0.29761735
-0.52954245 0.77196622 -0.29219162
-0.58289891 0.84974915 -0.29549757
-0.64148432 0.93515486 -0.29681671
-0.67616296 0.98570937 -0.28331026
-0.67075008 0.97781843 -0.25204819
-0.67081815 0.97791773 -0.22336236
-0.66794842 0.9737342 -0.19406781
-0.67221016 0.97994697 -0.1670036
-0.66836911 0.97434747 -0.13809215
-0.66850132 0.97454023 -0.11030849
-0.76277173 1.1119674 -0.094268717
-4.2002921 6.1231794 -0.34568447
-8.4143505 12.266427 -0.34585109
-1.4038168 2.0464821 0.057842199
-1.3911892 2.0280735 0.11463574
-0.50286126 0.71363807 -0.29495534
-0.54950905 0.77983856 -0.29776677
-0.6054889 0.85928255 -0.30144027
-0.6391114 0.90699816 -0.29041114
-0.68616289 0.97377145 -0.28234008
-0.69158852 0.9814713 -0.25521436
-0.67864788 0.96310657 -0.22191368
-0.6867286 0.97457433 -0.19594316
-0.67714018 0.96096689 -0.16520903
-0.68865001 0.97730106 -0.13972868
-0.69042593 0.97982138 -0.11188147
-0.78182507 1.1095309 -0.094889253
-4.2715735 6.0620251 -0.34524125
-8.5551443 12.141076 -0.34532684
-1.4028507 1.9908626 0.056764945
-1.3856601 1.9664664 0.11213081
-0.5162484 0.71338737 -0.29751495
-0.55799717 0.77107865 -0.29708135
-0.60292262 0.83315969 -0.29491621
-0.66190588 0.91466677 -0.29551187
-0.70184189 0.9698531 -0.28374395
-0.70474333 0.97386253 -0.25552315
-0.70550382 0.97491342 -0.22666316
-0.68767333 0.95027399 -0.19278318
-0.69469839 0.95998174 -0.16653036
-0.69472158 0.96001375 -0.1384968
-0.70382655 0.97259563 -0.1120595
-0.79147059 1.0937082 -0.094380915
-4.3456912 6.0051732 -0.34509259
-8.7095375 12.035435 -0.3454141
-1.3997787 1.9343101 0.05565064
-1.3871169 1.916813 0.11028675
-0.51699746 0.69580477 -0.29287404
-0.56154215 0.75575554 -0.29387867
-0.61593884 0.82896572 -0.2961536
-0.67211592 0.90457207 -0.29496142
-0.72113764 0.97054827 -0.28658128
-0.70837456 0.95337105 -0.25246701
-0.71284169 0.95938313 -0.22512153
-0.71139091 0.9574306 -0.19603682
-0.70621973 0.95047092 -0.16640998
-0.71841919 0.96688968 -0.1407827
-0.70985037 0.95535725 -0.11109442
-0.81176078 1.092514 -0.095152423
-4.4298182 5.9619026 -0.34578413
-8.852684 11.914449 -0.34511378
-1.4062102 1.8925581 0.05495451
-1.3879994 1.868049 0.10847805
-0.52541065 0.68883765 -0.29270306
-0.5699597 0.74724358 -0.29333633
-0.62881094 0.82440025 -0.29732779
-0.68534154 0.89851451 -0.29577678
-0.73281282 0.96075153 -0.28639057
-0.73322153 0.96128738 -0.25698799
-0.72549218 0.95115381 -0.2253163
-0.7231524 0.94808626 -0.1959725
-0.7244783 0.94982457 -0.16788073
-0.72964698 0.95660096 -0.14061126
-0.7217012 0.94618368 -0.11107565
-0.81265819 1.0654324 -0.09367758
-4.4958758 5.8943009 -0.34511945
-9.0065775 11.808041 -0.34528929
-1.4210867 1.8631104 0.054614712
-1.387861 1.8195502 0.10666811
-0.54525441 0.69648951 -0.29884833
-0.59235215 0.75665051 -0.29993343
-0.63393909 0.80977231 -0.29490775
-0.69496059 0.88771915 -0.29508045
-0.7397508 0.94493258 -0.28442928
-0.73897892 0.94394666 -0.25481966
-0.73396236 0.93753862 -0.22426262
-0.73974133 0.94492048 -0.19722793
-0.7432642 0.94942051 -0.16945013
-0.73430932 0.93798178 -0.13922255
-0.73810607 0.94283164 -0.11176437
-0.83131003 1.0618873 -0.09427879
-4.5759878 5.845212 -0.34559163
-9.1617584 11.70292 -0.3455615
-1.4453834 1.8462838 0.054650657
-1.3852785 1.7695078 0.10474876
-0.54550081 0.67901331 -0.2942737
-0.593481 0.73873681 -0.29577139
-0.63911426 0.7955389 -0.29263183
-0.70666921 0.879628 -0.29532543
-0.75294185 0.93722606 -0.28494087
-0.74872643 0.93197888 -0.25411391
-0.74546331 0.92791712 -0.22418877
-0.74846536 0.93165392 -0.19641048
-0.75809264 0.94363749 -0.17010827
-0.75931776 0.94516242 -0.1416963
-0.75355506 0.93798929 -0.11230628
-0.84849823 1.05617 -0.094712295
-4.65165 5.7901516 -0.34577197
-9.2968073 11.572221 -0.34513167
-1.4678745 1.8271401 0.054626789
-1.3901619 1.7304071 0.10346218
-0.55884635 0.67796165 -0.29684418
-0.59757721 0.72494775 -0.29324013
-0.66144943 0.80243403 -0.29820833
-0.71249968 0.86436534 -0.29319015
-0.77100402 0.93533963 -0.28729627
-0.77114779 0.93551409 -0.25770506
-0.76377505 0.92656982 -0.22616898
-0.77312499 0.93791264 -0.1997665
-0.76000124 0.92199165 -0.16791809
-0.77574408 0.94108999 -0.14253892
-0.77018374 0.93434453 -0.11302212
-0.86166561 1.0453253 -0.094705276
-4.7183313 5.72402 -0.34534347
-9.4469776 11.460553 -0.34532171
-1.4945549 1.8131117 0.054765698
-1.4052211 1.7047369 0.10297716
-1.3865508 1.6820872 0.15252025
-0.56536913 0.66854268 -0.29581377
-0.61742234 0.73009503 -0.29844338
-0.66706944 0.78880215 -0.29624045
-0.72602445 0.8585158 -0.29428369
-0.77442956 0.91575432 -0.2842533
-0.77825898 0.92028254 -0.25618854
-0.78768164 0.93142474 -0.22975689
-0.77564484 0.91719139 -0.19741772
-0.7949068 0.93996841 -0.17300139
-0.78328878 0.92623025 -0.14177091
-0.77927965 0.92148948 -0.11264519
-0.87777829 1.037963 -0.095032141
-4.7976942 5.6732197 -0.34589604
-9.5902891 11.34041 -0.34531301
-1.5087632 1.7840955 0.054458801
-1.3974767 1.6525006 0.10087675
-1.3880163 1.6413138 0.15039609
-0.56488645 0.6511628 -0.29124793
-0.62144375 0.71635824 -0.29600349
-0.67704839 0.78045553 -0.29628417
-0.73244292 0.84431058 -0.29255271
-0.80129933 0.92368364 -0.28982362
-0.79195601 0.91291326 -0.25689283
-0.79102176 0.91183633 -0.22736397
-0.79091066 0.91170824 -0.19836545
-0.79723936 0.91900355 -0.17097692
-0.79801756 0.9199006 -0.14232889
-0.79172462 0.91264653 -0.11277397
-0.8831616 1.0180489 -0.094219603
-4.8724303 5.6166077 -0.34615776
-9.7404222 11.228099 -0.34560052
-1.528012 1.7613888 0.0543487
-1.3945053 1.6074913 0.099193238
-1.3910306 1.6034857 0.14852311
-0.57806963 0.64965034 -0.29380393
-0.62906677 0.70696241 -0.29537079
-0.67310202 0.75645041 -0.29036576
-0.73976856 0.83137202 -0.29127416
-0.81844497 0.91979074 -0.29181272
-0.81038487 0.91073257 -0.25913018
-0.8022117 0.90154737 -0.22729924
-0.8044703 0.90408564 -0.19889525
-0.8056646 0.90542781 -0.17032517
-0.81885755 0.92025441 -0.1439676
-0.81688178 0.91803396 -0.11470165
-0.89493608 1.0057535 -0.094117172
-4.9416947 5.5536113 -0.34608287
-9.8748703 11.097648 -0.34538525
-1.5522761 1.7444901 0.054426089
-1.4013814 1.5749105 0.098263904
-1.398016 1.5711284 0.14714491
-0.58414602 0.64006561 -0.29277265
-0.63420165 0.69491297 -0.29364982
-0.69390357 0.76033014 -0.29518563
-0.75959152 0.83230633 -0.29492921
-0.82941383 0.90881264 -0.29162019
-0.82733488 0.90653467 -0.26087931
-0.82983947 0.90927899 -0.23186471
-0.81839913 0.89674354 -0.19953135
-0.82359105 0.90243244 -0.171699
-0.82252455 0.90126383 -0.14260569
-0.82899773 0.90835673 -0.11478772
-0.91340953 1.0008491 -0.094727039
-5.0050063 5.4841294 -0.34565306
-10.011026 10.96937 -0.34528887
-1.5806406 1.7319534 0.054651599
-1.3951862 1.5287457 0.096472032
-1.3953841 1.5289626 0.14482999
-0.58997041 0.63032156 -0.29169062
-0.64857417 0.69293356 -0.29624102
-0.70061451 0.74853325 -0.29400748
-0.76525325 0.81759298 -0.29310691
-0.83688778 0.89412695 -0.29026636
-0.84296608 0.900621 -0.26221138
-0.83456963 0.89165026 -0.23003097
-0.83490103 0.89200437 -0.2008002
-0.84522033 0.90302938 -0.1738238
-0.84415007 0.90188593 -0.14437461
-0.84567714 0.90351748 -0.11551272
-0.93289268 0.99669814 -0.095438428
-5.0693951 5.4161177 -0.34536242
-10.159418 10.854275 -0.34566545
-1.6000173 1.7094508 0.05457297
-1.4094908 1.5058933 0.096142337
-1.3958004 1.4912665 0.14291282
-0.60358804 0.62881047 -0.29448521
-0.65371436 0.68103141 -0.29464844
-0.71325779 0.74306303 -0.29536322
-0.77884144 0.81138724 -0.29437473
-0.85382855 0.88950783 -0.29223403
-0.83856499 0.87360644 -0.25740016
-0.85581076 0.89157289 -0.23277272
-0.84844059 0.88389474 -0.2013637
-0.86505109 0.90119934 -0.17555438
-0.85776305 0.89360678 -0.14476685
-0.86346012 0.89954191 -0.1163853
-0.92853111 0.96733201 -0.093738645
-5.138926 5.3536687 -0.34547922
-10.293835 10.723988 -0.34561691
-1.393363 1.451588 0.093788005
-1.3897954 1.4478713 0.14042012
-0.62084955 0.6307016 -0.29900846
-0.66467333 0.67522079 -0.29573223
-0.72635931 0.73788565 -0.29691735
-0.7843712 0.79681808 -0.29264918
-0.86454904 0.87826824 -0.29209489
-0.87715399 0.89107323 -0.26577991
-0.86926752 0.88306159 -0.23338988
-0.87124038 0.88506579 -0.2041136
-0.8692835 0.88307786 -0.17414282
-0.86774743 0.88151741 -0.14456706
-0.85920888 0.87284338 -0.11432175
-0.95365596 0.96878916 -0.095036
-5.2049403 5.2875357 -0.34541368
-10.430643 10.596163 -0.34570292
-1.4036552 1.4259293 0.093264781
-1.3814899 1.4034122 0.13778453
-0.62290889 0.61705643 -0.29623461
-0.6769442 0.67058402 -0.29741126
-0.73917627 0.73223144 -0.29836389
-0.80403554 0.79648131 -0.29622048
-0.88402665 0.87572086 -0.29492652
-0.86976391 0.86159211 -0.26023269
-0.87994224 0.87167484 -0.23329042
-0.87517822 0.86695558 -0.20246252
-0.87826973 0.87001801 -0.17373456
-0.88712966 0.87879473 -0.14594097
-0.88528329 0.8769657 -0.11631253
-0.94623876 0.93734848 -0.093113221
-5.2717905 5.22226 -0.34545866
-10.561068 10.461842 -0.34563199
-1.3939899 1.3808929 0.091459967
-1.3891931 1.3761411 0.13681367
-0.63238287 0.6108585 -0.29705846
-0.68382049 0.66054529 -0.29675445
-0.72970819 0.70487118 -0.29093641
-0.81700128 0.78919303 -0.2973125
-0.89991176 0.86928153 -0.29655075
-0.90284085 0.8721109 -0.26682237
-0.89933002 0.86871958 -0.23551165
-0.89220405 0.86183614 -0.2038745
-0.89989412 0.86926448 -0.17583297
-0.90063071 0.86997598 -0.14634824
-0.88581294 0.85566258 -0.11495738
-0.97630042 0.94307017 -0.094895296
-5.3406305 5.1588521 -0.34568542
-10.685452 10.321752 -0.3454217
-1.3947017 1.3472303 0.09038645
-1.3881847 1.3409351 0.13504072
-0.63748401 0.60045499 -0.29587948
-0.68173802 0.64213842 -0.29231852
-0.74206823 0.6989643 -0.29233202
-0.81707156 0.76961094 -0.29378814
-0.90378267 0.85128534 -0.29427055
-0.90976256 0.85691786 -0.26565796
-0.90605587 0.85342652 -0.23444016
-0.91361892 0.86055028 -0.20627543
-0.90655017 0.85389215 -0.1750187
-0.91538972 0.8622182 -0.14697061
-0.91063857 0.85774302 -0.1167682
-0.98317277 0.92606395 -0.094422333
-5.3964829 5.0830216 -0.34513026
-10.815072 10.186866 -0.34543779
-1.4066535 1.3249463 0.090072632
-1.3846321 1.304204 0.13308698
-0.6495195 0.59653705 -0.29795548
-0.69952422 0.64246285 -0.29645258
-0.76100272 0.69892645 -0.29630053
-0.83376074 0.76574945 -0.29629835
-0.91329437 0.83879536 -0.29390517
-0.91758275 0.84273392 -0.26482177
-0.92778921 0.85210788 -0.23726846
-0.9196099 0.84459579 -0.20521058
-0.92128599 0.84613514 -0.17579266
-0.91897678 0.84401429 -0.14582859
-0.93699491 0.86056268 -0.11874886
-0.99846756 0.91702086 -0.094774723
-1.4110115 1.2959129 -0.089190066
-1.4088013 1.293883 -0.04447376
-1.39522 1.2814095 5.4081294e-05
-1.3975443 1.2835442 0.044226795
-1.4060196 1.2913282 0.088983759
-1.3928802 1.2792606 0.13232096
-0.65889162 0.59002411 -0.29882285
-0.70935827 0.63521606 -0.29720682
-0.77366048 0.69279736 -0.29780862
-0.83255255 0.745534 -0.29250959
-0.93507749 0.83734304 -0.29749843
-0.94257158 0.84405386 -0.26894495
-0.94093096 0.84258467 -0.23789705
-0.94571441 0.84686816 -0.20863959
-0.9403764 0.8420881 -0.17739797
-0.94528908 0.84648728 -0.14830077
-0.94033992 0.84205544 -0.11781964
-1.014149 0.90814996 -0.095170192
-1.3977585 1.2516645 -0.087349147
-1.404811 1.2579799 -0.043844245
-1.4157895 1.2678109 5.4255492e-05
-1.4020743 1.2555293 0.043866351
-1.4075781 1.2604578 0.088070914
-1.394365 1.2486256 0.13095796
-0.66846204 0.58359617 -0.29980665
-0.70940089 0.61933756 -0.29393381
-0.77499151 0.67660099 -0.29501796
-0.85029185 0.74234146 -0.29543447
-0.92978722 0.81174433 -0.29254004
-0.95927083 0.83748484 -0.27067927
-0.95679134 0.83532012 -0.23922868
-0.95809841 0.83646125 -0.2090314
-0.95961982 0.83778954 -0.17902382
-0.96716762 0.84437907 -0.15005317
-0.96031016 0.8383922 -0.11898962
-1.0252358 0.89507508 -0.095145367
-1.4193908 1.2391894 -0.087718911
-1.4179896 1.2379661 -0.043765556
-1.4212284 1.2407937 5.3860898e-05
-1.4308225 1.2491697 0.044270147
-1.3863193 1.2103165 0.085780382
-1.3922006 1.2154511 0.12930699
-0.66113061 0.5626846 -0.29331741
-0.72092617 0.61357617 -0.29548445
-0.77376735 0.65854907 -0.29137212
-0.85091919 0.72421253 -0.29246068
-0.94544971 0.80466694 -0.29425663
-0.97204858 0.82730508 -0.27132371
-0.97301692 0.82812923 -0.24065919
-0.96799165 0.8238523 -0.20890993
-0.97636527 0.83097899 -0.1801814
-0.96539617 0.82164329 -0.1481614
-0.9735595 0.82859105 -0.11932902
-1.0318912 0.87823689 -0.0947292
-1.4362851 1.2224141 -0.087804735
-1.4332036 1.2197915 -0.043757588
-1.4308137 1.2177575 5.3638774e-05
-1.444976 1.229811 0.04422541
-1.4043258 1.1952138 0.085956484
-1.3933764 1.1858947 0.12801906
-0.66881579 0.55485702 -0.29360396
-0.71680319 0.59466791 -0.29070237
-0.78705639 0.65295076 -0.29325688
-0.87511337 0.72600377 -0.29761052
-0.96336055 0.7992146 -0.29667535
-0.99687725 0.82702041 -0.27532539
-0.99041718 0.82166106 -0.2423846
-0.99434507 0.8249197 -0.21233881
-0.98295307 0.81546879 -0.17948791
-0.98694986 0.81878453 -0.14987506
-0.99401164 0.82464308 -0.1205535
-1.0433336 0.86556119 -0.094771542
-1.4511019 1.2038503 -0.087776855
-1.4530785 1.20549 -0.043897454
-1.4512824 1.204 5.3833483e-05
-1.4550936 1.2071619 0.04406634
-1.4034392 1.1643087 0.084998086
-1.38951 1.1527529 0.12632017
-0.67800033 0.54821211 -0.29458207
-0.74108648 0.59922183 -0.29746687
-0.80659586 0.65219086 -0.29745373
-0.87463695 0.70720696 -0.29439664
-0.96277624 0.77847397 -0.29345334
-1.0004545 0.80893958 -0.27347839
-1.000351 0.80885577 -0.24230383
-1.0012825 0.80960894 -0.21162643
-1.0106734 0.81720227 -0.18265617
-1.0026631 0.81072539 -0.150699
-1.0125973 0.81875789 -0.12154755
-1.0452563 0.84516501 -0.09397202
-1.4692715 1.1880119 -0.087964043
-1.4823086 1.1985533 -0.044321042
-1.4846064 1.2004112 5.450457e-05
-1.4740233 1.1918541 0.0441816
-1.3952758 1.128181 0.083636649
-1.3897933 1.1237479 0.12504959
-0.68248689 0.53777039 -0.29356593
-0.74334955 0.58572751 -0.29539129
-0.80959171 0.63792348 -0.29557276
-0.88467091 0.6970827 -0.29479608
-0.9685908 0.76320797 -0.29227316
-1.0260857 0.80851156 -0.27767977
-1.0233074 0.8063224 -0.24538556
-1.0227869 0.80591214 -0.21400964
-1.0182335 0.80232435 -0.18218215
-1.0203511 0.80399287 -0.15182382
-1.0234681 0.806449 -0.12162383
-1.0722221 0.84486502 -0.095432311
-1.5134177 1.1925082 -0.089700907
-1.5049989 1.1858746 -0.044549458
-1.5027993 1.1841413 5.462073e-05
-1.5102998 1.1900514 0.044816218
-1.38907 1.0945276 0.082431965
-1.3907284 1.0958343 0.12388231
-0.69434655 0.5330826 -0.29575643
-0.75596035 0.5803864 -0.2974748
-0.82557088 0.63382971 -0.29846901
-0.89392233 0.68630636 -0.29497573
-0.98483741 0.75610614 -0.29427925
-1.0389776 0.79767215 -0.27842826
-1.0475589 0.80426043 -0.24875271
-1.0483891 0.80489779 -0.21722874
-1.0362127 0.79554933 -0.18359204
-1.0364988 0.79576904 -0.1527234
-1.0270621 0.78852403 -0.12086139
-1.0602081 0.81397176 -0.093443342
-5.8861408 4.5190682 -0.34547392
-11.79268 9.0537968 -0.34567288
-1.3941389 1.0703462 0.081926443
-1.3959599 1.0717443 0.12313641
-0.6950742 0.51986289 -0.29325476
-0.75339198 0.5634802 -0.29364875
-0.82212603 0.61488807 -0.29440099
-0.89595687 0.67010796 -0.29283947
-1.0040306 0.75093895 -0.2971653
-1.0457586 0.7821483 -0.27758408
-1.0398616 0.7777378 -0.24457999
-1.0619253 0.7942397 -0.21794389
-1.0532455 0.78774792 -0.1848377
-1.0573221 0.79079694 -0.15431215
-1.0566149 0.790268 -0.12315828
-1.0830737 0.81005722 -0.094552115
-5.9468961 4.4478283 -0.34572512
-11.898851 8.8994408 -0.34547278
-1.4091083 1.0539063 0.082019746
-1.3696048 1.0243608 0.11966436
-0.70557445 0.51399082 -0.29493079
-0.7631411 0.55592644 -0.29469678
-0.83478129 0.6081143 -0.29616722
-0.90439701 0.6588273 -0.29286334
-0.99351913 0.72375023 -0.29133371
-1.0671412 0.77738178 -0.2806392
-1.0567281 0.76979613 -0.24624759
-1.0790166 0.78603268 -0.21940285
-1.0736375 0.78211415 -0.18667319
-1.0568553 0.76988888 -0.15281703
-1.0696982 0.77924454 -0.12352974
-1.0905161 0.79440969 -0.094321057
-6.0015807 4.3719797 -0.34567633
-12.010592 8.7493725 -0.34549087
-1.4107262 1.0276736 0.040679973
-1.3990988 1.0192033 0.080683693
-1.3859216 1.0096042 0.1199697
-0.72519368 0.51443213 -0.30040008
-0.77444077 0.54936659 -0.29636541
-0.84156871 0.59698534 -0.29588479
-0.9196527 0.65237594 -0.29511991
-1.0207597 0.72409838 -0.29662433
-1.0798877 0.76604211 -0.28143224
-1.089366 0.7727657 -0.25156564
-1.0893822 0.77277726 -0.21951447
-1.0822252 0.76770031 -0.18647078
-1.0911107 0.77400339 -0.15634851
-1.0974418 0.77849448 -0.12559158
-1.1114186 0.78840929 -0.095262736
-6.0384831 4.2835307 -0.3446677
-12.114892 8.5939655 -0.3453508
-1.3876511 0.98436087 0.039653998
-1.3899051 0.98595977 0.079431243
-1.3839803 0.98175693 0.1187221
-0.72387332 0.4999148 -0.29722196
-0.78374612 0.54126364 -0.29729462
-0.84786975 0.5855481 -0.29548433
-0.91632074 0.63282108 -0.29147041
-1.024097 0.70725256 -0.29498276
-1.1098849 0.76649857 -0.28671175
-1.1034224 0.76203555 -0.25257573
-1.1102768 0.76676923 -0.22176166
-1.1049789 0.76311046 -0.18872063
-1.1013346 0.76059365 -0.15642872
-1.1060334 0.76383871 -0.12546413
-1.1164007 0.77099848 -0.094850093
-6.1062307 4.2170296 -0.3454763
-12.215134 8.4359045 -0.34515283
-1.4056761 0.97077525 0.039816607
-1.3934448 0.9623282 0.078934759
-1.4066248 0.97143042 0.1196058
-0.73889488 0.49666536 -0.300798
-0.79264021 0.53279155 -0.29809982
-0.86296481 0.58006191 -0.29817581
-0.93511599 0.62855995 -0.2949079
-1.0131719 0.68102711 -0.28934282
-1.1100665 0.74615699 -0.28430894
-1.114606 0.74920833 -0.25295612
-1.1191281 0.75224793 -0.22162002
-1.1240339 0.75554556 -0.19033508
-1.1191938 0.75229216 -0.15760738
-1.1015131 0.74040771 -0.12388394
